ply
format ascii 1.0
Comment Generated by Floating Hands
element vertex 1241
property double x
property double y
property double z
property uchar red
property uchar green
property uchar blue
end_header
-0.06157386 0.1066875 0.01973864 1 0 1
-0.06187925 0.1049512 0.02759384 1 0 1
-0.06155281 0.104002 0.03157456 1 0 1
-0.06050053 0.1040469 0.0307056 1 0 1
-0.05850824 0.1054959 0.02303987 1 0 1
-0.05670718 0.1067561 0.01633547 1 0 1
-0.05419176 0.1092347 0.003795869 1 0 1
-0.06831634 0.1084188 0.01271348 1 0 1
-0.06675412 0.1090392 0.008983957 1 0 1
-0.06663574 0.1080945 0.01296238 1 0 1
-0.06562147 0.1081323 0.01211748 1 0 1
-0.06529146 0.1073814 0.01513036 1 0 1
-0.06444164 0.1072241 0.01524544 1 0 1
-0.06359126 0.1070686 0.01535752 1 0 1
-0.06274033 0.106915 0.01546657 1 0 1
-0.06281497 0.1055589 0.02137714 1 0 1
-0.06163924 0.1058076 0.01954721 1 0 1
-0.06121222 0.1050506 0.02255397 1 0 1
-0.06104831 0.1038863 0.02749775 1 0 1
-0.0597317 0.1043439 0.02468933 1 0 1
-0.05816601 0.105215 0.01993627 1 0 1
-0.05663748 0.1060943 0.0151762 1 0 1
-0.05437795 0.1082125 0.004587437 1 0 1
-0.06819949 0.1077647 0.01156348 1 0 1
-0.06682026 0.108201 0.008799511 1 0 1
-0.06652555 0.1074412 0.01181079 1 0 1
-0.06551433 0.1074832 0.01096587 1 0 1
-0.06484926 0.1071248 0.01204624 1 0 1
-0.06434203 0.1065643 0.01408979 1 0 1
-0.06365711 0.106206 0.01516673 1 0 1
-0.06248899 0.1064597 0.01334332 1 0 1
-0.06257244 0.1050817 0.01924767 1 0 1
-0.06095057 0.1059546 0.01451717 1 0 1
-0.06024851 0.1056008 0.01558404 1 0 1
-0.05996853 0.1046281 0.01955245 1 0 1
-0.05923915 0.1042735 0.02061622 1 0 1
-0.05727917 0.1057891 0.01295942 1 0 1
-0.05603935 0.1062747 0.01013881 1 0 1
-0.05418015 0.1078107 0.002465708 1 0 1
-0.06808238 0.1071193 0.01041182 1 0 1
-0.06670557 0.1075673 0.007649546 1 0 1
-0.06641512 0.1067965 0.01065748 1 0 1
-0.06540691 0.1068426 0.009812608 1 0 1
-0.06440562 0.1068919 0.008963805 1 0 1
-0.06424218 0.1059131 0.01293242 1 0 1
-0.06323606 0.1059653 0.01207826 1 0 1
-0.06239555 0.105813 0.0121854 1 0 1
-0.06279391 0.1039959 0.02001524 1 0 1
-0.06116644 0.1048868 0.01528923 1 0 1
-0.06046048 0.1045282 0.01635545 1 0 1
-0.06017747 0.1035394 0.02032058 1 0 1
-0.05930429 0.1033909 0.02041622 1 0 1
-0.05761389 0.1045135 0.01470175 1 0 1
-0.05636527 0.105009 0.01188429 1 0 1
-0.05436736 0.1067868 0.003249993 1 0 1
-0.06666859 0.1079279 0.00253314 1 0 1
-0.06532039 0.1083928 -0.0002312213 1 0 1
-0.06452722 0.1082399 -0.0001161175 1 0 1
-0.0635595 0.1082973 -0.0009661909 1 0 1
-0.06276897 0.1081485 -0.0008571546 1 0 1
-0.06281031 0.106951 0.004066151 1 0 1
-0.06216269 0.1065914 0.005135965 1 0 1
-0.061666 0.1060206 0.007168243 1 0 1
-0.06208506 0.1041763 0.01498859 1 0 1
-0.06138327 0.1038125 0.01605621 1 0 1
-0.06052574 0.1036626 0.01615595 1 0 1
-0.06038736 0.1024441 0.02108347 1 0 1
-0.05908949 0.1029389 0.01827962 1 0 1
-0.05713171 0.1045159 0.01063546 1 0 1
-0.05589693 0.105025 0.007818818 1 0 1
-0.05365347 0.1072723 -0.0027447 1 0 1
-0.06506475 0.1090083 -0.006294704 1 0 1
-0.06411246 0.1090687 -0.007140792 1 0 1
-0.06316708 0.1091323 -0.007990682 1 0 1
-0.06137342 0.1080581 -0.004787597 1 0 1
-0.06075949 0.1077006 -0.003723309 1 0 1
-0.06045606 0.1069129 -0.0007338615 1 0 1
-0.06152917 0.1041798 0.01093126 1 0 1
-0.06099406 0.1035979 0.01296034 1 0 1
-0.06014739 0.1034497 0.01305851 1 0 1
-0.05958869 0.1028675 0.01508428 1 0 1
-0.0587335 0.1027216 0.01517741 1 0 1
-0.05637432 0.1049881 0.004640755 1 0 1
-0.05569258 0.1046329 0.005690073 1 0 1
-0.05345318 0.1069229 -0.004864556 1 0 1
-0.06624287 0.1069469 -0.0007248071 1 0 1
-0.06472125 0.1076508 -0.004445565 1 0 1
-0.06287237 0.1087931 -0.01009362 1 0 1
-0.06193639 0.1066228 -0.002088915 1 0 1
-0.06147444 0.1060408 -6.216698E-05 1 0 1
-0.0616352 0.1045817 0.005814043 1 0 1
-0.06284091 0.1015785 0.01843434 1 0 1
-0.06242793 0.1007631 0.02142846 1 0 1
-0.06154699 0.1006085 0.02153036 1 0 1
-0.06109905 0.09979092 0.02452221 1 0 1
-0.06034651 0.09941591 0.02558393 1 0 1
-0.05807928 0.1014939 0.01602652 1 0 1
-0.05695255 0.1017978 0.01418266 1 0 1
-0.05428747 0.1047962 0.0007434007 1 0 1
-0.06612215 0.1063661 -0.001875531 1 0 1
-0.06442031 0.1073039 -0.006552045 1 0 1
-0.06166462 0.1062729 -0.004202306 1 0 1
-0.06104681 0.1059065 -0.003139851 1 0 1
-0.06169979 0.1037581 0.005614198 1 0 1
-0.06322117 0.1002585 0.02014663 1 0 1
-0.06264878 0.09965419 0.02217602 1 0 1
-0.06250649 0.09837472 0.02709317 1 0 1
-0.06232601 0.09709063 0.03201144 1 0 1
-0.06140213 0.0969324 0.03211138 1 0 1
-0.05869345 0.09972363 0.01967299 1 0 1
-0.05821803 0.09889546 0.02265539 1 0 1
-0.05525518 0.102397 0.007302142 1 0 1
-0.06749257 0.1040212 0.004629744 1 0 1
-0.06539725 0.105417 -0.001953974 1 0 1
-0.06281699 0.1074939 -0.01142287 1 0 1
-0.06182288 0.1065329 -0.008336498 1 0 1
-0.06306871 0.1036873 0.003282657 1 0 1
-0.06242075 0.1033113 0.004347855 1 0 1
-0.06256554 0.1018028 0.01021486 1 0 1
-0.06375935 0.0986973 0.02281295 1 0 1
-0.06287063 0.09853891 0.02291828 1 0 1
-0.06242789 0.09769667 0.02590672 1 0 1
-0.06181693 0.09708165 0.02793214 1 0 1
-0.05991852 0.09853477 0.02128985 1 0 1
-0.05738473 0.1011513 0.009822369 1 0 1
-0.05641249 0.1012424 0.008943168 1 0 1
-0.05466744 0.102727 0.002276032 1 0 1
-0.06849418 0.1020754 0.009206284 1 0 1
-0.06674356 0.1030414 0.004545134 1 0 1
-0.06467136 0.10447 -0.002038875 1 0 1
-0.06352856 0.1047729 -0.003843951 1 0 1
-0.06343064 0.103711 9.616517E-05 1 0 1
-0.06380608 0.1019583 0.006914075 1 0 1
-0.06265036 0.1022643 0.00510206 1 0 1
-0.06215098 0.1016535 0.007124436 1 0 1
-0.06304621 0.09896266 0.01778804 1 0 1
-0.06171712 0.09950231 0.01500881 1 0 1
-0.06070842 0.0995831 0.01414618 1 0 1
-0.05912524 0.100599 0.009433543 1 0 1
-0.05757929 0.1016233 0.004713847 1 0 1
-0.05607064 0.1026557 -1.269088E-05 1 0 1
-0.05553765 0.1020518 0.001993207 1 0 1
-0.05329561 0.1045091 -0.008522417 1 0 1
-0.06968629 0.09986408 0.01472527 1 0 1
-0.06827786 0.1003844 0.0119836 1 0 1
-0.06599356 0.1020637 0.004453914 1 0 1
-0.0646477 0.1026 0.001697313 1 0 1
-0.06366792 0.1026784 0.0008495349 1 0 1
-0.06303166 0.1022945 0.001913675 1 0 1
-0.06090664 0.1040115 -0.005649261 1 0 1
-0.0601274 0.1038686 -0.005551884 1 0 1
-0.05950462 0.1034926 -0.004497949 1 0 1
-0.05764806 0.1050005 -0.01112373 1 0 1
-0.06526143 0.1045938 -0.008399558 1 0 1
-0.1894678 -0.2071355 0.4815535 1 0 1
-0.1876549 -0.2105246 0.487122 1 0 1
-0.1834183 -0.2084437 0.4822743 1 0 1
-0.1803901 -0.2090871 0.4826196 1 0 1
-0.1927989 -0.2091159 0.4797116 1 0 1
-0.1897773 -0.2097818 0.4800858 1 0 1
-0.1879661 -0.2131923 0.4856423 1 0 1
-0.1849168 -0.2138491 0.4859993 1 0 1
-0.1806982 -0.2117372 0.4811491 1 0 1
-0.1895364 -0.2039301 0.4635713 1 0 1
-0.1870631 -0.213082 0.4789712 1 0 1
-0.1866825 -0.199552 0.449206 1 0 1
-0.1852295 -0.2034446 0.4555911 1 0 1
-0.1843465 -0.2163716 0.4778343 1 0 1
-0.1844503 -0.196469 0.4374636 1 0 1
-0.1830457 -0.2003758 0.4438289 1 0 1
-0.1836186 -0.2089739 0.4587882 1 0 1
-0.1845346 -0.198473 0.4351825 1 0 1
-0.1825135 -0.2009902 0.438961 1 0 1
-0.1814783 -0.205867 0.4470229 1 0 1
-0.09158328 -0.21095 0.4339432 1 0 1
-0.08219783 -0.2269138 0.4591974 1 0 1
-0.06038398 -0.2195936 0.4417781 1 0 1
-0.1848306 -0.2009379 0.4337502 1 0 1
-0.1821868 -0.2020464 0.4349541 1 0 1
-0.1805538 -0.205526 0.4404286 1 0 1
-0.1804752 -0.2128173 0.4527497 1 0 1
-0.09798281 -0.2145532 0.4358306 1 0 1
-0.0946396 -0.2125031 0.4315808 1 0 1
-0.09204 -0.2144106 0.4342304 1 0 1
-0.08340614 -0.2156311 0.4343514 1 0 1
-0.08118004 -0.2205104 0.4421481 1 0 1
-0.06298459 -0.2157343 0.429991 1 0 1
-0.0601191 -0.2160777 0.4299485 1 0 1
-0.05725307 -0.2164142 0.4298967 1 0 1
-0.05442391 -0.2172468 0.4306993 1 0 1
-0.05145207 -0.2160605 0.4280387 1 0 1
-0.04856265 -0.2158722 0.4270962 1 0 1
-0.04565481 -0.2151722 0.4252816 1 0 1
-0.04267469 -0.2124457 0.420006 1 0 1
-0.1849151 -0.2029201 0.4314553 1 0 1
-0.1824836 -0.2045098 0.4335093 1 0 1
-0.1810572 -0.2084889 0.4398253 1 0 1
-0.1795749 -0.212473 0.4461383 1 0 1
-0.1080974 -0.2211617 0.4435891 1 0 1
-0.1041335 -0.2166454 0.4350727 1 0 1
-0.100948 -0.2155951 0.4325746 1 0 1
-0.0977847 -0.2145346 0.4300665 1 0 1
-0.0947361 -0.2139629 0.4284104 1 0 1
-0.09187923 -0.2143813 0.4284681 1 0 1
-0.08902131 -0.214793 0.4285166 1 0 1
-0.08616248 -0.2151979 0.4285561 1 0 1
-0.08299497 -0.2135911 0.4251387 1 0 1
-0.08051492 -0.2164893 0.4294691 1 0 1
-0.0777185 -0.2173769 0.4303429 1 0 1
-0.07465266 -0.2162473 0.4277599 1 0 1
-0.07203861 -0.2186313 0.431201 1 0 1
-0.06922036 -0.219501 0.4320472 1 0 1
-0.06607259 -0.217339 0.4277129 1 0 1
-0.06311199 -0.2166798 0.4259554 1 0 1
-0.06021206 -0.2165173 0.4250507 1 0 1
-0.05727762 -0.2158412 0.4232751 1 0 1
-0.054434 -0.2161691 0.4232142 1 0 1
-0.05148797 -0.2149704 0.4205596 1 0 1
-0.04868523 -0.2157904 0.4213421 1 0 1
-0.04584807 -0.2160972 0.4212541 1 0 1
-0.04292158 -0.2143657 0.4177124 1 0 1
-0.04006264 -0.2136409 0.4158849 1 0 1
-0.185212 -0.2053696 0.4300057 1 0 1
-0.1821548 -0.2055242 0.4295002 1 0 1
-0.1801277 -0.2080795 0.4332445 1 0 1
-0.1124323 -0.2281928 0.4505889 1 0 1
-0.1073034 -0.2186634 0.4335113 1 0 1
-0.1037923 -0.2161109 0.42845 1 0 1
-0.100528 -0.2145469 0.425097 1 0 1
-0.09777739 -0.2154802 0.4260316 1 0 1
-0.09464646 -0.2143986 0.4235189 1 0 1
-0.09189374 -0.2153185 0.4244353 1 0 1
-0.08921731 -0.2167363 0.4262026 1 0 1
-0.08636192 -0.2171416 0.4262413 1 0 1
-0.08311913 -0.215017 0.4219713 1 0 1
-0.08057499 -0.2174266 0.4254312 1 0 1
-0.07785977 -0.2188224 0.4271623 1 0 1
-0.07493133 -0.2186949 0.4263044 1 0 1
-0.07207169 -0.2190663 0.4262973 1 0 1
-0.06938461 -0.2209525 0.4288608 1 0 1
-0.06624232 -0.2187736 0.424536 1 0 1
-0.0631884 -0.2170912 0.4210622 1 0 1
-0.06025723 -0.2164156 0.4192994 1 0 1
-0.05738335 -0.2162403 0.4183873 1 0 1
-0.0545167 -0.2160576 0.4174665 1 0 1
-0.05162302 -0.2153572 0.4156773 1 0 1
-0.04886633 -0.21669 0.4173171 1 0 1
-0.04604046 -0.2169961 0.4172289 1 0 1
-0.04314643 -0.2157619 0.4145543 1 0 1
-0.1859357 -0.2087799 0.4302445 1 0 1
-0.182661 -0.2084499 0.4288915 1 0 1
-0.1076997 -0.2216288 0.4328931 1 0 1
-0.104182 -0.2190579 0.427843 1 0 1
-0.101013 -0.2179866 0.4253549 1 0 1
-0.0981575 -0.2184202 0.4254296 1 0 1
-0.09511436 -0.2178357 0.4237797 1 0 1
-0.09226453 -0.2182547 0.423836 1 0 1
-0.0893282 -0.2181602 0.4230253 1 0 1
-0.08639867 -0.2180577 0.4222053 1 0 1
-0.08339831 -0.2174395 0.4205183 1 0 1
-0.08056013 -0.2178294 0.4205379 1 0 1
-0.07786095 -0.2192305 0.4222642 1 0 1
-0.07501336 -0.2196079 0.4222657 1 0 1
-0.07228915 -0.2209986 0.4239738 1 0 1
-0.06937402 -0.2208531 0.4230991 1 0 1
-0.0664118 -0.2201887 0.4213574 1 0 1
-0.06336378 -0.2184928 0.4178912 1 0 1
-0.06048581 -0.2183221 0.4169896 1 0 1
-0.05765751 -0.2186563 0.4169368 1 0 1
-0.0547901 -0.2184708 0.4160174 1 0 1
-0.05193004 -0.2182778 0.4150892 1 0 1
-0.04916978 -0.2196184 0.4167243 1 0 1
-0.04633964 -0.2199256 0.4166354 1 0 1
-0.04348615 -0.2197116 0.4156804 1 0 1
-0.0406974 -0.221035 0.4172877 1 0 1
-0.1870884 -0.2131706 0.4321602 1 0 1
-0.1837973 -0.2128386 0.430812 1 0 1
-0.1111021 -0.2246398 0.4330134 1 0 1
-0.1070059 -0.2195286 0.4237089 1 0 1
-0.1038364 -0.2184549 0.4212351 1 0 1
-0.1006892 -0.2173709 0.4187515 1 0 1
-0.0981493 -0.2193271 0.4213916 1 0 1
-0.0952104 -0.2192442 0.4206006 1 0 1
-0.09245772 -0.2201724 0.4215117 1 0 1
-0.08935282 -0.2190545 0.4189907 1 0 1
-0.08651619 -0.2194587 0.4190277 1 0 1
-0.08321025 -0.2167886 0.4139205 1 0 1
-0.08054343 -0.2181996 0.4156511 1 0 1
-0.0778603 -0.219606 0.4173728 1 0 1
-0.07516065 -0.2210078 0.4190854 1 0 1
-0.07244463 -0.2224049 0.420789 1 0 1
-0.06965371 -0.2232834 0.4216274 1 0 1
-0.06652636 -0.2210703 0.4173217 1 0 1
-0.0634374 -0.2188455 0.4130072 1 0 1
-0.06052745 -0.2181551 0.4112515 1 0 1
-0.0576325 -0.2174562 0.4094872 1 0 1
-0.05479166 -0.217265 0.4085699 1 0 1
-0.05199328 -0.2175829 0.4084993 1 0 1
-0.04931926 -0.2199622 0.4118412 1 0 1
-0.04653167 -0.2207859 0.4126076 1 0 1
-0.04382949 -0.2236753 0.4167852 1 0 1
-0.1863211 -0.2131716 0.426444 1 0 1
-0.182838 -0.2123393 0.424251 1 0 1
-0.1107124 -0.2240429 0.4263949 1 0 1
-0.1071828 -0.2214421 0.4213769 1 0 1
-0.1040157 -0.2203588 0.4189084 1 0 1
-0.1008709 -0.2192651 0.4164301 1 0 1
-0.09833571 -0.2212316 0.4190634 1 0 1
-0.09521193 -0.220121 0.4165663 1 0 1
-0.09238082 -0.2205388 0.4166208 1 0 1
-0.08929 -0.2194095 0.4141048 1 0 1
-0.08638625 -0.2192982 0.4132873 1 0 1
-0.08325403 -0.2176355 0.409899 1 0 1
-0.08045036 -0.2180221 0.4099172 1 0 1
-0.07764574 -0.2184021 0.4099263 1 0 1
-0.07510735 -0.2208399 0.413342 1 0 1
-0.07241126 -0.2222419 0.415041 1 0 1
-0.06952201 -0.2220877 0.4141692 1 0 1
-0.06652982 -0.2208905 0.4115809 1 0 1
-0.06356037 -0.2196837 0.4089838 1 0 1
-0.06056648 -0.2179488 0.4055244 1 0 1
-0.0577333 -0.2177607 0.4046175 1 0 1
-0.05498619 -0.218604 0.4054091 1 0 1
-0.05215978 -0.2184017 0.4044847 1 0 1
-0.04946707 -0.2202734 0.406965 1 0 1
-0.04680583 -0.2231826 0.4111422 1 0 1
-0.0440814 -0.2255681 0.414456 1 0 1
-0.1864071 -0.2151067 0.4241107 1 0 1
-0.1123425 -0.2193538 0.4137257 1 0 1
-0.1098635 -0.2213498 0.4163868 1 0 1
-0.1065901 -0.2197505 0.4130814 1 0 1
-0.103877 -0.2207086 0.4140225 1 0 1
-0.1008484 -0.2201179 0.4124005 1 0 1
-0.0984241 -0.2226083 0.4158783 1 0 1
-0.09521221 -0.2209719 0.4125348 1 0 1
-0.09248301 -0.2219049 0.4134401 1 0 1
-0.08922522 -0.2197321 0.4092261 1 0 1
-0.0863364 -0.219616 0.4084097 1 0 1
-0.08329672 -0.2184566 0.4058806 1 0 1
-0.08065421 -0.2198791 0.4076017 1 0 1
-0.07778218 -0.2197404 0.4067583 1 0 1
-0.07518566 -0.2216718 0.4093135 1 0 1
-0.07243846 -0.2225596 0.4101559 1 0 1
-0.06962344 -0.2229213 0.4101375 1 0 1
-0.06669682 -0.2222344 0.4084065 1 0 1
-0.06368218 -0.2204961 0.4049634 1 0 1
-0.06088861 -0.2208347 0.4049184 1 0 1
-0.05805079 -0.2206445 0.404013 1 0 1
-0.05526002 -0.2209695 0.4039504 1 0 1
-0.05239697 -0.2202412 0.4021761 1 0 1
-0.04967703 -0.2215994 0.4037985 1 0 1
-0.04696906 -0.2234768 0.4062628 1 0 1
-0.1153261 -0.2207564 0.4112809 1 0 1
-0.1119197 -0.2186454 0.4071527 1 0 1
-0.1092363 -0.2196168 0.4081081 1 0 1
-0.1066545 -0.221099 0.4099039 1 0 1
-0.1038427 -0.221543 0.4099928 1 0 1
-0.1011325 -0.2224979 0.410922 1 0 1
-0.09870944 -0.2250023 0.4143909 1 0 1
-0.09549571 -0.2233536 0.4110549 1 0 1
-0.09231193 -0.2216935 0.4077094 1 0 1
-0.08907145 -0.219502 0.4035046 1 0 1
-0.08603507 -0.2183397 0.4009898 1 0 1
-0.08294199 -0.216646 0.3976162 1 0 1
-0.08025587 -0.21755 0.3984826 1 0 1
-0.07770392 -0.2194929 0.4010398 1 0 1
-0.07512777 -0.2214322 0.4035881 1 0 1
-0.07240014 -0.2223216 0.4044281 1 0 1
-0.06966402 -0.2232053 0.405259 1 0 1
-0.06686361 -0.223559 0.4052312 1 0 1
-0.06380302 -0.2212825 0.400946 1 0 1
-0.06106877 -0.2221458 0.4017504 1 0 1
-0.05832624 -0.2230033 0.4025457 1 0 1
-0.05545475 -0.2222767 0.4007836 1 0 1
-0.05256217 -0.221015 0.3981636 1 0 1
-0.04995149 -0.2239602 0.4023295 1 0 1
-0.04727276 -0.2263756 0.4056362 1 0 1
-0.1106632 -0.2142621 0.3946673 1 0 1
-0.1083746 -0.2167867 0.3981589 1 0 1
-0.1059428 -0.21879 0.4007957 1 0 1
-0.1031659 -0.2192293 0.4008828 1 0 1
-0.1005938 -0.2207039 0.4026556 1 0 1
-0.09790577 -0.2216528 0.4035725 1 0 1
-0.09511373 -0.222074 0.4036332 1 0 1
-0.09213811 -0.221443 0.4019898 1 0 1
-0.08908962 -0.2202798 0.3994896 1 0 1
-0.08606347 -0.2191066 0.3969803 1 0 1
-0.08305988 -0.2179235 0.3944619 1 0 1
-0.08023021 -0.2177805 0.3936301 1 0 1
-0.07747924 -0.2181553 0.3936372 1 0 1
-0.07493129 -0.2201017 0.3961788 1 0 1
-0.07216708 -0.220465 0.3961684 1 0 1
-0.06958254 -0.2224028 0.3986923 1 0 1
-0.06686139 -0.2232818 0.3995118 1 0 1
-0.06381804 -0.2209871 0.3952366 1 0 1
-0.06095838 -0.2202664 0.3934959 1 0 1
-0.05815815 -0.2200664 0.3925943 1 0 1
-0.05528419 -0.2187998 0.3899893 1 0 1
-0.0524698 -0.2180539 0.3882234 1 0 1
-0.0498343 -0.2199513 0.3906853 1 0 1
-0.04720378 -0.2223753 0.3939846 1 0 1
-0.1128303 -0.2124674 0.3871841 1 0 1
-0.1108248 -0.216049 0.3923633 1 0 1
-0.1080812 -0.2164972 0.3924662 1 0 1
-0.1060033 -0.2200772 0.3976306 1 0 1
-0.1032338 -0.2205162 0.3977167 1 0 1
-0.1007734 -0.2225212 0.4003298 1 0 1
-0.09789044 -0.2224239 0.3995531 1 0 1
-0.09520546 -0.2233697 0.4004584 1 0 1
-0.0922365 -0.2227318 0.3988183 1 0 1
-0.08928215 -0.222085 0.3971692 1 0 1
-0.08617458 -0.2203751 0.3938198 1 0 1
-0.08317728 -0.2191818 0.3913069 1 0 1
-0.0802786 -0.218507 0.3896308 1 0 1
-0.07746693 -0.2183522 0.3887916 1 0 1
-0.07486714 -0.2197778 0.3904807 1 0 1
-0.07205783 -0.2196094 0.3896241 1 0 1
-0.06949749 -0.2215547 0.3921413 1 0 1
-0.06679995 -0.2224348 0.3929584 1 0 1
-0.06398852 -0.2222467 0.3920756 1 0 1
-0.06113554 -0.2215192 0.3903386 1 0 1
-0.05838736 -0.2218478 0.3902841 1 0 1
-0.05551578 -0.2205717 0.3876849 1 0 1
-0.05277831 -0.2208857 0.3876131 1 0 1
-0.05010662 -0.2222604 0.3892229 1 0 1
-0.04750653 -0.2252323 0.3933584 1 0 1
-0.111877 -0.2095025 0.3773059 1 0 1
-0.1097932 -0.212573 0.3816277 1 0 1
-0.107092 -0.2130152 0.3817284 1 0 1
-0.1052822 -0.2176613 0.3885641 1 0 1
-0.1025475 -0.2180955 0.3886484 1 0 1
-0.1000192 -0.2195783 0.3904105 1 0 1
-0.09747425 -0.2210569 0.3921641 1 0 1
-0.09491265 -0.2225313 0.3939093 1 0 1
-0.0917818 -0.2208256 0.3905855 1 0 1
-0.08885753 -0.2201686 0.3889394 1 0 1
-0.08586361 -0.2189723 0.3864408 1 0 1
-0.08297262 -0.2182971 0.3847769 1 0 1
-0.08001976 -0.2170817 0.3822607 1 0 1
-0.07737992 -0.2179848 0.38311 1 0 1
-0.07473157 -0.2188825 0.3839509 1 0 1
-0.07188015 -0.2181754 0.3822522 1 0 1
-0.06928719 -0.2195942 0.3839193 1 0 1
-0.06662096 -0.2204743 0.384734 1 0 1
-0.06373402 -0.2192105 0.3821662 1 0 1
-0.06111574 -0.2206126 0.3838072 1 0 1
-0.05843594 -0.2214746 0.3845958 1 0 1
-0.05558245 -0.220187 0.3820027 1 0 1
-0.05282684 -0.219963 0.3810879 1 0 1
-0.05017914 -0.2213423 0.3826936 1 0 1
-0.047545 -0.223254 0.3851331 1 0 1
-0.1114112 -0.2085772 0.3708223 1 0 1
-0.1093525 -0.211661 0.3751321 1 0 1
-0.1069061 -0.213158 0.3769127 1 0 1
-0.1050027 -0.2172989 0.3828895 1 0 1
-0.1021792 -0.2172007 0.3821316 1 0 1
-0.09977894 -0.2192179 0.3847292 1 0 1
-0.09695324 -0.2191067 0.383954 1 0 1
-0.09461605 -0.2216477 0.3873763 1 0 1
-0.09150675 -0.2199264 0.3840597 1 0 1
-0.08895928 -0.2213926 0.3857824 1 0 1
-0.08588696 -0.2196526 0.382448 1 0 1
-0.08300661 -0.21897 0.3807876 1 0 1
-0.07991029 -0.2166744 0.376594 1 0 1
-0.07721715 -0.2170435 0.3765991 1 0 1
-0.07445403 -0.2168703 0.3757543 1 0 1
-0.07169807 -0.2166897 0.3749009 1 0 1
-0.06907173 -0.2175752 0.3757219 1 0 1
-0.06655168 -0.21953 0.3782171 1 0 1
-0.06374017 -0.2187922 0.3764968 1 0 1
-0.06114193 -0.220199 0.3781331 1 0 1
-0.05843622 -0.2205238 0.3780784 1 0 1
-0.05552124 -0.2181458 0.3738094 1 0 1
-0.05287193 -0.218995 0.374579 1 0 1
-0.05021428 -0.2198387 0.3753398 1 0 1
-0.1130628 -0.2050406 0.360889 1 0 1
-0.1110655 -0.208138 0.3651935 1 0 1
-0.109028 -0.2112356 0.3694913 1 0 1
-0.1067178 -0.2132689 0.3721049 1 0 1
-0.1043831 -0.2152997 0.3747108 1 0 1
-0.102024 -0.2173277 0.3773089 1 0 1
-0.09953582 -0.218819 0.3790601 1 0 1
-0.09672885 -0.2187025 0.3782859 1 0 1
-0.09431578 -0.220719 0.3808595 1 0 1
-0.09141384 -0.2200536 0.3792289 1 0 1
-0.08879352 -0.2209885 0.3801071 1 0 1
-0.08590912 -0.2203072 0.3784589 1 0 1
-0.08312061 -0.2201547 0.3776414 1 0 1
-0.08002984 -0.2178426 0.3734577 1 0 1
-0.07719744 -0.2171342 0.3717835 1 0 1
-0.0743104 -0.2158782 0.3692614 1 0 1
-0.07157718 -0.2156919 0.3684097 1 0 1
-0.06891277 -0.2160383 0.3683889 1 0 1
-0.06636321 -0.2174595 0.3700382 1 0 1
-0.06368968 -0.217794 0.3700004 1 0 1
-0.0611654 -0.2197469 0.3724715 1 0 1
-0.05843294 -0.2195279 0.3715776 1 0 1
-0.05562346 -0.2182166 0.3689972 1 0 1
-0.0529899 -0.2190679 0.3697645 1 0 1
-0.1197907 -0.211099 0.3667364 1 0 1
-0.1171406 -0.2115615 0.3668671 1 0 1
-0.1141043 -0.2104173 0.3644812 1 0 1
-0.1118365 -0.2124674 0.3671031 1 0 1
-0.109303 -0.2134456 0.3680447 1 0 1
-0.106644 -0.2138834 0.3681419 1 0 1
-0.1045476 -0.2169948 0.3724136 1 0 1
-0.1019755 -0.2179594 0.373331 1 0 1
-0.09939458 -0.218919 0.3742401 1 0 1
-0.09690589 -0.2204111 0.3759778 1 0 1
-0.0944005 -0.2218992 0.3777074 1 0 1
-0.09131873 -0.2201489 0.374406 1 0 1
-0.0888036 -0.2216251 0.3761185 1 0 1
-0.08567334 -0.2193159 0.3719621 1 0 1
-0.08298916 -0.2196983 0.3719831 1 0 1
-0.07983803 -0.2168267 0.3669721 1 0 1
-0.07724942 -0.2177348 0.3678133 1 0 1
-0.07423291 -0.2153835 0.3636226 1 0 1
-0.07151863 -0.2151921 0.3627725 1 0 1
-0.06874935 -0.2144498 0.3610769 1 0 1
-0.06622776 -0.2158747 0.3627217 1 0 1
-0.06363557 -0.2167509 0.3635208 1 0 1
-0.06118603 -0.2192562 0.3668225 1 0 1
-0.05851891 -0.2195776 0.3667674 1 0 1
-0.05576623 -0.218801 0.3650302 1 0 1
-0.0530673 -0.2185624 0.3641217 1 0 1
-0.1185657 -0.207408 0.356117 1 0 1
-0.1164886 -0.2100078 0.3595799 1 0 1
-0.1139929 -0.2109968 0.3605341 1 0 1
-0.1119875 -0.2141301 0.3648166 1 0 1
-0.1094581 -0.2151118 0.3657554 1 0 1
-0.1070369 -0.2166268 0.3675203 1 0 1
-0.104712 -0.2186774 0.370112 1 0 1
-0.1019256 -0.2185657 0.3693571 1 0 1
-0.09935653 -0.2195275 0.3702632 1 0 1
-0.09677857 -0.220484 0.3711609 1 0 1
-0.09409421 -0.2208936 0.3712155 1 0 1
-0.09122145 -0.2202121 0.3695914 1 0 1
-0.08863266 -0.2211506 0.3704638 1 0 1
-0.08534794 -0.2177363 0.3646472 1 0 1
-0.08285487 -0.2192035 0.3663376 1 0 1
-0.07972067 -0.2163104 0.3613387 1 0 1
-0.07707753 -0.2166748 0.361342 1 0 1
-0.07422282 -0.215396 0.3588317 1 0 1
-0.0715235 -0.2151999 0.3579831 1 0 1
-0.06864394 -0.2133567 0.3546213 1 0 1
-0.0662635 -0.21588 0.3579315 1 0 1
-0.06363247 -0.2162105 0.3578933 1 0 1
-0.06115312 -0.2181789 0.3603512 1 0 1
-0.05855607 -0.2190467 0.361131 1 0 1
-0.05595065 -0.2199091 0.3619021 1 0 1
-0.05318098 -0.218568 0.3593262 1 0 1
-0.1171618 -0.2137952 0.36063 1 0 1
-0.1145256 -0.2142504 0.3607502 1 0 1
-0.1121385 -0.2157803 0.3625259 1 0 1
-0.1096134 -0.2167653 0.3634616 1 0 1
-0.1071966 -0.2182871 0.3652215 1 0 1
-0.1046496 -0.2192626 0.3661411 1 0 1
-0.1018742 -0.2191467 0.3653875 1 0 1
-0.09899963 -0.2184796 0.3637927 1 0 1
-0.09654722 -0.2199808 0.3655198 1 0 1
-0.09388211 -0.2203882 0.3655732 1 0 1
-0.09112187 -0.2202437 0.3647854 1 0 1
-0.08854893 -0.2211837 0.3656547 1 0 1
-0.08536309 -0.218292 0.3606853 1 0 1
-0.08279999 -0.2192176 0.3615378 1 0 1
-0.07975721 -0.2168514 0.3573841 1 0 1
-0.07712563 -0.2172149 0.3573868 1 0 1
-0.0741399 -0.2148279 0.3532164 1 0 1
-0.07165989 -0.2162747 0.3548684 1 0 1
-0.06878631 -0.2144183 0.3515147 1 0 1
-0.06641508 -0.2169541 0.3548159 1 0 1
-0.06368156 -0.2161827 0.3531115 1 0 1
-0.06121884 -0.2181595 0.3555628 1 0 1
-0.0586376 -0.2190293 0.3563401 1 0 1
-0.05600479 -0.2193413 0.3562764 1 0 1
-0.05337142 -0.2196471 0.3562043 1 0 1
-0.1202105 -0.216048 0.3598719 1 0 1
-0.117705 -0.2170535 0.3608294 1 0 1
-0.1149313 -0.2169678 0.3601196 1 0 1
-0.1122898 -0.2174182 0.3602308 1 0 1
-0.1094034 -0.2167734 0.3586738 1 0 1
-0.1071207 -0.2188449 0.3612582 1 0 1
-0.1044716 -0.2192768 0.3613444 1 0 1
-0.1018212 -0.2197024 0.3614221 1 0 1
-0.09906359 -0.2195747 0.3606611 1 0 1
-0.09651732 -0.2205344 0.3615525 1 0 1
-0.09366699 -0.2198446 0.359944 1 0 1
-0.09083114 -0.2191459 0.3583266 1 0 1
-0.0881912 -0.2195372 0.3583621 1 0 1
-0.08529019 -0.2182726 0.3558971 1 0 1
-0.0827429 -0.2191999 0.3567466 1 0 1
-0.07971357 -0.2168162 0.3526031 1 0 1
-0.07724741 -0.2182812 0.3542668 1 0 1
-0.07433832 -0.2164298 0.3509375 1 0 1
-0.07172848 -0.2167782 0.3509231 1 0 1
-0.06892812 -0.215461 0.3484083 1 0 1
-0.06650671 -0.2174558 0.3508696 1 0 1
-0.06361762 -0.215015 0.3466774 1 0 1
-0.06123096 -0.2175537 0.3499526 1 0 1
-0.05862186 -0.21787 0.3498972 1 0 1
-0.05601228 -0.2181799 0.3498335 1 0 1
-0.05332257 -0.2173717 0.348101 1 0 1
-0.1215686 -0.211761 0.3491707 1 0 1
-0.119249 -0.2133135 0.3509585 1 0 1
-0.1170463 -0.2154081 0.353566 1 0 1
-0.1145591 -0.2164079 0.3545113 1 0 1
-0.1119368 -0.2168559 0.3546211 1 0 1
-0.1090689 -0.2162023 0.3530669 1 0 1
-0.1062153 -0.2155398 0.3515039 1 0 1
-0.1037193 -0.2165151 0.3524161 1 0 1
-0.1008829 -0.2158369 0.3508359 1 0 1
-0.098061 -0.2151498 0.349247 1 0 1
-0.09576704 -0.2172076 0.3517913 1 0 1
-0.09295465 -0.2165063 0.3501856 1 0 1
-0.09025177 -0.216348 0.3493998 1 0 1
-0.08791977 -0.2183924 0.35192 1 0 1
-0.08504081 -0.2171154 0.3494606 1 0 1
-0.08251718 -0.2180433 0.3503072 1 0 1
-0.07990558 -0.2184118 0.3503169 1 0 1
-0.07721782 -0.2182192 0.3494898 1 0 1
-0.07432255 -0.2163536 0.3461687 1 0 1
-0.07179574 -0.2172564 0.3469825 1 0 1
-0.06894206 -0.2153724 0.3436452 1 0 1
-0.0664776 -0.2168187 0.3452711 1 0 1
-0.06360584 -0.21436 0.3410895 1 0 1
-0.06118814 -0.2163521 0.3435275 1 0 1
-0.05855434 -0.2161079 0.3426437 1 0 1
-0.05583959 -0.2147392 0.3400956 1 0 1
-0.05310763 -0.2128022 0.3367118 1 0 1
-0.1222687 -0.215531 0.3501915 1 0 1
-0.1189714 -0.2132562 0.3462002 1 0 1
-0.1170538 -0.216456 0.3504499 1 0 1
-0.1144443 -0.2169091 0.3505669 1 0 1
-0.1117071 -0.2168058 0.3498499 1 0 1
-0.1088537 -0.216144 0.3482989 1 0 1
-0.1063709 -0.2171277 0.3492163 1 0 1
-0.1036494 -0.2170023 0.3484739 1 0 1
-0.1009346 -0.2168691 0.3477229 1 0 1
-0.09811953 -0.2161753 0.3461376 1 0 1
-0.09573139 -0.2176883 0.3478482 1 0 1
-0.09283047 -0.216425 0.3454199 1 0 1
-0.09014259 -0.2162621 0.3446355 1 0 1
-0.0876445 -0.217203 0.3454955 1 0 1
-0.08487505 -0.21647 0.3438682 1 0 1
-0.08228762 -0.2168422 0.3438855 1 0 1
-0.07969927 -0.2172081 0.3438946 1 0 1
-0.07726175 -0.2186836 0.3455485 1 0 1
-0.07437649 -0.2168042 0.3422355 1 0 1
-0.07179363 -0.2171503 0.3422203 1 0 1
-0.06908198 -0.2163711 0.3405439 1 0 1
-0.06656579 -0.2172636 0.3413388 1 0 1
-0.06375982 -0.2153485 0.337994 1 0 1
-0.06140341 -0.2179109 0.3412513 1 0 1
-0.05872447 -0.2171022 0.3395431 1 0 1
-0.05623883 -0.218533 0.3411312 1 0 1
-0.05353396 -0.2171476 0.3385814 1 0 1
-0.121833 -0.2149095 0.3446104 1 0 1
-0.1186913 -0.2131675 0.3414511 1 0 1
-0.1165219 -0.2152774 0.3440427 1 0 1
-0.1135434 -0.2140694 0.3416885 1 0 1
-0.1107137 -0.2134044 0.3401484 1 0 1
-0.1078983 -0.2127306 0.3385996 1 0 1
-0.1052165 -0.2126025 0.3378656 1 0 1
-0.1027715 -0.2135775 0.3387706 1 0 1
-0.1003178 -0.2145476 0.3396678 1 0 1
-0.09774768 -0.2149562 0.3397331 1 0 1
-0.09517655 -0.2153585 0.3397903 1 0 1
-0.09240517 -0.2146392 0.3381913 1 0 1
-0.08955259 -0.2133531 0.3357598 1 0 1
-0.08708973 -0.2142928 0.3366166 1 0 1
-0.08461834 -0.2152274 0.3374654 1 0 1
-0.08205413 -0.2155969 0.3374819 1 0 1
-0.07956921 -0.2165208 0.3383147 1 0 1
-0.07715189 -0.2180006 0.3399635 1 0 1
-0.07435665 -0.2166682 0.337483 1 0 1
-0.07178929 -0.2170128 0.3374672 1 0 1
-0.06909231 -0.2162258 0.335795 1 0 1
-0.06659205 -0.2171201 0.3365873 1 0 1
-0.06385659 -0.2157546 0.3340751 1 0 1
-0.06135509 -0.2166364 0.3348512 1 0 1
-0.05874755 -0.2163838 0.3339714 1 0 1
-0.05605744 -0.2149937 0.3314361 1 0 1
-0.05334931 -0.2130293 0.3280698 1 0 1
-0.1236673 -0.2126776 0.3372645 1 0 1
-0.1212511 -0.2136966 0.3382226 1 0 1
-0.1188257 -0.2147108 0.339173 1 0 1
-0.1166613 -0.2168303 0.3417571 1 0 1
-0.1134229 -0.2145014 0.3377668 1 0 1
-0.1108585 -0.2149418 0.3378721 1 0 1
-0.1080461 -0.2142618 0.3363268 1 0 1
-0.1052481 -0.213573 0.3347729 1 0 1
-0.1026957 -0.2139923 0.3348535 1 0 1
-0.1004773 -0.2160824 0.3373905 1 0 1
-0.09780315 -0.2159315 0.3366334 1 0 1
-0.09513578 -0.2157732 0.3358681 1 0 1
-0.09217499 -0.2139248 0.3326291 1 0 1
-0.08934058 -0.2126269 0.3302033 1 0 1
-0.08689761 -0.2135676 0.331057 1 0 1
-0.08435763 -0.2139406 0.3310808 1 0 1
-0.08215445 -0.2165602 0.3343846 1 0 1
-0.0796776 -0.2174868 0.3352145 1 0 1
-0.07719216 -0.2184083 0.3360364 1 0 1
-0.07440727 -0.2170655 0.333562 1 0 1
-0.07178277 -0.2168438 0.3327238 1 0 1
-0.06923024 -0.2171808 0.3326995 1 0 1
-0.06661606 -0.2169453 0.3318453 1 0 1
-0.06395199 -0.2161356 0.3301613 1 0 1
-0.06151571 -0.2175872 0.3317568 1 0 1
-0.05896466 -0.2178989 0.3317004 1 0 1
-0.05623175 -0.2159311 0.3283499 1 0 1
-0.1248373 -0.2081757 0.3266667 1 0 1
-0.1230577 -0.2114211 0.3308991 1 0 1
-0.1209515 -0.2135536 0.3334894 1 0 1
-0.1184025 -0.2140114 0.3336177 1 0 1
-0.1161233 -0.2155795 0.335375 1 0 1
-0.1130376 -0.2137906 0.3322128 1 0 1
-0.1103649 -0.2136688 0.3314977 1 0 1
-0.1075749 -0.2129794 0.3299555 1 0 1
-0.1045594 -0.2111593 0.3267663 1 0 1
-0.1022701 -0.2126974 0.3284836 1 0 1
-0.09996403 -0.2142318 0.3301934 1 0 1
-0.09753317 -0.2151998 0.3310762 1 0 1
-0.09498904 -0.2155994 0.3311315 1 0 1
-0.09224306 -0.2148648 0.3295397 1 0 1
-0.08951167 -0.2141216 0.3279395 1 0 1
-0.08688761 -0.2139351 0.3271509 1 0 1
-0.08435917 -0.2143072 0.3271741 1 0 1
-0.08191471 -0.2152394 0.328009 1 0 1
-0.07946163 -0.2161666 0.328836 1 0 1
-0.07692285 -0.2165212 0.3288352 1 0 1
-0.07445654 -0.2174377 0.3296463 1 0 1
-0.07177395 -0.2166435 0.32799 1 0 1
-0.06904105 -0.2152719 0.3255062 1 0 1
-0.06645371 -0.2150303 0.324654 1 0 1
-0.06393105 -0.2153516 0.3246137 1 0 1
-0.06130068 -0.2145256 0.3229264 1 0 1
-0.05878476 -0.2148335 0.3228703 1 0 1
-0.0564513 -0.2174213 0.3260837 1 0 1
-0.1258636 -0.2130079 0.3293033 1 0 1
-0.1231814 -0.2129175 0.3286308 1 0 1
-0.1210803 -0.2150595 0.3312134 1 0 1
-0.1181159 -0.2138353 0.3288926 1 0 1
-0.1158528 -0.2154078 0.3306441 1 0 1
-0.112649 -0.2130422 0.3266729 1 0 1
-0.109739 -0.2117893 0.3243254 1 0 1
-0.107348 -0.21278 0.3252362 1 0 1
-0.1050683 -0.21433 0.3269562 1 0 1
-0.1025391 -0.2147469 0.3270345 1 0 1
-0.1003463 -0.2168539 0.3295564 1 0 1
-0.09802055 -0.2183924 0.3312536 1 0 1
-0.09525902 -0.2176608 0.329674 1 0 1
-0.09241124 -0.2163535 0.3272686 1 0 1
-0.08948895 -0.2144685 0.3240374 1 0 1
-0.08668989 -0.2131411 0.3216152 1 0 1
-0.08409174 -0.212942 0.3208202 1 0 1
-0.08184154 -0.2150137 0.3232872 1 0 1
-0.07916035 -0.2142324 0.3216587 1 0 1
-0.07680369 -0.215725 0.3232924 1 0 1
-0.07450425 -0.217785 0.3257358 1 0 1
-0.07183249 -0.2169835 0.3240836 1 0 1
-0.06904422 -0.2150294 0.3207886 1 0 1
-0.06653386 -0.2153559 0.3207558 1 0 1
-0.06396492 -0.2151031 0.3198977 1 0 1
-0.06124125 -0.2131221 0.3165801 1 0 1
-0.05874871 -0.2134278 0.316524 1 0 1
-0.05639413 -0.2154513 0.3189115 1 0 1
-0.05414234 -0.2191969 0.3237415 1 0 1
-0.1253766 -0.2122481 0.323777 1 0 1
-0.1230093 -0.2132766 0.3247318 1 0 1
-0.1207768 -0.2148637 0.3264928 1 0 1
-0.1179668 -0.2141919 0.3249911 1 0 1
-0.1157162 -0.2157695 0.3267369 1 0 1
-0.1126543 -0.2139522 0.32359 1 0 1
-0.1096222 -0.2121234 0.3204339 1 0 1
-0.1072432 -0.2131161 0.3213412 1 0 1
-0.1047345 -0.2135368 0.3214264 1 0 1
-0.1022246 -0.2139513 0.3215036 1 0 1
-0.09993957 -0.2154968 0.3232027 1 0 1
-0.09774689 -0.2176077 0.3257092 1 0 1
-0.09500401 -0.2168675 0.3241329 1 0 1
-0.09197182 -0.2144077 0.320103 1 0 1
-0.08936721 -0.2142196 0.3193255 1 0 1
-0.08667594 -0.2134526 0.3177246 1 0 1
-0.08408898 -0.2132493 0.3169309 1 0 1
-0.08185165 -0.2153295 0.3193907 1 0 1
-0.07934474 -0.2156873 0.3193966 1 0 1
-0.07691494 -0.2166127 0.3202101 1 0 1
-0.07462449 -0.2186818 0.3226463 1 0 1
-0.07195961 -0.2178735 0.320998 1 0 1
-0.06917737 -0.2159064 0.3177115 1 0 1
-0.06667475 -0.2162325 0.3176782 1 0 1
-0.06399648 -0.2148235 0.3151919 1 0 1
-0.061178 -0.2116747 0.310253 1 0 1
-0.05870881 -0.2119781 0.3101971 1 0 1
-0.1267563 -0.208725 0.3148745 1 0 1
-0.1259518 -0.2154051 0.3239423 1 0 1
-0.1234287 -0.2158735 0.3240833 1 0 1
-0.1210488 -0.216902 0.3250279 1 0 1
-0.1180973 -0.2156578 0.3227183 1 0 1
-0.1158514 -0.2172418 0.3244588 1 0 1
-0.1130572 -0.2165489 0.322944 1 0 1
-0.1101485 -0.2152781 0.3206086 1 0 1
-0.1075119 -0.2151366 0.3198888 1 0 1
-0.1050031 -0.215558 0.3199732 1 0 1
-0.102376 -0.2154023 0.3192373 1 0 1
-0.09964206 -0.2146677 0.3176806 1 0 1
-0.09757958 -0.2173579 0.320992 1 0 1
-0.09474572 -0.2160369 0.3186066 1 0 1
-0.09193432 -0.214706 0.3162127 1 0 1
-0.08934084 -0.2145137 0.3154366 1 0 1
-0.08666047 -0.2137394 0.3138396 1 0 1
-0.08399467 -0.2129567 0.3122345 1 0 1
-0.08168805 -0.2144689 0.3138737 1 0 1
-0.07928277 -0.215401 0.3146922 1 0 1
-0.07686894 -0.216328 0.3155028 1 0 1
-0.07452088 -0.2178275 0.3171186 1 0 1
-0.07187468 -0.217011 0.3154745 1 0 1
-0.06917682 -0.2156079 0.3130097 1 0 1
-0.06662705 -0.2153535 0.3121632 1 0 1
-0.06396709 -0.2139331 0.3096834 1 0 1
-0.06122036 -0.2113436 0.3055708 1 0 1
-0.1278067 -0.2135537 0.3174734 1 0 1
-0.1259189 -0.2162966 0.3208555 1 0 1
-0.1235523 -0.2173331 0.3218044 1 0 1
-0.1208868 -0.2172261 0.3211275 1 0 1
-0.1179456 -0.2159712 0.3188234 1 0 1
-0.1151636 -0.215277 0.3173199 1 0 1
-0.112529 -0.2151454 0.3166176 1 0 1
-0.1093836 -0.2127177 0.3126676 1 0 1
-0.1070287 -0.2137142 0.3135684 1 0 1
-0.1047863 -0.2152794 0.3152716 1 0 1
-0.1021742 -0.2151188 0.3145368 1 0 1
-0.099455 -0.214376 0.3129837 1 0 1
-0.09751962 -0.2176525 0.3170955 1 0 1
-0.09490817 -0.217473 0.316337 1 0 1
-0.09189508 -0.2149796 0.3123281 1 0 1
-0.08941112 -0.2153603 0.3123641 1 0 1
-0.0868319 -0.215157 0.3115816 1 0 1
-0.08416919 -0.2143682 0.3099806 1 0 1
-0.08169422 -0.2147289 0.3099931 1 0 1
-0.0792184 -0.2150836 0.3099979 1 0 1
-0.07689924 -0.2165923 0.3116165 1 0 1
-0.0745637 -0.2180971 0.3132273 1 0 1
-0.07185741 -0.2166923 0.3107766 1 0 1
-0.06917388 -0.2152784 0.3083183 1 0 1
-0.06676544 -0.2161838 0.3090951 1 0 1
-0.06399365 -0.2135882 0.3050006 1 0 1
-0.06114996 -0.2098153 0.2992782 1 0 1
-0.1296094 -0.21166 0.3110202 1 0 1
-0.1277634 -0.2144149 0.3143981 1 0 1
-0.1255788 -0.2160275 0.3161568 1 0 1
-0.123079 -0.2164932 0.3162952 1 0 1
-0.1202871 -0.2158079 0.314812 1 0 1
-0.1176508 -0.2156868 0.3141271 1 0 1
-0.115021 -0.2155582 0.313434 1 0 1
-0.112264 -0.2148477 0.3119254 1 0 1
-0.109651 -0.2147036 0.3112158 1 0 1
-0.1074224 -0.21628 0.3129214 1 0 1
-0.1050549 -0.2172763 0.3138118 1 0 1
-0.1023243 -0.216536 0.3122707 1 0 1
-0.09960809 -0.2157872 0.3107213 1 0 1
-0.09745802 -0.2179223 0.3132046 1 0 1
-0.09475143 -0.2171594 0.3116394 1 0 1
-0.09175182 -0.2146488 0.3076411 1 0 1
-0.08918475 -0.2144474 0.306868 1 0 1
-0.08671928 -0.2148197 0.3068953 1 0 1
-0.08407132 -0.214023 0.3052981 1 0 1
-0.08169878 -0.2149642 0.3061185 1 0 1
-0.07931772 -0.2159005 0.3069312 1 0 1
-0.07700715 -0.217415 0.3085447 1 0 1
-0.07468017 -0.2189257 0.3101503 1 0 1
-0.07190911 -0.2169268 0.3068976 1 0 1
-0.06930339 -0.2160873 0.3052542 1 0 1
-0.06696656 -0.2175809 0.3068366 1 0 1
-0.06407741 -0.213798 0.3011366 1 0 1
-0.06129814 -0.2105886 0.2962381 1 0 1
0.03429389 0.03380349 -0.05364694 1 0 1
0.03535332 0.03329908 -0.05314074 1 0 1
-0.1303619 -0.2153547 0.3119751 1 0 1
-0.1283486 -0.2175516 0.3145397 1 0 1
-0.1260036 -0.2185985 0.3154896 1 0 1
-0.123051 -0.2173411 0.3132143 1 0 1
-0.120266 -0.216649 0.3117344 1 0 1
-0.1174953 -0.2159479 0.310246 1 0 1
-0.1147387 -0.2152379 0.308749 1 0 1
-0.1123986 -0.2162523 0.3096591 1 0 1
-0.1100495 -0.217262 0.3105617 1 0 1
-0.1076915 -0.218267 0.3114568 1 0 1
-0.1050796 -0.2181077 0.3107331 1 0 1
-0.1024744 -0.2179411 0.3100013 1 0 1
-0.09964655 -0.2166052 0.30765 1 0 1
-0.09728404 -0.2175858 0.3085139 1 0 1
-0.09459212 -0.216815 0.3069523 1 0 1
-0.09191482 -0.2160357 0.3053827 1 0 1
-0.08925214 -0.2152478 0.3038051 1 0 1
-0.08679449 -0.2156197 0.3038318 1 0 1
-0.08424465 -0.2154009 0.3030448 1 0 1
-0.08170182 -0.2151749 0.3022499 1 0 1
-0.07933281 -0.2161133 0.3030597 1 0 1
-0.07695521 -0.2170468 0.3038619 1 0 1
-0.07464465 -0.2185622 0.3054626 1 0 1
-0.07188753 -0.2165493 0.3022186 1 0 1
-0.06943215 -0.2168779 0.3021915 1 0 1
-0.06704008 -0.2177888 0.3029629 1 0 1
-0.06433965 -0.2157501 0.2996966 1 0 1
0.03270714 0.03300699 -0.05363999 1 0 1
0.03466073 0.03071518 -0.05088799 1 0 1
0.03542818 0.03079985 -0.05113114 1 0 1
0.03588711 0.03147886 -0.05212132 1 0 1
0.03571513 0.03334288 -0.05459823 1 0 1
-0.1296405 -0.2047752 0.2935188 1 0 1
-0.1286928 -0.210425 0.3008866 1 0 1
-0.1272005 -0.2143527 0.3058459 1 0 1
-0.1248909 -0.215397 0.3067908 1 0 1
-0.122572 -0.2164366 0.3077282 1 0 1
-0.1198056 -0.2157355 0.3062513 1 0 1
-0.1171956 -0.215605 0.3055684 1 0 1
-0.1143153 -0.2143068 0.303272 1 0 1
-0.1119951 -0.2153216 0.3041782 1 0 1
-0.1095352 -0.2157503 0.3042741 1 0 1
-0.1073277 -0.2173372 0.3059685 1 0 1
-0.104612 -0.2165896 0.3044426 1 0 1
-0.1022676 -0.2175836 0.3053186 1 0 1
-0.09956905 -0.2168207 0.3037767 1 0 1
-0.09710754 -0.2172186 0.3038339 1 0 1
-0.09432304 -0.2158545 0.3014723 1 0 1
-0.09176776 -0.2156525 0.30071 1 0 1
-0.08902036 -0.2142702 0.2983325 1 0 1
-0.08648663 -0.2140527 0.2975546 1 0 1
-0.08377643 -0.2126525 0.2951614 1 0 1
-0.08135207 -0.2130078 0.295172 1 0 1
-0.07901084 -0.213946 0.295979 1 0 1
-0.07682086 -0.2160583 0.2983861 1 0 1
-0.07445467 -0.2169878 0.2991777 1 0 1
-0.07186348 -0.216141 0.2975503 1 0 1
-0.06942382 -0.216468 0.2975229 1 0 1
-0.06698342 -0.2167892 0.297488 1 0 1
-0.06430081 -0.2147361 0.2942308 1 0 1
-0.06159245 -0.2120805 0.2901631 1 0 1
0.03216325 0.03169991 -0.05312929 1 0 1
0.03440084 0.02879573 -0.0496349 1 0 1
0.03517675 0.0288793 -0.04987801 1 0 1
0.03564833 0.02956081 -0.05086699 1 0 1
0.03580436 0.030839 -0.05259824 1 0 1
0.03563362 0.03271255 -0.0550681 1 0 1
-0.1307328 -0.2095742 0.2960836 1 0 1
-0.1289591 -0.2123619 0.2994354 1 0 1
-0.1274694 -0.2163089 0.3043803 1 0 1
-0.1248515 -0.2161964 0.3037229 1 0 1
-0.1222399 -0.2160763 0.3030573 1 0 1
-0.1196348 -0.2159488 0.3023835 1 0 1
-0.1167507 -0.2146489 0.3001013 1 0 1
-0.1140273 -0.213922 0.2986106 1 0 1
-0.111858 -0.2155218 0.3003139 1 0 1
-0.1094098 -0.2159492 0.3004086 1 0 1
-0.1070876 -0.2169559 0.3012965 1 0 1
-0.1043866 -0.2162002 0.2997741 1 0 1
-0.1019388 -0.216609 0.2998457 1 0 1
-0.09914344 -0.2152502 0.2975061 1 0 1
-0.09670526 -0.215645 0.297562 1 0 1
-0.09394293 -0.2142686 0.2952064 1 0 1
-0.09161817 -0.2152387 0.2960483 1 0 1
-0.08908486 -0.2150247 0.2952798 1 0 1
-0.08655842 -0.2148035 0.2945036 1 0 1
-0.08403904 -0.2145753 0.2937198 1 0 1
-0.08152647 -0.2143399 0.2929284 1 0 1
-0.07918953 -0.2152813 0.2937324 1 0 1
-0.07684402 -0.2162178 0.2945289 1 0 1
-0.07456642 -0.2177426 0.2961194 1 0 1
-0.07183709 -0.2157019 0.2928931 1 0 1
-0.06941297 -0.2160275 0.2928654 1 0 1
-0.06692348 -0.2157525 0.2920288 1 0 1
-0.06425875 -0.2136851 0.2887808 1 0 1
0.03160938 0.0303895 -0.05262577 1 0 1
0.03353911 0.02806645 -0.04988078 1 0 1
0.03490697 0.02694836 -0.04863446 1 0 1
0.03509195 0.02823178 -0.05036455 1 0 1
0.03526101 0.02951559 -0.05209229 1 0 1
0.03480069 0.03199701 -0.0552975 1 0 1
-0.1315459 -0.2046285 0.285713 1 0 1
-0.1306653 -0.2103297 0.2930416 1 0 1
-0.1289011 -0.2131291 0.2963831 1 0 1
-0.1269458 -0.2153458 0.2989216 1 0 1
-0.1243469 -0.2152273 0.2982647 1 0 1
-0.1223579 -0.217438 0.3007897 1 0 1
-0.1196091 -0.2167226 0.2993196 1 0 1
-0.1165884 -0.2148272 0.2962455 1 0 1
-0.1138759 -0.2140929 0.2947583 1 0 1
-0.1118544 -0.2162845 0.297254 1 0 1
-0.1094141 -0.2167114 0.2973478 1 0 1
-0.1071 -0.2177205 0.2982324 1 0 1
-0.1045297 -0.217547 0.2975124 1 0 1
-0.101966 -0.2173663 0.2967845 1 0 1
-0.09917721 -0.2159977 0.2944511 1 0 1
-0.09641075 -0.2146194 0.2921095 1 0 1
-0.09377474 -0.2138228 0.2905589 1 0 1
-0.09146599 -0.2147942 0.2913976 1 0 1
-0.08884759 -0.2139827 0.2898315 1 0 1
-0.08614748 -0.2125696 0.2874586 1 0 1
-0.0837474 -0.2129287 0.2874756 1 0 1
-0.08134652 -0.2132819 0.287485 1 0 1
-0.07902949 -0.2142243 0.2882862 1 0 1
-0.0766231 -0.2145662 0.2882806 1 0 1
-0.07436984 -0.2160944 0.289866 1 0 1
-0.07188117 -0.2158289 0.2890462 1 0 1
-0.06939973 -0.2155563 0.288219 1 0 1
-0.06699061 -0.2158745 0.2881835 1 0 1
-0.06445836 -0.2149902 0.2865425 1 0 1
0.03161313 0.02786751 -0.0506403 1 0 1
0.03325081 0.02613347 -0.04864468 1 0 1
0.03432749 0.02561058 -0.04814297 1 0 1
0.0345255 0.0268995 -0.0498694 1 0 1
0.03440878 0.02879144 -0.05233352 1 0 1
0.03457123 0.03008077 -0.05405407 1 0 1
-0.1324898 -0.20884 0.2874591 1 0 1
-0.13043 -0.2104829 0.2892072 1 0 1
-0.1288421 -0.213878 0.2933323 1 0 1
-0.127055 -0.216689 0.2966575 1 0 1
-0.1243043 -0.215981 0.295207 1 0 1
-0.1218704 -0.2164387 0.2953385 1 0 1
-0.1195825 -0.2174781 0.2962576 1 0 1
-0.1159937 -0.2132154 0.2900094 1 0 1
-0.1134433 -0.2130608 0.289321 1 0 1
-0.1114426 -0.2152589 0.2918082 1 0 1
-0.1087579 -0.2145017 0.2903085 1 0 1
-0.1064715 -0.21551 0.2911893 1 0 1
-0.1040521 -0.2159216 0.2912664 1 0 1
-0.1016317 -0.2163273 0.2913359 1 0 1
-0.09909372 -0.2161337 0.2906014 1 0 1
-0.09645012 -0.2153389 0.2890626 1 0 1
-0.09371258 -0.2139411 0.2867192 1 0 1
-0.09162525 -0.2161049 0.2891483 1 0 1
-0.0890099 -0.2152873 0.2875863 1 0 1
-0.08602184 -0.2120758 0.2828294 1 0 1
-0.08373038 -0.2130302 0.2836425 1 0 1
-0.08125214 -0.2127848 0.2828545 1 0 1
-0.07895119 -0.2137286 0.2836528 1 0 1
-0.07647922 -0.2134703 0.2828499 1 0 1
-0.07416896 -0.2144034 0.2836333 1 0 1
-0.0717768 -0.2147319 0.2836123 1 0 1
-0.06938399 -0.2150545 0.283584 1 0 1
-0.06685936 -0.2141695 0.2819548 1 0 1
-0.06447311 -0.2144793 0.2819117 1 0 1
-0.06197075 -0.2135795 0.280268 1 0 1
0.03075128 0.02715131 -0.05089722 1 0 1
0.03294412 0.02419037 -0.04741843 1 0 1
0.0340251 0.02366276 -0.04691777 1 0 1
0.03453087 0.02435098 -0.04790169 1 0 1
0.03473351 0.02564664 -0.04962449 1 0 1
0.03402501 0.02875984 -0.05355782 1 0 1
0.03388242 0.03066033 -0.05600877 1 0 1
-0.1329245 -0.2113103 0.2868039 1 0 1
-0.1301928 -0.2106118 0.2853792 1 0 1
-0.1286187 -0.2140208 0.2894913 1 0 1
-0.126526 -0.2156649 0.2912209 1 0 1
-0.1239495 -0.2155376 0.290566 1 0 1
-0.1213794 -0.2154027 0.289903 1 0 1
-0.1191114 -0.2164425 0.2908182 1 0 1
-0.1156826 -0.2127443 0.2853804 1 0 1
-0.1131473 -0.2125846 0.2846929 1 0 1
-0.1110273 -0.2141967 0.2863782 1 0 1
-0.1084935 -0.2140246 0.2856756 1 0 1
-0.1059663 -0.2138452 0.2849652 1 0 1
-0.1036948 -0.2148486 0.285835 1 0 1
-0.1014145 -0.2158476 0.2866974 1 0 1
-0.09889169 -0.215649 0.2859643 1 0 1
-0.09637576 -0.2154433 0.2852234 1 0 1
-0.09386656 -0.2152304 0.284475 1 0 1
-0.09157428 -0.2162069 0.2853076 1 0 1
-0.08896982 -0.215382 0.2837496 1 0 1
-0.08618551 -0.21335 0.280595 1 0 1
-0.08380499 -0.2137075 0.2806107 1 0 1
-0.0812447 -0.2128579 0.27903 1 0 1
-0.07895593 -0.2138038 0.2798254 1 0 1
-0.07633196 -0.2123377 0.2774353 1 0 1
-0.07388625 -0.2120672 0.276627 1 0 1
-0.07152151 -0.2123926 0.2766059 1 0 1
-0.069156 -0.2127121 0.2765773 1 0 1
-0.0665919 -0.2112141 0.2741584 1 0 1
-0.06417485 -0.210916 0.2733211 1 0 1
-0.06176509 -0.2106111 0.2724766 1 0 1
0.03150223 0.02468021 -0.0491661 1 0 1
0.03313837 0.02292567 -0.04718226 1 0 1
0.03393598 0.02300543 -0.04742377 1 0 1
0.03415172 0.02430644 -0.0491428 1 0 1
0.03435149 0.02560799 -0.05085958 1 0 1
0.03364136 0.02873638 -0.05477974 1 0 1
-0.1355847 -0.2127084 0.2851813 1 0 1
-0.1337036 -0.2149599 0.2877154 1 0 1
-0.130792 -0.2136682 0.2855059 1 0 1
-0.1285572 -0.2147304 0.2864467 1 0 1
-0.1263132 -0.2157881 0.2873804 1 0 1
-0.1235919 -0.2150637 0.2859362 1 0 1
-0.121037 -0.2149238 0.2852741 1 0 1
-0.118785 -0.2159644 0.2861854 1 0 1
-0.1155131 -0.2128376 0.2815537 1 0 1
-0.1129891 -0.2126735 0.2808674 1 0 1
-0.1106084 -0.2130982 0.2809645 1 0 1
-0.1082264 -0.2135171 0.2810543 1 0 1
-0.1059721 -0.2145277 0.281928 1 0 1
-0.1039588 -0.2167299 0.2843776 1 0 1
-0.1014368 -0.2165349 0.2836538 1 0 1
-0.09927303 -0.2181311 0.2852975 1 0 1
-0.09663948 -0.2173236 0.2837666 1 0 1
-0.09402046 -0.2165077 0.2822281 1 0 1
-0.09152161 -0.2162847 0.2814737 1 0 1
-0.08923281 -0.2172583 0.2822959 1 0 1
-0.08644684 -0.2152147 0.2791501 1 0 1
-0.08406635 -0.2155729 0.2791654 1 0 1
-0.08159512 -0.2153215 0.278381 1 0 1
-0.07921692 -0.2156673 0.2783813 1 0 1
-0.07659172 -0.2141928 0.2759978 1 0 1
-0.07406744 -0.2133145 0.2743993 1 0 1
-0.07155805 -0.2124281 0.2727935 1 0 1
-0.06892295 -0.2103209 0.2695965 1 0 1
-0.06658429 -0.2106315 0.2695605 1 0 1
-0.06411998 -0.2097215 0.2679335 1 0 1
0.03169239 0.02342021 -0.04892892 1 0 1
0.03304851 0.02227029 -0.04769077 1 0 1
0.03355985 0.02296321 -0.04866854 1 0 1
0.03377271 0.02427012 -0.05038154 1 0 1
0.0336758 0.02618984 -0.05282631 1 0 1
0.03325789 0.02872106 -0.05599923 1 0 1
-0.1351466 -0.2122155 0.2805713 1 0 1
-0.1327665 -0.212696 0.2807356 1 0 1
-0.1300488 -0.2119841 0.279318 1 0 1
-0.1278377 -0.2130454 0.2802542 1 0 1
-0.1256175 -0.2141025 0.2811836 1 0 1
-0.1229187 -0.2133684 0.2797422 1 0 1
-0.1203866 -0.2132218 0.2790805 1 0 1
-0.1181584 -0.214262 0.2799876 1 0 1
-0.1149073 -0.2111134 0.2753683 1 0 1
-0.1126882 -0.2121398 0.2762601 1 0 1
-0.1101859 -0.2119634 0.2755671 1 0 1
-0.1078234 -0.2123796 0.2756555 1 0 1
-0.1055891 -0.2133905 0.2765256 1 0 1
-0.103722 -0.2162004 0.2797562 1 0 1
-0.1014581 -0.2172042 0.2806122 1 0 1
-0.09930307 -0.2188059 0.2822504 1 0 1
-0.09690401 -0.219198 0.2823026 1 0 1
-0.09450382 -0.2195842 0.2823472 1 0 1
-0.09178491 -0.2181513 0.2800155 1 0 1
-0.08929255 -0.2179187 0.2792554 1 0 1
-0.08651271 -0.2158624 0.2761186 1 0 1
-0.08395165 -0.2150078 0.2745537 1 0 1
-0.08158597 -0.2153583 0.2745608 1 0 1
-0.07921956 -0.2157031 0.2745606 1 0 1
-0.0766873 -0.2148263 0.2729736 1 0 1
-0.07432722 -0.2151582 0.2729588 1 0 1
-0.0718917 -0.2148753 0.2721469 1 0 1
-0.06939262 -0.213976 0.2705382 1 0 1
-0.06697537 -0.2136788 0.2697121 1 0 1
0.02888868 0.02701881 -0.05436182 1 0 1
0.03215937 0.02153915 -0.04796282 1 0 1
0.03295795 0.02161698 -0.04820179 1 0 1
0.03289801 0.02354538 -0.05064488 1 0 1
0.03310422 0.0248578 -0.0523507 1 0 1
0.03300111 0.02678604 -0.05478584 1 0 1
-0.1329266 -0.1975461 0.2577701 1 0 1
-0.1340008 -0.2093132 0.2728357 1 0 1
-0.1323412 -0.2121707 0.2761355 1 0 1
-0.1298067 -0.2120467 0.2755057 1 0 1
-0.1274431 -0.2125126 0.2756532 1 0 1
-0.1253996 -0.2141683 0.2773637 1 0 1
-0.1225548 -0.2128281 0.2751402 1 0 1
-0.1197317 -0.2114777 0.2729081 1 0 1
-0.1176765 -0.2131175 0.274597 1 0 1
-0.1147328 -0.2111495 0.2715625 1 0 1
-0.1123844 -0.2115759 0.2716645 1 0 1
-0.1097598 -0.2107923 0.2701863 1 0 1
-0.1076841 -0.2124116 0.2718464 1 0 1
-0.1052024 -0.2122171 0.2711397 1 0 1
-0.1034825 -0.2156408 0.2751463 1 0 1
-0.1011128 -0.2160409 0.2752121 1 0 1
-0.09897808 -0.2176461 0.2768445 1 0 1
-0.09671265 -0.2186419 0.2776827 1 0 1
-0.09432819 -0.2190261 0.2777265 1 0 1
-0.09172998 -0.2181898 0.2761884 1 0 1
-0.08935143 -0.2185611 0.2762173 1 0 1
-0.08667625 -0.2171006 0.2738766 1 0 1
-0.08421294 -0.2168492 0.2731034 1 0 1
-0.08175661 -0.2165907 0.2723226 1 0 1
-0.07948101 -0.2175458 0.2731093 1 0 1
-0.07678209 -0.2154417 0.2699518 1 0 1
-0.07450888 -0.2163846 0.2707238 1 0 1
-0.07192669 -0.2148747 0.2683393 1 0 1
-0.06950963 -0.2145808 0.2675222 1 0 1
-0.06696524 -0.213054 0.2651238 1 0 1
-0.06444374 -0.2115182 0.2627184 1 0 1
0.02934957 0.02515437 -0.0533839 1 0 1
0.03206812 0.02088781 -0.04847636 1 0 1
0.03286672 0.02096572 -0.04871526 1 0 1
0.03252265 0.02352268 -0.05188251 1 0 1
0.03272598 0.02484093 -0.05358227 1 0 1
0.0329134 0.02615962 -0.05527972 1 0 1
-0.1320858 -0.2122139 0.2723293 1 0 1
-0.1293937 -0.2114861 0.270918 1 0 1
-0.1272107 -0.2125498 0.2718465 1 0 1
-0.1251797 -0.2142101 0.273551 1 0 1
-0.122188 -0.2122579 0.2705502 1 0 1
-0.1196862 -0.212101 0.2698904 1 0 1
-0.1173405 -0.2125398 0.2700064 1 0 1
-0.1145564 -0.2111615 0.2677639 1 0 1
-0.1125034 -0.2127956 0.2694325 1 0 1
-0.109744 -0.2114008 0.2671743 1 0 1
-0.1075429 -0.2124196 0.2680445 1 0 1
-0.1052027 -0.2128273 0.2681236 1 0 1
-0.1033665 -0.2156583 0.2713329 1 0 1
-0.1010085 -0.216057 0.2713977 1 0 1
-0.09888648 -0.2176671 0.2730244 1 0 1
-0.09651867 -0.2180554 0.2730747 1 0 1
-0.09403917 -0.2178282 0.2723329 1 0 1
-0.09135289 -0.2163728 0.2700138 1 0 1
-0.08910069 -0.2173522 0.2708268 1 0 1
-0.0865428 -0.216492 0.2692776 1 0 1
-0.08409473 -0.2162358 0.2685061 1 0 1
-0.0817448 -0.2165853 0.268512 1 0 1
-0.07956868 -0.2181558 0.2700807 1 0 1
-0.07704265 -0.2172669 0.2685022 1 0 1
-0.07461103 -0.2169845 0.2677015 1 0 1
-0.07211097 -0.2160801 0.2661087 1 0 1
-0.06962588 -0.2151677 0.2645088 1 0 1
-0.06715577 -0.2142474 0.262902 1 0 1
-0.06457309 -0.2120859 0.2597187 1 0 1
0.0303555 0.02203286 -0.0509532 1 0 1
0.03225363 0.01961552 -0.04826103 1 0 1
0.03249354 0.02093925 -0.04996137 1 0 1
0.03243248 0.02288583 -0.05238863 1 0 1
0.03234793 0.02483221 -0.05481132 1 0 1
0.03223995 0.02677822 -0.05722945 1 0 1
-0.1330712 -0.1998769 0.2533979 1 0 1
-0.1338154 -0.2105564 0.2668116 1 0 1
-0.131482 -0.21103 0.2669706 1 0 1
-0.1289778 -0.2108955 0.2663423 1 0 1
-0.1271418 -0.2131663 0.2688274 1 0 1
-0.1247963 -0.213624 0.2689649 1 0 1
-0.1219762 -0.2122622 0.2667528 1 0 1
-0.1196396 -0.2127061 0.2668751 1 0 1
-0.1171517 -0.2125383 0.266209 1 0 1
-0.1143781 -0.2111496 0.2639725 1 0 1
-0.1120532 -0.2115733 0.2640722 1 0 1
