ply
format ascii 1.0
Comment Generated by Floating Hands
element vertex 1217
property double x
property double y
property double z
property uchar red
property uchar green
property uchar blue
end_header
-0.1054395 -0.2152857 0.3747694 1 0 1
-0.1031847 -0.2172392 0.3773778 1 0 1
-0.1001169 -0.2148001 0.3733374 1 0 1
-0.09746581 -0.2145462 0.3726093 1 0 1
-0.09454935 -0.2126365 0.3693815 1 0 1
-0.092271 -0.2145664 0.3719596 1 0 1
-0.08947077 -0.2131902 0.3695458 1 0 1
-0.08732523 -0.2162112 0.3737709 1 0 1
-0.08506467 -0.2186786 0.3771582 1 0 1
-0.08248728 -0.2189364 0.3772141 1 0 1
-0.07997634 -0.2197397 0.3780933 1 0 1
-0.07745686 -0.2205371 0.3789647 1 0 1
-0.07480995 -0.2202233 0.3781658 1 0 1
-0.07222573 -0.2204552 0.3781902 1 0 1
-0.06964093 -0.2206807 0.3782069 1 0 1
-0.06705555 -0.2208995 0.3782156 1 0 1
-0.06429444 -0.2188957 0.3748911 1 0 1
-0.06160407 -0.2174372 0.3723902 1 0 1
-0.05897269 -0.216525 0.3707128 1 0 1
-0.05632456 -0.2150501 0.3681965 1 0 1
-0.05381196 -0.2157879 0.3689978 1 0 1
-0.05129122 -0.2165198 0.3697911 1 0 1
-0.0488637 -0.2200244 0.3747323 1 0 1
0.06443764 0.005026846 0.03010046 1 0 1
0.07266644 -0.004793078 0.04417237 1 0 1
0.07446846 -0.005623165 0.04532018 1 0 1
0.0762834 -0.006447337 0.04645963 1 0 1
0.0761444 -0.004639111 0.04381799 1 0 1
0.076379 -0.003357485 0.04193443 1 0 1
0.07579626 -0.001029174 0.03854933 1 0 1
0.07599138 0.0002495662 0.03667306 1 0 1
0.07576268 0.002049493 0.03405008 1 0 1
0.07674489 0.002283678 0.03367574 1 0 1
0.07731046 0.003040702 0.03255203 1 0 1
0.07828579 0.00327926 0.03217316 1 0 1
0.07925941 0.003520393 0.03179141 1 0 1
0.08065709 0.003246577 0.03214893 1 0 1
0.08120162 0.00401046 0.03101917 1 0 1
0.08173723 0.004775155 0.02988931 1 0 1
0.08182762 0.006055441 0.02802148 1 0 1
0.08234204 0.006820607 0.02689312 1 0 1
0.08240413 0.008099454 0.02502983 1 0 1
0.08200329 0.009888989 0.0224361 1 0 1
0.07977726 0.01371938 0.01692041 1 0 1
0.07659202 0.01855879 0.009961909 1 0 1
0.07288419 0.023892 0.002298915 1 0 1
0.0681823 0.03022388 -0.006791295 1 0 1
0.06664708 0.03298448 -0.01076558 1 0 1
0.06741592 0.03320671 -0.01110476 1 0 1
0.06676843 0.03494618 -0.01361486 1 0 1
0.06704874 0.03567351 -0.01467524 1 0 1
0.06732056 0.03640084 -0.01573478 1 0 1
0.06758393 0.03712808 -0.01679341 1 0 1
0.06783885 0.03785522 -0.0178511 1 0 1
0.0685743 0.03808246 -0.01819287 1 0 1
0.06881582 0.03881039 -0.01925017 1 0 1
0.06954474 0.03904054 -0.01959477 1 0 1
0.06977291 0.03976923 -0.02065161 1 0 1
0.07049535 0.04000221 -0.02099891 1 0 1
-0.218902 -0.2068597 0.3746689 1 0 1
-0.2160859 -0.2069382 0.3743224 1 0 1
-0.2132746 -0.2070086 0.3739668 1 0 1
-0.210729 -0.2075948 0.3744128 1 0 1
-0.2079241 -0.2076495 0.3740393 1 0 1
-0.2074019 -0.2124277 0.380966 1 0 1
-0.2050715 -0.2135268 0.3822054 1 0 1
-0.2044494 -0.2183129 0.3891318 1 0 1
-0.1154881 -0.1924078 0.3377601 1 0 1
-0.1163736 -0.2069931 0.359407 1 0 1
-0.1143678 -0.2095226 0.3628674 1 0 1
-0.1122114 -0.2115006 0.365495 1 0 1
-0.1096873 -0.2118253 0.3656342 1 0 1
-0.1078249 -0.2154462 0.3707309 1 0 1
-0.1049553 -0.2141082 0.3683727 1 0 1
-0.1026215 -0.2155178 0.3701451 1 0 1
-0.09977713 -0.2141637 0.3677701 1 0 1
-0.09723978 -0.2144572 0.3678711 1 0 1
-0.0942466 -0.2119805 0.3638225 1 0 1
-0.09190098 -0.2133654 0.3655644 1 0 1
-0.08928942 -0.2130847 0.3648132 1 0 1
-0.08708099 -0.2155669 0.3681978 1 0 1
-0.08468982 -0.216937 0.3699178 1 0 1
-0.08221075 -0.2177474 0.3708015 1 0 1
-0.07958809 -0.2174417 0.3700196 1 0 1
-0.07716333 -0.2187955 0.3717169 1 0 1
-0.0744835 -0.2179205 0.3700904 1 0 1
-0.07193018 -0.2181502 0.3701141 1 0 1
-0.06953182 -0.2200431 0.3726175 1 0 1
-0.06686972 -0.2191469 0.3709674 1 0 1
-0.06417873 -0.2176856 0.3684804 1 0 1
-0.06151076 -0.2162159 0.3659857 1 0 1
-0.0587935 -0.2136221 0.3618251 1 0 1
-0.05624405 -0.2132517 0.3609735 1 0 1
-0.05373037 -0.2134327 0.3609434 1 0 1
-0.05121638 -0.2136073 0.3609058 1 0 1
-0.04872259 -0.2143345 0.3616894 1 0 1
0.07071391 -0.003053643 0.03977202 1 0 1
0.07519929 -0.007604774 0.04620706 1 0 1
0.07663184 -0.00790416 0.04658604 1 0 1
0.07649714 -0.006085134 0.04394985 1 0 1
0.07633901 -0.00426822 0.04131847 1 0 1
0.07615754 -0.002453585 0.03869207 1 0 1
0.07595274 -0.0006412101 0.03607066 1 0 1
0.07572462 0.001168739 0.0334544 1 0 1
0.07629581 0.001927531 0.03233463 1 0 1
0.07727297 0.002163771 0.03195897 1 0 1
0.07824851 0.002402632 0.03158032 1 0 1
0.07922233 0.002644089 0.03119876 1 0 1
0.08062005 0.00236739 0.03155432 1 0 1
0.08073574 0.003654729 0.02968832 1 0 1
0.08126819 0.004422059 0.02856229 1 0 1
0.08179176 0.005190125 0.02743627 1 0 1
0.08230653 0.005958865 0.02631028 1 0 1
0.08236909 0.007244478 0.02445156 1 0 1
0.08241577 0.008528799 0.0225959 1 0 1
0.08109525 0.01135453 0.01855382 1 0 1
0.07792192 0.01622606 0.01161062 1 0 1
0.07422613 0.02159464 0.003964988 1 0 1
0.06953647 0.02796832 -0.005103503 1 0 1
0.06754808 0.03125849 -0.009795072 1 0 1
0.06738811 0.03250162 -0.01158164 1 0 1
0.06721265 0.03374276 -0.01336431 1 0 1
0.06702175 0.03498185 -0.01514303 1 0 1
0.06729385 0.03571266 -0.01620018 1 0 1
0.06755754 0.03644342 -0.01725646 1 0 1
0.06781275 0.03717408 -0.01831177 1 0 1
0.06903717 0.03689861 -0.01794055 1 0 1
0.06928243 0.03763115 -0.0189971 1 0 1
0.07001497 0.03786269 -0.01934309 1 0 1
0.07024684 0.03859597 -0.02039918 1 0 1
0.07097283 0.03883037 -0.02074791 1 0 1
-0.2182615 -0.2074269 0.3708035 1 0 1
-0.215456 -0.2075007 0.3704563 1 0 1
-0.2121262 -0.2065135 0.3684838 1 0 1
-0.2095992 -0.2070963 0.3689256 1 0 1
-0.2068126 -0.2071446 0.3685502 1 0 1
-0.2063111 -0.211945 0.3754556 1 0 1
-0.2044987 -0.2141036 0.3783102 1 0 1
-0.117459 -0.2021063 0.3479555 1 0 1
-0.1169066 -0.2107154 0.3604794 1 0 1
-0.1146449 -0.2121557 0.3622819 1 0 1
-0.1121293 -0.2124865 0.3624278 1 0 1
-0.109498 -0.2122576 0.3617408 1 0 1
-0.1076484 -0.2158971 0.3668233 1 0 1
-0.1047894 -0.2145486 0.3644705 1 0 1
-0.1023645 -0.2154092 0.3654118 1 0 1
-0.0995346 -0.2140442 0.3630422 1 0 1
-0.09710755 -0.214892 0.3639681 1 0 1
-0.09412452 -0.2123984 0.3599296 1 0 1
-0.09170337 -0.2132326 0.3608399 1 0 1
-0.0890234 -0.2123907 0.3592635 1 0 1
-0.08691458 -0.2154416 0.3634649 1 0 1
-0.0844635 -0.2162594 0.3643529 1 0 1
-0.08200385 -0.2170716 0.3652335 1 0 1
-0.07953555 -0.2178782 0.3661066 1 0 1
-0.07718647 -0.2197966 0.3686258 1 0 1
-0.07451353 -0.218915 0.367003 1 0 1
-0.07196769 -0.2191444 0.3670263 1 0 1
-0.06952535 -0.2204871 0.3686957 1 0 1
-0.06677781 -0.2184635 0.3653957 1 0 1
-0.06414955 -0.2175518 0.3637418 1 0 1
-0.0615365 -0.2166324 0.3620802 1 0 1
-0.05890221 -0.2151442 0.3595842 1 0 1
-0.05632359 -0.2142092 0.3579076 1 0 1
-0.05381735 -0.2143901 0.3578773 1 0 1
-0.05123687 -0.2128786 0.3553589 1 0 1
0.07620019 -0.00829982 0.04520159 1 0 1
0.07606248 -0.006471665 0.04257349 1 0 1
0.0759014 -0.004645573 0.03995021 1 0 1
0.07611728 -0.003351845 0.03807947 1 0 1
0.07591312 -0.001529517 0.03546481 1 0 1
0.07609314 -0.0002380241 0.03360014 1 0 1
0.07666827 0.0005251456 0.03248145 1 0 1
0.07723454 0.001289268 0.0313625 1 0 1
0.07821026 0.001528448 0.03098408 1 0 1
0.07918429 0.001770218 0.03060277 1 0 1
0.08015663 0.002014638 0.03021851 1 0 1
0.08026925 0.003307804 0.02835851 1 0 1
0.08079845 0.004077753 0.02723635 1 0 1
0.08131885 0.004848413 0.02611421 1 0 1
0.08183037 0.005619789 0.02499205 1 0 1
0.08188984 0.006911202 0.02313939 1 0 1
0.08238022 0.007682906 0.02201898 1 0 1
0.08196121 0.009490103 0.0194434 1 0 1
0.07925014 0.01387628 0.01324322 1 0 1
0.07602374 0.01876465 0.006339786 1 0 1
0.07134988 0.02518102 -0.002708388 1 0 1
0.06844773 0.02952166 -0.008836009 1 0 1
0.06735948 0.03179847 -0.01206119 1 0 1
0.06718445 0.03304629 -0.01383928 1 0 1
0.06699399 0.03429206 -0.01561344 1 0 1
0.06726638 0.03502639 -0.01666824 1 0 1
0.06753033 0.03576062 -0.01772209 1 0 1
0.06827106 0.03598751 -0.01806281 1 0 1
0.06901028 0.03621642 -0.01840575 1 0 1
0.06925581 0.03695246 -0.01945992 1 0 1
0.07048411 0.03668029 -0.0190983 1 0 1
0.07121867 0.03691525 -0.0194479 1 0 1
0.07195172 0.03715219 -0.0197997 1 0 1
-0.2187095 -0.2100799 0.3701605 1 0 1
-0.215631 -0.2096238 0.3690101 1 0 1
-0.21283 -0.2096873 0.3686551 1 0 1
-0.2118622 -0.213455 0.3739365 1 0 1
-0.2085298 -0.2124455 0.3719533 1 0 1
-0.1205943 -0.2060025 0.3496965 1 0 1
-0.1185241 -0.2080089 0.3523275 1 0 1
-0.1170619 -0.2127866 0.3590638 1 0 1
-0.1150456 -0.2153449 0.3625063 1 0 1
-0.1125219 -0.2156773 0.3626521 1 0 1
-0.109997 -0.2160032 0.3627902 1 0 1
-0.1081367 -0.2196641 0.3678595 1 0 1
-0.1051579 -0.2177506 0.36469 1 0 1
-0.1025187 -0.2175005 0.3639819 1 0 1
-0.09968768 -0.2161262 0.3616185 1 0 1
-0.09706987 -0.2158604 0.360894 1 0 1
-0.09400159 -0.2127912 0.3560417 1 0 1
-0.09159203 -0.2136278 0.3569489 1 0 1
-0.08900657 -0.2133388 0.3562004 1 0 1
-0.08682662 -0.2158451 0.3595656 1 0 1
-0.08431128 -0.2161046 0.3596264 1 0 1
-0.08179527 -0.2163578 0.3596795 1 0 1
-0.07948237 -0.2182895 0.3621987 1 0 1
-0.0770812 -0.2196549 0.3638859 1 0 1
-0.07436296 -0.2182034 0.3614424 1 0 1
-0.07189251 -0.2189944 0.3622897 1 0 1
-0.06946591 -0.2203426 0.3639541 1 0 1
-0.0667327 -0.2183052 0.3606625 1 0 1
-0.06416374 -0.21795 0.3598374 1 0 1
-0.06156157 -0.2170236 0.3581799 1 0 1
-0.05897463 -0.2160896 0.3565149 1 0 1
-0.05633756 -0.2140187 0.353193 1 0 1
-0.05381784 -0.2136339 0.3523378 1 0 1
-0.05120616 -0.2109814 0.3481771 1 0 1
0.07588509 -0.01052595 0.04644273 1 0 1
0.07654648 -0.00975803 0.04531654 1 0 1
0.07641309 -0.007919061 0.04269395 1 0 1
0.07625628 -0.006082249 0.04007622 1 0 1
0.0760761 -0.004247681 0.0374634 1 0 1
0.07587254 -0.002415407 0.03485562 1 0 1
0.07605308 -0.001117173 0.03299557 1 0 1
0.07703953 -0.0008811984 0.03262046 1 0 1
0.07760973 -0.0001127377 0.03150262 1 0 1
0.07817108 0.000656606 0.03038457 1 0 1
0.07914533 0.0008987492 0.03000343 1 0 1
0.08011787 0.001143453 0.02961941 1 0 1
0.08023094 0.002443374 0.02776405 1 0 1
0.08076046 0.003216843 0.02664429 1 0 1
0.08128121 0.003991042 0.02552457 1 0 1
0.08179308 0.004765952 0.02440486 1 0 1
0.08229616 0.005541556 0.02328527 1 0 1
0.08279037 0.006317744 0.02216579 1 0 1
0.08282568 0.007615175 0.02032101 1 0 1
0.08103032 0.01098989 0.01558357 1 0 1
0.0778194 0.01591126 0.008694068 1 0 1
0.07270066 0.02288787 -0.001054545 1 0 1
0.06934606 0.02777406 -0.007888423 1 0 1
0.06826551 0.03006592 -0.01110768 1 0 1
0.06762668 0.03183709 -0.01360061 1 0 1
0.0674401 0.03309059 -0.01537176 1 0 1
0.06819441 0.03331688 -0.01571249 1 0 1
0.0684656 0.03405672 -0.01676713 1 0 1
0.06872831 0.03479646 -0.01782082 1 0 1
0.06947113 0.03502676 -0.01816515 1 0 1
0.07021242 0.03525907 -0.0185117 1 0 1
0.07095216 0.03549342 -0.01886047 1 0 1
0.07169034 0.03572977 -0.01921148 1 0 1
0.07192466 0.03647316 -0.02026659 1 0 1
-0.2183398 -0.2111408 0.367098 1 0 1
-0.2144609 -0.2090823 0.3635405 1 0 1
-0.2116782 -0.2091391 0.3631834 1 0 1
-0.210992 -0.2134559 0.3692521 1 0 1
-0.1214209 -0.2108164 0.352396 1 0 1
-0.1190703 -0.2117208 0.3533815 1 0 1
-0.1173445 -0.2154102 0.3584601 1 0 1
-0.1149562 -0.2163067 0.3594327 1 0 1
-0.1125589 -0.2171978 0.3603979 1 0 1
-0.1100376 -0.217524 0.3605353 1 0 1
-0.1078486 -0.219524 0.3631278 1 0 1
-0.1048841 -0.2175963 0.3599659 1 0 1
-0.1022599 -0.2173416 0.3592587 1 0 1
-0.0993439 -0.215395 0.3560793 1 0 1
-0.09684055 -0.2156862 0.3561774 1 0 1
-0.09406115 -0.2142837 0.3538026 1 0 1
-0.09165539 -0.2151238 0.354707 1 0 1
-0.08898937 -0.2142684 0.353138 1 0 1
-0.0866579 -0.2156598 0.3548495 1 0 1
-0.08415791 -0.2159183 0.3549094 1 0 1
-0.0816571 -0.2161703 0.3549618 1 0 1
-0.07922372 -0.216981 0.3558289 1 0 1
-0.07678185 -0.2177858 0.3566884 1 0 1
-0.07427111 -0.2180195 0.3567181 1 0 1
-0.07170322 -0.2176808 0.3559176 1 0 1
-0.06924766 -0.2184675 0.3567546 1 0 1
-0.06663786 -0.2175487 0.3551164 1 0 1
-0.06408789 -0.2171891 0.3542931 1 0 1
-0.06146372 -0.2156879 0.3518173 1 0 1
-0.05893629 -0.2153136 0.350979 1 0 1
-0.05631753 -0.2132287 0.3476658 1 0 1
-0.05378781 -0.2122716 0.3459904 1 0 1
-0.05112289 -0.2078962 0.3393737 1 0 1
-0.04864742 -0.2069227 0.3376842 1 0 1
0.07584063 -0.01145254 0.04580023 1 0 1
0.07650235 -0.01068114 0.0446765 1 0 1
0.07715515 -0.009908552 0.04355226 1 0 1
0.07660985 -0.007522833 0.04019431 1 0 1
0.07683393 -0.006214002 0.03833009 1 0 1
0.07663828 -0.004370155 0.03572648 1 0 1
0.07641933 -0.002528704 0.03312803 1 0 1
0.07699871 -0.001757632 0.03201277 1 0 1
0.0775693 -0.0009856463 0.03089731 1 0 1
0.07813096 -0.0002127683 0.0297817 1 0 1
0.07868382 0.0005609467 0.02866597 1 0 1
0.07965295 0.0008050841 0.02828359 1 0 1
0.08019171 0.001581336 0.02716628 1 0 1
0.08072157 0.002358319 0.02604899 1 0 1
0.0816785 0.002608443 0.0256608 1 0 1
0.08219428 0.003387806 0.02454211 1 0 1
0.08270121 0.00416786 0.02342346 1 0 1
0.08275284 0.005473328 0.02158021 1 0 1
0.08323859 0.00625367 0.02046335 1 0 1
0.08190134 0.009125941 0.01645965 1 0 1
0.07961303 0.01303458 0.01102776 1 0 1
0.07497089 0.01953602 0.002020698 1 0 1
0.07163523 0.02445615 -0.004800736 1 0 1
0.0696377 0.02780378 -0.009449991 1 0 1
0.06806778 0.03062351 -0.01336897 1 0 1
0.06788512 0.03188466 -0.01513704 1 0 1
0.06816503 0.03262804 -0.01619013 1 0 1
0.06843653 0.03337134 -0.01724233 1 0 1
0.06918448 0.03360098 -0.0175858 1 0 1
0.06993092 0.03383265 -0.01793153 1 0 1
0.07067584 0.03406635 -0.01827944 1 0 1
0.07092382 0.03481246 -0.01933261 1 0 1
0.07216091 0.03453989 -0.01898202 1 0 1
0.07239891 0.03528785 -0.02003638 1 0 1
-0.2185151 -0.2132509 0.365636 1 0 1
-0.2149038 -0.2117127 0.3628894 1 0 1
-0.2107894 -0.2090892 0.3585267 1 0 1
-0.1218377 -0.2035476 0.3377331 1 0 1
-0.1206328 -0.2089342 0.3452573 1 0 1
-0.118702 -0.2115209 0.348691 1 0 1
-0.1168658 -0.2146668 0.3529369 1 0 1
-0.1144969 -0.2155645 0.3539054 1 0 1
-0.1122383 -0.2170192 0.3556851 1 0 1
-0.1097321 -0.2173439 0.3558211 1 0 1
-0.1072248 -0.2176623 0.3559495 1 0 1
-0.1043938 -0.2162828 0.3536135 1 0 1
-0.1017924 -0.2160227 0.3529071 1 0 1
-0.09909804 -0.2151905 0.3513735 1 0 1
-0.09680159 -0.2166108 0.3531092 1 0 1
-0.09412088 -0.2157641 0.3515599 1 0 1
-0.09154286 -0.2154753 0.3508221 1 0 1
-0.08880363 -0.2140463 0.3484371 1 0 1
-0.08632752 -0.2143092 0.3485035 1 0 1
-0.08377437 -0.2139985 0.3477424 1 0 1
-0.08130059 -0.2142483 0.3477937 1 0 1
-0.07882608 -0.2144918 0.3478374 1 0 1
-0.07641542 -0.2152975 0.3486939 1 0 1
-0.07399621 -0.2160976 0.3495431 1 0 1
-0.07139848 -0.2151845 0.3479239 1 0 1
-0.06902694 -0.2165417 0.3495783 1 0 1
-0.06639485 -0.2150446 0.3471237 1 0 1
-0.06401041 -0.2163903 0.3487632 1 0 1
-0.06140483 -0.2148782 0.3462937 1 0 1
-0.05897059 -0.2156412 0.3470978 1 0 1
-0.05649498 -0.2158275 0.3470743 1 0 1
-0.05401896 -0.2160073 0.3470432 1 0 1
-0.0513654 -0.2121792 0.341264 1 0 1
0.07451238 -0.008890802 0.0403088 1 0 1
0.07593261 -0.009201546 0.04068064 1 0 1
0.07616974 -0.007886266 0.03882016 1 0 1
0.07679058 -0.007111222 0.03770275 1 0 1
0.07659558 -0.005257505 0.03510608 1 0 1
0.07678432 -0.003944148 0.03325262 1 0 1
0.076957 -0.002631586 0.03140168 1 0 1
0.0775279 -0.001856087 0.03028869 1 0 1
0.07767205 -0.0005443315 0.02844151 1 0 1
0.0786431 -0.0003024958 0.02806223 1 0 1
0.07961244 -5.804019E-05 0.02768008 1 0 1
0.08015151 0.0007217262 0.02656522 1 0 1
0.08068173 0.001502228 0.02545036 1 0 1
0.08120312 0.002283461 0.02433552 1 0 1
0.08215493 0.002535507 0.02394623 1 0 1
0.08221941 0.003848011 0.02210605 1 0 1
0.0827143 0.004631263 0.02099147 1 0 1
0.08320041 0.005415113 0.01987706 1 0 1
0.08231746 0.007777582 0.01660424 1 0 1
0.08049081 0.01118475 0.01190463 1 0 1
0.07677843 0.01667854 0.004354411 1 0 1
0.07299428 0.02215458 -0.003167916 1 0 1
0.07054085 0.02604658 -0.008521709 1 0 1
0.06897874 0.02888451 -0.0124325 1 0 1
0.06880349 0.03015443 -0.01419905 1 0 1
0.06861275 0.03142222 -0.01596162 1 0 1
0.06936935 0.03165221 -0.01630577 1 0 1
0.06963957 0.03240107 -0.01735782 1 0 1
0.07038962 0.0326341 -0.01770488 1 0 1
0.07113811 0.03286921 -0.0180542 1 0 1
0.07138984 0.03361988 -0.01910654 1 0 1
0.07213175 0.03385799 -0.01945872 1 0 1
0.07287211 0.03409814 -0.01981314 1 0 1
-0.2178704 -0.2137436 0.3617717 1 0 1
-0.2134606 -0.210577 0.3566352 1 0 1
-0.1232406 -0.2105947 0.3436775 1 0 1
-0.1218674 -0.2154524 0.3503684 1 0 1
-0.1195127 -0.216365 0.3513485 1 0 1
-0.116767 -0.215579 0.3498748 1 0 1
-0.1145291 -0.2170445 0.3516559 1 0 1
-0.1122745 -0.2185057 0.3534304 1 0 1
-0.1096563 -0.2182645 0.3527493 1 0 1
-0.1071565 -0.2185825 0.3528767 1 0 1
-0.1045478 -0.218327 0.3521799 1 0 1
-0.101842 -0.2174969 0.3506584 1 0 1
-0.09885078 -0.2149547 0.3466777 1 0 1
-0.09647404 -0.2158118 0.3475906 1 0 1
-0.0939042 -0.2155257 0.3468618 1 0 1
-0.09134127 -0.2152326 0.3461254 1 0 1
-0.08853221 -0.2132232 0.3429286 1 0 1
-0.08615579 -0.2140547 0.3438116 1 0 1
-0.08354116 -0.2131691 0.3422342 1 0 1
-0.08101404 -0.2128465 0.3414668 1 0 1
-0.07863138 -0.2136595 0.3423276 1 0 1
-0.07630494 -0.2150387 0.3439991 1 0 1
-0.07396212 -0.216413 0.3456632 1 0 1
-0.07143225 -0.2160653 0.3448661 1 0 1
-0.06896262 -0.2162833 0.3448795 1 0 1
-0.06644336 -0.2159218 0.3440673 1 0 1
-0.06406693 -0.2172736 0.3457018 1 0 1
-0.06142681 -0.2151781 0.3424208 1 0 1
-0.05904157 -0.2165179 0.3440404 1 0 1
-0.05654003 -0.2161297 0.3431986 1 0 1
-0.05410488 -0.2168837 0.3439852 1 0 1
-0.04892908 -0.2108975 0.3349046 1 0 1
0.06843042 -0.002920966 0.0303711 1 0 1
0.07485601 -0.01033816 0.04041554 1 0 1
0.07706478 -0.01173997 0.04226649 1 0 1
0.07652114 -0.009328148 0.03892684 1 0 1
0.07674623 -0.008005953 0.03707204 1 0 1
0.0765519 -0.006142346 0.03448228 1 0 1
0.07674114 -0.004822371 0.03263358 1 0 1
0.07691433 -0.003503093 0.03078728 1 0 1
0.07707144 -0.002184682 0.0289436 1 0 1
0.07763021 -0.0014057 0.02783428 1 0 1
0.07818016 -0.0006258714 0.02672487 1 0 1
0.07914612 -0.0003819916 0.02634431 1 0 1
0.07968193 0.0004003339 0.02523338 1 0 1
0.08064093 0.0006485041 0.02484854 1 0 1
0.08116267 0.001433245 0.02373617 1 0 1
0.08167554 0.002218717 0.02262382 1 0 1
0.08217963 0.003004813 0.02151162 1 0 1
0.08267482 0.003791574 0.0203995 1 0 1
0.08316128 0.004578933 0.01928756 1 0 1
0.08273236 0.006425257 0.01674122 1 0 1
0.08136703 0.009324508 0.01276957 1 0 1
0.07812364 0.01432508 0.005953113 1 0 1
0.07481542 0.01930992 -0.0008385276 1 0 1
0.07190982 0.02375361 -0.006893835 1 0 1
0.06988831 0.02713486 -0.01150758 1 0 1
0.06924619 0.02893655 -0.01398069 1 0 1
0.06953715 0.02968997 -0.0150336 1 0 1
0.06981958 0.03044336 -0.01608565 1 0 1
0.07009356 0.03119675 -0.01713686 1 0 1
0.07133534 0.03091234 -0.0167835 1 0 1
0.07159927 0.03166772 -0.01783601 1 0 1
0.07185477 0.03242295 -0.0188875 1 0 1
0.07260027 0.03266247 -0.01924107 1 0 1
0.07284229 0.0334185 -0.02029217 1 0 1
-0.1238131 -0.2142974 0.3446982 1 0 1
-0.1220241 -0.2174831 0.3489328 1 0 1
-0.1195378 -0.2178325 0.349097 1 0 1
-0.1167952 -0.2170403 0.347627 1 0 1
-0.1143141 -0.217376 0.3477757 1 0 1
-0.1121911 -0.2194113 0.3503582 1 0 1
-0.1094644 -0.2185974 0.3488645 1 0 1
-0.106864 -0.2183448 0.3481765 1 0 1
-0.1041623 -0.2175147 0.3466663 1 0 1
-0.1014752 -0.2166763 0.3451479 1 0 1
-0.09870233 -0.2152586 0.3428066 1 0 1
-0.09643354 -0.2166897 0.3445313 1 0 1
-0.09387098 -0.2164002 0.3438039 1 0 1
-0.09140375 -0.216676 0.3438841 1 0 1
-0.08859735 -0.2146538 0.3406957 1 0 1
-0.08606337 -0.2143421 0.3399452 1 0 1
-0.08338296 -0.2128757 0.3375562 1 0 1
-0.0807253 -0.2114007 0.3351592 1 0 1
-0.07822817 -0.2110661 0.3343857 1 0 1
-0.0758682 -0.2118743 0.3352361 1 0 1
-0.07356081 -0.2132522 0.3368949 1 0 1
-0.07112282 -0.2134741 0.336915 1 0 1
-0.06879069 -0.2148417 0.3385593 1 0 1
-0.066393 -0.215628 0.3393806 1 0 1
-0.06407774 -0.217562 0.3418259 1 0 1
-0.06148962 -0.2160301 0.3393693 1 0 1
-0.05907477 -0.2167988 0.3401683 1 0 1
-0.05658447 -0.2164069 0.3393284 1 0 1
-0.05410161 -0.216008 0.3384813 1 0 1
0.07480969 -0.01124076 0.03977401 1 0 1
0.07701816 -0.01265184 0.04161837 1 0 1
0.07607946 -0.009680093 0.03755032 1 0 1
0.07630143 -0.008352078 0.03570156 1 0 1
0.07650727 -0.007024714 0.03385514 1 0 1
0.07669705 -0.005698064 0.03201113 1 0 1
0.07646036 -0.003828651 0.02943731 1 0 1
0.07661436 -0.002504453 0.02759968 1 0 1
0.0771699 -0.001722862 0.02649427 1 0 1
0.07771659 -0.0009404688 0.02538871 1 0 1
0.07867915 -0.0006971553 0.0250098 1 0 1
0.07921173 8.774975E-05 0.02390277 1 0 1
0.08016735 0.0003353185 0.02351959 1 0 1
0.08112125 0.0005854571 0.02313355 1 0 1
0.08163445 0.001374438 0.02202369 1 0 1
0.08213884 0.002163997 0.02091398 1 0 1
0.08263439 0.002954267 0.01980434 1 0 1
0.08312117 0.003745145 0.01869489 1 0 1
0.083146 0.005068928 0.01687058 1 0 1
0.08178509 0.007985289 0.01290886 1 0 1
0.07946705 0.01195488 0.007535446 1 0 1
0.07617083 0.01697145 0.0007596487 1 0 1
0.07327711 0.02144377 -0.005282173 1 0 1
0.07032582 0.02590189 -0.01130174 1 0 1
0.07016191 0.02718813 -0.01306357 1 0 1
0.06998248 0.0284723 -0.01482147 1 0 1
0.07074981 0.02870607 -0.0151699 1 0 1
0.07054644 0.0299881 -0.01692292 1 0 1
0.07179169 0.02970195 -0.0165732 1 0 1
0.07255082 0.02994093 -0.0169269 1 0 1
0.07281347 0.03070184 -0.01797921 1 0 1
0.07306766 0.0314626 -0.01903049 1 0 1
0.07331338 0.0322232 -0.02008075 1 0 1
-0.1234114 -0.2140292 0.3400253 1 0 1
-0.1213678 -0.2160898 0.3426259 1 0 1
-0.1190362 -0.2170068 0.3435988 1 0 1
-0.1165678 -0.2173478 0.3437536 1 0 1
-0.1139743 -0.2171112 0.3430898 1 0 1
-0.1116274 -0.2180109 0.344041 1 0 1
-0.1091553 -0.2183329 0.3441735 1 0 1
-0.1064578 -0.217503 0.3426745 1 0 1
-0.1037749 -0.2166646 0.3411674 1 0 1
-0.1012107 -0.216392 0.3404644 1 0 1
-0.09855305 -0.2155376 0.3389411 1 0 1
-0.09619958 -0.2163996 0.3398478 1 0 1
-0.0937447 -0.2166809 0.3399345 1 0 1
-0.09102274 -0.215229 0.3375751 1 0 1
-0.08823854 -0.2131921 0.3343947 1 0 1
-0.08580838 -0.2134516 0.3344584 1 0 1
-0.08322348 -0.2125511 0.3328885 1 0 1
-0.0806535 -0.2116428 0.3313109 1 0 1
-0.07823673 -0.211882 0.3313523 1 0 1
-0.07588448 -0.2126931 0.3321998 1 0 1
-0.07340116 -0.2123418 0.3314133 1 0 1
-0.07098241 -0.2125624 0.3314329 1 0 1
-0.06861658 -0.213356 0.3322587 1 0 1
-0.06624231 -0.214144 0.3330772 1 0 1
-0.063951 -0.216086 0.3355153 1 0 1
-0.0614271 -0.2151231 0.3338787 1 0 1
-0.05906959 -0.2164743 0.3354886 1 0 1
-0.05659435 -0.2160785 0.3346509 1 0 1
-0.05415657 -0.2162567 0.3346192 1 0 1
0.07592791 -0.0137959 0.04134315 1 0 1
0.0769706 -0.01356109 0.04096678 1 0 1
0.07642863 -0.01112327 0.03764572 1 0 1
0.07705412 -0.010337 0.03653444 1 0 1
0.07646175 -0.007904539 0.03322459 1 0 1
0.07665202 -0.006571225 0.03138535 1 0 1
0.07641599 -0.004692037 0.02881853 1 0 1
0.07657048 -0.003361211 0.0269857 1 0 1
0.07670897 -0.002031266 0.02515548 1 0 1
0.07767337 -0.001790269 0.02477968 1 0 1
0.07821157 -0.001003561 0.02367657 1 0 1
0.07916903 -0.0007582937 0.02329648 1 0 1
0.07969312 3.085577E-05 0.02219189 1 0 1
0.08064362 0.0002804079 0.02180755 1 0 1
0.08115365 0.001071887 0.02070166 1 0 1
0.08209715 0.001325618 0.02031312 1 0 1
0.08259305 0.002119366 0.01920601 1 0 1
0.08308011 0.002913692 0.01809909 1 0 1
0.08310542 0.004244119 0.01627952 1 0 1
0.08265844 0.006107604 0.01375191 1 0 1
0.0808086 0.009568065 0.009101262 1 0 1
0.07798798 0.01408382 0.003049687 1 0 1
0.07464261 0.01911711 -0.003686691 1 0 1
0.07170317 0.02360377 -0.009692686 1 0 1
0.07107618 0.02542911 -0.01215807 1 0 1
0.0709042 0.02672197 -0.0139144 1 0 1
0.0707167 0.02801274 -0.01566674 1 0 1
0.07148261 0.02824895 -0.01601723 1 0 1
0.07273477 0.02796212 -0.01567272 1 0 1
0.07300962 0.02872765 -0.01672508 1 0 1
0.07327601 0.02949309 -0.01777649 1 0 1
0.07353391 0.03025842 -0.01882695 1 0 1
0.07328175 0.03154435 -0.02056719 1 0 1
-0.1251548 -0.2122303 0.3335727 1 0 1
-0.1231479 -0.2143022 0.3361708 1 0 1
-0.1208448 -0.2152255 0.3371465 1 0 1
-0.118137 -0.2144233 0.3356896 1 0 1
-0.1159554 -0.2159086 0.3374596 1 0 1
-0.113633 -0.2168152 0.3384141 1 0 1
-0.1114217 -0.2182917 0.3401709 1 0 1
-0.1089612 -0.2186128 0.3403022 1 0 1
-0.1066118 -0.2195036 0.3412357 1 0 1
-0.1040365 -0.2192361 0.3405424 1 0 1
-0.1012588 -0.2178074 0.3382214 1 0 1
-0.09860419 -0.2169469 0.3367021 1 0 1
-0.09625458 -0.217812 0.3376057 1 0 1
-0.09371042 -0.2175151 0.3368813 1 0 1
-0.09108418 -0.2166322 0.3353388 1 0 1
-0.08830269 -0.2145828 0.3321669 1 0 1
-0.08595727 -0.215422 0.3330408 1 0 1
-0.08337162 -0.2145157 0.331475 1 0 1
-0.08065419 -0.2124405 0.3282795 1 0 1
-0.07831433 -0.2132604 0.3291314 1 0 1
-0.0759005 -0.2134935 0.3291651 1 0 1
-0.07336289 -0.2125572 0.3275692 1 0 1
-0.07101322 -0.2133592 0.3283995 1 0 1
-0.06876258 -0.2153202 0.3308449 1 0 1
-0.06633848 -0.2155292 0.3308495 1 0 1
-0.06400561 -0.2168979 0.3324692 1 0 1
-0.06161458 -0.2176783 0.3332703 1 0 1
-0.05925329 -0.2190367 0.3348753 1 0 1
-0.05687589 -0.2203899 0.3364727 1 0 1
-0.05451256 -0.2223223 0.3388737 1 0 1
0.0848105 -0.02746459 0.05761031 1 0 1
0.08005769 -0.01890003 0.0461873 1 0 1
0.0775677 -0.01367658 0.0391994 1 0 1
0.07740597 -0.01177956 0.036623 1 0 1
0.07681808 -0.009333377 0.03332121 1 0 1
0.07741889 -0.008543247 0.03221446 1 0 1
0.07678067 -0.006102759 0.02892424 1 0 1
0.07693934 -0.004764416 0.02709483 1 0 1
0.07708188 -0.003426983 0.025268 1 0 1
0.07762922 -0.002637638 0.02416744 1 0 1
0.07774339 -0.001301234 0.02234462 1 0 1
0.07869742 -0.001056528 0.02196615 1 0 1
0.07921828 -0.0002648853 0.02086558 1 0 1
0.07973033 0.0005275182 0.019765 1 0 1
0.08067216 0.0007780679 0.01938096 1 0 1
0.08161231 0.001031213 0.01899411 1 0 1
0.082105 0.001827418 0.017891 1 0 1
0.08303815 0.002084686 0.01750007 1 0 1
0.08306393 0.003421731 0.01568531 1 0 1
0.08307388 0.004757314 0.01387379 1 0 1
0.08168851 0.0077013 0.009943011 1 0 1
0.07933966 0.0117089 0.004612734 1 0 1
0.07647318 0.0162392 -0.001403159 1 0 1
0.07307877 0.02128891 -0.008099888 1 0 1
0.0715152 0.02419214 -0.01196568 1 0 1
0.07182442 0.02496115 -0.01301901 1 0 1
0.07164436 0.02626061 -0.01476973 1 0 1
0.07193308 0.02702861 -0.01581983 1 0 1
0.07318868 0.02674004 -0.01547891 1 0 1
0.07346729 0.02751007 -0.01653036 1 0 1
0.07324281 0.02880615 -0.01827276 1 0 1
0.07399903 0.02904996 -0.0186305 1 0 1
0.07375076 0.03034355 -0.02036763 1 0 1
-0.1245904 -0.2113204 0.3281213 1 0 1
-0.1224636 -0.212824 0.3299048 1 0 1
-0.1203198 -0.2143239 0.3316821 1 0 1
-0.1174985 -0.2129367 0.3294216 1 0 1
-0.1154689 -0.2150028 0.3319917 1 0 1
-0.1129171 -0.2147553 0.3313287 1 0 1
-0.1107334 -0.2162351 0.3330789 1 0 1
-0.1085328 -0.2177106 0.3348224 1 0 1
-0.1063156 -0.2191819 0.3365596 1 0 1
-0.103538 -0.2177505 0.3342523 1 0 1
-0.1009923 -0.2174702 0.3335519 1 0 1
-0.09845348 -0.2171828 0.332844 1 0 1
-0.09601853 -0.2174692 0.3329364 1 0 1
-0.09339634 -0.2165863 0.331405 1 0 1
-0.09096736 -0.2168593 0.3314825 1 0 1
-0.08828159 -0.2153789 0.3291274 1 0 1
-0.0858626 -0.2156381 0.3291898 1 0 1
-0.08328788 -0.2147248 0.327628 1 0 1
-0.08072808 -0.2138035 0.3260583 1 0 1
-0.07832246 -0.2140426 0.3260987 1 0 1
-0.07591618 -0.2142755 0.3261319 1 0 1
-0.07338562 -0.2133326 0.3245401 1 0 1
-0.07098588 -0.2135524 0.3245587 1 0 1
-0.06874741 -0.2155223 0.3269967 1 0 1
-0.06638483 -0.2163165 0.3278098 1 0 1
-0.06405994 -0.2176913 0.3294245 1 0 1
-0.06163452 -0.2178883 0.3294142 1 0 1
-0.05920868 -0.2180789 0.3293964 1 0 1
-0.05671375 -0.2170893 0.3277539 1 0 1
0.08353285 -0.02484392 0.05209983 1 0 1
0.0787048 -0.01624621 0.04073588 1 0 1
0.07815561 -0.01378141 0.0374331 1 0 1
0.07677049 -0.01021127 0.03268171 1 0 1
0.07737164 -0.009417662 0.03157746 1 0 1
0.07673429 -0.006964311 0.02829664 1 0 1
0.07689342 -0.005619374 0.02647202 1 0 1
0.07703649 -0.004275328 0.02464996 1 0 1
0.07758418 -0.003482549 0.02355195 1 0 1
0.07727461 -0.001590176 0.0210141 1 0 1
0.07822526 -0.001346086 0.02063727 1 0 1
0.07874285 -0.000551879 0.01954058 1 0 1
0.07925162 0.0002430075 0.01844401 1 0 1
0.08019012 0.000492976 0.01806162 1 0 1
0.08112688 0.0007454483 0.01767651 1 0 1
0.08161634 0.001544182 0.0165774 1 0 1
0.08209698 0.00234356 0.01547843 1 0 1
0.08256884 0.003143446 0.01437973 1 0 1
0.08257573 0.004484657 0.01257451 1 0 1
0.0816475 0.00690389 0.009362116 1 0 1
0.08022625 0.009856186 0.005455491 1 0 1
0.07736823 0.01441386 -0.0005450203 1 0 1
0.07398238 0.0194941 -0.007224121 1 0 1
0.07290041 0.02187967 -0.0103823 1 0 1
0.07274321 0.02318986 -0.01213532 1 0 1
0.07208992 0.02503152 -0.0145804 1 0 1
0.07238241 0.02580401 -0.01562956 1 0 1
0.07364145 0.02551373 -0.01529226 1 0 1
0.0739238 0.02628834 -0.01634285 1 0 1
0.07370321 0.02759203 -0.01808204 1 0 1
0.07446302 0.02783727 -0.01844118 1 0 1
0.07421859 0.02913852 -0.02017516 1 0 1
-0.124168 -0.2109513 0.3234884 1 0 1
-0.1219168 -0.2118811 0.3244622 1 0 1
-0.1193839 -0.2116475 0.3238218 1 0 1
-0.1168575 -0.2114066 0.3231736 1 0 1
-0.1147231 -0.2128992 0.3249305 1 0 1
-0.1123228 -0.2132263 0.3250721 1 0 1
-0.1102834 -0.2152911 0.3276205 1 0 1
-0.1081026 -0.2167709 0.329358 1 0 1
-0.1055664 -0.2164997 0.3286738 1 0 1
-0.1029279 -0.2156383 0.3271765 1 0 1
-0.1004091 -0.2153521 0.3264769 1 0 1
-0.09809948 -0.2162263 0.3273807 1 0 1
-0.0957811 -0.2170953 0.3282777 1 0 1
-0.09336051 -0.2173741 0.3283617 1 0 1
-0.09084959 -0.2170617 0.3276324 1 0 1
-0.08826007 -0.2161566 0.3260895 1 0 1
-0.08584865 -0.2164156 0.3261514 1 0 1
-0.08312561 -0.2143228 0.3229808 1 0 1
-0.08058072 -0.2133942 0.3214151 1 0 1
-0.07826035 -0.2142193 0.3222613 1 0 1
-0.07593152 -0.2150391 0.3231003 1 0 1
-0.07328397 -0.2129138 0.3198995 1 0 1
-0.07101586 -0.2143091 0.3215307 1 0 1
-0.06873148 -0.2156997 0.3231549 1 0 1
-0.06638059 -0.2164965 0.3239652 1 0 1
-0.06397496 -0.2166985 0.3239617 1 0 1
-0.06165374 -0.2180735 0.3255643 1 0 1
-0.05920086 -0.2176737 0.3247397 1 0 1
-0.05672092 -0.2166769 0.3231015 1 0 1
0.08582906 -0.02916063 0.05577774 1 0 1
0.0786542 -0.01715352 0.04006955 1 0 1
0.07850473 -0.01523453 0.03750343 1 0 1
0.07752689 -0.01220217 0.03349053 1 0 1
0.07772953 -0.0108465 0.03166163 1 0 1
0.07750636 -0.008935477 0.02911203 1 0 1
0.07767317 -0.007582229 0.02728948 1 0 1
0.07740705 -0.005675546 0.02474917 1 0 1
0.07753818 -0.004324964 0.02293325 1 0 1
0.0776533 -0.002975434 0.02112011 1 0 1
0.07818007 -0.00217851 0.02002596 1 0 1
0.078698 -0.001380834 0.01893179 1 0 1
0.07877237 -3.278692E-05 0.01712444 1 0 1
0.08014577 -0.0003322532 0.01745563 1 0 1
0.08108268 -7.941737E-05 0.01707071 1 0 1
0.08112703 0.001269638 0.01526521 1 0 1
0.08205344 0.001525586 0.01487775 1 0 1
0.0825256 0.00232896 0.01378157 1 0 1
0.08253299 0.003676728 0.01198118 1 0 1
0.08160558 0.006108765 0.008778217 1 0 1
0.08111131 0.007993268 0.006286175 1 0 1
0.07919477 0.01149658 0.001700922 1 0 1
0.07629456 0.01606952 -0.004265141 1 0 1
0.07428377 0.01955059 -0.008815324 1 0 1
0.07366052 0.02140819 -0.01126347 1 0 1
0.07301479 0.02326163 -0.0137046 1 0 1
0.0733145 0.02403969 -0.0147544 1 0 1
0.07360569 0.02481774 -0.01580333 1 0 1
0.07388832 0.02559576 -0.01685138 1 0 1
0.07416248 0.02637372 -0.01789851 1 0 1
0.07492585 0.02662036 -0.01825901 1 0 1
0.0746853 0.02792928 -0.01998984 1 0 1
-0.1259706 -0.2096153 0.3178899 1 0 1
-0.1237441 -0.2105514 0.3188663 1 0 1
-0.1216488 -0.2120644 0.3206373 1 0 1
-0.1192636 -0.2124089 0.3207993 1 0 1
-0.1166118 -0.2115816 0.3193507 1 0 1
-0.1143607 -0.2124961 0.3202997 1 0 1
-0.1121005 -0.2134056 0.321242 1 0 1
-0.1101942 -0.2160633 0.3245847 1 0 1
-0.1077874 -0.2163791 0.3247115 1 0 1
-0.1056058 -0.2178597 0.3264366 1 0 1
-0.1028612 -0.2164062 0.3241404 1 0 1
-0.1003497 -0.2161165 0.3234422 1 0 1
-0.09784498 -0.2158196 0.3227364 1 0 1
-0.09554219 -0.2166904 0.3236299 1 0 1
-0.09294976 -0.2157924 0.3221057 1 0 1
-0.09064124 -0.2166513 0.322985 1 0 1
-0.08806667 -0.2157387 0.3214458 1 0 1
-0.08567062 -0.2159965 0.3215068 1 0 1
-0.08303995 -0.2144795 0.3191487 1 0 1
-0.08058006 -0.2141338 0.318391 1 0 1
-0.07826754 -0.2149618 0.3192343 1 0 1
-0.07601267 -0.2163751 0.3208746 1 0 1
-0.07349237 -0.2154194 0.3192911 1 0 1
-0.07116219 -0.2162304 0.320113 1 0 1
-0.06882364 -0.217036 0.3209279 1 0 1
-0.06642611 -0.2172439 0.3209312 1 0 1
-0.06398152 -0.2168532 0.3201231 1 0 1
-0.06154427 -0.2164557 0.3193079 1 0 1
-0.05903698 -0.2148651 0.316877 1 0 1
-0.05655291 -0.2132667 0.3144393 1 0 1
0.0908621 -0.03745637 0.06451694 1 0 1
0.0805779 -0.02087131 0.0430308 1 0 1
0.0796499 -0.01781484 0.03901546 1 0 1
0.07828169 -0.01420305 0.03428681 1 0 1
0.07808613 -0.01227902 0.03173788 1 0 1
0.07745772 -0.009798238 0.02847327 1 0 1
0.07762504 -0.008438428 0.02665557 1 0 1
0.07735962 -0.006522027 0.02412241 1 0 1
0.07707097 -0.004608376 0.02159467 1 0 1
0.07760687 -0.003808779 0.02050304 1 0 1
0.07770652 -0.00245373 0.01869756 1 0 1
0.07822122 -0.001653582 0.01760744 1 0 1
0.07829253 -0.0002999055 0.01580632 1 0 1
0.07966234 -0.0006031087 0.01613693 1 0 1
0.08015413 0.000200003 0.01504563 1 0 1
0.08063716 0.001003708 0.01395452 1 0 1
0.08111138 0.001808012 0.01286364 1 0 1
0.08202913 0.002064846 0.01247666 1 0 1
0.08203346 0.003418212 0.01068262 1 0 1
0.08202203 0.004770003 0.008891973 1 0 1
0.08199479 0.00612022 0.007104663 1 0 1
0.08055274 0.00910065 0.003228019 1 0 1
0.07813429 0.01315896 -0.002027969 1 0 1
0.07613864 0.01666314 -0.006570334 1 0 1
0.07505312 0.0190754 -0.00971054 1 0 1
0.07393817 0.02148139 -0.01284064 1 0 1
0.0742451 0.02226501 -0.01389106 1 0 1
0.07454346 0.02304866 -0.01494065 1 0 1
0.07434266 0.02436874 -0.01667595 1 0 1
0.07462054 0.02515122 -0.01772214 1 0 1
0.07538749 0.02539933 -0.01808403 1 0 1
0.0751508 0.02671585 -0.01981164 1 0 1
-0.1250841 -0.2074322 0.3108881 1 0 1
-0.1233184 -0.2101208 0.3142552 1 0 1
-0.1210983 -0.2110536 0.315221 1 0 1
-0.1188691 -0.2119814 0.3161803 1 0 1
-0.1160993 -0.2105602 0.3139355 1 0 1
-0.1136097 -0.2103027 0.3132813 1 0 1
-0.1113768 -0.2112122 0.3142191 1 0 1
-0.109135 -0.2121166 0.3151502 1 0 1
-0.1067669 -0.2124279 0.3152745 1 0 1
-0.1046245 -0.2139103 0.3169925 1 0 1
-0.102137 -0.2136212 0.3163022 1 0 1
-0.09976186 -0.2139146 0.3164052 1 0 1
-0.0973857 -0.2142019 0.3165011 1 0 1
-0.09510633 -0.2150736 0.3173909 1 0 1
-0.09263052 -0.2147581 0.3166714 1 0 1
-0.0905214 -0.2168012 0.3191499 1 0 1
-0.08795784 -0.2158816 0.3176147 1 0 1
-0.08557328 -0.2161387 0.3176749 1 0 1
-0.08295339 -0.2146116 0.315323 1 0 1
-0.08050478 -0.214262 0.314567 1 0 1
-0.07813364 -0.214499 0.3146055 1 0 1
-0.07589467 -0.2159175 0.3162405 1 0 1
-0.07338933 -0.2149546 0.3146612 1 0 1
-0.07113343 -0.2163623 0.3162822 1 0 1
-0.06886123 -0.2177654 0.3178961 1 0 1
-0.06642058 -0.2173777 0.317097 1 0 1
-0.06389363 -0.2157922 0.3146872 1 0 1
-0.0615184 -0.2159862 0.3146759 1 0 1
-0.05902589 -0.2143854 0.3122517 1 0 1
-0.05641633 -0.2103906 0.3066136 1 0 1
-0.05376808 -0.2045951 0.2985637 1 0 1
0.07919901 -0.01815158 0.03761989 1 0 1
0.07823057 -0.0150857 0.033628 1 0 1
0.07803567 -0.01315199 0.03108629 1 0 1
0.07740816 -0.0106584 0.02783118 1 0 1
0.07757599 -0.009292064 0.02601838 1 0 1
0.07731127 -0.007366022 0.02349242 1 0 1
0.0774434 -0.006002374 0.02168625 1 0 1
0.07755955 -0.004639699 0.01988283 1 0 1
0.07808694 -0.003835923 0.01879377 1 0 1
0.07817468 -0.002474535 0.01699463 1 0 1
0.07824651 -0.001114312 0.01519843 1 0 1
0.07917827 -0.0008653032 0.0148197 1 0 1
0.07966691 -5.972405E-05 0.01373244 1 0 1
0.0801467 0.0007464439 0.01264538 1 0 1
0.0810663 0.001001088 0.01226137 1 0 1
0.08153205 0.001809362 0.01117329 1 0 1
0.08153336 0.003168235 0.009385659 1 0 1
0.08197807 0.003976502 0.008299718 1 0 1
0.08195131 0.005333262 0.006517319 1 0 1
0.08097642 0.007782464 0.003347771 1 0 1
0.07950218 0.0107718 -0.0005058431 1 0 1
0.07704497 0.01484298 -0.005730934 1 0 1
0.07596722 0.01727007 -0.00886479 1 0 1
0.07486003 0.01969087 -0.01198853 1 0 1
0.07469061 0.02102179 -0.01372706 1 0 1
0.07499274 0.02180995 -0.0147757 1 0 1
0.07479582 0.02313763 -0.01650776 1 0 1
0.07507744 0.0239246 -0.017553 1 0 1
0.07535056 0.02471151 -0.01859731 1 0 1
0.07561518 0.02549832 -0.01964067 1 0 1
-0.1278854 -0.2009718 0.2987777 1 0 1
-0.1252353 -0.2093074 0.309483 1 0 1
-0.123036 -0.2102471 0.3104516 1 0 1
-0.1209685 -0.2117697 0.3122102 1 0 1
-0.1188842 -0.2132887 0.3139628 1 0 1
-0.1161173 -0.2118583 0.3117242 1 0 1
-0.1138896 -0.212777 0.312666 1 0 1
-0.1116528 -0.2136907 0.3136012 1 0 1
-0.1092857 -0.2140087 0.313732 1 0 1
-0.1067999 -0.2137293 0.3130578 1 0 1
-0.1044343 -0.2140346 0.3131742 1 0 1
-0.1016288 -0.2119649 0.3100904 1 0 1
-0.09927689 -0.212256 0.310192 1 0 1
-0.09702586 -0.2131342 0.311085 1 0 1
-0.09466809 -0.2134136 0.3111725 1 0 1
-0.09230932 -0.2136869 0.311253 1 0 1
-0.09031051 -0.2163322 0.3145224 1 0 1
-0.08776183 -0.2154051 0.3129909 1 0 1
-0.08539274 -0.215661 0.3130503 1 0 1
-0.08294436 -0.2153149 0.3123032 1 0 1
-0.08050311 -0.2149619 0.3115489 1 0 1
-0.0781396 -0.2151986 0.3115869 1 0 1
-0.07577533 -0.2154291 0.3116178 1 0 1
-0.07341047 -0.2156536 0.3116416 1 0 1
-0.07110378 -0.2164697 0.3124579 1 0 1
-0.06878874 -0.2172803 0.3132671 1 0 1
-0.06636325 -0.2168886 0.31247 1 0 1
-0.06389812 -0.2158915 0.3108664 1 0 1
-0.06144818 -0.2148869 0.3092557 1 0 1
-0.0588959 -0.2120768 0.3052394 1 0 1
-0.05617077 -0.2056596 0.2964196 1 0 1
0.0803408 -0.02075149 0.03910641 1 0 1
0.07898235 -0.0171 0.03440358 1 0 1
0.07838986 -0.01458863 0.0311489 1 0 1
0.07776684 -0.01208148 0.02790206 1 0 1
0.07752603 -0.01014314 0.02537796 1 0 1
0.07726198 -0.008207484 0.02285924 1 0 1
0.07739464 -0.006837294 0.02105798 1 0 1
0.07751125 -0.005468126 0.01925947 1 0 1
0.07803903 -0.004660958 0.018173 1 0 1
0.07855791 -0.003853004 0.01708652 1 0 1
0.0786338 -0.002485334 0.01529381 1 0 1
0.07956929 -0.002235068 0.01491388 1 0 1
0.08006174 -0.001425111 0.01382773 1 0 1
0.0805454 -0.0006145751 0.0127418 1 0 1
0.08102027 0.0001966141 0.01165604 1 0 1
0.08148633 0.001008306 0.01057056 1 0 1
0.08148813 0.002373706 0.008787814 1 0 1
0.08193316 0.003185361 0.007704472 1 0 1
0.08236937 0.003997499 0.006621431 1 0 1
0.08186487 0.005910279 0.004152905 1 0 1
0.08086807 0.008368405 0.0009995066 1 0 1
0.07889569 0.01191663 -0.003523831 1 0 1
0.07735623 0.01490755 -0.007342706 1 0 1
0.07626025 0.01734423 -0.01046166 1 0 1
0.07658513 0.01814003 -0.01151486 1 0 1
0.07641454 0.01947965 -0.01325084 1 0 1
0.07622847 0.02081714 -0.01498283 1 0 1
0.07652074 0.02161083 -0.01603035 1 0 1
0.07630724 0.0229449 -0.0177557 1 0 1
0.07607835 0.02427662 -0.01947684 1 0 1
-0.1300715 -0.2104531 0.3077058 1 0 1
-0.1283412 -0.2131753 0.311065 1 0 1
-0.1256848 -0.2123568 0.3096578 1 0 1
-0.1233327 -0.2127109 0.3098302 1 0 1
-0.1209793 -0.2130589 0.3099955 1 0 1
-0.1190364 -0.2151756 0.312537 1 0 1
-0.1165353 -0.2149209 0.3118942 1 0 1
-0.1142999 -0.2158444 0.3128336 1 0 1
-0.1120554 -0.216763 0.3137664 1 0 1
-0.1096802 -0.2170826 0.3138972 1 0 1
-0.1070683 -0.2162074 0.3124297 1 0 1
-0.1044709 -0.2153241 0.3109542 1 0 1
-0.1016681 -0.2132421 0.3078791 1 0 1
-0.09931982 -0.2135333 0.30798 1 0 1
-0.09707278 -0.2144146 0.30887 1 0 1
-0.09471866 -0.2146941 0.3089569 1 0 1
-0.09236362 -0.2149675 0.3090368 1 0 1
-0.09036938 -0.2176253 0.3122962 1 0 1
-0.08782394 -0.2166921 0.3107688 1 0 1
-0.08545851 -0.216948 0.3108276 1 0 1
-0.0830923 -0.2171978 0.3108794 1 0 1
-0.08072535 -0.2174415 0.310924 1 0 1
-0.07828683 -0.2170794 0.3101646 1 0 1
-0.07592236 -0.2173104 0.3101951 1 0 1
-0.07343127 -0.2163344 0.3086241 1 0 1
-0.07107339 -0.2165524 0.3086403 1 0 1
-0.06865975 -0.2161633 0.3078524 1 0 1
-0.06635594 -0.2169702 0.3086517 1 0 1
-0.06385449 -0.2153644 0.3062551 1 0 1
-0.06141958 -0.2143527 0.3046488 1 0 1
-0.05892102 -0.2121287 0.3014414 1 0 1
0.07933071 -0.01855379 0.03444989 1 0 1
0.07833735 -0.01545943 0.0304883 1 0 1
0.07771523 -0.01293958 0.0272511 1 0 1
0.07747511 -0.01099165 0.02473429 1 0 1
0.07762795 -0.009613164 0.02293394 1 0 1
0.07734492 -0.007669718 0.02042653 1 0 1
0.07746207 -0.006294063 0.01863297 1 0 1
0.07756321 -0.004919437 0.01684217 1 0 1
0.07807887 -0.004109045 0.01575974 1 0 1
0.07815167 -0.002735822 0.01397339 1 0 1
0.07908377 -0.002486143 0.01359513 1 0 1
0.07957301 -0.001673773 0.01251306 1 0 1
0.08005341 -0.0008607648 0.01143117 1 0 1
0.08052506 -4.719328E-05 0.01034948 1 0 1
0.0814397 0.0002096547 0.009964767 1 0 1
0.08144201 0.001581552 0.008186943 1 0 1
0.08188732 0.00239665 0.007106191 1 0 1
0.08278618 0.002657941 0.006717939 1 0 1
0.08275165 0.00402815 0.004945752 1 0 1
0.08176272 0.006500964 0.001798891 1 0 1
0.08027131 0.009518972 -0.002025752 1 0 1
0.07874332 0.01252877 -0.005837366 1 0 1
0.07717883 0.01553023 -0.009635828 1 0 1
0.07702769 0.01687953 -0.01137246 1 0 1
0.07686104 0.01822672 -0.01310516 1 0 1
0.07667889 0.01957173 -0.01483383 1 0 1
0.07697489 0.02036996 -0.01588036 1 0 1
0.07676528 0.02171158 -0.0176024 1 0 1
0.07704081 0.02250854 -0.01864549 1 0 1
-0.1303809 -0.2129074 0.3070779 1 0 1
-0.1283413 -0.2144585 0.3088455 1 0 1
-0.1259865 -0.2148199 0.3090246 1 0 1
-0.1236303 -0.2151751 0.3091967 1 0 1
-0.1211314 -0.2149301 0.30857 1 0 1
-0.1187764 -0.2152727 0.3087276 1 0 1
-0.1165539 -0.2162044 0.3096705 1 0 1
-0.1140628 -0.2159394 0.3090217 1 0 1
-0.1119559 -0.2174564 0.3107437 1 0 1
-0.1092225 -0.2159848 0.3084944 1 0 1
-0.1069835 -0.2168937 0.3094098 1 0 1
-0.1045074 -0.2166017 0.3087316 1 0 1
-0.1017073 -0.2145074 0.3056653 1 0 1
-0.09936276 -0.2147986 0.3057654 1 0 1
-0.09711962 -0.2156831 0.3066525 1 0 1
-0.09457219 -0.214763 0.3051506 1 0 1
-0.09203951 -0.2138349 0.3036413 1 0 1
-0.08997498 -0.2159028 0.3060959 1 0 1
-0.08771259 -0.2167648 0.3069554 1 0 1
-0.08535869 -0.2170199 0.3070135 1 0 1
-0.08308297 -0.217871 0.3078591 1 0 1
-0.0806486 -0.2175119 0.3071085 1 0 1
-0.07829246 -0.2177488 0.3071455 1 0 1
-0.07580131 -0.2167731 0.3055859 1 0 1
-0.07332516 -0.2157899 0.3040191 1 0 1
-0.07098279 -0.2160069 0.3040349 1 0 1
-0.0685844 -0.2156136 0.3032488 1 0 1
-0.06619336 -0.2152136 0.3024557 1 0 1
-0.06371456 -0.2135968 0.3000659 1 0 1
-0.06125883 -0.211972 0.2976693 1 0 1
-0.05882625 -0.2103393 0.295266 1 0 1
-0.05630955 -0.2068811 0.2904718 1 0 1
0.07943461 -0.0214052 0.03630288 1 0 1
0.0788746 -0.01886434 0.03305977 1 0 1
0.07747357 -0.01518265 0.0283988 1 0 1
0.07643635 -0.01208024 0.02446251 1 0 1
0.0765985 -0.01069615 0.02266723 1 0 1
0.07674465 -0.009312931 0.02087459 1 0 1
0.07729428 -0.008499616 0.01979194 1 0 1
0.07741192 -0.007117439 0.01800329 1 0 1
0.07751359 -0.00573638 0.01621749 1 0 1
0.07802958 -0.004922592 0.01513767 1 0 1
0.07810289 -0.003542877 0.01335625 1 0 1
0.0785977 -0.002728658 0.01227806 1 0 1
0.07908369 -0.001913816 0.01120001 1 0 1
0.08000538 -0.001660701 0.01081947 1 0 1
0.08047736 -0.0008437225 0.009740394 1 0 1
0.08094052 -2.619601E-05 0.00866159 1 0 1
0.08139492 0.0007918229 0.007583075 1 0 1
0.08184056 0.001610298 0.006504918 1 0 1
0.08227739 0.002429276 0.005427102 1 0 1
0.08270553 0.003248618 0.004349727 1 0 1
0.08171744 0.005734077 0.001212521 1 0 1
0.0806997 0.008213544 -0.001914939 1 0 1
0.07870007 0.0117932 -0.006399795 1 0 1
0.07809581 0.01370621 -0.008822121 1 0 1
0.0779521 0.01506412 -0.01055698 1 0 1
0.0773063 0.01696981 -0.01296681 1 0 1
0.0771281 0.01832236 -0.01469212 1 0 1
0.07742784 0.01912507 -0.01573767 1 0 1
0.07722217 0.02047427 -0.01745641 1 0 1
0.07750139 0.02127576 -0.01849853 1 0 1
-0.1295903 -0.211198 0.30092 1 0 1
-0.1274212 -0.2121567 0.3018917 1 0 1
-0.1252428 -0.2131107 0.3028572 1 0 1
-0.1229098 -0.2134631 0.3030271 1 0 1
-0.1207171 -0.2144067 0.3039792 1 0 1
-0.1182397 -0.2141498 0.3033457 1 0 1
-0.1160368 -0.2150823 0.3042844 1 0 1
-0.1138247 -0.21601 0.3052166 1 0 1
-0.1114776 -0.2163332 0.3053519 1 0 1
-0.1090071 -0.2160504 0.3046894 1 0 1
-0.1068983 -0.2175619 0.306392 1 0 1
-0.1044295 -0.2172663 0.3057153 1 0 1
-0.1017465 -0.2157606 0.3034488 1 0 1
-0.09929907 -0.2154499 0.3027569 1 0 1
-0.09696116 -0.2157348 0.3028494 1 0 1
-0.09442478 -0.2148075 0.3013513 1 0 1
-0.0920928 -0.2150793 0.3014296 1 0 1
-0.08985088 -0.2159487 0.3022925 1 0 1
-0.08751329 -0.2162088 0.3023568 1 0 1
-0.08534104 -0.2176721 0.3039983 1 0 1
-0.0830732 -0.218526 0.304841 1 0 1
-0.08057096 -0.217558 0.3033 1 0 1
-0.07822636 -0.2177941 0.3033363 1 0 1
-0.07567886 -0.2162053 0.3009886 1 0 1
-0.07328124 -0.2158214 0.3002183 1 0 1
-0.07083123 -0.2148238 0.2986488 1 0 1
-0.06845208 -0.214426 0.2978646 1 0 1
-0.06608018 -0.2140215 0.2970735 1 0 1
-0.06371567 -0.2136103 0.2962754 1 0 1
-0.06122693 -0.2113673 0.2930932 1 0 1
-0.05896883 -0.2121593 0.2938664 1 0 1
-0.05645048 -0.2086828 0.2890862 1 0 1
0.07898063 -0.02171865 0.03490306 1 0 1
0.07841793 -0.01916603 0.03167104 1 0 1
0.07822954 -0.01719312 0.0291572 1 0 1
0.07679203 -0.01349858 0.02452125 1 0 1
0.07695828 -0.01210715 0.02272961 1 0 1
0.07752434 -0.01128952 0.0216469 1 0 1
0.07808145 -0.01047099 0.02056404 1 0 1
0.07778385 -0.008509437 0.01807408 1 0 1
0.07788961 -0.007120948 0.01629181 1 0 1
0.07797936 -0.005733632 0.01451245 1 0 1
0.07848685 -0.004915751 0.01343532 1 0 1
0.07854831 -0.003529866 0.01166046 1 0 1
0.07903463 -0.002711626 0.01058503 1 0 1
0.07995645 -0.002458193 0.01020474 1 0 1
0.08042873 -0.001637827 0.009128288 1 0 1
0.08044083 -0.0002535239 0.007360164 1 0 1
0.08089203 0.0005669017 0.006285766 1 0 1
0.08133441 0.001387789 0.005211705 1 0 1
0.08223002 0.001648755 0.004825504 1 0 1
0.08219299 0.003030842 0.003064801 1 0 1
0.08167122 0.004969529 0.0006232274 1 0 1
0.08112678 0.006904331 -0.001811695 1 0 1
0.08055969 0.008835154 -0.004239835 1 0 1
0.07949059 0.01131707 -0.007340841 1 0 1
0.07887489 0.01323867 -0.009753576 1 0 1
0.07872302 0.01460308 -0.01148269 1 0 1
0.07855567 0.0159654 -0.01320788 1 0 1
0.07837281 0.01732551 -0.01492897 1 0 1
0.0781745 0.01868339 -0.01664599 1 0 1
0.07846088 0.01949048 -0.01768873 1 0 1
-0.1302145 -0.2148275 0.3018564 1 0 1
-0.1274193 -0.2133975 0.2996813 1 0 1
-0.1250953 -0.2137554 0.299857 1 0 1
-0.1227698 -0.2141072 0.3000256 1 0 1
-0.1204431 -0.214453 0.3001874 1 0 1
-0.1182531 -0.2153938 0.3011295 1 0 1
-0.116054 -0.2163296 0.3020651 1 0 1
-0.1139762 -0.2178623 0.3037819 1 0 1
-0.1118817 -0.2193912 0.3054927 1 0 1
-0.1091581 -0.2179008 0.303256 1 0 1
-0.1069309 -0.2188155 0.3041649 1 0 1
-0.1044656 -0.2185169 0.3034899 1 0 1
-0.1016749 -0.2163974 0.300441 1 0 1
-0.09923486 -0.2160833 0.2997509 1 0 1
-0.0970075 -0.2169731 0.3006315 1 0 1
-0.09447434 -0.2160399 0.2991377 1 0 1
-0.09224121 -0.2169181 0.3000047 1 0 1
-0.09009048 -0.2183981 0.3016543 1 0 1
-0.08774882 -0.2186591 0.3017182 1 0 1
-0.08532294 -0.2183062 0.3009855 1 0 1
-0.08290413 -0.2179464 0.3002456 1 0 1
-0.08056787 -0.2181883 0.3002883 1 0 1
-0.07808781 -0.2172061 0.2987443 1 0 1
-0.07569038 -0.2168256 0.2979831 1 0 1
-0.07330015 -0.2164384 0.2972148 1 0 1
-0.07085735 -0.2154343 0.2956495 1 0 1
-0.06848557 -0.2150331 0.2948673 1 0 1
-0.06612109 -0.2146253 0.2940782 1 0 1
-0.06386001 -0.2154331 0.2948623 1 0 1
-0.06150246 -0.2150126 0.2940595 1 0 1
0.07857895 -0.01863458 0.02919476 1 0 1
0.07673799 -0.0143427 0.02386533 1 0 1
0.07731676 -0.01352169 0.02278399 1 0 1
0.07788672 -0.01269974 0.0217025 1 0 1
0.07802857 -0.01130189 0.01991837 1 0 1
0.07773169 -0.009330859 0.01743578 1 0 1
0.07783796 -0.007935944 0.01565854 1 0 1
0.07792827 -0.006542178 0.01388422 1 0 1
0.07843605 -0.005720905 0.0128097 1 0 1
0.07806093 -0.003758203 0.01034436 1 0 1
0.07854404 -0.002937562 0.009273047 1 0 1
0.07946246 -0.002684781 0.008894461 1 0 1
0.07993148 -0.001862007 0.007822098 1 0 1
0.08039176 -0.001038702 0.006750013 1 0 1
0.08084326 -0.0002149445 0.005678306 1 0 1
0.08128598 0.0006093599 0.004606877 1 0 1
0.08218169 0.0008706392 0.004220912 1 0 1
0.08261044 0.001696776 0.003148794 1 0 1
0.08303042 0.00252331 0.002077099 1 0 1
0.08249713 0.00447074 -0.0003550797 1 0 1
0.08194117 0.006414266 -0.002780508 1 0 1
0.08088335 0.008911893 -0.00587649 1 0 1
0.08027876 0.01084622 -0.00828659 1 0 1
0.07965164 0.01277629 -0.01068966 1 0 1
0.07949162 0.01414722 -0.01241302 1 0 1
0.07931617 0.01551597 -0.01413239 1 0 1
0.07912523 0.01688248 -0.01584761 1 0 1
0.07941876 0.01769521 -0.01689099 1 0 1
-0.1327151 -0.2075189 0.2890736 1 0 1
-0.1304378 -0.2078886 0.289266 1 0 1
-0.12879 -0.2106564 0.2925856 1 0 1
-0.1264943 -0.2110167 0.2927655 1 0 1
-0.1243472 -0.2119732 0.2937227 1 0 1
-0.1218989 -0.2117194 0.2931047 1 0 1
-0.1198836 -0.2132685 0.2948333 1 0 1
-0.1175748 -0.2136061 0.2949862 1 0 1
-0.1155336 -0.2151467 0.2967026 1 0 1
-0.1133452 -0.2160784 0.2976275 1 0 1
-0.1111477 -0.2170052 0.298546 1 0 1
-0.1085732 -0.2161086 0.2971004 1 0 1
-0.1064884 -0.2176304 0.2987912 1 0 1
-0.1039273 -0.2167197 0.2973309 1 0 1
-0.1014917 -0.2164085 0.2966493 1 0 1
