ply
format ascii 1.0
Comment Generated by Floating Hands
element vertex 1258
property double x
property double y
property double z
property uchar red
property uchar green
property uchar blue
end_header
0.2063379 -0.05082328 0.7283754 1 0 1
0.2102942 -0.05135021 0.7313156 1 0 1
0.2139812 -0.0516422 0.7333096 1 0 1
0.2182841 -0.05237169 0.7371436 1 0 1
0.2208059 -0.0517504 0.7353975 1 0 1
0.2251529 -0.05245894 0.739198 1 0 1
0.2279848 -0.05204486 0.7383553 1 0 1
0.2320659 -0.05251016 0.7411975 1 0 1
0.2333218 -0.05097488 0.7357197 1 0 1
0.23614 -0.05054044 0.73485 1 0 1
0.2353918 -0.04768012 0.7238489 1 0 1
0.2398008 -0.04833488 0.7275681 1 0 1
0.2406006 -0.04657064 0.7211697 1 0 1
0.2433617 -0.04611568 0.7202762 1 0 1
0.243752 -0.04413081 0.7129645 1 0 1
0.2546824 -0.04887369 0.7340068 1 0 1
0.257493 -0.0483878 0.7330655 1 0 1
0.2602997 -0.04789492 0.7321148 1 0 1
0.2652169 -0.04868574 0.7366195 1 0 1
0.271213 -0.04787121 0.7355647 1 0 1
0.2714881 -0.04585385 0.7282181 1 0 1
0.2742753 -0.04532611 0.7272206 1 0 1
0.2770584 -0.04479149 0.7262136 1 0 1
0.2798375 -0.04424984 0.7251973 1 0 1
0.2856288 -0.04538476 0.7313875 1 0 1
0.02369955 -0.06632764 0.7695175 1 0 1
0.02492102 -0.05866318 0.7383384 1 0 1
0.02751808 -0.05775294 0.7342867 1 0 1
0.03039218 -0.05804408 0.7350696 1 0 1
0.03320815 -0.05808699 0.7348745 1 0 1
0.0360926 -0.05836499 0.735638 1 0 1
0.03883835 -0.05815282 0.7344564 1 0 1
0.0417292 -0.05841778 0.7352007 1 0 1
0.04446626 -0.05819227 0.7340011 1 0 1
0.04719506 -0.05796011 0.7327927 1 0 1
0.05000349 -0.05796323 0.7325422 1 0 1
0.05290284 -0.05820164 0.7332482 1 0 1
0.05571351 -0.05819158 0.7329788 1 0 1
0.05852333 -0.05817477 0.7326998 1 0 1
0.06143508 -0.05839331 0.7333766 1 0 1
0.06424681 -0.05836328 0.7330787 1 0 1
0.06705761 -0.05832657 0.7327715 1 0 1
0.07009568 -0.05876671 0.7343824 1 0 1
0.07291181 -0.05871662 0.7340558 1 0 1
0.07560527 -0.05841837 0.7327572 1 0 1
0.07854094 -0.05859647 0.7333748 1 0 1
0.08135362 -0.0585265 0.7330202 1 0 1
0.08443097 -0.05893233 0.7345791 1 0 1
0.0877952 -0.05981344 0.7380484 1 0 1
0.0909073 -0.06020482 0.7395836 1 0 1
0.09388895 -0.06034802 0.7401474 1 0 1
0.09643316 -0.05976184 0.7378232 1 0 1
0.09896093 -0.0591696 0.7354917 1 0 1
0.1019382 -0.0592927 0.7360277 1 0 1
0.1049213 -0.05940871 0.736553 1 0 1
0.1077477 -0.05927758 0.7361108 1 0 1
0.1109054 -0.05961959 0.7375722 1 0 1
0.1137359 -0.05947461 0.7371101 1 0 1
0.1165647 -0.05932285 0.7366388 1 0 1
0.1201024 -0.06012174 0.7399762 1 0 1
0.1234866 -0.0606732 0.7423453 1 0 1
0.1259658 -0.06002187 0.7399348 1 0 1
0.1291835 -0.06031944 0.7413279 1 0 1
0.1322217 -0.06037079 0.7417569 1 0 1
0.1338918 -0.05874746 0.7355168 1 0 1
0.1375145 -0.05949972 0.7387806 1 0 1
0.1413685 -0.06048077 0.742979 1 0 1
0.1433915 -0.05931589 0.7386196 1 0 1
0.1464377 -0.05933189 0.7389979 1 0 1
0.149704 -0.05957723 0.7403129 1 0 1
0.1518908 -0.05863218 0.7368817 1 0 1
0.1544973 -0.05815454 0.7353377 1 0 1
0.1586746 -0.05932171 0.7404025 1 0 1
0.161517 -0.05906494 0.7397817 1 0 1
0.1648232 -0.05927175 0.7410388 1 0 1
0.1667209 -0.05806139 0.7366264 1 0 1
0.1688272 -0.05708147 0.7331535 1 0 1
0.1721296 -0.05726738 0.7343816 1 0 1
0.1764355 -0.05837998 0.7393575 1 0 1
0.1792737 -0.05808109 0.7386778 1 0 1
0.1828748 -0.0584742 0.7408039 1 0 1
0.1883066 -0.0604858 0.749478 1 0 1
0.1903969 -0.05946456 0.7459483 1 0 1
0.1921964 -0.05820722 0.7414791 1 0 1
0.1931547 -0.05625255 0.7342035 1 0 1
0.1946058 -0.05475884 0.7287993 1 0 1
0.1962946 -0.05349306 0.7243283 1 0 1
0.1985128 -0.05268406 0.7217196 1 0 1
0.2015663 -0.05255852 0.7218981 1 0 1
0.2043362 -0.05219634 0.7211357 1 0 1
0.2079776 -0.05251288 0.7231506 1 0 1
0.2116377 -0.05281975 0.7251502 1 0 1
0.2159137 -0.0535718 0.7289879 1 0 1
0.2168967 -0.05181502 0.7226226 1 0 1
0.2251766 -0.0554932 0.7384536 1 0 1
0.2280104 -0.05507841 0.7376115 1 0 1
0.2320936 -0.05555837 0.74045 1 0 1
0.2333513 -0.05400297 0.7349773 1 0 1
0.2377731 -0.05468953 0.7387097 1 0 1
0.2370443 -0.05178314 0.7277136 1 0 1
0.2401633 -0.05156086 0.7277505 1 0 1
0.2409684 -0.04977215 0.7213568 1 0 1
0.2454081 -0.05042587 0.7250417 1 0 1
0.2458214 -0.04840967 0.7177299 1 0 1
0.2526749 -0.05059074 0.7277812 1 0 1
0.2575381 -0.05142891 0.7323211 1 0 1
0.2603469 -0.05093517 0.7313708 1 0 1
0.2631517 -0.05043447 0.7304112 1 0 1
0.2684445 -0.05145498 0.7358025 1 0 1
0.2687498 -0.04941215 0.7284636 1 0 1
0.2715429 -0.04889051 0.7274758 1 0 1
0.274332 -0.04836203 0.7264787 1 0 1
0.277117 -0.04782648 0.7254721 1 0 1
0.279898 -0.04728397 0.7244563 1 0 1
0.2826749 -0.04673451 0.723431 1 0 1
0.2854476 -0.04617803 0.7223966 1 0 1
0.02323684 -0.06764711 0.7619832 1 0 1
0.02465374 -0.06083986 0.7347081 1 0 1
0.02718432 -0.05966842 0.7296932 1 0 1
0.03004505 -0.05996317 0.730476 1 0 1
0.03284778 -0.06000591 0.7302819 1 0 1
0.03571888 -0.06028767 0.7310454 1 0 1
0.0385243 -0.06031721 0.7308323 1 0 1
0.04140557 -0.06058594 0.7315765 1 0 1
0.0441333 -0.0603564 0.7303786 1 0 1
0.04693683 -0.0603662 0.7301379 1 0 1
0.04973958 -0.0603693 0.7298878 1 0 1
0.05263313 -0.06061158 0.7305935 1 0 1
0.05553338 -0.06084725 0.7312893 1 0 1
0.05824229 -0.06058469 0.7300465 1 0 1
0.06135389 -0.06129848 0.7326507 1 0 1
0.0641675 -0.06126835 0.7323529 1 0 1
0.06709045 -0.06147723 0.7330088 1 0 1
0.06990579 -0.06143388 0.7326919 1 0 1
0.07272013 -0.06138364 0.7323657 1 0 1
0.07553335 -0.06132695 0.7320303 1 0 1
0.07834543 -0.0612634 0.7316856 1 0 1
0.08089827 -0.06070285 0.7294099 1 0 1
0.08396602 -0.06111663 0.7309682 1 0 1
0.08732054 -0.06201335 0.734435 1 0 1
0.09000236 -0.0616779 0.7330917 1 0 1
0.09325136 -0.06231508 0.7355755 1 0 1
0.09593036 -0.06196629 0.7342136 1 0 1
0.098752 -0.06185549 0.7338012 1 0 1
0.1015721 -0.06173802 0.7333795 1 0 1
0.1048676 -0.06234638 0.7358183 1 0 1
0.1075331 -0.06197089 0.7344202 1 0 1
0.1111881 -0.06305215 0.7387466 1 0 1
0.114028 -0.06290645 0.7382835 1 0 1
0.1165184 -0.06226721 0.7359024 1 0 1
0.1204128 -0.06356779 0.7411432 1 0 1
0.123625 -0.06388704 0.7425552 1 0 1
0.12648 -0.063713 0.7420506 1 0 1
0.1293331 -0.06353214 0.7415365 1 0 1
0.1323769 -0.06358662 0.741964 1 0 1
0.1340528 -0.06193957 0.7357292 1 0 1
0.1374812 -0.06246484 0.7380388 1 0 1
0.1407261 -0.06274036 0.7393863 1 0 1
0.1437764 -0.06276658 0.7397732 1 0 1
0.146832 -0.06278547 0.7401494 1 0 1
0.1501075 -0.06303758 0.7414611 1 0 1
0.1523036 -0.06207989 0.7380313 1 0 1
0.1549195 -0.0615974 0.7364869 1 0 1
0.1586544 -0.06230713 0.739656 1 0 1
0.1608105 -0.06133174 0.7362049 1 0 1
0.1636413 -0.06106874 0.7355775 1 0 1
0.1662329 -0.06056028 0.7339987 1 0 1
0.1683338 -0.05956898 0.7305304 1 0 1
0.1713866 -0.05952493 0.7308183 1 0 1
0.1741964 -0.05923575 0.7301561 1 0 1
0.1777581 -0.05965146 0.7322994 1 0 1
0.1823596 -0.06100513 0.7381781 1 0 1
0.1867508 -0.06210995 0.7430981 1 0 1
0.1903959 -0.06249489 0.745191 1 0 1
0.1932616 -0.06216381 0.7444647 1 0 1
0.1947758 -0.06065015 0.7390599 1 0 1
0.1976176 -0.06030731 0.7383192 1 0 1
0.1993484 -0.05902057 0.7338418 1 0 1
0.2007664 -0.05749682 0.7284318 1 0 1
0.2038508 -0.0573708 0.7286018 1 0 1
0.2078033 -0.05793551 0.7315472 1 0 1
0.2103239 -0.0573277 0.7298356 1 0 1
0.2143101 -0.05787337 0.7327514 1 0 1
0.2171269 -0.05748273 0.7319461 1 0 1
0.219638 -0.05685433 0.7302067 1 0 1
0.2251987 -0.05852348 0.7376975 1 0 1
0.229273 -0.05902717 0.7405462 1 0 1
0.2321197 -0.05860249 0.7396905 1 0 1
0.2349631 -0.05817081 0.7388254 1 0 1
0.2397253 -0.05910121 0.7434673 1 0 1
0.2406394 -0.05728655 0.7370669 1 0 1
0.2434722 -0.05683392 0.7361734 1 0 1
0.2446458 -0.05524199 0.7306905 1 0 1
0.249127 -0.05590765 0.7343582 1 0 1
0.251949 -0.0554341 0.7334365 1 0 1
0.2568181 -0.0563014 0.7379804 1 0 1
0.2599993 -0.05603421 0.7379441 1 0 1
0.2628348 -0.05553526 0.7369858 1 0 1
0.2631989 -0.05346978 0.7296556 1 0 1
0.2684941 -0.05451624 0.7350407 1 0 1
0.2765867 -0.05271475 0.7311483 1 0 1
0.279765 -0.0523937 0.7310374 1 0 1
0.2825725 -0.05184552 0.730013 1 0 1
0.02267558 -0.0684099 0.7525164 1 0 1
0.02449399 -0.06348804 0.7330061 1 0 1
0.02708091 -0.06254652 0.7289629 1 0 1
0.02994338 -0.06284541 0.7297446 1 0 1
0.03274791 -0.06288806 0.7295504 1 0 1
0.03555188 -0.06292418 0.7293468 1 0 1
0.03835543 -0.06295373 0.7291341 1 0 1
0.04123461 -0.06322631 0.7298774 1 0 1
0.04412076 -0.06349223 0.7306108 1 0 1
0.04692986 -0.06350201 0.7303697 1 0 1
0.04982588 -0.06375472 0.7310836 1 0 1
0.05272866 -0.06400082 0.7317877 1 0 1
0.05554308 -0.06399064 0.731518 1 0 1
0.05825768 -0.0637241 0.7302757 1 0 1
0.06106653 -0.06370067 0.7299878 1 0 1
0.06398088 -0.06392007 0.7306533 1 0 1
0.06679162 -0.06388332 0.7303464 1 0 1
0.06982923 -0.06433883 0.7319537 1 0 1
0.0728808 -0.06478728 0.7335499 1 0 1
0.07570346 -0.06473026 0.7332135 1 0 1
0.07827442 -0.06416803 0.7309472 1 0 1
0.08095824 -0.06384864 0.7296333 1 0 1
0.08403149 -0.06426992 0.7311893 1 0 1
0.08711832 -0.06468406 0.7327339 1 0 1
0.09007872 -0.06484219 0.7333088 1 0 1
0.09362096 -0.06598809 0.7377048 1 0 1
0.09616549 -0.06538615 0.735385 1 0 1
0.09854227 -0.06452978 0.7321013 1 0 1
0.1013605 -0.06441221 0.7316802 1 0 1
0.104495 -0.06478399 0.7331609 1 0 1
0.107155 -0.0644048 0.731765 1 0 1
0.1101386 -0.06451465 0.7322699 1 0 1
0.1132982 -0.06486486 0.7337182 1 0 1
0.1164709 -0.06520762 0.7351545 1 0 1
0.1196568 -0.06554279 0.7365792 1 0 1
0.1232183 -0.06636402 0.7398956 1 0 1
0.1258828 -0.06594339 0.7384411 1 0 1
0.1287267 -0.06576288 0.7379292 1 0 1
0.1319536 -0.06606791 0.7393078 1 0 1
0.1344088 -0.06538141 0.7368773 1 0 1
0.1378463 -0.06591745 0.7391827 1 0 1
0.1406934 -0.06570891 0.7386311 1 0 1
0.1443673 -0.06647392 0.7418587 1 0 1
0.1470139 -0.06600589 0.7403389 1 0 1
0.150295 -0.06626485 0.741648 1 0 1
0.1520602 -0.06480648 0.7363309 1 0 1
0.1557844 -0.06553932 0.7395086 1 0 1
0.1588587 -0.06553211 0.7398408 1 0 1
0.1621674 -0.0657606 0.7411044 1 0 1
0.1645561 -0.06500927 0.7385889 1 0 1
0.1671643 -0.06449498 0.7370081 1 0 1
0.1690413 -0.06324796 0.7325996 1 0 1
0.1716189 -0.06272255 0.731006 1 0 1
0.1741865 -0.06219108 0.7294045 1 0 1
0.17775 -0.0626177 0.7315453 1 0 1
0.1823533 -0.06399793 0.7374172 1 0 1
0.1875228 -0.06584605 0.7451385 1 0 1
0.1911807 -0.06624079 0.7472258 1 0 1
0.1940593 -0.0659078 0.7464969 1 0 1
0.1958561 -0.06461193 0.7420272 1 0 1
0.1976208 -0.06331252 0.7375557 1 0 1
0.2004617 -0.06296219 0.7368059 1 0 1
0.2007734 -0.06046615 0.7276775 1 0 1
0.204997 -0.06129203 0.7315624 1 0 1
0.2101176 -0.06281628 0.7382119 1 0 1
0.2126692 -0.06220013 0.7364936 1 0 1
0.2143248 -0.06087086 0.7319903 1 0 1
0.2171434 -0.06047951 0.7311853 1 0 1
0.2184468 -0.05890778 0.7257516 1 0 1
0.2239951 -0.06061288 0.7332383 1 0 1
0.2292955 -0.06206792 0.7397745 1 0 1
0.2337104 -0.06280809 0.7435223 1 0 1
0.2349895 -0.06121017 0.7380545 1 0 1
0.2394334 -0.06193076 0.7417723 1 0 1
0.2406696 -0.0603243 0.7362965 1 0 1
0.2435043 -0.05987087 0.7354034 1 0 1
0.2430238 -0.05710747 0.7253505 1 0 1
0.2474893 -0.0577945 0.7290194 1 0 1
0.249957 -0.05709396 0.7271913 1 0 1
0.2548068 -0.05798726 0.7317368 1 0 1
0.2576233 -0.05749875 0.7307966 1 0 1
0.2604358 -0.0570034 0.7298471 1 0 1
0.2632445 -0.05650094 0.7288882 1 0 1
0.2660492 -0.05599166 0.7279199 1 0 1
0.2688501 -0.05547516 0.7269422 1 0 1
0.2716471 -0.05495184 0.7259554 1 0 1
0.27444 -0.0544215 0.724959 1 0 1
0.2772288 -0.05388413 0.7239534 1 0 1
0.2800137 -0.05333974 0.7229384 1 0 1
0.2854351 -0.05434184 0.7282079 1 0 1
0.288617 -0.0539999 0.7280631 1 0 1
0.02206646 -0.068846 0.7420896 1 0 1
0.02422683 -0.06561827 0.7293629 1 0 1
0.02691942 -0.06516778 0.7272556 1 0 1
0.02977983 -0.06547035 0.7280365 1 0 1
0.0327122 -0.06601982 0.7297729 1 0 1
0.03552179 -0.06605604 0.729569 1 0 1
0.03833086 -0.06608565 0.7293558 1 0 1
0.04113936 -0.06610864 0.7291334 1 0 1
0.04394728 -0.06612486 0.7289018 1 0 1
0.04658702 -0.06562755 0.7267334 1 0 1
0.0494734 -0.06588408 0.7274473 1 0 1
0.05236662 -0.0661341 0.7281512 1 0 1
0.05526657 -0.06637742 0.7288453 1 0 1
0.05807443 -0.06636057 0.728567 1 0 1
0.06098395 -0.06659053 0.7292414 1 0 1
0.06379373 -0.06656031 0.7289441 1 0 1
0.06671261 -0.06677686 0.7295989 1 0 1
0.06952415 -0.0667333 0.7292828 1 0 1
0.07268749 -0.06744289 0.7318381 1 0 1
0.07550812 -0.06738576 0.7315021 1 0 1
0.07820262 -0.06706887 0.7301975 1 0 1
0.0807595 -0.0664924 0.7279258 1 0 1
0.08383054 -0.06692131 0.7294801 1 0 1
0.08636997 -0.066332 0.7271919 1 0 1
0.0893134 -0.06649442 0.7277684 1 0 1
0.0926945 -0.06740765 0.7312051 1 0 1
0.09566135 -0.06755584 0.7317594 1 0 1
0.09802896 -0.06668794 0.7284804 1 0 1
0.1011481 -0.06707472 0.7299713 1 0 1
0.1041217 -0.06720234 0.730496 1 0 1
0.1066136 -0.06656753 0.7281483 1 0 1
0.1095878 -0.06668159 0.7286541 1 0 1
0.112908 -0.0672912 0.731055 1 0 1
0.116075 -0.06764176 0.7324907 1 0 1
0.11961 -0.06848668 0.7358178 1 0 1
0.122992 -0.06907235 0.7381794 1 0 1
0.1265794 -0.06990039 0.7414781 1 0 1
0.1290628 -0.06921794 0.7390643 1 0 1
0.1317217 -0.0687798 0.7375928 1 0 1
0.1341752 -0.0680855 0.735165 1 0 1
0.1374109 -0.06838349 0.7365208 1 0 1
0.140456 -0.06842428 0.7369177 1 0 1
0.1435063 -0.06845783 0.7373035 1 0 1
0.1471946 -0.06922984 0.7405147 1 0 1
0.1491935 -0.0680057 0.7361537 1 0 1
0.150724 -0.06628097 0.7299018 1 0 1
0.1546498 -0.06727858 0.7340233 1 0 1
0.1574818 -0.06702887 0.7334163 1 0 1
0.1603115 -0.06677239 0.7328001 1 0 1
0.1631388 -0.0665091 0.7321745 1 0 1
0.1669105 -0.06722458 0.7352988 1 0 1
0.1668625 -0.06399374 0.7233836 1 0 1
0.1698969 -0.06395854 0.723675 1 0 1
0.1716974 -0.06268949 0.7192692 1 0 1
0.1757289 -0.06362091 0.7232885 1 0 1
0.1803047 -0.06503063 0.7291608 1 0 1
0.1854467 -0.06691605 0.7368805 1 0 1
0.1901269 -0.06829982 0.742707 1 0 1
0.1937912 -0.06869769 0.7447802 1 0 1
0.194777 -0.06665778 0.7375203 1 0 1
0.1962557 -0.06510174 0.7321259 1 0 1
0.197972 -0.06378526 0.7276616 1 0 1
0.1988141 -0.06174106 0.7204089 1 0 1
0.2027299 -0.0623478 0.7233682 1 0 1
0.2086873 -0.06462769 0.7327988 1 0 1
0.2115142 -0.06424947 0.7320127 1 0 1
0.2152234 -0.06458296 0.7339921 1 0 1
0.2180549 -0.06418944 0.7331843 1 0 1
0.2193709 -0.06259623 0.7277528 1 0 1
0.2237079 -0.06338151 0.7315406 1 0 1
0.2280778 -0.06415463 0.7353081 1 0 1
0.2321671 -0.06467836 0.7381359 1 0 1
0.2350143 -0.06424533 0.7372715 1 0 1
0.2394603 -0.06498433 0.7409847 1 0 1
0.2406982 -0.06335796 0.7355142 1 0 1
0.2435349 -0.06290372 0.7346214 1 0 1
0.2443806 -0.06103775 0.728235 1 0 1
0.2491973 -0.06197428 0.7328076 1 0 1
0.252023 -0.06149906 0.7318867 1 0 1
0.254845 -0.06101673 0.7309563 1 0 1
0.2576632 -0.06052753 0.7300165 1 0 1
0.2604777 -0.06003129 0.7290674 1 0 1
0.2632883 -0.05952803 0.7281089 1 0 1
0.2660949 -0.05901778 0.727141 1 0 1
0.2688978 -0.05850041 0.7261638 1 0 1
0.2716966 -0.05797618 0.7251773 1 0 1
0.2744913 -0.05744493 0.7241814 1 0 1
0.2798741 -0.05849651 0.7294812 1 0 1
0.02170782 -0.07048561 0.7364972 1 0 1
0.02406673 -0.06823563 0.7276443 1 0 1
0.02675765 -0.0677774 0.7255393 1 0 1
0.02961587 -0.06808386 0.7263193 1 0 1
0.03248126 -0.06838375 0.7270895 1 0 1
0.03535365 -0.06867726 0.72785 1 0 1
0.03816087 -0.0687068 0.727637 1 0 1
0.04096741 -0.0687297 0.7274148 1 0 1
0.0437733 -0.0687461 0.7271834 1 0 1
0.04649495 -0.06849829 0.72598 1 0 1
0.04929565 -0.06850134 0.7257304 1 0 1
0.05209569 -0.06849765 0.7254716 1 0 1
0.05489489 -0.06848749 0.7252036 1 0 1
0.05769321 -0.0684706 0.7249264 1 0 1
0.06049073 -0.06844713 0.72464 1 0 1
0.06349973 -0.06893159 0.7262654 1 0 1
0.06630284 -0.06889477 0.7259597 1 0 1
0.06933241 -0.06936562 0.7275641 1 0 1
0.07237599 -0.06982962 0.7291576 1 0 1
0.07531222 -0.07002958 0.7297813 1 0 1
0.07800485 -0.06970878 0.7284783 1 0 1
0.08081757 -0.06963826 0.7281246 1 0 1
0.08376147 -0.06981792 0.728719 1 0 1
0.08630295 -0.06922074 0.7264329 1 0 1
0.08924808 -0.06938679 0.7270083 1 0 1
0.0924869 -0.07005874 0.7294852 1 0 1
0.0953043 -0.06995448 0.7290837 1 0 1
0.097969 -0.06958738 0.7277183 1 0 1
0.1010897 -0.06998172 0.7292074 1 0 1
0.1042239 -0.07036863 0.7306847 1 0 1
0.1067216 -0.06972574 0.7283385 1 0 1
0.1095351 -0.0695877 0.7278902 1 0 1
0.1130268 -0.07046391 0.7312399 1 0 1
0.1160255 -0.07056672 0.7317218 1 0 1
0.1197397 -0.07168151 0.7359955 1 0 1
0.1231271 -0.07227817 0.7383536 1 0 1
0.12635 -0.07261238 0.7397491 1 0 1
0.1293974 -0.07268462 0.7401839 1 0 1
0.1318734 -0.07198779 0.7377641 1 0 1
0.1349206 -0.07204603 0.7381794 1 0 1
0.1379732 -0.07209693 0.738584 1 0 1
0.1410313 -0.07214041 0.7389777 1 0 1
0.1440946 -0.07217656 0.7393606 1 0 1
0.1482174 -0.07346787 0.7444542 1 0 1
0.1504515 -0.07247858 0.7410372 1 0 1
0.1524427 -0.07123226 0.7366725 1 0 1
0.1557339 -0.07149127 0.7379567 1 0 1
0.1579093 -0.07048564 0.7345223 1 0 1
0.1602896 -0.06972614 0.7320238 1 0 1
0.1635847 -0.06996354 0.7332775 1 0 1
0.1661821 -0.06944203 0.7317023 1 0 1
0.1675675 -0.06766484 0.7254297 1 0 1
0.1706148 -0.06763192 0.7257177 1 0 1
0.1724282 -0.06634568 0.7213135 1 0 1
0.1749639 -0.06580218 0.7197132 1 0 1
0.1795305 -0.06723949 0.7255813 1 0 1
0.1854395 -0.06990407 0.7360954 1 0 1
0.1890719 -0.070324 0.7381845 1 0 1
0.1937877 -0.0717231 0.7439857 1 0 1
0.1955848 -0.07039555 0.7395253 1 0 1
0.1995368 -0.07103454 0.7425021 1 0 1
0.2012987 -0.06969664 0.7380305 1 0 1
0.2033091 -0.06860067 0.7344851 1 0 1
0.2050104 -0.06725571 0.7300093 1 0 1
0.2109988 -0.06957343 0.7394212 1 0 1
0.2115239 -0.06723952 0.7312279 1 0 1
0.2140543 -0.06661031 0.7295089 1 0 1
0.2195626 -0.06840415 0.7370113 1 0 1
0.220596 -0.06654608 0.7306582 1 0 1
0.2234191 -0.06613842 0.7298329 1 0 1
0.2293358 -0.06813716 0.7381955 1 0 1
0.2337548 -0.06891418 0.7419339 1 0 1
0.2366219 -0.06847748 0.7410643 1 0 1
0.2463987 -0.06547034 0.7329257 1 0 1
0.24923 -0.06500131 0.7320145 1 0 1
0.2520575 -0.06452524 0.7310939 1 0 1
0.2548814 -0.06404222 0.7301639 1 0 1
0.2577015 -0.06355209 0.7292246 1 0 1
0.2605178 -0.06305502 0.7282758 1 0 1
0.2633303 -0.06255086 0.7273177 1 0 1
0.2661389 -0.06203974 0.7263503 1 0 1
0.2714617 -0.06315225 0.7316978 1 0 1
0.2742872 -0.06262252 0.730703 1 0 1
0.2774755 -0.06231725 0.7305998 1 0 1
0.2802964 -0.06177261 0.7295849 1 0 1
0.02159747 -0.07338704 0.7357243 1 0 1
0.02401277 -0.07136316 0.7278444 1 0 1
0.02676658 -0.07115836 0.7267047 1 0 1
0.02951243 -0.07094672 0.7255562 1 0 1
0.03237946 -0.07125057 0.7263253 1 0 1
0.0352535 -0.07154796 0.7270846 1 0 1
0.03799035 -0.07131629 0.7259089 1 0 1
0.04071898 -0.07107797 0.7247247 1 0 1
0.04351911 -0.07109433 0.7244938 1 0 1
0.04631862 -0.07110386 0.7242537 1 0 1
0.04911743 -0.07110693 0.7240044 1 0 1
0.05200642 -0.07136451 0.7247068 1 0 1
0.05480743 -0.07135431 0.7244388 1 0 1
0.0577062 -0.07159858 0.7251219 1 0 1
0.06050928 -0.07157502 0.7248349 1 0 1
0.06352355 -0.07206703 0.7264577 1 0 1
0.06644211 -0.07229117 0.7271107 1 0 1
0.06925358 -0.0722474 0.726795 1 0 1
0.07241616 -0.07298 0.7293445 1 0 1
0.07547902 -0.07344448 0.7309244 1 0 1
0.07818113 -0.07311953 0.7296214 1 0 1
0.08087444 -0.07278805 0.7283101 1 0 1
0.08408879 -0.07349239 0.7308157 1 0 1
0.08650728 -0.07262642 0.7275741 1 0 1
0.08932178 -0.07253561 0.7271923 1 0 1
0.09256589 -0.07321889 0.7296656 1 0 1
0.09538885 -0.07311422 0.7292637 1 0 1
0.09775688 -0.07222287 0.7259912 1 0 1
0.1013402 -0.07340427 0.7303383 1 0 1
0.1044836 -0.07379844 0.7318125 1 0 1
0.1071531 -0.07340661 0.7304192 1 0 1
0.1099797 -0.07326773 0.7299691 1 0 1
0.1133142 -0.07389942 0.7323622 1 0 1
0.115975 -0.0734876 0.7309417 1 0 1
0.119336 -0.074104 0.7333111 1 0 1
0.1227176 -0.07471237 0.7356673 1 0 1
0.1259348 -0.07505436 0.7370622 1 0 1
0.1287881 -0.07487261 0.7365499 1 0 1
0.1314471 -0.07442614 0.7350811 1 0 1
0.1346847 -0.07474598 0.7364433 1 0 1
0.1375358 -0.07454334 0.735902 1 0 1
0.1405881 -0.07459089 0.7362962 1 0 1
0.1438529 -0.07488757 0.7376236 1 0 1
0.1479737 -0.07620192 0.742712 1 0 1
0.150206 -0.07520094 0.739299 1 0 1
0.1524139 -0.07419481 0.735881 1 0 1
0.1554849 -0.07420572 0.7362224 1 0 1
0.1572073 -0.07267816 0.7309116 1 0 1
0.159349 -0.07165671 0.7274781 1 0 1
0.1630972 -0.07241161 0.7306105 1 0 1
0.165689 -0.07188644 0.7290381 1 0 1
0.1675499 -0.07059386 0.7246474 1 0 1
0.1708432 -0.07081762 0.7258706 1 0 1
0.1726621 -0.06951517 0.7214699 1 0 1
0.1754548 -0.06921937 0.7208043 1 0 1
0.1802855 -0.07093447 0.7275971 1 0 1
0.1849135 -0.07238431 0.7334336 1 0 1
0.1893276 -0.0735703 0.7383166 1 0 1
0.1929847 -0.07399132 0.740387 1 0 1
0.1947726 -0.07264914 0.7359338 1 0 1
0.1976219 -0.07230382 0.7351941 1 0 1
0.2015765 -0.07295012 0.7381566 1 0 1
0.2033117 -0.07159253 0.7336866 1 0 1
0.2050148 -0.07023152 0.7292154 1 0 1
0.2112932 -0.07283891 0.7395412 1 0 1
0.2126985 -0.07121632 0.734127 1 0 1
0.2155405 -0.07082784 0.733328 1 0 1
0.2207702 -0.07240625 0.7398946 1 0 1
0.2224247 -0.07101483 0.7353852 1 0 1
0.223741 -0.0693749 0.7299552 1 0 1
0.2281148 -0.07018486 0.7337133 1 0 1
0.2322081 -0.07073779 0.7365337 1 0 1
0.2350591 -0.07030308 0.7356699 1 0 1
0.2379066 -0.06986142 0.7347967 1 0 1
0.2423711 -0.07062741 0.7384855 1 0 1
0.2452294 -0.07016863 0.7375877 1 0 1
0.2464277 -0.06849399 0.7321204 1 0 1
0.2492609 -0.06802419 0.7312095 1 0 1
0.2520903 -0.06754725 0.7302893 1 0 1
0.2549161 -0.06706335 0.7293596 1 0 1
0.2560101 -0.06537579 0.7238839 1 0 1
0.2588105 -0.06488089 0.7229416 1 0 1
0.2612543 -0.064141 0.721085 1 0 1
0.266181 -0.06505743 0.7255475 1 0 1
0.2689874 -0.06453843 0.7245712 1 0 1
0.2717899 -0.06401244 0.7235855 1 0 1
0.2771567 -0.06512745 0.7288903 1 0 1
0.279976 -0.06458243 0.7278771 1 0 1
0.02069333 -0.08812034 0.7784471 1 0 1
0.0213878 -0.07575498 0.7330137 1 0 1
0.02385163 -0.07396501 0.7261054 1 0 1
0.02666047 -0.07402112 0.7259294 1 0 1
0.0294689 -0.07407068 0.7257443 1 0 1
0.03234142 -0.07437848 0.726512 1 0 1
0.03522094 -0.07467982 0.7272699 1 0 1
0.03796337 -0.07444438 0.7260949 1 0 1
0.04077356 -0.07446736 0.7258726 1 0 1
0.0435035 -0.07421853 0.7246799 1 0 1
0.04622519 -0.07396303 0.7234788 1 0 1
0.04902577 -0.07396601 0.7232295 1 0 1
0.05191649 -0.07422751 0.7239308 1 0 1
0.05471927 -0.07421713 0.7236627 1 0 1
0.05761969 -0.07446525 0.7243446 1 0 1
0.06042456 -0.07444155 0.7240577 1 0 1
0.06322851 -0.07441133 0.7237617 1 0 1
0.06625095 -0.07490423 0.7253723 1 0 1
0.06894692 -0.07459553 0.7240993 1 0 1
0.07210346 -0.07533966 0.7266467 1 0 1
0.07516041 -0.07581195 0.7282254 1 0 1
0.07798163 -0.07574782 0.7278805 1 0 1
0.0806732 -0.07541237 0.7265707 1 0 1
0.08375289 -0.07586378 0.7281183 1 0 1
0.08643817 -0.07551503 0.7267905 1 0 1
0.08911457 -0.07515977 0.7254543 1 0 1
0.09235656 -0.07585452 0.7279249 1 0 1
0.09547222 -0.0762777 0.7294301 1 0 1
0.09784611 -0.07537452 0.7261603 1 0 1
0.1012798 -0.0763111 0.7295494 1 0 1
0.1039491 -0.07592218 0.7281671 1 0 1
0.1066092 -0.07552682 0.7267766 1 0 1
0.1094265 -0.07538824 0.7263284 1 0 1
0.1129211 -0.07629461 0.7296699 1 0 1
0.1155764 -0.07587903 0.7282516 1 0 1
0.1191088 -0.07676968 0.7315677 1 0 1
0.1224882 -0.0773895 0.7339216 1 0 1
0.1253341 -0.07721493 0.7334208 1 0 1
0.1285549 -0.07755715 0.7348036 1 0 1
0.1308277 -0.07658362 0.7314451 1 0 1
0.1334681 -0.0761274 0.7299716 1 0 1
0.1368976 -0.07670925 0.7322682 1 0 1
0.1399406 -0.07676102 0.7326636 1 0 1
0.1427819 -0.07654486 0.7321053 1 0 1
0.1468857 -0.07788328 0.7371912 1 0 1
0.1493159 -0.07713184 0.7347267 1 0 1
0.1523837 -0.07715348 0.7350781 1 0 1
0.1550128 -0.076649 0.7335385 1 0 1
0.156053 -0.07432556 0.7254172 1 0 1
0.1590953 -0.07432837 0.7257446 1 0 1
0.1628417 -0.07509845 0.7288737 1 0 1
0.1661417 -0.07534314 0.7301136 1 0 1
0.1687328 -0.07480674 0.7285332 1 0 1
0.1718023 -0.07477861 0.7288152 1 0 1
0.1746288 -0.07448602 0.728152 1 0 1
0.1761956 -0.07290448 0.7228131 1 0 1
0.1802738 -0.07388029 0.7267978 1 0 1
0.1846447 -0.07510091 0.7316958 1 0 1
0.1885322 -0.07579923 0.7347125 1 0 1
0.1921801 -0.07623244 0.7367827 1 0 1
0.1947682 -0.07563873 0.735123 1 0 1
0.1976194 -0.07529276 0.7343835 1 0 1
0.2015757 -0.07595369 0.7373421 1 0 1
0.2044356 -0.07559206 0.73658 1 0 1
0.2072925 -0.07522342 0.7358086 1 0 1
0.2110102 -0.07560378 0.7377993 1 0 1
0.2127053 -0.07421339 0.7333146 1 0 1
0.2152538 -0.07357322 0.7315941 1 0 1
0.2195853 -0.07443026 0.7353912 1 0 1
0.2209246 -0.07277498 0.7299707 1 0 1
0.2237552 -0.0723654 0.7291451 1 0 1
0.2281309 -0.07319368 0.7328982 1 0 1
0.2309727 -0.07276749 0.7320485 1 0 1
0.2322265 -0.07109483 0.726612 1 0 1
0.2379283 -0.0728832 0.7339783 1 0 1
0.2407741 -0.07243373 0.7330961 1 0 1
0.2436164 -0.07197713 0.7322044 1 0 1
0.2464551 -0.07151348 0.7313032 1 0 1
0.2476156 -0.06981786 0.7258435 1 0 1
0.2500906 -0.06909873 0.7240208 1 0 1
0.2528967 -0.06861766 0.7230986 1 0 1
0.2556991 -0.06812962 0.7221671 1 0 1
0.2584978 -0.06763454 0.7212263 1 0 1
0.2634091 -0.06858394 0.7256997 1 0 1
0.2687155 -0.06975969 0.7310518 1 0 1
0.2690296 -0.0675511 0.7237571 1 0 1
0.2718341 -0.06702419 0.7227719 1 0 1
0.2746345 -0.06649009 0.7217773 1 0 1
0.2803946 -0.06785762 0.7279549 1 0 1
0.02025523 -0.08930773 0.7708684 1 0 1
0.02107967 -0.07756662 0.728372 1 0 1
0.02363715 -0.07628668 0.7233956 1 0 1
0.02644018 -0.07634272 0.7232199 1 0 1
0.02924286 -0.07639216 0.7230352 1 0 1
0.03210939 -0.07670376 0.7238023 1 0 1
0.03498304 -0.07700883 0.7245595 1 0 1
0.03779174 -0.07703841 0.7243465 1 0 1
0.04059988 -0.07706137 0.7241244 1 0 1
0.04340737 -0.07707769 0.723893 1 0 1
0.046131 -0.07681832 0.7226929 1 0 1
0.04893339 -0.07682127 0.7224435 1 0 1
0.05173494 -0.07681751 0.7221848 1 0 1
0.05453577 -0.07680719 0.721917 1 0 1
0.05763069 -0.07759695 0.7245144 1 0 1
0.06044108 -0.07757321 0.7242271 1 0 1
0.06325063 -0.07754277 0.7239305 1 0 1
0.06616875 -0.07777439 0.7245817 1 0 1
0.06897999 -0.07773062 0.7242662 1 0 1
0.07179029 -0.07767996 0.7239416 1 0 1
0.07496224 -0.07842851 0.7264748 1 0 1
0.07778154 -0.07836433 0.7261304 1 0 1
0.08059961 -0.07829338 0.7257768 1 0 1
0.08354878 -0.07848411 0.7263681 1 0 1
0.08636817 -0.07839964 0.7259954 1 0 1
0.08904646 -0.07804037 0.7246605 1 0 1
0.0921464 -0.07847843 0.7261753 1 0 1
0.09526003 -0.07890924 0.7276788 1 0 1
0.09793419 -0.07852969 0.726316 1 0 1
0.1010635 -0.07894639 0.7277982 1 0 1
0.104048 -0.07908808 0.7283185 1 0 1
0.1063893 -0.07815425 0.7250287 1 0 1
0.1093705 -0.07828251 0.7255305 1 0 1
0.1125273 -0.07867042 0.7269704 1 0 1
0.1150035 -0.07798444 0.7246065 1 0 1
0.1187035 -0.07915723 0.7288678 1 0 1
0.1220771 -0.07978866 0.7312199 1 0 1
0.1256559 -0.08067796 0.7345048 1 0 1
0.1288859 -0.08102703 0.7358843 1 0 1
0.1311682 -0.08004107 0.7325277 1 0 1
0.1340138 -0.07984539 0.7319983 1 0 1
0.1366577 -0.07937791 0.730516 1 0 1
0.1396988 -0.07943343 0.7309111 1 0 1
0.1425382 -0.07921711 0.7303536 1 0 1
0.1462184 -0.08005027 0.7335517 1 0 1
0.1488539 -0.07955531 0.7320321 1 0 1
0.1523524 -0.08010788 0.7342635 1 0 1
0.1552052 -0.07986238 0.7336641 1 0 1
0.1567023 -0.07803304 0.7274268 1 0 1
0.1604453 -0.07882555 0.7305627 1 0 1
0.1642154 -0.07960849 0.733683 1 0 1
0.1670661 -0.0793346 0.7330446 1 0 1
0.1694336 -0.07853091 0.7305271 1 0 1
0.1727599 -0.07876619 0.7317398 1 0 1
0.1748598 -0.07768948 0.728274 1 0 1
0.1761809 -0.07582756 0.7220074 1 0 1
0.1794956 -0.07604253 0.723193 1 0 1
0.1830812 -0.07650835 0.7252963 1 0 1
0.1874731 -0.07774199 0.7301735 1 0 1
0.1911081 -0.07818775 0.7322444 1 0 1
0.1936835 -0.07759134 0.7305898 1 0 1
0.1967952 -0.07750432 0.7307811 1 0 1
0.2026818 -0.07998225 0.740219 1 0 1
0.2044354 -0.07859077 0.7357541 1 0 1
0.207294 -0.07822142 0.7349828 1 0 1
0.2113015 -0.07886859 0.7378936 1 0 1
0.2127105 -0.07720637 0.7324904 1 0 1
0.2140799 -0.07554214 0.7270881 1 0 1
0.2183987 -0.07641965 0.7308843 1 0 1
0.2197254 -0.07474648 0.7254736 1 0 1
0.2222372 -0.07408503 0.7237349 1 0 1
0.2265967 -0.07493442 0.7274884 1 0 1
0.2294224 -0.0745101 0.7266444 1 0 1
0.2338294 -0.07533731 0.7303631 1 0 1
0.2379485 -0.07590085 0.7331483 1 0 1
0.2407962 -0.07545055 0.7322663 1 0 1
0.2436403 -0.07499311 0.731375 1 0 1
0.248469 -0.07602517 0.7359338 1 0 1
0.2493177 -0.07405727 0.7295641 1 0 1
0.2521508 -0.07357868 0.7286445 1 0 1
0.2549804 -0.07309307 0.7277157 1 0 1
0.2560776 -0.07136564 0.7222512 1 0 1
0.2564369 -0.06914479 0.714981 1 0 1
0.2634459 -0.07159401 0.724873 1 0 1
0.2683981 -0.07255052 0.7293167 1 0 1
0.2715896 -0.07227015 0.7292341 1 0 1
0.2744206 -0.07173762 0.7282406 1 0 1
0.01995435 -0.09125397 0.7661761 1 0 1
0.02082115 -0.07961591 0.7246886 1 0 1
0.02347547 -0.07886153 0.7216396 1 0 1
0.02627645 -0.07891747 0.721464 1 0 1
0.02907712 -0.07896689 0.7212794 1 0 1
0.0319415 -0.07928245 0.7220455 1 0 1
0.03481291 -0.07959128 0.7228019 1 0 1
0.03769137 -0.07989357 0.7235485 1 0 1
0.04050129 -0.07991656 0.7233263 1 0 1
0.04331056 -0.07993282 0.7230949 1 0 1
0.04611921 -0.07994237 0.7228542 1 0 1
0.04892708 -0.07994539 0.7226044 1 0 1
0.05173421 -0.07994169 0.7223454 1 0 1
0.05454059 -0.07993116 0.722077 1 0 1
0.05754252 -0.08045962 0.7237138 1 0 1
0.06035464 -0.08043579 0.7234264 1 0 1
0.06327166 -0.08067794 0.7240861 1 0 1
0.06619532 -0.08091334 0.7247357 1 0 1
0.06901208 -0.08086926 0.7244199 1 0 1
0.07194496 -0.0810911 0.7250498 1 0 1
0.07476342 -0.08103355 0.7247151 1 0 1
0.07770533 -0.08124167 0.7253252 1 0 1
0.08026849 -0.08062602 0.7230643 1 0 1
0.08321171 -0.08082062 0.7236556 1 0 1
0.08616132 -0.08100819 0.7242366 1 0 1
0.08883772 -0.08064497 0.7229032 1 0 1
0.092079 -0.08136246 0.7253681 1 0 1
0.0953413 -0.08207245 0.7278204 1 0 1
0.09787017 -0.08141723 0.7255077 1 0 1
0.1010013 -0.08184129 0.7269878 1 0 1
0.1041457 -0.08225776 0.7284564 1 0 1
0.1068172 -0.08185389 0.727067 1 0 1
0.1098114 -0.08198523 0.7275659 1 0 1
0.112981 -0.08238003 0.7290019 1 0 1
0.1154704 -0.08168545 0.7266383 1 0 1
0.1186516 -0.08206576 0.7280534 1 0 1
0.121665 -0.0821686 0.7285109 1 0 1
0.125238 -0.08307321 0.731793 1 0 1
0.1286505 -0.08369962 0.7341161 1 0 1
0.1309311 -0.08270209 0.7307635 1 0 1
0.134558 -0.0835823 0.7340069 1 0 1
0.1370155 -0.08284106 0.7315813 1 0 1
0.1400658 -0.08289939 0.7319742 1 0 1
0.1435353 -0.08348673 0.734238 1 0 1
0.1466037 -0.08352961 0.7346077 1 0 1
0.1498916 -0.08383261 0.7359059 1 0 1
0.1529741 -0.08386021 0.7362531 1 0 1
0.1562835 -0.08414717 0.7375273 1 0 1
0.1580267 -0.08255938 0.7322297 1 0 1
0.1629396 -0.0846962 0.7400379 1 0 1
0.1655875 -0.08416044 0.7384678 1 0 1
0.1684622 -0.08388384 0.7378247 1 0 1
0.1708537 -0.0830699 0.7353046 1 0 1
0.1737159 -0.08278019 0.7346444 1 0 1
0.1758325 -0.08169004 0.7311785 1 0 1
0.1771703 -0.07980311 0.724915 1 0 1
0.1812666 -0.08081445 0.728886 1 0 1
0.1833273 -0.07970874 0.7254035 1 0 1
0.1877247 -0.08096425 0.7302737 1 0 1
0.1913651 -0.08142053 0.7323408 1 0 1
0.1950248 -0.08186719 0.7343929 1 0 1
0.1978833 -0.08151966 0.7336531 1 0 1
0.2035092 -0.08377599 0.7421509 1 0 1
0.2063984 -0.08340979 0.7413825 1 0 1
0.2084315 -0.08225603 0.7378365 1 0 1
0.2113035 -0.08187709 0.7370521 1 0 1
0.2115478 -0.07915835 0.7279717 1 0 1
0.2155617 -0.07980455 0.7308565 1 0 1
0.2196016 -0.08043978 0.7337239 1 0 1
0.2224572 -0.08003308 0.732903 1 0 1
0.226534 -0.08064791 0.7357389 1 0 1
0.2281584 -0.07919872 0.7312328 1 0 1
0.2281835 -0.07646637 0.7221535 1 0 1
0.2309931 -0.07603663 0.721305 1 0 1
0.2350817 -0.07661968 0.7240961 1 0 1
0.2391955 -0.07719123 0.726869 1 0 1
0.2436625 -0.0780049 0.7305338 1 0 1
0.2465048 -0.07753967 0.7296334 1 0 1
0.2493436 -0.07706737 0.7287236 1 0 1
0.2521786 -0.07658799 0.7278045 1 0 1
0.2532992 -0.07484452 0.722349 1 0 1
0.2561088 -0.07435419 0.7214171 1 0 1
0.2568189 -0.07235588 0.7150578 1 0 1
0.2634808 -0.07459993 0.7240345 1 0 1
0.2684353 -0.07557829 0.7284722 1 0 1
0.2804856 -0.07392529 0.7262772 1 0 1
0.2889454 -0.07223757 0.7231815 1 0 1
0.3025313 -0.06675328 0.7096694 1 0 1
0.01974428 -0.09371748 0.7634008 1 0 1
0.02075851 -0.08274297 0.72484 1 0 1
0.02336611 -0.08170091 0.7208342 1 0 1
0.02616883 -0.08175702 0.7206586 1 0 1
0.02897124 -0.08180649 0.7204738 1 0 1
0.03177317 -0.08184936 0.7202799 1 0 1
0.03471024 -0.08243862 0.7219939 1 0 1
0.0375187 -0.08246822 0.7217811 1 0 1
0.04040199 -0.08276768 0.7225171 1 0 1
0.04313383 -0.0825074 0.7213279 1 0 1
0.04594045 -0.08251697 0.7210874 1 0 1
0.04883305 -0.08279648 0.7217949 1 0 1
0.0515514 -0.08251603 0.7205791 1 0 1
0.05445 -0.08278219 0.7212675 1 0 1
0.05755154 -0.08359487 0.7238579 1 0 1
0.06036929 -0.083571 0.7235701 1 0 1
0.0633974 -0.08409335 0.7251834 1 0 1
0.06633011 -0.08433237 0.7258312 1 0 1
0.06915629 -0.08428814 0.7255145 1 0 1
0.07198135 -0.08423717 0.7251886 1 0 1
0.07480538 -0.08417943 0.7248533 1 0 1
0.07750374 -0.08383863 0.7235558 1 0 1
0.08006508 -0.08321533 0.7212976 1 0 1
0.08287419 -0.08313766 0.7209362 1 0 1
0.0859537 -0.08360508 0.7224687 1 0 1
0.0884887 -0.08296223 0.7201858 1 0 1
0.09186716 -0.08396693 0.7235989 1 0 1
0.09498022 -0.08441284 0.7250987 1 0 1
0.09750349 -0.08375003 0.7227892 1 0 1
0.1004741 -0.08390651 0.7233195 1 0 1
0.103609 -0.08433103 0.7247877 1 0 1
0.1062711 -0.08392359 0.7234011 1 0 1
0.1090898 -0.08378433 0.7229536 1 0 1
0.1122462 -0.08418734 0.72439 1 0 1
0.1152425 -0.0843084 0.7248687 1 0 1
0.1182444 -0.08442225 0.7253371 1 0 1
0.1210714 -0.08425506 0.7248502 1 0 1
0.1246346 -0.08517543 0.7281301 1 0 1
0.1278493 -0.08554036 0.7295087 1 0 1
0.130117 -0.08453196 0.7261621 1 0 1
0.133339 -0.08488253 0.7275202 1 0 1
0.1363744 -0.08495253 0.7279249 1 0 1
0.1390089 -0.08447056 0.7264379 1 0 1
0.1426685 -0.08534238 0.7296419 1 0 1
0.1450917 -0.08457477 0.7271966 1 0 1
0.1481411 -0.08461558 0.7275597 1 0 1
0.1511956 -0.08464896 0.7279121 1 0 1
0.1542553 -0.08467495 0.7282537 1 0 1
0.1559671 -0.08307049 0.7229687 1 0 1
0.1606191 -0.08497424 0.7298394 1 0 1
0.1636976 -0.08497705 0.7301474 1 0 1
0.1665445 -0.08470286 0.7295111 1 0 1
0.1689083 -0.08388367 0.7270001 1 0 1
0.1722308 -0.08413381 0.7282103 1 0 1
0.1750701 -0.08383888 0.727546 1 0 1
0.1779067 -0.083537 0.7268724 1 0 1
0.1812508 -0.08376334 0.728048 1 0 1
0.1833133 -0.08264546 0.724569 1 0 1
0.1877125 -0.08392341 0.7294329 1 0 1
0.1905566 -0.08359173 0.7287176 1 0 1
0.1931282 -0.08298728 0.7270673 1 0 1
0.196783 -0.08343827 0.729108 1 0 1
0.2007339 -0.08414461 0.7320573 1 0 1
0.2044303 -0.08457562 0.7340669 1 0 1
0.2072927 -0.08420493 0.7332963 1 0 1
0.2090001 -0.08277328 0.7288336 1 0 1
0.21155 -0.08212756 0.7271284 1 0 1
0.2167469 -0.08383831 0.7336839 1 0 1
0.2208031 -0.08448605 0.7365431 1 0 1
0.223675 -0.08407666 0.7357183 1 0 1
0.2265436 -0.08366006 0.734884 1 0 1
0.2269306 -0.08115325 0.7267246 1 0 1
0.226943 -0.07838796 0.7176598 1 0 1
0.2278379 -0.07640374 0.7113422 1 0 1
0.2318923 -0.07700689 0.7141404 1 0 1
0.2359719 -0.07759857 0.7169205 1 0 1
0.2436831 -0.08101232 0.7296808 1 0 1
0.2465273 -0.08054626 0.7287807 1 0 1
0.2493678 -0.0800731 0.7278714 1 0 1
0.2522047 -0.07959288 0.7269527 1 0 1
0.2550377 -0.07910568 0.7260245 1 0 1
0.253718 -0.0755565 0.7142494 1 0 1
0.2585966 -0.07658631 0.7187287 1 0 1
0.2635142 -0.07760142 0.7231843 1 0 1
0.2684706 -0.07860179 0.727616 1 0 1
0.2713058 -0.07807514 0.7266338 1 0 1
0.2801577 -0.07670268 0.7245259 1 0 1
0.2803608 -0.07440224 0.7172526 1 0 1
0.2859437 -0.07327936 0.7152013 1 0 1
0.01948919 -0.09588159 0.7596592 1 0 1
0.02054869 -0.08503354 0.7221018 1 0 1
0.02320352 -0.08425625 0.7190592 1 0 1
0.02600425 -0.08431238 0.7188838 1 0 1
0.02886469 -0.08464213 0.7196571 1 0 1
0.03166834 -0.08468501 0.7194631 1 0 1
0.03460693 -0.08528189 0.7211748 1 0 1
0.03741711 -0.08531153 0.7209619 1 0 1
0.04030198 -0.08561487 0.7216967 1 0 1
0.04311472 -0.0856311 0.7214651 1 0 1
0.04584402 -0.08536024 0.720268 1 0 1
0.04873822 -0.08564363 0.7209743 1 0 1
0.05154891 -0.08563979 0.7207151 1 0 1
0.05445291 -0.08590975 0.721402 1 0 1
0.0572657 -0.08589251 0.7211241 1 0 1
0.06017938 -0.08614898 0.7217915 1 0 1
0.06309962 -0.08639866 0.7224489 1 0 1
0.06602649 -0.08664148 0.7230963 1 0 1
0.06907306 -0.0871578 0.7246869 1 0 1
0.07178303 -0.08682646 0.7234082 1 0 1
0.07448435 -0.08648858 0.7221209 1 0 1
0.07717704 -0.0861441 0.7208256 1 0 1
0.07973282 -0.08551313 0.7185705 1 0 1
0.08240423 -0.08515573 0.7172591 1 0 1
0.08547395 -0.08563087 0.7187909 1 0 1
0.08841804 -0.08581927 0.7193616 1 0 1
0.09165467 -0.08655961 0.7218209 1 0 1
0.0949126 -0.0872924 0.7242678 1 0 1
0.09773927 -0.08718 0.7238572 1 0 1
0.1002555 -0.08650288 0.7215419 1 0 1
0.10323 -0.08665615 0.7220613 1 0 1
0.1062104 -0.08680215 0.7225703 1 0 1
0.1091968 -0.0869412 0.723069 1 0 1
0.1121889 -0.08707305 0.7235572 1 0 1
0.1153601 -0.08747569 0.7249796 1 0 1
0.1183676 -0.08759289 0.7254464 1 0 1
0.1212 -0.08742516 0.7249589 1 0 1
0.1243995 -0.08780535 0.726348 1 0 1
0.1268593 -0.08706922 0.7239565 1 0 1
0.1298781 -0.08715796 0.7243828 1 0 1
0.1323152 -0.08640929 0.721976 1 0 1
0.1355332 -0.08676052 0.7233234 1 0 1
0.1381546 -0.0862754 0.7218405 1 0 1
0.1426282 -0.08826669 0.7287979 1 0 1
0.1450534 -0.08749093 0.7263549 1 0 1
0.1481045 -0.0875352 0.7267169 1 0 1
0.1515968 -0.08812184 0.7289414 1 0 1
0.1546656 -0.08815052 0.7292805 1 0 1
0.1570633 -0.08734867 0.726804 1 0 1
0.1610477 -0.08845895 0.7308599 1 0 1
0.1636698 -0.08791726 0.7292989 1 0 1
0.1672281 -0.0884623 0.73146 1 0 1
0.169845 -0.08790677 0.7298805 1 0 1
0.1714765 -0.08625489 0.7245703 1 0 1
0.1750493 -0.08677697 0.7266983 1 0 1
0.1776365 -0.08620282 0.7250959 1 0 1
0.1812336 -0.08670784 0.7271984 1 0 1
0.1830394 -0.08530719 0.7227958 1 0 1
0.1866494 -0.08579635 0.7248753 1 0 1
0.1892146 -0.08519572 0.7232385 1 0 1
0.1920394 -0.08485865 0.7225187 1 0 1
0.1948613 -0.08451466 0.7217898 1 0 1
0.1985112 -0.08497002 0.7238191 1 0 1
0.2033029 -0.08648866 0.7295197 1 0 1
0.2072898 -0.08719035 0.7324355 1 0 1
0.2098629 -0.08654474 0.7307361 1 0 1
0.2115507 -0.08509252 0.7262735 1 0 1
0.2167495 -0.08683312 0.7328206 1 0 1
0.2196119 -0.08643209 0.7320097 1 0 1
0.2224711 -0.08602403 0.7311893 1 0 1
0.2265517 -0.08666784 0.7340173 1 0 1
0.2269403 -0.08412971 0.7258669 1 0 1
0.228208 -0.08238437 0.7204615 1 0 1
0.2291191 -0.08037435 0.7141463 1 0 1
0.2335103 -0.08125219 0.7178461 1 0 1
0.2359888 -0.08054554 0.7160718 1 0 1
0.2420628 -0.08270843 0.7242769 1 0 1
0.246548 -0.0835486 0.7279164 1 0 1
0.2493903 -0.08307458 0.7270074 1 0 1
0.2522289 -0.08259357 0.726089 1 0 1
0.2530105 -0.08055155 0.7197419 1 0 1
0.2537454 -0.07850992 0.7133997 1 0 1
0.2565299 -0.07801525 0.7124677 1 0 1
0.2614281 -0.07905613 0.7169244 1 0 1
0.2663652 -0.08008218 0.7213572 1 0 1
0.2691809 -0.07955862 0.720383 1 0 1
0.2748001 -0.07849044 0.7184067 1 0 1
0.2776037 -0.07794572 0.7174046 1 0 1
0.01941366 -0.09915348 0.7597439 1 0 1
0.0204846 -0.08815641 0.7222297 1 0 1
0.02314548 -0.0873678 0.7191902 1 0 1
0.0258955 -0.08714007 0.7180573 1 0 1
0.02875748 -0.08747365 0.7188294 1 0 1
0.0315629 -0.08751654 0.7186353 1 0 1
0.03443533 -0.08783706 0.7193883 1 0 1
0.03724349 -0.08786655 0.7191755 1 0 1
0.04012613 -0.08817379 0.7199094 1 0 1
0.04293687 -0.08818997 0.719678 1 0 1
0.0456642 -0.08791531 0.7184824 1 0 1
0.04855618 -0.08820243 0.7191877 1 0 1
0.05136479 -0.08819859 0.7189289 1 0 1
0.05436073 -0.08875655 0.7205691 1 0 1
0.05717522 -0.08873925 0.7202911 1 0 1
0.06019212 -0.08928372 0.7219107 1 0 1
0.06311782 -0.08953713 0.7225665 1 0 1
0.06594091 -0.08949945 0.7222598 1 0 1
0.06898896 -0.09002332 0.7238481 1 0 1
0.07170078 -0.08968805 0.7225705 1 0 1
0.07440395 -0.08934615 0.7212844 1 0 1
0.07697421 -0.08871388 0.7190394 1 0 1
0.07978429 -0.08864272 0.7186876 1 0 1
0.08232947 -0.08799749 0.7164269 1 0 1
0.08540075 -0.08848022 0.7179566 1 0 1
0.08820703 -0.08838889 0.7175773 1 0 1
0.09144138 -0.08914057 0.7200338 1 0 1
0.09455004 -0.08960161 0.7215301 1 0 1
0.09737106 -0.08948936 0.7211207 1 0 1
0.1000361 -0.08908743 0.7197556 1 0 1
0.1034831 -0.09009238 0.7231126 1 0 1
0.1061487 -0.08967674 0.7217284 1 0 1
0.1089711 -0.08953701 0.721281 1 0 1
0.1119612 -0.08967249 0.7217688 1 0 1
0.1149571 -0.0898008 0.7222461 1 0 1
0.117251 -0.08879522 0.7189407 1 0 1
0.1200627 -0.08862854 0.7184573 1 0 1
0.1236102 -0.08957989 0.7217317 1 0 1
0.1260569 -0.08883671 0.719345 1 0 1
0.1292543 -0.08921058 0.7207135 1 0 1
0.1326603 -0.08985714 0.7230097 1 0 1
0.135688 -0.08993489 0.7234146 1 0 1
0.1387211 -0.09000514 0.7238086 1 0 1
0.1425868 -0.09118675 0.7279423 1 0 1
0.1452245 -0.09068226 0.7264386 1 0 1
0.147424 -0.08961339 0.7230548 1 0 1
0.1504707 -0.08965451 0.7234076 1 0 1
0.1535228 -0.08968806 0.7237495 1 0 1
0.1565799 -0.08971414 0.7240808 1 0 1
0.1605586 -0.09084368 0.7281328 1 0 1
0.1638734 -0.09113061 0.7293711 1 0 1
0.1672006 -0.09140909 0.7305968 1 0 1
0.1690988 -0.09001917 0.7262271 1 0 1
0.1716967 -0.08945415 0.7246438 1 0 1
0.1752749 -0.08998669 0.7267678 1 0 1
0.1778676 -0.08940782 0.7251658 1 0 1
0.1812151 -0.08964822 0.7263374 1 0 1
0.1832813 -0.08850643 0.7228655 1 0 1
0.1858474 -0.0879088 0.7212403 1 0 1
0.1868074 -0.08566191 0.7140621 1 0 1
0.1896008 -0.08532818 0.713351 1 0 1
0.1923915 -0.08498761 0.7126307 1 0 1
0.1971183 -0.08654793 0.7183513 1 0 1
0.2004901 -0.08673459 0.7194469 1 0 1
0.2041579 -0.08718397 0.7214489 1 0 1
0.2078445 -0.08762357 0.7234358 1 0 1
0.2118415 -0.08832385 0.7263247 1 0 1
0.2158646 -0.08901313 0.7291963 1 0 1
0.2196147 -0.08942176 0.7311349 1 0 1
0.2236859 -0.09008923 0.7339724 1 0 1
0.226558 -0.08967131 0.7331388 1 0 1
0.2269485 -0.08710203 0.7249976 1 0 1
0.2269642 -0.0842671 0.7159534 1 0 1
0.2278625 -0.08223569 0.7096495 1 0 1
0.2306379 -0.08180229 0.7088037 1 0 1
0.2330856 -0.08109623 0.7070409 1 0 1
0.2384734 -0.08277111 0.7134317 1 0 1
0.2429209 -0.08363585 0.7170786 1 0 1
0.2457255 -0.08316769 0.7161826 1 0 1
0.2485263 -0.08269254 0.7152774 1 0 1
0.2489279 -0.08037098 0.7080482 1 0 1
0.2499672 -0.07857543 0.7026281 1 0 1
0.2548105 -0.07965595 0.7071081 1 0 1
0.2554572 -0.0775916 0.7007822 1 0 1
0.2642576 -0.08151279 0.7151 1 0 1
0.2692142 -0.08254973 0.7195101 1 0 1
0.2745732 -0.08383033 0.7247909 1 0 1
0.274837 -0.08147962 0.7175347 1 0 1
0.2776423 -0.08093394 0.7165331 1 0 1
0.2774492 -0.07832676 0.7083938 1 0 1
0.0193371 -0.1024288 0.7598147 1 0 1
0.02041962 -0.09128289 0.7223444 1 0 1
0.02303421 -0.09019517 0.7183516 1 0 1
0.02584215 -0.09025152 0.7181756 1 0 1
0.02864968 -0.09030123 0.7179906 1 0 1
0.03145674 -0.09034412 0.7177963 1 0 1
0.03433078 -0.09066842 0.7185481 1 0 1
0.0372118 -0.09098607 0.7192903 1 0 1
0.04009984 -0.09129713 0.7200227 1 0 1
0.04283724 -0.09102528 0.7188365 1 0 1
0.04564904 -0.09103478 0.718596 1 0 1
0.04854641 -0.09132573 0.7192998 1 0 1
0.05136049 -0.09132188 0.7190405 1 0 1
0.05436172 -0.09188749 0.720678 1 0 1
0.05708395 -0.09158203 0.719447 1 0 1
0.06000087 -0.09184597 0.720112 1 0 1
0.06292435 -0.09210308 0.720767 1 0 1
0.06574535 -0.09206554 0.7204608 1 0 1
0.06867824 -0.09230896 0.7210963 1 0 1
0.07150104 -0.09225775 0.7207711 1 0 1
0.07432275 -0.09219974 0.7204368 1 0 1
0.07689491 -0.09155963 0.7181939 1 0 1
0.07970669 -0.09148833 0.7178422 1 0 1
0.08251727 -0.09141026 0.7174811 1 0 1
0.0854621 -0.09161283 0.7180594 1 0 1
0.08799531 -0.09094667 0.7157842 1 0 1
0.0913704 -0.09199689 0.7191851 1 0 1
0.0944806 -0.09246535 0.7206792 1 0 1
0.09730332 -0.09235281 0.7202697 1 0 1
0.09997027 -0.09194691 0.7189057 1 0 1
0.1035766 -0.09325337 0.7232033 1 0 1
0.1064098 -0.0931198 0.722764 1 0 1
0.1097381 -0.09383772 0.7251469 1 0 1
0.1127486 -0.0939758 0.7256305 1 0 1
0.115765 -0.09410655 0.7261036 1 0 1
0.1179028 -0.09280269 0.7218567 1 0 1
0.1209118 -0.09291995 0.7223119 1 0 1
0.1237421 -0.092745 0.7218161 1 0 1
0.1260064 -0.09170868 0.7184913 1 0 1
0.1293971 -0.09237454 0.7207968 1 0 1
0.1324174 -0.09246326 0.721212 1 0 1
0.1356423 -0.09282871 0.7225543 1 0 1
0.1386771 -0.09290247 0.7229475 1 0 1
0.1423375 -0.09381913 0.7261392 1 0 1
0.1453942 -0.09387711 0.7265087 1 0 1
0.1484561 -0.09392753 0.7268675 1 0 1
0.1506516 -0.0928402 0.7234788 1 0 1
0.1534874 -0.09259454 0.7228855 1 0 1
0.1567715 -0.09290596 0.7241484 1 0 1
0.1605264 -0.09377209 0.7272623 1 0 1
0.1631446 -0.0932225 0.7257056 1 0 1
0.1664624 -0.09350927 0.7269317 1 0 1
0.1690719 -0.09294602 0.7253572 1 0 1
0.1716715 -0.09237681 0.7237752 1 0 1
0.1757467 -0.09347954 0.7277513 1 0 1
0.1785997 -0.09317493 0.7270756 1 0 1
0.1829798 -0.09453686 0.7319457 1 0 1
0.1858496 -0.09421566 0.7312461 1 0 1
0.1876674 -0.09277518 0.726841 1 0 1
0.1894529 -0.09133118 0.7224339 1 0 1
0.1914759 -0.09016065 0.7189471 1 0 1
0.1951139 -0.09064667 0.7209843 1 0 1
0.1976631 -0.09001788 0.7193253 1 0 1
0.2016052 -0.09076219 0.7222556 1 0 1
0.2052893 -0.09122044 0.7242506 1 0 1
0.2078405 -0.09056921 0.7225609 1 0 1
0.2130057 -0.09238168 0.729111 1 0 1
0.2167499 -0.09280948 0.731059 1 0 1
0.2208116 -0.09350067 0.7339058 1 0 1
0.2252016 -0.09445342 0.737648 1 0 1
0.2281943 -0.09115732 0.7277612 1 0 1
0.2282262 -0.08828521 0.7187231 1 0 1
0.2297747 -0.08676957 0.7142399 1 0 1
0.2325735 -0.08633199 0.7133877 1 0 1
0.2350446 -0.08561792 0.7116197 1 0 1
0.2388165 -0.08597394 0.7134672 1 0 1
0.2412806 -0.08524582 0.7116808 1 0 1
0.2457444 -0.08611874 0.7153075 1 0 1
0.2485469 -0.08564276 0.7144027 1 0 1
0.2468965 -0.08169463 0.7017757 1 0 1
0.2496452 -0.08121269 0.7008678 1 0 1
0.2569328 -0.08417271 0.711633 1 0 1
0.2572494 -0.08181623 0.7044096 1 0 1
0.2642872 -0.08447769 0.7142218 1 0 1
0.2692458 -0.08553627 0.7186255 1 0 1
0.2746068 -0.08684239 0.7238989 1 0 1
0.2748721 -0.08446438 0.716651 1 0 1
0.2776792 -0.08391773 0.7156498 1 0 1
0.2804822 -0.08336411 0.7146394 1 0 1
0.283281 -0.0828034 0.7136198 1 0 1
0.2860757 -0.08223553 0.7125908 1 0 1
0.2888662 -0.08166063 0.7115527 1 0 1
0.2916524 -0.08107854 0.7105055 1 0 1
0.2944343 -0.08048944 0.7094489 1 0 1
0.01930409 -0.1059988 0.7608271 1 0 1
0.02035372 -0.09441294 0.7224456 1 0 1
0.02297438 -0.09331013 0.718457 1 0 1
0.02573189 -0.09307494 0.7173259 1 0 1
0.02860081 -0.09341633 0.7180954 1 0 1
0.0313499 -0.09316763 0.7169464 1 0 1
0.0342255 -0.09349574 0.717697 1 0 1
0.03703703 -0.09352537 0.717484 1 0 1
0.039848 -0.09354834 0.717262 1 0 1
0.04265832 -0.09356456 0.7170307 1 0 1
0.04546794 -0.09357409 0.7167903 1 0 1
0.04836313 -0.09386876 0.7174933 1 0 1
0.05126516 -0.09415679 0.7181865 1 0 1
0.05426778 -0.09473 0.7198217 1 0 1
0.05699196 -0.0944206 0.7185918 1 0 1
0.05991041 -0.0946884 0.7192557 1 0 1
0.06283552 -0.09494918 0.7199095 1 0 1
0.06565826 -0.09491153 0.7196032 1 0 1
0.0685927 -0.09515866 0.7202374 1 0 1
0.07141716 -0.09510729 0.7199122 1 0 1
0.07424055 -0.09504922 0.7195779 1 0 1
0.07681472 -0.09440134 0.7173374 1 0 1
0.07975601 -0.0946212 0.7179336 1 0 1
0.08270378 -0.0948342 0.7185197 1 0 1
0.08552232 -0.09474894 0.7181486 1 0 1
0.08833964 -0.09465702 0.7177684 1 0 1
0.09129851 -0.09484912 0.718325 1 0 1
0.09441026 -0.09532504 0.7198169 1 0 1
0.0972347 -0.09521225 0.7194076 1 0 1
0.1002118 -0.09538313 0.7199335 1 0 1
0.103511 -0.0961275 0.7223365 1 0 1
0.1065077 -0.09628373 0.7228406 1 0 1
0.1095102 -0.09643284 0.7233341 1 0 1
0.1123494 -0.09628486 0.7228753 1 0 1
0.1153599 -0.09641963 0.7233487 1 0 1
0.1180225 -0.09596848 0.7219299 1 0 1
0.1212175 -0.09637818 0.7233236 1 0 1
0.12332 -0.09504698 0.7190687 1 0 1
0.1257667 -0.09428804 0.7166875 1 0 1
0.1291552 -0.09496502 0.7189903 1 0 1
0.1317824 -0.09448134 0.7175302 1 0 1
0.1349977 -0.09485485 0.7188726 1 0 1
0.1384289 -0.09550792 0.7211388 1 0 1
0.1420871 -0.0964397 0.7243269 1 0 1
0.1453522 -0.09678832 0.7256306 1 0 1
0.1488441 -0.09741549 0.727856 1 0 1
0.150831 -0.09602927 0.7235363 1 0 1
0.1532291 -0.09521081 0.721078 1 0 1
0.1571872 -0.09638675 0.7251339 1 0 1
0.1609509 -0.09726695 0.7282417 1 0 1
0.1635785 -0.09671235 0.7266847 1 0 1
0.1669053 -0.09700549 0.7279071 1 0 1
0.1704845 -0.09757449 0.730045 1 0 1
0.1731082 -0.09699848 0.7284591 1 0 1
0.1764645 -0.09726689 0.729645 1 0 1
0.1785767 -0.0961111 0.7261902 1 0 1
0.1829584 -0.09749525 0.7310537 1 0 1
0.1855713 -0.09689131 0.7294306 1 0 1
0.1876495 -0.09571721 0.725954 1 0 1
0.188639 -0.09341292 0.7187858 1 0 1
0.1914617 -0.09307491 0.7180686 1 0 1
0.1961946 -0.09469409 0.723783 1 0 1
0.1979294 -0.09321857 0.7193642 1 0 1
0.2015961 -0.0936974 0.7213709 1 0 1
0.205282 -0.09416631 0.7233628 1 0 1
0.2089867 -0.09462539 0.7253394 1 0 1
0.2130018 -0.09535259 0.7282158 1 0 1
0.2170431 -0.09606881 0.7310749 1 0 1
0.2208112 -0.09649674 0.7330031 1 0 1
0.2236904 -0.09608448 0.7321796 1 0 1
0.2265662 -0.09566489 0.7313465 1 0 1
0.2294386 -0.09523831 0.7305041 1 0 1
0.2310539 -0.09370445 0.7260167 1 0 1
0.2326367 -0.09216791 0.7215286 1 0 1
0.2367525 -0.09282009 0.7242938 1 0 1
0.2395966 -0.09236731 0.7234184 1 0 1
0.2407976 -0.09054362 0.7180113 1 0 1
0.2449425 -0.09116839 0.7207363 1 0 1
