ply
format ascii 1.0
Comment Generated by Floating Hands
element vertex 1264
property double x
property double y
property double z
property uchar red
property uchar green
property uchar blue
end_header
-0.07964498 -0.2168708 0.273077 1 0 1
-0.07757828 -0.2177282 0.2738671 1 0 1
-0.07543297 -0.2179156 0.2739075 1 0 1
-0.073287 -0.2180972 0.2739417 1 0 1
-0.07114054 -0.218273 0.2739697 1 0 1
-0.06893516 -0.2177772 0.2732479 1 0 1
-0.06673715 -0.217275 0.2725197 1 0 1
-0.1404339 -0.214643 0.2722395 1 0 1
-0.1363448 -0.216005 0.2734115 1 0 1
-0.1343803 -0.2170058 0.2743561 1 0 1
-0.1318905 -0.2160355 0.2730893 1 0 1
-0.129583 -0.2157132 0.2725505 1 0 1
-0.1277744 -0.2173541 0.2742127 1 0 1
-0.1259488 -0.2189918 0.2758702 1 0 1
-0.1236373 -0.2186522 0.2753126 1 0 1
-0.1216372 -0.2196227 0.2762221 1 0 1
-0.1196279 -0.2205885 0.277126 1 0 1
-0.1171755 -0.2195709 0.2758114 1 0 1
-0.1147376 -0.2185454 0.2744894 1 0 1
-0.1124509 -0.2181726 0.2738982 1 0 1
-0.110304 -0.2184542 0.2740387 1 0 1
-0.1077685 -0.2167451 0.271957 1 0 1
-0.1056311 -0.2170137 0.2720842 1 0 1
-0.10325 -0.2159514 0.2707272 1 0 1
-0.1008836 -0.2148813 0.2693629 1 0 1
-0.0985318 -0.2138038 0.2679918 1 0 1
-0.09652339 -0.2147108 0.2688327 1 0 1
-0.09429497 -0.2142841 0.2681882 1 0 1
-0.0922769 -0.2151805 0.2690172 1 0 1
-0.09025016 -0.2160721 0.2698404 1 0 1
-0.08812092 -0.2162931 0.2699173 1 0 1
-0.0859009 -0.2158424 0.2692477 1 0 1
-0.08377402 -0.2160515 0.2693121 1 0 1
-0.0817285 -0.2169219 0.2701112 1 0 1
-0.07959626 -0.21712 0.2701634 1 0 1
-0.07753762 -0.21798 0.2709504 1 0 1
-0.07540014 -0.2181671 0.2709904 1 0 1
-0.07319565 -0.2176801 0.2702831 1 0 1
-0.07112341 -0.2185238 0.2710517 1 0 1
-0.0689842 -0.2186936 0.2710731 1 0 1
-0.06673533 -0.2175193 0.2696061 1 0 1
-0.06460301 -0.217677 0.2696151 1 0 1
0.04012618 -0.2006583 0.2430117 1 0 1
0.04321293 -0.205213 0.2478008 1 0 1
0.07801576 -0.2095761 0.2500915 1 0 1
-0.140918 -0.2175372 0.27226 1 0 1
-0.1382253 -0.2159262 0.2702875 1 0 1
-0.1359142 -0.2156199 0.2697701 1 0 1
-0.1343134 -0.2179379 0.2721751 1 0 1
-0.1316551 -0.2163033 0.2701799 1 0 1
-0.1293551 -0.2159774 0.2696425 1 0 1
-0.127226 -0.2163043 0.2698316 1 0 1
-0.1254164 -0.2179458 0.2714819 1 0 1
-0.1229636 -0.2169408 0.2701911 1 0 1
-0.1209832 -0.2179118 0.2710961 1 0 1
-0.1189937 -0.2188783 0.2719953 1 0 1
-0.1165604 -0.2178526 0.270684 1 0 1
-0.1141415 -0.2168191 0.2693655 1 0 1
-0.1120113 -0.2171049 0.2695107 1 0 1
-0.1096135 -0.2160568 0.2681781 1 0 1
-0.1071009 -0.2143365 0.2661024 1 0 1
-0.1052378 -0.2159326 0.2677003 1 0 1
-0.1027504 -0.2141975 0.2656107 1 0 1
-0.1004031 -0.2131198 0.2642503 1 0 1
-0.09807055 -0.2120347 0.2628831 1 0 1
-0.0961917 -0.2136095 0.2644571 1 0 1
-0.09376705 -0.2118439 0.2623397 1 0 1
-0.09207848 -0.2147443 0.2653768 1 0 1
-0.08996572 -0.2149697 0.2654589 1 0 1
-0.08794623 -0.2158581 0.2662727 1 0 1
-0.08591807 -0.2167416 0.2670805 1 0 1
-0.08379511 -0.2169508 0.2671446 1 0 1
-0.08167142 -0.2171542 0.2672024 1 0 1
-0.07962541 -0.218022 0.2679923 1 0 1
-0.07757086 -0.2188849 0.2687761 1 0 1
-0.07529629 -0.2177303 0.2673392 1 0 1
-0.07317002 -0.2179109 0.2673725 1 0 1
-0.07110579 -0.2187573 0.268138 1 0 1
-0.06885707 -0.2175832 0.2666822 1 0 1
-0.06662349 -0.2164022 0.2652201 1 0 1
0.03060246 -0.206124 0.2466677 1 0 1
0.03384664 -0.2018577 0.2417687 1 0 1
0.04047345 -0.2041782 0.2438163 1 0 1
0.04326363 -0.2074065 0.2471378 1 0 1
0.05040656 -0.2027715 0.2415526 1 0 1
0.05241929 -0.2026082 0.2412273 1 0 1
0.07458381 -0.2073505 0.2447963 1 0 1
0.0766186 -0.2071226 0.2444003 1 0 1
0.07974835 -0.2102231 0.2475599 1 0 1
-0.1404636 -0.2171435 0.2686212 1 0 1
-0.137966 -0.2161818 0.2673836 1 0 1
-0.1354823 -0.2152119 0.2661383 1 0 1
-0.1335414 -0.2162158 0.2670743 1 0 1
-0.1310742 -0.2152314 0.2658148 1 0 1
-0.1287896 -0.2149007 0.265278 1 0 1
-0.1265115 -0.2145631 0.2647345 1 0 1
-0.1245611 -0.2155449 0.2656464 1 0 1
-0.1221312 -0.2145312 0.2643584 1 0 1
-0.1200215 -0.2148379 0.2645266 1 0 1
-0.1182085 -0.2164686 0.2661527 1 0 1
-0.1160884 -0.2167652 0.2663092 1 0 1
-0.1136848 -0.2157242 0.2649943 1 0 1
-0.1114329 -0.215342 0.2644051 1 0 1
-0.1093211 -0.2156199 0.2645424 1 0 1
-0.1065606 -0.212555 0.2610067 1 0 1
-0.1045918 -0.213487 0.2618642 1 0 1
-0.102249 -0.2124092 0.2605146 1 0 1
-0.09992094 -0.2113237 0.259158 1 0 1
-0.09772136 -0.2109002 0.2585289 1 0 1
-0.09596851 -0.2131492 0.2608309 1 0 1
-0.09366111 -0.2120443 0.2594551 1 0 1
-0.09198118 -0.2149557 0.2624809 1 0 1
-0.08987625 -0.2151807 0.2625624 1 0 1
-0.0879591 -0.2167429 0.2641078 1 0 1
-0.08584473 -0.2169574 0.2641774 1 0 1
-0.08390249 -0.2185106 0.2657114 1 0 1
-0.0816963 -0.2180418 0.2650335 1 0 1
-0.07957588 -0.2182396 0.2650849 1 0 1
-0.07752939 -0.219105 0.2658656 1 0 1
-0.07533302 -0.2186179 0.2651691 1 0 1
-0.07321067 -0.2187985 0.265202 1 0 1
-0.07108777 -0.2189734 0.2652288 1 0 1
-0.06902323 -0.2198172 0.2659853 1 0 1
0.0306289 -0.2083111 0.2460044 1 0 1
0.03159901 -0.2027863 0.2399449 1 0 1
0.0338821 -0.2040269 0.2411204 1 0 1
0.03674601 -0.2079672 0.2451788 1 0 1
0.03892839 -0.2085176 0.245614 1 0 1
0.04007186 -0.2043299 0.2409913 1 0 1
0.04269995 -0.2068974 0.2435797 1 0 1
0.04472946 -0.2067552 0.2432759 1 0 1
0.04643564 -0.2052571 0.2415266 1 0 1
0.04730031 -0.2003801 0.2361779 1 0 1
0.0504728 -0.2049463 0.2408926 1 0 1
0.05300758 -0.2068055 0.2427208 1 0 1
0.05503452 -0.2066353 0.2423874 1 0 1
0.05760146 -0.2084804 0.2441983 1 0 1
0.05945288 -0.2076248 0.2431352 1 0 1
0.0609187 -0.2054185 0.240637 1 0 1
0.06351227 -0.2072442 0.2424252 1 0 1
0.06553975 -0.2070455 0.2420614 1 0 1
0.0675657 -0.2068413 0.2416919 1 0 1
0.07040483 -0.2093171 0.2441668 1 0 1
0.07244299 -0.2091002 0.2437828 1 0 1
0.0744795 -0.2088776 0.243393 1 0 1
0.07651433 -0.2086495 0.2429972 1 0 1
0.07854753 -0.2084159 0.2425958 1 0 1
0.07946411 -0.2048305 0.2386445 1 0 1
0.08260855 -0.2079318 0.2417754 1 0 1
0.08463638 -0.2076814 0.2413565 1 0 1
0.08666237 -0.2074254 0.2409319 1 0 1
0.08987816 -0.2105003 0.2440295 1 0 1
0.09877823 -0.2057727 0.2382625 1 0 1
0.1007906 -0.2054778 0.2377974 1 0 1
0.1043912 -0.2091587 0.2415244 1 0 1
0.104809 -0.2048715 0.2368501 1 0 1
0.106815 -0.20456 0.2363679 1 0 1
0.1088189 -0.204243 0.2358799 1 0 1
0.1108205 -0.2039205 0.2353862 1 0 1
0.1105478 -0.1983081 0.2293269 1 0 1
0.1125147 -0.1979796 0.2288294 1 0 1
0.1168121 -0.2029198 0.2338709 1 0 1
0.1229398 -0.2117958 0.2430437 1 0 1
0.1228889 -0.2068308 0.23767 1 0 1
0.1227828 -0.2018695 0.2323044 1 0 1
0.1272216 -0.2067612 0.2372836 1 0 1
-0.1427003 -0.2183481 0.2669436 1 0 1
-0.1401961 -0.2173883 0.2657177 1 0 1
-0.1375217 -0.215758 0.2637579 1 0 1
-0.1350493 -0.2147809 0.2625161 1 0 1
-0.1331203 -0.2157864 0.2634479 1 0 1
-0.1306644 -0.2147948 0.262192 1 0 1
-0.1283913 -0.21446 0.2616564 1 0 1
-0.1262894 -0.2147837 0.2618421 1 0 1
-0.1241861 -0.2151017 0.2620217 1 0 1
-0.1217676 -0.214081 0.2607376 1 0 1
-0.1193633 -0.2130524 0.2594462 1 0 1
-0.117421 -0.2140189 0.2603357 1 0 1
-0.1153244 -0.2143126 0.26049 1 0 1
-0.1129437 -0.2132632 0.2591783 1 0 1
-0.1108526 -0.2135446 0.2593199 1 0 1
-0.1087603 -0.2138204 0.2594555 1 0 1
-0.1061482 -0.2114094 0.2566622 1 0 1
-0.1041952 -0.2123426 0.2575156 1 0 1
-0.1017458 -0.2105864 0.2554389 1 0 1
-0.09967285 -0.2108368 0.255549 1 0 1
-0.09759894 -0.2110815 0.255653 1 0 1
-0.09596466 -0.2140113 0.258678 1 0 1
-0.09366082 -0.2129005 0.2573069 1 0 1
-0.09208793 -0.2164969 0.2610537 1 0 1
-0.08998302 -0.2167223 0.2611348 1 0 1
-0.08797181 -0.2176164 0.2619423 1 0 1
-0.08586142 -0.2178307 0.2620113 1 0 1
-0.08383687 -0.2187146 0.2628069 1 0 1
-0.08163838 -0.2182425 0.2621312 1 0 1
-0.07944704 -0.217764 0.2614492 1 0 1
-0.07733775 -0.2179553 0.2614937 1 0 1
-0.07522781 -0.2181409 0.2615323 1 0 1
-0.07311729 -0.2183208 0.2615647 1 0 1
-0.07094312 -0.2178178 0.260858 1 0 1
-0.06889454 -0.2186635 0.2616112 1 0 1
0.03130237 -0.2138987 0.2489378 1 0 1
0.03243108 -0.2090294 0.2436179 1 0 1
0.03501604 -0.2116334 0.2462255 1 0 1
0.03706572 -0.2115124 0.2459429 1 0 1
0.03955014 -0.2134233 0.2478129 1 0 1
0.04041599 -0.2078591 0.2417656 1 0 1
0.04320804 -0.2111159 0.2450601 1 0 1
0.04431142 -0.2069022 0.2404475 1 0 1
0.04649276 -0.2074331 0.2408564 1 0 1
0.04736274 -0.2025355 0.2355259 1 0 1
0.05053769 -0.2071214 0.2402213 1 0 1
0.05255826 -0.2069572 0.2398952 1 0 1
0.05404827 -0.204757 0.2374192 1 0 1
0.05587411 -0.2039062 0.2363693 1 0 1
0.05842746 -0.2057554 0.2381685 1 0 1
0.05968647 -0.2028663 0.2349691 1 0 1
0.062832 -0.206729 0.2388896 1 0 1
0.06543513 -0.2085564 0.2406621 1 0 1
0.06825963 -0.2110507 0.2431352 1 0 1
0.07029941 -0.2108391 0.2427572 1 0 1
0.07150817 -0.2079266 0.2395367 1 0 1
0.07352927 -0.2077055 0.23915 1 0 1
0.07554878 -0.2074789 0.2387575 1 0 1
0.07756651 -0.2072467 0.2383593 1 0 1
0.07958256 -0.207009 0.2379554 1 0 1
0.08250327 -0.2094524 0.2403672 1 0 1
0.08453112 -0.2092017 0.2399485 1 0 1
0.0853857 -0.2055921 0.2360052 1 0 1
0.08858132 -0.2086836 0.2390939 1 0 1
0.08915187 -0.2043982 0.2344451 1 0 1
0.0926239 -0.2081432 0.2382162 1 0 1
0.09464233 -0.2078648 0.2377688 1 0 1
0.09817924 -0.2115892 0.241513 1 0 1
0.09867311 -0.207291 0.2368564 1 0 1
0.1019908 -0.2103308 0.2398809 1 0 1
0.1058741 -0.2146921 0.2442847 1 0 1
0.1063159 -0.2103839 0.2396213 1 0 1
0.10671 -0.206077 0.2349631 1 0 1
0.1087139 -0.2057596 0.2344755 1 0 1
0.1107156 -0.2054368 0.2339821 1 0 1
0.1107283 -0.2004645 0.2286368 1 0 1
0.1147123 -0.2047744 0.2329783 1 0 1
0.1167072 -0.204435 0.2324679 1 0 1
0.1231273 -0.2140122 0.2422933 1 0 1
0.1206902 -0.2037395 0.23143 1 0 1
0.1226781 -0.2033835 0.2309025 1 0 1
0.1246636 -0.203022 0.2303694 1 0 1
0.121373 -0.191456 0.2181785 1 0 1
0.1207782 -0.185831 0.2121766 1 0 1
-0.1397396 -0.2169515 0.2620956 1 0 1
-0.1370762 -0.2153112 0.2601419 1 0 1
-0.1344347 -0.2136614 0.2581797 1 0 1
-0.1325213 -0.2146677 0.2591069 1 0 1
-0.1299079 -0.2130015 0.2571295 1 0 1
-0.127654 -0.2126614 0.2565943 1 0 1
-0.1254066 -0.2123143 0.2560523 1 0 1
-0.1233267 -0.2126293 0.2562295 1 0 1
-0.1204596 -0.2095918 0.2527699 1 0 1
-0.1185499 -0.2105628 0.2536599 1 0 1
-0.1166312 -0.2115292 0.2545445 1 0 1
-0.114558 -0.21182 0.2546965 1 0 1
-0.112342 -0.2114338 0.2541154 1 0 1
-0.1105459 -0.2130572 0.2557104 1 0 1
-0.1083315 -0.2126593 0.2551169 1 0 1
-0.1057342 -0.2102353 0.2523329 1 0 1
-0.1036712 -0.2104963 0.2524541 1 0 1
-0.101607 -0.2107517 0.2525693 1 0 1
-0.09954192 -0.2110015 0.2526785 1 0 1
-0.09747587 -0.2112458 0.2527818 1 0 1
-0.09596062 -0.2148619 0.2565245 1 0 1
-0.09387317 -0.2150972 0.2566167 1 0 1
-0.09209234 -0.2173561 0.2588911 1 0 1
-0.09009003 -0.2182582 0.2597013 1 0 1
-0.08807901 -0.2191554 0.2605056 1 0 1
-0.08587792 -0.2186926 0.2598445 1 0 1
-0.08385757 -0.2195794 0.260637 1 0 1
-0.08174571 -0.2197827 0.2606935 1 0 1
-0.07955421 -0.2193017 0.2600138 1 0 1
-0.07744495 -0.2194933 0.2600581 1 0 1
-0.07526395 -0.2189998 0.259366 1 0 1
-0.07315738 -0.2191797 0.2593981 1 0 1
-0.07092372 -0.2179937 0.2579632 1 0 1
-0.06888326 -0.218842 0.2587135 1 0 1
-0.06650209 -0.215601 0.255075 1 0 1
-0.06431411 -0.2143943 0.2536218 1 0 1
0.03192604 -0.20848 0.2400634 1 0 1
0.03449848 -0.2110961 0.242662 1 0 1
0.0366776 -0.211658 0.2430984 1 0 1
0.03871837 -0.2115318 0.2428112 1 0 1
0.04218507 -0.2085366 0.2393566 1 0 1
0.04373653 -0.206351 0.236909 1 0 1
0.0455847 -0.2055235 0.2358882 1 0 1
0.04725931 -0.2040104 0.2341489 1 0 1
0.0499276 -0.2065752 0.236686 1 0 1
0.0519365 -0.2064119 0.2363618 1 0 1
0.05341545 -0.2042038 0.2338959 1 0 1
0.05577014 -0.2053893 0.2349849 1 0 1
0.05721913 -0.2031727 0.2325122 1 0 1
0.05901917 -0.20231 0.2314577 1 0 1
0.06080998 -0.2014427 0.2303989 1 0 1
0.06396058 -0.2053162 0.2342964 1 0 1
0.06595944 -0.2051144 0.2339322 1 0 1
0.06937979 -0.2096469 0.2385128 1 0 1
0.06974529 -0.2040174 0.2324802 1 0 1
0.0734237 -0.2092099 0.2377456 1 0 1
0.07479857 -0.2069555 0.2352385 1 0 1
0.07658604 -0.206049 0.2341385 1 0 1
0.0785867 -0.2058129 0.2337378 1 0 1
0.08239687 -0.2109673 0.238953 1 0 1
0.08327349 -0.2073462 0.2350251 1 0 1
0.08645079 -0.2104599 0.2381105 1 0 1
0.08847495 -0.2101978 0.2376806 1 0 1
0.09251762 -0.2096569 0.2368034 1 0 1
0.09453604 -0.2093781 0.2363562 1 0 1
0.09655239 -0.2090937 0.2359032 1 0 1
0.09702466 -0.2047813 0.2312683 1 0 1
0.1005792 -0.2085082 0.2349802 1 0 1
0.1039128 -0.2115536 0.2379814 1 0 1
0.10594 -0.2112441 0.237501 1 0 1
0.1066038 -0.2075884 0.2335525 1 0 1
0.1086077 -0.2072707 0.2330653 1 0 1
0.1106094 -0.2069474 0.2325722 1 0 1
0.1126089 -0.2066187 0.2320736 1 0 1
0.1146062 -0.2062843 0.2315691 1 0 1
0.1166011 -0.2059446 0.2310591 1 0 1
0.1206585 -0.2102496 0.2353507 1 0 1
0.1205841 -0.2052483 0.230022 1 0 1
0.1221075 -0.1992314 0.2234919 1 0 1
0.1215804 -0.1935766 0.2174997 1 0 1
0.1235011 -0.193215 0.2169722 1 0 1
0.1295839 -0.1970921 0.2206581 1 0 1
-0.1444553 -0.2190975 0.2616328 1 0 1
-0.1415712 -0.2167993 0.2589819 1 0 1
-0.1396587 -0.2178265 0.2599244 1 0 1
-0.1369988 -0.2161776 0.2579778 1 0 1
-0.1345411 -0.2151877 0.256744 1 0 1
-0.1320977 -0.2141898 0.2555028 1 0 1
-0.1298412 -0.2138534 0.2549761 1 0 1
-0.127253 -0.2121694 0.2529978 1 0 1
-0.1250171 -0.2118183 0.252457 1 0 1
-0.1229489 -0.212132 0.2526326 1 0 1
-0.1204073 -0.2104235 0.2506319 1 0 1
-0.1181947 -0.2100516 0.2500709 1 0 1
-0.1165872 -0.2123663 0.2523996 1 0 1
-0.1145179 -0.2126572 0.252551 1 0 1
-0.1120221 -0.2109191 0.2505225 1 0 1
-0.1101001 -0.2118721 0.251386 1 0 1
-0.1079013 -0.2114697 0.2507938 1 0 1
-0.1055791 -0.2103847 0.2494698 1 0 1
-0.1035238 -0.2106451 0.2495902 1 0 1
-0.1015899 -0.2115769 0.2504303 1 0 1
-0.09964707 -0.2125041 0.251265 1 0 1
-0.09780999 -0.2141045 0.2528203 1 0 1
-0.09595633 -0.2157012 0.2543704 1 0 1
-0.09397947 -0.2166153 0.2551886 1 0 1
-0.09219935 -0.218883 0.2574545 1 0 1
-0.09019723 -0.2197883 0.2582617 1 0 1
-0.08809162 -0.2200088 0.258336 1 0 1
-0.08607617 -0.2209039 0.2591314 1 0 1
-0.08396512 -0.2211134 0.2591936 1 0 1
-0.08185331 -0.2213171 0.2592498 1 0 1
-0.07958248 -0.220152 0.257845 1 0 1
-0.07747719 -0.2203437 0.257889 1 0 1
-0.07522863 -0.219165 0.2564715 1 0 1
-0.07312997 -0.2193445 0.2565032 1 0 1
-0.07090386 -0.2181525 0.2550733 1 0 1
-0.06893098 -0.2196865 0.2565482 1 0 1
-0.06694191 -0.2212162 0.2580173 1 0 1
0.03108867 -0.2169311 0.2460957 1 0 1
0.03395104 -0.2209341 0.2501177 1 0 1
0.03672225 -0.2242434 0.2534123 1 0 1
0.0372761 -0.2165825 0.2452614 1 0 1
0.03933636 -0.216455 0.2449715 1 0 1
0.04065175 -0.2128986 0.2411081 1 0 1
0.04345343 -0.216183 0.2443741 1 0 1
0.04300544 -0.2050928 0.2326685 1 0 1
0.04435689 -0.202212 0.2295175 1 0 1
0.04699064 -0.2047963 0.2320551 1 0 1
0.04881318 -0.2039566 0.2310293 1 0 1
0.05079868 -0.203795 0.230709 1 0 1
0.05260692 -0.2029454 0.2296738 1 0 1
0.05782358 -0.2150537 0.2420985 1 0 1
0.05766604 -0.206687 0.2332542 1 0 1
0.05966547 -0.2065019 0.2329079 1 0 1
0.06013156 -0.2008618 0.2269028 1 0 1
0.06724227 -0.2043462 0.230057 1 0 1
0.06632908 -0.1946202 0.2198306 1 0 1
0.07057651 -0.2018797 0.2271957 1 0 1
0.07383391 -0.2057306 0.2310273 1 0 1
0.07560617 -0.2048228 0.2299333 1 0 1
0.07892562 -0.2086553 0.2337407 1 0 1
0.08228941 -0.2124766 0.237533 1 0 1
0.08431733 -0.2122254 0.2371149 1 0 1
0.08634336 -0.2119687 0.236691 1 0 1
0.0883675 -0.2117063 0.2362614 1 0 1
0.104642 -0.2207782 0.2446425 1 0 1
-0.2126491 -0.2134684 0.2577251 1 0 1
-0.145283 -0.2014975 0.2401222 1 0 1
-0.14491 -0.2072035 0.2460872 1 0 1
-0.1436727 -0.2102428 0.2491869 1 0 1
-0.142403 -0.2132821 0.252284 1 0 1
-0.1409083 -0.2156518 0.2546611 1 0 1
-0.1392002 -0.2173498 0.2563168 1 0 1
-0.1367361 -0.2163618 0.2550947 1 0 1
-0.134105 -0.2146942 0.2531464 1 0 1
-0.1320268 -0.2150332 0.2533469 1 0 1
-0.129601 -0.2140213 0.2521026 1 0 1
-0.1268508 -0.2116549 0.2494114 1 0 1
-0.1247917 -0.2119734 0.2495918 1 0 1
-0.1227314 -0.2122864 0.2497663 1 0 1
-0.1203546 -0.2112438 0.2484933 1 0 1
-0.1182995 -0.2115445 0.2486553 1 0 1
-0.1162433 -0.2118398 0.2488113 1 0 1
-0.1140399 -0.2114527 0.2482398 1 0 1
-0.1117011 -0.2103817 0.2469398 1 0 1
-0.109653 -0.2106586 0.2470772 1 0 1
-0.1076038 -0.21093 0.2472086 1 0 1
-0.1054232 -0.2105171 0.2466116 1 0 1
-0.1035023 -0.2114562 0.247454 1 0 1
-0.101695 -0.2130706 0.2490139 1 0 1
-0.09975247 -0.214001 0.2498455 1 0 1
-0.09780116 -0.2149268 0.2506716 1 0 1
-0.09595186 -0.2165291 0.2522157 1 0 1
-0.09397915 -0.2174459 0.2530307 1 0 1
-0.09210065 -0.21904 0.2545639 1 0 1
-0.09020569 -0.2206302 0.2560919 1 0 1
-0.08810407 -0.2208507 0.2561657 1 0 1
-0.08591047 -0.2203821 0.255509 1 0 1
-0.08389849 -0.2212744 0.2562952 1 0 1
-0.08171129 -0.2207936 0.2556262 1 0 1
-0.07937251 -0.2189377 0.2535014 1 0 1
-0.077283 -0.2191281 0.2535446 1 0 1
-0.07519284 -0.219313 0.2535818 1 0 1
-0.07303452 -0.2188067 0.2528881 1 0 1
-0.07088349 -0.2182941 0.2521882 1 0 1
-0.06909809 -0.2218919 0.2558326 1 0 1
0.03691379 -0.2069582 0.2321598 1 0 1
0.03757356 -0.2006415 0.2254757 1 0 1
0.04088776 -0.1892415 0.213252 1 0 1
0.08014685 -0.2078584 0.2298315 1 0 1
-0.2118122 -0.2130768 0.254162 1 0 1
-0.210352 -0.214922 0.2559785 1 0 1
-0.2082599 -0.2154705 0.256397 1 0 1
-0.2019171 -0.2069351 0.2470351 1 0 1
-0.2016709 -0.2113552 0.2516245 1 0 1
-0.2019689 -0.217082 0.2576157 1 0 1
-0.1945911 -0.2109532 0.2506863 1 0 1
-0.1959412 -0.2192955 0.2594809 1 0 1
-0.1924248 -0.2165346 0.256345 1 0 1
-0.189221 -0.2144141 0.2538996 1 0 1
-0.1871382 -0.2149043 0.2542575 1 0 1
-0.1899026 -0.2272104 0.2672873 1 0 1
-0.1553891 -0.2010369 0.237468 1 0 1
-0.1536152 -0.2020979 0.2384431 1 0 1
-0.150294 -0.198484 0.2344317 1 0 1
-0.1511186 -0.2075484 0.2439393 1 0 1
-0.1490853 -0.2079325 0.2441895 1 0 1
-0.1470504 -0.2083111 0.2444338 1 0 1
-0.1456268 -0.2106947 0.2468129 1 0 1
-0.1437775 -0.2117352 0.2477607 1 0 1
-0.1419189 -0.2127717 0.2487034 1 0 1
-0.1398584 -0.2131315 0.2489262 1 0 1
-0.1385516 -0.2161776 0.2520039 1 0 1
-0.1362876 -0.2158554 0.2515008 1 0 1
-0.1340299 -0.2155264 0.2509908 1 0 1
-0.1317784 -0.2151904 0.2504741 1 0 1
-0.12936 -0.2141722 0.2492339 1 0 1
-0.1266168 -0.2117937 0.2465522 1 0 1
-0.1245657 -0.2121116 0.2467315 1 0 1
-0.1223515 -0.2117467 0.2461871 1 0 1
-0.1198282 -0.2100193 0.2442 1 0 1
-0.1177888 -0.2103182 0.2443603 1 0 1
-0.1158982 -0.2112906 0.2452334 1 0 1
-0.1134141 -0.2095405 0.2432252 1 0 1
-0.1113789 -0.2098218 0.2433674 1 0 1
-0.1092043 -0.209417 0.2427841 1 0 1
-0.1071708 -0.2096867 0.2429142 1 0 1
-0.1052668 -0.2106326 0.2437584 1 0 1
-0.103607 -0.2129382 0.2460375 1 0 1
-0.1016775 -0.213876 0.2468713 1 0 1
-0.09973917 -0.2148091 0.2476996 1 0 1
-0.09779206 -0.2157377 0.2485223 1 0 1
-0.09594716 -0.2173456 0.2500604 1 0 1
-0.09376459 -0.2168963 0.2494299 1 0 1
-0.09189836 -0.2184952 0.2509569 1 0 1
-0.08991639 -0.2194048 0.2517572 1 0 1
-0.08783049 -0.2196239 0.2518301 1 0 1
-0.08574385 -0.2198374 0.251897 1 0 1
-0.08383131 -0.2214182 0.2534015 1 0 1
-0.08165185 -0.2209343 0.2527347 1 0 1
-0.07932037 -0.2190694 0.2506175 1 0 1
-0.07731438 -0.2199471 0.2513824 1 0 1
-0.07515652 -0.219444 0.250697 1 0 1
-0.07293814 -0.2182462 0.2492834 1 0 1
-0.07086259 -0.2184187 0.249308 1 0 1
-0.06902623 -0.2213413 0.2522161 1 0 1
-0.2106589 -0.2120143 0.2499153 1 0 1
-0.2082807 -0.2119141 0.2496407 1 0 1
-0.2059076 -0.2118063 0.2493584 1 0 1
-0.202325 -0.2090861 0.2462866 1 0 1
-0.2005769 -0.2102636 0.2473788 1 0 1
-0.1982268 -0.2101313 0.2470726 1 0 1
-0.1952972 -0.2086833 0.2453637 1 0 1
-0.1920995 -0.2065691 0.2429461 1 0 1
-0.1900688 -0.2070657 0.2433134 1 0 1
-0.187474 -0.2062432 0.2422753 1 0 1
-0.1848921 -0.2054115 0.2412285 1 0 1
-0.1820499 -0.2039121 0.2394723 1 0 1
-0.1819244 -0.2089972 0.2447229 1 0 1
-0.1793514 -0.2081455 0.2436558 1 0 1
-0.1765295 -0.2066235 0.2418774 1 0 1
-0.1755358 -0.2097258 0.245014 1 0 1
-0.1737464 -0.2108403 0.2460372 1 0 1
-0.1694419 -0.205313 0.2400086 1 0 1
-0.1674248 -0.205747 0.2403112 1 0 1
-0.1637054 -0.2015175 0.2356671 1 0 1
-0.1617114 -0.2019349 0.2359541 1 0 1
-0.1566572 -0.1936756 0.2270453 1 0 1
-0.1563293 -0.1987467 0.2322659 1 0 1
-0.1545804 -0.1998119 0.2332404 1 0 1
-0.1528223 -0.2008733 0.2342101 1 0 1
-0.1492955 -0.1965701 0.2295033 1 0 1
-0.1503579 -0.2063385 0.2396824 1 0 1
-0.1485523 -0.2073916 0.2406401 1 0 1
-0.1475708 -0.21113 0.2444344 1 0 1
-0.1453222 -0.2108321 0.2439623 1 0 1
-0.1438822 -0.213222 0.2463287 1 0 1
-0.1416304 -0.212913 0.2458448 1 0 1
-0.1399634 -0.2146222 0.2474904 1 0 1
-0.1379014 -0.2149771 0.2477067 1 0 1
-0.135838 -0.2153264 0.247917 1 0 1
-0.1335917 -0.2149932 0.2474081 1 0 1
-0.1311744 -0.2139754 0.2461787 1 0 1
-0.1287712 -0.2129496 0.2449421 1 0 1
-0.1258732 -0.2098791 0.2415549 1 0 1
-0.1236758 -0.209515 0.2410173 1 0 1
-0.1214848 -0.2091442 0.2404731 1 0 1
-0.1194583 -0.2094473 0.2406379 1 0 1
-0.1174307 -0.209745 0.2407968 1 0 1
-0.115552 -0.2107189 0.2416658 1 0 1
-0.1132255 -0.2096415 0.2403808 1 0 1
-0.1111981 -0.2099221 0.2405219 1 0 1
-0.1090312 -0.2095139 0.2399404 1 0 1
-0.1071402 -0.210467 0.2407865 1 0 1
-0.1052403 -0.2114156 0.2416274 1 0 1
-0.1034584 -0.2130446 0.2431803 1 0 1
-0.1016598 -0.21467 0.2447283 1 0 1
-0.09984466 -0.2162918 0.2462711 1 0 1
-0.09778279 -0.2165373 0.2463726 1 0 1
-0.0958311 -0.2174639 0.2471865 1 0 1
-0.09376348 -0.2176986 0.2472764 1 0 1
-0.09169503 -0.2179276 0.2473603 1 0 1
-0.08982446 -0.2195273 0.2488757 1 0 1
-0.08765103 -0.2190574 0.2482291 1 0 1
-0.08566778 -0.219959 0.2490143 1 0 1
-0.08376355 -0.221545 0.250513 1 0 1
-0.08150811 -0.2203681 0.249129 1 0 1
-0.07926767 -0.2191841 0.2477387 1 0 1
-0.07719401 -0.2193738 0.247781 1 0 1
-0.0751197 -0.2195579 0.2478173 1 0 1
-0.07284085 -0.217663 0.245689 1 0 1
-0.07077718 -0.2178348 0.2457132 1 0 1
-0.210449 -0.2128771 0.2477556 1 0 1
-0.2083858 -0.2134258 0.2481735 1 0 1
-0.2057051 -0.212663 0.247201 1 0 1
-0.2033407 -0.2125446 0.2469124 1 0 1
-0.2012816 -0.2130737 0.2473098 1 0 1
-0.1992201 -0.2135971 0.2477013 1 0 1
-0.1965712 -0.2128013 0.2466968 1 0 1
-0.1936464 -0.2113383 0.2449877 1 0 1
-0.1921669 -0.2131577 0.2467503 1 0 1
-0.1889829 -0.2110175 0.2443275 1 0 1
-0.1866592 -0.210846 0.2439864 1 0 1
-0.184341 -0.2106672 0.2436381 1 0 1
-0.1820281 -0.2104811 0.2432826 1 0 1
-0.1797209 -0.2102876 0.2429198 1 0 1
-0.1768947 -0.2087589 0.2411494 1 0 1
-0.1748646 -0.2092141 0.2414719 1 0 1
-0.1733415 -0.2109953 0.2431914 1 0 1
-0.171049 -0.2107746 0.2428012 1 0 1
-0.1685152 -0.2098794 0.2417015 1 0 1
-0.166481 -0.2103118 0.2419997 1 0 1
-0.164445 -0.2107386 0.2422922 1 0 1
-0.1614653 -0.2084808 0.2397618 1 0 1
-0.1594409 -0.2088935 0.2400402 1 0 1
-0.1567313 -0.2072866 0.238197 1 0 1
-0.1547149 -0.2076861 0.2384622 1 0 1
-0.1524766 -0.2074072 0.2380153 1 0 1
-0.1508931 -0.2091422 0.2396819 1 0 1
-0.1486553 -0.2088516 0.2392228 1 0 1
-0.1472578 -0.2112543 0.2415877 1 0 1
-0.1452215 -0.2116285 0.241825 1 0 1
-0.1431836 -0.2119972 0.2420565 1 0 1
-0.141144 -0.2123603 0.242282 1 0 1
-0.1396823 -0.2147515 0.2446299 1 0 1
-0.1378174 -0.2157841 0.2455547 1 0 1
-0.1353871 -0.2147749 0.2443437 1 0 1
-0.1333339 -0.2151172 0.2445464 1 0 1
-0.130924 -0.2140931 0.2433212 1 0 1
-0.1285283 -0.213061 0.2420887 1 0 1
-0.125807 -0.2106575 0.2394256 1 0 1
-0.1239453 -0.2116549 0.2403138 1 0 1
-0.1219124 -0.2119653 0.2404847 1 0 1
-0.1197201 -0.2115866 0.2399369 1 0 1
-0.1175343 -0.2112014 0.2393827 1 0 1
-0.1155055 -0.211494 0.2395353 1 0 1
-0.1131825 -0.2104108 0.2382549 1 0 1
-0.1110166 -0.2100057 0.2376816 1 0 1
-0.1088574 -0.2095941 0.2371018 1 0 1
-0.1069745 -0.2105493 0.2379443 1 0 1
-0.1052136 -0.2121873 0.2394961 1 0 1
-0.1034361 -0.2138219 0.241043 1 0 1
-0.1015188 -0.2147646 0.2418699 1 0 1
-0.0995928 -0.2157028 0.2426913 1 0 1
-0.09754273 -0.2159472 0.2427919 1 0 1
-0.0956031 -0.2168756 0.2436021 1 0 1
-0.09343987 -0.2164193 0.2429753 1 0 1
-0.0915942 -0.218028 0.24449 1 0 1
-0.08953281 -0.218251 0.2445673 1 0 1
-0.08747061 -0.2184683 0.2446387 1 0 1
-0.08540764 -0.2186801 0.2447042 1 0 1
-0.08343177 -0.2195784 0.24548 1 0 1
-0.08119563 -0.2183943 0.2441007 1 0 1
-0.0790545 -0.217896 0.2434317 1 0 1
-0.07699659 -0.2180845 0.2434734 1 0 1
-0.074866 -0.217574 0.2427923 1 0 1
-0.07267443 -0.2163633 0.2413885 1 0 1
-0.2105537 -0.2143821 0.2462833 1 0 1
-0.2084906 -0.2149317 0.2467004 1 0 1
-0.2058095 -0.2141641 0.2457325 1 0 1
-0.2034451 -0.2140438 0.2454458 1 0 1
-0.2010858 -0.2139159 0.2451517 1 0 1
-0.1990283 -0.214439 0.2455416 1 0 1
-0.196383 -0.2136375 0.244541 1 0 1
-0.1943282 -0.2141477 0.2449176 1 0 1
-0.1925565 -0.2153137 0.2459818 1 0 1
-0.1896495 -0.2138265 0.244264 1 0 1
-0.1870405 -0.2129915 0.2432313 1 0 1
-0.185266 -0.2141398 0.2442769 1 0 1
-0.1818618 -0.211294 0.2411401 1 0 1
-0.1798243 -0.2117636 0.2414756 1 0 1
-0.1772601 -0.210894 0.2404101 1 0 1
-0.1749677 -0.2106832 0.2400345 1 0 1
-0.1726809 -0.210465 0.2396518 1 0 1
-0.1711525 -0.2122477 0.2413598 1 0 1
-0.1688656 -0.2120177 0.2409647 1 0 1
-0.1673143 -0.2137935 0.2426638 1 0 1
-0.1657459 -0.2155669 0.2443592 1 0 1
-0.1627463 -0.2133026 0.2418417 1 0 1
-0.160471 -0.2130465 0.2414201 1 0 1
-0.1575177 -0.2107609 0.2388839 1 0 1
-0.1550416 -0.2098135 0.237744 1 0 1
-0.1523589 -0.2081819 0.2358926 1 0 1
-0.1505632 -0.2092458 0.2368486 1 0 1
-0.1485457 -0.2096287 0.2370952 1 0 1
-0.1473614 -0.2127174 0.2401559 1 0 1
-0.1453252 -0.2130921 0.2403927 1 0 1
-0.1430863 -0.2127821 0.2399177 1 0 1
-0.1412479 -0.213825 0.2408486 1 0 1
-0.139207 -0.2141832 0.2410677 1 0 1
-0.1371646 -0.2145359 0.2412809 1 0 1
-0.134564 -0.2128372 0.2393657 1 0 1
-0.1325302 -0.2131768 0.2395661 1 0 1
-0.1303173 -0.2128277 0.2390523 1 0 1
-0.1277628 -0.2111041 0.2371146 1 0 1
-0.1255704 -0.2107402 0.236587 1 0 1
-0.1235506 -0.2110547 0.2367621 1 0 1
-0.1215295 -0.2113637 0.2369314 1 0 1
-0.1191903 -0.2102948 0.2356751 1 0 1
-0.11702 -0.2099049 0.235122 1 0 1
-0.1148563 -0.2095083 0.2345624 1 0 1
-0.1128459 -0.2097931 0.2347073 1 0 1
-0.1108344 -0.2100724 0.2348464 1 0 1
-0.1089607 -0.2110354 0.2356911 1 0 1
-0.1070781 -0.2119938 0.2365306 1 0 1
-0.1051866 -0.2129479 0.2373646 1 0 1
-0.1032863 -0.2138973 0.2381933 1 0 1
-0.1012539 -0.2141513 0.2383044 1 0 1
-0.09910113 -0.2137083 0.2376972 1 0 1
-0.09718619 -0.2146427 0.2385091 1 0 1
-0.09526251 -0.2155725 0.2393155 1 0 1
-0.09322249 -0.2158048 0.2394034 1 0 1
-0.09128534 -0.2167249 0.2401985 1 0 1
-0.08943929 -0.2183339 0.2417015 1 0 1
-0.08728914 -0.2178567 0.2410588 1 0 1
-0.08514613 -0.2173731 0.24041 1 0 1
-0.08318625 -0.2182729 0.2411823 1 0 1
-0.0809655 -0.2170821 0.2398079 1 0 1
-0.07883996 -0.2165797 0.2391408 1 0 1
-0.07679788 -0.2167672 0.2391818 1 0 1
-0.07468283 -0.2162527 0.238503 1 0 1
-0.07243831 -0.2143386 0.23639 1 0 1
-0.2109734 -0.2165376 0.2454902 1 0 1
-0.208595 -0.2164315 0.2452213 1 0 1
-0.2062217 -0.2163178 0.2449448 1 0 1
-0.2035493 -0.2155369 0.2439732 1 0 1
-0.2011899 -0.2154071 0.2436811 1 0 1
-0.1988358 -0.2152697 0.2433814 1 0 1
-0.1964868 -0.2151248 0.2430743 1 0 1
-0.1944323 -0.2156356 0.2434502 1 0 1
-0.1923756 -0.2161409 0.24382 1 0 1
-0.1894718 -0.2146453 0.242109 1 0 1
-0.1865886 -0.2131386 0.2403879 1 0 1
-0.184274 -0.2129547 0.240043 1 0 1
-0.1811543 -0.2107602 0.23761 1 0 1
-0.1793948 -0.2118965 0.2386372 1 0 1
-0.176838 -0.2110203 0.2375753 1 0 1
-0.1745531 -0.2108057 0.2372005 1 0 1
-0.1722738 -0.2105837 0.2368186 1 0 1
-0.1702514 -0.2110267 0.2371263 1 0 1
-0.1679797 -0.2107913 0.2367309 1 0 1
-0.1664442 -0.21257 0.2384218 1 0 1
-0.1648915 -0.2143463 0.2401089 1 0 1
-0.1623783 -0.213419 0.2389971 1 0 1
-0.1605747 -0.2145114 0.2399753 1 0 1
-0.158077 -0.2135691 0.238849 1 0 1
-0.1553686 -0.2119406 0.2370145 1 0 1
-0.1526815 -0.2103021 0.2351712 1 0 1
-0.150449 -0.2100119 0.2347218 1 0 1
-0.1486483 -0.2110744 0.2356692 1 0 1
-0.1470471 -0.2128135 0.237314 1 0 1
-0.1454288 -0.21455 0.2389547 1 0 1
-0.1429887 -0.2135558 0.2377787 1 0 1
-0.1409571 -0.2139187 0.2380024 1 0 1
-0.1383436 -0.2122259 0.2361082 1 0 1
-0.136131 -0.2118917 0.2356144 1 0 1
-0.1337389 -0.210866 0.2344094 1 0 1
-0.1317246 -0.2112029 0.2346072 1 0 1
-0.1297089 -0.2115342 0.2347994 1 0 1
-0.1276919 -0.2118601 0.2349856 1 0 1
-0.1255033 -0.2114934 0.2344598 1 0 1
-0.1234874 -0.2118077 0.2346341 1 0 1
-0.1214703 -0.2121166 0.2348027 1 0 1
-0.1191348 -0.211042 0.233551 1 0 1
-0.117123 -0.2113387 0.2337073 1 0 1
-0.1149592 -0.2109399 0.2331501 1 0 1
-0.1132427 -0.2126066 0.2347108 1 0 1
-0.1112235 -0.2128874 0.2348499 1 0 1
-0.1093423 -0.2138546 0.235692 1 0 1
-0.107317 -0.214125 0.2358199 1 0 1
-0.1054219 -0.2150827 0.2366511 1 0 1
-0.1032632 -0.2146493 0.2360582 1 0 1
-0.1012348 -0.2149032 0.2361687 1 0 1
-0.09908593 -0.2144573 0.2355636 1 0 1
-0.09705952 -0.2146997 0.2356623 1 0 1
-0.09514398 -0.2156317 0.2364652 1 0 1
-0.0931119 -0.2158634 0.2365523 1 0 1
-0.09118289 -0.2167857 0.2373441 1 0 1
-0.08924519 -0.2177035 0.2381304 1 0 1
-0.08710675 -0.2172225 0.2374896 1 0 1
-0.08506751 -0.2174326 0.2375537 1 0 1
-0.08320402 -0.2190325 0.2390337 1 0 1
-0.0809026 -0.2171379 0.2369532 1 0 1
-0.0787848 -0.2166324 0.2362885 1 0 1
-0.0767507 -0.2168195 0.236329 1 0 1
-0.07457088 -0.2156027 0.2349412 1 0 1
-0.07240624 -0.214379 0.2335474 1 0 1
-0.07032142 -0.2138482 0.2328588 1 0 1
-0.2110776 -0.2180336 0.2440033 1 0 1
-0.208699 -0.2179254 0.2437362 1 0 1
-0.2063257 -0.2178098 0.2434617 1 0 1
-0.2039574 -0.2176864 0.2431796 1 0 1
-0.2012936 -0.2168925 0.2422046 1 0 1
-0.1989394 -0.2167531 0.2419069 1 0 1
-0.1962973 -0.2159411 0.2409149 1 0 1
-0.1942467 -0.2164517 0.2412893 1 0 1
-0.1919083 -0.2162899 0.2409695 1 0 1
-0.1892935 -0.2154527 0.2399534 1 0 1
-0.1866917 -0.2146064 0.2389288 1 0 1
-0.184377 -0.2144205 0.2385858 1 0 1
-0.181527 -0.2128862 0.236854 1 0 1
-0.1794975 -0.2133554 0.2371869 1 0 1
-0.1774659 -0.213819 0.2375139 1 0 1
-0.1749144 -0.2129307 0.2364497 1 0 1
-0.1728864 -0.2133816 0.2367638 1 0 1
-0.1703538 -0.2124772 0.2356842 1 0 1
-0.1678345 -0.2115641 0.2345964 1 0 1
-0.1665471 -0.2140245 0.2369757 1 0 1
-0.1649949 -0.2158069 0.2386567 1 0 1
-0.1627175 -0.2155529 0.2382459 1 0 1
-0.1606781 -0.2159705 0.2385246 1 0 1
-0.1584086 -0.215703 0.2381004 1 0 1
-0.1556959 -0.2140676 0.2362739 1 0 1
-0.1532252 -0.2131032 0.2351368 1 0 1
-0.150985 -0.2128123 0.2346905 1 0 1
-0.1491768 -0.2138797 0.2356356 1 0 1
-0.1473593 -0.214943 0.2365757 1 0 1
-0.1455324 -0.2160021 0.2375108 1 0 1
-0.143092 -0.215003 0.2363399 1 0 1
-0.1412581 -0.2160518 0.2372637 1 0 1
-0.1386402 -0.214352 0.2353776 1 0 1
-0.1364237 -0.2140162 0.2348866 1 0 1
-0.1340275 -0.2129861 0.2336868 1 0 1
-0.1318274 -0.2126361 0.2331822 1 0 1
-0.1296336 -0.2122792 0.232671 1 0 1
-0.1276206 -0.212605 0.2328563 1 0 1
-0.1256062 -0.2129253 0.2330361 1 0 1
-0.1235905 -0.2132402 0.2332099 1 0 1
-0.1215735 -0.2135495 0.2333779 1 0 1
-0.1193965 -0.2131616 0.2328358 1 0 1
-0.117226 -0.212767 0.2322872 1 0 1
-0.1152131 -0.2130588 0.2324372 1 0 1
-0.1133462 -0.2140385 0.2332869 1 0 1
-0.1113271 -0.2143198 0.2334257 1 0 1
-0.1094462 -0.2152901 0.2342645 1 0 1
-0.1075564 -0.216256 0.2350981 1 0 1
-0.1055262 -0.2165218 0.23522 1 0 1
-0.1033675 -0.2160861 0.2346296 1 0 1
-0.1012155 -0.2156438 0.2340329 1 0 1
-0.09919024 -0.2158921 0.2341369 1 0 1
-0.09727979 -0.2168324 0.2349423 1 0 1
-0.09524873 -0.21707 0.2350349 1 0 1
-0.09343285 -0.218699 0.2365368 1 0 1
-0.09149629 -0.2196253 0.2373257 1 0 1
-0.08945092 -0.2198477 0.2374013 1 0 1
-0.08721214 -0.2186651 0.2360552 1 0 1
-0.08517305 -0.2188755 0.2361189 1 0 1
-0.08304475 -0.2183798 0.2354686 1 0 1
-0.08083913 -0.2171769 0.2341039 1 0 1
-0.0787291 -0.2166682 0.2334415 1 0 1
-0.07662629 -0.2161533 0.2327731 1 0 1
-0.07453073 -0.2156322 0.2320988 1 0 1
-0.07230484 -0.2137002 0.2300015 1 0 1
-0.07023171 -0.213166 0.2293153 1 0 1
-0.2102338 -0.2175379 0.240471 1 0 1
-0.2084907 -0.2187506 0.2415648 1 0 1
-0.206121 -0.2186319 0.2412914 1 0 1
-0.2037565 -0.2185057 0.2410105 1 0 1
-0.201397 -0.2183719 0.2407222 1 0 1
-0.1993399 -0.2188973 0.24111 1 0 1
-0.1969871 -0.2187493 0.2408075 1 0 1
-0.1946396 -0.2185938 0.2404977 1 0 1
-0.1928688 -0.2197701 0.2415517 1 0 1
-0.1896785 -0.21759 0.2391699 1 0 1
-0.1873508 -0.2174112 0.2388376 1 0 1
-0.1850284 -0.2172251 0.2384979 1 0 1
-0.1818999 -0.215012 0.2360867 1 0 1
-0.1798668 -0.2154825 0.2364195 1 0 1
-0.1778315 -0.2159477 0.2367465 1 0 1
-0.1752758 -0.2150556 0.2356877 1 0 1
-0.1727336 -0.2141545 0.2346205 1 0 1
-0.1707076 -0.2145996 0.2349275 1 0 1
-0.1681842 -0.2136824 0.2338452 1 0 1
-0.1664059 -0.214794 0.2348316 1 0 1
-0.164618 -0.2159018 0.2358133 1 0 1
-0.1628207 -0.2170055 0.23679 1 0 1
-0.1607814 -0.2174237 0.2370682 1 0 1
-0.1585119 -0.2171541 0.2366461 1 0 1
-0.1557987 -0.2155111 0.2348273 1 0 1
-0.1535486 -0.2152258 0.2343905 1 0 1
-0.1510875 -0.2142488 0.2332509 1 0 1
-0.1492796 -0.2153194 0.2341927 1 0 1
-0.1468344 -0.2143278 0.2330391 1 0 1
-0.1450195 -0.2153881 0.2339697 1 0 1
-0.1423889 -0.2136945 0.2321047 1 0 1
-0.1407685 -0.215432 0.2337216 1 0 1
-0.1381617 -0.2137224 0.231842 1 0 1
-0.1361468 -0.214072 0.2320509 1 0 1
-0.1339441 -0.2137257 0.2315546 1 0 1
-0.1317479 -0.2133728 0.2310518 1 0 1
-0.1295579 -0.2130131 0.2305425 1 0 1
-0.1277234 -0.2140308 0.2314275 1 0 1
-0.1255385 -0.2136589 0.2309059 1 0 1
-0.1235268 -0.2139735 0.2310789 1 0 1
-0.1216767 -0.2149767 0.2319476 1 0 1
-0.1194996 -0.2145865 0.2314077 1 0 1
-0.1173291 -0.2141896 0.2308615 1 0 1
-0.1153163 -0.2144818 0.2310111 1 0 1
-0.1133024 -0.2147685 0.2311549 1 0 1
-0.1114308 -0.2157465 0.2319958 1 0 1
-0.1095502 -0.21672 0.2328315 1 0 1
-0.1075252 -0.2169912 0.2329585 1 0 1
-0.105499 -0.2172569 0.2330797 1 0 1
-0.1032163 -0.2161196 0.2317877 1 0 1
-0.1010721 -0.2156739 0.2311929 1 0 1
-0.09905472 -0.2159216 0.2312961 1 0 1
-0.09703638 -0.2161638 0.2313936 1 0 1
-0.09512933 -0.2171013 0.2321899 1 0 1
-0.09321357 -0.218034 0.2329808 1 0 1
-0.09128912 -0.2189621 0.2337661 1 0 1
-0.08915521 -0.2184816 0.233136 1 0 1
-0.08712481 -0.218697 0.2332048 1 0 1
-0.08509369 -0.218907 0.2332679 1 0 1
-0.08297316 -0.2184081 0.2326198 1 0 1
-0.08085981 -0.2179028 0.2319656 1 0 1
-0.07875362 -0.2173913 0.2313056 1 0 1
-0.0765778 -0.2161693 0.2299339 1 0 1
-0.07448998 -0.2156449 0.229262 1 0 1
-0.07240951 -0.2151143 0.2285841 1 0 1
-0.207657 -0.2182332 0.238037 1 0 1
-0.2065327 -0.2207759 0.2404778 1 0 1
-0.2035548 -0.2193135 0.238841 1 0 1
-0.2015002 -0.2198453 0.2392339 1 0 1
-0.1991459 -0.2197019 0.2389402 1 0 1
-0.1967968 -0.2195511 0.2386391 1 0 1
-0.194453 -0.2193927 0.2383306 1 0 1
-0.1921145 -0.2192268 0.2380148 1 0 1
-0.188935 -0.2170338 0.2356412 1 0 1
-0.1863403 -0.2161762 0.2346249 1 0 1
-0.1845822 -0.2173345 0.2356542 1 0 1
-0.1814606 -0.2151093 0.233252 1 0 1
-0.1799691 -0.2169326 0.234955 1 0 1
-0.1781972 -0.218076 0.2359679 1 0 1
-0.1756375 -0.2171799 0.2349144 1 0 1
-0.1728356 -0.2155955 0.233165 1 0 1
-0.1705581 -0.215361 0.2327828 1 0 1
-0.1680383 -0.2144383 0.2317048 1 0 1
-0.1662641 -0.2155523 0.2326872 1 0 1
-0.1644805 -0.2166626 0.233665 1 0 1
-0.1629237 -0.2184524 0.2353286 1 0 1
-0.160652 -0.2181869 0.234915 1 0 1
-0.1588437 -0.2192844 0.2358777 1 0 1
-0.1559014 -0.2169488 0.233375 1 0 1
-0.1536513 -0.2166614 0.2329403 1 0 1
-0.1509727 -0.2149922 0.2311126 1 0 1
-0.1493824 -0.2167535 0.2327441 1 0 1
-0.1465179 -0.2143793 0.2302075 1 0 1
-0.1449167 -0.216131 0.2318283 1 0 1
-0.142693 -0.2158094 0.2313604 1 0 1
-0.1406735 -0.2161718 0.2315811 1 0 1
-0.1380701 -0.2144538 0.2297088 1 0 1
-0.1360592 -0.2148032 0.2299167 1 0 1
-0.1338604 -0.2144541 0.2294223 1 0 1
-0.1318504 -0.2147918 0.2296183 1 0 1
-0.129839 -0.2151241 0.2298085 1 0 1
-0.1278262 -0.2154509 0.2299929 1 0 1
-0.1258122 -0.2157722 0.2301716 1 0 1
-0.1236297 -0.2153918 0.2296462 1 0 1
-0.1214539 -0.2150048 0.2291143 1 0 1
-0.1194437 -0.2153084 0.2292751 1 0 1
-0.1172769 -0.2149087 0.2287308 1 0 1
-0.1154196 -0.2158992 0.2295792 1 0 1
-0.1134059 -0.2161863 0.2297226 1 0 1
-0.1115345 -0.2171674 0.2305604 1 0 1
-0.1095146 -0.217444 0.2306925 1 0 1
-0.1073578 -0.2170147 0.2301184 1 0 1
-0.1053396 -0.2172798 0.2302388 1 0 1
-0.1033204 -0.2175394 0.2303533 1 0 1
-0.1011761 -0.2170914 0.2297609 1 0 1
-0.0992791 -0.218042 0.2305652 1 0 1
-0.09725703 -0.2182851 0.2306625 1 0 1
-0.09523401 -0.2185226 0.2307541 1 0 1
-0.09331858 -0.2194585 0.2315416 1 0 1
-0.09128994 -0.2196855 0.2316218 1 0 1
-0.08926049 -0.2199068 0.2316961 1 0 1
-0.08723024 -0.2201226 0.2317647 1 0 1
-0.0851065 -0.2196273 0.231125 1 0 1
-0.08307869 -0.2198315 0.2311817 1 0 1
-0.08105016 -0.2200303 0.2312328 1 0 1
-0.078859 -0.21881 0.2298724 1 0 1
-0.07675993 -0.2182898 0.2292089 1 0 1
-0.07466815 -0.2177633 0.2285395 1 0 1
-0.07251444 -0.2165229 0.2271612 1 0 1
-0.06998418 -0.2110267 0.2215588 1 0 1
-0.2066443 -0.2124765 0.2293915 1 0 1
-0.2074468 -0.2190302 0.2358702 1 0 1
-0.2084881 -0.2262655 0.2430321 1 0 1
-0.2039624 -0.2214506 0.2380242 1 0 1
-0.2025065 -0.2233265 0.2397718 1 0 1
-0.2007358 -0.2245284 0.2408382 1 0 1
-0.1974869 -0.2223609 0.2385064 1 0 1
-0.1942659 -0.2201802 0.2361631 1 0 1
-0.1916451 -0.2193364 0.2351686 1 0 1
-0.1881902 -0.2164555 0.2321233 1 0 1
-0.185328 -0.2149135 0.2304283 1 0 1
-0.1835855 -0.2160716 0.2314517 1 0 1
-0.1812913 -0.2158687 0.2311051 1 0 1
-0.1798042 -0.2176971 0.2328013 1 0 1
-0.177773 -0.2181626 0.2331264 1 0 1
-0.1754803 -0.2179414 0.2327611 1 0 1
-0.1729375 -0.2170308 0.2317037 1 0 1
-0.1701561 -0.2154283 0.2299523 1 0 1
-0.1676438 -0.214499 0.2288781 1 0 1
-0.1661218 -0.2162994 0.2305428 1 0 1
-0.164102 -0.2167267 0.2308293 1 0 1
-0.16279 -0.2192072 0.2331735 1 0 1
-0.1605222 -0.2189388 0.2327615 1 0 1
-0.158718 -0.2200389 0.2337205 1 0 1
-0.156004 -0.2183808 0.231917 1 0 1
-0.1537539 -0.2180911 0.2314845 1 0 1
-0.1510748 -0.2164144 0.2296645 1 0 1
-0.1492715 -0.2174909 0.2305991 1 0 1
-0.1464103 -0.2151057 0.2280726 1 0 1
-0.1444017 -0.2154782 0.2283034 1 0 1
-0.1421896 -0.2151522 0.2278364 1 0 1
-0.1401818 -0.2155131 0.2280553 1 0 1
-0.1377839 -0.2144798 0.2268826 1 0 1
-0.1359712 -0.2155233 0.2277825 1 0 1
-0.1339628 -0.215867 0.2279837 1 0 1
-0.1321356 -0.2169015 0.2288733 1 0 1
-0.1301205 -0.2172349 0.2290633 1 0 1
-0.128104 -0.2175628 0.2292476 1 0 1
-0.1257441 -0.2164888 0.2280358 1 0 1
-0.1237327 -0.2168044 0.2282079 1 0 1
-0.1215568 -0.2164151 0.2276784 1 0 1
-0.1197061 -0.2174192 0.2285348 1 0 1
-0.1175355 -0.2170178 0.2279931 1 0 1
-0.1158262 -0.218713 0.2295353 1 0 1
-0.1138048 -0.2190017 0.2296788 1 0 1
-0.111926 -0.2199871 0.2305139 1 0 1
-0.1096186 -0.2188597 0.229251 1 0 1
-0.1075978 -0.2191313 0.229377 1 0 1
-0.1054438 -0.2186935 0.2287992 1 0 1
-0.1034247 -0.2189534 0.2289134 1 0 1
-0.1014047 -0.219208 0.2290219 1 0 1
-0.09950404 -0.2201622 0.2298231 1 0 1
-0.09747819 -0.2204061 0.2299202 1 0 1
-0.09556401 -0.2213507 0.2307105 1 0 1
-0.09353244 -0.2215839 0.2307962 1 0 1
-0.09129059 -0.2203975 0.2294775 1 0 1
-0.0892652 -0.2206187 0.2295513 1 0 1
-0.08733591 -0.2215424 0.230319 1 0 1
-0.08521208 -0.2210447 0.2296817 1 0 1
-0.08327346 -0.2219581 0.2304379 1 0 1
-0.08132633 -0.2228666 0.2311886 1 0 1
-0.07904578 -0.2209324 0.2291338 1 0 1
-0.07694276 -0.2204101 0.2284728 1 0 1
-0.07484696 -0.2198816 0.227806 1 0 1
-0.07268906 -0.2186362 0.226433 1 0 1
-0.1836867 -0.2175031 0.2299825 1 0 1
-0.1781385 -0.2202819 0.2323336 1 0 1
-0.1755822 -0.2193756 0.2312892 1 0 1
-0.1725274 -0.2170905 0.228872 1 0 1
-0.1702574 -0.2168502 0.2284931 1 0 1
-0.1677449 -0.2159162 0.2274237 1 0 1
-0.1664679 -0.2184099 0.2297662 1 0 1
-0.1644444 -0.2188386 0.2300526 1 0 1
-0.1628926 -0.2206397 0.2317034 1 0 1
-0.1606246 -0.2203691 0.2312935 1 0 1
-0.1585917 -0.2207821 0.231563 1 0 1
-0.1558812 -0.2191156 0.2297668 1 0 1
-0.1540778 -0.2202072 0.2307101 1 0 1
-0.1516121 -0.2192164 0.229586 1 0 1
-0.1495877 -0.2196041 0.2298301 1 0 1
-0.1469319 -0.2179035 0.228003 1 0 1
-0.1447097 -0.2175831 0.2275453 1 0 1
-0.1422915 -0.21656 0.2263916 1 0 1
-0.1400855 -0.216225 0.2259202 1 0 1
-0.1380802 -0.2165802 0.2261324 1 0 1
-0.1364546 -0.2183253 0.2277201 1 0 1
-0.1344386 -0.2186709 0.2279215 1 0 1
-0.1324212 -0.2190108 0.2281171 1 0 1
-0.1304024 -0.2193454 0.2283071 1 0 1
-0.128032 -0.2182738 0.2271071 1 0 1
-0.1256757 -0.2171942 0.2259001 1 0 1
-0.1236683 -0.2175096 0.2260713 1 0 1
-0.1214962 -0.2171175 0.2255438 1 0 1
-0.1194903 -0.2174214 0.2257032 1 0 1
-0.117483 -0.2177199 0.225857 1 0 1
-0.1157782 -0.2194205 0.2273929 1 0 1
-0.113613 -0.2190047 0.2268415 1 0 1
-0.1115984 -0.2192872 0.2269783 1 0 1
-0.1094425 -0.2188586 0.2264146 1 0 1
-0.1075658 -0.2198356 0.2272346 1 0 1
-0.1054156 -0.2193949 0.2266589 1 0 1
-0.1034007 -0.2196549 0.2267725 1 0 1
-0.1013847 -0.2199092 0.2268803 1 0 1
-0.09960894 -0.2215741 0.2283741 1 0 1
-0.09769993 -0.2225268 0.2291667 1 0 1
-0.09578215 -0.2234749 0.2299541 1 0 1
-0.09363805 -0.2229997 0.2293432 1 0 1
-0.09150086 -0.2225179 0.2287263 1 0 1
-0.08937069 -0.2220297 0.2281032 1 0 1
-0.08734467 -0.2222458 0.2281708 1 0 1
-0.08513156 -0.2210342 0.226839 1 0 1
-0.08302264 -0.2205268 0.2261979 1 0 1
-0.08126213 -0.2228607 0.2283394 1 0 1
-0.07898905 -0.2209178 0.2262924 1 0 1
-0.07689385 -0.2203924 0.2256338 1 0 1
-0.07495295 -0.2212866 0.226364 1 0 1
-0.176262 -0.2109737 0.2203606 1 0 1
-0.1763943 -0.2169145 0.2261027 1 0 1
-0.1743843 -0.2173706 0.226417 1 0 1
-0.1696016 -0.2162013 0.2249878 1 0 1
-0.1675973 -0.2166384 0.225283 1 0 1
-0.166325 -0.2191399 0.227616 1 0 1
-0.1643054 -0.2195684 0.2279013 1 0 1
-0.162995 -0.2220663 0.2302276 1 0 1
-0.160727 -0.2217937 0.22982 1 0 1
-0.158465 -0.221514 0.2294054 1 0 1
-0.1555323 -0.2191453 0.2269327 1 0 1
-0.153737 -0.2202386 0.2278717 1 0 1
-0.1514966 -0.2199369 0.2274363 1 0 1
-0.1492623 -0.2196282 0.2269942 1 0 1
-0.1466138 -0.2179188 0.2251741 1 0 1
-0.144193 -0.216897 0.2240315 1 0 1
-0.1419885 -0.2165653 0.2235681 1 0 1
-0.1395917 -0.2155278 0.2224112 1 0 1
-0.1377929 -0.2165811 0.223309 1 0 1
-0.1359848 -0.2176304 0.2242019 1 0 1
-0.1341675 -0.2186755 0.2250899 1 0 1
-0.132158 -0.2190147 0.2252843 1 0 1
-0.1303263 -0.2200507 0.2261619 1 0 1
-0.1279595 -0.2189736 0.2249667 1 0 1
-0.1256069 -0.2178884 0.2237643 1 0 1
-0.1236036 -0.2182038 0.2239348 1 0 1
-0.1214354 -0.2178088 0.2234093 1 0 1
-0.1194334 -0.2181126 0.223568 1 0 1
-0.1175862 -0.2191168 0.2244118 1 0 1
-0.115578 -0.2194102 0.2245594 1 0 1
-0.1135685 -0.2196981 0.2247012 1 0 1
-0.1114138 -0.2192728 0.2241456 1 0 1
-0.1091254 -0.2181327 0.2228919 1 0 1
-0.106988 -0.2176937 0.2223236 1 0 1
-0.1049898 -0.2179575 0.2224416 1 0 1
-0.1029906 -0.2182158 0.2225539 1 0 1
-0.1009904 -0.2184686 0.2226604 1 0 1
-0.09935166 -0.220848 0.2248404 1 0 1
-0.09733789 -0.2210913 0.2249362 1 0 1
-0.09509724 -0.2199057 0.2236394 1 0 1
-0.09298044 -0.2194249 0.2230299 1 0 1
-0.09055526 -0.2168 0.2203331 1 0 1
-0.08876785 -0.218444 0.2217926 1 0 1
-0.08686671 -0.219371 0.222553 1 0 1
-0.08514376 -0.2217208 0.2246962 1 0 1
-0.0829493 -0.2204965 0.2233633 1 0 1
-0.08128297 -0.2235526 0.2261901 1 0 1
-0.07917657 -0.2230315 0.2255399 1 0 1
-0.076922 -0.2210734 0.223495 1 0 1
-0.0748379 -0.2205389 0.2228328 1 0 1
-0.1664544 -0.214582 0.2204308 1 0 1
-0.1693645 -0.2288633 0.2342855 1 0 1
-0.1665761 -0.2272217 0.2325397 1 0 1
-0.1622294 -0.2273827 0.2324208 1 0 1
-0.1587967 -0.2236263 0.2286089 1 0 1
-0.1538391 -0.2216482 0.2264018 1 0 1
-0.1515986 -0.2213444 0.2259687 1 0 1
-0.1493643 -0.2210336 0.2255288 1 0 1
-0.1467154 -0.2193166 0.2237164 1 0 1
-0.1438816 -0.2168894 0.2212123 1 0 1
-0.1420899 -0.2179562 0.2221178 1 0 1
-0.1396929 -0.2169137 0.2209659 1 0 1
-0.1376995 -0.2172679 0.2211758 1 0 1
-0.1360868 -0.2190227 0.22275 1 0 1
-0.1340827 -0.2193673 0.2229494 1 0 1
-0.1324438 -0.2211151 0.2245144 1 0 1
-0.1306086 -0.222155 0.2253891 1 0 1
-0.1284132 -0.2217792 0.2248857 1 0 1
-0.125881 -0.2199842 0.2230024 1 0 1
-0.123874 -0.2203006 0.2231727 1 0 1
-0.121538 -0.2191964 0.2219624 1 0 1
-0.1195363 -0.2195006 0.2221206 1 0 1
-0.1176894 -0.220508 0.2229612 1 0 1
-0.1158335 -0.2215111 0.2237966 1 0 1
-0.1138204 -0.2218 0.2239383 1 0 1
-0.1115173 -0.2206625 0.2226964 1 0 1
-0.1090882 -0.2188066 0.2207588 1 0 1
-0.1069547 -0.2183648 0.2201926 1 0 1
-0.1048278 -0.2179165 0.2196204 1 0 1
-0.1028366 -0.2181742 0.2197319 1 0 1
-0.1009693 -0.2191393 0.2205276 1 0 1
-0.09945623 -0.2222402 0.2233887 1 0 1
-0.09826216 -0.2274811 0.2283169 1 0 1
-0.09689929 -0.2320086 0.2325512 1 0 1
-0.09483301 -0.232247 0.2326372 1 0 1
-0.09276589 -0.2324797 0.2327174 1 0 1
-0.08726405 -0.2229027 0.2231839 1 0 1
-0.08590448 -0.2281283 0.2280837 1 0 1
-0.08269601 -0.2190157 0.2191517 1 0 1
-0.08181805 -0.2285371 0.2281898 1 0 1
-0.0792011 -0.2237094 0.2233932 1 0 1
-0.1494662 -0.2224331 0.2240579 1 0 1
-0.1470274 -0.2214109 0.2229334 1 0 1
-0.1435692 -0.2168653 0.2183989 1 0 1
-0.1411774 -0.2158228 0.2172574 1 0 1
-0.1391973 -0.2161808 0.2174712 1 0 1
-0.1370206 -0.2158283 0.2169976 1 0 1
-0.1358063 -0.2189977 0.2199283 1 0 1
-0.1341848 -0.2207543 0.2214915 1 0 1
-0.132363 -0.2218009 0.2223675 1 0 1
-0.1303525 -0.2221356 0.2225551 1 0 1
-0.1281649 -0.2217564 0.2220534 1 0 1
-0.1254682 -0.2192435 0.2194934 1 0 1
-0.123641 -0.2202681 0.2203466 1 0 1
-0.1214766 -0.2198681 0.2198254 1 0 1
-0.1194789 -0.2201722 0.2199829 1 0 1
-0.11748 -0.2204708 0.2201346 1 0 1
-0.1156323 -0.2214758 0.2209662 1 0 1
-0.1137757 -0.2224764 0.2217927 1 0 1
-0.1116209 -0.2220466 0.2212418 1 0 1
-0.1090507 -0.2194694 0.2186259 1 0 1
-0.106921 -0.2190248 0.218062 1 0 1
-0.104931 -0.2192883 0.2181787 1 0 1
-0.10294 -0.2195463 0.2182897 1 0 1
-0.1008229 -0.2190833 0.2177079 1 0 1
-0.09919739 -0.2214782 0.2198696 1 0 1
-0.1411876 -0.2097683 0.2088143 1 0 1
-0.1402627 -0.2136569 0.2124196 1 0 1
-0.1400943 -0.2203754 0.2187378 1 0 1
-0.1377069 -0.2193158 0.2175891 1 0 1
-0.1362906 -0.2217901 0.2198299 1 0 1
-0.1339118 -0.2207174 0.2186687 1 0 1
-0.1326492 -0.2238951 0.2215809 1 0 1
-0.1304552 -0.2235205 0.221088 1 0 1
-0.1275639 -0.220295 0.2178655 1 0 1
-0.1252262 -0.2191926 0.2166772 1 0 1
-0.1234072 -0.2202192 0.2175263 1 0 1
-0.120922 -0.21839 0.2156433 1 0 1
-0.1189401 -0.2186921 0.2157991 1 0 1
-0.1172699 -0.2204169 0.217314 1 0 1
-0.1149726 -0.2192801 0.2160937 1 0 1
-0.1132846 -0.2209962 0.2175985 1 0 1
-0.1110006 -0.2198461 0.2163658 1 0 1
-0.1085901 -0.2179723 0.214443 1 0 1
-0.106476 -0.2175232 0.2138804 1 0 1
-0.1045018 -0.2177851 0.2139958 1 0 1
-0.1025266 -0.2180415 0.2141056 1 0 1
-0.1000492 -0.2154192 0.2114724 1 0 1
-0.09820911 -0.2163816 0.2122547 1 0 1
-0.09718267 -0.2223744 0.2178249 1 0 1
-0.2145369 -0.2366904 0.2356188 1 0 1
-0.2093064 -0.2304161 0.2294489 1 0 1
-0.2066268 -0.2295971 0.2285321 1 0 1
-0.2051843 -0.2315128 0.2302464 1 0 1
-0.2058406 -0.2382367 0.2365822 1 0 1
-0.204934 -0.2415318 0.2396178 1 0 1
-0.1342227 -0.2309755 0.2255241 1 0 1
-0.1213527 -0.221178 0.2155523 1 0 1
-0.1193632 -0.2214818 0.2157082 1 0 1
-0.1146166 -0.2184865 0.2126039 1 0 1
-0.1129408 -0.2202067 0.2141017 1 0 1
-0.1109583 -0.2204869 0.2142342 1 0 1
-0.1079869 -0.2157291 0.2095969 1 0 1
-0.1057551 -0.2145557 0.2083547 1 0 1
-0.1039378 -0.2155348 0.2091494 1 0 1
-0.1013353 -0.2121866 0.2058512 1 0 1
-0.09826875 -0.2059442 0.1998195 1 0 1
-0.0960013 -0.2040165 0.1978689 1 0 1
-0.2136863 -0.2360894 0.2320863 1 0 1
-0.2122306 -0.2380276 0.2338097 1 0 1
-0.2107573 -0.239964 0.2355301 1 0 1
-0.2077353 -0.238455 0.2339616 1 0 1
-0.2074559 -0.2431418 0.2383035 1 0 1
-0.2080251 -0.2499065 0.2446234 1 0 1
-0.2049844 -0.2483827 0.2430385 1 0 1
-0.2025464 -0.2482326 0.2427633 1 0 1
-0.1992514 -0.245994 0.2404988 1 0 1
-0.1931478 -0.236797 0.2316106 1 0 1
-0.1893868 -0.2331317 0.2279932 1 0 1
-0.185117 -0.2280571 0.2230372 1 0 1
-0.183356 -0.2292373 0.2240335 1 0 1
-0.1799747 -0.2262251 0.2210427 1 0 1
-0.1782172 -0.2273924 0.2220262 1 0 1
-0.1748849 -0.2243566 0.2190155 1 0 1
-0.172874 -0.2248103 0.2193207 1 0 1
-0.1688352 -0.2196459 0.2142915 1 0 1
-0.1688464 -0.2257011 0.2199138 1 0 1
-0.1124468 -0.2186749 0.2099395 1 0 1
-0.1116418 -0.2247216 0.2154905 1 0 1
-0.1089362 -0.221391 0.2122292 1 0 1
-0.1072305 -0.2231043 0.2137059 1 0 1
-0.1049741 -0.2219238 0.2124649 1 0 1
-0.1011769 -0.212058 0.2030762 1 0 1
-0.09723666 -0.2007256 0.1923189 1 0 1
-0.2156935 -0.2416613 0.2344341 1 0 1
-0.2132741 -0.2415436 0.234197 1 0 1
-0.2117901 -0.243489 0.2359132 1 0 1
-0.2093694 -0.2433585 0.2356631 1 0 1
-0.2093752 -0.2487588 0.2406458 1 0 1
-0.209027 -0.2534737 0.2449765 1 0 1
-0.2062699 -0.2526401 0.2440579 1 0 1
-0.2038169 -0.2524919 0.2437874 1 0 1
-0.2007938 -0.2509435 0.2421939 1 0 1
