ply
format ascii 1.0
Comment Generated by Floating Hands
element vertex 1260
property double x
property double y
property double z
property uchar red
property uchar green
property uchar blue
end_header
-0.07138892 -0.2177615 0.3058276 1 0 1
-0.06919523 -0.2179351 0.3058548 1 0 1
-0.06694625 -0.2174542 0.3051163 1 0 1
-0.06470464 -0.2169669 0.3043714 1 0 1
-0.06247042 -0.2164732 0.3036202 1 0 1
-0.06015769 -0.2146744 0.301344 1 0 1
-0.1341237 -0.2179232 0.3078143 1 0 1
-0.1307443 -0.213796 0.302766 1 0 1
-0.1288984 -0.2154065 0.3044681 1 0 1
-0.1270355 -0.2170135 0.3061651 1 0 1
-0.1248423 -0.2173365 0.3063531 1 0 1
-0.1226477 -0.2176536 0.3065347 1 0 1
-0.1204518 -0.2179649 0.3067099 1 0 1
-0.1178194 -0.2163446 0.3046199 1 0 1
-0.1156326 -0.2166425 0.3047813 1 0 1
-0.1133073 -0.2162917 0.304183 1 0 1
-0.1109888 -0.215934 0.3035777 1 0 1
-0.1089357 -0.2168574 0.3044735 1 0 1
-0.1067482 -0.2171315 0.3046091 1 0 1
-0.1041947 -0.2154649 0.302475 1 0 1
-0.1021345 -0.2163715 0.303352 1 0 1
-0.1001793 -0.2179189 0.3049779 1 0 1
-0.09809748 -0.218816 0.3058431 1 0 1
-0.09579496 -0.2184145 0.3051918 1 0 1
-0.09370346 -0.2193008 0.3060446 1 0 1
-0.09150511 -0.2195344 0.3061357 1 0 1
-0.08930583 -0.2197621 0.3062204 1 0 1
-0.08701545 -0.2193356 0.3055429 1 0 1
-0.08499129 -0.2208488 0.3071267 1 0 1
-0.08278573 -0.2210593 0.3071923 1 0 1
-0.08065797 -0.2219134 0.3080079 1 0 1
-0.07822319 -0.2201628 0.3057916 1 0 1
-0.07602339 -0.2203549 0.3058378 1 0 1
-0.07368942 -0.21924 0.3043645 1 0 1
-0.07143337 -0.2187689 0.3036412 1 0 1
-0.06918465 -0.2182912 0.3029114 1 0 1
-0.06699823 -0.2184586 0.3029319 1 0 1
-0.06476025 -0.2179683 0.3021893 1 0 1
-0.06257679 -0.2181237 0.3021969 1 0 1
-0.06034973 -0.2176209 0.3014416 1 0 1
-0.05777711 -0.2112384 0.2938697 1 0 1
-0.1332598 -0.2077174 0.2926941 1 0 1
-0.1314753 -0.2093367 0.2943976 1 0 1
-0.1296739 -0.2109528 0.2960964 1 0 1
-0.128185 -0.2138497 0.2992879 1 0 1
-0.1261811 -0.2148176 0.3002285 1 0 1
-0.1244819 -0.2170672 0.3026624 1 0 1
-0.1221459 -0.2167394 0.3020928 1 0 1
-0.1202638 -0.2183376 0.3037664 1 0 1
-0.1177838 -0.2173527 0.3024333 1 0 1
-0.1156009 -0.2176505 0.3025941 1 0 1
-0.1130043 -0.216005 0.3004957 1 0 1
-0.1106972 -0.2156432 0.2998917 1 0 1
-0.1085264 -0.2159216 0.3000323 1 0 1
-0.1063544 -0.2161942 0.3001667 1 0 1
-0.1038158 -0.2145173 0.2980389 1 0 1
-0.1017714 -0.2154253 0.298912 1 0 1
-0.09983215 -0.2169772 0.3005315 1 0 1
-0.09765606 -0.2172266 0.3006405 1 0 1
-0.095479 -0.2174701 0.3007432 1 0 1
-0.09350558 -0.2190082 0.3023452 1 0 1
-0.09122057 -0.2185903 0.3016824 1 0 1
-0.08894249 -0.2181659 0.3010131 1 0 1
-0.08685247 -0.2190375 0.3018437 1 0 1
-0.08484038 -0.2205559 0.3034216 1 0 1
-0.08264653 -0.2207656 0.3034866 1 0 1
-0.08045191 -0.2209694 0.3035452 1 0 1
-0.07818182 -0.2205146 0.3028436 1 0 1
-0.07584798 -0.2194 0.3013815 1 0 1
-0.07359626 -0.2189317 0.3006668 1 0 1
-0.07141476 -0.2191107 0.3006995 1 0 1
-0.06911451 -0.2179756 0.2992178 1 0 1
-0.06699496 -0.2187968 0.299992 1 0 1
-0.06481582 -0.2189581 0.3000058 1 0 1
-0.06254161 -0.2178034 0.2985049 1 0 1
-0.06032609 -0.2172971 0.2977519 1 0 1
-0.1324849 -0.2061097 0.2875607 1 0 1
-0.1303748 -0.2064447 0.2877657 1 0 1
-0.1287697 -0.2087073 0.2902022 1 0 1
-0.1273047 -0.2116129 0.2933808 1 0 1
-0.1256463 -0.2138718 0.2958093 1 0 1
-0.1239633 -0.2161284 0.2982336 1 0 1
-0.1221023 -0.217736 0.2999065 1 0 1
-0.1199257 -0.2180455 0.3000792 1 0 1
-0.117457 -0.2170536 0.29875 1 0 1
-0.1154273 -0.2179988 0.2996575 1 0 1
-0.1129756 -0.2169925 0.2983142 1 0 1
-0.1105383 -0.2159784 0.2969635 1 0 1
-0.1083752 -0.2162563 0.2971032 1 0 1
-0.106211 -0.2165284 0.2972366 1 0 1
-0.1036796 -0.2148421 0.2951156 1 0 1
-0.1018794 -0.2170552 0.2974845 1 0 1
-0.09994049 -0.2186133 0.2990984 1 0 1
-0.097654 -0.2182109 0.2984571 1 0 1
-0.09558721 -0.2191071 0.2993093 1 0 1
-0.09351164 -0.2199983 0.3001556 1 0 1
-0.09132884 -0.220231 0.3002453 1 0 1
-0.08905051 -0.219804 0.299578 1 0 1
-0.08696061 -0.2206789 0.3004057 1 0 1
-0.08468851 -0.2202394 0.2997256 1 0 1
-0.08250634 -0.2204484 0.2997898 1 0 1
-0.08032348 -0.2206515 0.2998478 1 0 1
-0.07798988 -0.2195372 0.2983969 1 0 1
-0.07574242 -0.2190717 0.2976907 1 0 1
-0.07350219 -0.2185998 0.296978 1 0 1
-0.07133242 -0.2187782 0.2970103 1 0 1
-0.06904353 -0.2176366 0.2955334 1 0 1
-0.0669359 -0.2184601 0.2963046 1 0 1
-0.0648199 -0.2192785 0.2970695 1 0 1
-0.06264809 -0.2194336 0.2970766 1 0 1
-0.06051936 -0.2202411 0.297829 1 0 1
-0.1336521 -0.211574 0.2906144 1 0 1
-0.1310001 -0.2099731 0.2885925 1 0 1
-0.1293839 -0.2122469 0.2910218 1 0 1
-0.127743 -0.2145184 0.293447 1 0 1
-0.125755 -0.2154908 0.2943802 1 0 1
-0.1237578 -0.2164586 0.2953077 1 0 1
-0.1222119 -0.2193707 0.2984635 1 0 1
-0.1197361 -0.2183803 0.2971459 1 0 1
-0.1174204 -0.2180326 0.296566 1 0 1
-0.1153947 -0.2189806 0.2974702 1 0 1
-0.1129465 -0.2179685 0.2961313 1 0 1
-0.1102448 -0.2156439 0.2932931 1 0 1
-0.1082234 -0.2165735 0.2941779 1 0 1
-0.1059408 -0.2161918 0.2935639 1 0 1
-0.1035427 -0.2151495 0.2921963 1 0 1
-0.1016325 -0.2167165 0.2938096 1 0 1
-0.09982012 -0.2189343 0.2961646 1 0 1
-0.09754126 -0.2185284 0.295525 1 0 1
-0.09548242 -0.2194271 0.2963739 1 0 1
-0.09341484 -0.2203208 0.2972169 1 0 1
-0.09123982 -0.2205531 0.2973059 1 0 1
-0.08896906 -0.2201227 0.2966407 1 0 1
-0.08688717 -0.2210001 0.2974651 1 0 1
-0.08453566 -0.2198996 0.2960386 1 0 1
-0.08228219 -0.2194498 0.2953538 1 0 1
-0.08011498 -0.2196517 0.2954109 1 0 1
-0.07802226 -0.2205066 0.2962104 1 0 1
-0.07577844 -0.2200383 0.2955064 1 0 1
-0.07347459 -0.218904 0.2940472 1 0 1
-0.07131262 -0.219082 0.2940791 1 0 1
-0.06909063 -0.2185943 0.293356 1 0 1
-0.0669315 -0.2187604 0.2933753 1 0 1
-0.06482352 -0.2195814 0.2941373 1 0 1
-0.06270722 -0.2203971 0.294893 1 0 1
-0.0607575 -0.2238524 0.2986383 1 0 1
-0.1351687 -0.2102346 0.2860204 1 0 1
-0.1332292 -0.2112266 0.2869713 1 0 1
-0.1307614 -0.2102654 0.2856961 1 0 1
-0.1291534 -0.212547 0.2881162 1 0 1
-0.1273556 -0.2141759 0.2897916 1 0 1
-0.1253793 -0.2151499 0.2907206 1 0 1
-0.1235515 -0.2167714 0.2923858 1 0 1
-0.1218604 -0.2190419 0.294788 1 0 1
-0.1195457 -0.2186976 0.2942166 1 0 1
-0.1175293 -0.2196538 0.2951235 1 0 1
-0.1153618 -0.2199509 0.2952817 1 0 1
-0.1130551 -0.2195876 0.2946906 1 0 1
-0.1102184 -0.2165966 0.2911188 1 0 1
-0.1080709 -0.2168733 0.2912566 1 0 1
-0.1055432 -0.2151756 0.2891565 1 0 1
-0.1032828 -0.2147827 0.288537 1 0 1
-0.1012662 -0.2156974 0.2893996 1 0 1
-0.09958452 -0.2185802 0.2924902 1 0 1
-0.09720653 -0.2175124 0.2911075 1 0 1
-0.09527024 -0.2190711 0.2926976 1 0 1
-0.09331744 -0.2206257 0.2942821 1 0 1
-0.09105125 -0.2201982 0.2936253 1 0 1
-0.08869703 -0.2191043 0.2922164 1 0 1
-0.08663097 -0.2199834 0.2930374 1 0 1
-0.08438193 -0.2195364 0.2923609 1 0 1
-0.08205673 -0.2184219 0.2909322 1 0 1
-0.08006381 -0.2199455 0.2924805 1 0 1
-0.0779037 -0.2201412 0.2925309 1 0 1
-0.07560001 -0.2190072 0.2910828 1 0 1
-0.07337894 -0.2185284 0.2903744 1 0 1
-0.0711651 -0.2180431 0.2896596 1 0 1
-0.0689586 -0.2175514 0.2889385 1 0 1
-0.06687092 -0.2183799 0.2897037 1 0 1
-0.06477488 -0.2192033 0.2904628 1 0 1
-0.06267051 -0.2200214 0.2912156 1 0 1
-0.1355419 -0.2049609 0.2770197 1 0 1
-0.1352759 -0.2118163 0.2846018 1 0 1
-0.1336909 -0.2141155 0.2870244 1 0 1
-0.1313881 -0.2138028 0.2864922 1 0 1
-0.1294303 -0.2147893 0.2874292 1 0 1
-0.1276289 -0.216425 0.2890991 1 0 1
-0.125649 -0.2174031 0.2900254 1 0 1
-0.1235022 -0.2177216 0.290207 1 0 1
-0.1216617 -0.2193453 0.2918612 1 0 1
-0.1195046 -0.2196536 0.292031 1 0 1
-0.1173461 -0.2199559 0.2921946 1 0 1
-0.1149021 -0.2189383 0.2908712 1 0 1
-0.1126108 -0.2185705 0.2902811 1 0 1
-0.1099231 -0.2162214 0.2874617 1 0 1
-0.1077872 -0.2164971 0.2875984 1 0 1
-0.1055237 -0.2161078 0.2869875 1 0 1
-0.1033896 -0.2163716 0.2871116 1 0 1
-0.1012544 -0.2166296 0.2872296 1 0 1
-0.0995775 -0.2195239 0.290309 1 0 1
-0.09731384 -0.2191112 0.2896732 1 0 1
-0.09537797 -0.2206761 0.2912577 1 0 1
-0.09332246 -0.2215752 0.2920941 1 0 1
-0.09096082 -0.2204824 0.2906967 1 0 1
-0.08861405 -0.2193821 0.2892923 1 0 1
-0.08655598 -0.2202638 0.2901101 1 0 1
-0.08413982 -0.2184865 0.2879495 1 0 1
-0.08191338 -0.2180289 0.2872684 1 0 1
-0.07985304 -0.2188932 0.2880675 1 0 1
-0.07770866 -0.2190879 0.2881173 1 0 1
-0.07542024 -0.217947 0.2866738 1 0 1
-0.07321466 -0.2174642 0.2859674 1 0 1
-0.07101631 -0.216975 0.2852547 1 0 1
-0.06888519 -0.2171454 0.2852794 1 0 1
-0.06675354 -0.21731 0.285298 1 0 1
-0.0646734 -0.2181353 0.286054 1 0 1
-0.06248879 -0.217622 0.2853166 1 0 1
-0.1362891 -0.2166631 0.2868488 1 0 1
-0.1341532 -0.2170104 0.2870607 1 0 1
-0.131669 -0.2160411 0.2857963 1 0 1
-0.129538 -0.2163756 0.2859951 1 0 1
-0.1274056 -0.2167045 0.2861877 1 0 1
-0.1252718 -0.2170275 0.286374 1 0 1
-0.1231367 -0.2173448 0.2865542 1 0 1
-0.1211543 -0.2183147 0.287465 1 0 1
-0.1191628 -0.2192801 0.2883702 1 0 1
-0.117016 -0.2195813 0.2885325 1 0 1
-0.1145833 -0.2185568 0.2872131 1 0 1
-0.1123035 -0.2181849 0.2866243 1 0 1
-0.1097612 -0.2164841 0.2845523 1 0 1
-0.1076331 -0.2167592 0.2846881 1 0 1
-0.1053773 -0.2163666 0.284079 1 0 1
-0.1034965 -0.2179548 0.2856801 1 0 1
-0.1013614 -0.2182131 0.2857975 1 0 1
-0.09968521 -0.2211195 0.2888662 1 0 1
-0.09731022 -0.2200404 0.287493 1 0 1
-0.09527151 -0.2209468 0.2883321 1 0 1
-0.09301752 -0.2205187 0.2876853 1 0 1
-0.09067118 -0.2194188 0.2862922 1 0 1
-0.08843505 -0.2189771 0.2856323 1 0 1
-0.08629744 -0.2191948 0.2857064 1 0 1
-0.0838964 -0.2174076 0.2835529 1 0 1
-0.08176903 -0.2176126 0.2836142 1 0 1
-0.07972071 -0.2184791 0.28441 1 0 1
-0.077588 -0.218673 0.2844591 1 0 1
-0.075311 -0.2175256 0.2830204 1 0 1
-0.07318491 -0.2177074 0.2830571 1 0 1
-0.07093025 -0.2165465 0.2816057 1 0 1
-0.06887092 -0.2173849 0.2823709 1 0 1
-0.06669098 -0.2168801 0.2816481 1 0 1
-0.06472722 -0.2190466 0.2838833 1 0 1
-0.06254631 -0.2185304 0.2831483 1 0 1
-0.1363081 -0.2100178 0.2764112 1 0 1
-0.1353087 -0.2143058 0.2810144 1 0 1
-0.1337287 -0.2166227 0.2834198 1 0 1
-0.1317767 -0.2176211 0.2843564 1 0 1
-0.1294759 -0.2172973 0.2838219 1 0 1
-0.1275133 -0.2182855 0.2847469 1 0 1
-0.1253795 -0.218609 0.2849328 1 0 1
-0.1230862 -0.2182662 0.2843786 1 0 1
-0.1212621 -0.2199002 0.2860202 1 0 1
-0.1191205 -0.2202071 0.2861879 1 0 1
-0.1168312 -0.2198459 0.2856145 1 0 1
-0.1142633 -0.2181521 0.2835643 1 0 1
-0.1121337 -0.2184396 0.2837122 1 0 1
-0.1093291 -0.2154018 0.2801762 1 0 1
-0.1074783 -0.2170041 0.2817822 1 0 1
-0.105357 -0.2172729 0.2819108 1 0 1
-0.1034806 -0.2188668 0.2835061 1 0 1
-0.1012302 -0.2184592 0.2828864 1 0 1
-0.09944747 -0.2207103 0.285207 1 0 1
-0.09708384 -0.2196245 0.2838382 1 0 1
-0.09494966 -0.2198656 0.2839366 1 0 1
-0.09271117 -0.2194333 0.2832915 1 0 1
-0.09018105 -0.2169902 0.2804277 1 0 1
-0.08796826 -0.2165434 0.2797692 1 0 1
-0.08576252 -0.2160902 0.2791045 1 0 1
-0.0836516 -0.2162998 0.2791711 1 0 1
-0.08153996 -0.2165036 0.2792316 1 0 1
-0.07958739 -0.2180419 0.2807622 1 0 1
-0.07746648 -0.2182351 0.2808107 1 0 1
-0.07520084 -0.2170811 0.2793767 1 0 1
-0.07308652 -0.2172622 0.2794129 1 0 1
-0.07077907 -0.2154234 0.277228 1 0 1
-0.06879593 -0.2169355 0.2787285 1 0 1
-0.06657125 -0.2157552 0.2772695 1 0 1
-0.06462381 -0.2179294 0.2794965 1 0 1
-0.06250688 -0.218082 0.2795021 1 0 1
-0.1364171 -0.2039654 0.2667635 1 0 1
-0.1345074 -0.2125681 0.2759345 1 0 1
-0.1331252 -0.2155515 0.2790591 1 0 1
-0.131015 -0.2158897 0.2792613 1 0 1
-0.1289034 -0.2162222 0.2794573 1 0 1
-0.1269566 -0.2172114 0.2803777 1 0 1
-0.1251627 -0.2188589 0.2820235 1 0 1
-0.1228771 -0.2185125 0.2814709 1 0 1
-0.1209067 -0.2194875 0.2823745 1 0 1
-0.1189273 -0.2204578 0.2832727 1 0 1
-0.116499 -0.219428 0.2819689 1 0 1
-0.1139423 -0.2177244 0.2799253 1 0 1
-0.1116855 -0.2173445 0.2793393 1 0 1
-0.1091655 -0.2156243 0.2772808 1 0 1
-0.1069298 -0.2152299 0.276681 1 0 1
-0.1049551 -0.2161644 0.2775416 1 0 1
-0.1030947 -0.2177625 0.2791302 1 0 1
-0.1007405 -0.2166818 0.2777781 1 0 1
-0.09886251 -0.2182704 0.2793553 1 0 1
-0.0966335 -0.2178462 0.2787245 1 0 1
-0.09441137 -0.2174153 0.2780871 1 0 1
-0.09209254 -0.2163074 0.2767088 1 0 1
-0.08978848 -0.2151921 0.2753237 1 0 1
-0.08759511 -0.2147408 0.2746668 1 0 1
-0.0856844 -0.2162983 0.2762087 1 0 1
-0.08349339 -0.2158353 0.2755397 1 0 1
-0.08156155 -0.2173835 0.27707 1 0 1
-0.07953322 -0.2182545 0.2778594 1 0 1
-0.07734402 -0.2177741 0.277172 1 0 1
-0.07501748 -0.2159399 0.2750072 1 0 1
-0.07285064 -0.2154461 0.2743073 1 0 1
-0.0706266 -0.2142716 0.2728654 1 0 1
-0.06853868 -0.2144393 0.2728888 1 0 1
-0.06628069 -0.2125767 0.2706989 1 0 1
-0.06425615 -0.2134074 0.2714459 1 0 1
-0.1389846 -0.2140707 0.2748022 1 0 1
-0.1367049 -0.2137624 0.2742949 1 0 1
-0.1342496 -0.2127844 0.2730543 1 0 1
-0.1326979 -0.215115 0.2754401 1 0 1
-0.1305995 -0.2154519 0.2756406 1 0 1
-0.1284996 -0.215783 0.2758351 1 0 1
-0.1265645 -0.2167737 0.2767513 1 0 1
-0.124458 -0.2170942 0.2769339 1 0 1
-0.1223501 -0.2174089 0.2771105 1 0 1
-0.1203956 -0.2183849 0.2780097 1 0 1
-0.1182813 -0.2186888 0.2781744 1 0 1
-0.115872 -0.2176509 0.2768739 1 0 1
-0.1134772 -0.2166051 0.2755662 1 0 1
-0.1110968 -0.2155516 0.2742514 1 0 1
-0.1087308 -0.2144902 0.2729294 1 0 1
-0.106773 -0.2154317 0.273792 1 0 1
-0.1048064 -0.2163685 0.274649 1 0 1
-0.1029542 -0.2179718 0.2762314 1 0 1
-0.1008465 -0.218228 0.2763462 1 0 1
-0.09873769 -0.2184786 0.2764549 1 0 1
-0.09662798 -0.2187235 0.2765575 1 0 1
-0.09440956 -0.2182897 0.2759223 1 0 1
-0.09199046 -0.2165026 0.2738168 1 0 1
-0.08979379 -0.2160548 0.2731684 1 0 1
-0.08779616 -0.2169491 0.2739783 1 0 1
-0.08569776 -0.2171639 0.2740499 1 0 1
-0.0835105 -0.2166979 0.273383 1 0 1
-0.08158299 -0.2182518 0.2749077 1 0 1
-0.07955882 -0.2191257 0.275694 1 0 1
-0.07737333 -0.2186424 0.2750089 1 0 1
-0.07505018 -0.2167996 0.2728517 1 0 1
-0.07295552 -0.2169796 0.272887 1 0 1
-0.07073114 -0.2157996 0.2714502 1 0 1
-0.06858254 -0.2152901 0.2707401 1 0 1
-0.06638467 -0.2140967 0.2692911 1 0 1
-0.06436037 -0.2149306 0.2700351 1 0 1
-0.1371931 -0.2089656 0.2661372 1 0 1
-0.1364389 -0.213968 0.2714152 1 0 1
-0.1341729 -0.2136491 0.2709024 1 0 1
-0.1324477 -0.215322 0.2725552 1 0 1
-0.1301828 -0.2149912 0.27203 1 0 1
-0.1282649 -0.2159885 0.2729477 1 0 1
-0.1260049 -0.2156452 0.2724097 1 0 1
-0.1240766 -0.2166324 0.2733161 1 0 1
-0.1221391 -0.2176152 0.274217 1 0 1
-0.1201926 -0.2185933 0.2751125 1 0 1
-0.1179351 -0.2182262 0.2745496 1 0 1
-0.1156842 -0.2178523 0.2739799 1 0 1
-0.1132968 -0.2168002 0.2726766 1 0 1
-0.1107846 -0.2150683 0.2706387 1 0 1
-0.10843 -0.2140002 0.2693209 1 0 1
-0.1063527 -0.2142704 0.2694518 1 0 1
-0.1044019 -0.2152085 0.2703048 1 0 1
-0.1025659 -0.2168159 0.2718806 1 0 1
-0.100354 -0.2163962 0.2712656 1 0 1
-0.09826487 -0.2166448 0.2713729 1 0 1
-0.09606288 -0.2162124 0.2707453 1 0 1
-0.0938678 -0.2157736 0.2701113 1 0 1
-0.09157563 -0.2146519 0.2687417 1 0 1
-0.08959865 -0.2155529 0.2695537 1 0 1
-0.08751677 -0.215772 0.2696305 1 0 1
-0.08561867 -0.2173405 0.2711607 1 0 1
-0.08352742 -0.2175492 0.2712258 1 0 1
-0.08143542 -0.2177521 0.2712847 1 0 1
-0.07934272 -0.2179495 0.2713377 1 0 1
-0.07732592 -0.2188201 0.2721148 1 0 1
-0.07501004 -0.2169684 0.2699653 1 0 1
-0.07285457 -0.2164683 0.2692697 1 0 1
-0.07070639 -0.2159619 0.2685682 1 0 1
-0.06862634 -0.2161296 0.268591 1 0 1
-0.06648892 -0.215611 0.2678773 1 0 1
-0.1387693 -0.2081162 0.2623434 1 0 1
-0.1367271 -0.208468 0.2625617 1 0 1
-0.1356138 -0.2121532 0.2663779 1 0 1
-0.1333671 -0.2118288 0.2658652 1 0 1
-0.1318399 -0.2141737 0.2682319 1 0 1
-0.1295903 -0.2138381 0.2677073 1 0 1
-0.1276883 -0.2148363 0.2686206 1 0 1
-0.1256103 -0.2151591 0.2688058 1 0 1
-0.1236939 -0.2161479 0.2697081 1 0 1
-0.1217683 -0.2171321 0.2706049 1 0 1
-0.1199887 -0.2187845 0.2722199 1 0 1
-0.1177389 -0.218414 0.2716586 1 0 1
-0.1154957 -0.2180366 0.2710906 1 0 1
-0.1131157 -0.2169781 0.2697916 1 0 1
-0.1106107 -0.2152371 0.2677608 1 0 1
-0.1079925 -0.2128119 0.2649975 1 0 1
-0.105931 -0.2130806 0.2651271 1 0 1
-0.1038683 -0.2133435 0.2652506 1 0 1
-0.1018046 -0.2136009 0.2653682 1 0 1
-0.09973992 -0.2138528 0.2654799 1 0 1
-0.09767423 -0.214099 0.2655856 1 0 1
-0.09560762 -0.2143397 0.2656854 1 0 1
-0.09354012 -0.2145748 0.2657793 1 0 1
-0.0914717 -0.2148042 0.2658672 1 0 1
-0.08940246 -0.215028 0.2659491 1 0 1
-0.08742881 -0.2159263 0.266752 1 0 1
-0.08553896 -0.2175 0.2682763 1 0 1
-0.08336704 -0.2170274 0.2676135 1 0 1
-0.08145609 -0.2185919 0.2691264 1 0 1
-0.07928666 -0.2181077 0.2684517 1 0 1
-0.07720119 -0.2182989 0.2684982 1 0 1
-0.0750422 -0.2178023 0.2678111 1 0 1
-0.0728216 -0.2166168 0.2663904 1 0 1
-0.07074609 -0.2167901 0.2664188 1 0 1
-0.06866999 -0.2169577 0.2664412 1 0 1
-0.06647921 -0.2157528 0.2650022 1 0 1
-0.06435683 -0.2152247 0.2642849 1 0 1
0.03120196 -0.1982461 0.2392292 1 0 1
0.03273242 -0.1960759 0.2368197 1 0 1
0.03481179 -0.1966416 0.2372653 1 0 1
0.03630891 -0.1944626 0.234849 1 0 1
0.03868851 -0.1963865 0.2367101 1 0 1
0.04078024 -0.1969352 0.2371369 1 0 1
0.04335544 -0.1995295 0.2396933 1 0 1
0.04465788 -0.1966477 0.2365476 1 0 1
0.05081415 -0.1975416 0.2370414 1 0 1
0.05311191 -0.1987377 0.2381385 1 0 1
0.05597064 -0.201973 0.2413526 1 0 1
0.05774989 -0.2011097 0.2403084 1 0 1
0.06123012 -0.2063728 0.2456231 1 0 1
0.06900906 -0.2118914 0.250893 1 0 1
0.08628265 -0.2133956 0.2512202 1 0 1
0.08503494 -0.1923441 0.2290343 1 0 1
0.085701 -0.1887088 0.2251389 1 0 1
0.1043357 -0.2001471 0.2358828 1 0 1
0.1104549 -0.2098795 0.245735 1 0 1
-0.1388724 -0.2096053 0.2609316 1 0 1
-0.1368302 -0.2099576 0.2611494 1 0 1
-0.135718 -0.2136574 0.2649516 1 0 1
-0.1332887 -0.2126594 0.2637227 1 0 1
-0.1315876 -0.2143408 0.2653617 1 0 1
-0.129171 -0.2133292 0.2641194 1 0 1
-0.1276223 -0.215675 0.2664674 1 0 1
-0.1253815 -0.2153241 0.265932 1 0 1
-0.12331 -0.2156406 0.2661102 1 0 1
-0.1215555 -0.2173013 0.2677235 1 0 1
-0.1196289 -0.2182833 0.2686112 1 0 1
-0.1172393 -0.2172325 0.26733 1 0 1
-0.1150115 -0.2168505 0.2667631 1 0 1
-0.1129339 -0.217139 0.2669114 1 0 1
-0.1104361 -0.2153888 0.2648877 1 0 1
-0.1079607 -0.2136299 0.2628565 1 0 1
-0.1057713 -0.2132197 0.2622629 1 0 1
-0.1035885 -0.2128029 0.2616628 1 0 1
-0.1016606 -0.213739 0.2625024 1 0 1
-0.09960382 -0.2139902 0.2626132 1 0 1
-0.09754604 -0.214236 0.2627182 1 0 1
-0.09548731 -0.214476 0.2628172 1 0 1
-0.09364434 -0.2160737 0.2643578 1 0 1
-0.09147158 -0.2156215 0.2637215 1 0 1
-0.08960731 -0.21721 0.265251 1 0 1
-0.08772656 -0.2187947 0.2667752 1 0 1
-0.08573663 -0.2196921 0.2675696 1 0 1
-0.08356064 -0.2192174 0.2669094 1 0 1
-0.08139176 -0.2187363 0.266243 1 0 1
-0.07923003 -0.2182487 0.2655704 1 0 1
-0.07715243 -0.2184396 0.2656164 1 0 1
-0.0750012 -0.2179397 0.2649316 1 0 1
-0.07278806 -0.2167482 0.2635159 1 0 1
-0.07078563 -0.2176068 0.2642688 1 0 1
-0.06865227 -0.2170884 0.2635659 1 0 1
-0.06641167 -0.215191 0.261407 1 0 1
-0.06408744 -0.2119129 0.257792 1 0 1
0.03123702 -0.2003589 0.2385907 1 0 1
0.03249346 -0.1968038 0.2347645 1 0 1
0.03428239 -0.1959968 0.2337847 1 0 1
0.03635665 -0.1965602 0.2342228 1 0 1
0.03813567 -0.1957431 0.2332332 1 0 1
0.04052522 -0.1976694 0.235079 1 0 1
0.04341327 -0.2016488 0.2390441 1 0 1
0.04520826 -0.2008142 0.2380349 1 0 1
0.0479935 -0.2040917 0.2412706 1 0 1
0.05013468 -0.2046174 0.2416642 1 0 1
0.05141081 -0.2017096 0.2385164 1 0 1
0.05372363 -0.20291 0.2396058 1 0 1
0.05586863 -0.2034187 0.2399813 1 0 1
0.05690426 -0.1998148 0.2361203 1 0 1
0.05998781 -0.2037338 0.2400076 1 0 1
0.06272893 -0.2062755 0.2424739 1 0 1
0.06530197 -0.2081253 0.2442261 1 0 1
0.06749382 -0.2086015 0.2445641 1 0 1
0.06948663 -0.2083889 0.2441935 1 0 1
0.07064123 -0.2054426 0.2410143 1 0 1
0.07282836 -0.2059023 0.2413354 1 0 1
0.07393727 -0.2029498 0.2381531 1 0 1
0.07567588 -0.2020376 0.2370667 1 0 1
0.07852781 -0.2045223 0.2394651 1 0 1
0.08118031 -0.2063179 0.2411546 1 0 1
0.08385414 -0.2081053 0.2428339 1 0 1
0.0848968 -0.2051325 0.2396352 1 0 1
0.08470743 -0.1987668 0.2329648 1 0 1
0.08639709 -0.1978271 0.2318534 1 0 1
0.0888199 -0.198915 0.2328167 1 0 1
0.08748554 -0.1898447 0.223391 1 0 1
0.09864462 -0.2031907 0.2365808 1 0 1
0.09900109 -0.1988449 0.2319912 1 0 1
0.1014731 -0.1998914 0.2329077 1 0 1
0.1034098 -0.1995838 0.2324417 1 0 1
0.1086806 -0.2073424 0.2401994 1 0 1
0.1069953 -0.1982805 0.2308084 1 0 1
0.1086363 -0.197286 0.2296431 1 0 1
0.1120037 -0.2003117 0.2325717 1 0 1
0.1089577 -0.1885841 0.2204821 1 0 1
0.1194349 -0.1982655 0.2298748 1 0 1
0.1257768 -0.2028785 0.2342507 1 0 1
0.1302521 -0.2078321 0.2391219 1 0 1
0.1322291 -0.207447 0.2385718 1 0 1
-0.1370547 -0.1973022 0.245008 1 0 1
-0.1378102 -0.2070562 0.2552265 1 0 1
-0.1369333 -0.2114416 0.2597312 1 0 1
-0.1352627 -0.2131357 0.2613734 1 0 1
-0.13321 -0.2134788 0.2615798 1 0 1
-0.1313345 -0.214491 0.2624963 1 0 1
-0.1289253 -0.2134729 0.2612581 1 0 1
-0.1272141 -0.2151506 0.2628801 1 0 1
-0.1248177 -0.2141189 0.2616286 1 0 1
-0.1225987 -0.2137564 0.2610874 1 0 1
-0.1205454 -0.2140649 0.2612576 1 0 1
-0.1188018 -0.2157243 0.2628581 1 0 1
-0.1164352 -0.2146651 0.2615801 1 0 1
-0.1143782 -0.2149568 0.2617325 1 0 1
-0.1123201 -0.2152429 0.2618789 1 0 1
-0.1099812 -0.2141626 0.2605809 1 0 1
-0.1076568 -0.2130746 0.2592759 1 0 1
-0.1054789 -0.2126604 0.2586838 1 0 1
-0.1034359 -0.2129217 0.2588054 1 0 1
-0.1012676 -0.212495 0.2582009 1 0 1
-0.0992265 -0.2127447 0.2583105 1 0 1
-0.09741715 -0.2143558 0.2598557 1 0 1
-0.09547875 -0.2152793 0.2606747 1 0 1
-0.09353164 -0.2161981 0.2614884 1 0 1
-0.09168046 -0.217797 0.2630176 1 0 1
-0.08981268 -0.219392 0.2645415 1 0 1
-0.0877349 -0.2196118 0.2646172 1 0 1
-0.08574918 -0.2205119 0.2654085 1 0 1
-0.08357694 -0.2200344 0.2647505 1 0 1
-0.08132685 -0.2188636 0.2633645 1 0 1
-0.0792539 -0.21906 0.263416 1 0 1
-0.07710314 -0.2185633 0.2627397 1 0 1
-0.0749596 -0.2180602 0.2620572 1 0 1
-0.07282327 -0.2175507 0.2613685 1 0 1
-0.0708904 -0.2191008 0.2628407 1 0 1
-0.06869546 -0.2178909 0.2614179 1 0 1
-0.06657328 -0.2173634 0.2607115 1 0 1
-0.06445848 -0.2168296 0.259999 1 0 1
0.0287884 -0.1998167 0.2353594 1 0 1
0.03086548 -0.2003987 0.2358113 1 0 1
0.03294942 -0.200975 0.2362566 1 0 1
0.03475416 -0.2001642 0.2352776 1 0 1
0.03655006 -0.1993485 0.234294 1 0 1
0.03848784 -0.1992181 0.234014 1 0 1
0.04135239 -0.2032214 0.2379718 1 0 1
0.04394548 -0.2058369 0.2405038 1 0 1
0.04591866 -0.2056875 0.2402013 1 0 1
0.04888869 -0.2096665 0.2441258 1 0 1
0.05156357 -0.2122589 0.2466277 1 0 1
0.05252722 -0.20796 0.2420768 1 0 1
0.0543329 -0.2070996 0.2410458 1 0 1
0.05667502 -0.2082972 0.2421191 1 0 1
0.05773109 -0.2046771 0.2382685 1 0 1
0.0595054 -0.2038027 0.2372252 1 0 1
0.06223799 -0.2063563 0.2396823 1 0 1
0.06460533 -0.2075292 0.2407278 1 0 1
0.06598051 -0.2052663 0.2382675 1 0 1
0.06815134 -0.2057416 0.2386009 1 0 1
0.07011934 -0.2055259 0.2382293 1 0 1
0.07229852 -0.205989 0.2385494 1 0 1
0.07426711 -0.2057619 0.2381658 1 0 1
0.07601363 -0.2048457 0.237081 1 0 1
0.07954542 -0.2093899 0.2415522 1 0 1
0.08221658 -0.2111914 0.24323 1 0 1
0.08490898 -0.2129845 0.2448974 1 0 1
0.08691497 -0.2127242 0.2444764 1 0 1
0.08676194 -0.2063281 0.2378233 1 0 1
0.08872977 -0.2060613 0.2373984 1 0 1
0.08921166 -0.2017086 0.2328271 1 0 1
0.0873853 -0.191241 0.2220565 1 0 1
0.09130709 -0.1964013 0.2271405 1 0 1
0.09580558 -0.2029042 0.2335804 1 0 1
0.09748967 -0.2019341 0.2324437 1 0 1
0.099697 -0.2023141 0.2326748 1 0 1
0.1046119 -0.2094545 0.2397477 1 0 1
0.1052243 -0.2057589 0.2358512 1 0 1
0.1102413 -0.2128713 0.2428872 1 0 1
0.112242 -0.2125412 0.2423938 1 0 1
0.1122428 -0.2074863 0.2371265 1 0 1
0.1162368 -0.2118646 0.24139 1 0 1
0.1138367 -0.2014244 0.2306907 1 0 1
0.1157717 -0.2010822 0.2301894 1 0 1
0.1159017 -0.1967052 0.2256188 1 0 1
0.1220689 -0.2057484 0.2345806 1 0 1
0.1261831 -0.2100755 0.2387819 1 0 1
0.1281651 -0.2097011 0.2382434 1 0 1
0.1301447 -0.2093211 0.2376992 1 0 1
0.1321218 -0.2089355 0.2371495 1 0 1
0.1315125 -0.2032063 0.2312251 1 0 1
0.1314944 -0.1988167 0.2266522 1 0 1
0.1327507 -0.1970938 0.2247627 1 0 1
0.1303137 -0.1880537 0.2155249 1 0 1
0.1341973 -0.1916485 0.2189801 1 0 1
0.1388063 -0.1965553 0.2237482 1 0 1
0.1407095 -0.1961432 0.2231762 1 0 1
0.1450532 -0.2003583 0.2272432 1 0 1
0.1469769 -0.1999298 0.2266525 1 0 1
-0.1361624 -0.1953525 0.2400817 1 0 1
-0.1367457 -0.2044679 0.249548 1 0 1
-0.1358933 -0.2088666 0.2540336 1 0 1
-0.1349929 -0.2132677 0.2585181 1 0 1
-0.132948 -0.21361 0.2587231 1 0 1
-0.1312594 -0.2153017 0.2603492 1 0 1
-0.1290288 -0.214956 0.2598294 1 0 1
-0.1271469 -0.215961 0.2607313 1 0 1
-0.1247541 -0.2149236 0.2594844 1 0 1
-0.1223755 -0.2138782 0.2582304 1 0 1
-0.1201706 -0.2135054 0.2576842 1 0 1
-0.1182834 -0.2144882 0.2585625 1 0 1
-0.1159321 -0.2134214 0.2572882 1 0 1
-0.1138908 -0.2137114 0.257439 1 0 1
-0.1117044 -0.2133131 0.2568676 1 0 1
-0.1096647 -0.2135914 0.2570064 1 0 1
-0.1072156 -0.2118128 0.2549888 1 0 1
-0.1050532 -0.2113942 0.2543981 1 0 1
-0.1028976 -0.2109691 0.253801 1 0 1
-0.1011219 -0.2125935 0.2553503 1 0 1
-0.09884772 -0.211471 0.2540237 1 0 1
-0.09705447 -0.2130863 0.2555622 1 0 1
-0.09524469 -0.2146978 0.2570957 1 0 1
-0.09352703 -0.2169928 0.2593423 1 0 1
-0.0916802 -0.2185973 0.2608656 1 0 1
-0.08981686 -0.2201978 0.2623836 1 0 1
-0.08774305 -0.2204175 0.2624587 1 0 1
-0.08576153 -0.2213204 0.2632468 1 0 1
-0.08350392 -0.2201508 0.2618721 1 0 1
-0.08134651 -0.2196635 0.2612101 1 0 1
-0.07911502 -0.2184799 0.2598228 1 0 1
-0.0769759 -0.2179796 0.2591486 1 0 1
-0.07484397 -0.2174728 0.2584683 1 0 1
-0.07271934 -0.2169599 0.257782 1 0 1
-0.07073313 -0.2178235 0.2585286 1 0 1
-0.06867687 -0.2179903 0.25855 1 0 1
-0.06638929 -0.2153836 0.2556872 1 0 1
0.02829389 -0.1991424 0.2318792 1 0 1
0.0307639 -0.2018097 0.2344518 1 0 1
0.03326415 -0.2044698 0.2370148 1 0 1
0.03536627 -0.2050422 0.2374493 1 0 1
0.03688855 -0.2028359 0.2350546 1 0 1
0.03883797 -0.2027046 0.2347729 1 0 1
0.04124962 -0.204646 0.2365993 1 0 1
0.04400019 -0.207965 0.2398244 1 0 1
0.04581505 -0.2071231 0.2388181 1 0 1
0.04878376 -0.211119 0.2427264 1 0 1
0.05145786 -0.2137225 0.2452176 1 0 1
0.05277051 -0.2107888 0.2420861 1 0 1
0.05422856 -0.2085431 0.239655 1 0 1
0.05638857 -0.2090557 0.2400229 1 0 1
0.05707069 -0.2040413 0.2347877 1 0 1
0.05940178 -0.2052343 0.235846 1 0 1
0.06213353 -0.2077991 0.2382923 1 0 1
0.06390897 -0.2069105 0.2372402 1 0 1
0.0652732 -0.20464 0.2347903 1 0 1
0.06722727 -0.2044311 0.2344274 1 0 1
0.0693886 -0.2049045 0.2347543 1 0 1
0.0707056 -0.2026225 0.2322958 1 0 1
0.07286371 -0.2030851 0.2326116 1 0 1
0.07524811 -0.2042278 0.2336134 1 0 1
0.07764628 -0.2053631 0.2346067 1 0 1
0.08028603 -0.2071768 0.2362829 1 0 1
0.08294709 -0.2089819 0.2379487 1 0 1
0.08492238 -0.2087253 0.2375344 1 0 1
0.08569846 -0.2050434 0.2336691 1 0 1
0.08765094 -0.2047784 0.2332478 1 0 1
0.08713026 -0.197679 0.2259466 1 0 1
0.08753498 -0.1933143 0.2214032 1 0 1
0.09018508 -0.1950873 0.2230363 1 0 1
0.09337329 -0.1982142 0.2260285 1 0 1
0.09607287 -0.1999687 0.2276386 1 0 1
0.09852716 -0.2010343 0.228555 1 0 1
0.1004545 -0.2007332 0.2280978 1 0 1
0.1023799 -0.2004266 0.2276353 1 0 1
0.1068015 -0.2062193 0.2332904 1 0 1
0.1087568 -0.2058964 0.2328086 1 0 1
0.1104247 -0.2048911 0.2316428 1 0 1
0.1141055 -0.2086162 0.235216 1 0 1
0.1137312 -0.202868 0.2293004 1 0 1
0.1156662 -0.2025253 0.2287994 1 0 1
0.1160977 -0.1988055 0.22492 1 0 1
0.1201375 -0.2031712 0.2291283 1 0 1
0.1217654 -0.202138 0.2279363 1 0 1
0.1240064 -0.2024453 0.2280841 1 0 1
0.125622 -0.2014027 0.2268833 1 0 1
0.1275466 -0.201027 0.2263486 1 0 1
0.1288233 -0.1993057 0.2244716 1 0 1
0.12845 -0.1942354 0.2192565 1 0 1
0.1326453 -0.1985303 0.2233794 1 0 1
0.129543 -0.1881178 0.2128467 1 0 1
0.1364572 -0.1977336 0.2222655 1 0 1
0.1383593 -0.1973271 0.2217004 1 0 1
0.1430197 -0.2022385 0.2264254 1 0 1
0.1449462 -0.201815 0.2258407 1 0 1
0.1465174 -0.2007222 0.2245908 1 0 1
-0.1374299 -0.2079396 0.2502786 1 0 1
-0.135995 -0.2103225 0.25262 1 0 1
-0.1345354 -0.2127038 0.2549579 1 0 1
-0.1326852 -0.2137243 0.2558717 1 0 1
-0.1308257 -0.2147405 0.2567803 1 0 1
-0.1286066 -0.2143907 0.2562616 1 0 1
-0.1267366 -0.215397 0.2571592 1 0 1
-0.1245226 -0.2150348 0.2566281 1 0 1
-0.1221515 -0.2139831 0.2553783 1 0 1
-0.1201139 -0.2142901 0.2555462 1 0 1
-0.1179194 -0.2139078 0.2549956 1 0 1
-0.1155794 -0.2128342 0.2537254 1 0 1
-0.1135499 -0.2131229 0.2538749 1 0 1
-0.1115192 -0.2134062 0.2540185 1 0 1
-0.1093471 -0.2129978 0.2534425 1 0 1
-0.1067729 -0.2105229 0.2507178 1 0 1
-0.104626 -0.2100999 0.2501284 1 0 1
-0.1026144 -0.210358 0.2502473 1 0 1
-0.1008509 -0.2119869 0.2517902 1 0 1
-0.09895016 -0.2129236 0.252613 1 0 1
-0.0971574 -0.2145448 0.2541457 1 0 1
-0.09534807 -0.2161624 0.2556734 1 0 1
-0.09363109 -0.2184662 0.2579115 1 0 1
-0.09167971 -0.2193862 0.2587132 1 0 1
-0.08982076 -0.2209922 0.2602252 1 0 1
-0.08775096 -0.2212119 0.2602999 1 0 1
-0.08577361 -0.2221176 0.2610848 1 0 1
-0.08360897 -0.2216343 0.2604314 1 0 1
-0.08136605 -0.2204521 0.2590555 1 0 1
-0.07905664 -0.2185699 0.2569567 1 0 1
-0.07692523 -0.2180664 0.2562847 1 0 1
-0.07472742 -0.2168629 0.2548899 1 0 1
-0.07268414 -0.2170403 0.2549226 1 0 1
-0.07057454 -0.2165179 0.2542327 1 0 1
-0.06865775 -0.2180729 0.2556873 1 0 1
-0.06637728 -0.2154545 0.252835 1 0 1
0.02884659 -0.2040216 0.2340503 1 0 1
0.03343819 -0.2072796 0.237047 1 0 1
0.03569046 -0.2085506 0.2381813 1 0 1
0.03722502 -0.2063349 0.2357932 1 0 1
0.0394868 -0.2075942 0.2369147 1 0 1
0.04160882 -0.2081515 0.2373265 1 0 1
0.0442118 -0.2107885 0.2398351 1 0 1
0.04652071 -0.2120278 0.2409323 1 0 1
0.04884396 -0.2132604 0.2420214 1 0 1
0.05220024 -0.2186521 0.2472985 1 0 1
0.05405423 -0.2177872 0.2462714 1 0 1
0.05554385 -0.21553 0.2438435 1 0 1
0.056646 -0.2118828 0.240019 1 0 1
0.05715189 -0.206155 0.234105 1 0 1
0.05986485 -0.2087381 0.2365496 1 0 1
0.06183507 -0.2085441 0.2362013 1 0 1
0.06360681 -0.2076529 0.2351529 1 0 1
0.06557017 -0.2074483 0.2347942 1 0 1
0.06773663 -0.2079294 0.2351235 1 0 1
0.06886662 -0.2049514 0.2319827 1 0 1
0.06996415 -0.2019714 0.2288422 1 0 1
0.07211046 -0.2024379 0.2291578 1 0 1
0.07470297 -0.2042765 0.2308471 1 0 1
0.077093 -0.2054183 0.2318367 1 0 1
0.07995215 -0.2079292 0.2341953 1 0 1
0.08260873 -0.2097431 0.235854 1 0 1
0.08458017 -0.2094867 0.2354408 1 0 1
0.08705895 -0.2048399 0.2304844 1 0 1
0.08850809 -0.2031988 0.2286902 1 0 1
0.09044148 -0.2029248 0.2282615 1 0 1
0.09364587 -0.2060685 0.2312424 1 0 1
0.09559452 -0.205781 0.2307986 1 0 1
0.09885215 -0.2089054 0.2337554 1 0 1
0.1027774 -0.2082972 0.2328312 1 0 1
0.1030954 -0.2038948 0.2282895 1 0 1
0.1064001 -0.2019003 0.2259899 1 0 1
0.107753 -0.2002171 0.2241589 1 0 1
0.1093772 -0.1992103 0.2230012 1 0 1
0.113332 -0.2036275 0.2272306 1 0 1
0.1176336 -0.2087079 0.2321139 1 0 1
0.1195927 -0.2083547 0.231601 1 0 1
0.12398 -0.2134079 0.2364495 1 0 1
0.1259645 -0.2130381 0.2359176 1 0 1
0.1279466 -0.2126629 0.2353799 1 0 1
0.1248848 -0.2014925 0.2241515 1 0 1
0.1293526 -0.2065066 0.2289536 1 0 1
0.1456706 -0.2090357 0.2302905 1 0 1
-0.2076131 -0.2001835 0.2444137 1 0 1
-0.1494695 -0.2136498 0.2540589 1 0 1
-0.1459641 -0.2092884 0.2493712 1 0 1
-0.1416855 -0.2021978 0.2418507 1 0 1
-0.1385028 -0.1984817 0.2378427 1 0 1
-0.1379205 -0.2107418 0.2502809 1 0 1
-0.1360967 -0.2117726 0.2512007 1 0 1
-0.1346378 -0.2141628 0.2535299 1 0 1
-0.1327878 -0.2151866 0.2544404 1 0 1
-0.1305701 -0.21484 0.2539299 1 0 1
-0.1283587 -0.2144865 0.2534127 1 0 1
-0.1264967 -0.215495 0.2543064 1 0 1
-0.1242903 -0.2151292 0.2537768 1 0 1
-0.1219267 -0.2140712 0.2525314 1 0 1
-0.1197371 -0.2136914 0.2519886 1 0 1
-0.1175541 -0.2133049 0.2514392 1 0 1
-0.1150735 -0.2115373 0.2494628 1 0 1
-0.1129114 -0.2111364 0.2489001 1 0 1
-0.1106117 -0.2100407 0.2476202 1 0 1
-0.1083264 -0.2089373 0.2463335 1 0 1
-0.1063287 -0.2092052 0.2464628 1 0 1
-0.1043299 -0.2094676 0.2465865 1 0 1
-0.1024588 -0.2104151 0.2474162 1 0 1
-0.1009532 -0.2134307 0.250377 1 0 1
-0.09905273 -0.2143706 0.2511967 1 0 1
-0.09737739 -0.2166896 0.253436 1 0 1
-0.09545159 -0.2176213 0.2542454 1 0 1
-0.09362617 -0.219241 0.255762 1 0 1
-0.0917842 -0.220857 0.2572735 1 0 1
-0.08982442 -0.2217754 0.2580667 1 0 1
-0.08785599 -0.222689 0.258854 1 0 1
-0.08578548 -0.2229033 0.2589223 1 0 1
-0.08353514 -0.2217223 0.2575577 1 0 1
-0.08121409 -0.2198388 0.2554731 1 0 1
-0.07899768 -0.2186431 0.2540957 1 0 1
-0.07687399 -0.2181363 0.253426 1 0 1
-0.07460991 -0.2162305 0.2513224 1 0 1
-0.0725785 -0.2164072 0.2513546 1 0 1
-0.07054652 -0.2165782 0.251381 1 0 1
-0.06857603 -0.2174411 0.2521156 1 0 1
-0.06624855 -0.2141132 0.2485599 1 0 1
0.03554881 -0.2198858 0.2468802 1 0 1
0.03672434 -0.2155657 0.2423948 1 0 1
0.03902188 -0.2168337 0.2435115 1 0 1
0.0408835 -0.2159994 0.2425214 1 0 1
0.04196592 -0.2116685 0.2380318 1 0 1
0.0447377 -0.2150137 0.2412262 1 0 1
0.04900356 -0.2246301 0.2506897 1 0 1
0.05501044 -0.1999198 0.2250828 1 0 1
0.05579001 -0.1955645 0.2205903 1 0 1
0.058836 -0.1995482 0.2244128 1 0 1
0.06305702 -0.2005437 0.2251037 1 0 1
0.0652198 -0.1945812 0.218869 1 0 1
0.06519174 -0.1881327 0.2123069 1 0 1
0.06932046 -0.1890844 0.2129592 1 0 1
-0.2096584 -0.2055476 0.247094 1 0 1
-0.2108682 -0.2126469 0.2543524 1 0 1
-0.2066133 -0.2086055 0.2499782 1 0 1
-0.2049137 -0.2098022 0.2510722 1 0 1
-0.2016571 -0.2077043 0.2487301 1 0 1
-0.2014847 -0.2121849 0.2532469 1 0 1
-0.1976422 -0.2087498 0.2495131 1 0 1
-0.1998048 -0.2185199 0.259535 1 0 1
-0.1956783 -0.2144079 0.2550972 1 0 1
-0.195961 -0.2202222 0.2609924 1 0 1
-0.1938865 -0.2207342 0.2613679 1 0 1
-0.1901117 -0.2172513 0.2575896 1 0 1
-0.1858217 -0.2124203 0.2524135 1 0 1
-0.1818655 -0.2082359 0.2479136 1 0 1
-0.1798619 -0.2087066 0.2482514 1 0 1
-0.1577038 -0.2012187 0.2391561 1 0 1
-0.1578469 -0.2077043 0.245718 1 0 1
-0.1536341 -0.2143259 0.252114 1 0 1
-0.1500769 -0.2099669 0.2474631 1 0 1
-0.148286 -0.2110296 0.2484118 1 0 1
-0.1464858 -0.2120884 0.2493555 1 0 1
-0.1440565 -0.2110996 0.2481871 1 0 1
-0.1414384 -0.2094207 0.2463083 1 0 1
-0.1402338 -0.2125099 0.2493442 1 0 1
-0.1388018 -0.2149159 0.2516739 1 0 1
-0.1361984 -0.2132172 0.2497757 1 0 1
-0.1341784 -0.2135625 0.2499827 1 0 1
-0.1323403 -0.2145876 0.2508888 1 0 1
-0.1301341 -0.2142368 0.2503794 1 0 1
-0.1279342 -0.2138792 0.2498634 1 0 1
-0.1260842 -0.2148889 0.2507528 1 0 1
-0.1237216 -0.2138314 0.2495181 1 0 1
-0.1215371 -0.2134542 0.248983 1 0 1
-0.1191991 -0.2123814 0.2477345 1 0 1
-0.1168753 -0.2113008 0.2464789 1 0 1
-0.1147183 -0.2109025 0.245924 1 0 1
-0.1124194 -0.2098071 0.244655 1 0 1
-0.1101349 -0.208704 0.243379 1 0 1
-0.1080056 -0.208285 0.2428047 1 0 1
-0.1060196 -0.2085517 0.2429329 1 0 1
-0.1040327 -0.208813 0.2430554 1 0 1
-0.1024313 -0.2111485 0.2452996 1 0 1
-0.1008056 -0.2134815 0.2475394 1 0 1
-0.0990343 -0.2151178 0.2490652 1 0 1
-0.09724642 -0.2167503 0.2505859 1 0 1
-0.09544199 -0.2183794 0.2521017 1 0 1
-0.09351163 -0.219309 0.2529022 1 0 1
-0.09167797 -0.22093 0.2544076 1 0 1
-0.08962487 -0.2211542 0.2544868 1 0 1
-0.08757091 -0.2213729 0.2545601 1 0 1
-0.08560983 -0.2222832 0.2553384 1 0 1
-0.08337092 -0.2210957 0.2539786 1 0 1
-0.081147 -0.2199011 0.2526124 1 0 1
-0.07893806 -0.2186993 0.25124 1 0 1
-0.07690012 -0.2188881 0.2512836 1 0 1
-0.07463945 -0.2169739 0.2491879 1 0 1
-0.07254195 -0.216451 0.2485086 1 0 1
-0.07045175 -0.215922 0.2478233 1 0 1
-0.06855562 -0.217487 0.2492661 1 0 1
-0.2104072 -0.2083113 0.2470141 1 0 1
-0.2103281 -0.2128088 0.2515208 1 0 1
-0.2073479 -0.2113828 0.2498917 1 0 1
-0.2056412 -0.2125849 0.2509837 1 0 1
-0.2039244 -0.2137836 0.2520714 1 0 1
-0.203421 -0.2176261 0.2558921 1 0 1
-0.1992529 -0.2135184 0.2514929 1 0 1
-0.1999079 -0.2200131 0.2580508 1 0 1
-0.1966639 -0.217877 0.2556908 1 0 1
-0.1949015 -0.2190564 0.2567553 1 0 1
-0.1914074 -0.216232 0.2536878 1 0 1
-0.1907808 -0.2200687 0.2574932 1 0 1
-0.185923 -0.2138814 0.2509611 1 0 1
-0.1830681 -0.2123562 0.249239 1 0 1
-0.1810494 -0.2128311 0.2495787 1 0 1
-0.1779564 -0.2106157 0.2471481 1 0 1
-0.1743634 -0.2070436 0.2433231 1 0 1
-0.173939 -0.2115308 0.2477934 1 0 1
-0.1719272 -0.2119802 0.2481074 1 0 1
-0.1678978 -0.2128625 0.2487179 1 0 1
-0.163919 -0.2078853 0.243457 1 0 1
-0.1638607 -0.2137228 0.2493052 1 0 1
-0.1587518 -0.2053323 0.2405451 1 0 1
-0.1598162 -0.214561 0.2498691 1 0 1
-0.1577912 -0.2149719 0.2501423 1 0 1
-0.1580243 -0.2221793 0.2573828 1 0 1
-0.1537359 -0.215777 0.2506712 1 0 1
-0.1508324 -0.2134444 0.2481338 1 0 1
-0.1477435 -0.210418 0.2448879 1 0 1
-0.1457445 -0.2107946 0.2451278 1 0 1
-0.1433305 -0.2097981 0.2439626 1 0 1
-0.1409302 -0.2087932 0.2427898 1 0 1
-0.139738 -0.2118918 0.2458129 1 0 1
-0.1383183 -0.2143046 0.2481327 1 0 1
-0.135726 -0.2125961 0.2462409 1 0 1
-0.1339052 -0.2136272 0.247148 1 0 1
-0.1320752 -0.2146543 0.2480501 1 0 1
-0.1296969 -0.2136112 0.2468396 1 0 1
-0.1275086 -0.2132494 0.2463248 1 0 1
-0.1256706 -0.2142606 0.2472099 1 0 1
-0.1233193 -0.2131962 0.2459793 1 0 1
-0.1213105 -0.2135059 0.2461494 1 0 1
-0.1193005 -0.2138102 0.2463137 1 0 1
-0.1169765 -0.2127246 0.2450632 1 0 1
-0.1148194 -0.2123239 0.2445106 1 0 1
-0.1126688 -0.2119167 0.2439517 1 0 1
-0.1100908 -0.2094213 0.2412704 1 0 1
-0.1079652 -0.2089994 0.2406982 1 0 1
-0.1059833 -0.2092659 0.2408257 1 0 1
-0.1040003 -0.2095271 0.2409475 1 0 1
-0.1022745 -0.2111747 0.2424764 1 0 1
-0.1007824 -0.2142119 0.2454138 1 0 1
-0.09901556 -0.2158536 0.2469335 1 0 1
-0.09711475 -0.2167943 0.2477412 1 0 1
-0.09531865 -0.2184282 0.2492507 1 0 1
-0.09328688 -0.2186618 0.2493404 1 0 1
-0.09146552 -0.2202874 0.2508394 1 0 1
-0.08942423 -0.2205107 0.2509178 1 0 1
-0.08738215 -0.2207285 0.2509904 1 0 1
-0.08533926 -0.2209406 0.2510573 1 0 1
-0.0832057 -0.2204467 0.2504101 1 0 1
-0.08099328 -0.2192457 0.2490489 1 0 1
-0.0787958 -0.2180376 0.2476814 1 0 1
-0.07684792 -0.2189271 0.2484329 1 0 1
-0.07474303 -0.2184079 0.2477618 1 0 1
-0.07264547 -0.2178825 0.2470849 1 0 1
-0.07042242 -0.2159458 0.2449851 1 0 1
-0.06834731 -0.2154074 0.2442964 1 0 1
-0.0660455 -0.21205 0.2407676 1 0 1
-0.211481 -0.2117395 0.2475954 1 0 1
-0.2104289 -0.2142753 0.2500515 1 0 1
-0.2071311 -0.2121803 0.2477504 1 0 1
-0.2054283 -0.2133848 0.2488382 1 0 1
-0.2040254 -0.2152495 0.2506026 1 0 1
-0.2026051 -0.2171126 0.2523639 1 0 1
-0.1999583 -0.2163116 0.2513928 1 0 1
-0.1982198 -0.2175008 0.2524622 1 0 1
-0.1955872 -0.216684 0.2514757 1 0 1
-0.1935492 -0.2171945 0.2518495 1 0 1
-0.1909347 -0.2163607 0.250847 1 0 1
-0.1883331 -0.2155177 0.2498359 1 0 1
-0.1849056 -0.2126517 0.2467569 1 0 1
-0.1823412 -0.2117876 0.2457268 1 0 1
-0.180334 -0.2122604 0.246064 1 0 1
-0.1775201 -0.210706 0.2443301 1 0 1
-0.1736692 -0.2064417 0.2398307 1 0 1
-0.172215 -0.2082407 0.2415237 1 0 1
-0.1707436 -0.2100377 0.2432132 1 0 1
-0.1669783 -0.2057366 0.2386822 1 0 1
-0.1647593 -0.2054875 0.2382857 1 0 1
-0.1635276 -0.2079473 0.2406502 1 0 1
-0.1615465 -0.2083672 0.2409348 1 0 1
-0.1578997 -0.2040174 0.2363625 1 0 1
-0.1582804 -0.2112349 0.2435675 1 0 1
-0.1572025 -0.2143695 0.2466128 1 0 1
-0.1558659 -0.216822 0.2489618 1 0 1
-0.1527257 -0.2138039 0.2457475 1 0 1
-0.1500593 -0.2121416 0.2439135 1 0 1
-0.1474143 -0.2104694 0.242071 1 0 1
-0.1452124 -0.2101592 0.2416129 1 0 1
-0.1434304 -0.2112155 0.2425421 1 0 1
-0.141233 -0.2108929 0.2420717 1 0 1
-0.1398387 -0.2133158 0.2443859 1 0 1
-0.1380289 -0.2143597 0.2453004 1 0 1
-0.1358269 -0.214021 0.2448128 1 0 1
-0.1334435 -0.2129852 0.2436197 1 0 1
-0.1316254 -0.2140135 0.2445173 1 0 1
-0.1290787 -0.2122722 0.242611 1 0 1
-0.1265538 -0.2105217 0.2406968 1 0 1
-0.1245672 -0.2108397 0.2408761 1 0 1
-0.1227475 -0.2118456 0.2417506 1 0 1
-0.1209188 -0.2128471 0.24262 1 0 1
-0.1189206 -0.2131501 0.2427829 1 0 1
-0.116608 -0.2120577 0.2415366 1 0 1
-0.1146151 -0.2123485 0.2416875 1 0 1
-0.1121746 -0.2105456 0.2397257 1 0 1
-0.1099013 -0.2094307 0.2384592 1 0 1
-0.1075015 -0.207611 0.236483 1 0 1
-0.1056724 -0.2085736 0.2373123 1 0 1
-0.1038345 -0.2095318 0.2381363 1 0 1
-0.102117 -0.2111844 0.2396589 1 0 1
-0.1005082 -0.2135328 0.2418805 1 0 1
-0.09899655 -0.2165783 0.2448017 1 0 1
-0.09709997 -0.2175216 0.2456061 1 0 1
-0.09519461 -0.2184604 0.2464051 1 0 1
-0.09317083 -0.2186934 0.2464942 1 0 1
-0.09125197 -0.2196224 0.2472822 1 0 1
-0.08922259 -0.2198448 0.2473598 1 0 1
-0.08719235 -0.2200616 0.2474316 1 0 1
-0.08516134 -0.2202729 0.2474977 1 0 1
-0.08303948 -0.2197754 0.2468527 1 0 1
-0.08083852 -0.218568 0.2454964 1 0 1
-0.07865257 -0.2173535 0.2441339 1 0 1
-0.07663838 -0.2175407 0.2441764 1 0 1
-0.07454914 -0.2170176 0.2435076 1 0 1
-0.07239667 -0.2157834 0.2421272 1 0 1
-0.07012621 -0.2131315 0.2393295 1 0 1
-0.06763607 -0.2076491 0.2337027 1 0 1
-0.2112558 -0.212529 0.2454541 1 0 1
-0.2095658 -0.2137459 0.2465486 1 0 1
-0.206596 -0.2123022 0.2449321 1 0 1
-0.2045874 -0.2128429 0.2453374 1 0 1
-0.2035062 -0.2153769 0.2477715 1 0 1
-0.2014815 -0.2159095 0.2481674 1 0 1
-0.1994544 -0.2164365 0.2485574 1 0 1
-0.1983211 -0.2189658 0.2509826 1 0 1
-0.196278 -0.2194845 0.2513629 1 0 1
-0.1936504 -0.2186554 0.2503739 1 0 1
-0.1910357 -0.2178169 0.2493762 1 0 1
-0.1881502 -0.2162961 0.2476868 1 0 1
-0.1850056 -0.2140903 0.2453038 1 0 1
-0.182441 -0.2132213 0.2442785 1 0 1
-0.1804339 -0.2136948 0.244615 1 0 1
-0.1781562 -0.2134862 0.2442601 1 0 1
-0.175355 -0.2119153 0.2425255 1 0 1
-0.173357 -0.2123689 0.2428422 1 0 1
-0.1716139 -0.2134961 0.2438406 1 0 1
-0.1688486 -0.2118994 0.2420822 1 0 1
-0.1668522 -0.2123348 0.2423805 1 0 1
-0.1653451 -0.2141282 0.2440513 1 0 1
-0.1623705 -0.2118243 0.2415803 1 0 1
-0.1596626 -0.2101917 0.2397893 1 0 1
-0.158146 -0.2119696 0.2414435 1 0 1
-0.1568426 -0.21443 0.2437854 1 0 1
-0.1548353 -0.2148326 0.2440491 1 0 1
-0.1523812 -0.2138569 0.2429224 1 0 1
-0.1505968 -0.2149342 0.2438664 1 0 1
-0.1479436 -0.2132558 0.2420325 1 0 1
-0.145523 -0.2122563 0.2408839 1 0 1
-0.1437374 -0.2133165 0.2418101 1 0 1
-0.1413328 -0.2123024 0.2406477 1 0 1
-0.1395404 -0.2133524 0.2415632 1 0 1
-0.1377386 -0.2143983 0.2424736 1 0 1
-0.1355443 -0.2140559 0.2419874 1 0 1
-0.1329805 -0.212321 0.2401022 1 0 1
-0.1311744 -0.2133506 0.2409955 1 0 1
-0.128999 -0.2129878 0.2404898 1 0 1
-0.1264775 -0.2112288 0.2385831 1 0 1
-0.1243226 -0.2108514 0.2380639 1 0 1
-0.1225111 -0.2118592 0.2389345 1 0 1
-0.1205259 -0.2121662 0.2391017 1 0 1
-0.1185394 -0.2124678 0.2392632 1 0 1
-0.1162383 -0.2113686 0.238021 1 0 1
-0.1142572 -0.2116582 0.2381707 1 0 1
-0.1121259 -0.2112435 0.237615 1 0 1
-0.1098562 -0.2101229 0.2363533 1 0 1
-0.1077422 -0.2096947 0.235785 1 0 1
-0.1057723 -0.2099605 0.235911 1 0 1
-0.1039346 -0.2109219 0.236732 1 0 1
-0.1020882 -0.2118789 0.2375478 1 0 1
-0.1003585 -0.2135334 0.2390594 1 0 1
-0.0986122 -0.2151845 0.2405662 1 0 1
-0.09684937 -0.2168319 0.2420681 1 0 1
-0.09484223 -0.217069 0.2421618 1 0 1
-0.09294416 -0.2180044 0.2429516 1 0 1
-0.09114338 -0.2196395 0.2444379 1 0 1
-0.08901984 -0.2191566 0.2438128 1 0 1
-0.08690332 -0.2186674 0.2431816 1 0 1
-0.08488815 -0.2188773 0.2432468 1 0 1
-0.08278187 -0.2183758 0.2426039 1 0 1
-0.08059631 -0.2171616 0.2412524 1 0 1
-0.07859076 -0.2173538 0.2413002 1 0 1
-0.07658459 -0.2175406 0.2413422 1 0 1
-0.07457774 -0.2177218 0.2413786 1 0 1
-0.07271175 -0.2193131 0.2428151 1 0 1
-0.07036201 -0.2159434 0.2393254 1 0 1
-0.06761111 -0.207606 0.2309087 1 0 1
-0.21168 -0.2146371 0.2446572 1 0 1
-0.2096652 -0.2151926 0.2450758 1 0 1
-0.2070126 -0.2144085 0.2441407 1 0 1
-0.2050004 -0.2149509 0.2445461 1 0 1
-0.2036061 -0.2168257 0.2462965 1 0 1
-0.2018879 -0.218029 0.2473678 1 0 1
-0.1995546 -0.2178867 0.2470809 1 0 1
-0.1981231 -0.2197528 0.2488195 1 0 1
-0.1954938 -0.2189255 0.2478418 1 0 1
-0.192586 -0.217415 0.2461765 1 0 1
-0.1899862 -0.2165681 0.2451808 1 0 1
-0.1873992 -0.2157118 0.2441767 1 0 1
-0.1845452 -0.2141698 0.242483 1 0 1
-0.1825403 -0.2146493 0.2428246 1 0 1
-0.1808058 -0.2158019 0.2438428 1 0 1
-0.1785243 -0.2155921 0.2434905 1 0 1
-0.1762485 -0.215375 0.2431313 1 0 1
-0.1742391 -0.2158318 0.2434491 1 0 1
-0.1722278 -0.216283 0.2437612 1 0 1
-0.1697078 -0.2153632 0.2426968 1 0 1
-0.1674507 -0.2151181 0.2423102 1 0 1
-0.1659364 -0.2169192 0.2439762 1 0 1
-0.1631954 -0.2152918 0.2422036 1 0 1
-0.1604755 -0.2136542 0.240422 1 0 1
-0.1584796 -0.2140667 0.2406956 1 0 1
-0.1567123 -0.2151614 0.241652 1 0 1
-0.1547089 -0.2155638 0.2419145 1 0 1
-0.1522584 -0.2145825 0.2407924 1 0 1
-0.1506971 -0.2163522 0.2424226 1 0 1
-0.1480434 -0.2146662 0.2405964 1 0 1
-0.1458337 -0.2143531 0.2401437 1 0 1
-0.1438374 -0.2147252 0.2403758 1 0 1
-0.141636 -0.214399 0.2399102 1 0 1
-0.1394407 -0.2140659 0.2394382 1 0 1
-0.1376432 -0.2151144 0.2403449 1 0 1
-0.1352608 -0.2140741 0.2391676 1 0 1
-0.1327044 -0.2123303 0.2372894 1 0 1
-0.1307222 -0.2126656 0.2374848 1 0 1
-0.1287386 -0.2129954 0.2376746 1 0 1
-0.1262244 -0.2112274 0.2357749 1 0 1
-0.1240773 -0.2108465 0.2352573 1 0 1
-0.1224424 -0.212555 0.2368193 1 0 1
-0.1202965 -0.2121625 0.2362901 1 0 1
-0.118318 -0.2124634 0.2364505 1 0 1
-0.1161813 -0.2120584 0.2359091 1 0 1
-0.1142042 -0.2123479 0.236058 1 0 1
-0.1120768 -0.2119303 0.2355045 1 0 1
-0.1099561 -0.2115063 0.2349447 1 0 1
-0.1078421 -0.2110757 0.2343788 1 0 1
-0.1060097 -0.2120451 0.2352019 1 0 1
-0.1040349 -0.2123064 0.2353221 1 0 1
-0.1021888 -0.2132665 0.2361347 1 0 1
-0.1003339 -0.2142222 0.2369422 1 0 1
-0.09847011 -0.2151733 0.2377443 1 0 1
-0.09671561 -0.2168257 0.2392399 1 0 1
-0.09471646 -0.2170622 0.2393329 1 0 1
-0.09282652 -0.2179998 0.2401192 1 0 1
-0.09103412 -0.2196398 0.2415993 1 0 1
-0.08902067 -0.2198612 0.2416757 1 0 1
-0.08690802 -0.2193691 0.2410468 1 0 1
-0.08480243 -0.2188707 0.240412 1 0 1
-0.08261339 -0.2176572 0.2390716 1 0 1
-0.08052593 -0.2171458 0.2384249 1 0 1
-0.07852837 -0.2173375 0.2384721 1 0 1
-0.07653017 -0.2175239 0.2385137 1 0 1
-0.07453132 -0.2177046 0.2385496 1 0 1
-0.07267372 -0.2193009 0.23998 1 0 1
-0.07053187 -0.2180497 0.2386045 1 0 1
-0.2114535 -0.2154094 0.2425099 1 0 1
-0.2094426 -0.2159646 0.242927 1 0 1
-0.2071114 -0.2158446 0.242667 1 0 1
-0.2047853 -0.215717 0.2423996 1 0 1
-0.2033952 -0.2175969 0.2441431 1 0 1
-0.2013746 -0.21813 0.2445368 1 0 1
-0.1990488 -0.2179838 0.2442504 1 0 1
-0.1970273 -0.2185047 0.2446316 1 0 1
-0.1947081 -0.2183445 0.2443315 1 0 1
-0.1921028 -0.2175003 0.2433479 1 0 1
-0.1895103 -0.2166468 0.2423557 1 0 1
-0.1869306 -0.2157839 0.241355 1 0 1
-0.1846442 -0.2155913 0.2410242 1 0 1
-0.1826395 -0.2160716 0.2413651 1 0 1
-0.1809052 -0.2172274 0.2423798 1 0 1
-0.1788926 -0.2176976 0.2427098 1 0 1
-0.1763479 -0.2167965 0.2416725 1 0 1
-0.1743387 -0.2172538 0.2419897 1 0 1
-0.1723275 -0.2177056 0.2423011 1 0 1
-0.1698073 -0.2167811 0.2412417 1 0 1
-0.1673004 -0.2158476 0.2401742 1 0 1
-0.1650527 -0.2155925 0.2397824 1 0 1
-0.1623266 -0.2139544 0.2380153 1 0 1
-0.1598599 -0.2129947 0.236924 1 0 1
-0.1576412 -0.2127159 0.2365101 1 0 1
-0.1558895 -0.2138107 0.2374611 1 0 1
-0.1541285 -0.2149017 0.2384075 1 0 1
-0.1519121 -0.214605 0.2379755 1 0 1
-0.15014 -0.2156866 0.2389114 1 0 1
-0.1477127 -0.2146842 0.2377794 1 0 1
-0.145722 -0.2150615 0.2380162 1 0 1
-0.1435221 -0.2147385 0.2375586 1 0 1
-0.1413285 -0.2144087 0.2370945 1 0 1
-0.1389411 -0.2133759 0.2359343 1 0 1
-0.1369596 -0.2137286 0.2361467 1 0 1
-0.1347844 -0.2133783 0.235663 1 0 1
-0.1324274 -0.2123231 0.2344822 1 0 1
-0.1306374 -0.2133563 0.2353674 1 0 1
-0.1286579 -0.213686 0.2355563 1 0 1
-0.1263237 -0.2126099 0.234356 1 0 1
-0.1241765 -0.2122267 0.2338407 1 0 1
-0.1222046 -0.2125382 0.2340117 1 0 1
-0.1202314 -0.2128444 0.234177 1 0 1
-0.1182568 -0.213145 0.2343367 1 0 1
-0.1162812 -0.2134403 0.2344908 1 0 1
-0.1143042 -0.2137302 0.2346392 1 0 1
-0.1121767 -0.2133104 0.234088 1 0 1
-0.110056 -0.2128839 0.2335306 1 0 1
-0.1080835 -0.2131565 0.2336617 1 0 1
-0.1061099 -0.2134235 0.233787 1 0 1
-0.1041352 -0.2136852 0.2339069 1 0 1
-0.1021595 -0.2139415 0.234021 1 0 1
-0.1001829 -0.2141923 0.2341296 1 0 1
-0.09820529 -0.2144377 0.2342325 1 0 1
-0.09634489 -0.2153861 0.2350257 1 0 1
-0.09459001 -0.2170388 0.2365097 1 0 1
-0.09270826 -0.2179786 0.2372924 1 0 1
-0.09081784 -0.2189137 0.2380699 1 0 1
-0.08891874 -0.2198443 0.238842 1 0 1
-0.08681386 -0.219349 0.2382154 1 0 1
-0.08462141 -0.2181363 0.236886 1 0 1
-0.08244385 -0.2169165 0.2355506 1 0 1
-0.08036811 -0.2164014 0.234906 1 0 1
-0.07829955 -0.2158802 0.2342556 1 0 1
