ply
format ascii 1.0
Comment Generated by Floating Hands
element vertex 1257
property double x
property double y
property double z
property uchar red
property uchar green
property uchar blue
end_header
0.1281971 -0.03888429 0.09705224 1 0 1
-0.1301568 -0.2143991 0.325377 1 0 1
-0.1285224 -0.2167334 0.3278094 1 0 1
-0.1255916 -0.2145811 0.3250155 1 0 1
-0.1237571 -0.2162661 0.3266901 1 0 1
-0.1215577 -0.216664 0.3268661 1 0 1
-0.1195269 -0.2176989 0.3277825 1 0 1
-0.1168224 -0.2161555 0.3257041 1 0 1
-0.1144642 -0.2158906 0.3251124 1 0 1
-0.1122709 -0.2162636 0.3252612 1 0 1
-0.1097672 -0.2153399 0.3239075 1 0 1
-0.1071272 -0.2137618 0.3217982 1 0 1
-0.1050961 -0.2147612 0.3226745 1 0 1
-0.1029133 -0.215109 0.3227962 1 0 1
-0.1004513 -0.2141551 0.3214136 1 0 1
-0.09840896 -0.2151388 0.3222708 1 0 1
-0.09609534 -0.2148197 0.3216235 1 0 1
-0.09404296 -0.2157933 0.322468 1 0 1
-0.09173501 -0.2154617 0.3218073 1 0 1
-0.08955326 -0.2157743 0.3218894 1 0 1
-0.0873705 -0.216081 0.321965 1 0 1
-0.08529843 -0.2170342 0.322784 1 0 1
-0.08300218 -0.2166776 0.3220966 1 0 1
-0.08092042 -0.2176205 0.3229028 1 0 1
-0.07863019 -0.2172515 0.3222022 1 0 1
-0.07634691 -0.2168759 0.3214948 1 0 1
-0.07407064 -0.2164934 0.3207808 1 0 1
-0.07197777 -0.2174145 0.3215612 1 0 1
-0.06970786 -0.2170198 0.320834 1 0 1
-0.06776639 -0.2192423 0.3231025 1 0 1
-0.06564788 -0.2201489 0.3238634 1 0 1
-0.06359334 -0.2217077 0.3253684 1 0 1
-0.06145395 -0.222605 0.3261163 1 0 1
-0.05917682 -0.2221821 0.3253565 1 0 1
-0.05721063 -0.2250429 0.3283426 1 0 1
0.1055729 -0.06340309 0.1257175 1 0 1
0.1133972 -0.07392072 0.1366255 1 0 1
0.1150598 -0.07427172 0.1368168 1 0 1
0.1171239 -0.07525022 0.1376669 1 0 1
0.1172007 -0.07306273 0.1351881 1 0 1
0.1180608 -0.0721387 0.134039 1 0 1
0.1185045 -0.07058277 0.132228 1 0 1
0.1189316 -0.06902676 0.1304189 1 0 1
0.1189279 -0.06684233 0.1279536 1 0 1
0.1184826 -0.06403216 0.1248363 1 0 1
0.1184281 -0.06185241 0.1223826 1 0 1
0.1174998 -0.05842308 0.118626 1 0 1
0.1178197 -0.05687414 0.1168381 1 0 1
0.1172588 -0.05407766 0.1137506 1 0 1
0.1175389 -0.0525314 0.1119708 1 0 1
0.1173633 -0.05036363 0.1095454 1 0 1
0.1180502 -0.04944061 0.108419 1 0 1
0.1187278 -0.04851637 0.1072923 1 0 1
0.1193963 -0.04759095 0.1061654 1 0 1
0.1205091 -0.04728259 0.1056802 1 0 1
0.1211628 -0.04635382 0.1045514 1 0 1
0.1218073 -0.045424 0.1034225 1 0 1
0.1219787 -0.0438778 0.1016562 1 0 1
0.1226014 -0.04294683 0.1005287 1 0 1
0.123215 -0.04201487 0.09940124 1 0 1
0.1242939 -0.04169409 0.09890633 1 0 1
0.1248927 -0.04075916 0.09777737 1 0 1
0.1259637 -0.04043339 0.09727785 1 0 1
0.1270326 -0.04010459 0.09677517 1 0 1
0.1280992 -0.0397728 0.09626941 1 0 1
-0.1295758 -0.2134691 0.3209497 1 0 1
-0.1274004 -0.2138809 0.3211432 1 0 1
-0.1250415 -0.2136435 0.3205869 1 0 1
-0.1235793 -0.2166209 0.3237419 1 0 1
-0.1212136 -0.2163729 0.3231727 1 0 1
-0.1193652 -0.218055 0.3248293 1 0 1
-0.116834 -0.2171485 0.3235022 1 0 1
-0.1146421 -0.2175277 0.323657 1 0 1
-0.1122901 -0.2172536 0.3230602 1 0 1
-0.1099446 -0.2169724 0.3224563 1 0 1
-0.1073037 -0.2153861 0.3203541 1 0 1
-0.104979 -0.2150897 0.3197358 1 0 1
-0.1029472 -0.2160871 0.3206025 1 0 1
-0.1004886 -0.2151272 0.3192244 1 0 1
-0.09817974 -0.2148108 0.3185854 1 0 1
-0.09614059 -0.2157917 0.3194329 1 0 1
-0.09396492 -0.2161155 0.3195274 1 0 1
-0.09154086 -0.2151271 0.3181215 1 0 1
-0.08949068 -0.2160922 0.3189498 1 0 1
-0.08743171 -0.2170528 0.319772 1 0 1
-0.08491609 -0.2153892 0.3175983 1 0 1
-0.08274716 -0.215683 0.31766 1 0 1
-0.0807856 -0.217283 0.3192104 1 0 1
-0.07850691 -0.2169101 0.3185117 1 0 1
-0.07623511 -0.2165305 0.3178063 1 0 1
-0.07415517 -0.2174591 0.3185899 1 0 1
-0.07188961 -0.2170672 0.3178715 1 0 1
-0.06971579 -0.2173269 0.3178943 1 0 1
-0.06770249 -0.2188988 0.3194066 1 0 1
-0.06559614 -0.2198075 0.3201645 1 0 1
-0.06362694 -0.2220307 0.3224118 1 0 1
-0.06156469 -0.2235908 0.3239048 1 0 1
-0.05942115 -0.2244861 0.324643 1 0 1
0.1128955 -0.07429819 0.1350585 1 0 1
0.1153389 -0.07592531 0.1365771 1 0 1
0.11701 -0.07627285 0.1367583 1 0 1
0.1174874 -0.07471106 0.134949 1 0 1
0.1179482 -0.07314904 0.1331414 1 0 1
0.1183926 -0.07158692 0.1313359 1 0 1
0.1188204 -0.07002474 0.1295323 1 0 1
0.1188176 -0.06783129 0.127075 1 0 1
0.1187913 -0.06563962 0.1246227 1 0 1
0.1191625 -0.06407946 0.1228285 1 0 1
0.118243 -0.06063353 0.1190821 1 0 1
0.1181424 -0.05844882 0.1166469 1 0 1
0.1180183 -0.05626638 0.1142171 1 0 1
0.1183061 -0.05471211 0.1124397 1 0 1
0.1181386 -0.05253341 0.1100194 1 0 1
0.1188329 -0.05160522 0.1088929 1 0 1
0.1190719 -0.0500527 0.1071235 1 0 1
0.1201939 -0.04974516 0.106639 1 0 1
0.1204075 -0.0481922 0.1048724 1 0 1
0.1215182 -0.04788034 0.1043844 1 0 1
0.1221666 -0.04694622 0.1032568 1 0 1
0.1223421 -0.04539283 0.1014944 1 0 1
0.1229688 -0.04445759 0.1003683 1 0 1
0.1231156 -0.04290523 0.09861056 1 0 1
0.1241945 -0.04258404 0.09811604 1 0 1
0.1247936 -0.0416458 0.09699 1 0 1
0.1253837 -0.04070668 0.09586406 1 0 1
0.1264491 -0.04037855 0.09536344 1 0 1
0.1275124 -0.04004738 0.09485967 1 0 1
-0.1323139 -0.2159608 0.320777 1 0 1
-0.1299425 -0.2157354 0.3202372 1 0 1
-0.127391 -0.214857 0.3189495 1 0 1
-0.1250358 -0.2146167 0.3183948 1 0 1
-0.1232221 -0.2163109 0.3200564 1 0 1
-0.1210422 -0.2167065 0.3202298 1 0 1
-0.119373 -0.2190423 0.3226217 1 0 1
-0.1171787 -0.2194285 0.3227829 1 0 1
-0.1146572 -0.218509 0.321453 1 0 1
-0.1121499 -0.2175812 0.3201154 1 0 1
-0.109812 -0.2172964 0.319513 1 0 1
-0.1068755 -0.2143968 0.3159316 1 0 1
-0.1042714 -0.2127904 0.3138278 1 0 1
-0.1022633 -0.2137875 0.3146903 1 0 1
-0.09968794 -0.2121649 0.3125719 1 0 1
-0.09767755 -0.2131507 0.3134214 1 0 1
-0.09565824 -0.2141321 0.3142649 1 0 1
-0.09375799 -0.2157647 0.3158466 1 0 1
-0.09159308 -0.2160816 0.3159337 1 0 1
-0.08966729 -0.2177063 0.3175033 1 0 1
-0.08749255 -0.2180129 0.3175777 1 0 1
-0.08509229 -0.2169984 0.3161562 1 0 1
-0.08292344 -0.2172926 0.3162175 1 0 1
-0.08075373 -0.2175813 0.3162722 1 0 1
-0.07858311 -0.2178642 0.3163206 1 0 1
-0.07641169 -0.2181415 0.3163624 1 0 1
-0.07433214 -0.2190734 0.317143 1 0 1
-0.07206639 -0.2186791 0.3164268 1 0 1
-0.06980773 -0.218278 0.315704 1 0 1
-0.06771813 -0.2191938 0.3164653 1 0 1
-0.06577417 -0.2214293 0.3187109 1 0 1
-0.06365971 -0.2223365 0.3194594 1 0 1
-0.06146758 -0.2225757 0.319456 1 0 1
-0.05953605 -0.2254631 0.3224274 1 0 1
-0.05775667 -0.2303397 0.3276279 1 0 1
0.1132639 -0.07374538 0.1323592 1 0 1
0.1149166 -0.07409956 0.132545 1 0 1
0.1161751 -0.07381099 0.1320656 1 0 1
0.1170287 -0.07288215 0.1309252 1 0 1
0.117873 -0.07195152 0.129784 1 0 1
0.118708 -0.07101916 0.1286419 1 0 1
0.1195337 -0.07008506 0.1274991 1 0 1
0.12035 -0.06914929 0.1263555 1 0 1
0.1203154 -0.06694702 0.1239107 1 0 1
0.1194082 -0.06348362 0.1201733 1 0 1
0.1188913 -0.06065655 0.1170943 1 0 1
0.1187753 -0.05846323 0.1146696 1 0 1
0.1186358 -0.05627221 0.1122504 1 0 1
0.1184729 -0.05408355 0.1098367 1 0 1
0.1196133 -0.05377807 0.109353 1 0 1
0.11986 -0.05221752 0.1075862 1 0 1
0.1200906 -0.0506577 0.1058222 1 0 1
0.1207576 -0.0497226 0.1046979 1 0 1
0.1214156 -0.04878634 0.1035734 1 0 1
0.1220643 -0.0478489 0.1024488 1 0 1
0.1222405 -0.04628942 0.1006919 1 0 1
0.1228675 -0.0453509 0.09956872 1 0 1
0.1234853 -0.04441134 0.09844553 1 0 1
0.1240939 -0.04347079 0.0973224 1 0 1
0.1251707 -0.04314617 0.09682516 1 0 1
0.1257645 -0.04220269 0.09570053 1 0 1
0.1263493 -0.0412583 0.09457603 1 0 1
0.1274126 -0.04092676 0.09407271 1 0 1
-0.1311319 -0.213051 0.3141531 1 0 1
-0.1291679 -0.214114 0.3150878 1 0 1
-0.1268217 -0.2138755 0.3145409 1 0 1
-0.1246644 -0.2142794 0.3147252 1 0 1
-0.1226843 -0.2153278 0.3156415 1 0 1
-0.1205201 -0.2157211 0.3158131 1 0 1
-0.1188674 -0.2180633 0.3181956 1 0 1
-0.1166888 -0.2184474 0.318355 1 0 1
-0.1141822 -0.2175201 0.3170286 1 0 1
-0.11169 -0.2165845 0.3156947 1 0 1
-0.1092119 -0.2156406 0.3143533 1 0 1
-0.106445 -0.2133788 0.3115235 1 0 1
-0.1040033 -0.2124172 0.3101669 1 0 1
-0.1015759 -0.2114475 0.3088029 1 0 1
-0.09958268 -0.21244 0.309655 1 0 1
-0.09744447 -0.2127707 0.3097598 1 0 1
-0.09556939 -0.2144115 0.3113411 1 0 1
-0.0938059 -0.2167077 0.3136583 1 0 1
-0.09164499 -0.2170245 0.3137448 1 0 1
-0.08960349 -0.2179953 0.3145668 1 0 1
-0.08720363 -0.216981 0.3131563 1 0 1
-0.08504365 -0.2172803 0.3132234 1 0 1
-0.08299139 -0.2182353 0.3140263 1 0 1
-0.08093049 -0.2191856 0.3148229 1 0 1
-0.07865911 -0.2188067 0.3141284 1 0 1
-0.07649168 -0.219084 0.3141698 1 0 1
-0.07432345 -0.2193555 0.3142047 1 0 1
-0.07197618 -0.2182939 0.3127479 1 0 1
-0.06972905 -0.217889 0.3120272 1 0 1
-0.06757031 -0.2181422 0.3120427 1 0 1
-0.06564308 -0.2203849 0.31428 1 0 1
-0.06354471 -0.2212936 0.3150255 1 0 1
-0.06143791 -0.2221975 0.3157645 1 0 1
-0.05938829 -0.2237628 0.3172397 1 0 1
-0.05775427 -0.2299917 0.3239071 1 0 1
0.1140113 -0.07381783 0.1303265 1 0 1
0.1156616 -0.07417108 0.1305064 1 0 1
0.1173171 -0.07451915 0.1306799 1 0 1
0.1181653 -0.07358447 0.1295403 1 0 1
0.1185945 -0.07201001 0.1277477 1 0 1
0.1194205 -0.07107269 0.1266079 1 0 1
0.1202372 -0.07013365 0.1254673 1 0 1
0.1202036 -0.06792239 0.1230305 1 0 1
0.1197221 -0.06507865 0.1199527 1 0 1
0.1196378 -0.06287231 0.1175278 1 0 1
0.1195299 -0.06066821 0.1151083 1 0 1
0.1193986 -0.0584663 0.1126942 1 0 1
0.1192438 -0.0562668 0.1102857 1 0 1
0.1203913 -0.05595905 0.1097994 1 0 1
0.1202003 -0.05376164 0.1073977 1 0 1
0.1204351 -0.05219471 0.1056377 1 0 1
0.1202011 -0.05000171 0.1032462 1 0 1
0.1208558 -0.04906315 0.1021262 1 0 1
0.1215014 -0.04812349 0.1010061 1 0 1
0.1221378 -0.04718277 0.09988593 1 0 1
0.1232316 -0.04686377 0.09939381 1 0 1
0.1238532 -0.04591996 0.09827201 1 0 1
0.1244657 -0.04497512 0.09715022 1 0 1
0.125069 -0.04402934 0.09602853 1 0 1
0.1261437 -0.04370125 0.09552858 1 0 1
0.1262483 -0.04213492 0.09378536 1 0 1
0.1273116 -0.04180295 0.09328242 1 0 1
-0.1281998 -0.2118073 0.3092232 1 0 1
-0.1266237 -0.2141683 0.3116175 1 0 1
-0.1246571 -0.2152236 0.3125361 1 0 1
-0.1226813 -0.2162748 0.3134488 1 0 1
-0.120346 -0.2160143 0.3128833 1 0 1
-0.1185308 -0.2177099 0.3145203 1 0 1
-0.1163639 -0.2180926 0.3146784 1 0 1
-0.1138686 -0.2171581 0.3133559 1 0 1
-0.1112278 -0.2155589 0.3112886 1 0 1
-0.109232 -0.2165783 0.3121636 1 0 1
-0.1064678 -0.214305 0.3093435 1 0 1
-0.1041775 -0.2139959 0.3087294 1 0 1
-0.1018938 -0.21368 0.3081084 1 0 1
-0.09947639 -0.2126976 0.3067422 1 0 1
-0.09761877 -0.2143481 0.3083235 1 0 1
-0.09574445 -0.2159951 0.3098991 1 0 1
-0.09372495 -0.2169777 0.31073 1 0 1
-0.09169658 -0.2179558 0.3115548 1 0 1
-0.08965939 -0.2189294 0.3123735 1 0 1
-0.08737975 -0.2185724 0.3117073 1 0 1
-0.08510697 -0.2182086 0.3110344 1 0 1
-0.08305909 -0.2191663 0.311834 1 0 1
-0.0810025 -0.2201195 0.3126276 1 0 1
-0.07873484 -0.2197376 0.311935 1 0 1
-0.07657141 -0.2200148 0.311976 1 0 1
-0.07440723 -0.2202864 0.3120105 1 0 1
-0.07206333 -0.2192189 0.3105585 1 0 1
-0.06981993 -0.2188111 0.30984 1 0 1
-0.06774682 -0.2197317 0.3105952 1 0 1
-0.06566527 -0.2206476 0.3113441 1 0 1
-0.0635752 -0.2215586 0.3120865 1 0 1
-0.06161636 -0.2238026 0.3143027 1 0 1
-0.05963342 -0.2260434 0.3165125 1 0 1
0.1118601 -0.07380357 0.1285842 1 0 1
0.1138963 -0.07480944 0.1294245 1 0 1
0.1155463 -0.07516517 0.1296022 1 0 1
0.1176037 -0.0761583 0.1304257 1 0 1
0.11805 -0.07457781 0.1286367 1 0 1
0.1188893 -0.07363808 0.1274992 1 0 1
0.1201323 -0.07333656 0.1270088 1 0 1
0.1205399 -0.07175349 0.1252218 1 0 1
0.120931 -0.07017052 0.1234369 1 0 1
0.1208819 -0.06795043 0.1210106 1 0 1
0.1208093 -0.06573246 0.1185895 1 0 1
0.1207131 -0.06351661 0.1161738 1 0 1
0.1205934 -0.061303 0.1137634 1 0 1
0.1204502 -0.0590917 0.1113585 1 0 1
0.1211668 -0.05814807 0.1102319 1 0 1
0.120984 -0.05593984 0.1078353 1 0 1
0.1207778 -0.05373421 0.1054446 1 0 1
0.1205484 -0.05153125 0.1030597 1 0 1
0.121207 -0.05058846 0.1019412 1 0 1
0.1213973 -0.04901684 0.1001939 1 0 1
0.122034 -0.04807286 0.09907669 1 0 1
0.1231278 -0.04775349 0.09858494 1 0 1
0.124689 -0.04805572 0.0987139 1 0 1
0.1248357 -0.04648193 0.0969696 1 0 1
0.1259195 -0.04615441 0.09646997 1 0 1
0.126521 -0.04520228 0.09534808 1 0 1
0.1266298 -0.0436288 0.0936088 1 0 1
0.1272096 -0.04267593 0.09248878 1 0 1
-0.1304562 -0.205378 0.2993352 1 0 1
-0.1307033 -0.2136228 0.3083154 1 0 1
-0.1281827 -0.2127287 0.3070452 1 0 1
-0.1262374 -0.2137895 0.3079654 1 0 1
-0.1242829 -0.2148461 0.3088799 1 0 1
-0.1219604 -0.2145868 0.3083219 1 0 1
-0.1194688 -0.2136641 0.3070234 1 0 1
-0.1180208 -0.2166764 0.3101206 1 0 1
-0.1158696 -0.2170568 0.310277 1 0 1
-0.1135532 -0.2167731 0.3096926 1 0 1
-0.1114031 -0.2171416 0.3098359 1 0 1
-0.1090956 -0.2168446 0.3092378 1 0 1
-0.1064903 -0.2152196 0.3071625 1 0 1
-0.1040553 -0.2142464 0.3058148 1 0 1
-0.1016347 -0.2132651 0.30446 1 0 1
-0.09922853 -0.2122758 0.303098 1 0 1
-0.09738336 -0.2139305 0.3046729 1 0 1
-0.09512328 -0.2135913 0.3040337 1 0 1
-0.09325644 -0.2152379 0.3055969 1 0 1
-0.09124803 -0.2162165 0.3064178 1 0 1
-0.08935186 -0.2178559 0.3079694 1 0 1
-0.08720481 -0.2181602 0.3080416 1 0 1
-0.08505676 -0.2184589 0.3081074 1 0 1
-0.08301715 -0.2194188 0.3089039 1 0 1
-0.0809688 -0.2203743 0.3096941 1 0 1
-0.07870875 -0.219989 0.3090037 1 0 1
-0.07645571 -0.2195971 0.3083068 1 0 1
-0.07420968 -0.2191986 0.3076034 1 0 1
-0.07179118 -0.2174544 0.3054187 1 0 1
-0.06948126 -0.2163718 0.3039648 1 0 1
-0.06735023 -0.2166225 0.3039794 1 0 1
-0.06529652 -0.2175385 0.3047251 1 0 1
-0.0632343 -0.2184498 0.3054645 1 0 1
-0.06130399 -0.2206998 0.3076726 1 0 1
-0.05928336 -0.2222745 0.3091367 1 0 1
0.1101805 -0.07219467 0.1250686 1 0 1
0.1129909 -0.0745033 0.1272142 1 0 1
0.1158282 -0.07680182 0.1293452 1 0 1
0.1182904 -0.07844485 0.130812 1 0 1
0.1191501 -0.0775011 0.129674 1 0 1
0.1200005 -0.07655561 0.1285352 1 0 1
0.1212543 -0.07625112 0.128041 1 0 1
0.1216733 -0.07465927 0.1262553 1 0 1
0.121656 -0.07242653 0.1238292 1 0 1
0.1216151 -0.07019573 0.1214082 1 0 1
0.1219776 -0.06860617 0.119632 1 0 1
0.1218931 -0.06637865 0.11722 1 0 1
0.1222192 -0.06479066 0.1154501 1 0 1
0.1220912 -0.0625667 0.1130474 1 0 1
0.1219399 -0.0603451 0.1106504 1 0 1
0.1217652 -0.05812601 0.1082591 1 0 1
0.1211188 -0.05527599 0.1052428 1 0 1
0.1204421 -0.05243063 0.1022355 1 0 1
0.1215564 -0.05211615 0.1017475 1 0 1
0.121292 -0.04990695 0.0993782 1 0 1
0.1223915 -0.04958927 0.09888849 1 0 1
0.1230229 -0.04863994 0.09777264 1 0 1
0.1241146 -0.04831712 0.09727812 1 0 1
0.1247312 -0.04736472 0.0961607 1 0 1
0.125815 -0.04703676 0.09566149 1 0 1
0.1268966 -0.04670571 0.09515908 1 0 1
0.1270095 -0.04512513 0.09342377 1 0 1
0.1275931 -0.04416791 0.09230513 1 0 1
-0.1288356 -0.2010202 0.2913525 1 0 1
-0.1291213 -0.2092927 0.3002974 1 0 1
-0.1275913 -0.2116694 0.3026773 1 0 1
-0.125662 -0.2127306 0.3035929 1 0 1
-0.1239069 -0.2144456 0.3052332 1 0 1
-0.1215959 -0.214182 0.3046764 1 0 1
-0.1192911 -0.2139114 0.3041126 1 0 1
-0.1175086 -0.2156141 0.3057357 1 0 1
-0.115541 -0.2166531 0.306622 1 0 1
-0.1129076 -0.2150422 0.3045752 1 0 1
-0.1109375 -0.2160701 0.3054488 1 0 1
-0.1086454 -0.2157682 0.3048519 1 0 1
-0.1063598 -0.2154594 0.3042481 1 0 1
-0.1040807 -0.2151438 0.3036375 1 0 1
-0.1018083 -0.2148214 0.3030202 1 0 1
-0.09940159 -0.2138268 0.301663 1 0 1
-0.09755722 -0.2154878 0.3032321 1 0 1
-0.09516388 -0.2144797 0.3018616 1 0 1
-0.09330173 -0.216132 0.3034188 1 0 1
-0.09129766 -0.2171133 0.3042365 1 0 1
-0.08940618 -0.2187584 0.3057823 1 0 1
-0.08714567 -0.2183938 0.3051197 1 0 1
-0.08523273 -0.2200305 0.3066534 1 0 1
-0.08297423 -0.2196542 0.3059781 1 0 1
-0.08093417 -0.2206118 0.306765 1 0 1
-0.07868176 -0.2202231 0.3060766 1 0 1
-0.07633843 -0.2191564 0.3046472 1 0 1
-0.07400998 -0.2180821 0.3032112 1 0 1
-0.07178646 -0.2176725 0.3025033 1 0 1
-0.06948388 -0.2165836 0.3010543 1 0 1
-0.06736078 -0.2168338 0.3010684 1 0 1
-0.06539371 -0.2184259 0.3025459 1 0 1
-0.06326143 -0.2186658 0.3025475 1 0 1
-0.0613401 -0.2209239 0.3047472 1 0 1
0.1132687 -0.07613186 0.1269597 1 0 1
0.1165062 -0.07908966 0.1297276 1 0 1
0.1189746 -0.08073911 0.131184 1 0 1
0.1198419 -0.07979047 0.1300463 1 0 1
0.1211086 -0.0794865 0.1295518 1 0 1
0.1223731 -0.079179 0.1290537 1 0 1
0.1228036 -0.07757849 0.1272693 1 0 1
0.1223785 -0.07469029 0.1242073 1 0 1
0.1227689 -0.07309177 0.1224301 1 0 1
0.1222894 -0.07020933 0.1193812 1 0 1
0.1222095 -0.06797196 0.1169759 1 0 1
0.1225398 -0.066377 0.1152102 1 0 1
0.1232911 -0.06542165 0.1140794 1 0 1
0.1231514 -0.06318833 0.111686 1 0 1
0.1225439 -0.06032017 0.1086689 1 0 1
0.121458 -0.05682015 0.1050324 1 0 1
0.1212377 -0.05459745 0.1026609 1 0 1
0.121904 -0.05364618 0.1015452 1 0 1
0.1216442 -0.05142714 0.09918261 1 0 1
0.1222851 -0.05047567 0.09806985 1 0 1
0.1233824 -0.05015445 0.0975773 1 0 1
0.1244776 -0.0498302 0.09708162 1 0 1
0.1246256 -0.04824426 0.09534848 1 0 1
0.1261853 -0.04854409 0.09546514 1 0 1
0.1272703 -0.0482116 0.09496155 1 0 1
0.1278703 -0.04724994 0.09384257 1 0 1
0.1284612 -0.04628736 0.09272368 1 0 1
-0.1351204 -0.215257 0.3042694 1 0 1
-0.1321919 -0.2130509 0.3015699 1 0 1
-0.1296836 -0.2121501 0.3003145 1 0 1
-0.127764 -0.2132188 0.3012325 1 0 1
-0.1256473 -0.2136233 0.3014175 1 0 1
-0.123713 -0.2146832 0.3023239 1 0 1
-0.1214096 -0.2144158 0.3017685 1 0 1
-0.1191124 -0.2141416 0.3012062 1 0 1
-0.1171661 -0.2151861 0.3020942 1 0 1
-0.1148739 -0.2148994 0.3015187 1 0 1
-0.1124237 -0.2139415 0.3002072 1 0 1
-0.1106301 -0.2156349 0.301806 1 0 1
-0.1083495 -0.2153289 0.3012105 1 0 1
-0.1062282 -0.2156821 0.3013381 1 0 1
-0.1038078 -0.214696 0.299999 1 0 1
-0.1018371 -0.2157043 0.300844 1 0 1
-0.09929258 -0.2140359 0.2987608 1 0 1
-0.09731947 -0.2150331 0.2995931 1 0 1
-0.09507071 -0.2146874 0.2989578 1 0 1
-0.09308767 -0.2156747 0.2997778 1 0 1
-0.09109578 -0.2166577 0.300592 1 0 1
-0.08909508 -0.2176362 0.3014002 1 0 1
-0.08708557 -0.2186102 0.3022023 1 0 1
-0.08495346 -0.2189076 0.3022667 1 0 1
-0.08282043 -0.2191994 0.3023249 1 0 1
-0.08079253 -0.2201588 0.3031085 1 0 1
-0.07855171 -0.2197662 0.3024222 1 0 1
-0.07621962 -0.2186927 0.3009974 1 0 1
-0.07390239 -0.2176116 0.2995661 1 0 1
-0.0716904 -0.2171982 0.2988603 1 0 1
-0.06948559 -0.2167782 0.2981484 1 0 1
-0.0672879 -0.2163517 0.2974299 1 0 1
-0.06533331 -0.2179486 0.2989016 1 0 1
-0.06328775 -0.2188645 0.2996351 1 0 1
-0.06130451 -0.2204533 0.3010943 1 0 1
-0.05917123 -0.2206824 0.3010829 1 0 1
0.1187722 -0.0839927 0.1326783 1 0 1
0.1204589 -0.08434312 0.1328304 1 0 1
0.120936 -0.08273764 0.1310471 1 0 1
0.1222135 -0.08243074 0.1305488 1 0 1
0.1226648 -0.08082327 0.1287666 1 0 1
0.1230995 -0.07921588 0.1269865 1 0 1
0.1230986 -0.07696173 0.1245712 1 0 1
0.1239194 -0.07600113 0.1234325 1 0 1
0.1230258 -0.0724594 0.1197557 1 0 1
0.1238137 -0.07149917 0.1186216 1 0 1
0.124159 -0.06989446 0.1168556 1 0 1
0.1244878 -0.06829005 0.115092 1 0 1
0.1239192 -0.06540392 0.112074 1 0 1
0.1237642 -0.06316227 0.1096916 1 0 1
0.1226906 -0.05964488 0.1060641 1 0 1
0.1220307 -0.05677215 0.1030724 1 0 1
0.1227044 -0.05581577 0.1019567 1 0 1
0.1224527 -0.05358583 0.09959921 1 0 1
0.1226394 -0.05199393 0.09786706 1 0 1
0.1237401 -0.05167135 0.09737337 1 0 1
0.1243701 -0.05071248 0.09626039 1 0 1
0.1245188 -0.04912056 0.09453294 1 0 1
0.1260782 -0.04942276 0.09464738 1 0 1
0.1271632 -0.04908986 0.0941442 1 0 1
0.1277636 -0.04812495 0.09302819 1 0 1
0.1283547 -0.04715915 0.09191235 1 0 1
-0.1340734 -0.2128538 0.2984671 1 0 1
-0.1313666 -0.2112929 0.296499 1 0 1
-0.1292685 -0.2117061 0.2966946 1 0 1
-0.1273609 -0.212776 0.2976084 1 0 1
-0.125256 -0.2131789 0.2977917 1 0 1
-0.1231497 -0.2135763 0.2979689 1 0 1
-0.1208616 -0.213304 0.2974145 1 0 1
-0.1185798 -0.2130246 0.2968529 1 0 1
-0.1166494 -0.2140698 0.2977366 1 0 1
-0.1143726 -0.213778 0.2971621 1 0 1
-0.1121022 -0.2134793 0.2965809 1 0 1
-0.1104819 -0.2158448 0.2988998 1 0 1
-0.108523 -0.2168719 0.29976 1 0 1
-0.1062488 -0.2165566 0.2991598 1 0 1
-0.1039811 -0.2162344 0.2985529 1 0 1
-0.1018654 -0.2165758 0.298667 1 0 1
-0.09932398 -0.2148987 0.2965911 1 0 1
-0.09708007 -0.2145556 0.295964 1 0 1
-0.09484284 -0.2142057 0.2953303 1 0 1
-0.09300178 -0.2158674 0.2968752 1 0 1
-0.09089224 -0.2161791 0.2969574 1 0 1
-0.08890373 -0.2171593 0.2977619 1 0 1
-0.08690648 -0.218135 0.2985606 1 0 1
-0.08467201 -0.2177562 0.2978954 1 0 1
-0.08222386 -0.2160197 0.2957655 1 0 1
-0.08022383 -0.2169788 0.2965454 1 0 1
-0.07811265 -0.2172567 0.2965899 1 0 1
-0.07590207 -0.216852 0.295899 1 0 1
-0.07369856 -0.2164407 0.2952017 1 0 1
-0.07159282 -0.216701 0.2952274 1 0 1
-0.06948637 -0.2169557 0.295247 1 0 1
-0.06737928 -0.2172049 0.2952603 1 0 1
-0.06535044 -0.2181278 0.2959968 1 0 1
-0.06338821 -0.2197261 0.2974567 1 0 1
-0.06119626 -0.2192795 0.2967219 1 0 1
0.1190467 -0.08565231 0.1323783 1 0 1
0.1207366 -0.08600435 0.1325267 1 0 1
0.122027 -0.08569804 0.1320283 1 0 1
0.1237233 -0.08604029 0.132165 1 0 1
0.123778 -0.08377206 0.1297454 1 0 1
0.1242241 -0.08215593 0.1279666 1 0 1
0.1238161 -0.07924078 0.1249207 1 0 1
0.1242221 -0.07762659 0.123149 1 0 1
0.1237596 -0.07471714 0.1201162 1 0 1
0.1249846 -0.07439864 0.1196124 1 0 1
0.1253412 -0.07278508 0.1178476 1 0 1
0.1256814 -0.07117184 0.1160852 1 0 1
0.1251248 -0.06827121 0.1130737 1 0 1
0.1249814 -0.06601784 0.1106951 1 0 1
0.1234728 -0.06184106 0.1064538 1 0 1
0.1232721 -0.05959573 0.1040912 1 0 1
0.1235024 -0.05799319 0.1023542 1 0 1
0.1232587 -0.05575239 0.1000019 1 0 1
0.1229918 -0.05351454 0.09765574 1 0 1
0.1236313 -0.05255353 0.0965458 1 0 1
0.1242616 -0.05159152 0.09543585 1 0 1
0.1248828 -0.05062842 0.09432591 1 0 1
0.12597 -0.05029817 0.09382629 1 0 1
0.1270551 -0.04996481 0.09332351 1 0 1
0.1281379 -0.04962838 0.09281762 1 0 1
0.1287329 -0.04865827 0.09170318 1 0 1
-0.1348566 -0.2163747 0.2991765 1 0 1
-0.1313378 -0.2121547 0.2943327 1 0 1
-0.12944 -0.213232 0.2952488 1 0 1
-0.1271483 -0.2129754 0.2947158 1 0 1
-0.1246747 -0.2120461 0.2934539 1 0 1
-0.1225839 -0.2124413 0.2936291 1 0 1
-0.1203111 -0.2121638 0.2930754 1 0 1
-0.1180447 -0.2118793 0.292515 1 0 1
-0.1163032 -0.2135936 0.2941176 1 0 1
-0.1143758 -0.2146359 0.2949915 1 0 1
-0.1121092 -0.2143343 0.2944121 1 0 1
-0.1103327 -0.2160376 0.2959982 1 0 1
-0.1082247 -0.2163954 0.2961304 1 0 1
-0.1058085 -0.215404 0.2948071 1 0 1
-0.1035562 -0.215077 0.2942015 1 0 1
-0.1014562 -0.2154164 0.2943142 1 0 1
-0.09907138 -0.2144026 0.2929703 1 0 1
-0.09697695 -0.2147297 0.2930702 1 0 1
-0.09474734 -0.2143764 0.2924384 1 0 1
-0.09291483 -0.2160429 0.2939771 1 0 1
-0.09068709 -0.2156779 0.2933326 1 0 1
-0.08858846 -0.2159829 0.2934077 1 0 1
-0.08660724 -0.2169597 0.2942028 1 0 1
-0.08438826 -0.2165763 0.2935392 1 0 1
-0.08206557 -0.2155081 0.292143 1 0 1
-0.08007774 -0.2164688 0.2929195 1 0 1
-0.07797848 -0.2167456 0.2929634 1 0 1
-0.07577946 -0.2163369 0.2922745 1 0 1
-0.07358751 -0.2159218 0.2915793 1 0 1
-0.07158477 -0.2168619 0.2923313 1 0 1
-0.06931199 -0.2157533 0.2908968 1 0 1
-0.06730393 -0.2166829 0.2916365 1 0 1
-0.06520803 -0.2169254 0.2916432 1 0 1
-0.06311149 -0.2171625 0.2916437 1 0 1
-0.06101437 -0.217394 0.291638 1 0 1
-0.05925445 -0.2210378 0.29526 1 0 1
0.1234156 -0.0916075 0.136048 1 0 1
0.1235188 -0.08932735 0.1336273 1 0 1
0.1252292 -0.08966853 0.1337562 1 0 1
0.1244766 -0.08607981 0.1300696 1 0 1
0.1249305 -0.08445594 0.1282938 1 0 1
0.1249496 -0.0821797 0.1258879 1 0 1
0.1253669 -0.08055676 0.1241176 1 0 1
0.1249166 -0.07763297 0.1210914 1 0 1
0.1261522 -0.07731131 0.1205836 1 0 1
0.1260874 -0.07504028 0.1181939 1 0 1
0.1264353 -0.07341918 0.1164343 1 0 1
0.1258872 -0.07050499 0.1134308 1 0 1
0.1253085 -0.06759516 0.1104358 1 0 1
0.1242525 -0.064045 0.1068295 1 0 1
0.1240599 -0.06178896 0.1044721 1 0 1
0.1242979 -0.0601784 0.1027377 1 0 1
0.1240622 -0.05792682 0.1003907 1 0 1
0.1238034 -0.05567812 0.09804972 1 0 1
0.1239858 -0.05407219 0.0963273 1 0 1
0.124152 -0.05246717 0.09460801 1 0 1
0.1247735 -0.05150094 0.09350108 1 0 1
0.1258608 -0.05117027 0.09300187 1 0 1
0.1269458 -0.05083652 0.09249952 1 0 1
0.1280286 -0.05049964 0.09199404 1 0 1
0.1286239 -0.04952633 0.09088263 1 0 1
-0.1329886 -0.211256 0.2905298 1 0 1
-0.1307078 -0.2110066 0.2900106 1 0 1
-0.1286294 -0.2114172 0.2902033 1 0 1
-0.1265496 -0.2118224 0.2903898 1 0 1
-0.1240909 -0.2108852 0.2891313 1 0 1
-0.1223854 -0.2126163 0.2907442 1 0 1
-0.1203011 -0.2130051 0.290912 1 0 1
-0.1183926 -0.214059 0.2917941 1 0 1
-0.1164748 -0.2151088 0.2926705 1 0 1
-0.1143787 -0.2154825 0.2928204 1 0 1
-0.1119503 -0.2145052 0.2915216 1 0 1
-0.1096977 -0.2141931 0.290937 1 0 1
-0.1074516 -0.2138742 0.2903458 1 0 1
-0.1053658 -0.2142232 0.2904698 1 0 1
-0.1031289 -0.2138913 0.2898654 1 0 1
-0.1010447 -0.2142287 0.2899769 1 0 1
-0.09910139 -0.2152371 0.2908047 1 0 1
-0.09687277 -0.2148869 0.2901812 1 0 1
-0.0947852 -0.2152078 0.2902741 1 0 1
-0.09295744 -0.2168799 0.2918069 1 0 1
-0.09060685 -0.215833 0.2904413 1 0 1
-0.08839353 -0.2154578 0.2897924 1 0 1
-0.08630577 -0.2157561 0.2898604 1 0 1
-0.0839874 -0.2146876 0.2884751 1 0 1
-0.08168381 -0.2136114 0.2870833 1 0 1
-0.07982305 -0.2152544 0.28858 1 0 1
-0.07763644 -0.2148473 0.2878993 1 0 1
-0.07555603 -0.2151165 0.2879364 1 0 1
-0.07357019 -0.2160634 0.2886911 1 0 1
-0.07157575 -0.2170057 0.2894399 1 0 1
-0.06948531 -0.2172593 0.2894585 1 0 1
-0.06756125 -0.2188767 0.2909192 1 0 1
-0.06538199 -0.2184351 0.2902015 1 0 1
-0.06336134 -0.219358 0.2909257 1 0 1
-0.06140405 -0.2209622 0.2923679 1 0 1
0.1229878 -0.08968209 0.1320264 1 0 1
0.1251016 -0.09068435 0.132788 1 0 1
0.1239397 -0.08642436 0.128483 1 0 1
0.1239763 -0.08413935 0.1260835 1 0 1
0.1244072 -0.08251122 0.1243182 1 0 1
0.1248217 -0.08088321 0.1225551 1 0 1
0.1247944 -0.07860208 0.1201677 1 0 1
0.1264589 -0.07893232 0.1202853 1 0 1
0.1263987 -0.07665163 0.1179026 1 0 1
0.1267508 -0.07502357 0.1161471 1 0 1
0.1262076 -0.07209689 0.1131532 1 0 1
0.1256339 -0.06917454 0.1101678 1 0 1
0.1245832 -0.06560909 0.1065736 1 0 1
0.1248451 -0.06398986 0.104839 1 0 1
0.1246373 -0.06172574 0.1024928 1 0 1
0.1248633 -0.06010899 0.1007655 1 0 1
0.1241518 -0.05720598 0.09781849 1 0 1
0.1248025 -0.05623554 0.09670994 1 0 1
0.1245088 -0.05398107 0.09438501 1 0 1
0.1256052 -0.05365096 0.09388616 1 0 1
0.1257503 -0.05203903 0.09217417 1 0 1
0.1268354 -0.05170486 0.09167221 1 0 1
0.1274367 -0.05073039 0.09056537 1 0 1
0.1280289 -0.04975495 0.08945865 1 0 1
-0.1366952 -0.217007 0.2938836 1 0 1
-0.1341806 -0.2160991 0.2926605 1 0 1
-0.1314792 -0.2145134 0.2907139 1 0 1
-0.1287994 -0.2129176 0.2887589 1 0 1
-0.1269126 -0.2139939 0.2896613 1 0 1
-0.1242606 -0.2123811 0.2876911 1 0 1
-0.1223708 -0.2134465 0.288581 1 0 1
-0.1202906 -0.2138351 0.2887481 1 0 1
-0.1183864 -0.2148915 0.2896265 1 0 1
-0.1161261 -0.2145958 0.2890635 1 0 1
-0.1140417 -0.2149679 0.289212 1 0 1
-0.1117903 -0.2146591 0.2886358 1 0 1
-0.1095453 -0.2143434 0.288053 1 0 1
-0.1073069 -0.2140209 0.2874634 1 0 1
-0.1053832 -0.2150466 0.2883057 1 0 1
-0.1029998 -0.2140337 0.2869839 1 0 1
-0.1009235 -0.2143703 0.2870944 1 0 1
-0.09884609 -0.2147013 0.2871988 1 0 1
-0.09676757 -0.215027 0.287297 1 0 1
-0.09455327 -0.2146666 0.286669 1 0 1
-0.09260724 -0.2156618 0.287475 1 0 1
-0.09014494 -0.2139257 0.2853934 1 0 1
-0.08795101 -0.2135454 0.2847459 1 0 1
-0.08600203 -0.2145242 0.2855337 1 0 1
-0.08369882 -0.2134483 0.2841529 1 0 1
-0.0815216 -0.2130488 0.2834866 1 0 1
-0.07967338 -0.2146962 0.2849773 1 0 1
-0.07749836 -0.2142853 0.2842986 1 0 1
-0.07533038 -0.2138678 0.2836138 1 0 1
-0.07345628 -0.215502 0.2850866 1 0 1
-0.07156581 -0.2171325 0.2865535 1 0 1
-0.06948333 -0.2173856 0.2865717 1 0 1
-0.067568 -0.219008 0.2880265 1 0 1
-0.06547634 -0.2192509 0.2880326 1 0 1
-0.06353617 -0.220865 0.2894751 1 0 1
-0.06157973 -0.2224752 0.2909115 1 0 1
0.1252803 -0.09465731 0.134853 1 0 1
0.1266008 -0.0943384 0.1343394 1 0 1
0.1242236 -0.0880788 0.1281569 1 0 1
0.1242648 -0.08578417 0.1257644 1 0 1
0.1242823 -0.08349133 0.1233768 1 0 1
0.1246974 -0.08185734 0.1216194 1 0 1
0.125521 -0.08087955 0.1204879 1 0 1
0.1271922 -0.08121035 0.1206003 1 0 1
0.1267081 -0.07826483 0.1176022 1 0 1
0.1270645 -0.07662992 0.1158511 1 0 1
0.1269653 -0.07434302 0.1134845 1 0 1
0.1264001 -0.07140721 0.1105072 1 0 1
0.124912 -0.06717519 0.1063089 1 0 1
0.1256279 -0.06619839 0.1051918 1 0 1
0.1249749 -0.06327518 0.1022393 1 0 1
0.1256618 -0.06229883 0.1011263 1 0 1
0.1249587 -0.0593823 0.09818722 1 0 1
0.1256167 -0.05840661 0.09707864 1 0 1
0.1253311 -0.05614133 0.09475891 1 0 1
0.1259637 -0.05516557 0.09365339 1 0 1
0.1256388 -0.05290449 0.09134319 1 0 1
0.1267239 -0.05256992 0.09084165 1 0 1
0.1268445 -0.05095225 0.08913872 1 0 1
0.1274335 -0.04997472 0.08803671 1 0 1
-0.1383338 -0.2160792 0.2900649 1 0 1
-0.1347814 -0.2118199 0.2852911 1 0 1
-0.1331238 -0.213583 0.2869193 1 0 1
-0.1304448 -0.211985 0.2849781 1 0 1
-0.1287725 -0.2137396 0.2865953 1 0 1
-0.1266969 -0.2141453 0.2867802 1 0 1
-0.1244305 -0.2138713 0.286245 1 0 1
-0.1219849 -0.2129157 0.2849887 1 0 1
-0.1202796 -0.2146536 0.2865835 1 0 1
-0.1182021 -0.2150366 0.2867435 1 0 1
-0.1161232 -0.2154142 0.2868974 1 0 1
-0.113703 -0.2144309 0.285614 1 0 1
-0.1116292 -0.2147961 0.285755 1 0 1
-0.1090675 -0.2131189 0.2837417 1 0 1
-0.1068444 -0.2127915 0.2831534 1 0 1
-0.1047823 -0.2131376 0.2832751 1 0 1
-0.1027191 -0.2134782 0.2833906 1 0 1
-0.1006546 -0.2138134 0.2835 1 0 1
-0.09901741 -0.2161896 0.2857547 1 0 1
-0.09693903 -0.2165157 0.2858524 1 0 1
-0.09472466 -0.216153 0.2852266 1 0 1
-0.09291024 -0.2178355 0.2867473 1 0 1
-0.09018892 -0.214723 0.2832377 1 0 1
-0.08799873 -0.2143397 0.2825924 1 0 1
-0.08581533 -0.2139498 0.2819408 1 0 1
-0.08375441 -0.2142397 0.282001 1 0 1
-0.08135778 -0.2124637 0.2799004 1 0 1
-0.07941444 -0.2134284 0.2806666 1 0 1
-0.07746248 -0.2143885 0.2814269 1 0 1
-0.07520232 -0.2132793 0.2800257 1 0 1
-0.0733408 -0.2149179 0.2814925 1 0 1
-0.07127886 -0.2151745 0.2815163 1 0 1
-0.06930427 -0.2161153 0.2822525 1 0 1
-0.06723695 -0.2163614 0.2822642 1 0 1
-0.06524932 -0.2172926 0.2829884 1 0 1
-0.06317681 -0.2175281 0.2829879 1 0 1
0.1275674 -0.09966198 0.1376434 1 0 1
0.124916 -0.09039742 0.1284483 1 0 1
0.1249653 -0.0880923 0.1260615 1 0 1
0.124991 -0.08578895 0.1236795 1 0 1
0.125835 -0.08480696 0.1225475 1 0 1
0.1258205 -0.08250561 0.1201727 1 0 1
0.1270667 -0.08217996 0.1196617 1 0 1
0.126584 -0.07922296 0.1166748 1 0 1
0.1269411 -0.07758208 0.1149294 1 0 1
0.126843 -0.07528649 0.1125713 1 0 1
0.1262791 -0.07233922 0.1096051 1 0 1
0.1252389 -0.0687433 0.1060353 1 0 1
0.1259587 -0.06776231 0.1049199 1 0 1
0.1248577 -0.06417561 0.1013678 1 0 1
0.125545 -0.06319605 0.1002579 1 0 1
0.1253033 -0.06091719 0.09793594 1 0 1
0.1255017 -0.05928926 0.09622444 1 0 1
0.1252171 -0.05701528 0.09391318 1 0 1
0.1263204 -0.05668234 0.093412 1 0 1
0.126 -0.05441153 0.09110864 1 0 1
0.1266112 -0.05343159 0.09000781 1 0 1
0.1267325 -0.05180804 0.08831067 1 0 1
0.127322 -0.05082736 0.0872117 1 0 1
-0.1372283 -0.2135462 0.2843424 1 0 1
-0.1343236 -0.2112824 0.2817132 1 0 1
-0.1326783 -0.2130493 0.2833345 1 0 1
-0.1304126 -0.2127904 0.2828203 1 0 1
-0.1283503 -0.2131997 0.2830097 1 0 1
-0.12648 -0.2142797 0.2839042 1 0 1
-0.1240316 -0.2133253 0.2826591 1 0 1
-0.1221544 -0.2143952 0.2835416 1 0 1
-0.1200863 -0.2147827 0.2837066 1 0 1
-0.1183727 -0.2165227 0.2852899 1 0 1
-0.1159457 -0.2155414 0.2840182 1 0 1
-0.1138734 -0.2159126 0.2841648 1 0 1
-0.111467 -0.2149161 0.2828791 1 0 1
-0.1090748 -0.2139115 0.2815863 1 0 1
-0.1065383 -0.2122164 0.2795728 1 0 1
-0.104488 -0.2125611 0.2796932 1 0 1
-0.1024366 -0.2129003 0.2798076 1 0 1
-0.1005311 -0.2139184 0.2806302 1 0 1
-0.09875967 -0.2156173 0.2821615 1 0 1
-0.09669319 -0.2159421 0.2822582 1 0 1
-0.09449036 -0.2155752 0.2816341 1 0 1
-0.09242567 -0.2158884 0.2817185 1 0 1
-0.09010496 -0.2148215 0.2803666 1 0 1
-0.08779884 -0.213747 0.2790082 1 0 1
-0.08562707 -0.213353 0.2783585 1 0 1
-0.0834622 -0.2129526 0.2777025 1 0 1
-0.0815281 -0.2139248 0.2784713 1 0 1
-0.07969324 -0.2155827 0.2799501 1 0 1
-0.07763382 -0.215856 0.2799917 1 0 1
-0.07547337 -0.2154328 0.2793113 1 0 1
-0.07341623 -0.2156947 0.2793406 1 0 1
-0.07126601 -0.215259 0.278648 1 0 1
-0.06929982 -0.2162021 0.2793812 1 0 1
-0.06732509 -0.2171406 0.2801084 1 0 1
-0.06534188 -0.2180745 0.2808295 1 0 1
-0.06350362 -0.2203917 0.2829765 1 0 1
0.1442144 -0.1256808 0.1598837 1 0 1
0.1342135 -0.1066927 0.141831 1 0 1
0.1302116 -0.09771521 0.1331934 1 0 1
0.1290336 -0.09340121 0.1289376 1 0 1
0.1286518 -0.09041943 0.1259349 1 0 1
0.1278148 -0.08677974 0.1223217 1 0 1
0.1286511 -0.08578835 0.121187 1 0 1
0.1277527 -0.08215649 0.11759 1 0 1
0.1276862 -0.07984808 0.115232 1 0 1
0.1271578 -0.07688405 0.112267 1 0 1
0.1270409 -0.07458126 0.1099214 1 0 1
0.1260095 -0.07096921 0.1063625 1 0 1
0.1262876 -0.06932821 0.1046391 1 0 1
0.1256445 -0.06638021 0.1017058 1 0 1
0.1263391 -0.0653955 0.1005959 1 0 1
0.1256459 -0.06245409 0.09767592 1 0 1
0.1263115 -0.06147002 0.09657041 1 0 1
0.126035 -0.05918532 0.09426443 1 0 1
0.1266752 -0.05820115 0.09316194 1 0 1
0.125886 -0.05527301 0.0902684 1 0 1
0.1269744 -0.05493656 0.08976614 1 0 1
0.1270999 -0.05330596 0.08807312 1 0 1
0.1276931 -0.05232105 0.08697562 1 0 1
-0.135906 -0.2102995 0.2779402 1 0 1
-0.1342824 -0.212074 0.2795596 1 0 1
-0.1324365 -0.2131698 0.2804673 1 0 1
-0.1301783 -0.2129071 0.2799544 1 0 1
-0.1279263 -0.2126375 0.2794347 1 0 1
-0.1260681 -0.2137185 0.2803248 1 0 1
-0.1238208 -0.2134365 0.2797922 1 0 1
-0.1217659 -0.2138279 0.2799618 1 0 1
-0.1198918 -0.2148948 0.2808346 1 0 1
-0.1180084 -0.2159578 0.2817019 1 0 1
-0.1159416 -0.2163342 0.2818539 1 0 1
-0.1138734 -0.2167052 0.2819996 1 0 1
-0.1113037 -0.2150193 0.2800083 1 0 1
-0.1089188 -0.2140084 0.2787199 1 0 1
-0.1067072 -0.2136745 0.2781353 1 0 1
-0.1046572 -0.2140196 0.2782553 1 0 1
-0.1024549 -0.2136729 0.2776578 1 0 1
-0.1005537 -0.2146936 0.278477 1 0 1
-0.09893046 -0.2170856 0.2807139 1 0 1
-0.09686424 -0.2174109 0.2808101 1 0 1
-0.09452564 -0.2163528 0.2794763 1 0 1
-0.09259683 -0.2173555 0.2802722 1 0 1
-0.09014779 -0.2155934 0.2782131 1 0 1
-0.08772121 -0.2138224 0.276147 1 0 1
-0.08543709 -0.2127339 0.2747868 1 0 1
-0.08351608 -0.2137131 0.2755582 1 0 1
-0.08147418 -0.2139956 0.275611 1 0 1
-0.07953972 -0.2149655 0.2763708 1 0 1
-0.07759663 -0.215931 0.2771246 1 0 1
-0.07544389 -0.2155044 0.2764465 1 0 1
-0.07339475 -0.2157656 0.2764754 1 0 1
-0.07134498 -0.2160215 0.2764983 1 0 1
-0.06947195 -0.2176626 0.2779415 1 0 1
-0.06758266 -0.2193 0.2793787 1 0 1
-0.06567697 -0.2209339 0.2808099 1 0 1
-0.06406314 -0.2253508 0.285088 1 0 1
0.1439027 -0.1237788 0.1557066 1 0 1
0.1342078 -0.1054046 0.1383913 1 0 1
0.130151 -0.09640147 0.1298082 1 0 1
0.1297812 -0.09340555 0.1268124 1 0 1
0.1281091 -0.08842026 0.1219775 1 0 1
0.1285218 -0.08676141 0.1202303 1 0 1
0.1284871 -0.08444032 0.1178727 1 0 1
0.1284287 -0.08212133 0.1155202 1 0 1
0.1274709 -0.07848352 0.1119536 1 0 1
0.1278 -0.07683064 0.1102233 1 0 1
0.1258873 -0.07188529 0.1054618 1 0 1
0.1257176 -0.06958087 0.103139 1 0 1
0.1255244 -0.06727909 0.1008221 1 0 1
0.1262193 -0.06629121 0.09971535 1 0 1
0.1259867 -0.06399302 0.09740721 1 0 1
0.1266562 -0.06300478 0.09630327 1 0 1
0.1268503 -0.06136293 0.09460168 1 0 1
0.1274979 -0.0603735 0.0934991 1 0 1
0.126717 -0.05743188 0.09061355 1 0 1
0.1268592 -0.05579425 0.08892305 1 0 1
0.1274654 -0.05480602 0.08782697 1 0 1
0.1275789 -0.05316976 0.08614151 1 0 1
-0.1387645 -0.2133538 0.2783951 1 0 1
-0.1342406 -0.2128544 0.2774056 1 0 1
-0.1321934 -0.2132735 0.2776051 1 0 1
-0.1299429 -0.2130071 0.2770936 1 0 1
-0.1276985 -0.2127337 0.2765754 1 0 1
-0.1260426 -0.2144981 0.278167 1 0 1
-0.1237992 -0.2142133 0.2776363 1 0 1
-0.1217483 -0.2146045 0.2778051 1 0 1
-0.1200611 -0.2163577 0.2793808 1 0 1
-0.117821 -0.216055 0.2788312 1 0 1
-0.1155874 -0.2157454 0.278275 1 0 1
-0.113531 -0.2161149 0.2784195 1 0 1
-0.1111393 -0.2151058 0.2771426 1 0 1
-0.1089249 -0.2147757 0.2765665 1 0 1
-0.1068764 -0.2151268 0.276692 1 0 1
-0.1046712 -0.2147839 0.2761032 1 0 1
-0.1024726 -0.2144344 0.2755079 1 0 1
-0.1007235 -0.2161474 0.2770323 1 0 1
-0.0986703 -0.2164768 0.2771336 1 0 1
-0.09661597 -0.2168007 0.2772289 1 0 1
-0.09456053 -0.2171191 0.2773181 1 0 1
-0.09250407 -0.2174321 0.2774013 1 0 1
-0.09019028 -0.216354 0.2760593 1 0 1
-0.08789112 -0.215268 0.2747106 1 0 1
-0.08572695 -0.2148683 0.2740653 1 0 1
-0.08368613 -0.2151567 0.2741237 1 0 1
-0.08164438 -0.2154396 0.2741761 1 0 1
-0.07971047 -0.2164127 0.2749327 1 0 1
-0.07776792 -0.2173815 0.2756834 1 0 1
-0.07541341 -0.2155592 0.273587 1 0 1
-0.07337237 -0.2158199 0.2736154 1 0 1
-0.07142358 -0.2167728 0.2743482 1 0 1
-0.06946627 -0.2177211 0.2750751 1 0 1
-0.06758564 -0.2193636 0.2765065 1 0 1
-0.06576999 -0.2217014 0.2786423 1 0 1
-0.06431695 -0.2275338 0.2843243 1 0 1
0.1058326 -0.2062896 0.2418185 1 0 1
0.1260152 -0.2013532 0.2341246 1 0 1
0.1376441 -0.2046849 0.2358851 1 0 1
0.1670754 -0.1631258 0.1898633 1 0 1
0.1518163 -0.1352488 0.1638997 1 0 1
0.1387588 -0.1114547 0.1417433 1 0 1
0.1355262 -0.1037522 0.134428 1 0 1
0.1313657 -0.09473195 0.1259147 1 0 1
0.1305265 -0.09106132 0.1223272 1 0 1
0.1296494 -0.08739649 0.1187508 1 0 1
0.1296028 -0.08506606 0.1164025 1 0 1
0.1282196 -0.080748 0.1122384 1 0 1
0.1281154 -0.07842501 0.1099054 1 0 1
0.1275429 -0.07544312 0.1069738 1 0 1
0.1273883 -0.07312611 0.1046536 1 0 1
0.1263068 -0.06949307 0.1011371 1 0 1
0.1274643 -0.06915835 0.1006298 1 0 1
0.1272432 -0.06684849 0.09832555 1 0 1
0.1274612 -0.06519776 0.09662366 1 0 1
0.127663 -0.06354798 0.09492484 1 0 1
0.1273794 -0.06124499 0.09263577 1 0 1
0.1266 -0.05829206 0.08976146 1 0 1
0.1267429 -0.05664863 0.08807679 1 0 1
0.127829 -0.05630817 0.08757222 1 0 1
0.1279467 -0.05466493 0.08589093 1 0 1
-0.1384971 -0.2134491 0.2755367 1 0 1
-0.1355987 -0.211158 0.2729437 1 0 1
-0.1335687 -0.2115799 0.2731472 1 0 1
-0.1317432 -0.2126784 0.2740463 1 0 1
-0.1295041 -0.2124076 0.2735359 1 0 1
-0.1274695 -0.2128133 0.2737212 1 0 1
-0.1256278 -0.2138979 0.2746034 1 0 1
-0.1233958 -0.2136085 0.2740738 1 0 1
-0.1213568 -0.2139982 0.2742411 1 0 1
-0.119682 -0.2157552 0.2758099 1 0 1
-0.1174535 -0.2154483 0.2752616 1 0 1
-0.1154065 -0.2158222 0.2754111 1 0 1
-0.1131869 -0.2155022 0.2748499 1 0 1
-0.1111411 -0.2158647 0.274987 1 0 1
-0.1086036 -0.2141518 0.2730026 1 0 1
-0.1065669 -0.2145014 0.273127 1 0 1
-0.1042176 -0.2134631 0.2718341 1 0 1
-0.1020345 -0.2131086 0.2712401 1 0 1
-0.1001539 -0.2141326 0.2720518 1 0 1
-0.09840839 -0.2158457 0.2735642 1 0 1
-0.09622579 -0.2154744 0.2729521 1 0 1
-0.09432245 -0.2164853 0.2737467 1 0 1
-0.09241032 -0.217492 0.2745357 1 0 1
-0.09010388 -0.2164076 0.2731983 1 0 1
-0.08781209 -0.2153155 0.2718545 1 0 1
-0.08565564 -0.2149124 0.2712113 1 0 1
-0.08373962 -0.2158974 0.2719763 1 0 1
-0.08170205 -0.2161802 0.2720282 1 0 1
-0.07988156 -0.2178542 0.2734889 1 0 1
-0.0777294 -0.2174284 0.2728216 1 0 1
-0.07568543 -0.2176954 0.2728556 1 0 1
-0.07344624 -0.2165572 0.2714685 1 0 1
-0.0715019 -0.2175127 0.2721981 1 0 1
-0.06945964 -0.217763 0.2722141 1 0 1
-0.06750222 -0.218709 0.2729318 1 0 1
-0.06561792 -0.2203523 0.2743513 1 0 1
-0.06402804 -0.2248009 0.2785956 1 0 1
0.03815084 -0.1953318 0.2369374 1 0 1
0.04666246 -0.2000584 0.2405582 1 0 1
0.05106844 -0.2027427 0.2426663 1 0 1
0.0632486 -0.2049799 0.2433218 1 0 1
0.0658809 -0.2076957 0.2456851 1 0 1
0.07104988 -0.2123973 0.2496955 1 0 1
0.07226134 -0.2094277 0.2465787 1 0 1
0.07382456 -0.2078703 0.2448225 1 0 1
0.07576265 -0.2077234 0.2444221 1 0 1
0.08032315 -0.2030125 0.2391275 1 0 1
0.08033044 -0.1964915 0.2326273 1 0 1
0.09673746 -0.2050545 0.238983 1 0 1
0.0984098 -0.2041415 0.2378485 1 0 1
0.1013011 -0.2067371 0.2400494 1 0 1
0.1019755 -0.2030043 0.2362357 1 0 1
0.1064095 -0.2097966 0.2424144 1 0 1
0.1093748 -0.2123669 0.2445788 1 0 1
0.1087756 -0.1948289 0.227161 1 0 1
0.1092675 -0.1910861 0.2233592 1 0 1
0.1102716 -0.188741 0.2208821 1 0 1
0.1137693 -0.1926785 0.2243359 1 0 1
0.1178773 -0.1980001 0.2290876 1 0 1
0.121756 -0.2026107 0.2331603 1 0 1
0.1216099 -0.1974552 0.228033 1 0 1
0.1225883 -0.1950867 0.2255339 1 0 1
0.1268267 -0.200367 0.2302248 1 0 1
0.1323322 -0.2084127 0.2375025 1 0 1
0.1321094 -0.2032465 0.2323733 1 0 1
0.1340006 -0.2029396 0.2318056 1 0 1
0.1362031 -0.2033205 0.2318815 1 0 1
0.137776 -0.2023099 0.230654 1 0 1
0.1415862 -0.2061383 0.2339507 1 0 1
0.1434901 -0.2058065 0.2333546 1 0 1
0.145063 -0.2047787 0.2321085 1 0 1
0.1735153 -0.1720492 0.1953148 1 0 1
0.1602446 -0.1474395 0.1725657 1 0 1
0.147133 -0.1235615 0.1505266 1 0 1
0.1375769 -0.105772 0.1340761 1 0 1
0.1333796 -0.09672238 0.1256109 1 0 1
0.1312386 -0.09103316 0.1202163 1 0 1
0.1303397 -0.08735633 0.116659 1 0 1
0.1285285 -0.0823536 0.1119044 1 0 1
0.1288697 -0.0806861 0.1101813 1 0 1
0.1283057 -0.07769098 0.1072581 1 0 1
0.1281592 -0.07536342 0.1049433 1 0 1
0.1275379 -0.07237639 0.102036 1 0 1
0.1277961 -0.07071616 0.1003311 1 0 1
0.1275796 -0.06839672 0.09803387 1 0 1
0.1278018 -0.06673915 0.09633631 1 0 1
0.1275424 -0.06442455 0.09404965 1 0 1
0.1277287 -0.0627699 0.09235968 1 0 1
0.1274265 -0.06046045 0.09008398 1 0 1
0.1271013 -0.05815428 0.08781458 1 0 1
0.1277116 -0.05715872 0.08672316 1 0 1
0.1283127 -0.0561622 0.08563179 1 0 1
-0.1384463 -0.2142101 0.2733814 1 0 1
-0.1353367 -0.2112249 0.2701001 1 0 1
-0.1337349 -0.2130135 0.2716995 1 0 1
-0.1317037 -0.2134306 0.2718963 1 0 1
-0.1296709 -0.2138423 0.2720872 1 0 1
-0.1272393 -0.2128762 0.2708725 1 0 1
-0.1256007 -0.2146496 0.2724507 1 0 1
-0.1233724 -0.2143573 0.271923 1 0 1
-0.1213375 -0.2147467 0.2720894 1 0 1
-0.1193013 -0.2151307 0.2722498 1 0 1
-0.1172635 -0.2155092 0.2724041 1 0 1
-0.1152245 -0.2158823 0.2725525 1 0 1
-0.1130126 -0.2155587 0.271993 1 0 1
-0.1108071 -0.2152283 0.2714269 1 0 1
-0.1086081 -0.2148911 0.2708544 1 0 1
-0.1065755 -0.2152405 0.2709779 1 0 1
-0.1042297 -0.2141966 0.2696899 1 0 1
-0.1022025 -0.2145339 0.2698011 1 0 1
-0.1001742 -0.2148658 0.2699063 1 0 1
-0.09843353 -0.2165842 0.2714124 1 0 1
-0.09611423 -0.2155135 0.2700988 1 0 1
-0.0942193 -0.2165264 0.2708899 1 0 1
-0.09218275 -0.2168373 0.2709714 1 0 1
-0.08988762 -0.2157462 0.2696388 1 0 1
-0.08773202 -0.2153462 0.2690038 1 0 1
-0.08570427 -0.2156391 0.269067 1 0 1
-0.08367561 -0.2159267 0.2691243 1 0 1
-0.08175933 -0.2169094 0.2698802 1 0 1
-0.07994363 -0.2185889 0.2713349 1 0 1
-0.07779532 -0.2181601 0.2706698 1 0 1
-0.07585702 -0.2191292 0.2714082 1 0 1
-0.07361734 -0.2179859 0.2700262 1 0 1
-0.0716736 -0.2189445 0.2707527 1 0 1
-0.0695418 -0.2184915 0.2700634 1 0 1
-0.06758884 -0.2194403 0.270778 1 0 1
-0.06570935 -0.2210889 0.2721916 1 0 1
0.02994289 -0.2061437 0.245969 1 0 1
0.03176911 -0.2054004 0.2450048 1 0 1
0.03313024 -0.2017958 0.2412731 1 0 1
0.03504148 -0.2017566 0.2409924 1 0 1
0.03743941 -0.2045677 0.2434646 1 0 1
0.03936441 -0.2045176 0.2431706 1 0 1
0.04154783 -0.2058896 0.2442478 1 0 1
0.043078 -0.2036882 0.2418781 1 0 1
0.04540856 -0.2057628 0.2436296 1 0 1
0.04648917 -0.2014119 0.2391931 1 0 1
0.04882932 -0.2034755 0.2409315 1 0 1
0.05074424 -0.2033942 0.240605 1 0 1
0.0531171 -0.2054459 0.2423265 1 0 1
0.05457073 -0.2032158 0.2399354 1 0 1
0.05664296 -0.2038311 0.2402756 1 0 1
0.05872171 -0.2044409 0.2406088 1 0 1
0.06063842 -0.2043329 0.2402533 1 0 1
0.06427775 -0.211337 0.2467022 1 0 1
0.06675927 -0.2133506 0.2483691 1 0 1
0.06872229 -0.2132237 0.2479874 1 0 1
0.07141985 -0.2159353 0.250315 1 0 1
0.07339541 -0.2157965 0.2499189 1 0 1
0.07421944 -0.2113898 0.2454543 1 0 1
0.07675553 -0.2133723 0.2470808 1 0 1
0.07811692 -0.2110887 0.2446435 1 0 1
0.07884387 -0.2066731 0.2401813 1 0 1
0.08014443 -0.2043836 0.2377452 1 0 1
0.0814203 -0.2020908 0.2353086 1 0 1
0.08417493 -0.2047544 0.2375774 1 0 1
0.08608417 -0.2045773 0.2371483 1 0 1
0.08910391 -0.2079339 0.2400662 1 0 1
0.09080267 -0.207037 0.2389522 1 0 1
0.09318226 -0.2082566 0.2398406 1 0 1
0.09510757 -0.2080561 0.2393843 1 0 1
0.09845737 -0.2120877 0.2429238 1 0 1
0.09943584 -0.2090509 0.239787 1 0 1
0.1033259 -0.2144766 0.2446326 1 0 1
0.1040362 -0.2107258 0.2408244 1 0 1
0.10673 -0.2126101 0.2423253 1 0 1
0.1084177 -0.21167 0.241166 1 0 1
0.1116589 -0.2149468 0.2439703 1 0 1
0.1120285 -0.2104798 0.2394972 1 0 1
0.1126186 -0.2067158 0.2356898 1 0 1
0.112897 -0.2022495 0.2312288 1 0 1
0.1134036 -0.1984855 0.2274317 1 0 1
0.1152676 -0.1982268 0.2269202 1 0 1
0.1188287 -0.2021659 0.2303337 1 0 1
0.1238677 -0.2095929 0.236999 1 0 1
0.1257892 -0.2093093 0.2364535 1 0 1
0.1288864 -0.2118156 0.2385098 1 0 1
0.13052 -0.2108207 0.2372981 1 0 1
0.1345598 -0.215403 0.2412804 1 0 1
0.1322292 -0.2053329 0.2316221 1 0 1
0.1341241 -0.2050251 0.2310537 1 0 1
0.1347638 -0.2019285 0.2278948 1 0 1
0.1385405 -0.2057839 0.231191 1 0 1
0.1423595 -0.2096263 0.2344681 1 0 1
0.1439501 -0.2085983 0.233226 1 0 1
0.1481552 -0.2131123 0.2371141 1 0 1
0.1524099 -0.2176117 0.2409801 1 0 1
0.1543652 -0.2172527 0.240349 1 0 1
0.1660395 -0.214984 0.2364458 1 0 1
0.1650853 -0.2090918 0.2307309 1 0 1
0.1699084 -0.2141841 0.2351005 1 0 1
0.1591368 -0.1441923 0.167077 1 0 1
0.1446211 -0.1182347 0.1433665 1 0 1
0.1375052 -0.1044323 0.1306704 1 0 1
0.1336833 -0.09602891 0.1228653 1 0 1
0.1323741 -0.09166277 0.1187103 1 0 1
0.1301463 -0.08596704 0.1133662 1 0 1
0.1296213 -0.08295431 0.1104428 1 0 1
0.1290659 -0.079946 0.1075279 1 0 1
0.129375 -0.07827364 0.1058158 1 0 1
0.1283147 -0.07460764 0.1023197 1 0 1
0.1290351 -0.07360329 0.1012116 1 0 1
0.1283721 -0.07060953 0.09832588 1 0 1
0.128602 -0.06894407 0.09663108 1 0 1
0.1288157 -0.06727944 0.09493922 1 0 1
0.1285446 -0.06495629 0.09266264 1 0 1
0.1287224 -0.06329465 0.09097848 1 0 1
0.1288841 -0.06163419 0.08929755 1 0 1
0.1290296 -0.05997484 0.08761985 1 0 1
0.1291591 -0.05831669 0.08594545 1 0 1
-0.1399847 -0.2131559 0.2696214 1 0 1
-0.1379585 -0.2135898 0.2698357 1 0 1
-0.1352878 -0.2119609 0.2679574 1 0 1
-0.1334803 -0.2130681 0.2688544 1 0 1
-0.1316636 -0.2141716 0.2697461 1 0 1
-0.1296349 -0.2145831 0.269936 1 0 1
-0.1272069 -0.2136113 0.2687259 1 0 1
-0.1255729 -0.21539 0.2702977 1 0 1
-0.1233486 -0.2150949 0.269772 1 0 1
-0.1211304 -0.2147928 0.2692395 1 0 1
-0.1191021 -0.2151758 0.2693987 1 0 1
-0.1168928 -0.2148609 0.2688535 1 0 1
-0.1148656 -0.2152324 0.2690005 1 0 1
-0.1126652 -0.2149045 0.2684424 1 0 1
-0.1106393 -0.2152645 0.2685772 1 0 1
-0.108448 -0.2149238 0.2680064 1 0 1
-0.1065837 -0.2159685 0.2688289 1 0 1
-0.1043977 -0.2156157 0.2682457 1 0 1
-0.1022183 -0.2152561 0.2676561 1 0 1
-0.1003427 -0.2162859 0.2684611 1 0 1
-0.09845826 -0.2173116 0.2692606 1 0 1
-0.09600165 -0.215536 0.267251 1 0 1
-0.0939781 -0.2158509 0.2673375 1 0 1
-0.09208655 -0.216861 0.2681194 1 0 1
-0.08966967 -0.2150626 0.2660902 1 0 1
-0.08765093 -0.2153603 0.2661586 1 0 1
-0.08587393 -0.2170569 0.2676243 1 0 1
-0.08396297 -0.2180476 0.2683829 1 0 1
-0.08181626 -0.2176275 0.2677321 1 0 1
-0.0798957 -0.2186084 0.2684789 1 0 1
-0.07786088 -0.2188807 0.268518 1 0 1
-0.07582523 -0.2191475 0.2685512 1 0 1
-0.07359296 -0.2179981 0.2671742 1 0 1
-0.07184564 -0.2203706 0.2693016 1 0 1
-0.06971373 -0.2199152 0.2686149 1 0 1
-0.06776136 -0.220867 0.2693263 1 0 1
-0.06588276 -0.2225216 0.270734 1 0 1
0.03061581 -0.2132437 0.2500941 1 0 1
0.03181436 -0.2081961 0.2449972 1 0 1
0.03341234 -0.2060112 0.2426542 1 0 1
0.03498606 -0.2038215 0.2403092 1 0 1
0.03714319 -0.2052102 0.2413961 1 0 1
0.03906415 -0.2051602 0.2411027 1 0 1
0.04124278 -0.2065379 0.242175 1 0 1
0.04316953 -0.2064772 0.2418693 1 0 1
0.04468397 -0.2042628 0.2395051 1 0 1
0.04673798 -0.204908 0.2398739 1 0 1
0.04894365 -0.2062636 0.2409191 1 0 1
0.05056859 -0.2047504 0.2392266 1 0 1
0.05309284 -0.2075258 0.2416214 1 0 1
0.05502083 -0.2074332 0.2412813 1 0 1
0.05662679 -0.205905 0.2395749 1 0 1
0.05920177 -0.208662 0.2419436 1 0 1
0.06096561 -0.2078383 0.2409065 1 0 1
0.06392467 -0.2120113 0.2446127 1 0 1
0.06640109 -0.2140333 0.246272 1 0 1
0.06836005 -0.2139065 0.2458912 1 0 1
0.07141929 -0.2180566 0.2495604 1 0 1
0.07302362 -0.2164906 0.2478134 1 0 1
0.07384574 -0.2120675 0.2433665 1 0 1
0.07579123 -0.2119198 0.2429648 1 0 1
0.07733715 -0.2103416 0.2412122 1 0 1
0.07744593 -0.2037735 0.2347535 1 0 1
0.07872427 -0.2014775 0.232331 1 0 1
0.07997808 -0.1991783 0.229908 1 0 1
0.08185042 -0.1990098 0.2294931 1 0 1
0.0850306 -0.2031015 0.2330843 1 0 1
0.08803302 -0.2064731 0.235992 1 0 1
0.09039431 -0.2077052 0.236885 1 0 1
