ply
format ascii 1.0
Comment Generated by Floating Hands
element vertex 1259
property double x
property double y
property double z
property uchar red
property uchar green
property uchar blue
end_header
0.1525014 -0.02740066 0.232566 1 0 1
0.1534838 -0.02657311 0.2311454 1 0 1
0.1549253 -0.02615464 0.2305054 1 0 1
0.154475 -0.0240931 0.226739 1 0 1
-0.2616672 -0.1709268 0.5363901 1 0 1
-0.2601042 -0.173296 0.5404381 1 0 1
-0.2588013 -0.1760938 0.5453389 1 0 1
-0.2571685 -0.1784643 0.5493835 1 0 1
-0.2640701 -0.1937388 0.5791181 1 0 1
-0.2633865 -0.1978588 0.586611 1 0 1
-0.1613283 -0.2088649 0.5884132 1 0 1
-0.1581801 -0.2088292 0.5878465 1 0 1
-0.1542941 -0.2065097 0.5828797 1 0 1
-0.1513219 -0.2069101 0.5831691 1 0 1
-0.1477838 -0.205479 0.5799342 1 0 1
-0.1445492 -0.2049498 0.5784454 1 0 1
-0.1410618 -0.2034971 0.5751871 1 0 1
-0.1378626 -0.2029486 0.5736764 1 0 1
-0.1344261 -0.2014749 0.5703951 1 0 1
-0.1318712 -0.2031998 0.5732644 1 0 1
-0.1292916 -0.2049203 0.5761263 1 0 1
-0.1266873 -0.2066363 0.5789806 1 0 1
-0.1242787 -0.2092673 0.5835896 1 0 1
-0.1216174 -0.2109749 0.5864291 1 0 1
-0.1187269 -0.2117563 0.5874971 1 0 1
-0.1159259 -0.2129923 0.5894384 1 0 1
-0.113581 -0.2165299 0.5957814 1 0 1
-0.1109992 -0.2191419 0.6003534 1 0 1
-0.1077696 -0.2185145 0.5987403 1 0 1
-0.01717894 -0.205632 0.5644135 1 0 1
-0.01386177 -0.2113236 0.5748647 1 0 1
-0.01105696 -0.2095012 0.5711864 1 0 1
-0.008074919 -0.2100178 0.5719106 1 0 1
-0.00526805 -0.2086496 0.569098 1 0 1
-0.002187666 -0.2100907 0.571567 1 0 1
0.0008087369 -0.2105858 0.5722627 1 0 1
0.003869775 -0.2115432 0.5738298 1 0 1
0.006945871 -0.2124934 0.5753865 1 0 1
0.152504 -0.02882293 0.2318126 1 0 1
0.1539522 -0.02840661 0.2311759 1 0 1
0.156335 -0.028815 0.232095 1 0 1
0.1554234 -0.02632289 0.2275531 1 0 1
-0.2609393 -0.1721501 0.5325115 1 0 1
-0.2599817 -0.1753933 0.5382531 1 0 1
-0.2592694 -0.179072 0.5448492 1 0 1
-0.2639664 -0.1959835 0.5768508 1 0 1
-0.2627235 -0.1992623 0.5826168 1 0 1
-0.1619501 -0.2129225 0.5896155 1 0 1
-0.1586365 -0.2124278 0.5881754 1 0 1
-0.1542939 -0.2087139 0.5805915 1 0 1
-0.1511795 -0.2086556 0.5800033 1 0 1
-0.1476475 -0.2072104 0.5767747 1 0 1
-0.1441447 -0.2057539 0.5735338 1 0 1
-0.1408046 -0.2047468 0.5711585 1 0 1
-0.1376158 -0.2041906 0.5696499 1 0 1
-0.1344408 -0.2036253 0.5681307 1 0 1
-0.1316457 -0.2044369 0.5692368 1 0 1
-0.1290773 -0.2061671 0.5720918 1 0 1
-0.126256 -0.2069671 0.5731812 1 0 1
-0.1234256 -0.2077608 0.5742618 1 0 1
-0.1211182 -0.2108667 0.5797317 1 0 1
-0.1184553 -0.212578 0.5825557 1 0 1
-0.1156692 -0.21382 0.5844918 1 0 1
-0.1137193 -0.2192407 0.5943416 1 0 1
-0.1115011 -0.2237319 0.6024257 1 0 1
-0.0171029 -0.211067 0.5683134 1 0 1
-0.01386448 -0.215383 0.5760993 1 0 1
-0.01112194 -0.2126016 0.5706668 1 0 1
-0.008343334 -0.2107577 0.5669879 1 0 1
-0.005505209 -0.209852 0.5650615 1 0 1
-0.002485426 -0.2108306 0.5666457 1 0 1
0.0005494903 -0.2118022 0.5682198 1 0 1
0.003656712 -0.2132395 0.5706629 1 0 1
0.006847933 -0.215143 0.5739743 1 0 1
0.1530232 -0.02898779 0.2288577 1 0 1
0.1568059 -0.03065738 0.2321116 1 0 1
0.1544816 -0.02689664 0.2252472 1 0 1
-0.2611126 -0.1746478 0.5311822 1 0 1
-0.2586694 -0.1757409 0.5326605 1 0 1
-0.2573896 -0.1785698 0.5375366 1 0 1
-0.2595714 -0.1916612 0.5617845 1 0 1
-0.2609296 -0.1988881 0.5752084 1 0 1
-0.1636633 -0.2110398 0.5799977 1 0 1
-0.1602205 -0.2100815 0.5776938 1 0 1
-0.158482 -0.2141885 0.5849909 1 0 1
-0.1550392 -0.2132152 0.5826678 1 0 1
-0.1513273 -0.2113064 0.578584 1 0 1
-0.1477936 -0.2098482 0.575362 1 0 1
-0.1441516 -0.2079151 0.5712525 1 0 1
-0.1405466 -0.2059699 0.5671305 1 0 1
-0.137498 -0.2058706 0.5665001 1 0 1
-0.1342036 -0.2048332 0.5641072 1 0 1
-0.1315414 -0.206113 0.5660866 1 0 1
-0.1288624 -0.2073874 0.568058 1 0 1
-0.1258233 -0.2072576 0.5673898 1 0 1
-0.1230115 -0.2080533 0.5684668 1 0 1
-0.1205105 -0.2102441 0.5721684 1 0 1
-0.008694562 -0.2105114 0.5603133 1 0 1
-0.005787912 -0.2105513 0.5601479 1 0 1
-0.002733792 -0.2120133 0.562607 1 0 1
0.0003964194 -0.2139447 0.565933 1 0 1
0.1610255 -0.03587186 0.2383311 1 0 1
0.154955 -0.02871377 0.2252681 1 0 1
-0.2649 -0.1823813 0.5400146 1 0 1
-0.263304 -0.1848028 0.544046 1 0 1
-0.2610875 -0.1863474 0.5463767 1 0 1
-0.2614667 -0.1969117 0.5654875 1 0 1
-0.2619575 -0.2028722 0.5763326 1 0 1
-0.1647807 -0.2164744 0.583792 1 0 1
-0.1608422 -0.214117 0.5788807 1 0 1
-0.15848 -0.2163945 0.5826754 1 0 1
-0.1559357 -0.2182034 0.5855914 1 0 1
-0.1526391 -0.2176787 0.5841364 1 0 1
-0.1486481 -0.2148122 0.5783048 1 0 1
-0.1451228 -0.2133321 0.5750793 1 0 1
-0.141225 -0.2104385 0.5692204 1 0 1
-0.1384199 -0.2112742 0.5703409 1 0 1
-0.1351009 -0.2102301 0.567955 1 0 1
-0.1324151 -0.2115203 0.5699319 1 0 1
-0.1297123 -0.2128051 0.5719008 1 0 1
-0.126878 -0.2136147 0.5729862 1 0 1
-0.004939166 -0.2232131 0.577144 1 0 1
-0.2683913 -0.1897501 0.5479474 1 0 1
-0.2649682 -0.1895498 0.5469001 1 0 1
-0.2612629 -0.1888968 0.5449929 1 0 1
-0.264833 -0.1993028 0.5642799 1 0 1
-0.2645106 -0.2039718 0.5725548 1 0 1
-0.2621383 -0.2055369 0.5748855 1 0 1
-0.1670282 -0.2252146 0.5936391 1 0 1
-0.1630377 -0.2228446 0.5887436 1 0 1
-0.1593982 -0.2213973 0.5855741 1 0 1
-0.1565353 -0.2222823 0.5867447 1 0 1
-0.1523519 -0.2189369 0.5800684 1 0 1
-0.1483704 -0.2160456 0.5742483 1 0 1
-0.1451308 -0.2154919 0.572772 1 0 1
-0.1412348 -0.2125745 0.5669253 1 0 1
-0.138433 -0.2134139 0.5680431 1 0 1
-0.1349901 -0.2118879 0.5647894 1 0 1
-0.1329239 -0.2155461 0.5711257 1 0 1
-0.1305648 -0.2182581 0.5757107 1 0 1
-0.2682673 -0.1918646 0.5457023 1 0 1
-0.2636551 -0.18988 0.5412775 1 0 1
-0.2626149 -0.1932218 0.5469816 1 0 1
-0.2621077 -0.1974596 0.5543797 1 0 1
-0.2612506 -0.2012572 0.5609344 1 0 1
-0.2594889 -0.203716 0.5649471 1 0 1
-0.2624413 -0.213804 0.5833878 1 0 1
-0.1549811 -0.2296241 0.593382 1 0 1
-0.1499377 -0.2234054 0.5814948 1 0 1
-0.1431243 -0.2213378 0.5768047 1 0 1
-0.1402715 -0.2221876 0.5779243 1 0 1
-0.1362707 -0.2187538 0.5711987 1 0 1
-0.135642 -0.2281497 0.5879762 1 0 1
-0.2684445 -0.1944134 0.5442926 1 0 1
-0.2644265 -0.1933055 0.5415642 1 0 1
-0.261613 -0.1939781 0.5421951 1 0 1
-0.2593775 -0.1955431 0.5445065 1 0 1
-0.2579849 -0.1984558 0.5493484 1 0 1
-0.2576844 -0.2031754 0.5575742 1 0 1
-0.2606671 -0.2133295 0.5759693 1 0 1
-0.2596288 -0.2171696 0.5825189 1 0 1
-0.2652979 -0.1920033 0.5336306 1 0 1
-0.2622146 -0.1922268 0.5334226 1 0 1
-0.2611982 -0.1956058 0.5390975 1 0 1
-0.258679 -0.1967238 0.5405598 1 0 1
-0.2572981 -0.1996519 0.5453889 1 0 1
-0.2570102 -0.2044004 0.5535946 1 0 1
-0.2586097 -0.212346 0.5677213 1 0 1
-0.2578782 -0.2166605 0.5750965 1 0 1
-0.2565391 -0.2200666 0.5807815 1 0 1
-0.2510694 -0.2222976 0.5836682 1 0 1
-0.2477967 -0.2224849 0.5834018 1 0 1
-0.2447856 -0.2231237 0.583974 1 0 1
-0.2420249 -0.2242163 0.5853872 1 0 1
-0.2382553 -0.2234548 0.5833881 1 0 1
-0.2660766 -0.1954106 0.5338984 1 0 1
-0.2641795 -0.1974517 0.5370498 1 0 1
-0.2604873 -0.1967588 0.5351573 1 0 1
-0.2582701 -0.1983349 0.5374551 1 0 1
-0.2580467 -0.2031079 0.545639 1 0 1
-0.2577527 -0.2078895 0.5538283 1 0 1
-0.2590677 -0.2154327 0.5670823 1 0 1
-0.2580575 -0.2193163 0.5735983 1 0 1
-0.2561742 -0.2218226 0.5775813 1 0 1
-0.2534517 -0.2229438 0.5790244 1 0 1
-0.2504537 -0.223597 0.5796133 1 0 1
-0.2466691 -0.2228536 0.5776517 1 0 1
-0.2436761 -0.2234895 0.5782195 1 0 1
-0.2409338 -0.2245827 0.5796264 1 0 1
-0.2381808 -0.22567 0.5810252 1 0 1
-0.2356633 -0.2272175 0.5832657 1 0 1
-0.2650403 -0.1960836 0.5291301 1 0 1
-0.261365 -0.1953851 0.5272478 1 0 1
-0.2585941 -0.1960506 0.5278661 1 0 1
-0.2561115 -0.1971688 0.5293146 1 0 1
-0.2553442 -0.2010449 0.5357944 1 0 1
-0.2553729 -0.2063105 0.5447983 1 0 1
-0.2581252 -0.2162086 0.5622224 1 0 1
-0.2571309 -0.2201134 0.5687211 1 0 1
-0.2549902 -0.222167 0.5718497 1 0 1
-0.2520172 -0.2228238 0.5724427 1 0 1
-0.2490409 -0.2234733 0.5730262 1 0 1
-0.245539 -0.2231824 0.5719101 1 0 1
-0.2423066 -0.2233483 0.5716278 1 0 1
-0.2403477 -0.2258452 0.5755672 1 0 1
-0.2386057 -0.2288097 0.5803498 1 0 1
-0.2658189 -0.1994856 0.5293743 1 0 1
-0.2633311 -0.200625 0.5308402 1 0 1
-0.2602419 -0.2008348 0.5306264 1 0 1
-0.2571569 -0.201036 0.5304021 1 0 1
-0.2566672 -0.2054032 0.537708 1 0 1
-0.2566826 -0.2107066 0.5466949 1 0 1
-0.2577414 -0.2178826 0.5590464 1 0 1
-0.2559257 -0.220411 0.5630086 1 0 1
-0.253258 -0.221537 0.5644448 1 0 1
-0.2505796 -0.2226573 0.5658733 1 0 1
-0.2473601 -0.222834 0.5656092 1 0 1
-0.2438834 -0.222532 0.5644912 1 0 1
-0.2406765 -0.22269 0.5642048 1 0 1
-0.2395063 -0.2266098 0.5706643 1 0 1
-0.2395313 -0.232894 0.5813507 1 0 1
-0.2659919 -0.2019677 0.5279359 1 0 1
-0.2629051 -0.2021825 0.527732 1 0 1
-0.2595269 -0.2019231 0.5266833 1 0 1
-0.2582034 -0.2049172 0.5314683 1 0 1
-0.2574155 -0.2088475 0.5379241 1 0 1
-0.2571406 -0.2137192 0.5460559 1 0 1
-0.2573564 -0.2195372 0.5558678 1 0 1
-0.2563789 -0.2234876 0.5623346 1 0 1
-0.2534341 -0.2241483 0.5629298 1 0 1
-0.2504859 -0.2248017 0.5635157 1 0 1
-0.2478003 -0.2259198 0.5649328 1 0 1
-0.2448422 -0.2265593 0.565501 1 0 1
-0.2398171 -0.2234002 0.5593243 1 0 1
-0.2673778 -0.2063115 0.5298104 1 0 1
-0.2642752 -0.2065278 0.5296108 1 0 1
-0.2608809 -0.2062665 0.5285685 1 0 1
-0.259543 -0.2092819 0.5333461 1 0 1
-0.2581645 -0.2122992 0.5381229 1 0 1
-0.2567452 -0.2153181 0.5428988 1 0 1
-0.2561278 -0.2197553 0.5501802 1 0 1
-0.2546159 -0.2227798 0.5549561 1 0 1
-0.2525166 -0.2248575 0.5580562 1 0 1
-0.2495828 -0.2255086 0.5586382 1 0 1
-0.2469119 -0.2266281 0.5600497 1 0 1
-0.2442303 -0.2277418 0.5614532 1 0 1
-0.2379229 -0.2221685 0.5510893 1 0 1
-0.2681581 -0.2097352 0.5300019 1 0 1
-0.2644477 -0.2090089 0.5281461 1 0 1
-0.2616445 -0.2096862 0.5287675 1 0 1
-0.2600072 -0.2122482 0.5327048 1 0 1
-0.2583368 -0.2148103 0.5366398 1 0 1
-0.2563485 -0.2168976 0.5397394 1 0 1
-0.2548966 -0.2199341 0.544502 1 0 1
-0.253404 -0.222972 0.5492633 1 0 1
-0.2507764 -0.2241021 0.5506827 1 0 1
-0.2475986 -0.2242703 0.5504228 1 0 1
-0.2446914 -0.2249087 0.550989 1 0 1
-0.2433545 -0.2284182 0.5565697 1 0 1
-0.2695466 -0.2141131 0.5318295 1 0 1
-0.2658198 -0.2133816 0.5299818 1 0 1
-0.2630011 -0.2140637 0.5306056 1 0 1
-0.2613493 -0.2166437 0.5345375 1 0 1
-0.2590866 -0.2182695 0.5368069 1 0 1
-0.2553806 -0.2175016 0.5349163 1 0 1
-0.2533816 -0.2195945 0.5380018 1 0 1
-0.2516345 -0.2221652 0.5419154 1 0 1
-0.2495804 -0.224255 0.5449929 1 0 1
-0.2464207 -0.2244169 0.5447304 1 0 1
-0.2448628 -0.2274634 0.549465 1 0 1
-0.2697206 -0.2166038 0.5303323 1 0 1
-0.2656923 -0.2153859 0.527664 1 0 1
-0.2631733 -0.216547 0.5291125 1 0 1
-0.2612289 -0.2186617 0.5322083 1 0 1
-0.2586809 -0.2198139 0.533644 1 0 1
-0.2546958 -0.2185542 0.530928 1 0 1
-0.2518636 -0.2192092 0.5315156 1 0 1
-0.2493061 -0.2203399 0.5329244 1 0 1
-0.2464641 -0.2209814 0.5334949 1 0 1
-0.2428083 -0.2201616 0.5315608 1 0 1
-0.2705026 -0.2200483 0.5304707 1 0 1
-0.2667659 -0.2193015 0.5286348 1 0 1
-0.2636417 -0.2195058 0.528434 1 0 1
-0.2611079 -0.2206669 0.5298732 1 0 1
-0.2585632 -0.2218226 0.5313051 1 0 1
-0.2534384 -0.2186117 0.5252882 1 0 1
-0.2494975 -0.2173215 0.5225604 1 0 1
-0.2455836 -0.2160174 0.5198176 1 0 1
-0.2414226 -0.2142123 0.5162309 1 0 1
-0.2354031 -0.2089757 0.5068189 1 0 1
-0.2700674 -0.2215664 0.5273082 1 0 1
-0.266337 -0.2208089 0.5254757 1 0 1
-0.2635165 -0.2214946 0.5260969 1 0 1
-0.2606928 -0.2221731 0.526709 1 0 1
-0.2578658 -0.2228445 0.5273124 1 0 1
-0.2524643 -0.2191179 0.5204834 1 0 1
-0.247691 -0.216346 0.5152829 1 0 1
-0.242411 -0.2125759 0.5084101 1 0 1
-0.2369213 -0.2082929 0.5006879 1 0 1
-0.2296094 -0.2005471 0.4871474 1 0 1
-0.2693264 -0.2225783 0.5233253 1 0 1
-0.2656058 -0.2218095 0.5214954 1 0 1
-0.2624989 -0.2220051 0.5212927 1 0 1
-0.2591027 -0.2217025 0.5202584 1 0 1
-0.2554286 -0.2208989 0.51839 1 0 1
-0.2489144 -0.2151715 0.50828 1 0 1
-0.2424948 -0.2094144 0.4981411 1 0 1
-0.2356131 -0.2026422 0.4863251 1 0 1
-0.2304895 -0.1987999 0.4794286 1 0 1
-0.2246183 -0.1934521 0.4700331 1 0 1
-0.2150591 -0.1916644 0.465706 1 0 1
-0.2094304 -0.1862354 0.4562305 1 0 1
-0.1852531 -0.2003127 0.4749814 1 0 1
-0.1828561 -0.2012907 0.4761931 1 0 1
-0.2679738 -0.2225846 0.5177113 1 0 1
-0.2648731 -0.2227843 0.5175177 1 0 1
-0.2608843 -0.2214998 0.5148584 1 0 1
-0.2563349 -0.2192159 0.5105456 1 0 1
-0.2509575 -0.2154335 0.5037544 1 0 1
-0.2445 -0.2096508 0.4936574 1 0 1
-0.2372899 -0.2023524 0.4810671 1 0 1
-0.2299186 -0.1945235 0.4676217 1 0 1
-0.2254213 -0.1916289 0.4623732 1 0 1
-0.2209741 -0.188716 0.4571064 1 0 1
-0.2171117 -0.1867822 0.4534703 1 0 1
-0.2143387 -0.1868318 0.4531204 1 0 1
-0.2126098 -0.1888749 0.456065 1 0 1
-0.2090636 -0.1874085 0.4532194 1 0 1
-0.2035279 -0.1819139 0.443742 1 0 1
-0.1873481 -0.200549 0.4706994 1 0 1
-0.1858246 -0.2035725 0.4752482 1 0 1
-0.1821581 -0.2014955 0.471454 1 0 1
-0.1801791 -0.2034914 0.474323 1 0 1
-0.1775673 -0.2039503 0.4746818 1 0 1
-0.1765434 -0.2084996 0.4817175 1 0 1
-0.2672288 -0.2235382 0.5137374 1 0 1
-0.2632343 -0.2222509 0.5110958 1 0 1
-0.2586714 -0.2199592 0.5068062 1 0 1
-0.2529745 -0.2156661 0.4992298 1 0 1
-0.2467691 -0.2103545 0.4899927 1 0 1
-0.2397917 -0.203522 0.4782724 1 0 1
-0.2329241 -0.1966562 0.4665204 1 0 1
-0.2270031 -0.191256 0.4571981 1 0 1
-0.2230955 -0.1893307 0.4535969 1 0 1
-0.2197655 -0.1883927 0.4516239 1 0 1
-0.2167231 -0.1879452 0.4504613 1 0 1
-0.2131656 -0.1864826 0.4476416 1 0 1
-0.2106758 -0.1870215 0.4481041 1 0 1
-0.2076711 -0.1865453 0.4469097 1 0 1
-0.2041742 -0.1850493 0.4440543 1 0 1
-0.2019483 -0.1860706 0.4453156 1 0 1
-0.2004469 -0.1886076 0.4490502 1 0 1
-0.1894544 -0.2073812 0.4767748 1 0 1
-0.1872542 -0.2088903 0.4788234 1 0 1
-0.1827213 -0.2047485 0.4717144 1 0 1
-0.1805281 -0.2062423 0.4737452 1 0 1
-0.1779119 -0.2067027 0.4741038 1 0 1
-0.1754926 -0.2076721 0.475288 1 0 1
-0.2652606 -0.2224807 0.5065157 1 0 1
-0.2600845 -0.2191858 0.5006218 1 0 1
-0.2546672 -0.2153711 0.4938918 1 0 1
-0.2484318 -0.2100357 0.4846935 1 0 1
-0.2411218 -0.2026719 0.4722042 1 0 1
-0.2350755 -0.1972767 0.4629481 1 0 1
-0.2299651 -0.193359 0.4561177 1 0 1
-0.2249197 -0.1894193 0.4492657 1 0 1
-0.2215913 -0.1884788 0.4473059 1 0 1
-0.2193691 -0.1895444 0.4486128 1 0 1
-0.2166011 -0.1895949 0.4482724 1 0 1
-0.2141021 -0.1901435 0.4487441 1 0 1
-0.2113402 -0.1901789 0.4483861 1 0 1
-0.2080707 -0.1891911 0.4463739 1 0 1
-0.2038107 -0.1861582 0.4410572 1 0 1
-0.2025875 -0.1892191 0.4456097 1 0 1
-0.2003438 -0.1902415 0.4468631 1 0 1
-0.1971252 -0.1892159 0.4448095 1 0 1
-0.1954056 -0.2035185 0.4666982 1 0 1
-0.1923656 -0.2029887 0.465447 1 0 1
-0.1940038 -0.2132545 0.4815775 1 0 1
-0.1911278 -0.2132362 0.4811465 1 0 1
-0.1882572 -0.2132098 0.4807062 1 0 1
-0.1834959 -0.2085254 0.4727876 1 0 1
-0.1812911 -0.2100287 0.4748151 1 0 1
-0.1780539 -0.208938 0.4726819 1 0 1
-0.1756344 -0.2099114 0.4738634 1 0 1
-0.2605386 -0.216875 0.4920184 1 0 1
-0.2548165 -0.2125395 0.4845041 1 0 1
-0.2482716 -0.2066744 0.4745283 1 0 1
-0.2418211 -0.2007791 0.4645232 1 0 1
-0.2351746 -0.1943504 0.4536755 1 0 1
-0.2303515 -0.1909152 0.4476855 1 0 1
-0.2261518 -0.1884696 0.4433059 1 0 1
-0.2222739 -0.1865131 0.4397256 1 0 1
-0.2192577 -0.1860621 0.4385808 1 0 1
-0.2170692 -0.1871241 0.4398781 1 0 1
-0.2140666 -0.1866564 0.4387143 1 0 1
-0.2123975 -0.1887254 0.441635 1 0 1
-0.2094011 -0.1882426 0.4404538 1 0 1
-0.206674 -0.1882614 0.4400826 1 0 1
-0.2031935 -0.186737 0.437239 1 0 1
-0.2009861 -0.1877627 0.4384913 1 0 1
-0.1982782 -0.187757 0.4380924 1 0 1
-0.1953341 -0.1872296 0.4368616 1 0 1
-0.1943042 -0.1908116 0.4422103 1 0 1
-0.1922908 -0.1923341 0.4442615 1 0 1
-0.1891098 -0.1912716 0.4421828 1 0 1
-0.1861758 -0.1907156 0.4409184 1 0 1
-0.186368 -0.1973994 0.4512095 1 0 1
-0.1873405 -0.2061683 0.4648133 1 0 1
-0.1862558 -0.2102804 0.470982 1 0 1
-0.1830064 -0.2091967 0.4688728 1 0 1
-0.180192 -0.2091434 0.4684089 1 0 1
-0.1773832 -0.2090822 0.4679358 1 0 1
-0.1743805 -0.2084912 0.4666244 1 0 1
-0.2551975 -0.2101542 0.4759613 1 0 1
-0.2495399 -0.2057709 0.4684519 1 0 1
-0.2427608 -0.1993438 0.4576776 1 0 1
-0.2378511 -0.1959182 0.4517381 1 0 1
-0.2327076 -0.1919651 0.4449663 1 0 1
-0.2290644 -0.1905266 0.4422351 1 0 1
-0.2251651 -0.1885665 0.4386767 1 0 1
-0.2226984 -0.189137 0.4391732 1 0 1
-0.2194017 -0.1881713 0.4372177 1 0 1
-0.217213 -0.1892376 0.4385122 1 0 1
-0.2139413 -0.1882526 0.4365355 1 0 1
-0.2128052 -0.1913565 0.4410825 1 0 1
-0.2100647 -0.1913823 0.4407231 1 0 1
-0.2068157 -0.190372 0.438718 1 0 1
-0.2038399 -0.1898654 0.43752 1 0 1
-0.2016248 -0.1908968 0.4387708 1 0 1
-0.1981723 -0.1893409 0.4359138 1 0 1
-0.1957145 -0.1898417 0.4363278 1 0 1
-0.1932544 -0.1903363 0.4367342 1 0 1
-0.1917282 -0.1929 0.4404217 1 0 1
-0.1890181 -0.1928655 0.4399926 1 0 1
-0.1860869 -0.1923031 0.4387311 1 0 1
-0.1838367 -0.1932946 0.4399317 1 0 1
-0.1850767 -0.2026295 0.4543189 1 0 1
-0.1816713 -0.2077498 0.4616592 1 0 1
-0.1803339 -0.2113563 0.4669763 1 0 1
-0.2486237 -0.2012873 0.4567449 1 0 1
-0.244255 -0.1988803 0.4524662 1 0 1
-0.2381368 -0.1934086 0.4433218 1 0 1
-0.2347588 -0.1924877 0.4414295 1 0 1
-0.2311095 -0.1910453 0.4387151 1 0 1
-0.228062 -0.1906108 0.4376077 1 0 1
-0.2247434 -0.1896549 0.4356783 1 0 1
-0.2225635 -0.190737 0.4369844 1 0 1
-0.2192696 -0.1897617 0.4350337 1 0 1
-0.2168123 -0.1903172 0.4355112 1 0 1
-0.2143523 -0.1908665 0.4359811 1 0 1
-0.2124191 -0.1924411 0.438073 1 0 1
-0.2096856 -0.192463 0.4377136 1 0 1
-0.2069572 -0.192477 0.4373451 1 0 1
-0.2042339 -0.1924831 0.4369675 1 0 1
-0.2012663 -0.1919624 0.4357634 1 0 1
-0.1980658 -0.1909125 0.433731 1 0 1
-0.1956114 -0.1914134 0.4341437 1 0 1
-0.1924405 -0.1903442 0.4320903 1 0 1
-0.19093 -0.1929187 0.4357664 1 0 1
-0.1875432 -0.1913104 0.4328741 1 0 1
-0.1853178 -0.1923078 0.4340759 1 0 1
-0.182637 -0.1922519 0.4336277 1 0 1
-0.1825894 -0.1984885 0.44304 1 0 1
-0.1809494 -0.2010543 0.4466961 1 0 1
-0.1805445 -0.206778 0.4552902 1 0 1
-0.1786085 -0.2088194 0.4581185 1 0 1
-0.2438773 -0.1953287 0.4424378 1 0 1
-0.2404741 -0.1944193 0.440573 1 0 1
-0.2358955 -0.1914535 0.435472 1 0 1
-0.2337265 -0.1925648 0.4368058 1 0 1
-0.2303822 -0.1916199 0.4349034 1 0 1
-0.2279202 -0.1922048 0.4354136 1 0 1
-0.2234692 -0.1891807 0.4302528 1 0 1
-0.221028 -0.189747 0.4307424 1 0 1
-0.2177557 -0.1887578 0.4287928 1 0 1
-0.2155931 -0.1898264 0.4300765 1 0 1
-0.2131516 -0.1903725 0.430542 1 0 1
-0.2122968 -0.1940261 0.4358763 1 0 1
-0.2095665 -0.1940449 0.4355175 1 0 1
-0.2060694 -0.1924939 0.4327073 1 0 1
-0.2028537 -0.1914516 0.430699 1 0 1
-0.2001577 -0.1914428 0.43031 1 0 1
-0.1972211 -0.1909032 0.429096 1 0 1
-0.1947815 -0.1914018 0.4295054 1 0 1
-0.1923396 -0.1918943 0.4299073 1 0 1
-0.1903644 -0.1934312 0.4319376 1 0 1
-0.1874491 -0.1928607 0.4306885 1 0 1
-0.1852273 -0.1938615 0.431887 1 0 1
-0.1821038 -0.1927473 0.4298002 1 0 1
-0.1809736 -0.1963769 0.4350851 1 0 1
-0.1778572 -0.1952482 0.4329815 1 0 1
-0.1770885 -0.1999352 0.4399025 1 0 1
-0.173141 -0.1966719 0.4344953 1 0 1
-0.2412687 -0.1928491 0.433805 1 0 1
-0.2388064 -0.1934628 0.4343474 1 0 1
-0.2351452 -0.192013 0.4316668 1 0 1
-0.233578 -0.1941562 0.4346045 1 0 1
-0.2305278 -0.193718 0.4335122 1 0 1
-0.2272022 -0.1927529 0.4316032 1 0 1
-0.2230445 -0.1902225 0.4272611 1 0 1
-0.2206106 -0.190788 0.4277485 1 0 1
-0.2165154 -0.1882294 0.4233777 1 0 1
-0.2138261 -0.1882569 0.4230365 1 0 1
-0.2116796 -0.1893192 0.4243061 1 0 1
-0.2100533 -0.1914215 0.4271908 1 0 1
-0.2073564 -0.1914305 0.4268271 1 0 1
-0.2044072 -0.1909079 0.4256426 1 0 1
-0.2019781 -0.1914251 0.4260731 1 0 1
-0.1995467 -0.1919362 0.4264962 1 0 1
-0.1963746 -0.1908625 0.4244699 1 0 1
-0.1946767 -0.1929399 0.4273199 1 0 1
-0.1917612 -0.1923769 0.4260901 1 0 1
-0.1897975 -0.1939188 0.4281135 1 0 1
-0.1871237 -0.1938697 0.4276827 1 0 1
-0.1853634 -0.1959331 0.4305113 1 0 1
-0.182462 -0.1953408 0.4292477 1 0 1
-0.1815483 -0.1995227 0.4353379 1 0 1
-0.1790699 -0.1999831 0.4356973 1 0 1
-0.1787068 -0.2057661 0.4442419 1 0 1
-0.1736911 -0.1998178 0.4347537 1 0 1
-0.240496 -0.1934 0.4300023 1 0 1
-0.2386505 -0.1950451 0.4321431 1 0 1
-0.2349918 -0.1935827 0.4294695 1 0 1
-0.233724 -0.196254 0.4332016 1 0 1
-0.2303813 -0.195291 0.4313096 1 0 1
-0.2267705 -0.1937961 0.4286013 1 0 1
-0.2226187 -0.1912457 0.4242697 1 0 1
-0.2199115 -0.1912884 0.4239492 1 0 1
-0.2163792 -0.1897548 0.421201 1 0 1
-0.2134203 -0.1892554 0.4200534 1 0 1
-0.2118194 -0.1913693 0.4229342 1 0 1
-0.2101933 -0.193482 0.4258117 1 0 1
-0.2069729 -0.1924363 0.4238312 1 0 1
-0.2045458 -0.1929606 0.4242684 1 0 1
-0.2023703 -0.1940066 0.4255088 1 0 1
-0.1991843 -0.1929334 0.4234984 1 0 1
-0.1965114 -0.1929082 0.4231002 1 0 1
-0.1952989 -0.1960565 0.4275678 1 0 1
-0.1926137 -0.1960205 0.4271559 1 0 1
-0.1906385 -0.1975719 0.4291763 1 0 1
-0.1886459 -0.1991201 0.4311915 1 0 1
-0.186863 -0.2011984 0.4340165 1 0 1
-0.1839378 -0.2006049 0.4327601 1 0 1
-0.182563 -0.2037452 0.437206 1 0 1
-0.1800689 -0.2042092 0.4375669 1 0 1
-0.1782085 -0.2062753 0.4403715 1 0 1
-0.1740339 -0.2024343 0.4341777 1 0 1
-0.2397216 -0.1939261 0.4262043 1 0 1
-0.237281 -0.1945363 0.42674 1 0 1
-0.2339393 -0.1935781 0.4248696 1 0 1
-0.2315042 -0.1941731 0.4253879 1 0 1
-0.2278987 -0.1926718 0.4226941 1 0 1
-0.2246087 -0.1916805 0.4207886 1 0 1
-0.2210541 -0.1901534 0.4180683 1 0 1
-0.2180883 -0.1896634 0.4169413 1 0 1
-0.2145812 -0.1881119 0.4141957 1 0 1
-0.2121941 -0.1886548 0.4146563 1 0 1
-0.2106124 -0.1907749 0.4175262 1 0 1
-0.2082089 -0.1913082 0.4179742 1 0 1
-0.205803 -0.1918354 0.4184148 1 0 1
-0.2033946 -0.1923565 0.4188479 1 0 1
-0.2017461 -0.1944646 0.4216987 1 0 1
-0.1990713 -0.1944439 0.4213101 1 0 1
-0.1966481 -0.1949482 0.4217223 1 0 1
-0.1954363 -0.1981134 0.4261785 1 0 1
-0.1929894 -0.1986092 0.4265789 1 0 1
-0.1910105 -0.2001687 0.4285949 1 0 1
-0.1890142 -0.201725 0.4306057 1 0 1
-0.1870002 -0.203278 0.4326114 1 0 1
-0.1842979 -0.203216 0.432172 1 0 1
-0.1824803 -0.2052981 0.4349792 1 0 1
-0.1802056 -0.2063008 0.4361533 1 0 1
-0.1772847 -0.2056806 0.4348761 1 0 1
-0.08934974 -0.2193405 0.444837 1 0 1
-0.0820118 -0.2227992 0.4491746 1 0 1
-0.06634973 -0.221159 0.4452389 1 0 1
-0.0636058 -0.2185243 0.4411093 1 0 1
-0.06119925 -0.2209306 0.4444159 1 0 1
-0.0587609 -0.2233321 0.4477145 1 0 1
-0.05618953 -0.2234828 0.447697 1 0 1
-0.05338244 -0.2174473 0.4385747 1 0 1
-0.2377169 -0.1923394 0.419228 1 0 1
-0.2349988 -0.1924211 0.4189606 1 0 1
-0.2313864 -0.1909232 0.4162921 1 0 1
-0.228393 -0.1904613 0.415206 1 0 1
-0.2251197 -0.189464 0.4133104 1 0 1
-0.222443 -0.1895083 0.4130022 1 0 1
-0.2194865 -0.1890172 0.4118847 1 0 1
-0.2171043 -0.1895733 0.4123593 1 0 1
-0.2144424 -0.189594 0.4120245 1 0 1
-0.2117854 -0.189607 0.4116809 1 0 1
-0.2104811 -0.1922668 0.4153455 1 0 1
-0.2083468 -0.1933319 0.4165962 1 0 1
-0.2056786 -0.1933274 0.4162313 1 0 1
-0.2032737 -0.1938486 0.4166631 1 0 1
-0.2016293 -0.1959663 0.419506 1 0 1
-0.198707 -0.1954075 0.4183113 1 0 1
-0.1965379 -0.1964468 0.419529 1 0 1
-0.1948448 -0.1985548 0.4223568 1 0 1
-0.1928872 -0.2001239 0.424372 1 0 1
-0.1906769 -0.2011517 0.4255731 1 0 1
-0.1891512 -0.2037915 0.4291975 1 0 1
-0.1869097 -0.2048121 0.4303876 1 0 1
-0.1844344 -0.2052875 0.4307602 1 0 1
-0.1828371 -0.207921 0.4343719 1 0 1
-0.1807746 -0.2094703 0.436356 1 0 1
-0.1772082 -0.2072183 0.4326453 1 0 1
-0.108249 -0.2110227 0.4301699 1 0 1
-0.1062813 -0.2140881 0.4344195 1 0 1
-0.1035737 -0.2132403 0.4329003 1 0 1
-0.1005926 -0.2107072 0.4289023 1 0 1
-0.09811031 -0.2109613 0.4290133 1 0 1
-0.09571529 -0.211769 0.4299406 1 0 1
-0.0931429 -0.2114506 0.4292127 1 0 1
-0.09073831 -0.2122464 0.4301252 1 0 1
-0.08855449 -0.2147198 0.4335032 1 0 1
-0.08626599 -0.2166283 0.4360503 1 0 1
-0.08347262 -0.2146003 0.4328189 1 0 1
-0.08135727 -0.2181838 0.4378249 1 0 1
-0.07876843 -0.2178282 0.4370518 1 0 1
-0.076073 -0.2163401 0.4346215 1 0 1
-0.07350644 -0.2159698 0.4338327 1 0 1
-0.0709962 -0.2161558 0.4338609 1 0 1
-0.0682146 -0.212954 0.4289325 1 0 1
-0.06597413 -0.2165085 0.4338946 1 0 1
-0.06346234 -0.2166753 0.4339001 1 0 1
-0.06095013 -0.2168356 0.4338979 1 0 1
-0.05858473 -0.2198126 0.4380125 1 0 1
-0.05602663 -0.2193965 0.4371702 1 0 1
-0.0533682 -0.2161484 0.4321964 1 0 1
-0.05091549 -0.2179784 0.4346381 1 0 1
-0.04846641 -0.2209342 0.4387212 1 0 1
-0.04593863 -0.2216229 0.4394976 1 0 1
-0.2369383 -0.1928034 0.4154482 1 0 1
-0.2336236 -0.1918279 0.4135909 1 0 1
-0.2303286 -0.1908406 0.4117214 1 0 1
-0.2276455 -0.1908976 0.4114317 1 0 1
-0.2243825 -0.1898891 0.4095396 1 0 1
-0.2220052 -0.1904581 0.410028 1 0 1
-0.2201949 -0.1920825 0.4121056 1 0 1
-0.2178048 -0.1926412 0.4125808 1 0 1
-0.2148575 -0.192129 0.4114493 1 0 1
-0.2124697 -0.1926738 0.4119084 1 0 1
-0.2106189 -0.1942807 0.4139625 1 0 1
-0.2082186 -0.194815 0.4144084 1 0 1
-0.2050292 -0.1937358 0.4124389 1 0 1
-0.2034104 -0.1958651 0.4152779 1 0 1
-0.202021 -0.1985307 0.4189174 1 0 1
-0.199345 -0.1985054 0.4185317 1 0 1
-0.197415 -0.2000894 0.4205531 1 0 1
-0.1954676 -0.2016704 0.4225696 1 0 1
-0.1930238 -0.2021671 0.422968 1 0 1
-0.1905778 -0.2026576 0.423359 1 0 1
-0.1890565 -0.2053103 0.4269734 1 0 1
-0.1868186 -0.2063341 0.4281601 1 0 1
-0.1845709 -0.2073531 0.4293403 1 0 1
-0.1836347 -0.2116331 0.4353709 1 0 1
-0.1819937 -0.2142818 0.4389717 1 0 1
-0.1100997 -0.2220539 0.4418864 1 0 1
-0.1070295 -0.2195276 0.4379189 1 0 1
-0.1036968 -0.2153047 0.4314784 1 0 1
-0.1009069 -0.2138806 0.4291337 1 0 1
-0.09850865 -0.2146988 0.4300661 1 0 1
-0.09601327 -0.2149482 0.4301696 1 0 1
-0.09334801 -0.2140643 0.4286221 1 0 1
-0.09110049 -0.215992 0.4311759 1 0 1
-0.08875195 -0.2173513 0.432901 1 0 1
-0.0863869 -0.2187056 0.4346189 1 0 1
-0.08386777 -0.218925 0.4346852 1 0 1
-0.08154269 -0.2208338 0.4372109 1 0 1
-0.07888836 -0.21991 0.4356172 1 0 1
-0.07613484 -0.2178468 0.4323707 1 0 1
-0.07357164 -0.2174733 0.4315837 1 0 1
-0.07101567 -0.2170928 0.430789 1 0 1
-0.06842168 -0.2161386 0.4291641 1 0 1
-0.06600847 -0.2174452 0.430822 1 0 1
-0.06350414 -0.2176119 0.4308272 1 0 1
-0.06096585 -0.2172045 0.4300021 1 0 1
-0.05852386 -0.2184937 0.4316374 1 0 1
-0.0559374 -0.2169372 0.429152 1 0 1
-0.05339592 -0.2159413 0.4274818 1 0 1
-0.05088773 -0.2155066 0.4266268 1 0 1
-0.04841493 -0.2162025 0.4274092 1 0 1
-0.04594408 -0.2174614 0.4290064 1 0 1
-0.04346942 -0.2198527 0.4322402 1 0 1
-0.2352352 -0.1916576 0.4092993 1 0 1
-0.231942 -0.1906681 0.4074428 1 0 1
-0.2289686 -0.1901969 0.4063672 1 0 1
-0.2260074 -0.189716 0.4052811 1 0 1
-0.222766 -0.1886935 0.40339 1 0 1
-0.2215663 -0.1913897 0.4070544 1 0 1
-0.2194786 -0.1924857 0.4083293 1 0 1
-0.2173808 -0.1935774 0.4095985 1 0 1
-0.2147177 -0.1935936 0.4092665 1 0 1
-0.2123335 -0.1941385 0.4097242 1 0 1
-0.2104865 -0.1957517 0.4117726 1 0 1
-0.2080896 -0.1962861 0.4122169 1 0 1
-0.2051654 -0.1957364 0.4110531 1 0 1
-0.2038056 -0.1984159 0.4146858 1 0 1
-0.2019033 -0.2000146 0.416713 1 0 1
-0.1989796 -0.1994448 0.4155257 1 0 1
-0.1970574 -0.2010345 0.4175408 1 0 1
-0.1951175 -0.202621 0.4195508 1 0 1
-0.1922021 -0.2020295 0.4183387 1 0 1
-0.1895352 -0.2019733 0.4179215 1 0 1
-0.1875696 -0.2035451 0.4199124 1 0 1
-0.1853584 -0.2045677 0.4210921 1 0 1
-0.1833616 -0.2061324 0.4230722 1 0 1
-0.1813474 -0.2076937 0.425047 1 0 1
-0.179749 -0.210348 0.4286321 1 0 1
-0.1076307 -0.2106097 0.4207856 1 0 1
-0.1056954 -0.2137049 0.4250103 1 0 1
-0.1030175 -0.2128419 0.4234977 1 0 1
-0.1005471 -0.2131021 0.4236149 1 0 1
-0.09816832 -0.213922 0.4245437 1 0 1
-0.09595799 -0.215869 0.4271041 1 0 1
-0.09338444 -0.2155451 0.4263799 1 0 1
-0.09122176 -0.2180498 0.4297462 1 0 1
-0.08887326 -0.2194159 0.4314664 1 0 1
-0.08636232 -0.2196414 0.4315397 1 0 1
-0.08364356 -0.218156 0.4291454 1 0 1
-0.08127311 -0.2195047 0.4308433 1 0 1
-0.07876393 -0.2197107 0.4308937 1 0 1
-0.07602499 -0.2176337 0.4276556 1 0 1
-0.0735302 -0.2178256 0.4276906 1 0 1
-0.07098546 -0.2174415 0.4268977 1 0 1
-0.0684025 -0.2164803 0.4252768 1 0 1
-0.06579316 -0.2149415 0.422828 1 0 1
-0.06335749 -0.2156769 0.4236532 1 0 1
-0.06084613 -0.2152649 0.4228301 1 0 1
-0.05840183 -0.2159882 0.4236403 1 0 1
-0.05594927 -0.2167056 0.424443 1 0 1
-0.05342274 -0.2157027 0.4227771 1 0 1
-0.05091167 -0.2146925 0.421104 1 0 1
-0.04843016 -0.214247 0.4202439 1 0 1
-0.04597662 -0.2149392 0.4210167 1 0 1
-0.04350879 -0.2150531 0.4209619 1 0 1
-0.04103629 -0.2140157 0.4192597 1 0 1
-0.2338369 -0.1909999 0.4039578 1 0 1
-0.2311696 -0.191062 0.4036831 1 0 1
-0.2282067 -0.1905827 0.4026087 1 0 1
-0.2246629 -0.1890252 0.3999406 1 0 1
-0.2223178 -0.189595 0.4004285 1 0 1
-0.2205481 -0.1912309 0.4024955 1 0 1
-0.2184754 -0.1923273 0.4037644 1 0 1
-0.2163925 -0.1934197 0.4050277 1 0 1
-0.2140218 -0.1939689 0.4054896 1 0 1
-0.2121965 -0.1955911 0.4075366 1 0 1
-0.2098132 -0.1961299 0.4079854 1 0 1
-0.2074273 -0.1966625 0.4084269 1 0 1
-0.205039 -0.1971891 0.4088612 1 0 1
-0.2031659 -0.1987955 0.4108859 1 0 1
-0.2012751 -0.2003989 0.4129059 1 0 1
-0.1993668 -0.2019995 0.4149212 1 0 1
-0.1969461 -0.2025064 0.4153299 1 0 1
-0.1945231 -0.2030071 0.4157313 1 0 1
-0.191858 -0.2029547 0.4153233 1 0 1
-0.1891983 -0.2028946 0.4149065 1 0 1
-0.1870082 -0.2039235 0.4160877 1 0 1
-0.1845801 -0.2043987 0.4164588 1 0 1
-0.1825987 -0.2059676 0.4184315 1 0 1
-0.1814825 -0.2097357 0.4236191 1 0 1
-0.1790173 -0.210198 0.4239724 1 0 1
-0.1107702 -0.2151833 0.4233147 1 0 1
-0.108078 -0.2143287 0.4218219 1 0 1
-0.105505 -0.2140341 0.4211371 1 0 1
-0.1029387 -0.2137323 0.4204445 1 0 1
-0.1004757 -0.2139921 0.4205608 1 0 1
-0.09819726 -0.2153841 0.4223037 1 0 1
-0.09581342 -0.2162018 0.4232226 1 0 1
-0.09342086 -0.2170138 0.4241343 1 0 1
-0.09126254 -0.2195313 0.4274911 1 0 1
-0.08884086 -0.2203333 0.4283887 1 0 1
-0.0863374 -0.2205586 0.4284614 1 0 1
-0.08376395 -0.2202061 0.4277088 1 0 1
-0.0813282 -0.22099 0.4285841 1 0 1
-0.07863846 -0.2194798 0.4261802 1 0 1
-0.07608646 -0.2191061 0.4254044 1 0 1
-0.07359523 -0.2192982 0.425439 1 0 1
-0.07100418 -0.218338 0.4238299 1 0 1
-0.06847403 -0.2179435 0.4230314 1 0 1
-0.06599297 -0.2181156 0.4230433 1 0 1
-0.06354923 -0.2188551 0.4238659 1 0 1
-0.06102946 -0.2184407 0.4230448 1 0 1
-0.05854713 -0.2185937 0.4230343 1 0 1
-0.05603839 -0.2181659 0.4221982 1 0 1
-0.05351503 -0.2171567 0.4205367 1 0 1
-0.05098896 -0.2155652 0.4180499 1 0 1
-0.04852903 -0.2156916 0.4180098 1 0 1
-0.04607918 -0.216387 0.4187802 1 0 1
-0.0436149 -0.216501 0.4187252 1 0 1
-0.04114561 -0.2154573 0.4170274 1 0 1
-0.2321281 -0.1897705 0.3978436 1 0 1
-0.2294827 -0.1898247 0.3975654 1 0 1
-0.2268422 -0.189871 0.3972784 1 0 1
-0.2239096 -0.189372 0.3961931 1 0 1
-0.2218684 -0.1904783 0.3974681 1 0 1
-0.2206849 -0.193198 0.4011103 1 0 1
-0.2183267 -0.1937585 0.4015845 1 0 1
-0.2162475 -0.1948539 0.402844 1 0 1
-0.2136023 -0.1948613 0.4025113 1 0 1
-0.2123331 -0.1975745 0.4061394 1 0 1
-0.2102198 -0.1986577 0.4073821 1 0 1
-0.2078299 -0.1991922 0.4078236 1 0 1
-0.2054374 -0.1997204 0.4082578 1 0 1
-0.2038197 -0.2018809 0.4110747 1 0 1
-0.2011558 -0.2018525 0.4106989 1 0 1
-0.199 -0.2029116 0.4119104 1 0 1
-0.1970819 -0.2045148 0.4139144 1 0 1
-0.1949024 -0.2055657 0.4151144 1 0 1
-0.1919929 -0.2049616 0.4139085 1 0 1
-0.1895688 -0.20545 0.4142937 1 0 1
-0.1866778 -0.2048289 0.4130694 1 0 1
-0.1840285 -0.204751 0.4126371 1 0 1
-0.1820588 -0.2063248 0.414603 1 0 1
-0.1809549 -0.2101106 0.4197748 1 0 1
-0.1126706 -0.2135032 0.4168559 1 0 1
-0.1101069 -0.2132176 0.4161874 1 0 1
-0.1078756 -0.2146369 0.4179529 1 0 1
-0.1052091 -0.2137671 0.4164552 1 0 1
-0.1027585 -0.2140325 0.4165781 1 0 1
-0.1004038 -0.2148636 0.417508 1 0 1
-0.09804033 -0.2156892 0.4184308 1 0 1
-0.09584607 -0.217655 0.4209763 1 0 1
-0.09345726 -0.2184704 0.4218853 1 0 1
-0.09122206 -0.2204272 0.4244172 1 0 1
-0.08880804 -0.2212322 0.4253121 1 0 1
-0.08623874 -0.2208828 0.4245687 1 0 1
-0.08374593 -0.2211011 0.4246331 1 0 1
-0.0812524 -0.221313 0.42469 1 0 1
-0.07863502 -0.220368 0.4231081 1 0 1
-0.07603266 -0.2194154 0.4215184 1 0 1
-0.07355285 -0.2196069 0.4215525 1 0 1
-0.07097285 -0.2186397 0.4199474 1 0 1
-0.06845392 -0.2182415 0.4191507 1 0 1
-0.06594232 -0.2178364 0.4183464 1 0 1
-0.06351417 -0.2185785 0.4191664 1 0 1
-0.06097544 -0.217583 0.4175314 1 0 1
-0.05854252 -0.2183126 0.4183366 1 0 1
-0.05604893 -0.217881 0.4175026 1 0 1
-0.05356291 -0.2174426 0.4166613 1 0 1
-0.05104771 -0.2158412 0.4141812 1 0 1
-0.04861362 -0.2165456 0.4149568 1 0 1
-0.04616094 -0.2166656 0.4149092 1 0 1
-0.04371468 -0.217358 0.4156696 1 0 1
-0.0412578 -0.2174656 0.4156072 1 0 1
-0.2322658 -0.1917242 0.3964568 1 0 1
-0.230229 -0.1928535 0.3977511 1 0 1
-0.2272797 -0.1923599 0.3966807 1 0 1
-0.2246396 -0.192397 0.3963871 1 0 1
-0.2222977 -0.1929678 0.3968728 1 0 1
-0.2211111 -0.1957019 0.400506 1 0 1
-0.2190345 -0.1968074 0.4017697 1 0 1
-0.2163838 -0.1968203 0.4014472 1 0 1
-0.2140163 -0.1973705 0.4019069 1 0 1
-0.2116462 -0.1979146 0.4023594 1 0 1
-0.2092737 -0.1984526 0.4028047 1 0 1
-0.2068985 -0.1989844 0.4032426 1 0 1
-0.204521 -0.1995102 0.4036733 1 0 1
-0.2024003 -0.2005792 0.4048912 1 0 1
-0.2002697 -0.2016437 0.4061032 1 0 1
-0.1983806 -0.2032545 0.4081048 1 0 1
-0.196474 -0.2048625 0.4101018 1 0 1
-0.1943059 -0.205915 0.411297 1 0 1
-0.1916473 -0.2058563 0.4108906 1 0 1
-0.189467 -0.2068979 0.4120722 1 0 1
-0.1863465 -0.2057159 0.4100523 1 0 1
-0.1832469 -0.2045231 0.4080216 1 0 1
-0.1812925 -0.206101 0.4099799 1 0 1
-0.1134932 -0.218942 0.4202982 1 0 1
-0.110455 -0.2163626 0.4163871 1 0 1
-0.1078898 -0.216068 0.4157132 1 0 1
-0.1052264 -0.2151919 0.4142193 1 0 1
-0.1028803 -0.2160321 0.4151535 1 0 1
-0.1005255 -0.2168669 0.4160808 1 0 1
-0.09816185 -0.2176962 0.417001 1 0 1
-0.09587867 -0.219096 0.4187267 1 0 1
-0.0934936 -0.2199147 0.4196328 1 0 1
-0.09118123 -0.2213045 0.4213446 1 0 1
-0.08869745 -0.2215352 0.4214235 1 0 1
-0.08613937 -0.2211821 0.4206816 1 0 1
-0.08372753 -0.2219776 0.4215587 1 0 1
-0.0813072 -0.2227673 0.4224283 1 0 1
-0.07863126 -0.2212376 0.4200372 1 0 1
-0.07609387 -0.220857 0.4192649 1 0 1
-0.07350981 -0.2198905 0.4176716 1 0 1
-0.07094087 -0.2189165 0.4160708 1 0 1
-0.06838708 -0.217935 0.4144623 1 0 1
-0.06584859 -0.216946 0.4128464 1 0 1
-0.06343987 -0.2176903 0.4136637 1 0 1
-0.06095433 -0.2172679 0.4128466 1 0 1
-0.05844592 -0.216258 0.4112086 1 0 1
-0.05597934 -0.2158219 0.4103768 1 0 1
-0.05356525 -0.2165413 0.4111647 1 0 1
-0.05108735 -0.2155109 0.409505 1 0 1
-0.04863954 -0.2150549 0.4086515 1 0 1
-0.04622082 -0.2157557 0.4094174 1 0 1
-0.04379407 -0.2164508 0.4101759 1 0 1
-0.04134231 -0.2136472 0.4060481 1 0 1
-0.2317862 -0.1925905 0.3934972 1 0 1
-0.2288427 -0.1920967 0.3924368 1 0 1
-0.2262124 -0.1921358 0.3921502 1 0 1
-0.2235869 -0.1921671 0.3918549 1 0 1
-0.2215532 -0.1932796 0.3931223 1 0 1
-0.2206681 -0.1965699 0.3975301 1 0 1
-0.218885 -0.198224 0.3995765 1 0 1
-0.216802 -0.1993283 0.4008307 1 0 1
-0.2144304 -0.1998803 0.4012904 1 0 1
-0.2120562 -0.2004261 0.4017428 1 0 1
-0.2094088 -0.200416 0.4013979 1 0 1
-0.2070335 -0.2009488 0.4018351 1 0 1
-0.2046557 -0.2014754 0.402265 1 0 1
-0.2022755 -0.201996 0.4026878 1 0 1
-0.1998928 -0.2025104 0.4031032 1 0 1
-0.1982634 -0.2046808 0.4058919 1 0 1
-0.1958647 -0.2051855 0.4062948 1 0 1
-0.1939521 -0.2067951 0.4082799 1 0 1
-0.1915411 -0.207289 0.4086693 1 0 1
-0.1893645 -0.2083339 0.4098473 1 0 1
-0.1860143 -0.2065844 0.4070363 1 0 1
-0.1826923 -0.2048229 0.4042133 1 0 1
-0.1129175 -0.217499 0.413998 1 0 1
-0.1099015 -0.2149014 0.4100966 1 0 1
-0.107468 -0.2151786 0.4102325 1 0 1
-0.1050335 -0.2154496 0.410361 1 0 1
-0.1028002 -0.2168701 0.4121017 1 0 1
-0.1004531 -0.2177077 0.4130259 1 0 1
-0.09791052 -0.2173824 0.4123228 1 0 1
-0.09573241 -0.2193666 0.4148531 1 0 1
-0.093359 -0.2201877 0.4157561 1 0 1
-0.09097687 -0.2210033 0.4166519 1 0 1
-0.08858606 -0.2218133 0.4175406 1 0 1
-0.08603922 -0.2214564 0.4168004 1 0 1
-0.08349945 -0.2210925 0.4160526 1 0 1
-0.08096681 -0.2207216 0.4152972 1 0 1
-0.07844131 -0.2203436 0.4145341 1 0 1
-0.07592301 -0.2199588 0.4137635 1 0 1
-0.07346608 -0.2201492 0.4137966 1 0 1
-0.07095835 -0.2197509 0.4130111 1 0 1
-0.06841176 -0.2187627 0.4114069 1 0 1
-0.06588034 -0.2177672 0.4097952 1 0 1
-0.06344096 -0.2179311 0.4097987 1 0 1
-0.06096671 -0.2175051 0.4089835 1 0 1
-0.05846941 -0.2164884 0.4073499 1 0 1
-0.05606725 -0.217217 0.4081427 1 0 1
-0.05363426 -0.2173553 0.4081169 1 0 1
-0.05118226 -0.2169028 0.4072727 1 0 1
-0.04876749 -0.2176133 0.4080435 1 0 1
-0.04634468 -0.2183178 0.4088067 1 0 1
-0.04392078 -0.2196015 0.4103735 1 0 1
-0.04147501 -0.2197091 0.4103108 1 0 1
-0.03902084 -0.2250795 0.4175372 1 0 1
-0.2313055 -0.1934386 0.3905388 1 0 1
-0.2286737 -0.1934825 0.3902616 1 0 1
-0.2254443 -0.1924269 0.3884119 1 0 1
-0.223127 -0.193 0.3888984 1 0 1
-0.2216882 -0.1952101 0.3917282 1 0 1
-0.2202241 -0.1974197 0.3945554 1 0 1
-0.2181625 -0.1985297 0.39581 1 0 1
-0.2160908 -0.1996354 0.397059 1 0 1
-0.2140089 -0.2007368 0.3983021 1 0 1
-0.2113672 -0.2007297 0.3979653 1 0 1
-0.2090017 -0.2012678 0.3984076 1 0 1
-0.2063664 -0.2012458 0.3980542 1 0 1
-0.2039997 -0.2017708 0.3984813 1 0 1
-0.2018903 -0.2028453 0.3996913 1 0 1
-0.1992592 -0.2028027 0.3993141 1 0 1
-0.1976415 -0.2049808 0.4020933 1 0 1
-0.1959987 -0.2071576 0.4048691 1 0 1
-0.1943307 -0.2093332 0.4076415 1 0 1
-0.1923969 -0.2109477 0.4096171 1 0 1
-0.191156 -0.21424 0.413969 1 0 1
-0.1884768 -0.2141673 0.4135534 1 0 1
-0.1855738 -0.2135251 0.4123344 1 0 1
-0.1174258 -0.2284578 0.4253086 1 0 1
-0.1132752 -0.2206468 0.4141706 1 0 1
-0.110137 -0.2174551 0.4094738 1 0 1
-0.1075903 -0.217153 0.4088023 1 0 1
-0.1050502 -0.2168437 0.4081231 1 0 1
-0.1027196 -0.2176896 0.4090513 1 0 1
-0.1001854 -0.217367 0.408357 1 0 1
-0.09784497 -0.2182012 0.4092708 1 0 1
-0.09549578 -0.2190299 0.4101775 1 0 1
-0.09322358 -0.2204358 0.4118853 1 0 1
-0.09077132 -0.2206709 0.4119698 1 0 1
-0.08847388 -0.2220665 0.4136638 1 0 1
-0.0859383 -0.2217057 0.4129251 1 0 1
-0.08340977 -0.221338 0.4121789 1 0 1
-0.0808884 -0.2209633 0.4114251 1 0 1
-0.07831202 -0.2199969 0.4098551 1 0 1
-0.07580893 -0.2196079 0.4090862 1 0 1
-0.07336736 -0.2197976 0.4091187 1 0 1
-0.07087486 -0.2193952 0.408335 1 0 1
-0.06843608 -0.219572 0.4083529 1 0 1
-0.06595436 -0.2191562 0.4075545 1 0 1
-0.0635186 -0.2193202 0.4075577 1 0 1
-0.06104775 -0.2188911 0.4067445 1 0 1
-0.05855368 -0.2178681 0.4051152 1 0 1
-0.05610178 -0.2174253 0.4042876 1 0 1
-0.05368025 -0.2175633 0.4042616 1 0 1
-0.05123952 -0.2171074 0.4034197 1 0 1
-0.04885141 -0.2184085 0.4049969 1 0 1
-0.04643632 -0.2191161 0.4057578 1 0 1
-0.04402742 -0.2209944 0.4081284 1 0 1
-0.04158842 -0.2216906 0.4088742 1 0 1
-0.2311324 -0.1948158 0.3883599 1 0 1
-0.228809 -0.1954046 0.3888622 1 0 1
-0.2261817 -0.1954384 0.3885777 1 0 1
-0.2235589 -0.1954644 0.3882845 1 0 1
-0.2221167 -0.1976856 0.3911075 1 0 1
-0.2206493 -0.1999063 0.3939279 1 0 1
-0.2182975 -0.2004687 0.3943976 1 0 1
-0.2159432 -0.2010249 0.3948601 1 0 1
-0.213865 -0.2021295 0.3960995 1 0 1
-0.2109517 -0.2015641 0.3949785 1 0 1
-0.2088647 -0.2026573 0.3962043 1 0 1
-0.2065003 -0.2031893 0.396638 1 0 1
-0.203606 -0.2025996 0.3954904 1 0 1
-0.201764 -0.204235 0.3974837 1 0 1
-0.1996484 -0.2053081 0.3986841 1 0 1
-0.1975227 -0.2063768 0.3998785 1 0 1
-0.1961326 -0.209124 0.4034358 1 0 1
-0.1944649 -0.2113097 0.4062006 1 0 1
-0.1925313 -0.2129314 0.4081709 1 0 1
-0.1912912 -0.21624 0.4125106 1 0 1
-0.1886115 -0.2161651 0.4120967 1 0 1
-0.1162219 -0.2240887 0.4149786 1 0 1
-0.1125797 -0.218559 0.4070872 1 0 1
-0.1098071 -0.2170945 0.4048158 1 0 1
-0.1073848 -0.2173713 0.4049502 1 0 1
-0.1047505 -0.2164743 0.4034672 1 0 1
-0.1024355 -0.2173221 0.4043919 1 0 1
-0.09991639 -0.2169951 0.4036987 1 0 1
-0.09749787 -0.2172462 0.4038036 1 0 1
-0.09507838 -0.2174911 0.4039011 1 0 1
-0.09282976 -0.2189016 0.4056031 1 0 1
-0.0904007 -0.2191347 0.4056863 1 0 1
-0.08820489 -0.2211216 0.4081807 1 0 1
-0.08561429 -0.2201694 0.4066372 1 0 1
-0.08310884 -0.2197968 0.4058924 1 0 1
-0.0806105 -0.2194174 0.4051401 1 0 1
-0.07818162 -0.2196189 0.4051867 1 0 1
-0.07563532 -0.2186377 0.4036131 1 0 1
-0.07326755 -0.2194148 0.4044516 1 0 1
-0.07084082 -0.2195973 0.4044763 1 0 1
-0.06836691 -0.2191844 0.4036872 1 0 1
-0.06585772 -0.2181753 0.402084 1 0 1
-0.0634025 -0.2177485 0.4012803 1 0 1
-0.06095476 -0.217315 0.4004692 1 0 1
-0.05851449 -0.2168748 0.3996509 1 0 1
-0.05605474 -0.2158375 0.3980189 1 0 1
-0.05370258 -0.2171559 0.3996062 1 0 1
-0.05129624 -0.217287 0.3995729 1 0 1
-0.04891996 -0.2185942 0.4011454 1 0 1
-0.04651651 -0.2193047 0.401904 1 0 1
-0.04412699 -0.2217837 0.405074 1 0 1
-0.2309586 -0.196181 0.3861779 1 0 1
-0.2286388 -0.1967698 0.3866786 1 0 1
-0.2263163 -0.1973525 0.3871721 1 0 1
-0.2233953 -0.1968234 0.3861023 1 0 1
-0.2216631 -0.1985 0.388138 1 0 1
-0.2196229 -0.1996196 0.3893899 1 0 1
-0.2175726 -0.2007349 0.3906362 1 0 1
-0.2155121 -0.2018459 0.3918768 1 0 1
-0.2131625 -0.2023952 0.3923299 1 0 1
-0.2102598 -0.2018219 0.3912106 1 0 1
-0.2079127 -0.2023574 0.391648 1 0 1
-0.2050278 -0.2017667 0.39051 1 0 1
-0.2026834 -0.2022883 0.3909316 1 0 1
-0.2011169 -0.2044892 0.3937023 1 0 1
-0.1990126 -0.2055638 0.3948977 1 0 1
-0.1971508 -0.2071973 0.3968739 1 0 1
-0.1955202 -0.2093921 0.3996327 1 0 1
-0.1936196 -0.2110206 0.4016001 1 0 1
-0.1909782 -0.2109489 0.401197 1 0 1
-0.1897656 -0.2142685 0.4055204 1 0 1
-0.1880458 -0.2164551 0.4082629 1 0 1
-0.1171905 -0.218178 0.4029324 1 0 1
-0.1150138 -0.2196443 0.4046916 1 0 1
-0.111999 -0.2170068 0.4008305 1 0 1
-0.1094758 -0.2167029 0.4001688 1 0 1
-0.1073974 -0.2187382 0.4027092 1 0 1
-0.104872 -0.2184218 0.4020329 1 0 1
-0.1023535 -0.2180984 0.401349 1 0 1
-0.09974395 -0.2171801 0.3998545 1 0 1
-0.09743073 -0.2180187 0.4007616 1 0 1
-0.09483893 -0.217086 0.3992518 1 0 1
-0.09243395 -0.2173236 0.3993411 1 0 1
-0.09011026 -0.2181444 0.4002268 1 0 1
-0.08801253 -0.220729 0.4035168 1 0 1
-0.08536264 -0.2191793 0.4011734 1 0 1
-0.08287633 -0.2188023 0.40043 1 0 1
-0.08052997 -0.2196 0.4012873 1 0 1
-0.0781126 -0.2198011 0.4013335 1 0 1
-0.07557741 -0.2188129 0.3997639 1 0 1
-0.07327601 -0.2201844 0.4014039 1 0 1
-0.07085682 -0.2203667 0.4014282 1 0 1
-0.06834348 -0.2193581 0.3998367 1 0 1
-0.06588825 -0.2189347 0.3990422 1 0 1
-0.06347942 -0.2190975 0.3990448 1 0 1
-0.06100007 -0.2180678 0.3974314 1 0 1
-0.05853608 -0.2170309 0.395811 1 0 1
-0.05611462 -0.2165805 0.3949877 1 0 1
-0.0537472 -0.2173111 0.3957659 1 0 1
-0.05133302 -0.2168479 0.3949283 1 0 1
-0.04898795 -0.2187551 0.3973003 1 0 1
-0.0465962 -0.2194684 0.3980565 1 0 1
-0.0442114 -0.2213652 0.4004133 1 0 1
-0.2307839 -0.1975342 0.3839929 1 0 1
-0.2281621 -0.1975689 0.3837177 1 0 1
-0.2258469 -0.1981506 0.3842088 1 0 1
-0.2232308 -0.1981704 0.3839171 1 0 1
-0.2212083 -0.1992963 0.38517 1 0 1
-0.2191757 -0.200418 0.3864173 1 0 1
-0.216846 -0.2009767 0.3868809 1 0 1
-0.2147969 -0.2020891 0.3881164 1 0 1
-0.2127376 -0.2031973 0.3893461 1 0 1
-0.2101173 -0.2031782 0.3890094 1 0 1
-0.2077738 -0.2037137 0.3894453 1 0 1
-0.2054278 -0.2042432 0.3898741 1 0 1
-0.2030794 -0.2047665 0.3902957 1 0 1
-0.2015095 -0.2069782 0.3930593 1 0 1
-0.1994013 -0.2080577 0.3942523 1 0 1
-0.1970306 -0.2085661 0.3946551 1 0 1
-0.1954042 -0.2107703 0.3974057 1 0 1
-0.1935076 -0.212405 0.3993672 1 0 1
-0.1915933 -0.2140367 0.4013239 1 0 1
-0.1915611 -0.2202225 0.4095706 1 0 1
-0.1158099 -0.2130692 0.3918975 1 0 1
-0.1118863 -0.2177663 0.3977929 1 0 1
-0.1092568 -0.2168696 0.3963326 1 0 1
-0.1070807 -0.2183237 0.3980648 1 0 1
-0.1045706 -0.218003 0.3973897 1 0 1
-0.1020672 -0.2176752 0.3967069 1 0 1
-0.09947263 -0.2167494 0.3952159 1 0 1
-0.09717499 -0.21759 0.3961196 1 0 1
-0.09477846 -0.2178335 0.3962155 1 0 1
-0.09255357 -0.219255 0.3979064 1 0 1
-0.0901475 -0.2194869 0.3979882 1 0 1
-0.08805418 -0.2220841 0.4012683 1 0 1
-0.08540741 -0.2205251 0.3989314 1 0 1
-0.08285394 -0.2195514 0.3973882 1 0 1
-0.08038209 -0.2191641 0.3966393 1 0 1
-0.07791743 -0.2187699 0.395883 1 0 1
-0.07534245 -0.2171796 0.3935156 1 0 1
-0.07306468 -0.2185559 0.3951503 1 0 1
-0.07066879 -0.2187369 0.3951741 1 0 1
-0.06822539 -0.218316 0.3943888 1 0 1
-0.06587547 -0.2190801 0.3952002 1 0 1
-0.06351726 -0.2198385 0.3960044 1 0 1
-0.06100991 -0.2182059 0.3935935 1 0 1
-0.05861961 -0.2183554 0.3935815 1 0 1
-0.05622898 -0.2184986 0.3935623 1 0 1
-0.05381462 -0.2180387 0.392734 1 0 1
-0.05144681 -0.2187666 0.3935024 1 0 1
-0.049102 -0.2206836 0.3958671 1 0 1
-0.04669853 -0.2208028 0.395819 1 0 1
-0.2306085 -0.1988756 0.3818049 1 0 1
-0.22799 -0.1989071 0.3815304 1 0 1
-0.2259804 -0.2000471 0.3827927 1 0 1
-0.2233639 -0.2000648 0.3825025 1 0 1
-0.2213414 -0.2011946 0.3837523 1 0 1
-0.2184364 -0.2006374 0.3826713 1 0 1
-0.2158309 -0.2006325 0.3823561 1 0 1
-0.2135136 -0.2011825 0.3828088 1 0 1
-0.2114732 -0.2022902 0.3840319 1 0 1
-0.2088714 -0.2022646 0.3836932 1 0 1
-0.2070904 -0.2039273 0.3856823 1 0 1
-0.2044875 -0.2038888 0.3853288 1 0 1
-0.2024183 -0.2049767 0.3865271 1 0 1
-0.2008602 -0.2071962 0.3892811 1 0 1
-0.1987635 -0.2082769 0.3904691 1 0 1
-0.1966569 -0.2093534 0.3916513 1 0 1
-0.1957858 -0.2132771 0.3967412 1 0 1
-0.1175261 -0.2111309 0.3855351 1 0 1
-0.115429 -0.2126073 0.3872862 1 0 1
-0.1138016 -0.2164455 0.3922197 1 0 1
-0.1116553 -0.2179155 0.3939596 1 0 1
-0.1092645 -0.2181964 0.394098 1 0 1
-0.1069826 -0.219064 0.3950271 1 0 1
-0.1043738 -0.2181466 0.3935556 1 0 1
-0.1017796 -0.2172212 0.392076 1 0 1
-0.0992982 -0.216882 0.3913868 1 0 1
-0.09682373 -0.2165359 0.3906903 1 0 1
-0.09444655 -0.2167778 0.390785 1 0 1
-0.09232775 -0.2187995 0.3932689 1 0 1
-0.09001961 -0.219626 0.3941487 1 0 1
-0.08770284 -0.2204469 0.3950216 1 0 1
-0.08530273 -0.220666 0.3950882 1 0 1
-0.08268962 -0.2190886 0.3927498 1 0 1
-0.08029989 -0.2192943 0.392802 1 0 1
-0.07784654 -0.2188963 0.3920473 1 0 1
-0.07522348 -0.2166984 0.388887 1 0 1
-0.07290653 -0.217482 0.389717 1 0 1
-0.07047888 -0.2170634 0.3889405 1 0 1
-0.06801139 -0.2160395 0.3873575 1 0 1
-0.06573218 -0.2174039 0.3889658 1 0 1
-0.06347612 -0.2193626 0.3913667 1 0 1
-0.06098369 -0.21772 0.3889626 1 0 1
-0.05860883 -0.2178687 0.3889503 1 0 1
-0.05617858 -0.2168116 0.3873319 1 0 1
-0.05381099 -0.2169475 0.3873055 1 0 1
-0.05142343 -0.2164771 0.3864726 1 0 1
-0.04910643 -0.2184023 0.3888303 1 0 1
-0.04671845 -0.2179196 0.3879832 1 0 1
-0.04437745 -0.2204351 0.3911255 1 0 1
-0.2307421 -0.2007645 0.380383 1 0 1
-0.2278171 -0.2002336 0.3793402 1 0 1
-0.2258113 -0.2013766 0.3805988 1 0 1
-0.2234967 -0.2019533 0.3810805 1 0 1
-0.2208847 -0.2019609 0.3807831 1 0 1
-0.2176957 -0.2008327 0.3789316 1 0 1
-0.2159627 -0.2025176 0.3809363 1 0 1
-0.2130783 -0.2019369 0.3798397 1 0 1
-0.2113252 -0.2036134 0.3818333 1 0 1
-0.2090026 -0.2041523 0.3822712 1 0 1
-0.2069497 -0.2052537 0.3834786 1 0 1
-0.2046185 -0.2057814 0.3839031 1 0 1
-0.2025494 -0.2068732 0.3850982 1 0 1
-0.2009917 -0.2091027 0.3878446 1 0 1
-0.1986381 -0.2096156 0.3882505 1 0 1
-0.1972946 -0.2124129 0.3917682 1 0 1
-0.1966663 -0.2169311 0.3976251 1 0 1
-0.1195914 -0.221912 0.396032 1 0 1
-0.1169328 -0.2210262 0.3946038 1 0 1
-0.1144106 -0.2207269 0.3939622 1 0 1
-0.1117771 -0.2198254 0.3925179 1 0 1
-0.1092721 -0.2195113 0.3918607 1 0 1
-0.1068839 -0.2197861 0.3919914 1 0 1
-0.1040699 -0.2176692 0.3889324 1 0 1
-0.1014907 -0.2167363 0.3874564 1 0 1
-0.09912292 -0.2169901 0.3875645 1 0 1
-0.09665973 -0.21664 0.3868694 1 0 1
-0.09429402 -0.2168812 0.3869632 1 0 1
-0.09201413 -0.2177147 0.3878464 1 0 1
-0.08964278 -0.2179439 0.3879261 1 0 1
-0.08742826 -0.2193654 0.3895922 1 0 1
-0.08512243 -0.2201827 0.3904548 1 0 1
-0.08273702 -0.2203946 0.3905136 1 0 1
-0.08041795 -0.2212006 0.3913622 1 0 1
-0.07796416 -0.2207999 0.3906097 1 0 1
-0.0752809 -0.2179889 0.3866613 1 0 1
-0.07302305 -0.219377 0.3882857 1 0 1
-0.07054368 -0.2183541 0.3867142 1 0 1
-0.06807944 -0.217324 0.3851355 1 0 1
-0.06580433 -0.2186948 0.3867387 1 0 1
-0.06355252 -0.2206628 0.3891322 1 0 1
-0.06106317 -0.2190109 0.3867349 1 0 1
-0.05872368 -0.2197625 0.3875197 1 0 1
-0.05629278 -0.2186994 0.3859057 1 0 1
-0.05392493 -0.2188357 0.3858791 1 0 1
-0.05153688 -0.2183623 0.3850481 1 0 1
-0.04922024 -0.2202973 0.3873986 1 0 1
-0.04689174 -0.2228312 0.3905385 1 0 1
-0.2302554 -0.2015227 0.3774204 1 0 1
-0.227031 -0.2004214 0.3756126 1 0 1
-0.2250365 -0.2015655 0.3768654 1 0 1
-0.2230318 -0.2027056 0.3781132 1 0 1
