ply
format ascii 1.0
Comment Generated by Floating Hands
element vertex 1288
property double x
property double y
property double z
property uchar red
property uchar green
property uchar blue
end_header
0.09428036 0.07651067 0.1361816 1 0 1
0.09521607 0.07676995 0.1357327 1 0 1
0.09614988 0.07703161 0.1352807 1 0 1
-0.1320949 -0.08291642 0.6552641 1 0 1
-0.128622 -0.08213097 0.6517271 1 0 1
-0.1256301 -0.08248387 0.6519822 1 0 1
-0.1224183 -0.08225457 0.6503245 1 0 1
-0.1192203 -0.08201671 0.6486557 1 0 1
-0.1168495 -0.08407841 0.6545922 1 0 1
0.07929821 0.0344823 0.2541462 1 0 1
0.08131796 0.03411695 0.2555615 1 0 1
0.08243154 0.03460388 0.2542407 1 0 1
0.08353609 0.03509318 0.2529173 1 0 1
0.08525897 0.03502234 0.2534052 1 0 1
0.08667004 0.03523656 0.2529806 1 0 1
0.08807936 0.03545421 0.2525512 1 0 1
0.08948688 0.03567518 0.2521172 1 0 1
0.0908926 0.03589949 0.2516786 1 0 1
0.09196472 0.03640558 0.250334 1 0 1
0.09336312 0.03663604 0.2498873 1 0 1
0.09408166 0.03742417 0.2476379 1 0 1
0.09546912 0.03766005 0.2471843 1 0 1
0.09685466 0.03789928 0.2467262 1 0 1
0.09823827 0.03814185 0.2462635 1 0 1
0.09997334 0.03811304 0.2466904 1 0 1
0.1013566 0.03836287 0.2462173 1 0 1
0.1027379 0.03861602 0.2457397 1 0 1
0.103389 0.03941793 0.2434764 1 0 1
0.1051268 0.03940439 0.2438814 1 0 1
0.1064985 0.03966683 0.2433914 1 0 1
0.1078681 0.0399326 0.2428968 1 0 1
0.1088572 0.04047158 0.2415123 1 0 1
0.1094553 0.04128184 0.2392417 1 0 1
0.1096516 0.04236093 0.2360892 1 0 1
0.1106026 0.0429034 0.234703 1 0 1
0.1115443 0.0434476 0.2333152 1 0 1
0.1120808 0.04425991 0.2310468 1 0 1
0.1130007 0.04480693 0.2296569 1 0 1
0.1143145 0.04509073 0.2291415 1 0 1
0.1148129 0.04590587 0.2268724 1 0 1
0.1161152 0.04619451 0.2263509 1 0 1
0.1170018 0.04674893 0.2249534 1 0 1
0.1174622 0.04756658 0.222684 1 0 1
0.1170653 0.04890598 0.2186781 1 0 1
0.1153663 0.05102235 0.2120772 1 0 1
0.1110516 0.05468614 0.200296 1 0 1
0.1049208 0.0593652 0.1850908 1 0 1
0.09867023 0.06401882 0.1699319 1 0 1
0.09448957 0.06736269 0.1591281 1 0 1
0.09154815 0.06992094 0.1509371 1 0 1
0.09076665 0.0711909 0.1470628 1 0 1
0.09040397 0.07220226 0.1440544 1 0 1
0.09047051 0.07295743 0.1419076 1 0 1
0.09052151 0.07371144 0.1397637 1 0 1
0.09147391 0.07396121 0.1393276 1 0 1
0.09242444 0.07421337 0.1388884 1 0 1
0.09290788 0.0747176 0.1375967 1 0 1
0.09431995 0.07472476 0.1380003 1 0 1
0.09479283 0.07523184 0.1367055 1 0 1
0.09525709 0.07573946 0.1354108 1 0 1
0.09619144 0.07600152 0.1349589 1 0 1
-0.1320005 -0.08532094 0.6524412 1 0 1
-0.1284159 -0.08422968 0.647958 1 0 1
-0.125547 -0.08487306 0.6491617 1 0 1
-0.1223409 -0.08463604 0.647505 1 0 1
-0.1192542 -0.0846824 0.6467879 1 0 1
-0.1165811 -0.08589005 0.649864 1 0 1
-0.113982 -0.08738615 0.653883 1 0 1
-0.1109743 -0.08770603 0.6540884 1 0 1
0.07961403 0.03273485 0.2545933 1 0 1
0.08133555 0.03264936 0.2550963 1 0 1
0.0827563 0.03285436 0.2546845 1 0 1
0.08386528 0.03334833 0.2533613 1 0 1
0.08590633 0.0329896 0.2547529 1 0 1
0.08700816 0.03348966 0.2534215 1 0 1
0.08842193 0.03370821 0.2529911 1 0 1
0.0895093 0.03421344 0.2516536 1 0 1
0.09091582 0.03443814 0.2512151 1 0 1
0.09198864 0.03494831 0.2498717 1 0 1
0.09338787 0.03517912 0.2494251 1 0 1
0.09410706 0.03597514 0.2471783 1 0 1
0.09549533 0.03621151 0.2467248 1 0 1
0.09688164 0.03645109 0.2462667 1 0 1
0.09791617 0.03697308 0.2449098 1 0 1
0.09929504 0.03721869 0.2444439 1 0 1
0.101029 0.03718987 0.2448652 1 0 1
0.1024075 0.03744281 0.2443889 1 0 1
0.1034198 0.03797545 0.2430187 1 0 1
0.1051585 0.0379586 0.2434226 1 0 1
0.106531 0.03822144 0.2429328 1 0 1
0.1079013 0.03848762 0.2424383 1 0 1
0.109648 0.03848337 0.2428236 1 0 1
0.1106358 0.03902996 0.2414359 1 0 1
0.1108432 0.04012292 0.2382831 1 0 1
0.1114164 0.0409433 0.236014 1 0 1
0.1123659 0.04149318 0.2346248 1 0 1
0.112514 0.04258506 0.2314787 1 0 1
0.113438 0.04313699 0.2300888 1 0 1
0.1151592 0.04315343 0.2304469 1 0 1
0.1156651 0.04397807 0.2281775 1 0 1
0.1165651 0.04453579 0.2267815 1 0 1
0.1174558 0.04509512 0.2253838 1 0 1
0.1179202 0.04592158 0.2231156 1 0 1
0.1179477 0.04701257 0.219981 1 0 1
0.117528 0.04836573 0.2159845 1 0 1
0.1149403 0.05103052 0.2076711 1 0 1
0.1114257 0.05420788 0.1976532 1 0 1
0.1056602 0.05867658 0.1833543 1 0 1
0.09978203 0.06312114 0.1690993 1 0 1
0.09511577 0.06676223 0.1574654 1 0 1
0.09213752 0.06934842 0.1492969 1 0 1
0.09133701 0.07063184 0.1454318 1 0 1
0.09050722 0.07191069 0.1415758 1 0 1
0.09055853 0.07267257 0.1394344 1 0 1
0.09151147 0.07292273 0.1389985 1 0 1
0.09200058 0.07342963 0.1377098 1 0 1
0.09294643 0.07368363 0.1372691 1 0 1
0.09389037 0.07393999 0.1368252 1 0 1
0.09436029 0.0744503 0.1355334 1 0 1
0.09529712 0.07471045 0.1350848 1 0 1
0.09575311 0.07522263 0.1337915 1 0 1
-0.132148 -0.08829377 0.6515077 1 0 1
-0.1287952 -0.08777303 0.6489267 1 0 1
-0.1258041 -0.08812709 0.6491805 1 0 1
-0.1225922 -0.0878837 0.647526 1 0 1
-0.1193942 -0.08763174 0.6458604 1 0 1
-0.1165161 -0.0882594 0.647033 1 0 1
-0.1141202 -0.09036321 0.6529461 1 0 1
-0.1111109 -0.09068383 0.653151 1 0 1
0.08022807 0.03069117 0.2559411 1 0 1
0.081655 0.03089362 0.2555331 1 0 1
0.08246728 0.03167919 0.253307 1 0 1
0.08388346 0.03188734 0.2528917 1 0 1
0.08561163 0.03181013 0.2533764 1 0 1
0.087028 0.03202566 0.2529508 1 0 1
0.08844255 0.03224455 0.2525205 1 0 1
0.08985531 0.03246677 0.2520856 1 0 1
0.09126621 0.03269238 0.251646 1 0 1
0.09234344 0.03320727 0.2503029 1 0 1
0.09374703 0.03343904 0.2498552 1 0 1
0.09480964 0.03395892 0.2485063 1 0 1
0.09586311 0.03448092 0.2471551 1 0 1
0.0969075 0.03500501 0.2458017 1 0 1
0.09794281 0.03553116 0.2444461 1 0 1
0.09932241 0.03577713 0.2439803 1 0 1
0.1007001 0.0360265 0.2435098 1 0 1
0.1024365 0.03599831 0.2439243 1 0 1
0.1038138 0.03625492 0.2434436 1 0 1
0.105189 0.0365149 0.2429583 1 0 1
0.1069337 0.03649933 0.2433542 1 0 1
0.1086833 0.03648845 0.2437429 1 0 1
0.1100596 0.03675984 0.2432414 1 0 1
0.1110515 0.03731118 0.2418538 1 0 1
0.1116487 0.03814062 0.2395838 1 0 1
0.1122295 0.03897035 0.2373146 1 0 1
0.112794 0.03980051 0.2350463 1 0 1
0.1133423 0.04063094 0.232779 1 0 1
0.1142741 0.04118857 0.2313877 1 0 1
0.1151966 0.04174786 0.2299948 1 0 1
0.1157031 0.04258049 0.227728 1 0 1
0.1161934 0.04341318 0.2254625 1 0 1
0.1166675 0.04424595 0.2231982 1 0 1
0.1175427 0.04480949 0.2218034 1 0 1
0.1175671 0.04591137 0.218674 1 0 1
0.1179927 0.04674398 0.2164141 1 0 1
0.117119 0.04837667 0.2115649 1 0 1
0.1157771 0.05027009 0.205864 1 0 1
0.1117837 0.053747 0.1950125 1 0 1
0.1063907 0.0579992 0.1816151 1 0 1
0.100009 0.06275547 0.1665435 1 0 1
0.09528811 0.06643506 0.1549445 1 0 1
0.09271802 0.06878645 0.147655 1 0 1
0.09144674 0.07034401 0.1429461 1 0 1
0.09150519 0.07111549 0.1408042 1 0 1
0.0920068 0.07162683 0.1395153 1 0 1
0.09296186 0.0718807 0.1390748 1 0 1
0.09298401 0.07265124 0.1369374 1 0 1
0.09392851 0.07290801 0.1364937 1 0 1
0.09439883 0.07342244 0.1352033 1 0 1
0.0948605 0.07393736 0.1339128 1 0 1
0.09579257 0.07419932 0.133463 1 0 1
-0.132296 -0.09126205 0.6505623 1 0 1
-0.1291759 -0.09132702 0.6498791 1 0 1
-0.1261756 -0.09168267 0.650133 1 0 1
-0.1229543 -0.09143339 0.6484809 1 0 1
-0.1198528 -0.09147491 0.647766 1 0 1
-0.1172686 -0.09300765 0.6517832 1 0 1
0.08203788 0.02745599 0.2609086 1 0 1
0.08227623 0.02883837 0.2568683 1 0 1
0.08340306 0.02933925 0.2555481 1 0 1
0.08421071 0.03013548 0.2533209 1 0 1
0.0856296 0.0303479 0.2529 1 0 1
0.08704673 0.03056374 0.2524745 1 0 1
0.08846208 0.03078297 0.2520443 1 0 1
0.08955093 0.03129642 0.2507095 1 0 1
0.09128733 0.03123157 0.2511699 1 0 1
0.09236525 0.03175057 0.2498281 1 0 1
0.09410521 0.03169367 0.2502771 1 0 1
0.09483301 0.0325067 0.2480329 1 0 1
0.09622997 0.03274499 0.2475773 1 0 1
0.09693227 0.033561 0.245331 1 0 1
0.09796824 0.03409131 0.2439768 1 0 1
0.0993487 0.03433773 0.243511 1 0 1
0.1010843 0.0343022 0.2439302 1 0 1
0.1024644 0.03455592 0.2434541 1 0 1
0.1045711 0.03424506 0.2447474 1 0 1
0.1059543 0.03450678 0.2442597 1 0 1
0.1077069 0.03448924 0.2446519 1 0 1
0.1087145 0.03504034 0.2432708 1 0 1
0.1104701 0.03503087 0.2436513 1 0 1
0.1114663 0.03558721 0.2422637 1 0 1
0.1124533 0.03614542 0.2408741 1 0 1
0.113431 0.03670556 0.2394827 1 0 1
0.1143996 0.0372675 0.2380895 1 0 1
0.1145662 0.03838642 0.2349442 1 0 1
0.1155092 0.03895046 0.2335502 1 0 1
0.1164429 0.0395163 0.2321545 1 0 1
0.1169605 0.04035912 0.2298862 1 0 1
0.1174619 0.04120207 0.2276191 1 0 1
0.1175331 0.04231884 0.2244849 1 0 1
0.1184159 0.0428882 0.2230886 1 0 1
0.1184478 0.04400339 0.2199602 1 0 1
0.1193052 0.04457425 0.218564 1 0 1
0.1192977 0.04568755 0.2154415 1 0 1
0.1188358 0.04706867 0.2114626 1 0 1
0.1170397 0.04925261 0.204913 1 0 1
0.11344 0.05249948 0.194948 1 0 1
0.1066705 0.05760018 0.1790167 1 0 1
0.1002199 0.06240644 0.1639909 1 0 1
0.09589303 0.06585898 0.1532806 1 0 1
0.09328976 0.06823509 0.1460114 1 0 1
0.09245139 0.06954512 0.1421652 1 0 1
0.09296028 0.07006235 0.1408745 1 0 1
0.09346045 0.07058025 0.1395838 1 0 1
0.09395195 0.07109865 0.1382931 1 0 1
0.09443475 0.07161761 0.1370023 1 0 1
0.09443642 0.07239614 0.1348691 1 0 1
0.09537429 0.0726571 0.134421 1 0 1
0.0958311 0.07317753 0.1331304 1 0 1
-0.127345 -0.0973645 0.6576937 1 0 1
-0.1239776 -0.09680985 0.6550997 1 0 1
-0.1206316 -0.09624554 0.6524939 1 0 1
-0.1180238 -0.0977965 0.6565074 1 0 1
-0.1143984 -0.09630419 0.6510375 1 0 1
-0.111386 -0.09662627 0.6512413 1 0 1
0.09123881 0.01500446 0.2934921 1 0 1
0.08474467 0.02328266 0.2685746 1 0 1
0.08319946 0.0264724 0.2590982 1 0 1
0.08433804 0.02697894 0.2577761 1 0 1
0.08484718 0.02808147 0.2546451 1 0 1
0.08596034 0.02859159 0.2533201 1 0 1
0.08738187 0.02880834 0.2528935 1 0 1
0.08912276 0.0287333 0.2533622 1 0 1
0.08989485 0.02954655 0.2511277 1 0 1
0.09163572 0.02947891 0.2515859 1 0 1
0.09238598 0.03029604 0.2493478 1 0 1
0.09412681 0.03023578 0.2497956 1 0 1
0.09485525 0.03105666 0.247554 1 0 1
0.09625303 0.03129533 0.2470985 1 0 1
0.09730243 0.03182827 0.2457466 1 0 1
0.09869278 0.03207302 0.2452831 1 0 1
0.09937382 0.03290045 0.2430363 1 0 1
0.1011103 0.0328616 0.2434543 1 0 1
0.1024911 0.03311577 0.2429783 1 0 1
0.1042344 0.03308551 0.2433835 1 0 1
0.1052468 0.033634 0.2420129 1 0 1
0.1073646 0.03332547 0.2432896 1 0 1
0.1079942 0.03416561 0.2410293 1 0 1
0.1097435 0.03415145 0.2414114 1 0 1
0.1107333 0.03471052 0.2400277 1 0 1
0.1117139 0.03527153 0.2386422 1 0 1
0.1126852 0.03583435 0.2372549 1 0 1
0.1140402 0.03611698 0.236741 1 0 1
0.1149966 0.03668419 0.2353487 1 0 1
0.1151439 0.0378143 0.2322097 1 0 1
0.1164782 0.03810379 0.2316879 1 0 1
0.1169964 0.03895452 0.2294222 1 0 1
0.1174983 0.03980541 0.2271577 1 0 1
0.11757 0.04093382 0.2240274 1 0 1
0.118036 0.04178403 0.221767 1 0 1
0.1184857 0.04263422 0.2195079 1 0 1
0.1189192 0.04348428 0.2172505 1 0 1
0.1193366 0.04433421 0.2149945 1 0 1
0.1197378 0.04518403 0.2127402 1 0 1
0.1192532 0.04657855 0.2087712 1 0 1
0.1174236 0.04878439 0.2022396 1 0 1
0.1124509 0.05287689 0.1897381 1 0 1
0.1055985 0.05802789 0.1738598 1 0 1
0.09906875 0.0628812 0.158885 1 0 1
0.09513281 0.06609809 0.1490629 1 0 1
0.09294161 0.06822881 0.1426681 1 0 1
0.09299537 0.06901748 0.1405297 1 0 1
0.0930336 0.06980492 0.1383944 1 0 1
0.09352209 0.07032655 0.1371066 1 0 1
0.0940019 0.0708487 0.1358188 1 0 1
0.09400045 0.07163408 0.1336899 1 0 1
0.09493548 0.07189452 0.1332435 1 0 1
0.09586863 0.07215733 0.1327939 1 0 1
0.08557872 0.02429724 0.2608939 1 0 1
0.08548278 0.02601468 0.2559586 1 0 1
0.08660392 0.02652995 0.2546327 1 0 1
0.08771607 0.02704762 0.2533044 1 0 1
0.0894614 0.02696975 0.2537707 1 0 1
0.09023783 0.02779144 0.2515377 1 0 1
0.09198315 0.02772094 0.2519937 1 0 1
0.09306978 0.02824942 0.2506522 1 0 1
0.09448297 0.02848347 0.2502025 1 0 1
0.09555496 0.02901692 0.2488553 1 0 1
0.09730364 0.02896186 0.2492892 1 0 1
0.09801812 0.02979553 0.2470446 1 0 1
0.09941643 0.03004192 0.2465788 1 0 1
0.100459 0.03058512 0.2452203 1 0 1
0.1018498 0.03083761 0.2447466 1 0 1
0.1028777 0.03138556 0.2433827 1 0 1
0.1046253 0.03135271 0.2437855 1 0 1
0.105642 0.03190605 0.242415 1 0 1
0.107021 0.0321713 0.2419243 1 0 1
0.1080229 0.03272928 0.2405485 1 0 1
0.1093942 0.03300051 0.2400501 1 0 1
0.1103811 0.03356304 0.2386692 1 0 1
0.1117448 0.03384023 0.2381631 1 0 1
0.1127167 0.0344072 0.2367771 1 0 1
0.1140725 0.03469034 0.2362634 1 0 1
0.1150296 0.03526172 0.2348725 1 0 1
0.1155774 0.03611923 0.2326087 1 0 1
0.1169159 0.03640993 0.2320857 1 0 1
0.1178453 0.03698662 0.2306898 1 0 1
0.1183547 0.03784698 0.2284252 1 0 1
0.1180198 0.03926977 0.2244303 1 0 1
0.1184898 0.04012867 0.2221711 1 0 1
0.1189435 0.04098758 0.2199132 1 0 1
0.1198056 0.04156766 0.2185185 1 0 1
0.1202304 0.04242716 0.2162623 1 0 1
0.1215021 0.04273235 0.2157248 1 0 1
0.1214666 0.04386941 0.212612 1 0 1
0.1205311 0.0455552 0.2077929 1 0 1
0.1177912 0.04833356 0.1995685 1 0 1
0.1118695 0.05301484 0.1853997 1 0 1
0.1035915 0.05903493 0.1670207 1 0 1
0.09788028 0.06338938 0.1537992 1 0 1
0.0943424 0.06636472 0.1448602 1 0 1
0.09348858 0.0677041 0.1410271 1 0 1
0.09353055 0.06850025 0.1388928 1 0 1
0.09402285 0.06902689 0.1376049 1 0 1
0.09403717 0.06982142 0.1354753 1 0 1
0.09450872 0.0703482 0.1341891 1 0 1
0.09497155 0.07087546 0.1329028 1 0 1
0.09590524 0.07113869 0.1324535 1 0 1
0.08661888 0.02506312 0.2541356 1 0 1
0.08804926 0.02528164 0.2537071 1 0 1
0.08979908 0.02520095 0.2541712 1 0 1
0.09122948 0.02542689 0.2537321 1 0 1
0.0926581 0.0256563 0.2532884 1 0 1
0.09375269 0.02619002 0.251946 1 0 1
0.09483815 0.02672594 0.2506013 1 0 1
0.09591452 0.02726413 0.2492543 1 0 1
0.09732467 0.02750541 0.2487954 1 0 1
0.09838633 0.02804848 0.2474427 1 0 1
0.099789 0.02829595 0.2469759 1 0 1
0.1004822 0.02914106 0.2447306 1 0 1
0.1018737 0.02939393 0.2442571 1 0 1
0.1029022 0.02994602 0.2428945 1 0 1
0.1046507 0.02990985 0.2432962 1 0 1
0.105668 0.03046735 0.2419271 1 0 1
0.1070479 0.03073302 0.2414366 1 0 1
0.1076751 0.03158826 0.2391828 1 0 1
0.1090437 0.0318592 0.2386858 1 0 1
0.1104101 0.0321335 0.2381844 1 0 1
0.1113885 0.03270214 0.236803 1 0 1
0.1127471 0.03298234 0.2362939 1 0 1
0.1141036 0.03326589 0.2357803 1 0 1
0.1154579 0.03355275 0.2352623 1 0 1
0.1160098 0.03441885 0.2329997 1 0 1
0.1177563 0.0344236 0.2333443 1 0 1
0.1182861 0.03529247 0.2310797 1 0 1
0.1192103 0.03587587 0.2296822 1 0 1
0.1192969 0.03703069 0.2265543 1 0 1
0.1201956 0.03761584 0.2251565 1 0 1
0.1202427 0.03876911 0.2220341 1 0 1
0.1206912 0.0396383 0.2197761 1 0 1
0.1215516 0.04022577 0.2183785 1 0 1
0.1219713 0.04109553 0.2161223 1 0 1
0.1223746 0.04196506 0.2138677 1 0 1
0.1223233 0.04311345 0.2107607 1 0 1
0.120923 0.04509442 0.2051001 1 0 1
0.1168062 0.04873211 0.194346 1 0 1
0.1094621 0.05428702 0.1776763 1 0 1
0.1015328 0.06008679 0.1602128 1 0 1
0.0966545 0.06393075 0.1487341 1 0 1
0.09489951 0.06583735 0.1432082 1 0 1
0.09448939 0.06691693 0.1402283 1 0 1
0.0945229 0.06772145 0.1380967 1 0 1
0.0945409 0.06852471 0.1359682 1 0 1
0.09454342 0.06932662 0.133843 1 0 1
0.09548292 0.06958888 0.1333954 1 0 1
0.09594085 0.07012166 0.1321091 1 0 1
0.09077818 0.02281418 0.2563554 1 0 1
0.09157055 0.02365377 0.2541232 1 0 1
0.09267502 0.02418933 0.2527847 1 0 1
0.09343824 0.0250318 0.250551 1 0 1
0.09452081 0.02557126 0.2492088 1 0 1
0.09559424 0.02611293 0.2478644 1 0 1
0.09734456 0.02605113 0.248296 1 0 1
0.09875351 0.02629619 0.2478327 1 0 1
0.1001606 0.02654468 0.2473647 1 0 1
0.100858 0.02739828 0.245121 1 0 1
0.1022539 0.02765228 0.2446463 1 0 1
0.1029256 0.02850869 0.2424008 1 0 1
0.104675 0.0284692 0.2428014 1 0 1
0.105693 0.02903084 0.2414336 1 0 1
0.1070736 0.02929693 0.2409432 1 0 1
0.1077014 0.03015998 0.2386922 1 0 1
0.1090707 0.03043143 0.2381953 1 0 1
0.1096729 0.03129696 0.2359431 1 0 1
0.1106449 0.03186826 0.2345657 1 0 1
0.1116076 0.03244138 0.2331866 1 0 1
0.1129541 0.03272321 0.2326772 1 0 1
0.1142986 0.03300825 0.2321635 1 0 1
0.1156408 0.0332966 0.2316452 1 0 1
0.1173846 0.03329736 0.2319901 1 0 1
0.1183187 0.03388324 0.2305956 1 0 1
0.1196543 0.03418142 0.2300642 1 0 1
0.1201591 0.03506007 0.227802 1 0 1
0.1206476 0.03593883 0.2255411 1 0 1
0.12112 0.03681753 0.2232816 1 0 1
0.121576 0.03769627 0.2210235 1 0 1
0.1215875 0.03886019 0.2179095 1 0 1
0.1224393 0.03945338 0.216512 1 0 1
0.1228467 0.04033166 0.2142587 1 0 1
0.1232379 0.04120969 0.2120072 1 0 1
0.1227288 0.04265122 0.2080544 1 0 1
0.1204074 0.0452131 0.2007097 1 0 1
0.1148855 0.0497251 0.1874459 1 0 1
0.106091 0.05616834 0.1682957 1 0 1
0.09942264 0.06118315 0.1534366 1 0 1
0.09631013 0.06395014 0.1453776 1 0 1
0.09498499 0.06559703 0.1407125 1 0 1
0.09502224 0.06641029 0.138582 1 0 1
0.09457438 0.06749696 0.1356156 1 0 1
0.09505011 0.06803288 0.1343305 1 0 1
0.09599351 0.0682965 0.1338814 1 0 1
0.09645526 0.06883432 0.132595 1 0 1
0.09432663 0.01792646 0.2656845 1 0 1
0.09386012 0.02001836 0.2598681 1 0 1
0.09400512 0.02148891 0.2558454 1 0 1
0.09445133 0.02264991 0.2527184 1 0 1
0.09487393 0.02381077 0.2495938 1 0 1
0.0962911 0.02405 0.2491386 1 0 1
0.09770638 0.0242926 0.2486788 1 0 1
0.09946644 0.02423281 0.2491011 1 0 1
0.1005312 0.0247882 0.2477454 1 0 1
0.1012328 0.02565032 0.2455031 1 0 1
0.1022755 0.02620929 0.2441443 1 0 1
0.1033091 0.02677035 0.2427833 1 0 1
0.1043334 0.02733337 0.2414203 1 0 1
0.1053485 0.02789846 0.2400552 1 0 1
0.1067263 0.0281643 0.2395663 1 0 1
0.1073511 0.02903456 0.2373192 1 0 1
0.1083386 0.02960553 0.2359483 1 0 1
0.1093169 0.03017839 0.2345756 1 0 1
0.1098998 0.03105151 0.2323282 1 0 1
0.1108561 0.03162735 0.2309531 1 0 1
0.1121963 0.03190812 0.2304466 1 0 1
0.1139311 0.03189592 0.2308046 1 0 1
0.1152705 0.03218397 0.2302879 1 0 1
0.1170116 0.03218073 0.2306329 1 0 1
0.1183501 0.03247615 0.2301061 1 0 1
0.1196864 0.03277482 0.2295748 1 0 1
0.1206062 0.03336914 0.2281773 1 0 1
0.1210987 0.03425651 0.2259177 1 0 1
0.121575 0.03514398 0.2236596 1 0 1
0.1216102 0.03632121 0.2205451 1 0 1
0.1220505 0.0372077 0.2182913 1 0 1
0.1224746 0.03809409 0.2160392 1 0 1
0.1233178 0.03869295 0.2146419 1 0 1
0.123713 0.03957973 0.2123916 1 0 1
0.1245342 0.04018065 0.2109934 1 0 1
0.1235635 0.04192182 0.2061992 1 0 1
0.1198613 0.04536038 0.1963329 1 0 1
0.1124606 0.05104611 0.1797311 1 0 1
0.104927 0.05670067 0.1631842 1 0 1
0.09955814 0.06091787 0.1509055 1 0 1
0.0968684 0.06343073 0.143713 1 0 1
0.09645335 0.06453478 0.1407395 1 0 1
0.09554623 0.06591408 0.1369345 1 0 1
0.0955561 0.06673338 0.1348116 1 0 1
0.0965034 0.06699839 0.134361 1 0 1
0.09696893 0.06754126 0.1330744 1 0 1
0.094983 0.01578356 0.2669379 1 0 1
0.09517424 0.01727285 0.2629118 1 0 1
0.09467722 0.01938633 0.2571075 1 0 1
0.0951314 0.02056002 0.2539824 1 0 1
0.09589768 0.02142213 0.2517483 1 0 1
0.09732652 0.02166357 0.2512898 1 0 1
0.09841035 0.02221873 0.24994 1 0 1
0.09983166 0.02246649 0.2494734 1 0 1
0.101251 0.02271767 0.249002 1 0 1
0.1016066 0.0238972 0.2458771 1 0 1
0.1026536 0.02446092 0.2445185 1 0 1
0.1036915 0.02502676 0.2431577 1 0 1
0.10472 0.02559463 0.2417949 1 0 1
0.1053711 0.02647016 0.2395519 1 0 1
0.1067496 0.02673644 0.2390631 1 0 1
0.1073751 0.02761455 0.2368188 1 0 1
0.1083632 0.02818959 0.2354494 1 0 1
0.1089595 0.02906944 0.2332053 1 0 1
0.1099257 0.02964758 0.2318335 1 0 1
0.1108825 0.03022756 0.2304599 1 0 1
0.1118302 0.03080939 0.2290847 1 0 1
0.1135623 0.03079327 0.2294428 1 0 1
0.1152992 0.03078193 0.2297938 1 0 1
0.117041 0.03077541 0.2301377 1 0 1
0.1183803 0.03107134 0.2296111 1 0 1
0.1197174 0.03137049 0.22908 1 0 1
0.1210521 0.03167297 0.2285446 1 0 1
0.1219667 0.03227391 0.2271456 1 0 1
0.122872 0.03287652 0.225745 1 0 1
0.123343 0.03377426 0.2234868 1 0 1
0.1233694 0.03496466 0.2203751 1 0 1
0.1238045 0.03586145 0.2181213 1 0 1
0.1242232 0.036758 0.2158691 1 0 1
0.124187 0.03794454 0.2127683 1 0 1
0.1254545 0.03826123 0.212219 1 0 1
0.1249367 0.03973467 0.2082759 1 0 1
0.1225921 0.04235431 0.2009572 1 0 1
0.1170213 0.04696929 0.1877485 1 0 1
0.1113451 0.05156027 0.1745821 1 0 1
0.1046448 0.05669656 0.1597761 1 0 1
0.1006035 0.06010103 0.1500579 1 0 1
0.09881692 0.06207289 0.1445615 1 0 1
0.09698735 0.06403607 0.1390809 1 0 1
0.09653454 0.0651471 0.1361209 1 0 1
0.09701254 0.06569457 0.1348341 1 0 1
0.09748191 0.06624249 0.1335473 1 0 1
0.09178236 0.01743869 0.2574743 1 0 1
0.09226272 0.01862047 0.2543559 1 0 1
0.09337668 0.01916944 0.2530193 1 0 1
0.0948137 0.019405 0.252569 1 0 1
0.09591293 0.01995911 0.2512265 1 0 1
0.09768205 0.01988638 0.2516545 1 0 1
0.09877017 0.02044622 0.250305 1 0 1
0.1001959 0.02069496 0.2498373 1 0 1
0.1009188 0.02157257 0.2475991 1 0 1
0.1019793 0.02213893 0.2462429 1 0 1
0.1026731 0.0230188 0.244004 1 0 1
0.1037116 0.02358875 0.2426447 1 0 1
0.1047409 0.02416076 0.2412833 1 0 1
0.1053925 0.0250441 0.2390432 1 0 1
0.1063998 0.02561945 0.237679 1 0 1
0.1073978 0.02619675 0.236313 1 0 1
0.1080076 0.02708321 0.2340722 1 0 1
0.1089835 0.0276636 0.2327037 1 0 1
0.1099503 0.02824588 0.2313334 1 0 1
0.1109079 0.02883005 0.2299613 1 0 1
0.1118562 0.02941598 0.2285875 1 0 1
0.113589 0.02939661 0.2289445 1 0 1
0.1149264 0.02968488 0.2284295 1 0 1
0.1162615 0.02997636 0.2279102 1 0 1
0.1180019 0.02996997 0.2282485 1 0 1
0.1193361 0.03026878 0.2277191 1 0 1
0.1206681 0.030571 0.2271852 1 0 1
0.1215797 0.03117531 0.2257891 1 0 1
0.1224822 0.03178124 0.2243916 1 0 1
0.1229502 0.03268608 0.2221375 1 0 1
0.1234021 0.03359083 0.219885 1 0 1
0.1238376 0.03449545 0.217634 1 0 1
0.1242569 0.03539994 0.2153847 1 0 1
0.1242211 0.03659799 0.212288 1 0 1
0.1254893 0.03691516 0.2117389 1 0 1
0.1263094 0.03752758 0.2103396 1 0 1
0.1244242 0.03988857 0.2038716 1 0 1
0.1211302 0.04311118 0.1948918 1 0 1
0.1163965 0.04718703 0.1834144 1 0 1
0.110652 0.05181925 0.1702936 1 0 1
0.1048024 0.05642675 0.1572161 1 0 1
0.1016471 0.05928935 0.1492031 1 0 1
0.09842816 0.0621377 0.1412154 1 0 1
0.09751244 0.06354778 0.1374211 1 0 1
0.0970443 0.06466886 0.1344685 1 0 1
0.09751403 0.06522091 0.1331833 1 0 1
-0.110083 -0.1202478 0.6518955 1 0 1
0.08989745 0.01270196 0.2653996 1 0 1
0.08858002 0.01917049 0.2480317 1 0 1
0.08967461 0.01971661 0.2467079 1 0 1
0.09108874 0.01994486 0.2462704 1 0 1
0.09349796 0.01921812 0.2484904 1 0 1
0.09491927 0.01945503 0.2480402 1 0 1
0.0966783 0.01937715 0.2484705 1 0 1
0.09878577 0.01898631 0.2497777 1 0 1
0.100559 0.01891843 0.2501929 1 0 1
0.1016367 0.01948809 0.2488379 1 0 1
0.1030592 0.01974415 0.248361 1 0 1
0.1034067 0.02094885 0.2452421 1 0 1
0.1040919 0.02183864 0.243004 1 0 1
0.1047606 0.02272917 0.2407662 1 0 1
0.1054129 0.02362034 0.2385289 1 0 1
0.1064208 0.02419976 0.2371663 1 0 1
0.1077951 0.02446957 0.2366745 1 0 1
0.1084089 0.02536457 0.2344352 1 0 1
0.1093892 0.02594982 0.2330669 1 0 1
0.1103602 0.02653702 0.2316967 1 0 1
0.1113219 0.02712602 0.2303248 1 0 1
0.1122744 0.02771685 0.2289512 1 0 1
0.1136146 0.02800226 0.2284407 1 0 1
0.1149526 0.02829093 0.2279259 1 0 1
0.1158845 0.02888865 0.2265446 1 0 1
0.1172146 0.0291831 0.2260225 1 0 1
0.1185424 0.02948093 0.225496 1 0 1
0.1198681 0.02978193 0.2249651 1 0 1
0.1203552 0.03069132 0.2227169 1 0 1
0.122091 0.03069563 0.2230353 1 0 1
0.1225561 0.03160745 0.2207856 1 0 1
0.1234335 0.03221918 0.2193896 1 0 1
0.1243016 0.03283243 0.2179923 1 0 1
0.125596 0.03314888 0.2174429 1 0 1
0.125571 0.03436109 0.2143458 1 0 1
0.1264078 0.03497799 0.2129462 1 0 1
0.1272353 0.03559634 0.2115454 1 0 1
0.1258065 0.03769046 0.2059271 1 0 1
0.1234283 0.04036499 0.1986396 1 0 1
0.1209926 0.04302814 0.1913728 1 0 1
0.116201 0.04714065 0.1799338 1 0 1
0.1099285 0.05210584 0.1660204 1 0 1
0.1054106 0.05588299 0.1554957 1 0 1
0.1003386 0.05992972 0.1441718 1 0 1
0.09848985 0.0619355 0.138712 1 0 1
0.09755184 0.06335738 0.1349297 1 0 1
0.09754515 0.06420098 0.1328153 1 0 1
0.08653237 0.01815788 0.2461532 1 0 1
0.08794718 0.01837906 0.245726 1 0 1
0.08871014 0.01925244 0.2435176 1 0 1
0.09077145 0.01883178 0.2448579 1 0 1
0.09284547 0.01841684 0.2461891 1 0 1
0.09459626 0.01833037 0.2466263 1 0 1
0.09669197 0.01792653 0.2479402 1 0 1
0.09880031 0.01752868 0.2492448 1 0 1
0.1005743 0.01745753 0.2496588 1 0 1
0.1013022 0.01835131 0.247425 1 0 1
0.1027218 0.01860713 0.2469495 1 0 1
0.1037817 0.01918519 0.2455916 1 0 1
0.1044711 0.02008346 0.243355 1 0 1
0.1051441 0.02098245 0.2411188 1 0 1
0.1058006 0.02188212 0.2388832 1 0 1
0.1068127 0.02246639 0.2375207 1 0 1
0.1078157 0.02305264 0.2361564 1 0 1
0.1088093 0.02364084 0.2347901 1 0 1
0.1097938 0.02423095 0.233422 1 0 1
0.1115416 0.02419662 0.2337871 1 0 1
0.1121248 0.02510442 0.2315466 1 0 1
0.1134785 0.02538923 0.2310366 1 0 1
0.114433 0.02598826 0.2296588 1 0 1
0.1157788 0.02627895 0.2291414 1 0 1
0.1163142 0.02719172 0.226898 1 0 1
0.1176486 0.02748747 0.2263747 1 0 1
0.1181584 0.02840211 0.2241309 1 0 1
0.1194812 0.02870287 0.2236016 1 0 1
0.1203836 0.02931306 0.2222129 1 0 1
0.12212 0.02931417 0.2225302 1 0 1
0.1230108 0.02992928 0.2211357 1 0 1
0.1243211 0.03024228 0.2205907 1 0 1
0.1251968 0.03086142 0.2191919 1 0 1
0.1260632 0.03148213 0.2177919 1 0 1
0.1264812 0.03240552 0.2155441 1 0 1
0.1273254 0.03302832 0.214143 1 0 1
0.1281605 0.03365267 0.2127407 1 0 1
0.1271883 0.0354725 0.2079695 1 0 1
0.1261791 0.03728658 0.2032095 1 0 1
0.1251331 0.0390948 0.1984609 1 0 1
0.1212914 0.0426719 0.1887 1 0 1
0.1155189 0.04741137 0.1756267 1 0 1
0.1091747 0.05241988 0.1617628 1 0 1
0.1031891 0.05710818 0.1487786 1 0 1
0.09946668 0.06031031 0.1399936 1 0 1
0.09805864 0.06204025 0.1353843 1 0 1
0.09757536 0.06318271 0.1324434 1 0 1
0.08463537 0.01530212 0.2491379 1 0 1
0.08386681 0.017827 0.2424849 1 0 1
0.0852695 0.01804286 0.2420668 1 0 1
0.08699182 0.01793349 0.2425322 1 0 1
0.08774447 0.01881288 0.24033 1 0 1
0.08946688 0.01871083 0.2407852 1 0 1
0.0915271 0.01828648 0.2421183 1 0 1
0.09292809 0.01852052 0.2416752 1 0 1
0.09466676 0.01843225 0.24211 1 0 1
0.09675415 0.0180237 0.2434191 1 0 1
0.09850714 0.01794538 0.2438389 1 0 1
0.09956452 0.01851936 0.242494 1 0 1
0.101675 0.01812609 0.2437799 1 0 1
0.1030824 0.01838383 0.2433035 1 0 1
0.1041266 0.01896676 0.2419475 1 0 1
0.1051615 0.0195518 0.2405894 1 0 1
0.1065557 0.01981841 0.2401018 1 0 1
0.1072036 0.0207279 0.237867 1 0 1
0.1085864 0.02099997 0.2373729 1 0 1
0.1099672 0.02127541 0.2368744 1 0 1
0.110963 0.02187185 0.2355039 1 0 1
0.1123359 0.02215334 0.2349977 1 0 1
0.1133168 0.02275431 0.2336223 1 0 1
0.1138948 0.02367249 0.2313814 1 0 1
0.1148535 0.02427641 0.2300038 1 0 1
0.1154023 0.02519599 0.2277636 1 0 1
0.1159347 0.02611583 0.2255245 1 0 1
0.1172662 0.02641125 0.2250027 1 0 1
0.1177731 0.02733295 0.2227632 1 0 1
0.1186783 0.02794408 0.2213803 1 0 1
0.1199925 0.02824695 0.2208498 1 0 1
0.1213045 0.0285531 0.2203149 1 0 1
0.1226142 0.02886249 0.2197758 1 0 1
0.1239215 0.02917519 0.2192324 1 0 1
0.1252265 0.0294911 0.2186848 1 0 1
0.1260935 0.03011593 0.2172863 1 0 1
0.1260728 0.03135198 0.2141963 1 0 1
0.1264716 0.03228209 0.2119547 1 0 1
0.1273003 0.03290881 0.210557 1 0 1
0.1263213 0.03474569 0.2057959 1 0 1
0.1257585 0.03627548 0.201885 1 0 1
0.1256222 0.03750085 0.1988198 1 0 1
0.1231634 0.04022114 0.1915803 1 0 1
0.1187938 0.04412393 0.1810243 1 0 1
0.1120059 0.04949547 0.1663384 1 0 1
0.1055696 0.05454126 0.1525338 1 0 1
0.1009165 0.0583765 0.1420954 1 0 1
0.09856468 0.06071755 0.1358322 1 0 1
0.09808495 0.06187234 0.1328939 1 0 1
-0.1128005 -0.1260624 0.6409978 1 0 1
-0.1105142 -0.1291203 0.6486675 1 0 1
0.0845013 0.01574484 0.2437329 1 0 1
0.08591203 0.01596219 0.2433127 1 0 1
0.08699954 0.01651531 0.2420012 1 0 1
0.08807793 0.01707065 0.2406874 1 0 1
0.08980475 0.01696588 0.2411402 1 0 1
0.09120461 0.01719626 0.2407029 1 0 1
0.0926026 0.01743007 0.2402611 1 0 1
0.09399877 0.01766726 0.2398148 1 0 1
0.09573633 0.01757908 0.2402438 1 0 1
0.09713233 0.01782375 0.2397872 1 0 1
0.09852637 0.01807174 0.2393261 1 0 1
0.1006268 0.01766959 0.240613 1 0 1
0.102382 0.01759962 0.2410154 1 0 1
0.1037809 0.0178598 0.2405371 1 0 1
0.1055428 0.0177987 0.2409268 1 0 1
0.1069413 0.01806649 0.2404381 1 0 1
0.1079655 0.01866103 0.239075 1 0 1
0.1093562 0.01893489 0.2385786 1 0 1
0.1107449 0.01921225 0.2380776 1 0 1
0.1121313 0.01949295 0.2375722 1 0 1
0.1131292 0.02009764 0.2361974 1 0 1
0.1145079 0.02038444 0.2356843 1 0 1
0.1150971 0.02131269 0.2334424 1 0 1
0.11567 0.02224128 0.2312014 1 0 1
0.1158258 0.02348774 0.2281019 1 0 1
0.1163623 0.02441612 0.2258644 1 0 1
0.117698 0.02471286 0.2253414 1 0 1
0.1182089 0.02564312 0.2231035 1 0 1
0.1187035 0.02657352 0.2208668 1 0 1
0.1200184 0.0268769 0.2203365 1 0 1
0.1209092 0.02749622 0.2189509 1 0 1
0.1217907 0.02811719 0.2175638 1 0 1
0.1235205 0.02811766 0.2178716 1 0 1
0.1248228 0.02843324 0.2173257 1 0 1
0.1256869 0.02906137 0.2159302 1 0 1
0.126981 0.02938258 0.2153773 1 0 1
0.1269444 0.03062987 0.2122934 1 0 1
0.1268847 0.03187508 0.2092143 1 0 1
0.1263522 0.03342404 0.205301 1 0 1
0.1257897 0.03496897 0.2013958 1 0 1
0.1261104 0.03590173 0.1991711 1 0 1
0.1245748 0.03804637 0.1936102 1 0 1
0.121142 0.04139182 0.1847322 1 0 1
0.1139033 0.04713175 0.1692303 1 0 1
0.1070094 0.05254034 0.1546116 1 0 1
0.1018922 0.05672198 0.1433567 1 0 1
0.09906995 0.05938924 0.1362734 1 0 1
0.09811329 0.06085381 0.1325127 1 0 1
-0.1136226 -0.131397 0.6464447 1 0 1
-0.1106592 -0.1320681 0.6475683 1 0 1
0.08387837 0.01499901 0.2414198 1 0 1
0.08496468 0.01555221 0.2401155 1 0 1
0.08636334 0.01577155 0.2396941 1 0 1
0.0874351 0.01632971 0.2383841 1 0 1
0.08915529 0.01622046 0.2388379 1 0 1
0.09054854 0.01645 0.238403 1 0 1
0.09193999 0.01668295 0.2379636 1 0 1
0.09332959 0.01691926 0.2375197 1 0 1
0.09506056 0.01682656 0.2379497 1 0 1
0.09645 0.01707031 0.2374956 1 0 1
0.09783755 0.01731745 0.2370371 1 0 1
0.0992231 0.01756795 0.236574 1 0 1
0.1013223 0.01716222 0.2378537 1 0 1
0.1030726 0.01709173 0.2382516 1 0 1
0.104828 0.01702601 0.2386426 1 0 1
0.1069572 0.01663724 0.2398963 1 0 1
0.1087265 0.01658181 0.2402719 1 0 1
0.1097493 0.01718389 0.2389058 1 0 1
0.1111422 0.01746237 0.2384038 1 0 1
0.112533 0.01774429 0.2378971 1 0 1
0.1135351 0.01835377 0.2365226 1 0 1
0.1145278 0.01896524 0.2351462 1 0 1
0.1159049 0.0192559 0.2346288 1 0 1
0.1164855 0.02019385 0.2323881 1 0 1
0.1166489 0.02145323 0.2292903 1 0 1
0.1171931 0.02239095 0.2270529 1 0 1
0.1181287 0.02300932 0.2256721 1 0 1
0.1186437 0.02394822 0.2234357 1 0 1
0.1191423 0.02488722 0.2212006 1 0 1
0.1200431 0.02550907 0.219818 1 0 1
0.1209345 0.02613258 0.2184339 1 0 1
0.1213912 0.02707326 0.2162002 1 0 1
0.1231183 0.02706969 0.2165083 1 0 1
0.1244177 0.02738492 0.215964 1 0 1
0.1252789 0.02801639 0.2145717 1 0 1
0.1261308 0.02864939 0.2131781 1 0 1
0.1269733 0.02928386 0.2117832 1 0 1
0.1264677 0.03085092 0.2078692 1 0 1
0.1263818 0.0321046 0.2048009 1 0 1
0.1262728 0.03335604 0.2017377 1 0 1
0.1265974 0.03429747 0.1995145 1 0 1
0.1255255 0.03615869 0.1947938 1 0 1
0.1230264 0.03893115 0.1875899 1 0 1
0.1162673 0.04443591 0.1729368 1 0 1
0.1089192 0.05021549 0.1575054 1 0 1
0.1028673 0.05505469 0.1446084 1 0 1
0.09957437 0.05805541 0.1367078 1 0 1
0.09862124 0.05953593 0.1329512 1 0 1
0.08419672 0.01324762 0.2417652 1 0 1
0.08528736 0.01380539 0.2404613 1 0 1
0.0866904 0.01402567 0.2400389 1 0 1
0.08744135 0.01492766 0.2378465 1 0 1
0.08883349 0.01515357 0.2374173 1 0 1
0.0902238 0.01538289 0.2369837 1 0 1
0.09161227 0.01561555 0.2365456 1 0 1
0.09299892 0.01585167 0.236103 1 0 1
0.09472702 0.01575503 0.2365329 1 0 1
0.0961135 0.01599851 0.2360801 1 0 1
0.09784865 0.01591056 0.2364975 1 0 1
0.0988807 0.0164956 0.2351612 1 0 1
0.1009771 0.01608229 0.2364394 1 0 1
0.1027244 0.01600786 0.2368373 1 0 1
0.104842 0.01560605 0.2380979 1 0 1
0.1066033 0.01554186 0.2384806 1 0 1
0.1083698 0.01548252 0.2388562 1 0 1
0.1090138 0.016418 0.2366269 1 0 1
0.1107797 0.01636619 0.2369922 1 0 1
0.1121676 0.01664782 0.2364871 1 0 1
0.1135533 0.01693283 0.2359775 1 0 1
0.1149368 0.01722131 0.2354634 1 0 1
0.1159245 0.01783954 0.2340854 1 0 1
0.1169028 0.01845967 0.2327058 1 0 1
0.1170703 0.01973129 0.229611 1 0 1
0.1176186 0.02067762 0.2273753 1 0 1
0.1181506 0.02162414 0.2251407 1 0 1
0.1186661 0.02257079 0.2229073 1 0 1
0.1195802 0.02319592 0.2215263 1 0 1
0.120485 0.02382275 0.2201439 1 0 1
0.1209585 0.02477121 0.2179117 1 0 1
0.1222667 0.0250813 0.2173746 1 0 1
0.1231436 0.02571294 0.215988 1 0 1
0.1244437 0.02602871 0.2154439 1 0 1
0.1253054 0.02666436 0.2140531 1 0 1
0.1265973 0.02698572 0.213502 1 0 1
0.1265582 0.02825503 0.2104284 1 0 1
0.1264958 0.02952226 0.2073596 1 0 1
0.1264102 0.03078733 0.2042958 1 0 1
0.1258484 0.03236244 0.2004022 1 0 1
0.1266267 0.03299947 0.1990168 1 0 1
0.1260152 0.03456896 0.1951351 1 0 1
0.123983 0.03706255 0.1887712 1 0 1
0.118164 0.04201429 0.1757962 1 0 1
0.1103581 0.0481711 0.1595567 1 0 1
0.1033679 0.05368127 0.145025 1 0 1
0.1005553 0.05641043 0.1379594 1 0 1
0.09960911 0.05790779 0.1342054 1 0 1
-0.1139169 -0.1372689 0.6442157 1 0 1
0.08419992 0.01183585 0.2412176 1 0 1
0.08560906 0.01205365 0.2407988 1 0 1
0.08733788 0.01193148 0.2412578 1 0 1
0.08777171 0.01318509 0.2381848 1 0 1
0.08916818 0.01341197 0.2377546 1 0 1
0.09056282 0.01364224 0.23732 1 0 1
0.09161955 0.01421692 0.2360029 1 0 1
0.09266711 0.01479374 0.2346836 1 0 1
0.0943923 0.01469318 0.2351134 1 0 1
0.09577582 0.01493642 0.234662 1 0 1
0.09750807 0.01484456 0.2350793 1 0 1
0.09853715 0.01543303 0.2337456 1 0 1
0.1002727 0.01534922 0.2341516 1 0 1
0.1020136 0.01527021 0.2345507 1 0 1
0.1037597 0.01519593 0.2349428 1 0 1
0.1055109 0.01512645 0.2353279 1 0 1
0.106895 0.01539605 0.2348403 1 0 1
0.108277 0.01566916 0.2343482 1 0 1
0.1096569 0.01594563 0.2338516 1 0 1
0.1114178 0.01589332 0.2342125 1 0 1
0.1131836 0.01584579 0.2345663 1 0 1
0.1149545 0.01580324 0.234913 1 0 1
0.1159428 0.01642558 0.2335366 1 0 1
0.1161272 0.01770831 0.2304453 1 0 1
0.1162881 0.01898981 0.2273577 1 0 1
0.1176387 0.01928695 0.2268355 1 0 1
0.1181712 0.02024124 0.224604 1 0 1
0.1190987 0.02086961 0.2232247 1 0 1
0.1196019 0.02182499 0.2209942 1 0 1
0.1205074 0.0224559 0.2196134 1 0 1
0.1209814 0.02341218 0.2173842 1 0 1
0.1218647 0.02404557 0.2160019 1 0 1
0.1227387 0.0246805 0.2146184 1 0 1
0.1244684 0.02467481 0.2149184 1 0 1
0.1253307 0.02531457 0.2135293 1 0 1
0.1257443 0.0262753 0.2112994 1 0 1
0.1256986 0.02755427 0.2082332 1 0 1
0.1251833 0.02914881 0.2043353 1 0 1
0.1255377 0.03010588 0.2021156 1 0 1
0.1249692 0.03169421 0.1982308 1 0 1
0.1257411 0.03233354 0.1968502 1 0 1
0.1260436 0.03328821 0.1946382 1 0 1
0.1244752 0.03549457 0.1891133 1 0 1
0.1191261 0.04019007 0.1769853 1 0 1
0.1122671 0.04579564 0.1624208 1 0 1
0.1048156 0.05168194 0.1470828 1 0 1
0.1015357 0.0547527 0.1392013 1 0 1
0.1001156 0.05657525 0.134629 1 0 1
0.08624753 0.009949273 0.2420101 1 0 1
0.08798438 0.009824945 0.2424656 1 0 1
0.08875134 0.01074461 0.2402747 1 0 1
0.08983062 0.01131952 0.2389624 1 0 1
0.09090079 0.01189661 0.237648 1 0 1
0.09196184 0.01247595 0.2363313 1 0 1
0.09301369 0.0130574 0.2350124 1 0 1
0.0943998 0.01329763 0.2345656 1 0 1
0.09578401 0.01354126 0.2341143 1 0 1
0.09716634 0.01378824 0.2336585 1 0 1
0.0981924 0.01438013 0.2323277 1 0 1
0.0999251 0.01429238 0.2327336 1 0 1
0.101663 0.01420941 0.2331326 1 0 1
0.1034062 0.01413121 0.2335246 1 0 1
0.1047858 0.01439653 0.2330441 1 0 1
0.1061634 0.0146652 0.2325592 1 0 1
0.1075389 0.01493735 0.2320697 1 0 1
0.1092918 0.01487618 0.2324377 1 0 1
0.1106667 0.01515575 0.2319382 1 0 1
0.1128128 0.01476845 0.2331525 1 0 1
0.114971 0.01438753 0.2343571 1 0 1
0.11596 0.01501402 0.2329824 1 0 1
0.1165422 0.01597525 0.2307507 1 0 1
0.117509 0.01660473 0.2293738 1 0 1
0.1184664 0.017236 0.2279952 1 0 1
0.1190065 0.01819964 0.225764 1 0 1
0.1195302 0.01916346 0.2235339 1 0 1
0.1200375 0.02012738 0.2213051 1 0 1
0.120947 0.02076329 0.2199244 1 0 1
0.1210031 0.02205545 0.2168515 1 0 1
0.121887 0.02269296 0.2154709 1 0 1
0.1231906 0.02300646 0.2149314 1 0 1
0.1244919 0.02332318 0.2143878 1 0 1
0.125791 0.02364318 0.2138399 1 0 1
0.1266481 0.02428953 0.2124497 1 0 1
0.1261667 0.0259038 0.2085484 1 0 1
0.1256552 0.02751426 0.204655 1 0 1
0.1260135 0.02848001 0.2024367 1 0 1
0.1254488 0.03008425 0.1985563 1 0 1
0.1262248 0.03072867 0.1971758 1 0 1
0.1269915 0.03137436 0.1957944 1 0 1
0.1254301 0.03360487 0.1902751 1 0 1
0.1210217 0.0377218 0.1798158 1 0 1
0.1132343 0.0440229 0.1636207 1 0 1
0.1062628 0.04966279 0.149128 1 0 1
0.1020378 0.05339522 0.1396125 1 0 1
0.1001403 0.05554917 0.1342265 1 0 1
0.08561371 0.009237893 0.2396874 1 0 1
0.08734391 0.00910906 0.2401438 1 0 1
0.08842935 0.009685111 0.2388366 1 0 1
0.08983447 0.009913895 0.2384044 1 0 1
0.09123776 0.01014606 0.2379676 1 0 1
0.09230307 0.01073006 0.2366514 1 0 1
0.09335925 0.01131617 0.235333 1 0 1
0.09474966 0.01155741 0.2348851 1 0 1
0.09579114 0.01214845 0.2335612 1 0 1
0.09682343 0.01274159 0.2322352 1 0 1
0.0982008 0.01299173 0.2317763 1 0 1
0.09993418 0.01290076 0.2321809 1 0 1
0.1016728 0.01281456 0.2325786 1 0 1
0.1034166 0.01273309 0.2329693 1 0 1
0.1044282 0.01334123 0.2316249 1 0 1
0.1058029 0.01360964 0.2311413 1 0 1
0.1067995 0.01422243 0.2297918 1 0 1
0.1081664 0.01449694 0.2293006 1 0 1
0.1095313 0.01477478 0.2288051 1 0 1
0.1116673 0.01437846 0.2300207 1 0 1
0.1138156 0.01398844 0.2312266 1 0 1
0.1151882 0.01427947 0.2307125 1 0 1
0.1161614 0.01491039 0.2293403 1 0 1
0.1171252 0.01554318 0.2279664 1 0 1
0.1180796 0.01617781 0.2265909 1 0 1
0.1186168 0.01714842 0.2243641 1 0 1
0.1195491 0.0177858 0.2229867 1 0 1
0.1200569 0.01875751 0.220761 1 0 1
0.120967 0.01939753 0.2193819 1 0 1
0.1210236 0.02070104 0.2163136 1 0 1
0.1223336 0.02101261 0.2157771 1 0 1
0.1236414 0.02132745 0.2152364 1 0 1
0.1245143 0.02197393 0.2138519 1 0 1
0.1253778 0.02262199 0.2124661 1 0 1
0.126232 0.02327158 0.211079 1 0 1
0.1253044 0.02522577 0.2063501 1 0 1
0.1256795 0.0261997 0.2041329 1 0 1
0.1255882 0.02749718 0.2010857 1 0 1
0.1254739 0.02879243 0.1980434 1 0 1
0.1262504 0.02944095 0.1966646 1 0 1
0.1270176 0.03009078 0.1952848 1 0 1
0.126384 0.03170284 0.1914263 1 0 1
0.1219822 0.03586551 0.1809812 1 0 1
0.1151422 0.04160075 0.1664561 1 0 1
0.1072352 0.04794126 0.1503392 1 0 1
0.1020616 0.05234882 0.1391973 1 0 1
0.09968312 0.05484043 0.133002 1 0 1
0.08863132 0.006283987 0.243091 1 0 1
0.08908174 0.007573975 0.240027 1 0 1
0.09016606 0.008157474 0.2387168 1 0 1
0.09124117 0.008743249 0.2374043 1 0 1
0.09197101 0.009683182 0.2352161 1 0 1
0.09336399 0.009921405 0.2347727 1 0 1
0.09475504 0.01016297 0.234325 1 0 1
0.09579718 0.01075809 0.2330027 1 0 1
0.0971808 0.01100586 0.2325472 1 0 1
0.09820817 0.01160579 0.2312196 1 0 1
0.09958425 0.01185969 0.2307564 1 0 1
0.1013199 0.01176954 0.231154 1 0 1
0.1030609 0.01168419 0.2315447 1 0 1
0.1044382 0.01194961 0.2310658 1 0 1
0.1054411 0.01256379 0.229721 1 0 1
0.1064348 0.01317992 0.2283743 1 0 1
0.1074193 0.01379805 0.2270258 1 0 1
0.1087775 0.01407492 0.226533 1 0 1
0.1109072 0.01367023 0.2277485 1 0 1
0.1126587 0.01361361 0.2280993 1 0 1
0.1136275 0.01424372 0.2267358 1 0 1
0.1153818 0.0141954 0.2270752 1 0 1
0.1163391 0.01483071 0.2257057 1 0 1
0.1176917 0.01512931 0.225184 1 0 1
0.1182258 0.01610681 0.2229618 1 0 1
0.1195667 0.01641051 0.2224342 1 0 1
0.1200751 0.01738996 0.2202116 1 0 1
0.1209858 0.0180341 0.2188342 1 0 1
0.121465 0.01901441 0.216613 1 0 1
0.1227793 0.01932732 0.2160753 1 0 1
0.1240912 0.01964351 0.2155333 1 0 1
0.1254008 0.01996297 0.2149872 1 0 1
0.1258356 0.020948 0.2127634 1 0 1
0.1258145 0.02226317 0.2097061 1 0 1
0.1248838 0.02423514 0.2049861 1 0 1
0.1252558 0.02521586 0.2027736 1 0 1
0.1247114 0.0268514 0.1989018 1 0 1
0.1250442 0.02782951 0.1966964 1 0 1
0.1258177 0.02848128 0.1953207 1 0 1
0.1270425 0.02880944 0.1947703 1 0 1
0.1259453 0.03076036 0.1900933 1 0 1
0.1224745 0.03431996 0.1813132 1 0 1
0.1156372 0.0401179 0.1668115 1 0 1
0.1072585 0.04684944 0.1499008 1 0 1
0.1020844 0.05130427 0.138778 1 0 1
0.09970583 0.05382154 0.1325931 1 0 1
0.0892747 0.004148171 0.2442677 1 0 1
0.09038343 0.004735787 0.242957 1 0 1
0.0911542 0.00568248 0.2407695 1 0 1
0.09224097 0.006274128 0.2394553 1 0 1
0.09298242 0.007223573 0.2372666 1 0 1
0.09438697 0.007464007 0.23682 1 0 1
0.09544621 0.008062251 0.2354991 1 0 1
0.09614918 0.009016349 0.2333075 1 0 1
0.09753709 0.009265183 0.2328509 1 0 1
0.09892301 0.009517423 0.2323899 1 0 1
0.09994908 0.01012476 0.2310595 1 0 1
0.1013275 0.01038316 0.2305908 1 0 1
0.1027039 0.01064496 0.2301177 1 0 1
0.1037095 0.01125978 0.2287789 1 0 1
0.1047058 0.01187661 0.2274383 1 0 1
0.105693 0.01249542 0.2260958 1 0 1
0.1070504 0.0127686 0.2256089 1 0 1
0.1084058 0.01304515 0.2251176 1 0 1
0.1101458 0.012979 0.2254768 1 0 1
0.1118909 0.01291771 0.2258289 1 0 1
0.1128531 0.01355039 0.2244698 1 0 1
0.1149984 0.01315354 0.2256614 1 0 1
0.1163538 0.01344918 0.2251443 1 0 1
0.1177069 0.01374821 0.2246229 1 0 1
0.1186497 0.01439209 0.2232504 1 0 1
0.1195832 0.01503765 0.2218764 1 0 1
0.1205073 0.015685 0.2205008 1 0 1
0.1214222 0.01633406 0.2191237 1 0 1
0.1219054 0.01732298 0.2169041 1 0 1
0.1227981 0.01797453 0.2155256 1 0 1
0.1241106 0.01829118 0.2149839 1 0 1
0.124988 0.01894682 0.2136013 1 0 1
0.1254199 0.01993876 0.2113821 1 0 1
0.1253957 0.02126437 0.2083309 1 0 1
0.1249051 0.02292101 0.2044522 1 0 1
0.1252776 0.02390949 0.2022429 1 0 1
0.1247336 0.02555999 0.1983772 1 0 1
0.1250667 0.02654582 0.1961749 1 0 1
0.1258408 0.02720167 0.194801 1 0 1
0.1266057 0.02785883 0.1934262 1 0 1
0.1255053 0.02982736 0.1887583 1 0 1
0.1224984 0.03309593 0.1808162 1 0 1
0.1161313 0.03862993 0.1671594 1 0 1
0.1082293 0.04511018 0.1510949 1 0 1
0.1030616 0.04961416 0.139988 1 0 1
0.1002087 0.05248168 0.1329952 1 0 1
0.09148367 0.003909185 0.2410621 1 0 1
0.09190979 0.005225115 0.2380048 1 0 1
0.09298439 0.005822343 0.2366911 1 0 1
0.09438955 0.00606313 0.2362446 1 0 1
0.09544945 0.006665426 0.2349253 1 0 1
0.09684718 0.006912506 0.2344709 1 0 1
0.09789228 0.007519709 0.2331462 1 0 1
0.09928253 0.007772994 0.2326842 1 0 1
0.1003128 0.008385044 0.2313542 1 0 1
0.1013339 0.00899923 0.2300222 1 0 1
0.102711 0.009261402 0.2295493 1 0 1
0.1033483 0.01023362 0.2273524 1 0 1
0.1043417 0.01085378 0.2260147 1 0 1
0.1057019 0.01112409 0.2255322 1 0 1
0.1066803 0.01174882 0.2241896 1 0 1
0.108416 0.01167464 0.2245544 1 0 1
0.1101566 0.01160532 0.2249123 1 0 1
0.111512 0.01188976 0.2244112 1 0 1
0.1124713 0.01252579 0.2230551 1 0 1
0.1150112 0.01177395 0.2250945 1 0 1
0.1163673 0.01207009 0.2245777 1 0 1
0.1181256 0.01202378 0.2249029 1 0 1
0.1190726 0.01267248 0.2235308 1 0 1
0.1204218 0.01297875 0.2230008 1 0 1
0.1209384 0.01397523 0.2207818 1 0 1
0.1222761 0.01428664 0.2202459 1 0 1
0.1227669 0.01528491 0.2180267 1 0 1
0.1240929 0.01560127 0.2174852 1 0 1
0.1249874 0.01626111 0.2161027 1 0 1
0.1254396 0.01726176 0.2138836 1 0 1
0.1254392 0.01860069 0.2108324 1 0 1
0.1249757 0.02027516 0.2069536 1 0 1
0.1249252 0.02160919 0.2039133 1 0 1
0.1252982 0.02260537 0.2017072 1 0 1
0.1252047 0.023936 0.1986753 1 0 1
0.1255419 0.02493041 0.1964748 1 0 1
0.1258628 0.02592434 0.1942763 1 0 1
0.1266282 0.02658563 0.1929033 1 0 1
0.125992 0.02824153 0.1890645 1 0 1
0.1229885 0.03154391 0.1811344 1 0 1
0.1161533 0.03746606 0.1666814 1 0 1
0.108725 0.04368676 0.151462 1 0 1
0.1026047 0.04889344 0.1387425 1 0 1
0.09974825 0.05178913 0.1317633 1 0 1
0.09115444 0.002859297 0.2396035 1 0 1
0.09224247 0.003458883 0.2382925 1 0 1
0.09298524 0.004423623 0.2361101 1 0 1
0.09507069 0.003940248 0.2373996 1 0 1
0.09613845 0.004547766 0.2360797 1 0 1
0.09754414 0.004796539 0.2356231 1 0 1
0.09894785 0.005048721 0.235162 1 0 1
0.0999953 0.005664093 0.2338333 1 0 1
0.1010335 0.00628154 0.2325025 1 0 1
0.1017008 0.007259388 0.230309 1 0 1
0.1023517 0.00823794 0.228116 1 0 1
0.1029861 0.009217148 0.2259235 1 0 1
0.1043489 0.009484411 0.2254457 1 0 1
0.1053337 0.01011063 0.2241078 1 0 1
0.1066888 0.01038394 0.2236226 1 0 1
0.1080418 0.01066061 0.2231329 1 0 1
0.1097795 0.01058736 0.2234907 1 0 1
0.1111319 0.01087147 0.2229912 1 0 1
0.1124822 0.01115906 0.2224872 1 0 1
0.1146253 0.01074787 0.2236745 1 0 1
0.1155773 0.01139395 0.2223127 1 0 1
0.1173293 0.01134288 0.2226395 1 0 1
0.1186779 0.01164547 0.2221155 1 0 1
0.120436 0.01160351 0.2224295 1 0 1
0.1213684 0.0122607 0.2210544 1 0 1
0.1227102 0.01257338 0.2205174 1 0 1
0.1240497 0.01288943 0.2199761 1 0 1
0.1249611 0.01355336 0.2185939 1 0 1
0.1250044 0.01490644 0.2155398 1 0 1
0.12589 0.01557198 0.2141577 1 0 1
0.1250208 0.01760698 0.2094453 1 0 1
0.1245542 0.01929549 0.2055741 1 0 1
0.1240574 0.02098017 0.2017108 1 0 1
0.1248708 0.02164294 0.2003387 1 0 1
0.1247743 0.02298396 0.1973131 1 0 1
0.1251084 0.02398518 0.1951172 1 0 1
0.1254263 0.02498588 0.1929236 1 0 1
0.1261887 0.02565033 0.1915537 1 0 1
0.1255495 0.02732021 0.1877228 1 0 1
0.1225426 0.03065444 0.1798079 1 0 1
0.1166454 0.03597147 0.1670159 1 0 1
0.1096942 0.0419263 0.1526373 1 0 1
0.1031024 0.04752001 0.1391234 1 0 1
0.1002492 0.05044579 0.1321547 1 0 1
0.09181056 0.0007159325 0.240752 1 0 1
0.09357157 0.000586429 0.2411778 1 0 1
0.09332116 0.002660858 0.2363913 1 0 1
0.09541091 0.002171263 0.2376768 1 0 1
0.09682641 0.002418169 0.2372225 1 0 1
0.09824001 0.002668621 0.2367637 1 0 1
0.09965166 0.002922492 0.2363004 1 0 1
0.1003526 0.003906474 0.2341093 1 0 1
0.101395 0.004528625 0.232779 1 0 1
0.1020666 0.005514831 0.2305874 1 0 1
0.1023565 0.006862964 0.2275384 1 0 1
0.1026226 0.008210307 0.2244924 1 0 1
0.1039824 0.008477326 0.224016 1 0 1
0.1049642 0.009106843 0.2226811 1 0 1
0.1063164 0.009379894 0.2221973 1 0 1
0.1080497 0.009298558 0.2225608 1 0 1
0.1094012 0.009579096 0.222067 1 0 1
0.1111411 0.009506789 0.2224178 1 0 1
0.1128859 0.009439358 0.2227617 1 0 1
0.1146358 0.009376854 0.2230985 1 0 1
0.1159895 0.009673118 0.2225834 1 0 1
0.1173409 0.009972745 0.2220639 1 0 1
0.1186902 0.01027584 0.2215401 1 0 1
0.1204489 0.01023075 0.2218527 1 0 1
0.1213819 0.01089205 0.2204795 1 0 1
0.1231432 0.01085539 0.2207807 1 0 1
0.1244869 0.01117276 0.2202381 1 0 1
0.1254023 0.01184165 0.2188562 1 0 1
0.1254496 0.01320688 0.2158054 1 0 1
0.1254735 0.01457023 0.2127592 1 0 1
0.1246012 0.01662289 0.2080559 1 0 1
0.1245714 0.01798067 0.2050219 1 0 1
0.1245183 0.0193364 0.2019926 1 0 1
0.1248889 0.02034716 0.1997944 1 0 1
0.1252432 0.02135744 0.1975983 1 0 1
0.1255812 0.02236725 0.1954042 1 0 1
0.125903 0.02337656 0.1932122 1 0 1
0.1262087 0.02438528 0.1910225 1 0 1
0.126034 0.02573167 0.1880164 1 0 1
0.1230305 0.02909962 0.1801137 1 0 1
0.1171364 0.0344718 0.167343 1 0 1
0.1101881 0.04048893 0.1529885 1 0 1
0.1035992 0.04614128 0.1394972 1 0 1
0.1007494 0.0490971 0.1325392 1 0 1
0.09668126 -0.002437931 0.2444583 1 0 1
0.09710919 -0.00108054 0.2414048 1 0 1
0.09785669 -9.230692E-05 0.2392175 1 0 1
0.09893475 0.0005286813 0.2378928 1 0 1
0.1000036 0.001151855 0.236566 1 0 1
0.1010632 0.001777233 0.2352369 1 0 1
0.1021135 0.002404726 0.2339059 1 0 1
0.1024314 0.003765518 0.2308574 1 0 1
0.1027254 0.005125596 0.2278119 1 0 1
0.1029958 0.006484919 0.2247695 1 0 1
0.1043598 0.006753049 0.224292 1 0 1
0.1053458 0.007387335 0.2229575 1 0 1
0.1067021 0.007661475 0.2224726 1 0 1
0.1084396 0.007577748 0.2228334 1 0 1
0.1097954 0.007859418 0.2223385 1 0 1
0.1111491 0.008144522 0.2218392 1 0 1
0.1125005 0.008432918 0.2213357 1 0 1
0.114645 0.008008253 0.2225173 1 0 1
0.1155982 0.008662464 0.2211589 1 0 1
0.1173514 0.008605156 0.221483 1 0 1
0.1187013 0.00890867 0.2209594 1 0 1
0.1204607 0.008860509 0.2212708 1 0 1
0.1213942 0.00952586 0.2198992 1 0 1
0.1231561 0.0094861 0.2201991 1 0 1
0.1249228 0.009451419 0.2204918 1 0 1
0.1258423 0.0101253 0.2191102 1 0 1
0.1254642 0.01185346 0.2152306 1 0 1
0.1250557 0.01357815 0.2113585 1 0 1
0.1246167 0.01529925 0.2074938 1 0 1
0.1245874 0.01666832 0.2044645 1 0 1
0.1245348 0.01803532 0.20144 1 0 1
0.1253527 0.01870716 0.2000699 1 0 1
0.1261613 0.01938049 0.1986988 1 0 1
0.1265068 0.02039979 0.196505 1 0 1
0.126836 0.02141858 0.1943132 1 0 1
0.127149 0.02243685 0.1921236 1 0 1
0.1265174 0.02413827 0.1883022 1 0 1
0.1235174 0.02753986 0.1804118 1 0 1
0.1171553 0.03330708 0.1668486 1 0 1
0.109732 0.03972439 0.1517078 1 0 1
0.104095 0.04475736 0.139864 1 0 1
0.1012486 0.04774313 0.1329167 1 0 1
-0.1145802 -0.1607436 0.6271977 1 0 1
0.0964278 -0.00175404 0.2390689 1 0 1
0.09716865 -0.0007594373 0.236887 1 0 1
0.09858719 -0.000507607 0.2364274 1 0 1
0.09965304 0.0001189503 0.2351034 1 0 1
0.1000008 0.00148868 0.2320602 1 0 1
0.1017569 0.001378529 0.2324492 1 0 1
