ply
format ascii 1.0
Comment Generated by Floating Hands
element vertex 1256
property double x
property double y
property double z
property uchar red
property uchar green
property uchar blue
end_header
0.0407627 -0.1885703 0.2123224 1 0 1
0.04376208 -0.1668574 0.1851099 1 0 1
0.003453941 0.009368469 -0.0274356 1 0 1
-0.1369424 -0.2112953 0.2615312 1 0 1
-0.1346798 -0.2117187 0.2617167 1 0 1
-0.1320726 -0.2109154 0.2603488 1 0 1
-0.1299825 -0.2119369 0.2612934 1 0 1
-0.1277193 -0.2123422 0.261458 1 0 1
-0.1257747 -0.2139667 0.2631639 1 0 1
-0.1238132 -0.215588 0.264864 1 0 1
-0.1216826 -0.2165923 0.2657836 1 0 1
-0.1192463 -0.2163629 0.2651472 1 0 1
-0.1168165 -0.2161262 0.2645035 1 0 1
-0.1141121 -0.2146507 0.262302 1 0 1
-0.1112932 -0.2125491 0.2593169 1 0 1
-0.1090353 -0.2129051 0.259426 1 0 1
-0.1066473 -0.2126375 0.2587525 1 0 1
-0.1040161 -0.2111263 0.2565198 1 0 1
-0.1017704 -0.2114624 0.2566079 1 0 1
-0.09975792 -0.2130315 0.2582419 1 0 1
-0.09772889 -0.214597 0.2598695 1 0 1
-0.09535511 -0.2142973 0.2591612 1 0 1
-0.09341 -0.216475 0.2615525 1 0 1
-0.09123746 -0.2174068 0.2623841 1 0 1
-0.08886094 -0.2170894 0.2616554 1 0 1
-0.08649139 -0.2167652 0.2609197 1 0 1
-0.08412877 -0.216434 0.2601771 1 0 1
-0.08177319 -0.216096 0.2594277 1 0 1
-0.07942473 -0.2157511 0.2586712 1 0 1
-0.07716134 -0.216024 0.2586851 1 0 1
-0.07474904 -0.2150409 0.257138 1 0 1
-0.07256242 -0.2159267 0.2579153 1 0 1
-0.07003575 -0.2136778 0.2548006 1 0 1
-0.06760228 -0.2120458 0.2524563 1 0 1
-0.137137 -0.2130439 0.2601019 1 0 1
-0.1345228 -0.2122425 0.2587457 1 0 1
-0.1319226 -0.2114325 0.2573815 1 0 1
-0.1298406 -0.2124563 0.2583225 1 0 1
-0.127421 -0.212246 0.2577146 1 0 1
-0.1254886 -0.2138751 0.2594142 1 0 1
-0.1233829 -0.2148849 0.2603361 1 0 1
-0.1208106 -0.2140394 0.2589354 1 0 1
-0.1184011 -0.213803 0.2582992 1 0 1
-0.1159981 -0.2135595 0.2576557 1 0 1
-0.1131791 -0.2114524 0.2546867 1 0 1
-0.11039 -0.2093345 0.2517093 1 0 1
-0.1082962 -0.2103061 0.2525896 1 0 1
-0.1061935 -0.2112733 0.2534635 1 0 1
-0.103706 -0.210372 0.2520105 1 0 1
-0.1015972 -0.2113282 0.2528711 1 0 1
-0.09959712 -0.2129021 0.254499 1 0 1
-0.09769393 -0.2150955 0.2568948 1 0 1
-0.09532768 -0.2147922 0.2561883 1 0 1
-0.09317975 -0.2157303 0.2570232 1 0 1
-0.09102309 -0.2166635 0.2578515 1 0 1
-0.08856388 -0.2157164 0.2563501 1 0 1
-0.08621348 -0.2153871 0.2556161 1 0 1
-0.08387005 -0.215051 0.2548752 1 0 1
-0.0816199 -0.2153346 0.2549019 1 0 1
-0.079369 -0.2156125 0.254922 1 0 1
-0.0771957 -0.216512 0.2557098 1 0 1
-0.07479053 -0.2155225 0.2541672 1 0 1
-0.07261199 -0.2164108 0.2549416 1 0 1
-0.07009181 -0.2141493 0.2518364 1 0 1
-0.1399606 -0.2155847 0.2600094 1 0 1
-0.1371518 -0.2141718 0.257898 1 0 1
-0.1345409 -0.2133645 0.2565458 1 0 1
-0.1319438 -0.2125484 0.2551855 1 0 1
-0.1296976 -0.212958 0.2553546 1 0 1
-0.1272855 -0.212744 0.254748 1 0 1
-0.1250402 -0.2131413 0.2549032 1 0 1
-0.1227936 -0.2135328 0.2550517 1 0 1
-0.1202401 -0.2126787 0.253654 1 0 1
-0.1177007 -0.2118161 0.2522486 1 0 1
-0.1150305 -0.210324 0.2500656 1 0 1
-0.1125236 -0.2094441 0.2486448 1 0 1
-0.1098937 -0.2079335 0.246446 1 0 1
-0.1076864 -0.2082826 0.2465516 1 0 1
-0.1057368 -0.2098734 0.2481924 1 0 1
-0.103645 -0.2108365 0.2490561 1 0 1
-0.1015443 -0.211795 0.2499134 1 0 1
-0.09955263 -0.2133744 0.2515357 1 0 1
-0.09765822 -0.2155762 0.2539232 1 0 1
-0.09529937 -0.2152694 0.2532185 1 0 1
-0.09315955 -0.2162099 0.2540501 1 0 1
-0.09090884 -0.2165179 0.2541035 1 0 1
-0.0886572 -0.2168202 0.2541501 1 0 1
-0.08631037 -0.2164878 0.253418 1 0 1
-0.08406097 -0.2167778 0.253451 1 0 1
-0.0817242 -0.2164324 0.2527053 1 0 1
-0.07947716 -0.2167102 0.2527248 1 0 1
-0.07715062 -0.2163516 0.2519656 1 0 1
-0.0749061 -0.2166173 0.2519716 1 0 1
-0.07259002 -0.2162456 0.2511989 1 0 1
-0.07021412 -0.2152352 0.2496474 1 0 1
-0.1390389 -0.2057913 0.2446019 1 0 1
-0.1384988 -0.2117718 0.251678 1 0 1
-0.1366254 -0.213434 0.2533965 1 0 1
-0.1342057 -0.2132372 0.2528129 1 0 1
-0.1317922 -0.2130332 0.2522219 1 0 1
-0.1297224 -0.2140621 0.2531559 1 0 1
-0.1269841 -0.2126034 0.251018 1 0 1
-0.1245896 -0.2123779 0.2504051 1 0 1
-0.1220444 -0.2115228 0.2490181 1 0 1
-0.1196666 -0.2112823 0.2483906 1 0 1
-0.1168473 -0.2091642 0.2454536 1 0 1
-0.1143487 -0.2082833 0.2440434 1 0 1
-0.1118645 -0.2073943 0.2426258 1 0 1
-0.1093946 -0.206497 0.2412008 1 0 1
-0.1072067 -0.2068436 0.2413049 1 0 1
-0.1052773 -0.2084379 0.2429393 1 0 1
-0.1032053 -0.2094017 0.2437992 1 0 1
-0.1013685 -0.2116165 0.2461902 1 0 1
-0.09950732 -0.213829 0.2485755 1 0 1
-0.09762166 -0.2160393 0.2509548 1 0 1
-0.09549094 -0.216988 0.25179 1 0 1
-0.09335148 -0.217932 0.2526187 1 0 1
-0.09099817 -0.2176099 0.2519022 1 0 1
-0.08875044 -0.2179122 0.2519482 1 0 1
-0.08631241 -0.2169452 0.2504487 1 0 1
-0.08398 -0.2166026 0.2497117 1 0 1
-0.08165462 -0.2162531 0.2489678 1 0 1
-0.07933632 -0.2158969 0.2482173 1 0 1
-0.07718325 -0.216801 0.2489991 1 0 1
-0.07487132 -0.2164322 0.2482352 1 0 1
-0.07249542 -0.2154221 0.2466949 1 0 1
-0.07020184 -0.2150393 0.2459176 1 0 1
-0.1436197 -0.2066046 0.2427908 1 0 1
-0.1396058 -0.2087126 0.2447171 1 0 1
-0.1383229 -0.2122412 0.2487212 1 0 1
-0.1362773 -0.2132876 0.2496707 1 0 1
-0.1336921 -0.2124647 0.248325 1 0 1
-0.1312937 -0.2122554 0.2477346 1 0 1
-0.1289017 -0.2120391 0.2471371 1 0 1
-0.1261856 -0.210568 0.2450043 1 0 1
-0.1236528 -0.2097114 0.2436275 1 0 1
-0.1212914 -0.2094716 0.2430075 1 0 1
-0.1187831 -0.2085989 0.2416158 1 0 1
-0.1159897 -0.2064648 0.2386866 1 0 1
-0.1136634 -0.2062013 0.2380445 1 0 1
-0.1114855 -0.2065586 0.2381607 1 0 1
-0.1093065 -0.2069103 0.2382706 1 0 1
-0.1071263 -0.2072563 0.2383738 1 0 1
-0.104945 -0.2075966 0.2384705 1 0 1
-0.1028889 -0.2085615 0.2393267 1 0 1
-0.1009463 -0.2101527 0.2409429 1 0 1
-0.09910562 -0.2123718 0.2433194 1 0 1
-0.09724048 -0.2145887 0.2456902 1 0 1
-0.09524031 -0.2161707 0.2472884 1 0 1
-0.09311678 -0.217116 0.2481137 1 0 1
-0.09088163 -0.217423 0.2481657 1 0 1
-0.08864557 -0.2177241 0.248211 1 0 1
-0.08640876 -0.2180195 0.2482496 1 0 1
-0.08407985 -0.2176738 0.2475145 1 0 1
-0.08158361 -0.2160502 0.2452387 1 0 1
-0.07944333 -0.2169622 0.2460242 1 0 1
-0.0770563 -0.2159595 0.2445018 1 0 1
-0.07460879 -0.2143122 0.2422057 1 0 1
-0.07211257 -0.2120188 0.2391358 1 0 1
-0.1449282 -0.197478 0.2288187 1 0 1
-0.1429988 -0.1985349 0.2297881 1 0 1
-0.1432208 -0.2064175 0.2390998 1 0 1
-0.1408453 -0.2062316 0.2385432 1 0 1
-0.1390421 -0.2079058 0.2402582 1 0 1
-0.1375915 -0.2108235 0.2434878 1 0 1
-0.1355655 -0.2118699 0.2444326 1 0 1
-0.1331761 -0.2116627 0.2438502 1 0 1
-0.1306197 -0.2108231 0.2424998 1 0 1
-0.128416 -0.2112269 0.2426638 1 0 1
-0.1257145 -0.2097448 0.2405368 1 0 1
-0.1233581 -0.2095077 0.2399251 1 0 1
-0.1210081 -0.2092634 0.2393063 1 0 1
-0.1183569 -0.2077546 0.2371559 1 0 1
-0.1158776 -0.2068656 0.2357602 1 0 1
-0.1134127 -0.2059684 0.2343569 1 0 1
-0.1113887 -0.2069551 0.2352349 1 0 1
-0.1090791 -0.2066747 0.2345807 1 0 1
-0.1069106 -0.2070194 0.2346828 1 0 1
-0.1048715 -0.2079911 0.2355419 1 0 1
-0.1028236 -0.2089583 0.2363948 1 0 1
-0.1007667 -0.209921 0.2372414 1 0 1
-0.09893877 -0.2121479 0.2396095 1 0 1
-0.09708639 -0.2143726 0.241972 1 0 1
-0.09509855 -0.2159593 0.2435642 1 0 1
-0.09309416 -0.2175425 0.2451504 1 0 1
-0.0908668 -0.217849 0.2452018 1 0 1
-0.08853932 -0.2175125 0.2444821 1 0 1
-0.08631415 -0.2178068 0.24452 1 0 1
-0.0839967 -0.2174572 0.2437869 1 0 1
-0.0815112 -0.2158236 0.2415179 1 0 1
-0.07913204 -0.2148203 0.2400067 1 0 1
-0.07684754 -0.2144489 0.2392534 1 0 1
-0.07457023 -0.2140709 0.2384935 1 0 1
-0.07186873 -0.2098432 0.2331395 1 0 1
-0.1834626 -0.2016888 0.235919 1 0 1
-0.1826071 -0.2052763 0.2399842 1 0 1
-0.1796471 -0.2039867 0.2380554 1 0 1
-0.1789961 -0.2081852 0.2428637 1 0 1
-0.1782972 -0.212389 0.2476717 1 0 1
-0.1777972 -0.2172111 0.25323 1 0 1
-0.1745708 -0.2152883 0.2505251 1 0 1
-0.1683018 -0.2180726 0.2528839 1 0 1
-0.1633416 -0.2178448 0.2519134 1 0 1
-0.1584519 -0.210911 0.2431223 1 0 1
-0.1536525 -0.2039514 0.2343142 1 0 1
-0.1529745 -0.2087581 0.239832 1 0 1
-0.1495329 -0.2054919 0.2355303 1 0 1
-0.1459313 -0.2015882 0.2304616 1 0 1
-0.1439869 -0.2026519 0.2314295 1 0 1
-0.1432137 -0.2074545 0.23693 1 0 1
-0.1404559 -0.2060164 0.2348613 1 0 1
-0.1386649 -0.2076949 0.2365697 1 0 1
-0.1370421 -0.2099968 0.2390302 1 0 1
-0.1348507 -0.210417 0.2392128 1 0 1
-0.1326577 -0.2108314 0.2393889 1 0 1
-0.1302898 -0.2106119 0.2387999 1 0 1
-0.1282674 -0.2116433 0.2397212 1 0 1
-0.1259044 -0.211411 0.2391185 1 0 1
-0.1235477 -0.2111715 0.2385087 1 0 1
-0.1211974 -0.210925 0.2378918 1 0 1
-0.1185451 -0.209408 0.2357484 1 0 1
-0.1160652 -0.2085138 0.2343571 1 0 1
-0.1135996 -0.2076112 0.2329583 1 0 1
-0.111576 -0.2086014 0.2338333 1 0 1
-0.1094048 -0.208953 0.2339415 1 0 1
-0.1072324 -0.2092989 0.2340434 1 0 1
-0.1050589 -0.2096392 0.2341387 1 0 1
-0.1030113 -0.2106099 0.2349885 1 0 1
-0.1007087 -0.2103027 0.2343097 1 0 1
-0.09877037 -0.2119005 0.2359082 1 0 1
-0.09681541 -0.213495 0.2375006 1 0 1
-0.09495527 -0.2157244 0.2398486 1 0 1
-0.09296328 -0.2173124 0.2414289 1 0 1
-0.09095477 -0.2188969 0.2430031 1 0 1
-0.08873044 -0.2191975 0.2430472 1 0 1
-0.08640954 -0.2188517 0.2423227 1 0 1
-0.08409567 -0.2184991 0.2415916 1 0 1
-0.08152519 -0.216215 0.2385677 1 0 1
-0.07906922 -0.2145632 0.236299 1 0 1
-0.076636 -0.2129029 0.2340236 1 0 1
-0.07460637 -0.214449 0.235552 1 0 1
-0.07183814 -0.2095566 0.2294532 1 0 1
-0.1855149 -0.2076194 0.2397205 1 0 1
-0.1841101 -0.2100049 0.2422843 1 0 1
-0.1821637 -0.2111641 0.2433514 1 0 1
-0.1804622 -0.2129335 0.2451601 1 0 1
-0.1774894 -0.2116265 0.2432258 1 0 1
-0.1752783 -0.2121555 0.2435262 1 0 1
-0.1725789 -0.2114455 0.2423225 1 0 1
-0.1713287 -0.2144316 0.2456055 1 0 1
-0.1675723 -0.2173107 0.2484118 1 0 1
-0.1648766 -0.2165749 0.2471797 1 0 1
-0.1628662 -0.2176929 0.2481923 1 0 1
-0.1582042 -0.2113443 0.2401809 1 0 1
-0.1544901 -0.2074623 0.2351609 1 0 1
-0.1523156 -0.2079278 0.2353951 1 0 1
-0.1495134 -0.2065147 0.2333646 1 0 1
-0.1461181 -0.2032155 0.2290655 1 0 1
-0.144375 -0.2049088 0.2307837 1 0 1
-0.1430091 -0.2078532 0.2340048 1 0 1
-0.1408378 -0.2082881 0.2342051 1 0 1
-0.1386649 -0.2087172 0.2343988 1 0 1
-0.136676 -0.2097698 0.2353411 1 0 1
-0.1346778 -0.2108182 0.2362773 1 0 1
-0.1324926 -0.2112319 0.2364522 1 0 1
-0.1304799 -0.2122711 0.2373763 1 0 1
-0.128288 -0.2126741 0.2375382 1 0 1
-0.1259284 -0.2124388 0.2369372 1 0 1
-0.123413 -0.2115631 0.2355724 1 0 1
-0.1210701 -0.2113129 0.2349568 1 0 1
-0.1184247 -0.2097864 0.2328201 1 0 1
-0.1161025 -0.2095209 0.2321902 1 0 1
-0.1139337 -0.2098843 0.2323109 1 0 1
-0.1119065 -0.2108788 0.233183 1 0 1
-0.1095925 -0.2105943 0.2325329 1 0 1
-0.1074201 -0.2109408 0.2326342 1 0 1
-0.1053778 -0.21192 0.2334873 1 0 1
-0.1031994 -0.2122558 0.2335757 1 0 1
-0.1008965 -0.2119462 0.232899 1 0 1
-0.09883939 -0.2129102 0.2337331 1 0 1
-0.096889 -0.2145106 0.2353199 1 0 1
-0.09469876 -0.2148246 0.2353825 1 0 1
-0.09283087 -0.2170589 0.2377161 1 0 1
-0.09073086 -0.2180056 0.2385252 1 0 1
-0.08842226 -0.2176616 0.2378092 1 0 1
-0.08612062 -0.2173108 0.2370865 1 0 1
-0.08382599 -0.2169532 0.2363571 1 0 1
-0.08118548 -0.2140108 0.2325833 1 0 1
-0.07892061 -0.2136378 0.2318406 1 0 1
-0.07658247 -0.2126126 0.2303318 1 0 1
-0.0744123 -0.2128717 0.2303355 1 0 1
-0.07180613 -0.2092466 0.2257757 1 0 1
-0.1870392 -0.2123567 0.2419943 1 0 1
-0.1858791 -0.2153714 0.2452962 1 0 1
-0.1833929 -0.2153083 0.2448751 1 0 1
-0.1814219 -0.2164712 0.2459357 1 0 1
-0.1784368 -0.2151591 0.2440096 1 0 1
-0.1757197 -0.2144544 0.2428194 1 0 1
-0.172529 -0.2125011 0.2401281 1 0 1
-0.1703254 -0.2130168 0.2404129 1 0 1
-0.1678839 -0.2129053 0.2399438 1 0 1
-0.1663763 -0.2152753 0.2424578 1 0 1
-0.163931 -0.2151523 0.2419754 1 0 1
-0.1614916 -0.2150219 0.2414853 1 0 1
-0.1579554 -0.21176 0.2372428 1 0 1
-0.1544634 -0.2084824 0.2329884 1 0 1
-0.1516542 -0.2070685 0.230972 1 0 1
-0.1494934 -0.2075258 0.2311973 1 0 1
-0.1465103 -0.2054654 0.2284137 1 0 1
-0.1443615 -0.2059083 0.2286246 1 0 1
-0.1431983 -0.2094938 0.2325858 1 0 1
-0.141027 -0.2099294 0.2327856 1 0 1
-0.1388542 -0.2103593 0.2329788 1 0 1
-0.1370515 -0.2120473 0.2346701 1 0 1
-0.1352318 -0.2137327 0.2363563 1 0 1
-0.1328608 -0.2135151 0.2357781 1 0 1
-0.1308446 -0.2145586 0.2366994 1 0 1
-0.1284784 -0.2143282 0.2361074 1 0 1
-0.1262852 -0.2147262 0.2362622 1 0 1
-0.1236026 -0.2132097 0.234148 1 0 1
-0.1212594 -0.2129572 0.2335345 1 0 1
-0.118613 -0.2114225 0.2314047 1 0 1
-0.1164416 -0.2117929 0.2315316 1 0 1
-0.1142688 -0.2121577 0.231652 1 0 1
-0.1122382 -0.2131562 0.2325212 1 0 1
-0.1099199 -0.21287 0.2318733 1 0 1
-0.1078792 -0.2138585 0.2327299 1 0 1
-0.1056979 -0.2142011 0.2328245 1 0 1
-0.103388 -0.2138961 0.2321566 1 0 1
-0.1010848 -0.213584 0.2314819 1 0 1
-0.0989082 -0.2139084 0.2315567 1 0 1
-0.09673063 -0.214227 0.231625 1 0 1
-0.09455205 -0.21454 0.2316868 1 0 1
-0.09269693 -0.2167818 0.2340119 1 0 1
-0.09050482 -0.217085 0.234061 1 0 1
-0.08841211 -0.2180283 0.2348603 1 0 1
-0.08621436 -0.2183205 0.2348964 1 0 1
-0.08392336 -0.21796 0.2341691 1 0 1
-0.08128507 -0.2150028 0.2304074 1 0 1
-0.07885452 -0.2133309 0.2281529 1 0 1
-0.07644674 -0.2116504 0.2258918 1 0 1
-0.07436908 -0.2125571 0.2266521 1 0 1
-0.1861671 -0.2115651 0.2375719 1 0 1
-0.1844979 -0.2133526 0.2393786 1 0 1
-0.1825523 -0.2145194 0.2404393 1 0 1
-0.1800865 -0.2144428 0.24001 1 0 1
-0.1773747 -0.213738 0.2388302 1 0 1
-0.1749238 -0.2136452 0.2383849 1 0 1
-0.1717471 -0.2116776 0.2357008 1 0 1
-0.1697988 -0.2128139 0.2367271 1 0 1
-0.1673686 -0.2126977 0.2362584 1 0 1
-0.1658735 -0.2150744 0.2387627 1 0 1
-0.1629824 -0.2136948 0.2367895 1 0 1
-0.1610112 -0.2148117 0.2377912 1 0 1
-0.1574845 -0.2115307 0.2335618 1 0 1
-0.1546532 -0.2101195 0.2315613 1 0 1
-0.1520562 -0.209327 0.2302991 1 0 1
-0.1498916 -0.2097858 0.2305242 1 0 1
-0.1469034 -0.2077152 0.2277504 1 0 1
-0.1449524 -0.2087914 0.2287095 1 0 1
-0.1433877 -0.2111287 0.2311605 1 0 1
-0.1412165 -0.211565 0.2313596 1 0 1
-0.1386636 -0.2107273 0.230053 1 0 1
-0.1366832 -0.2117855 0.2309882 1 0 1
-0.1350581 -0.2141108 0.233418 1 0 1
-0.1330515 -0.2151622 0.234342 1 0 1
-0.1312103 -0.2168463 0.236011 1 0 1
-0.12884 -0.2166143 0.2354212 1 0 1
-0.1266429 -0.2170136 0.2355757 1 0 1
-0.1239554 -0.2154897 0.2334687 1 0 1
-0.1214491 -0.2145957 0.2321056 1 0 1
-0.1189569 -0.2136934 0.2307349 1 0 1
-0.1166303 -0.2134239 0.2301092 1 0 1
-0.1144577 -0.2137892 0.230229 1 0 1
-0.1122838 -0.2141488 0.2303424 1 0 1
-0.1101088 -0.2145028 0.2304493 1 0 1
-0.1080684 -0.2154948 0.2313028 1 0 1
-0.1057553 -0.2151937 0.2306436 1 0 1
-0.103577 -0.2155305 0.230731 1 0 1
-0.1013975 -0.2158617 0.2308119 1 0 1
-0.09909692 -0.215541 0.2301326 1 0 1
-0.09691941 -0.2158602 0.2302004 1 0 1
-0.09462851 -0.2155264 0.2295078 1 0 1
-0.09266988 -0.2171293 0.2310706 1 0 1
-0.09059019 -0.2180802 0.2318732 1 0 1
-0.08830055 -0.2177287 0.231161 1 0 1
-0.08621128 -0.2186692 0.2319507 1 0 1
-0.08392777 -0.2183052 0.2312254 1 0 1
-0.08147349 -0.2166336 0.2289848 1 0 1
-0.07878697 -0.2130007 0.2244743 1 0 1
-0.07663319 -0.2132646 0.2244836 1 0 1
-0.07447878 -0.2135228 0.2244865 1 0 1
-0.1871614 -0.2150828 0.2383289 1 0 1
-0.1854815 -0.2168798 0.2401315 1 0 1
-0.1837843 -0.2186747 0.2419295 1 0 1
-0.1810474 -0.2179773 0.2407646 1 0 1
-0.1778201 -0.2160233 0.2381104 1 0 1
-0.1748692 -0.2146806 0.236186 1 0 1
-0.1719391 -0.2133267 0.234252 1 0 1
-0.1697509 -0.2138403 0.2345334 1 0 1
-0.1670879 -0.213094 0.2333238 1 0 1
-0.1653688 -0.2148505 0.2350762 1 0 1
-0.1627171 -0.2140892 0.2338516 1 0 1
-0.1600789 -0.2133188 0.2326186 1 0 1
-0.1567907 -0.2106476 0.2291455 1 0 1
-0.1546257 -0.2111194 0.2293833 1 0 1
-0.1522456 -0.2109533 0.2288699 1 0 1
-0.1498714 -0.2107798 0.2283492 1 0 1
-0.1470916 -0.2093314 0.2263301 1 0 1
-0.145343 -0.2110458 0.2280319 1 0 1
-0.1431811 -0.2114868 0.228236 1 0 1
-0.1410177 -0.2119222 0.2284338 1 0 1
-0.1388527 -0.212352 0.228625 1 0 1
-0.1368727 -0.2134138 0.229557 1 0 1
-0.1350661 -0.2151099 0.2312309 1 0 1
-0.1330637 -0.2161641 0.2321515 1 0 1
-0.1310522 -0.217214 0.2330662 1 0 1
-0.1288604 -0.217619 0.2332264 1 0 1
-0.1266672 -0.2180182 0.2333799 1 0 1
-0.1239827 -0.2164856 0.2312799 1 0 1
-0.121639 -0.2162285 0.2306703 1 0 1
-0.1191463 -0.2153209 0.2293041 1 0 1
-0.1168194 -0.2150492 0.2286804 1 0 1
-0.1146468 -0.2154151 0.2287997 1 0 1
-0.112473 -0.2157753 0.2289125 1 0 1
-0.1104381 -0.2167758 0.2297692 1 0 1
-0.1082581 -0.2171253 0.2298693 1 0 1
-0.1060769 -0.2174691 0.2299628 1 0 1
-0.1037664 -0.2171592 0.229299 1 0 1
-0.1017115 -0.2181394 0.2301304 1 0 1
-0.09940664 -0.2178169 0.2294533 1 0 1
-0.09699205 -0.216838 0.2280182 1 0 1
-0.09470478 -0.2165013 0.2273275 1 0 1
-0.0927508 -0.2181099 0.2288847 1 0 1
-0.09057051 -0.2184125 0.2289326 1 0 1
-0.08828834 -0.2180575 0.2282223 1 0 1
-0.08630442 -0.2196527 0.2297606 1 0 1
-0.08411769 -0.2199387 0.2297891 1 0 1
-0.08166242 -0.2182588 0.2275557 1 0 1
-0.07905926 -0.2152626 0.223812 1 0 1
-0.07682021 -0.2148731 0.2230691 1 0 1
-0.187623 -0.2173666 0.2375933 1 0 1
-0.1854131 -0.2179239 0.2379185 1 0 1
-0.183201 -0.2184755 0.2382371 1 0 1
-0.180219 -0.2171449 0.2363377 1 0 1
-0.1772578 -0.2158028 0.2344283 1 0 1
-0.1740691 -0.2138223 0.2317713 1 0 1
-0.1713979 -0.2130852 0.2305807 1 0 1
-0.1689806 -0.2129679 0.2301207 1 0 1
-0.1663322 -0.212213 0.2289136 1 0 1
-0.1643962 -0.2133416 0.2299183 1 0 1
-0.1619923 -0.2132028 0.2294363 1 0 1
-0.1595941 -0.2130566 0.228947 1 0 1
-0.1565374 -0.2110026 0.2262259 1 0 1
-0.1545979 -0.2121077 0.2272041 1 0 1
-0.1524351 -0.2125737 0.2274344 1 0 1
-0.1500607 -0.2123981 0.2269155 1 0 1
-0.1474861 -0.2115785 0.2256464 1 0 1
-0.1455321 -0.2126627 0.2265995 1 0 1
-0.1431719 -0.212466 0.2260592 1 0 1
-0.1408179 -0.2122623 0.2255118 1 0 1
-0.1386606 -0.2126912 0.2257018 1 0 1
-0.1368756 -0.2143956 0.2273747 1 0 1
-0.1350736 -0.2160975 0.2290426 1 0 1
-0.1330756 -0.2171545 0.2299597 1 0 1
-0.1307178 -0.2169215 0.2293795 1 0 1
-0.1285377 -0.217325 0.2295382 1 0 1
-0.1263562 -0.2177227 0.2296904 1 0 1
-0.1235188 -0.215535 0.2268501 1 0 1
-0.1210305 -0.2146272 0.2254948 1 0 1
-0.1188684 -0.2150038 0.225626 1 0 1
-0.1165528 -0.2147277 0.2250036 1 0 1
-0.1145401 -0.2157399 0.2258691 1 0 1
-0.1125184 -0.2167477 0.2267287 1 0 1
-0.1104877 -0.2177511 0.227582 1 0 1
-0.1084482 -0.21875 0.2284293 1 0 1
-0.1061346 -0.2184441 0.2277742 1 0 1
-0.1039563 -0.2187822 0.2278607 1 0 1
-0.101777 -0.2191145 0.2279405 1 0 1
-0.09947585 -0.2187891 0.2272653 1 0 1
-0.09694759 -0.2171518 0.2250861 1 0 1
-0.09466781 -0.2168115 0.2243973 1 0 1
-0.09283151 -0.219079 0.2266975 1 0 1
-0.09054998 -0.2187274 0.2259958 1 0 1
-0.0883767 -0.2190236 0.2260366 1 0 1
-0.08639738 -0.2206247 0.2275692 1 0 1
-0.0843081 -0.2215662 0.2283464 1 0 1
-0.08176231 -0.2192219 0.2253711 1 0 1
-0.07907574 -0.2155544 0.2208906 1 0 1
-0.07692599 -0.2158187 0.2208991 1 0 1
-0.1878176 -0.2190246 0.2361132 1 0 1
-0.1856079 -0.2195828 0.2364375 1 0 1
-0.1828758 -0.2188804 0.2352873 1 0 1
-0.179388 -0.2162835 0.2319245 1 0 1
-0.1766936 -0.2155594 0.2307552 1 0 1
-0.174261 -0.2154559 0.2303126 1 0 1
-0.1710996 -0.2134517 0.2276543 1 0 1
-0.1689307 -0.2139625 0.2279318 1 0 1
-0.1658112 -0.2119361 0.2252544 1 0 1
-0.1641204 -0.2136995 0.226992 1 0 1
-0.1612649 -0.2122876 0.2250351 1 0 1
-0.1586562 -0.2115003 0.2238073 1 0 1
-0.1562829 -0.2113404 0.2233102 1 0 1
-0.1545695 -0.2130845 0.2250235 1 0 1
-0.1526249 -0.2141884 0.2259924 1 0 1
-0.1504606 -0.2146494 0.2262155 1 0 1
-0.1478815 -0.2138256 0.2249513 1 0 1
-0.1457215 -0.2142737 0.2251606 1 0 1
-0.1431623 -0.2134338 0.2238812 1 0 1
-0.1408118 -0.213227 0.2233354 1 0 1
-0.1388496 -0.2142985 0.2242661 1 0 1
-0.1368782 -0.2153659 0.2251912 1 0 1
-0.1348975 -0.2164291 0.2261104 1 0 1
-0.1329076 -0.2174882 0.2270238 1 0 1
-0.1305572 -0.2172516 0.226445 1 0 1
-0.128385 -0.2176542 0.2266025 1 0 1
-0.1260435 -0.2174041 0.2260099 1 0 1
-0.1233804 -0.2158512 0.2239225 1 0 1
-0.1210594 -0.2155854 0.2233154 1 0 1
-0.118745 -0.2153127 0.2227014 1 0 1
-0.116437 -0.215033 0.2220806 1 0 1
-0.114284 -0.2153969 0.2221978 1 0 1
-0.1121298 -0.215755 0.2223085 1 0 1
-0.1101152 -0.2167593 0.223158 1 0 1
-0.1082283 -0.2184116 0.2247469 1 0 1
-0.1061919 -0.2194077 0.2255844 1 0 1
-0.1038886 -0.219092 0.2249245 1 0 1
-0.1017172 -0.2194236 0.2250035 1 0 1
-0.09966592 -0.2204044 0.2258222 1 0 1
-0.09690212 -0.2174481 0.2221579 1 0 1
-0.09440319 -0.2157924 0.2199787 1 0 1
-0.09236465 -0.2167538 0.2207775 1 0 1
-0.09042297 -0.2183678 0.2223167 1 0 1
-0.08846483 -0.2199782 0.2238498 1 0 1
-0.1753692 -0.2133966 0.2248932 1 0 1
-0.1734572 -0.2145517 0.2259155 1 0 1
-0.1712903 -0.2150688 0.2261987 1 0 1
-0.1688803 -0.2149455 0.2257414 1 0 1
-0.1652883 -0.2116363 0.2216043 1 0 1
-0.1629087 -0.2114937 0.2211298 1 0 1
-0.1603051 -0.2107062 0.2199124 1 0 1
-0.157715 -0.2099097 0.2186869 1 0 1
-0.1555828 -0.2103825 0.2189258 1 0 1
-0.1547591 -0.2146897 0.2235784 1 0 1
-0.1530294 -0.2164381 0.2252812 1 0 1
-0.1508613 -0.2169006 0.2255041 1 0 1
-0.1482778 -0.2160726 0.2242446 1 0 1
-0.1461141 -0.2165222 0.2244537 1 0 1
-0.1435504 -0.215678 0.2231791 1 0 1
-0.1411958 -0.2154698 0.2226356 1 0 1
-0.1390388 -0.2159 0.2228243 1 0 1
-0.1368803 -0.2163246 0.2230064 1 0 1
-0.1347202 -0.2167435 0.2231822 1 0 1
-0.1327385 -0.2178046 0.2240917 1 0 1
-0.1298678 -0.2156186 0.2212927 1 0 1
-0.1278871 -0.2166676 0.2221891 1 0 1
-0.1255608 -0.2164123 0.2215974 1 0 1
-0.1230766 -0.2154994 0.2202575 1 0 1
-0.1207671 -0.2152293 0.2196517 1 0 1
-0.1186206 -0.2156043 0.2197808 1 0 1
-0.1161674 -0.2146683 0.2184196 1 0 1
-0.1140262 -0.2150307 0.2185356 1 0 1
-0.1118838 -0.2153875 0.2186452 1 0 1
-0.1097402 -0.2157387 0.2187484 1 0 1
-0.1078697 -0.2173948 0.2203308 1 0 1
-0.1058493 -0.2183919 0.2211646 1 0 1
-0.1039494 -0.220041 0.2227355 1 0 1
-0.1017819 -0.2203726 0.2228139 1 0 1
-0.09949192 -0.2200407 0.2221425 1 0 1
-0.09650293 -0.2157523 0.2170034 1 0 1
-0.09254412 -0.2055204 0.2051639 1 0 1
-0.08796434 -0.2034659 0.2022834 1 0 1
-0.1709902 -0.2154065 0.2232749 1 0 1
-0.1600327 -0.2110115 0.2170078 1 0 1
-0.1565443 -0.2076437 0.2128528 1 0 1
-0.1548803 -0.2093961 0.2145559 1 0 1
-0.1536366 -0.212432 0.2177223 1 0 1
-0.1527902 -0.2167565 0.2223549 1 0 1
-0.1504189 -0.2165737 0.2218414 1 0 1
-0.1478464 -0.2157382 0.2205853 1 0 1
-0.1452877 -0.2148938 0.2193214 1 0 1
-0.1427427 -0.2140407 0.2180495 1 0 1
-0.1404072 -0.2138264 0.2175062 1 0 1
-0.1384614 -0.2149019 0.2184292 1 0 1
-0.1366941 -0.2166226 0.2200835 1 0 1
-0.1347259 -0.2176906 0.2209954 1 0 1
-0.1323881 -0.2174531 0.2204262 1 0 1
-0.1295279 -0.215254 0.217636 1 0 1
-0.1273868 -0.2156522 0.2177902 1 0 1
-0.1250758 -0.2153919 0.2171995 1 0 1
-0.1224419 -0.2138174 0.2151244 1 0 1
-0.1203123 -0.2141959 0.2152584 1 0 1
-0.1183383 -0.2152238 0.2161253 1 0 1
-0.1157432 -0.213625 0.2140285 1 0 1
-0.1134685 -0.213329 0.2134035 1 0 1
-0.1114908 -0.2143401 0.2142513 1 0 1
-0.1093629 -0.2146892 0.2143533 1 0 1
-0.1075088 -0.2163492 0.2159294 1 0 1
-0.1056379 -0.218006 0.2174997 1 0 1
-0.1037505 -0.2196596 0.2190644 1 0 1
-0.1017206 -0.22065 0.2198826 1 0 1
-0.09980376 -0.2222964 0.2214354 1 0 1
-0.09562888 -0.2113771 0.2089051 1 0 1
-0.1323971 -0.2183856 0.2182399 1 0 1
-0.1272296 -0.2159182 0.2148771 1 0 1
-0.1247572 -0.2149985 0.213552 1 0 1
-0.122134 -0.2134139 0.2114833 1 0 1
-0.1201773 -0.2144481 0.2123524 1 0 1
-0.1178971 -0.2141625 0.2117425 1 0 1
-0.1153166 -0.2125529 0.2096521 1 0 1
-0.1130572 -0.2122522 0.2090283 1 0 1
-0.1109499 -0.2126042 0.2091351 1 0 1
-0.1086999 -0.2122904 0.2084982 1 0 1
-0.1070077 -0.2146139 0.210805 1 0 1
-0.1054249 -0.2175972 0.2138443 1 0 1
-0.10368 -0.2199175 0.2161406 1 0 1
-0.10128 -0.2189215 0.2147413 1 0 1
-0.09962786 -0.221898 0.217764 1 0 1
-0.1239292 -0.2126066 0.2077142 1 0 1
-0.121163 -0.2103506 0.2049179 1 0 1
-0.1202027 -0.2153431 0.2101846 1 0 1
-0.1144264 -0.2094686 0.2030881 1 0 1
-0.1120442 -0.2084989 0.2017305 1 0 1
-0.1102601 -0.2101716 0.2033043 1 0 1
-0.1076069 -0.2078618 0.2004641 1 0 1
-0.1056747 -0.2088609 0.2012909 1 0 1
-0.1044047 -0.2131784 0.2057877 1 0 1
-0.1025656 -0.2148372 0.207339 1 0 1
-0.1101251 -0.2007056 0.1900781 1 0 1
-0.1063659 -0.2027103 0.1917392 1 0 1
-0.1051654 -0.2070401 0.1962229 1 0 1
-0.1031096 -0.2073679 0.1963076 1 0 1
-0.1010527 -0.2076903 0.1963862 1 0 1
-0.1950542 -0.2456761 0.2389922 1 0 1
-0.1924994 -0.2456125 0.2386091 1 0 1
-0.1894245 -0.2442413 0.2367915 1 0 1
-0.1861112 -0.2422076 0.2342502 1 0 1
-0.1830814 -0.240812 0.2324123 1 0 1
-0.1795591 -0.2445216 0.2358598 1 0 1
-0.1780156 -0.2470274 0.2382919 1 0 1
-0.1769269 -0.2508433 0.2421526 1 0 1
-0.1753259 -0.2533495 0.2445776 1 0 1
-0.1711454 -0.2486264 0.2391101 1 0 1
-0.1594016 -0.2356574 0.2240625 1 0 1
-0.1565357 -0.2341599 0.222136 1 0 1
-0.1391625 -0.2307064 0.2163396 1 0 1
-0.1375422 -0.2331343 0.2186772 1 0 1
-0.1340754 -0.2288846 0.2137917 1 0 1
-0.04810489 -0.2241583 0.1978432 1 0 1
-0.195527 -0.2479878 0.2381077 1 0 1
-0.1929683 -0.2479232 0.237727 1 0 1
-0.1901519 -0.2471981 0.2366277 1 0 1
-0.1870892 -0.2458096 0.2348083 1 0 1
-0.1843026 -0.2450639 0.2336906 1 0 1
-0.1822841 -0.2462745 0.2347005 1 0 1
-0.1805037 -0.2481372 0.2364172 1 0 1
-0.178706 -0.2499976 0.2381291 1 0 1
-0.1771311 -0.2525136 0.2405495 1 0 1
-0.1743493 -0.2517339 0.2393957 1 0 1
-0.1708832 -0.2489648 0.2360899 1 0 1
-0.1679108 -0.2475024 0.2342027 1 0 1
-0.1645097 -0.2447056 0.2308755 1 0 1
-0.1620294 -0.244544 0.2304003 1 0 1
-0.1591204 -0.2430482 0.2284854 1 0 1
-0.1570862 -0.244198 0.2294275 1 0 1
-0.1550426 -0.2453435 0.2303636 1 0 1
-0.1521667 -0.2438216 0.2284248 1 0 1
-0.1495141 -0.2429554 0.2271948 1 0 1
-0.1472712 -0.2434148 0.2273926 1 0 1
-0.1448325 -0.2432001 0.2268655 1 0 1
-0.1412583 -0.2389644 0.2220196 1 0 1
-0.1399735 -0.2427483 0.2257894 1 0 1
-0.1370057 -0.2405 0.223083 1 0 1
-0.1347819 -0.2409244 0.2232455 1 0 1
-0.1323819 -0.240671 0.2226817 1 0 1
-0.1308429 -0.2437734 0.2257108 1 0 1
-0.127768 -0.2408157 0.2222532 1 0 1
-0.1258727 -0.2425631 0.2238298 1 0 1
-0.1234826 -0.2422833 0.2232388 1 0 1
-0.1215653 -0.2440224 0.2248034 1 0 1
-0.1194796 -0.2450821 0.2256411 1 0 1
-0.1176802 -0.2474905 0.2279152 1 0 1
-0.1144186 -0.2431236 0.2229691 1 0 1
-0.1124691 -0.2448434 0.2245088 1 0 1
-0.1103669 -0.2458813 0.2253207 1 0 1
-0.1078595 -0.2448768 0.2239604 1 0 1
-0.1054948 -0.2445437 0.2233151 1 0 1
-0.1021099 -0.2513471 0.2299496 1 0 1
-0.09700438 -0.2485973 0.2264461 1 0 1
-0.09518587 -0.2516466 0.2293805 1 0 1
-0.09302085 -0.2526446 0.230141 1 0 1
-0.08461288 -0.2419127 0.2179272 1 0 1
-0.08213494 -0.2401393 0.2157695 1 0 1
-0.07993542 -0.2404145 0.2157739 1 0 1
-0.07732869 -0.2372525 0.2121578 1 0 1
-0.06515677 -0.249754 0.2235715 1 0 1
-0.06301714 -0.2513653 0.2249683 1 0 1
-0.0534959 -0.2432574 0.2153231 1 0 1
-0.05101577 -0.2379265 0.2094689 1 0 1
-0.04025565 -0.2443601 0.2147503 1 0 1
-0.01884846 -0.2269521 0.1938857 1 0 1
-0.1970846 -0.252912 0.2400387 1 0 1
-0.1942395 -0.2521961 0.2389551 1 0 1
-0.1908807 -0.2501596 0.2364466 1 0 1
-0.1880691 -0.2494218 0.2353439 1 0 1
-0.1852707 -0.2486741 0.2342322 1 0 1
-0.1829893 -0.249233 0.2345307 1 0 1
-0.180954 -0.2504449 0.2355324 1 0 1
-0.178909 -0.2516525 0.2365281 1 0 1
-0.1773354 -0.2541776 0.2389398 1 0 1
-0.1743164 -0.2527314 0.2370792 1 0 1
-0.1713185 -0.2512737 0.2352092 1 0 1
-0.1681123 -0.2491411 0.2326174 1 0 1
-0.1647098 -0.2463312 0.2293028 1 0 1
-0.1624506 -0.2468329 0.2295427 1 0 1
-0.1599722 -0.2466625 0.2290623 1 0 1
-0.1572858 -0.2458176 0.2278607 1 0 1
-0.1554526 -0.2476343 0.2295076 1 0 1
-0.1531902 -0.2481112 0.2297202 1 0 1
-0.1505217 -0.2472434 0.2284963 1 0 1
-0.1482636 -0.2477067 0.2286947 1 0 1
-0.1460039 -0.248164 0.2288865 1 0 1
-0.1427893 -0.2452568 0.2254922 1 0 1
-0.1409192 -0.2470431 0.2271015 1 0 1
-0.1381176 -0.2454605 0.2251227 1 0 1
-0.1356957 -0.2452153 0.2245693 1 0 1
-0.1329298 -0.2436134 0.2225746 1 0 1
-0.1312133 -0.2460536 0.2248755 1 0 1
-0.1283004 -0.2437595 0.2221486 1 0 1
-0.1265618 -0.2461912 0.2244375 1 0 1
-0.1243195 -0.2465888 0.2245672 1 0 1
-0.1223876 -0.2483367 0.2261267 1 0 1
-0.120135 -0.2487237 0.2262436 1 0 1
-0.1180291 -0.2497841 0.2270724 1 0 1
-0.115482 -0.2487994 0.2257386 1 0 1
-0.1132296 -0.2491677 0.2258355 1 0 1
-0.110976 -0.24953 0.2259257 1 0 1
-0.1085889 -0.2492044 0.22529 1 0 1
-0.106337 -0.2495541 0.2253667 1 0 1
-0.104084 -0.2498978 0.2254369 1 0 1
-0.1020714 -0.251603 0.2269397 1 0 1
-0.09922444 -0.2485141 0.2233982 1 0 1
-0.09675425 -0.2474683 0.2220087 1 0 1
-0.09473488 -0.2491561 0.2234918 1 0 1
-0.09238362 -0.2487821 0.2228087 1 0 1
-0.08983689 -0.2470279 0.2206789 1 0 1
-0.08750731 -0.2466388 0.2199825 1 0 1
-0.08537158 -0.2476178 0.2207195 1 0 1
-0.08269035 -0.2444634 0.2171296 1 0 1
-0.08047536 -0.2447409 0.2171335 1 0 1
-0.07785138 -0.2415673 0.2135304 1 0 1
-0.07604328 -0.2452783 0.2171218 1 0 1
-0.07375246 -0.2448481 0.2163862 1 0 1
-0.07167859 -0.2464824 0.2178043 1 0 1
-0.06952243 -0.2474216 0.2184957 1 0 1
-0.06754414 -0.2504297 0.2213402 1 0 1
-0.06524321 -0.2499765 0.2205785 1 0 1
-0.06305808 -0.2509008 0.2212499 1 0 1
-0.06066345 -0.2490498 0.219036 1 0 1
-0.05824559 -0.2464975 0.2160967 1 0 1
-0.05611346 -0.2480959 0.2174682 1 0 1
-0.05384969 -0.2476089 0.2166749 1 0 1
-0.05162803 -0.2478093 0.2165946 1 0 1
-0.04937541 -0.2473093 0.2157889 1 0 1
-0.04721067 -0.2488867 0.2171334 1 0 1
-0.04487024 -0.2455945 0.2134403 1 0 1
-0.04272003 -0.2478556 0.2154902 1 0 1
-0.04050124 -0.2480258 0.2153778 1 0 1
-0.03826017 -0.2467982 0.2138229 1 0 1
-0.02312746 -0.2331265 0.1977721 1 0 1
-0.01867647 -0.2389284 0.2031641 1 0 1
-0.01668641 -0.2348407 0.1986938 1 0 1
-0.1972888 -0.2545765 0.2384156 1 0 1
-0.1944433 -0.253856 0.2373365 1 0 1
-0.1913471 -0.2524674 0.235543 1 0 1
-0.1885313 -0.251726 0.2344453 1 0 1
-0.1857286 -0.2509746 0.2333388 1 0 1
-0.1834437 -0.2515353 0.233637 1 0 1
-0.1811566 -0.2520898 0.2339284 1 0 1
-0.1791122 -0.2533009 0.2349206 1 0 1
-0.1775398 -0.255835 0.2373235 1 0 1
-0.1747571 -0.2550459 0.2361788 1 0 1
-0.1719878 -0.2542471 0.2350257 1 0 1
-0.1687729 -0.252106 0.2324448 1 0 1
-0.1658123 -0.2506191 0.2305636 1 0 1
-0.1630946 -0.249789 0.2293836 1 0 1
-0.1606083 -0.2496182 0.228906 1 0 1
-0.1579138 -0.2487702 0.2277098 1 0 1
-0.156284 -0.2512653 0.230063 1 0 1
-0.1540103 -0.2517453 0.2302759 1 0 1
-0.1517348 -0.2522192 0.2304821 1 0 1
-0.1494576 -0.2526872 0.2306816 1 0 1
-0.1471788 -0.253149 0.2308744 1 0 1
-0.1445164 -0.2522559 0.229634 1 0 1
-0.1424292 -0.2533794 0.2305261 1 0 1
-0.1394165 -0.2511185 0.2278432 1 0 1
-0.1366126 -0.2495223 0.2258653 1 0 1
-0.1340058 -0.248593 0.2245935 1 0 1
-0.1317564 -0.2490113 0.2247432 1 0 1
-0.12917 -0.2480658 0.2234565 1 0 1
-0.1274171 -0.2505093 0.2257378 1 0 1
-0.1257995 -0.2536312 0.228729 1 0 1
-0.1239935 -0.2560716 0.2309998 1 0 1
-0.121554 -0.2557835 0.2304022 1 0 1
-0.1191209 -0.2554882 0.2297975 1 0 1
-0.1164055 -0.2538195 0.2277535 1 0 1
-0.1139933 -0.253508 0.2271343 1 0 1
-0.111451 -0.2525051 0.2257918 1 0 1
-0.1090559 -0.2521785 0.2251585 1 0 1
-0.1067964 -0.2525299 0.225235 1 0 1
-0.1045358 -0.2528753 0.2253049 1 0 1
-0.1022742 -0.2532147 0.2253682 1 0 1
-0.09977723 -0.2521738 0.2239907 1 0 1
-0.09752143 -0.2525 0.2240406 1 0 1
-0.09515528 -0.252132 0.2233667 1 0 1
-0.09290151 -0.2524455 0.2234031 1 0 1
-0.09044372 -0.2513744 0.2219985 1 0 1
-0.08829369 -0.2523648 0.2227391 1 0 1
-0.08613502 -0.2533501 0.2234731 1 0 1
-0.08351863 -0.2508761 0.2206138 1 0 1
-0.08110458 -0.2497749 0.2191825 1 0 1
-0.07870548 -0.2486656 0.2177447 1 0 1
-0.07655561 -0.2496256 0.2184526 1 0 1
-0.07417479 -0.2485021 0.2170019 1 0 1
-0.07230083 -0.2522234 0.2205659 1 0 1
-0.07012171 -0.2531685 0.2212538 1 0 1
-0.0678718 -0.2534143 0.2212179 1 0 1
-0.06556286 -0.2529597 0.2204584 1 0 1
-0.06326129 -0.252498 0.2196925 1 0 1
-0.06091644 -0.2513343 0.2182033 1 0 1
-0.05858688 -0.250163 0.216708 1 0 1
-0.05631542 -0.2496803 0.2159233 1 0 1
-0.05409036 -0.2498874 0.215849 1 0 1
-0.05186493 -0.2500884 0.2157682 1 0 1
-0.04954615 -0.248192 0.2135322 1 0 1
-0.0474133 -0.2504725 0.2155873 1 0 1
-0.04516399 -0.2499578 0.2147712 1 0 1
-0.04292231 -0.2494365 0.2139489 1 0 1
-0.04071904 -0.2503054 0.2145517 1 0 1
-0.03854196 -0.253265 0.2172936 1 0 1
-0.03626607 -0.2499301 0.2135915 1 0 1
-0.03405073 -0.2507818 0.2141742 1 0 1
-0.03182822 -0.2502292 0.2133208 1 0 1
-0.02961365 -0.2496701 0.2124616 1 0 1
-0.02743162 -0.2470045 0.209454 1 0 1
-0.02523248 -0.2471319 0.2092976 1 0 1
-0.02303342 -0.2472534 0.2091348 1 0 1
-0.02085454 -0.2466684 0.2082524 1 0 1
-0.01856399 -0.2495812 0.2109289 1 0 1
-0.01646515 -0.2468814 0.2078956 1 0 1
-0.0142072 -0.2483814 0.2091322 1 0 1
-0.01211243 -0.2463693 0.2068016 1 0 1
-0.009843278 -0.2478579 0.2080244 1 0 1
-0.007863762 -0.2444295 0.2042612 1 0 1
-0.005638914 -0.2452046 0.2047602 1 0 1
-0.003612257 -0.2431664 0.2024105 1 0 1
-0.001222289 -0.2460357 0.2050269 1 0 1
0.0006061083 -0.2418788 0.200538 1 0 1
0.002702784 -0.2412259 0.1995936 1 0 1
0.004925315 -0.2419716 0.2000613 1 0 1
0.007368123 -0.2448187 0.2026467 1 0 1
0.009467022 -0.2441483 0.2016831 1 0 1
0.01171514 -0.2448768 0.2021289 1 0 1
0.01397045 -0.2455994 0.2025675 1 0 1
0.01614617 -0.2456137 0.2022924 1 0 1
0.0177777 -0.2414068 0.197776 1 0 1
0.02011747 -0.2428144 0.1989022 1 0 1
0.02237364 -0.2435134 0.1993152 1 0 1
0.024023 -0.2399914 0.1954955 1 0 1
-0.1980364 -0.2575521 0.2381887 1 0 1
-0.1951829 -0.256829 0.2371153 1 0 1
-0.1923424 -0.2560957 0.2360327 1 0 1
-0.1895149 -0.2553526 0.2349412 1 0 1
-0.1869568 -0.255262 0.2345443 1 0 1
-0.1846568 -0.2558272 0.2348436 1 0 1
-0.1821059 -0.2557218 0.2344316 1 0 1
-0.1795604 -0.2556083 0.2340117 1 0 1
-0.1775031 -0.2568197 0.2349952 1 0 1
-0.1749612 -0.2566921 0.2345607 1 0 1
-0.1719578 -0.2552204 0.2327056 1 0 1
-0.1692051 -0.2544064 0.231548 1 0 1
-0.1664659 -0.2535827 0.2303818 1 0 1
-0.1639621 -0.2534203 0.229915 1 0 1
-0.161246 -0.2525786 0.2287325 1 0 1
-0.1585433 -0.2517274 0.2275417 1 0 1
-0.156486 -0.2528866 0.2284692 1 0 1
-0.1542124 -0.2533674 0.2286815 1 0 1
-0.1521401 -0.2545169 0.2295966 1 0 1
-0.1500583 -0.255662 0.2305056 1 0 1
-0.147772 -0.2561261 0.2306983 1 0 1
-0.1451014 -0.2552297 0.2294632 1 0 1
-0.1431945 -0.257036 0.2310634 1 0 1
-0.1403526 -0.2554457 0.2291027 1 0 1
-0.137173 -0.2524859 0.2257106 1 0 1
-0.1349097 -0.2529138 0.2258674 1 0 1
-0.132645 -0.2533354 0.2260175 1 0 1
-0.1300427 -0.2523879 0.2247367 1 0 1
-0.1281113 -0.2541608 0.2262977 1 0 1
-0.1264837 -0.2572965 0.2292782 1 0 1
-0.1243544 -0.2583804 0.2301152 1 0 1
-0.1220634 -0.2587751 0.2302329 1 0 1
-0.1196225 -0.2584789 0.2296308 1 0 1
-0.1167536 -0.2561183 0.2268814 1 0 1
-0.1146192 -0.2571779 0.2276916 1 0 1
-0.1120648 -0.2561718 0.2263543 1 0 1
-0.1096579 -0.2558448 0.2257237 1 0 1
-0.1076454 -0.257575 0.227228 1 0 1
-0.1053655 -0.2579239 0.227298 1 0 1
-0.1029632 -0.2575774 0.226647 1 0 1
-0.1003325 -0.2558439 0.2245607 1 0 1
-0.09783796 -0.2547913 0.2231815 1 0 1
-0.09546772 -0.2544216 0.2225099 1 0 1
-0.09310444 -0.2540446 0.2218315 1 0 1
-0.09085003 -0.2543527 0.2218609 1 0 1
-0.08869274 -0.2553473 0.2225984 1 0 1
-0.08652682 -0.256337 0.2233293 1 0 1
-0.08399153 -0.254547 0.2211951 1 0 1
-0.08165152 -0.2541362 0.2204836 1 0 1
-0.07923629 -0.2530239 0.2190508 1 0 1
-0.07699288 -0.2532938 0.2190408 1 0 1
-0.07474884 -0.2535577 0.2190242 1 0 1
-0.07278667 -0.2565995 0.2218593 1 0 1
-0.07052571 -0.2568531 0.2218295 1 0 1
-0.0682015 -0.2564038 0.2210785 1 0 1
-0.06588454 -0.2559475 0.2203213 1 0 1
-0.06357495 -0.2554844 0.2195575 1 0 1
-0.06122174 -0.2543164 0.2180732 1 0 1
-0.05888383 -0.2531407 0.2165828 1 0 1
-0.05660436 -0.2526563 0.2158003 1 0 1
-0.05433234 -0.2521652 0.2150116 1 0 1
-0.05206792 -0.2516674 0.2142166 1 0 1
-0.04981106 -0.2511628 0.2134155 1 0 1
-0.04761667 -0.2520522 0.214035 1 0 1
-0.04543782 -0.2536367 0.2153609 1 0 1
-0.04320378 -0.2538148 0.2152535 1 0 1
-0.04095396 -0.2532857 0.2144269 1 0 1
-0.03874712 -0.2548543 0.2157319 1 0 1
-0.03649314 -0.253611 0.2141802 1 0 1
-0.03425483 -0.2523606 0.2126229 1 0 1
-0.03203215 -0.2525077 0.2124839 1 0 1
-0.0298095 -0.2526488 0.2123384 1 0 1
-0.02760261 -0.2513784 0.2107638 1 0 1
-0.02539973 -0.250804 0.209895 1 0 1
-0.02315763 -0.2523329 0.2111526 1 0 1
-0.02091961 -0.2531532 0.2116922 1 0 1
-0.01865034 -0.2546716 0.212935 1 0 1
-0.01650311 -0.2526656 0.2106207 1 0 1
-0.01419109 -0.2548764 0.2125591 1 0 1
-0.01210326 -0.2521531 0.2095249 1 0 1
-0.009929308 -0.2515355 0.2086135 1 0 1
-0.007936385 -0.2480937 0.2048627 1 0 1
-0.005794524 -0.247463 0.2039415 1 0 1
-0.003814064 -0.244712 0.2008919 1 0 1
-0.001535621 -0.2461832 0.2020828 1 0 1
0.0004046926 -0.2434192 0.1990246 1 0 1
0.002627217 -0.2441737 0.1994957 1 0 1
0.004857031 -0.2449224 0.1999596 1 0 1
0.007094114 -0.2456656 0.2004164 1 0 1
0.009114767 -0.2442871 0.1987509 1 0 1
0.01135451 -0.2450185 0.1991947 1 0 1
0.01360146 -0.245744 0.1996315 1 0 1
0.01568293 -0.245053 0.1986536 1 0 1
0.01793624 -0.2457668 0.1990769 1 0 1
0.02019663 -0.2464747 0.1994929 1 0 1
0.02246404 -0.2471766 0.1999016 1 0 1
0.02433064 -0.2450513 0.1974968 1 0 1
0.02659637 -0.2457415 0.1978931 1 0 1
0.02853972 -0.2443098 0.1961808 1 0 1
0.03069386 -0.2442829 0.1958642 1 0 1
0.03272946 -0.243545 0.1948422 1 0 1
0.0342705 -0.239981 0.1910206 1 0 1
0.03614756 -0.238527 0.1892931 1 0 1
0.03619861 -0.2271986 0.177798 1 0 1
-0.1985134 -0.2598705 0.2372459 1 0 1
-0.1956557 -0.2591438 0.2361774 1 0 1
-0.192811 -0.2584068 0.2350999 1 0 1
-0.1899792 -0.2576601 0.2340135 1 0 1
-0.1874171 -0.2575687 0.233619 1 0 1
-0.1853667 -0.2588019 0.2346195 1 0 1
-0.1823097 -0.2573618 0.2328065 1 0 1
-0.1797641 -0.2572464 0.2323885 1 0 1
-0.1774657 -0.2577922 0.2326656 1 0 1
-0.1749277 -0.2576619 0.2322326 1 0 1
-0.1721611 -0.2568527 0.2310882 1 0 1
-0.1700984 -0.2580492 0.2320477 1 0 1
-0.1675734 -0.257896 0.231592 1 0 1
-0.1650543 -0.2577351 0.2311287 1 0 1
-0.1627595 -0.2582406 0.2313632 1 0 1
-0.1596038 -0.2560395 0.2287679 1 0 1
-0.15711 -0.2558535 0.2282813 1 0 1
-0.1544148 -0.254983 0.2270807 1 0 1
-0.1523431 -0.256136 0.2279923 1 0 1
-0.1498631 -0.2559277 0.2274837 1 0 1
-0.1477803 -0.2570701 0.2283825 1 0 1
-0.1453048 -0.2568481 0.2278598 1 0 1
-0.1433987 -0.2586606 0.2294539 1 0 1
-0.1405561 -0.2570627 0.2275005 1 0 1
-0.1379151 -0.2561364 0.2262474 1 0 1
-0.1358167 -0.25725 0.2271133 1 0 1
-0.1333644 -0.2569917 0.2265546 1 0 1
-0.1305815 -0.255357 0.2245699 1 0 1
-0.1286433 -0.2571374 0.2261254 1 0 1
-0.1266882 -0.2589145 0.227675 1 0 1
-0.1245595 -0.2600018 0.2285088 1 0 1
-0.1222688 -0.2603973 0.2286259 1 0 1
-0.1201257 -0.2614743 0.2294468 1 0 1
-0.1173931 -0.259793 0.2274188 1 0 1
-0.1152476 -0.2608578 0.2282261 1 0 1
-0.112681 -0.2598488 0.2268943 1 0 1
-0.1102623 -0.2595214 0.2262663 1 0 1
-0.1081095 -0.2605685 0.2270538 1 0 1
-0.1056964 -0.2602277 0.226412 1 0 1
-0.10329 -0.2598796 0.2257634 1 0 1
-0.1006546 -0.2581389 0.2236849 1 0 1
-0.09815566 -0.2570819 0.2223107 1 0 1
-0.09578142 -0.2567104 0.2216415 1 0 1
-0.09341412 -0.2563318 0.2209654 1 0 1
-0.09115599 -0.2566408 0.2209944 1 0 1
-0.08909368 -0.2583346 0.2224405 1 0 1
-0.08692057 -0.2593285 0.2231683 1 0 1
-0.08446713 -0.2582281 0.2217537 1 0 1
-0.08211523 -0.2578166 0.2210446 1 0 1
-0.07968776 -0.2567006 0.2196168 1 0 1
-0.07735403 -0.2562744 0.2188943 1 0 1
-0.07510238 -0.2565397 0.2188773 1 0 1
-0.07306302 -0.2588952 0.2209892 1 0 1
-0.0707984 -0.2591497 0.2209588 1 0 1
-0.06847004 -0.2586985 0.2202103 1 0 1
-0.06614905 -0.2582403 0.2194552 1 0 1
-0.06372479 -0.2563742 0.2172707 1 0 1
-0.061375 -0.2552005 0.2157916 1 0 1
-0.05908792 -0.2547206 0.2150178 1 0 1
-0.05680833 -0.2542339 0.2142377 1 0 1
-0.05457576 -0.2544423 0.2141624 1 0 1
-0.05234293 -0.2546448 0.2140807 1 0 1
-0.05010977 -0.2548412 0.2139925 1 0 1
-0.04787638 -0.2550316 0.2138978 1 0 1
-0.04566667 -0.2559193 0.214507 1 0 1
-0.04344892 -0.2568018 0.2151094 1 0 1
-0.0412071 -0.2569746 0.2149949 1 0 1
-0.0389773 -0.2578458 0.2155837 1 0 1
-0.03672311 -0.2573024 0.2147463 1 0 1
-0.03447676 -0.2567523 0.213903 1 0 1
-0.03223859 -0.2569008 0.2137626 1 0 1
-0.03000398 -0.2563378 0.212907 1 0 1
-0.02778481 -0.2550628 0.2113369 1 0 1
-0.02559281 -0.2530751 0.2090531 1 0 1
-0.02337842 -0.2531979 0.2088886 1 0 1
-0.02116418 -0.2533149 0.2087178 1 0 1
-0.01888047 -0.255545 0.2106629 1 0 1
-0.01673622 -0.2535307 0.2083571 1 0 1
-0.01442945 -0.2557499 0.2102872 1 0 1
-0.01230925 -0.2537225 0.2079707 1 0 1
-0.01009625 -0.2538094 0.2077679 1 0 1
-0.008012046 -0.2517685 0.2054417 1 0 1
-0.00581151 -0.251843 0.2052273 1 0 1
-0.003763382 -0.2497891 0.2028919 1 0 1
-0.001575429 -0.2498513 0.202666 1 0 1
0.0004950087 -0.248492 0.2010256 1 0 1
0.002611681 -0.2478343 0.2000843 1 0 1
0.004852733 -0.2485863 0.2005442 1 0 1
0.006960451 -0.2479166 0.1995912 1 0 1
0.009208154 -0.2486569 0.2000375 1 0 1
0.01146306 -0.2493912 0.2004767 1 0 1
0.01380714 -0.2508279 0.2016099 1 0 1
0.01608022 -0.2515506 0.2020341 1 0 1
0.01827055 -0.2515593 0.2017505 1 0 1
0.0202726 -0.2501457 0.2000612 1 0 1
0.02255119 -0.2508504 0.2004654 1 0 1
0.02473516 -0.2508411 0.2001635 1 0 1
0.02681284 -0.2501179 0.1991573 1 0 1
0.02899116 -0.2500967 0.1988434 1 0 1
0.03139509 -0.2514856 0.1999176 1 0 1
0.03357931 -0.2514523 0.1995901 1 0 1
0.03527818 -0.2485816 0.1964728 1 0 1
0.03719482 -0.2471212 0.1947447 1 0 1
0.03819271 -0.2407013 0.1881502 1 0 1
0.03248119 -0.1988976 0.1468592 1 0 1
-0.2000804 -0.2648445 0.2390755 1 0 1
-0.1969348 -0.263453 0.2373177 1 0 1
-0.1938097 -0.2620492 0.2355496 1 0 1
-0.1909661 -0.2613008 0.2344693 1 0 1
-0.1886498 -0.2618784 0.2347765 1 0 1
-0.186078 -0.2617808 0.2343779 1 0 1
-0.1832621 -0.2610053 0.2332724 1 0 1
-0.1807051 -0.2608907 0.2328578 1 0 1
-0.1783955 -0.26144 0.2331356 1 0 1
-0.1758458 -0.2613104 0.2327058 1 0 1
-0.1730675 -0.2604993 0.2315674 1 0 1
-0.1709938 -0.2617019 0.2325246 1 0 1
-0.1684573 -0.2615494 0.2320722 1 0 1
-0.1659266 -0.261389 0.2316121 1 0 1
-0.1634016 -0.2612207 0.2311444 1 0 1
-0.1604522 -0.259689 0.2292631 1 0 1
-0.1579467 -0.2595035 0.2287795 1 0 1
-0.1554471 -0.2593102 0.2282884 1 0 1
-0.1531569 -0.2597896 0.228494 1 0 1
-0.1506654 -0.2595816 0.2279884 1 0 1
-0.1485715 -0.2607298 0.2288849 1 0 1
-0.1462764 -0.2611907 0.2290701 1 0 1
-0.1439795 -0.2616456 0.2292486 1 0 1
-0.1411283 -0.2600416 0.2273033 1 0 1
-0.1386596 -0.2597971 0.2267615 1 0 1
-0.1365502 -0.2609161 0.2276248 1 0 1
-0.1340861 -0.2606578 0.2270691 1 0 1
-0.1316284 -0.260392 0.226506 1 0 1
-0.1296718 -0.262182 0.2280566 1 0 1
-0.1275373 -0.2632801 0.2288941 1 0 1
-0.1250792 -0.2629951 0.2283107 1 0 1
-0.122781 -0.2633925 0.2284276 1 0 1
-0.120332 -0.2630932 0.2278301 1 0 1
-0.1178896 -0.2627865 0.2272255 1 0 1
-0.1155952 -0.2631642 0.2273219 1 0 1
-0.1131621 -0.2628433 0.2267033 1 0 1
-0.1106016 -0.2618219 0.2253694 1 0 1
-0.1083155 -0.2621793 0.2254452 1 0 1
-0.1059023 -0.2618363 0.2248057 1 0 1
-0.1033737 -0.2607911 0.2234506 1 0 1
-0.1009778 -0.2604329 0.2227973 1 0 1
-0.09847453 -0.2593715 0.2214282 1 0 1
-0.09609628 -0.2589983 0.2207612 1 0 1
-0.09372494 -0.2586179 0.2200874 1 0 1
-0.09156574 -0.2596258 0.2208251 1 0 1
-0.08939789 -0.2606284 0.2215563 1 0 1
-0.08731623 -0.2623247 0.22299 1 0 1
-0.08485454 -0.2612203 0.2215805 1 0 1
-0.08249463 -0.2608075 0.2208737 1 0 1
-0.08005885 -0.2596874 0.219451 1 0 1
-0.07771713 -0.2592599 0.2187309 1 0 1
-0.07545788 -0.2595266 0.2187133 1 0 1
-0.07334062 -0.2611901 0.2201073 1 0 1
-0.07113973 -0.2621473 0.2207856 1 0 1
-0.06880344 -0.2616946 0.2200392 1 0 1
-0.06641489 -0.2605321 0.2185775 1 0 1
-0.06404154 -0.2593618 0.2171096 1 0 1
-0.06163164 -0.2574802 0.2149267 1 0 1
-0.05938829 -0.2577023 0.2148638 1 0 1
-0.05714456 -0.2579183 0.2147943 1 0 1
-0.05490048 -0.2581282 0.2147183 1 0 1
-0.05265607 -0.2583321 0.2146358 1 0 1
-0.05041135 -0.2585299 0.2145468 1 0 1
-0.04816639 -0.2587217 0.2144513 1 0 1
-0.04594549 -0.2596135 0.2150569 1 0 1
-0.04369621 -0.2597934 0.2149482 1 0 1
-0.04144672 -0.2599673 0.2148329 1 0 1
-0.03920963 -0.2608421 0.2154182 1 0 1
-0.03693889 -0.2595895 0.2138761 1 0 1
-0.03468844 -0.2590372 0.213035 1 0 1
-0.03244654 -0.2591861 0.2128942 1 0 1
-0.03020465 -0.2593291 0.2127469 1 0 1
-0.02796996 -0.2587576 0.2118873 1 0 1
-0.02575421 -0.2574711 0.2103164 1 0 1
-0.02352434 -0.2575951 0.2101505 1 0 1
-0.02129459 -0.257713 0.2099783 1 0 1
-0.01901932 -0.2592433 0.2112088 1 0 1
-0.01683563 -0.2579309 0.2096144 1 0 1
-0.0145451 -0.2594498 0.2108309 1 0 1
-0.01237767 -0.2581245 0.2092249 1 0 1
-0.01018766 -0.2575023 0.2083172 1 0 1
-0.008048326 -0.2561638 0.206701 1 0 1
-0.005878637 -0.2555289 0.2057824 1 0 1
-0.003717247 -0.2548876 0.2048582 1 0 1
-0.001564119 -0.2542401 0.2039283 1 0 1
0.0004643926 -0.2521656 0.2015905 1 0 1
0.002655106 -0.2522161 0.2013515 1 0 1
0.004845264 -0.2522607 0.2011062 1 0 1
0.006964923 -0.2515885 0.2001545 1 0 1
0.009297649 -0.2530426 0.201296 1 0 1
0.01164538 -0.2544909 0.2024295 1 0 1
0.01384479 -0.2545117 0.2021575 1 0 1
0.01612908 -0.2552374 0.2025774 1 0 1
0.01842042 -0.255957 0.2029898 1 0 1
0.02043866 -0.254538 0.2013038 1 0 1
0.02253776 -0.2538239 0.2003101 1 0 1
0.02483059 -0.2545255 0.2007031 1 0 1
0.02702527 -0.2545102 0.2003933 1 0 1
0.02932804 -0.2551998 0.2007721 1 0 1
0.03175057 -0.256594 0.2018377 1 0 1
0.0338373 -0.2558499 0.2008137 1 0 1
0.03579451 -0.2543891 0.1990913 1 0 1
0.03761051 -0.2522122 0.1966726 1 0 1
0.03863107 -0.2457668 0.1900999 1 0 1
0.03309335 -0.2045092 0.1496604 1 0 1
-0.2016508 -0.269839 0.2408715 1 0 1
-0.1984855 -0.268445 0.2391236 1 0 1
-0.1956058 -0.2677078 0.23806 1 0 1
-0.1924777 -0.2662907 0.2362924 1 0 1
-0.1896277 -0.2655323 0.2352102 1 0 1
-0.1870444 -0.2654357 0.2348151 1 0 1
-0.1844666 -0.265331 0.2344122 1 0 1
-0.1816481 -0.2645446 0.2333044 1 0 1
-0.1793274 -0.2650974 0.2335827 1 0 1
-0.1770046 -0.265644 0.2338541 1 0 1
-0.1742106 -0.2648318 0.232722 1 0 1
-0.1718914 -0.2653642 0.2329788 1 0 1
-0.1700242 -0.2672464 0.2346269 1 0 1
-0.1674704 -0.2670893 0.2341713 1 0 1
-0.1644838 -0.2655647 0.232308 1 0 1
-0.1615183 -0.2640288 0.2304357 1 0 1
-0.1583625 -0.2618005 0.2278536 1 0 1
-0.155859 -0.261606 0.227365 1 0 1
-0.1533613 -0.2614038 0.2268688 1 0 1
-0.1508697 -0.2611939 0.2263652 1 0 1
-0.1487764 -0.2623454 0.2272583 1 0 1
-0.1468662 -0.2641779 0.2288475 1 0 1
-0.1447504 -0.265321 0.2297285 1 0 1
-0.1418869 -0.2637119 0.2277918 1 0 1
-0.1395872 -0.2641551 0.2279561 1 0 1
-0.137286 -0.2645921 0.2281136 1 0 1
-0.1348103 -0.2643339 0.2275607 1 0 1
-0.1321717 -0.2633783 0.2262966 1 0 1
-0.1303735 -0.2658662 0.2285457 1 0 1
-0.128228 -0.2669698 0.2293806 1 0 1
-0.1256007 -0.2659929 0.2280952 1 0 1
-0.123295 -0.2663922 0.228212 1 0 1
-0.1209879 -0.2667853 0.2283219 1 0 1
-0.1183878 -0.2657845 0.2270149 1 0 1
-0.115944 -0.2654696 0.2264057 1 0 1
-0.1135068 -0.2651471 0.2257895 1 0 1
-0.1109421 -0.2641214 0.2244607 1 0 1
-0.1087826 -0.2651763 0.2252418 1 0 1
-0.1063615 -0.2648323 0.2246048 1 0 1
-0.1039471 -0.264481 0.2239609 1 0 1
-0.1015395 -0.2641224 0.2233101 1 0 1
-0.09925336 -0.2644552 0.2233585 1 0 1
-0.0967447 -0.2633833 0.2219879 1 0 1
-0.09446447 -0.2637027 0.2220229 1 0 1
-0.09218337 -0.2640159 0.2220514 1 0 1
-0.08980233 -0.2636222 0.2213667 1 0 1
-0.08752345 -0.2639228 0.2213818 1 0 1
-0.08515255 -0.2635152 0.2206838 1 0 1
-0.0827013 -0.2623981 0.2192727 1 0 1
-0.08043189 -0.2626787 0.2192679 1 0 1
-0.07808226 -0.2622499 0.21855 1 0 1
-0.07581535 -0.2625179 0.2185321 1 0 1
-0.07369126 -0.2641883 0.2199201 1 0 1
-0.07148309 -0.2651497 0.2205951 1 0 1
-0.069075 -0.2639903 0.2191447 1 0 1
-0.06674195 -0.2635286 0.2183941 1 0 1
-0.06436027 -0.2623541 0.2169312 1 0 1
-0.06194167 -0.2604654 0.2147561 1 0 1
-0.05969075 -0.2606886 0.2146926 1 0 1
-0.05748365 -0.2616129 0.2153281 1 0 1
-0.05518769 -0.2611167 0.2145459 1 0 1
-0.05289929 -0.2606139 0.2137573 1 0 1
-0.05065087 -0.2608124 0.2136678 1 0 1
-0.04840222 -0.2610048 0.2135718 1 0 1
-0.04617792 -0.2619 0.2141742 1 0 1
-0.04390423 -0.2613715 0.2133603 1 0 1
-0.04165501 -0.2615456 0.2132447 1 0 1
-0.03940564 -0.2617137 0.2131227 1 0 1
-0.03715616 -0.2618757 0.2129942 1 0 1
-0.03490165 -0.2613213 0.2121553 1 0 1
-0.03265603 -0.2614708 0.212014 1 0 1
-0.03040757 -0.2623251 0.2125696 1 0 1
-0.02816485 -0.2617517 0.211712 1 0 1
