ply
format ascii 1.0
Comment Generated by Floating Hands
element vertex 1268
property double x
property double y
property double z
property uchar red
property uchar green
property uchar blue
end_header
0.08886855 0.03860391 0.1724149 1 0 1
0.08969161 0.03907138 0.1711626 1 0 1
0.08952232 0.04055288 0.1672616 1 0 1
0.090317 0.04102298 0.1660102 1 0 1
0.09043265 0.04216788 0.1629975 1 0 1
0.09086381 0.04297682 0.1608674 1 0 1
0.03406614 0.02716642 0.2048882 1 0 1
0.03506121 0.02785929 0.2028419 1 0 1
0.03473995 0.03171581 0.192468 1 0 1
0.0334445 0.03768267 0.1765565 1 0 1
0.03141061 0.04505719 0.1569665 1 0 1
0.03046371 0.04962474 0.1447851 1 0 1
0.03053543 0.05173631 0.1390752 1 0 1
0.0313786 0.05209434 0.1379795 1 0 1
0.0325482 0.05175249 0.1387244 1 0 1
0.03355372 0.05176418 0.1385441 1 0 1
0.03490844 0.05107625 0.1402003 1 0 1
0.03609901 0.05074192 0.1409313 1 0 1
0.03747899 0.05005928 0.1425761 1 0 1
0.03905975 0.04902856 0.1451324 1 0 1
0.04085256 0.04765015 0.1485979 1 0 1
0.04286872 0.04592441 0.1529703 1 0 1
0.04511954 0.04385175 0.1582471 1 0 1
0.04862319 0.03968072 0.1689995 1 0 1
0.05160114 0.03656613 0.1769875 1 0 1
0.05443718 0.03380673 0.1840444 1 0 1
0.05648188 0.03245234 0.1874353 1 0 1
0.05877222 0.0307522 0.1917272 1 0 1
0.05999821 0.03080484 0.1914536 1 0 1
0.06099922 0.03120998 0.1902663 1 0 1
0.06221949 0.03126835 0.1899856 1 0 1
0.06343871 0.03132971 0.1897011 1 0 1
0.06465691 0.03139393 0.1894126 1 0 1
0.06539617 0.03215852 0.1873077 1 0 1
0.06636205 0.03257674 0.1861078 1 0 1
0.06731942 0.03299738 0.1849059 1 0 1
0.06826819 0.03342048 0.1837019 1 0 1
0.06920842 0.03384595 0.182496 1 0 1
0.07014006 0.03427385 0.1812882 1 0 1
0.0713245 0.03435677 0.1809791 1 0 1
0.0719776 0.0351366 0.178867 1 0 1
0.07288349 0.0355715 0.1776535 1 0 1
0.07378074 0.03600861 0.1764384 1 0 1
0.07494563 0.03610183 0.1761181 1 0 1
0.07582939 0.03654374 0.1748985 1 0 1
0.07698813 0.0366423 0.1745718 1 0 1
0.07785832 0.03708888 0.1733479 1 0 1
0.07901087 0.03719273 0.1730147 1 0 1
0.07986748 0.03764394 0.1717865 1 0 1
0.08131222 0.03740886 0.1723373 1 0 1
0.08246095 0.03752116 0.171993 1 0 1
0.0839141 0.03729279 0.1725331 1 0 1
0.08537327 0.03706793 0.1730672 1 0 1
0.08652537 0.03718942 0.1727096 1 0 1
0.08735925 0.03765599 0.1714637 1 0 1
0.08818445 0.03812456 0.1702164 1 0 1
0.08932501 0.03825366 0.16985 1 0 1
0.08948094 0.03940872 0.1668368 1 0 1
0.0909391 0.03920146 0.1673466 1 0 1
0.09206807 0.03933808 0.1669716 1 0 1
0.0928569 0.03981715 0.1657156 1 0 1
0.09089869 0.04301231 0.1574488 1 0 1
0.03181981 0.02488668 0.207581 1 0 1
0.03310947 0.02487099 0.2073926 1 0 1
0.03426193 0.02521315 0.2062751 1 0 1
0.03498478 0.02662308 0.2023817 1 0 1
0.03481092 0.03016553 0.1929466 1 0 1
0.03352369 0.03619547 0.1770579 1 0 1
0.03180265 0.04293815 0.1593412 1 0 1
0.03087058 0.04755399 0.1471758 1 0 1
0.03095552 0.04968787 0.1414722 1 0 1
0.0314842 0.0507594 0.1385347 1 0 1
0.03249079 0.05076866 0.1383576 1 0 1
0.03349679 0.05078035 0.1381772 1 0 1
0.03467688 0.05043974 0.1389121 1 0 1
0.03586392 0.05010162 0.1396424 1 0 1
0.03705794 0.04976607 0.1403679 1 0 1
0.03844494 0.04907862 0.1420051 1 0 1
0.03965656 0.04874836 0.1427204 1 0 1
0.0410687 0.04806639 0.1443457 1 0 1
0.04289002 0.0466789 0.1477929 1 0 1
0.04534436 0.04423259 0.1539705 1 0 1
0.04867058 0.04037469 0.1637837 1 0 1
0.05187028 0.03687612 0.1726641 1 0 1
0.05493198 0.03373681 0.1806137 1 0 1
0.05762812 0.03131005 0.1867245 1 0 1
0.05993595 0.02959517 0.1910013 1 0 1
0.0616091 0.02894443 0.1925405 1 0 1
0.06284124 0.02900348 0.1922573 1 0 1
0.06407235 0.02906543 0.19197 1 0 1
0.06553743 0.02877773 0.1925846 1 0 1
0.06605381 0.02990316 0.1895739 1 0 1
0.06703173 0.0303258 0.1883726 1 0 1
0.0680011 0.03075097 0.1871693 1 0 1
0.06896189 0.03117856 0.1859639 1 0 1
0.06940658 0.03231162 0.1829542 1 0 1
0.07034272 0.0327436 0.1817468 1 0 1
0.07127026 0.03317795 0.1805375 1 0 1
0.07218922 0.03361462 0.1793263 1 0 1
0.07283093 0.03440403 0.177216 1 0 1
0.0740013 0.03449487 0.1768985 1 0 1
0.07517049 0.03458854 0.1765772 1 0 1
0.07577892 0.03538414 0.1744637 1 0 1
0.07693823 0.03548285 0.174137 1 0 1
0.07780917 0.03593332 0.1729144 1 0 1
0.07896233 0.03603735 0.1725813 1 0 1
0.07981963 0.03649244 0.1713545 1 0 1
0.08126482 0.03625384 0.1719039 1 0 1
0.08241412 0.03636635 0.1715596 1 0 1
0.08356209 0.0364816 0.1712117 1 0 1
0.08501804 0.0362529 0.1717455 1 0 1
0.08616699 0.03637417 0.1713891 1 0 1
0.08699796 0.03684424 0.1701457 1 0 1
0.0878202 0.03731631 0.168901 1 0 1
0.08928163 0.03710004 0.1694167 1 0 1
0.08976617 0.03792166 0.1672873 1 0 1
0.09122839 0.03771138 0.1677945 1 0 1
0.09303137 0.0371609 0.1691729 1 0 1
0.09417035 0.03730185 0.1687907 1 0 1
0.09678967 0.0372497 0.1688889 1 0 1
0.1000242 0.03534747 0.1737283 1 0 1
-0.110878 -0.1232171 0.6407468 1 0 1
0.03094862 0.02221932 0.2109945 1 0 1
0.03199717 0.02291719 0.2089587 1 0 1
0.03316249 0.02325987 0.207845 1 0 1
0.03418319 0.02396424 0.2058048 1 0 1
0.03490758 0.02538894 0.2019168 1 0 1
0.03444852 0.02968561 0.1906509 1 0 1
0.03315813 0.03577851 0.174787 1 0 1
0.031586 0.04223303 0.1580191 1 0 1
0.03080902 0.04653843 0.146793 1 0 1
0.03073654 0.04905308 0.1401778 1 0 1
0.03142562 0.04977717 0.1381642 1 0 1
0.03226583 0.05014496 0.1370685 1 0 1
0.03343917 0.04979816 0.1378066 1 0 1
0.03461955 0.04945383 0.13854 1 0 1
0.03580688 0.04911206 0.1392688 1 0 1
0.03681911 0.04913112 0.1390771 1 0 1
0.03801652 0.04879434 0.1397972 1 0 1
0.03922085 0.04846023 0.1405125 1 0 1
0.04043208 0.04812876 0.1412231 1 0 1
0.04165018 0.04779989 0.1419288 1 0 1
0.043478 0.04640036 0.1453654 1 0 1
0.04574484 0.04428892 0.1506147 1 0 1
0.04826467 0.04182409 0.1567613 1 0 1
0.05168567 0.03793425 0.1665311 1 0 1
0.05540479 0.03369318 0.1771879 1 0 1
0.05877375 0.0301728 0.1860052 1 0 1
0.06132262 0.02808633 0.1911737 1 0 1
0.06323361 0.02707507 0.1936097 1 0 1
0.06447282 0.02713754 0.1933207 1 0 1
0.06594583 0.02684662 0.193932 1 0 1
0.06670947 0.02762752 0.1918271 1 0 1
0.06769942 0.02805464 0.1906245 1 0 1
0.06843469 0.02883997 0.1885181 1 0 1
0.06940368 0.0292719 0.1873122 1 0 1
0.06985701 0.03041666 0.1843048 1 0 1
0.07080138 0.03085297 0.1830969 1 0 1
0.07173716 0.03129165 0.181887 1 0 1
0.07266432 0.03173269 0.1806752 1 0 1
0.07331437 0.03253026 0.1785657 1 0 1
0.07422058 0.03297564 0.1773513 1 0 1
0.07511815 0.0334233 0.1761352 1 0 1
0.07572749 0.03422649 0.1740245 1 0 1
0.07660407 0.03467826 0.1728061 1 0 1
0.07747204 0.03513232 0.1715859 1 0 1
0.07862207 0.03523619 0.1712538 1 0 1
0.07977083 0.03534285 0.1709181 1 0 1
0.08121643 0.03510078 0.1714661 1 0 1
0.0823663 0.0352134 0.1711218 1 0 1
0.08351484 0.03532889 0.1707739 1 0 1
0.0849712 0.0350967 0.1713063 1 0 1
0.08580795 0.03556823 0.1700669 1 0 1
0.08695243 0.03569212 0.169708 1 0 1
0.08809555 0.03581884 0.1693453 1 0 1
0.08923726 0.03594836 0.1689789 1 0 1
0.08972266 0.03677756 0.1668524 1 0 1
0.09118529 0.03656383 0.1673582 1 0 1
0.09231908 0.03670135 0.1669821 1 0 1
0.09311295 0.03718872 0.1657277 1 0 1
0.09389809 0.037678 0.1644722 1 0 1
0.09467451 0.03816915 0.1632155 1 0 1
0.09648997 0.03762498 0.1645705 1 0 1
0.02943795 0.02133834 0.2097708 1 0 1
0.03061663 0.02167832 0.2086651 1 0 1
0.03191571 0.02165933 0.2084795 1 0 1
0.03308187 0.02200568 0.2073671 1 0 1
0.03423983 0.02235514 0.2062516 1 0 1
0.03454958 0.0248814 0.1996041 1 0 1
0.03394249 0.02958477 0.1874353 1 0 1
0.03249753 0.03610287 0.1706768 1 0 1
0.03106625 0.04226169 0.1548564 1 0 1
0.03043634 0.04624913 0.144568 1 0 1
0.03051734 0.04842739 0.1388824 1 0 1
0.03136641 0.04879659 0.1377899 1 0 1
0.03237396 0.04880588 0.1376127 1 0 1
0.03338091 0.04881759 0.1374321 1 0 1
0.03456153 0.04846958 0.1381641 1 0 1
0.03574914 0.0481241 0.1388914 1 0 1
0.03694367 0.04778115 0.139614 1 0 1
0.03795954 0.04780276 0.1394183 1 0 1
0.03916414 0.04746497 0.1401321 1 0 1
0.04018243 0.04749152 0.1399291 1 0 1
0.04159403 0.04679728 0.1415454 1 0 1
0.04261845 0.04682896 0.1413344 1 0 1
0.04446035 0.04541764 0.1447588 1 0 1
0.04633169 0.04400983 0.1481735 1 0 1
0.04844454 0.0422446 0.1524865 1 0 1
0.05188939 0.03831783 0.1622314 1 0 1
0.05563592 0.03403644 0.1728608 1 0 1
0.0594719 0.02976183 0.1834662 1 0 1
0.06248855 0.02693606 0.1904283 1 0 1
0.06440981 0.02591731 0.1928533 1 0 1
0.06611788 0.02526276 0.1943661 1 0 1
0.06712468 0.02569159 0.1931652 1 0 1
0.06788074 0.02648254 0.191061 1 0 1
0.06886663 0.0269162 0.1898567 1 0 1
0.0698439 0.02735238 0.1886503 1 0 1
0.07030581 0.02850889 0.1856452 1 0 1
0.07100129 0.02930816 0.1835393 1 0 1
0.07194154 0.02975095 0.1823299 1 0 1
0.07287319 0.03019613 0.1811185 1 0 1
0.07325963 0.03135931 0.1781164 1 0 1
0.07416657 0.03180853 0.1769035 1 0 1
0.07506488 0.03226007 0.1756887 1 0 1
0.07567515 0.03307078 0.1735809 1 0 1
0.0768356 0.03316981 0.1732541 1 0 1
0.07742114 0.0339843 0.1711451 1 0 1
0.07857174 0.03408835 0.1708131 1 0 1
0.07972106 0.03419521 0.1704773 1 0 1
0.08086911 0.03430488 0.1701378 1 0 1
0.08201586 0.03441732 0.1697947 1 0 1
0.08316132 0.03453262 0.1694479 1 0 1
0.08430543 0.03465073 0.1690973 1 0 1
0.08544818 0.03477163 0.1687432 1 0 1
0.08627329 0.03524872 0.167505 1 0 1
0.08708961 0.03572776 0.1662655 1 0 1
0.08854456 0.03550372 0.1667807 1 0 1
0.0893508 0.03598753 0.1655363 1 0 1
0.09047927 0.0361216 0.1651662 1 0 1
0.09160631 0.03625844 0.1647926 1 0 1
0.09239362 0.03674883 0.1635421 1 0 1
0.09317218 0.03724113 0.1622905 1 0 1
0.093942 0.03773525 0.1610377 1 0 1
0.09609967 0.03683364 0.1632618 1 0 1
0.09651368 0.03768217 0.1611338 1 0 1
0.09441692 0.04097029 0.1529385 1 0 1
0.02959557 0.01934755 0.2111313 1 0 1
0.03065828 0.0200568 0.2091035 1 0 1
0.03196178 0.02003772 0.2089172 1 0 1
0.03326471 0.02002175 0.2087268 1 0 1
0.0342952 0.02074078 0.2066908 1 0 1
0.03433152 0.02402471 0.1982125 1 0 1
0.03358066 0.02914206 0.1851432 1 0 1
0.03213285 0.03572672 0.1684115 1 0 1
0.0308496 0.04158226 0.1535347 1 0 1
0.03021889 0.04561035 0.1432625 1 0 1
0.03061561 0.04707882 0.1394199 1 0 1
0.03146917 0.04745169 0.1383282 1 0 1
0.032481 0.04746104 0.1381502 1 0 1
0.03366246 0.04710691 0.1388839 1 0 1
0.03467688 0.04712113 0.1386987 1 0 1
0.03569072 0.04713781 0.1385102 1 0 1
0.0367039 0.04715692 0.1383184 1 0 1
0.03771643 0.0471784 0.1381234 1 0 1
0.03872832 0.0472024 0.1379251 1 0 1
0.03993252 0.04686335 0.1386342 1 0 1
0.04134038 0.04616169 0.1402484 1 0 1
0.04236152 0.04619327 0.140038 1 0 1
0.04399497 0.04513215 0.1425492 1 0 1
0.04523407 0.04480414 0.1432373 1 0 1
0.04669186 0.04411411 0.1448272 1 0 1
0.04859524 0.04269798 0.148222 1 0 1
0.05140568 0.03982778 0.1552268 1 0 1
0.0551683 0.03550566 0.1658312 1 0 1
0.05924727 0.03082643 0.1773146 1 0 1
0.06273091 0.02724659 0.1860644 1 0 1
0.06535076 0.0251285 0.1911866 1 0 1
0.06682353 0.02483342 0.191791 1 0 1
0.06830271 0.02454177 0.1923897 1 0 1
0.06905115 0.02534278 0.1902861 1 0 1
0.07003295 0.02578302 0.1890802 1 0 1
0.07075295 0.02658833 0.1869753 1 0 1
0.07171378 0.02703332 0.1857663 1 0 1
0.07214466 0.02820488 0.1827654 1 0 1
0.07308078 0.02865412 0.1815545 1 0 1
0.07374014 0.02946727 0.1794487 1 0 1
0.07438345 0.03028216 0.1773431 1 0 1
0.07501067 0.03109878 0.1752378 1 0 1
0.07590108 0.03155635 0.1740227 1 0 1
0.07678289 0.03201623 0.172806 1 0 1
0.077656 0.03247824 0.1715877 1 0 1
0.07881086 0.03258281 0.1712546 1 0 1
0.07996445 0.03269017 0.1709177 1 0 1
0.08081897 0.03315929 0.1696926 1 0 1
0.08196629 0.03327199 0.1693494 1 0 1
0.08311228 0.03338746 0.1690026 1 0 1
0.08425695 0.03350575 0.1686522 1 0 1
0.08508777 0.0339843 0.1674179 1 0 1
0.08622609 0.0341078 0.1670613 1 0 1
0.08704314 0.03459079 0.1658232 1 0 1
0.08817498 0.03471948 0.1654604 1 0 1
0.08930543 0.03485098 0.1650941 1 0 1
0.09010363 0.03534061 0.1638498 1 0 1
0.09122755 0.03547728 0.1634774 1 0 1
0.09235004 0.03561664 0.1631014 1 0 1
0.09312931 0.03611287 0.1618512 1 0 1
0.09424521 0.03625737 0.1614693 1 0 1
0.09605762 0.03569849 0.1628199 1 0 1
0.09682512 0.03620207 0.1615615 1 0 1
0.09508999 0.03917192 0.1542434 1 0 1
0.09257568 0.04283958 0.145214 1 0 1
0.02963102 0.01771355 0.2115598 1 0 1
0.03069865 0.01843006 0.2095342 1 0 1
0.03200657 0.0184109 0.2093473 1 0 1
0.03331392 0.0183948 0.2091561 1 0 1
0.03434931 0.01912113 0.2071223 1 0 1
0.0343922 0.02243821 0.1986562 1 0 1
0.0335057 0.02797678 0.1846884 1 0 1
0.03176838 0.03536713 0.1661476 1 0 1
0.03063275 0.04091205 0.1522118 1 0 1
0.03000128 0.04498066 0.141956 1 0 1
0.03055416 0.04609421 0.1390353 1 0 1
0.03140841 0.04647073 0.137945 1 0 1
0.03242071 0.0464801 0.1377669 1 0 1
0.03343242 0.04649182 0.1375855 1 0 1
0.03461732 0.04613652 0.1383137 1 0 1
0.035454 0.04652264 0.1372131 1 0 1
0.03646389 0.04654169 0.1370219 1 0 1
0.0374731 0.04656317 0.1368276 1 0 1
0.03867063 0.04621786 0.1375399 1 0 1
0.03968232 0.04624429 0.1373383 1 0 1
0.04108645 0.04553514 0.1389503 1 0 1
0.04210429 0.04556666 0.1387407 1 0 1
0.04352967 0.04486313 0.1403414 1 0 1
0.04434568 0.04526846 0.1392176 1 0 1
0.04536507 0.04530746 0.1389974 1 0 1
0.04681461 0.04461233 0.1405826 1 0 1
0.04827842 0.04392033 0.1421612 1 0 1
0.05087143 0.04139157 0.1482466 1 0 1
0.05442334 0.03739665 0.157924 1 0 1
0.05828764 0.03304085 0.1684796 1 0 1
0.06200691 0.02905989 0.1781103 1 0 1
0.06485566 0.02655515 0.1841208 1 0 1
0.06678879 0.02552422 0.1865218 1 0 1
0.06825227 0.02523109 0.1871187 1 0 1
0.06947289 0.0253079 0.1868134 1 0 1
0.0706924 0.02538766 0.1865042 1 0 1
0.07191073 0.02547042 0.1861911 1 0 1
0.07234647 0.02665341 0.1831935 1 0 1
0.07328709 0.02710678 0.181983 1 0 1
0.07421906 0.02756251 0.1807706 1 0 1
0.07459904 0.02875044 0.1777754 1 0 1
0.07523093 0.02957482 0.1756719 1 0 1
0.07612579 0.0300366 0.1744573 1 0 1
0.07701202 0.03050056 0.173241 1 0 1
0.07788957 0.03096681 0.172023 1 0 1
0.07875846 0.03143515 0.1708035 1 0 1
0.07991262 0.03154271 0.1704667 1 0 1
0.08106547 0.03165311 0.1701262 1 0 1
0.08221704 0.03176633 0.1697819 1 0 1
0.08306229 0.03224422 0.1685531 1 0 1
0.08389884 0.03272424 0.1673228 1 0 1
0.08472668 0.03320628 0.1660912 1 0 1
0.08554583 0.03369031 0.1648582 1 0 1
0.08635629 0.03417633 0.1636239 1 0 1
0.08748133 0.03430443 0.1632635 1 0 1
0.08860501 0.03443529 0.1628995 1 0 1
0.08972729 0.03456894 0.1625319 1 0 1
0.09084813 0.03470539 0.1621608 1 0 1
0.09196749 0.03484454 0.161786 1 0 1
0.09342702 0.03462882 0.1622768 1 0 1
0.09420188 0.03513125 0.1610258 1 0 1
0.09601455 0.03456531 0.1623735 1 0 1
0.09748774 0.03436031 0.1628473 1 0 1
0.09789827 0.03522633 0.1607227 1 0 1
0.097933 0.03644835 0.157737 1 0 1
0.0986712 0.03696062 0.1564784 1 0 1
0.0296652 0.0160744 0.2119804 1 0 1
0.03073775 0.01679815 0.2099571 1 0 1
0.03205007 0.01677884 0.2097695 1 0 1
0.03336187 0.01676266 0.2095777 1 0 1
0.03440216 0.01749626 0.2075461 1 0 1
0.03417305 0.02159307 0.197258 1 0 1
0.03314383 0.02756024 0.1823959 1 0 1
0.03155107 0.03465085 0.1648013 1 0 1
0.03026494 0.04062429 0.1499725 1 0 1
0.02993801 0.04398665 0.1415634 1 0 1
0.03033369 0.04548458 0.1377328 1 0 1
0.03134703 0.04549148 0.1375579 1 0 1
0.03219379 0.0458741 0.136467 1 0 1
0.03320215 0.04588585 0.1362863 1 0 1
0.03438352 0.04552678 0.1370137 1 0 1
0.03521709 0.04591653 0.1359151 1 0 1
0.03622361 0.04593554 0.1357246 1 0 1
0.0372295 0.04595693 0.1355309 1 0 1
0.03842352 0.04560789 0.1362425 1 0 1
0.03943186 0.04563422 0.1360416 1 0 1
0.04083224 0.04491767 0.1376514 1 0 1
0.04164663 0.04532169 0.1365363 1 0 1
0.04265666 0.04535545 0.1363249 1 0 1
0.04345825 0.04576394 0.1352057 1 0 1
0.04425152 0.0461746 0.1340848 1 0 1
0.04546701 0.04584336 0.1347684 1 0 1
0.04668923 0.04551492 0.1354469 1 0 1
0.0483638 0.0444459 0.1379231 1 0 1
0.05051322 0.04263745 0.1421916 1 0 1
0.05316008 0.04009077 0.1482471 1 0 1
0.05609279 0.03717837 0.1551854 1 0 1
0.05932251 0.03390098 0.1630037 1 0 1
0.06189406 0.03174211 0.1681116 1 0 1
0.0645096 0.02958874 0.1732049 1 0 1
0.06642187 0.02855152 0.1755984 1 0 1
0.06835549 0.02751864 0.1779825 1 0 1
0.07031042 0.02649016 0.1803571 1 0 1
0.07176609 0.02620498 0.1809379 1 0 1
0.07322805 0.02592328 0.181513 1 0 1
0.07389299 0.02675167 0.179412 1 0 1
0.07454187 0.02758188 0.1773112 1 0 1
0.07489941 0.02878211 0.1743226 1 0 1
0.07607022 0.02887941 0.1739974 1 0 1
0.0769572 0.02934724 0.1727826 1 0 1
0.07783548 0.02981725 0.1715662 1 0 1
0.07899517 0.02992252 0.1712319 1 0 1
0.08015355 0.03003059 0.170894 1 0 1
0.0810132 0.0305078 0.1696707 1 0 1
0.08216532 0.03062122 0.1693265 1 0 1
0.08301128 0.03110297 0.1680991 1 0 1
0.08354004 0.03195205 0.165992 1 0 1
0.08436492 0.03243757 0.164763 1 0 1
0.08518112 0.03292508 0.1635326 1 0 1
0.08598857 0.03341456 0.162301 1 0 1
0.08711051 0.03354246 0.1619418 1 0 1
0.08823107 0.03367312 0.161579 1 0 1
0.08935022 0.03380653 0.1612127 1 0 1
0.09046794 0.03394274 0.1608427 1 0 1
0.09158424 0.03408168 0.1604693 1 0 1
0.09269905 0.03422344 0.1600922 1 0 1
0.09381241 0.03436795 0.1597116 1 0 1
0.09527296 0.03415479 0.1601925 1 0 1
0.09709166 0.03358557 0.1615313 1 0 1
0.09749939 0.03445866 0.159411 1 0 1
0.09825069 0.03497364 0.1581536 1 0 1
0.09790351 0.03656547 0.1543151 1 0 1
0.029818 0.01405329 0.2133118 1 0 1
0.0308993 0.01478422 0.2112902 1 0 1
0.03209232 0.01514161 0.210184 1 0 1
0.03340851 0.01512536 0.2099915 1 0 1
0.03445369 0.01586618 0.2079622 1 0 1
0.03450976 0.01924938 0.1995209 1 0 1
0.03349642 0.02527524 0.1846804 1 0 1
0.03192024 0.03243561 0.1671118 1 0 1
0.0304994 0.03884485 0.1513906 1 0 1
0.02987408 0.0429944 0.1411668 1 0 1
0.03027119 0.044507 0.1373421 1 0 1
0.03128495 0.04451389 0.1371671 1 0 1
0.03213242 0.0449002 0.1360776 1 0 1
0.03314124 0.04491193 0.1358968 1 0 1
0.03414948 0.0449261 0.1357127 1 0 1
0.03515708 0.04494268 0.1355254 1 0 1
0.0361641 0.04496168 0.1353349 1 0 1
0.03717044 0.04498309 0.1351412 1 0 1
0.03817612 0.04500695 0.1349442 1 0 1
0.03918115 0.04503326 0.134744 1 0 1
0.04038161 0.04468562 0.1354461 1 0 1
0.04118914 0.04509307 0.134334 1 0 1
0.04198836 0.04550276 0.1332202 1 0 1
0.04277926 0.04591456 0.1321048 1 0 1
0.0435619 0.04632854 0.1309879 1 0 1
0.04476628 0.04599322 0.1316724 1 0 1
0.04575864 0.04603615 0.1314513 1 0 1
0.0469728 0.04570615 0.1321269 1 0 1
0.04819367 0.04537893 0.1327976 1 0 1
0.04988151 0.04430458 0.1352594 1 0 1
0.05182494 0.04285911 0.1386098 1 0 1
0.0540352 0.04104321 0.142846 1 0 1
0.05652351 0.0388576 0.1479651 1 0 1
0.0590559 0.03667733 0.1530698 1 0 1
0.06138343 0.03487626 0.1572664 1 0 1
0.06349477 0.03345397 0.1605576 1 0 1
0.0664041 0.03091628 0.1665122 1 0 1
0.06910461 0.0287581 0.1715591 1 0 1
0.07132114 0.02735162 0.1748113 1 0 1
0.07276364 0.0270679 0.175386 1 0 1
0.07421244 0.02678768 0.1759549 1 0 1
0.07484239 0.02762679 0.1738583 1 0 1
0.07601377 0.02772425 0.1735332 1 0 1
0.07690145 0.0281959 0.1723199 1 0 1
0.07806663 0.02829876 0.1719883 1 0 1
0.07894067 0.02877518 0.1707706 1 0 1
0.08009963 0.02888343 0.1704327 1 0 1
0.08096 0.02936448 0.1692109 1 0 1
0.08211266 0.02947805 0.1688667 1 0 1
0.08265468 0.03033293 0.1667628 1 0 1
0.08348899 0.03082031 0.1655366 1 0 1
0.08400255 0.03167814 0.1634334 1 0 1
0.08450005 0.03253718 0.1613311 1 0 1
0.08530086 0.03302972 0.1601033 1 0 1
0.08673902 0.03278976 0.1606187 1 0 1
0.08785648 0.03292017 0.1602572 1 0 1
0.08930284 0.03268705 0.1607619 1 0 1
0.09075513 0.03245755 0.1612606 1 0 1
0.09187559 0.0325972 0.160886 1 0 1
0.09299459 0.03273962 0.1605077 1 0 1
0.09411214 0.03288484 0.1601259 1 0 1
0.09487953 0.03339688 0.1588768 1 0 1
0.09599042 0.03354719 0.1584891 1 0 1
0.09674393 0.03406332 0.1572368 1 0 1
0.09748865 0.03458116 0.1559835 1 0 1
0.09786152 0.03546276 0.1538707 1 0 1
0.09748497 0.037068 0.1500452 1 0 1
0.0981889 0.03758876 0.1487945 1 0 1
0.1000058 0.03702994 0.1501069 1 0 1
0.02996901 0.01201971 0.2146323 1 0 1
0.03118255 0.01237727 0.213529 1 0 1
0.03226057 0.01311873 0.2115066 1 0 1
0.03358501 0.0131023 0.2113128 1 0 1
0.03463894 0.01385035 0.2092852 1 0 1
0.03484422 0.01688577 0.2017703 1 0 1
0.03384684 0.02297024 0.1869515 1 0 1
0.03243371 0.02981955 0.1703222 1 0 1
0.03088248 0.03667186 0.1537112 1 0 1
0.03027174 0.04086177 0.1435018 1 0 1
0.0303659 0.04315047 0.1378587 1 0 1
0.03122225 0.04353801 0.1367725 1 0 1
0.03190489 0.04430863 0.1347746 1 0 1
0.03291038 0.0443203 0.1345944 1 0 1
0.03408837 0.04395391 0.1353194 1 0 1
0.0349195 0.04435097 0.1342244 1 0 1
0.03592316 0.04436988 0.1340345 1 0 1
0.03692615 0.04439129 0.1338415 1 0 1
0.03792851 0.04441506 0.1336451 1 0 1
0.03893019 0.04444131 0.1334456 1 0 1
0.0397353 0.04484994 0.132339 1 0 1
0.0407318 0.0448809 0.1321338 1 0 1
0.04152413 0.04529401 0.1310231 1 0 1
0.04230815 0.04570927 0.1299107 1 0 1
0.04308387 0.04612666 0.1287969 1 0 1
0.04428096 0.04578746 0.1294815 1 0 1
0.04548482 0.04545096 0.1301612 1 0 1
0.04647305 0.04549617 0.1299378 1 0 1
0.04746052 0.04554383 0.1297113 1 0 1
0.04867707 0.04521523 0.1303782 1 0 1
0.04966665 0.04526785 0.1301444 1 0 1
0.05089282 0.0449447 0.1308023 1 0 1
0.05284921 0.04349037 0.1341367 1 0 1
0.05483473 0.04204027 0.1374605 1 0 1
0.05684932 0.04059457 0.1407735 1 0 1
0.05914541 0.038776 0.1449668 1 0 1
0.06199032 0.03620847 0.1509274 1 0 1
0.06488654 0.03364715 0.1568709 1 0 1
0.06836135 0.03033933 0.1645734 1 0 1
0.07110009 0.02816793 0.1695932 1 0 1
0.07334022 0.02675464 0.172825 1 0 1
0.07450959 0.02684908 0.1725046 1 0 1
0.0756778 0.02694638 0.1721805 1 0 1
0.07684477 0.02704655 0.1718527 1 0 1
0.07801047 0.02714962 0.1715211 1 0 1
0.07917494 0.02725552 0.1711859 1 0 1
0.08033811 0.02736431 0.1708468 1 0 1
0.08120291 0.02784958 0.1696254 1 0 1
0.08205904 0.02833694 0.1684025 1 0 1
0.08290642 0.02882644 0.1671782 1 0 1
0.08312874 0.03006301 0.1642016 1 0 1
0.08395138 0.03055589 0.1629768 1 0 1
0.08444972 0.03142243 0.1608774 1 0 1
0.0852512 0.03191882 0.1596511 1 0 1
0.0863669 0.03204632 0.1592943 1 0 1
0.08780774 0.03180606 0.1598036 1 0 1
0.08925449 0.03156949 0.1603068 1 0 1
0.09070716 0.03133655 0.1608042 1 0 1
0.09216566 0.03110738 0.1612954 1 0 1
0.09328884 0.03125053 0.160916 1 0 1
0.09406573 0.03176461 0.1596695 1 0 1
0.09483383 0.03228055 0.158422 1 0 1
0.09559318 0.03279832 0.1571734 1 0 1
0.09634372 0.03331779 0.1559239 1 0 1
0.09744482 0.03347286 0.1555318 1 0 1
0.09854436 0.0336307 0.1551362 1 0 1
0.09927578 0.03415642 0.1538813 1 0 1
0.1011089 0.03359002 0.1551889 1 0 1
0.1021721 0.03501653 0.1518152 1 0 1
0.1036374 0.034824 0.1522553 1 0 1
0.03047641 0.008821424 0.2186887 1 0 1
0.03158672 0.009566433 0.2166691 1 0 1
0.03255409 0.01069915 0.2137328 1 0 1
0.03375971 0.0110668 0.2126233 1 0 1
0.03482236 0.01182206 0.2105974 1 0 1
0.03503787 0.01488668 0.2030932 1 0 1
0.03447974 0.01987661 0.1910335 1 0 1
0.03323686 0.02640738 0.1753395 1 0 1
0.03141343 0.03409428 0.1569298 1 0 1
0.03051345 0.03909323 0.1449137 1 0 1
0.03045951 0.04178828 0.1383686 1 0 1
0.03115889 0.04256386 0.1363742 1 0 1
0.03184248 0.04334178 0.1343792 1 0 1
0.03267932 0.04373773 0.1332914 1 0 1
0.03368081 0.04375179 0.1331085 1 0 1
0.03468172 0.04376829 0.1329225 1 0 1
0.03550151 0.04417123 0.1318279 1 0 1
0.03649736 0.04419247 0.1316362 1 0 1
0.03768066 0.04383224 0.1323453 1 0 1
0.03867902 0.04385839 0.1321466 1 0 1
0.03948096 0.04427064 0.1310421 1 0 1
0.04027467 0.04468504 0.129936 1 0 1
0.04126333 0.04471821 0.1297292 1 0 1
0.04204424 0.04513703 0.1286191 1 0 1
0.04260602 0.04594113 0.1266081 1 0 1
0.04401037 0.04521501 0.1281914 1 0 1
0.04499232 0.04525759 0.1279728 1 0 1
0.04597345 0.04530256 0.1277511 1 0 1
0.04695383 0.04534987 0.1275262 1 0 1
0.04793337 0.04539962 0.1272983 1 0 1
0.04867866 0.04583381 0.126173 1 0 1
0.04965279 0.04588807 0.1259397 1 0 1
0.05110804 0.04518143 0.1274879 1 0 1
0.05257745 0.04447808 0.1290293 1 0 1
0.0538125 0.04415926 0.1296734 1 0 1
0.05581086 0.04270047 0.1329811 1 0 1
0.05809421 0.04086551 0.1371664 1 0 1
0.06067377 0.03865522 0.1422264 1 0 1
0.06382412 0.03569038 0.1490446 1 0 1
0.06756751 0.03197289 0.1576147 1 0 1
0.07084264 0.02902306 0.164392 1 0 1
0.07307763 0.02759785 0.1676151 1 0 1
0.07506285 0.02655684 0.1699438 1 0 1
0.0767871 0.02589925 0.1713811 1 0 1
0.07795338 0.02600249 0.1710495 1 0 1
0.07882886 0.02648653 0.1698349 1 0 1
0.07998888 0.02659515 0.169497 1 0 1
0.08114762 0.02670661 0.1691553 1 0 1
0.08170382 0.02757475 0.1670579 1 0 1
0.08254824 0.02806772 0.1658361 1 0 1
0.0830759 0.02893892 0.1637391 1 0 1
0.08389922 0.02943562 0.1625158 1 0 1
0.08439845 0.03030965 0.1604195 1 0 1
0.08520064 0.03080993 0.1591947 1 0 1
0.08631684 0.0309376 0.158838 1 0 1
0.08775803 0.03069396 0.1593457 1 0 1
0.08920515 0.03045394 0.1598475 1 0 1
0.09065816 0.0302176 0.1603434 1 0 1
0.0917797 0.03035773 0.1599688 1 0 1
0.09289975 0.03050065 0.1595906 1 0 1
0.09332903 0.03139002 0.157485 1 0 1
0.09409052 0.03190885 0.1562415 1 0 1
0.09484328 0.03242947 0.154997 1 0 1
0.09558723 0.03295192 0.1537516 1 0 1
0.09704078 0.03273637 0.154219 1 0 1
0.09813722 0.03289397 0.1538247 1 0 1
0.09849933 0.03379181 0.1517185 1 0 1
0.09958542 0.03395383 0.1513199 1 0 1
0.09992268 0.03485391 0.1492147 1 0 1
0.09986677 0.03612164 0.1462611 1 0 1
0.09826447 0.03885498 0.1399168 1 0 1
0.03174209 0.007504272 0.217965 1 0 1
0.03271849 0.008647772 0.2150321 1 0 1
0.0339326 0.009018957 0.2139229 1 0 1
0.03486955 0.01016936 0.210987 1 0 1
0.03536804 0.01248719 0.2053165 1 0 1
0.03510943 0.01674845 0.195096 1 0 1
0.03403635 0.02295328 0.1803344 1 0 1
0.03224127 0.03071331 0.1619511 1 0 1
0.03121427 0.03614781 0.149042 1 0 1
0.03086679 0.03964454 0.1406879 1 0 1
0.03109488 0.04159145 0.1359721 1 0 1
0.0317794 0.04237666 0.1339801 1 0 1
0.03227921 0.04355207 0.1310815 1 0 1
0.03327354 0.04356603 0.1309 1 0 1
0.03426729 0.04358242 0.1307153 1 0 1
0.03508012 0.04398891 0.1296235 1 0 1
0.03606882 0.04401 0.1294332 1 0 1
0.03724473 0.04364596 0.1301423 1 0 1
0.03823591 0.04367196 0.129945 1 0 1
0.03883552 0.04447498 0.1279425 1 0 1
0.03981776 0.04450554 0.1277404 1 0 1
0.04079928 0.04453846 0.1275352 1 0 1
0.0417801 0.0445738 0.1273268 1 0 1
0.04254957 0.04499831 0.1262175 1 0 1
0.04373953 0.04465159 0.1269006 1 0 1
0.04471814 0.04469405 0.1266828 1 0 1
0.04547401 0.0451252 0.1255667 1 0 1
0.04622153 0.04555837 0.1244491 1 0 1
0.04719023 0.04560763 0.1242238 1 0 1
0.04792483 0.04604494 0.1231027 1 0 1
0.04888812 0.04609868 0.122872 1 0 1
0.05009134 0.04576949 0.1235291 1 0 1
0.05130123 0.04544306 0.1241813 1 0 1
0.05251776 0.0451195 0.1248286 1 0 1
0.05399294 0.04441421 0.1263588 1 0 1
0.05573798 0.04332796 0.1287692 1 0 1
0.05776406 0.04186162 0.1320567 1 0 1
0.06034566 0.03963234 0.1371033 1 0 1
0.06323806 0.03702536 0.1430189 1 0 1
0.06699391 0.03327532 0.1515664 1 0 1
0.07054877 0.0299168 0.1592081 1 0 1
0.07389138 0.02694921 0.1659467 1 0 1
0.07672852 0.02475401 0.1709051 1 0 1
0.07818093 0.02447546 0.1714525 1 0 1
0.07935018 0.02458202 0.1711162 1 0 1
0.08051815 0.02469151 0.1707761 1 0 1
0.08138807 0.02518476 0.1695566 1 0 1
0.08164842 0.02644133 0.1665865 1 0 1
0.08249356 0.02693813 0.1653663 1 0 1
0.08332992 0.02743703 0.1641447 1 0 1
0.0838461 0.02831734 0.1620505 1 0 1
0.08466139 0.02881989 0.1608274 1 0 1
0.08546796 0.02932443 0.159603 1 0 1
0.08658833 0.0294527 0.1592451 1 0 1
0.08770733 0.02958378 0.1588836 1 0 1
0.0891548 0.02934038 0.1593839 1 0 1
0.0906082 0.02910062 0.1598783 1 0 1
0.09139302 0.0296174 0.1586408 1 0 1
0.09250993 0.02976008 0.1582639 1 0 1
0.09293642 0.03065646 0.1561626 1 0 1
0.09369496 0.03117868 0.1549219 1 0 1
0.09444474 0.03170276 0.1536803 1 0 1
0.09518573 0.03222855 0.1524377 1 0 1
0.09663603 0.03200916 0.1529049 1 0 1
0.09772936 0.03216644 0.1525121 1 0 1
0.09882115 0.03232649 0.1521157 1 0 1
0.09991138 0.03248932 0.1517159 1 0 1
0.1002531 0.03339746 0.1496124 1 0 1
0.1009558 0.03393542 0.1483596 1 0 1
0.1031725 0.03299413 0.1504957 1 0 1
0.1015664 0.03575523 0.14416 1 0 1
0.03434058 -0.0121295 0.260714 1 0 1
0.03313415 0.005801017 0.2181433 1 0 1
0.03423404 0.006567157 0.2161224 1 0 1
0.03518384 0.007728393 0.2131892 1 0 1
0.03597197 0.009284672 0.2093454 1 0 1
0.03573582 0.013586 0.1991384 1 0 1
0.0349778 0.01906573 0.1862152 1 0 1
0.03336447 0.02650708 0.1687658 1 0 1
0.03191199 0.0331677 0.1531512 1 0 1
0.03127192 0.03748064 0.1429943 1 0 1
0.03119121 0.04022915 0.1364722 1 0 1
0.03155088 0.04180487 0.132672 1 0 1
0.03221664 0.04259964 0.1306831 1 0 1
0.033039 0.04300511 0.1295977 1 0 1
0.03402935 0.04302145 0.1294137 1 0 1
0.03483905 0.04343152 0.1283241 1 0 1
0.03600819 0.0430613 0.1290362 1 0 1
0.03680906 0.043476 0.1279417 1 0 1
0.03798451 0.04311071 0.1286461 1 0 1
0.03877642 0.04353001 0.1275468 1 0 1
0.03956007 0.04395148 0.126446 1 0 1
0.04053824 0.04398433 0.1262415 1 0 1
0.04172232 0.04362893 0.126931 1 0 1
0.04228205 0.04444761 0.1249269 1 0 1
0.04346843 0.04409716 0.1256093 1 0 1
0.04444368 0.04413952 0.1253923 1 0 1
0.04519641 0.04457423 0.1242785 1 0 1
0.04571532 0.04540071 0.1222704 1 0 1
0.0466769 0.04544964 0.1220468 1 0 1
0.04740464 0.04589025 0.120929 1 0 1
0.04859763 0.04555453 0.1215903 1 0 1
0.04955674 0.04561046 0.1213575 1 0 1
0.05075935 0.04528004 0.12201 1 0 1
0.05172051 0.04534096 0.1217701 1 0 1
0.05318443 0.04462772 0.1233001 1 0 1
0.05440691 0.04430584 0.1239378 1 0 1
0.05589527 0.04359917 0.1254549 1 0 1
0.05766072 0.0425085 0.1278486 1 0 1
0.05998127 0.04064764 0.1319983 1 0 1
0.0628792 0.0380184 0.1378979 1 0 1
0.06692544 0.03384959 0.1473022 1 0 1
0.07133052 0.02930394 0.15756 1 0 1
0.07554213 0.02515455 0.1669109 1 0 1
0.07812172 0.02332873 0.1709706 1 0 1
0.07929153 0.02343552 0.1706343 1 0 1
0.08046003 0.02354519 0.1702943 1 0 1
0.08133066 0.02404231 0.1690763 1 0 1
0.08189232 0.02492571 0.1669839 1 0 1
0.08274186 0.02542675 0.1657641 1 0 1
0.08358264 0.02592984 0.1645429 1 0 1
0.08410336 0.02681802 0.1624507 1 0 1
0.08492302 0.0273248 0.161228 1 0 1
0.08573394 0.0278336 0.160004 1 0 1
0.08685853 0.02796254 0.1596449 1 0 1
0.08798169 0.02809429 0.1592823 1 0 1
0.08910346 0.02822884 0.1589161 1 0 1
0.09022383 0.02836615 0.1585464 1 0 1
0.09100571 0.02888631 0.1573117 1 0 1
0.0917788 0.02940833 0.1560759 1 0 1
0.09254314 0.02993219 0.1548391 1 0 1
0.09329871 0.03045784 0.1536013 1 0 1
0.0936939 0.03136336 0.1515061 1 0 1
0.09478355 0.03151439 0.1511228 1 0 1
0.09623054 0.0312911 0.1515898 1 0 1
0.09732076 0.03144816 0.1511983 1 0 1
0.09840944 0.03160796 0.1508033 1 0 1
0.09949655 0.03177048 0.1504049 1 0 1
0.1002088 0.03231067 0.1491545 1 0 1
0.1009122 0.03285252 0.1479032 1 0 1
0.1027484 0.03227451 0.1491889 1 0 1
0.1030608 0.03319443 0.1470877 1 0 1
0.1049081 0.03262415 0.1483611 1 0 1
0.03427291 0.004886306 0.216489 1 0 1
0.03522786 0.006058366 0.2135597 1 0 1
0.03602143 0.007629143 0.2097215 1 0 1
0.03650052 0.00999394 0.2040685 1 0 1
0.03620585 0.01433865 0.1938839 1 0 1
0.03522932 0.02026785 0.1800834 1 0 1
0.03352506 0.02778114 0.1626752 1 0 1
0.03230259 0.03371551 0.1489078 1 0 1
0.03176861 0.03767546 0.1396787 1 0 1
0.03181582 0.04005641 0.1340744 1 0 1
0.03232177 0.04125373 0.1311841 1 0 1
0.03297644 0.04205804 0.1291972 1 0 1
0.03379123 0.04246946 0.1281115 1 0 1
0.0345978 0.04288315 0.1270241 1 0 1
0.03557974 0.04290411 0.1268351 1 0 1
0.03656104 0.04292747 0.1266431 1 0 1
0.03754168 0.04295325 0.1264479 1 0 1
0.03832667 0.043376 0.1253517 1 0 1
0.03950096 0.04301189 0.1260482 1 0 1
0.04047956 0.04304478 0.1258436 1 0 1
0.04145747 0.04308005 0.125636 1 0 1
0.04222444 0.04351181 0.1245305 1 0 1
0.04319708 0.04355173 0.1243174 1 0 1
0.04395127 0.04398774 0.1232082 1 0 1
0.04469707 0.0444258 0.1220976 1 0 1
0.04543456 0.04486585 0.1209857 1 0 1
0.04616375 0.04530788 0.1198724 1 0 1
0.0471174 0.04535882 0.1196474 1 0 1
0.04807023 0.0454121 0.1194195 1 0 1
0.04902223 0.04546771 0.1191884 1 0 1
0.05021755 0.04513328 0.1198412 1 0 1
0.0511716 0.04519379 0.1196032 1 0 1
0.05237644 0.04486477 0.1202471 1 0 1
0.0533325 0.04493022 0.120002 1 0 1
0.0548059 0.04421532 0.12152 1 0 1
0.05629334 0.04350385 0.1230309 1 0 1
0.05806143 0.04240509 0.1254158 1 0 1
0.05985091 0.04131047 0.1277917 1 0 1
0.06330628 0.03787891 0.1354322 1 0 1
0.06738327 0.0336756 0.144807 1 0 1
0.07238569 0.02831318 0.1567863 1 0 1
0.07692063 0.0237411 0.1669809 1 0 1
0.07952083 0.02190222 0.1710228 1 0 1
0.08098624 0.02162382 0.1715554 1 0 1
0.08186503 0.02212545 0.1703369 1 0 1
0.0821349 0.02340493 0.1673738 1 0 1
0.08298884 0.02391013 0.1661545 1 0 1
0.08352654 0.02480451 0.1640645 1 0 1
0.08435929 0.02531349 0.1628435 1 0 1
0.08518334 0.02582455 0.1616211 1 0 1
0.08599862 0.02633755 0.1603976 1 0 1
0.08680518 0.02685256 0.1591727 1 0 1
0.087603 0.02736949 0.1579467 1 0 1
0.08839205 0.02788838 0.1567195 1 0 1
0.0895056 0.02802502 0.1563522 1 0 1
0.09061769 0.02816453 0.1559814 1 0 1
0.09104727 0.0290731 0.1538898 1 0 1
0.09214915 0.02921714 0.1535145 1 0 1
0.09290179 0.02974618 0.1522795 1 0 1
0.09329416 0.0306587 0.1501887 1 0 1
0.09402558 0.0311907 0.1489532 1 0 1
0.09582439 0.03058232 0.1502736 1 0 1
0.09691147 0.03073911 0.1498834 1 0 1
0.09799702 0.03089865 0.1494898 1 0 1
0.09908102 0.03106091 0.1490928 1 0 1
0.1001635 0.03122588 0.1486923 1 0 1
0.1008675 0.0317716 0.1474427 1 0 1
0.1019431 0.03194151 0.1470368 1 0 1
0.1026332 0.03249097 0.1457845 1 0 1
0.1048646 0.03153689 0.1478978 1 0 1
0.1051603 0.0324675 0.1457984 1 0 1
0.03540426 0.003984511 0.2148295 1 0 1
0.03620709 0.005569733 0.2109962 1 0 1
0.03712001 0.00675946 0.2080692 1 0 1
0.03742858 0.009548259 0.2015202 1 0 1
0.03693783 0.0143351 0.1904516 1 0 1
0.03589614 0.02032172 0.1766818 1 0 1
0.03395575 0.02830554 0.1584098 1 0 1
0.03266429 0.03429669 0.1446747 1 0 1
0.03224346 0.03789627 0.1363691 1 0 1
0.03242579 0.03990229 0.1316784 1 0 1
0.03291326 0.04111272 0.128793 1 0 1
0.03372871 0.04152779 0.1277088 1 0 1
0.03453594 0.04194512 0.1266229 1 0 1
0.0355183 0.04196612 0.1264339 1 0 1
0.03650002 0.04198951 0.1262418 1 0 1
0.03748109 0.0420153 0.1260466 1 0 1
0.0382667 0.04244172 0.1249519 1 0 1
0.03944119 0.04207403 0.1256467 1 0 1
0.04042022 0.04210696 0.1254422 1 0 1
0.04119237 0.04254017 0.1243405 1 0 1
0.04195625 0.04297544 0.1232373 1 0 1
0.0429255 0.04301525 0.123025 1 0 1
0.04367652 0.0434548 0.1219182 1 0 1
0.0444192 0.04389639 0.12081 1 0 1
0.04492849 0.04473703 0.1188107 1 0 1
0.04587959 0.04478553 0.1185896 1 0 1
0.04682988 0.04483632 0.1183655 1 0 1
0.04777937 0.04488945 0.1181384 1 0 1
0.04872804 0.04494494 0.1179082 1 0 1
0.05016368 0.04421078 0.1194456 1 0 1
0.05087049 0.04466714 0.1183232 1 0 1
0.05207178 0.04433433 0.1189665 1 0 1
0.05302452 0.04439959 0.1187225 1 0 1
0.05423525 0.04407227 0.1193568 1 0 1
0.0551899 0.04414255 0.1191057 1 0 1
0.05667642 0.0434263 0.1206104 1 0 1
0.05817695 0.04271359 0.1221082 1 0 1
0.06051306 0.04082296 0.1262311 1 0 1
0.06371825 0.03775731 0.1329698 1 0 1
0.0681073 0.03312646 0.1431901 1 0 1
0.07372481 0.02693459 0.1568791 1 0 1
0.0777275 0.02311138 0.1652912 1 0 1
0.08063334 0.0208666 0.1701895 1 0 1
0.08210146 0.02058806 0.1707158 1 0 1
0.08267606 0.02148751 0.1686262 1 0 1
0.08323445 0.02238833 0.1665374 1 0 1
0.08408406 0.02289988 0.1653171 1 0 1
0.08461393 0.02380376 0.1632289 1 0 1
0.08512765 0.02470891 0.1611416 1 0 1
0.08594362 0.02522573 0.1599196 1 0 1
0.08675087 0.02574462 0.1586963 1 0 1
0.08722367 0.02665402 0.15661 1 0 1
0.08800974 0.02717629 0.1553856 1 0 1
0.08878706 0.02770046 0.15416 1 0 1
0.08989235 0.02783925 0.1537917 1 0 1
0.09031549 0.02875431 0.1517058 1 0 1
0.09141056 0.02889765 0.151333 1 0 1
0.0921565 0.02942959 0.1501021 1 0 1
0.09289372 0.02996323 0.1488703 1 0 1
0.09362216 0.03049862 0.1476377 1 0 1
0.09541748 0.02988279 0.1489563 1 0 1
0.09650145 0.03003932 0.1485675 1 0 1
0.0975839 0.03019854 0.1481753 1 0 1
0.09866479 0.03036058 0.1477797 1 0 1
0.09974408 0.03052526 0.1473806 1 0 1
0.1008218 0.03069272 0.1469781 1 0 1
0.1015177 0.03124393 0.1457295 1 0 1
0.1025886 0.03141622 0.1453216 1 0 1
0.1040453 0.03121137 0.1457503 1 0 1
0.1043345 0.03214826 0.143657 1 0 1
0.1050023 0.03270678 0.1424031 1 0 1
0.1060595 0.03288871 0.1419845 1 0 1
0.1055082 0.03458308 0.138225 1 0 1
0.03571226 0.001495966 0.2169937 1 0 1
0.03666545 0.002692994 0.2140698 1 0 1
0.03773613 0.003490942 0.2120496 1 0 1
0.0386459 0.004694751 0.2091236 1 0 1
0.03878826 0.007914712 0.201681 1 0 1
0.03825835 0.01274814 0.1906341 1 0 1
0.03669756 0.01999972 0.1741869 1 0 1
0.03467795 0.02805842 0.155957 1 0 1
0.03332516 0.0341061 0.1422531 1 0 1
0.03303227 0.03733798 0.1348656 1 0 1
0.03319278 0.03936431 0.1301837 1 0 1
0.03384102 0.0401855 0.128201 1 0 1
0.03447341 0.04100882 0.1262181 1 0 1
0.0356393 0.04062765 0.1269261 1 0 1
0.03625139 0.04145536 0.1249406 1 0 1
0.03722906 0.04148105 0.1247461 1 0 1
0.03820609 0.04150916 0.1245484 1 0 1
0.03918243 0.04153963 0.1243477 1 0 1
0.04015805 0.04157249 0.1241439 1 0 1
0.04092709 0.04200923 0.1230445 1 0 1
0.04189751 0.0420467 0.1228353 1 0 1
0.04265368 0.04248777 0.1217322 1 0 1
0.04340156 0.04293083 0.1206278 1 0 1
0.0441411 0.04337594 0.1195219 1 0 1
0.0448723 0.04382305 0.1184148 1 0 1
0.04559521 0.04427208 0.1173064 1 0 1
0.04677453 0.04392248 0.1179696 1 0 1
0.04748826 0.04437577 0.1168569 1 0 1
0.04867348 0.04403128 0.1175123 1 0 1
0.04986542 0.04368955 0.1181628 1 0 1
0.05081654 0.04375002 0.1179257 1 0 1
0.05176682 0.04381281 0.1176856 1 0 1
0.0527162 0.04387796 0.1174424 1 0 1
0.0539234 0.04354683 0.1180762 1 0 1
0.05487474 0.04361691 0.117826 1 0 1
0.05609133 0.04329132 0.1184508 1 0 1
0.0575844 0.04257089 0.1199474 1 0 1
0.05936507 0.04145658 0.1223127 1 0 1
0.06144458 0.0399494 0.1255437 1 0 1
0.06439625 0.03725674 0.1313846 1 0 1
0.06910811 0.03219225 0.142444 1 0 1
0.07420411 0.02674298 0.1543441 1 0 1
0.07881843 0.0220977 0.1644695 1 0 1
0.0820406 0.01944093 0.1702177 1 0 1
0.08321547 0.01955771 0.1698681 1 0 1
0.08347879 0.02086142 0.1669129 1 0 1
0.08402563 0.02177142 0.164827 1 0 1
0.08455639 0.02268275 0.1627419 1 0 1
0.08507099 0.02359532 0.1606577 1 0 1
0.0855695 0.02450911 0.1585746 1 0 1
0.08669559 0.02463871 0.1582157 1 0 1
0.08749475 0.02516332 0.1569929 1 0 1
0.08795599 0.02608167 0.1549097 1 0 1
0.08873399 0.02660966 0.1536858 1 0 1
0.08983973 0.02674866 0.1533175 1 0 1
0.09026372 0.02767123 0.1512348 1 0 1
0.09101544 0.02820473 0.1500078 1 0 1
0.0921059 0.02835056 0.1496328 1 0 1
0.09284376 0.02888808 0.1484026 1 0 1
0.09357283 0.02942732 0.1471716 1 0 1
0.09500996 0.02919242 0.1476381 1 0 1
0.09572878 0.02973611 0.1464028 1 0 1
0.09717008 0.02950768 0.1468598 1 0 1
0.09861708 0.02928307 0.1473108 1 0 1
0.09969687 0.02944808 0.1469118 1 0 1
0.100775 0.02961578 0.1465094 1 0 1
0.1018516 0.02978623 0.1461036 1 0 1
0.1029266 0.02995942 0.1456943 1 0 1
0.1047745 0.02936837 0.1469586 1 0 1
0.1046809 0.03069683 0.1440287 1 0 1
0.1053529 0.03125987 0.1427751 1 0 1
0.1068121 0.03106105 0.1431894 1 0 1
0.109883 0.02934209 0.1469287 1 0 1
0.1077212 0.03257732 0.1398425 1 0 1
0.03412285 0.0006265156 0.2157312 1 0 1
0.03561834 0.0002064965 0.2164313 1 0 1
0.03657289 0.001414388 0.213512 1 0 1
0.03764464 0.002219492 0.2114949 1 0 1
0.03884508 0.002621705 0.2103781 1 0 1
0.03944321 0.004652044 0.2056517 1 0 1
0.03969771 0.00749796 0.1991255 1 0 1
0.03896103 0.01278397 0.1872019 1 0 1
0.03732433 0.02010319 0.170793 1 0 1
0.03473032 0.02945481 0.1499092 1 0 1
0.03397137 0.03393427 0.1398332 1 0 1
0.03364212 0.03719715 0.132462 1 0 1
0.03395221 0.03883769 0.1286865 1 0 1
0.03458934 0.03966836 0.1267059 1 0 1
0.0357592 0.03928367 0.1274116 1 0 1
0.03637598 0.04011875 0.1254284 1 0 1
0.03716738 0.04055019 0.1243391 1 0 1
0.03814481 0.04057832 0.1241414 1 0 1
0.03912156 0.04060885 0.1239407 1 0 1
0.0398957 0.041047 0.1228452 1 0 1
0.04066158 0.0414873 0.1217482 1 0 1
0.04162861 0.04152466 0.1215397 1 0 1
0.04238164 0.04196924 0.120439 1 0 1
0.04312637 0.04241584 0.1193369 1 0 1
0.04386277 0.04286445 0.1182335 1 0 1
0.04459082 0.04331506 0.1171288 1 0 1
0.04553895 0.04336347 0.1169085 1 0 1
0.04648628 0.04341426 0.1166853 1 0 1
0.04719686 0.04387104 0.1155751 1 0 1
0.0483785 0.04352275 0.1162298 1 0 1
0.04956688 0.0431773 0.1168796 1 0 1
0.05051465 0.0432376 0.1166435 1 0 1
0.05146158 0.04330025 0.1164043 1 0 1
0.05240761 0.04336523 0.1161621 1 0 1
0.05335278 0.04343257 0.1159169 1 0 1
0.05429699 0.04350222 0.1156687 1 0 1
0.05577229 0.04277086 0.1171702 1 0 1
0.05699187 0.04244442 0.1177893 1 0 1
0.05849143 0.04171985 0.1192776 1 0 1
0.06000493 0.04099891 0.1207589 1 0 1
0.06181328 0.03988118 0.1231051 1 0 1
0.06478157 0.03716744 0.1289265 1 0 1
0.06808925 0.03406117 0.1356 1 0 1
0.0729157 0.02896595 0.146598 1 0 1
0.07813335 0.02348361 0.1584323 1 0 1
0.08105756 0.02120369 0.1632979 1 0 1
0.08250886 0.02092257 0.1638181 1 0 1
0.08335242 0.02144091 0.1626033 1 0 1
0.08418727 0.02196137 0.1613871 1 0 1
0.08469908 0.02288096 0.1593074 1 0 1
0.08519477 0.02380175 0.1572286 1 0 1
0.08631765 0.02393113 0.1568709 1 0 1
0.08678851 0.02485498 0.1547921 1 0 1
0.08757222 0.02538446 0.1535721 1 0 1
0.08834723 0.02591586 0.1523511 1 0 1
0.0894498 0.02605461 0.1519841 1 0 1
0.08953097 0.02737816 0.1490519 1 0 1
0.09061968 0.02752101 0.1486816 1 0 1
0.0913597 0.02805964 0.1474566 1 0 1
0.09209089 0.02860002 0.1462306 1 0 1
0.09316796 0.02875007 0.1458526 1 0 1
0.0942435 0.0289028 0.1454713 1 0 1
0.09531759 0.02905829 0.1450865 1 0 1
0.09639011 0.02921649 0.1446984 1 0 1
0.09783016 0.02898746 0.1451505 1 0 1
0.0992759 0.02876225 0.1455965 1 0 1
0.100351 0.02892968 0.1451956 1 0 1
0.1010446 0.02948808 0.1439516 1 0 1
0.1024963 0.02927274 0.1443834 1 0 1
0.1039537 0.02906129 0.1448092 1 0 1
0.1046352 0.02962668 0.1435578 1 0 1
0.1060963 0.02942187 0.143974 1 0 1
0.107563 0.029221 0.144384 1 0 1
0.109838 0.02825492 0.1464502 1 0 1
0.1097027 0.02959922 0.1435257 1 0 1
0.03402784 -0.0006568726 0.2151656 1 0 1
0.03539072 -0.0006708414 0.2149615 1 0 1
0.03661625 -0.0002716632 0.2138513 1 0 1
0.03755233 0.0009504342 0.2109353 1 0 1
0.038898 0.0009464155 0.2107206 1 0 1
0.03994654 0.001765346 0.2087017 1 0 1
0.04052283 0.003816958 0.2039827 1 0 1
0.04059247 0.007101053 0.1965697 1 0 1
0.03980156 0.01243677 0.1846727 1 0 1
0.03760216 0.02105268 0.1656096 1 0 1
0.03574362 0.02844056 0.1492616 1 0 1
0.03460287 0.03378114 0.1374152 1 0 1
0.03441226 0.03666529 0.1309557 1 0 1
0.03470409 0.03832242 0.1271869 1 0 1
0.03551266 0.03875308 0.1261025 1 0 1
0.03612655 0.03959531 0.1241232 1 0 1
0.03710502 0.03962108 0.1239286 1 0 1
0.03788881 0.04005835 0.1228393 1 0 1
0.03886215 0.0400888 0.1226392 1 0 1
0.03983482 0.04012161 0.1224361 1 0 1
0.04039585 0.04097429 0.1204514 1 0 1
0.04135952 0.04101157 0.1202438 1 0 1
0.04210938 0.04145967 0.1191455 1 0 1
0.04285097 0.04190977 0.1180458 1 0 1
0.04358418 0.04236189 0.1169448 1 0 1
0.04453349 0.04240808 0.1167275 1 0 1
0.04548201 0.04245661 0.1165073 1 0 1
0.04642975 0.04250745 0.116284 1 0 1
0.04690525 0.04337524 0.114293 1 0 1
0.04808328 0.0430232 0.114947 1 0 1
0.04926805 0.04267397 0.1155962 1 0 1
0.04996544 0.04314075 0.1144813 1 0 1
0.05115603 0.04279663 0.1151226 1 0 1
0.05209871 0.04286147 0.1148814 1 0 1
0.05304052 0.04292861 0.1146372 1 0 1
0.05398141 0.04299812 0.11439 1 0 1
0.05545292 0.04225938 0.1158893 1 0 1
0.05666896 0.04192912 0.1165078 1 0 1
0.05789153 0.04160186 0.1171213 1 0 1
0.05884359 0.04168188 0.1168581 1 0 1
0.06035608 0.04095622 0.1183331 1 0 1
0.0618825 0.04023426 0.1198009 1 0 1
0.06399912 0.03870929 0.1229983 1 0 1
0.06760381 0.03517447 0.1305211 1 0 1
0.07245671 0.03003801 0.1414864 1 0 1
0.0771056 0.02531595 0.1515546 1 0 1
0.08032712 0.02261508 0.1572722 1 0 1
0.08267906 0.02112696 0.1603818 1 0 1
0.08381758 0.02124928 0.1600313 1 0 1
0.08432655 0.02217586 0.1579559 1 0 1
0.08481944 0.02310366 0.1558816 1 0 1
0.08593911 0.0232328 0.1555251 1 0 1
0.08673228 0.02376423 0.1543079 1 0 1
0.08718786 0.02469653 0.1522336 1 0 1
0.08795984 0.02523125 0.1510154 1 0 1
0.08905926 0.02536979 0.1506497 1 0 1
0.08981742 0.02590872 0.1494281 1 0 1
0.0902233 0.02684652 0.1473546 1 0 1
0.09130743 0.02699186 0.1469823 1 0 1
0.09203929 0.02753606 0.1457579 1 0 1
0.09276238 0.02808199 0.1445327 1 0 1
0.09383479 0.0282345 0.1441527 1 0 1
0.09490571 0.0283897 0.1437694 1 0 1
0.09597508 0.02854763 0.1433826 1 0 1
0.09741184 0.02831472 0.1438345 1 0 1
0.09885427 0.02808565 0.1442804 1 0 1
0.09992621 0.02825279 0.1438809 1 0 1
0.1006168 0.02881447 0.1426399 1 0 1
0.1020653 0.02859527 0.1430716 1 0 1
0.1035193 0.0283799 0.1434972 1 0 1
0.1041979 0.02894858 0.142249 1 0 1
0.1056558 0.0287399 0.1426651 1 0 1
0.1075169 0.02814631 0.1439061 1 0 1
0.1097919 0.02716978 0.1459676 1 0 1
0.1100624 0.02813759 0.1438762 1 0 1
0.1123588 0.02717103 0.1459209 1 0 1
0.1150868 0.02582485 0.1487788 1 0 1
0.03306781 -0.0035737 0.2184028 1 0 1
0.03418962 -0.00276452 0.2163979 1 0 1
0.03569334 -0.003191971 0.2170934 1 0 1
0.03679474 -0.002375942 0.2150826 1 0 1
0.03788015 -0.001556495 0.2130698 1 0 1
0.03909371 -0.001147094 0.2119542 1 0 1
0.04015096 -0.000321004 0.209937 1 0 1
0.04104041 0.0009218138 0.2070203 1 0 1
0.04175051 0.00258116 0.2032062 1 0 1
0.04163197 0.006310496 0.1949106 1 0 1
0.0403008 0.01293582 0.1803523 1 0 1
0.03784385 0.0220427 0.160441 1 0 1
0.03590184 0.02949714 0.1441343 1 0 1
0.03521969 0.03364662 0.1349992 1 0 1
0.03499627 0.03655792 0.1285542 1 0 1
0.03563076 0.0374054 0.1265775 1 0 1
0.03624931 0.03825496 0.1246007 1 0 1
0.03704201 0.0386937 0.1235145 1 0 1
0.03802024 0.03872192 0.1233167 1 0 1
0.0389978 0.0387525 0.1231159 1 0 1
0.03957183 0.03961045 0.121135 1 0 1
0.04033518 0.04005791 0.120042 1 0 1
0.04109019 0.04050748 0.1189475 1 0 1
0.04183693 0.04095904 0.1178516 1 0 1
0.04279191 0.0410008 0.1176395 1 0 1
0.04352577 0.04145658 0.1165401 1 0 1
0.04469966 0.0410913 0.1172062 1 0 1
0.04565233 0.04114008 0.116985 1 0 1
0.04637252 0.04160235 0.1158792 1 0 1
0.04708434 0.0420665 0.1147721 1 0 1
0.04802708 0.04212186 0.1145438 1 0 1
0.04921199 0.04176911 0.1151913 1 0 1
0.04991005 0.04223959 0.1140781 1 0 1
0.05110078 0.04189197 0.1147178 1 0 1
0.0522982 0.04154719 0.1153526 1 0 1
0.05298605 0.04202417 0.1142323 1 0 1
0.05392732 0.04209376 0.1139851 1 0 1
0.05513326 0.04175681 0.114608 1 0 1
0.05634573 0.04142279 0.115226 1 0 1
0.05729169 0.0415 0.1149678 1 0 1
0.05851348 0.04117157 0.1155768 1 0 1
0.05946122 0.04125379 0.1153116 1 0 1
0.06069218 0.04093106 0.1159114 1 0 1
0.06221753 0.04020442 0.1173729 1 0 1
0.06434012 0.0386683 0.1205587 1 0 1
0.06737757 0.03591873 0.1263269 1 0 1
0.07196143 0.03114736 0.1363945 1 0 1
0.07602748 0.02719857 0.1447073 1 0 1
0.08016635 0.02326014 0.1529943 1 0 1
0.08220647 0.02216536 0.1552337 1 0 1
0.0839535 0.02148006 0.1566036 1 0 1
0.08476114 0.02201093 0.1553915 1 0 1
0.08556001 0.02254378 0.1541783 1 0 1
0.08667512 0.02267553 0.1538195 1 0 1
0.08713154 0.02361523 0.1517485 1 0 1
0.08790423 0.02415381 0.1505319 1 0 1
0.08866809 0.02469422 0.1493143 1 0 1
0.08976289 0.02483526 0.1489464 1 0 1
0.09016963 0.0257805 0.1468761 1 0 1
0.09090727 0.02632633 0.1456557 1 0 1
0.09163611 0.02687387 0.1444343 1 0 1
0.09271047 0.02702389 0.1440577 1 0 1
0.09378333 0.02717666 0.1436778 1 0 1
0.09485468 0.02733211 0.1432945 1 0 1
0.09592453 0.02749028 0.1429078 1 0 1
0.09662408 0.02804827 0.1416773 1 0 1
0.09805956 0.02781475 0.1421243 1 0 1
0.09950073 0.02758508 0.1425653 1 0 1
0.1005679 0.02775467 0.1421638 1 0 1
0.1016336 0.02792698 0.141759 1 0 1
0.1034711 0.02731353 0.1430181 1 0 1
0.1045406 0.02749243 0.1426038 1 0 1
0.1056085 0.02767411 0.1421861 1 0 1
0.1070723 0.0274661 0.1425945 1 0 1
0.1093436 0.02647851 0.1446527 1 0 1
0.110016 0.02706201 0.1433927 1 0 1
0.1119042 0.02647553 0.1446076 1 0 1
0.1146285 0.02511474 0.1474606 1 0 1
0.03247085 -0.00319904 0.2142195 1 0 1
0.03396393 -0.003633335 0.2149193 1 0 1
0.0354641 -0.004064372 0.2156137 1 0 1
0.03669893 -0.003658165 0.2145052 1 0 1
0.03778543 -0.002831554 0.2124956 1 0 1
0.0388559 -0.002001561 0.210484 1 0 1
0.04005811 -0.001585316 0.2093675 1 0 1
0.04125195 -0.001165797 0.2082479 1 0 1
0.04212667 9.101693E-05 0.2053344 1 0 1
0.04265933 0.002184906 0.2006308 1 0 1
0.04217473 0.006783402 0.1905645 1 0 1
0.04077099 0.01346859 0.1760417 1 0 1
0.03822009 0.02265624 0.1561804 1 0 1
0.03654741 0.02934338 0.141699 1 0 1
0.03564342 0.03394734 0.131694 1 0 1
0.03574768 0.03605229 0.1270457 1 0 1
0.03618501 0.03732572 0.1241814 1 0 1
0.03678861 0.03818456 0.1222077 1 0 1
0.03776342 0.03821268 0.1220107 1 0 1
0.03854019 0.03865941 0.1209229 1 0 1
0.03930868 0.03910826 0.1198337 1 0 1
0.04027383 0.03914326 0.119629 1 0 1
0.04102949 0.0395965 0.1185361 1 0 1
