ply
format ascii 1.0
Comment Generated by Floating Hands
element vertex 1240
property double x
property double y
property double z
property uchar red
property uchar green
property uchar blue
end_header
0.07471891 0.03604255 0.09574888 1 0 1
0.07617212 0.0357491 0.09626328 1 0 1
0.07763141 0.03545891 0.09677159 1 0 1
0.07878566 0.03555292 0.09640313 1 0 1
0.08056804 0.03488852 0.09776989 1 0 1
0.08172687 0.03498859 0.09739144 1 0 1
0.08288424 0.03509138 0.09700926 1 0 1
0.08371436 0.03557648 0.09575741 1 0 1
0.08420617 0.03644286 0.09363962 1 0 1
0.08468179 0.03731057 0.0915231 1 0 1
0.08514126 0.03817948 0.08940797 1 0 1
0.08558457 0.03904958 0.08729428 1 0 1
0.0867001 0.03916531 0.08690117 1 0 1
0.08746631 0.03966109 0.08564617 1 0 1
0.08716927 0.04128958 0.08181942 1 0 1
0.08542117 0.04442387 0.07457712 1 0 1
0.08181959 0.04943492 0.0630812 1 0 1
0.07667255 0.05594048 0.04820519 1 0 1
0.07213277 0.06168315 0.03507527 1 0 1
0.07007033 0.06479081 0.02793482 1 0 1
0.06981492 0.06602127 0.02505777 1 0 1
0.07029024 0.06650312 0.02388112 1 0 1
0.07113753 0.0666126 0.0235505 1 0 1
0.07159949 0.06709712 0.02237256 1 0 1
0.07244059 0.06721015 0.02203792 1 0 1
0.07328039 0.06732521 0.02170053 1 0 1
0.07411887 0.06744227 0.02136045 1 0 1
0.0745576 0.06793237 0.02017881 1 0 1
0.07538982 0.06805295 0.01983476 1 0 1
0.07581513 0.06854551 0.01865216 1 0 1
0.07705016 0.06830005 0.01913857 1 0 1
0.07787827 0.06842663 0.01878646 1 0 1
0.07870501 0.06855518 0.01843164 1 0 1
0.07953032 0.06868574 0.01807415 1 0 1
0.08077753 0.06845105 0.01854223 1 0 1
0.08117672 0.06895282 0.01735117 1 0 1
0.08199774 0.06908938 0.01698571 1 0 1
0.08281732 0.06922789 0.01661755 1 0 1
0.08407282 0.06900353 0.0170687 1 0 1
0.08489296 0.06914663 0.01669364 1 0 1
0.0857116 0.06929173 0.01631594 1 0 1
0.08652874 0.06943882 0.01593561 1 0 1
0.08779569 0.06922555 0.01636805 1 0 1
0.08952293 0.06865381 0.01760839 1 0 1
0.09080418 0.06844774 0.01802732 1 0 1
0.0920908 0.06824506 0.01844017 1 0 1
0.09338272 0.0680457 0.01884707 1 0 1
0.0942113 0.06820881 0.01844075 1 0 1
0.09598244 0.06765717 0.01964259 1 0 1
0.09824127 0.06675269 0.02163854 1 0 1
0.102914 0.06406961 0.02763124 1 0 1
0.1057101 0.06282506 0.03039256 1 0 1
0.1085318 0.06158844 0.03313707 1 0 1
0.1104005 0.06106942 0.03427123 1 0 1
0.112281 0.06055561 0.03539542 1 0 1
0.112685 0.06110695 0.03413009 1 0 1
0.1150781 0.06024875 0.03603092 1 0 1
0.1179923 0.05904554 0.03870761 1 0 1
0.1153636 0.06171212 0.03270161 1 0 1
0.03867877 0.04448499 0.07811855 1 0 1
0.04016251 0.04372173 0.07967746 1 0 1
0.041032 0.04412995 0.07853899 1 0 1
0.04231977 0.04376143 0.07919071 1 0 1
0.04318001 0.0441745 0.0780469 1 0 1
0.0440318 0.04458983 0.07690138 1 0 1
0.04487518 0.04500746 0.07575416 1 0 1
0.04525308 0.04620559 0.07282051 1 0 1
0.04560738 0.04740553 0.06988891 1 0 1
0.04617418 0.04821818 0.06785004 1 0 1
0.0469648 0.04864398 0.06670118 1 0 1
0.04750338 0.0494605 0.06466223 1 0 1
0.04901543 0.04872494 0.06617443 1 0 1
0.05003934 0.04876899 0.06590605 1 0 1
0.05157206 0.04803914 0.0674056 1 0 1
0.05363616 0.04653659 0.07066709 1 0 1
0.05625407 0.04426233 0.07568428 1 0 1
0.05918215 0.04160536 0.08156825 1 0 1
0.06297131 0.0377917 0.09007867 1 0 1
0.06656054 0.034372 0.09768381 1 0 1
0.06827421 0.0336673 0.09911024 1 0 1
0.06972047 0.033353 0.09965014 1 0 1
0.07060323 0.03381476 0.09842966 1 0 1
0.07147729 0.03427872 0.09720761 1 0 1
0.07234263 0.03474494 0.09598401 1 0 1
0.07349525 0.03482764 0.09563273 1 0 1
0.07494625 0.03452767 0.09615045 1 0 1
0.07640339 0.03423094 0.09666213 1 0 1
0.07755946 0.03432239 0.0962973 1 0 1
0.07902499 0.03403199 0.09679794 1 0 1
0.08049651 0.03374493 0.09729247 1 0 1
0.0816558 0.03384513 0.09691397 1 0 1
0.08281363 0.03394808 0.09653173 1 0 1
0.08364441 0.03443695 0.09528134 1 0 1
0.08413708 0.03531077 0.09316656 1 0 1
0.08461359 0.03618585 0.09105309 1 0 1
0.08507395 0.0370622 0.08894094 1 0 1
0.08551817 0.03793976 0.08683027 1 0 1
0.08663411 0.03805564 0.08643714 1 0 1
0.08774856 0.03817419 0.0860404 1 0 1
0.08745648 0.03981783 0.08221832 1 0 1
0.08642388 0.04222135 0.07669504 1 0 1
0.08319495 0.04690127 0.0660677 1 0 1
0.07806641 0.05347049 0.05121216 1 0 1
0.07317881 0.05964851 0.03724956 1 0 1
0.07075983 0.06316522 0.02926848 1 0 1
0.07013958 0.06478573 0.02554588 1 0 1
0.07024241 0.0656494 0.02352347 1 0 1
0.07109004 0.06575903 0.02319287 1 0 1
0.07155253 0.06624737 0.02201647 1 0 1
0.07239397 0.06636055 0.0216818 1 0 1
0.0732341 0.06647578 0.02134444 1 0 1
0.07407291 0.06659303 0.02100435 1 0 1
0.07451217 0.06708694 0.01982425 1 0 1
0.07534472 0.06720769 0.01948025 1 0 1
0.07577057 0.06770409 0.01829915 1 0 1
0.07700574 0.0674552 0.01878403 1 0 1
0.07742173 0.0679545 0.01760064 1 0 1
0.07824524 0.06808271 0.01724738 1 0 1
0.07948691 0.06784146 0.01771973 1 0 1
0.08031115 0.06797422 0.01735958 1 0 1
0.08113396 0.06810897 0.01699678 1 0 1
0.08195533 0.06824571 0.01663134 1 0 1
0.08277524 0.06838445 0.01626322 1 0 1
0.08359369 0.0685252 0.01589245 1 0 1
0.08441065 0.06866792 0.01551904 1 0 1
0.08567034 0.06844537 0.0159602 1 0 1
0.0869355 0.06822606 0.01639546 1 0 1
0.08775494 0.06837604 0.01601087 1 0 1
0.08902749 0.06816264 0.01643592 1 0 1
0.09030545 0.06795257 0.01685501 1 0 1
0.09158877 0.06774585 0.01726814 1 0 1
0.09287744 0.06754249 0.01767518 1 0 1
0.09370288 0.06770517 0.01727066 1 0 1
0.09547059 0.06714588 0.01847119 1 0 1
0.09772586 0.06623016 0.02046439 1 0 1
0.1004788 0.06496012 0.02324497 1 0 1
0.1032576 0.06369788 0.02600897 1 0 1
0.1070332 0.06172524 0.03035011 1 0 1
0.1093809 0.06083874 0.03228181 1 0 1
0.1112546 0.06031652 0.03340657 1 0 1
0.1121483 0.06051339 0.03293808 1 0 1
0.1140385 0.06000011 0.03404637 1 0 1
0.1174485 0.0584259 0.03750873 1 0 1
0.0407017 0.04150809 0.08193248 1 0 1
0.04137398 0.04231337 0.07989755 1 0 1
0.04224331 0.04272771 0.078757 1 0 1
0.0431042 0.04314439 0.07761461 1 0 1
0.04395665 0.04356333 0.07647055 1 0 1
0.04457621 0.04437748 0.07443298 1 0 1
0.04517974 0.04519367 0.07239557 1 0 1
0.04576723 0.04601184 0.0703584 1 0 1
0.04657452 0.04643941 0.06921057 1 0 1
0.04737335 0.04686911 0.06806122 1 0 1
0.0481637 0.04730095 0.06691046 1 0 1
0.04943979 0.0469507 0.06753043 1 0 1
0.0504716 0.04699512 0.06725998 1 0 1
0.05226636 0.04586659 0.06963859 1 0 1
0.05382431 0.0451332 0.07112458 1 0 1
0.05670704 0.04244596 0.0770136 1 0 1
0.05964125 0.03976393 0.08288466 1 0 1
0.06343582 0.03591432 0.09137759 1 0 1
0.06703074 0.03246237 0.0989668 1 0 1
0.06847466 0.0321415 0.09951 1 0 1
0.06964397 0.03221416 0.09917046 1 0 1
0.07052743 0.03267962 0.09795148 1 0 1
0.07140218 0.03314736 0.09673087 1 0 1
0.07226815 0.0336173 0.0955087 1 0 1
0.07342121 0.03370007 0.09515739 1 0 1
0.07487246 0.03339657 0.09567351 1 0 1
0.07632979 0.03309633 0.09618361 1 0 1
0.07810009 0.03241097 0.09755646 1 0 1
0.0792626 0.03250577 0.0971855 1 0 1
0.08073805 0.03221551 0.09767716 1 0 1
0.08190145 0.03231617 0.09729744 1 0 1
0.08274174 0.03280677 0.09604988 1 0 1
0.08357319 0.03329942 0.094801 1 0 1
0.08406675 0.03418063 0.09268928 1 0 1
0.08454416 0.03506316 0.0905788 1 0 1
0.0850054 0.03594691 0.08846976 1 0 1
0.08545048 0.03683189 0.08636209 1 0 1
0.08656687 0.03694792 0.08596896 1 0 1
0.08768173 0.0370666 0.08557217 1 0 1
0.08774196 0.03834073 0.0826101 1 0 1
0.08706945 0.04038275 0.07794725 1 0 1
0.08420908 0.04472378 0.06818689 1 0 1
0.07909548 0.05135612 0.05335338 1 0 1
0.07422258 0.0575937 0.03941125 1 0 1
0.07107828 0.06190879 0.02974558 1 0 1
0.07046282 0.06354439 0.02602777 1 0 1
0.07094647 0.06403474 0.02485139 1 0 1
0.07142157 0.06452623 0.023675 1 0 1
0.0718882 0.06501882 0.02249871 1 0 1
0.07273358 0.06513266 0.02216266 1 0 1
0.07357763 0.06524856 0.02182387 1 0 1
0.07402591 0.06574527 0.0206451 1 0 1
0.07446571 0.06624302 0.01946652 1 0 1
0.07529859 0.06636392 0.01912251 1 0 1
0.07572498 0.06686413 0.01794301 1 0 1
0.0769603 0.0666118 0.01842641 1 0 1
0.07737681 0.0671149 0.01724455 1 0 1
0.07820064 0.06724333 0.01689129 1 0 1
0.07944243 0.06699868 0.0173621 1 0 1
0.08026702 0.06713165 0.01700203 1 0 1
0.0806637 0.06764051 0.01581561 1 0 1
0.08191186 0.06740357 0.01627382 1 0 1
0.08316559 0.06716979 0.01672621 1 0 1
0.08355086 0.06768347 0.01553502 1 0 1
0.08480867 0.06745492 0.01597891 1 0 1
0.085628 0.06760047 0.01560129 1 0 1
0.08689332 0.06737779 0.01603508 1 0 1
0.0877131 0.06752801 0.01565056 1 0 1
0.0889858 0.06731127 0.01607408 1 0 1
0.09026391 0.06709784 0.01649171 1 0 1
0.09154741 0.06688776 0.01690333 1 0 1
0.0928362 0.06668102 0.01730893 1 0 1
0.093662 0.06684397 0.01690443 1 0 1
0.09590153 0.0659122 0.01890432 1 0 1
0.09816001 0.06498663 0.02089127 1 0 1
0.1004375 0.06406737 0.02286516 1 0 1
0.1027338 0.06315447 0.02482589 1 0 1
0.1065054 0.0611598 0.0291597 1 0 1
0.1088495 0.06026208 0.03108861 1 0 1
0.1102276 0.06009351 0.03142034 1 0 1
0.1116105 0.05992867 0.03174557 1 0 1
0.1134975 0.05940779 0.03285269 1 0 1
0.1158986 0.05853319 0.03473623 1 0 1
0.04062266 0.04046534 0.08149043 1 0 1
0.04129586 0.04127786 0.07945852 1 0 1
0.04237865 0.04129902 0.07921226 1 0 1
0.0430274 0.04211609 0.07717844 1 0 1
0.04388051 0.04253864 0.07603581 1 0 1
0.04494933 0.04256705 0.07578167 1 0 1
0.0453334 0.0437871 0.07285616 1 0 1
0.0463891 0.04382009 0.07259785 1 0 1
0.04720836 0.04425167 0.07144863 1 0 1
0.04801914 0.04468545 0.07029788 1 0 1
0.04882145 0.04512139 0.06914563 1 0 1
0.050109 0.04476795 0.06976113 1 0 1
0.05115247 0.04481287 0.06948763 1 0 1
0.05244935 0.04446483 0.07009331 1 0 1
0.05426904 0.04332913 0.07245675 1 0 1
0.056896 0.04101192 0.07745225 1 0 1
0.05983256 0.03830474 0.08331139 1 0 1
0.06335934 0.03481364 0.0909093 1 0 1
0.06695244 0.03132907 0.09848449 1 0 1
0.06839653 0.03100463 0.09902609 1 0 1
0.06984694 0.03068343 0.09956174 1 0 1
0.07045043 0.03154657 0.09746897 1 0 1
0.07132585 0.03201799 0.09624984 1 0 1
0.0721925 0.03249165 0.09502919 1 0 1
0.07364152 0.0321816 0.09554858 1 0 1
0.07479741 0.03226749 0.09519234 1 0 1
0.0765579 0.03157136 0.09656928 1 0 1
0.07833187 0.03087907 0.09793782 1 0 1
0.07949853 0.03097436 0.09756558 1 0 1
0.08097786 0.03068092 0.09805454 1 0 1
0.08214542 0.03078198 0.09767356 1 0 1
0.08331148 0.03088581 0.09728881 1 0 1
0.08382584 0.03177342 0.09517769 1 0 1
0.08432399 0.03266237 0.09306776 1 0 1
0.08513846 0.03316287 0.0918179 1 0 1
0.08527171 0.03444416 0.0888518 1 0 1
0.08606122 0.0349479 0.08760224 1 0 1
0.08718533 0.03506486 0.08720646 1 0 1
0.0879608 0.03557275 0.08595345 1 0 1
0.0883766 0.03647043 0.08384705 1 0 1
0.0877129 0.03853153 0.07918926 1 0 1
0.08557881 0.04213937 0.07114256 1 0 1
0.08084561 0.04844851 0.05717838 1 0 1
0.07599466 0.05474636 0.0432542 1 0 1
0.07213327 0.05987518 0.03190754 1 0 1
0.07115721 0.06191208 0.02734751 1 0 1
0.07127244 0.06279196 0.0253271 1 0 1
0.07175171 0.06328772 0.02415088 1 0 1
0.07222246 0.06378456 0.02297468 1 0 1
0.0726847 0.06428248 0.02179863 1 0 1
0.07352911 0.06439854 0.02145984 1 0 1
0.07397794 0.06489903 0.02028264 1 0 1
0.07441825 0.06540057 0.01910567 1 0 1
0.07525147 0.06552167 0.01876164 1 0 1
0.07567836 0.06602567 0.01758369 1 0 1
0.07691379 0.06576995 0.01806557 1 0 1
0.07733082 0.06627686 0.01688527 1 0 1
0.07815501 0.06640548 0.01653206 1 0 1
0.07897775 0.06653609 0.01617618 1 0 1
0.08022182 0.06629059 0.01664129 1 0 1
0.08061904 0.06680325 0.01545651 1 0 1
0.08186731 0.06656293 0.01591317 1 0 1
0.08268789 0.0667021 0.01554512 1 0 1
0.083507 0.06684327 0.01517443 1 0 1
0.08476495 0.06661135 0.01561683 1 0 1
0.08558457 0.06675712 0.01523925 1 0 1
0.08685004 0.06653107 0.01567154 1 0 1
0.08812094 0.06630833 0.01609788 1 0 1
0.088943 0.0664614 0.0157091 1 0 1
0.09022124 0.06624462 0.01612524 1 0 1
0.09150489 0.06603118 0.01653537 1 0 1
0.09279386 0.06582113 0.01693945 1 0 1
0.09361999 0.06598434 0.016535 1 0 1
0.09585931 0.06504204 0.01853033 1 0 1
0.0976426 0.06447445 0.01971362 1 0 1
0.09895948 0.06427952 0.02008993 1 0 1
0.1012453 0.063354 0.02205133 1 0 1
0.1054914 0.06096957 0.02717505 1 0 1
0.1073397 0.0604255 0.02831083 1 0 1
0.1101842 0.05915684 0.03101741 1 0 1
0.1115674 0.05898874 0.0313412 1 0 1
0.1134544 0.058461 0.03244536 1 0 1
0.1158554 0.05757597 0.03432436 1 0 1
0.1167576 0.05778324 0.0338401 1 0 1
0.04013276 0.04022558 0.07925834 1 0 1
0.04121676 0.04024421 0.07901551 1 0 1
0.04208741 0.04066575 0.07787784 1 0 1
0.04294961 0.04108964 0.07673839 1 0 1
0.04380336 0.04151585 0.07559717 1 0 1
0.04487259 0.04154422 0.07534295 1 0 1
0.0457132 0.04197508 0.07419749 1 0 1
0.04677686 0.0420083 0.07393722 1 0 1
0.04760432 0.04244379 0.07278766 1 0 1
0.04866235 0.04248179 0.07252141 1 0 1
0.04947663 0.0429218 0.0713678 1 0 1
0.05028242 0.04336395 0.07021265 1 0 1
0.05107965 0.04380826 0.06905607 1 0 1
0.05263079 0.04305758 0.07054116 1 0 1
0.05393808 0.04270891 0.07113879 1 0 1
0.05603679 0.04116712 0.07436789 1 0 1
0.05896068 0.03843398 0.08021921 1 0 1
0.06247431 0.03490972 0.08780611 1 0 1
0.06605427 0.03139193 0.0953704 1 0 1
0.06831724 0.02986983 0.09853788 1 0 1
0.07004818 0.02914747 0.09994557 1 0 1
0.07065631 0.03001817 0.09785473 1 0 1
0.07153615 0.03049357 0.09663603 1 0 1
0.07269878 0.03057434 0.0962861 1 0 1
0.07415541 0.0302613 0.09680164 1 0 1
0.07502016 0.03074415 0.09557498 1 0 1
0.07648157 0.03043714 0.09608065 1 0 1
0.07825548 0.02973773 0.09744603 1 0 1
0.07942258 0.02983314 0.09707373 1 0 1
0.08058827 0.02993127 0.0966977 1 0 1
0.08175252 0.03003213 0.09631791 1 0 1
0.08291538 0.03013581 0.09593432 1 0 1
0.08342691 0.03103043 0.0938275 1 0 1
0.0839223 0.03192642 0.09172193 1 0 1
0.08506602 0.03203693 0.09133207 1 0 1
0.08553637 0.0329362 0.08922663 1 0 1
0.08599053 0.03383671 0.08712261 1 0 1
0.08711512 0.03395388 0.08672679 1 0 1
0.08823813 0.03407358 0.08632743 1 0 1
0.08865845 0.03497909 0.08422284 1 0 1
0.08799996 0.03705889 0.07957155 1 0 1
0.08587194 0.04069978 0.0715376 1 0 1
0.08150782 0.04667722 0.05844375 1 0 1
0.07666808 0.05303395 0.04454186 1 0 1
0.07244835 0.05860019 0.03236873 1 0 1
0.07147735 0.06065576 0.02781516 1 0 1
0.07122093 0.06193197 0.02495519 1 0 1
0.07170074 0.06243148 0.02378052 1 0 1
0.07178881 0.06331962 0.02176749 1 0 1
0.07224802 0.06382082 0.02059446 1 0 1
0.07269871 0.06432309 0.01942153 1 0 1
0.0735349 0.06444037 0.01908293 1 0 1
0.07397217 0.06494515 0.01790899 1 0 1
0.07480212 0.06506597 0.01756647 1 0 1
0.07563072 0.06518874 0.01722128 1 0 1
0.07645796 0.06531352 0.01687343 1 0 1
0.07728383 0.06544033 0.01652288 1 0 1
0.07810832 0.06556912 0.0161697 1 0 1
0.07893141 0.0656999 0.01581386 1 0 1
0.07975307 0.06583269 0.01545538 1 0 1
0.08057333 0.06596752 0.01509422 1 0 1
0.08182172 0.06572378 0.01554936 1 0 1
0.08264261 0.06586316 0.01518137 1 0 1
0.08346202 0.06600456 0.01481071 1 0 1
0.08428001 0.06614796 0.01443745 1 0 1
0.08554006 0.06591527 0.01487406 1 0 1
0.08635855 0.0660633 0.0144939 1 0 1
0.0876261 0.06583653 0.01492039 1 0 1
0.08844499 0.06598923 0.01453331 1 0 1
0.08971992 0.06576845 0.01494956 1 0 1
0.09146129 0.06517617 0.01616417 1 0 1
0.09228588 0.06533692 0.01576415 1 0 1
0.09357683 0.06512625 0.01616238 1 0 1
0.09581598 0.06417345 0.01815309 1 0 1
0.09712437 0.06397102 0.01853582 1 0 1
0.09891628 0.06340071 0.01970819 1 0 1
0.1002385 0.063206 0.02007684 1 0 1
0.1035065 0.06153515 0.02360855 1 0 1
0.1058297 0.06061211 0.02553891 1 0 1
0.1086636 0.05932722 0.02824462 1 0 1
0.1105322 0.05878588 0.02935932 1 0 1
0.1129113 0.05788286 0.03124925 1 0 1
0.1148066 0.0573528 0.03234207 1 0 1
0.1162079 0.05719345 0.03264318 1 0 1
0.1232123 0.0530274 0.04151534 1 0 1
0.04087086 0.03757713 0.08237752 1 0 1
0.04155356 0.03840416 0.08034991 1 0 1
0.04222022 0.03923354 0.07832216 1 0 1
0.04287083 0.04006506 0.07629441 1 0 1
0.04394507 0.04009105 0.07604267 1 0 1
0.04479481 0.0405232 0.07490036 1 0 1
0.04563607 0.04095774 0.07375634 1 0 1
0.04693133 0.04058741 0.07438125 1 0 1
0.04776322 0.04102664 0.07323222 1 0 1
0.04834785 0.04187138 0.07119822 1 0 1
0.04940153 0.04191175 0.07092941 1 0 1
0.05020795 0.04235752 0.06977579 1 0 1
0.05050565 0.04361106 0.06685983 1 0 1
0.05204907 0.04285287 0.06834368 1 0 1
0.05309133 0.04290271 0.06806324 1 0 1
0.05491669 0.04174819 0.07041167 1 0 1
0.05755902 0.03939107 0.07537965 1 0 1
0.06105193 0.03583325 0.08295756 1 0 1
0.06488385 0.03188016 0.09138723 1 0 1
0.067684 0.0295399 0.09629899 1 0 1
0.06996758 0.02800752 0.09944987 1 0 1
0.07086054 0.02848459 0.09823319 1 0 1
0.07174476 0.02896393 0.09701481 1 0 1
0.07262025 0.02944553 0.09579496 1 0 1
0.07407704 0.02912897 0.09630885 1 0 1
0.0752412 0.02921558 0.09595019 1 0 1
0.07670651 0.02890535 0.09645313 1 0 1
0.07848407 0.02819916 0.09781412 1 0 1
0.07996516 0.02789594 0.09830361 1 0 1
0.08082508 0.02839351 0.09706332 1 0 1
0.08199349 0.02849484 0.09668224 1 0 1
0.08283944 0.02899704 0.09543808 1 0 1
0.08335193 0.02989902 0.09333435 1 0 1
0.0838482 0.03080237 0.09123194 1 0 1
0.08499231 0.03091303 0.09084206 1 0 1
0.08579926 0.03142302 0.08959407 1 0 1
0.08659739 0.03193503 0.08834498 1 0 1
0.08738665 0.03244898 0.0870948 1 0 1
0.08851376 0.03256934 0.08669407 1 0 1
0.08893859 0.03348258 0.08459131 1 0 1
0.08828533 0.03558097 0.07994659 1 0 1
0.0861634 0.03925504 0.07192548 1 0 1
0.08216798 0.04489326 0.05969909 1 0 1
0.07733948 0.05130882 0.04581973 1 0 1
0.07276194 0.0573196 0.03282346 1 0 1
0.07179601 0.05939379 0.0282764 1 0 1
0.07154419 0.06068147 0.02541974 1 0 1
0.07202819 0.06118522 0.02424528 1 0 1
0.07212061 0.0620812 0.022234 1 0 1
0.07258392 0.06258667 0.02106108 1 0 1
0.07303877 0.06309322 0.01988833 1 0 1
0.07387886 0.06321117 0.01954829 1 0 1
0.07432025 0.06372026 0.01837446 1 0 1
0.07555507 0.06345313 0.01886009 1 0 1
0.07639112 0.06357718 0.01851193 1 0 1
0.07681771 0.06409075 0.01733449 1 0 1
0.0772358 0.06460526 0.01615739 1 0 1
0.0780606 0.06473427 0.01580424 1 0 1
0.078884 0.06486525 0.01544842 1 0 1
0.079706 0.06499828 0.01508995 1 0 1
0.08052656 0.06513327 0.01472883 1 0 1
0.08177508 0.06488617 0.01518247 1 0 1
0.08259626 0.06502576 0.01481449 1 0 1
0.08341603 0.06516739 0.01444389 1 0 1
0.08467423 0.06492871 0.01488323 1 0 1
0.08549452 0.06507496 0.01450574 1 0 1
0.08631328 0.06522322 0.01412561 1 0 1
0.08758098 0.06499309 0.01455058 1 0 1
0.08840019 0.06514603 0.01416355 1 0 1
0.08967524 0.0649219 0.01457829 1 0 1
0.09049481 0.06507955 0.01418432 1 0 1
0.09224148 0.06448372 0.01538983 1 0 1
0.09306481 0.0646468 0.01498722 1 0 1
0.09530024 0.0636828 0.01697495 1 0 1
0.09660532 0.06347635 0.01735788 1 0 1
0.09839378 0.06289845 0.01852891 1 0 1
0.09971271 0.06269972 0.01889782 1 0 1
0.1024917 0.06138406 0.02163272 1 0 1
0.104808 0.0604491 0.02356196 1 0 1
0.1086183 0.05840467 0.02783949 1 0 1
0.1094964 0.05859903 0.02738026 1 0 1
0.1118686 0.05768408 0.02926912 1 0 1
0.1142591 0.05677596 0.03114435 1 0 1
0.1151519 0.05698154 0.03066579 1 0 1
0.1246916 0.0509306 0.04341391 1 0 1
0.04078827 0.03653282 0.08192049 1 0 1
0.04188824 0.03655166 0.08167402 1 0 1
0.04256343 0.03738831 0.07964765 1 0 1
0.04322257 0.03822723 0.07762118 1 0 1
0.04430479 0.03825334 0.07736758 1 0 1
0.04516278 0.03868935 0.07622495 1 0 1
0.04578515 0.03953496 0.07419603 1 0 1
0.04685329 0.03956829 0.07393467 1 0 1
0.04745111 0.04041818 0.07190433 1 0 1
0.0477944 0.04167688 0.06899255 1 0 1
0.04884089 0.04171696 0.06872563 1 0 1
0.04939433 0.04257269 0.06669558 1 0 1
0.04993172 0.04343023 0.06466611 1 0 1
0.05121385 0.04307074 0.06527082 1 0 1
0.05250252 0.042714 0.06587024 1 0 1
0.05431993 0.04154827 0.06821587 1 0 1
0.05668863 0.03957481 0.07230154 1 0 1
0.06016831 0.03598391 0.07986829 1 0 1
0.06425913 0.03158885 0.08915783 1 0 1
0.06732673 0.02882148 0.09493382 1 0 1
0.06960595 0.02727448 0.09807941 1 0 1
0.07077944 0.02735045 0.09773468 1 0 1
0.07195165 0.02742915 0.09738621 1 0 1
0.07283151 0.02791471 0.09616672 1 0 1
0.07429221 0.02759488 0.09667783 1 0 1
0.075759 0.02727838 0.09718291 1 0 1
0.07723191 0.02696522 0.09768187 1 0 1
0.07871089 0.02665543 0.09817469 1 0 1
0.07988621 0.02675163 0.09779998 1 0 1
0.08074684 0.02725295 0.09656128 1 0 1
0.08191566 0.0273544 0.09618019 1 0 1
0.08276229 0.02786033 0.0949375 1 0 1
0.08327565 0.02876967 0.09283699 1 0 1
0.08377283 0.02968039 0.09073766 1 0 1
0.08491738 0.02979118 0.09034775 1 0 1
0.08572497 0.03030495 0.0891014 1 0 1
0.08652371 0.03082069 0.08785384 1 0 1
0.08731362 0.0313384 0.08660523 1 0 1
0.08844118 0.03145892 0.08620448 1 0 1
0.08921704 0.03198081 0.08495251 1 0 1
0.0882152 0.03449618 0.07946812 1 0 1
0.08609577 0.03820281 0.07146128 1 0 1
0.08210396 0.0438917 0.05925717 1 0 1
0.07691479 0.05076204 0.04456098 1 0 1
0.07270571 0.05642998 0.0324308 1 0 1
0.07174126 0.05852234 0.02789168 1 0 1
0.07186599 0.05942532 0.0258779 1 0 1
0.07235413 0.05993329 0.02470362 1 0 1
0.07245094 0.06083712 0.02269412 1 0 1
0.07253202 0.0617411 0.02068755 1 0 1
0.07298737 0.06225141 0.01951637 1 0 1
0.0738278 0.06236953 0.01917637 1 0 1
0.07466689 0.06248968 0.01883363 1 0 1
0.07550462 0.06261187 0.01848824 1 0 1
0.07634102 0.06273608 0.01814009 1 0 1
0.07717602 0.06286233 0.01778929 1 0 1
0.07759821 0.06338119 0.01661229 1 0 1
0.07842685 0.06351093 0.01625761 1 0 1
0.07925411 0.0636427 0.01590031 1 0 1
0.08007997 0.06377648 0.01554032 1 0 1
0.08090437 0.06391227 0.01517769 1 0 1
0.08215653 0.06366237 0.01562818 1 0 1
0.08298159 0.0638028 0.01525868 1 0 1
0.08380514 0.06394523 0.01488653 1 0 1
0.085067 0.06370382 0.01532275 1 0 1
0.08589109 0.06385093 0.01494369 1 0 1
0.08671369 0.06400005 0.01456198 1 0 1
0.087985 0.06376725 0.01498377 1 0 1
0.088808 0.0639211 0.01459511 1 0 1
0.08962946 0.06407692 0.01420386 1 0 1
0.09091002 0.06385282 0.0146111 1 0 1
0.09173181 0.06401341 0.01421289 1 0 1
0.09301958 0.06379539 0.0146098 1 0 1
0.09525476 0.06282093 0.01659285 1 0 1
0.0960855 0.06299043 0.01617987 1 0 1
0.09834841 0.06202642 0.0181422 1 0 1
0.09966747 0.06182438 0.01850959 1 0 1
0.1019613 0.06087178 0.02044911 1 0 1
0.1042739 0.0599257 0.02237539 1 0 1
0.1080801 0.05785943 0.02664528 1 0 1
0.1094502 0.0576785 0.02697174 1 0 1
0.1118221 0.05675316 0.028856 1 0 1
0.1132088 0.05658124 0.02916605 1 0 1
0.1151056 0.05604059 0.03024808 1 0 1
0.04029657 0.03631322 0.07968284 1 0 1
0.04201289 0.03509786 0.08210038 1 0 1
0.04269283 0.03594181 0.0800762 1 0 1
0.04314123 0.03719919 0.07716624 1 0 1
0.0444431 0.03681422 0.07779739 1 0 1
0.04530552 0.03725395 0.07665531 1 0 1
0.04570575 0.03851774 0.07374556 1 0 1
0.0465436 0.03896184 0.07260203 1 0 1
0.04713857 0.03981882 0.07057577 1 0 1
0.04747924 0.04108819 0.06766964 1 0 1
0.04828031 0.0415385 0.06652437 1 0 1
0.04882712 0.04240116 0.06449943 1 0 1
0.04960742 0.04285557 0.06335228 1 0 1
0.05088584 0.04249231 0.06395638 1 0 1
0.05217082 0.04213183 0.06455507 1 0 1
0.0537232 0.04136465 0.06602267 1 0 1
0.05634801 0.03896349 0.07097553 1 0 1
0.05955353 0.03574907 0.07765669 1 0 1
0.0633622 0.03172286 0.0860597 1 0 1
0.06724467 0.02770368 0.09443763 1 0 1
0.07008243 0.0253255 0.0993145 1 0 1
0.07154712 0.02499385 0.0998354 1 0 1
0.0724439 0.02548132 0.09861681 1 0 1
0.07333191 0.02597107 0.0973966 1 0 1
0.0748002 0.02564828 0.09790385 1 0 1
0.07597636 0.02573595 0.09754164 1 0 1
0.07775509 0.02501276 0.09889991 1 0 1
0.07893596 0.02510659 0.0985278 1 0 1
0.08011542 0.02520323 0.09815183 1 0 1
0.08098038 0.02570856 0.09691351 1 0 1
0.08183653 0.02621605 0.09567378 1 0 1
0.08236335 0.02713098 0.09357648 1 0 1
0.08287394 0.02804733 0.09148037 1 0 1
0.08369618 0.02856044 0.09023921 1 0 1
0.0845096 0.02907563 0.08899677 1 0 1
0.0856494 0.0291889 0.08860447 1 0 1
0.08678772 0.02930493 0.08820843 1 0 1
0.08758195 0.02982679 0.08696009 1 0 1
0.08871355 0.02994785 0.08655805 1 0 1
0.0894937 0.03047398 0.08530632 1 0 1
0.08849734 0.03301145 0.07983022 1 0 1
0.08602689 0.03715255 0.07099314 1 0 1
0.08131713 0.04369406 0.05712748 1 0 1
0.07685395 0.04982356 0.04414257 1 0 1
0.07228035 0.05594219 0.03119556 1 0 1
0.07168549 0.05765256 0.02750372 1 0 1
0.07143564 0.05896209 0.02465668 1 0 1
0.07192073 0.05947338 0.0234854 1 0 1
0.0720147 0.06038407 0.02148052 1 0 1
0.0724791 0.06089708 0.02031084 1 0 1
0.072935 0.06141113 0.01914133 1 0 1
0.07377571 0.06152944 0.01880129 1 0 1
0.07421818 0.06204609 0.0176307 1 0 1
0.07505263 0.06216792 0.01728679 1 0 1
0.07588578 0.06229179 0.0169402 1 0 1
0.0767175 0.06241769 0.01659088 1 0 1
0.07754786 0.06254562 0.01623892 1 0 1
0.07837684 0.06267557 0.0158843 1 0 1
0.07962275 0.06241449 0.01634588 1 0 1
0.08045247 0.06254906 0.01598436 1 0 1
0.0808553 0.06307752 0.0148045 1 0 1
0.08210754 0.06282426 0.01525341 1 0 1
0.08293292 0.06296491 0.01488394 1 0 1
0.08375682 0.06310757 0.01451183 1 0 1
0.08457921 0.06325226 0.0141371 1 0 1
0.08584317 0.06301015 0.01456748 1 0 1
0.08666608 0.0631595 0.01418584 1 0 1
0.08748744 0.06331088 0.01380152 1 0 1
0.08830727 0.0634643 0.01341462 1 0 1
0.08958259 0.06323351 0.01382631 1 0 1
0.08994231 0.06377719 0.01263284 1 0 1
0.09122141 0.0635518 0.01303595 1 0 1
0.09250586 0.06332979 0.01343305 1 0 1
0.09426647 0.0627277 0.0146186 1 0 1
0.0950906 0.06289606 0.0142091 1 0 1
0.09734637 0.0619202 0.01617011 1 0 1
0.0991399 0.06133207 0.01732879 1 0 1
0.1014301 0.06036832 0.01926535 1 0 1
0.1027629 0.06017085 0.01961708 1 0 1
0.1060667 0.05846046 0.02309871 1 0 1
0.108413 0.05751646 0.02499537 1 0 1
0.1102797 0.05695689 0.02609795 1 0 1
0.1111547 0.05715625 0.02563325 1 0 1
0.112533 0.05698175 0.02594259 1 0 1
0.1159497 0.05530991 0.02934562 1 0 1
0.03858241 0.03859998 0.07212742 1 0 1
0.04172081 0.03446874 0.08074784 1 0 1
0.0423979 0.03531981 0.07872766 1 0 1
0.04327411 0.03575831 0.07759152 1 0 1
0.04457982 0.03536982 0.07822002 1 0 1
0.04522391 0.03622782 0.07619629 1 0 1
0.04562536 0.0375024 0.07329129 1 0 1
0.04623348 0.03836445 0.07126877 1 0 1
0.04659143 0.03964273 0.06836708 1 0 1
0.04692574 0.04092269 0.06546762 1 0 1
0.04771987 0.04137632 0.06432577 1 0 1
0.04826001 0.04224588 0.06230592 1 0 1
0.04903339 0.0427036 0.06116232 1 0 1
0.05030438 0.04233643 0.06176671 1 0 1
0.05158191 0.04197203 0.06236578 1 0 1
0.05338711 0.0407842 0.06470478 1 0 1
0.05574255 0.03877418 0.06877733 1 0 1
0.05893873 0.03553061 0.0754476 1 0 1
0.06300943 0.03105555 0.08470595 1 0 1
0.06716142 0.02658798 0.09393716 1 0 1
0.07055664 0.02336425 0.1005389 1 0 1
0.0725951 0.02220602 0.1027883 1 0 1
0.0735075 0.02269818 0.1015669 1 0 1
0.07412054 0.02360389 0.09947982 1 0 1
0.07530588 0.02368942 0.09911907 1 0 1
0.07648992 0.02377775 0.09875453 1 0 1
0.07797427 0.02345844 0.09924672 1 0 1
0.07915929 0.02355267 0.0988734 1 0 1
0.08003371 0.02405955 0.09763802 1 0 1
0.08089937 0.02456864 0.09640127 1 0 1
0.08175617 0.02507986 0.09516312 1 0 1
0.08228391 0.02600211 0.09306904 1 0 1
0.08279539 0.02692575 0.0909761 1 0 1
0.08361831 0.02744262 0.08973648 1 0 1
0.08443239 0.02796151 0.08849575 1 0 1
0.08557256 0.02807499 0.08810332 1 0 1
0.08671129 0.02819114 0.08770736 1 0 1
0.0878485 0.02831003 0.08730759 1 0 1
0.08863819 0.02883799 0.08605852 1 0 1
0.08941896 0.02936785 0.08480841 1 0 1
0.08842446 0.03192704 0.07934201 1 0 1
0.08559988 0.03650929 0.06967933 1 0 1
0.08089068 0.04310795 0.05584091 1 0 1
0.07569929 0.05009951 0.04120354 1 0 1
0.07185441 0.05546323 0.0299602 1 0 1
0.07125719 0.05718766 0.02627625 1 0 1
0.07137986 0.05810482 0.0242703 1 0 1
0.07186545 0.05861983 0.02310067 1 0 1
0.07234254 0.05913599 0.02193107 1 0 1
0.0728111 0.05965324 0.02076159 1 0 1
0.07327113 0.06017156 0.01959225 1 0 1
0.07372262 0.06069093 0.01842309 1 0 1
0.0741656 0.06121135 0.01725413 1 0 1
0.07500037 0.06133338 0.01691024 1 0 1
0.0758338 0.06145744 0.01656365 1 0 1
0.07707328 0.06118521 0.01703619 1 0 1
0.07749651 0.06171163 0.01586247 1 0 1
0.07832581 0.06184178 0.01550786 1 0 1
0.07915369 0.06197394 0.01515063 1 0 1
0.07998015 0.06210811 0.01479075 1 0 1
0.08080518 0.06224435 0.01442815 1 0 1
0.08205751 0.06198772 0.01487553 1 0 1
0.08288318 0.06212857 0.01450613 1 0 1
0.08370738 0.06227146 0.01413404 1 0 1
0.08453012 0.06241638 0.01375935 1 0 1
0.08579414 0.06217092 0.01418815 1 0 1
0.08617104 0.06271228 0.01300201 1 0 1
0.08743908 0.06247213 0.01342235 1 0 1
0.08780588 0.06301624 0.01223419 1 0 1
0.08907779 0.06278147 0.01264599 1 0 1
0.08943457 0.06332831 0.01145589 1 0 1
0.09117408 0.06271046 0.01265537 1 0 1
0.0919914 0.06287292 0.01225631 1 0 1
0.09374847 0.06226327 0.01344044 1 0 1
0.09504359 0.06204481 0.0138239 1 0 1
0.09682152 0.0614442 0.01499071 1 0 1
0.09861153 0.06084852 0.01614797 1 0 1
0.1004136 0.06025783 0.01729556 1 0 1
0.1022276 0.05967217 0.01843348 1 0 1
0.1050361 0.05832624 0.02112648 1 0 1
0.1073753 0.05737036 0.02302194 1 0 1
0.1092352 0.05680243 0.02412506 1 0 1
0.1106052 0.0566202 0.02444108 1 0 1
0.1124851 0.05606207 0.02552596 1 0 1
0.1159012 0.0543728 0.02892107 1 0 1
0.04252473 0.03386999 0.0791451 1 0 1
0.0431905 0.03473054 0.07712717 1 0 1
0.04471497 0.03392016 0.07863553 1 0 1
0.0451413 0.0352036 0.07573338 1 0 1
0.04554393 0.036489 0.07283315 1 0 1
0.04592294 0.03777617 0.06993498 1 0 1
0.0462783 0.03906513 0.06703898 1 0 1
0.04661002 0.04035575 0.06414522 1 0 1
0.04740101 0.04081282 0.06300597 1 0 1
0.04793826 0.04168944 0.06099023 1 0 1
0.04895749 0.04173336 0.06072322 1 0 1
0.04997578 0.0417797 0.06045287 1 0 1
0.05150611 0.04099465 0.06192332 1 0 1
0.05331084 0.0397961 0.06425731 1 0 1
0.05566525 0.03776817 0.06832168 1 0 1
0.05885959 0.03449592 0.07497887 1 0 1
0.06292761 0.02998139 0.08421922 1 0 1
0.06707703 0.02547437 0.09343248 1 0 1
0.07074951 0.02180636 0.1008869 1 0 1
0.07307412 0.02022228 0.1039948 1 0 1
0.07399464 0.02071865 0.1027727 1 0 1
0.07461612 0.02163218 0.1006866 1 0 1
0.07610331 0.02130369 0.1011848 1 0 1
0.0772989 0.02139297 0.1008167 1 0 1
0.07879457 0.02107105 0.1013038 1 0 1
0.0793808 0.02199373 0.09921139 1 0 1
0.08025964 0.02250463 0.09797645 1 0 1
0.08081706 0.02343083 0.09588468 1 0 1
0.08135826 0.02435856 0.093794 1 0 1
0.0822032 0.02487531 0.09255732 1 0 1
0.08303929 0.0253942 0.09131933 1 0 1
0.08386652 0.02591511 0.09008009 1 0 1
0.08468495 0.02643809 0.08883965 1 0 1
0.08582925 0.02655207 0.08844601 1 0 1
0.08697199 0.02666879 0.08804866 1 0 1
0.08777121 0.02719851 0.08680227 1 0 1
0.08890725 0.0273203 0.0863989 1 0 1
0.08934298 0.02826382 0.08430634 1 0 1
0.08799729 0.03125378 0.07800824 1 0 1
0.08517212 0.03587517 0.06836487 1 0 1
0.08046354 0.04253095 0.05455384 1 0 1
0.07527301 0.0495831 0.03994556 1 0 1
0.07179556 0.05458574 0.02956084 1 0 1
0.07157082 0.05591777 0.02671801 1 0 1
0.07169788 0.05684271 0.02471396 1 0 1
0.07180919 0.05776791 0.02271274 1 0 1
0.0726689 0.05788233 0.0223752 1 0 1
0.0731416 0.05840381 0.02120594 1 0 1
0.07360577 0.0589264 0.02003682 1 0 1
0.0740614 0.05945003 0.01886784 1 0 1
0.07450852 0.05997467 0.01769909 1 0 1
0.07534716 0.06009745 0.01735373 1 0 1
0.07618447 0.0602222 0.0170057 1 0 1
0.07702038 0.06034903 0.01665496 1 0 1
0.07744414 0.0608792 0.01548288 1 0 1
0.07868806 0.06060879 0.01594547 1 0 1
0.07951982 0.06074172 0.01558672 1 0 1
0.08035012 0.06087669 0.01522532 1 0 1
0.08117899 0.0610137 0.01486123 1 0 1
0.08200642 0.06115275 0.0144945 1 0 1
0.08283242 0.06129383 0.01412513 1 0 1
0.0836569 0.06143693 0.01375315 1 0 1
0.08447994 0.06158205 0.01337849 1 0 1
0.08530144 0.06172924 0.01300117 1 0 1
0.08656757 0.06148308 0.01342419 1 0 1
0.08738957 0.06163494 0.01303998 1 0 1
0.08821002 0.06178885 0.01265321 1 0 1
0.08902892 0.06194477 0.01226377 1 0 1
0.08984625 0.06210273 0.01187169 1 0 1
0.09066202 0.0622627 0.01147703 1 0 1
0.09194321 0.06203344 0.01187268 1 0 1
0.09370019 0.06141691 0.01305362 1 0 1
0.09499544 0.06119519 0.01343552 1 0 1
0.09677328 0.06058772 0.01459919 1 0 1
0.09856322 0.05998522 0.01575325 1 0 1
0.1003652 0.05938771 0.01689769 1 0 1
0.1026668 0.05840825 0.01881502 1 0 1
0.1054782 0.05704911 0.02149988 1 0 1
0.1083151 0.05569821 0.02416779 1 0 1
0.1091859 0.05589446 0.02370966 1 0 1
0.1110574 0.05532506 0.02479962 1 0 1
0.1149592 0.05322826 0.0289741 1 0 1
0.1173755 0.05229032 0.03080847 1 0 1
0.04353509 0.03286079 0.0784206 1 0 1
0.04484853 0.03246526 0.0790439 1 0 1
0.0450577 0.03418135 0.07526658 1 0 1
0.04546155 0.03547748 0.07237115 1 0 1
0.04561197 0.03719698 0.06860059 1 0 1
0.04596476 0.03849657 0.06571038 1 0 1
0.04653127 0.03937652 0.06369777 1 0 1
0.04732287 0.03983721 0.06256005 1 0 1
0.048106 0.04030007 0.06142089 1 0 1
0.04912933 0.04034415 0.06115281 1 0 1
0.05040417 0.03997007 0.0617528 1 0 1
0.05194183 0.03917828 0.06321782 1 0 1
0.0537536 0.03796933 0.06554482 1 0 1
0.05611444 0.03592393 0.06959882 1 0 1
0.05931443 0.03262342 0.07624079 1 0 1
0.06311601 0.02848962 0.0845947 1 0 1
0.06726647 0.02394347 0.09378871 1 0 1
0.07094061 0.02024348 0.1012272 1 0 1
0.07326827 0.01864539 0.1043274 1 0 1
0.07419322 0.01914562 0.1031058 1 0 1
0.07510938 0.01964827 0.1018824 1 0 1
0.07601672 0.02015318 0.1006576 1 0 1
0.07751014 0.01982465 0.1011479 1 0 1
0.07900968 0.01949953 0.1016321 1 0 1
0.07960059 0.0204298 0.0995418 1 0 1
0.08017518 0.0213617 0.09745236 1 0 1
0.08073353 0.02229521 0.09536384 1 0 1
0.08127564 0.02323021 0.0932764 1 0 1
0.08212125 0.0237507 0.09204134 1 0 1
0.08328141 0.02385757 0.09165505 1 0 1
0.08378591 0.02479792 0.08956736 1 0 1
0.08493572 0.02490964 0.08917612 1 0 1
0.0860841 0.02502413 0.08878118 1 0 1
0.08723094 0.02514136 0.08838254 1 0 1
0.08837625 0.02526139 0.08798023 1 0 1
0.08917458 0.02579757 0.08673182 1 0 1
0.08961483 0.02674883 0.08464122 1 0 1
0.08827495 0.02976443 0.07835332 1 0 1
0.08510009 0.03483799 0.06788819 1 0 1
0.08003574 0.04196293 0.05326643 1 0 1
0.07520981 0.04866421 0.03952319 1 0 1
0.07173562 0.05370995 0.02915817 1 0 1
0.07151192 0.05505284 0.02632028 1 0 1
0.07163981 0.05598508 0.02431954 1 0 1
0.07213014 0.05650806 0.02315181 1 0 1
0.07299376 0.05662313 0.02281288 1 0 1
0.07347063 0.05714886 0.02164385 1 0 1
0.07393892 0.05767567 0.02047492 1 0 1
0.0743987 0.05820355 0.01930617 1 0 1
0.07484992 0.05873249 0.01813764 1 0 1
0.07569246 0.05885592 0.01779083 1 0 1
0.07613023 0.0593874 0.01662128 1 0 1
0.07737345 0.05910898 0.01708911 1 0 1
0.0778013 0.05964347 0.01591722 1 0 1
0.07863472 0.05977455 0.01556118 1 0 1
0.07946677 0.05990771 0.01520246 1 0 1
0.08029736 0.06004289 0.01484109 1 0 1
0.08112653 0.06018011 0.01447706 1 0 1
0.08238259 0.05991736 0.01491968 1 0 1
0.08321238 0.06005925 0.01454878 1 0 1
0.08404071 0.06020317 0.01417522 1 0 1
0.08486756 0.0603492 0.01379901 1 0 1
0.0856929 0.06049722 0.01342016 1 0 1
0.08651671 0.06064728 0.01303867 1 0 1
0.08778841 0.06040115 0.0134542 1 0 1
0.08861265 0.06055591 0.01306583 1 0 1
0.08943535 0.06071277 0.01267478 1 0 1
0.09025646 0.06087162 0.01228115 1 0 1
0.091076 0.06103258 0.01188483 1 0 1
0.09236076 0.06080062 0.01227727 1 0 1
0.09365081 0.06057219 0.01266362 1 0 1
0.09494614 0.06034717 0.01304397 1 0 1
0.09624673 0.06012563 0.01341825 1 0 1
0.09851371 0.05912356 0.01535532 1 0 1
0.09983155 0.05891051 0.0157139 1 0 1
0.1021295 0.05791996 0.01762814 1 0 1
0.1044461 0.05693603 0.01952915 1 0 1
0.1072757 0.05556971 0.02219417 1 0 1
0.10814 0.05576479 0.02173971 1 0 1
0.1110068 0.05441206 0.02437771 1 0 1
0.1123855 0.05422792 0.02468252 1 0 1
0.1158004 0.05250389 0.02806157 1 0 1
0.04323458 0.03225533 0.07706594 1 0 1
0.04454427 0.03185612 0.07768838 1 0 1
0.04497306 0.03316106 0.07479588 1 0 1
0.04537817 0.03446792 0.07190534 1 0 1
0.04575962 0.03577661 0.06901689 1 0 1
0.04635068 0.03666208 0.0670052 1 0 1
0.04692568 0.03754951 0.06499392 1 0 1
0.04772549 0.03801409 0.0638558 1 0 1
0.04827214 0.03890539 0.06184462 1 0 1
0.04929957 0.03894965 0.06157546 1 0 1
0.05057825 0.03857216 0.06217274 1 0 1
0.05186347 0.0381975 0.06276461 1 0 1
0.05393445 0.03655402 0.06595428 1 0 1
0.05629797 0.03449096 0.06999891 1 0 1
0.05949984 0.03116206 0.07662655 1 0 1
0.06330268 0.02699275 0.08496279 1 0 1
0.0674542 0.02240747 0.09413751 1 0 1
0.07085148 0.01909838 0.1006975 1 0 1
0.07289615 0.01790858 0.1029298 1 0 1
0.07381803 0.01841226 0.1017108 1 0 1
0.07502086 0.01849627 0.1013493 1 0 1
0.07592888 0.01900486 0.100126 1 0 1
0.07742243 0.01867285 0.1006147 1 0 1
0.07862116 0.01876545 0.1002415 1 0 1
0.07951391 0.01928181 0.09901012 1 0 1
0.08039778 0.01980042 0.09777722 1 0 1
0.08064874 0.02116172 0.09483878 1 0 1
0.08150754 0.02168406 0.09360544 1 0 1
0.08203802 0.02262821 0.09152112 1 0 1
0.08319861 0.02273522 0.09113482 1 0 1
0.08370399 0.02368285 0.08905043 1 0 1
0.08518477 0.02337616 0.08950511 1 0 1
0.08633717 0.02349118 0.08910885 1 0 1
0.08748809 0.02360893 0.08870894 1 0 1
0.08829591 0.02414689 0.08746327 1 0 1
0.08874963 0.02510392 0.08537573 1 0 1
0.08918718 0.02606207 0.08328974 1 0 1
0.08784578 0.02910237 0.0770148 1 0 1
0.08431447 0.03463434 0.06573409 1 0 1
0.07924745 0.04181932 0.05114316 1 0 1
0.07478209 0.04816204 0.03826327 1 0 1
0.07167468 0.05283581 0.02875225 1 0 1
0.07145204 0.05418957 0.02591935 1 0 1
0.0715807 0.05512913 0.02392191 1 0 1
0.07169358 0.05606893 0.0219273 1 0 1
0.07255393 0.05618365 0.0215898 1 0 1
0.07341292 0.0563005 0.02124958 1 0 1
0.07388177 0.05683108 0.02008234 1 0 1
0.07473447 0.05695157 0.01973806 1 0 1
0.07518984 0.05748478 0.01856973 1 0 1
0.07563666 0.05801899 0.01740161 1 0 1
0.07647815 0.05814468 0.01705215 1 0 1
0.07731824 0.05827242 0.0167 1 0 1
0.07774661 0.05881065 0.01552977 1 0 1
0.07858034 0.05894196 0.01517378 1 0 1
0.07899522 0.0594826 0.01400279 1 0 1
0.07982258 0.0596174 0.01364301 1 0 1
0.08064851 0.05975424 0.0132806 1 0 1
0.08190108 0.05948757 0.01372316 1 0 1
0.08272763 0.05962906 0.01335389 1 0 1
0.08355273 0.05977264 0.01298195 1 0 1
0.08437636 0.05991823 0.01260741 1 0 1
0.08519846 0.06006583 0.01223021 1 0 1
0.08601907 0.0602155 0.01185041 1 0 1
0.08728735 0.05996539 0.01226598 1 0 1
0.08810839 0.06011977 0.01187931 1 0 1
0.08938405 0.05987572 0.01228468 1 0 1
0.09020548 0.06003486 0.01189111 1 0 1
0.09102531 0.06019603 0.01149489 1 0 1
0.09184355 0.06035922 0.01109607 1 0 1
0.09360031 0.05972903 0.01227056 1 0 1
0.09489571 0.05950078 0.01264932 1 0 1
0.09619639 0.05927595 0.01302204 1 0 1
0.09846308 0.05826356 0.01495422 1 0 1
0.1002648 0.05765244 0.01609227 1 0 1
0.1020786 0.05704641 0.01722061 1 0 1
0.1039043 0.05644548 0.01833922 1 0 1
0.1057418 0.05584972 0.01944801 1 0 1
0.1060988 0.05643459 0.01822506 1 0 1
0.1079498 0.05584697 0.0193195 1 0 1
0.1093082 0.05565491 0.01963359 1 0 1
0.1121945 0.05429824 0.02224691 1 0 1
0.04247529 0.03034781 0.07859751 1 0 1
0.0435757 0.03037164 0.07834331 1 0 1
0.04489303 0.02996902 0.07896221 1 0 1
0.04555227 0.03085597 0.07694852 1 0 1
0.04619542 0.03174505 0.07493503 1 0 1
0.04636406 0.03349366 0.07117384 1 0 1
0.04673446 0.03481521 0.06828962 1 0 1
0.04684439 0.0365669 0.06453569 1 0 1
0.04764482 0.03703509 0.06339918 1 0 1
0.04843672 0.03750542 0.06226128 1 0 1
0.04946828 0.03754992 0.06199106 1 0 1
0.05075076 0.03716906 0.06258559 1 0 1
0.05229548 0.03636334 0.06404187 1 0 1
0.05437315 0.03470602 0.06722269 1 0 1
0.0570063 0.0321983 0.07212187 1 0 1
0.06021749 0.02884153 0.07873291 1 0 1
0.06402911 0.02463718 0.08704922 1 0 1
0.06764021 0.02086655 0.09447869 1 0 1
0.07020466 0.01880819 0.09844207 1 0 1
0.07195944 0.01803339 0.09981188 1 0 1
0.07287078 0.01853993 0.09859791 1 0 1
0.07406276 0.01862322 0.09823972 1 0 1
0.0755466 0.0182841 0.09873386 1 0 1
0.07703654 0.01794832 0.099222 1 0 1
0.07823199 0.01804073 0.09884997 1 0 1
0.07912166 0.01856047 0.09762135 1 0 1
0.0800025 0.01908245 0.09639129 1 0 1
0.08025096 0.02045428 0.09345903 1 0 1
0.08110667 0.02098 0.09222852 1 0 1
0.08227278 0.02108471 0.09184469 1 0 1
0.08311451 0.02161506 0.09061037 1 0 1
0.0839474 0.02214746 0.08937483 1 0 1
0.08510173 0.02225985 0.08898229 1 0 1
0.08625451 0.022375 0.08858605 1 0 1
0.08706818 0.0229143 0.08734444 1 0 1
0.087873 0.02345561 0.0861017 1 0 1
0.08866892 0.0239989 0.0848579 1 0 1
0.08910733 0.02496433 0.08277526 1 0 1
0.08741587 0.02844956 0.07567556 1 0 1
0.08424056 0.03360825 0.065253 1 0 1
0.07953784 0.040435 0.05152427 1 0 1
0.07435378 0.04766877 0.03700322 1 0 1
0.07197957 0.05154531 0.02917407 1 0 1
0.07176161 0.05291039 0.02634478 1 0 1
0.07189471 0.05385767 0.02434934 1 0 1
0.07201198 0.05480519 0.02235666 1 0 1
0.07287625 0.05492061 0.0220178 1 0 1
0.07335416 0.0554538 0.02085214 1 0 1
0.07382354 0.05598807 0.01968659 1 0 1
0.07428442 0.05652343 0.01852123 1 0 1
0.07513247 0.05664572 0.01817569 1 0 1
0.07597917 0.05677004 0.01782749 1 0 1
0.07682453 0.05689646 0.01747653 1 0 1
0.0776685 0.05702492 0.01712292 1 0 1
0.07851107 0.05715549 0.01676659 1 0 1
0.07893856 0.05769952 0.01559543 1 0 1
0.07935753 0.0582445 0.01442462 1 0 1
0.08018874 0.05838008 0.01406335 1 0 1
0.08101848 0.05851771 0.0136994 1 0 1
0.08184681 0.0586574 0.01333283 1 0 1
0.08267367 0.05879911 0.01296358 1 0 1
0.08349904 0.05894289 0.01259173 1 0 1
0.08476141 0.05868145 0.01301844 1 0 1
0.08514535 0.05923654 0.0118401 1 0 1
0.08641172 0.05898044 0.01225832 1 0 1
0.08723462 0.05913305 0.01187432 1 0 1
0.08850838 0.05888299 0.0122824 1 0 1
0.08933167 0.05904029 0.01189148 1 0 1
0.09061284 0.05879635 0.01228934 1 0 1
0.09143644 0.05895846 0.01189151 1 0 1
0.09272482 0.05872067 0.01227906 1 0 1
0.09401846 0.05848633 0.01266058 1 0 1
0.09531745 0.05825549 0.01303605 1 0 1
0.09662168 0.05802813 0.01340548 1 0 1
0.09841125 0.05740523 0.0145499 1 0 1
0.1002129 0.05678732 0.01568473 1 0 1
0.1020265 0.05617452 0.01680982 1 0 1
0.1038521 0.05556683 0.01792521 1 0 1
0.1051957 0.05536043 0.01825668 1 0 1
0.1055498 0.05594835 0.01703732 1 0 1
0.1068966 0.05574779 0.0173598 1 0 1
0.1102646 0.05397585 0.02075072 1 0 1
0.1121423 0.05339297 0.02182012 1 0 1
0.1165856 0.05085465 0.02670463 1 0 1
0.04370087 0.02890841 0.0787342 1 0 1
0.04502206 0.02850225 0.0793505 1 0 1
0.04568606 0.02939644 0.07733917 1 0 1
0.04633394 0.03029279 0.07532796 1 0 1
0.04650791 0.03205576 0.07157248 1 0 1
0.04688334 0.03338811 0.06869234 1 0 1
0.04723508 0.03472223 0.06581441 1 0 1
0.0480437 0.03519431 0.06467758 1 0 1
0.04908784 0.03523685 0.06440767 1 0 1
0.05013105 0.03528184 0.0641344 1 0 1
0.05142489 0.03489794 0.06472421 1 0 1
0.05323603 0.03365451 0.06703938 1 0 1
0.05532793 0.03198371 0.07020935 1 0 1
0.05771184 0.02988623 0.0742309 1 0 1
0.06119901 0.02607104 0.08168752 1 0 1
0.06448229 0.02269268 0.08826032 1 0 1
0.06727608 0.02018089 0.09309212 1 0 1
0.06955781 0.01853447 0.09618908 1 0 1
0.07102319 0.01818178 0.09669974 1 0 1
0.07220938 0.01826185 0.09634752 1 0 1
0.07368346 0.01791557 0.09684721 1 0 1
0.07516368 0.01757265 0.09734084 1 0 1
0.07664999 0.01723318 0.09782831 1 0 1
0.07784206 0.01732538 0.09745745 1 0 1
0.07872869 0.0178485 0.09623168 1 0 1
0.07960647 0.01837385 0.09500439 1 0 1
0.08016392 0.0193288 0.09292704 1 0 1
0.08102031 0.01985821 0.09169821 1 0 1
0.08154896 0.02081648 0.08962182 1 0 1
0.08270658 0.02092343 0.08923668 1 0 1
0.08386273 0.02103318 0.08884783 1 0 1
0.08468743 0.02157138 0.08761276 1 0 1
0.08583694 0.02168632 0.08721774 1 0 1
0.0869849 0.02180402 0.0868191 1 0 1
0.08779036 0.02234906 0.08557803 1 0 1
0.08824224 0.02332023 0.08349849 1 0 1
0.08867788 0.02429252 0.08142056 1 0 1
0.08733722 0.02738262 0.07517042 1 0 1
0.08380977 0.03300707 0.06393468 1 0 1
0.07874855 0.04031295 0.0494021 1 0 1
0.07392491 0.04718436 0.03574318 1 0 1
0.0715497 0.05109262 0.02793052 1 0 1
0.07132917 0.05246803 0.02510774 1 0 1
0.07145943 0.05342213 0.02311703 1 0 1
0.07157391 0.05437646 0.02112916 1 0 1
0.07205372 0.05491128 0.01996794 1 0 1
0.07290969 0.05502796 0.0196292 1 0 1
0.07337602 0.05556548 0.0184668 1 0 1
0.07422572 0.05568583 0.01812402 1 0 1
0.0750741 0.05580828 0.01777854 1 0 1
0.07552199 0.05634997 0.01661384 1 0 1
0.07636403 0.05647603 0.01626443 1 0 1
0.07720471 0.05660415 0.01591234 1 0 1
0.07845382 0.05631881 0.0163696 1 0 1
0.07929526 0.05645161 0.01601063 1 0 1
0.07971832 0.05700092 0.01484001 1 0 1
0.08013283 0.05755111 0.01366979 1 0 1
0.08096288 0.05768894 0.01330595 1 0 1
0.08179148 0.05782884 0.0129394 1 0 1
0.08261862 0.05797078 0.01257022 1 0 1
0.08344431 0.05811476 0.01219841 1 0 1
0.0842685 0.05826081 0.01182395 1 0 1
0.08509117 0.05840889 0.01144689 1 0 1
0.08680283 0.05773997 0.01265979 1 0 1
0.08762951 0.05789341 0.01227424 1 0 1
0.08845463 0.05804895 0.01188602 1 0 1
0.08973391 0.05779896 0.01228654 1 0 1
0.09101859 0.05755241 0.01268111 1 0 1
0.09138332 0.05812162 0.01149368 1 0 1
0.09267175 0.05788058 0.01187962 1 0 1
0.09349591 0.05804775 0.01147496 1 0 1
0.09479148 0.05781293 0.01185052 1 0 1
0.0960923 0.05758161 0.01222005 1 0 1
0.09835827 0.05654859 0.0141424 1 0 1
0.09967643 0.05632581 0.01449623 1 0 1
0.1014865 0.05570548 0.01561986 1 0 1
0.1033085 0.05509029 0.01673375 1 0 1
0.1046488 0.05487989 0.01706543 1 0 1
0.105 0.05547088 0.01584961 1 0 1
0.105843 0.05566435 0.01540351 1 0 1
0.107692 0.05506545 0.01648876 1 0 1
0.1090454 0.05486833 0.01679882 1 0 1
0.1114249 0.05388363 0.0186293 1 0 1
0.04229663 0.0282887 0.07762391 1 0 1
0.04361107 0.02787626 0.07824367 1 0 1
0.04493228 0.02746659 0.07885814 1 0 1
0.04581822 0.02793182 0.07772249 1 0 1
0.04647085 0.02883539 0.07571366 1 0 1
0.04687878 0.03017687 0.07283448 1 0 1
0.04726302 0.03152021 0.06995741 1 0 1
0.04762357 0.03286526 0.06708261 1 0 1
0.04844037 0.03334121 0.06594545 1 0 1
0.04949242 0.03338406 0.06567354 1 0 1
0.05079105 0.0329943 0.06626398 1 0 1
0.05209623 0.0326074 0.06684899 1 0 1
0.05417321 0.03091915 0.0700196 1 0 1
0.05653821 0.02880039 0.07404126 1 0 1
0.05920241 0.02625179 0.07891066 1 0 1
0.06244346 0.02284 0.08548515 1 0 1
0.06520326 0.0203022 0.09032005 1 0 1
0.06745912 0.01863719 0.09342152 1 0 1
0.06891087 0.01827726 0.09393857 1 0 1
0.07036888 0.01792055 0.09444968 1 0 1
0.07154796 0.01800021 0.09409966 1 0 1
0.07301464 0.01764995 0.09459984 1 0 1
0.07478008 0.01687059 0.09594685 1 0 1
0.07596641 0.01695951 0.09558204 1 0 1
0.07745149 0.01661937 0.09606407 1 0 1
0.07833504 0.01714586 0.09484107 1 0 1
0.07951728 0.01724331 0.09446489 1 0 1
0.08007567 0.01820547 0.09239089 1 0 1
0.0809327 0.01873855 0.09116375 1 0 1
0.08178093 0.01927382 0.08993526 1 0 1
0.08262027 0.01981119 0.08870555 1 0 1
0.08345077 0.02035068 0.08747455 1 0 1
0.08460213 0.02046295 0.08708327 1 0 1
0.08541862 0.02100693 0.08584865 1 0 1
0.08690039 0.02069589 0.0862896 1 0 1
0.08770647 0.02124466 0.08505024 1 0 1
0.08815926 0.0222231 0.08297411 1 0 1
0.08859582 0.02320265 0.08089957 1 0 1
0.08725736 0.0263178 0.07466125 1 0 1
0.08337829 0.032415 0.06261589 1 0 1
0.07831825 0.03978093 0.04811351 1 0 1
0.07349548 0.04670886 0.03448307 1 0 1
0.0711193 0.05064875 0.02668712 1 0 1
0.07089622 0.05203448 0.02387079 1 0 1
0.07102367 0.05299538 0.02188492 1 0 1
0.07151255 0.05353276 0.02072533 1 0 1
0.07199291 0.05407126 0.01956584 1 0 1
0.07284916 0.05418814 0.01922711 1 0 1
0.07331603 0.05472937 0.01806646 1 0 1
0.074166 0.05484988 0.01772367 1 0 1
0.07461938 0.05539374 0.01656198 1 0 1
0.07546309 0.05551789 0.01621528 1 0 1
0.0763054 0.05564413 0.01586589 1 0 1
0.07674036 0.05619209 0.01470204 1 0 1
0.07798593 0.05590286 0.01515913 1 0 1
0.07882412 0.0560353 0.01480174 1 0 1
0.07924414 0.05658775 0.01363438 1 0 1
0.0800759 0.05672374 0.01327319 1 0 1
0.08090623 0.05686181 0.01290935 1 0 1
0.08173511 0.05700191 0.01254288 1 0 1
0.08256254 0.05714408 0.01217376 1 0 1
0.08382294 0.05687334 0.01260143 1 0 1
0.08465095 0.05702021 0.01222546 1 0 1
0.08503596 0.05758283 0.01105061 1 0 1
0.0863024 0.05732016 0.01146557 1 0 1
0.08712588 0.05747321 0.0110817 1 0 1
0.08839979 0.05721655 0.01148656 1 0 1
0.08967913 0.0569633 0.01188544 1 0 1
0.0905049 0.05712386 0.01149039 1 0 1
0.09132908 0.05728648 0.01109272 1 0 1
0.09261758 0.05704214 0.01147707 1 0 1
0.09391141 0.05680127 0.01185537 1 0 1
0.09521051 0.05656392 0.01222764 1 0 1
0.09651484 0.05633006 0.01259384 1 0 1
0.09830417 0.05569363 0.01373173 1 0 1
0.09962235 0.05546761 0.01408396 1 0 1
0.1009457 0.05524518 0.01443007 1 0 1
0.1022741 0.05502641 0.01476991 1 0 1
0.1036077 0.05481127 0.01510358 1 0 1
0.1039525 0.05540453 0.01389312 1 0 1
0.1047891 0.05559677 0.01345073 1 0 1
0.1066311 0.05498955 0.01453631 1 0 1
0.1069638 0.05558763 0.01332146 1 0 1
0.1088191 0.05498866 0.01439263 1 0 1
0.04181513 0.02326241 0.08550511 1 0 1
0.04151445 0.02636118 0.07913059 1 0 1
0.04283359 0.02594263 0.07975128 1 0 1
0.04352026 0.02684621 0.07774921 1 0 1
0.04462459 0.02687267 0.07749028 1 0 1
0.04572806 0.02690174 0.07722784 1 0 1
0.04660612 0.02737289 0.07609213 1 0 1
0.0472474 0.0282858 0.07408585 1 0 1
