ply
format ascii 1.0
Comment Generated by Floating Hands
element vertex 1248
property double x
property double y
property double z
property uchar red
property uchar green
property uchar blue
end_header
-0.07497805 -0.2184624 0.3284974 1 0 1
-0.07281878 -0.2200497 0.3300601 1 0 1
-0.07038262 -0.2197838 0.3292679 1 0 1
-0.06803638 -0.220128 0.3292512 1 0 1
-0.06561037 -0.2198484 0.3284448 1 0 1
-0.06326664 -0.2201801 0.3284138 1 0 1
-0.0607798 -0.2192681 0.326811 1 0 1
-0.05830795 -0.2183481 0.3252012 1 0 1
0.1103712 -0.05549124 0.09242956 1 0 1
0.1096678 -0.05221321 0.08849148 1 0 1
0.11087 -0.05199209 0.0880136 1 0 1
0.1112855 -0.05054758 0.08615535 1 0 1
0.1112887 -0.04849319 0.08361246 1 0 1
0.1120674 -0.04765704 0.0824459 1 0 1
0.1132402 -0.04742701 0.08196286 1 0 1
0.1135974 -0.04597931 0.08011132 1 0 1
0.1143486 -0.04513783 0.07894342 1 0 1
0.1150907 -0.04429458 0.07777511 1 0 1
0.1158237 -0.04344967 0.07660647 1 0 1
0.1165474 -0.0426031 0.07543755 1 0 1
0.1172621 -0.04175493 0.07426837 1 0 1
0.1175394 -0.04030246 0.07242561 1 0 1
0.1173688 -0.03824804 0.06991407 1 0 1
0.1180453 -0.03739756 0.06874906 1 0 1
0.118274 -0.03594532 0.06691535 1 0 1
0.1180441 -0.03389371 0.0644178 1 0 1
0.1191287 -0.03364013 0.06392288 1 0 1
0.1202112 -0.03338358 0.06342483 1 0 1
0.1203858 -0.03192992 0.06159924 1 0 1
0.1219135 -0.03226526 0.06175865 1 0 1
0.1220665 -0.03080993 0.05993502 1 0 1
0.1226667 -0.02994952 0.05877205 1 0 1
0.1227911 -0.0284944 0.0569538 1 0 1
0.1233698 -0.02763256 0.05579305 1 0 1
0.1239394 -0.02676959 0.05463263 1 0 1
0.1249772 -0.0264964 0.05412301 1 0 1
0.1250515 -0.02504043 0.05231282 1 0 1
0.1260781 -0.02476326 0.05180056 1 0 1
0.1271026 -0.02448325 0.05128532 1 0 1
0.1271429 -0.02302614 0.04947991 1 0 1
0.1276617 -0.02215615 0.04832036 1 0 1
0.1281715 -0.02128525 0.04716139 1 0 1
0.1291736 -0.02099767 0.04664125 1 0 1
0.1301735 -0.02070729 0.04611826 1 0 1
0.1311712 -0.02041411 0.04559232 1 0 1
0.1316552 -0.01953689 0.04443054 1 0 1
0.1331598 -0.01981928 0.04453171 1 0 1
0.1341508 -0.01951762 0.04399702 1 0 1
0.1351395 -0.01921316 0.04345943 1 0 1
0.1366508 -0.019483 0.04354458 1 0 1
0.1376383 -0.01917191 0.0429994 1 0 1
0.1391551 -0.01943298 0.04307327 1 0 1
0.1396063 -0.01854127 0.04190031 1 0 1
0.1405868 -0.01822176 0.04134648 1 0 1
-0.1244854 -0.2043055 0.3167439 1 0 1
-0.1234492 -0.2090081 0.3223377 1 0 1
-0.122012 -0.2125072 0.3263725 1 0 1
-0.1200281 -0.2141928 0.3280689 1 0 1
-0.1178622 -0.2152695 0.3289807 1 0 1
-0.115526 -0.2157352 0.3291075 1 0 1
-0.1127167 -0.2143722 0.3268913 1 0 1
-0.1103894 -0.2148238 0.3270032 1 0 1
-0.1077617 -0.2140513 0.3255499 1 0 1
-0.1050026 -0.2126603 0.3233098 1 0 1
-0.1031162 -0.2149219 0.3257369 1 0 1
-0.1010673 -0.2165709 0.3273786 1 0 1
-0.09792969 -0.2133214 0.3227775 1 0 1
-0.09574836 -0.214346 0.3236252 1 0 1
-0.0933057 -0.2141394 0.3229066 1 0 1
-0.090992 -0.2145396 0.3229604 1 0 1
-0.08867734 -0.2149339 0.3230071 1 0 1
-0.08647619 -0.2159377 0.3238268 1 0 1
-0.08404485 -0.215705 0.3230794 1 0 1
-0.08194076 -0.2173147 0.324665 1 0 1
-0.07961438 -0.2176867 0.3246834 1 0 1
-0.07718808 -0.2174351 0.3239146 1 0 1
-0.07486377 -0.2177947 0.3239188 1 0 1
-0.07272104 -0.2193864 0.3254762 1 0 1
-0.07030003 -0.2191157 0.324686 1 0 1
-0.06780272 -0.2182179 0.3231088 1 0 1
-0.06539978 -0.2179326 0.3223046 1 0 1
-0.06315502 -0.2188826 0.3230533 1 0 1
-0.06075848 -0.2185844 0.322235 1 0 1
-0.05830137 -0.2176568 0.32063 1 0 1
0.1083707 -0.05137395 0.08561312 1 0 1
0.1103387 -0.05238198 0.08651461 1 0 1
0.1107515 -0.05093183 0.08466291 1 0 1
0.111148 -0.04948115 0.08281354 1 0 1
0.1127255 -0.04986503 0.08301578 1 0 1
0.1139056 -0.04963328 0.08252995 1 0 1
0.1142709 -0.04817785 0.08068062 1 0 1
0.1146199 -0.04672204 0.07883379 1 0 1
0.1153661 -0.04587476 0.07766668 1 0 1
0.115269 -0.04380971 0.07514814 1 0 1
0.1159897 -0.04296059 0.07398345 1 0 1
0.1167013 -0.04210984 0.0728185 1 0 1
0.1174038 -0.04125756 0.07165335 1 0 1
0.1176658 -0.03979873 0.06981869 1 0 1
0.1183464 -0.03894415 0.06865481 1 0 1
0.1185796 -0.03748472 0.06682465 1 0 1
0.1187965 -0.03602551 0.06499766 1 0 1
0.1198882 -0.03576998 0.06449983 1 0 1
0.1205288 -0.03491049 0.06333739 1 0 1
0.1211604 -0.03404972 0.0621751 1 0 1
0.1222388 -0.03378681 0.06167099 1 0 1
0.1228557 -0.0329226 0.0605073 1 0 1
0.1230005 -0.03145964 0.05868896 1 0 1
0.1231293 -0.02999729 0.05687418 1 0 1
0.1237119 -0.02913117 0.05571443 1 0 1
0.1242855 -0.02826399 0.05455504 1 0 1
0.1253269 -0.02798951 0.05404404 1 0 1
0.1258858 -0.02711922 0.05288365 1 0 1
0.1264357 -0.02624784 0.05172361 1 0 1
0.1269765 -0.02537546 0.05056405 1 0 1
0.1270178 -0.02391196 0.04876378 1 0 1
0.1270431 -0.02244946 0.04696756 1 0 1
0.1280475 -0.02216437 0.04645073 1 0 1
0.1290496 -0.02187642 0.04593096 1 0 1
0.1300496 -0.02158563 0.04540822 1 0 1
0.1310474 -0.02129209 0.04488263 1 0 1
0.1320429 -0.02099567 0.04435409 1 0 1
0.1330362 -0.02069643 0.04382263 1 0 1
0.1340273 -0.02039441 0.0432883 1 0 1
0.1355372 -0.02067066 0.04337614 1 0 1
0.1360026 -0.01978189 0.04221092 1 0 1
0.1375147 -0.02005046 0.04228931 1 0 1
0.1384999 -0.01973612 0.04174155 1 0 1
0.1389484 -0.01884212 0.04057329 1 0 1
0.1399257 -0.01852327 0.04002167 1 0 1
-0.1249847 -0.1989187 0.3066415 1 0 1
-0.1247462 -0.2060571 0.315319 1 0 1
-0.1233591 -0.2095681 0.3193452 1 0 1
-0.1219319 -0.2130813 0.3233668 1 0 1
-0.1199567 -0.214772 0.3250571 1 0 1
-0.1176336 -0.2152419 0.3251897 1 0 1
-0.1148243 -0.2138767 0.3229873 1 0 1
-0.1121946 -0.2131116 0.3215528 1 0 1
-0.1098867 -0.21356 0.321663 1 0 1
-0.1074275 -0.2133907 0.3209896 1 0 1
-0.1046827 -0.2119885 0.3187554 1 0 1
-0.1029554 -0.2148704 0.3219509 1 0 1
-0.1009191 -0.2165239 0.3235866 1 0 1
-0.09779049 -0.2132551 0.3189991 1 0 1
-0.09549078 -0.2136657 0.3190662 1 0 1
-0.09318992 -0.2140703 0.3191263 1 0 1
-0.09088801 -0.2144692 0.3191793 1 0 1
-0.0883472 -0.213627 0.3176703 1 0 1
-0.08639599 -0.2158676 0.3200416 1 0 1
-0.08397599 -0.2156307 0.319296 1 0 1
-0.08177724 -0.2166257 0.3200984 1 0 1
-0.07946649 -0.2169958 0.3201161 1 0 1
-0.07715482 -0.2173601 0.3201269 1 0 1
-0.07484226 -0.2177185 0.3201305 1 0 1
-0.07271213 -0.219315 0.3216824 1 0 1
-0.070127 -0.2177951 0.3193389 1 0 1
-0.06773219 -0.2175121 0.3185438 1 0 1
-0.06550423 -0.2184695 0.3192968 1 0 1
-0.06319181 -0.2187978 0.3192652 1 0 1
-0.06080658 -0.2184955 0.3184491 1 0 1
-0.05842853 -0.2181861 0.317626 1 0 1
0.1101949 -0.05337931 0.08570174 1 0 1
0.1106087 -0.05192285 0.08385517 1 0 1
0.1110061 -0.05046588 0.08201099 1 0 1
0.1125833 -0.05085248 0.08221097 1 0 1
0.1137634 -0.05062046 0.08172543 1 0 1
0.1145356 -0.04977196 0.08055884 1 0 1
0.1152986 -0.04892162 0.07939176 1 0 1
0.1164655 -0.04868137 0.07889893 1 0 1
0.1163805 -0.04660475 0.07638346 1 0 1
0.1171124 -0.04575003 0.07521686 1 0 1
0.1174115 -0.04428421 0.07338 1 0 1
0.1181215 -0.04342703 0.07221446 1 0 1
0.1179607 -0.04135234 0.06971494 1 0 1
0.1186454 -0.04049361 0.06855215 1 0 1
0.118883 -0.03902708 0.06672561 1 0 1
0.1191045 -0.03756072 0.06490218 1 0 1
0.1201997 -0.03730405 0.064403 1 0 1
0.1208444 -0.03644038 0.06324171 1 0 1
0.12148 -0.03557545 0.06208052 1 0 1
0.1230175 -0.03591353 0.06223068 1 0 1
0.1231828 -0.0344429 0.06041239 1 0 1
0.1233321 -0.03297278 0.05859758 1 0 1
0.1234653 -0.03150319 0.05678631 1 0 1
0.1240519 -0.03063292 0.05562771 1 0 1
0.1241566 -0.02916365 0.05382197 1 0 1
0.125198 -0.02888881 0.05331124 1 0 1
0.1257575 -0.02801519 0.05215359 1 0 1
0.1263079 -0.02714045 0.05099629 1 0 1
0.1268492 -0.02626475 0.04983951 1 0 1
0.1268914 -0.02479491 0.0480444 1 0 1
0.1269177 -0.02332607 0.04625334 1 0 1
0.1274251 -0.02244943 0.04510158 1 0 1
0.128424 -0.02216209 0.04458387 1 0 1
0.1294206 -0.02187195 0.04406328 1 0 1
0.1309223 -0.02216713 0.04416966 1 0 1
0.1319179 -0.02187034 0.04364145 1 0 1
0.1329113 -0.02157075 0.04311034 1 0 1
0.1344198 -0.02185344 0.04320082 1 0 1
0.1354121 -0.02154716 0.04266208 1 0 1
0.136402 -0.02123804 0.04212047 1 0 1
0.1379171 -0.02150811 0.04219493 1 0 1
0.1389058 -0.02119234 0.04164571 1 0 1
0.1398922 -0.02087369 0.04109357 1 0 1
0.1408762 -0.02055222 0.04053854 1 0 1
-0.1263523 -0.2042788 0.3098696 1 0 1
-0.1251889 -0.2084117 0.3146597 1 0 1
-0.1232678 -0.2101102 0.3163554 1 0 1
-0.1218506 -0.2136375 0.3203637 1 0 1
-0.119884 -0.2153333 0.322048 1 0 1
-0.1175687 -0.2158024 0.3221795 1 0 1
-0.1147659 -0.2144275 0.3199834 1 0 1
-0.1124595 -0.2148826 0.3201 1 0 1
-0.1098431 -0.2141034 0.3186617 1 0 1
-0.1072409 -0.2133153 0.3172158 1 0 1
-0.1043599 -0.211287 0.3142136 1 0 1
-0.1026499 -0.2141787 0.3173981 1 0 1
-0.1003526 -0.2146016 0.3174787 1 0 1
-0.09737954 -0.2119293 0.3136792 1 0 1
-0.09496824 -0.2117185 0.3129705 1 0 1
-0.09307216 -0.2139775 0.3153537 1 0 1
-0.09065869 -0.2137551 0.314631 1 0 1
-0.08849073 -0.2147667 0.3154511 1 0 1
-0.08642932 -0.216395 0.3170393 1 0 1
-0.08412825 -0.2167763 0.3170705 1 0 1
-0.08182625 -0.2171518 0.3170947 1 0 1
-0.07962714 -0.2181445 0.3178871 1 0 1
-0.07731941 -0.2185087 0.3178971 1 0 1
-0.07491482 -0.2182428 0.3171251 1 0 1
-0.07279347 -0.2198447 0.3186715 1 0 1
-0.07030298 -0.2189408 0.3171101 1 0 1
-0.06799596 -0.219281 0.3170921 1 0 1
-0.06568813 -0.2196152 0.317067 1 0 1
-0.06345611 -0.2205708 0.31781 1 0 1
-0.06099792 -0.2196383 0.3162209 1 0 1
-0.05896657 -0.2224676 0.3192745 1 0 1
0.105788 -0.04755619 0.07737762 1 0 1
0.1085093 -0.0498153 0.0796385 1 0 1
0.1112576 -0.05206574 0.08188429 1 0 1
0.1132363 -0.05307206 0.08275874 1 0 1
0.1148256 -0.0534553 0.08294713 1 0 1
0.1160145 -0.05321757 0.08245394 1 0 1
0.1167924 -0.05236106 0.08128358 1 0 1
0.117561 -0.05150273 0.08011281 1 0 1
0.1174881 -0.04941459 0.0776004 1 0 1
0.1182313 -0.04855431 0.07643195 1 0 1
0.1181186 -0.04646732 0.07392806 1 0 1
0.1188363 -0.04560527 0.07276216 1 0 1
0.1182535 -0.04290879 0.06960271 1 0 1
0.1189423 -0.042046 0.06844112 1 0 1
0.1191844 -0.04057234 0.06661816 1 0 1
0.1198513 -0.03970734 0.06545797 1 0 1
0.1205092 -0.03884101 0.06429782 1 0 1
0.1216059 -0.03858009 0.06379411 1 0 1
0.122249 -0.0377101 0.06263237 1 0 1
0.1237932 -0.03804914 0.06277715 1 0 1
0.1235079 -0.03596617 0.06030921 1 0 1
0.1231995 -0.03388544 0.05784803 1 0 1
0.1237992 -0.03301207 0.05669017 1 0 1
0.1243898 -0.03213751 0.05553258 1 0 1
0.1244989 -0.03066109 0.05373041 1 0 1
0.1255439 -0.03038497 0.05321828 1 0 1
0.1265866 -0.03010597 0.05270315 1 0 1
0.1266616 -0.02862806 0.05090544 1 0 1
0.1267207 -0.02715106 0.04911163 1 0 1
0.1272535 -0.02627098 0.047958 1 0 1
0.1272841 -0.02479488 0.04617042 1 0 1
0.1277955 -0.02391392 0.04501962 1 0 1
0.1287978 -0.0236252 0.04450049 1 0 1
0.129798 -0.0233337 0.04397845 1 0 1
0.1313027 -0.02363048 0.04408093 1 0 1
0.1323018 -0.02333231 0.04355128 1 0 1
0.1332987 -0.0230313 0.04301872 1 0 1
0.1342933 -0.02272741 0.04248321 1 0 1
0.1352856 -0.02242074 0.04194482 1 0 1
0.1362757 -0.02211122 0.04140355 1 0 1
0.1377904 -0.02238386 0.04147595 1 0 1
0.1387792 -0.02206764 0.04092704 1 0 1
0.1397657 -0.02174858 0.04037527 1 0 1
0.1412867 -0.0220084 0.04043154 1 0 1
-0.1241242 -0.1902647 0.2890478 1 0 1
-0.1264262 -0.2053923 0.3076743 1 0 1
-0.124724 -0.2077077 0.3101391 1 0 1
-0.1231752 -0.2106348 0.3133686 1 0 1
-0.1215939 -0.2135626 0.316593 1 0 1
-0.1192995 -0.2140344 0.3167298 1 0 1
-0.1168373 -0.2138855 0.3160887 1 0 1
-0.1140565 -0.2124978 0.313898 1 0 1
-0.1117733 -0.2129491 0.3140127 1 0 1
-0.1093341 -0.2127773 0.3133491 1 0 1
-0.107203 -0.2138342 0.3142213 1 0 1
-0.104622 -0.2130306 0.3127716 1 0 1
-0.1027708 -0.2153155 0.3151737 1 0 1
-0.1006166 -0.2163585 0.3160256 1 0 1
-0.09764144 -0.2136721 0.3122377 1 0 1
-0.09522985 -0.213459 0.3115309 1 0 1
-0.09320756 -0.2151054 0.3131338 1 0 1
-0.09055025 -0.2136342 0.310868 1 0 1
-0.08827461 -0.2140239 0.3109122 1 0 1
-0.0863457 -0.2162804 0.3132673 1 0 1
-0.08416838 -0.2172852 0.3140704 1 0 1
-0.08165804 -0.216409 0.3125486 1 0 1
-0.07957919 -0.2180289 0.3141105 1 0 1
-0.07718289 -0.2177653 0.3133473 1 0 1
-0.07479355 -0.2174945 0.3125771 1 0 1
-0.07259625 -0.2184727 0.3133454 1 0 1
-0.07012445 -0.2175605 0.3117885 1 0 1
-0.06783694 -0.2178983 0.3117701 1 0 1
-0.06554873 -0.2182304 0.3117448 1 0 1
-0.06318286 -0.2179263 0.3109399 1 0 1
-0.06097022 -0.2188768 0.3116732 1 0 1
-0.05895636 -0.2217165 0.3147167 1 0 1
0.1107186 -0.0524256 0.0803948 1 0 1
0.1126929 -0.05343828 0.08126595 1 0 1
0.1134752 -0.05258502 0.08010527 1 0 1
0.1146535 -0.05234918 0.0796168 1 0 1
0.1158297 -0.05211005 0.07912488 1 0 1
0.117004 -0.05186772 0.07862953 1 0 1
0.1165131 -0.04915401 0.07545817 1 0 1
0.1176689 -0.04890823 0.07496215 1 0 1
0.117977 -0.04742823 0.07313254 1 0 1
0.1191216 -0.04717757 0.07263288 1 0 1
0.1189742 -0.045082 0.07014403 1 0 1
0.1196706 -0.0442143 0.06898202 1 0 1
0.1199207 -0.04273275 0.06716113 1 0 1
0.1205952 -0.04186283 0.06600047 1 0 1
0.1212606 -0.0409915 0.06483984 1 0 1
0.1223645 -0.0407286 0.06433322 1 0 1
0.1230151 -0.03985361 0.06317098 1 0 1
0.1236565 -0.03897725 0.06200883 1 0 1
0.1238308 -0.03749232 0.06019766 1 0 1
0.1235273 -0.03540147 0.05774252 1 0 1
0.1245961 -0.03512938 0.05723152 1 0 1
0.1247256 -0.03364513 0.05542926 1 0 1
0.1253111 -0.03276517 0.05427302 1 0 1
0.1258876 -0.0318841 0.05311709 1 0 1
0.1264549 -0.03100192 0.05196155 1 0 1
0.1265308 -0.02951777 0.05016908 1 0 1
0.1270766 -0.02863442 0.04901604 1 0 1
0.1276135 -0.02775008 0.04786348 1 0 1
0.1276485 -0.0262667 0.04607933 1 0 1
0.1281638 -0.02538143 0.04492959 1 0 1
0.1291696 -0.02509139 0.04440902 1 0 1
0.1296703 -0.02420341 0.04325872 1 0 1
0.1311747 -0.02450277 0.0433591 1 0 1
0.1321738 -0.02420418 0.04282975 1 0 1
0.1331707 -0.02390275 0.0422975 1 0 1
0.1341655 -0.02359852 0.04176238 1 0 1
0.1351579 -0.02329144 0.04122433 1 0 1
0.1356248 -0.02239258 0.04006746 1 0 1
0.1371359 -0.02266876 0.04013959 1 0 1
0.1386513 -0.02294003 0.04020515 1 0 1
0.1401711 -0.02320632 0.04026414 1 0 1
0.1411586 -0.02288295 0.03970795 1 0 1
-0.1239931 -0.1906829 0.2861435 1 0 1
-0.1268719 -0.2077217 0.3070115 1 0 1
-0.1251673 -0.2100476 0.3094685 1 0 1
-0.1232597 -0.211757 0.3111523 1 0 1
-0.1215097 -0.2140803 0.3135981 1 0 1
-0.1192231 -0.2145513 0.3137337 1 0 1
-0.1166014 -0.2137808 0.3123255 1 0 1
-0.1141569 -0.21362 0.3116781 1 0 1
-0.1117186 -0.2134518 0.3110233 1 0 1
-0.1095972 -0.2145166 0.311899 1 0 1
-0.1073153 -0.2149563 0.311999 1 0 1
-0.1047373 -0.2141468 0.3105534 1 0 1
-0.1028914 -0.2164405 0.3129474 1 0 1
-0.100602 -0.2168633 0.3130264 1 0 1
-0.09790408 -0.215409 0.3107895 1 0 1
-0.09575584 -0.2164427 0.3116241 1 0 1
-0.09359874 -0.2174718 0.3124518 1 0 1
-0.09081218 -0.2153672 0.3094228 1 0 1
-0.08841639 -0.2151309 0.3086964 1 0 1
-0.08637644 -0.2167692 0.3102734 1 0 1
-0.08398253 -0.2165207 0.3095329 1 0 1
-0.08148691 -0.2156366 0.3080154 1 0 1
-0.07931995 -0.2166315 0.3088014 1 0 1
-0.07704353 -0.2169922 0.3088104 1 0 1
-0.07457253 -0.2160863 0.3072718 1 0 1
-0.07230227 -0.216434 0.3072669 1 0 1
-0.0699421 -0.2161445 0.3064848 1 0 1
-0.0676742 -0.21648 0.306466 1 0 1
-0.06548686 -0.2174424 0.3072106 1 0 1
-0.06321362 -0.217767 0.307178 1 0 1
-0.06108662 -0.2193531 0.3086786 1 0 1
-0.05949968 -0.22601 0.3163316 1 0 1
0.112149 -0.05379524 0.07977448 1 0 1
0.1121263 -0.05169351 0.07727458 1 0 1
0.1149122 -0.05394844 0.07947166 1 0 1
0.1152757 -0.05246531 0.07764111 1 0 1
0.1168582 -0.05284417 0.07781472 1 0 1
0.1167845 -0.05073826 0.07531924 1 0 1
0.117525 -0.04987214 0.07415777 1 0 1
0.1182565 -0.04900438 0.07299605 1 0 1
0.1194048 -0.04875265 0.07249512 1 0 1
0.1192623 -0.04664703 0.07001238 1 0 1
0.1199627 -0.04577524 0.06885159 1 0 1
0.1206539 -0.0449019 0.06769063 1 0 1
0.1208959 -0.0434126 0.06587487 1 0 1
0.1215653 -0.04253711 0.06471539 1 0 1
0.1226728 -0.04227306 0.06420745 1 0 1
0.1228767 -0.04078195 0.06239645 1 0 1
0.1235187 -0.03990233 0.0612371 1 0 1
0.1236938 -0.0384111 0.05943117 1 0 1
0.1233917 -0.03631097 0.05698372 1 0 1
0.1249253 -0.03664703 0.05711636 1 0 1
0.1255274 -0.03576319 0.0559593 1 0 1
0.1256487 -0.03427144 0.05416253 1 0 1
0.1267042 -0.03399192 0.05364595 1 0 1
0.1268005 -0.03249973 0.05185321 1 0 1
0.1268808 -0.03100835 0.05006423 1 0 1
0.1269452 -0.02951782 0.04827916 1 0 1
0.1279713 -0.02923211 0.04776077 1 0 1
0.1280107 -0.02774151 0.04598011 1 0 1
0.1285299 -0.02685197 0.04483144 1 0 1
0.1290401 -0.02596148 0.04368326 1 0 1
0.1295413 -0.02507015 0.04253575 1 0 1
0.1310453 -0.0253721 0.042634 1 0 1
0.1320446 -0.02507312 0.042105 1 0 1
0.1330416 -0.0247713 0.0415731 1 0 1
0.1340363 -0.02446667 0.04103828 1 0 1
0.1355482 -0.02475214 0.04111596 1 0 1
0.136019 -0.02384887 0.03996005 1 0 1
0.1375331 -0.02412657 0.04002826 1 0 1
0.138522 -0.02380953 0.03948008 1 0 1
0.1405742 -0.02466702 0.0401449 1 0 1
0.141029 -0.02375454 0.03898116 1 0 1
-0.1261455 -0.1984751 0.2924158 1 0 1
-0.1271324 -0.2094344 0.3055722 1 0 1
-0.1252466 -0.2111522 0.3072562 1 0 1
-0.1229862 -0.2116307 0.3074036 1 0 1
-0.1210743 -0.2133419 0.3090751 1 0 1
-0.1191454 -0.2150505 0.3107406 1 0 1
-0.1161963 -0.2130317 0.3078044 1 0 1
-0.1136034 -0.2122439 0.3063918 1 0 1
-0.1115032 -0.2133144 0.3072705 1 0 1
-0.1090826 -0.2131345 0.3066096 1 0 1
-0.1065168 -0.2123234 0.3051748 1 0 1
-0.104113 -0.2121281 0.3044992 1 0 1
-0.1021477 -0.2138017 0.3061173 1 0 1
-0.09988563 -0.2142202 0.3061948 1 0 1
-0.09762225 -0.214633 0.3062655 1 0 1
-0.09549017 -0.2156675 0.3070966 1 0 1
-0.09334918 -0.2166975 0.3079208 1 0 1
-0.09082562 -0.2158367 0.3064359 1 0 1
-0.08843727 -0.2155968 0.3057112 1 0 1
-0.08640601 -0.2172403 0.3072825 1 0 1
-0.08401959 -0.2169882 0.306544 1 0 1
-0.08163991 -0.216729 0.3057984 1 0 1
-0.0793723 -0.2170948 0.3058137 1 0 1
-0.07710382 -0.2174547 0.3058221 1 0 1
-0.07454242 -0.215909 0.3035201 1 0 1
-0.07237738 -0.2168895 0.3042825 1 0 1
-0.06993517 -0.2159619 0.3027347 1 0 1
-0.06767902 -0.2162963 0.3027155 1 0 1
-0.0655856 -0.2178961 0.3042248 1 0 1
-0.06339807 -0.2188562 0.3049595 1 0 1
-0.06098036 -0.2179015 0.3033845 1 0 1
0.1167852 -0.05805111 0.08198869 1 0 1
0.1171677 -0.05655809 0.08015589 1 0 1
0.1183563 -0.05631219 0.07965505 1 0 1
0.1174686 -0.05294815 0.07583488 1 0 1
0.1182168 -0.05207725 0.07467316 1 0 1
0.1189559 -0.05120466 0.07351108 1 0 1
0.1196858 -0.05033039 0.07234877 1 0 1
0.1195483 -0.04821481 0.06987225 1 0 1
0.1198201 -0.04671985 0.06805722 1 0 1
0.1205118 -0.04584323 0.06689907 1 0 1
0.1211944 -0.04496513 0.0657408 1 0 1
0.1218678 -0.04408552 0.0645825 1 0 1
0.1225321 -0.04320449 0.06342418 1 0 1
0.122737 -0.04170715 0.06161847 1 0 1
0.1233795 -0.04082424 0.06046188 1 0 1
0.1235557 -0.03932676 0.05866123 1 0 1
0.1237157 -0.03782976 0.05686403 1 0 1
0.1252523 -0.03816753 0.05699284 1 0 1
0.1258584 -0.03727946 0.05583685 1 0 1
0.1264553 -0.03639019 0.05468116 1 0 1
0.1270432 -0.03549977 0.05352575 1 0 1
0.1271439 -0.03400039 0.05173654 1 0 1
0.1272285 -0.03250181 0.04995116 1 0 1
0.1277823 -0.03160997 0.04880028 1 0 1
0.1288153 -0.03132201 0.04827876 1 0 1
0.1288626 -0.02982318 0.04649987 1 0 1
0.1293892 -0.02892836 0.04535044 1 0 1
0.1299067 -0.02803262 0.04420158 1 0 1
0.1304152 -0.02713601 0.04305335 1 0 1
0.1309147 -0.02623848 0.04190569 1 0 1
0.131914 -0.02593915 0.04137707 1 0 1
0.1329111 -0.02563691 0.04084547 1 0 1
0.1344215 -0.02592882 0.04092572 1 0 1
0.1354175 -0.02561991 0.04038657 1 0 1
0.1364111 -0.02530812 0.03984449 1 0 1
0.1379281 -0.02558729 0.03990879 1 0 1
0.1389205 -0.02526876 0.03935909 1 0 1
0.1404429 -0.025539 0.03941201 1 0 1
0.1414338 -0.02521369 0.03885473 1 0 1
-0.1277346 -0.2044635 0.2963465 1 0 1
-0.1277674 -0.2123806 0.3056508 1 0 1
-0.1255087 -0.2128657 0.3058045 1 0 1
-0.1228898 -0.2121022 0.3044258 1 0 1
-0.1208113 -0.2131963 0.3053282 1 0 1
-0.1187235 -0.2142863 0.3062242 1 0 1
-0.1156204 -0.2116295 0.3025329 1 0 1
-0.1132099 -0.2114573 0.3018873 1 0 1
-0.1109658 -0.211903 0.3019982 1 0 1
-0.1088763 -0.2129691 0.3028663 1 0 1
-0.1063213 -0.2121506 0.3014353 1 0 1
-0.1039288 -0.211951 0.3007612 1 0 1
-0.1021207 -0.2142571 0.3031377 1 0 1
-0.09986645 -0.2146749 0.3032143 1 0 1
-0.09788436 -0.2163464 0.3048136 1 0 1
-0.09575281 -0.2173844 0.3056416 1 0 1
-0.0936124 -0.218418 0.3064628 1 0 1
-0.09108798 -0.217552 0.3049822 1 0 1
-0.08882044 -0.2179423 0.3050246 1 0 1
-0.08690359 -0.220226 0.3073555 1 0 1
-0.08450897 -0.2199729 0.306619 1 0 1
-0.08201177 -0.2190783 0.3051103 1 0 1
-0.0797403 -0.2194453 0.305125 1 0 1
-0.07726465 -0.2185352 0.3036022 1 0 1
-0.07460819 -0.2163444 0.3005421 1 0 1
-0.07235755 -0.2166905 0.3005362 1 0 1
-0.07001618 -0.2163932 0.2997581 1 0 1
-0.06785405 -0.217365 0.3005037 1 0 1
-0.06576554 -0.2189707 0.3020076 1 0 1
-0.06358242 -0.2199338 0.3027393 1 0 1
-0.06131652 -0.2202524 0.302699 1 0 1
-0.05996574 -0.2288881 0.3125962 1 0 1
0.1287444 -0.07788368 0.1011067 1 0 1
0.1219047 -0.06506909 0.08728786 1 0 1
0.1190279 -0.05854722 0.08014733 1 0 1
0.1177352 -0.05454067 0.07567627 1 0 1
0.1189055 -0.05429091 0.07517491 1 0 1
0.1192307 -0.0527891 0.07335497 1 0 1
0.1199646 -0.05191079 0.07219388 1 0 1
0.1202607 -0.05040806 0.07037807 1 0 1
0.1205406 -0.04890532 0.0685652 1 0 1
0.1208041 -0.04740255 0.06675531 1 0 1
0.1214907 -0.04652036 0.06559826 1 0 1
0.1221682 -0.04563665 0.06444115 1 0 1
0.1228365 -0.0447515 0.063284 1 0 1
0.1230459 -0.04324709 0.06148199 1 0 1
0.1232391 -0.04174298 0.05968324 1 0 1
0.1234162 -0.04023929 0.05788789 1 0 1
0.1235772 -0.03873606 0.05609598 1 0 1
0.1251134 -0.03907644 0.05622261 1 0 1
0.1261872 -0.03879855 0.05570613 1 0 1
0.1267882 -0.03790505 0.05455152 1 0 1
0.1278542 -0.03762205 0.05403049 1 0 1
0.1279627 -0.0361146 0.05224321 1 0 1
0.1280553 -0.03460792 0.05045973 1 0 1
0.1286164 -0.0337109 0.04930821 1 0 1
0.1291684 -0.03281277 0.0481571 1 0 1
0.1297114 -0.03191367 0.04700648 1 0 1
0.1302453 -0.03101358 0.04585637 1 0 1
0.130272 -0.02950762 0.04408564 1 0 1
0.1307844 -0.02860664 0.04293838 1 0 1
0.1312878 -0.02770483 0.04179182 1 0 1
0.1322906 -0.0274041 0.04126171 1 0 1
0.1327793 -0.0264996 0.04011466 1 0 1
0.1337742 -0.02619417 0.03958056 1 0 1
0.1352854 -0.02648469 0.03965395 1 0 1
0.1362791 -0.02617254 0.03911228 1 0 1
0.1367453 -0.02526083 0.03796097 1 0 1
0.1387881 -0.02613527 0.03862511 1 0 1
0.1403102 -0.02640802 0.03867595 1 0 1
0.1413013 -0.02608228 0.03811901 1 0 1
-0.1278593 -0.1981964 0.2856454 1 0 1
-0.127609 -0.204891 0.2934003 1 0 1
-0.1272802 -0.211597 0.3011541 1 0 1
-0.1250369 -0.2120794 0.3013061 1 0 1
-0.122972 -0.2131804 0.3022115 1 0 1
-0.120546 -0.2130272 0.3015895 1 0 1
-0.1184704 -0.2141185 0.3024816 1 0 1
-0.1155449 -0.2120722 0.2995625 1 0 1
-0.1131419 -0.2118962 0.2989183 1 0 1
-0.1109056 -0.2123412 0.2990282 1 0 1
-0.108668 -0.2127804 0.2991312 1 0 1
-0.1065817 -0.2138437 0.2999892 1 0 1
-0.1041889 -0.2136417 0.2993169 1 0 1
-0.1020925 -0.214695 0.3001614 1 0 1
-0.09984606 -0.215112 0.3002371 1 0 1
-0.09787278 -0.2167885 0.3018306 1 0 1
-0.0956163 -0.2171955 0.3018928 1 0 1
-0.09335872 -0.2175967 0.3019483 1 0 1
-0.0908491 -0.2167227 0.3004718 1 0 1
-0.08859719 -0.2171109 0.3005133 1 0 1
-0.08669739 -0.2194014 0.3028359 1 0 1
-0.0842042 -0.2185068 0.3013385 1 0 1
-0.08194546 -0.2188782 0.3013594 1 0 1
-0.07979186 -0.2198819 0.3021363 1 0 1
-0.07732319 -0.2189654 0.300618 1 0 1
-0.07457459 -0.2161231 0.2968046 1 0 1
-0.07233579 -0.2164678 0.2967982 1 0 1
-0.06991536 -0.2155261 0.2952595 1 0 1
-0.06776936 -0.2164991 0.2960022 1 0 1
-0.06569745 -0.2181089 0.2975007 1 0 1
-0.06353055 -0.2190733 0.2982297 1 0 1
-0.06142996 -0.2206755 0.2997141 1 0 1
0.1298839 -0.07869031 0.09964508 1 0 1
0.1217483 -0.06393876 0.08392423 1 0 1
0.1171717 -0.05487801 0.07419268 1 0 1
0.117086 -0.05274439 0.07172329 1 0 1
0.1186611 -0.05312147 0.07188005 1 0 1
0.119392 -0.05224073 0.07072335 1 0 1
0.1201137 -0.05135829 0.06956636 1 0 1
0.1208262 -0.05047429 0.06840921 1 0 1
0.1210943 -0.04896453 0.06660303 1 0 1
0.1213461 -0.0474549 0.06479997 1 0 1
0.1224664 -0.04719045 0.06429132 1 0 1
0.1226929 -0.04567958 0.06249137 1 0 1
0.1224539 -0.04354812 0.06005222 1 0 1
0.1230974 -0.04265865 0.05890126 1 0 1
0.1237318 -0.04176777 0.05775032 1 0 1
0.1243571 -0.04087565 0.05659959 1 0 1
0.1258999 -0.04121684 0.0567207 1 0 1
0.1265139 -0.04032037 0.05556698 1 0 1
0.1275891 -0.04003819 0.05504601 1 0 1
0.1277146 -0.03852386 0.05326037 1 0 1
0.1278241 -0.03701022 0.05147843 1 0 1
0.1279176 -0.03549728 0.04970022 1 0 1
0.1289633 -0.0352087 0.04917718 1 0 1
0.1295193 -0.03430634 0.04802721 1 0 1
0.1300662 -0.03340294 0.04687763 1 0 1
0.130604 -0.03249861 0.04572861 1 0 1
0.1306351 -0.03098544 0.04396144 1 0 1
0.1306503 -0.02947337 0.04219839 1 0 1
0.1311542 -0.02856824 0.04105461 1 0 1
0.132665 -0.02887194 0.04113819 1 0 1
0.1331576 -0.02796312 0.03999219 1 0 1
0.134156 -0.02765627 0.03945664 1 0 1
0.135152 -0.02734655 0.03891819 1 0 1
0.1361458 -0.02703399 0.03837684 1 0 1
0.1371373 -0.02671853 0.03783263 1 0 1
0.1386545 -0.0269988 0.03788792 1 0 1
0.1401761 -0.02727407 0.03793667 1 0 1
0.1411673 -0.0269479 0.03738012 1 0 1
-0.1296759 -0.2048166 0.2902959 1 0 1
-0.1284407 -0.2084244 0.2942425 1 0 1
-0.1275413 -0.2132862 0.2996997 1 0 1
-0.1251142 -0.213143 0.2990934 1 0 1
-0.1226932 -0.2129926 0.2984799 1 0 1
-0.1204549 -0.2134628 0.298617 1 0 1
-0.1183876 -0.214556 0.2995055 1 0 1
-0.1158054 -0.2137564 0.2981122 1 0 1
-0.113402 -0.2135782 0.2974699 1 0 1
-0.1113267 -0.214655 0.2983379 1 0 1
-0.1089284 -0.2144639 0.2976816 1 0 1
-0.1065366 -0.2142655 0.297018 1 0 1
-0.1041512 -0.2140598 0.2963473 1 0 1
-0.1023538 -0.2163834 0.2987073 1 0 1
-0.099966 -0.2161663 0.2980229 1 0 1
-0.09799764 -0.2178487 0.2996106 1 0 1
-0.09587888 -0.2188918 0.3004319 1 0 1
-0.0936214 -0.2192936 0.3004868 1 0 1
-0.091111 -0.2184144 0.2990148 1 0 1
-0.08873719 -0.2181651 0.2982957 1 0 1
-0.08672459 -0.2198254 0.2998499 1 0 1
-0.0842384 -0.2189241 0.2983569 1 0 1
-0.08198757 -0.2192951 0.2983773 1 0 1
-0.0798423 -0.220301 0.299151 1 0 1
-0.07748324 -0.2200194 0.2983975 1 0 1
-0.07473636 -0.2171624 0.2945961 1 0 1
-0.07250161 -0.2175072 0.2945892 1 0 1
-0.07026602 -0.2178461 0.2945755 1 0 1
-0.06802972 -0.2181793 0.294555 1 0 1
-0.06587575 -0.2191512 0.2952879 1 0 1
-0.06410914 -0.2233434 0.2998142 1 0 1
-0.06214447 -0.2262454 0.3028128 1 0 1
0.146783 -0.1063581 0.1263876 1 0 1
0.1314298 -0.08012152 0.09883343 1 0 1
0.120743 -0.06152421 0.07926682 1 0 1
0.1198566 -0.05811252 0.07548334 1 0 1
0.1206149 -0.0572263 0.074322 1 0 1
0.1205157 -0.05507939 0.07185832 1 0 1
0.1212486 -0.05419137 0.07069951 1 0 1
0.1215409 -0.0526738 0.06889255 1 0 1
0.121817 -0.05115624 0.06708857 1 0 1
0.1216386 -0.04901256 0.06464294 1 0 1
0.1227624 -0.04874689 0.064133 1 0 1
0.1229934 -0.04722896 0.06233677 1 0 1
0.1232082 -0.0457113 0.06054376 1 0 1
0.1234069 -0.04419393 0.05875403 1 0 1
0.1235893 -0.04267699 0.05696773 1 0 1
0.1246745 -0.0424027 0.0564548 1 0 1
0.1257575 -0.04212533 0.05593868 1 0 1
0.1268384 -0.04184491 0.05541947 1 0 1
0.1274473 -0.0409431 0.05426722 1 0 1
0.128047 -0.04004 0.05311515 1 0 1
0.128161 -0.03851926 0.05133688 1 0 1
0.1287391 -0.0376148 0.05018719 1 0 1
0.1293081 -0.03670929 0.04903789 1 0 1
0.129381 -0.03518901 0.04726759 1 0 1
0.1304189 -0.03489508 0.04674056 1 0 1
0.1304667 -0.03337469 0.0449747 1 0 1
0.1304988 -0.03185534 0.04321288 1 0 1
0.1310156 -0.03094685 0.04206959 1 0 1
0.1320275 -0.03064615 0.04153949 1 0 1
0.1325297 -0.02973488 0.04039567 1 0 1
0.1335337 -0.02942946 0.03986155 1 0 1
0.1345355 -0.02912118 0.03932453 1 0 1
0.1350174 -0.02820542 0.03817923 1 0 1
0.1360112 -0.02789243 0.03763823 1 0 1
0.1370027 -0.02757661 0.03709438 1 0 1
0.1385196 -0.02785935 0.03714756 1 0 1
0.1400408 -0.02813708 0.03719416 1 0 1
0.141032 -0.02781051 0.03663798 1 0 1
-0.1327235 -0.2078503 0.2909603 1 0 1
-0.1309119 -0.2095972 0.2926373 1 0 1
-0.1290834 -0.2113419 0.2943087 1 0 1
-0.1272379 -0.2130843 0.2959744 1 0 1
-0.125191 -0.2141949 0.2968792 1 0 1
-0.1229543 -0.2146716 0.2970225 1 0 1
-0.1207161 -0.2151425 0.297159 1 0 1
-0.1184765 -0.2156078 0.2972886 1 0 1
-0.1158974 -0.2148022 0.2958994 1 0 1
-0.1136627 -0.2152544 0.2960149 1 0 1
-0.1114267 -0.2157008 0.2961235 1 0 1
-0.109032 -0.2155067 0.2954689 1 0 1
-0.1064901 -0.2146698 0.2940503 1 0 1
-0.1041122 -0.2144604 0.2933812 1 0 1
-0.1020324 -0.215518 0.2942189 1 0 1
-0.09965985 -0.2152957 0.2935359 1 0 1
-0.0978461 -0.2176202 0.2958747 1 0 1
-0.0953371 -0.2167473 0.2944207 1 0 1
-0.09323335 -0.2177855 0.2952318 1 0 1
-0.09099442 -0.2181787 0.2952788 1 0 1
-0.08887694 -0.2192075 0.2960765 1 0 1
-0.08663205 -0.2195899 0.2961099 1 0 1
-0.0846156 -0.2212515 0.2976517 1 0 1
-0.08213937 -0.2203373 0.2961563 1 0 1
-0.07978471 -0.2200585 0.2954115 1 0 1
-0.07754005 -0.2204172 0.2954176 1 0 1
-0.07489795 -0.2181901 0.2923862 1 0 1
-0.07247673 -0.2172435 0.2908633 1 0 1
-0.07034431 -0.2182274 0.2916069 1 0 1
-0.06811593 -0.21856 0.2915859 1 0 1
-0.0659704 -0.2195342 0.2923159 1 0 1
-0.06413481 -0.2230956 0.2960691 1 0 1
0.1201281 -0.1963444 0.2320304 1 0 1
0.1529621 -0.1148702 0.1326004 1 0 1
0.1317393 -0.07964481 0.0960472 1 0 1
0.1247024 -0.0666881 0.08246213 1 0 1
0.1234032 -0.06262342 0.07803508 1 0 1
0.1220591 -0.05856468 0.07362301 1 0 1
0.1228067 -0.05767022 0.07246078 1 0 1
0.1231142 -0.05614328 0.07065295 1 0 1
0.1229711 -0.0539863 0.06820424 1 0 1
0.1232425 -0.05246028 0.06640399 1 0 1
0.1239391 -0.05156261 0.0652473 1 0 1
0.1241816 -0.05003597 0.06345161 1 0 1
0.1239594 -0.04788292 0.06102178 1 0 1
0.124618 -0.04698348 0.05986992 1 0 1
0.1243565 -0.04483281 0.05744993 1 0 1
0.1254487 -0.04455641 0.056934 1 0 1
0.1260763 -0.04365382 0.05578415 1 0 1
0.1266949 -0.04274992 0.05463447 1 0 1
0.1273042 -0.04184482 0.05348505 1 0 1
0.1279045 -0.0409385 0.05233585 1 0 1
0.1280194 -0.03941155 0.05056293 1 0 1
0.128598 -0.03850387 0.0494161 1 0 1
0.1291675 -0.03759504 0.04826964 1 0 1
0.1297279 -0.03668515 0.04712358 1 0 1
0.1302793 -0.03577429 0.04597803 1 0 1
0.1308215 -0.03486237 0.04483293 1 0 1
0.1308579 -0.03333588 0.04307475 1 0 1
0.1313787 -0.03242306 0.04193253 1 0 1
0.1318904 -0.03150936 0.0407909 1 0 1
0.1329002 -0.03120545 0.04025828 1 0 1
0.1339076 -0.0308986 0.03972273 1 0 1
0.1349128 -0.03058891 0.03918428 1 0 1
0.1353986 -0.02966878 0.03803998 1 0 1
0.1363958 -0.02935436 0.03749752 1 0 1
0.1373907 -0.02903705 0.03695221 1 0 1
0.1389106 -0.02932123 0.03700141 1 0 1
0.1399042 -0.02899711 0.03644849 1 0 1
0.1408955 -0.02867012 0.03589268 1 0 1
-0.1329811 -0.2094993 0.2895173 1 0 1
-0.1307775 -0.2099937 0.2896853 1 0 1
-0.1287652 -0.2111127 0.2905984 1 0 1
-0.1269323 -0.212859 0.2922575 1 0 1
-0.1252674 -0.2152352 0.2946634 1 0 1
-0.1226726 -0.2144459 0.2933003 1 0 1
-0.1206234 -0.2155489 0.2941884 1 0 1
-0.1183916 -0.2160132 0.2943168 1 0 1
-0.1163279 -0.2171071 0.2951919 1 0 1
-0.1135927 -0.2156523 0.2930461 1 0 1
-0.1115263 -0.2167349 0.2939076 1 0 1
-0.1091352 -0.2165377 0.2932545 1 0 1
-0.1067505 -0.2163334 0.2925945 1 0 1
-0.1040719 -0.2148436 0.2904187 1 0 1
-0.1021468 -0.2165431 0.2920074 1 0 1
-0.0997778 -0.2163179 0.2913261 1 0 1
-0.09769242 -0.2173683 0.2921473 1 0 1
-0.09519433 -0.2164882 0.2906976 1 0 1
-0.09323357 -0.2181706 0.2922601 1 0 1
-0.0908757 -0.2179197 0.2915514 1 0 1
-0.08877052 -0.2189499 0.2923458 1 0 1
-0.0866565 -0.2199757 0.2931335 1 0 1
-0.08441854 -0.2203517 0.2931595 1 0 1
-0.08206841 -0.2200757 0.2924235 1 0 1
-0.07972512 -0.2197928 0.2916807 1 0 1
-0.07738879 -0.2195029 0.2909311 1 0 1
-0.07476061 -0.2172622 0.2879092 1 0 1
-0.07235416 -0.2163079 0.2863911 1 0 1
-0.070238 -0.2172929 0.2871316 1 0 1
-0.06820109 -0.2189232 0.2886205 1 0 1
-0.06589598 -0.2185992 0.2878375 1 0 1
-0.06423859 -0.223475 0.2930875 1 0 1
0.08663703 -0.2035328 0.2431322 1 0 1
0.08768111 -0.2001168 0.2390549 1 0 1
0.08970698 -0.2000188 0.2385753 1 0 1
0.0917312 -0.1999154 0.2380897 1 0 1
0.09248169 -0.1958228 0.2332957 1 0 1
0.1214497 -0.2018593 0.2348952 1 0 1
0.1269932 -0.1855197 0.2152871 1 0 1
0.1409244 -0.1894236 0.2171903 1 0 1
0.1467212 -0.1886717 0.2152767 1 0 1
0.1570095 -0.1696096 0.1916967 1 0 1
0.1468347 -0.1042958 0.1191916 1 0 1
0.1312003 -0.07787767 0.09197216 1 0 1
0.1274428 -0.0699662 0.08365127 1 0 1
0.1244441 -0.06334057 0.07665561 1 0 1
0.1243598 -0.06116906 0.07419815 1 0 1
0.1246825 -0.05963276 0.07238947 1 0 1
0.1245549 -0.05746347 0.0699424 1 0 1
0.1239666 -0.0546638 0.06686188 1 0 1
0.1242298 -0.05313 0.06506683 1 0 1
0.1244768 -0.05159638 0.06327495 1 0 1
0.1242596 -0.04943342 0.0608514 1 0 1
0.1249221 -0.04852986 0.05970077 1 0 1
0.1251205 -0.04699707 0.05791866 1 0 1
0.1257613 -0.04609166 0.05676983 1 0 1
0.125931 -0.04455887 0.05499292 1 0 1
0.12655 -0.04365174 0.05384609 1 0 1
0.1271599 -0.04274337 0.05269952 1 0 1
0.1277606 -0.04183378 0.0515532 1 0 1
0.1283523 -0.04092306 0.05040718 1 0 1
0.1289348 -0.04001116 0.04926154 1 0 1
0.1295083 -0.03909817 0.04811623 1 0 1
0.1295865 -0.03756456 0.04635496 1 0 1
0.1301384 -0.03665042 0.04521223 1 0 1
0.1306812 -0.03573524 0.04407003 1 0 1
0.1312149 -0.03481913 0.04292838 1 0 1
0.1312398 -0.0332865 0.04117787 1 0 1
0.1322553 -0.03298409 0.04064674 1 0 1
0.1332684 -0.03267873 0.04011266 1 0 1
0.1342793 -0.03237049 0.03957567 1 0 1
0.1347746 -0.03144789 0.03843353 1 0 1
0.1357776 -0.03113489 0.03789252 1 0 1
0.1362581 -0.03020967 0.03675009 1 0 1
0.1372531 -0.029892 0.03620513 1 0 1
0.1387725 -0.03017863 0.03625219 1 0 1
0.1397662 -0.02985409 0.03569962 1 0 1
0.1412909 -0.03013173 0.03573539 1 0 1
-0.1317576 -0.1992889 0.2744201 1 0 1
-0.132436 -0.2086162 0.2850725 1 0 1
-0.1308388 -0.2110052 0.287486 1 0 1
-0.129024 -0.2127603 0.2891451 1 0 1
-0.1268137 -0.2132448 0.2892991 1 0 1
-0.1249727 -0.2149937 0.2909462 1 0 1
-0.1227518 -0.2154686 0.2910871 1 0 1
-0.1203517 -0.2153011 0.2904709 1 0 1
-0.1181316 -0.2157637 0.290598 1 0 1
-0.1160802 -0.2168588 0.2914692 1 0 1
-0.1135215 -0.2160328 0.290081 1 0 1
-0.1114634 -0.2171174 0.2909388 1 0 1
-0.1090797 -0.2169166 0.2902874 1 0 1
-0.1068569 -0.2173499 0.2903804 1 0 1
-0.1041811 -0.2158512 0.2882115 1 0 1
-0.1021141 -0.2169138 0.2890426 1 0 1
-0.09960981 -0.2160414 0.287611 1 0 1
-0.09753667 -0.2170931 0.2884287 1 0 1
-0.0951845 -0.2168508 0.2877353 1 0 1
-0.09297018 -0.2172468 0.2877874 1 0 1
-0.0906276 -0.216991 0.2870804 1 0 1
-0.08853856 -0.218022 0.2878713 1 0 1
-0.08620167 -0.2177533 0.2871508 1 0 1
-0.08387164 -0.2174777 0.2864234 1 0 1
-0.08154841 -0.217195 0.2856891 1 0 1
-0.07923204 -0.2169053 0.2849482 1 0 1
-0.07713062 -0.2179091 0.2857057 1 0 1
-0.07462028 -0.2163052 0.2834463 1 0 1
-0.07242098 -0.2166461 0.2834379 1 0 1
-0.07031321 -0.2176335 0.2841755 1 0 1
-0.06837354 -0.2199215 0.2864114 1 0 1
-0.06607198 -0.2195946 0.2856305 1 0 1
0.04661928 -0.2024808 0.2460214 1 0 1
0.04941724 -0.195807 0.2379799 1 0 1
0.05371517 -0.19714 0.2387055 1 0 1
0.05516336 -0.1944534 0.2354097 1 0 1
0.06913135 -0.2023027 0.2417357 1 0 1
0.07165039 -0.196183 0.2343685 1 0 1
0.0772799 -0.2020742 0.2399967 1 0 1
0.0776514 -0.1959904 0.2330599 1 0 1
0.0874326 -0.2016659 0.2376883 1 0 1
0.09007008 -0.2035698 0.2393578 1 0 1
0.09210574 -0.2034657 0.2388695 1 0 1
0.09350508 -0.2013555 0.2362318 1 0 1
0.09444906 -0.1979078 0.2321667 1 0 1
0.096449 -0.1977892 0.2316682 1 0 1
0.09822422 -0.1969989 0.2304522 1 0 1
0.1002168 -0.1968697 0.229943 1 0 1
0.1024383 -0.1974008 0.2301376 1 0 1
0.1041966 -0.1965951 0.228907 1 0 1
0.1088047 -0.2037665 0.2361647 1 0 1
0.1120421 -0.2069369 0.2391542 1 0 1
0.1140861 -0.2067761 0.2385994 1 0 1
0.1161282 -0.2066097 0.2380386 1 0 1
0.1204494 -0.2124132 0.2438036 1 0 1
0.1189198 -0.2029423 0.2333869 1 0 1
0.1196316 -0.1994446 0.2293067 1 0 1
0.1216274 -0.1992596 0.228733 1 0 1
0.1236212 -0.1990691 0.2281535 1 0 1
0.1256127 -0.1988734 0.2275681 1 0 1
0.1276021 -0.1986721 0.226977 1 0 1
0.1295893 -0.1984655 0.22638 1 0 1
0.1315741 -0.1982533 0.2257773 1 0 1
0.1335568 -0.1980359 0.2251688 1 0 1
0.1375751 -0.2024343 0.2294013 1 0 1
0.1422334 -0.2081407 0.2349939 1 0 1
0.1442689 -0.2078999 0.2343491 1 0 1
0.1459994 -0.2069947 0.2330096 1 0 1
0.1434345 -0.1968674 0.22204 1 0 1
0.1454027 -0.1966175 0.221397 1 0 1
0.14486 -0.1911028 0.215267 1 0 1
0.1467935 -0.1908462 0.2146225 1 0 1
0.1487244 -0.1905842 0.2139724 1 0 1
0.1532506 -0.1955643 0.2187681 1 0 1
0.155206 -0.1952875 0.2180966 1 0 1
0.154502 -0.1897665 0.2119885 1 0 1
0.1610566 -0.194425 0.2160483 1 0 1
0.1602559 -0.1889012 0.2099545 1 0 1
0.1569658 -0.1788129 0.199161 1 0 1
0.1612742 -0.1830817 0.2031925 1 0 1
0.163506 -0.1834284 0.203174 1 0 1
0.164669 -0.1818162 0.2011386 1 0 1
0.1694295 -0.1867035 0.2057855 1 0 1
0.136435 -0.08723738 0.09945727 1 0 1
0.1310524 -0.07672456 0.08856774 1 0 1
0.1247082 -0.06495673 0.07643713 1 0 1
0.1242025 -0.06213798 0.07334429 1 0 1
0.1245262 -0.06059554 0.07154096 1 0 1
0.1244001 -0.05841723 0.06910191 1 0 1
0.1233767 -0.05497067 0.0653948 1 0 1
0.1245183 -0.05469989 0.06487778 1 0 1
0.1252138 -0.05379258 0.06372358 1 0 1
0.1245575 -0.05098645 0.0606725 1 0 1
0.125224 -0.05007878 0.0595231 1 0 1
0.125427 -0.04853905 0.05774478 1 0 1
0.1256137 -0.04699966 0.05596983 1 0 1
0.1257844 -0.04546076 0.05419834 1 0 1
0.1264039 -0.04455038 0.05305437 1 0 1
0.1270143 -0.04363877 0.05191066 1 0 1
0.1280873 -0.0433521 0.05138791 1 0 1
0.128683 -0.04243716 0.05024308 1 0 1
0.1292695 -0.04152111 0.04909857 1 0 1
0.1298469 -0.0406039 0.04795446 1 0 1
0.1299296 -0.0390632 0.04619689 1 0 1
0.1304854 -0.03814484 0.04505529 1 0 1
0.1305396 -0.036605 0.04330391 1 0 1
0.1310738 -0.03568563 0.04216512 1 0 1
0.131599 -0.0347653 0.04102686 1 0 1
0.1326179 -0.0344615 0.0404943 1 0 1
0.1331284 -0.03353836 0.03935552 1 0 1
0.1346488 -0.0338451 0.03942036 1 0 1
0.1356608 -0.03353249 0.03887903 1 0 1
0.1361543 -0.03260373 0.03773686 1 0 1
0.1371583 -0.03228643 0.03719153 1 0 1
0.1376371 -0.03135508 0.0360491 1 0 1
0.1391595 -0.03164305 0.03609216 1 0 1
0.1401565 -0.03131701 0.03553813 1 0 1
0.1411512 -0.03098813 0.03498123 1 0 1
-0.1338534 -0.2065763 0.2797246 1 0 1
-0.133095 -0.211511 0.2851194 1 0 1
-0.1312944 -0.2132757 0.2867786 1 0 1
-0.1294768 -0.2150382 0.2884321 1 0 1
-0.1270731 -0.2148873 0.2878386 1 0 1
-0.1248616 -0.2153669 0.2879851 1 0 1
-0.1226485 -0.215841 0.2881249 1 0 1
-0.1202559 -0.2156697 0.2875101 1 0 1
-0.1176953 -0.2148508 0.2861399 1 0 1
-0.1158303 -0.2165875 0.2877554 1 0 1
-0.1131158 -0.2151122 0.2856224 1 0 1
-0.1109112 -0.2155545 0.2857276 1 0 1
-0.1085466 -0.2153477 0.2850773 1 0 1
-0.1061884 -0.2151337 0.28442 1 0 1
-0.1038367 -0.2149125 0.2837555 1 0 1
-0.1017859 -0.2159756 0.2845828 1 0 1
-0.09943964 -0.2157416 0.2839047 1 0 1
-0.09737879 -0.2167948 0.2847189 1 0 1
-0.09517352 -0.2171959 0.2847769 1 0 1
-0.09309882 -0.2182397 0.285578 1 0 1
-0.09088754 -0.2186301 0.2856227 1 0 1
-0.08855135 -0.2183649 0.2849108 1 0 1
-0.08610199 -0.2174421 0.2834421 1 0 1
-0.08378331 -0.2171621 0.2827165 1 0 1
-0.08135926 -0.2162234 0.2812343 1 0 1
-0.07905825 -0.2159289 0.2804954 1 0 1
-0.07697295 -0.2169337 0.2812499 1 0 1
-0.07447701 -0.2153192 0.2789975 1 0 1
-0.07219686 -0.215004 0.2782387 1 0 1
-0.07029457 -0.2173016 0.2804733 1 0 1
-0.06827937 -0.2189416 0.2819512 1 0 1
-0.06607801 -0.219266 0.2819224 1 0 1
-0.06460498 -0.2254947 0.2886356 1 0 1
0.03198072 -0.2037926 0.2469952 1 0 1
0.04180565 -0.2012976 0.2424227 1 0 1
0.04384405 -0.2013196 0.242078 1 0 1
0.04804416 -0.2020192 0.2421004 1 0 1
0.05008347 -0.2020249 0.2417369 1 0 1
0.05252361 -0.2040411 0.2435526 1 0 1
0.05457248 -0.2040359 0.243175 1 0 1
0.05619518 -0.2020093 0.2406106 1 0 1
0.0586669 -0.2040091 0.2424017 1 0 1
0.06026403 -0.2019718 0.2398296 1 0 1
0.06214336 -0.2012731 0.2387056 1 0 1
0.06369937 -0.1992256 0.2361292 1 0 1
0.06619723 -0.2012031 0.2378903 1 0 1
0.06822223 -0.20116 0.2374737 1 0 1
0.07092102 -0.2037976 0.2399372 1 0 1
0.07295877 -0.2037431 0.2395054 1 0 1
0.07499521 -0.2036833 0.2390677 1 0 1
0.07793191 -0.2069739 0.2422191 1 0 1
0.07906366 -0.2035472 0.2381742 1 0 1
0.08165983 -0.2054837 0.2398705 1 0 1
0.08485328 -0.209426 0.2437049 1 0 1
0.08691681 -0.2093373 0.2432293 1 0 1
0.08718255 -0.2032095 0.2363158 1 0 1
0.08981857 -0.2051221 0.2379776 1 0 1
0.09123249 -0.2030079 0.2353508 1 0 1
0.09325495 -0.2028989 0.2348595 1 0 1
0.09527575 -0.2027845 0.2343623 1 0 1
0.09620113 -0.1993178 0.2303091 1 0 1
0.0981993 -0.1991936 0.2298048 1 0 1
0.1013275 -0.2024085 0.232835 1 0 1
0.1021902 -0.1989291 0.2287788 1 0 1
0.104183 -0.1987888 0.2282571 1 0 1
0.1085519 -0.2053238 0.2347802 1 0 1
0.1127532 -0.2111799 0.2405731 1 0 1
0.1135855 -0.2076803 0.2364992 1 0 1
0.1168697 -0.2108499 0.2394495 1 0 1
0.1209487 -0.2160115 0.2444861 1 0 1
0.1209778 -0.2104976 0.2383019 1 0 1
0.1217259 -0.2069821 0.2342252 1 0 1
0.1226984 -0.2041305 0.2308511 1 0 1
0.1257835 -0.2065999 0.2330527 1 0 1
0.1280808 -0.2070657 0.233153 1 0 1
0.1287296 -0.2035368 0.2290791 1 0 1
0.1307355 -0.203328 0.2284766 1 0 1
0.1347215 -0.2077612 0.2327132 1 0 1
0.1373229 -0.2088655 0.233473 1 0 1
0.1434471 -0.2130406 0.2370268 1 0 1
0.1455012 -0.2127974 0.2363764 1 0 1
0.1433261 -0.2032837 0.2261127 1 0 1
0.1431835 -0.1984066 0.2206721 1 0 1
0.1451518 -0.1981565 0.2200293 1 0 1
0.1471175 -0.1979009 0.2193809 1 0 1
0.1465463 -0.1923612 0.213276 1 0 1
0.1455926 -0.1861648 0.2065054 1 0 1
0.1346521 -0.08353142 0.09343427 1 0 1
0.1275038 -0.07042188 0.08005465 1 0 1
0.1257474 -0.06566478 0.07504378 1 0 1
0.124798 -0.06219446 0.07132662 1 0 1
0.1246768 -0.06000637 0.06889399 1 0 1
0.1240959 -0.057182 0.06583293 1 0 1
0.1243645 -0.05563516 0.06404717 1 0 1
0.1250605 -0.05472464 0.06289583 1 0 1
0.1248532 -0.05254196 0.06048504 1 0 1
0.1250732 -0.05099576 0.05870882 1 0 1
0.1252771 -0.0494499 0.05693596 1 0 1
0.1254648 -0.04790442 0.05516647 1 0 1
0.1256365 -0.04635938 0.05340039 1 0 1
0.1262564 -0.04544578 0.05225933 1 0 1
0.1268673 -0.04453095 0.05111851 1 0 1
0.1279405 -0.04424397 0.0505961 1 0 1
0.1290115 -0.04395392 0.05007056 1 0 1
0.1296019 -0.04303365 0.04892726 1 0 1
0.1301833 -0.04211225 0.04778428 1 0 1
0.1302704 -0.04056449 0.04603042 1 0 1
0.1308301 -0.03964186 0.04489004 1 0 1
0.1308887 -0.03809498 0.04314235 1 0 1
0.1314269 -0.03717138 0.04200468 1 0 1
0.131956 -0.0362468 0.0408676 1 0 1
0.132476 -0.0353213 0.03973112 1 0 1
0.132987 -0.03439491 0.03859521 1 0 1
0.133998 -0.03408589 0.03805896 1 0 1
0.1350067 -0.03377396 0.03751978 1 0 1
0.136013 -0.03345912 0.03697768 1 0 1
0.1370172 -0.03314139 0.03643271 1 0 1
0.1380189 -0.03282078 0.03588483 1 0 1
0.1390184 -0.03249725 0.03533409 1 0 1
0.1394863 -0.03155902 0.03419248 1 0 1
0.1404777 -0.03123075 0.03363782 1 0 1
-0.1349301 -0.210727 0.2812597 1 0 1
-0.1329497 -0.2118621 0.2821746 1 0 1
-0.1311577 -0.2136316 0.2838274 1 0 1
-0.1293489 -0.2153988 0.2854746 1 0 1
-0.1271429 -0.215884 0.285627 1 0 1
-0.1251216 -0.2170042 0.2865174 1 0 1
-0.1229088 -0.2174789 0.2866565 1 0 1
-0.1206944 -0.2179479 0.2867889 1 0 1
-0.1181292 -0.2171248 0.2854235 1 0 1
-0.1159198 -0.2175809 0.2855419 1 0 1
-0.1130411 -0.2154522 0.2826698 1 0 1
-0.1110075 -0.2165391 0.2835202 1 0 1
-0.108328 -0.2150368 0.281379 1 0 1
-0.1061365 -0.2154654 0.2814695 1 0 1
-0.1036408 -0.2145928 0.2800602 1 0 1
-0.1016023 -0.2156571 0.2808839 1 0 1
-0.09912357 -0.2147696 0.2794607 1 0 1
-0.0970789 -0.2158234 0.2802712 1 0 1
-0.0948893 -0.2162222 0.2803282 1 0 1
-0.09269867 -0.2166154 0.2803786 1 0 1
-0.09050702 -0.217003 0.2804223 1 0 1
-0.08806567 -0.2160794 0.2789647 1 0 1
-0.08575931 -0.2158009 0.2782477 1 0 1
-0.08334325 -0.2148614 0.2767766 1 0 1
-0.08105448 -0.2145683 0.2760462 1 0 1
-0.07888144 -0.2149237 0.2760567 1 0 1
-0.07681234 -0.2159294 0.276808 1 0 1
-0.07433074 -0.2143043 0.274563 1 0 1
-0.07206591 -0.2139843 0.2738063 1 0 1
-0.07008757 -0.215631 0.2752853 1 0 1
-0.06800371 -0.216616 0.2760104 1 0 1
-0.06574056 -0.2162785 0.2752341 1 0 1
-0.06405478 -0.220551 0.2796822 1 0 1
-0.06294193 -0.2301051 0.2901003 1 0 1
0.02967254 -0.2052741 0.2459287 1 0 1
0.03135323 -0.2026315 0.2426887 1 0 1
0.03349424 -0.2033552 0.2431057 1 0 1
0.03502814 -0.2000261 0.2391291 1 0 1
0.03684102 -0.1987149 0.237344 1 0 1
0.03874764 -0.1980727 0.2362853 1 0 1
0.04098767 -0.1994494 0.2374094 1 0 1
0.04300651 -0.1994712 0.2370679 1 0 1
0.04538986 -0.2015123 0.238904 1 0 1
0.0469157 -0.198824 0.2356399 1 0 1
0.04957567 -0.2022041 0.2389136 1 0 1
0.05187306 -0.2035543 0.239997 1 0 1
0.05432221 -0.2055738 0.2417966 1 0 1
0.05594625 -0.2035386 0.2392399 1 0 1
0.05841647 -0.2055471 0.2410231 1 0 1
0.06046185 -0.2055255 0.2406274 1 0 1
0.06204751 -0.2034743 0.2380594 1 0 1
0.06407887 -0.203442 0.237654 1 0 1
0.0665907 -0.2054281 0.2394041 1 0 1
0.06863107 -0.2053847 0.2389843 1 0 1
0.07067011 -0.2053358 0.2385586 1 0 1
0.0727078 -0.2052814 0.2381268 1 0 1
0.0750962 -0.20657 0.2391236 1 0 1
0.0776784 -0.2085267 0.2408275 1 0 1
0.0791799 -0.2064333 0.2382268 1 0 1
0.08234505 -0.2103997 0.2420577 1 0 1
0.08498047 -0.2123376 0.2437305 1 0 1
0.08646586 -0.2102282 0.2411145 1 0 1
0.08752844 -0.2067676 0.2370736 1 0 1
0.08956566 -0.2066689 0.2365915 1 0 1
0.0909809 -0.2045458 0.2339727 1 0 1
0.09300334 -0.2044368 0.2334815 1 0 1
0.09502402 -0.2043223 0.2329843 1 0 1
0.09595177 -0.2008409 0.2289443 1 0 1
0.09794991 -0.2007167 0.2284401 1 0 1
0.1010756 -0.203946 0.2314574 1 0 1
0.1030892 -0.2038096 0.2309366 1 0 1
0.1039334 -0.2003115 0.2268926 1 0 1
0.1092467 -0.2095595 0.2361996 1 0 1
0.1134589 -0.2154405 0.2419651 1 0 1
0.1155333 -0.2152769 0.2414024 1 0 1
0.1178544 -0.2157779 0.2415329 1 0 1
0.1209385 -0.2182819 0.2437503 1 0 1
0.1207189 -0.2120748 0.2368888 1 0 1
0.1217294 -0.2092137 0.2335216 1 0 1
0.1211244 -0.2023374 0.2259864 1 0 1
0.1244563 -0.2054885 0.2288772 1 0 1
0.1264666 -0.2052904 0.2282867 1 0 1
0.12875 -0.2057545 0.2283822 1 0 1
0.1327122 -0.2102157 0.2326134 1 0 1
0.1350286 -0.2106648 0.2326857 1 0 1
0.1376366 -0.211774 0.2334382 1 0 1
0.1294478 -0.07463592 0.08235601 1 0 1
0.1272871 -0.06921107 0.07671908 1 0 1
0.1254964 -0.06443805 0.07173864 1 0 1
0.1249514 -0.06159779 0.06867738 1 0 1
0.1243758 -0.05876078 0.06562535 1 0 1
0.1242095 -0.05656713 0.06321313 1 0 1
0.124906 -0.05565337 0.06206469 1 0 1
0.1251467 -0.05409991 0.06028907 1 0 1
0.1258212 -0.05318409 0.05914221 1 0 1
0.126033 -0.05163034 0.05737149 1 0 1
0.1262287 -0.05007707 0.05560417 1 0 1
0.1259478 -0.04788951 0.05321972 1 0 1
0.1265718 -0.04697175 0.05207987 1 0 1
0.1267192 -0.04541995 0.05032305 1 0 1
0.1273214 -0.04450066 0.04918539 1 0 1
0.128389 -0.04421119 0.0486619 1 0 1
0.1294543 -0.04391868 0.04813537 1 0 1
0.1295549 -0.04236501 0.04638489 1 0 1
0.1301242 -0.04144024 0.04524694 1 0 1
0.1306845 -0.04051439 0.04410946 1 0 1
0.1307441 -0.03896138 0.04236722 1 0 1
0.1312827 -0.03803454 0.04123248 1 0 1
0.1323107 -0.03773089 0.04070002 1 0 1
0.1323329 -0.03617803 0.03896471 1 0 1
0.1333496 -0.0358705 0.0384299 1 0 1
0.1343639 -0.03556006 0.03789223 1 0 1
0.1348641 -0.03462667 0.03675703 1 0 1
0.1363858 -0.03493043 0.03680808 1 0 1
0.1368746 -0.0339933 0.03567069 1 0 1
0.1378765 -0.03367228 0.03512324 1 0 1
0.1388759 -0.03334834 0.03457287 1 0 1
0.1393444 -0.03240684 0.03343418 1 0 1
0.1403358 -0.03207823 0.03287996 1 0 1
-0.1340102 -0.2016193 0.2677781 1 0 1
-0.1339511 -0.2085019 0.2753591 1 0 1
-0.1328028 -0.2121959 0.2792336 1 0 1
-0.1308215 -0.2133291 0.2801386 1 0 1
-0.1288308 -0.2144583 0.2810374 1 0 1
-0.1266404 -0.2149409 0.281188 1 0 1
-0.1246352 -0.2160614 0.2820742 1 0 1
-0.1222551 -0.2158891 0.2814691 1 0 1
-0.1200602 -0.2163547 0.2815997 1 0 1
-0.117864 -0.2168146 0.2817236 1 0 1
-0.1156663 -0.2172689 0.2818407 1 0 1
-0.1127976 -0.2151272 0.2789778 1 0 1
-0.1106127 -0.215567 0.2790808 1 0 1
-0.1079474 -0.2140537 0.276946 1 0 1
-0.1056158 -0.2138301 0.2762915 1 0 1
-0.1032907 -0.2135994 0.27563 1 0 1
-0.1012683 -0.2146643 0.27645 1 0 1
-0.09880444 -0.2137687 0.2750308 1 0 1
-0.0967759 -0.2148231 0.2758376 1 0 1
-0.09487486 -0.2165268 0.2773826 1 0 1
-0.09255971 -0.2162651 0.2766877 1 0 1
-0.09037985 -0.2166512 0.2767307 1 0 1
-0.08782465 -0.2150649 0.2745329 1 0 1
-0.08565443 -0.2154377 0.2745624 1 0 1
-0.08313233 -0.2138341 0.2723511 1 0 1
-0.080972 -0.2141937 0.2723674 1 0 1
-0.07881073 -0.2145477 0.2723773 1 0 1
-0.07675404 -0.215555 0.2731255 1 0 1
-0.07448579 -0.215239 0.2723775 1 0 1
-0.07222451 -0.2149161 0.271623 1 0 1
-0.07025123 -0.2165684 0.2730963 1 0 1
-0.0679924 -0.2162337 0.2723287 1 0 1
-0.06582649 -0.2165541 0.2722995 1 0 1
-0.06423339 -0.2215055 0.2774763 1 0 1
0.02888118 -0.2027418 0.2401641 1 0 1
