ply
format ascii 1.0
Comment Generated by Floating Hands
element vertex 1258
property double x
property double y
property double z
property uchar red
property uchar green
property uchar blue
end_header
-0.1231757 -0.2187504 0.2260178 1 0 1
-0.1209382 -0.2183864 0.2254618 1 0 1
-0.1187072 -0.2180158 0.2248991 1 0 1
-0.1166316 -0.2183205 0.2250458 1 0 1
-0.1145548 -0.2186197 0.2251865 1 0 1
-0.1124769 -0.2189133 0.2253211 1 0 1
-0.1102608 -0.2185174 0.2247331 1 0 1
-0.1080514 -0.2181149 0.2241386 1 0 1
-0.1058488 -0.2177057 0.2235375 1 0 1
-0.103653 -0.21729 0.2229302 1 0 1
-0.101464 -0.2168676 0.2223164 1 0 1
-0.09951687 -0.2178114 0.2231317 1 0 1
-0.09744742 -0.2180638 0.2232235 1 0 1
-0.09537706 -0.2183106 0.2233093 1 0 1
-0.09362318 -0.2206151 0.2255437 1 0 1
-0.09123376 -0.2187874 0.223463 1 0 1
-0.0891609 -0.2190174 0.2235309 1 0 1
-0.08699322 -0.2185527 0.2228742 1 0 1
-0.08519305 -0.2208396 0.225086 1 0 1
-0.08285154 -0.2189839 0.2229798 1 0 1
-0.08077968 -0.2191911 0.2230236 1 0 1
-0.07878544 -0.2200834 0.2237803 1 0 1
-0.07693156 -0.2223529 0.2259693 1 0 1
-0.1710169 -0.206282 0.214041 1 0 1
-0.1702477 -0.2100607 0.2178519 1 0 1
-0.170666 -0.2171797 0.2251773 1 0 1
-0.168589 -0.2176264 0.2254725 1 0 1
-0.1667479 -0.2187367 0.2264658 1 0 1
-0.1648974 -0.2198429 0.2274539 1 0 1
-0.1623467 -0.2189329 0.2263219 1 0 1
-0.1589041 -0.2153281 0.2223594 1 0 1
-0.1570634 -0.2164144 0.2233274 1 0 1
-0.1552134 -0.2174966 0.2242903 1 0 1
-0.1529243 -0.2172272 0.2238341 1 0 1
-0.1508523 -0.2176253 0.2240785 1 0 1
-0.1491928 -0.2193683 0.2257326 1 0 1
-0.1467032 -0.2184046 0.224549 1 0 1
-0.1446263 -0.2187859 0.2247753 1 0 1
-0.1421566 -0.2178067 0.2235771 1 0 1
-0.1397011 -0.2168193 0.2223714 1 0 1
-0.1372594 -0.2158235 0.2211581 1 0 1
-0.1351996 -0.2161783 0.2213579 1 0 1
-0.1333185 -0.2172077 0.2222624 1 0 1
-0.1314282 -0.2182328 0.2231616 1 0 1
-0.1297011 -0.2199349 0.2247669 1 0 1
-0.1276202 -0.22027 0.2249441 1 0 1
-0.1255381 -0.2205995 0.2251152 1 0 1
-0.1229727 -0.2188737 0.2231433 1 0 1
-0.1207428 -0.2185063 0.2225889 1 0 1
-0.1185196 -0.2181323 0.2220279 1 0 1
-0.1164519 -0.2184364 0.2221735 1 0 1
-0.114383 -0.2187349 0.2223131 1 0 1
-0.1124542 -0.2197139 0.2231605 1 0 1
-0.1102418 -0.2193152 0.2225745 1 0 1
-0.1081697 -0.219597 0.2226961 1 0 1
-0.1058374 -0.2184979 0.221383 1 0 1
-0.1036454 -0.2180792 0.2207777 1 0 1
-0.1015819 -0.2183427 0.2208808 1 0 1
-0.09963513 -0.2192897 0.221693 1 0 1
-0.09604515 -0.2232403 0.2254463 1 0 1
-0.09288381 -0.2306325 0.2327566 1 0 1
-0.09075233 -0.2308695 0.232826 1 0 1
-0.08824296 -0.2283331 0.2300258 1 0 1
-0.08612554 -0.2285569 0.2300826 1 0 1
-0.08366176 -0.2260041 0.2272689 1 0 1
-0.08114616 -0.2227495 0.2237324 1 0 1
-0.07882625 -0.2208722 0.2216215 1 0 1
-0.07467955 -0.2212594 0.2216786 1 0 1
-0.160621 -0.2150406 0.219236 1 0 1
-0.1569814 -0.2107393 0.2145822 1 0 1
-0.1542362 -0.2156041 0.2193131 1 0 1
-0.1455999 -0.2158183 0.2188576 1 0 1
-0.1437459 -0.2168753 0.2197867 1 0 1
-0.1410996 -0.2152076 0.217885 1 0 1
-0.1388587 -0.2148919 0.2173886 1 0 1
-0.1366241 -0.2145693 0.2168854 1 0 1
-0.1349483 -0.2162863 0.2184983 1 0 1
-0.1327147 -0.215952 0.2179829 1 0 1
-0.1311931 -0.2183449 0.2202941 1 0 1
-0.1293018 -0.2193677 0.221184 1 0 1
-0.1274014 -0.2203862 0.2220687 1 0 1
-0.1251623 -0.2200295 0.2215294 1 0 1
-0.1229298 -0.2196662 0.2209835 1 0 1
-0.1205468 -0.2186094 0.219721 1 0 1
-0.1183312 -0.2182318 0.2191616 1 0 1
-0.1161222 -0.2178476 0.2185958 1 0 1
-0.1140652 -0.2181449 0.2187342 1 0 1
-0.1122898 -0.2198144 0.2202885 1 0 1
-0.1100852 -0.2194123 0.2197043 1 0 1
-0.1081545 -0.2203833 0.2205365 1 0 1
-0.1058259 -0.2192786 0.2192282 1 0 1
-0.1036377 -0.2188572 0.2186249 1 0 1
-0.1013344 -0.2177376 0.2173033 1 0 1
-0.09963567 -0.2200703 0.2195362 1 0 1
-0.09711411 -0.2175534 0.2167773 1 0 1
-0.1428634 -0.2149314 0.2148196 1 0 1
-0.1400399 -0.2125696 0.2122197 1 0 1
-0.1382064 -0.2136147 0.2131312 1 0 1
-0.1354225 -0.2112344 0.2105151 1 0 1
-0.13359 -0.2122679 0.2114146 1 0 1
-0.1322898 -0.2153542 0.2144247 1 0 1
-0.1311338 -0.2191263 0.2181372 1 0 1
-0.1292468 -0.2201518 0.2190236 1 0 1
-0.1273506 -0.221173 0.2199047 1 0 1
-0.1256103 -0.222878 0.2214871 1 0 1
-0.1230477 -0.221136 0.2195302 1 0 1
-0.1209788 -0.2214529 0.219687 1 0 1
-0.1184488 -0.2196944 0.2177155 1 0 1
-0.1162397 -0.2193078 0.2171519 1 0 1
-0.1141828 -0.2196057 0.2172898 1 0 1
-0.1121247 -0.2198979 0.2174218 1 0 1
-0.1099279 -0.2194925 0.2168393 1 0 1
-0.1080054 -0.2204657 0.2176679 1 0 1
-0.1059441 -0.2207412 0.217782 1 0 1
-0.1036298 -0.2196238 0.2164719 1 0 1
-0.1015743 -0.2198872 0.2165738 1 0 1
-0.09939966 -0.2194502 0.2159602 1 0 1
-0.0968891 -0.2169212 0.2132113 1 0 1
-0.1353486 -0.2119775 0.2083881 1 0 1
-0.1324128 -0.2088874 0.2050711 1 0 1
-0.1307793 -0.2106039 0.2066622 1 0 1
-0.131428 -0.2212746 0.2173859 1 0 1
-0.1291914 -0.2209246 0.2168629 1 0 1
-0.1276377 -0.223329 0.2191474 1 0 1
-0.1263897 -0.2271133 0.2228355 1 0 1
-0.1236498 -0.2246745 0.2201835 1 0 1
-0.1207822 -0.2215333 0.2168185 1 0 1
-0.118413 -0.2204585 0.2155589 1 0 1
-0.1163574 -0.2207624 0.2157023 1 0 1
-0.1140091 -0.2196731 0.2144293 1 0 1
-0.111959 -0.2199647 0.2145602 1 0 1
-0.1101837 -0.2216406 0.2160967 1 0 1
-0.1081236 -0.2219221 0.2162163 1 0 1
-0.1058022 -0.2208062 0.2149176 1 0 1
-0.1037479 -0.2210756 0.215025 1 0 1
-0.1015702 -0.2206424 0.2144198 1 0 1
-0.09928099 -0.2195051 0.2131016 1 0 1
-0.1998951 -0.2318439 0.2300632 1 0 1
-0.1301487 -0.24385 0.2367757 1 0 1
-0.1284533 -0.2462738 0.2390506 1 0 1
-0.1226344 -0.2306297 0.2230772 1 0 1
-0.1192995 -0.2253839 0.2176139 1 0 1
-0.1164752 -0.2222111 0.2142469 1 0 1
-0.1138347 -0.2197236 0.211574 1 0 1
-0.1117926 -0.2200146 0.2117039 1 0 1
-0.1103021 -0.2230907 0.21464 1 0 1
-0.1082421 -0.2233728 0.2147592 1 0 1
-0.1061811 -0.2236491 0.2148723 1 0 1
-0.1041192 -0.22392 0.2149796 1 0 1
-0.1020562 -0.2241853 0.215081 1 0 1
-0.09999222 -0.2244449 0.2151764 1 0 1
-0.2075294 -0.239645 0.2352585 1 0 1
-0.2036062 -0.2361765 0.2315582 1 0 1
-0.201745 -0.2373899 0.2326224 1 0 1
-0.1993046 -0.2372549 0.232315 1 0 1
-0.1979928 -0.239805 0.2347361 1 0 1
-0.1963789 -0.2416805 0.2364699 1 0 1
-0.195021 -0.2442291 0.2388853 1 0 1
-0.1920212 -0.2427212 0.2371826 1 0 1
-0.1893077 -0.241879 0.2361564 1 0 1
-0.2100201 -0.2465616 0.2391161 1 0 1
-0.206358 -0.2437586 0.2361161 1 0 1
-0.2035973 -0.242962 0.2351429 1 0 1
-0.201419 -0.2435057 0.235522 1 0 1
-0.1992383 -0.2440434 0.2358946 1 0 1
-0.19761 -0.2459288 0.2376248 1 0 1
-0.1956907 -0.2471343 0.2386686 1 0 1
-0.1926829 -0.2456209 0.2369746 1 0 1
-0.1907592 -0.2468145 0.2380055 1 0 1
-0.1885636 -0.2473234 0.238347 1 0 1
-0.1855911 -0.2457824 0.2366272 1 0 1
-0.1826393 -0.2442303 0.2348976 1 0 1
-0.1817134 -0.2481311 0.2386468 1 0 1
-0.1782792 -0.245196 0.235529 1 0 1
-0.1765821 -0.2470394 0.2372096 1 0 1
-0.1734327 -0.2447671 0.2347597 1 0 1
-0.171018 -0.2445413 0.2343641 1 0 1
-0.1652952 -0.2413155 0.230794 1 0 1
-0.1624655 -0.2396868 0.2289951 1 0 1
-0.162077 -0.2456312 0.2347787 1 0 1
-0.159896 -0.2460606 0.2350386 1 0 1
-0.1585624 -0.2492477 0.2380565 1 0 1
-0.1569878 -0.251743 0.2403799 1 0 1
-0.1523197 -0.2438508 0.232321 1 0 1
-0.1487461 -0.2394011 0.2277074 1 0 1
-0.1456186 -0.2363232 0.2244673 1 0 1
-0.1440722 -0.2387885 0.2267621 1 0 1
-0.1402315 -0.2329099 0.220731 1 0 1
-0.1366441 -0.2277091 0.2153809 1 0 1
-0.2110318 -0.2501406 0.2395442 1 0 1
-0.2079429 -0.2486795 0.2379122 1 0 1
-0.2054519 -0.2485598 0.2376242 1 0 1
-0.2032512 -0.2491101 0.2380065 1 0 1
-0.2007668 -0.2489755 0.2377037 1 0 1
-0.1988426 -0.2501922 0.2387517 1 0 1
-0.1966349 -0.2507243 0.2391146 1 0 1
-0.1936153 -0.2492065 0.2374298 1 0 1
-0.1916806 -0.2504061 0.2384591 1 0 1
-0.1892115 -0.2502352 0.2381199 1 0 1
-0.1859724 -0.2480048 0.2357267 1 0 1
-0.1837804 -0.2485007 0.2360534 1 0 1
-0.1813355 -0.248305 0.2356905 1 0 1
-0.1786491 -0.2474151 0.2346362 1 0 1
-0.1764624 -0.2478905 0.2349423 1 0 1
-0.1740343 -0.2476719 0.234557 1 0 1
-0.1713764 -0.2467567 0.233479 1 0 1
-0.1687318 -0.2458324 0.2323927 1 0 1
-0.1658729 -0.2442084 0.2306116 1 0 1
-0.1632592 -0.2432651 0.2295083 1 0 1
-0.1617601 -0.2457735 0.2318336 1 0 1
-0.1602361 -0.2482805 0.2341555 1 0 1
-0.1576246 -0.247318 0.2330323 1 0 1
-0.1560701 -0.2498184 0.2353447 1 0 1
-0.1534669 -0.2488418 0.2342076 1 0 1
-0.1498727 -0.2443773 0.2296149 1 0 1
-0.1461338 -0.2392004 0.2243202 1 0 1
-0.144194 -0.2402815 0.2252261 1 0 1
-0.1409195 -0.2364728 0.2212916 1 0 1
-0.138432 -0.2354445 0.2201109 1 0 1
-0.1365031 -0.2365054 0.2209969 1 0 1
-0.1349207 -0.2389618 0.2232611 1 0 1
-0.1317488 -0.2351114 0.2192921 1 0 1
-0.1304918 -0.2389604 0.2229301 1 0 1
-0.1295268 -0.2442135 0.2279507 1 0 1
-0.1273707 -0.2445526 0.2281179 1 0 1
-0.1218191 -0.2395845 0.2228846 1 0 1
-0.1158005 -0.2317556 0.2148416 1 0 1
-0.1127167 -0.2271171 0.2101121 1 0 1
-0.1116304 -0.232347 0.2150982 1 0 1
-0.2120447 -0.2537293 0.2399495 1 0 1
-0.208944 -0.2522638 0.238327 1 0 1
-0.2067308 -0.2528245 0.2387176 1 0 1
-0.2042299 -0.2526989 0.2384264 1 0 1
-0.2017341 -0.2525654 0.2381276 1 0 1
-0.1995214 -0.2531062 0.2384974 1 0 1
-0.1970324 -0.2529578 0.2381838 1 0 1
-0.1940086 -0.2514336 0.2365071 1 0 1
-0.1920705 -0.2526375 0.2375335 1 0 1
-0.1895977 -0.2524657 0.2371969 1 0 1
-0.1866129 -0.2509127 0.2354939 1 0 1
-0.1839036 -0.2500361 0.2344611 1 0 1
-0.1819609 -0.2512151 0.2354613 1 0 1
-0.1795139 -0.2510115 0.2350941 1 0 1
-0.1768291 -0.2501101 0.2340377 1 0 1
-0.1746368 -0.2505811 0.2343373 1 0 1
-0.1722068 -0.2503546 0.2339478 1 0 1
-0.1695506 -0.249428 0.2328677 1 0 1
-0.1666796 -0.2477989 0.2310958 1 0 1
-0.1645027 -0.2482414 0.231367 1 0 1
-0.1621035 -0.2479831 0.2309473 1 0 1
-0.16036 -0.2498041 0.2325757 1 0 1
-0.1579611 -0.2495331 0.2321429 1 0 1
-0.1559859 -0.2506489 0.2330749 1 0 1
-0.1531812 -0.2489689 0.2312559 1 0 1
-0.1508004 -0.2486757 0.2308018 1 0 1
-0.1476364 -0.2455785 0.227592 1 0 1
-0.1454766 -0.2459677 0.2278097 1 0 1
-0.1425569 -0.2435488 0.2252694 1 0 1
-0.1404096 -0.2439236 0.2254732 1 0 1
-0.1384425 -0.2449945 0.2263594 1 0 1
-0.1362882 -0.2453582 0.2265512 1 0 1
-0.1336103 -0.2436063 0.2246687 1 0 1
-0.1319755 -0.246068 0.2269161 1 0 1
-0.1296507 -0.2457097 0.2263994 1 0 1
-0.126845 -0.2432289 0.2238049 1 0 1
-0.1242277 -0.2414431 0.2218926 1 0 1
-0.1224057 -0.2431794 0.2234266 1 0 1
-0.1198131 -0.2413779 0.2215001 1 0 1
-0.1173895 -0.2402746 0.2202572 1 0 1
-0.1158382 -0.2434111 0.2231568 1 0 1
-0.1141154 -0.2458377 0.2253604 1 0 1
-0.1118275 -0.2454254 0.224791 1 0 1
-0.1079085 -0.2481306 0.2270948 1 0 1
-0.1031017 -0.2458405 0.2245262 1 0 1
-0.102455 -0.2553578 0.2336266 1 0 1
-0.09991784 -0.2534882 0.2316345 1 0 1
-0.08922669 -0.240212 0.218046 1 0 1
-0.08279183 -0.2401602 0.2174945 1 0 1
-0.08067751 -0.2403693 0.2175299 1 0 1
-0.07810373 -0.2362775 0.2133949 1 0 1
-0.07564902 -0.2328918 0.2099475 1 0 1
-0.06735403 -0.2336092 0.2099795 1 0 1
-0.06384033 -0.2432704 0.2189836 1 0 1
-0.06180357 -0.244865 0.2203527 1 0 1
-0.05905188 -0.2342357 0.209917 1 0 1
-0.2127618 -0.2566472 0.2396617 1 0 1
-0.2093602 -0.2544955 0.237377 1 0 1
-0.2074327 -0.25574 0.2384391 1 0 1
-0.2043533 -0.2542486 0.2368065 1 0 1
-0.2021393 -0.254797 0.2371826 1 0 1
-0.2002008 -0.2560243 0.238226 1 0 1
-0.1979784 -0.2565616 0.2385898 1 0 1
-0.1952131 -0.2557195 0.2375974 1 0 1
-0.1932603 -0.2569304 0.2386226 1 0 1
-0.1907723 -0.2567602 0.2382904 1 0 1
-0.1880307 -0.2558928 0.2372739 1 0 1
-0.1853023 -0.2550159 0.2362488 1 0 1
-0.1828384 -0.2548205 0.2358927 1 0 1
-0.1801324 -0.2539256 0.2348508 1 0 1
-0.1771962 -0.2523286 0.2331216 1 0 1
-0.1754799 -0.2541882 0.2347796 1 0 1
-0.1730384 -0.2539621 0.2343938 1 0 1
-0.1701383 -0.2523381 0.2326398 1 0 1
-0.1672594 -0.2507033 0.2308764 1 0 1
-0.1650749 -0.251148 0.231148 1 0 1
-0.1624475 -0.2501917 0.2300495 1 0 1
-0.1607008 -0.2520194 0.2316721 1 0 1
-0.1585109 -0.2524461 0.2319246 1 0 1
-0.1567375 -0.2542664 0.2335371 1 0 1
-0.1541262 -0.2532817 0.2324108 1 0 1
-0.1515285 -0.2522882 0.2312765 1 0 1
-0.1487471 -0.250584 0.2294499 1 0 1
-0.1465682 -0.2509773 0.229669 1 0 1
-0.1434388 -0.2478484 0.226456 1 0 1
-0.141648 -0.2496344 0.2280317 1 0 1
-0.1398401 -0.251417 0.2296026 1 0 1
-0.1374808 -0.2510807 0.22911 1 0 1
-0.1344306 -0.2479134 0.2258643 1 0 1
-0.1327812 -0.2503863 0.2281041 1 0 1
-0.1301078 -0.2486139 0.2262164 1 0 1
-0.1274563 -0.246832 0.2243208 1 0 1
-0.1253032 -0.2471656 0.2244804 1 0 1
-0.1234585 -0.2489113 0.22601 1 0 1
-0.1209931 -0.2478152 0.2247812 1 0 1
-0.1186891 -0.2474211 0.2242338 1 0 1
-0.116535 -0.2477306 0.2243685 1 0 1
-0.1143796 -0.2480343 0.224497 1 0 1
-0.1123585 -0.2490439 0.2253086 1 0 1
-0.1103286 -0.2500486 0.2261145 1 0 1
-0.1088001 -0.2538997 0.2296732 1 0 1
-0.1068605 -0.2556099 0.231158 1 0 1
-0.1047844 -0.2566024 0.2319473 1 0 1
-0.1030471 -0.2597327 0.2348011 1 0 1
-0.1006059 -0.2585722 0.2335079 1 0 1
-0.09796322 -0.2559732 0.2308269 1 0 1
-0.09524686 -0.2526489 0.2274478 1 0 1
-0.09296964 -0.2521787 0.2268243 1 0 1
-0.09069943 -0.2517017 0.2261943 1 0 1
-0.08834388 -0.2505009 0.224867 1 0 1
-0.08626869 -0.2514447 0.2256061 1 0 1
-0.08418494 -0.2523834 0.2263393 1 0 1
-0.08193134 -0.2518805 0.225684 1 0 1
-0.07945485 -0.2492153 0.2229489 1 0 1
-0.07693636 -0.2458223 0.2195159 1 0 1
-0.07438772 -0.2417005 0.2153851 1 0 1
-0.07253484 -0.244765 0.2181612 1 0 1
-0.070467 -0.2456664 0.2188574 1 0 1
-0.0683338 -0.2458424 0.2188562 1 0 1
-0.06625324 -0.2467332 0.2195403 1 0 1
-0.06460725 -0.2541069 0.2264397 1 0 1
-0.06233894 -0.2528262 0.2250374 1 0 1
-0.05979659 -0.246488 0.2187907 1 0 1
-0.05788585 -0.2509653 0.2229061 1 0 1
-0.05294685 -0.2360768 0.208313 1 0 1
-0.05086985 -0.2362023 0.2082646 1 0 1
-0.04892265 -0.2406585 0.2123551 1 0 1
-0.04692813 -0.2451116 0.2164384 1 0 1
-0.04478958 -0.2444994 0.2156802 1 0 1
-0.04284638 -0.2576244 0.2280343 1 0 1
-0.04061891 -0.2533856 0.2238105 1 0 1
-0.03842856 -0.2455202 0.2161318 1 0 1
-0.03631323 -0.2419885 0.2125904 1 0 1
-0.03416096 -0.2478615 0.2180117 1 0 1
-0.2134796 -0.2595691 0.2393566 1 0 1
-0.2106564 -0.258777 0.2384201 1 0 1
-0.2078457 -0.2579749 0.2374744 1 0 1
-0.2050479 -0.2571628 0.2365196 1 0 1
-0.2028265 -0.257714 0.2368962 1 0 1
-0.2003248 -0.2575716 0.2365955 1 0 1
-0.1983769 -0.258798 0.23763 1 0 1
-0.1958782 -0.2586417 0.2373151 1 0 1
-0.194185 -0.2605478 0.2390106 1 0 1
-0.1911597 -0.2589963 0.2373356 1 0 1
-0.188155 -0.2574333 0.2356508 1 0 1
-0.1856818 -0.2572446 0.2353048 1 0 1
-0.183214 -0.2570481 0.2349513 1 0 1
-0.1802564 -0.255455 0.2332394 1 0 1
-0.1778074 -0.2552414 0.2328698 1 0 1
-0.1758442 -0.2564125 0.2338461 1 0 1
-0.1733989 -0.2561852 0.2334628 1 0 1
-0.1704946 -0.2545547 0.231717 1 0 1
-0.1678399 -0.2536119 0.2306399 1 0 1
-0.165648 -0.2540589 0.2309117 1 0 1
-0.1632336 -0.2537996 0.2304982 1 0 1
-0.1612589 -0.2549346 0.2314363 1 0 1
-0.1590616 -0.2553635 0.2316891 1 0 1
-0.157072 -0.2564888 0.2326159 1 0 1
-0.154662 -0.2562033 0.2321757 1 0 1
-0.1518548 -0.2545026 0.2303661 1 0 1
-0.1488713 -0.2520872 0.2278662 1 0 1
-0.1466927 -0.2524811 0.2280846 1 0 1
-0.1437525 -0.2500454 0.2255675 1 0 1
-0.1415861 -0.2504247 0.2257719 1 0 1
-0.1397829 -0.2522127 0.2273362 1 0 1
-0.1377842 -0.2532894 0.2282123 1 0 1
-0.1347293 -0.25011 0.2249805 1 0 1
-0.1329062 -0.2518828 0.2265275 1 0 1
-0.1303991 -0.2508128 0.2253321 1 0 1
-0.1279063 -0.2497344 0.2241293 1 0 1
-0.1255866 -0.2493587 0.223604 1 0 1
-0.1237387 -0.2511109 0.2251277 1 0 1
-0.1215717 -0.251435 0.2252752 1 0 1
-0.1194033 -0.2517532 0.2254166 1 0 1
-0.1173772 -0.2527789 0.2262378 1 0 1
-0.1150631 -0.2523718 0.2256808 1 0 1
-0.1130269 -0.2533867 0.22649 1 0 1
-0.11085 -0.2536817 0.2266067 1 0 1
-0.1086721 -0.2539707 0.2267173 1 0 1
-0.106617 -0.2549698 0.2275086 1 0 1
-0.1044331 -0.2552474 0.2276069 1 0 1
-0.1023644 -0.256236 0.2283862 1 0 1
-0.1000624 -0.2557847 0.2277847 1 0 1
-0.0977674 -0.2553264 0.2271766 1 0 1
-0.09516616 -0.2527061 0.2244987 1 0 1
-0.09309772 -0.2536704 0.2252531 1 0 1
-0.09092404 -0.2539103 0.2253135 1 0 1
-0.08856437 -0.252705 0.2239915 1 0 1
-0.08648569 -0.2536523 0.2247276 1 0 1
-0.08431368 -0.253874 0.2247693 1 0 1
-0.08197924 -0.2526478 0.2234281 1 0 1
-0.07989063 -0.2535781 0.2241458 1 0 1
-0.07764753 -0.2530599 0.2234806 1 0 1
-0.07520444 -0.2503691 0.2207436 1 0 1
-0.07318312 -0.2520036 0.2221314 1 0 1
-0.07090069 -0.2507428 0.220759 1 0 1
-0.06869072 -0.2501978 0.2200689 1 0 1
-0.0665415 -0.2503695 0.2200613 1 0 1
-0.06444135 -0.251259 0.220736 1 0 1
-0.06237844 -0.252867 0.2220929 1 0 1
-0.06009154 -0.2508493 0.2200018 1 0 1
-0.05790317 -0.2502729 0.2192813 1 0 1
-0.05562119 -0.2475161 0.2164903 1 0 1
-0.05322148 -0.2411265 0.2102531 1 0 1
-0.05112496 -0.2412535 0.210204 1 0 1
-0.04911595 -0.2442765 0.2129008 1 0 1
-0.04694939 -0.2422159 0.2107758 1 0 1
-0.04500299 -0.2503101 0.2182736 1 0 1
-0.04298005 -0.2591289 0.22645 1 0 1
-0.04076987 -0.2570528 0.2243054 1 0 1
-0.03857653 -0.2527904 0.2200935 1 0 1
-0.03642365 -0.2514264 0.2186261 1 0 1
-0.03432589 -0.2449687 0.2123448 1 0 1
-0.02386349 -0.2423794 0.2090247 1 0 1
-0.02191316 -0.2387885 0.2054645 1 0 1
-0.01302407 -0.2483731 0.21378 1 0 1
-0.01026208 -0.2578502 0.2225102 1 0 1
-0.002783919 -0.2440354 0.2088011 1 0 1
-0.001163084 -0.2389299 0.2038314 1 0 1
0.0009094283 -0.2389126 0.2036358 1 0 1
-0.2150897 -0.264551 0.2410286 1 0 1
-0.2122474 -0.2637592 0.2401002 1 0 1
-0.2097075 -0.2636447 0.2398287 1 0 1
-0.206315 -0.2614575 0.237549 1 0 1
-0.2040788 -0.2620132 0.2379274 1 0 1
-0.2012835 -0.2611826 0.2369631 1 0 1
-0.1993248 -0.2624151 0.2379958 1 0 1
-0.1968147 -0.2622597 0.2376848 1 0 1
-0.1951108 -0.2641746 0.2393757 1 0 1
-0.1923369 -0.2633121 0.2383806 1 0 1
-0.189576 -0.2624401 0.2373767 1 0 1
-0.1868281 -0.2615584 0.236364 1 0 1
-0.1840934 -0.2606672 0.2353427 1 0 1
-0.1813719 -0.2597664 0.2343126 1 0 1
-0.1786636 -0.2588563 0.2332742 1 0 1
-0.1766893 -0.2600331 0.2342484 1 0 1
-0.1739962 -0.2591068 0.2331945 1 0 1
-0.1713164 -0.258171 0.2321322 1 0 1
-0.16865 -0.2572261 0.2310615 1 0 1
-0.166222 -0.256974 0.2306584 1 0 1
-0.1637999 -0.2567143 0.2302478 1 0 1
-0.1616008 -0.2571506 0.2305068 1 0 1
-0.1591866 -0.2568765 0.2300823 1 0 1
-0.1569878 -0.2573 0.2303281 1 0 1
-0.1547874 -0.2577175 0.2305676 1 0 1
-0.1523834 -0.2574226 0.2301225 1 0 1
-0.1497876 -0.2564129 0.2289915 1 0 1
-0.1475937 -0.2568102 0.2292108 1 0 1
-0.1446373 -0.2543672 0.2267059 1 0 1
-0.1424558 -0.2547498 0.2269112 1 0 1
-0.1402728 -0.2551264 0.2271102 1 0 1
-0.1380883 -0.2554971 0.227303 1 0 1
-0.1352033 -0.2530168 0.224766 1 0 1
-0.1333732 -0.2547967 0.2263073 1 0 1
-0.1308581 -0.2537231 0.2251177 1 0 1
-0.1285203 -0.2533543 0.2246024 1 0 1
-0.1263483 -0.2536921 0.2247625 1 0 1
-0.1244855 -0.2554524 0.226281 1 0 1
-0.1223031 -0.2557794 0.2264291 1 0 1
-0.1201194 -0.2561004 0.226571 1 0 1
-0.1182219 -0.2578475 0.2280729 1 0 1
-0.1157486 -0.2567244 0.226836 1 0 1
-0.1136972 -0.2577446 0.2276427 1 0 1
-0.1112411 -0.2566068 0.2263923 1 0 1
-0.1090556 -0.2568974 0.2265027 1 0 1
-0.1066208 -0.2557446 0.2252386 1 0 1
-0.104441 -0.2560221 0.2253362 1 0 1
-0.1022603 -0.2562937 0.2254277 1 0 1
-0.1000786 -0.2565594 0.2255129 1 0 1
-0.09767899 -0.2553777 0.2242222 1 0 1
-0.09529417 -0.2541884 0.2229249 1 0 1
-0.09322615 -0.2551557 0.223676 1 0 1
-0.09095592 -0.2546742 0.2230508 1 0 1
-0.08878563 -0.2549081 0.2231046 1 0 1
-0.08661458 -0.2551362 0.2231521 1 0 1
-0.08444279 -0.2553582 0.2231935 1 0 1
-0.08218921 -0.2548507 0.2225432 1 0 1
-0.08001997 -0.2550605 0.2225721 1 0 1
-0.07770366 -0.2538157 0.2212237 1 0 1
-0.07540241 -0.2525634 0.2198692 1 0 1
-0.07324712 -0.2527539 0.2198795 1 0 1
-0.07090687 -0.2507623 0.2178268 1 0 1
-0.06870476 -0.2502144 0.2171393 1 0 1
-0.0666173 -0.2511117 0.217817 1 0 1
-0.0645215 -0.2520038 0.2184885 1 0 1
-0.06237171 -0.2521641 0.2184684 1 0 1
-0.06026338 -0.2530453 0.2191277 1 0 1
-0.05810894 -0.2531939 0.2190952 1 0 1
-0.0559542 -0.2533367 0.2190567 1 0 1
-0.0537091 -0.2512906 0.2169561 1 0 1
-0.05159172 -0.2521487 0.2175909 1 0 1
-0.04939984 -0.2508169 0.2161641 1 0 1
-0.04724169 -0.2502066 0.2154165 1 0 1
-0.04511987 -0.2510472 0.216033 1 0 1
-0.04302111 -0.2540685 0.2186973 1 0 1
-0.04086512 -0.2541696 0.218616 1 0 1
-0.03870909 -0.2542649 0.2185286 1 0 1
-0.03655883 -0.2514372 0.2156982 1 0 1
-0.03442391 -0.2507904 0.2149152 1 0 1
-0.03231554 -0.2486785 0.2127589 1 0 1
-0.03024407 -0.2458301 0.2099141 1 0 1
-0.02811831 -0.2466239 0.2104822 1 0 1
-0.02600592 -0.2466822 0.2103608 1 0 1
-0.02399394 -0.2438147 0.2075014 1 0 1
-0.02204257 -0.2402106 0.2039553 1 0 1
-0.01980161 -0.2439015 0.2072306 1 0 1
-0.01777956 -0.2424757 0.2057219 1 0 1
-0.01556961 -0.2446954 0.2076181 1 0 1
-0.01306813 -0.2512915 0.2135963 1 0 1
-0.01049627 -0.2578823 0.2195633 1 0 1
-0.008958083 -0.2491297 0.2112173 1 0 1
-0.006780134 -0.2498658 0.2117218 1 0 1
-0.004896958 -0.2469441 0.2088179 1 0 1
-0.00311003 -0.2432863 0.2052308 1 0 1
-0.001294602 -0.2403532 0.2023211 1 0 1
0.0007776878 -0.2403359 0.2021255 1 0 1
0.002849418 -0.2403128 0.2019241 1 0 1
0.00532078 -0.2439351 0.2051093 1 0 1
0.00783069 -0.247551 0.2082846 1 0 1
0.01064279 -0.2533506 0.213483 1 0 1
0.01333328 -0.2576829 0.217314 1 0 1
0.01606999 -0.2620082 0.2211339 1 0 1
0.0170593 -0.2531899 0.2127675 1 0 1
0.01795376 -0.2443683 0.2044061 1 0 1
0.01993574 -0.2435689 0.2034798 1 0 1
0.02146343 -0.2398465 0.1998487 1 0 1
0.02352756 -0.239766 0.199589 1 0 1
0.02559077 -0.2396797 0.1993235 1 0 1
0.02765302 -0.2395877 0.1990522 1 0 1
0.0286982 -0.2336602 0.1933917 1 0 1
0.03059636 -0.2328298 0.1924407 1 0 1
-0.2161068 -0.2681764 0.2413426 1 0 1
-0.2129594 -0.2666943 0.2397582 1 0 1
-0.2107018 -0.2672698 0.2401533 1 0 1
-0.2072974 -0.2650757 0.2378859 1 0 1
-0.2047678 -0.2649432 0.2376007 1 0 1
-0.2022434 -0.2648027 0.2373077 1 0 1
-0.2002738 -0.2660415 0.2383388 1 0 1
-0.1977523 -0.2658868 0.2380316 1 0 1
-0.1955034 -0.2664196 0.2383838 1 0 1
-0.1927255 -0.2655535 0.237394 1 0 1
-0.1902202 -0.265375 0.2370638 1 0 1
-0.1872089 -0.2637926 0.2353883 1 0 1
-0.184974 -0.2642955 0.2357111 1 0 1
-0.182489 -0.2640924 0.2353574 1 0 1
-0.1797653 -0.2631812 0.234326 1 0 1
-0.1775357 -0.2636632 0.2346278 1 0 1
-0.1748309 -0.2627346 0.2335804 1 0 1
-0.1719067 -0.2610937 0.2318525 1 0 1
-0.1694615 -0.2608496 0.2314602 1 0 1
-0.1667968 -0.2598931 0.2303876 1 0 1
-0.164367 -0.259633 0.2299803 1 0 1
-0.1619431 -0.2593654 0.2295656 1 0 1
-0.1597387 -0.259797 0.229818 1 0 1
-0.1575325 -0.2602226 0.230064 1 0 1
-0.1555305 -0.2613506 0.2309788 1 0 1
-0.152913 -0.2603466 0.2298616 1 0 1
-0.1507056 -0.2607534 0.2300882 1 0 1
-0.1484966 -0.2611541 0.2303085 1 0 1
-0.1457146 -0.259415 0.2284924 1 0 1
-0.143514 -0.2598016 0.2286989 1 0 1
-0.1411291 -0.2594696 0.2282218 1 0 1
-0.1387505 -0.2591301 0.2277376 1 0 1
-0.1358533 -0.2566419 0.2252124 1 0 1
-0.1340122 -0.2584294 0.2267485 1 0 1
-0.1316525 -0.2580682 0.2262436 1 0 1
-0.129136 -0.2569838 0.2250527 1 0 1
-0.126793 -0.2566076 0.2245338 1 0 1
-0.1247676 -0.257658 0.2253672 1 0 1
-0.1225816 -0.257986 0.225515 1 0 1
-0.1203943 -0.2583081 0.2256567 1 0 1
-0.1183497 -0.2593429 0.2264723 1 0 1
-0.1161561 -0.2596535 0.2266016 1 0 1
-0.1139613 -0.2599582 0.2267248 1 0 1
-0.1115011 -0.258816 0.2254796 1 0 1
-0.1091837 -0.2583868 0.2249087 1 0 1
-0.1069975 -0.2586718 0.2250125 1 0 1
-0.1044487 -0.2567853 0.2230655 1 0 1
-0.1023888 -0.2577792 0.223838 1 0 1
-0.09998196 -0.2565995 0.2225591 1 0 1
-0.09769873 -0.2561354 0.2219554 1 0 1
-0.0954224 -0.2556644 0.2213453 1 0 1
-0.09345577 -0.257359 0.2227753 1 0 1
-0.0911817 -0.2568756 0.2221527 1 0 1
-0.08900771 -0.2571104 0.2222062 1 0 1
-0.08683297 -0.2573392 0.2222534 1 0 1
-0.08465751 -0.257562 0.2222944 1 0 1
-0.08231875 -0.2563264 0.220964 1 0 1
-0.08007233 -0.2558099 0.2203099 1 0 1
-0.07783319 -0.2552867 0.2196496 1 0 1
-0.07567081 -0.2554841 0.2196658 1 0 1
-0.07331101 -0.2534926 0.2176276 1 0 1
-0.07109763 -0.2529491 0.2169487 1 0 1
-0.0689494 -0.2531274 0.2169465 1 0 1
-0.06680068 -0.2532998 0.2169382 1 0 1
-0.06470145 -0.2541952 0.2176066 1 0 1
-0.06254797 -0.2543561 0.2175861 1 0 1
-0.06039413 -0.2545109 0.2175595 1 0 1
-0.05823993 -0.2546598 0.2175268 1 0 1
-0.05605124 -0.2540728 0.2168054 1 0 1
-0.05380959 -0.2520187 0.2147134 1 0 1
-0.05169663 -0.2528795 0.2153451 1 0 1
-0.04953084 -0.2522732 0.214606 1 0 1
-0.04739112 -0.2523915 0.2145432 1 0 1
-0.04526584 -0.2532352 0.2151564 1 0 1
-0.04314319 -0.2548048 0.2164452 1 0 1
-0.04099802 -0.2556376 0.2170455 1 0 1
-0.03883678 -0.2542695 0.2155948 1 0 1
-0.03669121 -0.2528949 0.2141388 1 0 1
-0.03455627 -0.2522456 0.2133585 1 0 1
-0.03242926 -0.2515903 0.2125726 1 0 1
-0.03033621 -0.249464 0.2104195 1 0 1
-0.02821605 -0.2495286 0.2103033 1 0 1
-0.02609602 -0.2495873 0.2101812 1 0 1
-0.02395134 -0.2503728 0.2107333 1 0 1
-0.02191401 -0.2482216 0.2085593 1 0 1
-0.01980248 -0.2482625 0.2084198 1 0 1
-0.0176546 -0.2490305 0.2089537 1 0 1
-0.01545862 -0.2505258 0.2101601 1 0 1
-0.01324729 -0.2520153 0.2113594 1 0 1
-0.01102058 -0.2534992 0.2125514 1 0 1
-0.008830863 -0.2542441 0.2130581 1 0 1
-0.006915006 -0.2513177 0.210169 1 0 1
-0.004910673 -0.2498515 0.2086314 1 0 1
-0.002986662 -0.2476465 0.2064122 1 0 1
-0.001154765 -0.2447027 0.2035124 1 0 1
0.000933003 -0.2446853 0.2033153 1 0 1
0.003247825 -0.246861 0.2051403 1 0 1
0.005346169 -0.2468319 0.2049302 1 0 1
0.007527586 -0.2475297 0.2053895 1 0 1
0.009716154 -0.2482216 0.205842 1 0 1
0.01209493 -0.2503729 0.2076366 1 0 1
0.01430554 -0.2510525 0.2080746 1 0 1
0.02166217 -0.2434606 0.200349 1 0 1
0.02373783 -0.2433796 0.2000878 1 0 1
0.02593148 -0.2440246 0.200492 1 0 1
0.028992 -0.2497846 0.2055833 1 0 1
0.03163886 -0.2408042 0.1969765 1 0 1
0.03437064 -0.24435 0.2000327 1 0 1
0.04009008 -0.2521482 0.2067789 1 0 1
0.04537557 -0.2569921 0.2108092 1 0 1
-0.2192084 -0.2766445 0.2462479 1 0 1
-0.216023 -0.2751651 0.2446777 1 0 1
-0.2131478 -0.2743661 0.2437576 1 0 1
-0.2097126 -0.27217 0.2415058 1 0 1
-0.2074353 -0.2727377 0.2418895 1 0 1
-0.2045982 -0.2719085 0.2409417 1 0 1
-0.2023237 -0.2724617 0.241311 1 0 1
-0.1992335 -0.2709173 0.2396826 1 0 1
-0.1972332 -0.2721534 0.2407013 1 0 1
-0.1939052 -0.2698903 0.2383902 1 0 1
-0.1913848 -0.2697136 0.2380643 1 0 1
-0.1888697 -0.2695287 0.2377308 1 0 1
-0.1863602 -0.269336 0.2373895 1 0 1
-0.1833595 -0.2677306 0.2357066 1 0 1
-0.1808687 -0.2675204 0.2353492 1 0 1
-0.1783834 -0.2673024 0.2349842 1 0 1
-0.175667 -0.2663717 0.2339432 1 0 1
-0.1729639 -0.2654317 0.2328938 1 0 1
-0.1705033 -0.2651889 0.2325055 1 0 1
-0.1675979 -0.2635237 0.2307697 1 0 1
-0.1651567 -0.263264 0.230366 1 0 1
-0.1625036 -0.2622877 0.2292838 1 0 1
-0.1600779 -0.262012 0.228865 1 0 1
-0.1580781 -0.2631492 0.2297827 1 0 1
-0.1560689 -0.2642819 0.2306947 1 0 1
-0.1536458 -0.2639865 0.230256 1 0 1
-0.1514271 -0.264396 0.2304832 1 0 1
-0.1492067 -0.2647994 0.2307041 1 0 1
-0.1464128 -0.2630551 0.228897 1 0 1
-0.1442008 -0.2634443 0.229104 1 0 1
-0.1418044 -0.2631122 0.2286301 1 0 1
-0.1395933 -0.2634886 0.2288241 1 0 1
-0.1370303 -0.2624259 0.2276614 1 0 1
-0.134824 -0.2627889 0.2278421 1 0 1
-0.1324489 -0.262428 0.2273407 1 0 1
-0.1300801 -0.2620598 0.2268324 1 0 1
-0.1278775 -0.2624034 0.2269936 1 0 1
-0.1256735 -0.2627409 0.2271485 1 0 1
-0.1233164 -0.2623523 0.2266203 1 0 1
-0.1211138 -0.2626771 0.2267623 1 0 1
-0.11891 -0.2629959 0.2268982 1 0 1
-0.1165648 -0.2625868 0.2263501 1 0 1
-0.1142262 -0.2621706 0.2257952 1 0 1
-0.1118943 -0.2617472 0.2252337 1 0 1
-0.1094406 -0.2605933 0.2239872 1 0 1
-0.1071261 -0.2601552 0.2234122 1 0 1
-0.1046977 -0.2589857 0.2221519 1 0 1
-0.1025174 -0.2592582 0.2222425 1 0 1
-0.1002234 -0.2587992 0.2216478 1 0 1
-0.09793624 -0.2583333 0.2210467 1 0 1
-0.09565599 -0.2578605 0.2204392 1 0 1
-0.09358509 -0.2588344 0.2211838 1 0 1
-0.09150549 -0.2598032 0.2219225 1 0 1
-0.08951056 -0.2614946 0.2233349 1 0 1
-0.08732041 -0.2617254 0.223382 1 0 1
-0.08521501 -0.2626787 0.2241027 1 0 1
-0.08293796 -0.262169 0.2234578 1 0 1
-0.08059043 -0.2609233 0.2221266 1 0 1
-0.07833169 -0.2603996 0.221469 1 0 1
-0.07608017 -0.2598692 0.2208051 1 0 1
-0.07377008 -0.2586017 0.2194551 1 0 1
-0.07147516 -0.257327 0.2180989 1 0 1
-0.06919543 -0.2560449 0.2167366 1 0 1
-0.06698501 -0.2554869 0.2160481 1 0 1
-0.0648322 -0.2556539 0.2160333 1 0 1
-0.0627252 -0.256547 0.2166924 1 0 1
-0.06060997 -0.2574347 0.2173452 1 0 1
-0.05844816 -0.2575845 0.217312 1 0 1
-0.05625162 -0.2569956 0.2165932 1 0 1
-0.05403213 -0.2556672 0.2151888 1 0 1
-0.05188132 -0.2557983 0.2151376 1 0 1
-0.04970761 -0.2551902 0.214401 1 0 1
-0.04757903 -0.2560429 0.215017 1 0 1
-0.04544242 -0.25689 0.2156267 1 0 1
-0.04328699 -0.2569977 0.2155511 1 0 1
-0.04112458 -0.256365 0.2147905 1 0 1
-0.03897296 -0.2564605 0.2147029 1 0 1
-0.03682422 -0.2543463 0.2125737 1 0 1
-0.03469417 -0.2529599 0.2111178 1 0 1
-0.03254459 -0.2545066 0.2123691 1 0 1
-0.03041767 -0.2538428 0.2115799 1 0 1
-0.02831539 -0.2524378 0.2101073 1 0 1
-0.02616711 -0.2532321 0.2106621 1 0 1
-0.02403571 -0.2532854 0.2105331 1 0 1
-0.02199 -0.2511265 0.2083672 1 0 1
-0.01987084 -0.2511677 0.2082269 1 0 1
-0.01775192 -0.2512031 0.2080808 1 0 1
-0.01563334 -0.2512326 0.2079287 1 0 1
-0.01338243 -0.2534633 0.2097983 1 0 1
-0.01125276 -0.2534811 0.2096333 1 0 1
-0.009071399 -0.2542289 0.2101376 1 0 1
-0.007106649 -0.2520276 0.2079355 1 0 1
-0.004986091 -0.2520278 0.2077532 1 0 1
-0.003185346 -0.2483433 0.2041938 1 0 1
-0.001017696 -0.2490675 0.2046752 1 0 1
0.00108557 -0.24905 0.2044765 1 0 1
0.003263838 -0.2497623 0.2049451 1 0 1
0.005449335 -0.2504688 0.2054069 1 0 1
0.007725487 -0.2519047 0.2065344 1 0 1
0.009754463 -0.2511281 0.2056384 1 0 1
0.01204878 -0.2525519 0.206752 1 0 1
0.01407236 -0.2517636 0.2058446 1 0 1
0.01608734 -0.2509697 0.2049321 1 0 1
0.0177845 -0.247965 0.2020043 1 0 1
0.02030525 -0.2508347 0.2044317 1 0 1
0.02219111 -0.2492889 0.2028341 1 0 1
0.02451955 -0.2506762 0.2039075 1 0 1
0.02674404 -0.2513225 0.2043048 1 0 1
0.02934308 -0.2541655 0.2066982 1 0 1
0.03108692 -0.2518625 0.2044113 1 0 1
0.03228466 -0.2466192 0.1994551 1 0 1
0.03409825 -0.2450414 0.197831 1 0 1
0.03617147 -0.2449255 0.1975345 1 0 1
0.03838572 -0.245537 0.1978971 1 0 1
0.04119049 -0.2490742 0.2009103 1 0 1
0.04433273 -0.2540687 0.2052394 1 0 1
0.04522177 -0.2480663 0.1996063 1 0 1
0.04746615 -0.2486524 0.1999402 1 0 1
0.04794017 -0.2411808 0.1929855 1 0 1
0.06070512 -0.2505721 0.2004768 1 0 1
0.06206239 -0.2474633 0.197472 1 0 1
0.07319576 -0.2343524 0.1842726 1 0 1
-0.2229097 -0.2865439 0.2524034 1 0 1
-0.2196787 -0.2850693 0.2508489 1 0 1
-0.2167581 -0.2842775 0.2499414 1 0 1
-0.213277 -0.2820834 0.2477078 1 0 1
-0.2106719 -0.2819661 0.2474393 1 0 1
-0.2077931 -0.2811427 0.2465032 1 0 1
-0.2049268 -0.2803093 0.245558 1 0 1
-0.2015308 -0.2780663 0.2432819 1 0 1
-0.1992331 -0.2786123 0.2436402 1 0 1
-0.1961417 -0.2770474 0.2420057 1 0 1
-0.1933308 -0.2761733 0.2410238 1 0 1
-0.1910454 -0.276696 0.2413594 1 0 1
-0.1885054 -0.2765083 0.2410247 1 0 1
-0.1857224 -0.2756076 0.240018 1 0 1
-0.1827078 -0.2739914 0.2383379 1 0 1
-0.1801959 -0.2737774 0.2379787 1 0 1
-0.1772154 -0.2721404 0.2362804 1 0 1
-0.1749556 -0.2726172 0.2365714 1 0 1
-0.1724646 -0.2723787 0.2361891 1 0 1
-0.1695281 -0.2707128 0.234465 1 0 1
-0.1670561 -0.2704572 0.234067 1 0 1
-0.1641543 -0.2687711 0.2323253 1 0 1
-0.1612737 -0.2670743 0.2305746 1 0 1
-0.1588348 -0.2667927 0.2301529 1 0 1
-0.1566082 -0.2672172 0.2303934 1 0 1
-0.1539749 -0.2662068 0.2292878 1 0 1
-0.1519513 -0.2673328 0.230185 1 0 1
-0.1497234 -0.2677382 0.230406 1 0 1
-0.1471123 -0.2667044 0.2292786 1 0 1
-0.1450761 -0.2678134 0.2301574 1 0 1
-0.1424811 -0.2667641 0.2290155 1 0 1
-0.1400793 -0.2664246 0.228538 1 0 1
-0.1376839 -0.2660776 0.2280534 1 0 1
-0.1352947 -0.2657232 0.2275618 1 0 1
-0.1329119 -0.2653615 0.2270633 1 0 1
-0.1305355 -0.2649925 0.2265578 1 0 1
-0.1283253 -0.2653378 0.2267191 1 0 1
-0.1259578 -0.2649549 0.2262002 1 0 1
-0.1235969 -0.2645646 0.2256745 1 0 1
-0.1213907 -0.2648905 0.2258163 1 0 1
-0.1190389 -0.2644864 0.2252772 1 0 1
-0.1168342 -0.2647997 0.2254064 1 0 1
-0.1144918 -0.2643818 0.2248541 1 0 1
-0.1120234 -0.2632313 0.2236199 1 0 1
-0.1096982 -0.2627986 0.2230541 1 0 1
-0.107255 -0.2616323 0.221806 1 0 1
-0.1048264 -0.260458 0.2205511 1 0 1
-0.1026465 -0.2607309 0.2206412 1 0 1
-0.1003524 -0.2602696 0.2200489 1 0 1
-0.09828372 -0.2612587 0.2208028 1 0 1
-0.09610102 -0.2615135 0.2208742 1 0 1
-0.0939175 -0.2617624 0.2209395 1 0 1
-0.09173305 -0.2620053 0.2209986 1 0 1
-0.08973499 -0.2637027 0.2224048 1 0 1
-0.08745152 -0.2632037 0.2217749 1 0 1
-0.08517521 -0.2626977 0.2211387 1 0 1
-0.08290606 -0.2621849 0.220496 1 0 1
-0.08064404 -0.2616653 0.2198471 1 0 1
-0.07846319 -0.2618713 0.219869 1 0 1
-0.07621169 -0.2613386 0.2192076 1 0 1
-0.07396748 -0.2607992 0.21854 1 0 1
-0.07166844 -0.2595198 0.2171893 1 0 1
-0.06944282 -0.2589667 0.2165093 1 0 1
-0.06722457 -0.258407 0.2158234 1 0 1
-0.06506418 -0.2585751 0.2158083 1 0 1
-0.06290336 -0.258737 0.2157871 1 0 1
-0.06082721 -0.2603628 0.2171136 1 0 1
-0.05858063 -0.2590432 0.2157264 1 0 1
-0.05641878 -0.2591873 0.215687 1 0 1
-0.05425664 -0.2593254 0.2156413 1 0 1
-0.05206745 -0.2587217 0.2149131 1 0 1
-0.04990882 -0.2588476 0.2148553 1 0 1
-0.04776892 -0.2597039 0.2154679 1 0 1
-0.04559098 -0.2590816 0.2147216 1 0 1
-0.04342081 -0.2584528 0.2139695 1 0 1
-0.04125842 -0.2578177 0.2132115 1 0 1
-0.03910706 -0.2579135 0.2131237 1 0 1
-0.03695708 -0.2565288 0.2116785 1 0 1
-0.03481359 -0.2566122 0.2115789 1 0 1
-0.03266154 -0.2574273 0.2121485 1 0 1
-0.03053926 -0.2560237 0.2106865 1 0 1
-0.02841635 -0.2553514 0.2098941 1 0 1
-0.02628109 -0.2554109 0.2097708 1 0 1
-0.02419464 -0.2539884 0.2082928 1 0 1
-0.02209587 -0.2532978 0.2074838 1 0 1
-0.02000517 -0.2526011 0.2066693 1 0 1
-0.01792264 -0.2518984 0.2058495 1 0 1
-0.01584825 -0.2511897 0.2050242 1 0 1
-0.01369413 -0.2519517 0.2055396 1 0 1
-0.01158044 -0.2519695 0.2053758 1 0 1
-0.009311632 -0.2541968 0.2072231 1 0 1
-0.007242737 -0.2534645 0.2063743 1 0 1
-0.005062777 -0.2542031 0.2068637 1 0 1
-0.003002665 -0.253459 0.2060037 1 0 1
-0.0008834086 -0.2534474 0.2058094 1 0 1
0.001235263 -0.2534299 0.2056092 1 0 1
0.003428754 -0.2541449 0.2060732 1 0 1
0.005550137 -0.2541155 0.2058607 1 0 1
0.007837314 -0.2555566 0.2069811 1 0 1
0.009878079 -0.2547773 0.2060869 1 0 1
0.01209236 -0.2554682 0.2065247 1 0 1
0.01412379 -0.254677 0.2056193 1 0 1
0.01604773 -0.2531424 0.2040411 1 0 1
0.01795516 -0.2516024 0.2024589 1 0 1
0.02048637 -0.2544823 0.2048733 1 0 1
0.02238424 -0.2529308 0.2032801 1 0 1
0.02472371 -0.254323 0.2043463 1 0 1
0.02684093 -0.2542344 0.2040738 1 0 1
0.02920189 -0.2556138 0.2051252 1 0 1
0.03094621 -0.2533028 0.202847 1 0 1
0.03266612 -0.250987 0.200566 1 0 1
0.03462964 -0.2501393 0.1996089 1 0 1
0.03658418 -0.2492861 0.198647 1 0 1
0.03895533 -0.2506353 0.1996666 1 0 1
0.04104944 -0.2505063 0.1993551 1 0 1
0.04344156 -0.2518423 0.2003595 1 0 1
0.04523399 -0.2502308 0.1987144 1 0 1
0.04732443 -0.2500842 0.1983852 1 0 1
0.04876843 -0.2469935 0.195414 1 0 1
0.051171 -0.248305 0.1963927 1 0 1
0.05375671 -0.2503434 0.1980207 1 0 1
0.05567273 -0.2494394 0.1970104 1 0 1
0.05793312 -0.249997 0.1973086 1 0 1
0.06001911 -0.249815 0.1969438 1 0 1
0.06118103 -0.2459638 0.1932976 1 0 1
0.06211447 -0.2413782 0.1889983 1 0 1
0.06453791 -0.2426466 0.1899312 1 0 1
0.06619083 -0.2409816 0.1882436 1 0 1
0.06822666 -0.2407746 0.1878578 1 0 1
0.07026083 -0.240562 0.1874663 1 0 1
0.07229334 -0.2403436 0.1870691 1 0 1
0.07432427 -0.2401195 0.1866663 1 0 1
0.07549205 -0.2369718 0.1836608 1 0 1
0.0783808 -0.2396542 0.1858436 1 0 1
0.08040643 -0.2394131 0.1854237 1 0 1
0.09111223 -0.2463842 0.1907758 1 0 1
0.09195983 -0.2424783 0.1871009 1 0 1
0.09547292 -0.2465535 0.190498 1 0 1
0.09453371 -0.2375651 0.182327 1 0 1
0.09654406 -0.2372784 0.1818621 1 0 1
0.09675076 -0.2319181 0.1769116 1 0 1
0.1148221 -0.2405389 0.1830099 1 0 1
-0.2263177 -0.2958026 0.2578312 1 0 1
-0.2230449 -0.2943318 0.2562917 1 0 1
-0.2206637 -0.2949416 0.2567059 1 0 1
-0.2168463 -0.2920518 0.2538356 1 0 1
-0.213913 -0.2912446 0.2529207 1 0 1
-0.2107131 -0.2897265 0.2513394 1 0 1
-0.2080844 -0.2895994 0.2510626 1 0 1
-0.204646 -0.2873569 0.2488036 1 0 1
-0.2017712 -0.2865072 0.2478504 1 0 1
-0.1989093 -0.2856475 0.2468881 1 0 1
-0.1965807 -0.2861877 0.2472363 1 0 1
-0.1942499 -0.2867217 0.2475778 1 0 1
-0.1914117 -0.2858357 0.2465908 1 0 1
-0.1888353 -0.2856475 0.2462564 1 0 1
-0.1857745 -0.2840343 0.2445903 1 0 1
-0.1827346 -0.2824097 0.2429145 1 0 1
-0.179241 -0.2793537 0.2399032 1 0 1
-0.1769509 -0.2798377 0.2401974 1 0 1
-0.1741996 -0.2788921 0.2391573 1 0 1
-0.1712359 -0.2772245 0.2374444 1 0 1
-0.1689591 -0.2776857 0.2377165 1 0 1
-0.1662443 -0.2767126 0.2366516 1 0 1
-0.1633288 -0.2750154 0.2349127 1 0 1
-0.1606449 -0.274023 0.2338309 1 0 1
-0.1581812 -0.2737377 0.2334075 1 0 1
-0.1557235 -0.2734448 0.2329768 1 0 1
-0.1534707 -0.2738619 0.2332063 1 0 1
-0.1508262 -0.272836 0.2320938 1 0 1
-0.1483867 -0.2725203 0.2316414 1 0 1
-0.1463278 -0.2736365 0.232519 1 0 1
-0.1437094 -0.2725866 0.2313844 1 0 1
-0.1412845 -0.2722489 0.230911 1 0 1
-0.1386902 -0.271182 0.2297612 1 0 1
-0.1362818 -0.2708288 0.2292735 1 0 1
-0.1338796 -0.2704682 0.2287788 1 0 1
-0.1314839 -0.2701002 0.2282771 1 0 1
-0.1289343 -0.2690006 0.2270979 1 0 1
-0.1265552 -0.2686172 0.2265821 1 0 1
-0.124335 -0.2689521 0.2267308 1 0 1
-0.1216682 -0.2671028 0.2248587 1 0 1
-0.1194572 -0.2674237 0.224994 1 0 1
-0.1173856 -0.2684657 0.2257949 1 0 1
-0.114758 -0.2665919 0.2239013 1 0 1
-0.1122855 -0.2654371 0.2226727 1 0 1
-0.1100855 -0.2657316 0.222782 1 0 1
-0.1076343 -0.2645614 0.2215396 1 0 1
-0.1053189 -0.264113 0.2209632 1 0 1
-0.1032447 -0.2651181 0.2217263 1 0 1
-0.1010485 -0.2653873 0.2218103 1 0 1
-0.09874187 -0.2649193 0.2212148 1 0 1
-0.09654771 -0.265176 0.2212862 1 0 1
-0.0942511 -0.2646945 0.2206778 1 0 1
-0.09205917 -0.2649387 0.2207368 1 0 1
-0.08996021 -0.2659096 0.2214632 1 0 1
-0.08776276 -0.2661422 0.2215098 1 0 1
-0.08547865 -0.2656347 0.2208761 1 0 1
-0.0832017 -0.2651205 0.2202362 1 0 1
-0.08093189 -0.2645994 0.2195899 1 0 1
-0.07881764 -0.2655414 0.2202856 1 0 1
-0.07648417 -0.2642722 0.2189527 1 0 1
-0.0742322 -0.2637312 0.2182877 1 0 1
-0.07198749 -0.2631835 0.2176165 1 0 1
-0.06980862 -0.2633654 0.2176133 1 0 1
-0.06752014 -0.262068 0.2162556 1 0 1
-0.06534824 -0.2622372 0.2162402 1 0 1
-0.0631759 -0.2624004 0.2162186 1 0 1
-0.06096042 -0.2618201 0.2155168 1 0 1
-0.05875244 -0.2612332 0.2148091 1 0 1
-0.05658692 -0.2613779 0.2147692 1 0 1
-0.05442115 -0.2615165 0.2147232 1 0 1
-0.05228214 -0.2623878 0.2153449 1 0 1
-0.05011199 -0.2625146 0.2152865 1 0 1
-0.04794162 -0.2626355 0.2152221 1 0 1
-0.04575586 -0.2620112 0.2144783 1 0 1
-0.04356651 -0.2606411 0.2130554 1 0 1
-0.0414002 -0.2600038 0.2123 1 0 1
-0.03924864 -0.2608397 0.2128847 1 0 1
-0.03709013 -0.26019 0.2121175 1 0 1
-0.0349351 -0.2602742 0.2120171 1 0 1
-0.03277175 -0.2610926 0.212583 1 0 1
-0.03063746 -0.2596842 0.2111259 1 0 1
-0.02850276 -0.2590098 0.2103358 1 0 1
-0.02635597 -0.2590699 0.2102116 1 0 1
-0.02423342 -0.2583833 0.20941 1 0 1
-0.02211892 -0.2576905 0.2086027 1 0 1
-0.02004447 -0.2562508 0.207119 1 0 1
-0.01787844 -0.2570275 0.2076425 1 0 1
-0.01578442 -0.2563166 0.2068186 1 0 1
-0.01365486 -0.2563407 0.2066594 1 0 1
-0.0115257 -0.2563587 0.2064942 1 0 1
-0.009242207 -0.258594 0.2083315 1 0 1
-0.007157585 -0.2578593 0.2074842 1 0 1
-0.00496243 -0.2586007 0.2079692 1 0 1
-0.002886641 -0.257854 0.2071106 1 0 1
-0.0008864906 -0.2563604 0.2055786 1 0 1
0.001168613 -0.2556019 0.2047099 1 0 1
0.003365494 -0.2563195 0.2051706 1 0 1
0.005569614 -0.2570311 0.2056246 1 0 1
0.007697918 -0.2569958 0.2054053 1 0 1
0.009912445 -0.2576953 0.2058462 1 0 1
0.01213405 -0.2583887 0.2062803 1 0 1
0.0140786 -0.2568542 0.2047115 1 0 1
0.01600674 -0.2553142 0.2031388 1 0 1
0.01812341 -0.2552495 0.2028906 1 0 1
0.02045218 -0.2566592 0.2039643 1 0 1
0.02246458 -0.2558423 0.2030399 1 0 1
0.02469682 -0.2564996 0.2034363 1 0 1
0.02705404 -0.2578904 0.2044883 1 0 1
0.02905972 -0.2570558 0.2035465 1 0 1
0.03093059 -0.2554762 0.2019384 1 0 1
0.03278482 -0.2538915 0.2003266 1 0 1
0.03488985 -0.2537797 0.2000317 1 0 1
0.03685616 -0.2529232 0.1990711 1 0 1
0.03937978 -0.2550154 0.2007425 1 0 1
0.04163465 -0.2556237 0.2010872 1 0 1
0.04359747 -0.2547495 0.200109 1 0 1
0.0455512 -0.25387 0.199126 1 0 1
0.04781016 -0.25446 0.199452 1 0 1
0.04959257 -0.2528319 0.1978023 1 0 1
0.05168788 -0.252673 0.1974605 1 0 1
0.0544568 -0.2554547 0.1997323 1 0 1
0.05604696 -0.2530738 0.1974133 1 0 1
0.05814193 -0.2528969 0.1970531 1 0 1
0.05987468 -0.2512428 0.1953814 1 0 1
0.06195897 -0.2510549 0.1950109 1 0 1
0.06291308 -0.2464513 0.1907256 1 0 1
0.06554702 -0.2484576 0.1923002 1 0 1
0.06722337 -0.2467848 0.1906143 1 0 1
0.06968151 -0.248043 0.1915231 1 0 1
0.07093211 -0.2448934 0.1885314 1 0 1
0.07297985 -0.2446732 0.1881314 1 0 1
0.07481467 -0.2437147 0.1870786 1 0 1
0.07685511 -0.2434834 0.186668 1 0 1
0.07889383 -0.2432464 0.1862517 1 0 1
0.0820445 -0.2466598 0.1890535 1 0 1
0.08409877 -0.2464089 0.1886218 1 0 1
0.08684237 -0.2483431 0.1901137 1 0 1
0.08913864 -0.2488089 0.1903104 1 0 1
0.0904884 -0.2463509 0.187934 1 0 1
0.09181325 -0.24389 0.1855567 1 0 1
0.09434164 -0.2450678 0.1863777 1 0 1
0.09538631 -0.2418713 0.1833563 1 0 1
0.09817166 -0.2437637 0.1848022 1 0 1
0.09969214 -0.2420139 0.1830516 1 0 1
0.1027608 -0.244617 0.1851163 1 0 1
0.1040048 -0.2421313 0.1827208 1 0 1
0.1092513 -0.2505169 0.189841 1 0 1
0.1117282 -0.2455167 0.1850217 1 0 1
0.11153 -0.239398 0.1794543 1 0 1
0.1135381 -0.2390632 0.1789413 1 0 1
0.1143943 -0.2358354 0.1759043 1 0 1
0.1198432 -0.2387449 0.1779965 1 0 1
0.1236377 -0.2427056 0.1812201 1 0 1
0.1238456 -0.2380227 0.1769184 1 0 1
0.1282626 -0.2333117 0.1721473 1 0 1
0.1363772 -0.2418424 0.1790892 1 0 1
0.1364428 -0.2371496 0.1747897 1 0 1
-0.2276421 -0.3002228 0.2586352 1 0 1
-0.2246485 -0.2994483 0.2577573 1 0 1
-0.221958 -0.2993635 0.257522 1 0 1
-0.2186987 -0.2978679 0.2559729 1 0 1
-0.2160258 -0.2977641 0.2557198 1 0 1
-0.2130785 -0.2969489 0.2548047 1 0 1
-0.2104196 -0.2968273 0.2545346 1 0 1
-0.2069503 -0.2945826 0.2522911 1 0 1
-0.2035091 -0.2923241 0.2500359 1 0 1
-0.2008885 -0.2921721 0.2497383 1 0 1
-0.198794 -0.2934269 0.2507465 1 0 1
-0.1964331 -0.2939686 0.2510917 1 0 1
-0.1943226 -0.295213 0.252088 1 0 1
-0.1917043 -0.2950323 0.2517615 1 0 1
-0.1883561 -0.2927104 0.24945 1 0 1
-0.1850363 -0.2903753 0.2471276 1 0 1
-0.1815075 -0.2873144 0.2441343 1 0 1
-0.1794169 -0.2885199 0.2450928 1 0 1
-0.1766272 -0.2875777 0.2440624 1 0 1
-0.1740768 -0.2873411 0.2436851 1 0 1
-0.1719764 -0.2885281 0.244624 1 0 1
-0.1692116 -0.2875604 0.24357 1 0 1
-0.1662457 -0.285866 0.2418446 1 0 1
-0.1635116 -0.2848787 0.2407735 1 0 1
-0.1607912 -0.2838822 0.2396939 1 0 1
-0.1578815 -0.2821568 0.237942 1 0 1
-0.1553914 -0.2818614 0.2375103 1 0 1
-0.152712 -0.2808373 0.2364064 1 0 1
-0.1500464 -0.2798041 0.2352944 1 0 1
-0.1479572 -0.280929 0.2361713 1 0 1
-0.1453077 -0.2798798 0.2350446 1 0 1
-0.1428519 -0.2795455 0.2345762 1 0 1
-0.1402265 -0.2784791 0.2334342 1 0 1
-0.1376151 -0.277404 0.2322844 1 0 1
-0.1351859 -0.2770457 0.2317941 1 0 1
-0.1324346 -0.2752274 0.2299618 1 0 1
-0.1297052 -0.2733993 0.2281214 1 0 1
-0.1271542 -0.2722888 0.2269409 1 0 1
-0.1246175 -0.2711698 0.2257532 1 0 1
-0.1219464 -0.2693137 0.2238895 1 0 1
-0.1195869 -0.2689065 0.2233557 1 0 1
-0.1175159 -0.2699516 0.2241531 1 0 1
-0.1148879 -0.2680705 0.2222678 1 0 1
-0.1124153 -0.2669109 0.2210443 1 0 1
-0.1103448 -0.2679372 0.2218229 1 0 1
-0.1080148 -0.2674946 0.2212558 1 0 1
-0.1056916 -0.2670451 0.2206822 1 0 1
-0.1036102 -0.2680541 0.2214423 1 0 1
-0.1012929 -0.2675914 0.2208559 1 0 1
-0.09909208 -0.2678556 0.2209334 1 0 1
-0.09678462 -0.2673793 0.220334 1 0 1
-0.09458601 -0.2676307 0.2203989 1 0 1
-0.09248447 -0.2686113 0.2211284 1 0 1
-0.09028026 -0.268851 0.221181 1 0 1
-0.08807532 -0.2690847 0.2212273 1 0 1
-0.08578342 -0.2685758 0.2205962 1 0 1
-0.0835809 -0.268797 0.2206301 1 0 1
-0.08129944 -0.2682748 0.2199865 1 0 1
-0.07909953 -0.2684832 0.2200078 1 0 1
-0.07675801 -0.2672099 0.2186803 1 0 1
-0.07449824 -0.2666673 0.218018 1 0 1
-0.07230837 -0.2668566 0.2180206 1 0 1
-0.07005931 -0.2663008 0.2173458 1 0 1
-0.06776278 -0.2649992 0.2159937 1 0 1
-0.06558329 -0.2651692 0.2159778 1 0 1
-0.0634034 -0.2653334 0.2159558 1 0 1
-0.0611801 -0.2647513 0.2152566 1 0 1
-0.05896432 -0.2641627 0.2145513 1 0 1
-0.05675606 -0.2635675 0.2138401 1 0 1
-0.05458664 -0.2637067 0.2137937 1 0 1
-0.05244422 -0.264581 0.2144121 1 0 1
-0.05027045 -0.2647084 0.2143534 1 0 1
-0.04809639 -0.2648297 0.2142887 1 0 1
-0.04592225 -0.264945 0.2142178 1 0 1
-0.04371327 -0.2628284 0.2121299 1 0 1
-0.04155067 -0.262931 0.2120472 1 0 1
-0.03938809 -0.2630277 0.2119584 1 0 1
-0.03722566 -0.2623758 0.2111937 1 0 1
-0.03506697 -0.2624603 0.211093 1 0 1
-0.03289217 -0.2640244 0.212325 1 0 1
-0.03073775 -0.2633543 0.2115425 1 0 1
-0.0285913 -0.2626778 0.2107543 1 0 1
-0.02647277 -0.261252 0.2092917 1 0 1
-0.02429867 -0.2620496 0.2098296 1 0 1
-0.02220014 -0.2606112 0.2083561 1 0 1
-0.02011758 -0.2591666 0.2068777 1 0 1
-0.01794422 -0.2599463 0.2073975 1 0 1
-0.01592142 -0.2577457 0.2052409 1 0 1
-0.01383559 -0.2570263 0.2044145 1 0 1
-0.01171064 -0.2570444 0.2042494 1 0 1
-0.009432096 -0.2592878 0.2060782 1 0 1
-0.007351431 -0.2585505 0.205234 1 0 1
-0.005101569 -0.2600383 0.2063823 1 0 1
-0.002962681 -0.2600328 0.2061921 1 0 1
-0.0008243163 -0.2600212 0.2059958 1 0 1
0.00117159 -0.2585165 0.204464 1 0 1
0.00337579 -0.2592368 0.2049211 1 0 1
0.005587211 -0.2599509 0.2053713 1 0 1
0.007640423 -0.2591721 0.2044876 1 0 1
0.009858306 -0.2598743 0.204925 1 0 1
0.01208332 -0.2605702 0.2053557 1 0 1
0.0141265 -0.2597737 0.2044549 1 0 1
0.01606271 -0.2582282 0.202887 1 0 1
0.01818696 -0.2581632 0.2026378 1 0 1
0.0203104 -0.2580923 0.2023828 1 0 1
0.02232286 -0.2572728 0.2014614 1 0 1
0.02455451 -0.2579327 0.2018549 1 0 1
0.02679308 -0.2585864 0.2022416 1 0 1
0.02903848 -0.2592337 0.2026213 1 0 1
0.03091353 -0.2576487 0.2010186 1 0 1
0.03290146 -0.2568003 0.2000701 1 0 1
0.03514759 -0.2574296 0.2004315 1 0 1
0.03726298 -0.2573113 0.200129 1 0 1
0.0393773 -0.2571869 0.1998207 1 0 1
0.04178074 -0.2585386 0.2008179 1 0 1
0.04375127 -0.2576611 0.1998414 1 0 1
0.04555986 -0.2560379 0.1982058 1 0 1
0.04766534 -0.2558901 0.1978745 1 0 1
0.04944803 -0.2542566 0.1962308 1 0 1
0.05154306 -0.2540976 0.195889 1 0 1
0.05414223 -0.2561505 0.1974973 1 0 1
0.0560738 -0.2552398 0.1964905 1 0 1
0.05799614 -0.2543238 0.1954792 1 0 1
0.05972916 -0.2526643 0.1938135 1 0 1
0.06144532 -0.2510004 0.1921446 1 0 1
0.06314439 -0.249332 0.1904727 1 0 1
0.06540164 -0.2498709 0.1907416 1 0 1
0.0674694 -0.2496663 0.1903561 1 0 1
0.07053267 -0.2531382 0.1931971 1 0 1
0.07200667 -0.2507119 0.1908592 1 0 1
0.07428434 -0.2512246 0.1910999 1 0 1
0.0757242 -0.24879 0.1887566 1 0 1
0.07778362 -0.2485563 0.1883423 1 0 1
0.07962274 -0.2475826 0.1872797 1 0 1
0.08278713 -0.2510071 0.1900641 1 0 1
0.08440383 -0.2492874 0.1883473 1 0 1
0.08692396 -0.2504954 0.189189 1 0 1
0.0894575 -0.2516956 0.1900217 1 0 1
0.09129104 -0.2506922 0.1889296 1 0 1
0.09263176 -0.2482212 0.1865579 1 0 1
0.09542008 -0.2501328 0.1880069 1 0 1
0.0964847 -0.2469229 0.184993 1 0 1
0.09852885 -0.2466308 0.1845209 1 0 1
0.0998005 -0.2441451 0.1821404 1 0 1
0.1020897 -0.2445719 0.1822929 1 0 1
0.10412 -0.2442636 0.1818055 1 0 1
0.1074892 -0.2475871 0.18447 1 0 1
0.1079021 -0.2429027 0.1801834 1 0 1
0.1104735 -0.2440304 0.1809393 1 0 1
0.1130579 -0.2451498 0.1816858 1 0 1
0.1142384 -0.2426357 0.1792843 1 0 1
0.1162552 -0.242293 0.1787632 1 0 1
0.1194332 -0.2448395 0.1807395 1 0 1
0.1229336 -0.2480983 0.1833269 1 0 1
0.1246787 -0.2470098 0.1821563 1 0 1
0.1261117 -0.2451952 0.1803593 1 0 1
0.1284449 -0.2455407 0.1804258 1 0 1
0.131712 -0.2480402 0.1823466 1 0 1
0.1331262 -0.2462103 0.1805358 1 0 1
0.1351571 -0.2458152 0.1799606 1 0 1
0.1381478 -0.247569 0.1812322 1 0 1
0.1388863 -0.2442904 0.1781768 1 0 1
0.1392642 -0.2402955 0.1745093 1 0 1
0.1415941 -0.2405979 0.1745324 1 0 1
0.1442644 -0.2416082 0.1751609 1 0 1
0.1466074 -0.2418953 0.1751674 1 0 1
0.1541014 -0.2528781 0.1843289 1 0 1
