ply
format ascii 1.0
Comment Generated by Floating Hands
element vertex 1261
property double x
property double y
property double z
property uchar red
property uchar green
property uchar blue
end_header
-0.1288373 -0.2139606 0.2802919 1 0 1
-0.1269571 -0.2149666 0.2811773 1 0 1
-0.1245811 -0.213925 0.2799156 1 0 1
-0.122536 -0.214239 0.2800752 1 0 1
-0.1204898 -0.2145475 0.2802288 1 0 1
-0.1185929 -0.2155333 0.2810912 1 0 1
-0.1163936 -0.2151479 0.2805183 1 0 1
-0.1146294 -0.2168078 0.2820847 1 0 1
-0.1125707 -0.2170953 0.2822151 1 0 1
-0.1105108 -0.2173773 0.2823395 1 0 1
-0.1084499 -0.2176537 0.2824579 1 0 1
-0.1063879 -0.2179246 0.2825704 1 0 1
-0.1042016 -0.2175032 0.2819604 1 0 1
-0.102261 -0.2184496 0.2827774 1 0 1
-0.1003115 -0.2193915 0.2835887 1 0 1
-0.09813023 -0.2189525 0.2829606 1 0 1
-0.09606349 -0.2191955 0.2830431 1 0 1
-0.09399591 -0.2194331 0.2831198 1 0 1
-0.09152816 -0.2169072 0.2803207 1 0 1
-0.08937874 -0.2164419 0.2796673 1 0 1
-0.08742031 -0.2173509 0.2804431 1 0 1
-0.0852772 -0.2168738 0.2797776 1 0 1
-0.08322537 -0.2170814 0.279824 1 0 1
-0.08125304 -0.2179749 0.2805822 1 0 1
-0.07896713 -0.2160963 0.2784627 1 0 1
-0.07692117 -0.2162866 0.2784912 1 0 1
-0.0748747 -0.2164713 0.2785137 1 0 1
-0.07282762 -0.2166505 0.2785302 1 0 1
-0.07078008 -0.2168243 0.2785409 1 0 1
-0.06873202 -0.2169924 0.2785456 1 0 1
-0.06657805 -0.2157672 0.2771082 1 0 1
-0.0644394 -0.2145353 0.275665 1 0 1
-0.06245064 -0.2153802 0.2763702 1 0 1
-0.1378364 -0.2089586 0.2729535 1 0 1
-0.1361957 -0.2106676 0.27457 1 0 1
-0.1343563 -0.2116932 0.2754727 1 0 1
-0.1323297 -0.2120331 0.2756604 1 0 1
-0.1304758 -0.2130497 0.2765523 1 0 1
-0.1282723 -0.2126967 0.276018 1 0 1
-0.1267408 -0.2150703 0.2783207 1 0 1
-0.1243721 -0.2140223 0.2770632 1 0 1
-0.122335 -0.2143355 0.2772218 1 0 1
-0.1204514 -0.2153284 0.2780861 1 0 1
-0.1182571 -0.2149455 0.277521 1 0 1
-0.1160694 -0.214556 0.2769494 1 0 1
-0.1141744 -0.2155335 0.2777967 1 0 1
-0.1121314 -0.2158192 0.2779256 1 0 1
-0.1102225 -0.2167874 0.2787617 1 0 1
-0.1083047 -0.2177512 0.2795924 1 0 1
-0.1061233 -0.2173325 0.2789905 1 0 1
-0.1039486 -0.2169072 0.2783823 1 0 1
-0.10202 -0.2178553 0.2791955 1 0 1
-0.09996694 -0.2181085 0.2792891 1 0 1
-0.09768938 -0.2169743 0.2779484 1 0 1
-0.09575024 -0.2179068 0.2787442 1 0 1
-0.09359442 -0.2174511 0.2781053 1 0 1
-0.09124561 -0.2156044 0.2760309 1 0 1
-0.0891117 -0.215135 0.2753794 1 0 1
-0.08716933 -0.2160455 0.2761516 1 0 1
-0.08504178 -0.2155642 0.2754882 1 0 1
-0.08309012 -0.2164645 0.2762489 1 0 1
-0.08104951 -0.2166657 0.2762887 1 0 1
-0.07893173 -0.2161668 0.2756074 1 0 1
-0.0768212 -0.2156617 0.2749201 1 0 1
-0.07485526 -0.216541 0.2756574 1 0 1
-0.07275143 -0.2160241 0.2749583 1 0 1
-0.07071577 -0.2161971 0.2749686 1 0 1
-0.06867962 -0.2163646 0.2749731 1 0 1
-0.06664299 -0.2165266 0.2749717 1 0 1
-0.06455695 -0.215986 0.274249 1 0 1
-0.1373806 -0.2083512 0.2694195 1 0 1
-0.1361241 -0.2114302 0.2724418 1 0 1
-0.134471 -0.2131419 0.2740476 1 0 1
-0.132088 -0.2121139 0.2728205 1 0 1
-0.1302423 -0.2131325 0.2737086 1 0 1
-0.128217 -0.2134614 0.2738836 1 0 1
-0.1265235 -0.215157 0.2754691 1 0 1
-0.1243251 -0.2147895 0.2749246 1 0 1
-0.122292 -0.2151026 0.2750823 1 0 1
-0.1202576 -0.2154102 0.2752342 1 0 1
-0.1182221 -0.2157123 0.2753801 1 0 1
-0.1161854 -0.216009 0.2755202 1 0 1
-0.114434 -0.2176794 0.2770741 1 0 1
-0.1122479 -0.2172759 0.2764928 1 0 1
-0.1102039 -0.2175565 0.2766153 1 0 1
-0.1082903 -0.218523 0.2774426 1 0 1
-0.1059851 -0.2174097 0.2761321 1 0 1
-0.1038181 -0.2169811 0.2755258 1 0 1
-0.1020175 -0.2186241 0.2770467 1 0 1
-0.09985258 -0.2181839 0.2764284 1 0 1
-0.09769455 -0.2177373 0.2758039 1 0 1
-0.09586778 -0.2193666 0.2773081 1 0 1
-0.0937119 -0.2189084 0.2766716 1 0 1
-0.09126223 -0.2163588 0.2738931 1 0 1
-0.08922852 -0.216582 0.2739559 1 0 1
-0.08728649 -0.2174956 0.2747251 1 0 1
-0.08507033 -0.2163156 0.2733518 1 0 1
-0.08303838 -0.2165219 0.273397 1 0 1
-0.08100571 -0.2167227 0.2734363 1 0 1
-0.07881895 -0.215523 0.2720448 1 0 1
-0.07672009 -0.2150142 0.2713597 1 0 1
-0.07476632 -0.2158957 0.272094 1 0 1
-0.07273914 -0.2160738 0.2721098 1 0 1
-0.07065043 -0.2155475 0.2714072 1 0 1
-0.06868326 -0.2164135 0.272124 1 0 1
-0.0667078 -0.2172746 0.272835 1 0 1
-0.1367772 -0.199843 0.2579633 1 0 1
-0.135973 -0.2042966 0.2623796 1 0 1
-0.1353072 -0.2094388 0.2674985 1 0 1
-0.1336741 -0.2111532 0.2690966 1 0 1
-0.1316671 -0.2114909 0.2692814 1 0 1
-0.1298333 -0.2125108 0.2701652 1 0 1
-0.1278198 -0.2128383 0.2703388 1 0 1
-0.1261386 -0.2145381 0.2719174 1 0 1
-0.1239517 -0.2141664 0.2713741 1 0 1
-0.1217714 -0.2137881 0.2708245 1 0 1
-0.1199079 -0.2147845 0.2716811 1 0 1
-0.1178842 -0.2150853 0.2718257 1 0 1
-0.1158593 -0.2153807 0.2719645 1 0 1
-0.1139767 -0.216363 0.2728047 1 0 1
-0.1118061 -0.215955 0.2722246 1 0 1
-0.1099135 -0.2169275 0.2730535 1 0 1
-0.1078803 -0.2172015 0.2731692 1 0 1
-0.1054625 -0.2153865 0.2711548 1 0 1
-0.103315 -0.2149529 0.2705498 1 0 1
-0.1015345 -0.2165995 0.2720639 1 0 1
-0.09938908 -0.2161546 0.2714472 1 0 1
-0.09725047 -0.2157032 0.2708242 1 0 1
-0.09544385 -0.2173361 0.2723217 1 0 1
-0.09320307 -0.2161759 0.2709779 1 0 1
-0.09087663 -0.2143106 0.2689184 1 0 1
-0.0890558 -0.2159285 0.2703989 1 0 1
-0.0871259 -0.216844 0.2711647 1 0 1
-0.08492121 -0.2156575 0.2697962 1 0 1
-0.08298596 -0.2165624 0.2705504 1 0 1
-0.08104219 -0.2174626 0.2712989 1 0 1
-0.07870508 -0.2148569 0.2684931 1 0 1
-0.07669096 -0.2150451 0.2685201 1 0 1
-0.07474539 -0.215929 0.2692512 1 0 1
-0.07259583 -0.214704 0.267847 1 0 1
-0.07058402 -0.2148755 0.2678566 1 0 1
-0.06857166 -0.2150417 0.2678605 1 0 1
-0.06650555 -0.2145 0.2671487 1 0 1
-0.1368872 -0.2012239 0.2565833 1 0 1
-0.1360844 -0.2056945 0.2609826 1 0 1
-0.134861 -0.2087911 0.263979 1 0 1
-0.1334226 -0.2111986 0.2662713 1 0 1
-0.1316022 -0.2122253 0.2671566 1 0 1
-0.1295979 -0.2125573 0.2673348 1 0 1
-0.1275923 -0.2128841 0.2675072 1 0 1
-0.1257523 -0.2138969 0.2683765 1 0 1
-0.1237403 -0.2142134 0.2685376 1 0 1
-0.1215676 -0.2138316 0.2679897 1 0 1
-0.1195569 -0.2141366 0.2681389 1 0 1
-0.117545 -0.2144361 0.2682822 1 0 1
-0.1153844 -0.2140356 0.2677157 1 0 1
-0.113374 -0.2143237 0.2678472 1 0 1
-0.1112228 -0.2139107 0.2672683 1 0 1
-0.1093502 -0.2148836 0.2680928 1 0 1
-0.1070726 -0.213762 0.2667968 1 0 1
-0.1049378 -0.2133299 0.2661994 1 0 1
-0.1029339 -0.2135894 0.2663014 1 0 1
-0.1011697 -0.2152398 0.2678087 1 0 1
-0.09903981 -0.2147905 0.2671936 1 0 1
-0.09714176 -0.2157333 0.2679843 1 0 1
-0.09523499 -0.2166715 0.2687696 1 0 1
-0.09311029 -0.216205 0.2681367 1 0 1
-0.09089189 -0.2150314 0.2667913 1 0 1
-0.08917237 -0.2173557 0.2689725 1 0 1
-0.08714996 -0.2175729 0.2690285 1 0 1
-0.08503785 -0.2170827 0.2683719 1 0 1
-0.08310298 -0.2179907 0.2691229 1 0 1
-0.08107842 -0.2181914 0.2691615 1 0 1
-0.0788217 -0.2162775 0.2670733 1 0 1
-0.07680769 -0.2164661 0.2671001 1 0 1
-0.07479317 -0.2166491 0.267121 1 0 1
-0.07264722 -0.2154186 0.265722 1 0 1
-0.07063951 -0.2155901 0.2657313 1 0 1
-0.06863125 -0.2157562 0.265735 1 0 1
-0.06662255 -0.2159168 0.2657328 1 0 1
-0.06461345 -0.2160719 0.2657248 1 0 1
0.03272042 -0.2120052 0.2534488 1 0 1
0.03439131 -0.2104737 0.2517744 1 0 1
0.03783745 -0.2081041 0.249107 1 0 1
0.03946211 -0.2065593 0.2474225 1 0 1
0.04107002 -0.2050103 0.2457351 1 0 1
0.04282728 -0.2041626 0.2447336 1 0 1
0.05212681 -0.2098808 0.2496084 1 0 1
0.05407456 -0.2097094 0.2492632 1 0 1
0.06197484 -0.1959384 0.2348128 1 0 1
0.07155067 -0.2144524 0.2524201 1 0 1
0.07351921 -0.2142287 0.2520182 1 0 1
0.08166046 -0.2081425 0.2452012 1 0 1
0.09741496 -0.2176634 0.2532572 1 0 1
0.0978654 -0.2080513 0.2436173 1 0 1
0.1294166 -0.2047015 0.2373105 1 0 1
-0.1401072 -0.2136359 0.2663566 1 0 1
-0.1371483 -0.2105391 0.2630692 1 0 1
-0.1355333 -0.2122682 0.2646595 1 0 1
-0.1339013 -0.2139946 0.2662455 1 0 1
-0.1318947 -0.2143333 0.2664295 1 0 1
-0.1298867 -0.2146666 0.2666075 1 0 1
-0.1278773 -0.2149943 0.2667798 1 0 1
-0.1260339 -0.216011 0.2676461 1 0 1
-0.1238547 -0.2156336 0.2671069 1 0 1
-0.1215225 -0.2145539 0.2658607 1 0 1
-0.1193602 -0.2141626 0.2653084 1 0 1
-0.1173563 -0.2144614 0.2654508 1 0 1
-0.1153512 -0.2147548 0.2655874 1 0 1
-0.113345 -0.2150428 0.2657182 1 0 1
-0.1113376 -0.2153254 0.2658433 1 0 1
-0.1096014 -0.2170005 0.2673667 1 0 1
-0.1073197 -0.2158741 0.266076 1 0 1
-0.1050526 -0.2147404 0.2647787 1 0 1
-0.1030489 -0.2150001 0.2648802 1 0 1
-0.1012853 -0.2166564 0.2663817 1 0 1
-0.09903871 -0.2155032 0.2650658 1 0 1
-0.09714494 -0.2164487 0.2658533 1 0 1
-0.0953513 -0.218092 0.2673386 1 0 1
-0.09333137 -0.2183259 0.2674117 1 0 1
-0.09120969 -0.2178511 0.2667753 1 0 1
-0.08938617 -0.2194811 0.2682442 1 0 1
-0.0872669 -0.2189948 0.2675961 1 0 1
-0.08506553 -0.2177976 0.266238 1 0 1
-0.0831349 -0.2187082 0.2669859 1 0 1
-0.08103315 -0.2182035 0.2663199 1 0 1
-0.0789386 -0.2176924 0.265648 1 0 1
-0.07692476 -0.2178813 0.2656744 1 0 1
-0.07491037 -0.2180647 0.2656951 1 0 1
-0.07282975 -0.2175358 0.2650057 1 0 1
-0.07075654 -0.2170007 0.2643104 1 0 1
-0.06869065 -0.2164595 0.2636094 1 0 1
-0.0667399 -0.2173278 0.2643113 1 0 1
-0.06488069 -0.2196077 0.2664161 1 0 1
0.03174147 -0.2191943 0.2578504 1 0 1
0.0333103 -0.2169505 0.2554919 1 0 1
0.03514744 -0.216122 0.2545096 1 0 1
0.03667512 -0.2138696 0.2521456 1 0 1
0.03817827 -0.2116134 0.2497795 1 0 1
0.03949883 -0.2086445 0.2467242 1 0 1
0.0406251 -0.2049638 0.2429814 1 0 1
0.04187719 -0.201989 0.2399257 1 0 1
0.04394559 -0.2025512 0.2402973 1 0 1
0.0468885 -0.2066459 0.2440864 1 0 1
0.04916676 -0.2079022 0.2451254 1 0 1
0.05091505 -0.2070306 0.2441057 1 0 1
0.05283951 -0.2068612 0.2437648 1 0 1
0.05476258 -0.2066864 0.2434183 1 0 1
0.0553334 -0.2015644 0.2382964 1 0 1
0.0552582 -0.1943255 0.231137 1 0 1
0.05871678 -0.199783 0.2362265 1 0 1
0.06121287 -0.201705 0.2379027 1 0 1
0.06289697 -0.2008017 0.2368552 1 0 1
0.06775565 -0.210454 0.2459697 1 0 1
0.07055946 -0.2130533 0.2482876 1 0 1
0.07185274 -0.2107217 0.2458606 1 0 1
0.0724499 -0.2062794 0.2414067 1 0 1
0.07436502 -0.2060506 0.2410044 1 0 1
0.07558408 -0.2037112 0.2385755 1 0 1
0.07913132 -0.2083821 0.2428753 1 0 1
0.08129564 -0.2088362 0.2431256 1 0 1
0.08322289 -0.2085837 0.2426974 1 0 1
0.08490145 -0.207626 0.2415934 1 0 1
0.0855682 -0.2038669 0.2378077 1 0 1
0.08848446 -0.2063963 0.240043 1 0 1
0.08833078 -0.2005379 0.234253 1 0 1
0.09178246 -0.20445 0.2378076 1 0 1
0.09501196 -0.2076529 0.2406801 1 0 1
0.09692935 -0.2073624 0.240213 1 0 1
0.09693093 -0.2021951 0.2350921 1 0 1
0.1023002 -0.200594 0.233001 1 0 1
0.1061964 -0.205136 0.2371361 1 0 1
0.107805 -0.2041212 0.2359784 1 0 1
0.1094038 -0.2031024 0.2348172 1 0 1
0.1094937 -0.1986221 0.2303668 1 0 1
0.1146971 -0.2058889 0.2370784 1 0 1
0.1141415 -0.2000224 0.2313141 1 0 1
0.1181898 -0.2045037 0.2353728 1 0 1
0.1222883 -0.2089699 0.2394114 1 0 1
0.1245251 -0.2092925 0.2395179 1 0 1
0.1247755 -0.2009915 0.2312602 1 0 1
0.1263193 -0.1999315 0.2300606 1 0 1
0.1281868 -0.1995529 0.2295056 1 0 1
-0.142622 -0.2160713 0.2661031 1 0 1
-0.1396366 -0.2129716 0.2628375 1 0 1
-0.1372607 -0.2119393 0.2616474 1 0 1
-0.1352725 -0.2122867 0.2618409 1 0 1
-0.1336489 -0.2140177 0.2634201 1 0 1
-0.1318294 -0.2150507 0.264299 1 0 1
-0.1296501 -0.2146879 0.2637797 1 0 1
-0.1276487 -0.2150149 0.2639508 1 0 1
-0.1258135 -0.2160337 0.2648133 1 0 1
-0.1234784 -0.214955 0.2635783 1 0 1
-0.1209979 -0.2131702 0.2616386 1 0 1
-0.1188511 -0.2127742 0.2610874 1 0 1
-0.1170149 -0.2137707 0.2619266 1 0 1
-0.1150216 -0.2140628 0.2620619 1 0 1
-0.1130272 -0.2143495 0.2621915 1 0 1
-0.1110317 -0.2146308 0.2623155 1 0 1
-0.1091715 -0.2156084 0.2631329 1 0 1
-0.1069051 -0.2144749 0.2618465 1 0 1
-0.1046533 -0.213334 0.2605535 1 0 1
-0.1026654 -0.2135921 0.2606538 1 0 1
-0.1009181 -0.2152523 0.2621486 1 0 1
-0.09892053 -0.2155006 0.2622379 1 0 1
-0.09692205 -0.2157435 0.2623213 1 0 1
-0.09524972 -0.2180964 0.2645009 1 0 1
-0.09323785 -0.2183298 0.2645733 1 0 1
-0.09132626 -0.2192638 0.2653408 1 0 1
-0.08930884 -0.2194867 0.2654018 1 0 1
-0.08729069 -0.2197041 0.2654571 1 0 1
-0.08518238 -0.2192086 0.2648053 1 0 1
-0.08308118 -0.2187069 0.2641475 1 0 1
-0.08098719 -0.2181989 0.2634839 1 0 1
-0.0789004 -0.2176846 0.2628143 1 0 1
-0.07696832 -0.218582 0.2635418 1 0 1
-0.07488821 -0.218056 0.2628607 1 0 1
-0.07281541 -0.217524 0.2621737 1 0 1
-0.07068802 -0.2162758 0.2607794 1 0 1
-0.0686919 -0.2164415 0.2607825 1 0 1
-0.0666412 -0.215891 0.2600782 1 0 1
0.03050939 -0.2149042 0.2509164 1 0 1
0.03190537 -0.2119413 0.2478839 1 0 1
0.03385374 -0.2118244 0.2475961 1 0 1
0.03595105 -0.2124142 0.2479886 1 0 1
0.03666955 -0.2065911 0.2422073 1 0 1
0.03874508 -0.2071716 0.2425919 1 0 1
0.04001861 -0.2041895 0.2395497 1 0 1
0.04125989 -0.2012043 0.2365072 1 0 1
0.04348575 -0.2024808 0.2375608 1 0 1
0.04641936 -0.2065926 0.2413346 1 0 1
0.04904369 -0.2092751 0.2437323 1 0 1
0.04988654 -0.2048517 0.239312 1 0 1
0.05197648 -0.2053932 0.2396546 1 0 1
0.05350621 -0.2038015 0.2379524 1 0 1
0.05444095 -0.2000796 0.2342119 1 0 1
0.05454922 -0.1935229 0.2277614 1 0 1
0.05859544 -0.2011274 0.2348626 1 0 1
0.06027351 -0.2002271 0.2338248 1 0 1
0.0619423 -0.1993224 0.2327832 1 0 1
0.06635793 -0.2076012 0.240512 1 0 1
0.06848998 -0.2080949 0.2408012 1 0 1
0.06974931 -0.2057588 0.2383899 1 0 1
0.0712074 -0.2041255 0.2366505 1 0 1
0.07310322 -0.2038988 0.2362525 1 0 1
0.074535 -0.2022577 0.2345073 1 0 1
0.07782999 -0.2062456 0.238121 1 0 1
0.08045256 -0.2081117 0.2397115 1 0 1
0.08261084 -0.2085634 0.2399546 1 0 1
0.08428196 -0.2076038 0.2388555 1 0 1
0.08494224 -0.2038317 0.2350857 1 0 1
0.08784976 -0.2063729 0.2373119 1 0 1
0.0882063 -0.2018953 0.2328762 1 0 1
0.08982407 -0.2009208 0.2317662 1 0 1
0.09249443 -0.2027415 0.2333052 1 0 1
0.09437762 -0.2024558 0.2328468 1 0 1
0.09461984 -0.197973 0.2284154 1 0 1
0.09952242 -0.2053589 0.2352155 1 0 1
0.09945333 -0.2001722 0.2301208 1 0 1
0.1001826 -0.1970795 0.2270095 1 0 1
0.1037624 -0.2009486 0.2304749 1 0 1
0.1047569 -0.1985447 0.2280154 1 0 1
0.1042474 -0.1926649 0.2222795 1 0 1
0.1060722 -0.1923446 0.2217898 1 0 1
0.1106248 -0.1982613 0.2271755 1 0 1
0.1103293 -0.1930743 0.2220997 1 0 1
0.112155 -0.1927372 0.2215925 1 0 1
0.1177533 -0.2006931 0.2288835 1 0 1
0.1199375 -0.201028 0.2290025 1 0 1
0.1198724 -0.1965258 0.2245771 1 0 1
0.1243211 -0.2016778 0.2292183 1 0 1
0.128168 -0.2054356 0.2325448 1 0 1
0.1260589 -0.196798 0.2242453 1 0 1
0.1289122 -0.1984795 0.2256234 1 0 1
-0.1399539 -0.2077604 0.2549766 1 0 1
-0.13897 -0.2115902 0.2586377 1 0 1
-0.1369912 -0.2119421 0.2588356 1 0 1
-0.1355722 -0.2143783 0.2611057 1 0 1
-0.1337621 -0.2154187 0.2619863 1 0 1
-0.1315842 -0.2150591 0.2614751 1 0 1
-0.1294128 -0.2146928 0.2609574 1 0 1
-0.1275908 -0.2157182 0.2618214 1 0 1
-0.1255922 -0.2160396 0.261986 1 0 1
-0.1234284 -0.2156552 0.2614501 1 0 1
-0.1211113 -0.2145631 0.260213 1 0 1
-0.1189645 -0.2141648 0.2596641 1 0 1
-0.1169765 -0.2144622 0.2598045 1 0 1
-0.1146907 -0.2133487 0.2585476 1 0 1
-0.1127082 -0.2136341 0.2586761 1 0 1
-0.1105841 -0.2132103 0.2581026 1 0 1
-0.1086034 -0.2134844 0.2582194 1 0 1
-0.1064888 -0.2130483 0.2576338 1 0 1
-0.1042524 -0.2119001 0.2563452 1 0 1
-0.1020305 -0.2107446 0.2550501 1 0 1
-0.1001863 -0.2117013 0.2558405 1 0 1
-0.09833331 -0.2126534 0.2566256 1 0 1
-0.09647167 -0.2136013 0.2574054 1 0 1
-0.09471054 -0.2152526 0.2588776 1 0 1
-0.09293295 -0.2169003 0.2603447 1 0 1
-0.09124027 -0.2192532 0.2625048 1 0 1
-0.08932832 -0.2201848 0.2632633 1 0 1
-0.0871271 -0.2189827 0.2619215 1 0 1
-0.08512014 -0.2191937 0.2619703 1 0 1
-0.08311248 -0.2193993 0.2620134 1 0 1
-0.08094057 -0.2181776 0.2606535 1 0 1
-0.07886156 -0.2176601 0.2599863 1 0 1
-0.07701169 -0.2192714 0.2614093 1 0 1
-0.07493547 -0.2187426 0.2607306 1 0 1
-0.07293265 -0.2189201 0.2607449 1 0 1
-0.07086712 -0.2183795 0.2600546 1 0 1
-0.06886722 -0.2185457 0.2600573 1 0 1
-0.06675825 -0.2172799 0.258657 1 0 1
0.03149017 -0.2220139 0.2549776 1 0 1
0.03263422 -0.2176074 0.2505836 1 0 1
0.03475168 -0.2182041 0.2509761 1 0 1
0.03657625 -0.2173651 0.2499958 1 0 1
0.03762341 -0.212948 0.245599 1 0 1
0.03956826 -0.2128147 0.2452948 1 0 1
0.04102743 -0.210534 0.2429415 1 0 1
0.04246209 -0.2082495 0.2405864 1 0 1
0.04421066 -0.2073885 0.2395897 1 0 1
0.04698892 -0.2108018 0.2426643 1 0 1
0.0492737 -0.2120682 0.2436911 1 0 1
0.05048738 -0.2090526 0.2406422 1 0 1
0.05259247 -0.2095953 0.2409796 1 0 1
0.05413806 -0.2079965 0.2392805 1 0 1
0.05547423 -0.2056823 0.2369029 1 0 1
0.05619684 -0.2012317 0.2324989 1 0 1
0.05967438 -0.2067306 0.2375396 1 0 1
0.06219185 -0.2086664 0.2391951 1 0 1
0.06389935 -0.2077547 0.238149 1 0 1
0.06665628 -0.210386 0.2404597 1 0 1
0.06814886 -0.2087541 0.2387308 1 0 1
0.07094109 -0.2113705 0.2410229 1 0 1
0.07152946 -0.2068961 0.2366055 1 0 1
0.07434136 -0.2094991 0.238882 1 0 1
0.07625841 -0.209264 0.2384741 1 0 1
0.0795824 -0.2132643 0.2420647 1 0 1
0.08151887 -0.2130156 0.2416409 1 0 1
0.08345348 -0.2127614 0.2412116 1 0 1
0.0844012 -0.2096808 0.2381177 1 0 1
0.08681695 -0.2108275 0.2390088 1 0 1
0.08848444 -0.2098542 0.237902 1 0 1
0.09014228 -0.2088765 0.2367914 1 0 1
0.09257513 -0.2100039 0.237661 1 0 1
0.09449051 -0.2097186 0.2372009 1 0 1
0.09640395 -0.209428 0.2367355 1 0 1
0.09831526 -0.209132 0.2362646 1 0 1
0.1016079 -0.2123346 0.2390759 1 0 1
0.1021316 -0.2085241 0.2353066 1 0 1
0.1011943 -0.2012165 0.2282635 1 0 1
0.1027713 -0.2002065 0.2271263 1 0 1
0.1037551 -0.197796 0.2246785 1 0 1
0.1050097 -0.1960819 0.222884 1 0 1
0.1050497 -0.1915773 0.2184819 1 0 1
0.1098917 -0.1982166 0.2244967 1 0 1
0.1102041 -0.1944028 0.220742 1 0 1
0.1120296 -0.1940653 0.2202352 1 0 1
0.1169961 -0.2006651 0.2261983 1 0 1
0.1210808 -0.2051648 0.2301956 1 0 1
0.1213539 -0.2013357 0.2264284 1 0 1
0.125168 -0.2051214 0.2297538 1 0 1
0.127049 -0.2047449 0.2292017 1 0 1
0.1289274 -0.2043632 0.2286443 1 0 1
0.1297931 -0.2019068 0.2261587 1 0 1
0.13574 -0.209785 0.2332721 1 0 1
0.1397086 -0.2135097 0.2365209 1 0 1
0.1416322 -0.2130949 0.2359252 1 0 1
0.1435531 -0.2126746 0.2353241 1 0 1
0.1473865 -0.2118179 0.2341056 1 0 1
0.1560746 -0.2159517 0.2372812 1 0 1
-0.1403986 -0.2031977 0.2478513 1 0 1
-0.1394676 -0.2070376 0.2514983 1 0 1
-0.1388866 -0.2122753 0.2565219 1 0 1
-0.1371031 -0.2133255 0.2574084 1 0 1
-0.1354976 -0.2150711 0.2589798 1 0 1
-0.1336918 -0.2161139 0.2598567 1 0 1
-0.1318769 -0.2171527 0.2607286 1 0 1
-0.1295259 -0.2160836 0.2595227 1 0 1
-0.1278762 -0.217814 0.2610747 1 0 1
-0.1257059 -0.217434 0.2605475 1 0 1
-0.1235421 -0.2170474 0.260014 1 0 1
-0.1209044 -0.2145428 0.2573976 1 0 1
-0.1187653 -0.2141412 0.2568505 1 0 1
-0.1166329 -0.2137329 0.2562972 1 0 1
-0.1143586 -0.2126125 0.2550447 1 0 1
-0.1125325 -0.2136028 0.2558652 1 0 1
-0.1105569 -0.2138822 0.2559871 1 0 1
-0.108717 -0.2148634 0.256797 1 0 1
-0.1062038 -0.2123018 0.254132 1 0 1
-0.1038498 -0.2104389 0.2521538 1 0 1
-0.1016433 -0.2092763 0.2508631 1 0 1
-0.09981509 -0.210234 0.2516496 1 0 1
-0.09797817 -0.2111873 0.2524309 1 0 1
-0.09635928 -0.2135567 0.2545965 1 0 1
-0.0947161 -0.2159235 0.2567575 1 0 1
-0.09294301 -0.2175766 0.2582185 1 0 1
-0.09125513 -0.2199376 0.2603696 1 0 1
-0.08915209 -0.2194477 0.2597341 1 0 1
-0.08705617 -0.2189518 0.2590928 1 0 1
-0.08505724 -0.2191623 0.259141 1 0 1
-0.0830576 -0.2193673 0.2591836 1 0 1
-0.08097532 -0.2188533 0.2585247 1 0 1
-0.0790564 -0.219761 0.2592516 1 0 1
-0.07720326 -0.2213784 0.2606687 1 0 1
-0.07505277 -0.2201329 0.2592966 1 0 1
-0.07305013 -0.2203106 0.2593106 1 0 1
-0.07092219 -0.2190521 0.2579269 1 0 1
-0.06886793 -0.2185026 0.2572335 1 0 1
-0.06676652 -0.2172309 0.2558384 1 0 1
0.03081185 -0.2205418 0.2508054 1 0 1
0.0313746 -0.2132472 0.2437053 1 0 1
0.0336062 -0.2145663 0.2447805 1 0 1
0.03525404 -0.2130086 0.2431269 1 0 1
0.03657829 -0.2100118 0.2401112 1 0 1
0.03849964 -0.2098801 0.2398108 1 0 1
0.04058096 -0.2104599 0.2401833 1 0 1
0.0420085 -0.2081677 0.2378381 1 0 1
0.0437494 -0.2073044 0.2368456 1 0 1
0.04669135 -0.2114479 0.240584 1 0 1
0.04897161 -0.2127198 0.241606 1 0 1
0.05000164 -0.2089782 0.2378942 1 0 1
0.05228306 -0.2102391 0.2389047 1 0 1
0.05363677 -0.2079204 0.2365384 1 0 1
0.0551581 -0.2063129 0.2348439 1 0 1
0.05607427 -0.2025599 0.23113 1 0 1
0.06014947 -0.2102209 0.2381631 1 0 1
0.06206625 -0.2100242 0.2377956 1 0 1
0.06356621 -0.2083969 0.2360826 1 0 1
0.06631817 -0.2110394 0.238383 1 0 1
0.06993691 -0.2098957 0.2369393 1 0 1
0.07028826 -0.2046955 0.2318752 1 0 1
0.07239927 -0.2051802 0.2321464 1 0 1
0.07497759 -0.2070786 0.2337412 1 0 1
0.07757715 -0.2089688 0.2353258 1 0 1
0.07900616 -0.2073058 0.2335815 1 0 1
0.08332431 -0.2141416 0.2397895 1 0 1
0.08476489 -0.2124659 0.2380311 1 0 1
0.08743747 -0.2143241 0.2395763 1 0 1
0.087341 -0.2083975 0.2338482 1 0 1
0.08872636 -0.2067126 0.2320851 1 0 1
0.0898333 -0.2043187 0.2296617 1 0 1
0.09330082 -0.2082705 0.2331562 1 0 1
0.09519894 -0.2079819 0.2326948 1 0 1
0.0973676 -0.208392 0.2328836 1 0 1
0.1012003 -0.2130168 0.2369936 1 0 1
0.1028423 -0.2120045 0.2358548 1 0 1
0.1027706 -0.2067743 0.2307955 1 0 1
0.1017807 -0.1994426 0.2237892 1 0 1
0.1030453 -0.1977266 0.222004 1 0 1
0.100738 -0.1830917 0.2080486 1 0 1
-0.1395352 -0.1944005 0.2366569 1 0 1
-0.1398981 -0.2024413 0.2444001 1 0 1
-0.1387808 -0.2055932 0.2473455 1 0 1
-0.1384123 -0.211548 0.2530337 1 0 1
-0.1364494 -0.211898 0.253229 1 0 1
-0.13486 -0.2136467 0.2547928 1 0 1
-0.1330701 -0.2146901 0.255665 1 0 1
-0.1310914 -0.2150261 0.2558444 1 0 1
-0.1289353 -0.2146528 0.2553301 1 0 1
-0.1273018 -0.2163866 0.2568746 1 0 1
-0.1253152 -0.2167071 0.2570373 1 0 1
-0.123163 -0.2163163 0.2565051 1 0 1
-0.1210174 -0.2159189 0.2559667 1 0 1
-0.1190348 -0.216222 0.2561116 1 0 1
-0.1168985 -0.2158121 0.255561 1 0 1
-0.1144714 -0.2139791 0.2536237 1 0 1
-0.1126457 -0.2149725 0.254441 1 0 1
-0.1103884 -0.2138337 0.2531811 1 0 1
-0.1080086 -0.2119774 0.2512237 1 0 1
-0.1056512 -0.2101127 0.2492594 1 0 1
-0.1033163 -0.2082395 0.2472882 1 0 1
-0.1013797 -0.2084921 0.2473848 1 0 1
-0.09944223 -0.2087394 0.2474759 1 0 1
-0.09797387 -0.2118312 0.2503289 1 0 1
-0.09635975 -0.2142085 0.2524856 1 0 1
-0.09472135 -0.2165833 0.2546376 1 0 1
-0.0928471 -0.2175279 0.2554002 1 0 1
-0.09116789 -0.2198964 0.2575422 1 0 1
-0.0891706 -0.2201181 0.2576015 1 0 1
-0.08698454 -0.2189043 0.2562699 1 0 1
-0.08508378 -0.2198297 0.2570104 1 0 1
-0.08308825 -0.2200346 0.2570525 1 0 1
-0.08100978 -0.2195178 0.2563961 1 0 1
-0.0789386 -0.2189948 0.2557338 1 0 1
-0.07702343 -0.2198997 0.2564518 1 0 1
-0.07495888 -0.2193651 0.255778 1 0 1
-0.07296821 -0.2195421 0.2557916 1 0 1
-0.07078914 -0.2175592 0.2537201 1 0 1
-0.06898537 -0.2198797 0.2558017 1 0 1
-0.06693848 -0.2193216 0.2551051 1 0 1
0.03068421 -0.2117212 0.239581 1 0 1
0.03602519 -0.2186877 0.2457811 1 0 1
0.0363013 -0.2106377 0.2380359 1 0 1
0.03821859 -0.2105062 0.2377362 1 0 1
0.03997373 -0.2096498 0.2367556 1 0 1
0.04106045 -0.2059116 0.2330712 1 0 1
0.04362574 -0.2086417 0.2354561 1 0 1
0.04673862 -0.2135201 0.2398513 1 0 1
0.04990452 -0.2183887 0.2442319 1 0 1
0.05023751 -0.2117593 0.2378413 1 0 1
0.05271023 -0.2137425 0.2395165 1 0 1
0.05163089 -0.2020895 0.2284352 1 0 1
0.05349784 -0.2019138 0.228094 1 0 1
0.06122121 -0.2158704 0.2407707 1 0 1
0.06377161 -0.2178185 0.242403 1 0 1
0.065514 -0.2168973 0.2413562 1 0 1
0.06576832 -0.2109668 0.2356402 1 0 1
0.06574441 -0.2043232 0.2292652 1 0 1
0.06652547 -0.2005385 0.2255587 1 0 1
0.065707 -0.1917576 0.2172058 1 0 1
0.06955371 -0.1979594 0.2227972 1 0 1
0.07139383 -0.1977332 0.222406 1 0 1
0.07440358 -0.2010631 0.2253183 1 0 1
0.08174239 -0.2112487 0.2344019 1 0 1
0.08340626 -0.210281 0.2333138 1 0 1
0.08231536 -0.2014969 0.2249809 1 0 1
-0.2042269 -0.207004 0.2503874 1 0 1
-0.2022789 -0.2075355 0.2507707 1 0 1
-0.1950614 -0.19654 0.239812 1 0 1
-0.1530391 -0.2064254 0.2464454 1 0 1
-0.1531099 -0.2130982 0.2528074 1 0 1
-0.1511425 -0.2134892 0.2530437 1 0 1
-0.1465965 -0.2054784 0.2450972 1 0 1
-0.1440393 -0.2037484 0.2432713 1 0 1
-0.1406756 -0.1992041 0.238708 1 0 1
-0.139193 -0.2009615 0.2402777 1 0 1
-0.1388896 -0.2069321 0.2459421 1 0 1
-0.1383276 -0.2122055 0.2509239 1 0 1
-0.1361771 -0.2118513 0.2504344 1 0 1
-0.1349716 -0.2150139 0.2533598 1 0 1
-0.1331822 -0.2160604 0.2542287 1 0 1
-0.1310236 -0.215691 0.2537227 1 0 1
-0.1286953 -0.2146081 0.252525 1 0 1
-0.126898 -0.2156392 0.2533772 1 0 1
-0.1247548 -0.2152503 0.2528525 1 0 1
-0.1226182 -0.2148549 0.2523215 1 0 1
-0.1204881 -0.2144528 0.2517842 1 0 1
-0.118678 -0.2154637 0.2526145 1 0 1
-0.1162476 -0.2136291 0.2506911 1 0 1
-0.1139884 -0.2124965 0.249448 1 0 1
-0.1118887 -0.2120679 0.2488858 1 0 1
-0.1096545 -0.2109208 0.2476297 1 0 1
-0.1072977 -0.2090536 0.245679 1 0 1
-0.1050966 -0.207891 0.2444097 1 0 1
-0.103169 -0.2081483 0.2445111 1 0 1
-0.1012404 -0.2084003 0.2446069 1 0 1
-0.09955426 -0.2100762 0.246075 1 0 1
-0.09796923 -0.2124639 0.2482273 1 0 1
-0.09647378 -0.2155648 0.2510642 1 0 1
-0.09461642 -0.216516 0.2518286 1 0 1
-0.09275043 -0.2174627 0.2525877 1 0 1
-0.09097786 -0.2191218 0.254031 1 0 1
-0.08899252 -0.2193426 0.2540897 1 0 1
-0.08681796 -0.2181223 0.2527631 1 0 1
-0.08492936 -0.2190495 0.2535001 1 0 1
-0.0829458 -0.2192536 0.2535417 1 0 1
-0.08096159 -0.2194523 0.2535777 1 0 1
-0.07881963 -0.2182067 0.2522276 1 0 1
-0.07691666 -0.2191135 0.2529423 1 0 1
-0.07472244 -0.2171351 0.2508905 1 0 1
-0.07281842 -0.2180311 0.2515939 1 0 1
-0.07065457 -0.2160391 0.2495307 1 0 1
-0.06892636 -0.2190877 0.2522937 1 0 1
-0.2068731 -0.2137985 0.2542429 1 0 1
-0.2048952 -0.2143388 0.2546313 1 0 1
-0.2016749 -0.2121522 0.2523577 1 0 1
-0.1997074 -0.2126778 0.2527317 1 0 1
-0.1974351 -0.2125155 0.2524345 1 0 1
-0.1954668 -0.2130294 0.2527963 1 0 1
-0.1932013 -0.2128534 0.2524854 1 0 1
-0.1891938 -0.2085584 0.2481625 1 0 1
-0.1872492 -0.2090484 0.2485017 1 0 1
-0.1850188 -0.208846 0.2481666 1 0 1
-0.1830737 -0.2093244 0.2484939 1 0 1
-0.1805744 -0.2084196 0.2474754 1 0 1
-0.1829893 -0.2199247 0.2585213 1 0 1
-0.1532573 -0.1957919 0.2337215 1 0 1
-0.1530033 -0.2010744 0.2386989 1 0 1
-0.1533735 -0.2084631 0.2457093 1 0 1
-0.1529972 -0.2137596 0.2506906 1 0 1
-0.1523467 -0.2183599 0.2549947 1 0 1
-0.1499287 -0.217345 0.2538697 1 0 1
-0.1471024 -0.2149156 0.2513791 1 0 1
-0.1434762 -0.2096595 0.2461616 1 0 1
-0.1411305 -0.2086139 0.245011 1 0 1
-0.1393974 -0.2096759 0.245894 1 0 1
-0.1380467 -0.212146 0.2481337 1 0 1
-0.1360957 -0.212495 0.2483268 1 0 1
-0.1347072 -0.2149606 0.2505587 1 0 1
-0.132926 -0.216009 0.2514235 1 0 1
-0.1307752 -0.215636 0.2509192 1 0 1
-0.1284544 -0.214547 0.2497259 1 0 1
-0.1266652 -0.21558 0.2505742 1 0 1
-0.1245298 -0.2151875 0.2500511 1 0 1
-0.122401 -0.2147886 0.2495219 1 0 1
-0.1202786 -0.2143832 0.2489865 1 0 1
-0.1183198 -0.2146835 0.2491288 1 0 1
-0.1159007 -0.2128395 0.2472127 1 0 1
-0.1135037 -0.2109868 0.2452895 1 0 1
-0.1114196 -0.2105536 0.2447287 1 0 1
-0.1092008 -0.2093993 0.2434769 1 0 1
-0.1069966 -0.2082375 0.2422186 1 0 1
-0.105074 -0.2085 0.2423249 1 0 1
-0.1032802 -0.2094733 0.2431113 1 0 1
-0.1013519 -0.2097257 0.2432068 1 0 1
-0.09966639 -0.2114073 0.2446688 1 0 1
-0.09796434 -0.2130857 0.246126 1 0 1
-0.09658793 -0.2169155 0.2496374 1 0 1
-0.09462089 -0.2171509 0.2497121 1 0 1
-0.09265301 -0.217381 0.2497812 1 0 1
-0.09078664 -0.2183254 0.2505316 1 0 1
-0.08891165 -0.2192652 0.2512764 1 0 1
-0.08665022 -0.2173185 0.2492679 1 0 1
-0.08477379 -0.2182476 0.2500016 1 0 1
-0.08280224 -0.2184507 0.2500426 1 0 1
-0.08091272 -0.2193702 0.2507652 1 0 1
-0.07869953 -0.2173967 0.2487331 1 0 1
-0.0768837 -0.2190278 0.2501319 1 0 1
-0.07476777 -0.2177636 0.2487756 1 0 1
-0.07286809 -0.2186622 0.2494759 1 0 1
-0.07070768 -0.2166622 0.247421 1 0 1
-0.06916205 -0.221893 0.2522345 1 0 1
-0.06689806 -0.2184331 0.2487935 1 0 1
-0.206345 -0.2138193 0.2514504 1 0 1
-0.2050028 -0.2157224 0.2531576 1 0 1
-0.2024023 -0.214892 0.252217 1 0 1
-0.2010404 -0.2167883 0.2539156 1 0 1
-0.1984504 -0.2159431 0.2529606 1 0 1
-0.197069 -0.2178325 0.2546504 1 0 1
-0.1950799 -0.2183464 0.2550091 1 0 1
-0.1922143 -0.2167912 0.2533679 1 0 1
-0.1902321 -0.2172914 0.2537132 1 0 1
-0.1882477 -0.2177862 0.2540525 1 0 1
-0.1845808 -0.2141311 0.2503863 1 0 1
-0.1823387 -0.2139179 0.2500431 1 0 1
-0.1820095 -0.2185454 0.2543683 1 0 1
-0.1797519 -0.2183241 0.2540155 1 0 1
-0.1790893 -0.2222619 0.2576703 1 0 1
-0.1770812 -0.2227267 0.2579768 1 0 1
-0.1722409 -0.2155287 0.2509049 1 0 1
-0.167229 -0.2076092 0.2431441 1 0 1
-0.1653028 -0.2080381 0.2434206 1 0 1
-0.1591952 -0.1965842 0.2322696 1 0 1
-0.1580564 -0.1990869 0.2345432 1 0 1
-0.1566548 -0.2008892 0.2361416 1 0 1
-0.156408 -0.2061951 0.2411036 1 0 1
-0.1542616 -0.2058918 0.2406758 1 0 1
-0.1550683 -0.2147167 0.2490086 1 0 1
-0.152884 -0.2144098 0.2485741 1 0 1
-0.1509247 -0.2148003 0.2488082 1 0 1
-0.1489639 -0.2151854 0.2490367 1 0 1
-0.1461561 -0.2127421 0.2465547 1 0 1
-0.14317 -0.2095812 0.243387 1 0 1
-0.1410355 -0.2092365 0.2429178 1 0 1
-0.1395066 -0.2110089 0.2444745 1 0 1
-0.1379607 -0.2127789 0.2460273 1 0 1
-0.1360138 -0.2131276 0.2462196 1 0 1
-0.134442 -0.214891 0.2477635 1 0 1
-0.1326689 -0.2159412 0.2486243 1 0 1
-0.1307063 -0.216276 0.2488008 1 0 1
-0.1283891 -0.2151815 0.2476125 1 0 1
-0.126259 -0.2147916 0.2470971 1 0 1
-0.1241352 -0.2143952 0.2465756 1 0 1
-0.122018 -0.2139922 0.2460478 1 0 1
-0.1194242 -0.2114392 0.2434712 1 0 1
-0.1173317 -0.2110214 0.2429303 1 0 1
-0.1152459 -0.210597 0.2423832 1 0 1
-0.1130174 -0.2094501 0.2411484 1 0 1
-0.1110943 -0.2097291 0.241271 1 0 1
-0.1091702 -0.2100029 0.2413881 1 0 1
-0.1071073 -0.2095536 0.2408173 1 0 1
-0.1050512 -0.2090979 0.2402406 1 0 1
-0.1033916 -0.2107927 0.2417064 1 0 1
-0.1017155 -0.2124844 0.2431675 1 0 1
-0.1000228 -0.2141728 0.2446238 1 0 1
-0.09831367 -0.2158578 0.2460753 1 0 1
-0.09681652 -0.2189813 0.2488889 1 0 1
-0.09484578 -0.2192176 0.2489634 1 0 1
-0.09287419 -0.2194486 0.2490323 1 0 1
-0.09079933 -0.2189518 0.2484117 1 0 1
-0.08892868 -0.2198941 0.2491532 1 0 1
-0.08676542 -0.2186625 0.2478369 1 0 1
-0.08479865 -0.2188709 0.2478832 1 0 1
-0.08274433 -0.2183499 0.2472395 1 0 1
-0.08094609 -0.2199961 0.2486433 1 0 1
-0.07873636 -0.2180144 0.2466194 1 0 1
-0.07685002 -0.2189256 0.2473276 1 0 1
-0.0747417 -0.2176557 0.2459767 1 0 1
-0.07291757 -0.2192825 0.2473584 1 0 1
-0.07069728 -0.216548 0.2446271 1 0 1
-0.06910194 -0.2210707 0.2487359 1 0 1
-0.2070873 -0.2165582 0.2512916 1 0 1
-0.2051099 -0.2170999 0.2516784 1 0 1
-0.2025093 -0.2162651 0.2507427 1 0 1
-0.2008415 -0.2174807 0.2517758 1 0 1
-0.1979521 -0.2159424 0.250165 1 0 1
-0.1962797 -0.2171471 0.2511866 1 0 1
-0.1943021 -0.2176588 0.2515426 1 0 1
-0.1920307 -0.2174746 0.2512309 1 0 1
-0.1903404 -0.218666 0.2522373 1 0 1
-0.1877882 -0.2177766 0.2512497 1 0 1
-0.1855292 -0.2175714 0.2509175 1 0 1
-0.1827228 -0.2159703 0.2492494 1 0 1
-0.1815733 -0.2185297 0.2515624 1 0 1
-0.1785166 -0.2162162 0.2492136 1 0 1
-0.1762836 -0.2159812 0.248853 1 0 1
-0.173011 -0.2129476 0.2458183 1 0 1
-0.169517 -0.209201 0.2421048 1 0 1
-0.1670817 -0.2082374 0.2410508 1 0 1
-0.1649096 -0.2079656 0.2406576 1 0 1
-0.1624973 -0.2069853 0.2395887 1 0 1
-0.1610674 -0.2088052 0.2411905 1 0 1
-0.1598589 -0.211326 0.2434589 1 0 1
-0.157922 -0.2117351 0.243713 1 0 1
-0.1559833 -0.2121389 0.2439615 1 0 1
-0.1547238 -0.2146535 0.246219 1 0 1
-0.152101 -0.2129307 0.2444417 1 0 1
-0.1501574 -0.2133186 0.2446734 1 0 1
-0.1479967 -0.2129936 0.2442267 1 0 1
-0.1456307 -0.2119534 0.2431001 1 0 1
-0.1432784 -0.2109048 0.2419661 1 0 1
-0.1411439 -0.210558 0.2414992 1 0 1
-0.1396156 -0.2123362 0.2430497 1 0 1
-0.1376782 -0.2126894 0.2432463 1 0 1
-0.1359315 -0.2137492 0.2441128 1 0 1
-0.1343642 -0.2155178 0.2456501 1 0 1
-0.1324109 -0.215857 0.2458311 1 0 1
-0.1302756 -0.215477 0.24533 1 0 1
-0.1279699 -0.2143757 0.2441458 1 0 1
-0.1258513 -0.2139818 0.2436319 1 0 1
-0.1235702 -0.2128654 0.2424343 1 0 1
-0.1214686 -0.2124576 0.2419077 1 0 1
-0.1188896 -0.209892 0.2393409 1 0 1
-0.1169701 -0.2101873 0.2394795 1 0 1
-0.1150494 -0.2104773 0.2396127 1 0 1
-0.1128285 -0.2093242 0.2383827 1 0 1
-0.1107677 -0.2088831 0.2378253 1 0 1
-0.1089973 -0.2098756 0.2386206 1 0 1
-0.1070801 -0.2101435 0.2387313 1 0 1
-0.105162 -0.2104061 0.2388366 1 0 1
-0.103373 -0.211385 0.2396163 1 0 1
-0.1015752 -0.2123597 0.240391 1 0 1
-0.09989107 -0.2140528 0.2418409 1 0 1
-0.09819039 -0.2157425 0.2432859 1 0 1
-0.0967022 -0.218876 0.2460874 1 0 1
-0.0947395 -0.2191117 0.2461612 1 0 1
-0.09277599 -0.219342 0.2462295 1 0 1
-0.09070892 -0.218842 0.2456112 1 0 1
-0.08884662 -0.2197865 0.2463493 1 0 1
-0.08659598 -0.2178232 0.2443569 1 0 1
-0.08482326 -0.2194832 0.2457653 1 0 1
-0.08277287 -0.2189595 0.2451241 1 0 1
-0.08081286 -0.2191567 0.2451587 1 0 1
-0.07861445 -0.2171662 0.2431429 1 0 1
-0.07666496 -0.2173515 0.2431663 1 0 1
-0.07464354 -0.2168033 0.2425023 1 0 1
-0.0728319 -0.2184345 0.2438779 1 0 1
-0.07068623 -0.2164175 0.2418394 1 0 1
-0.06916001 -0.221685 0.2466124 1 0 1
-0.2071938 -0.2179292 0.2498077 1 0 1
-0.2052167 -0.2184717 0.2501938 1 0 1
-0.2023053 -0.2169441 0.2486072 1 0 1
-0.2003348 -0.2174728 0.2489797 1 0 1
-0.1977557 -0.2166156 0.2480324 1 0 1
-0.1954888 -0.2164401 0.2477343 1 0 1
-0.1932272 -0.2162575 0.2474291 1 0 1
-0.190971 -0.2160674 0.2471168 1 0 1
-0.1892962 -0.2172583 0.2481171 1 0 1
-0.1873275 -0.2177506 0.2484526 1 0 1
-0.1850761 -0.2175416 0.2481212 1 0 1
-0.1820002 -0.2152345 0.2457981 1 0 1
-0.1803171 -0.216404 0.2467756 1 0 1
-0.1770097 -0.2133775 0.2437716 1 0 1
-0.1747995 -0.2131351 0.2434097 1 0 1
-0.172072 -0.2114848 0.241713 1 0 1
-0.1696231 -0.2105251 0.2406719 1 0 1
-0.1674415 -0.210259 0.2402882 1 0 1
-0.1660159 -0.2120952 0.2418948 1 0 1
-0.1645732 -0.2139294 0.243498 1 0 1
-0.1626286 -0.2143521 0.2437641 1 0 1
-0.1604436 -0.214064 0.2433575 1 0 1
-0.1582644 -0.213769 0.2429443 1 0 1
-0.1553983 -0.2113454 0.2405197 1 0 1
-0.1534697 -0.2117421 0.2407607 1 0 1
-0.1515395 -0.2121335 0.240996 1 0 1
-0.1493881 -0.2118102 0.2405562 1 0 1
-0.1474584 -0.2121903 0.24078 1 0 1
-0.1453155 -0.2118541 0.2403277 1 0 1
-0.1429709 -0.2107994 0.2391981 1 0 1
-0.1408441 -0.210449 0.2387327 1 0 1
-0.1393242 -0.2122314 0.2402763 1 0 1
-0.137591 -0.2132976 0.2411437 1 0 1
-0.1358488 -0.2143598 0.2420063 1 0 1
-0.134286 -0.2161334 0.2435371 1 0 1
-0.1327063 -0.2179045 0.2450637 1 0 1
-0.1303862 -0.2168062 0.2438918 1 0 1
-0.1282574 -0.2164174 0.2433868 1 0 1
-0.1259618 -0.215304 0.2422013 1 0 1
-0.1235113 -0.2134642 0.2403344 1 0 1
-0.1214135 -0.2130537 0.2398099 1 0 1
-0.1188378 -0.2104774 0.2372538 1 0 1
-0.1167648 -0.2100521 0.2367163 1 0 1
-0.1148521 -0.2103413 0.2368484 1 0 1
-0.1127886 -0.2099037 0.2362992 1 0 1
-0.1108777 -0.2101818 0.2364202 1 0 1
-0.1091077 -0.2111774 0.2372122 1 0 1
-0.107329 -0.2121689 0.2379993 1 0 1
-0.1052729 -0.2117086 0.2374275 1 0 1
-0.1034844 -0.2126906 0.238204 1 0 1
-0.1015606 -0.2129435 0.238298 1 0 1
-0.1000036 -0.215367 0.2404191 1 0 1
-0.09818497 -0.2163366 0.2411804 1 0 1
-0.09647239 -0.2180282 0.2426143 1 0 1
-0.09463247 -0.2189895 0.2433653 1 0 1
-0.09278392 -0.2199464 0.2441111 1 0 1
-0.0907208 -0.2194436 0.2434951 1 0 1
-0.0887638 -0.2196626 0.2435516 1 0 1
-0.08661572 -0.2184193 0.2422457 1 0 1
-0.08466508 -0.2186267 0.2422909 1 0 1
-0.08253913 -0.2173701 0.2409735 1 0 1
-0.08067847 -0.2182957 0.2416862 1 0 1
-0.07849135 -0.2162964 0.2396785 1 0 1
-0.07662944 -0.2172113 0.2403801 1 0 1
-0.07475918 -0.2181217 0.2410763 1 0 1
-0.07301596 -0.2204897 0.2431246 1 0 1
-0.07073827 -0.2170023 0.2397369 1 0 1
-0.0692179 -0.2222883 0.2444896 1 0 1
-0.2066634 -0.2179168 0.2470156 1 0 1
-0.2043794 -0.2177681 0.2467474 1 0 1
-0.2017898 -0.2169213 0.2458192 1 0 1
-0.1995199 -0.2167568 0.245536 1 0 1
-0.1972553 -0.2165849 0.2452458 1 0 1
-0.1952955 -0.2170994 0.2456033 1 0 1
-0.1936294 -0.2183034 0.2466108 1 0 1
-0.1910774 -0.2174166 0.245645 1 0 1
-0.1894031 -0.2186107 0.2466417 1 0 1
-0.1874346 -0.2191037 0.2469766 1 0 1
-0.1851833 -0.2188927 0.2466474 1 0 1
-0.1821069 -0.2165759 0.2443349 1 0 1
-0.1804243 -0.2177486 0.2453089 1 0 1
-0.1773854 -0.215411 0.2429784 1 0 1
-0.1749059 -0.2144653 0.2419587 1 0 1
-0.1721781 -0.2128077 0.2402699 1 0 1
-0.169987 -0.2125475 0.2398956 1 0 1
-0.1683098 -0.2136898 0.2408392 1 0 1
-0.1666231 -0.2148287 0.2417783 1 0 1
-0.1651735 -0.2166704 0.2433763 1 0 1
-0.1629788 -0.216388 0.242979 1 0 1
-0.1607901 -0.2160987 0.2425752 1 0 1
-0.1583721 -0.2150933 0.2414998 1 0 1
-0.1557366 -0.2133697 0.2397515 1 0 1
-0.1533497 -0.2123465 0.2386605 1 0 1
-0.1516471 -0.2134491 0.2395612 1 0 1
-0.1494958 -0.2131236 0.2391237 1 0 1
-0.1473506 -0.2127913 0.2386797 1 0 1
-0.1449995 -0.2117387 0.2375616 1 0 1
-0.1432867 -0.2128208 0.2384406 1 0 1
-0.1411562 -0.2124691 0.237978 1 0 1
-0.1392322 -0.2128263 0.2381778 1 0 1
-0.1373069 -0.2131783 0.2383723 1 0 1
-0.1353801 -0.2135251 0.2385611 1 0 1
-0.1334519 -0.2138666 0.2387445 1 0 1
-0.1317073 -0.2149214 0.2395927 1 0 1
-0.1297725 -0.2152529 0.2397654 1 0 1
-0.1278364 -0.2155791 0.2399325 1 0 1
-0.1253789 -0.2137384 0.2380799 1 0 1
-0.1232824 -0.213331 0.2375633 1 0 1
-0.1211924 -0.212917 0.2370406 1 0 1
-0.1187856 -0.2110518 0.2351673 1 0 1
-0.1168743 -0.2113466 0.2353044 1 0 1
-0.1151159 -0.2123598 0.2361091 1 0 1
-0.1128984 -0.2111965 0.2348894 1 0 1
-0.1108415 -0.2107503 0.2343367 1 0 1
-0.109076 -0.2117483 0.2351252 1 0 1
-0.1073015 -0.2127422 0.2359087 1 0 1
-0.1052494 -0.2122792 0.2353392 1 0 1
-0.1034652 -0.2132637 0.2361123 1 0 1
-0.101419 -0.212789 0.2355313 1 0 1
-0.09974793 -0.2144918 0.2369684 1 0 1
-0.0979415 -0.215463 0.237726 1 0 1
-0.0963563 -0.2178876 0.2398282 1 0 1
-0.09452471 -0.218851 0.2405757 1 0 1
-0.09279161 -0.2205398 0.2419931 1 0 1
-0.09073241 -0.2200342 0.2413796 1 0 1
-0.08868024 -0.2195224 0.2407602 1 0 1
-0.08653977 -0.2182732 0.2394596 1 0 1
-0.08459724 -0.2184801 0.2395043 1 0 1
-0.08247893 -0.2172177 0.2381921 1 0 1
-0.08062655 -0.2181455 0.2389014 1 0 1
-0.07852656 -0.2168705 0.2375779 1 0 1
-0.07659326 -0.2170549 0.2376004 1 0 1
-0.07473133 -0.2179674 0.2382933 1 0 1
-0.07272507 -0.2174076 0.237629 1 0 1
-0.07053405 -0.2146393 0.2349313 1 0 1
-0.06849419 -0.213332 0.23358 1 0 1
-0.2067688 -0.2192707 0.2455265 1 0 1
-0.2047997 -0.2198126 0.2459097 1 0 1
-0.2018951 -0.2182689 0.2443372 1 0 1
-0.1996254 -0.2181025 0.244056 1 0 1
-0.1970573 -0.2172333 0.2431165 1 0 1
-0.1951016 -0.2177475 0.2434726 1 0 1
-0.1937356 -0.2196511 0.2451286 1 0 1
-0.1914757 -0.2194582 0.2448213 1 0 1
-0.1897982 -0.2206565 0.2458151 1 0 1
-0.1875416 -0.2204509 0.2454951 1 0 1
-0.1850094 -0.2195367 0.2445128 1 0 1
-0.1819362 -0.2172094 0.2422104 1 0 1
-0.1797112 -0.2169782 0.2418671 1 0 1
-0.1772222 -0.2160361 0.2408599 1 0 1
-0.1747464 -0.2150849 0.2398447 1 0 1
-0.1722839 -0.2141249 0.2388216 1 0 1
-0.170351 -0.2145693 0.2391084 1 0 1
-0.1684162 -0.2150083 0.2393896 1 0 1
-0.1664795 -0.2154419 0.2396653 1 0 1
-0.1650344 -0.2172886 0.2412563 1 0 1
-0.1630864 -0.2177133 0.2415218 1 0 1
-0.1606586 -0.2167111 0.2404588 1 0 1
-0.1584796 -0.2164119 0.24005 1 0 1
-0.1558437 -0.214681 0.2383097 1 0 1
-0.1534567 -0.2136531 0.2372238 1 0 1
-0.1515308 -0.2140449 0.2374576 1 0 1
-0.1493834 -0.2137166 0.237022 1 0 1
-0.1474581 -0.2140969 0.2372443 1 0 1
-0.1451069 -0.2130395 0.2361314 1 0 1
-0.1431863 -0.2134079 0.2363418 1 0 1
-0.1410596 -0.2130532 0.235881 1 0 1
-0.1391398 -0.2134103 0.23608 1 0 1
-0.1370218 -0.2130429 0.2356071 1 0 1
-0.1352959 -0.2141086 0.2364615 1 0 1
-0.1335609 -0.2151704 0.2373112 1 0 1
-0.1318168 -0.2162282 0.2381561 1 0 1
-0.1298822 -0.2165602 0.2383282 1 0 1
-0.1279464 -0.2168869 0.2384949 1 0 1
-0.1258357 -0.2164851 0.2379875 1 0 1
-0.1237314 -0.2160767 0.2374739 1 0 1
-0.1214679 -0.2149374 0.2362852 1 0 1
-0.1192187 -0.2137904 0.2350897 1 0 1
-0.1171419 -0.2133612 0.2345573 1 0 1
-0.1153801 -0.2143781 0.2353589 1 0 1
-0.1131585 -0.2132104 0.2341449 1 0 1
-0.1110978 -0.2127625 0.2335948 1 0 1
-0.1093288 -0.2137641 0.2343803 1 0 1
-0.1074124 -0.2140331 0.2344898 1 0 1
-0.1053603 -0.2135678 0.2339227 1 0 1
-0.1034458 -0.2138258 0.2340212 1 0 1
-0.1015304 -0.2140784 0.2341142 1 0 1
-0.09973706 -0.2150564 0.2348734 1 0 1
-0.09793498 -0.21603 0.2356276 1 0 1
-0.09635464 -0.2184623 0.2377205 1 0 1
-0.09441617 -0.2186962 0.2377925 1 0 1
-0.09279899 -0.2211221 0.2398758 1 0 1
-0.09084716 -0.2213467 0.2399371 1 0 1
-0.08879507 -0.2208326 0.2393203 1 0 1
-0.08665437 -0.2195784 0.2380251 1 0 1
-0.08462038 -0.2190514 0.2373967 1 0 1
-0.08250578 -0.2177837 0.23609 1 0 1
-0.08057392 -0.217979 0.2361232 1 0 1
-0.07848157 -0.2166982 0.234805 1 0 1
-0.07655638 -0.2168822 0.2348272 1 0 1
-0.07463062 -0.2170607 0.2348438 1 0 1
-0.07263617 -0.2164976 0.2341821 1 0 1
-0.2075113 -0.2220065 0.2453234 1 0 1
-0.20522 -0.2218562 0.2450608 1 0 1
-0.2020002 -0.2196106 0.2428497 1 0 1
-0.199423 -0.2187454 0.2419228 1 0 1
-0.1968585 -0.2178708 0.2409875 1 0 1
-0.1952069 -0.2190836 0.2419915 1 0 1
-0.1935455 -0.220293 0.2429912 1 0 1
-0.1915818 -0.2207981 0.2433359 1 0 1
-0.1896161 -0.2212978 0.243675 1 0 1
-0.1873633 -0.2210893 0.2433565 1 0 1
-0.1851159 -0.2208735 0.243031 1 0 1
-0.1820421 -0.2185364 0.2407394 1 0 1
-0.1798172 -0.2183033 0.2403983 1 0 1
-0.1773281 -0.2173567 0.2393962 1 0 1
-0.1748522 -0.2164009 0.238386 1 0 1
-0.1723896 -0.2154364 0.237368 1 0 1
-0.170457 -0.2158812 0.2376542 1 0 1
-0.1685224 -0.2163209 0.2379348 1 0 1
-0.166586 -0.2167551 0.2382098 1 0 1
-0.1648946 -0.2178958 0.2391369 1 0 1
-0.1627077 -0.2176077 0.2387432 1 0 1
-0.1602874 -0.2165992 0.2376841 1 0 1
-0.1578807 -0.2155821 0.2366175 1 0 1
-0.1557191 -0.2152716 0.2362031 1 0 1
-0.1533358 -0.2142383 0.235122 1 0 1
-0.151414 -0.2146297 0.2353547 1 0 1
-0.1494906 -0.2150159 0.235582 1 0 1
-0.1471331 -0.2139607 0.2344807 1 0 1
-0.1450018 -0.2136159 0.2340342 1 0 1
-0.1432939 -0.2147036 0.2349059 1 0 1
-0.1411673 -0.2143468 0.2344475 1 0 1
-0.1392477 -0.2147043 0.234646 1 0 1
-0.1373267 -0.2150567 0.234839 1 0 1
-0.1355975 -0.216126 0.2356904 1 0 1
-0.1334806 -0.2157453 0.2352085 1 0 1
-0.1317408 -0.2168056 0.2360496 1 0 1
-0.1298104 -0.2171373 0.236221 1 0 1
-0.1278787 -0.2174638 0.2363868 1 0 1
-0.1257719 -0.2170592 0.2358815 1 0 1
-0.1236716 -0.2166481 0.2353701 1 0 1
-0.1214118 -0.2155033 0.2341863 1 0 1
-0.1193285 -0.2150785 0.2336624 1 0 1
-0.1172517 -0.2146472 0.2331325 1 0 1
-0.1154904 -0.215667 0.2339308 1 0 1
-0.1134191 -0.2152239 0.2333894 1 0 1
-0.1113546 -0.2147744 0.2328421 1 0 1
-0.1095822 -0.2157795 0.2336245 1 0 1
-0.1075233 -0.2153184 0.2330658 1 0 1
-0.1054713 -0.2148509 0.2325013 1 0 1
-0.103557 -0.2151091 0.2325993 1 0 1
-0.1015148 -0.2146296 0.2320233 1 0 1
-0.09960257 -0.2148768 0.2321102 1 0 1
-0.09792819 -0.2165861 0.2335298 1 0 1
-0.09612186 -0.2175578 0.2342753 1 0 1
-0.09419537 -0.2177906 0.2343464 1 0 1
-0.09259085 -0.2202233 0.2364203 1 0 1
-0.09065104 -0.2204468 0.2364809 1 0 1
-0.08851091 -0.2191932 0.2351967 1 0 1
-0.08657746 -0.2194052 0.2352461 1 0 1
-0.0845513 -0.218875 0.2346202 1 0 1
-0.08253239 -0.2183388 0.2339886 1 0 1
-0.08060472 -0.218534 0.2340214 1 0 1
-0.07851607 -0.2172478 0.2327087 1 0 1
-0.07651877 -0.2166933 0.2320605 1 0 1
-0.07474585 -0.2183489 0.233417 1 0 1
-0.07254613 -0.215566 0.2307474 1 0 1
-0.07024828 -0.2112964 0.2267321 1 0 1
-0.2066596 -0.2212644 0.2418892 1 0 1
-0.2046948 -0.2218066 0.2422702 1 0 1
-0.2017934 -0.2202479 0.2407126 1 0 1
-0.1992199 -0.2193772 0.23979 1 0 1
-0.1966591 -0.2184972 0.238859 1 0 1
-0.1950117 -0.2197122 0.2398587 1 0 1
-0.1933545 -0.2209239 0.2408541 1 0 1
-0.1913949 -0.2214287 0.2411975 1 0 1
-0.1891443 -0.2212237 0.2408869 1 0 1
-0.1868992 -0.2210113 0.2405693 1 0 1
-0.1849409 -0.221498 0.2408944 1 0 1
-0.1821478 -0.2198576 0.2392632 1 0 1
-0.1796493 -0.2189144 0.2382735 1 0 1
-0.1774338 -0.2186713 0.2379272 1 0 1
-0.1749578 -0.2177111 0.2369221 1 0 1
-0.1727573 -0.2174528 0.2365618 1 0 1
-0.1708211 -0.2178992 0.2368479 1 0 1
-0.1686284 -0.2176276 0.2364747 1 0 1
-0.1664413 -0.217349 0.236095 1 0 1
-0.1650014 -0.2192063 0.2376728 1 0 1
-0.162328 -0.2174859 0.2359707 1 0 1
-0.1599152 -0.2164712 0.2349158 1 0 1
-0.157516 -0.2154479 0.2338534 1 0 1
-0.1555939 -0.2158512 0.2340971 1 0 1
-0.1529863 -0.2140942 0.2323635 1 0 1
-0.1510725 -0.2144846 0.2325948 1 0 1
-0.1491571 -0.2148698 0.2328205 1 0 1
-0.14724 -0.2152496 0.2330409 1 0 1
-0.1451088 -0.2149028 0.2325966 1 0 1
-0.1436102 -0.2167157 0.2341244 1 0 1
-0.1416847 -0.2170805 0.2343287 1 0 1
-0.1395567 -0.2167164 0.2338672 1 0 1
-0.1376321 -0.2170698 0.23406 1 0 1
-0.1357061 -0.2174179 0.2342473 1 0 1
-0.1335893 -0.2170351 0.2337679 1 0 1
-0.13185 -0.2180984 0.2346056 1 0 1
-0.1299199 -0.2184306 0.2347765 1 0 1
-0.1278106 -0.2180298 0.2342794 1 0 1
-0.1255338 -0.2168941 0.2331135 1 0 1
-0.1236114 -0.2172085 0.2332669 1 0 1
-0.121189 -0.2153287 0.2314249 1 0 1
-0.1191135 -0.2149005 0.2309028 1 0 1
-0.117203 -0.2151966 0.2310388 1 0 1
-0.1154461 -0.2162188 0.2318334 1 0 1
-0.1133788 -0.215773 0.2312943 1 0 1
-0.111465 -0.2160533 0.2314139 1 0 1
-0.1096931 -0.2170614 0.2321929 1 0 1
-0.1076344 -0.216598 0.2316368 1 0 1
-0.1057175 -0.2168625 0.2317401 1 0 1
-0.1039309 -0.2178563 0.2325034 1 0 1
-0.1018809 -0.2173755 0.2319303 1 0 1
-0.09983771 -0.2168884 0.2313514 1 0 1
-0.09804055 -0.2178674 0.2320988 1 0 1
-0.09623474 -0.2188421 0.2328411 1 0 1
-0.09442026 -0.2198125 0.2335783 1 0 1
-0.09259716 -0.2207785 0.2343102 1 0 1
-0.09076547 -0.22174 0.2350369 1 0 1
-0.08862516 -0.2204814 0.2337582 1 0 1
-0.08659588 -0.2199547 0.2331405 1 0 1
-0.08448154 -0.2186825 0.2318501 1 0 1
-0.08247042 -0.2181431 0.231221 1 0 1
-0.08063524 -0.2190779 0.2319205 1 0 1
-0.0785503 -0.2177865 0.2306132 1 0 1
-0.07655699 -0.2172293 0.2299676 1 0 1
-0.0748613 -0.2196313 0.2319852 1 0 1
-0.07272957 -0.21758 0.2299942 1 0 1
-0.0702972 -0.2118111 0.2246616 1 0 1
-0.1958506 -0.2177064 0.2354453 1 0 1
-0.1951161 -0.2210339 0.2383699 1 0 1
-0.1943492 -0.2243639 0.2412942 1 0 1
-0.1926716 -0.2255782 0.2422837 1 0 1
-0.190406 -0.2253751 0.2419778 1 0 1
-0.1881459 -0.2251647 0.241665 1 0 1
-0.1853281 -0.2235292 0.2400517 1 0 1
-0.1822533 -0.2211729 0.2377817 1 0 1
-0.1794807 -0.2195145 0.2361491 1 0 1
-0.1778093 -0.2206918 0.2371016 1 0 1
-0.1753294 -0.2197279 0.2361022 1 0 1
-0.1731253 -0.2194686 0.2357447 1 0 1
-0.1711857 -0.2199164 0.2360308 1 0 1
-0.1692441 -0.2203589 0.2363112 1 0 1
-0.1665472 -0.218648 0.234632 1 0 1
-0.1646134 -0.2190773 0.2348998 1 0 1
-0.1621908 -0.2180657 0.2338571 1 0 1
-0.1597817 -0.2170456 0.2328069 1 0 1
-0.1573861 -0.2160169 0.2317491 1 0 1
-0.1554682 -0.21642 0.2319918 1 0 1
-0.1528641 -0.214655 0.2302658 1 0 1
-0.1509544 -0.2150451 0.230496 1 0 1
-0.1494842 -0.216875 0.2320314 1 0 1
-0.1473469 -0.2165329 0.2315959 1 0 1
-0.1450029 -0.21546 0.2304978 1 0 1
-0.1439267 -0.2187272 0.2333321 1 0 1
-0.1417926 -0.2183678 0.2328792 1 0 1
-0.1396647 -0.2180015 0.23242 1 0 1
-0.1377404 -0.2183555 0.2326124 1 0 1
-0.1358148 -0.2187041 0.2327993 1 0 1
-0.1336979 -0.2183191 0.2323222 1 0 1
-0.1317733 -0.2186564 0.2324977 1 0 1
-0.1298474 -0.2189885 0.2326677 1 0 1
-0.1279201 -0.2193152 0.2328323 1 0 1
-0.1256431 -0.2181747 0.2316717 1 0 1
-0.1235507 -0.217758 0.2311645 1 0 1
-0.1212983 -0.2166025 0.2299908 1 0 1
-0.1192229 -0.2161721 0.2294713 1 0 1
-0.117154 -0.2157352 0.2289457 1 0 1
-0.1154014 -0.2167598 0.2297368 1 0 1
-0.1133381 -0.2163112 0.2291999 1 0 1
-0.1114285 -0.2165913 0.2293189 1 0 1
-0.109661 -0.2176018 0.2300944 1 0 1
-0.1077454 -0.2178719 0.2302027 1 0 1
-0.1058289 -0.2181368 0.2303057 1 0 1
-0.1039113 -0.2183963 0.2304031 1 0 1
-0.1019928 -0.2186505 0.2304951 1 0 1
-0.09994975 -0.2181611 0.2299187 1 0 1
-0.09803333 -0.2184042 0.2299997 1 0 1
-0.09634777 -0.2201208 0.2314019 1 0 1
-0.09453384 -0.2210941 0.2321357 1 0 1
-0.09271128 -0.2220629 0.2328644 1 0 1
-0.0907759 -0.2222867 0.2329243 1 0 1
-0.08863933 -0.2210228 0.2316509 1 0 1
-0.08651771 -0.2197518 0.2303717 1 0 1
-0.08441097 -0.2184738 0.2290867 1 0 1
-0.08258478 -0.2194161 0.2297882 1 0 1
-0.08058095 -0.2188682 0.2291561 1 0 1
-0.07866497 -0.2190575 0.2291828 1 0 1
-0.07674845 -0.2192415 0.2292039 1 0 1
-0.07490417 -0.2201641 0.229884 1 0 1
-0.07263815 -0.2166163 0.226573 1 0 1
-0.07067075 -0.2160383 0.2259136 1 0 1
-0.1949196 -0.221643 0.2362352 1 0 1
-0.1941577 -0.2249829 0.2391466 1 0 1
