ply
format ascii 1.0
Comment Generated by Floating Hands
element vertex 1256
property double x
property double y
property double z
property uchar red
property uchar green
property uchar blue
end_header
-0.07009088 -0.2164867 0.3418151 1 0 1
-0.06772375 -0.2160477 0.3410526 1 0 1
-0.06546189 -0.2168289 0.3418596 1 0 1
-0.06323674 -0.2182182 0.3434481 1 0 1
-0.06083097 -0.2171468 0.3418767 1 0 1
-0.05862636 -0.2191391 0.3442399 1 0 1
-0.05636455 -0.2205125 0.3458078 1 0 1
-0.05405734 -0.221266 0.3465805 1 0 1
-0.0515897 -0.2183243 0.3426171 1 0 1
-0.04952561 -0.2258314 0.3520457 1 0 1
-0.232424 -0.2112695 0.3474251 1 0 1
-0.2294763 -0.2107266 0.3464145 1 0 1
-0.2277722 -0.212473 0.3484267 1 0 1
-0.1232101 -0.2126205 0.3379197 1 0 1
-0.1209171 -0.2129341 0.338102 1 0 1
-0.1191796 -0.2156709 0.3414061 1 0 1
-0.1165978 -0.2147589 0.340011 1 0 1
-0.1141617 -0.214447 0.3393906 1 0 1
-0.1118598 -0.214737 0.3395459 1 0 1
-0.1095567 -0.215021 0.3396944 1 0 1
-0.1072525 -0.2152988 0.339836 1 0 1
-0.1050629 -0.2161811 0.3407546 1 0 1
-0.1028645 -0.217058 0.3416667 1 0 1
-0.1005493 -0.2173186 0.3417882 1 0 1
-0.09802484 -0.2163501 0.3403343 1 0 1
-0.09561523 -0.2159858 0.3396573 1 0 1
-0.09311635 -0.2150022 0.3381884 1 0 1
-0.0910015 -0.2164621 0.3398515 1 0 1
-0.08869331 -0.2166912 0.3399383 1 0 1
-0.08655328 -0.2181413 0.3415886 1 0 1
-0.08423559 -0.218359 0.341662 1 0 1
-0.08222373 -0.2210278 0.3448701 1 0 1
-0.07959797 -0.2187762 0.3417883 1 0 1
-0.07720932 -0.2183606 0.3410557 1 0 1
-0.07476297 -0.2173231 0.3395304 1 0 1
-0.07251453 -0.218125 0.340355 1 0 1
-0.06997258 -0.2158419 0.3372442 1 0 1
-0.06772694 -0.2166314 0.3380553 1 0 1
-0.06547295 -0.2174154 0.3388595 1 0 1
-0.06321053 -0.2181939 0.339657 1 0 1
-0.06081598 -0.2171157 0.3380902 1 0 1
-0.05862352 -0.2191169 0.3404457 1 0 1
-0.05634022 -0.2198785 0.3412227 1 0 1
-0.05398973 -0.2193988 0.3404213 1 0 1
-0.2341305 -0.2160166 0.3497221 1 0 1
-0.2330343 -0.2189346 0.3532498 1 0 1
-0.1303871 -0.223509 0.3485657 1 0 1
-0.122736 -0.2119862 0.3333773 1 0 1
-0.1204584 -0.2122982 0.3335578 1 0 1
-0.1185977 -0.2144353 0.3360708 1 0 1
-0.1160348 -0.2135151 0.3346787 1 0 1
-0.113881 -0.214421 0.3356195 1 0 1
-0.1117184 -0.2153219 0.3365541 1 0 1
-0.1095467 -0.2162178 0.3374825 1 0 1
-0.1071263 -0.2158829 0.3368424 1 0 1
-0.1051765 -0.2179942 0.3393202 1 0 1
-0.1026419 -0.2170334 0.3378849 1 0 1
-0.1003381 -0.2172932 0.3380055 1 0 1
-0.09792912 -0.2169323 0.3373373 1 0 1
-0.09552697 -0.2165645 0.336662 1 0 1
-0.0930353 -0.2155744 0.3351973 1 0 1
-0.09092847 -0.2170401 0.3368548 1 0 1
-0.08862789 -0.2172688 0.336941 1 0 1
-0.08632652 -0.2174915 0.3370204 1 0 1
-0.08418582 -0.2189421 0.3386585 1 0 1
-0.08210556 -0.2210054 0.3410733 1 0 1
-0.07963645 -0.2199763 0.3395668 1 0 1
-0.07732026 -0.2201758 0.3396192 1 0 1
-0.07487337 -0.2191324 0.3380985 1 0 1
-0.07250265 -0.2187004 0.3373539 1 0 1
-0.0699676 -0.2164047 0.3342524 1 0 1
-0.06767653 -0.2165777 0.3342772 1 0 1
-0.06538492 -0.2167446 0.3342952 1 0 1
-0.06309279 -0.2169056 0.3343065 1 0 1
-0.06075881 -0.2164404 0.3335277 1 0 1
-0.05854487 -0.2178297 0.3350923 1 0 1
-0.0562476 -0.2179728 0.3350833 1 0 1
-0.2326816 -0.2149992 0.3444696 1 0 1
-0.1261603 -0.2082382 0.3253653 1 0 1
-0.1222605 -0.2113217 0.3288472 1 0 1
-0.1201417 -0.212245 0.329803 1 0 1
-0.1181535 -0.2137768 0.33153 1 0 1
-0.1157414 -0.2134629 0.3309188 1 0 1
-0.1133357 -0.2131419 0.3303002 1 0 1
-0.1114484 -0.2152738 0.3327869 1 0 1
-0.1090404 -0.2149409 0.3321548 1 0 1
-0.1066391 -0.2146011 0.3315156 1 0 1
-0.104477 -0.215487 0.3324268 1 0 1
-0.1023059 -0.2163678 0.3333317 1 0 1
-0.09990928 -0.2160091 0.3326718 1 0 1
-0.09762391 -0.2162611 0.3327841 1 0 1
-0.09533761 -0.2165071 0.3328897 1 0 1
-0.09295372 -0.2161286 0.3322088 1 0 1
-0.09076222 -0.2169811 0.3330808 1 0 1
-0.08838442 -0.2165897 0.332386 1 0 1
-0.08601367 -0.2161916 0.3316843 1 0 1
-0.08397374 -0.2182669 0.3340969 1 0 1
-0.08175548 -0.2190976 0.3349427 1 0 1
-0.07930932 -0.2180606 0.33344 1 0 1
-0.07694737 -0.2176373 0.332711 1 0 1
-0.07465784 -0.2178288 0.3327557 1 0 1
-0.07224506 -0.2167707 0.3312322 1 0 1
-0.06973264 -0.2144612 0.3281398 1 0 1
-0.06751838 -0.2152551 0.328945 1 0 1
-0.0652958 -0.2160436 0.3297436 1 0 1
-0.06297365 -0.2155808 0.3289735 1 0 1
-0.06070054 -0.2157347 0.3289778 1 0 1
-0.05850251 -0.2171295 0.3305372 1 0 1
-0.056187 -0.2166482 0.3297471 1 0 1
-0.1258071 -0.2081491 0.3216347 1 0 1
-0.1244835 -0.2121572 0.3264677 1 0 1
-0.1222263 -0.2124735 0.3266524 1 0 1
-0.1201115 -0.2133998 0.3276051 1 0 1
-0.1178478 -0.2137047 0.3277767 1 0 1
-0.1157187 -0.2146207 0.3287169 1 0 1
-0.1133166 -0.2142967 0.3281 1 0 1
-0.1113055 -0.2158197 0.3298029 1 0 1
-0.1090292 -0.2161017 0.3299484 1 0 1
-0.1066315 -0.2157588 0.3293109 1 0 1
-0.1043568 -0.2160284 0.3294426 1 0 1
-0.1019687 -0.2156721 0.328791 1 0 1
-0.09980441 -0.2165496 0.329686 1 0 1
-0.09742206 -0.2161804 0.3290205 1 0 1
-0.09544951 -0.2182892 0.3314568 1 0 1
-0.09306527 -0.217908 0.3307779 1 0 1
-0.09096669 -0.2193859 0.3324246 1 0 1
-0.08840663 -0.2177476 0.3301767 1 0 1
-0.08603942 -0.2173464 0.3294769 1 0 1
-0.08376041 -0.2175616 0.329548 1 0 1
-0.08155785 -0.2183943 0.3303905 1 0 1
-0.07905351 -0.2167263 0.328114 1 0 1
-0.07678019 -0.2169228 0.3281648 1 0 1
-0.07463709 -0.2183623 0.3297655 1 0 1
-0.0722931 -0.2179226 0.3290247 1 0 1
-0.06984126 -0.2162259 0.3267202 1 0 1
-0.06751972 -0.2157724 0.3259658 1 0 1
-0.06520554 -0.2153124 0.3252046 1 0 1
-0.06285293 -0.2142198 0.3236582 1 0 1
-0.06051563 -0.21312 0.322105 1 0 1
-0.05826952 -0.2132664 0.3221023 1 0 1
-0.05605699 -0.2140337 0.3228715 1 0 1
-0.05377615 -0.2135414 0.3220771 1 0 1
-0.1279914 -0.2089462 0.3192591 1 0 1
-0.1259196 -0.2098883 0.3202254 1 0 1
-0.1244453 -0.2132972 0.3242718 1 0 1
-0.1218963 -0.2123765 0.3229121 1 0 1
-0.1195053 -0.2120668 0.3223166 1 0 1
-0.117261 -0.2123696 0.3224864 1 0 1
-0.1154236 -0.2145266 0.3249675 1 0 1
-0.1130329 -0.2141985 0.3243518 1 0 1
-0.111162 -0.2163476 0.3268219 1 0 1
-0.1093909 -0.2191152 0.3300602 1 0 1
-0.106985 -0.2187707 0.3294253 1 0 1
-0.1044692 -0.2177968 0.3280092 1 0 1
-0.1020807 -0.2174379 0.3273596 1 0 1
-0.0995902 -0.2164489 0.3259287 1 0 1
-0.09721928 -0.2160759 0.3252648 1 0 1
-0.09505701 -0.2169444 0.3261432 1 0 1
-0.09288601 -0.2178078 0.3270154 1 0 1
-0.0907063 -0.2186659 0.3278811 1 0 1
-0.08825041 -0.2176428 0.326415 1 0 1
-0.08589455 -0.2172378 0.3257169 1 0 1
-0.08354581 -0.2168261 0.3250119 1 0 1
-0.08135898 -0.2176607 0.3258511 1 0 1
-0.07894311 -0.2166094 0.3243568 1 0 1
-0.07675096 -0.2174325 0.3251828 1 0 1
-0.07448462 -0.2176227 0.3252265 1 0 1
-0.07215599 -0.217179 0.3244876 1 0 1
-0.06971914 -0.2154724 0.3221901 1 0 1
-0.06735913 -0.2143865 0.3206616 1 0 1
-0.06511416 -0.2145509 0.3206784 1 0 1
-0.06282272 -0.2140805 0.3199127 1 0 1
-0.06045464 -0.2123449 0.3175882 1 0 1
-0.05818596 -0.2118609 0.3168092 1 0 1
-0.05599311 -0.2126303 0.3175757 1 0 1
-0.05367111 -0.210874 0.3152317 1 0 1
-0.1284232 -0.2119157 0.3193826 1 0 1
-0.1263436 -0.2128624 0.3203467 1 0 1
-0.1245586 -0.2150463 0.3228429 1 0 1
-0.122453 -0.2159845 0.3237956 1 0 1
-0.1200501 -0.2156739 0.3232031 1 0 1
-0.1177939 -0.2159788 0.3233733 1 0 1
-0.115809 -0.2175238 0.3250771 1 0 1
-0.1132777 -0.2165707 0.3236936 1 0 1
-0.1111464 -0.2174818 0.3246146 1 0 1
-0.1092552 -0.2196369 0.3270713 1 0 1
-0.1068568 -0.2192889 0.3264379 1 0 1
-0.1042315 -0.217683 0.3242545 1 0 1
-0.1019672 -0.2179461 0.324378 1 0 1
-0.09937508 -0.2163241 0.3221793 1 0 1
-0.09701551 -0.2159472 0.3215169 1 0 1
-0.09506729 -0.2180724 0.3239365 1 0 1
-0.09280305 -0.2183113 0.3240332 1 0 1
-0.09063119 -0.2191721 0.3248958 1 0 1
-0.08809325 -0.2175139 0.3226612 1 0 1
-0.08574882 -0.2171052 0.3219648 1 0 1
-0.08332999 -0.2160606 0.3204886 1 0 1
-0.08115884 -0.2168972 0.3213246 1 0 1
-0.07883184 -0.2164687 0.3206078 1 0 1
-0.07665147 -0.2172942 0.3214307 1 0 1
-0.0743968 -0.2174837 0.3214737 1 0 1
-0.07207964 -0.2170363 0.3207369 1 0 1
-0.06971177 -0.2159511 0.3192197 1 0 1
-0.06730505 -0.2142275 0.3169225 1 0 1
-0.06502162 -0.2137595 0.3161654 1 0 1
-0.0628379 -0.2145493 0.3169488 1 0 1
-0.06051917 -0.2134368 0.315405 1 0 1
-0.05825409 -0.2129499 0.3146283 1 0 1
-0.05616825 -0.2156208 0.3177126 1 0 1
-0.05395935 -0.2163884 0.3184697 1 0 1
-0.128314 -0.2039797 0.3062734 1 0 1
-0.1272572 -0.2086634 0.3118307 1 0 1
-0.1258327 -0.2121028 0.315854 1 0 1
-0.12452 -0.2161657 0.3206405 1 0 1
-0.1224183 -0.2171069 0.3215901 1 0 1
-0.1200189 -0.2167933 0.3209992 1 0 1
-0.1177665 -0.2170981 0.3211686 1 0 1
-0.1160587 -0.2199014 0.3244024 1 0 1
-0.1131253 -0.2170635 0.3207196 1 0 1
-0.1111305 -0.2186041 0.3224053 1 0 1
-0.1092437 -0.2207683 0.324854 1 0 1
-0.1064861 -0.2185332 0.3219162 1 0 1
-0.1038758 -0.2169168 0.3197388 1 0 1
-0.1017401 -0.2178075 0.3206303 1 0 1
-0.09926812 -0.216805 0.3192074 1 0 1
-0.09670559 -0.2151649 0.3170076 1 0 1
-0.09497611 -0.2185584 0.320958 1 0 1
-0.09271953 -0.2187968 0.321054 1 0 1
-0.09046211 -0.2190292 0.3211434 1 0 1
-0.08802474 -0.2179927 0.3196858 1 0 1
-0.08551657 -0.2163169 0.3174506 1 0 1
-0.08311287 -0.2152651 0.3159785 1 0 1
-0.08095752 -0.2161036 0.3168111 1 0 1
-0.07864586 -0.2156711 0.3160961 1 0 1
-0.07648124 -0.2164985 0.3169159 1 0 1
-0.07424214 -0.2166871 0.3169584 1 0 1
-0.07200241 -0.2168697 0.3169943 1 0 1
-0.06964581 -0.2157779 0.3154818 1 0 1
-0.06730442 -0.214679 0.3139624 1 0 1
-0.06502848 -0.2142079 0.3132075 1 0 1
-0.06294536 -0.2162706 0.3155302 1 0 1
-0.06071097 -0.216423 0.3155333 1 0 1
-0.05847613 -0.2165695 0.3155297 1 0 1
-0.05455638 -0.2282947 0.3293809 1 0 1
-0.1289159 -0.2075343 0.3071687 1 0 1
-0.1276886 -0.2116156 0.3119457 1 0 1
-0.1257887 -0.2131924 0.3136656 1 0 1
-0.1243287 -0.2166464 0.3176723 1 0 1
-0.1222349 -0.2175901 0.3186183 1 0 1
-0.119843 -0.2172728 0.3180288 1 0 1
-0.1175982 -0.2175771 0.3181972 1 0 1
-0.1157623 -0.2197628 0.3206547 1 0 1
-0.1132377 -0.2187976 0.3192797 1 0 1
-0.1108565 -0.2184544 0.3186626 1 0 1
-0.1089819 -0.2206267 0.3211026 1 0 1
-0.1063563 -0.2190096 0.3189399 1 0 1
-0.1037531 -0.2173838 0.3167692 1 0 1
-0.1013988 -0.2170131 0.3161241 1 0 1
-0.09916054 -0.217268 0.3162387 1 0 1
-0.09671058 -0.2162513 0.3148127 1 0 1
-0.09468133 -0.2177601 0.3164483 1 0 1
-0.09253794 -0.2186309 0.3173107 1 0 1
-0.09029211 -0.2188625 0.3173993 1 0 1
-0.08795571 -0.2184537 0.3167135 1 0 1
-0.08554054 -0.2174033 0.315253 1 0 1
-0.08314025 -0.2163454 0.3137856 1 0 1
-0.0809109 -0.2165514 0.3138472 1 0 1
-0.0786808 -0.2167515 0.3139023 1 0 1
-0.07637995 -0.2163093 0.3131826 1 0 1
-0.07415248 -0.2164972 0.3132245 1 0 1
-0.07192438 -0.2166792 0.3132599 1 0 1
-0.0696374 -0.2162181 0.3125204 1 0 1
-0.06724895 -0.2144753 0.3102373 1 0 1
-0.06503499 -0.2146384 0.310253 1 0 1
-0.06286708 -0.2154337 0.3110308 1 0 1
-0.06064826 -0.2155854 0.3110336 1 0 1
-0.05831301 -0.2138151 0.3087242 1 0 1
-0.1286984 -0.2079603 0.3042398 1 0 1
-0.12748 -0.2120588 0.3090006 1 0 1
-0.1255881 -0.213641 0.3107143 1 0 1
-0.1236793 -0.2152196 0.3124228 1 0 1
-0.1214565 -0.2155335 0.3126023 1 0 1
-0.1195217 -0.2171036 0.3142996 1 0 1
-0.1172885 -0.2174068 0.3144665 1 0 1
-0.1154647 -0.2196003 0.3169152 1 0 1
-0.1130844 -0.2192607 0.3163069 1 0 1
-0.1108397 -0.2195472 0.3164548 1 0 1
-0.1084688 -0.2191942 0.3158326 1 0 1
-0.1059833 -0.2182002 0.3144395 1 0 1
-0.1035123 -0.2171984 0.3130389 1 0 1
-0.101056 -0.2161889 0.3116311 1 0 1
-0.09883337 -0.2164425 0.3117445 1 0 1
-0.09660979 -0.2166901 0.3118515 1 0 1
-0.09438526 -0.2169319 0.311952 1 0 1
-0.09225757 -0.2178044 0.3128107 1 0 1
-0.0900273 -0.2180349 0.3128983 1 0 1
-0.08761635 -0.2169844 0.3114489 1 0 1
-0.0853923 -0.2172022 0.3115231 1 0 1
-0.08292118 -0.2154993 0.3092945 1 0 1
-0.08070741 -0.2157042 0.3093554 1 0 1
-0.07849292 -0.2159032 0.3094098 1 0 1
-0.07620745 -0.215457 0.3086919 1 0 1
-0.07392918 -0.2150043 0.3079675 1 0 1
-0.07178313 -0.2158251 0.3087682 1 0 1
-0.06951153 -0.2153599 0.3080306 1 0 1
-0.06719267 -0.2142478 0.3065206 1 0 1
-0.06504104 -0.2150511 0.3073019 1 0 1
-0.06283434 -0.2152082 0.3073108 1 0 1
-0.06075559 -0.2172834 0.3096114 1 0 1
-0.05849737 -0.2167878 0.3088414 1 0 1
-0.0561419 -0.21436 0.305767 1 0 1
-0.1289731 -0.2102621 0.3035883 1 0 1
-0.1274309 -0.2131162 0.3068172 1 0 1
-0.1253867 -0.2140719 0.3077663 1 0 1
-0.123486 -0.2156558 0.3094686 1 0 1
-0.1211221 -0.2153358 0.3088877 1 0 1
-0.1193441 -0.2175447 0.3113382 1 0 1
-0.1172596 -0.2184819 0.3122641 1 0 1
-0.1154402 -0.2206843 0.3147045 1 0 1
-0.1129303 -0.2197061 0.3133375 1 0 1
-0.1105642 -0.2193561 0.3127237 1 0 1
-0.1082046 -0.218999 0.3121028 1 0 1
-0.1054874 -0.2167241 0.3091913 1 0 1
-0.1031531 -0.2163518 0.3085556 1 0 1
-0.1007119 -0.215335 0.3071516 1 0 1
-0.09861454 -0.2162256 0.3080257 1 0 1
-0.09640258 -0.2164724 0.3081317 1 0 1
-0.09418967 -0.2167133 0.3082313 1 0 1
-0.09207386 -0.217588 0.3090866 1 0 1
-0.08994932 -0.2184577 0.3099359 1 0 1
-0.08763584 -0.2180413 0.3092536 1 0 1
-0.08532941 -0.2176182 0.3085645 1 0 1
-0.08311232 -0.2178297 0.3086317 1 0 1
-0.08073778 -0.2167522 0.3071663 1 0 1
-0.07860156 -0.2175931 0.3079833 1 0 1
-0.07617474 -0.2158597 0.3057413 1 0 1
-0.07403721 -0.2166889 0.3065455 1 0 1
-0.07182854 -0.2168699 0.3065799 1 0 1
-0.06961928 -0.2170451 0.3066079 1 0 1
-0.06735475 -0.2165708 0.3058661 1 0 1
-0.06519926 -0.2173778 0.3066447 1 0 1
-0.06303544 -0.2181795 0.3074169 1 0 1
-0.06094925 -0.2202646 0.3097095 1 0 1
-0.05864383 -0.2191221 0.3081783 1 0 1
-0.1290836 -0.2119302 0.3021697 1 0 1
-0.1273816 -0.2141619 0.3046322 1 0 1
-0.1251846 -0.2144852 0.3048218 1 0 1
-0.1229863 -0.2148027 0.305005 1 0 1
-0.1204887 -0.2138416 0.303668 1 0 1
-0.1187307 -0.2160572 0.3061089 1 0 1
-0.1163834 -0.2157202 0.3055156 1 0 1
-0.1144546 -0.2172903 0.3071882 1 0 1
-0.1123755 -0.2182182 0.3080977 1 0 1
-0.1100286 -0.2178631 0.3074846 1 0 1
-0.1075627 -0.2168616 0.3061062 1 0 1
-0.1049897 -0.2152123 0.3039616 1 0 1
-0.1027924 -0.2154758 0.304086 1 0 1
-0.1005941 -0.2157333 0.3042039 1 0 1
-0.09850464 -0.2166265 0.3050748 1 0 1
-0.09640641 -0.2175146 0.3059395 1 0 1
-0.09419738 -0.2177555 0.3060384 1 0 1
-0.09198739 -0.2179906 0.306131 1 0 1
-0.0896823 -0.2175767 0.305457 1 0 1
-0.08747453 -0.2177996 0.3055365 1 0 1
-0.08526596 -0.2180165 0.3056094 1 0 1
-0.0832216 -0.2195161 0.3071967 1 0 1
-0.08092511 -0.2190775 0.3064965 1 0 1
-0.07878505 -0.2199221 0.3073108 1 0 1
-0.07628296 -0.2175352 0.3043155 1 0 1
-0.07414548 -0.2183677 0.3051168 1 0 1
-0.07181106 -0.2172573 0.3036295 1 0 1
-0.06960959 -0.2174321 0.3036571 1 0 1
-0.06735259 -0.2169546 0.3029174 1 0 1
-0.0652561 -0.2184111 0.304454 1 0 1
-0.06295498 -0.2172744 0.3029405 1 0 1
-0.06088503 -0.2193677 0.3052252 1 0 1
-0.05847711 -0.2162755 0.3014161 1 0 1
-0.134248 -0.2154629 0.3033454 1 0 1
-0.1318827 -0.2151683 0.3028015 1 0 1
-0.1291943 -0.2135924 0.3007446 1 0 1
-0.1273319 -0.2151959 0.3024458 1 0 1
-0.1249818 -0.2148809 0.3018809 1 0 1
-0.1226381 -0.2145589 0.3013089 1 0 1
-0.12045 -0.2148694 0.3014841 1 0 1
-0.1186965 -0.217094 0.3039168 1 0 1
-0.1163528 -0.216754 0.3033252 1 0 1
-0.1142908 -0.2176891 0.3042369 1 0 1
-0.1122195 -0.2186193 0.3051428 1 0 1
-0.1097505 -0.2176187 0.3037757 1 0 1
-0.1071701 -0.2159677 0.3016452 1 0 1
-0.104734 -0.2149511 0.3002631 1 0 1
-0.1026663 -0.215857 0.3011428 1 0 1
-0.1003616 -0.2154702 0.3005034 1 0 1
-0.09839416 -0.2170097 0.3021274 1 0 1
-0.09651627 -0.21919 0.3045027 1 0 1
-0.09430714 -0.2194313 0.3046013 1 0 1
-0.0919987 -0.2190211 0.3039362 1 0 1
-0.08988615 -0.2198963 0.3047791 1 0 1
-0.08758385 -0.2194735 0.3041008 1 0 1
-0.08537519 -0.2196909 0.3041734 1 0 1
-0.08324847 -0.2205496 0.3049974 1 0 1
-0.08095565 -0.220108 0.3042993 1 0 1
-0.07866994 -0.2196598 0.3035946 1 0 1
-0.07632055 -0.2185567 0.3021251 1 0 1
-0.07405322 -0.2180951 0.3014072 1 0 1
-0.07166705 -0.2163291 0.2991661 1 0 1
-0.06954031 -0.2171523 0.2999516 1 0 1
-0.06729484 -0.2166711 0.299214 1 0 1
-0.06515923 -0.2174832 0.2999868 1 0 1
-0.06282602 -0.2156897 0.2977198 1 0 1
-0.06073288 -0.2171404 0.2992381 1 0 1
-0.1294699 -0.2158891 0.3000634 1 0 1
-0.1276039 -0.2174995 0.3017592 1 0 1
-0.1254068 -0.2178239 0.3019479 1 0 1
-0.1229018 -0.2168589 0.3006273 1 0 1
-0.1207098 -0.2171704 0.3008023 1 0 1
-0.118662 -0.2181191 0.3017231 1 0 1
-0.1161804 -0.2171326 0.300381 1 0 1
-0.1137132 -0.2161383 0.2990314 1 0 1
-0.1119292 -0.2183584 0.3014387 1 0 1
-0.1094714 -0.2173508 0.3000755 1 0 1
-0.1069021 -0.21569 0.2979516 1 0 1
-0.1043552 -0.2140205 0.2958199 1 0 1
-0.1024213 -0.2155743 0.2974495 1 0 1
-0.1002424 -0.2158304 0.2975655 1 0 1
-0.09828307 -0.2173754 0.2991837 1 0 1
-0.09641355 -0.219564 0.3015506 1 0 1
-0.09431463 -0.2204531 0.302403 1 0 1
-0.09200983 -0.2200399 0.3017398 1 0 1
-0.08980671 -0.220269 0.3018248 1 0 1
-0.08742125 -0.2191935 0.3003935 1 0 1
-0.08522434 -0.2194101 0.3004653 1 0 1
-0.08310948 -0.2202709 0.301286 1 0 1
-0.08082815 -0.2198257 0.3005899 1 0 1
-0.07847895 -0.218723 0.2991317 1 0 1
-0.07635809 -0.2195666 0.2999334 1 0 1
-0.07396004 -0.2177989 0.2977063 1 0 1
-0.07171152 -0.2173271 0.2969839 1 0 1
-0.06952952 -0.217501 0.2970106 1 0 1
-0.06740234 -0.2183216 0.2977868 1 0 1
-0.06511255 -0.2171786 0.2962894 1 0 1
-0.0629805 -0.2179879 0.297053 1 0 1
-0.06088371 -0.2194451 0.2985659 1 0 1
-0.1348989 -0.2120309 0.2927755 1 0 1
-0.1330882 -0.2136573 0.2944802 1 0 1
-0.1314293 -0.2159227 0.2969275 1 0 1
-0.1295807 -0.217543 0.2986228 1 0 1
-0.127554 -0.2185161 0.2995648 1 0 1
-0.1253606 -0.2188405 0.2997526 1 0 1
-0.123166 -0.2191589 0.2999339 1 0 1
-0.1208204 -0.2188263 0.2993598 1 0 1
-0.1184815 -0.2184867 0.2987786 1 0 1
-0.1161489 -0.2181402 0.2981904 1 0 1
-0.1135474 -0.2164931 0.2960952 1 0 1
-0.1113699 -0.2167791 0.2962428 1 0 1
-0.1090611 -0.2164115 0.2956336 1 0 1
-0.1067592 -0.2160372 0.2950176 1 0 1
-0.1042194 -0.2143582 0.2928927 1 0 1
-0.1022937 -0.2159175 0.2945163 1 0 1
-0.100237 -0.2168229 0.295383 1 0 1
-0.09817138 -0.2177234 0.2962437 1 0 1
-0.09631018 -0.2199205 0.2986022 1 0 1
-0.09421925 -0.2208121 0.2994514 1 0 1
-0.09202081 -0.221047 0.2995422 1 0 1
-0.08972669 -0.2206242 0.2988744 1 0 1
-0.08734865 -0.2195423 0.2974475 1 0 1
-0.0850725 -0.2191058 0.2967662 1 0 1
-0.08313568 -0.2212751 0.2990891 1 0 1
-0.08085804 -0.2208268 0.2983951 1 0 1
-0.07858753 -0.220372 0.2976944 1 0 1
-0.0763955 -0.2205648 0.2977402 1 0 1
-0.07406811 -0.2194427 0.2962736 1 0 1
-0.07175589 -0.2183134 0.2948003 1 0 1
-0.06951825 -0.2178322 0.2940735 1 0 1
-0.06739909 -0.2186555 0.2948469 1 0 1
-0.0651167 -0.2175063 0.2933542 1 0 1
-0.06289726 -0.2170061 0.2926084 1 0 1
-0.06077278 -0.2178122 0.2933627 1 0 1
-0.1304728 -0.1894989 0.2636113 1 0 1
-0.1320002 -0.2027069 0.2786968 1 0 1
-0.1318134 -0.2101318 0.2870904 1 0 1
-0.1305247 -0.2136923 0.2910164 1 0 1
-0.1286997 -0.2153154 0.2927039 1 0 1
-0.1268578 -0.216935 0.2943865 1 0 1
-0.1248415 -0.217904 0.295318 1 0 1
-0.1225087 -0.2175731 0.2947514 1 0 1
-0.120482 -0.2185317 0.2956709 1 0 1
-0.1181543 -0.218188 0.2950909 1 0 1
-0.1159753 -0.2184867 0.2952511 1 0 1
-0.1132428 -0.2161804 0.2924152 1 0 1
-0.1112111 -0.2171158 0.2933094 1 0 1
-0.10891 -0.2167447 0.2927019 1 0 1
-0.1066156 -0.2163669 0.2920875 1 0 1
-0.104083 -0.2146786 0.2899695 1 0 1
-0.1021655 -0.2162431 0.291587 1 0 1
-0.1001167 -0.2171511 0.2924504 1 0 1
-0.09805907 -0.2180541 0.2933078 1 0 1
-0.09620628 -0.2202594 0.2956577 1 0 1
-0.09422617 -0.2218076 0.2972529 1 0 1
-0.0918337 -0.2207336 0.2958441 1 0 1
-0.08964613 -0.2209618 0.2959279 1 0 1
-0.08727547 -0.2198736 0.2945054 1 0 1
-0.08491974 -0.2187781 0.2930761 1 0 1
-0.08274542 -0.2189873 0.2931403 1 0 1
-0.08057042 -0.2191907 0.2931981 1 0 1
-0.07824393 -0.2180746 0.2917489 1 0 1
-0.07621838 -0.21958 0.2932947 1 0 1
-0.07397379 -0.2191084 0.292583 1 0 1
-0.07167293 -0.2179726 0.2911144 1 0 1
-0.06950654 -0.2181459 0.2911404 1 0 1
-0.06739538 -0.2189718 0.2919108 1 0 1
-0.06506856 -0.2171578 0.2896724 1 0 1
-0.06281281 -0.2159951 0.2881782 1 0 1
-0.1322044 -0.1968284 0.2689441 1 0 1
-0.1324608 -0.2055716 0.2787898 1 0 1
-0.1312288 -0.2091444 0.2827034 1 0 1
-0.1299565 -0.2127176 0.2866146 1 0 1
-0.1281474 -0.2143446 0.2882949 1 0 1
-0.1263214 -0.2159683 0.2899705 1 0 1
-0.1243208 -0.2169385 0.2908977 1 0 1
-0.122311 -0.217904 0.2918192 1 0 1
-0.1204422 -0.219516 0.2934791 1 0 1
-0.1182643 -0.219821 0.2936452 1 0 1
-0.1159431 -0.2194681 0.2930605 1 0 1
-0.1132137 -0.21715 0.2902342 1 0 1
-0.1109173 -0.2167817 0.2896348 1 0 1
-0.1086277 -0.2164066 0.2890286 1 0 1
-0.1063448 -0.2160248 0.2884157 1 0 1
-0.1040686 -0.2156363 0.2877961 1 0 1
-0.1021553 -0.2172066 0.2894078 1 0 1
-0.09999578 -0.2174617 0.2895217 1 0 1
-0.09783527 -0.2177111 0.2896293 1 0 1
-0.09588781 -0.2192678 0.2912239 1 0 1
-0.09382062 -0.2201634 0.292066 1 0 1
-0.09164564 -0.2203966 0.2921551 1 0 1
-0.08946977 -0.220624 0.292238 1 0 1
-0.08711046 -0.2195292 0.29082 1 0 1
-0.08476606 -0.218427 0.2893952 1 0 1
-0.08243658 -0.2173174 0.2879636 1 0 1
-0.08020165 -0.2168599 0.287273 1 0 1
-0.07797386 -0.216396 0.2865759 1 0 1
-0.0759683 -0.2179058 0.2881157 1 0 1
-0.0738109 -0.2180903 0.2881539 1 0 1
-0.07152528 -0.2169477 0.2866899 1 0 1
-0.06937457 -0.2171201 0.2867155 1 0 1
-0.06727929 -0.2179479 0.2874827 1 0 1
-0.06491559 -0.2154626 0.2845038 1 0 1
-0.06277522 -0.2156168 0.2845106 1 0 1
-0.1323085 -0.1983609 0.2675768 1 0 1
-0.1325675 -0.2071425 0.2773882 1 0 1
-0.1311629 -0.2100798 0.2805491 1 0 1
-0.1297259 -0.2130163 0.2837066 1 0 1
-0.127925 -0.2146484 0.2853806 1 0 1
-0.1259453 -0.2156248 0.2863093 1 0 1
-0.1237986 -0.2159438 0.2864917 1 0 1
-0.1219587 -0.217564 0.28815 1 0 1
-0.1198015 -0.2178725 0.2883205 1 0 1
-0.1177894 -0.2188299 0.2892264 1 0 1
-0.1153411 -0.2178171 0.2879005 1 0 1
-0.1129073 -0.2167966 0.2865674 1 0 1
-0.110757 -0.2170805 0.2867119 1 0 1
-0.1083443 -0.2160453 0.2853647 1 0 1
-0.1061997 -0.2163167 0.2854962 1 0 1
-0.1041767 -0.21724 0.2863647 1 0 1
-0.1021449 -0.2181585 0.2872275 1 0 1
-0.09987425 -0.217755 0.2865971 1 0 1
-0.09783265 -0.2186628 0.2874477 1 0 1
-0.09567509 -0.2189063 0.2875484 1 0 1
-0.09351662 -0.2191441 0.2876429 1 0 1
-0.09125789 -0.2187157 0.2869867 1 0 1
-0.08919702 -0.2196022 0.287813 1 0 1
-0.08676147 -0.2178392 0.2856546 1 0 1
-0.08434869 -0.216068 0.2834893 1 0 1
-0.08220963 -0.2162745 0.2835517 1 0 1
-0.07999018 -0.215813 0.2828629 1 0 1
-0.07777787 -0.215345 0.2821677 1 0 1
-0.0758603 -0.2175226 0.2844469 1 0 1
-0.07371464 -0.2177064 0.2844845 1 0 1
-0.07156839 -0.2178846 0.2845159 1 0 1
-0.06936151 -0.217393 0.2837958 1 0 1
-0.06727428 -0.2182235 0.2845601 1 0 1
-0.06486542 -0.2150615 0.2808459 1 0 1
-0.06273683 -0.2152151 0.2808523 1 0 1
-0.1344578 -0.1995495 0.2659935 1 0 1
-0.1329569 -0.2018446 0.2684114 1 0 1
-0.1324966 -0.2080549 0.2752441 1 0 1
-0.130923 -0.2103502 0.2776568 1 0 1
-0.1291549 -0.2119895 0.2793285 1 0 1
-0.1275359 -0.2142802 0.2817329 1 0 1
-0.125406 -0.2146031 0.2819197 1 0 1
-0.1232748 -0.2149201 0.2821002 1 0 1
-0.1214508 -0.2165443 0.2837515 1 0 1
-0.1193093 -0.2168511 0.2839203 1 0 1
-0.1170201 -0.2164948 0.2833438 1 0 1
-0.1150225 -0.2174476 0.2842392 1 0 1
-0.1125999 -0.2164201 0.28291 1 0 1
-0.1104613 -0.2167029 0.2830533 1 0 1
-0.1080599 -0.2156608 0.2817101 1 0 1
-0.1060539 -0.2165912 0.2825809 1 0 1
-0.1040389 -0.2175168 0.2834459 1 0 1
-0.1020151 -0.2184378 0.2843053 1 0 1
-0.09963688 -0.2173693 0.2829356 1 0 1
-0.09760721 -0.2182792 0.2837826 1 0 1
-0.09546136 -0.2185218 0.2838824 1 0 1
-0.09321117 -0.2180958 0.2832344 1 0 1
-0.09096794 -0.2176632 0.2825798 1 0 1
-0.08892293 -0.2185513 0.2834025 1 0 1
-0.08650247 -0.2167783 0.2812511 1 0 1
-0.08428028 -0.216326 0.2805771 1 0 1
-0.08206524 -0.2158673 0.2798967 1 0 1
-0.07993726 -0.2160673 0.2799522 1 0 1
-0.07773262 -0.2155961 0.2792592 1 0 1
-0.07567925 -0.2164502 0.2800449 1 0 1
-0.07368561 -0.2179655 0.2815672 1 0 1
-0.071483 -0.2174767 0.2808555 1 0 1
-0.06922746 -0.2163147 0.2793948 1 0 1
-0.06715608 -0.2171472 0.2801561 1 0 1
-0.06486677 -0.2153047 0.2779402 1 0 1
-0.06240673 -0.2107837 0.2727468 1 0 1
-0.1345619 -0.2010707 0.2646147 1 0 1
-0.1332432 -0.2040299 0.2677577 1 0 1
-0.1329586 -0.210923 0.2753005 1 0 1
-0.1310301 -0.2119161 0.2762372 1 0 1
-0.1290924 -0.2129047 0.2771687 1 0 1
-0.1274778 -0.215204 0.2795644 1 0 1
-0.1253519 -0.2155267 0.2797503 1 0 1
-0.1230662 -0.2151851 0.2791945 1 0 1
-0.1212504 -0.2168144 0.2808395 1 0 1
-0.1192672 -0.2177804 0.2817434 1 0 1
-0.1169816 -0.217421 0.2811687 1 0 1
-0.1148454 -0.2177157 0.281324 1 0 1
-0.1127079 -0.2180047 0.2814731 1 0 1
-0.1102995 -0.2169641 0.2801414 1 0 1
-0.1079055 -0.2159157 0.2788025 1 0 1
-0.1057803 -0.2161855 0.2789321 1 0 1
-0.1039005 -0.2177764 0.2805314 1 0 1
-0.1017654 -0.2180358 0.280649 1 0 1
-0.09951393 -0.2176249 0.280022 1 0 1
-0.09749224 -0.2185372 0.2808657 1 0 1
-0.09535421 -0.2187793 0.2809647 1 0 1
-0.09311163 -0.2183499 0.2803186 1 0 1
-0.09077631 -0.2172478 0.2789268 1 0 1
-0.08874325 -0.218138 0.2797461 1 0 1
-0.08642587 -0.2170224 0.2783412 1 0 1
-0.08421136 -0.2165669 0.2776693 1 0 1
-0.08191991 -0.2154371 0.2762513 1 0 1
-0.07988381 -0.2163044 0.277046 1 0 1
-0.07753441 -0.2144929 0.2748753 1 0 1
-0.07556923 -0.2160177 0.2763977 1 0 1
-0.07351942 -0.216869 0.2771742 1 0 1
-0.07133232 -0.2163763 0.2764646 1 0 1
-0.06915255 -0.2158772 0.2757489 1 0 1
-0.06703665 -0.216042 0.2757671 1 0 1
-0.06470985 -0.2135194 0.2728184 1 0 1
-0.05956785 -0.1997283 0.257281 1 0 1
-0.1359658 -0.2071873 0.2683426 1 0 1
-0.1334212 -0.213797 0.2753403 1 0 1
-0.130963 -0.212817 0.27408 1 0 1
-0.1290295 -0.2138085 0.2750079 1 0 1
-0.1275856 -0.2167767 0.2781272 1 0 1
-0.1252973 -0.2164389 0.2775801 1 0 1
-0.1230154 -0.2160943 0.2770261 1 0 1
-0.1212039 -0.2177293 0.2786651 1 0 1
-0.1192247 -0.2186981 0.2795655 1 0 1
-0.116796 -0.2176725 0.2782589 1 0 1
-0.1146676 -0.2179666 0.2784132 1 0 1
-0.112538 -0.218255 0.2785613 1 0 1
-0.1100018 -0.2165432 0.2764993 1 0 1
-0.1074879 -0.2148226 0.2744296 1 0 1
-0.1055057 -0.2157566 0.2752928 1 0 1
-0.1033911 -0.2160197 0.2754151 1 0 1
-0.1012756 -0.216277 0.2755313 1 0 1
-0.0991591 -0.2165287 0.2756412 1 0 1
-0.09715327 -0.2174424 0.2764811 1 0 1
-0.09492318 -0.217015 0.2758429 1 0 1
-0.09280384 -0.2172495 0.2759345 1 0 1
-0.09058376 -0.2168094 0.2752836 1 0 1
-0.08856262 -0.2177016 0.2760994 1 0 1
-0.08644079 -0.2179191 0.2761726 1 0 1
-0.08414184 -0.2167903 0.2747658 1 0 1
-0.08202635 -0.2169956 0.2748266 1 0 1
-0.07982979 -0.2165242 0.2741441 1 0 1
-0.07756405 -0.215375 0.2727181 1 0 1
-0.0754583 -0.2155621 0.2727603 1 0 1
-0.07342044 -0.2164156 0.2735336 1 0 1
-0.0711804 -0.215247 0.2720889 1 0 1
-0.06901611 -0.2147441 0.2713753 1 0 1
-0.06691597 -0.2149079 0.271393 1 0 1
-0.06465693 -0.2130462 0.2691922 1 0 1
-0.06207894 -0.2064621 0.2618227 1 0 1
-0.1356993 -0.207397 0.2654778 1 0 1
-0.1341809 -0.2097227 0.2678726 1 0 1
-0.132994 -0.2133695 0.2717207 1 0 1
-0.130547 -0.2123824 0.270464 1 0 1
-0.1286253 -0.2133754 0.2713878 1 0 1
-0.1273605 -0.2170171 0.2752246 1 0 1
-0.1250797 -0.2166758 0.2746789 1 0 1
-0.1226467 -0.2156631 0.2733962 1 0 1
-0.1210021 -0.2179677 0.275759 1 0 1
-0.1188801 -0.2182732 0.2759249 1 0 1
-0.1163156 -0.2165745 0.273891 1 0 1
-0.1142028 -0.2168669 0.2740437 1 0 1
-0.1120888 -0.2171537 0.2741903 1 0 1
-0.1098384 -0.216767 0.2735988 1 0 1
-0.1072003 -0.2143689 0.2708038 1 0 1
-0.1051025 -0.2146361 0.2709309 1 0 1
-0.1031272 -0.2155668 0.2717845 1 0 1
-0.1010234 -0.2158231 0.2718996 1 0 1
-0.09880283 -0.2154037 0.2712755 1 0 1
-0.09692477 -0.2169895 0.2728449 1 0 1
-0.0948142 -0.2172292 0.2729419 1 0 1
-0.09259866 -0.2167918 0.2722991 1 0 1
-0.09039014 -0.2163479 0.27165 1 0 1
-0.08828481 -0.2165698 0.2717284 1 0 1
-0.08636326 -0.2181314 0.2732689 1 0 1
-0.08407177 -0.2169965 0.2718669 1 0 1
-0.08204857 -0.2178749 0.2726615 1 0 1
-0.07977525 -0.2167267 0.2712468 1 0 1
-0.07767016 -0.2169198 0.2712947 1 0 1
-0.07541908 -0.2157581 0.2698673 1 0 1
-0.07332059 -0.2159392 0.2699029 1 0 1
-0.0711567 -0.2154394 0.2691977 1 0 1
-0.06912187 -0.2162844 0.2699559 1 0 1
-0.06690782 -0.2150967 0.2685037 1 0 1
-0.06465609 -0.213226 0.2663106 1 0 1
-0.06208405 -0.2066128 0.2589674 1 0 1
-0.1386271 -0.2112157 0.266751 1 0 1
-0.1341043 -0.2105868 0.2657287 1 0 1
-0.1327439 -0.2135834 0.2688368 1 0 1
-0.1301299 -0.211925 0.2668579 1 0 1
-0.1283907 -0.2135851 0.2685041 1 0 1
-0.1269678 -0.2165741 0.2715994 1 0 1
-0.1248614 -0.2168954 0.2717823 1 0 1
-0.1225947 -0.2165438 0.2712314 1 0 1
-0.1207996 -0.2181888 0.2728575 1 0 1
-0.1188366 -0.2191621 0.2737506 1 0 1
-0.1162754 -0.2174548 0.2717239 1 0 1
-0.1138799 -0.216408 0.2704182 1 0 1
-0.1117776 -0.2166936 0.2705635 1 0 1
-0.1094031 -0.2156325 0.2692441 1 0 1
-0.1069115 -0.2138924 0.267188 1 0 1
-0.10457 -0.2128154 0.2658542 1 0 1
-0.1026145 -0.2137469 0.2667038 1 0 1
-0.1004104 -0.2133287 0.2660871 1 0 1
-0.09856114 -0.214923 0.2676554 1 0 1
-0.09647108 -0.2151666 0.2677572 1 0 1
-0.0944883 -0.2160785 0.2685838 1 0 1
-0.0923925 -0.2163113 0.2686737 1 0 1
-0.09019556 -0.2158636 0.2680264 1 0 1
-0.08810201 -0.2160845 0.2681039 1 0 1
-0.08628511 -0.2183267 0.2703699 1 0 1
-0.08408967 -0.2178616 0.2697042 1 0 1
-0.08198599 -0.2180665 0.269764 1 0 1
-0.07988159 -0.2182655 0.2698176 1 0 1
-0.0777765 -0.218459 0.2698652 1 0 1
-0.07545222 -0.2166144 0.2677108 1 0 1
-0.07328872 -0.2161177 0.2670141 1 0 1
-0.07113253 -0.2156146 0.2663111 1 0 1
-0.06904472 -0.2157837 0.2663343 1 0 1
-0.0668421 -0.2145897 0.264887 1 0 1
-0.06470799 -0.2140678 0.2641659 1 0 1
-0.06199007 -0.2053878 0.2546526 1 0 1
0.03317795 -0.2061172 0.2483154 1 0 1
0.05149396 -0.1979227 0.2381782 1 0 1
0.05274088 -0.1950437 0.2349999 1 0 1
0.05504889 -0.196226 0.2360977 1 0 1
0.05774324 -0.1987555 0.2386115 1 0 1
0.05989717 -0.1992469 0.2389801 1 0 1
0.06422395 -0.2002113 0.2396963 1 0 1
0.07934965 -0.1908029 0.228503 1 0 1
-0.1390635 -0.2064007 0.2586074 1 0 1
-0.1375919 -0.2087484 0.2609927 1 0 1
-0.1357229 -0.2097628 0.2619295 1 0 1
-0.1338447 -0.210773 0.2628613 1 0 1
-0.1323145 -0.2131131 0.2652342 1 0 1
-0.1300608 -0.2127804 0.2647089 1 0 1
-0.1281551 -0.2137776 0.2656249 1 0 1
-0.1265741 -0.2161083 0.2679842 1 0 1
-0.1246424 -0.2170979 0.2688901 1 0 1
-0.1220651 -0.2154024 0.2668909 1 0 1
-0.120286 -0.2170514 0.2685099 1 0 1
-0.1183387 -0.2180257 0.2693987 1 0 1
-0.1157926 -0.2163081 0.2673783 1 0 1
-0.1135558 -0.2159264 0.2668026 1 0 1
-0.1117446 -0.2175566 0.2683995 1 0 1
-0.1093736 -0.2164896 0.2670848 1 0 1
-0.1067536 -0.2140671 0.2643091 1 0 1
-0.1044195 -0.2129837 0.2629798 1 0 1
-0.1024721 -0.2139175 0.2638257 1 0 1
-0.1001555 -0.2128205 0.2624833 1 0 1
-0.09831842 -0.2144196 0.2640454 1 0 1
-0.09612785 -0.2139858 0.2634182 1 0 1
-0.09416094 -0.2148991 0.264241 1 0 1
-0.09218533 -0.2158078 0.2650582 1 0 1
-0.09010047 -0.2160339 0.2651412 1 0 1
-0.0880148 -0.2162544 0.2652182 1 0 1
-0.08611373 -0.2178263 0.2667467 1 0 1
-0.08401864 -0.2180363 0.2668119 1 0 1
-0.081838 -0.2175615 0.2661421 1 0 1
-0.07966451 -0.2170803 0.265466 1 0 1
-0.07757518 -0.2172726 0.2655129 1 0 1
-0.07541215 -0.2167789 0.2648245 1 0 1
-0.07325634 -0.2162789 0.26413 1 0 1
-0.07110784 -0.2157726 0.2634293 1 0 1
-0.0690892 -0.2166227 0.2641815 1 0 1
-0.06689014 -0.2154229 0.2627394 1 0 1
0.02955901 -0.2105499 0.2503335 1 0 1
0.03066803 -0.2056565 0.2450453 1 0 1
0.03293925 -0.206913 0.2462131 1 0 1
0.03438966 -0.2040629 0.2430733 1 0 1
0.03623725 -0.2032586 0.2420804 1 0 1
0.03851697 -0.2044981 0.2432296 1 0 1
0.04050936 -0.2043658 0.2429409 1 0 1
0.04157158 -0.2001337 0.23836 1 0 1
0.04943092 -0.1995353 0.2371402 1 0 1
0.05174119 -0.2007339 0.238244 1 0 1
0.05317477 -0.1985232 0.235786 1 0 1
0.05604015 -0.2017506 0.2390068 1 0 1
0.05708369 -0.1981707 0.2351214 1 0 1
0.05922585 -0.1986659 0.2354895 1 0 1
0.0602123 -0.1950804 0.2316025 1 0 1
0.06392403 -0.2009954 0.2376196 1 0 1
0.06387734 -0.1940099 0.2301924 1 0 1
0.07199674 -0.2008305 0.2368471 1 0 1
0.07222693 -0.1951932 0.2308336 1 0 1
0.07680734 -0.2030809 0.2388853 1 0 1
0.07878416 -0.2028439 0.2384871 1 0 1
0.0793891 -0.1985499 0.233875 1 0 1
0.08226817 -0.2010039 0.2362726 1 0 1
0.08541219 -0.2041227 0.2393579 1 0 1
0.09631985 -0.2054527 0.239968 1 0 1
0.09830674 -0.2051628 0.2395133 1 0 1
0.09871477 -0.2008443 0.23489 1 0 1
0.1041403 -0.209256 0.2434371 1 0 1
0.1042549 -0.2042601 0.2381152 1 0 1
0.1043141 -0.199267 0.2328002 1 0 1
0.104318 -0.194277 0.2274927 1 0 1
0.1059575 -0.1932953 0.2263279 1 0 1
0.1053027 -0.1869745 0.2196536 1 0 1
0.1173156 -0.1956337 0.2279801 1 0 1
0.1192423 -0.1952843 0.227467 1 0 1
0.1211666 -0.1949295 0.2269484 1 0 1
-0.1391672 -0.2078929 0.2571999 1 0 1
-0.1371252 -0.2082455 0.2574185 1 0 1
-0.1358275 -0.2112673 0.2605103 1 0 1
-0.1335845 -0.2109422 0.2599986 1 0 1
-0.1317051 -0.2119501 0.2609211 1 0 1
-0.1296417 -0.2122831 0.2611174 1 0 1
-0.1275769 -0.2126107 0.2613079 1 0 1
-0.125845 -0.2142762 0.2629356 1 0 1
-0.1239329 -0.2152661 0.2638368 1 0 1
-0.1216931 -0.2149055 0.2632879 1 0 1
-0.1197708 -0.2158855 0.2641778 1 0 1
-0.1178393 -0.2168609 0.2650622 1 0 1
-0.1154559 -0.2158076 0.2637714 1 0 1
-0.1133743 -0.2160971 0.2639205 1 0 1
-0.1115714 -0.2177324 0.2655112 1 0 1
-0.1092079 -0.2166591 0.2642008 1 0 1
-0.1065949 -0.2142245 0.2614349 1 0 1
-0.1042683 -0.213135 0.2601101 1 0 1
-0.1022047 -0.2133933 0.2602278 1 0 1
-0.1000198 -0.2129679 0.2596147 1 0 1
-0.09807462 -0.2138933 0.2604454 1 0 1
-0.09600814 -0.2141349 0.2605454 1 0 1
-0.09394076 -0.2143709 0.2606393 1 0 1
-0.09208175 -0.2159615 0.2621785 1 0 1
-0.09010553 -0.2168677 0.2629867 1 0 1
-0.08812063 -0.217769 0.2637891 1 0 1
-0.08622 -0.2193469 0.2653119 1 0 1
-0.08403601 -0.2188756 0.2646506 1 0 1
-0.08177408 -0.2177158 0.2632566 1 0 1
-0.07952718 -0.2165488 0.2618563 1 0 1
-0.07752684 -0.2174232 0.2626292 1 0 1
-0.07537151 -0.2169263 0.261943 1 0 1
-0.07322345 -0.2164231 0.2612507 1 0 1
-0.07114802 -0.2165975 0.2612791 1 0 1
-0.069195 -0.2181345 0.262755 1 0 1
-0.06688055 -0.2155603 0.2598644 1 0 1
0.02843553 -0.2065401 0.2432076 1 0 1
0.03056447 -0.2071218 0.2436625 1 0 1
0.03256504 -0.2070111 0.2433961 1 0 1
0.03414746 -0.2048361 0.2409821 1 0 1
0.03613425 -0.2047151 0.240706 1 0 1
0.0385604 -0.206646 0.2425627 1 0 1
0.04055667 -0.2065133 0.2422736 1 0 1
0.04208789 -0.2043195 0.2398436 1 0 1
0.04454569 -0.2062316 0.2416782 1 0 1
0.046376 -0.2053978 0.2406614 1 0 1
0.04786459 -0.2031904 0.2382204 1 0 1
0.0501796 -0.2043997 0.2393239 1 0 1
0.05198665 -0.2035511 0.2382933 1 0 1
0.05307274 -0.1999642 0.2344262 1 0 1
0.05557336 -0.2018397 0.2362191 1 0 1
0.05735305 -0.2009768 0.2351754 1 0 1
0.05931311 -0.2007916 0.2348336 1 0 1
0.06107834 -0.1999191 0.2337809 1 0 1
0.06480759 -0.2058576 0.2397705 1 0 1
0.06518462 -0.2002037 0.2337749 1 0 1
0.06795897 -0.20272 0.2362237 1 0 1
0.07055379 -0.2045472 0.2379586 1 0 1
0.07189344 -0.2022869 0.235473 1 0 1
0.0725585 -0.1979855 0.2308833 1 0 1
0.07582132 -0.2018322 0.2346999 1 0 1
0.07778279 -0.2015967 0.234305 1 0 1
0.0786017 -0.1979654 0.2304112 1 0 1
0.08216444 -0.2024647 0.2348943 1 0 1
0.08483578 -0.2042433 0.2365723 1 0 1
0.08776802 -0.2066901 0.2389361 1 0 1
0.0895115 -0.2057468 0.2378105 1 0 1
0.08877224 -0.1980435 0.2297351 1 0 1
0.09196527 -0.2011469 0.2327725 1 0 1
0.09799902 -0.2116588 0.2434174 1 0 1
0.0987187 -0.2079951 0.2394969 1 0 1
0.1007111 -0.2076983 0.239035 1 0 1
0.1040334 -0.2107598 0.2420186 1 0 1
0.1060407 -0.2104489 0.2415409 1 0 1
0.104758 -0.2020734 0.2327967 1 0 1
0.1064376 -0.2010878 0.2316313 1 0 1
0.1100786 -0.2047905 0.2352679 1 0 1
0.108341 -0.1957553 0.2258614 1 0 1
0.1102616 -0.1954296 0.2253745 1 0 1
0.11218 -0.1950984 0.2248821 1 0 1
0.1140962 -0.194762 0.2243843 1 0 1
0.1160102 -0.1944202 0.2238809 1 0 1
0.1218766 -0.2027366 0.2322212 1 0 1
0.1238348 -0.2023752 0.231694 1 0 1
0.1279727 -0.2066635 0.2359117 1 0 1
0.1324761 -0.2116006 0.240787 1 0 1
0.1417765 -0.2039066 0.2319745 1 0 1
0.1382726 -0.1929466 0.2206682 1 0 1
-0.1399234 -0.2043344 0.2505514 1 0 1
-0.1384933 -0.2066987 0.2529213 1 0 1
-0.1372289 -0.2097326 0.2560046 1 0 1
-0.1351855 -0.2100802 0.2562168 1 0 1
-0.1331405 -0.2104223 0.2564231 1 0 1
-0.131273 -0.2114316 0.2573413 1 0 1
-0.1293964 -0.2124367 0.2582544 1 0 1
-0.1273395 -0.2127634 0.2584436 1 0 1
-0.1254484 -0.2137593 0.2593459 1 0 1
-0.1235483 -0.2147507 0.2602428 1 0 1
-0.1213201 -0.2143861 0.2596952 1 0 1
-0.1194096 -0.2153675 0.2605809 1 0 1
-0.1174901 -0.2163445 0.2614612 1 0 1
-0.1152659 -0.215962 0.2608952 1 0 1
-0.1131922 -0.2162507 0.2610433 1 0 1
-0.1112574 -0.2172125 0.2619064 1 0 1
-0.1091776 -0.2174907 0.2620429 1 0 1
-0.1067 -0.2157243 0.2600087 1 0 1
-0.1043731 -0.2146295 0.2586889 1 0 1
-0.1020608 -0.213527 0.2573622 1 0 1
-0.100004 -0.2137793 0.2574732 1 0 1
-0.09794638 -0.2140259 0.2575782 1 0 1
-0.09600045 -0.214949 0.2584 1 0 1
-0.09404578 -0.2158674 0.2592161 1 0 1
-0.09218726 -0.217464 0.2607496 1 0 1
-0.09011039 -0.21769 0.2608316 1 0 1
-0.08812962 -0.2185942 0.2616309 1 0 1
-0.08604722 -0.2188094 0.261701 1 0 1
-0.08396402 -0.219019 0.2617652 1 0 1
-0.08170959 -0.2178531 0.2603761 1 0 1
-0.07955152 -0.2173653 0.2597044 1 0 1
-0.07747797 -0.2175567 0.2597502 1 0 1
-0.07540382 -0.2177427 0.2597903 1 0 1
-0.07319 -0.2165503 0.2583765 1 0 1
-0.07112247 -0.2167243 0.2584044 1 0 1
-0.06917778 -0.2182666 0.2598745 1 0 1
0.02731461 -0.2024792 0.2361194 1 0 1
0.029674 -0.2044444 0.2380002 1 0 1
0.03246068 -0.2084709 0.2420077 1 0 1
0.03418252 -0.2069763 0.2403132 1 0 1
0.03645865 -0.2082328 0.241458 1 0 1
0.03860261 -0.2087941 0.2418848 1 0 1
0.04060275 -0.2086611 0.2415952 1 0 1
0.04182959 -0.2050821 0.2377549 1 0 1
0.04412454 -0.2063151 0.2388736 1 0 1
0.04594725 -0.2054789 0.2378609 1 0 1
0.04759477 -0.2039507 0.2361366 1 0 1
0.04990552 -0.2051658 0.2372354 1 0 1
0.05257817 -0.2077475 0.2397382 1 0 1
0.0531475 -0.202086 0.2337663 1 0 1
0.0554698 -0.2032836 0.2348458 1 0 1
0.0566931 -0.2003611 0.2316931 1 0 1
0.05883095 -0.200862 0.2320568 1 0 1
0.0600088 -0.1979328 0.2289005 1 0 1
0.06371689 -0.2038987 0.2348694 1 0 1
0.06508116 -0.2016439 0.2324052 1 0 1
0.067445 -0.2028042 0.2334424 1 0 1
0.06961402 -0.2032741 0.2337713 1 0 1
0.0707263 -0.2003241 0.2305981 1 0 1
0.07202253 -0.1980544 0.2281234 1 0 1
0.07439537 -0.1991915 0.2291355 1 0 1
0.07700611 -0.2010027 0.2308357 1 0 1
0.07849834 -0.1994011 0.2290459 1 0 1
0.08298686 -0.2066418 0.2362911 1 0 1
0.0847304 -0.2057069 0.2351805 1 0 1
0.08766175 -0.2081648 0.2375338 1 0 1
0.08843227 -0.2045027 0.2336403 1 0 1
0.08866842 -0.1994835 0.2283658 1 0 1
0.09085665 -0.1998894 0.2286259 1 0 1
0.09789094 -0.2131578 0.241992 1 0 1
0.09990446 -0.2128634 0.2415318 1 0 1
0.1019159 -0.2125634 0.2410658 1 0 1
0.1039253 -0.2122578 0.2405942 1 0 1
0.1059326 -0.2119466 0.2401169 1 0 1
0.1030096 -0.1994902 0.2272911 1 0 1
0.1046668 -0.198505 0.2261343 1 0 1
0.1082837 -0.2022281 0.2297608 1 0 1
0.1051003 -0.1897967 0.2169809 1 0 1
0.1107354 -0.1982126 0.22537 1 0 1
0.1114906 -0.1951947 0.2221522 1 0 1
0.1131028 -0.1941886 0.2209767 1 0 1
0.1147051 -0.1931785 0.2197978 1 0 1
0.1220739 -0.2048803 0.2314975 1 0 1
0.1240359 -0.2045178 0.2309695 1 0 1
0.1278646 -0.2081569 0.2344919 1 0 1
0.134258 -0.217119 0.2433958 1 0 1
0.1340544 -0.2120607 0.2381131 1 0 1
0.13896 -0.2176578 0.2436048 1 0 1
0.1383798 -0.2119322 0.2376517 1 0 1
0.1377374 -0.206213 0.2317099 1 0 1
0.1397042 -0.2058077 0.2311367 1 0 1
0.1416684 -0.2053969 0.2305579 1 0 1
0.1388506 -0.1957149 0.2206299 1 0 1
0.1369615 -0.1880329 0.2127264 1 0 1
0.1416154 -0.1929077 0.2174804 1 0 1
-0.1434538 -0.2101364 0.2539145 1 0 1
-0.1432012 -0.2165517 0.2605626 1 0 1
-0.1397638 -0.2122062 0.2557946 1 0 1
-0.1373326 -0.2112139 0.2545849 1 0 1
-0.1352893 -0.2115621 0.2547966 1 0 1
-0.1332444 -0.2119047 0.2550023 1 0 1
-0.131198 -0.2122418 0.2552022 1 0 1
-0.1291503 -0.2125733 0.2553962 1 0 1
-0.1272726 -0.2135761 0.2563001 1 0 1
-0.1253857 -0.2145746 0.2571988 1 0 1
-0.1233261 -0.2148907 0.2573756 1 0 1
-0.1211056 -0.2145226 0.2568297 1 0 1
-0.1192031 -0.2155062 0.2577116 1 0 1
-0.1171397 -0.2158055 0.2578706 1 0 1
-0.1150751 -0.2160992 0.2580237 1 0 1
-0.1131535 -0.2170683 0.258889 1 0 1
-0.1110826 -0.2173514 0.2590305 1 0 1
-0.108738 -0.216265 0.2577287 1 0 1
-0.1064079 -0.2151711 0.2564201 1 0 1
-0.1040924 -0.2140695 0.2551045 1 0 1
-0.101916 -0.2136437 0.2545015 1 0 1
-0.09986722 -0.2138954 0.2546116 1 0 1
-0.09793427 -0.2148259 0.2554356 1 0 1
-0.09610539 -0.2164366 0.2569741 1 0 1
-0.09415102 -0.2173581 0.2577871 1 0 1
-0.0921879 -0.218275 0.2585946 1 0 1
-0.09021611 -0.2191871 0.2593965 1 0 1
-0.08813846 -0.219408 0.2594721 1 0 1
-0.08606002 -0.2196231 0.2595417 1 0 1
-0.08398082 -0.2198326 0.2596055 1 0 1
-0.08172997 -0.218661 0.2582214 1 0 1
-0.07949414 -0.2174823 0.256831 1 0 1
-0.07742854 -0.2176734 0.2568765 1 0 1
-0.07543596 -0.2185477 0.2576372 1 0 1
-0.0732257 -0.2173495 0.2562283 1 0 1
-0.07109641 -0.2168339 0.2555346 1 0 1
-0.06909817 -0.2176918 0.2562776 1 0 1
0.02970095 -0.2065741 0.2373321 1 0 1
0.03222077 -0.2092329 0.2399046 1 0 1
0.03393913 -0.2077328 0.2382162 1 0 1
0.03592587 -0.2076117 0.2379402 1 0 1
0.0376186 -0.2061021 0.2362438 1 0 1
0.03944498 -0.2052793 0.2352508 1 0 1
0.04049132 -0.200997 0.230722 1 0 1
0.04228032 -0.2001659 0.2297231 1 0 1
0.04454641 -0.201401 0.2308351 1 0 1
0.04682684 -0.2026296 0.2319391 1 0 1
0.04912154 -0.2038515 0.2330352 1 0 1
0.05143052 -0.2050668 0.2341232 1 0 1
0.05304348 -0.203519 0.2323926 1 0 1
0.0551839 -0.2040334 0.2327649 1 0 1
0.05584821 -0.1990346 0.2275202 1 0 1
0.05834868 -0.2009156 0.2292852 1 0 1
0.06029178 -0.2007262 0.2289411 1 0 1
0.06341498 -0.2046549 0.2327866 1 0 1
0.06417362 -0.2003312 0.228236 1 0 1
0.06734019 -0.2042443 0.232062 1 0 1
0.06930043 -0.2040309 0.2316914 1 0 1
0.07062204 -0.2017553 0.2292262 1 0 1
0.07256749 -0.2015324 0.2288468 1 0 1
0.07495149 -0.2026735 0.2298514 1 0 1
0.07734915 -0.2038074 0.2308473 1 0 1
0.07816628 -0.2001476 0.2269819 1 0 1
0.08079591 -0.2019535 0.2286586 1 0 1
0.08321142 -0.2030683 0.2296332 1 0 1
0.0851619 -0.2028111 0.2292174 1 0 1
0.08589514 -0.1991397 0.2253461 1 0 1
0.08732899 -0.1975119 0.2235451 1 0 1
0.08924723 -0.1972423 0.2231188 1 0 1
0.09523623 -0.2078498 0.2336863 1 0 1
0.09721164 -0.2075605 0.2332351 1 0 1
0.1004958 -0.210661 0.2362068 1 0 1
0.1024862 -0.210358 0.23574 1 0 1
0.1042047 -0.2093716 0.2345837 1 0 1
0.1012626 -0.1968675 0.2218124 1 0 1
0.104284 -0.199266 0.2240746 1 0 1
0.1042408 -0.1942181 0.2188313 1 0 1
0.1047124 -0.1905244 0.2149563 1 0 1
0.1071651 -0.1915551 0.21584 1 0 1
0.1129982 -0.1956131 0.2196117 1 0 1
0.116101 -0.1979637 0.2218174 1 0 1
0.1198392 -0.2016475 0.2253603 1 0 1
0.1236202 -0.2053177 0.2288856 1 0 1
0.1277552 -0.2096447 0.2330664 1 0 1
0.1297348 -0.2092665 0.2325217 1 0 1
0.1339436 -0.2135674 0.2366696 1 0 1
0.1388473 -0.2191894 0.2421375 1 0 1
0.1402681 -0.2130344 0.2356306 1 0 1
0.1422647 -0.2126225 0.2350492 1 0 1
0.1415589 -0.2068815 0.2291356 1 0 1
0.1407911 -0.2011476 0.223234 1 0 1
0.1423754 -0.2000679 0.22199 1 0 1
0.1446468 -0.2003104 0.2220676 1 0 1
0.1493889 -0.2051816 0.226767 1 0 1
0.1513394 -0.2047428 0.2261609 1 0 1
-0.1439432 -0.2058502 0.246579 1 0 1
-0.1425445 -0.2082385 0.2489403 1 0 1
-0.1415184 -0.2119758 0.2527194 1 0 1
-0.1394781 -0.2123355 0.2529424 1 0 1
-0.1372454 -0.2120132 0.252448 1 0 1
-0.1350188 -0.2116842 0.2519471 1 0 1
-0.1333482 -0.2133814 0.2535758 1 0 1
-0.1313019 -0.213719 0.2537751 1 0 1
-0.1290789 -0.213372 0.2532558 1 0 1
-0.1272053 -0.2143775 0.2541561 1 0 1
-0.1251549 -0.2146985 0.2543378 1 0 1
-0.1231031 -0.2150138 0.2545135 1 0 1
-0.1210502 -0.2153236 0.2546833 1 0 1
-0.1189959 -0.2156278 0.2548473 1 0 1
-0.1167883 -0.215244 0.2542905 1 0 1
-0.1147354 -0.2155365 0.2544423 1 0 1
-0.1125371 -0.2151398 0.2538728 1 0 1
-0.1104858 -0.2154207 0.2540124 1 0 1
-0.1082969 -0.2150113 0.2534303 1 0 1
-0.1061147 -0.2145953 0.2528419 1 0 1
-0.1038106 -0.2134869 0.2515307 1 0 1
-0.1017707 -0.2137435 0.2516459 1 0 1
-0.09972979 -0.2139947 0.2517552 1 0 1
-0.09768791 -0.2142402 0.2518587 1 0 1
-0.09587125 -0.2158555 0.2533907 1 0 1
-0.09403808 -0.217467 0.2549176 1 0 1
-0.0921883 -0.2190748 0.2564392 1 0 1
-0.09011938 -0.2193007 0.2565201 1 0 1
-0.08814704 -0.2202103 0.257313 1 0 1
-0.08607259 -0.2204254 0.2573822 1 0 1
-0.08399738 -0.2206349 0.2574454 1 0 1
-0.08183581 -0.2201481 0.2567846 1 0 1
-0.07951795 -0.2182732 0.2546809 1 0 1
-0.07745634 -0.2184642 0.254726 1 0 1
-0.07532024 -0.217958 0.2540467 1 0 1
-0.07326131 -0.2181375 0.2540798 1 0 1
-0.07113581 -0.217619 0.2533886 1 0 1
-0.06914178 -0.2184797 0.2541285 1 0 1
0.03171152 -0.2085938 0.2363887 1 0 1
0.03480268 -0.2140364 0.2417653 1 0 1
0.03681663 -0.2139134 0.2414856 1 0 1
0.03882952 -0.2137849 0.2412002 1 0 1
0.0426427 -0.2219793 0.2493586 1 0 1
0.04254385 -0.2121239 0.2392053 1 0 1
0.04589865 -0.2090564 0.2357876 1 0 1
0.04788223 -0.208902 0.2354773 1 0 1
0.0498646 -0.2087422 0.2351615 1 0 1
0.05184556 -0.2085769 0.2348399 1 0 1
0.05293857 -0.2049465 0.2310135 1 0 1
0.05544112 -0.2068466 0.2327817 1 0 1
0.05611464 -0.2018271 0.2275549 1 0 1
0.05937805 -0.2064792 0.2321022 1 0 1
0.06724344 -0.2198915 0.2453301 1 0 1
0.06667656 -0.2107149 0.2359114 1 0 1
0.06989204 -0.2146395 0.2397119 1 0 1
0.07065266 -0.2102873 0.2351661 1 0 1
0.07462225 -0.2098377 0.2343981 1 0 1
0.07792371 -0.2137298 0.2381583 1 0 1
0.08149326 -0.2182978 0.2425948 1 0 1
0.08554906 -0.2177918 0.2417615 1 0 1
0.09968487 -0.2158438 0.2386644 1 0 1
-0.2133112 -0.2139841 0.2569145 1 0 1
-0.2106144 -0.2132392 0.2559632 1 0 1
-0.2054248 -0.2072641 0.2494828 1 0 1
-0.2043302 -0.2097599 0.2519611 1 0 1
-0.2044334 -0.2148743 0.2572037 1 0 1
-0.1981415 -0.2062309 0.2479143 1 0 1
-0.1940396 -0.2021502 0.2434491 1 0 1
-0.1941094 -0.2072548 0.248679 1 0 1
-0.1900558 -0.20315 0.2441922 1 0 1
-0.1472179 -0.1974004 0.2352732 1 0 1
-0.1452666 -0.1977728 0.235515 1 0 1
-0.1454181 -0.2048975 0.2428156 1 0 1
-0.1446646 -0.2093253 0.2472921 1 0 1
-0.1418359 -0.2069843 0.2446947 1 0 1
-0.1408263 -0.2107332 0.2484579 1 0 1
-0.1389966 -0.2117693 0.2493869 1 0 1
-0.1367753 -0.2114427 0.2488936 1 0 1
-0.1345603 -0.2111094 0.2483937 1 0 1
-0.1330852 -0.2134914 0.2507246 1 0 1
-0.1308672 -0.213147 0.250213 1 0 1
-0.1286557 -0.2127958 0.2496947 1 0 1
-0.1266223 -0.2131203 0.2498804 1 0 1
-0.1245875 -0.2134393 0.2500602 1 0 1
-0.1225515 -0.2137527 0.2502341 1 0 1
-0.1206742 -0.2147449 0.2511137 1 0 1
-0.1184754 -0.2143631 0.2505644 1 0 1
-0.116131 -0.2132892 0.2492965 1 0 1
-0.1140977 -0.2135794 0.2494465 1 0 1
-0.1117742 -0.2124911 0.2481652 1 0 1
-0.1096058 -0.2120823 0.2475899 1 0 1
-0.1075809 -0.2123543 0.2477216 1 0 1
-0.105422 -0.2119328 0.2471339 1 0 1
-0.1032699 -0.2115048 0.24654 1 0 1
-0.1014996 -0.2131375 0.2480815 1 0 1
-0.09971274 -0.2147666 0.249618 1 0 1
-0.09779206 -0.215702 0.2504352 1 0 1
-0.09608915 -0.2180136 0.2526758 1 0 1
-0.09425257 -0.2196317 0.2541971 1 0 1
-0.09229395 -0.2205544 0.2549981 1 0 1
-0.09022508 -0.2207807 0.2550788 1 0 1
-0.08815543 -0.2210014 0.2551534 1 0 1
-0.08608499 -0.2212164 0.2552221 1 0 1
-0.0840138 -0.2214257 0.2552849 1 0 1
-0.08194187 -0.2216295 0.2553418 1 0 1
-0.07978728 -0.2211339 0.2546772 1 0 1
-0.07763995 -0.2206319 0.2540065 1 0 1
-0.07549977 -0.2201236 0.2533297 1 0 1
-0.07343703 -0.2203037 0.2533626 1 0 1
-0.07130748 -0.2197831 0.2526738 1 0 1
-0.06930979 -0.2206471 0.2534108 1 0 1
0.04595361 -0.2111891 0.2350882 1 0 1
-0.2124528 -0.2135299 0.2533799 1 0 1
-0.2107183 -0.2147402 0.2544906 1 0 1
-0.2077204 -0.2133257 0.2528475 1 0 1
-0.2047426 -0.2118996 0.2511938 1 0 1
-0.2030083 -0.2130911 0.2522849 1 0 1
-0.1994515 -0.2103295 0.2492343 1 0 1
-0.1959301 -0.2075527 0.2461706 1 0 1
-0.1939167 -0.2080616 0.2465486 1 0 1
-0.1910289 -0.2065819 0.2448458 1 0 1
-0.1881614 -0.2050909 0.2431331 1 0 1
-0.187297 -0.2082298 0.2462615 1 0 1
-0.1855619 -0.2093788 0.2473083 1 0 1
-0.1835413 -0.2098594 0.2476563 1 0 1
-0.1817905 -0.2110002 0.2486934 1 0 1
-0.1781536 -0.2074714 0.2448567 1 0 1
-0.174296 -0.2032592 0.2403105 1 0 1
-0.1741359 -0.2083855 0.2455054 1 0 1
-0.1721241 -0.2088344 0.245821 1 0 1
-0.1680877 -0.2039179 0.2405467 1 0 1
-0.161885 -0.204523 0.2407276 1 0 1
-0.1563351 -0.1948389 0.2305055 1 0 1
-0.1548712 -0.1965839 0.2321748 1 0 1
-0.1533902 -0.1983269 0.2338407 1 0 1
-0.1507621 -0.1966898 0.2319939 1 0 1
