ply
format ascii 1.0
Comment Generated by Floating Hands
element vertex 1260
property double x
property double y
property double z
property uchar red
property uchar green
property uchar blue
end_header
-0.1123967 -0.2188419 0.293815 1 0 1
-0.110617 -0.2204796 0.2953821 1 0 1
-0.1084278 -0.22005 0.2948025 1 0 1
-0.1063724 -0.2203021 0.2949306 1 0 1
-0.1043159 -0.2205488 0.2950529 1 0 1
-0.1019008 -0.2187219 0.2930256 1 0 1
-0.09962359 -0.2175766 0.2917058 1 0 1
-0.09758374 -0.2178043 0.2918094 1 0 1
-0.09532814 -0.2166451 0.2904767 1 0 1
-0.09339792 -0.2175519 0.2912836 1 0 1
-0.09155861 -0.2191455 0.2928005 1 0 1
-0.08960712 -0.2200433 0.2935966 1 0 1
-0.08755525 -0.220244 0.2936711 1 0 1
-0.08559044 -0.2211318 0.2944558 1 0 1
-0.08336537 -0.2199358 0.2930867 1 0 1
-0.08123524 -0.2194262 0.2924273 1 0 1
-0.07911234 -0.2189102 0.2917619 1 0 1
-0.07699665 -0.2183881 0.2910905 1 0 1
-0.07488825 -0.2178597 0.2904131 1 0 1
-0.07285138 -0.2180199 0.2904462 1 0 1
-0.07069334 -0.2167845 0.2890403 1 0 1
-0.06860691 -0.2162378 0.2883451 1 0 1
-0.06668531 -0.2177714 0.2897939 1 0 1
-0.06460193 -0.2172133 0.289087 1 0 1
-0.06257059 -0.2173451 0.2890908 1 0 1
-0.06070147 -0.2202565 0.2919556 1 0 1
-0.1351278 -0.2098903 0.2831818 1 0 1
-0.1333144 -0.2108972 0.2840945 1 0 1
-0.131314 -0.2112158 0.2842949 1 0 1
-0.12966 -0.2128985 0.285905 1 0 1
-0.1281592 -0.2152634 0.288219 1 0 1
-0.1261353 -0.2155687 0.2884039 1 0 1
-0.1244346 -0.2172414 0.2900006 1 0 1
-0.1225586 -0.2182239 0.2908837 1 0 1
-0.1205191 -0.2185143 0.291052 1 0 1
-0.1183278 -0.2181109 0.2905048 1 0 1
-0.1162898 -0.2183899 0.2906612 1 0 1
-0.1141077 -0.2179739 0.2901014 1 0 1
-0.1122102 -0.2189309 0.2909565 1 0 1
-0.1104387 -0.2205735 0.292517 1 0 1
-0.1081261 -0.2194497 0.2912282 1 0 1
-0.1060825 -0.2197009 0.2913554 1 0 1
-0.1040379 -0.2199464 0.2914766 1 0 1
-0.1017535 -0.2188022 0.2901683 1 0 1
-0.09948374 -0.2176505 0.2888533 1 0 1
-0.09745185 -0.2178777 0.2889562 1 0 1
-0.09531145 -0.2174059 0.2883408 1 0 1
-0.09328168 -0.2176216 0.2884319 1 0 1
-0.09135089 -0.2185259 0.2892299 1 0 1
-0.08931557 -0.2187309 0.2893096 1 0 1
-0.08746334 -0.2203204 0.2908094 1 0 1
-0.08533065 -0.2198197 0.2901644 1 0 1
-0.08320506 -0.2193127 0.2895133 1 0 1
-0.08108664 -0.2187994 0.2888561 1 0 1
-0.07905167 -0.2189763 0.2889065 1 0 1
-0.07687146 -0.2177542 0.2875238 1 0 1
-0.07491151 -0.2186166 0.2882761 1 0 1
-0.07281424 -0.2180791 0.2875951 1 0 1
-0.07084529 -0.218931 0.2883359 1 0 1
-0.06875486 -0.2183819 0.2876432 1 0 1
-0.06682975 -0.2199216 0.2890864 1 0 1
-0.0647423 -0.2193611 0.2883821 1 0 1
-0.06270713 -0.2194935 0.2883858 1 0 1
-0.1381575 -0.2144163 0.2850771 1 0 1
-0.1359589 -0.2140631 0.2845863 1 0 1
-0.1339484 -0.2143894 0.2847932 1 0 1
-0.1314024 -0.2126497 0.2828804 1 0 1
-0.1295749 -0.2136508 0.2837797 1 0 1
-0.1279083 -0.2153357 0.2853792 1 0 1
-0.1260586 -0.2163289 0.2862687 1 0 1
-0.1245247 -0.2186963 0.2885652 1 0 1
-0.1224905 -0.2189921 0.2887387 1 0 1
-0.120455 -0.2192823 0.2889065 1 0 1
-0.1182675 -0.2188761 0.2883613 1 0 1
-0.1160866 -0.2184633 0.2878097 1 0 1
-0.1136263 -0.2166599 0.2858365 1 0 1
-0.1120228 -0.2190029 0.288103 1 0 1
-0.1099892 -0.2192645 0.288241 1 0 1
-0.107692 -0.2181335 0.2869563 1 0 1
-0.1056641 -0.218383 0.2870822 1 0 1
-0.1037586 -0.2193214 0.287911 1 0 1
-0.1013662 -0.2174757 0.2858982 1 0 1
-0.09922752 -0.2170124 0.2852968 1 0 1
-0.09720749 -0.2172385 0.2853988 1 0 1
-0.09507873 -0.2167629 0.2847853 1 0 1
-0.09306087 -0.2169776 0.2848756 1 0 1
-0.09114209 -0.2178838 0.2856701 1 0 1
-0.08911862 -0.2180879 0.2857489 1 0 1
-0.0871865 -0.2189844 0.2865324 1 0 1
-0.08515762 -0.2191778 0.2865998 1 0 1
-0.08304374 -0.2186671 0.2859508 1 0 1
-0.08101738 -0.2188491 0.2860065 1 0 1
-0.07899034 -0.2190256 0.2860564 1 0 1
-0.07689021 -0.218497 0.2853897 1 0 1
-0.07486592 -0.2186622 0.285428 1 0 1
-0.07284104 -0.2188218 0.2854604 1 0 1
-0.07081562 -0.2189758 0.2854871 1 0 1
-0.06878971 -0.2191244 0.2855081 1 0 1
-0.06681616 -0.2199685 0.2862343 1 0 1
-0.06473655 -0.2194049 0.2855326 1 0 1
-0.06275427 -0.2202385 0.2862473 1 0 1
-0.1378666 -0.2144787 0.2822458 1 0 1
-0.1353038 -0.212745 0.2803544 1 0 1
-0.1334909 -0.2137583 0.2812607 1 0 1
-0.1311344 -0.2126985 0.2800566 1 0 1
-0.1294891 -0.2143918 0.2816541 1 0 1
-0.1276566 -0.2153913 0.2825448 1 0 1
-0.1258149 -0.2163865 0.2834304 1 0 1
-0.1239642 -0.2173773 0.2843109 1 0 1
-0.1219456 -0.2176712 0.2844827 1 0 1
-0.1199258 -0.2179596 0.2846488 1 0 1
-0.1179048 -0.2182425 0.284809 1 0 1
-0.1157354 -0.2178257 0.2842589 1 0 1
-0.1134297 -0.2167075 0.2829976 1 0 1
-0.1116953 -0.2183629 0.2845499 1 0 1
-0.1094029 -0.2172318 0.2832759 1 0 1
-0.1072564 -0.2167893 0.2827008 1 0 1
-0.1052442 -0.2170373 0.2828253 1 0 1
-0.1033547 -0.2179769 0.2836502 1 0 1
-0.1009775 -0.2161213 0.2816445 1 0 1
-0.09908602 -0.21705 0.2824578 1 0 1
-0.09707391 -0.2172755 0.2825591 1 0 1
-0.09495291 -0.2167966 0.2819477 1 0 1
-0.09304703 -0.2177101 0.2827444 1 0 1
-0.09103233 -0.2179192 0.2828285 1 0 1
-0.08901682 -0.2181228 0.2829068 1 0 1
-0.08709284 -0.2190215 0.2836868 1 0 1
-0.08498354 -0.2185134 0.283046 1 0 1
-0.08271249 -0.2165964 0.2809836 1 0 1
-0.08086687 -0.2181803 0.2824544 1 0 1
-0.07877516 -0.217654 0.2817958 1 0 1
-0.07669067 -0.2171215 0.2811312 1 0 1
-0.07481965 -0.218691 0.2825853 1 0 1
-0.07286755 -0.2195531 0.2833257 1 0 1
-0.07078531 -0.2190038 0.2826439 1 0 1
-0.06882433 -0.2198555 0.2833728 1 0 1
-0.06685497 -0.2207024 0.2840961 1 0 1
-0.06473015 -0.2194318 0.2826885 1 0 1
-0.06280115 -0.2209722 0.2841086 1 0 1
-0.1364351 -0.2103812 0.2752325 1 0 1
-0.1350194 -0.2127817 0.2775357 1 0 1
-0.1330323 -0.2131051 0.2777393 1 0 1
-0.1308655 -0.2127306 0.2772381 1 0 1
-0.1292284 -0.2144287 0.2788289 1 0 1
-0.1274039 -0.2154301 0.2797157 1 0 1
-0.1255703 -0.2164273 0.2805975 1 0 1
-0.1235648 -0.2167252 0.2807736 1 0 1
-0.1215581 -0.2170178 0.2809441 1 0 1
-0.119395 -0.216609 0.2804076 1 0 1
-0.1172386 -0.2161937 0.2798648 1 0 1
-0.1150887 -0.2157717 0.2793155 1 0 1
-0.1130888 -0.2160409 0.2794622 1 0 1
-0.1112272 -0.2170026 0.2803054 1 0 1
-0.1090857 -0.2165627 0.2797382 1 0 1
-0.1069509 -0.2161165 0.2791647 1 0 1
-0.1049506 -0.2163632 0.2792881 1 0 1
-0.1029493 -0.2166045 0.2794059 1 0 1
-0.1008271 -0.21614 0.2788144 1 0 1
-0.09882773 -0.2163699 0.2789205 1 0 1
-0.09693959 -0.2172958 0.2797249 1 0 1
-0.09493452 -0.2175153 0.2798198 1 0 1
-0.0929286 -0.2177293 0.2799089 1 0 1
-0.09082153 -0.2172352 0.2792878 1 0 1
-0.08881789 -0.2174378 0.2793653 1 0 1
-0.08690602 -0.2183384 0.2801421 1 0 1
-0.08471986 -0.2171229 0.2787984 1 0 1
-0.08263335 -0.2166047 0.2781537 1 0 1
-0.08079605 -0.2181937 0.2796184 1 0 1
-0.07871214 -0.2176641 0.2789622 1 0 1
-0.07663543 -0.2171284 0.2783 1 0 1
-0.07484166 -0.2194085 0.2804536 1 0 1
-0.07282878 -0.2195675 0.2804855 1 0 1
-0.0708154 -0.2197211 0.2805116 1 0 1
-0.06885862 -0.2205756 0.2812375 1 0 1
-0.06705306 -0.223545 0.2840745 1 0 1
-0.06487086 -0.2215627 0.2819668 1 0 1
-0.06311961 -0.2259377 0.2862035 1 0 1
-0.1384938 -0.2114476 0.2736058 1 0 1
-0.1361413 -0.2103938 0.2724288 1 0 1
-0.1345476 -0.2121077 0.2740269 1 0 1
-0.1331195 -0.2145132 0.2763167 1 0 1
-0.1307742 -0.2134413 0.2751216 1 0 1
-0.1291415 -0.2151447 0.2767061 1 0 1
-0.1274919 -0.216845 0.2782863 1 0 1
-0.1256585 -0.2178452 0.2791649 1 0 1
-0.1233273 -0.2167486 0.2779452 1 0 1
-0.1213284 -0.2170404 0.2781146 1 0 1
-0.1191731 -0.2166281 0.2775799 1 0 1
-0.1168731 -0.21551 0.27634 1 0 1
-0.1148823 -0.2157839 0.2764914 1 0 1
-0.1127468 -0.215352 0.2759378 1 0 1
-0.1108972 -0.2163152 0.2767771 1 0 1
-0.1087674 -0.2158715 0.2762115 1 0 1
-0.1067761 -0.216123 0.2763398 1 0 1
-0.1047837 -0.2163692 0.2764625 1 0 1
-0.1027903 -0.2166099 0.2765794 1 0 1
-0.1007959 -0.2168452 0.2766907 1 0 1
-0.09880066 -0.2170749 0.2767963 1 0 1
-0.09691671 -0.2180034 0.2775974 1 0 1
-0.09480736 -0.2175182 0.2769904 1 0 1
-0.09270502 -0.2170268 0.2763774 1 0 1
-0.09071012 -0.2172343 0.2764601 1 0 1
-0.08861794 -0.2167307 0.2758352 1 0 1
-0.08662542 -0.2169269 0.2759064 1 0 1
-0.08436602 -0.2149982 0.2738655 1 0 1
-0.08246869 -0.2158894 0.2746271 1 0 1
-0.08048194 -0.2160686 0.2746811 1 0 1
-0.07849452 -0.2162424 0.2747293 1 0 1
-0.07643349 -0.2157028 0.2740693 1 0 1
-0.0746561 -0.2179901 0.2762141 1 0 1
-0.07265908 -0.2181481 0.2762455 1 0 1
-0.07072277 -0.2190095 0.2769739 1 0 1
-0.06877809 -0.2198661 0.2776968 1 0 1
-0.06693178 -0.2221365 0.2798195 1 0 1
-0.06486376 -0.2215643 0.2791255 1 0 1
-0.06325804 -0.2280855 0.2854537 1 0 1
-0.1379974 -0.2107546 0.2701115 1 0 1
-0.1364174 -0.2124778 0.2717079 1 0 1
-0.1346339 -0.2135015 0.2726075 1 0 1
-0.1330238 -0.2152185 0.2741954 1 0 1
-0.1308609 -0.2148387 0.2736986 1 0 1
-0.1290539 -0.2158495 0.2745833 1 0 1
-0.1270669 -0.2161568 0.2747686 1 0 1
-0.1250785 -0.2164588 0.2749484 1 0 1
-0.1229257 -0.2160549 0.2744273 1 0 1
-0.1209386 -0.2163454 0.2745954 1 0 1
-0.118795 -0.2159291 0.2740621 1 0 1
-0.1166579 -0.2155062 0.2735225 1 0 1
-0.1148226 -0.2164819 0.2743691 1 0 1
-0.1128347 -0.2167501 0.2745141 1 0 1
-0.1109854 -0.2177164 0.2753503 1 0 1
-0.1088555 -0.2172702 0.2747871 1 0 1
-0.1067324 -0.2168176 0.2742179 1 0 1
-0.1048721 -0.2177686 0.2750374 1 0 1
-0.1027547 -0.2173041 0.2744563 1 0 1
-0.1006441 -0.2168332 0.2738691 1 0 1
-0.0986568 -0.2170625 0.273974 1 0 1
-0.09689341 -0.2186999 0.27547 1 0 1
-0.09478794 -0.2182118 0.2748653 1 0 1
-0.09279408 -0.2184251 0.2749534 1 0 1
-0.0906987 -0.2179249 0.2743369 1 0 1
-0.08861034 -0.2174184 0.2737145 1 0 1
-0.08643628 -0.2161967 0.2723868 1 0 1
-0.08436602 -0.2156774 0.2717523 1 0 1
-0.08238797 -0.2158615 0.2718114 1 0 1
-0.08049023 -0.2167503 0.2725644 1 0 1
-0.07858402 -0.2176342 0.2733119 1 0 1
-0.07666934 -0.2185135 0.2740541 1 0 1
-0.07467696 -0.2186769 0.2740908 1 0 1
-0.07261868 -0.2181235 0.2734221 1 0 1
-0.07069055 -0.2189873 0.2741474 1 0 1
-0.06869657 -0.2191343 0.2741673 1 0 1
-0.06675569 -0.219988 0.2748813 1 0 1
-0.06475687 -0.2201243 0.2748899 1 0 1
-0.0634426 -0.2309455 0.2853926 1 0 1
-0.1380598 -0.2048228 0.261592 1 0 1
-0.1369167 -0.2079454 0.2645611 1 0 1
-0.1357412 -0.211068 0.2675281 1 0 1
-0.1339736 -0.2120923 0.2684228 1 0 1
-0.1323795 -0.2138126 0.2700032 1 0 1
-0.1304109 -0.2141287 0.270198 1 0 1
-0.1286158 -0.2151406 0.2710782 1 0 1
-0.1264695 -0.2147448 0.2705706 1 0 1
-0.1244968 -0.2150447 0.2707485 1 0 1
-0.1223596 -0.2146363 0.2702286 1 0 1
-0.1203882 -0.2149248 0.2703949 1 0 1
-0.1184157 -0.215208 0.2705556 1 0 1
-0.1165936 -0.2161905 0.2714038 1 0 1
-0.1146147 -0.2164634 0.2715536 1 0 1
-0.1127786 -0.2174367 0.2723913 1 0 1
-0.1107936 -0.2176993 0.27253 1 0 1
-0.1088075 -0.2179565 0.2726631 1 0 1
-0.1066882 -0.217501 0.2720961 1 0 1
-0.1048321 -0.2184545 0.2729123 1 0 1
-0.1027187 -0.2179872 0.2723334 1 0 1
-0.100612 -0.2175135 0.2717485 1 0 1
-0.09862873 -0.2177425 0.2718529 1 0 1
-0.09664457 -0.2179661 0.2719516 1 0 1
-0.09465948 -0.2181843 0.2720447 1 0 1
-0.09246407 -0.2169762 0.2707402 1 0 1
-0.09068684 -0.2186043 0.2722139 1 0 1
-0.08850548 -0.2173836 0.2708975 1 0 1
-0.08643204 -0.2168677 0.2702713 1 0 1
-0.08427665 -0.2156334 0.2689427 1 0 1
-0.0823917 -0.2165295 0.269698 1 0 1
-0.08041699 -0.2167081 0.2697511 1 0 1
-0.07851896 -0.2175943 0.2704955 1 0 1
-0.07653906 -0.2177624 0.2705374 1 0 1
-0.07462805 -0.2186388 0.2712707 1 0 1
-0.0725776 -0.2180823 0.2706045 1 0 1
-0.07065766 -0.2189484 0.2713267 1 0 1
-0.06861407 -0.2183804 0.2706491 1 0 1
-0.06673899 -0.2199511 0.2720573 1 0 1
-0.06316959 -0.2266565 0.2783428 1 0 1
-0.1387379 -0.2082693 0.2622573 1 0 1
-0.1377786 -0.2121059 0.2659024 1 0 1
-0.135826 -0.2124366 0.2661123 1 0 1
-0.1340587 -0.213464 0.2670038 1 0 1
-0.1322823 -0.2144874 0.2678906 1 0 1
-0.1303177 -0.2148032 0.2680845 1 0 1
-0.1283517 -0.2151138 0.268273 1 0 1
-0.1262131 -0.2147143 0.267767 1 0 1
-0.124081 -0.2143083 0.2672547 1 0 1
-0.1222823 -0.2153073 0.268115 1 0 1
-0.1203151 -0.2155956 0.2682806 1 0 1
-0.1181908 -0.2151718 0.2677505 1 0 1
-0.1163768 -0.2161563 0.268595 1 0 1
-0.1144059 -0.2164285 0.2687437 1 0 1
-0.1125779 -0.2174037 0.2695778 1 0 1
-0.1104608 -0.2169566 0.2690244 1 0 1
-0.1084865 -0.2172127 0.2691564 1 0 1
-0.1067759 -0.2188832 0.2706661 1 0 1
-0.1047918 -0.2191294 0.2707873 1 0 1
-0.1026822 -0.2186591 0.2702107 1 0 1
-0.1007 -0.2188939 0.2703204 1 0 1
-0.09860021 -0.2184113 0.2697318 1 0 1
-0.09662009 -0.2186348 0.26983 1 0 1
-0.09453026 -0.2181401 0.2692297 1 0 1
-0.09244741 -0.2176391 0.2686234 1 0 1
-0.0904726 -0.2178455 0.2687044 1 0 1
-0.08839986 -0.2173324 0.2680865 1 0 1
-0.08624107 -0.2160987 0.266769 1 0 1
-0.08418652 -0.215573 0.2661391 1 0 1
-0.08230973 -0.2164712 0.266891 1 0 1
-0.08034305 -0.2166493 0.2669437 1 0 1
-0.07845317 -0.2175379 0.2676848 1 0 1
-0.07640778 -0.2169894 0.2670323 1 0 1
-0.07457849 -0.2185842 0.2684565 1 0 1
-0.07253587 -0.2180245 0.2677928 1 0 1
-0.07068587 -0.21961 0.2692062 1 0 1
-0.0686462 -0.2190391 0.2685311 1 0 1
-0.06688333 -0.2220505 0.2713222 1 0 1
0.03621822 -0.2014678 0.244676 1 0 1
-0.1398139 -0.213132 0.2642667 1 0 1
-0.1374737 -0.2120615 0.2631146 1 0 1
-0.135529 -0.2123913 0.2633233 1 0 1
-0.1339567 -0.2141253 0.2648951 1 0 1
-0.1318183 -0.2137403 0.2644087 1 0 1
-0.1298655 -0.2140547 0.2646011 1 0 1
-0.1280866 -0.2150704 0.2654735 1 0 1
-0.1259558 -0.2146675 0.2649692 1 0 1
-0.1236639 -0.2135501 0.2637725 1 0 1
-0.1218773 -0.2145505 0.2646285 1 0 1
-0.1199218 -0.2148374 0.2647927 1 0 1
-0.1178093 -0.2144095 0.2642641 1 0 1
-0.1160073 -0.2153954 0.2651045 1 0 1
-0.1141963 -0.216377 0.2659398 1 0 1
-0.1122323 -0.2166431 0.266082 1 0 1
-0.1101268 -0.2161921 0.2655303 1 0 1
-0.1083008 -0.217159 0.2663498 1 0 1
-0.1065985 -0.2188343 0.267853 1 0 1
-0.1047509 -0.219793 0.2686625 1 0 1
-0.1026452 -0.2193198 0.2680881 1 0 1
-0.1004256 -0.2181263 0.2668182 1 0 1
-0.09833756 -0.21764 0.2662317 1 0 1
-0.09625641 -0.2171473 0.2656391 1 0 1
-0.09418225 -0.2166485 0.2650405 1 0 1
-0.09222014 -0.2168592 0.2651263 1 0 1
-0.0904596 -0.2184971 0.2665875 1 0 1
-0.08848808 -0.218698 0.2666625 1 0 1
-0.0863291 -0.2174591 0.2653505 1 0 1
-0.08427451 -0.2169308 0.2647232 1 0 1
-0.08239807 -0.217832 0.2654721 1 0 1
-0.08034998 -0.2172922 0.2648334 1 0 1
-0.07838673 -0.2174648 0.2648802 1 0 1
-0.07634918 -0.2169132 0.2642301 1 0 1
-0.07438868 -0.2170746 0.2642657 1 0 1
-0.07236179 -0.2165112 0.2636043 1 0 1
-0.07040414 -0.2166616 0.2636287 1 0 1
-0.06844602 -0.2168065 0.2636476 1 0 1
-0.0665956 -0.2183868 0.2650439 1 0 1
0.03563729 -0.2386322 0.2776362 1 0 1
0.03359954 -0.218321 0.2583642 1 0 1
0.03434671 -0.2124186 0.2526689 1 0 1
0.03472224 -0.2050764 0.245623 1 0 1
0.03717911 -0.1990227 0.2396603 1 0 1
0.03935392 -0.200304 0.2407299 1 0 1
0.04543192 -0.2019559 0.2418724 1 0 1
0.04747088 -0.2024948 0.2422404 1 0 1
0.06329833 -0.1977983 0.2365897 1 0 1
0.07084754 -0.197564 0.2358041 1 0 1
0.07267676 -0.1973142 0.2354282 1 0 1
0.07402597 -0.1956386 0.2337232 1 0 1
0.07657305 -0.1975092 0.2353221 1 0 1
0.07667343 -0.1922785 0.2303077 1 0 1
0.08825153 -0.1927188 0.2298492 1 0 1
-0.1426572 -0.2169655 0.2653403 1 0 1
-0.1400965 -0.215194 0.2635213 1 0 1
-0.137947 -0.2148253 0.2630556 1 0 1
-0.1359948 -0.2151569 0.2632647 1 0 1
-0.133854 -0.2147756 0.2627867 1 0 1
-0.1317195 -0.2143877 0.2623023 1 0 1
-0.1297708 -0.2147019 0.2624938 1 0 1
-0.1278207 -0.2150107 0.2626799 1 0 1
-0.1255261 -0.2138942 0.2614943 1 0 1
-0.1232457 -0.2127701 0.2603018 1 0 1
-0.1216348 -0.2144827 0.2618373 1 0 1
-0.1196873 -0.214769 0.2620005 1 0 1
-0.1174265 -0.2136255 0.2607895 1 0 1
-0.1157887 -0.2153255 0.2623102 1 0 1
-0.1139859 -0.216309 0.2631418 1 0 1
-0.1118854 -0.2158605 0.2625979 1 0 1
-0.1095107 -0.2139768 0.2606769 1 0 1
-0.1078412 -0.2156592 0.2621776 1 0 1
-0.1060223 -0.2166228 0.2629878 1 0 1
-0.1041947 -0.217582 0.263793 1 0 1
-0.1022334 -0.2178205 0.2639065 1 0 1
-0.1001501 -0.2173367 0.2633277 1 0 1
-0.09830786 -0.2182811 0.2641169 1 0 1
-0.09634371 -0.2185034 0.2642138 1 0 1
-0.09416036 -0.217284 0.2629305 1 0 1
-0.09230764 -0.2182132 0.2637033 1 0 1
-0.09044626 -0.2191377 0.2644709 1 0 1
-0.08857628 -0.2200578 0.2652333 1 0 1
-0.08641712 -0.2188138 0.2639266 1 0 1
-0.08445212 -0.2190032 0.2639899 1 0 1
-0.08248644 -0.2191872 0.2640477 1 0 1
-0.08052008 -0.2193658 0.2640999 1 0 1
-0.07847527 -0.2188177 0.2634582 1 0 1
-0.07651159 -0.2189851 0.2634991 1 0 1
-0.07454732 -0.2191471 0.2635346 1 0 1
-0.07251651 -0.2185815 0.2628759 1 0 1
-0.07055512 -0.2187324 0.2629002 1 0 1
-0.06859323 -0.2188778 0.2629189 1 0 1
-0.06668514 -0.2197409 0.2636207 1 0 1
0.03453866 -0.2350002 0.2714026 1 0 1
0.03335567 -0.2189523 0.2562659 1 0 1
0.03485054 -0.2166417 0.2539679 1 0 1
0.03570522 -0.211438 0.248971 1 0 1
0.03713551 -0.2091214 0.2466711 1 0 1
0.03789447 -0.2039144 0.2416773 1 0 1
0.04058496 -0.2073636 0.2447557 1 0 1
0.04178775 -0.2043146 0.2417763 1 0 1
0.04451856 -0.2077495 0.2448377 1 0 1
0.04675516 -0.2090146 0.2458756 1 0 1
0.0486437 -0.2088329 0.2455659 1 0 1
0.04905102 -0.2028894 0.2398964 1 0 1
0.05109479 -0.2034195 0.24025 1 0 1
0.05198848 -0.199631 0.2365892 1 0 1
0.05402181 -0.2001517 0.2369337 1 0 1
0.05994629 -0.2076324 0.2435966 1 0 1
0.06036768 -0.2023945 0.2385934 1 0 1
0.06285395 -0.2043237 0.24024 1 0 1
0.0638506 -0.201232 0.2372307 1 0 1
0.06503464 -0.1988546 0.2348852 1 0 1
0.06664113 -0.1979053 0.2338635 1 0 1
0.07074013 -0.204813 0.2401146 1 0 1
0.07283281 -0.2052781 0.2403986 1 0 1
0.07516661 -0.2064505 0.2413358 1 0 1
0.07679721 -0.2054763 0.2402872 1 0 1
0.07817564 -0.2037855 0.2385767 1 0 1
0.07904387 -0.2006676 0.2355493 1 0 1
0.07937886 -0.1961264 0.23121 1 0 1
0.0791579 -0.1901653 0.2255639 1 0 1
0.08068028 -0.1891801 0.2245112 1 0 1
0.08481168 -0.1952875 0.2299964 1 0 1
0.08635329 -0.1942886 0.2289285 1 0 1
0.08761591 -0.1925775 0.2272049 1 0 1
0.08995446 -0.1936949 0.2280858 1 0 1
0.09286024 -0.196219 0.230259 1 0 1
0.0960753 -0.1994393 0.2330696 1 0 1
0.09989531 -0.2040595 0.2371632 1 0 1
0.1066293 -0.2058675 0.2383541 1 0 1
0.1072913 -0.2027064 0.2352961 1 0 1
0.1070106 -0.1974387 0.230309 1 0 1
-0.143878 -0.2151486 0.2609652 1 0 1
-0.1409169 -0.2119591 0.2578053 1 0 1
-0.1399814 -0.2158393 0.2614101 1 0 1
-0.1378359 -0.2154678 0.2609464 1 0 1
-0.1355054 -0.21438 0.259798 1 0 1
-0.1333763 -0.2139944 0.2593211 1 0 1
-0.1312535 -0.2136024 0.258838 1 0 1
-0.129137 -0.2132037 0.2583485 1 0 1
-0.1272026 -0.2135104 0.2585327 1 0 1
-0.1250951 -0.2130992 0.2580312 1 0 1
-0.1229941 -0.2126816 0.2575234 1 0 1
-0.1212275 -0.2136849 0.2583713 1 0 1
-0.1194519 -0.2146843 0.2592144 1 0 1
-0.1171988 -0.2135345 0.258008 1 0 1
-0.1152646 -0.2138082 0.2581586 1 0 1
-0.1136262 -0.2155087 0.2596679 1 0 1
-0.1113929 -0.2143396 0.2584432 1 0 1
-0.1090335 -0.2124461 0.2565293 1 0 1
-0.1073801 -0.2141322 0.258023 1 0 1
-0.1058428 -0.216533 0.2601953 1 0 1
-0.1037655 -0.216057 0.2596299 1 0 1
-0.1018199 -0.2162939 0.2597423 1 0 1
-0.0997524 -0.2158059 0.2591652 1 0 1
-0.09792611 -0.2167515 0.2599504 1 0 1
-0.09575125 -0.2155314 0.2586777 1 0 1
-0.09370056 -0.2150252 0.2580832 1 0 1
-0.09186778 -0.2159551 0.258852 1 0 1
-0.0901279 -0.2176023 0.2603004 1 0 1
-0.08827394 -0.2185237 0.2610591 1 0 1
-0.08631769 -0.2187179 0.2611274 1 0 1
-0.08427097 -0.218184 0.2605051 1 0 1
-0.08231721 -0.2183671 0.2605622 1 0 1
-0.08036282 -0.2185448 0.2606139 1 0 1
-0.0783298 -0.2179933 0.2599745 1 0 1
-0.07630401 -0.2174356 0.2593294 1 0 1
-0.07435566 -0.2175965 0.2593644 1 0 1
-0.07234052 -0.2170271 0.2587081 1 0 1
-0.07033277 -0.2164518 0.2580462 1 0 1
-0.06839073 -0.216596 0.2580646 1 0 1
-0.06475776 -0.2204984 0.2615139 1 0 1
0.03259002 -0.2269689 0.2611654 1 0 1
0.03179833 -0.213042 0.2481162 1 0 1
0.03370413 -0.2129019 0.247848 1 0 1
0.03514765 -0.2105814 0.2455606 1 0 1
0.0365667 -0.2082575 0.2432712 1 0 1
0.03747672 -0.2037569 0.2389695 1 0 1
0.03966211 -0.2050477 0.2400263 1 0 1
0.04118466 -0.203437 0.2383996 1 0 1
0.04355634 -0.2054394 0.2401119 1 0 1
0.04595007 -0.2074345 0.2418153 1 0 1
0.04764206 -0.2065315 0.2408413 1 0 1
0.04821618 -0.2012903 0.2358645 1 0 1
0.04967815 -0.1996589 0.2342208 1 0 1
0.0509307 -0.1973025 0.2319094 1 0 1
0.0515695 -0.1927802 0.2276036 1 0 1
0.05596563 -0.20195 0.2359125 1 0 1
0.05882775 -0.2053418 0.2388938 1 0 1
0.05943906 -0.2008068 0.2345768 1 0 1
0.0614855 -0.201307 0.2348947 1 0 1
0.06418529 -0.2039577 0.2371887 1 0 1
0.06471879 -0.199416 0.2328701 1 0 1
0.06632157 -0.1984642 0.2318524 1 0 1
0.06973286 -0.203247 0.2361002 1 0 1
0.07180986 -0.2037165 0.2363848 1 0 1
0.07342307 -0.2027472 0.2353486 1 0 1
0.07478819 -0.2010581 0.2336525 1 0 1
0.07613634 -0.1993659 0.2319545 1 0 1
0.07648186 -0.1948122 0.227636 1 0 1
0.07903159 -0.1966869 0.2292068 1 0 1
0.08033235 -0.1949856 0.2275026 1 0 1
0.08187386 -0.1939944 0.2264489 1 0 1
0.08549909 -0.198698 0.230602 1 0 1
0.08731759 -0.1984059 0.2301851 1 0 1
0.08886499 -0.1973977 0.2291136 1 0 1
0.09122196 -0.198517 0.2299847 1 0 1
0.09276162 -0.1974991 0.228904 1 0 1
0.09822039 -0.2064057 0.2368752 1 0 1
0.1015003 -0.2096218 0.2396503 1 0 1
0.1022224 -0.2064557 0.2366064 1 0 1
0.1058317 -0.2103611 0.2400047 1 0 1
0.1074139 -0.2093078 0.2388851 1 0 1
0.105093 -0.1990762 0.2294153 1 0 1
0.1053938 -0.1952044 0.2257374 1 0 1
0.1041199 -0.1878134 0.2188638 1 0 1
0.1058763 -0.1874675 0.2183962 1 0 1
0.1261565 -0.2101525 0.238173 1 0 1
-0.2285203 -0.2137037 0.2609139 1 0 1
-0.2233836 -0.2082183 0.2555469 1 0 1
-0.1454856 -0.2147215 0.257953 1 0 1
-0.1425139 -0.2115266 0.2548138 1 0 1
-0.141405 -0.2147108 0.2577321 1 0 1
-0.1404628 -0.2186061 0.2613231 1 0 1
-0.1379192 -0.2168106 0.2595125 1 0 1
-0.1355887 -0.2157179 0.2583694 1 0 1
-0.133647 -0.216043 0.2585708 1 0 1
-0.1315203 -0.2156492 0.2580905 1 0 1
-0.1290406 -0.2138207 0.2562506 1 0 1
-0.1271103 -0.2141272 0.256434 1 0 1
-0.1251786 -0.2144285 0.2566119 1 0 1
-0.1230776 -0.2140085 0.2561066 1 0 1
-0.1213115 -0.2150149 0.2569513 1 0 1
-0.1195362 -0.2160172 0.2577911 1 0 1
-0.1171266 -0.2141449 0.2559114 1 0 1
-0.1151965 -0.2144184 0.2560613 1 0 1
-0.1134139 -0.2154052 0.2568849 1 0 1
-0.1111882 -0.2142301 0.2556651 1 0 1
-0.1086955 -0.2116081 0.2530791 1 0 1
-0.1071912 -0.2140185 0.255246 1 0 1
-0.1052635 -0.2142644 0.255368 1 0 1
-0.1030766 -0.2130625 0.2541234 1 0 1
-0.1011547 -0.2132968 0.2542342 1 0 1
-0.09911062 -0.2128036 0.2536584 1 0 1
-0.09730814 -0.2137494 0.2544391 1 0 1
-0.09538355 -0.2139678 0.2545335 1 0 1
-0.09356764 -0.2149044 0.2553039 1 0 1
-0.09163744 -0.2151126 0.2553875 1 0 1
-0.09001155 -0.2174884 0.2575113 1 0 1
-0.08806801 -0.2176872 0.2575845 1 0 1
-0.08621758 -0.2186057 0.2583344 1 0 1
-0.0843586 -0.2195195 0.259079 1 0 1
-0.08240505 -0.2197029 0.2591359 1 0 1
-0.08061504 -0.2213333 0.2605524 1 0 1
-0.07841781 -0.2193268 0.2585506 1 0 1
-0.07631779 -0.2180398 0.2572255 1 0 1
-0.07437356 -0.2182005 0.2572602 1 0 1
-0.07242877 -0.218356 0.2572893 1 0 1
-0.07035855 -0.2170502 0.2559472 1 0 1
-0.06853771 -0.2186506 0.2573311 1 0 1
-0.06691909 -0.2231605 0.2614414 1 0 1
-0.06586092 -0.2364129 0.2737417 1 0 1
0.03170163 -0.2143554 0.2467143 1 0 1
0.03330797 -0.2127591 0.2451083 1 0 1
0.03535829 -0.2133419 0.2455046 1 0 1
0.03710042 -0.2124639 0.2445586 1 0 1
0.03786571 -0.2072186 0.2396047 1 0 1
0.03973181 -0.2070601 0.2393208 1 0 1
0.04108945 -0.204717 0.2370333 1 0 1
0.04346034 -0.2067273 0.2387373 1 0 1
0.04603015 -0.2094559 0.2410972 1 0 1
0.04754532 -0.2078243 0.2394614 1 0 1
0.04848994 -0.2040141 0.2358322 1 0 1
0.05090224 -0.2059991 0.2375078 1 0 1
0.052567 -0.2050799 0.2365251 1 0 1
0.05343785 -0.2012613 0.2328922 1 0 1
0.05706956 -0.2075681 0.2385138 1 0 1
0.05913792 -0.2080789 0.2388359 1 0 1
0.05975805 -0.2035268 0.234535 1 0 1
0.06265847 -0.2069164 0.2374841 1 0 1
0.06538033 -0.2095745 0.2397625 1 0 1
0.0661574 -0.2057347 0.2361142 1 0 1
0.06734072 -0.2033355 0.2337813 1 0 1
0.07031561 -0.2066941 0.236694 1 0 1
0.07194208 -0.2057255 0.2356638 1 0 1
0.07285511 -0.2025958 0.2326673 1 0 1
0.07421283 -0.200902 0.2309789 1 0 1
0.07555356 -0.1992053 0.2292886 1 0 1
0.07564634 -0.193919 0.2243374 1 0 1
0.07818387 -0.1958031 0.2259025 1 0 1
0.08074251 -0.1976788 0.2274575 1 0 1
0.08332223 -0.1995458 0.2290024 1 0 1
0.08618437 -0.2021191 0.2311856 1 0 1
0.0882794 -0.2025393 0.231414 1 0 1
0.08876593 -0.1986705 0.2277556 1 0 1
0.08921254 -0.1948029 0.224101 1 0 1
0.09183223 -0.1966364 0.2256093 1 0 1
0.09615519 -0.2027319 0.2309709 1 0 1
0.09969165 -0.2066769 0.2343818 1 0 1
0.1024075 -0.2084771 0.2358499 1 0 1
0.1036852 -0.2067189 0.2341015 1 0 1
0.1064232 -0.2085039 0.2355527 1 0 1
0.1046923 -0.1996534 0.2274044 1 0 1
0.102869 -0.190815 0.2192744 1 0 1
0.1043282 -0.1897653 0.218173 1 0 1
0.1060883 -0.1894183 0.2177049 1 0 1
0.105646 -0.184128 0.212785 1 0 1
0.1127823 -0.195756 0.2230963 1 0 1
0.1228721 -0.2090742 0.2347485 1 0 1
0.1250622 -0.2093807 0.2348554 1 0 1
0.1285891 -0.2124866 0.2374753 1 0 1
0.1247436 -0.2001631 0.2262415 1 0 1
-0.2271659 -0.2123764 0.2568561 1 0 1
-0.2227514 -0.2082177 0.2528002 1 0 1
-0.2201392 -0.2074289 0.2519562 1 0 1
-0.2161514 -0.2039137 0.2485162 1 0 1
-0.2146081 -0.2051422 0.249594 1 0 1
-0.2120364 -0.2043236 0.2487226 1 0 1
-0.2114917 -0.2075897 0.2517382 1 0 1
-0.2148998 -0.2190602 0.2625562 1 0 1
-0.147876 -0.1975856 0.2395039 1 0 1
-0.1469259 -0.2007789 0.2424189 1 0 1
-0.1472542 -0.2082329 0.2493494 1 0 1
-0.1455726 -0.2092998 0.2502545 1 0 1
-0.1453569 -0.2153429 0.2558481 1 0 1
-0.1425953 -0.2128465 0.2533931 1 0 1
-0.1406752 -0.2131906 0.2536143 1 0 1
-0.1397494 -0.2170968 0.2571888 1 0 1
-0.137807 -0.2174336 0.2574013 1 0 1
-0.1352887 -0.2156206 0.2555904 1 0 1
-0.1331674 -0.2152292 0.2551176 1 0 1
-0.1314198 -0.2162635 0.2559852 1 0 1
-0.1289437 -0.2144268 0.2541532 1 0 1
-0.1270175 -0.2147331 0.2543358 1 0 1
-0.1249178 -0.2143161 0.2538384 1 0 1
-0.123161 -0.2153298 0.2546846 1 0 1
-0.1210666 -0.214901 0.2541757 1 0 1
-0.1191391 -0.2151854 0.2543361 1 0 1
-0.1170538 -0.2147443 0.2538153 1 0 1
-0.1149752 -0.2142967 0.2532884 1 0 1
-0.113052 -0.2145641 0.2534318 1 0 1
-0.1108379 -0.2133825 0.2522166 1 0 1
-0.1084973 -0.211471 0.2503178 1 0 1
-0.1067275 -0.2124428 0.2511208 1 0 1
-0.1048155 -0.212687 0.2512416 1 0 1
-0.1026441 -0.2114781 0.2500015 1 0 1
-0.1009888 -0.2131595 0.2514668 1 0 1
-0.09907396 -0.2133878 0.2515712 1 0 1
-0.09739335 -0.2150615 0.2530269 1 0 1
-0.09546892 -0.2152801 0.253121 1 0 1
-0.09365337 -0.2162196 0.2538883 1 0 1
-0.09172338 -0.2164281 0.2539717 1 0 1
-0.08989444 -0.2173582 0.2547285 1 0 1
-0.0880569 -0.2182838 0.2554803 1 0 1
-0.08621076 -0.2192048 0.2562269 1 0 1
-0.08435608 -0.2201213 0.2569683 1 0 1
-0.08249289 -0.221033 0.2577044 1 0 1
-0.08062115 -0.2219401 0.2584352 1 0 1
-0.07850587 -0.2206547 0.2571215 1 0 1
-0.0764057 -0.2193625 0.2558019 1 0 1
-0.07439115 -0.2187935 0.2551564 1 0 1
-0.07238393 -0.2182186 0.2545054 1 0 1
-0.07025874 -0.2161766 0.2524888 1 0 1
-0.06833282 -0.2163199 0.2525066 1 0 1
-0.06651601 -0.2179202 0.2538791 1 0 1
0.03160433 -0.2156632 0.2453072 1 0 1
0.03321097 -0.2140614 0.2437072 1 0 1
0.03556753 -0.2161075 0.245432 1 0 1
0.03731747 -0.215226 0.244488 1 0 1
0.0382529 -0.210691 0.2402177 1 0 1
0.03996547 -0.2098018 0.2392684 1 0 1
0.04082467 -0.2052626 0.2349988 1 0 1
0.0433637 -0.2080098 0.2373577 1 0 1
0.04646245 -0.212934 0.2416923 1 0 1
0.04817002 -0.2120237 0.240722 1 0 1
0.05005292 -0.2118365 0.2404084 1 0 1
0.05212278 -0.2123713 0.2407496 1 0 1
0.05353744 -0.2032528 0.2321901 1 0 1
0.05617173 -0.2059531 0.2344952 1 0 1
0.05986801 -0.2055269 0.2338202 1 0 1
0.06171386 -0.2053059 0.2334749 1 0 1
0.06528047 -0.2108731 0.2383659 1 0 1
0.06671581 -0.2091905 0.2366955 1 0 1
0.06724224 -0.204612 0.2324082 1 0 1
0.06976227 -0.2065384 0.2340011 1 0 1
0.07138114 -0.2055678 0.2329757 1 0 1
0.07111473 -0.1988201 0.2267358 1 0 1
0.07387582 -0.201451 0.2289623 1 0 1
0.07521295 -0.1997491 0.2272789 1 0 1
0.07481135 -0.1930045 0.2210511 1 0 1
0.07658729 -0.1927398 0.2206662 1 0 1
0.08089738 -0.1996584 0.2267489 1 0 1
0.08142088 -0.1957865 0.2231134 1 0 1
0.08608399 -0.2033978 0.2298104 1 0 1
0.08685348 -0.2002351 0.226813 1 0 1
0.08866605 -0.1999379 0.2263927 1 0 1
0.08693263 -0.1903304 0.2176094 1 0 1
0.09035047 -0.1943221 0.2210429 1 0 1
0.09353163 -0.1975865 0.2238193 1 0 1
0.09703264 -0.201553 0.2272218 1 0 1
0.09971368 -0.2033668 0.2286902 1 0 1
0.1006661 -0.2008967 0.2263182 1 0 1
0.1036609 -0.2034079 0.2284082 1 0 1
0.1010014 -0.1923985 0.2183941 1 0 1
0.1018609 -0.1899294 0.2160292 1 0 1
0.09840339 -0.1775253 0.2047833 1 0 1
0.101023 -0.1793186 0.2062349 1 0 1
0.09957994 -0.1718971 0.1994543 1 0 1
-0.2272422 -0.2137362 0.2553809 1 0 1
-0.2242449 -0.2122786 0.253913 1 0 1
-0.2216178 -0.2114896 0.2530774 1 0 1
-0.2193499 -0.2113729 0.2528769 1 0 1
-0.2177737 -0.2126141 0.2539587 1 0 1
-0.2172064 -0.2159042 0.2569736 1 0 1
-0.2130114 -0.2209829 0.2614874 1 0 1
-0.2110419 -0.2215251 0.2619046 1 0 1
-0.2090699 -0.2220618 0.2623161 1 0 1
-0.205509 -0.2191425 0.2594698 1 0 1
-0.1997881 -0.2113699 0.2520519 1 0 1
-0.1975628 -0.2111814 0.2517817 1 0 1
-0.1925882 -0.204748 0.2456306 1 0 1
-0.1919186 -0.2080065 0.248607 1 0 1
-0.1881243 -0.2089633 0.249322 1 0 1
-0.1838959 -0.2038589 0.2444274 1 0 1
-0.186619 -0.2154815 0.2552649 1 0 1
-0.1846841 -0.2159489 0.2556089 1 0 1
-0.1504422 -0.2066702 0.2454568 1 0 1
-0.1487834 -0.207747 0.2463669 1 0 1
-0.1475525 -0.2102453 0.2486059 1 0 1
-0.147156 -0.2155961 0.2535107 1 0 1
-0.1426765 -0.2141609 0.2519673 1 0 1
-0.1409598 -0.2152208 0.2528565 1 0 1
-0.1396325 -0.217709 0.2550789 1 0 1
-0.1376942 -0.2180455 0.2552904 1 0 1
-0.1353711 -0.2169418 0.254157 1 0 1
-0.1332498 -0.2165483 0.2536867 1 0 1
-0.1313188 -0.2168668 0.2538806 1 0 1
-0.1290263 -0.2157413 0.2527272 1 0 1
-0.1269241 -0.2153279 0.2522381 1 0 1
-0.1246561 -0.2141875 0.2510713 1 0 1
-0.1230758 -0.2159242 0.2525854 1 0 1
-0.1211498 -0.2162142 0.2527509 1 0 1
-0.1192225 -0.2164991 0.2529109 1 0 1
-0.1171373 -0.2160556 0.2523927 1 0 1
-0.1149059 -0.2148823 0.2511951 1 0 1
-0.1126889 -0.2137015 0.2499909 1 0 1
-0.1101963 -0.2110641 0.2474325 1 0 1
-0.1077338 -0.2084173 0.2448666 1 0 1
-0.1059877 -0.2093891 0.2456649 1 0 1
-0.1042327 -0.2103567 0.2464584 1 0 1
-0.1022101 -0.2098668 0.2458974 1 0 1
-0.1006965 -0.212279 0.2480307 1 0 1
-0.09903687 -0.2139612 0.2494847 1 0 1
-0.09736071 -0.21564 0.2509342 1 0 1
-0.09544041 -0.2158585 0.2510277 1 0 1
-0.09373904 -0.2175293 0.2524675 1 0 1
-0.09180926 -0.217738 0.2525506 1 0 1
-0.08987863 -0.2179413 0.2526282 1 0 1
-0.08794726 -0.2181394 0.2527004 1 0 1
-0.08620359 -0.219793 0.25412 1 0 1
-0.08435321 -0.2207119 0.2548581 1 0 1
-0.08240796 -0.220895 0.2549143 1 0 1
-0.08054441 -0.2218042 0.2556418 1 0 1
-0.07851538 -0.2212449 0.2550102 1 0 1
-0.076419 -0.2199473 0.2536962 1 0 1
-0.0744791 -0.2201082 0.2537303 1 0 1
-0.07253867 -0.2202636 0.253759 1 0 1
-0.07059769 -0.2204138 0.2537822 1 0 1
-0.06871513 -0.2212919 0.2544771 1 0 1
-0.06698917 -0.2243667 0.2571981 1 0 1
0.03311335 -0.2153581 0.2423011 1 0 1
0.03592854 -0.2196112 0.2460055 1 0 1
0.03894629 -0.2245881 0.25036 1 0 1
0.04168088 -0.2191377 0.2451481 1 0 1
0.04140314 -0.2094561 0.2362669 1 0 1
0.04447437 -0.2144066 0.2405912 1 0 1
0.0472458 -0.2178847 0.2435834 1 0 1
0.05059563 -0.2235456 0.2485394 1 0 1
0.05179588 -0.2204317 0.2455857 1 0 1
0.05409208 -0.2216947 0.2465749 1 0 1
0.05486689 -0.217115 0.2423039 1 0 1
0.05422335 -0.2074314 0.2334449 1 0 1
0.05467591 -0.2021254 0.2285292 1 0 1
0.05649754 -0.2019177 0.2281995 1 0 1
0.06098144 -0.204396 0.2301368 1 0 1
0.06647036 -0.2165268 0.2408779 1 0 1
0.06661545 -0.2104778 0.2352999 1 0 1
0.06736575 -0.206609 0.2316809 1 0 1
0.07102188 -0.2121691 0.236515 1 0 1
0.07289424 -0.2119173 0.2361374 1 0 1
0.0707822 -0.1993474 0.2247304 1 0 1
0.07377657 -0.202713 0.2275943 1 0 1
0.07559779 -0.2024519 0.2272107 1 0 1
0.07495981 -0.1949593 0.2203614 1 0 1
0.07524193 -0.1903613 0.2161046 1 0 1
0.08003759 -0.198752 0.223452 1 0 1
0.08055049 -0.1948683 0.2198338 1 0 1
0.08415563 -0.199629 0.2239314 1 0 1
-0.2255263 -0.2116849 0.2507075 1 0 1
-0.2232564 -0.211579 0.2505218 1 0 1
-0.2209913 -0.2114656 0.2503289 1 0 1
-0.2197727 -0.2133977 0.2520521 1 0 1
-0.2192236 -0.2166998 0.2550572 1 0 1
-0.2179627 -0.218632 0.2567778 1 0 1
-0.21534 -0.2178129 0.2559215 1 0 1
-0.2143915 -0.2204272 0.2582785 1 0 1
-0.2101317 -0.2161457 0.2541823 1 0 1
-0.2065714 -0.2132258 0.2513615 1 0 1
-0.2036883 -0.2116739 0.2498209 1 0 1
-0.2020951 -0.2128814 0.2508606 1 0 1
-0.1979825 -0.2085359 0.2467095 1 0 1
-0.1967096 -0.2104236 0.2483844 1 0 1
-0.1932045 -0.2121049 0.2497748 1 0 1
-0.190995 -0.2118927 0.249486 1 0 1
-0.1896755 -0.213769 0.2511463 1 0 1
-0.1860096 -0.210048 0.2475826 1 0 1
-0.1861226 -0.2154156 0.2524985 1 0 1
-0.1813596 -0.2088686 0.2463004 1 0 1
-0.1803076 -0.211427 0.2485942 1 0 1
-0.1775747 -0.2097668 0.2469546 1 0 1
-0.1762236 -0.2116161 0.2485855 1 0 1
-0.1735133 -0.2099392 0.2469306 1 0 1
-0.1702945 -0.2068405 0.2439522 1 0 1
-0.16659 -0.2023149 0.2396466 1 0 1
-0.164653 -0.2080862 0.2448335 1 0 1
-0.1672582 -0.2212543 0.2569886 1 0 1
-0.1675137 -0.2280575 0.2632175 1 0 1
-0.1623798 -0.2192347 0.254916 1 0 1
-0.1606746 -0.2203464 0.2558518 1 0 1
-0.1566188 -0.2143319 0.2501656 1 0 1
-0.1528606 -0.2090112 0.2451269 1 0 1
-0.1514264 -0.2108108 0.2467023 1 0 1
-0.1515335 -0.2176098 0.2529171 1 0 1
-0.1491634 -0.2165489 0.251834 1 0 1
-0.1463772 -0.214048 0.2494152 1 0 1
-0.1448866 -0.2158361 0.2509753 1 0 1
-0.142343 -0.2140348 0.249206 1 0 1
-0.1402276 -0.2136602 0.2487598 1 0 1
-0.138717 -0.2154352 0.2503054 1 0 1
-0.1367981 -0.2157689 0.2505144 1 0 1
-0.1346861 -0.2153771 0.2500511 1 0 1
-0.1327682 -0.2156994 0.2502488 1 0 1
-0.130849 -0.2160164 0.2504411 1 0 1
-0.1287482 -0.2156061 0.24996 1 0 1
-0.1266538 -0.2151893 0.2494726 1 0 1
-0.1245659 -0.214766 0.2489792 1 0 1
-0.12299 -0.2165076 0.2504869 1 0 1
-0.1209035 -0.2160731 0.2499823 1 0 1
-0.1185019 -0.2141821 0.2481321 1 0 1
-0.1164362 -0.2137336 0.2476147 1 0 1
-0.1142241 -0.2125525 0.246421 1 0 1
-0.1120264 -0.211364 0.2452208 1 0 1
-0.1096981 -0.2094409 0.2433432 1 0 1
-0.1076747 -0.2089649 0.2428009 1 0 1
-0.1057954 -0.2092109 0.2429243 1 0 1
-0.1040486 -0.2101804 0.2437141 1 0 1
-0.1021635 -0.2104165 0.2438272 1 0 1
-0.1007802 -0.213566 0.2466234 1 0 1
-0.09912115 -0.2152538 0.2480713 1 0 1
-0.09744554 -0.2169382 0.2495147 1 0 1
-0.09563945 -0.217888 0.2502807 1 0 1
-0.09382468 -0.2188333 0.2510417 1 0 1
-0.09178895 -0.2183104 0.2504514 1 0 1
-0.08986247 -0.2185136 0.2505285 1 0 1
-0.08793523 -0.2187114 0.2506003 1 0 1
-0.08610161 -0.219637 0.2513402 1 0 1
-0.08425951 -0.220558 0.2520749 1 0 1
-0.08223571 -0.2200068 0.2514569 1 0 1
-0.0803844 -0.2209178 0.2521809 1 0 1
-0.07836717 -0.220355 0.2515518 1 0 1
-0.0762824 -0.2190513 0.2502431 1 0 1
-0.0743545 -0.2192114 0.2502768 1 0 1
-0.07249299 -0.2201017 0.2509792 1 0 1
-0.07049711 -0.2195155 0.250328 1 0 1
-0.06892212 -0.2240764 0.2543909 1 0 1
0.0492601 -0.227992 0.2500341 1 0 1
0.05121378 -0.2278029 0.2497149 1 0 1
0.05511688 -0.2274082 0.2490601 1 0 1
0.05399874 -0.2154886 0.2382665 1 0 1
0.05314668 -0.2050403 0.228795 1 0 1
0.05298281 -0.1975238 0.2219465 1 0 1
0.05558665 -0.2002428 0.2242289 1 0 1
-0.2256005 -0.2130202 0.2492357 1 0 1
-0.2233308 -0.2129124 0.2490521 1 0 1
-0.2214168 -0.2134829 0.2494987 1 0 1
-0.2198476 -0.2147351 0.2505781 1 0 1
-0.2186121 -0.2166721 0.2522928 1 0 1
-0.2170192 -0.2179189 0.2533653 1 0 1
-0.2147438 -0.2177822 0.2531523 1 0 1
-0.2124734 -0.217638 0.252932 1 0 1
-0.2095503 -0.2161019 0.2514198 1 0 1
-0.2066471 -0.2145541 0.2498973 1 0 1
-0.2040851 -0.2136894 0.2490086 1 0 1
-0.2028062 -0.2155963 0.2506903 1 0 1
-0.199313 -0.2126279 0.247851 1 0 1
-0.1980256 -0.2145254 0.2495224 1 0 1
-0.1954955 -0.2136283 0.2486035 1 0 1
-0.1929781 -0.2127222 0.2476761 1 0 1
-0.1901748 -0.2111066 0.246092 1 0 1
-0.1888671 -0.2129858 0.2477438 1 0 1
-0.1857944 -0.210651 0.2454941 1 0 1
-0.1838999 -0.2111156 0.2458355 1 0 1
-0.1820032 -0.2115749 0.2461714 1 0 1
-0.1806644 -0.2134386 0.2478056 1 0 1
-0.1779275 -0.2117721 0.2461746 1 0 1
-0.1765733 -0.213628 0.2477999 1 0 1
-0.1727845 -0.2091149 0.2435388 1 0 1
-0.1698413 -0.2067094 0.2412266 1 0 1
-0.1661436 -0.2021644 0.2369394 1 0 1
-0.163526 -0.2004425 0.2352607 1 0 1
-0.1614363 -0.2001322 0.2348855 1 0 1
-0.1615984 -0.2062203 0.2404141 1 0 1
-0.1612062 -0.2108913 0.2446319 1 0 1
-0.1590729 -0.2105737 0.2442465 1 0 1
-0.1578978 -0.2131056 0.2464879 1 0 1
-0.1552925 -0.2113478 0.244774 1 0 1
-0.1531692 -0.2110115 0.2443703 1 0 1
-0.1515052 -0.2121011 0.24528 1 0 1
-0.1496091 -0.2124699 0.245525 1 0 1
-0.1481491 -0.2142692 0.2470863 1 0 1
-0.146027 -0.2139103 0.2466602 1 0 1
-0.143911 -0.2135447 0.2462277 1 0 1
-0.1418011 -0.2131725 0.2457888 1 0 1
-0.1401044 -0.214235 0.2466692 1 0 1
-0.1381989 -0.2145723 0.2468819 1 0 1
-0.136096 -0.2141822 0.2464256 1 0 1
-0.1341914 -0.2145083 0.2466271 1 0 1
-0.1320973 -0.2141057 0.2461588 1 0 1
-0.130378 -0.2151445 0.2470139 1 0 1
-0.1284693 -0.2154548 0.2471992 1 0 1
-0.1262062 -0.2143092 0.2460482 1 0 1
-0.1243026 -0.2146076 0.246222 1 0 1
-0.1225664 -0.2156272 0.2470566 1 0 1
-0.1201619 -0.2137346 0.2452205 1 0 1
-0.1179403 -0.2125608 0.2440438 1 0 1
-0.1157332 -0.2113796 0.2428606 1 0 1
-0.1135404 -0.2101908 0.2416708 1 0 1
-0.1112129 -0.2082653 0.2398069 1 0 1
-0.1091984 -0.2077912 0.2392719 1 0 1
-0.107332 -0.2080411 0.2393995 1 0 1
-0.1056023 -0.2090167 0.2401903 1 0 1
-0.10373 -0.2092567 0.2403076 1 0 1
-0.1021164 -0.2109553 0.2417576 1 0 1
-0.1006121 -0.2133829 0.2438726 1 0 1
-0.09896136 -0.2150753 0.2453139 1 0 1
-0.09741221 -0.2174975 0.2474204 1 0 1
-0.0957246 -0.2191835 0.2488529 1 0 1
-0.09391022 -0.2201317 0.2496106 1 0 1
-0.09187452 -0.2196064 0.249023 1 0 1
-0.0899483 -0.2198098 0.2490999 1 0 1
-0.0879228 -0.2192726 0.248501 1 0 1
-0.08609353 -0.2202006 0.2492375 1 0 1
-0.08416507 -0.220388 0.2492983 1 0 1
-0.08214919 -0.2198335 0.2486827 1 0 1
-0.08022328 -0.2200098 0.2487324 1 0 1
-0.07813899 -0.2187064 0.2474347 1 0 1
-0.07614478 -0.2181338 0.2468023 1 0 1
-0.07415783 -0.2175552 0.2461644 1 0 1
-0.07237957 -0.2191852 0.2475347 1 0 1
-0.07039548 -0.2185957 0.246886 1 0 1
-0.06889286 -0.2239105 0.2516025 1 0 1
-0.2256741 -0.2143496 0.2477586 1 0 1
-0.2234044 -0.2142399 0.2475771 1 0 1
-0.2214907 -0.2148111 0.248023 1 0 1
-0.2192269 -0.2146875 0.2478278 1 0 1
-0.2176555 -0.2159376 0.2488982 1 0 1
-0.2164142 -0.217876 0.2506017 1 0 1
-0.21381 -0.2170426 0.2497513 1 0 1
-0.2115508 -0.2168933 0.2495307 1 0 1
-0.2089676 -0.2160418 0.2486635 1 0 1
-0.2060717 -0.214485 0.2471474 1 0 1
-0.2035172 -0.2136136 0.2462621 1 0 1
-0.2016108 -0.2141286 0.2466521 1 0 1
-0.199074 -0.2132405 0.2457513 1 0 1
-0.1974807 -0.2144428 0.2467722 1 0 1
-0.1958775 -0.2156419 0.2477892 1 0 1
-0.1933564 -0.2147321 0.2468676 1 0 1
-0.1908481 -0.2138131 0.2459377 1 0 1
-0.188943 -0.2142924 0.2462921 1 0 1
-0.1864529 -0.2133573 0.2453471 1 0 1
-0.184551 -0.2138243 0.2456893 1 0 1
-0.182647 -0.214286 0.2460259 1 0 1
-0.1810211 -0.2154498 0.2470061 1 0 1
-0.1788329 -0.2151935 0.246683 1 0 1
-0.1763776 -0.214221 0.2457029 1 0 1
-0.1733981 -0.2118196 0.2434133 1 0 1
-0.1704469 -0.209406 0.2411132 1 0 1
-0.1680465 -0.2084039 0.2401072 1 0 1
-0.1637928 -0.207801 0.2393784 1 0 1
-0.1624237 -0.209632 0.2409657 1 0 1
-0.1607918 -0.2107461 0.2418956 1 0 1
-0.1589082 -0.2111407 0.2421663 1 0 1
-0.1567847 -0.2108134 0.2417762 1 0 1
-0.1549015 -0.2111968 0.2420358 1 0 1
-0.1530167 -0.211575 0.24229 1 0 1
-0.1511301 -0.211948 0.2425388 1 0 1
-0.1494648 -0.2130353 0.2434398 1 0 1
-0.1477902 -0.214119 0.2443364 1 0 1
-0.1458911 -0.2144777 0.2445701 1 0 1
-0.1439903 -0.2148312 0.2447985 1 0 1
-0.1418805 -0.2144568 0.2443621 1 0 1
-0.1397769 -0.2140757 0.2439195 1 0 1
-0.1378793 -0.214412 0.2441308 1 0 1
-0.1359803 -0.2147431 0.2443368 1 0 1
-0.1336956 -0.2136182 0.2432154 1 0 1
-0.1318014 -0.2139374 0.2434098 1 0 1
-0.1299058 -0.2142513 0.243599 1 0 1
-0.1278284 -0.2138328 0.2431205 1 0 1
-0.1257574 -0.2134078 0.242636 1 0 1
-0.1240384 -0.2144332 0.2434713 1 0 1
-0.1221414 -0.2147255 0.2436386 1 0 1
-0.1199133 -0.2135532 0.2424734 1 0 1
-0.1176995 -0.2123735 0.2413016 1 0 1
-0.1153428 -0.2104553 0.239459 1 0 1
-0.1131616 -0.20926 0.2382737 1 0 1
-0.1109949 -0.2080573 0.2370821 1 0 1
-0.1089882 -0.2075797 0.2365492 1 0 1
-0.1072716 -0.2085619 0.2373412 1 0 1
-0.1055461 -0.2095399 0.2381286 1 0 1
-0.1038119 -0.2105137 0.2389112 1 0 1
-0.1021988 -0.2122178 0.2403551 1 0 1
-0.1006952 -0.2146536 0.2424609 1 0 1
-0.09904512 -0.2163514 0.2438962 1 0 1
-0.09749672 -0.2187818 0.2459937 1 0 1
-0.09580969 -0.2204732 0.24742 1 0 1
-0.09388532 -0.2206876 0.2475075 1 0 1
-0.09185361 -0.2201595 0.2469223 1 0 1
-0.08982892 -0.2196251 0.2463314 1 0 1
-0.08771264 -0.2183467 0.2450672 1 0 1
-0.08580081 -0.2185381 0.2451325 1 0 1
-0.08388825 -0.2187242 0.2451925 1 0 1
-0.08188811 -0.2181658 0.2445791 1 0 1
-0.07981216 -0.216862 0.2432921 1 0 1
-0.07783035 -0.2162912 0.2426676 1 0 1
-0.07593095 -0.2164547 0.2427057 1 0 1
-0.07388856 -0.2151319 0.241402 1 0 1
-0.07206322 -0.2160249 0.2420977 1 0 1
-0.07035623 -0.2183956 0.244125 1 0 1
-0.2253882 -0.2149844 0.2456463 1 0 1
-0.2234774 -0.2155616 0.2460969 1 0 1
-0.221564 -0.2161335 0.246542 1 0 1
-0.2193002 -0.216008 0.246349 1 0 1
-0.2177292 -0.2172612 0.2474157 1 0 1
-0.2161482 -0.2185113 0.2484785 1 0 1
-0.2135477 -0.2176723 0.2476322 1 0 1
-0.2109595 -0.2168238 0.2467772 1 0 1
-0.2083838 -0.2159657 0.2459134 1 0 1
-0.2058206 -0.2150981 0.245041 1 0 1
-0.2032697 -0.2142212 0.2441601 1 0 1
-0.2013673 -0.2147359 0.2445486 1 0 1
-0.1991484 -0.2145437 0.2442919 1 0 1
-0.1972451 -0.2150467 0.2446688 1 0 1
-0.1953395 -0.2155445 0.2450403 1 0 1
-0.1928258 -0.2146282 0.2441224 1 0 1
-0.1909231 -0.2151134 0.2444815 1 0 1
-0.188723 -0.2148871 0.2441919 1 0 1
-0.1862366 -0.2139464 0.2432514 1 0 1
-0.1840509 -0.2137048 0.2429474 1 0 1
-0.1821547 -0.2141652 0.2432821 1 0 1
-0.1808171 -0.2160404 0.2449036 1 0 1
-0.1789092 -0.2164921 0.2452288 1 0 1
-0.1769993 -0.2169385 0.2455487 1 0 1
-0.1745496 -0.2159542 0.244567 1 0 1
-0.1726433 -0.2163883 0.2448747 1 0 1
-0.1694285 -0.2132453 0.2419312 1 0 1
-0.1667648 -0.211519 0.2402758 1 0 1
-0.1643759 -0.2104985 0.2392619 1 0 1
-0.1625 -0.2109032 0.2395422 1 0 1
-0.1606224 -0.2113026 0.2398172 1 0 1
-0.1589852 -0.2124154 0.2407389 1 0 1
-0.1566233 -0.2113666 0.2396987 1 0 1
-0.1549788 -0.2124698 0.2406103 1 0 1
-0.1526326 -0.2114068 0.2395568 1 0 1
-0.150981 -0.2125002 0.2404582 1 0 1
-0.1490968 -0.2128676 0.2407007 1 0 1
-0.1476495 -0.2146759 0.242248 1 0 1
-0.1453237 -0.2135867 0.2411697 1 0 1
-0.1434348 -0.2139385 0.2413962 1 0 1
-0.1413366 -0.2135598 0.2409609 1 0 1
-0.1392446 -0.2131744 0.2405194 1 0 1
-0.1373589 -0.2135091 0.240729 1 0 1
-0.1352755 -0.2131112 0.2402756 1 0 1
-0.1333907 -0.2134347 0.2404742 1 0 1
-0.1315045 -0.213753 0.2406674 1 0 1
-0.1294324 -0.2133368 0.2401964 1 0 1
-0.1273667 -0.2129141 0.2397193 1 0 1
-0.1254842 -0.2132155 0.2398959 1 0 1
-0.1236004 -0.2135116 0.2400672 1 0 1
-0.1215463 -0.2130708 0.2395728 1 0 1
-0.1194988 -0.2126236 0.2390724 1 0 1
-0.1172965 -0.2114372 0.237905 1 0 1
-0.115266 -0.2109767 0.2373925 1 0 1
-0.1129351 -0.209042 0.2355508 1 0 1
-0.1110753 -0.2093023 0.2356879 1 0 1
-0.1090687 -0.2088225 0.2351576 1 0 1
-0.1073525 -0.2098075 0.2359464 1 0 1
-0.1056274 -0.2107884 0.2367305 1 0 1
-0.1037595 -0.2110285 0.2368469 1 0 1
-0.1020209 -0.2120005 0.2376212 1 0 1
-0.1005258 -0.2144434 0.2397176 1 0 1
-0.09876183 -0.2154079 0.2404826 1 0 1
-0.09722592 -0.217845 0.2425705 1 0 1
-0.09555117 -0.2195405 0.2439901 1 0 1
-0.09363879 -0.2197539 0.2440767 1 0 1
-0.09172558 -0.2199619 0.2441581 1 0 1
-0.08981158 -0.2201645 0.244234 1 0 1
-0.08769911 -0.2188807 0.2429752 1 0 1
-0.0856965 -0.218331 0.2423754 1 0 1
-0.083792 -0.2185165 0.2424348 1 0 1
-0.08179981 -0.2179551 0.241824 1 0 1
-0.07981472 -0.2173875 0.2412075 1 0 1
-0.07783693 -0.216814 0.2405856 1 0 1
-0.0759417 -0.2169774 0.2406234 1 0 1
-0.07404587 -0.2171354 0.240656 1 0 1
-0.07201464 -0.2158013 0.2393524 1 0 1
-0.2243836 -0.2142257 0.2422801 1 0 1
-0.2228393 -0.2154925 0.2433553 1 0 1
-0.221285 -0.2167564 0.2444269 1 0 1
-0.2190251 -0.2166279 0.2442351 1 0 1
-0.2171141 -0.2171876 0.2446668 1 0 1
-0.215541 -0.2184388 0.2457244 1 0 1
-0.2126112 -0.2168953 0.2442493 1 0 1
-0.2100342 -0.2160392 0.2433968 1 0 1
-0.2077988 -0.2158734 0.2431696 1 0 1
-0.2055684 -0.2157004 0.2429353 1 0 1
-0.2033431 -0.2155199 0.242694 1 0 1
-0.201759 -0.2167381 0.2437179 1 0 1
-0.1995365 -0.216545 0.2434642 1 0 1
-0.1976297 -0.2170497 0.2438412 1 0 1
-0.1957206 -0.217549 0.2442127 1 0 1
-0.1932032 -0.2166291 0.2433007 1 0 1
-0.1909978 -0.2164079 0.2430201 1 0 1
-0.1885021 -0.2154708 0.2420923 1 0 1
-0.1860195 -0.2145246 0.2411562 1 0 1
-0.1841256 -0.2149908 0.2414957 1 0 1
-0.1819456 -0.2147401 0.2411873 1 0 1
-0.1800514 -0.2151949 0.2415154 1 0 1
-0.1784318 -0.2163579 0.2424819 1 0 1
-0.1762569 -0.2160887 0.2421554 1 0 1
-0.1743566 -0.2165277 0.2424673 1 0 1
-0.1721891 -0.2162453 0.2421281 1 0 1
-0.1697658 -0.2152391 0.2411361 1 0 1
-0.1670981 -0.2135064 0.2394895 1 0 1
-0.1649591 -0.2132006 0.2391289 1 0 1
-0.1628259 -0.212888 0.2387618 1 0 1
-0.1606985 -0.2125685 0.2383882 1 0 1
-0.1585769 -0.2122422 0.2380082 1 0 1
-0.1564612 -0.2119091 0.2376219 1 0 1
-0.154821 -0.2130144 0.2385295 1 0 1
-0.1527095 -0.2126693 0.2381315 1 0 1
-0.1508311 -0.2130416 0.2383783 1 0 1
-0.1487278 -0.2126838 0.2379681 1 0 1
-0.1470694 -0.2137706 0.2388561 1 0 1
-0.144755 -0.2126746 0.2377817 1 0 1
-0.1426662 -0.2122975 0.2373532 1 0 1
-0.1407914 -0.2126416 0.2375722 1 0 1
-0.1387111 -0.2122519 0.2371318 1 0 1
-0.136637 -0.2118558 0.2366853 1 0 1
-0.1343728 -0.2107232 0.2355779 1 0 1
-0.1325076 -0.2110437 0.2357739 1 0 1
-0.130641 -0.2113591 0.2359648 1 0 1
-0.1285883 -0.2109375 0.2354944 1 0 1
-0.1265421 -0.2105095 0.235018 1 0 1
-0.1250331 -0.2122743 0.2365058 1 0 1
-0.1233343 -0.2133025 0.2373327 1 0 1
-0.1211189 -0.212124 0.2361827 1 0 1
-0.1194137 -0.2131425 0.2369994 1 0 1
-0.1172152 -0.2119507 0.2358372 1 0 1
-0.1150311 -0.2107514 0.2346686 1 0 1
-0.1130151 -0.2102811 0.2341521 1 0 1
-0.1111555 -0.2105418 0.2342888 1 0 1
-0.109149 -0.2100596 0.2337611 1 0 1
-0.1074332 -0.2110475 0.2345467 1 0 1
-0.1057086 -0.2120313 0.2353275 1 0 1
-0.103841 -0.2122718 0.2354436 1 0 1
-0.1021027 -0.2132467 0.2362147 1 0 1
-0.1004821 -0.2149575 0.2376414 1 0 1
-0.09872238 -0.2159243 0.2384031 1 0 1
-0.09719113 -0.218369 0.2404816 1 0 1
-0.09552093 -0.2200696 0.2418949 1 0 1
-0.09361271 -0.2202827 0.2419811 1 0 1
-0.0915968 -0.2197482 0.2414005 1 0 1
-0.08969088 -0.2199502 0.2414759 1 0 1
-0.08758616 -0.2186607 0.2402225 1 0 1
-0.08559147 -0.2181078 0.239625 1 0 1
-0.0836039 -0.2175488 0.2390221 1 0 1
-0.08162351 -0.2169839 0.2384135 1 0 1
-0.07965027 -0.2164128 0.2377994 1 0 1
-0.0776843 -0.2158359 0.23718 1 0 1
-0.0758766 -0.2167438 0.2378797 1 0 1
-0.07384577 -0.2154099 0.2365871 1 0 1
-0.07183009 -0.2140695 0.235289 1 0 1
-0.07002079 -0.2149617 0.235973 1 0 1
-0.2255316 -0.2176087 0.2426715 1 0 1
-0.223266 -0.2174924 0.2424955 1 0 1
-0.2213567 -0.2180644 0.2429383 1 0 1
-0.2187491 -0.217237 0.2421218 1 0 1
-0.2161536 -0.2163998 0.2412966 1 0 1
-0.214592 -0.2176508 0.2423481 1 0 1
-0.2126836 -0.2181984 0.2427664 1 0 1
-0.2097735 -0.2166364 0.2412889 1 0 1
-0.2082007 -0.2178726 0.2423249 1 0 1
-0.2059668 -0.2176986 0.2420935 1 0 1
-0.2040598 -0.2182218 0.2424877 1 0 1
-0.2018323 -0.2180341 0.2422432 1 0 1
-0.1999243 -0.2185456 0.2426256 1 0 1
-0.198014 -0.2190518 0.2430027 1 0 1
-0.1957945 -0.2188442 0.2427388 1 0 1
-0.193277 -0.2179198 0.241832 1 0 1
-0.1910717 -0.2176967 0.2415536 1 0 1
-0.1882805 -0.2160436 0.2399933 1 0 1
-0.1858016 -0.2150919 0.2390618 1 0 1
-0.1839118 -0.2155577 0.2394 1 0 1
-0.1823044 -0.2167325 0.2403724 1 0 1
-0.180126 -0.2164736 0.2400603 1 0 1
-0.1785069 -0.2176397 0.2410233 1 0 1
-0.176605 -0.2180853 0.2413406 1 0 1
-0.1744321 -0.217808 0.2410104 1 0 1
-0.1722647 -0.2175236 0.2406736 1 0 1
-0.1695798 -0.2157932 0.2390435 1 0 1
-0.1674313 -0.2154932 0.2386923 1 0 1
-0.1650346 -0.2144651 0.2376902 1 0 1
-0.1629015 -0.2141503 0.2373254 1 0 1
-0.1605279 -0.2131059 0.2363086 1 0 1
-0.1586528 -0.2135004 0.2365767 1 0 1
-0.1560597 -0.2117163 0.2348992 1 0 1
-0.1546624 -0.2135483 0.2364496 1 0 1
