ply
format ascii 1.0
Comment Generated by Floating Hands
element vertex 1286
property double x
property double y
property double z
property uchar red
property uchar green
property uchar blue
end_header
0.09413096 0.07654119 0.1723432 1 0 1
0.09571506 0.07660151 0.1727888 1 0 1
0.09808559 0.0762688 0.1750253 1 0 1
0.100475 0.0759436 0.1772496 1 0 1
0.1032811 0.07542887 0.1803578 1 0 1
0.1065138 0.07472698 0.1843455 1 0 1
0.1101838 0.07384048 0.1892087 1 0 1
0.1143012 0.07277193 0.1949427 1 0 1
0.1188761 0.0715239 0.2015433 1 0 1
0.1218442 0.07106467 0.2045603 1 0 1
0.1235823 0.07119212 0.2048984 1 0 1
0.1249032 0.07151591 0.2043428 1 0 1
0.1245207 0.0726053 0.2002436 1 0 1
0.1245372 0.07350136 0.1970349 1 0 1
0.124963 0.07420649 0.1947126 1 0 1
0.1249372 0.07509932 0.1915113 1 0 1
0.1248887 0.07598988 0.1883148 1 0 1
0.1257019 0.0765058 0.1868776 1 0 1
0.126506 0.07702298 0.1854392 1 0 1
0.127301 0.07754147 0.1839995 1 0 1
0.1289916 0.07769413 0.1843041 1 0 1
0.1302308 0.07803429 0.1837302 1 0 1
0.1319267 0.07819591 0.1840216 1 0 1
0.1336268 0.0783624 0.1843056 1 0 1
0.1348653 0.07871365 0.1837157 1 0 1
-0.08582601 0.1027503 0.05461806 1 0 1
-0.08602742 0.1017691 0.05856777 1 0 1
-0.085503 0.1014191 0.0596727 1 0 1
-0.08451401 0.101494 0.05887619 1 0 1
-0.08263337 0.1024238 0.05427198 1 0 1
0.07805581 0.06017848 0.2225625 1 0 1
0.07854683 0.06105132 0.219378 1 0 1
0.07993191 0.0612681 0.2189751 1 0 1
0.07945891 0.06279653 0.2130139 1 0 1
0.07894098 0.06432126 0.207061 1 0 1
0.07806161 0.06605898 0.2001932 1 0 1
0.07873122 0.06670999 0.1979478 1 0 1
0.07841348 0.06800871 0.1929389 1 0 1
0.07871292 0.06887431 0.189777 1 0 1
0.07932014 0.06952463 0.1875366 1 0 1
0.07991136 0.07017548 0.1852964 1 0 1
0.08048664 0.07082672 0.1830567 1 0 1
0.08104596 0.07147831 0.1808174 1 0 1
0.08227959 0.0717065 0.1804073 1 0 1
0.08281409 0.07236009 0.1781667 1 0 1
0.08403715 0.07259279 0.1777508 1 0 1
0.08454688 0.0732481 0.1755092 1 0 1
0.08575935 0.07348523 0.1750875 1 0 1
0.08660715 0.07393368 0.1737534 1 0 1
0.08817887 0.07396811 0.1742316 1 0 1
0.08864608 0.074628 0.1719862 1 0 1
0.09021767 0.07466891 0.172455 1 0 1
0.09104053 0.07512528 0.1711109 1 0 1
0.09223498 0.07537828 0.1706673 1 0 1
0.09304363 0.07583815 0.1693191 1 0 1
0.09461818 0.07589276 0.1697678 1 0 1
0.09580694 0.07615435 0.169312 1 0 1
0.09738813 0.07621697 0.1697488 1 0 1
0.09937218 0.07608303 0.1710739 1 0 1
0.1017694 0.07575496 0.1732832 1 0 1
0.1041855 0.0754345 0.1754802 1 0 1
0.1074368 0.07472465 0.1794468 1 0 1
0.112779 0.0730371 0.1878432 1 0 1
0.1165274 0.07215677 0.1926543 1 0 1
0.1198962 0.0714856 0.1965572 1 0 1
0.1224532 0.07121652 0.1986708 1 0 1
0.1229011 0.07192776 0.1963519 1 0 1
0.123333 0.07263876 0.1940345 1 0 1
0.1237489 0.07334945 0.1917186 1 0 1
0.1245845 0.07386794 0.1902837 1 0 1
0.1245327 0.07476959 0.1870916 1 0 1
0.1253432 0.07528894 0.1856571 1 0 1
0.1256987 0.07599872 0.1833464 1 0 1
0.1264875 0.07651968 0.181911 1 0 1
0.1272671 0.07704184 0.1804744 1 0 1
0.1284937 0.07737888 0.1799069 1 0 1
0.1301772 0.07753343 0.1802039 1 0 1
0.1309395 0.07806189 0.1787593 1 0 1
0.1326248 0.07822447 0.1790447 1 0 1
-0.08586805 0.1019794 0.0544348 1 0 1
-0.08630569 0.1007679 0.05932847 1 0 1
-0.08577735 0.1004131 0.06043306 1 0 1
-0.08524094 0.1000588 0.06153651 1 0 1
-0.08289826 0.101439 0.05503889 1 0 1
-0.0825963 0.1008734 0.05708498 1 0 1
-0.08045015 0.1012705 0.05451323 1 0 1
0.08403894 0.05555666 0.23569 1 0 1
0.08396026 0.05689643 0.2306398 1 0 1
0.08260561 0.0591215 0.2218969 1 0 1
0.08087124 0.06156079 0.2122448 1 0 1
0.07969662 0.06355011 0.2044548 1 0 1
0.07942375 0.06487262 0.1994419 1 0 1
0.07911333 0.06619214 0.1944356 1 0 1
0.07909285 0.06728968 0.1903552 1 0 1
0.08003525 0.06773045 0.1890337 1 0 1
0.08096879 0.06817294 0.1877101 1 0 1
0.08155522 0.06883416 0.1854689 1 0 1
0.08212575 0.06949578 0.1832281 1 0 1
0.08302555 0.06994195 0.1819012 1 0 1
0.08356765 0.07060486 0.1796604 1 0 1
0.08409377 0.07126801 0.1774201 1 0 1
0.08460392 0.07193138 0.1751806 1 0 1
0.0858172 0.07216887 0.1747589 1 0 1
0.08702866 0.07240931 0.1743331 1 0 1
0.08823831 0.07265256 0.1739033 1 0 1
0.08870597 0.07332047 0.1716599 1 0 1
0.09027856 0.07335797 0.1721279 1 0 1
0.09072492 0.07402799 0.1698828 1 0 1
0.09153605 0.07448924 0.1685396 1 0 1
0.0931065 0.07453607 0.1689942 1 0 1
0.09468205 0.07458729 0.1694422 1 0 1
0.09587159 0.07484923 0.1689865 1 0 1
0.09705915 0.07511404 0.1685268 1 0 1
0.09904089 0.07497209 0.1698515 1 0 1
0.1002315 0.0752442 0.1693811 1 0 1
0.1018251 0.07531599 0.1697981 1 0 1
0.1042405 0.07498748 0.1719883 1 0 1
0.1083222 0.07386035 0.1777206 1 0 1
0.1120348 0.0729485 0.1825418 1 0 1
0.1162053 0.07184967 0.1882275 1 0 1
0.1199994 0.07096482 0.1930044 1 0 1
0.1217042 0.07108439 0.193345 1 0 1
0.1225553 0.07160355 0.1919155 1 0 1
0.1229648 0.07232059 0.1896047 1 0 1
0.1233583 0.07303728 0.1872954 1 0 1
0.1228572 0.07414299 0.1832339 1 0 1
0.1236547 0.07466306 0.1818065 1 0 1
0.123997 0.07537739 0.1795041 1 0 1
0.1247728 0.07589901 0.1780759 1 0 1
0.1255396 0.07642185 0.1766467 1 0 1
0.1267535 0.07675567 0.1760857 1 0 1
0.1284246 0.07690325 0.1763882 1 0 1
0.1296369 0.07724394 0.1758173 1 0 1
0.1317796 0.07721301 0.1769713 1 0 1
-0.08662922 0.1005559 0.05708671 1 0 1
-0.08611237 0.1001973 0.05819049 1 0 1
-0.08558744 0.09983906 0.05929318 1 0 1
-0.08505448 0.09948133 0.0603948 1 0 1
-0.08406348 0.09956519 0.0595971 1 0 1
-0.08307917 0.09965211 0.05879542 1 0 1
-0.08210156 0.09974212 0.05798971 1 0 1
-0.0815585 0.09939016 0.05908242 1 0 1
-0.0807972 0.09926185 0.05922204 1 0 1
0.08606366 0.05514569 0.2316782 1 0 1
0.08280215 0.05875608 0.2174113 1 0 1
0.08101515 0.06122919 0.2077797 1 0 1
0.08011593 0.06302162 0.2009265 1 0 1
0.07981282 0.06436191 0.195923 1 0 1
0.07914447 0.06592196 0.190008 1 0 1
0.08041876 0.06614475 0.1896045 1 0 1
0.08135656 0.06659205 0.1882809 1 0 1
0.08160874 0.06748278 0.1851259 1 0 1
0.08217975 0.06815244 0.1828871 1 0 1
0.08308025 0.06860291 0.1815613 1 0 1
0.08327378 0.06949268 0.1784113 1 0 1
0.08414941 0.06994498 0.1770842 1 0 1
0.08466006 0.07061635 0.1748468 1 0 1
0.08587409 0.07085427 0.1744252 1 0 1
0.08672315 0.07131115 0.1730933 1 0 1
0.08793008 0.07155411 0.1726648 1 0 1
0.08839466 0.07222936 0.1704247 1 0 1
0.08996467 0.07226265 0.1708932 1 0 1
0.09040795 0.07294 0.1686513 1 0 1
0.09159693 0.07319224 0.1682105 1 0 1
0.09278409 0.07344738 0.1677657 1 0 1
0.09435712 0.0734944 0.1682141 1 0 1
0.09554391 0.07375597 0.16776 1 0 1
0.09672881 0.07402043 0.1673018 1 0 1
0.09830996 0.07407913 0.1677328 1 0 1
0.09989615 0.07414225 0.1681571 1 0 1
0.1010821 0.07441689 0.1676842 1 0 1
0.1026746 0.0744882 0.1680962 1 0 1
0.1059205 0.07374237 0.1720522 1 0 1
0.1083677 0.07341683 0.1742175 1 0 1
0.1116714 0.07269178 0.1781398 1 0 1
0.1154298 0.07177522 0.1829269 1 0 1
0.1179496 0.07147797 0.1850467 1 0 1
0.1204878 0.07118899 0.1871534 1 0 1
0.1213133 0.07170946 0.1857311 1 0 1
0.1216936 0.07243079 0.1834299 1 0 1
0.1216183 0.07335013 0.1802544 1 0 1
0.1224062 0.07387184 0.1788328 1 0 1
0.1227387 0.07459158 0.176537 1 0 1
0.123505 0.07511476 0.1751146 1 0 1
0.1247152 0.07544423 0.1745611 1 0 1
0.1263796 0.07558275 0.1748717 1 0 1
0.1285082 0.075533 0.1760419 1 0 1
0.1301847 0.07568214 0.1763363 1 0 1
0.1318654 0.07583625 0.1766234 1 0 1
-0.08643206 0.09999727 0.05594938 1 0 1
-0.08615487 0.09941293 0.05799714 1 0 1
-0.08516464 0.09949677 0.05720541 1 0 1
-0.08532536 0.09846511 0.06114659 1 0 1
-0.08342933 0.0994494 0.05655789 1 0 1
-0.08289842 0.0990918 0.05765247 1 0 1
-0.08214168 0.09896033 0.05779639 1 0 1
-0.08138424 0.09883058 0.0579377 1 0 1
-0.08041579 0.09892957 0.05712555 1 0 1
0.08018769 0.06274536 0.1964827 1 0 1
0.0801785 0.06387618 0.192407 1 0 1
0.08113301 0.06432718 0.1910842 1 0 1
0.08207861 0.06477994 0.1897594 1 0 1
0.08233831 0.0656838 0.186605 1 0 1
0.08257487 0.06658681 0.1834535 1 0 1
0.0827883 0.06748889 0.1803047 1 0 1
0.08262942 0.06861259 0.1762488 1 0 1
0.0834986 0.06906773 0.1749253 1 0 1
0.08435892 0.06952443 0.1736001 1 0 1
0.08521036 0.06998263 0.1722733 1 0 1
0.08641636 0.07022235 0.1718503 1 0 1
0.0879874 0.07024574 0.1723272 1 0 1
0.08845245 0.07092901 0.1700892 1 0 1
0.08964942 0.07117668 0.1696553 1 0 1
0.09046711 0.07164427 0.1683171 1 0 1
0.09165689 0.07189693 0.1678763 1 0 1
0.0928448 0.07215247 0.1674317 1 0 1
0.09441876 0.07219606 0.1678793 1 0 1
0.09560635 0.07245807 0.1674252 1 0 1
0.09679198 0.07272291 0.1669672 1 0 1
0.09837413 0.07277824 0.1673973 1 0 1
0.09915744 0.07326131 0.166039 1 0 1
0.1003372 0.07353473 0.165569 1 0 1
0.1015149 0.07381108 0.165095 1 0 1
0.1039275 0.07346261 0.167277 1 0 1
0.1055274 0.07353872 0.167676 1 0 1
0.1083896 0.07299679 0.1707198 1 0 1
0.1108546 0.07267118 0.1728655 1 0 1
0.1141902 0.07194193 0.1767604 1 0 1
0.116699 0.07163425 0.1788775 1 0 1
0.119226 0.07133479 0.1809817 1 0 1
0.1204623 0.07165328 0.1804432 1 0 1
0.1208167 0.07237955 0.1781504 1 0 1
0.1215984 0.07290377 0.1767329 1 0 1
0.1219244 0.07362977 0.1744423 1 0 1
0.1231345 0.07395583 0.1738947 1 0 1
0.1238888 0.07448359 0.172474 1 0 1
0.1255475 0.07461694 0.172787 1 0 1
0.1272105 0.07475508 0.1730927 1 0 1
0.128878 0.07489817 0.1733912 1 0 1
0.1310164 0.07485123 0.1745449 1 0 1
-0.08722396 0.09936351 0.05559672 1 0 1
-0.08671472 0.09899638 0.05669922 1 0 1
-0.0845083 0.09939763 0.05417258 1 0 1
-0.08422231 0.09880755 0.05621466 1 0 1
0.08118386 0.06295565 0.1907244 1 0 1
0.08246519 0.06318344 0.1903146 1 0 1
0.08272888 0.0640998 0.1871622 1 0 1
0.08296935 0.06501529 0.1840126 1 0 1
0.08284089 0.06615706 0.1799554 1 0 1
0.08268221 0.06729645 0.1759036 1 0 1
0.08319908 0.06798159 0.1736732 1 0 1
0.08405648 0.06844182 0.1723503 1 0 1
0.08490505 0.06890352 0.1710259 1 0 1
0.08610826 0.06914297 0.1706042 1 0 1
0.08767667 0.0691622 0.1710814 1 0 1
0.08813865 0.06985278 0.1688468 1 0 1
0.08970702 0.06987847 0.1693148 1 0 1
0.09052531 0.0703503 0.1679777 1 0 1
0.09133471 0.0708235 0.1666392 1 0 1
0.09290449 0.07085926 0.1670926 1 0 1
0.09447942 0.07089945 0.1675393 1 0 1
0.09566779 0.07116185 0.1670854 1 0 1
0.0968542 0.07142716 0.1666275 1 0 1
0.09803866 0.07169529 0.1661656 1 0 1
0.09881902 0.0721818 0.1648098 1 0 1
0.09999607 0.07245487 0.1643413 1 0 1
0.1011711 0.07273085 0.1638688 1 0 1
0.1031691 0.07258358 0.1651637 1 0 1
0.104347 0.0728669 0.1646805 1 0 1
0.1067811 0.07251903 0.1668418 1 0 1
0.1083881 0.07260013 0.1672277 1 0 1
0.1117048 0.07184716 0.1711264 1 0 1
0.1141944 0.07152339 0.1732496 1 0 1
0.1171355 0.07099991 0.1762368 1 0 1
0.1192285 0.07090043 0.177457 1 0 1
0.1204531 0.07121982 0.176919 1 0 1
0.1207886 0.07195269 0.1746317 1 0 1
0.1215549 0.07248062 0.1732173 1 0 1
0.1218621 0.07321315 0.1709325 1 0 1
0.1230604 0.07353991 0.1703855 1 0 1
0.1247133 0.07366817 0.1707008 1 0 1
0.1263706 0.07380117 0.171009 1 0 1
0.1280323 0.07393912 0.1713098 1 0 1
0.1301653 0.07388318 0.172465 1 0 1
-0.09078685 0.09789331 0.05961014 1 0 1
-0.08876432 0.09887848 0.05507564 1 0 1
-0.08727305 0.09941678 0.05241384 1 0 1
-0.08726697 0.09858941 0.0553995 1 0 1
0.08218068 0.06204705 0.1890366 1 0 1
0.08244117 0.06297458 0.1858886 1 0 1
0.08302079 0.0636696 0.1836539 1 0 1
0.08289254 0.06482697 0.1796008 1 0 1
0.08308355 0.06575167 0.1764613 1 0 1
0.08360446 0.0664456 0.1742319 1 0 1
0.08446605 0.06691062 0.172909 1 0 1
0.08531873 0.06737721 0.1715844 1 0 1
0.08616254 0.06784531 0.1702583 1 0 1
0.08736473 0.06808799 0.1698327 1 0 1
0.08819435 0.06855969 0.1685022 1 0 1
0.08938933 0.06880739 0.1680698 1 0 1
0.09020469 0.06928265 0.1667352 1 0 1
0.09139249 0.06953537 0.166296 1 0 1
0.09257837 0.06979093 0.1658529 1 0 1
0.09453906 0.06960454 0.1671943 1 0 1
0.0957282 0.06986737 0.1667406 1 0 1
0.09691536 0.07013309 0.1662828 1 0 1
0.09849939 0.07018163 0.1667112 1 0 1
0.09928387 0.07067313 0.1653553 1 0 1
0.1000594 0.07116593 0.163998 1 0 1
0.1008259 0.07165994 0.1626396 1 0 1
0.1028216 0.07150467 0.1639341 1 0 1
0.1039968 0.0717876 0.1634524 1 0 1
0.1060092 0.07164312 0.1647304 1 0 1
0.1071871 0.07193344 0.1642379 1 0 1
0.1096425 0.07158636 0.1663783 1 0 1
0.1116863 0.07145994 0.1676284 1 0 1
0.1146084 0.07091647 0.1706207 1 0 1
0.1171189 0.0705938 0.1727224 1 0 1
0.1187673 0.07069927 0.1730651 1 0 1
0.1195332 0.07122759 0.1716576 1 0 1
0.1202899 0.07175709 0.170249 1 0 1
0.1214879 0.07208052 0.1697079 1 0 1
0.1226836 0.0724069 0.1691627 1 0 1
0.1243342 0.0725309 0.1694788 1 0 1
0.1264496 0.07245537 0.1706515 1 0 1
0.1276484 0.07279345 0.1700894 1 0 1
0.1297793 0.07272957 0.1712444 1 0 1
-0.09469914 0.09704258 0.06150821 1 0 1
-0.09339268 0.09733813 0.0598177 1 0 1
-0.09131241 0.0983248 0.0553089 1 0 1
-0.08879056 0.0989442 0.05189295 1 0 1
0.08290098 0.06020969 0.1904909 1 0 1
0.08249111 0.0616227 0.1855224 1 0 1
0.08341379 0.06209019 0.1841993 1 0 1
0.08328934 0.06326388 0.1801495 1 0 1
0.08348421 0.06420103 0.177012 1 0 1
0.08365595 0.0651371 0.1738776 1 0 1
0.08451815 0.06560631 0.1725558 1 0 1
0.08537147 0.06607715 0.1712323 1 0 1
0.0862159 0.06654939 0.1699074 1 0 1
0.08741883 0.06679245 0.1694819 1 0 1
0.08861996 0.0670384 0.1690523 1 0 1
0.0894448 0.06751646 0.1677203 1 0 1
0.09063873 0.06776743 0.1672839 1 0 1
0.09183078 0.06802127 0.1668437 1 0 1
0.09263596 0.06850497 0.1655048 1 0 1
0.09420922 0.06853762 0.165951 1 0 1
0.09539559 0.06880008 0.1654987 1 0 1
0.09658003 0.06906538 0.1650425 1 0 1
0.09776253 0.06933364 0.1645822 1 0 1
0.09894306 0.06960469 0.164118 1 0 1
0.09971566 0.07010089 0.1627633 1 0 1
0.1008887 0.07037689 0.1622925 1 0 1
0.1024727 0.07043514 0.1627014 1 0 1
0.1032288 0.07093745 0.1613391 1 0 1
0.1052354 0.07078414 0.1626181 1 0 1
0.1064072 0.07107322 0.1621286 1 0 1
0.1084303 0.07093072 0.1633911 1 0 1
0.110465 0.07079457 0.1646437 1 0 1
0.113812 0.07001833 0.1685114 1 0 1
0.11588 0.06989761 0.1697398 1 0 1
0.1184 0.06956975 0.1718302 1 0 1
0.1196067 0.06988865 0.1712959 1 0 1
0.1208112 0.07021049 0.1707576 1 0 1
0.1211122 0.07095732 0.1684802 1 0 1
0.1218514 0.07149338 0.1670709 1 0 1
0.1234961 0.07161226 0.1673892 1 0 1
0.1251453 0.07173592 0.1677005 1 0 1
0.1267988 0.07186449 0.1680045 1 0 1
0.1284567 0.07199793 0.1683013 1 0 1
-0.09231634 0.09832184 0.05288596 1 0 1
-0.0915747 0.09816785 0.05306058 1 0 1
0.09234375 0.05210266 0.2156164 1 0 1
0.08830445 0.05619298 0.2006149 1 0 1
0.08654734 0.05859037 0.1920054 1 0 1
0.08507033 0.06074029 0.1843199 1 0 1
0.0845838 0.06216856 0.1793675 1 0 1
0.08441323 0.06335572 0.1753279 1 0 1
0.08492623 0.06406717 0.1731011 1 0 1
0.08542322 0.06477873 0.1708752 1 0 1
0.08663228 0.06502 0.1704526 1 0 1
0.08747196 0.06549864 0.169126 1 0 1
0.08867384 0.06574495 0.1686966 1 0 1
0.08987392 0.06599421 0.1682631 1 0 1
0.09069398 0.06647862 0.1669295 1 0 1
0.0915051 0.06696439 0.1655945 1 0 1
0.09269254 0.06722075 0.1651516 1 0 1
0.09387807 0.06748001 0.1647048 1 0 1
0.09506167 0.06774212 0.164254 1 0 1
0.09663902 0.06777862 0.1646887 1 0 1
0.09742311 0.06827492 0.1633404 1 0 1
0.09860089 0.06854562 0.1628777 1 0 1
0.09937058 0.06904524 0.1615256 1 0 1
0.1005409 0.06932084 0.1610564 1 0 1
0.1017093 0.06959935 0.1605832 1 0 1
0.1032921 0.06965705 0.1609873 1 0 1
0.1048798 0.06971933 0.1613846 1 0 1
0.1060489 0.07000802 0.1608967 1 0 1
0.1076428 0.07007857 0.1612819 1 0 1
0.1092415 0.07015373 0.1616601 1 0 1
0.1117124 0.06979497 0.1637793 1 0 1
0.1142017 0.06944437 0.1658857 1 0 1
0.1171499 0.06888457 0.1688501 1 0 1
0.1187912 0.06898469 0.16919 1 0 1
0.1199896 0.06930524 0.1686549 1 0 1
0.120735 0.06984352 0.1672494 1 0 1
0.1214713 0.07038288 0.1658428 1 0 1
0.122656 0.07071045 0.1652986 1 0 1
0.1242994 0.07082897 0.1656122 1 0 1
0.1254829 0.07116342 0.1650584 1 0 1
0.1271317 0.07129078 0.1653591 1 0 1
0.1066127 0.03886208 0.2584582 1 0 1
0.1058206 0.04085101 0.2515937 1 0 1
0.1002273 0.04624752 0.2320202 1 0 1
0.09448146 0.05162008 0.2124906 1 0 1
0.09031543 0.05575576 0.1975368 1 0 1
0.08778293 0.05866436 0.1871418 1 0 1
0.08658411 0.06059657 0.1803842 1 0 1
0.08640483 0.06180096 0.1763472 1 0 1
0.08655589 0.06276297 0.1732172 1 0 1
0.087048 0.06348479 0.1709907 1 0 1
0.08752415 0.0642066 0.1687651 1 0 1
0.08872677 0.06445333 0.1683358 1 0 1
0.08992756 0.06470292 0.1679025 1 0 1
0.09074821 0.06519156 0.16657 1 0 1
0.09155997 0.06568152 0.1652362 1 0 1
0.09236277 0.06617282 0.163901 1 0 1
0.09354557 0.06643175 0.1634557 1 0 1
0.09472641 0.06669351 0.1630063 1 0 1
0.09630116 0.06672588 0.1634414 1 0 1
0.09748165 0.06699409 0.1629828 1 0 1
0.09866015 0.06726523 0.1625203 1 0 1
0.0994304 0.06776903 0.1611694 1 0 1
0.1010113 0.06781611 0.1615833 1 0 1
0.1021838 0.06809584 0.1611089 1 0 1
0.1033543 0.0683784 0.1606305 1 0 1
0.1049429 0.06843735 0.1610269 1 0 1
0.1061128 0.06872649 0.1605392 1 0 1
0.1072806 0.06901851 0.1600476 1 0 1
0.1084462 0.0693134 0.1595521 1 0 1
0.1104777 0.0691651 0.1607984 1 0 1
0.1125206 0.06902318 0.1620349 1 0 1
0.1150159 0.06866641 0.1641313 1 0 1
0.1170853 0.06853835 0.1653463 1 0 1
0.1191661 0.06841689 0.1665513 1 0 1
0.1203562 0.06873905 0.1660154 1 0 1
0.1206352 0.06949939 0.1637478 1 0 1
0.1227295 0.06939224 0.1649315 1 0 1
0.1239127 0.06972328 0.1643835 1 0 1
0.1255581 0.06984248 0.1646906 1 0 1
0.1272079 0.0699666 0.1649906 1 0 1
0.1060939 0.03618739 0.2612136 1 0 1
0.1070007 0.03696159 0.2588995 1 0 1
0.1075553 0.03798528 0.2556762 1 0 1
0.1057108 0.04074188 0.246102 1 0 1
0.1007062 0.04571139 0.2283892 1 0 1
0.09625667 0.0501666 0.2125265 1 0 1
0.09168369 0.05460235 0.1966994 1 0 1
0.08910935 0.05754871 0.1863252 1 0 1
0.08752636 0.05975034 0.1786779 1 0 1
0.08696696 0.0612133 0.173747 1 0 1
0.08746308 0.06194377 0.1715215 1 0 1
0.08831106 0.06243216 0.1701948 1 0 1
0.0891501 0.06292208 0.1688666 1 0 1
0.08998025 0.06341343 0.1675368 1 0 1
0.0908015 0.06390623 0.1662056 1 0 1
0.0916138 0.06440041 0.164873 1 0 1
0.09241723 0.06489594 0.163539 1 0 1
0.09360071 0.06515524 0.1630937 1 0 1
0.09478229 0.06541738 0.1626446 1 0 1
0.09596196 0.0656824 0.1621914 1 0 1
0.09753918 0.06571501 0.1626203 1 0 1
0.09871842 0.06598664 0.1621579 1 0 1
0.09989571 0.06626107 0.1616915 1 0 1
0.101071 0.06653832 0.1612212 1 0 1
0.1022443 0.06681852 0.1607469 1 0 1
0.1038324 0.06687042 0.1611478 1 0 1
0.1050051 0.06715716 0.1606642 1 0 1
0.1061756 0.06744675 0.1601767 1 0 1
0.1069169 0.06796783 0.1588106 1 0 1
0.1080799 0.06826228 0.1583166 1 0 1
0.1096748 0.06833283 0.1586906 1 0 1
0.1112745 0.06840798 0.1590578 1 0 1
0.1133199 0.06826276 0.1602869 1 0 1
0.1158211 0.06789992 0.1623733 1 0 1
0.1178928 0.06776867 0.1635809 1 0 1
0.1190735 0.06808859 0.1630498 1 0 1
0.1202518 0.06841142 0.1625147 1 0 1
0.1218859 0.06851677 0.1628368 1 0 1
0.1235244 0.06862692 0.1631518 1 0 1
0.1251674 0.06874197 0.1634597 1 0 1
0.1272829 0.06864429 0.1646168 1 0 1
0.1055695 0.03194739 0.2690048 1 0 1
0.1065244 0.03272952 0.2666901 1 0 1
0.1068054 0.03401961 0.262555 1 0 1
0.1083847 0.03429781 0.2620583 1 0 1
0.1092901 0.0350838 0.2597413 1 0 1
0.1095 0.03637378 0.2556109 1 0 1
0.1065916 0.03991871 0.2433375 1 0 1
0.1022015 0.04445025 0.2274735 1 0 1
0.09698733 0.04946117 0.2098392 1 0 1
0.09198938 0.05420084 0.1931475 1 0 1
0.08936252 0.05718276 0.182798 1 0 1
0.08809908 0.0591632 0.176068 1 0 1
0.0882419 0.06015028 0.1729432 1 0 1
0.08909757 0.06064435 0.1716152 1 0 1
0.08957278 0.06138502 0.1693902 1 0 1
0.09040704 0.06188134 0.1680603 1 0 1
0.09123237 0.06237902 0.166729 1 0 1
0.09204879 0.06287815 0.1653963 1 0 1
0.09247065 0.06362078 0.1631719 1 0 1
0.09365487 0.06388047 0.1627269 1 0 1
0.09444453 0.06438366 0.1613901 1 0 1
0.0956214 0.06464829 0.1609385 1 0 1
0.09719602 0.06467676 0.1613678 1 0 1
0.09837253 0.06494797 0.1609069 1 0 1
0.09954705 0.06522202 0.1604421 1 0 1
0.1011297 0.06526238 0.1608541 1 0 1
0.1023037 0.06554296 0.16038 1 0 1
0.1034756 0.06582643 0.159902 1 0 1
0.1050661 0.06587871 0.1602966 1 0 1
0.1062374 0.06616881 0.1598092 1 0 1
0.1069792 0.06669407 0.1584443 1 0 1
0.1081429 0.06698901 0.1579506 1 0 1
0.1097388 0.06705625 0.1583237 1 0 1
0.1113393 0.06712813 0.1586899 1 0 1
0.1129446 0.06720466 0.1590492 1 0 1
0.1154438 0.06683009 0.1611342 1 0 1
0.1175132 0.06669089 0.1623413 1 0 1
0.1186912 0.0670104 0.1618119 1 0 1
0.1194121 0.06755795 0.1604169 1 0 1
0.1214985 0.06743396 0.1616014 1 0 1
0.122673 0.06776314 0.1610586 1 0 1
0.1243102 0.06787304 0.1613687 1 0 1
0.1264201 0.06776649 0.1625271 1 0 1
0.1056214 0.03025721 0.2685111 1 0 1
0.1062518 0.03130526 0.2652888 1 0 1
0.1068585 0.03235317 0.2620681 1 0 1
0.1084388 0.03263181 0.2615715 1 0 1
0.1096809 0.03317002 0.2601633 1 0 1
0.1109137 0.0337107 0.2587522 1 0 1
0.110078 0.03578089 0.2519134 1 0 1
0.1071094 0.03936861 0.2396683 1 0 1
0.1015933 0.04471467 0.2211368 1 0 1
0.09557837 0.05028926 0.2017477 1 0 1
0.09084158 0.05483096 0.1860024 1 0 1
0.08887009 0.05734326 0.1774792 1 0 1
0.08902036 0.05834355 0.1743553 1 0 1
0.08951557 0.05909294 0.1721304 1 0 1
0.08999474 0.05984225 0.1699065 1 0 1
0.09083313 0.06034345 0.1685766 1 0 1
0.09128386 0.06109349 0.1663535 1 0 1
0.09210087 0.06159683 0.165022 1 0 1
0.09252312 0.06234744 0.1628 1 0 1
0.09370805 0.06260749 0.162355 1 0 1
0.0948911 0.0628705 0.1619061 1 0 1
0.09567586 0.06337996 0.160568 1 0 1
0.09725136 0.06340509 0.1609964 1 0 1
0.09842858 0.06367665 0.1605356 1 0 1
0.09960384 0.06395119 0.160071 1 0 1
0.1011874 0.06398822 0.1604821 1 0 1
0.1023621 0.06426919 0.1600081 1 0 1
0.1035347 0.06455309 0.1595303 1 0 1
0.1051261 0.06460212 0.1599239 1 0 1
0.1062981 0.06489263 0.1594368 1 0 1
0.1066128 0.06565825 0.1572005 1 0 1
0.1082048 0.06571753 0.1575796 1 0 1
0.1089326 0.06625018 0.1562125 1 0 1
0.1100893 0.06655039 0.1557126 1 0 1
0.1116853 0.06662098 0.1560756 1 0 1
0.1137307 0.06646457 0.1572967 1 0 1
0.1157875 0.06631465 0.1585079 1 0 1
0.1178558 0.06617135 0.1597091 1 0 1
0.1194804 0.06626355 0.1600396 1 0 1
0.1211096 0.0663605 0.1603631 1 0 1
0.1222814 0.06668929 0.159822 1 0 1
0.1243813 0.06656898 0.1609887 1 0 1
0.1260238 0.06668048 0.1612909 1 0 1
0.1059939 0.0283074 0.2689205 1 0 1
0.1063032 0.02962931 0.2647919 1 0 1
0.1072395 0.0304282 0.2624822 1 0 1
0.1084917 0.03096813 0.2610783 1 0 1
0.1100708 0.03125099 0.2605766 1 0 1
0.111308 0.03179654 0.2591655 1 0 1
0.1115059 0.03311943 0.2550426 1 0 1
0.1102854 0.0354713 0.2473166 1 0 1
0.1062016 0.03987173 0.2323994 1 0 1
0.0998771 0.0457914 0.2121191 1 0 1
0.09375118 0.05142849 0.1927855 1 0 1
0.09036302 0.05500033 0.1806748 1 0 1
0.0890689 0.05703181 0.1739664 1 0 1
0.08993282 0.05753566 0.1726383 1 0 1
0.09004418 0.05854645 0.1695222 1 0 1
0.0908832 0.05905182 0.1681936 1 0 1
0.09133432 0.05980984 0.1659729 1 0 1
0.09215187 0.06031728 0.1646427 1 0 1
0.09257459 0.06107587 0.162423 1 0 1
0.09376025 0.06133636 0.1619782 1 0 1
0.094944 0.06159978 0.1615294 1 0 1
0.09612583 0.06186604 0.1610767 1 0 1
0.09730571 0.0621352 0.16062 1 0 1
0.0988871 0.06216149 0.1610408 1 0 1
0.09965958 0.06268212 0.1596949 1 0 1
0.1008335 0.06295991 0.1592265 1 0 1
0.1020055 0.06324054 0.1587541 1 0 1
0.1035928 0.06328163 0.1591536 1 0 1
0.1047642 0.06356888 0.158672 1 0 1
0.1059334 0.06385899 0.1581864 1 0 1
0.1071007 0.064152 0.157697 1 0 1
0.1082657 0.06444786 0.1572036 1 0 1
0.1094287 0.06474664 0.1567063 1 0 1
0.1101515 0.06528542 0.1553381 1 0 1
0.1113067 0.06558902 0.1548346 1 0 1
0.1137948 0.06518932 0.1569193 1 0 1
0.1154043 0.06526687 0.1572659 1 0 1
0.1174703 0.06511565 0.1584666 1 0 1
0.1190924 0.06520362 0.1587978 1 0 1
0.1211777 0.06506477 0.1599799 1 0 1
0.1218883 0.06562477 0.1585827 1 0 1
0.1239859 0.06549646 0.159749 1 0 1
0.1256259 0.06560379 0.1600519 1 0 1
0.1057217 0.02688427 0.2675037 1 0 1
0.1063534 0.0279558 0.2642885 1 0 1
0.1076194 0.028498 0.2628877 1 0 1
0.1085435 0.02930683 0.2605785 1 0 1
0.1097872 0.02985347 0.2591727 1 0 1
0.1110216 0.03040257 0.2577642 1 0 1
0.1119033 0.03121625 0.2554508 1 0 1
0.1117273 0.03281527 0.2504349 1 0 1
0.1087086 0.03649711 0.2382298 1 0 1
0.1031154 0.04198509 0.2197628 1 0 1
0.09630417 0.04822688 0.1986481 1 0 1
0.09185603 0.05262908 0.1838561 1 0 1
0.08948133 0.05546406 0.174467 1 0 1
0.089981 0.05622996 0.1722455 1 0 1
0.09009267 0.05725242 0.1691329 1 0 1
0.09130777 0.05750625 0.1686965 1 0 1
0.09214192 0.05801797 0.1673664 1 0 1
0.09258454 0.05878538 0.1651466 1 0 1
0.09301117 0.05955265 0.162928 1 0 1
0.09420107 0.05981434 0.1624821 1 0 1
0.0949959 0.06033083 0.1611478 1 0 1
0.09578175 0.06084861 0.1598123 1 0 1
0.09655871 0.06136771 0.1584755 1 0 1
0.098134 0.061389 0.1588981 1 0 1
0.09930712 0.06166353 0.1584351 1 0 1
0.1000677 0.06218881 0.1570907 1 0 1
0.1016475 0.06222123 0.1574974 1 0 1
0.1028147 0.06250434 0.1570226 1 0 1
0.1044009 0.06254499 0.1574173 1 0 1
0.1055674 0.0628347 0.1569334 1 0 1
0.1071598 0.06288371 0.1573159 1 0 1
0.1083256 0.06318004 0.1568227 1 0 1
0.1094893 0.06347927 0.1563256 1 0 1
0.1106508 0.06378131 0.1558247 1 0 1
0.1118102 0.06408631 0.1553198 1 0 1
0.1134126 0.06415498 0.1556739 1 0 1
0.1154682 0.06399017 0.1568826 1 0 1
0.1170833 0.06406921 0.1572215 1 0 1
0.1191583 0.06391671 0.1584116 1 0 1
0.1207859 0.06400625 0.1587348 1 0 1
0.1219558 0.06433515 0.1581957 1 0 1
0.1235889 0.06443342 0.1585063 1 0 1
0.1252265 0.06453656 0.1588099 1 0 1
0.1054482 0.02547107 0.2660826 1 0 1
0.1064024 0.02628467 0.2637786 1 0 1
0.1079985 0.02656259 0.2632843 1 0 1
0.1089268 0.02738003 0.2609764 1 0 1
0.1105113 0.02766438 0.2604738 1 0 1
0.1117538 0.028219 0.2590642 1 0 1
0.1126433 0.02904204 0.256751 1 0 1
0.1131691 0.03013135 0.2535377 1 0 1
0.1112161 0.03307187 0.2440379 1 0 1
0.1067092 0.03784911 0.2282771 1 0 1
0.09993158 0.04418507 0.2071769 1 0 1
0.09443346 0.04944234 0.1897071 1 0 1
0.09098805 0.05310552 0.1776405 1 0 1
0.09039675 0.05466516 0.1727399 1 0 1
0.09051229 0.05570007 0.1696297 1 0 1
0.09173163 0.05595502 0.1691921 1 0 1
0.09219068 0.05673039 0.1669735 1 0 1
0.09301648 0.05724773 0.1656433 1 0 1
0.09344704 0.05802371 0.1634259 1 0 1
0.09464119 0.05828657 0.1629787 1 0 1
0.09504678 0.05906369 0.1607613 1 0 1
0.09583319 0.05958566 0.159427 1 0 1
0.09701103 0.05985487 0.1589721 1 0 1
0.09818685 0.06012696 0.1585131 1 0 1
0.0993607 0.06040192 0.1580503 1 0 1
0.1001218 0.06093135 0.1567072 1 0 1
0.1017025 0.06096042 0.1571129 1 0 1
0.1028703 0.06124401 0.1566384 1 0 1
0.1040361 0.06153047 0.15616 1 0 1
0.1056246 0.06157153 0.1565483 1 0 1
0.1067897 0.06186457 0.1560607 1 0 1
0.1083844 0.06191405 0.1564369 1 0 1
0.1095487 0.06221369 0.15594 1 0 1
0.110711 0.06251627 0.1554392 1 0 1
0.1118711 0.06282169 0.1549345 1 0 1
0.1134744 0.06288718 0.1552878 1 0 1
0.1150823 0.06295732 0.1556341 1 0 1
0.117147 0.06279115 0.1568322 1 0 1
0.1192231 0.0626317 0.1580203 1 0 1
0.1208516 0.062718 0.1583426 1 0 1
0.1224845 0.06280923 0.1586578 1 0 1
0.1236562 0.06314246 0.1581134 1 0 1
0.1248255 0.06347861 0.1575652 1 0 1
0.1064503 0.02461587 0.2632622 1 0 1
0.1080472 0.02489426 0.262768 1 0 1
0.1093092 0.02544812 0.2613656 1 0 1
0.1108982 0.0257335 0.2608621 1 0 1
0.1121451 0.02629305 0.2594525 1 0 1
0.1133826 0.02685508 0.2580401 1 0 1
0.1142634 0.0276885 0.2557265 1 0 1
0.1126717 0.03040095 0.2471322 1 0 1
0.1088868 0.03471034 0.2331784 1 0 1
0.1024864 0.04087061 0.2129927 1 0 1
0.09665006 0.04647097 0.194643 1 0 1
0.09212969 0.05098418 0.1799074 1 0 1
0.09081174 0.05309473 0.1732269 1 0 1
0.09093118 0.05414204 0.170119 1 0 1
0.09177899 0.05466139 0.1687917 1 0 1
0.09261781 0.05518222 0.1674629 1 0 1
0.09306487 0.05596622 0.1652468 1 0 1
0.09388223 0.0564891 0.1639164 1 0 1
0.09469067 0.05701338 0.1625848 1 0 1
0.09509666 0.05779841 0.1603698 1 0 1
0.09628064 0.05806594 0.1599175 1 0 1
0.09706213 0.05859422 0.158582 1 0 1
0.09823868 0.05886671 0.1581233 1 0 1
0.09941323 0.05914208 0.1576606 1 0 1
0.1001749 0.05967571 0.1563189 1 0 1
0.1013419 0.05995603 0.1558498 1 0 1
0.1029249 0.05998552 0.1562492 1 0 1
0.1036701 0.06052525 0.1549 1 0 1
0.1052559 0.06056213 0.1552888 1 0 1
0.1068466 0.06060373 0.1556709 1 0 1
0.108442 0.06064989 0.1560461 1 0 1
0.1096072 0.06095003 0.1555494 1 0 1
0.1107701 0.06125304 0.1550488 1 0 1
0.112373 0.06131145 0.1554064 1 0 1
0.113535 0.06162114 0.1548966 1 0 1
0.1151438 0.06168807 0.155242 1 0 1
0.1163049 0.06200448 0.1547228 1 0 1
0.118831 0.06159235 0.1567679 1 0 1
0.1204569 0.06167449 0.1570909 1 0 1
0.1220874 0.06176152 0.1574067 1 0 1
0.1237223 0.06185334 0.1577155 1 0 1
0.1248924 0.06219009 0.1571675 1 0 1
0.1078001 0.021843 0.2663556 1 0 1
0.1080948 0.02322838 0.2622453 1 0 1
0.1093576 0.02378636 0.2608442 1 0 1
0.1112842 0.02379757 0.2612414 1 0 1
0.1125354 0.02436194 0.2598321 1 0 1
0.1134335 0.02520224 0.2575215 1 0 1
0.114315 0.02604369 0.2552103 1 0 1
0.1141271 0.02770228 0.2502108 1 0 1
0.1110646 0.03152863 0.2380597 1 0 1
0.1046838 0.03777629 0.2178927 1 0 1
0.09814377 0.04399636 0.1977747 1 0 1
0.09290587 0.04911148 0.181271 1 0 1
0.09048839 0.05205569 0.1719267 1 0 1
0.0906046 0.0531139 0.1688238 1 0 1
0.09182536 0.05336966 0.1683864 1 0 1
0.09266476 0.05389461 0.1670589 1 0 1
0.09349522 0.05442102 0.16573 1 0 1
0.09431669 0.05494884 0.1643997 1 0 1
0.09473914 0.05574203 0.1621859 1 0 1
0.09553916 0.05627184 0.1608542 1 0 1
0.09672733 0.05654058 0.1604008 1 0 1
0.09751289 0.05707376 0.1590653 1 0 1
0.09869362 0.05734754 0.1586053 1 0 1
0.09946474 0.05788413 0.157266 1 0 1
0.100638 0.05816281 0.1567997 1 0 1
0.1013947 0.05870266 0.1554568 1 0 1
0.1025604 0.05898628 0.154984 1 0 1
0.1037242 0.0592728 0.1545073 1 0 1
0.1053108 0.05930644 0.1548951 1 0 1
0.1064739 0.05959951 0.1544093 1 0 1
0.1084987 0.05938756 0.1556504 1 0 1
0.1100998 0.05943517 0.1560178 1 0 1
0.1112669 0.05973958 0.1555159 1 0 1
0.1128741 0.0597956 0.1558712 1 0 1
0.1140402 0.06010669 0.15536 1 0 1
0.1152042 0.06042072 0.1548449 1 0 1
0.116366 0.06073764 0.154326 1 0 1
0.1179814 0.06080993 0.154658 1 0 1
0.1196014 0.06088696 0.1549831 1 0 1
0.121226 0.06096881 0.1553012 1 0 1
0.1223889 0.06130024 0.154762 1 0 1
0.124019 0.06139084 0.1550675 1 0 1
0.1120059 0.02157797 0.2625114 1 0 1
0.1125845 0.02270354 0.2593044 1 0 1
0.1134833 0.02355184 0.2569963 1 0 1
0.1147129 0.02412479 0.2555837 1 0 1
0.11488 0.02552753 0.2514839 1 0 1
0.1121787 0.02912938 0.2402397 1 0 1
0.1061651 0.03518785 0.2209879 1 0 1
0.09927565 0.04176752 0.2000003 1 0 1
0.09368157 0.04722571 0.1826245 1 0 1
0.09053273 0.05075376 0.1715125 1 0 1
0.09139425 0.05128068 0.1701881 1 0 1
0.09187072 0.0520798 0.1679761 1 0 1
0.09233112 0.05287894 0.165765 1 0 1
0.09354172 0.0531395 0.1653223 1 0 1
0.09475046 0.05340299 0.1648756 1 0 1
0.09517685 0.05420488 0.162663 1 0 1
0.09558721 0.0550065 0.1604518 1 0 1
0.09677604 0.05527568 0.1599984 1 0 1
0.09756214 0.05581305 0.1586643 1 0 1
0.0983393 0.05635175 0.1573289 1 0 1
0.09951525 0.056628 0.1568665 1 0 1
0.1006892 0.05690711 0.1564003 1 0 1
0.1014464 0.05745119 0.1550588 1 0 1
0.103031 0.05747407 0.1554562 1 0 1
0.1037772 0.05802217 0.1541098 1 0 1
0.1053647 0.05805254 0.1544965 1 0 1
0.1069571 0.05808754 0.1548766 1 0 1
0.1081222 0.05838481 0.1543856 1 0 1
0.1097207 0.05842823 0.1547535 1 0 1
0.111324 0.05847634 0.1551145 1 0 1
0.112932 0.05852916 0.1554688 1 0 1
0.1140989 0.05884075 0.1549578 1 0 1
0.1157128 0.05890209 0.1552997 1 0 1
0.116426 0.05947264 0.1539242 1 0 1
0.1180423 0.05954168 0.1542553 1 0 1
0.1192036 0.05986591 0.1537272 1 0 1
0.1203627 0.06019296 0.1531953 1 0 1
0.1215195 0.06052289 0.1526595 1 0 1
0.1231437 0.0606084 0.1529672 1 0 1
0.116848 0.02079957 0.2604223 1 0 1
0.1166858 0.02250148 0.2554266 1 0 1
0.1143567 0.02587344 0.2450836 1 0 1
0.1076462 0.03257166 0.2240677 1 0 1
0.1000452 0.03979571 0.2013232 1 0 1
0.09445668 0.04532693 0.1839681 1 0 1
0.09168331 0.0486258 0.1737556 1 0 1
0.09218346 0.0494344 0.1715426 1 0 1
0.09266746 0.05024288 0.1693305 1 0 1
0.0931354 0.05105143 0.1671195 1 0 1
0.09358726 0.05185989 0.1649096 1 0 1
0.09479666 0.05212378 0.1644631 1 0 1
0.09522345 0.05293356 0.1622531 1 0 1
0.09602808 0.05347244 0.1609228 1 0 1
0.09722114 0.05374285 0.1604683 1 0 1
0.09761039 0.05455423 0.1582584 1 0 1
0.09879251 0.05482884 0.1577988 1 0 1
0.09997263 0.05510635 0.1573352 1 0 1
0.1011507 0.05538675 0.1568677 1 0 1
0.1019119 0.05593577 0.1555262 1 0 1
0.1030825 0.05622117 0.1550524 1 0 1
0.1038292 0.05677341 0.1537073 1 0 1
0.1054175 0.05680052 0.154093 1 0 1
0.106582 0.05709456 0.1536076 1 0 1
0.1081765 0.05713004 0.1539813 1 0 1
0.1097759 0.05717017 0.1543482 1 0 1
0.11138 0.05721506 0.1547082 1 0 1
0.1129889 0.05726459 0.1550614 1 0 1
0.1141564 0.0575767 0.1545507 1 0 1
0.1153217 0.05789169 0.154036 1 0 1
0.1164849 0.05820961 0.1535175 1 0 1
0.1171895 0.0587854 0.1521426 1 0 1
0.1183447 0.05910818 0.1516179 1 0 1
0.1194976 0.05943384 0.1510893 1 0 1
0.1211148 0.05951029 0.1514047 1 0 1
0.1222666 0.05984274 0.1508667 1 0 1
0.09376873 0.0445371 0.1817515 1 0 1
0.09135682 0.04759632 0.1724414 1 0 1
0.09185389 0.04841201 0.1702322 1 0 1
0.09233478 0.04922766 0.168024 1 0 1
0.09317946 0.04976584 0.1666993 1 0 1
0.09363177 0.05058217 0.164492 1 0 1
0.09445494 0.05112249 0.1631658 1 0 1
0.09487863 0.05193935 0.1609596 1 0 1
0.09568024 0.05248159 0.1596321 1 0 1
0.09726795 0.05247803 0.1600549 1 0 1
0.09765766 0.05329729 0.1578477 1 0 1
0.09924494 0.05330035 0.1582613 1 0 1
0.1000212 0.05385026 0.1569248 1 0 1
0.1012 0.05413113 0.1564575 1 0 1
0.1019617 0.05468433 0.1551173 1 0 1
0.103133 0.05497015 0.1546436 1 0 1
0.1038802 0.05552657 0.1533 1 0 1
0.1054694 0.0555504 0.1536847 1 0 1
0.1070633 0.05557885 0.1540627 1 0 1
0.1082298 0.0558771 0.1535721 1 0 1
0.1102659 0.05564984 0.1547983 1 0 1
0.1118743 0.05569232 0.1551559 1 0 1
0.1130447 0.05600199 0.1546492 1 0 1
0.1142129 0.05631457 0.1541387 1 0 1
0.1149292 0.05689063 0.1527699 1 0 1
0.1160896 0.05720809 0.152253 1 0 1
0.1167913 0.05778715 0.1508811 1 0 1
0.1174839 0.05836722 0.1495084 1 0 1
0.1186307 0.05869145 0.1489832 1 0 1
0.1207086 0.05850697 0.1501473 1 0 1
0.1223277 0.05858413 0.1504563 1 0 1
0.09125055 0.04518522 0.1751034 1 0 1
0.09065981 0.04685978 0.1702396 1 0 1
0.09189592 0.04711631 0.169803 1 0 1
0.09237731 0.0479399 0.1675974 1 0 1
0.09360253 0.04820095 0.1671553 1 0 1
0.09405879 0.04902596 0.1649493 1 0 1
0.09449898 0.04985086 0.1627445 1 0 1
0.09531371 0.05039669 0.1614183 1 0 1
0.0961194 0.05094386 0.1600908 1 0 1
0.09691612 0.05149242 0.158762 1 0 1
0.09770389 0.05204227 0.157432 1 0 1
0.099292 0.05204207 0.1578446 1 0 1
0.1000687 0.05259607 0.1565095 1 0 1
0.1012482 0.05287736 0.1560424 1 0 1
0.1020105 0.05343476 0.1547036 1 0 1
0.1027637 0.05399332 0.1533638 1 0 1
0.1039301 0.05428161 0.1528878 1 0 1
0.1055201 0.05430222 0.1532715 1 0 1
0.1066858 0.05459712 0.1527864 1 0 1
0.1078495 0.05489499 0.1522975 1 0 1
0.109447 0.05492773 0.1526638 1 0 1
0.1114888 0.05469819 0.1538809 1 0 1
0.1126565 0.05500743 0.1533759 1 0 1
0.1138219 0.05531957 0.1528671 1 0 1
0.1154349 0.05537033 0.1532076 1 0 1
0.1165993 0.05568926 0.1526894 1 0 1
0.1177616 0.05601105 0.1521675 1 0 1
0.1184615 0.0565972 0.1507931 1 0 1
0.1196157 0.0569239 0.1502649 1 0 1
0.1212346 0.05699401 0.1505784 1 0 1
0.1223877 0.05732746 0.1500409 1 0 1
0.08909566 0.04559973 0.1693525 1 0 1
0.09106961 0.0452785 0.1706889 1 0 1
0.092683 0.04524975 0.1711338 1 0 1
0.0931719 0.04608262 0.1689283 1 0 1
0.09402483 0.04663062 0.1676038 1 0 1
0.09448509 0.04746423 0.1653992 1 0 1
0.09492926 0.04829778 0.1631958 1 0 1
0.09535728 0.04913111 0.1609936 1 0 1
0.09616356 0.04968246 0.1596675 1 0 1
0.09696082 0.05023517 0.1583401 1 0 1
0.09774913 0.05078915 0.1570115 1 0 1
0.09933802 0.05078563 0.1574229 1 0 1
0.1001153 0.05134385 0.1560893 1 0 1
0.1012954 0.05162557 0.1556223 1 0 1
0.1020582 0.05218709 0.154285 1 0 1
0.1028119 0.05274984 0.1529466 1 0 1
0.103979 0.05303859 0.1524708 1 0 1
0.105144 0.05333021 0.1519912 1 0 1
0.1067362 0.05335131 0.1523685 1 0 1
0.1083332 0.05337705 0.1527392 1 0 1
0.109935 0.05340746 0.1531029 1 0 1
0.111102 0.05371337 0.1526035 1 0 1
0.1127099 0.05375239 0.1529551 1 0 1
0.113876 0.05406501 0.1524465 1 0 1
0.1145899 0.05464849 0.1510821 1 0 1
0.1162015 0.05469902 0.1514177 1 0 1
0.117361 0.05502038 0.1508974 1 0 1
0.1185182 0.05534464 0.1503734 1 0 1
0.1196731 0.05567187 0.1498454 1 0 1
0.1212928 0.05573875 0.1501579 1 0 1
0.1224466 0.05607273 0.1496207 1 0 1
0.08767033 0.04547757 0.1653793 1 0 1
0.09073957 0.04427362 0.1693658 1 0 1
0.09235015 0.04424076 0.1698107 1 0 1
0.09283597 0.0450808 0.1676092 1 0 1
0.09406615 0.04534347 0.1671661 1 0 1
0.09414305 0.04647283 0.1640868 1 0 1
0.09458409 0.04731343 0.1618873 1 0 1
0.09539991 0.04786751 0.160564 1 0 1
0.09620668 0.04842301 0.1592392 1 0 1
0.09660657 0.04926455 0.1570412 1 0 1
0.09819474 0.04925403 0.1574568 1 0 1
0.09897807 0.0498143 0.1561271 1 0 1
0.1001608 0.05009354 0.1556642 1 0 1
0.1013416 0.05037569 0.1551975 1 0 1
0.1021049 0.05094139 0.1538616 1 0 1
0.1028591 0.05150827 0.1525246 1 0 1
0.1040269 0.05179747 0.152049 1 0 1
0.1047666 0.05236758 0.1507086 1 0 1
0.1063561 0.05238454 0.1510863 1 0 1
0.1079504 0.05240617 0.1514573 1 0 1
0.1091132 0.05270781 0.1509649 1 0 1
0.1107138 0.05273795 0.1513238 1 0 1
0.112319 0.0527728 0.1516759 1 0 1
0.1134823 0.05308498 0.1511689 1 0 1
0.1146434 0.05340011 0.1506581 1 0 1
0.1158023 0.05371812 0.1501435 1 0 1
0.116959 0.05403903 0.149625 1 0 1
0.1181134 0.05436288 0.1491027 1 0 1
0.1197294 0.05442176 0.1494211 1 0 1
0.1208827 0.05475235 0.1488896 1 0 1
0.1225043 0.05481998 0.1491955 1 0 1
0.09188694 0.04209962 0.171565 1 0 1
0.09313577 0.04235964 0.1711251 1 0 1
0.0936292 0.04320895 0.1689237 1 0 1
0.09448677 0.04376588 0.1676008 1 0 1
0.09456758 0.04490762 0.1645242 1 0 1
0.09501258 0.0457568 0.1623261 1 0 1
0.09583247 0.04631586 0.1610029 1 0 1
0.09664333 0.04687625 0.1596783 1 0 1
0.09744522 0.04743802 0.1583524 1 0 1
0.0986396 0.04771344 0.1578948 1 0 1
0.09942695 0.04827867 0.1565652 1 0 1
0.1002053 0.04884516 0.1552344 1 0 1
0.1009746 0.04941294 0.1539024 1 0 1
0.1021505 0.0496976 0.1534333 1 0 1
0.1024862 0.0505521 0.1512352 1 0 1
0.1040736 0.05055827 0.1516224 1 0 1
0.1052399 0.05085083 0.1511432 1 0 1
0.1059746 0.05142709 0.1498018 1 0 1
0.1075663 0.05144461 0.1501732 1 0 1
0.1087263 0.05174581 0.1496824 1 0 1
0.1098842 0.05205 0.1491878 1 0 1
0.1114834 0.05207977 0.1495418 1 0 1
0.1130872 0.05211432 0.149889 1 0 1
0.1146958 0.05215365 0.1502293 1 0 1
0.1158554 0.05247214 0.1497149 1 0 1
0.1179269 0.05224663 0.1508893 1 0 1
0.1190888 0.0525729 0.1503641 1 0 1
0.1207124 0.05263054 0.1506783 1 0 1
0.1214058 0.05323416 0.1493023 1 0 1
0.1230316 0.05329962 0.1496056 1 0 1
0.09429418 0.04016796 0.1733079 1 0 1
0.09442186 0.0413243 0.1702281 1 0 1
0.09490665 0.04218298 0.168028 1 0 1
0.09460732 0.04363232 0.1640793 1 0 1
0.09544031 0.04419482 0.1627575 1 0 1
0.09626427 0.04475874 0.1614343 1 0 1
0.09707922 0.04532404 0.1601099 1 0 1
0.09788513 0.04589073 0.1587841 1 0 1
0.09908373 0.04616743 0.1583253 1 0 1
0.0994699 0.04702812 0.156129 1 0 1
0.1002487 0.04759876 0.1547996 1 0 1
0.1014308 0.04788181 0.1543332 1 0 1
0.1017794 0.04874379 0.1521375 1 0 1
0.1025312 0.04931811 0.1508049 1 0 1
0.1041194 0.04932106 0.151191 1 0 1
0.1052863 0.04961405 0.1507119 1 0 1
0.1060215 0.0501945 0.149372 1 0 1
0.1080471 0.04992516 0.1505978 1 0 1
0.1087746 0.05051048 0.1492518 1 0 1
0.1099332 0.05081506 0.1487574 1 0 1
0.1115331 0.05084168 0.1491103 1 0 1
0.1131377 0.05087303 0.1494564 1 0 1
0.1147471 0.05090914 0.1497956 1 0 1
0.1159073 0.05122815 0.1492815 1 0 1
0.1179798 0.05099579 0.1504535 1 0 1
0.1191423 0.05132254 0.1499286 1 0 1
0.1203026 0.05165224 0.1493998 1 0 1
0.1209931 0.05225911 0.1480268 1 0 1
0.1221454 0.05259366 0.1474919 1 0 1
0.09358503 0.03946275 0.1710912 1 0 1
0.0944599 0.04002794 0.1697701 1 0 1
0.09494518 0.04089443 0.1675727 1 0 1
0.09503014 0.04206003 0.1645029 1 0 1
0.09586725 0.04262737 0.1631813 1 0 1
0.09669527 0.04319621 0.1618583 1 0 1
0.09751432 0.04376643 0.160534 1 0 1
0.09872258 0.04404223 0.1600766 1 0 1
0.09992889 0.04432096 0.1596153 1 0 1
0.1003225 0.04519115 0.157419 1 0 1
0.1007 0.04606096 0.1552242 1 0 1
0.1014739 0.04663784 0.1538938 1 0 1
0.1022387 0.04721597 0.1525623 1 0 1
0.1029945 0.04779525 0.1512298 1 0 1
0.1041641 0.04808581 0.1507547 1 0 1
0.1053317 0.04837926 0.1502759 1 0 1
0.1064972 0.0486756 0.1497932 1 0 1
0.1080938 0.04868759 0.1501608 1 0 1
0.1088219 0.04927709 0.1488163 1 0 1
0.1095408 0.04986767 0.1474708 1 0 1
0.1111381 0.04989013 0.1478242 1 0 1
0.11274 0.04991737 0.1481707 1 0 1
0.1143468 0.04994936 0.1485104 1 0 1
0.1159581 0.04998617 0.1488432 1 0 1
0.1175741 0.05002777 0.1491691 1 0 1
0.1191947 0.05007422 0.1494882 1 0 1
0.1203556 0.05040439 0.1489596 1 0 1
0.1210466 0.05101548 0.1475881 1 0 1
0.1221995 0.05135053 0.1470535 1 0 1
0.09287445 0.03877442 0.1688746 1 0 1
0.09374271 0.0393422 0.1675575 1 0 1
0.09422132 0.04021502 0.1653655 1 0 1
0.09468375 0.04108778 0.1631746 1 0 1
0.09551781 0.04165845 0.1618558 1 0 1
0.09634287 0.04223061 0.1605356 1 0 1
0.09755375 0.04250383 0.1600823 1 0 1
0.09836425 0.04307959 0.1587582 1 0 1
0.09996959 0.0430592 0.159164 1 0 1
0.1003636 0.04393723 0.1569705 1 0 1
0.1011505 0.04451779 0.1556413 1 0 1
0.1019284 0.04509961 0.1543111 1 0 1
0.1026973 0.0456827 0.1529797 1 0 1
0.103457 0.046267 0.1516472 1 0 1
0.1042078 0.04685254 0.1503137 1 0 1
0.1049495 0.0474392 0.1489792 1 0 1
0.1061121 0.04773515 0.1484981 1 0 1
0.1072727 0.04803402 0.1480133 1 0 1
0.1079942 0.04862585 0.1466732 1 0 1
0.1091471 0.04892955 0.1461821 1 0 1
0.1107417 0.04894793 0.1465358 1 0 1
0.112341 0.04897102 0.1468828 1 0 1
0.1143957 0.04871253 0.1480684 1 0 1
0.1155537 0.04903159 0.1475561 1 0 1
0.1176246 0.04878461 0.1487249 1 0 1
0.119246 0.04882789 0.1490429 1 0 1
0.1204075 0.04915859 0.1485146 1 0 1
0.1215668 0.04949227 0.1479824 1 0 1
0.1227238 0.04982882 0.1474465 1 0 1
0.09453298 0.03744147 0.168839 1 0 1
0.09501913 0.03832359 0.1666472 1 0 1
0.09510479 0.03951213 0.1635857 1 0 1
0.09633085 0.03978211 0.1631366 1 0 1
0.09716353 0.04035997 0.1618153 1 0 1
0.09798715 0.04093921 0.1604927 1 0 1
0.09920026 0.04121668 0.1600343 1 0 1
0.1004114 0.04149711 0.159572 1 0 1
0.1008093 0.04238371 0.15738 1 0 1
0.1016003 0.04296923 0.1560509 1 0 1
0.1019696 0.04385593 0.1538607 1 0 1
0.1027389 0.04444313 0.1525308 1 0 1
0.1034992 0.0450316 0.1511999 1 0 1
0.1042505 0.04562125 0.1498679 1 0 1
0.1049926 0.04621206 0.148535 1 0 1
0.1061559 0.04650849 0.1480541 1 0 1
0.1073171 0.04680777 0.1475695 1 0 1
0.1080391 0.04740375 0.1462308 1 0 1
0.1091926 0.04770795 0.14574 1 0 1
0.1107879 0.04772315 0.1460926 1 0 1
0.1123879 0.04774308 0.1464384 1 0 1
0.1139927 0.04776775 0.1467774 1 0 1
0.1156022 0.04779724 0.1471095 1 0 1
0.117674 0.04754347 0.1482759 1 0 1
0.1192962 0.0475836 0.1485928 1 0 1
0.1209229 0.04762864 0.1489027 1 0 1
0.1216182 0.048249 0.1475328 1 0 1
0.1227758 0.0485861 0.146997 1 0 1
0.09391198 0.0379739 0.1635646 1 0 1
0.09475615 0.03855139 0.1622502 1 0 1
0.09636728 0.03851165 0.1626708 1 0 1
0.09720053 0.03909365 0.161351 1 0 1
0.09802467 0.03967701 0.1600299 1 0 1
0.09883977 0.04026181 0.1587074 1 0 1
0.100048 0.04054181 0.1582467 1 0 1
0.1008485 0.04113017 0.1569204 1 0 1
0.1016399 0.04171981 0.1555929 1 0 1
0.1020096 0.0426143 0.1534055 1 0 1
0.1027795 0.04320564 0.1520772 1 0 1
0.1035403 0.04379824 0.1507478 1 0 1
0.1047153 0.044091 0.1502719 1 0 1
0.1054614 0.04468682 0.1489391 1 0 1
0.1066288 0.04498456 0.148457 1 0 1
0.1073603 0.04558357 0.1471208 1 0 1
0.1080829 0.04618366 0.1457837 1 0 1
0.1092369 0.04648834 0.1452931 1 0 1
0.110833 0.04650037 0.1456445 1 0 1
0.1119863 0.04681172 0.1451449 1 0 1
0.1135884 0.04683231 0.1454843 1 0 1
0.1151952 0.04685771 0.1458169 1 0 1
0.1172645 0.04659614 0.1469823 1 0 1
0.1184226 0.04692297 0.1464614 1 0 1
0.1200433 0.04696293 0.1467733 1 0 1
0.1212004 0.04729662 0.1462432 1 0 1
0.1223552 0.04763328 0.1457093 1 0 1
0.07764974 0.04787305 0.131708 1 0 1
0.09394613 0.03670474 0.1630935 1 0 1
0.09594447 0.03634499 0.1643851 1 0 1
0.09717897 0.03661739 0.1639337 1 0 1
0.09801979 0.03720504 0.1626128 1 0 1
0.09885155 0.03779412 0.1612906 1 0 1
0.09967428 0.0383846 0.159967 1 0 1
0.1004879 0.03897649 0.1586422 1 0 1
0.1012925 0.03956974 0.1573161 1 0 1
0.1020879 0.04016431 0.1559888 1 0 1
0.1024615 0.04106747 0.1538029 1 0 1
0.1032354 0.04166378 0.1524747 1 0 1
0.1035803 0.04256686 0.1502909 1 0 1
0.1043325 0.04316473 0.148962 1 0 1
0.1055026 0.04346003 0.1484839 1 0 1
0.1062402 0.04406115 0.1471517 1 0 1
0.1069688 0.04466334 0.1458185 1 0 1
0.1081256 0.04496556 0.1453319 1 0 1
0.1092803 0.04527074 0.1448415 1 0 1
0.1104328 0.04557879 0.1443474 1 0 1
0.1115832 0.04588972 0.1438494 1 0 1
0.1136338 0.04560889 0.1450306 1 0 1
0.1152413 0.0456311 0.1453621 1 0 1
0.1168535 0.04565817 0.1456866 1 0 1
0.1184703 0.04569009 0.1460044 1 0 1
0.1200917 0.0457269 0.1463152 1 0 1
0.1212493 0.04606111 0.1457853 1 0 1
0.1224047 0.04639827 0.1452516 1 0 1
0.09636309 0.03475355 0.1647732 1 0 1
0.09760173 0.03502711 0.1643208 1 0 1
0.0980549 0.03593551 0.162136 1 0 1
0.09888721 0.03652872 0.1608153 1 0 1
0.09931159 0.03743755 0.1586318 1 0 1
0.1001222 0.0380327 0.1573098 1 0 1
0.1013297 0.03831666 0.1568454 1 0 1
0.1017163 0.03922711 0.1546623 1 0 1
0.1029126 0.03951534 0.1541928 1 0 1
0.103274 0.04042666 0.1520101 1 0 1
0.1040393 0.04102832 0.1506825 1 0 1
0.1047955 0.04163121 0.1493537 1 0 1
0.1059697 0.04192783 0.1488744 1 0 1
0.1062808 0.0428405 0.1466934 1 0 1
0.1070098 0.04344678 0.1453618 1 0 1
0.1081673 0.04374956 0.1448754 1 0 1
0.1088816 0.04435898 0.1435406 1 0 1
0.1100314 0.04466657 0.1430481 1 0 1
0.1116267 0.04467511 0.1433935 1 0 1
0.1136781 0.04438743 0.1445722 1 0 1
0.1152863 0.04440651 0.1449025 1 0 1
0.1168992 0.04443046 0.145226 1 0 1
0.1180552 0.04475737 0.1447071 1 0 1
0.119674 0.04479006 0.1450183 1 0 1
0.1208288 0.04512381 0.1444902 1 0 1
0.1219814 0.04546052 0.1439584 1 0 1
0.09639615 0.03347797 0.1642883 1 0 1
0.09724714 0.03407232 0.1629719 1 0 1
0.0976972 0.03498765 0.1607914 1 0 1
0.09852646 0.03558415 0.1594736 1 0 1
0.09894772 0.03649991 0.1572944 1 0 1
0.1001578 0.0367813 0.1568341 1 0 1
0.1009599 0.03738192 0.1555125 1 0 1
0.1017528 0.03798387 0.1541897 1 0 1
0.1025368 0.03858712 0.1528658 1 0 1
0.1033116 0.03919164 0.1515407 1 0 1
0.1040774 0.03979741 0.1502147 1 0 1
0.1052577 0.04009244 0.1497379 1 0 1
0.1064359 0.04039037 0.1492574 1 0 1
0.1063203 0.04162186 0.1462303 1 0 1
0.1070498 0.04223233 0.1449003 1 0 1
0.1082079 0.04253554 0.1444141 1 0 1
0.1089227 0.04314908 0.1430809 1 0 1
0.110073 0.04345714 0.1425887 1 0 1
0.1116691 0.04346258 0.1429329 1 0 1
0.1137213 0.04316808 0.1441091 1 0 1
0.1153303 0.04318402 0.1444382 1 0 1
0.1164857 0.04350752 0.1439248 1 0 1
0.1181005 0.04353222 0.1442418 1 0 1
0.1192548 0.04386256 0.1437194 1 0 1
0.1204069 0.04419586 0.1431931 1 0 1
0.1215566 0.04453208 0.1426631 1 0 1
0.09719785 0.03155503 0.1655264 1 0 1
0.09727971 0.03280298 0.1624837 1 0 1
0.09812211 0.03340289 0.1611674 1 0 1
0.09855998 0.03432664 0.1589899 1 0 1
0.09938069 0.03492862 0.1576724 1 0 1
0.1001923 0.03553196 0.1563536 1 0 1
0.1009949 0.03613669 0.1550335 1 0 1
0.1017884 0.03674274 0.1537124 1 0 1
0.102986 0.03703184 0.1532433 1 0 1
0.1033482 0.0379587 0.1510666 1 0 1
0.1041144 0.03856857 0.1497421 1 0 1
0.1052953 0.03886405 0.1492656 1 0 1
0.1064741 0.03916245 0.1487853 1 0 1
0.1067895 0.04009151 0.1466088 1 0 1
0.107523 0.04070698 0.1452789 1 0 1
0.1082474 0.04132355 0.1439482 1 0 1
0.1094039 0.04163014 0.1434584 1 0 1
0.1105582 0.04193961 0.1429649 1 0 1
0.1126065 0.04163358 0.1441453 1 0 1
0.1146665 0.04133421 0.1453159 1 0 1
0.1158281 0.04165627 0.144805 1 0 1
0.1169875 0.04198126 0.1442903 1 0 1
0.1181446 0.04230915 0.1437719 1 0 1
0.1192995 0.04264003 0.1432497 1 0 1
0.1204522 0.04297379 0.1427237 1 0 1
0.1220746 0.04300815 0.1430219 1 0 1
0.09684408 0.03060488 0.1641662 1 0 1
0.09731124 0.03153582 0.1619905 1 0 1
0.09815418 0.03213977 0.1606759 1 0 1
0.09938363 0.03241918 0.1602185 1 0 1
0.09981283 0.03335209 0.1580427 1 0 1
0.1006285 0.03396037 0.1567242 1 0 1
0.1010289 0.03489354 0.1545498 1 0 1
0.1018229 0.03550368 0.1532302 1 0 1
0.1030211 0.03579324 0.1527613 1 0 1
0.1033836 0.03672787 0.1505877 1 0 1
0.1041504 0.03734181 0.1492648 1 0 1
0.1049081 0.03795699 0.1479408 1 0 1
0.106084 0.03825498 0.1474622 1 0 1
0.1063962 0.03919088 0.1452901 1 0 1
0.107561 0.03949296 0.1448066 1 0 1
0.1087236 0.03979801 0.1443194 1 0 1
0.1103254 0.03979126 0.1446688 1 0 1
0.1114873 0.04010309 0.1441725 1 0 1
