ply
format ascii 1.0
Comment Generated by Floating Hands
element vertex 1247
property double x
property double y
property double z
property uchar red
property uchar green
property uchar blue
end_header
-0.08608094 -0.2191015 0.4031667 1 0 1
-0.08321079 -0.2171714 0.3999928 1 0 1
-0.08047546 -0.2158072 0.3976211 1 0 1
-0.07836819 -0.2178971 0.4001028 1 0 1
-0.07604241 -0.2188286 0.4009572 1 0 1
-0.07342839 -0.2180195 0.3993732 1 0 1
-0.07100754 -0.2183599 0.3994025 1 0 1
-0.06858578 -0.218694 0.3994246 1 0 1
-0.06608165 -0.2184419 0.3986288 1 0 1
-0.06350699 -0.2176018 0.3970152 1 0 1
-0.06094715 -0.2167535 0.3953944 1 0 1
-0.05833238 -0.2153153 0.3929558 1 0 1
-0.05587199 -0.2150321 0.392131 1 0 1
-0.05354267 -0.2159069 0.3929199 1 0 1
-0.05120479 -0.2167765 0.3937015 1 0 1
-0.04912911 -0.2205583 0.3985274 1 0 1
-0.04705606 -0.2249231 0.4041553 1 0 1
-0.0439731 -0.2506117 0.4388776 1 0 1
-0.1926598 -0.2105817 0.4081908 1 0 1
-0.1910359 -0.2128738 0.4109561 1 0 1
-0.1896535 -0.2157123 0.4145111 1 0 1
-0.1149667 -0.2143633 0.3979505 1 0 1
-0.1125586 -0.2148116 0.3981039 1 0 1
-0.1106043 -0.21697 0.4006678 1 0 1
-0.1078857 -0.2162622 0.3991949 1 0 1
-0.1053252 -0.2161189 0.3985201 1 0 1
-0.1027711 -0.215968 0.3978375 1 0 1
-0.100496 -0.2169595 0.398761 1 0 1
-0.09794691 -0.2167948 0.3980635 1 0 1
-0.09591852 -0.2189274 0.4005868 1 0 1
-0.09361625 -0.219904 0.4014892 1 0 1
-0.09094262 -0.2191432 0.3999624 1 0 1
-0.08828343 -0.2183735 0.3984276 1 0 1
-0.08586459 -0.2187525 0.3985003 1 0 1
-0.08311727 -0.2173874 0.3961425 1 0 1
-0.08060271 -0.2171723 0.3953925 1 0 1
-0.07839882 -0.2186914 0.397059 1 0 1
-0.0759835 -0.2190442 0.3971023 1 0 1
-0.07347365 -0.2188093 0.3963303 1 0 1
-0.07097069 -0.218567 0.395551 1 0 1
-0.06856038 -0.2189001 0.3955724 1 0 1
-0.06614913 -0.2192269 0.3955865 1 0 1
-0.06358127 -0.2183801 0.3939771 1 0 1
-0.06110222 -0.2181092 0.3931686 1 0 1
-0.05841983 -0.2160768 0.3899283 1 0 1
-0.05603285 -0.2163753 0.3899136 1 0 1
-0.05352055 -0.2154961 0.3882755 1 0 1
-0.05114005 -0.2157812 0.3882465 1 0 1
-0.04886788 -0.2172335 0.3898263 1 0 1
-0.04678179 -0.2210297 0.3946305 1 0 1
-0.1934622 -0.2136658 0.4083117 1 0 1
-0.1923732 -0.2170675 0.4126525 1 0 1
-0.19071 -0.2193736 0.4154084 1 0 1
-0.1142451 -0.2128629 0.3917017 1 0 1
-0.112172 -0.2144567 0.3934599 1 0 1
-0.1099298 -0.2154719 0.3944081 1 0 1
-0.1070851 -0.2141783 0.3921338 1 0 1
-0.1049844 -0.2157578 0.3938717 1 0 1
-0.1021641 -0.214447 0.3915815 1 0 1
-0.09977563 -0.2148601 0.3916964 1 0 1
-0.09725311 -0.2146883 0.3909994 1 0 1
-0.0957685 -0.2191439 0.3967335 1 0 1
-0.09322789 -0.2189623 0.3960226 1 0 1
-0.09093615 -0.2199345 0.3969145 1 0 1
-0.08863544 -0.2209017 0.3977992 1 0 1
-0.08632585 -0.2218638 0.3986769 1 0 1
-0.08345994 -0.2199086 0.3955202 1 0 1
-0.0808352 -0.2191085 0.3939665 1 0 1
-0.07842842 -0.2194671 0.3940165 1 0 1
-0.07582506 -0.218651 0.3924479 1 0 1
-0.07314236 -0.2172418 0.3900659 1 0 1
-0.07075217 -0.2175789 0.3900939 1 0 1
-0.06836107 -0.2179099 0.3901148 1 0 1
-0.06596908 -0.2182346 0.3901283 1 0 1
-0.06349799 -0.2179662 0.3893289 1 0 1
-0.06118272 -0.2188654 0.3901339 1 0 1
-0.05857689 -0.2174079 0.3877084 1 0 1
-0.05619355 -0.2177063 0.3876933 1 0 1
-0.05362148 -0.216232 0.3852536 1 0 1
-0.05118974 -0.2159273 0.3844186 1 0 1
-0.04887492 -0.2167952 0.3851879 1 0 1
-0.04665361 -0.2188382 0.3875612 1 0 1
-0.1939911 -0.2162055 0.4076274 1 0 1
-0.1926289 -0.2190728 0.4111678 1 0 1
-0.1920362 -0.2236 0.4170733 1 0 1
-0.1150592 -0.2079913 0.3813136 1 0 1
-0.1146414 -0.2153583 0.3910792 1 0 1
-0.112252 -0.2158043 0.3912301 1 0 1
-0.1100138 -0.2168225 0.3921752 1 0 1
-0.107469 -0.2166778 0.3915102 1 0 1
-0.1049305 -0.2165254 0.3908376 1 0 1
-0.1021166 -0.2152046 0.3885534 1 0 1
-0.09959862 -0.2150359 0.3878653 1 0 1
-0.09722032 -0.2154415 0.3879718 1 0 1
-0.09548719 -0.2187532 0.3920838 1 0 1
-0.09283618 -0.2179835 0.3905714 1 0 1
-0.09068552 -0.21954 0.3922625 1 0 1
-0.08863586 -0.2216771 0.3947497 1 0 1
-0.08610662 -0.2214718 0.3940183 1 0 1
-0.08336435 -0.2200879 0.3916731 1 0 1
-0.08085631 -0.2198665 0.3909265 1 0 1
-0.07825289 -0.2190511 0.3893692 1 0 1
-0.07546778 -0.2170524 0.3861977 1 0 1
-0.07280709 -0.2156309 0.3838219 1 0 1
-0.07053038 -0.2165537 0.3846526 1 0 1
-0.06807205 -0.2162935 0.3838693 1 0 1
-0.06586841 -0.2177946 0.3854894 1 0 1
-0.06356967 -0.2187016 0.3862988 1 0 1
-0.06111277 -0.2184223 0.385494 1 0 1
-0.05845034 -0.2163629 0.3822716 1 0 1
-0.05615323 -0.2172508 0.3830596 1 0 1
-0.05353238 -0.2151736 0.3798231 1 0 1
-0.05111958 -0.2148639 0.3789903 1 0 1
-0.04871396 -0.2145472 0.3781505 1 0 1
-0.04641824 -0.2154102 0.3789103 1 0 1
-0.1961726 -0.2220679 0.4116458 1 0 1
-0.1977722 -0.2310583 0.4238311 1 0 1
-0.1140746 -0.2143736 0.3856532 1 0 1
-0.112018 -0.2159782 0.3873999 1 0 1
-0.1094857 -0.2158352 0.3867432 1 0 1
-0.1072578 -0.2168488 0.3876774 1 0 1
-0.1048756 -0.2172749 0.3878054 1 0 1
-0.1023506 -0.2171112 0.3871265 1 0 1
-0.09955718 -0.2157715 0.3848404 1 0 1
-0.09731996 -0.2167613 0.3857461 1 0 1
-0.0952034 -0.2183319 0.3874452 1 0 1
-0.09256685 -0.217554 0.3859363 1 0 1
-0.09018853 -0.217941 0.3860207 1 0 1
-0.08816306 -0.2200844 0.3884997 1 0 1
-0.08565658 -0.2198729 0.3877694 1 0 1
-0.08304652 -0.2190653 0.3862308 1 0 1
-0.08077003 -0.220017 0.3870874 1 0 1
-0.07807487 -0.2186042 0.3847331 1 0 1
-0.07550067 -0.2177722 0.3831721 1 0 1
-0.07294105 -0.2169319 0.3816039 1 0 1
-0.07057767 -0.2172662 0.3816306 1 0 1
-0.06795286 -0.2158181 0.3792467 1 0 1
-0.06584825 -0.2179165 0.3816628 1 0 1
-0.06356136 -0.2188255 0.3824694 1 0 1
-0.06104042 -0.2179485 0.3808654 1 0 1
-0.05853434 -0.2170632 0.3792542 1 0 1
-0.05624516 -0.2179538 0.3800395 1 0 1
-0.05356697 -0.2152685 0.376011 1 0 1
-0.05098674 -0.213168 0.3727769 1 0 1
-0.04871522 -0.2140379 0.3735414 1 0 1
-0.1156889 -0.2123235 0.3792925 1 0 1
-0.1144707 -0.2168511 0.3850202 1 0 1
-0.1119393 -0.2167117 0.3843725 1 0 1
-0.1091074 -0.2153955 0.3821237 1 0 1
-0.1068952 -0.2164102 0.3830541 1 0 1
-0.1045282 -0.2168341 0.3831807 1 0 1
-0.1018765 -0.2160786 0.3817055 1 0 1
-0.09951458 -0.2164889 0.3818174 1 0 1
-0.09741924 -0.2180692 0.3835176 1 0 1
-0.0953071 -0.2196458 0.3852112 1 0 1
-0.09254732 -0.2182724 0.3829085 1 0 1
-0.0901765 -0.2186588 0.3829919 1 0 1
-0.08815978 -0.2208108 0.3854631 1 0 1
-0.08577497 -0.2211867 0.3855327 1 0 1
-0.08294661 -0.2191894 0.3824013 1 0 1
-0.08078864 -0.2207353 0.3840533 1 0 1
-0.07830561 -0.2204986 0.3833027 1 0 1
-0.07563148 -0.2190674 0.3809473 1 0 1
-0.07297979 -0.2176267 0.3785844 1 0 1
-0.07071511 -0.2185551 0.3794094 1 0 1
-0.06818004 -0.2176929 0.3778308 1 0 1
-0.06607635 -0.2198011 0.3802394 1 0 1
-0.06371021 -0.2201175 0.3802444 1 0 1
-0.06126768 -0.2198309 0.3794434 1 0 1
-0.05883226 -0.2195372 0.3786353 1 0 1
-0.0564716 -0.2198341 0.378619 1 0 1
-0.0539189 -0.2183303 0.3761995 1 0 1
-0.05144888 -0.2174161 0.3745717 1 0 1
-0.04916181 -0.2182914 0.3753332 1 0 1
-0.1130222 -0.1956128 0.3531156 1 0 1
-0.1154262 -0.2124362 0.3754897 1 0 1
-0.1134149 -0.2140527 0.3772302 1 0 1
-0.1113865 -0.215666 0.3789647 1 0 1
-0.1088801 -0.2155131 0.3783099 1 0 1
-0.10638 -0.2153526 0.3776476 1 0 1
-0.1038863 -0.2151846 0.3769778 1 0 1
-0.1016831 -0.2161887 0.3778904 1 0 1
-0.09905622 -0.2154167 0.3764109 1 0 1
-0.09724949 -0.2181827 0.3796956 1 0 1
-0.0951496 -0.2197643 0.3813836 1 0 1
-0.09227353 -0.2177878 0.3782911 1 0 1
-0.08979543 -0.2175793 0.3775778 1 0 1
-0.08756151 -0.2185507 0.378449 1 0 1
-0.08508883 -0.2183287 0.3777213 1 0 1
-0.08251186 -0.2175044 0.3761902 1 0 1
-0.08059206 -0.2202445 0.3794289 1 0 1
-0.07791755 -0.2188108 0.3770872 1 0 1
-0.07536482 -0.217964 0.3755343 1 0 1
-0.07292207 -0.2177062 0.3747706 1 0 1
-0.07048628 -0.217441 0.3739997 1 0 1
-0.06788214 -0.2159721 0.3716288 1 0 1
-0.06571912 -0.217488 0.3732332 1 0 1
-0.06338001 -0.2178013 0.3732377 1 0 1
-0.06096426 -0.2175086 0.3724386 1 0 1
-0.05869957 -0.2184095 0.3732256 1 0 1
-0.05649437 -0.2199062 0.374802 1 0 1
-0.05408039 -0.2195946 0.3739819 1 0 1
-0.05167356 -0.219276 0.3731549 1 0 1
-0.0495557 -0.2219618 0.3763026 1 0 1
-0.1159569 -0.2067858 0.3644162 1 0 1
-0.1156586 -0.2142906 0.3740675 1 0 1
-0.1133242 -0.2147352 0.3742197 1 0 1
-0.1114621 -0.216944 0.3767401 1 0 1
-0.108959 -0.2167879 0.3760868 1 0 1
-0.1064622 -0.2166242 0.3754261 1 0 1
-0.1036791 -0.2152688 0.373173 1 0 1
-0.1014878 -0.2162746 0.3740822 1 0 1
-0.09887154 -0.2154951 0.3726063 1 0 1
-0.09694312 -0.2176778 0.3750875 1 0 1
-0.0945977 -0.2180738 0.3751832 1 0 1
-0.09199716 -0.2172727 0.3736854 1 0 1
-0.08928788 -0.215867 0.3713866 1 0 1
-0.08719664 -0.217435 0.3730477 1 0 1
-0.08474285 -0.2172074 0.3723213 1 0 1
-0.08229578 -0.2169725 0.3715876 1 0 1
-0.08039286 -0.2197231 0.3748159 1 0 1
-0.07793985 -0.2194766 0.3740684 1 0 1
-0.07529423 -0.2180234 0.3717256 1 0 1
-0.07295843 -0.2183615 0.3717577 1 0 1
-0.07062165 -0.2186936 0.3717827 1 0 1
-0.06802009 -0.2172154 0.3694184 1 0 1
-0.06569336 -0.2175337 0.3694294 1 0 1
-0.06344599 -0.2184482 0.3702275 1 0 1
-0.06088492 -0.2169459 0.3678421 1 0 1
-0.05856368 -0.217245 0.3678323 1 0 1
-0.05644704 -0.2193498 0.3701977 1 0 1
-0.05411267 -0.2196382 0.3701738 1 0 1
-0.05177762 -0.2199204 0.3701429 1 0 1
-0.1166949 -0.2103697 0.3653817 1 0 1
-0.1152269 -0.2137725 0.3694824 1 0 1
-0.1125834 -0.2130302 0.3680546 1 0 1
-0.1109039 -0.2158375 0.3713554 1 0 1
-0.1084195 -0.2156754 0.3707027 1 0 1
-0.1059416 -0.2155059 0.3700427 1 0 1
-0.1033233 -0.2147337 0.3685851 1 0 1
-0.1010048 -0.2151445 0.3687003 1 0 1
-0.09826807 -0.2137595 0.3664373 1 0 1
-0.09622882 -0.2153507 0.3681192 1 0 1
-0.09391037 -0.2157428 0.3682134 1 0 1
-0.09146338 -0.2155302 0.3675096 1 0 1
-0.08889957 -0.2147111 0.3660076 1 0 1
-0.08670881 -0.215683 0.3668717 1 0 1
-0.08427783 -0.2154492 0.3661464 1 0 1
-0.08218887 -0.2170112 0.3677882 1 0 1
-0.08008324 -0.2185696 0.3694233 1 0 1
-0.07796104 -0.2201243 0.3710518 1 0 1
-0.07542194 -0.2192641 0.3695072 1 0 1
-0.07308983 -0.2196022 0.3695387 1 0 1
-0.07038777 -0.2175185 0.3663965 1 0 1
-0.06789276 -0.2166333 0.3648305 1 0 1
-0.06549697 -0.2163449 0.3640492 1 0 1
-0.06302764 -0.2154439 0.3624692 1 0 1
-0.06064981 -0.2151408 0.3616741 1 0 1
-0.05864277 -0.2178635 0.3648307 1 0 1
-0.05646609 -0.21937 0.3663969 1 0 1
-0.05420813 -0.2202649 0.3671644 1 0 1
-0.05200277 -0.2217626 0.3687164 1 0 1
-0.1193956 -0.2123261 0.3645904 1 0 1
-0.1170948 -0.2127782 0.3647532 1 0 1
-0.1147925 -0.2132243 0.3649091 1 0 1
-0.112326 -0.213069 0.3642712 1 0 1
-0.1105008 -0.2152908 0.366774 1 0 1
-0.1080314 -0.2151234 0.3661223 1 0 1
-0.1054174 -0.2143511 0.3646758 1 0 1
-0.1029647 -0.2141681 0.3640091 1 0 1
-0.100948 -0.2157748 0.3656987 1 0 1
-0.09835708 -0.2149796 0.3642299 1 0 1
-0.0961869 -0.2159766 0.3651182 1 0 1
-0.09427083 -0.2181708 0.3675765 1 0 1
-0.09156401 -0.2167532 0.3652978 1 0 1
-0.08887933 -0.2153257 0.3630113 1 0 1
-0.08657666 -0.215697 0.3630833 1 0 1
-0.0841568 -0.2154588 0.3623597 1 0 1
-0.08174363 -0.2152134 0.3616289 1 0 1
-0.07977024 -0.2173796 0.3640473 1 0 1
-0.0776681 -0.2189382 0.3656702 1 0 1
-0.07514759 -0.2180693 0.3641295 1 0 1
-0.07283482 -0.2184052 0.3641604 1 0 1
-0.07033585 -0.2175209 0.3626056 1 0 1
-0.06785163 -0.2166284 0.3610438 1 0 1
-0.06546699 -0.2163359 0.3602644 1 0 1
-0.06300846 -0.2154276 0.3586888 1 0 1
-0.06071881 -0.2157296 0.3586851 1 0 1
-0.0586478 -0.2178543 0.3610424 1 0 1
-0.05634499 -0.2181457 0.3610248 1 0 1
-0.05410681 -0.2190417 0.3617896 1 0 1
-0.05192152 -0.2205437 0.3633368 1 0 1
-0.1208548 -0.2101058 0.3582977 1 0 1
-0.1174957 -0.215187 0.3641128 1 0 1
-0.1148558 -0.2144391 0.3627001 1 0 1
-0.1122297 -0.2136821 0.3612793 1 0 1
-0.1100949 -0.2147139 0.3622046 1 0 1
-0.107951 -0.2157412 0.3631236 1 0 1
-0.1051925 -0.2143613 0.3608958 1 0 1
-0.1027508 -0.2141738 0.3602302 1 0 1
-0.1007465 -0.2157851 0.3619139 1 0 1
-0.0980265 -0.2143797 0.3596632 1 0 1
-0.09560034 -0.2141709 0.3589762 1 0 1
-0.09370859 -0.2163709 0.3614259 1 0 1
-0.09140806 -0.2167549 0.3615114 1 0 1
-0.08873376 -0.2153169 0.3592311 1 0 1
-0.08644257 -0.2156869 0.3593023 1 0 1
-0.08403383 -0.2154444 0.3585802 1 0 1
-0.08163188 -0.2151947 0.3578511 1 0 1
-0.07956251 -0.2167611 0.3594749 1 0 1
-0.07737184 -0.2177155 0.3603054 1 0 1
-0.07507155 -0.2180561 0.3603424 1 0 1
-0.0726734 -0.2177812 0.3595857 1 0 1
-0.07028209 -0.2174992 0.358822 1 0 1
-0.06771956 -0.2159889 0.3564776 1 0 1
-0.06543526 -0.2163028 0.356487 1 0 1
-0.06290618 -0.2147756 0.3541289 1 0 1
-0.06078679 -0.2163003 0.3556985 1 0 1
-0.05850409 -0.2165956 0.3556875 1 0 1
-0.05622066 -0.216885 0.3556697 1 0 1
-0.05393656 -0.2171685 0.3556451 1 0 1
-0.05159007 -0.2168317 0.3548269 1 0 1
-0.1209044 -0.2112938 0.356101 1 0 1
-0.1198566 -0.2159426 0.3617359 1 0 1
-0.1172134 -0.2151961 0.3603346 1 0 1
-0.1145841 -0.2144405 0.3589253 1 0 1
-0.1121321 -0.2142774 0.35829 1 0 1
-0.1100054 -0.2153114 0.3592119 1 0 1
-0.1075582 -0.215135 0.3585625 1 0 1
-0.105269 -0.2155548 0.3586884 1 0 1
-0.1031266 -0.216573 0.3595903 1 0 1
-0.1009749 -0.2175866 0.3604857 1 0 1
-0.09839384 -0.2167784 0.359025 1 0 1
-0.09582698 -0.2159614 0.3575566 1 0 1
-0.09367155 -0.216957 0.3584313 1 0 1
-0.0915071 -0.217948 0.3592996 1 0 1
-0.08871081 -0.2158925 0.3562422 1 0 1
-0.0864273 -0.2162617 0.3563126 1 0 1
-0.08414263 -0.2166252 0.3563763 1 0 1
-0.08174399 -0.2163723 0.355649 1 0 1
-0.07946113 -0.2167231 0.3556989 1 0 1
-0.0773875 -0.2182907 0.3573105 1 0 1
-0.07499367 -0.2180188 0.3565626 1 0 1
-0.07241207 -0.2165145 0.3542388 1 0 1
-0.07003979 -0.2162272 0.3534769 1 0 1
-0.06758498 -0.2153191 0.3519237 1 0 1
-0.06514485 -0.214403 0.3503636 1 0 1
-0.06288306 -0.2147081 0.3503658 1 0 1
-0.06077603 -0.2162378 0.3519302 1 0 1
-0.05850485 -0.2165322 0.3519188 1 0 1
-0.05616307 -0.2162042 0.3511162 1 0 1
-0.05402656 -0.2177196 0.3526602 1 0 1
-0.1224883 -0.2096073 0.3506167 1 0 1
-0.1218495 -0.2154776 0.3577946 1 0 1
-0.1195615 -0.2159354 0.3579617 1 0 1
-0.1169289 -0.2151811 0.3565637 1 0 1
-0.1143103 -0.2144179 0.3551578 1 0 1
-0.1120332 -0.2148548 0.3553033 1 0 1
-0.1097545 -0.2152858 0.3554419 1 0 1
-0.1073185 -0.2151047 0.3547936 1 0 1
-0.105193 -0.2161297 0.3556985 1 0 1
-0.1029103 -0.2165428 0.3558166 1 0 1
-0.1007705 -0.217558 0.3567085 1 0 1
-0.0983407 -0.217351 0.3560322 1 0 1
-0.09591735 -0.2171367 0.3553489 1 0 1
-0.09363332 -0.2175252 0.3554394 1 0 1
-0.09134808 -0.2179077 0.3555232 1 0 1
-0.08868675 -0.2164501 0.3532559 1 0 1
-0.08641087 -0.2168187 0.3533256 1 0 1
-0.08401667 -0.2165688 0.352607 1 0 1
-0.08174253 -0.2169249 0.352663 1 0 1
-0.07946733 -0.217275 0.3527122 1 0 1
-0.07750762 -0.2194625 0.3551004 1 0 1
-0.07511718 -0.2191875 0.3543543 1 0 1
-0.07253815 -0.217674 0.3520373 1 0 1
-0.07016927 -0.2173836 0.3512773 1 0 1
-0.06771743 -0.2164694 0.3497284 1 0 1
-0.06528038 -0.2155471 0.3481728 1 0 1
-0.06277605 -0.2139989 0.3458283 1 0 1
-0.06076347 -0.2161514 0.3481694 1 0 1
-0.05857817 -0.2170634 0.3489398 1 0 1
-0.05617329 -0.2161127 0.3473574 1 0 1
-0.05391628 -0.2163936 0.3473322 1 0 1
-0.1223481 -0.2101561 0.3476506 1 0 1
-0.1215408 -0.215448 0.3540293 1 0 1
-0.1189128 -0.2146937 0.3526422 1 0 1
-0.1164705 -0.2145363 0.3520238 1 0 1
-0.1138665 -0.2137647 0.3506211 1 0 1
-0.1116046 -0.2141992 0.3507649 1 0 1
-0.1091812 -0.2140197 0.3501246 1 0 1
-0.1069204 -0.2144417 0.3502547 1 0 1
-0.1048107 -0.2154675 0.3511558 1 0 1
-0.1025433 -0.2158783 0.3512725 1 0 1
-0.1002746 -0.2162833 0.3513825 1 0 1
-0.09800462 -0.2166823 0.3514856 1 0 1
-0.09559626 -0.2164628 0.3508034 1 0 1
-0.09332772 -0.2168493 0.3508929 1 0 1
-0.09105787 -0.2172298 0.3509755 1 0 1
-0.08841083 -0.215761 0.3487144 1 0 1
-0.08602893 -0.2155127 0.3480042 1 0 1
-0.08377128 -0.2158728 0.3480661 1 0 1
-0.08128521 -0.2149945 0.3465627 1 0 1
-0.07914305 -0.2159584 0.3473903 1 0 1
-0.07730975 -0.21877 0.3505497 1 0 1
-0.07503639 -0.2191082 0.3505849 1 0 1
-0.0724678 -0.2175845 0.3482745 1 0 1
-0.07039267 -0.2191474 0.3498552 1 0 1
-0.06766906 -0.2163684 0.345972 1 0 1
-0.06524284 -0.2154389 0.3444207 1 0 1
-0.06299638 -0.2157429 0.344422 1 0 1
-0.06082768 -0.2166623 0.3451962 1 0 1
-0.05865045 -0.2175768 0.3459637 1 0 1
-0.05625248 -0.2166194 0.3443857 1 0 1
-0.05400319 -0.2168998 0.3443603 1 0 1
-0.121655 -0.208867 0.3423671 1 0 1
-0.1203301 -0.2123572 0.3464034 1 0 1
-0.1186126 -0.2146326 0.3488878 1 0 1
-0.1161815 -0.2144706 0.3482704 1 0 1
-0.1135882 -0.2136915 0.3468713 1 0 1
-0.1113379 -0.2141244 0.3470139 1 0 1
-0.1092469 -0.2151628 0.3479246 1 0 1
-0.1068331 -0.2149727 0.3472787 1 0 1
-0.1048844 -0.2166135 0.3489517 1 0 1
-0.1027698 -0.2176376 0.3498432 1 0 1
-0.1002107 -0.216815 0.3484012 1 0 1
-0.09780704 -0.2165984 0.3477274 1 0 1
-0.09554729 -0.21699 0.3478228 1 0 1
-0.09301929 -0.2161434 0.3463589 1 0 1
-0.09076492 -0.2165218 0.3464405 1 0 1
-0.08838366 -0.2162769 0.3457387 1 0 1
-0.08600908 -0.2160249 0.3450302 1 0 1
-0.08387704 -0.217003 0.3458681 1 0 1
-0.08139399 -0.2161186 0.344369 1 0 1
-0.07936618 -0.2177053 0.3459705 1 0 1
-0.07742806 -0.219909 0.3483426 1 0 1
-0.07505608 -0.219626 0.3476002 1 0 1
-0.07259251 -0.2187143 0.3460738 1 0 1
-0.07033278 -0.2190388 0.3460948 1 0 1
-0.0676189 -0.2162436 0.3422233 1 0 1
-0.06520353 -0.2153068 0.3406765 1 0 1
-0.06288578 -0.2149858 0.3399001 1 0 1
-0.06073299 -0.2159067 0.3406715 1 0 1
-0.0584216 -0.2155729 0.339882 1 0 1
-0.05618846 -0.2158577 0.3398629 1 0 1
-0.05382027 -0.2148848 0.3382832 1 0 1
-0.1205292 -0.1985623 0.32614 1 0 1
-0.1204056 -0.2057131 0.3347884 1 0 1
-0.1198348 -0.2116545 0.3418944 1 0 1
-0.1181339 -0.2139365 0.3443698 1 0 1
-0.1155451 -0.2131572 0.3429814 1 0 1
-0.113139 -0.2129816 0.3423573 1 0 1
-0.1109042 -0.2134123 0.3424983 1 0 1
-0.1088289 -0.2144514 0.343405 1 0 1
-0.1061158 -0.213026 0.3412147 1 0 1
-0.1043443 -0.2152848 0.343654 1 0 1
-0.1021 -0.2156926 0.3437684 1 0 1
-0.09956326 -0.2148604 0.3423296 1 0 1
-0.09732409 -0.2152551 0.3424301 1 0 1
-0.09522149 -0.2162624 0.3432978 1 0 1
-0.0925743 -0.2147886 0.3410639 1 0 1
-0.09046926 -0.2157841 0.3419181 1 0 1
-0.08810304 -0.2155342 0.3412179 1 0 1
-0.0858658 -0.2158981 0.3412849 1 0 1
-0.08362738 -0.2162563 0.3413453 1 0 1
-0.08138799 -0.2166085 0.341399 1 0 1
-0.07925807 -0.2175778 0.3422206 1 0 1
-0.07711938 -0.2185423 0.3430355 1 0 1
-0.07476642 -0.2182538 0.3422948 1 0 1
-0.07232145 -0.2173337 0.3407726 1 0 1
-0.06989128 -0.2164055 0.3392437 1 0 1
-0.06729375 -0.2142176 0.3361586 1 0 1
-0.06490093 -0.213272 0.3346162 1 0 1
-0.06268934 -0.2135722 0.3346166 1 0 1
-0.06047708 -0.2138666 0.3346105 1 0 1
-0.05833947 -0.2147829 0.3353724 1 0 1
-0.0561219 -0.215066 0.3353531 1 0 1
-0.05356568 -0.2121992 0.3314544 1 0 1
-0.05123902 -0.2112096 0.3298732 1 0 1
-0.1226312 -0.206342 0.3324508 1 0 1
-0.1211809 -0.2092454 0.3356954 1 0 1
-0.1198789 -0.2127628 0.3397045 1 0 1
-0.1180061 -0.2144393 0.3414026 1 0 1
-0.1155973 -0.2142681 0.3407873 1 0 1
-0.1133638 -0.2147053 0.3409344 1 0 1
-0.1111288 -0.2151365 0.3410747 1 0 1
-0.108731 -0.2149447 0.3404385 1 0 1
-0.1060243 -0.2135096 0.3382545 1 0 1
-0.1041081 -0.2151578 0.3399149 1 0 1
-0.1018753 -0.2155641 0.3400282 1 0 1
-0.09934933 -0.2147245 0.3385932 1 0 1
-0.09712171 -0.2151177 0.3386928 1 0 1
-0.09503108 -0.2161265 0.3395569 1 0 1
-0.09266287 -0.2158866 0.338872 1 0 1
-0.09043167 -0.2162623 0.3389518 1 0 1
-0.08819931 -0.216632 0.3390248 1 0 1
-0.08584317 -0.2163719 0.3383195 1 0 1
-0.08373124 -0.2173539 0.339151 1 0 1
-0.08126593 -0.2164555 0.3376604 1 0 1
-0.0793699 -0.2186782 0.3400226 1 0 1
-0.07702134 -0.2183926 0.3392904 1 0 1
-0.07498903 -0.2199812 0.3408678 1 0 1
-0.07244402 -0.218428 0.3385781 1 0 1
-0.07001685 -0.2174936 0.3370536 1 0 1
-0.06742158 -0.2152936 0.3339779 1 0 1
-0.06520683 -0.2156006 0.3339845 1 0 1
-0.06290767 -0.215272 0.3332122 1 0 1
-0.060775 -0.2161971 0.3339779 1 0 1
-0.05863381 -0.2171174 0.334737 1 0 1
-0.05634028 -0.2167701 0.3339451 1 0 1
-0.05371409 -0.2132568 0.3292862 1 0 1
-0.1196438 -0.1903746 0.3094414 1 0 1
-0.1209639 -0.2018785 0.3233919 1 0 1
-0.1199237 -0.2060177 0.328155 1 0 1
-0.1188356 -0.2101606 0.3329151 1 0 1
-0.117345 -0.2130728 0.3361388 1 0 1
-0.1151285 -0.2135134 0.3362909 1 0 1
-0.1127409 -0.2133295 0.3356693 1 0 1
-0.1105252 -0.2137576 0.3358079 1 0 1
-0.1081462 -0.2135597 0.3351723 1 0 1
-0.1054578 -0.2121127 0.3329941 1 0 1
-0.1034075 -0.2131421 0.33388 1 0 1
-0.1011979 -0.2135449 0.3339916 1 0 1
-0.0986944 -0.2126957 0.3325599 1 0 1
-0.09649 -0.2130854 0.3326578 1 0 1
-0.09442299 -0.2140937 0.333518 1 0 1
-0.09234699 -0.2150975 0.3343719 1 0 1
-0.09026205 -0.2160969 0.3352195 1 0 1
-0.0881682 -0.2170918 0.3360609 1 0 1
-0.08569643 -0.2162008 0.3345881 1 0 1
-0.08347735 -0.2165568 0.3346469 1 0 1
-0.08114202 -0.2162788 0.3339298 1 0 1
-0.07903612 -0.2172514 0.3347449 1 0 1
-0.07670657 -0.2169604 0.3340144 1 0 1
-0.07459094 -0.2179224 0.3348164 1 0 1
-0.07216772 -0.2169879 0.3333031 1 0 1
-0.06975918 -0.2160453 0.331783 1 0 1
-0.06727361 -0.2144628 0.3294865 1 0 1
-0.06498651 -0.2141358 0.3287228 1 0 1
-0.06270643 -0.213802 0.3279527 1 0 1
-0.06075378 -0.2159946 0.3302549 1 0 1
-0.05854848 -0.2162829 0.3302414 1 0 1
-0.05627013 -0.2159311 0.3294518 1 0 1
-0.12156 -0.2047637 0.3235344 1 0 1
-0.1201435 -0.2076857 0.3267556 1 0 1
-0.1186947 -0.2106083 0.3299726 1 0 1
-0.1170358 -0.2129112 0.3324212 1 0 1
-0.1150045 -0.2139711 0.3333363 1 0 1
-0.1126242 -0.2137833 0.3327161 1 0 1
-0.1102501 -0.2135881 0.3320887 1 0 1
-0.1080446 -0.2140089 0.3322195 1 0 1
-0.1053626 -0.2125521 0.3300478 1 0 1
-0.103166 -0.212959 0.3301647 1 0 1
-0.100968 -0.2133602 0.3302751 1 0 1
-0.09862195 -0.2131296 0.3296131 1 0 1
-0.09642532 -0.2135185 0.3297103 1 0 1
-0.09450536 -0.2151565 0.3313334 1 0 1
-0.09243355 -0.2161632 0.332184 1 0 1
-0.09035286 -0.2171654 0.3330285 1 0 1
-0.08826321 -0.218163 0.3338666 1 0 1
-0.08591784 -0.2178962 0.333165 1 0 1
-0.08369873 -0.2182527 0.3332234 1 0 1
-0.08124733 -0.2173409 0.3317413 1 0 1
-0.07914567 -0.2183164 0.3325534 1 0 1
-0.07681957 -0.2180224 0.3318249 1 0 1
-0.07460424 -0.2183543 0.3318568 1 0 1
-0.07218799 -0.2174131 0.3303479 1 0 1
-0.06969031 -0.2158298 0.3280651 1 0 1
-0.06739967 -0.2155066 0.32731 1 0 1
-0.0652926 -0.2164471 0.3280829 1 0 1
-0.06292374 -0.2154754 0.3265476 1 0 1
-0.06073079 -0.2157684 0.3265402 1 0 1
-0.05853705 -0.2160557 0.3265264 1 0 1
-0.05605204 -0.2137877 0.3234375 1 0 1
-0.1217785 -0.2064137 0.3221391 1 0 1
-0.1201779 -0.2087265 0.3245888 1 0 1
-0.1183705 -0.210416 0.3262723 1 0 1
-0.1165463 -0.212103 0.3279504 1 0 1
-0.1145308 -0.2131634 0.3288613 1 0 1
-0.1123359 -0.2135949 0.3290041 1 0 1
-0.1101394 -0.2140206 0.3291403 1 0 1
-0.1076164 -0.2131882 0.3277448 1 0 1
-0.1052662 -0.2129739 0.3271048 1 0 1
-0.1029224 -0.2127525 0.3264578 1 0 1
-0.100434 -0.2118955 0.3250408 1 0 1
-0.09795987 -0.21103 0.3236165 1 0 1
-0.09621613 -0.2133044 0.3260026 1 0 1
-0.09402986 -0.2136861 0.3260923 1 0 1
-0.09211329 -0.215324 0.3277031 1 0 1
-0.09018005 -0.2169588 0.3293079 1 0 1
-0.08810242 -0.2179581 0.3301427 1 0 1
-0.08552074 -0.2164209 0.3279143 1 0 1
-0.08344092 -0.2174084 0.3287359 1 0 1
-0.08123629 -0.2177572 0.3287869 1 0 1
-0.07891855 -0.2174653 0.3280669 1 0 1
-0.07649937 -0.2165309 0.3265755 1 0 1
-0.07451209 -0.2181325 0.328136 1 0 1
-0.07220714 -0.2178207 0.3273961 1 0 1
-0.06971603 -0.2162277 0.3251203 1 0 1
-0.06752535 -0.2165387 0.325132 1 0 1
-0.06533384 -0.2168438 0.3251372 1 0 1
-0.06297197 -0.2158656 0.3236066 1 0 1
-0.06094852 -0.2174366 0.3251282 1 0 1
-0.05875473 -0.2177243 0.325114 1 0 1
-0.1211677 -0.1909696 0.3006888 1 0 1
-0.1231843 -0.2044889 0.3167754 1 0 1
-0.1218072 -0.2074342 0.3199791 1 0 1
-0.1202116 -0.2097557 0.3224202 1 0 1
-0.1185912 -0.2120763 0.3248567 1 0 1
-0.1164107 -0.2125176 0.3250111 1 0 1
-0.1144034 -0.2135801 0.3259184 1 0 1
-0.1120454 -0.213383 0.3253005 1 0 1
-0.1098606 -0.2138071 0.3254354 1 0 1
-0.1073483 -0.2129672 0.3240438 1 0 1
-0.1050093 -0.2127484 0.323405 1 0 1
-0.1026767 -0.2125224 0.3227593 1 0 1
-0.1003505 -0.2122893 0.3221068 1 0 1
-0.09788333 -0.2114171 0.3206867 1 0 1
-0.09600491 -0.2130669 0.3223034 1 0 1
-0.09383021 -0.2134471 0.3223921 1 0 1
-0.09179023 -0.2144555 0.3232356 1 0 1
-0.08974127 -0.2154594 0.3240729 1 0 1
-0.08768351 -0.2164589 0.324904 1 0 1
-0.08536843 -0.2161821 0.3242055 1 0 1
-0.08318035 -0.2165347 0.3242621 1 0 1
-0.08087485 -0.2162443 0.3235503 1 0 1
-0.07868868 -0.2165847 0.3235939 1 0 1
-0.0765015 -0.2169194 0.323631 1 0 1
-0.07452277 -0.2185261 0.3251857 1 0 1
-0.07242674 -0.2194898 0.3259721 1 0 1
-0.07012818 -0.2191686 0.3252277 1 0 1
-0.06792966 -0.2194812 0.3252391 1 0 1
-0.0656412 -0.2191466 0.3244816 1 0 1
-0.06327461 -0.2181634 0.3229556 1 0 1
-0.06108545 -0.2184568 0.3229474 1 0 1
-0.05874084 -0.2174589 0.3214087 1 0 1
-0.123952 -0.2006557 0.309163 1 0 1
-0.1230128 -0.2048607 0.3138695 1 0 1
-0.1218353 -0.2084433 0.3178176 1 0 1
-0.1200581 -0.210146 0.3194943 1 0 1
-0.1180812 -0.211218 0.3204096 1 0 1
-0.1159161 -0.2116568 0.3205622 1 0 1
-0.1137496 -0.21209 0.3207086 1 0 1
-0.1114106 -0.2118868 0.3200913 1 0 1
-0.1092451 -0.2123077 0.3202245 1 0 1
-0.1069148 -0.2120909 0.3195938 1 0 1
-0.1045908 -0.2118668 0.318956 1 0 1
-0.1022732 -0.2116356 0.3183115 1 0 1
-0.100114 -0.2120315 0.3184184 1 0 1
-0.09765763 -0.2111518 0.3170022 1 0 1
-0.09564759 -0.2121705 0.3178545 1 0 1
-0.09362859 -0.2131847 0.3187006 1 0 1
-0.09173686 -0.2148315 0.3202994 1 0 1
-0.08943136 -0.2145625 0.3196155 1 0 1
-0.08738948 -0.2155628 0.3204431 1 0 1
-0.08521412 -0.2159199 0.3205054 1 0 1
-0.08291705 -0.2156316 0.3198019 1 0 1
-0.0806267 -0.2153364 0.3190919 1 0 1
-0.07834319 -0.215034 0.3183751 1 0 1
-0.07639346 -0.2166489 0.3199305 1 0 1
-0.0741119 -0.2163345 0.3192009 1 0 1
-0.07203964 -0.2172981 0.319984 1 0 1
-0.06986138 -0.2176142 0.3200012 1 0 1
-0.06777574 -0.218568 0.3207716 1 0 1
-0.06550249 -0.2182287 0.3200163 1 0 1
-0.0631507 -0.217238 0.3184949 1 0 1
-0.06089546 -0.2168845 0.3177268 1 0 1
-0.05849185 -0.2152328 0.3154331 1 0 1
-0.05581573 -0.2109873 0.3100951 1 0 1
-0.05130605 -0.1892675 0.2842447 1 0 1
-0.1266739 -0.2030472 0.3091072 1 0 1
-0.1259525 -0.2079005 0.3145554 1 0 1
-0.1242023 -0.2096162 0.3162374 1 0 1
-0.1222444 -0.2106999 0.3171611 1 0 1
-0.1202771 -0.2117795 0.318079 1 0 1
-0.1179344 -0.2115928 0.3174835 1 0 1
-0.1157771 -0.2120308 0.3176352 1 0 1
-0.113443 -0.2118302 0.317026 1 0 1
-0.1111151 -0.2116224 0.31641 1 0 1
-0.1091288 -0.2126759 0.3172967 1 0 1
-0.1071334 -0.2137252 0.3181775 1 0 1
-0.1048091 -0.2134988 0.3175418 1 0 1
-0.1024912 -0.2132653 0.3168992 1 0 1
-0.1000276 -0.2123874 0.3154944 1 0 1
-0.09772646 -0.2121389 0.3148381 1 0 1
-0.09543188 -0.2118833 0.3141752 1 0 1
-0.09356539 -0.2135382 0.3157739 1 0 1
-0.09140899 -0.2139104 0.3158544 1 0 1
-0.08911862 -0.2136363 0.315172 1 0 1
-0.08722153 -0.2152787 0.3167526 1 0 1
-0.08530775 -0.2169179 0.3183272 1 0 1
-0.08289306 -0.2159842 0.316869 1 0 1
-0.08072731 -0.2163282 0.3169176 1 0 1
-0.07856054 -0.2166667 0.3169599 1 0 1
-0.07639281 -0.2169993 0.3169958 1 0 1
-0.07411864 -0.2166813 0.3162682 1 0 1
-0.07195304 -0.2170019 0.3162913 1 0 1
-0.06988414 -0.2179625 0.3170649 1 0 1
-0.0678066 -0.2189186 0.3178323 1 0 1
-0.06554077 -0.2185758 0.3170791 1 0 1
-0.0633679 -0.2188738 0.3170765 1 0 1
-0.06111224 -0.2185179 0.3163106 1 0 1
-0.05862932 -0.2162091 0.3132671 1 0 1
-0.1279025 -0.2077903 0.3114642 1 0 1
-0.126369 -0.2101455 0.3138956 1 0 1
-0.1244208 -0.2112368 0.3148219 1 0 1
-0.1220808 -0.2110592 0.3142411 1 0 1
-0.1199343 -0.2115076 0.3144044 1 0 1
-0.1176028 -0.2113162 0.3138101 1 0 1
-0.1156368 -0.2123872 0.3147117 1 0 1
-0.1131341 -0.2115473 0.3133523 1 0 1
-0.1109894 -0.2119713 0.3134896 1 0 1
-0.1088432 -0.2123896 0.3136204 1 0 1
-0.1068598 -0.2134402 0.3144974 1 0 1
-0.1043864 -0.2125707 0.3131104 1 0 1
-0.10224 -0.2129712 0.313222 1 0 1
-0.09978729 -0.212086 0.311821 1 0 1
-0.0974974 -0.211833 0.3111663 1 0 1
-0.09535886 -0.2122144 0.3112583 1 0 1
-0.09336003 -0.2132322 0.3120975 1 0 1
-0.09135226 -0.2142456 0.3129307 1 0 1
-0.08920243 -0.2146113 0.313004 1 0 1
-0.08718076 -0.2156153 0.313825 1 0 1
-0.08540091 -0.2179043 0.3161477 1 0 1
-0.08311081 -0.21761 0.3154483 1 0 1
-0.08082745 -0.2173086 0.3147421 1 0 1
-0.07866466 -0.2176469 0.3147838 1 0 1
-0.07650077 -0.2179794 0.3148192 1 0 1
-0.0740184 -0.2163628 0.3125848 1 0 1
-0.07186443 -0.2166821 0.3126073 1 0 1
-0.06980765 -0.2176445 0.3133779 1 0 1
-0.06764808 -0.2179529 0.3133877 1 0 1
-0.06548771 -0.2182554 0.3133911 1 0 1
-0.06332653 -0.2185522 0.3133882 1 0 1
-0.06116463 -0.2188433 0.3133789 1 0 1
-0.1253914 -0.2079548 0.307992 1 0 1
-0.1242485 -0.2115827 0.3119044 1 0 1
-0.1217242 -0.210766 0.310577 1 0 1
-0.1197771 -0.2118486 0.3114871 1 0 1
-0.1174529 -0.2116534 0.3108942 1 0 1
-0.115855 -0.2140018 0.31329 1 0 1
-0.1131755 -0.2125182 0.311186 1 0 1
-0.1110346 -0.212942 0.3113224 1 0 1
-0.1087239 -0.2127202 0.3107027 1 0 1
-0.1067486 -0.2137727 0.3115761 1 0 1
-0.1042822 -0.2128965 0.3101933 1 0 1
-0.1021436 -0.2132962 0.3103039 1 0 1
-0.09985078 -0.2130473 0.3096577 1 0 1
-0.09771348 -0.2134349 0.3097555 1 0 1
-0.09542978 -0.2131725 0.3090962 1 0 1
-0.0935765 -0.214838 0.3106831 1 0 1
-0.09143176 -0.2152092 0.310762 1 0 1
-0.08941941 -0.2162211 0.3115861 1 0 1
-0.08739807 -0.2172285 0.3124039 1 0 1
-0.08549367 -0.2188792 0.3139671 1 0 1
-0.0830852 -0.2179336 0.312518 1 0 1
-0.08080927 -0.2176285 0.3118137 1 0 1
-0.07854014 -0.2173166 0.3111031 1 0 1
-0.07649816 -0.2182979 0.3118896 1 0 1
-0.07391617 -0.2160212 0.3089106 1 0 1
-0.07187627 -0.2169904 0.3096844 1 0 1
-0.06982768 -0.2179551 0.3104519 1 0 1
-0.06758139 -0.2176103 0.3097093 1 0 1
-0.06534208 -0.2172588 0.3089603 1 0 1
-0.0631098 -0.2169003 0.3082051 1 0 1
-0.06096743 -0.2171892 0.3081955 1 0 1
-0.1319166 -0.2149631 0.3136602 1 0 1
-0.1291506 -0.2135317 0.3116153 1 0 1
-0.1264061 -0.2120895 0.3095619 1 0 1
-0.1244664 -0.2131862 0.3104813 1 0 1
-0.1219414 -0.2123643 0.3091584 1 0 1
-0.1198065 -0.2128115 0.3093196 1 0 1
-0.1173016 -0.2119733 0.3079821 1 0 1
-0.1157126 -0.2143294 0.3103692 1 0 1
-0.1135694 -0.2147603 0.3105116 1 0 1
-0.111252 -0.2145434 0.3099008 1 0 1
-0.1089409 -0.2143193 0.3092832 1 0 1
-0.1069661 -0.2153753 0.3101535 1 0 1
-0.1043378 -0.2138495 0.3080277 1 0 1
-0.1018887 -0.2129588 0.3066421 1 0 1
-0.09960707 -0.2127054 0.3059974 1 0 1
-0.09733199 -0.2124449 0.305346 1 0 1
-0.09535457 -0.2134718 0.3061845 1 0 1
-0.09336821 -0.2144944 0.3070172 1 0 1
-0.09151076 -0.2161613 0.3085923 1 0 1
-0.08950265 -0.217176 0.3094131 1 0 1
-0.08735564 -0.2175363 0.3094789 1 0 1
-0.08533368 -0.2185414 0.3102873 1 0 1
-0.08305841 -0.2182398 0.3095916 1 0 1
-0.08078986 -0.217931 0.3088893 1 0 1
-0.07852814 -0.2176154 0.3081806 1 0 1
-0.07638381 -0.2179459 0.3082148 1 0 1
-0.07391859 -0.2163098 0.3059946 1 0 1
-0.07157867 -0.2153188 0.3045174 1 0 1
-0.06945114 -0.2156292 0.3045325 1 0 1
-0.06741775 -0.2165893 0.3052907 1 0 1
-0.06519371 -0.2162331 0.3045439 1 0 1
-0.06306381 -0.2165264 0.3045402 1 0 1
-0.06126603 -0.2194418 0.3075276 1 0 1
-0.1321364 -0.2165732 0.3122197 1 0 1
-0.1283498 -0.2119408 0.3064718 1 0 1
-0.1258235 -0.2111258 0.3051663 1 0 1
-0.1240958 -0.2128631 0.3068239 1 0 1
-0.1219664 -0.2133157 0.3069905 1 0 1
-0.1196469 -0.2131208 0.3064075 1 0 1
-0.1173335 -0.2129187 0.3058177 1 0 1
-0.1157497 -0.2152832 0.3081962 1 0 1
-0.1136103 -0.215714 0.3083377 1 0 1
-0.1112965 -0.215494 0.3077287 1 0 1
-0.1089889 -0.2152669 0.3071129 1 0 1
-0.106853 -0.215679 0.307235 1 0 1
-0.1042313 -0.2141437 0.305116 1 0 1
-0.1016316 -0.2125984 0.3029895 1 0 1
-0.09951502 -0.2129891 0.3030916 1 0 1
-0.0972473 -0.2127249 0.3024419 1 0 1
-0.09513215 -0.2131037 0.3025314 1 0 1
-0.09329992 -0.2147785 0.3041062 1 0 1
-0.09103645 -0.214496 0.3034376 1 0 1
-0.08931682 -0.216815 0.3057468 1 0 1
-0.08731198 -0.2178267 0.306558 1 0 1
-0.08529818 -0.218834 0.3073632 1 0 1
-0.08290769 -0.2178745 0.3059229 1 0 1
-0.08088797 -0.218871 0.3067155 1 0 1
-0.0786298 -0.2185523 0.3060089 1 0 1
-0.07637841 -0.2182267 0.3052958 1 0 1
-0.07402691 -0.2172378 0.3038297 1 0 1
-0.07169007 -0.2162408 0.3023572 1 0 1
-0.06966572 -0.2172088 0.3031185 1 0 1
-0.06744208 -0.2168557 0.3023801 1 0 1
-0.06522549 -0.2164959 0.3016354 1 0 1
-0.06301591 -0.2161293 0.3008846 1 0 1
-0.06106424 -0.2177355 0.3023678 1 0 1
-0.130482 -0.2055393 0.2965427 1 0 1
-0.1283624 -0.2128813 0.3043056 1 0 1
-0.1258392 -0.2120605 0.3030044 1 0 1
-0.1239195 -0.2131601 0.3039158 1 0 1
-0.1217979 -0.2136117 0.3040811 1 0 1
-0.1194857 -0.213413 0.3034996 1 0 1
-0.11755 -0.2144981 0.3043931 1 0 1
-0.1159673 -0.2168719 0.3067632 1 0 1
-0.113828 -0.2173033 0.3069043 1 0 1
-0.1115138 -0.217081 0.3062972 1 0 1
-0.1090363 -0.2162029 0.3049415 1 0 1
-0.1067385 -0.2159656 0.3043207 1 0 1
-0.1041235 -0.2144207 0.3022085 1 0 1
-0.1016884 -0.2135167 0.3008313 1 0 1
-0.09926748 -0.2126041 0.2994472 1 0 1
-0.09716132 -0.2129877 0.299542 1 0 1
-0.09549308 -0.2153247 0.3018599 1 0 1
-0.09351534 -0.2163528 0.302686 1 0 1
-0.09125148 -0.2160679 0.3020194 1 0 1
-0.08953313 -0.218396 0.3043203 1 0 1
-0.0873978 -0.2187554 0.3043848 1 0 1
-0.08500761 -0.2177964 0.3029556 1 0 1
-0.08275498 -0.2174862 0.3022635 1 0 1
-0.08074732 -0.2184841 0.3030528 1 0 1
-0.07815475 -0.2161867 0.3001162 1 0 1
-0.07626047 -0.2178315 0.3016371 1 0 1
-0.07402731 -0.2174948 0.3009196 1 0 1
-0.07159401 -0.2158314 0.2987076 1 0 1
-0.06958181 -0.216801 0.2994658 1 0 1
-0.06746524 -0.2171049 0.2994738 1 0 1
-0.06516422 -0.21608 0.2979872 1 0 1
-0.06296603 -0.2157092 0.2972385 1 0 1
-0.06102693 -0.21732 0.2987162 1 0 1
-0.1287831 -0.2012994 0.2885139 1 0 1
-0.130074 -0.2120542 0.3004818 1 0 1
-0.1273508 -0.2105888 0.2984541 1 0 1
-0.1252516 -0.2110482 0.2986299 1 0 1
-0.1233478 -0.212148 0.2995368 1 0 1
-0.1212417 -0.212597 0.2997004 1 0 1
-0.1189447 -0.2123927 0.2991197 1 0 1
-0.1172101 -0.2141266 0.3007472 1 0 1
-0.1158219 -0.2171563 0.3038467 1 0 1
-0.1136904 -0.2175868 0.3039867 1 0 1
-0.1115575 -0.2180115 0.3041203 1 0 1
-0.1089131 -0.216476 0.3020297 1 0 1
-0.1066228 -0.2162347 0.3014104 1 0 1
-0.1040144 -0.2146804 0.2993052 1 0 1
-0.1015862 -0.2137698 0.2979323 1 0 1
-0.09917237 -0.2128507 0.2965526 1 0 1
-0.09707401 -0.2132334 0.2966464 1 0 1
-0.09541474 -0.2155781 0.2989557 1 0 1
-0.09344519 -0.2166082 0.2997783 1 0 1
-0.09132776 -0.2169768 0.2998543 1 0 1
-0.08947943 -0.2186555 0.3014059 1 0 1
-0.08735197 -0.2190141 0.3014697 1 0 1
-0.08484148 -0.2173894 0.2993038 1 0 1
-0.08260017 -0.2170749 0.2986136 1 0 1
-0.08072424 -0.2187348 0.3001409 1 0 1
-0.07825352 -0.2170862 0.2979555 1 0 1
-0.07614049 -0.2174132 0.2979878 1 0 1
-0.0739187 -0.2170723 0.2972723 1 0 1
-0.07159989 -0.2160618 0.2958091 1 0 1
-0.06939587 -0.2157067 0.2950812 1 0 1
-0.06719889 -0.215345 0.2943471 1 0 1
-0.06491663 -0.2143118 0.2928653 1 0 1
-0.06256098 -0.2126059 0.2906359 1 0 1
-0.06065004 -0.2142191 0.292108 1 0 1
-0.1279283 -0.1995845 0.2834601 1 0 1
-0.1284089 -0.2077959 0.2924484 1 0 1
-0.1267448 -0.2095508 0.2940962 1 0 1
-0.1246611 -0.2100074 0.29427 1 0 1
-0.1231679 -0.212405 0.2966422 1 0 1
-0.1214567 -0.2141522 0.2982749 1 0 1
-0.1191593 -0.2139458 0.2976963 1 0 1
-0.1174257 -0.2156859 0.299318 1 0 1
-0.1154931 -0.2167716 0.3001986 1 0 1
-0.1131952 -0.2165474 0.2996009 1 0 1
-0.1110777 -0.2169696 0.299733 1 0 1
-0.1087885 -0.2167318 0.2991221 1 0 1
-0.1061726 -0.2151766 0.2970307 1 0 1
-0.1037411 -0.2142672 0.295669 1 0 1
-0.1014828 -0.2140058 0.2950376 1 0 1
-0.09907593 -0.21308 0.2936621 1 0 1
-0.09698535 -0.2134618 0.2937552 1 0 1
-0.0953351 -0.2158143 0.2960557 1 0 1
-0.09323054 -0.216187 0.296137 1 0 1
-0.09098542 -0.215894 0.2954738 1 0 1
-0.08901796 -0.2169155 0.2962809 1 0 1
-0.08691002 -0.2172714 0.2963436 1 0 1
-0.0845456 -0.2162974 0.2949232 1 0 1
-0.08244335 -0.2166407 0.2949733 1 0 1
-0.08034008 -0.2169783 0.2950173 1 0 1
-0.07800378 -0.2159824 0.2935777 1 0 1
-0.07601852 -0.216972 0.2943481 1 0 1
-0.07369986 -0.2159619 0.2928959 1 0 1
-0.0712916 -0.214278 0.2906985 1 0 1
-0.0692072 -0.2145839 0.2907116 1 0 1
-0.06702544 -0.2142174 0.2899796 1 0 1
-0.06466548 -0.2125094 0.2877637 1 0 1
-0.06241691 -0.2114604 0.2862807 1 0 1
-0.06035286 -0.2117407 0.2862695 1 0 1
-0.05723661 -0.2033187 0.2766472 1 0 1
-0.1279904 -0.1941415 0.2745885 1 0 1
-0.1285619 -0.2023737 0.2835431 1 0 1
-0.128621 -0.2093232 0.2910376 1 0 1
-0.1265467 -0.2097843 0.2912163 1 0 1
-0.1244707 -0.2102399 0.2913889 1 0 1
-0.1231845 -0.2132966 0.2944843 1 0 1
-0.12109 -0.2137444 0.2946458 1 0 1
-0.1188039 -0.2135332 0.2940682 1 0 1
-0.1168964 -0.2146231 0.2949502 1 0 1
-0.1151622 -0.2163639 0.2965599 1 0 1
-0.1126969 -0.2154794 0.2952299 1 0 1
-0.1105951 -0.2158992 0.2953605 1 0 1
-0.108321 -0.2156561 0.2947507 1 0 1
-0.1057194 -0.2140899 0.2926658 1 0 1
-0.1034659 -0.2138311 0.2920424 1 0 1
-0.1013779 -0.2142246 0.2921472 1 0 1
-0.0991334 -0.2139525 0.291511 1 0 1
-0.09704686 -0.2143341 0.2916034 1 0 1
-0.09554926 -0.2173565 0.2946306 1 0 1
-0.09344474 -0.2177297 0.2947114 1 0 1
-0.09105956 -0.2167715 0.2933149 1 0 1
-0.0889606 -0.2171321 0.2933831 1 0 1
-0.08686045 -0.2174871 0.2934451 1 0 1
-0.08450308 -0.2165066 0.2920292 1 0 1
-0.08216026 -0.2155181 0.2906069 1 0 1
-0.08019298 -0.2165198 0.291386 1 0 1
-0.07786763 -0.2155168 0.289951 1 0 1
-0.07611956 -0.2178427 0.2921904 1 0 1
-0.07369543 -0.2161587 0.2900068 1 0 1
-0.07139859 -0.2151341 0.2885531 1 0 1
-0.06931815 -0.2154399 0.2885658 1 0 1
-0.06704304 -0.2144007 0.2870997 1 0 1
-0.06459676 -0.2120132 0.2841551 1 0 1
-0.06235919 -0.2109573 0.282677 1 0 1
-0.12863 -0.1905957 0.2679488 1 0 1
-0.1273241 -0.192999 0.2703187 1 0 1
-0.1283429 -0.2025643 0.2806965 1 0 1
-0.1277845 -0.2075849 0.2859773 1 0 1
-0.1261413 -0.209348 0.2876118 1 0 1
-0.1240769 -0.2098016 0.2877828 1 0 1
-0.1230021 -0.2135223 0.2915959 1 0 1
-0.120721 -0.2133137 0.2910262 1 0 1
-0.1182557 -0.2124418 0.2897196 1 0 1
-0.1163642 -0.2135319 0.2905973 1 0 1
-0.1144634 -0.214618 0.2914694 1 0 1
-0.1118379 -0.2130661 0.2894118 1 0 1
-0.1102845 -0.2154596 0.2917341 1 0 1
-0.1081929 -0.215872 0.2918572 1 0 1
-0.1057652 -0.2149572 0.2905109 1 0 1
-0.1038421 -0.2160185 0.2913532 1 0 1
-0.1017504 -0.2164133 0.2914577 1 0 1
-0.09919035 -0.2148136 0.2893593 1 0 1
-0.09710776 -0.215195 0.289451 1 0 1
-0.09517187 -0.2162354 0.2902692 1 0 1
-0.09293894 -0.2159413 0.289616 1 0 1
-0.09085279 -0.216306 0.2896895 1 0 1
-0.08890182 -0.2173315 0.2904897 1 0 1
-0.0865448 -0.2163515 0.2890848 1 0 1
-0.08420226 -0.2153632 0.2876733 1 0 1
-0.08212353 -0.2157037 0.287722 1 0 1
-0.08004376 -0.2160385 0.2877646 1 0 1
-0.07796305 -0.2163676 0.2878011 1 0 1
-0.0758814 -0.2166913 0.2878316 1 0 1
-0.07358079 -0.2156677 0.2863888 1 0 1
-0.07140003 -0.2153075 0.2856735 1 0 1
-0.06902377 -0.2135966 0.2834848 1 0 1
-0.06676753 -0.2125493 0.2820236 1 0 1
-0.06424583 -0.209475 0.2783556 1 0 1
-0.06220997 -0.2097578 0.2783497 1 0 1
-0.1312684 -0.1992017 0.274579 1 0 1
-0.1291922 -0.2060075 0.281483 1 0 1
-0.128415 -0.2103962 0.2860198 1 0 1
-0.1263524 -0.210856 0.2861962 1 0 1
-0.1240858 -0.2106538 0.2856399 1 0 1
-0.1228182 -0.2137309 0.2887119 1 0 1
-0.1201551 -0.2122023 0.2866892 1 0 1
-0.1178954 -0.211981 0.2861137 1 0 1
-0.116016 -0.2130721 0.2869873 1 0 1
-0.1143105 -0.2148198 0.2885835 1 0 1
-0.1118709 -0.2139198 0.2872612 1 0 1
-0.1101471 -0.2156594 0.2888461 1 0 1
-0.1080634 -0.2160708 0.2889682 1 0 1
-0.1056428 -0.2151495 0.2876262 1 0 1
-0.1035641 -0.2155483 0.2877357 1 0 1
-0.1014841 -0.2159415 0.2878391 1 0 1
-0.09909064 -0.2149975 0.2864772 1 0 1
-0.09701587 -0.215378 0.286568 1 0 1
-0.09493993 -0.2157531 0.2866529 1 0 1
-0.09286276 -0.2161225 0.2867315 1 0 1
-0.09078452 -0.2164864 0.2868041 1 0 1
-0.08870511 -0.2168447 0.2868707 1 0 1
-0.08649187 -0.2165274 0.2862007 1 0 1
-0.08428529 -0.2162033 0.2855244 1 0 1
-0.08208552 -0.2158723 0.2848419 1 0 1
-0.07989253 -0.2155345 0.2841532 1 0 1
-0.07782359 -0.2158623 0.284189 1 0 1
-0.07564037 -0.2155114 0.283488 1 0 1
-0.07335463 -0.2144802 0.2820499 1 0 1
-0.07108369 -0.2134411 0.2806058 1 0 1
-0.06882744 -0.212394 0.2791555 1 0 1
-0.06648834 -0.2106639 0.2769683 1 0 1
-0.06407809 -0.2082489 0.274044 1 0 1
-0.06205793 -0.20853 0.2740378 1 0 1
-0.1334715 -0.2065539 0.2797008 1 0 1
-0.1318734 -0.2083371 0.2813381 1 0 1
-0.1306869 -0.2114319 0.2844169 1 0 1
-0.1292577 -0.2138705 0.2867691 1 0 1
-0.1267703 -0.2130167 0.2854985 1 0 1
-0.1244996 -0.2128131 0.2849445 1 0 1
-0.1226329 -0.2139227 0.2858326 1 0 1
-0.1203667 -0.2137064 0.2852659 1 0 1
-0.1181067 -0.213483 0.2846926 1 0 1
-0.1160403 -0.2139149 0.2848377 1 0 1
-0.1137889 -0.2136779 0.2842514 1 0 1
-0.1113641 -0.2127697 0.2829328 1 0 1
-0.109305 -0.2131827 0.2830591 1 0 1
-0.1072446 -0.2135901 0.2831793 1 0 1
-0.1053508 -0.2146584 0.2840198 1 0 1
-0.1032838 -0.2150555 0.2841282 1 0 1
-0.1013759 -0.2161149 0.2849573 1 0 1
-0.09914605 -0.2158329 0.2843267 1 0 1
-0.09707526 -0.2162134 0.2844169 1 0 1
-0.09470585 -0.2152482 0.2830464 1 0 1
-0.09264044 -0.2156161 0.2831242 1 0 1
-0.09029198 -0.2146356 0.2817408 1 0 1
-0.08836924 -0.2156631 0.282534 1 0 1
-0.08603802 -0.2146681 0.2811379 1 0 1
-0.08410925 -0.2156852 0.2819191 1 0 1
-0.08192085 -0.2153499 0.2812385 1 0 1
-0.07986074 -0.2156825 0.2812798 1 0 1
-0.07779971 -0.2160095 0.2813151 1 0 1
-0.07562395 -0.2156551 0.2806162 1 0 1
-0.0732355 -0.2139409 0.2784547 1 0 1
-0.07118737 -0.214249 0.2784719 1 0 1
-0.06883232 -0.2125185 0.2762983 1 0 1
-0.06640184 -0.210101 0.2733903 1 0 1
-0.06428439 -0.2097097 0.2726613 1 0 1
-0.06208375 -0.2086326 0.2711981 1 0 1
-0.1350338 -0.2055831 0.2759365 1 0 1
-0.1352368 -0.2126351 0.2833295 1 0 1
-0.1325199 -0.2111379 0.2813632 1 0 1
-0.1306832 -0.2122678 0.2822703 1 0 1
-0.1292592 -0.2147145 0.2846135 1 0 1
-0.126775 -0.2138548 0.2833473 1 0 1
-0.124711 -0.2143104 0.2835165 1 0 1
-0.1226455 -0.2147603 0.2836796 1 0 1
-0.1203829 -0.214541 0.2831147 1 0 1
-0.1177431 -0.2129855 0.2810986 1 0 1
-0.1155006 -0.2127503 0.2805199 1 0 1
-0.1132644 -0.2125079 0.2799346 1 0 1
-0.1110344 -0.2122585 0.2793428 1 0 1
-0.1091633 -0.2133374 0.2801911 1 0 1
-0.1071107 -0.2137438 0.2803104 1 0 1
-0.1052252 -0.214814 0.2811473 1 0 1
-0.1031661 -0.2152101 0.2812547 1 0 1
-0.1012664 -0.2162714 0.2820802 1 0 1
-0.09888712 -0.2153143 0.2807271 1 0 1
-0.09682811 -0.2156931 0.2808163 1 0 1
-0.09446958 -0.2147206 0.2794502 1 0 1
-0.092416 -0.215087 0.279527 1 0 1
-0.09021983 -0.2147735 0.278873 1 0 1
-0.0881679 -0.2151282 0.2789378 1 0 1
-0.08584766 -0.2141261 0.2775462 1 0 1
-0.08406074 -0.2158206 0.2790492 1 0 1
-0.08187983 -0.2154818 0.2783707 1 0 1
-0.07994954 -0.216491 0.2791367 1 0 1
-0.07801051 -0.217496 0.2798969 1 0 1
-0.0758345 -0.2171392 0.2792003 1 0 1
-0.07344497 -0.2154171 0.2770464 1 0 1
-0.07129058 -0.2150456 0.2763376 1 0 1
-0.06904079 -0.213987 0.2748972 1 0 1
-0.06651025 -0.2108776 0.271274 1 0 1
-0.06449106 -0.211165 0.2712729 1 0 1
-0.06247108 -0.2114469 0.2712659 1 0 1
-0.1341078 -0.2037478 0.2709469 1 0 1
-0.1341112 -0.2101633 0.2775939 1 0 1
-0.1320732 -0.2106372 0.277785 1 0 1
-0.1296032 -0.209781 0.2765344 1 0 1
-0.1282034 -0.2122315 0.2788671 1 0 1
-0.1261566 -0.2126897 0.2790404 1 0 1
-0.1243117 -0.2138073 0.2799264 1 0 1
-0.1220581 -0.2135897 0.2793691 1 0 1
-0.1200066 -0.2140314 0.2795243 1 0 1
-0.1181456 -0.2151349 0.2803932 1 0 1
-0.1157107 -0.2142302 0.279097 1 0 1
-0.1131055 -0.2126477 0.2770736 1 0 1
-0.1110635 -0.2130642 0.2772038 1 0 1
-0.1088435 -0.2128047 0.2766074 1 0 1
-0.1068026 -0.2132094 0.2767254 1 0 1
-0.1049293 -0.2142806 0.2775586 1 0 1
-0.1028819 -0.2146751 0.2776648 1 0 1
-0.100672 -0.2143905 0.2770437 1 0 1
-0.09862603 -0.2147732 0.2771377 1 0 1
-0.09627192 -0.2138006 0.2757824 1 0 1
-0.09378263 -0.2121438 0.2736984 1 0 1
-0.0916068 -0.2118301 0.2730519 1 0 1
-0.0894376 -0.2115096 0.2723991 1 0 1
-0.08755083 -0.2125377 0.2731848 1 0 1
-0.08565518 -0.2135616 0.2739648 1 0 1
-0.08388086 -0.2152602 0.2754616 1 0 1
-0.08183757 -0.2155967 0.2755077 1 0 1
-0.07991557 -0.216608 0.2762705 1 0 1
-0.07774803 -0.2162532 0.275582 1 0 1
-0.07535829 -0.2145286 0.2734417 1 0 1
-0.07321228 -0.2141591 0.272741 1 0 1
-0.07117994 -0.2144656 0.2727572 1 0 1
-0.06873553 -0.2120337 0.2698759 1 0 1
-0.06642043 -0.2102754 0.2677115 1 0 1
-0.06441303 -0.2105615 0.26771 1 0 1
-0.1345402 -0.2058534 0.2702623 1 0 1
-0.1334274 -0.2089791 0.2733131 1 0 1
-0.1322823 -0.2121066 0.276361 1 0 1
-0.1302427 -0.2125755 0.2765453 1 0 1
-0.1282015 -0.213039 0.2767238 1 0 1
-0.1263665 -0.2141637 0.2776119 1 0 1
-0.1245222 -0.2152846 0.2784946 1 0 1
-0.121868 -0.213728 0.2765067 1 0 1
-0.1198243 -0.2141687 0.2766608 1 0 1
-0.1177791 -0.2146038 0.2768089 1 0 1
-0.1155438 -0.2143625 0.2762339 1 0 1
-0.11313 -0.2134425 0.2749349 1 0 1
-0.111092 -0.2138587 0.2750643 1 0 1
-0.1086985 -0.212923 0.273752 1 0 1
-0.1064924 -0.2126526 0.2731509 1 0 1
-0.1044619 -0.21305 0.2732617 1 0 1
-0.1022646 -0.2127665 0.2726481 1 0 1
-0.1002355 -0.2131523 0.272747 1 0 1
-0.09820507 -0.2135326 0.2728399 1 0 1
-0.09586585 -0.212552 0.2714887 1 0 1
-0.09369085 -0.2122415 0.2708502 1 0 1
-0.09181459 -0.2132824 0.2716442 1 0 1
-0.08964511 -0.2129596 0.2709938 1 0 1
-0.08775884 -0.2139908 0.2717762 1 0 1
-0.08599816 -0.2156992 0.2732728 1 0 1
-0.08395987 -0.2160409 0.2733242 1 0 1
-0.08166738 -0.2150124 0.2719299 1 0 1
-0.07975759 -0.2160251 0.2726893 1 0 1
-0.07772025 -0.2163497 0.2727228 1 0 1
-0.07545215 -0.2153003 0.2713104 1 0 1
-0.07330981 -0.2149278 0.2706118 1 0 1
-0.07149571 -0.2166051 0.2720679 1 0 1
-0.06904592 -0.2141629 0.269197 1 0 1
-0.06672584 -0.2123972 0.2670403 1 0 1
-0.06461923 -0.2119971 0.2663183 1 0 1
-0.1346684 -0.2008375 0.2622582 1 0 1
-0.1349733 -0.2079588 0.2695666 1 0 1
-0.1338584 -0.2110971 0.2726064 1 0 1
-0.1324914 -0.2135701 0.2749312 1 0 1
-0.1300201 -0.2127042 0.2736902 1 0 1
-0.1275626 -0.2118293 0.272442 1 0 1
-0.1255352 -0.2122844 0.2726125 1 0 1
-0.1237107 -0.2134044 0.2734903 1 0 1
-0.1212753 -0.2125072 0.272222 1 0 1
-0.1194438 -0.2136171 0.2730883 1 0 1
-0.1176032 -0.2147232 0.2739492 1 0 1
-0.1153753 -0.2144781 0.2733757 1 0 1
-0.1127835 -0.212877 0.2713664 1 0 1
-0.1105759 -0.2126162 0.2707795 1 0 1
-0.1081973 -0.2116723 0.2694711 1 0 1
-0.1056591 -0.2100432 0.2674404 1 0 1
-0.103652 -0.2104366 0.2675495 1 0 1
-0.1016436 -0.2108247 0.2676527 1 0 1
-0.09979593 -0.2118863 0.2684661 1 0 1
-0.09778115 -0.2122642 0.2685577 1 0 1
-0.09561097 -0.2119562 0.2679273 1 0 1
-0.09329706 -0.2109601 0.266574 1 0 1
-0.09114394 -0.2106377 0.2659309 1 0 1
-0.08899752 -0.2103085 0.2652819 1 0 1
-0.08727379 -0.2120222 0.2667774 1 0 1
-0.08539868 -0.2130493 0.2675505 1 0 1
-0.08351476 -0.2140722 0.268318 1 0 1
-0.08149507 -0.2144058 0.2683626 1 0 1
-0.07972062 -0.2161055 0.2698359 1 0 1
-0.0776912 -0.2164294 0.2698689 1 0 1
-0.07543024 -0.2153736 0.2684612 1 0 1
-0.07329537 -0.2149976 0.267765 1 0 1
-0.07138253 -0.2159914 0.2684977 1 0 1
-0.06894295 -0.2135368 0.2656372 1 0 1
-0.0665338 -0.2110721 0.2627707 1 0 1
-0.06415512 -0.2085975 0.2598986 1 0 1
-0.134496 -0.2073928 0.2660253 1 0 1
-0.1329463 -0.2092024 0.2676347 1 0 1
-0.1315999 -0.2116798 0.269949 1 0 1
-0.1291471 -0.2108047 0.2687111 1 0 1
-0.1271331 -0.2112632 0.2688859 1 0 1
-0.1253261 -0.2123886 0.2697652 1 0 1
-0.1235098 -0.2135103 0.2706392 1 0 1
-0.1210814 -0.2126064 0.2693751 1 0 1
-0.1192583 -0.213718 0.2702375 1 0 1
-0.1174259 -0.2148258 0.2710946 1 0 1
-0.1152054 -0.2145769 0.2705227 1 0 1
-0.1126203 -0.2129666 0.2685204 1 0 1
-0.1106019 -0.21338 0.2686475 1 0 1
-0.1084043 -0.2131091 0.2680562 1 0 1
-0.1058651 -0.2114722 0.2660331 1 0 1
-0.1036881 -0.2111859 0.2654288 1 0 1
-0.1015175 -0.2108926 0.2648181 1 0 1
-0.09951569 -0.2112743 0.2649146 1 0 1
-0.09735425 -0.210968 0.2642918 1 0 1
-0.09535393 -0.2113381 0.2643764 1 0 1
-0.09305096 -0.2103349 0.2630277 1 0 1
-0.09120296 -0.2113774 0.2638143 1 0 1
-0.08906016 -0.2110452 0.2631673 1 0 1
-0.08734125 -0.2127642 0.2646568 1 0 1
-0.08533541 -0.2131072 0.2647123 1 0 1
-0.08332851 -0.2134447 0.264762 1 0 1
-0.08132065 -0.2137768 0.2648059 1 0 1
-0.07943529 -0.2147921 0.2655586 1 0 1
-0.07742164 -0.2151139 0.265591 1 0 1
-0.07529131 -0.2147403 0.2649027 1 0 1
-0.07327972 -0.2150506 0.2649233 1 0 1
-0.07126726 -0.2153555 0.2649382 1 0 1
-0.06904595 -0.2142717 0.2635176 1 0 1
-0.06663923 -0.2117957 0.2606617 1 0 1
