ply
format ascii 1.0
Comment Generated by Floating Hands
element vertex 1253
property double x
property double y
property double z
property uchar red
property uchar green
property uchar blue
end_header
0.07310773 -0.03665834 0.2609226 1 0 1
0.07463588 -0.0365218 0.2605751 1 0 1
0.07592076 -0.03593513 0.2593612 1 0 1
0.07670551 -0.03445332 0.256423 1 0 1
0.0782143 -0.03430679 0.2560648 1 0 1
0.08022807 -0.03504711 0.2574196 1 0 1
0.08148465 -0.0344474 0.2561922 1 0 1
0.0829929 -0.0342892 0.2558189 1 0 1
0.08502863 -0.03501541 0.257153 1 0 1
0.08654141 -0.03484884 0.2567685 1 0 1
0.08832467 -0.03512173 0.2572333 1 0 1
0.09066537 -0.03627554 0.2593978 1 0 1
0.09386554 -0.03874999 0.2641081 1 0 1
0.09597606 -0.03944757 0.265397 1 0 1
0.09781273 -0.03969796 0.2658268 1 0 1
0.09965523 -0.03994355 0.2662498 1 0 1
0.1009145 -0.03930331 0.2649696 1 0 1
0.1018662 -0.03822015 0.2628398 1 0 1
0.1031033 -0.03757456 0.2615553 1 0 1
0.104331 -0.03692616 0.2602681 1 0 1
0.105859 -0.03671338 0.2598222 1 0 1
0.1070719 -0.03605882 0.2585288 1 0 1
0.1085925 -0.03583887 0.2580744 1 0 1
0.1110726 -0.03692566 0.2601368 1 0 1
0.1138974 -0.03844165 0.263027 1 0 1
0.1164217 -0.03951348 0.2650651 1 0 1
0.1192979 -0.04101311 0.2679286 1 0 1
0.1211957 -0.04120043 0.2682702 1 0 1
0.1227598 -0.0409486 0.2677698 1 0 1
0.1243218 -0.0406928 0.2672646 1 0 1
0.1255355 -0.04000028 0.2659222 1 0 1
0.1270896 -0.03973719 0.2654085 1 0 1
0.1289952 -0.03990171 0.2657198 1 0 1
0.130906 -0.04006094 0.2660238 1 0 1
0.1346266 -0.04236614 0.2704575 1 0 1
0.1383887 -0.04465952 0.2748713 1 0 1
0.1421922 -0.04694087 0.279265 1 0 1
0.1445495 -0.04749711 0.2803439 1 0 1
0.1469189 -0.04804646 0.2814127 1 0 1
0.1481631 -0.0473083 0.2800081 1 0 1
0.1505457 -0.04784587 0.2810602 1 0 1
0.1521677 -0.04752555 0.2804652 1 0 1
0.154957 -0.04847531 0.2823163 1 0 1
0.1569783 -0.04856851 0.2825229 1 0 1
0.1590042 -0.04865599 0.2827216 1 0 1
-0.1089051 -0.2088897 0.6213684 1 0 1
-0.105299 -0.2070756 0.6170914 1 0 1
0.06889956 -0.0393655 0.2629433 1 0 1
0.07066633 -0.03969081 0.2634717 1 0 1
0.07197876 -0.03910988 0.2622689 1 0 1
0.07281404 -0.03762459 0.2593399 1 0 1
0.07410106 -0.03703801 0.2581327 1 0 1
0.07562079 -0.03689818 0.2577822 1 0 1
0.07664818 -0.03585545 0.2557092 1 0 1
0.07815753 -0.03570874 0.255351 1 0 1
0.08017154 -0.03645578 0.2567023 1 0 1
0.08142876 -0.03585238 0.2554767 1 0 1
0.08293758 -0.03569397 0.2551035 1 0 1
0.0849736 -0.03642698 0.2564342 1 0 1
0.08648691 -0.03626013 0.2560497 1 0 1
0.08827054 -0.03653626 0.2565128 1 0 1
0.0906114 -0.03770035 0.258672 1 0 1
0.09353197 -0.03974968 0.2625214 1 0 1
0.09592212 -0.04089988 0.2646571 1 0 1
0.09804615 -0.04159845 0.2659337 1 0 1
0.1001834 -0.04229125 0.2672013 1 0 1
0.1011565 -0.04120224 0.2650747 1 0 1
0.1021128 -0.04011123 0.2629474 1 0 1
0.1030524 -0.03901836 0.2608196 1 0 1
0.1042809 -0.03836612 0.2595344 1 0 1
0.1055 -0.03771103 0.2582465 1 0 1
0.10671 -0.03705317 0.2569562 1 0 1
0.108544 -0.03727429 0.2573428 1 0 1
0.110704 -0.03793091 0.2585613 1 0 1
0.1135251 -0.03946109 0.2614457 1 0 1
0.1160461 -0.04054359 0.2634797 1 0 1
0.1189186 -0.04205745 0.2663373 1 0 1
0.1211484 -0.04268654 0.2675126 1 0 1
0.1230519 -0.0428718 0.2678453 1 0 1
0.1242757 -0.04217814 0.2665074 1 0 1
0.12549 -0.04148166 0.2651669 1 0 1
0.1270446 -0.04121815 0.2646533 1 0 1
0.1293043 -0.04182077 0.2657912 1 0 1
0.1308619 -0.04154807 0.2652655 1 0 1
0.1338608 -0.04300636 0.2680375 1 0 1
0.1376156 -0.0453215 0.2724434 1 0 1
0.1417799 -0.04805709 0.2776522 1 0 1
0.144134 -0.04862048 0.2787291 1 0 1
0.1461248 -0.048746 0.2789753 1 0 1
0.1473624 -0.04800525 0.2775753 1 0 1
0.1493556 -0.04812106 0.2778088 1 0 1
0.1509673 -0.04780238 0.277218 1 0 1
0.1537461 -0.04876418 0.279068 1 0 1
0.1557571 -0.04886254 0.2792771 1 0 1
0.1605521 -0.05194234 0.2851663 1 0 1
-0.1124184 -0.212146 0.621548 1 0 1
-0.1085637 -0.2094339 0.6155145 1 0 1
-0.1045489 -0.2058137 0.6076913 1 0 1
-0.1018332 -0.2075436 0.6105174 1 0 1
-0.09938926 -0.2106119 0.6160011 1 0 1
0.06928226 -0.04169698 0.2639373 1 0 1
0.07060429 -0.04111555 0.2627395 1 0 1
0.07191744 -0.04053092 0.2615386 1 0 1
0.07251978 -0.03858089 0.2577554 1 0 1
0.0740414 -0.03844461 0.2574097 1 0 1
0.07556165 -0.03830454 0.2570592 1 0 1
0.07658986 -0.03725465 0.2549899 1 0 1
0.07809974 -0.03710772 0.2546318 1 0 1
0.07986111 -0.03740927 0.2551243 1 0 1
0.08111525 -0.03680255 0.2539015 1 0 1
0.08236035 -0.03619277 0.252676 1 0 1
0.0843891 -0.03693328 0.254005 1 0 1
0.08589537 -0.03676711 0.2536225 1 0 1
0.08767191 -0.0370473 0.2540858 1 0 1
0.0900054 -0.03822251 0.2562417 1 0 1
0.09291832 -0.04028998 0.2600841 1 0 1
0.09558413 -0.04190021 0.2630641 1 0 1
0.09799144 -0.04305442 0.2651848 1 0 1
0.09983853 -0.04330592 0.2656033 1 0 1
0.1011028 -0.0426576 0.264326 1 0 1
0.10206 -0.04155935 0.2622025 1 0 1
0.1026987 -0.04001264 0.259236 1 0 1
0.1039241 -0.03935703 0.2579537 1 0 1
0.1054494 -0.03914411 0.2575091 1 0 1
0.1069728 -0.03892734 0.2570598 1 0 1
0.1088111 -0.03915113 0.2574438 1 0 1
0.110975 -0.03981382 0.2586577 1 0 1
0.1134759 -0.04091376 0.2606981 1 0 1
0.1156694 -0.04156362 0.2618922 1 0 1
0.1188698 -0.04353378 0.2655775 1 0 1
0.1207647 -0.04372791 0.265917 1 0 1
0.1226651 -0.04391687 0.2662493 1 0 1
0.1238858 -0.04321989 0.2649145 1 0 1
0.1250971 -0.04252018 0.2635772 1 0 1
0.1266486 -0.04225691 0.2630651 1 0 1
0.1281981 -0.04198965 0.2625481 1 0 1
0.1301025 -0.04215634 0.2628514 1 0 1
0.1327334 -0.04319217 0.264795 1 0 1
0.1368416 -0.04596631 0.2700167 1 0 1
0.1409985 -0.04872715 0.2752158 1 0 1
0.1437173 -0.04973358 0.2771119 1 0 1
0.1460803 -0.05029728 0.2781765 1 0 1
0.1473186 -0.04955259 0.2767786 1 0 1
0.1493123 -0.0496714 0.2770106 1 0 1
0.1509246 -0.04935227 0.27642 1 0 1
0.1533139 -0.0498923 0.2774514 1 0 1
0.1561085 -0.05085622 0.2792846 1 0 1
0.1605101 -0.05353228 0.2843476 1 0 1
-0.1380715 -0.204216 0.6047872 1 0 1
-0.1354966 -0.2060203 0.6077037 1 0 1
-0.1327554 -0.2073755 0.6097285 1 0 1
-0.1301348 -0.2091716 0.6126296 1 0 1
-0.1118295 -0.2117773 0.6139181 1 0 1
-0.1077779 -0.2081387 0.6061221 1 0 1
-0.1041147 -0.2058339 0.6009724 1 0 1
-0.1016278 -0.2084732 0.6055646 1 0 1
-0.098903 -0.2102078 0.6083755 1 0 1
0.07076752 -0.04299545 0.2628615 1 0 1
0.07185514 -0.04194891 0.2608029 1 0 1
0.07269242 -0.04044226 0.2578849 1 0 1
0.07374317 -0.03939102 0.2558243 1 0 1
0.07526013 -0.03925107 0.2554748 1 0 1
0.07628538 -0.03819434 0.2534101 1 0 1
0.07779203 -0.03804756 0.2530529 1 0 1
0.07954998 -0.03835281 0.2535445 1 0 1
0.08080098 -0.03774267 0.2523246 1 0 1
0.08204298 -0.0371296 0.2511018 1 0 1
0.08406822 -0.03787728 0.2524283 1 0 1
0.08557127 -0.0377112 0.2520468 1 0 1
0.08734439 -0.03799511 0.2525094 1 0 1
0.08967422 -0.03918096 0.2546608 1 0 1
0.09230416 -0.04081321 0.2576485 1 0 1
0.09552819 -0.04334283 0.262315 1 0 1
0.09764902 -0.0440553 0.2635855 1 0 1
0.09978314 -0.04476191 0.2648471 1 0 1
0.1013422 -0.04456075 0.2644144 1 0 1
0.1020061 -0.04300421 0.261452 1 0 1
0.1026457 -0.04144675 0.258491 1 0 1
0.1038718 -0.04078737 0.2572107 1 0 1
0.1053976 -0.0405741 0.2567663 1 0 1
0.1066089 -0.03990862 0.2554798 1 0 1
0.1084438 -0.04013607 0.2558632 1 0 1
0.1106044 -0.04080594 0.2570747 1 0 1
0.1127778 -0.0414697 0.258277 1 0 1
0.1152917 -0.04257356 0.2603028 1 0 1
0.1184884 -0.04456133 0.2639803 1 0 1
0.1203801 -0.04475913 0.2643194 1 0 1
0.1226158 -0.04539622 0.2654805 1 0 1
0.1241795 -0.04513925 0.2649758 1 0 1
0.1250492 -0.0439918 0.2628124 1 0 1
0.1262517 -0.04328549 0.2614747 1 0 1
0.1281513 -0.04346042 0.2617837 1 0 1
0.1296992 -0.04318882 0.2612621 1 0 1
0.133048 -0.04511669 0.2648459 1 0 1
0.1375239 -0.04835411 0.2708746 1 0 1
0.1413199 -0.05069809 0.2752392 1 0 1
0.1436711 -0.05127514 0.2763106 1 0 1
0.1456593 -0.05140727 0.2765549 1 0 1
0.1465158 -0.05022202 0.2743447 1 0 1
0.1481203 -0.04990863 0.2737633 1 0 1
0.1497223 -0.04959112 0.273177 1 0 1
0.1521012 -0.05013976 0.2742091 1 0 1
0.1540987 -0.05024695 0.2744204 1 0 1
0.1576884 -0.05208322 0.27786 1 0 1
-0.1389991 -0.1997435 0.5898875 1 0 1
-0.1354494 -0.1984226 0.5866295 1 0 1
-0.1339665 -0.2033637 0.5957078 1 0 1
-0.1311295 -0.2042709 0.5968422 1 0 1
-0.1295238 -0.2092159 0.6059118 1 0 1
-0.1278394 -0.2141649 0.6149778 1 0 1
-0.1250349 -0.2155144 0.6169742 1 0 1
-0.1219607 -0.2159565 0.6171947 1 0 1
-0.1190074 -0.2168427 0.6182895 1 0 1
-0.115689 -0.2163663 0.6167228 1 0 1
-0.111811 -0.2136171 0.610724 1 0 1
-0.1074313 -0.2085874 0.6002897 1 0 1
-0.1036779 -0.2058065 0.5942642 1 0 1
-0.1008022 -0.2066443 0.595306 1 0 1
-0.01105675 -0.209664 0.5858982 1 0 1
-0.008079243 -0.2102841 0.5866503 1 0 1
-0.00534922 -0.2053162 0.5767727 1 0 1
-0.002528809 -0.2035939 0.5730839 1 0 1
0.0004637068 -0.2051211 0.5755798 1 0 1
0.00367707 -0.2094359 0.5833715 1 0 1
0.006776117 -0.2114175 0.5867292 1 0 1
0.0711556 -0.04534107 0.2638321 1 0 1
0.07179189 -0.04336387 0.2600616 1 0 1
0.07286382 -0.04230758 0.2580052 1 0 1
0.07391915 -0.04124884 0.2559476 1 0 1
0.07519924 -0.04064799 0.2547429 1 0 1
0.07598027 -0.03912404 0.2518285 1 0 1
0.07773244 -0.03943707 0.2523248 1 0 1
0.07898556 -0.03882705 0.2511114 1 0 1
0.08022968 -0.03821397 0.2498952 1 0 1
0.08146479 -0.03759797 0.2486762 1 0 1
0.08348268 -0.03835322 0.250001 1 0 1
0.08471096 -0.03773009 0.2487736 1 0 1
0.0864732 -0.03801848 0.2492374 1 0 1
0.08906706 -0.03967263 0.2522323 1 0 1
0.09168943 -0.04131946 0.2552148 1 0 1
0.09490569 -0.04387062 0.2598724 1 0 1
0.09730579 -0.04504609 0.2619843 1 0 1
0.09972667 -0.04621488 0.2640853 1 0 1
0.1012863 -0.04601338 0.2636527 1 0 1
0.101951 -0.04444604 0.2606959 1 0 1
0.1022902 -0.04242435 0.2569018 1 0 1
0.1038184 -0.04221463 0.2564622 1 0 1
0.1053447 -0.04200106 0.2560179 1 0 1
0.1065567 -0.04133172 0.2547334 1 0 1
0.1083919 -0.04156233 0.2551151 1 0 1
0.1102327 -0.041788 0.2554898 1 0 1
0.1124028 -0.04245889 0.2566897 1 0 1
0.1149132 -0.04357336 0.2587114 1 0 1
0.1181061 -0.0455788 0.2623811 1 0 1
0.1199946 -0.04578023 0.2627197 1 0 1
0.1222269 -0.0464245 0.2638786 1 0 1
0.1237874 -0.04616773 0.2633752 1 0 1
0.1246542 -0.04501353 0.2612168 1 0 1
0.1258537 -0.04430396 0.2598824 1 0 1
0.1277501 -0.04448261 0.2601909 1 0 1
0.1292948 -0.04421119 0.2596707 1 0 1
0.1322794 -0.04571252 0.2624266 1 0 1
0.1367477 -0.04897847 0.2684435 1 0 1
0.1409042 -0.05178699 0.2736177 1 0 1
0.1432521 -0.05237116 0.274687 1 0 1
0.1456122 -0.05294845 0.2757461 1 0 1
0.1460908 -0.05131503 0.2727259 1 0 1
0.1473099 -0.05056179 0.2713336 1 0 1
0.1489052 -0.05024525 0.2707502 1 0 1
0.1508877 -0.05036319 0.2709717 1 0 1
0.1520885 -0.0495998 0.2695685 1 0 1
0.1548667 -0.0505823 0.2713917 1 0 1
-0.1434231 -0.2055156 0.5952552 1 0 1
-0.138906 -0.2014941 0.5867402 1 0 1
-0.135811 -0.201512 0.5861276 1 0 1
-0.1337429 -0.2046827 0.5916667 1 0 1
-0.1307748 -0.2051402 0.591917 1 0 1
-0.1289101 -0.2092126 0.5992048 1 0 1
-0.1275192 -0.2151005 0.6100128 1 0 1
-0.1247298 -0.2164553 0.6120036 1 0 1
-0.1219233 -0.217805 0.6139861 1 0 1
-0.1188544 -0.2182394 0.6141958 1 0 1
-0.115665 -0.2182108 0.6135136 1 0 1
-0.1114469 -0.2140688 0.604879 1 0 1
-0.1073048 -0.209909 0.5962301 1 0 1
-0.1033458 -0.2061888 0.5884503 1 0 1
-0.1012125 -0.2102316 0.5956705 1 0 1
-0.09921498 -0.2151912 0.6046512 1 0 1
-0.01115103 -0.2151228 0.5898046 1 0 1
-0.008218024 -0.2138744 0.5870202 1 0 1
-0.005350516 -0.2116803 0.5824611 1 0 1
-0.002497129 -0.2099458 0.5787777 1 0 1
0.0004402553 -0.2100784 0.5786178 1 0 1
0.003573848 -0.2130184 0.5837439 1 0 1
0.0713161 -0.04723227 0.2639338 1 0 1
0.0721871 -0.04570553 0.261025 1 0 1
0.07303393 -0.04417687 0.2581165 1 0 1
0.07385663 -0.0426464 0.2552083 1 0 1
0.07513734 -0.04204186 0.2540056 1 0 1
0.07616423 -0.04097071 0.2519483 1 0 1
0.0774232 -0.04036039 0.2507406 1 0 1
0.07867318 -0.03974707 0.2495301 1 0 1
0.07991417 -0.0391307 0.2483167 1 0 1
0.08114614 -0.03851137 0.2471006 1 0 1
0.08289666 -0.03881218 0.2475757 1 0 1
0.08438569 -0.03864732 0.2471982 1 0 1
0.08641585 -0.03940008 0.2485063 1 0 1
0.08900963 -0.04106787 0.251494 1 0 1
0.09135313 -0.04226853 0.253626 1 0 1
0.09428266 -0.04438135 0.2574316 1 0 1
0.09696172 -0.0460268 0.2603812 1 0 1
0.09937895 -0.04720617 0.2624779 1 0 1
0.1006415 -0.04654695 0.2612074 1 0 1
0.1012998 -0.04496989 0.2582583 1 0 1
0.1022351 -0.04384883 0.2561476 1 0 1
0.1037638 -0.04363881 0.2557082 1 0 1
0.1052907 -0.04342491 0.255264 1 0 1
0.1065033 -0.04275177 0.2539814 1 0 1
0.1086551 -0.04344033 0.255194 1 0 1
0.1101801 -0.04321428 0.2547345 1 0 1
0.1117033 -0.04298435 0.2542704 1 0 1
0.114861 -0.04501634 0.2579473 1 0 1
0.1177228 -0.04658611 0.2607799 1 0 1
0.1199427 -0.0472432 0.2619448 1 0 1
0.1218369 -0.0474426 0.2622746 1 0 1
0.1233944 -0.04718604 0.2617726 1 0 1
0.124604 -0.04647531 0.2604425 1 0 1
0.1258041 -0.04576189 0.2591101 1 0 1
0.1277009 -0.04594358 0.259417 1 0 1
0.1292462 -0.04567178 0.2588971 1 0 1
0.1325912 -0.04763403 0.2624642 1 0 1
0.1366988 -0.05047973 0.2676483 1 0 1
0.1404873 -0.05286561 0.2719939 1 0 1
0.1428319 -0.05345695 0.273061 1 0 1
0.1448137 -0.05359642 0.2733047 1 0 1
0.1456646 -0.05239783 0.2711049 1 0 1
0.1464984 -0.05119788 0.2689053 1 0 1
0.1480872 -0.05088224 0.2683248 1 0 1
0.1500628 -0.05100456 0.2685474 1 0 1
0.1524363 -0.05156267 0.269569 1 0 1
0.155615 -0.05299479 0.272191 1 0 1
0.1564184 -0.05177786 0.2699733 1 0 1
-0.1513924 -0.2035357 0.5868139 1 0 1
-0.1441986 -0.2009088 0.5803988 1 0 1
-0.1420638 -0.2036557 0.5850691 1 0 1
-0.1375815 -0.1995944 0.5765679 1 0 1
-0.1346739 -0.200058 0.5768311 1 0 1
-0.1322028 -0.2018797 0.5797204 1 0 1
-0.1294224 -0.2027866 0.5808449 1 0 1
-0.1273247 -0.2059685 0.5863561 1 0 1
-0.1258517 -0.2114343 0.5962582 1 0 1
-0.1235081 -0.2141611 0.6008797 1 0 1
-0.1206169 -0.2150544 0.6019747 1 0 1
-0.1178394 -0.2164 0.6039411 1 0 1
-0.1144492 -0.2154452 0.6014968 1 0 1
-0.1099283 -0.2098846 0.5902351 1 0 1
-0.1063975 -0.2079835 0.586005 1 0 1
-0.1026889 -0.2051489 0.5800011 1 0 1
-0.1016243 -0.2138267 0.5960174 1 0 1
-0.01437637 -0.2143232 0.5823408 1 0 1
-0.01150944 -0.2111845 0.5760449 1 0 1
-0.008510974 -0.2132261 0.5794386 1 0 1
-0.005606243 -0.2124298 0.5775338 1 0 1
-0.002741944 -0.2111532 0.5747394 1 0 1
0.0002132673 -0.2117579 0.5754608 1 0 1
0.003306148 -0.2142462 0.5796953 1 0 1
0.006219326 -0.2138923 0.5786356 1 0 1
0.00944683 -0.2173141 0.5846089 1 0 1
0.07147536 -0.04912733 0.2640264 1 0 1
0.07235115 -0.04758965 0.2611224 1 0 1
0.07320278 -0.04605006 0.2582187 1 0 1
0.0737931 -0.0440409 0.2544638 1 0 1
0.07507453 -0.04343268 0.2532629 1 0 1
0.0761022 -0.0423544 0.2512095 1 0 1
0.07736181 -0.04174041 0.2500037 1 0 1
0.07836016 -0.0406571 0.2479472 1 0 1
0.07959802 -0.04003745 0.2467366 1 0 1
0.08108673 -0.03988024 0.2463694 1 0 1
0.08231031 -0.03925424 0.2451525 1 0 1
0.08405968 -0.03955454 0.2456212 1 0 1
0.08581509 -0.03985023 0.2460834 1 0 1
0.08840132 -0.04153255 0.2490657 1 0 1
0.09073731 -0.04274428 0.2511943 1 0 1
0.0933767 -0.04441221 0.2541524 1 0 1
0.0957582 -0.04561034 0.2562586 1 0 1
0.09816057 -0.0468017 0.2583539 1 0 1
0.09940887 -0.04614064 0.2570896 1 0 1
0.1003505 -0.04501572 0.2549865 1 0 1
0.1015766 -0.04434937 0.2537179 1 0 1
0.1034032 -0.04459996 0.2541147 1 0 1
0.1049269 -0.04438624 0.2536718 1 0 1
0.1064488 -0.04416869 0.2532241 1 0 1
0.1086009 -0.04486386 0.2544331 1 0 1
0.1101264 -0.04463744 0.2539738 1 0 1
0.1116501 -0.04440713 0.2535098 1 0 1
0.1144805 -0.04599947 0.2563503 1 0 1
0.1173386 -0.04758324 0.2591769 1 0 1
0.1195551 -0.04824751 0.2603394 1 0 1
0.1217842 -0.04890544 0.2614924 1 0 1
0.1233422 -0.0486485 0.2609907 1 0 1
0.1245525 -0.04793388 0.2596627 1 0 1
0.1257533 -0.04721659 0.2583323 1 0 1
0.1269446 -0.04649656 0.2569995 1 0 1
0.128483 -0.04622561 0.2564822 1 0 1
0.1318207 -0.04820608 0.2600428 1 0 1
0.1359206 -0.05107677 0.2652167 1 0 1
0.1393342 -0.05303461 0.2687401 1 0 1
0.1420394 -0.05408342 0.2706203 1 0 1
0.1440144 -0.05422731 0.270865 1 0 1
0.1452372 -0.05347031 0.2694818 1 0 1
0.1464504 -0.05271066 0.2680963 1 0 1
0.1484253 -0.05284076 0.2683235 1 0 1
0.1504051 -0.05296531 0.2685432 1 0 1
0.1519966 -0.05263954 0.2679503 1 0 1
0.1539821 -0.05275361 0.2681561 1 0 1
-0.2125628 -0.2049778 0.5968751 1 0 1
-0.1576784 -0.2138396 0.6008232 1 0 1
-0.1524578 -0.2084488 0.5897774 1 0 1
-0.1484942 -0.2062212 0.5848353 1 0 1
-0.14506 -0.2053466 0.5825045 1 0 1
-0.1424366 -0.2067442 0.5845398 1 0 1
-0.1384092 -0.2040218 0.5786844 1 0 1
-0.1350346 -0.2031151 0.5763197 1 0 1
-0.1322669 -0.2040316 0.57745 1 0 1
-0.1292047 -0.2040239 0.5768179 1 0 1
-0.1261486 -0.2040079 0.5761761 1 0 1
-0.124312 -0.2081259 0.5834219 1 0 1
-0.122019 -0.2108633 0.5880298 1 0 1
-0.1194316 -0.2126764 0.5908751 1 0 1
-0.1169427 -0.2149475 0.5945908 1 0 1
-0.1140633 -0.2158281 0.5956634 1 0 1
-0.1103659 -0.2134617 0.5905755 1 0 1
-0.1070485 -0.2124721 0.5881125 1 0 1
-0.1042919 -0.2137923 0.590035 1 0 1
-0.01465943 -0.2112585 0.5703679 1 0 1
-0.01174727 -0.2114193 0.5702453 1 0 1
-0.008801717 -0.2125233 0.5718728 1 0 1
-0.005861184 -0.2131456 0.5726111 1 0 1
-0.002986409 -0.2123339 0.5707021 1 0 1
-4.220318E-05 -0.2129419 0.571422 1 0 1
0.002974175 -0.2144952 0.5738899 1 0 1
0.005905161 -0.2146136 0.5737116 1 0 1
0.07163332 -0.05102619 0.2641098 1 0 1
0.07228453 -0.04900578 0.2603592 1 0 1
0.07290401 -0.04698408 0.2566107 1 0 1
0.07372864 -0.04543234 0.2537138 1 0 1
0.07501067 -0.04482044 0.2525149 1 0 1
0.07628379 -0.04420547 0.2513131 1 0 1
0.07729949 -0.04311733 0.2492614 1 0 1
0.07829864 -0.04202691 0.2472087 1 0 1
0.07953714 -0.04140354 0.2460001 1 0 1
0.08102631 -0.0412461 0.245633 1 0 1
0.08225054 -0.04061636 0.244418 1 0 1
0.08400023 -0.04091994 0.244885 1 0 1
0.08575596 -0.04121889 0.2453454 1 0 1
0.08806732 -0.04244757 0.24748 1 0 1
0.09039957 -0.04366979 0.249604 1 0 1
0.0927528 -0.04488556 0.2517175 1 0 1
0.0948409 -0.04562881 0.2529828 1 0 1
0.09723204 -0.04683166 0.2550757 1 0 1
0.09876328 -0.04663321 0.2546518 1 0 1
0.09999554 -0.04596644 0.2533889 1 0 1
0.1018206 -0.04622457 0.2537897 1 0 1
0.1036514 -0.04647776 0.2541837 1 0 1
0.1048708 -0.0458004 0.2529088 1 0 1
0.1063932 -0.04558247 0.2524613 1 0 1
0.1082296 -0.04582248 0.2528379 1 0 1
0.1097519 -0.04559623 0.2523798 1 0 1
0.1112723 -0.04536614 0.2519171 1 0 1
0.1140991 -0.04697252 0.2547515 1 0 1
0.1169534 -0.04857034 0.257572 1 0 1
0.119501 -0.04970062 0.2595553 1 0 1
0.1217304 -0.05036507 0.2607048 1 0 1
0.1236307 -0.0505654 0.2610239 1 0 1
0.1244998 -0.04938923 0.2588772 1 0 1
0.1260503 -0.04912452 0.2583672 1 0 1
0.1275988 -0.04885585 0.2578524 1 0 1
0.1291451 -0.04858316 0.2573329 1 0 1
0.1321299 -0.05012461 0.2600672 1 0 1
0.136597 -0.05347217 0.2660405 1 0 1
0.1396503 -0.05499223 0.2687401 1 0 1
0.1419883 -0.05559771 0.2698028 1 0 1
0.1439637 -0.05574458 0.2700459 1 0 1
0.1448088 -0.05453259 0.2678565 1 0 1
0.1460189 -0.05376974 0.2664744 1 0 1
0.147605 -0.0534538 0.2658956 1 0 1
0.149578 -0.05358276 0.2661164 1 0 1
0.1515557 -0.05370611 0.2663295 1 0 1
0.1527452 -0.05292901 0.2649318 1 0 1
0.1535248 -0.0517026 0.2627316 1 0 1
-0.1616288 -0.2178323 0.602529 1 0 1
-0.1570349 -0.2142465 0.5950115 1 0 1
-0.1521685 -0.209725 0.585732 1 0 1
-0.1482139 -0.2074758 0.580799 1 0 1
-0.1444655 -0.2056711 0.5767254 1 0 1
-0.1417028 -0.2066132 0.5778809 1 0 1
-0.1381587 -0.205246 0.5746576 1 0 1
-0.1349447 -0.2047893 0.5731711 1 0 1
-0.1326242 -0.2070946 0.5769224 1 0 1
-0.1295571 -0.2070849 0.5762919 1 0 1
-0.126357 -0.2066038 0.5747763 1 0 1
-0.1242516 -0.2098227 0.5802554 1 0 1
-0.1215732 -0.2111842 0.582225 1 0 1
-0.1188777 -0.2125408 0.5841865 1 0 1
-0.1167829 -0.2162191 0.5905221 1 0 1
-0.01199629 -0.2111349 0.5635763 1 0 1
-0.009040822 -0.2132026 0.5669565 1 0 1
-0.006115217 -0.2138279 0.5676933 1 0 1
-0.003181974 -0.2144464 0.5684207 1 0 1
-0.0002128623 -0.2155373 0.5700157 1 0 1
0.002739588 -0.2161422 0.5707238 1 0 1
0.005555802 -0.2148215 0.5679156 1 0 1
0.07221697 -0.05041872 0.2595906 1 0 1
0.0730706 -0.04885795 0.2566983 1 0 1
0.07390007 -0.04729529 0.2538062 1 0 1
0.07494591 -0.04620513 0.2517616 1 0 1
0.07621962 -0.04558649 0.2505617 1 0 1
0.07748438 -0.04496475 0.2493589 1 0 1
0.0782361 -0.04339362 0.246465 1 0 1
0.07947524 -0.04276657 0.2452584 1 0 1
0.08096493 -0.04260891 0.2448913 1 0 1
0.08218978 -0.04197552 0.2436783 1 0 1
0.08367269 -0.04181074 0.243303 1 0 1
0.08569588 -0.04258442 0.2446021 1 0 1
0.08800724 -0.04382319 0.2467311 1 0 1
0.09006115 -0.04458537 0.2480122 1 0 1
0.09184636 -0.04487212 0.2484481 1 0 1
0.09392332 -0.04562344 0.2497129 1 0 1
0.09630334 -0.04683782 0.2518033 1 0 1
0.09811728 -0.04710878 0.252216 1 0 1
0.09934265 -0.04643925 0.2509572 1 0 1
0.1014615 -0.04716882 0.2521898 1 0 1
0.1032889 -0.0474257 0.2525831 1 0 1
0.1045052 -0.04674505 0.2513113 1 0 1
0.1060243 -0.04652736 0.250865 1 0 1
0.1078574 -0.046771 0.251241 1 0 1
0.109696 -0.04700967 0.2516101 1 0 1
0.1112169 -0.04677923 0.2511475 1 0 1
0.1140436 -0.04839898 0.2539745 1 0 1
0.116898 -0.05001023 0.2567876 1 0 1
0.1194456 -0.05115044 0.2587655 1 0 1
0.1213372 -0.05135964 0.2590913 1 0 1
0.1232343 -0.05156366 0.2594101 1 0 1
0.1244458 -0.05084137 0.2580861 1 0 1
0.1259969 -0.05057622 0.2575763 1 0 1
0.1271932 -0.04984789 0.2562465 1 0 1
0.1287363 -0.04957547 0.2557284 1 0 1
0.1317175 -0.05113088 0.2584567 1 0 1
0.1358168 -0.05404883 0.2636049 1 0 1
0.1392302 -0.05604016 0.2671101 1 0 1
0.1415648 -0.05665275 0.2681706 1 0 1
0.1439115 -0.05725844 0.2692209 1 0 1
0.1455139 -0.05694819 0.2686484 1 0 1
0.1463502 -0.05572615 0.2664607 1 0 1
0.1479404 -0.05540906 0.2658809 1 0 1
0.1503066 -0.05599256 0.2669012 1 0 1
0.1518992 -0.05566575 0.2663089 1 0 1
0.1538855 -0.0557857 0.2665114 1 0 1
0.1558766 -0.05590001 0.2667063 1 0 1
-0.1613224 -0.2191525 0.598451 1 0 1
-0.1560412 -0.2136913 0.5874673 1 0 1
-0.1515377 -0.2100517 0.5799461 1 0 1
-0.147766 -0.2082419 0.5758926 1 0 1
-0.1440307 -0.2064183 0.571826 1 0 1
-0.1414414 -0.2078257 0.5738493 1 0 1
-0.1380617 -0.2069079 0.571504 1 0 1
-0.1348539 -0.2064439 0.5700198 1 0 1
-0.1321007 -0.2073665 0.5711439 1 0 1
-0.1294811 -0.208749 0.5731325 1 0 1
-0.1264267 -0.2087272 0.5724928 1 0 1
-0.1244613 -0.212434 0.5788336 1 0 1
-0.1221772 -0.2152062 0.5834211 1 0 1
-0.1190869 -0.2151674 0.582756 1 0 1
-0.1162505 -0.2160578 0.5838304 1 0 1
-0.009100553 -0.2191532 0.5716798 1 0 1
-0.006147074 -0.2197836 0.5724132 1 0 1
-0.00304172 -0.2233029 0.5783899 1 0 1
6.394935E-06 -0.2248862 0.5808534 1 0 1
0.07214849 -0.05182856 0.2588165 1 0 1
0.07253739 -0.04930038 0.2542365 1 0 1
0.07336023 -0.04772786 0.251352 1 0 1
0.07463976 -0.04710897 0.2501579 1 0 1
0.0759103 -0.04648701 0.2489609 1 0 1
0.07741991 -0.04633896 0.2486042 1 0 1
0.0781726 -0.04475731 0.245716 1 0 1
0.07966799 -0.04460279 0.2453527 1 0 1
0.08090254 -0.04396868 0.2441444 1 0 1
0.0823912 -0.043807 0.2437728 1 0 1
0.08361144 -0.04316655 0.2425582 1 0 1
0.08563477 -0.04394685 0.2438535 1 0 1
0.08767165 -0.04472167 0.2451405 1 0 1
0.08944371 -0.04501721 0.2455832 1 0 1
0.09093972 -0.04483486 0.2451848 1 0 1
0.09329136 -0.04606695 0.2472824 1 0 1
0.09537438 -0.04682009 0.2485368 1 0 1
0.09717744 -0.0470957 0.2489509 1 0 1
0.09868921 -0.0468952 0.2485277 1 0 1
0.1005001 -0.04716155 0.2489293 1 0 1
0.102621 -0.04789337 0.2501525 1 0 1
0.1041388 -0.04767974 0.2497121 1 0 1
0.1053427 -0.04699302 0.2484409 1 0 1
0.1074843 -0.04770951 0.2496424 1 0 1
0.1090002 -0.04748371 0.2491869 1 0 1
0.1108373 -0.04772157 0.2495496 1 0 1
0.1133335 -0.04888836 0.2515487 1 0 1
0.1158499 -0.05004773 0.2535362 1 0 1
0.1187207 -0.05166548 0.2563314 1 0 1
0.1209433 -0.05234411 0.2574761 1 0 1
0.1231785 -0.05301632 0.2586113 1 0 1
0.1243907 -0.05229017 0.2572895 1 0 1
0.1259423 -0.05202469 0.2567799 1 0 1
0.1271392 -0.05129249 0.2554522 1 0 1
0.1286828 -0.05101961 0.2549343 1 0 1
0.131304 -0.05212693 0.2568443 1 0 1
0.1353993 -0.05506916 0.2619808 1 0 1
0.1384418 -0.05661777 0.2646696 1 0 1
0.1411402 -0.05769751 0.2665362 1 0 1
0.1434836 -0.05831029 0.2675844 1 0 1
0.1450829 -0.05800025 0.2670134 1 0 1
0.1459162 -0.05677158 0.264831 1 0 1
0.1478888 -0.05691126 0.2650548 1 0 1
0.1502552 -0.0575011 0.2660714 1 0 1
0.1526336 -0.05808385 0.2670779 1 0 1
0.1546276 -0.0582052 0.2672761 1 0 1
-0.1681424 -0.2221389 0.5988927 1 0 1
-0.1660225 -0.2250018 0.6035796 1 0 1
-0.1603025 -0.2185917 0.5909019 1 0 1
-0.155392 -0.214011 0.5816755 1 0 1
-0.1520965 -0.213593 0.58025 1 0 1
-0.1486479 -0.2126996 0.5779445 1 0 1
-0.1444072 -0.2094636 0.5712793 1 0 1
-0.1418139 -0.2108793 0.5732986 1 0 1
-0.1382738 -0.2094852 0.5700883 1 0 1
-0.1344603 -0.2071428 0.5651247 1 0 1
-0.131722 -0.2080671 0.5662448 1 0 1
-0.1288309 -0.2085162 0.5664852 1 0 1
-0.1263567 -0.210368 0.5693314 1 0 1
-0.1215972 -0.2150029 0.5767459 1 0 1
0.07230787 -0.05371739 0.2588827 1 0 1
0.07246924 -0.05068958 0.2534666 1 0 1
0.0735295 -0.04958802 0.2514318 1 0 1
0.07457321 -0.04848402 0.2493958 1 0 1
0.07608849 -0.04833918 0.2490429 1 0 1
0.07735452 -0.04771012 0.2478441 1 0 1
0.07810815 -0.04611789 0.2449617 1 0 1
0.07934856 -0.04548347 0.2437591 1 0 1
0.08057996 -0.04484612 0.2425537 1 0 1
0.08180229 -0.0442058 0.2413456 1 0 1
0.08328237 -0.04404092 0.2409715 1 0 1
0.08503153 -0.0443503 0.2414285 1 0 1
0.087061 -0.0451326 0.2427136 1 0 1
0.08882586 -0.0454322 0.2431565 1 0 1
0.09059666 -0.04572719 0.2435929 1 0 1
0.09265896 -0.04649355 0.2448543 1 0 1
0.09473468 -0.04725423 0.246107 1 0 1
0.09682362 -0.04800918 0.247351 1 0 1
0.09862906 -0.04828357 0.2477576 1 0 1
0.1004402 -0.04855309 0.2481575 1 0 1
0.1025614 -0.04929144 0.249377 1 0 1
0.1040796 -0.04907748 0.2489367 1 0 1
0.1052841 -0.04838702 0.2476676 1 0 1
0.1071105 -0.04863797 0.2480423 1 0 1
0.1086231 -0.04841236 0.2475881 1 0 1
0.1101339 -0.0481829 0.2471292 1 0 1
0.1122961 -0.04889039 0.2483052 1 0 1
0.1148014 -0.05006143 0.2502907 1 0 1
0.1176611 -0.0516943 0.2530819 1 0 1
0.1202105 -0.05284981 0.2550428 1 0 1
0.1224386 -0.05352971 0.2561768 1 0 1
0.1239892 -0.05326837 0.2556734 1 0 1
0.1258864 -0.05346981 0.2559779 1 0 1
0.1270839 -0.05273381 0.2546523 1 0 1
0.128628 -0.05246054 0.2541346 1 0 1
0.1316092 -0.0540425 0.2568482 1 0 1
0.1353442 -0.05654341 0.2611626 1 0 1
0.1387538 -0.0585687 0.2646505 1 0 1
0.141456 -0.05965755 0.2665104 1 0 1
0.1438033 -0.06027598 0.2675537 1 0 1
0.1450287 -0.0595034 0.2661791 1 0 1
0.1462445 -0.05872811 0.2648021 1 0 1
0.1482211 -0.05886997 0.2650228 1 0 1
0.1502025 -0.05900623 0.265236 1 0 1
0.1521886 -0.05913683 0.2654416 1 0 1
0.1541795 -0.05926184 0.2656396 1 0 1
-0.1683711 -0.2248255 0.5974047 1 0 1
-0.1662519 -0.2277063 0.6020814 1 0 1
-0.1615964 -0.2240483 0.5946277 1 0 1
-0.1557868 -0.2170969 0.5810914 1 0 1
-0.1519744 -0.2152685 0.5770686 1 0 1
-0.1493656 -0.2167095 0.5791036 1 0 1
-0.1446217 -0.2120401 0.5698512 1 0 1
-0.1418692 -0.2129932 0.5709978 1 0 1
-0.1389518 -0.2134695 0.5712676 1 0 1
-0.1352758 -0.2115808 0.5671846 1 0 1
-0.1322266 -0.2115675 0.5665653 1 0 1
-0.1299016 -0.2139096 0.5702833 1 0 1
-0.1254258 -0.2195345 0.5794393 1 0 1
0.07574957 -0.06997427 0.2841373 1 0 1
0.07180246 -0.05768691 0.262661 1 0 1
0.07177988 -0.05415298 0.2564084 1 0 1
0.07216767 -0.05159031 0.2518485 1 0 1
0.07346124 -0.05096699 0.2506605 1 0 1
0.07450575 -0.0498559 0.2486284 1 0 1
0.07577759 -0.04922662 0.2474353 1 0 1
0.07704043 -0.04859428 0.2462394 1 0 1
0.07804275 -0.0474754 0.2442023 1 0 1
0.07928374 -0.04683733 0.2430016 1 0 1
0.08051576 -0.04619625 0.2417982 1 0 1
0.08173872 -0.04555228 0.2405922 1 0 1
0.08295264 -0.04490528 0.2393834 1 0 1
0.08496872 -0.04569971 0.2406733 1 0 1
0.08672415 -0.04600766 0.2411219 1 0 1
0.08848557 -0.04631089 0.241564 1 0 1
0.0902529 -0.04660948 0.2419996 1 0 1
0.09231161 -0.04738289 0.2432583 1 0 1
0.09438368 -0.04815065 0.2445084 1 0 1
0.09646912 -0.04891261 0.2457497 1 0 1
0.09827106 -0.04919066 0.2461555 1 0 1
0.1003792 -0.04994144 0.2473802 1 0 1
0.1021964 -0.05020921 0.2477715 1 0 1
0.1037113 -0.04999543 0.2473325 1 0 1
0.1049128 -0.04930181 0.2460665 1 0 1
0.1067358 -0.04955633 0.2464406 1 0 1
0.1085642 -0.04980591 0.2468078 1 0 1
0.1097527 -0.04910172 0.2455301 1 0 1
0.1115848 -0.04934244 0.2458857 1 0 1
0.1140828 -0.05052459 0.2478679 1 0 1
0.1162672 -0.0512267 0.2490229 1 0 1
0.118802 -0.05239446 0.2509829 1 0 1
0.1213568 -0.0535547 0.2529312 1 0 1
0.1235867 -0.05423642 0.2540555 1 0 1
0.1251319 -0.05397135 0.2535488 1 0 1
0.1270274 -0.05417182 0.2538469 1 0 1
0.128928 -0.05436699 0.2541377 1 0 1
0.1319127 -0.05596153 0.2568426 1 0 1
0.1352879 -0.05801423 0.2603387 1 0 1
0.1386973 -0.06005616 0.2638173 1 0 1
0.141029 -0.06068862 0.2648684 1 0 1
0.143373 -0.06131412 0.2659095 1 0 1
0.1445954 -0.06053839 0.2645383 1 0 1
0.1458081 -0.05975986 0.2631647 1 0 1
0.1477815 -0.05990537 0.2633851 1 0 1
0.1497596 -0.06004525 0.263598 1 0 1
0.1517425 -0.06017955 0.2638033 1 0 1
0.1537301 -0.06030818 0.264001 1 0 1
-0.1656206 -0.2200013 0.5820928 1 0 1
-0.1644752 -0.2252377 0.5910712 1 0 1
-0.1582516 -0.2173088 0.5758513 1 0 1
-0.152164 -0.2093482 0.5606071 1 0 1
-0.1494592 -0.2103197 0.5617743 1 0 1
-0.1474127 -0.2131751 0.5663947 1 0 1
0.02306434 -0.07317504 0.2910738 1 0 1
0.02466208 -0.07267366 0.2900112 1 0 1
0.02760649 -0.07066912 0.2861497 1 0 1
0.02928803 -0.07064987 0.2859364 1 0 1
0.06992853 -0.05874892 0.2613572 1 0 1
0.06993186 -0.05519278 0.255118 1 0 1
0.0710231 -0.05408257 0.2530946 1 0 1
0.07186542 -0.05248099 0.2502289 1 0 1
0.07315584 -0.05185438 0.2490437 1 0 1
0.07419737 -0.05073657 0.2470164 1 0 1
0.07546602 -0.05010406 0.2458263 1 0 1
0.07672568 -0.04946841 0.2446333 1 0 1
0.07772502 -0.04834283 0.242601 1 0 1
0.07896288 -0.0477015 0.2414033 1 0 1
0.0804506 -0.04754334 0.2410376 1 0 1
0.08193686 -0.04738134 0.2406673 1 0 1
0.08288871 -0.04624505 0.2386268 1 0 1
0.08463466 -0.04656125 0.2390811 1 0 1
0.08638661 -0.04687278 0.239529 1 0 1
0.08814459 -0.04717961 0.2399702 1 0 1
0.0896269 -0.04699831 0.2395761 1 0 1
0.09167823 -0.04777923 0.2408331 1 0 1
0.09374294 -0.04855449 0.2420814 1 0 1
0.095821 -0.04932402 0.2433211 1 0 1
0.09761579 -0.04960613 0.2437272 1 0 1
0.09941633 -0.04988344 0.2441266 1 0 1
0.1012226 -0.05015585 0.2445193 1 0 1
0.1030345 -0.05042339 0.2449053 1 0 1
0.1042292 -0.04972705 0.2436436 1 0 1
0.1063602 -0.05046469 0.2448374 1 0 1
0.1081853 -0.05071789 0.2452039 1 0 1
0.1096933 -0.05048832 0.2447465 1 0 1
0.1111994 -0.05025488 0.2442845 1 0 1
0.1133637 -0.05097085 0.2454474 1 0 1
0.1158746 -0.05215662 0.2474147 1 0 1
0.1180682 -0.05285943 0.2485578 1 0 1
0.1202746 -0.05355587 0.2496916 1 0 1
0.1231833 -0.05519435 0.2524361 1 0 1
0.1247253 -0.05492949 0.2519307 1 0 1
0.1262653 -0.05466064 0.2514206 1 0 1
0.1281589 -0.05486013 0.2517122 1 0 1
0.1311362 -0.05646917 0.2544122 1 0 1
0.1345039 -0.05853983 0.2579013 1 0 1
0.1379058 -0.06059967 0.2613731 1 0 1
0.1409714 -0.06217901 0.2640259 1 0 1
0.1433156 -0.06281088 0.2650634 1 0 1
0.1445386 -0.06203121 0.2636943 1 0 1
0.1453706 -0.06078142 0.2615255 1 0 1
0.1477257 -0.06139726 0.2625417 1 0 1
0.1497043 -0.06154003 0.2627529 1 0 1
0.1516875 -0.06167726 0.2629566 1 0 1
0.1540714 -0.06227325 0.2639448 1 0 1
-0.2302345 -0.2198792 0.5897128 1 0 1
-0.2241331 -0.2150943 0.5800433 1 0 1
0.02010038 -0.06870242 0.2800747 1 0 1
0.02155554 -0.06770383 0.278163 1 0 1
0.02383428 -0.07068602 0.2831339 1 0 1
0.02528825 -0.0696791 0.2812118 1 0 1
0.02717698 -0.07066037 0.2827258 1 0 1
0.02943053 -0.07313126 0.2868105 1 0 1
0.03148114 -0.07460153 0.2891673 1 0 1
0.06764723 -0.05523208 0.2521367 1 0 1
0.06828773 -0.0531334 0.2484415 1 0 1
0.07049479 -0.05448084 0.250627 1 0 1
0.07133047 -0.0528695 0.2477689 1 0 1
0.07237796 -0.05174816 0.2457494 1 0 1
0.07364856 -0.05111582 0.2445659 1 0 1
0.07515386 -0.05097149 0.2442159 1 0 1
0.07641033 -0.05033262 0.2430259 1 0 1
0.07740664 -0.04920031 0.2409984 1 0 1
0.07889628 -0.04904568 0.2406374 1 0 1
0.08038446 -0.04888727 0.2402717 1 0 1
0.08160866 -0.04823592 0.2390697 1 0 1
0.0828238 -0.04758166 0.2378651 1 0 1
0.08484009 -0.04838927 0.2391474 1 0 1
0.08632225 -0.04821571 0.2387635 1 0 1
0.08808046 -0.04852572 0.2392029 1 0 1
0.08956327 -0.04834415 0.2388089 1 0 1
0.09161469 -0.04913166 0.2400622 1 0 1
0.09367957 -0.04991345 0.2413068 1 0 1
0.09575772 -0.05068951 0.2425426 1 0 1
0.09725644 -0.05048974 0.2421242 1 0 1
0.09935367 -0.05125515 0.2433446 1 0 1
0.1011603 -0.05153064 0.2437355 1 0 1
0.1026649 -0.05131787 0.2433001 1 0 1
0.1041677 -0.05110121 0.24286 1 0 1
0.1062989 -0.05184538 0.2440501 1 0 1
0.1078055 -0.05161986 0.2435986 1 0 1
0.1093102 -0.0513905 0.2431425 1 0 1
0.1108131 -0.05115725 0.2426818 1 0 1
0.1126439 -0.05140024 0.2430293 1 0 1
0.1144802 -0.05163813 0.2433699 1 0 1
0.1166592 -0.05234979 0.2445141 1 0 1
0.119533 -0.05401158 0.2472675 1 0 1
0.1224342 -0.0556645 0.2500068 1 0 1
0.1246662 -0.05635447 0.2511179 1 0 1
0.1262065 -0.05608521 0.250608 1 0 1
0.1284562 -0.05676337 0.2517024 1 0 1
0.1307184 -0.05743488 0.2527871 1 0 1
0.1340822 -0.05952277 0.256268 1 0 1
0.1374802 -0.06159986 0.2597316 1 0 1
0.1405421 -0.06319298 0.2623782 1 0 1
0.1428829 -0.06383184 0.2634134 1 0 1
0.144103 -0.06304904 0.2620478 1 0 1
0.144932 -0.06179265 0.2598843 1 0 1
0.1472838 -0.06241554 0.2608983 1 0 1
0.148482 -0.06162319 0.2595233 1 0 1
0.1504548 -0.06176552 0.2597294 1 0 1
0.1520366 -0.0614343 0.2591376 1 0 1
0.01704755 -0.07215855 0.2830441 1 0 1
0.01872198 -0.0721646 0.2828632 1 0 1
0.0202989 -0.07166489 0.2818175 1 0 1
0.02186748 -0.07116106 0.2807675 1 0 1
0.0238467 -0.07265915 0.2831483 1 0 1
0.02541412 -0.07214692 0.2820881 1 0 1
0.02719815 -0.07263348 0.2827392 1 0 1
0.02922212 -0.07411861 0.2850988 1 0 1
0.03114841 -0.07509784 0.2865934 1 0 1
0.0332137 -0.07657395 0.2889371 1 0 1
0.06776691 -0.05350411 0.2459806 1 0 1
0.06996626 -0.05486222 0.2481619 1 0 1
0.0707953 -0.05324115 0.2453115 1 0 1
0.0723075 -0.05310392 0.24497 1 0 1
0.07357878 -0.05246794 0.2437886 1 0 1
0.07532784 -0.05281788 0.2442731 1 0 1
0.07634159 -0.05168091 0.2422507 1 0 1
0.07758965 -0.05103532 0.2410598 1 0 1
0.07882876 -0.05038675 0.2398663 1 0 1
0.08005878 -0.04973511 0.2386699 1 0 1
0.08154213 -0.0495731 0.2383008 1 0 1
0.08302402 -0.04940725 0.237927 1 0 1
0.0845044 -0.04923766 0.2375487 1 0 1
0.08625688 -0.04955553 0.2379929 1 0 1
0.08801536 -0.04986867 0.2384305 1 0 1
0.08949856 -0.04968686 0.2380366 1 0 1
0.09126519 -0.04999107 0.2384622 1 0 1
0.09332637 -0.05077985 0.2397039 1 0 1
0.09569342 -0.0520518 0.2417589 1 0 1
0.09719254 -0.05185179 0.2413407 1 0 1
0.09958989 -0.05311149 0.243377 1 0 1
0.1014005 -0.05338961 0.2437651 1 0 1
0.1029093 -0.05317597 0.2433287 1 0 1
0.1044164 -0.05295844 0.2428878 1 0 1
0.1062365 -0.05322278 0.2432575 1 0 1
0.1080621 -0.05348209 0.2436205 1 0 1
0.109571 -0.05325185 0.2431634 1 0 1
0.111078 -0.05301768 0.2427017 1 0 1
0.1129129 -0.05326308 0.2430463 1 0 1
0.1147532 -0.05350344 0.243384 1 0 1
0.1165989 -0.05373869 0.2437148 1 0 1
0.1191317 -0.05493207 0.2456532 1 0 1
0.1220292 -0.05659876 0.2483861 1 0 1
0.1242575 -0.05729574 0.2494947 1 0 1
0.1261466 -0.05750646 0.24979 1 0 1
0.1280409 -0.05771191 0.2500782 1 0 1
0.1310181 -0.05934725 0.252763 1 0 1
0.1340224 -0.06097324 0.2554332 1 0 1
0.1374202 -0.06306682 0.2588872 1 0 1
0.1404821 -0.06467303 0.2615262 1 0 1
0.142823 -0.0653182 0.2625577 1 0 1
0.1440437 -0.06453156 0.2611943 1 0 1
0.1452547 -0.06374218 0.2598287 1 0 1
0.1472255 -0.06389705 0.2600454 1 0 1
0.1484243 -0.06310092 0.2586727 1 0 1
0.1503975 -0.06324603 0.258877 1 0 1
0.1519797 -0.06291433 0.2582856 1 0 1
0.1559548 -0.06540148 0.2624108 1 0 1
0.01686373 -0.07312161 0.2813359 1 0 1
0.01844185 -0.07262277 0.2802973 1 0 1
0.02001164 -0.07211966 0.2792543 1 0 1
0.02167375 -0.07211739 0.2790643 1 0 1
0.02354437 -0.07312083 0.2805828 1 0 1
0.02510465 -0.07260526 0.2795253 1 0 1
0.02676882 -0.07259043 0.2793195 1 0 1
0.02854856 -0.07307629 0.2799639 1 0 1
0.0303354 -0.07355786 0.2806022 1 0 1
0.03188135 -0.07302567 0.2795257 1 0 1
0.0330353 -0.07097545 0.2758836 1 0 1
0.06724589 -0.05385795 0.2435223 1 0 1
0.06966549 -0.05572604 0.2465353 1 0 1
0.07049169 -0.0540949 0.2436918 1 0 1
0.07200052 -0.05395782 0.2433512 1 0 1
0.07350801 -0.05381691 0.243006 1 0 1
0.07477093 -0.05317421 0.2418237 1 0 1
0.07577783 -0.05203094 0.2398072 1 0 1
0.07726975 -0.05187967 0.2394508 1 0 1
0.07850559 -0.05122783 0.2382602 1 0 1
0.07973246 -0.05057298 0.2370669 1 0 1
0.08147465 -0.05090706 0.2375266 1 0 1
0.08295695 -0.05074102 0.237153 1 0 1
0.08470748 -0.05106627 0.2376008 1 0 1
0.08619054 -0.05089219 0.2372171 1 0 1
0.08794928 -0.05120849 0.2376529 1 0 1
0.08915188 -0.05053264 0.2364362 1 0 1
0.09091495 -0.05084046 0.2368608 1 0 1
0.09297249 -0.05163627 0.2380999 1 0 1
0.09533574 -0.05291858 0.2401501 1 0 1
0.09683152 -0.05271878 0.239733 1 0 1
0.09922508 -0.05398893 0.2417647 1 0 1
0.1010322 -0.05427062 0.242152 1 0 1
0.1025378 -0.05405718 0.2417168 1 0 1
0.1040415 -0.05383986 0.2412771 1 0 1
0.1058582 -0.05410783 0.2416462 1 0 1
0.1073619 -0.05388226 0.2411962 1 0 1
0.1088639 -0.05365273 0.2407416 1 0 1
0.1106898 -0.05390678 0.2410924 1 0 1
0.1125212 -0.05415583 0.2414363 1 0 1
0.1140248 -0.05391352 0.2409656 1 0 1
0.1158634 -0.054153 0.2412969 1 0 1
0.1180481 -0.05487238 0.2424266 1 0 1
0.1205899 -0.05606975 0.2443512 1 0 1
0.1228038 -0.05677565 0.2454609 1 0 1
0.1250301 -0.05747502 0.2465612 1 0 1
0.1272692 -0.05816783 0.2476518 1 0 1
0.1295207 -0.05885402 0.2487328 1 0 1
0.1332357 -0.06145807 0.2529965 1 0 1
0.1362596 -0.06308897 0.2556467 1 0 1
0.1400505 -0.06566983 0.259873 1 0 1
0.1423881 -0.06632199 0.2609021 1 0 1
0.1436057 -0.06553223 0.2595423 1 0 1
0.1448137 -0.06473969 0.2581802 1 0 1
0.1467812 -0.06489824 0.2583965 1 0 1
0.1475888 -0.06362273 0.2562383 1 0 1
0.149555 -0.06377232 0.2564437 1 0 1
0.151526 -0.06391624 0.2566415 1 0 1
0.1539008 -0.06452835 0.2576168 1 0 1
-0.2497534 -0.2248309 0.5842409 1 0 1
-0.2464803 -0.2251237 0.5839965 1 0 1
-0.2429331 -0.2249444 0.5828996 1 0 1
-0.2393975 -0.2247539 0.5817904 1 0 1
-0.2369574 -0.2264112 0.5840406 1 0 1
-0.2326289 -0.2248054 0.5803785 1 0 1
0.01501161 -0.07406408 0.2798011 1 0 1
0.01667962 -0.07407436 0.2796261 1 0 1
0.01834715 -0.0740805 0.2794459 1 0 1
0.01991764 -0.07357408 0.2784047 1 0 1
0.02158018 -0.07357184 0.2782147 1 0 1
0.02334646 -0.07407374 0.2788743 1 0 1
0.02490352 -0.07355481 0.2778192 1 0 1
0.02656429 -0.07354008 0.2776139 1 0 1
0.02834038 -0.07402937 0.2782567 1 0 1
0.03000369 -0.07400621 0.2780406 1 0 1
0.0316663 -0.07397886 0.2778193 1 0 1
0.03320052 -0.07343923 0.2767411 1 0 1
0.06762063 -0.05620708 0.2444057 1 0 1
0.06959196 -0.0570826 0.2457414 1 0 1
0.07065075 -0.05594343 0.2437369 1 0 1
0.07192838 -0.05530376 0.2425634 1 0 1
0.07319706 -0.054661 0.2413869 1 0 1
0.07445676 -0.05401504 0.2402076 1 0 1
0.07570749 -0.05336609 0.2390255 1 0 1
0.0771998 -0.05321458 0.2386693 1 0 1
0.07843632 -0.05255912 0.2374808 1 0 1
0.07992197 -0.05240039 0.2371163 1 0 1
0.08140618 -0.05223789 0.2367474 1 0 1
0.08288894 -0.0520716 0.2363739 1 0 1
0.0843701 -0.05190151 0.2359958 1 0 1
0.08584979 -0.05172764 0.2356132 1 0 1
0.08760503 -0.05204752 0.2360481 1 0 1
0.08908534 -0.05186559 0.2356555 1 0 1
0.09084866 -0.05217652 0.2360783 1 0 1
0.0931947 -0.053475 0.2381325 1 0 1
0.09526943 -0.05427103 0.2393579 1 0 1
0.09676568 -0.05407096 0.238941 1 0 1
0.09915917 -0.05535095 0.2409669 1 0 1
0.1009666 -0.05563571 0.2413523 1 0 1
0.1024725 -0.05542195 0.2409173 1 0 1
0.1039767 -0.05520431 0.2404778 1 0 1
0.1057937 -0.05547533 0.2408451 1 0 1
0.1076162 -0.05574131 0.2412056 1 0 1
0.1091223 -0.05551092 0.2407499 1 0 1
0.111278 -0.05625826 0.241906 1 0 1
0.1124581 -0.05552868 0.2406319 1 0 1
0.1142953 -0.05577568 0.2409672 1 0 1
0.115801 -0.05552851 0.2404909 1 0 1
0.1179859 -0.05625431 0.2416169 1 0 1
0.1198392 -0.05648585 0.2419312 1 0 1
0.1223937 -0.05768651 0.2438406 1 0 1
0.1246166 -0.05839289 0.2449384 1 0 1
0.1272074 -0.05957856 0.2468251 1 0 1
0.1291001 -0.05978594 0.2471051 1 0 1
0.1324484 -0.0619259 0.2505622 1 0 1
0.1354648 -0.06357124 0.2532072 1 0 1
0.139248 -0.06617331 0.2574246 1 0 1
0.1415785 -0.06683315 0.2584525 1 0 1
0.1431667 -0.06652259 0.2578884 1 0 1
0.1447525 -0.0662079 0.2573196 1 0 1
0.1467203 -0.06636941 0.2575343 1 0 1
0.1471405 -0.06460716 0.2545933 1 0 1
0.1494952 -0.06523911 0.255584 1 0 1
0.1514665 -0.06538586 0.2557801 1 0 1
-0.2497166 -0.2270128 0.5818589 1 0 1
-0.2458813 -0.2263721 0.5799369 1 0 1
-0.2426228 -0.2266508 0.5796803 1 0 1
0.01429572 -0.08215565 0.2902341 1 0 1
0.01533842 -0.07807684 0.2832191 1 0 1
0.01684933 -0.07706384 0.2813327 1 0 1
0.01843658 -0.07655828 0.280297 1 0 1
0.01982288 -0.07502498 0.2775496 1 0 1
0.02158609 -0.07553454 0.2782128 1 0 1
0.02325239 -0.07552815 0.2780171 1 0 1
0.0249181 -0.07551753 0.2778162 1 0 1
0.02658314 -0.07550274 0.2776102 1 0 1
0.02836334 -0.07599542 0.2782505 1 0 1
0.02979168 -0.07494902 0.2763322 1 0 1
0.03145085 -0.07492176 0.2761114 1 0 1
0.03298185 -0.07437884 0.2750357 1 0 1
0.03476694 -0.07485463 0.2756546 1 0 1
0.0361535 -0.07379228 0.2737211 1 0 1
0.06822848 -0.06274743 0.2522734 1 0 1
0.0688889 -0.06059232 0.2486068 1 0 1
0.06997272 -0.05944806 0.246606 1 0 1
0.07127137 -0.058807 0.2454349 1 0 1
0.07209057 -0.05715191 0.2426005 1 0 1
0.07336364 -0.05650516 0.2414253 1 0 1
0.0743849 -0.05535059 0.2394187 1 0 1
0.07538953 -0.05419368 0.2374112 1 0 1
0.07662805 -0.05353844 0.2362293 1 0 1
0.07811179 -0.0533837 0.2358705 1 0 1
0.07933601 -0.05272201 0.2346823 1 0 1
0.08107491 -0.05306285 0.2351392 1 0 1
0.08308549 -0.05390131 0.2364125 1 0 1
0.0843015 -0.05322867 0.2352117 1 0 1
0.08605477 -0.05355596 0.2356502 1 0 1
0.08781398 -0.05387853 0.2360822 1 0 1
0.08929849 -0.05369586 0.2356887 1 0 1
0.09106582 -0.05400944 0.2361086 1 0 1
0.0931273 -0.05481774 0.2373389 1 0 1
0.09549411 -0.05611933 0.2393765 1 0 1
0.09699451 -0.05591842 0.2389586 1 0 1
0.09939171 -0.05720772 0.2409776 1 0 1
0.1012031 -0.05749508 0.2413601 1 0 1
0.1027133 -0.05728045 0.2409242 1 0 1
0.1042216 -0.05706195 0.2404837 1 0 1
0.1057281 -0.05683957 0.2400386 1 0 1
0.1072327 -0.05661327 0.2395889 1 0 1
0.1090574 -0.05687786 0.2399419 1 0 1
0.1108876 -0.05713736 0.240288 1 0 1
0.1123939 -0.05689827 0.2398222 1 0 1
0.1142314 -0.05714829 0.2401557 1 0 1
0.1157375 -0.05690078 0.2396796 1 0 1
0.1179225 -0.05763288 0.2408018 1 0 1
0.119432 -0.05737633 0.2403142 1 0 1
0.1223305 -0.0590778 0.243018 1 0 1
0.1245536 -0.05979053 0.244112 1 0 1
0.1267892 -0.06049667 0.2451964 1 0 1
0.1290373 -0.06119621 0.2462712 1 0 1
0.1323853 -0.06335259 0.2497187 1 0 1
0.1343033 -0.06354944 0.2499774 1 0 1
0.1384449 -0.06665976 0.2549784 1 0 1
0.1407682 -0.06732726 0.2560052 1 0 1
0.1427266 -0.06750274 0.2562331 1 0 1
0.1443092 -0.06718831 0.2556657 1 0 1
0.1462737 -0.06735337 0.25588 1 0 1
0.1470792 -0.06606424 0.2537316 1 0 1
0.149434 -0.06670234 0.2547186 1 0 1
0.1518009 -0.06733335 0.2556955 1 0 1
-0.2476731 -0.2259082 0.5736167 1 0 1
-0.2438663 -0.2252514 0.5716937 1 0 1
-0.2411949 -0.2264594 0.5731075 1 0 1
0.01451734 -0.08571059 0.2927588 1 0 1
0.01557789 -0.08160491 0.2857583 1 0 1
0.01710527 -0.08058526 0.2838743 1 0 1
0.01861658 -0.07956129 0.2819867 1 0 1
0.02001567 -0.07801785 0.2792439 1 0 1
0.02169076 -0.07801565 0.2790523 1 0 1
0.02326144 -0.07749414 0.2780049 1 0 1
0.02482368 -0.0769684 0.2769532 1 0 1
0.02637754 -0.07643859 0.2758973 1 0 1
0.02792297 -0.07590465 0.2748373 1 0 1
0.02957938 -0.07588159 0.2746221 1 0 1
0.03111172 -0.07533947 0.2735535 1 0 1
0.03263565 -0.07479327 0.2724808 1 0 1
0.0342821 -0.07475787 0.2722515 1 0 1
0.03606273 -0.07523292 0.2728637 1 0 1
0.03729495 -0.0736454 0.2700852 1 0 1
0.039074 -0.07411221 0.2706875 1 0 1
0.04100656 -0.07508893 0.2721284 1 0 1
0.06771114 -0.06310464 0.2497896 1 0 1
0.06881236 -0.06195606 0.2477943 1 0 1
0.07035178 -0.06182383 0.2474573 1 0 1
0.0711962 -0.06016022 0.2446286 1 0 1
0.07248648 -0.05951236 0.2434566 1 0 1
0.07352892 -0.05835287 0.2414544 1 0 1
0.07406938 -0.05617484 0.2377983 1 0 1
0.07507103 -0.05501133 0.2357958 1 0 1
0.07655659 -0.05486016 0.2354416 1 0 1
0.07778668 -0.05419829 0.2342591 1 0 1
0.07900771 -0.05353345 0.2330739 1 0 1
0.08074304 -0.05387782 0.2335298 1 0 1
0.08248443 -0.05421752 0.2339793 1 0 1
0.08369346 -0.05354219 0.2327826 1 0 1
0.08571236 -0.05437825 0.2340401 1 0 1
0.08746809 -0.05470438 0.2344712 1 0 1
0.08922973 -0.05502579 0.2348958 1 0 1
0.09128159 -0.05584584 0.2361298 1 0 1
0.09334692 -0.05666015 0.2373552 1 0 1
0.09542557 -0.05746867 0.2385719 1 0 1
0.0969264 -0.05726745 0.2381542 1 0 1
0.09902412 -0.05806519 0.2393555 1 0 1
0.100832 -0.05835607 0.2397372 1 0 1
0.1023389 -0.05814169 0.2393026 1 0 1
0.1038439 -0.05792341 0.2388633 1 0 1
0.1053471 -0.05770124 0.2384195 1 0 1
0.1068484 -0.05747519 0.2379711 1 0 1
0.1083479 -0.05724524 0.2375181 1 0 1
0.1104963 -0.05800654 0.2386688 1 0 1
0.1119994 -0.05776765 0.2382044 1 0 1
0.1141662 -0.05851756 0.2393389 1 0 1
0.1156728 -0.05826969 0.2388631 1 0 1
0.1175176 -0.05851303 0.239182 1 0 1
0.1193678 -0.05875122 0.239494 1 0 1
0.121571 -0.05947804 0.240596 1 0 1
0.1237867 -0.06019836 0.2416886 1 0 1
0.1263701 -0.06140468 0.2435662 1 0 1
0.1286147 -0.06211117 0.2446385 1 0 1
0.1315964 -0.06379337 0.2472854 1 0 1
0.1338733 -0.06448504 0.2483357 1 0 1
0.137641 -0.06712926 0.2525347 1 0 1
0.1403304 -0.06829357 0.2543486 1 0 1
0.1422854 -0.06847265 0.254576 1 0 1
0.1438649 -0.06815851 0.2540103 1 0 1
0.1458261 -0.06832712 0.2542241 1 0 1
0.1470165 -0.06751771 0.2528644 1 0 1
0.1493715 -0.06816206 0.2538477 1 0 1
0.1525286 -0.06976865 0.2563815 1 0 1
-0.2470588 -0.227099 0.5695667 1 0 1
-0.2426954 -0.2254869 0.5659764 1 0 1
-0.2383664 -0.2238581 0.5623693 1 0 1
0.01504592 -0.1032663 0.3184311 1 0 1
0.01497719 -0.09084431 0.2978156 1 0 1
0.01589897 -0.08567487 0.2891265 1 0 1
0.01727065 -0.08361165 0.2855434 1 0 1
0.01870255 -0.08206245 0.2828084 1 0 1
0.02020639 -0.08102749 0.2809204 1 0 1
0.0216941 -0.07998825 0.279029 1 0 1
0.02326929 -0.07946336 0.277983 1 0 1
0.02462103 -0.07789729 0.2752362 1 0 1
0.02628302 -0.07788258 0.2750306 1 0 1
0.02771376 -0.07682683 0.2731253 1 0 1
0.02924749 -0.07628549 0.2720637 1 0 1
0.03064963 -0.07522178 0.2701518 1 0 1
0.03228948 -0.07519063 0.2699285 1 0 1
0.03392858 -0.07515542 0.2697002 1 0 1
0.03570171 -0.07563404 0.2703115 1 0 1
0.03734315 -0.07559039 0.2700725 1 0 1
0.03955381 -0.07761386 0.2732026 1 0 1
0.06918168 -0.06434283 0.2486338 1 0 1
0.07050195 -0.0636969 0.2474674 1 0 1
0.07158222 -0.06253517 0.245471 1 0 1
0.07264584 -0.06137086 0.2434733 1 0 1
0.07393155 -0.06071588 0.2422996 1 0 1
0.07448078 -0.05852344 0.23865 1 0 1
0.07524452 -0.05684115 0.2358263 1 0 1
0.0764842 -0.05617871 0.2346487 1 0 1
0.07771482 -0.05551323 0.2334683 1 0 1
0.07919417 -0.05535467 0.2331061 1 0 1
0.08041055 -0.05468282 0.2319195 1 0 1
0.0824136 -0.05553517 0.2331869 1 0 1
0.08389225 -0.05536476 0.2328102 1 0 1
0.08564217 -0.05569873 0.2332458 1 0 1
0.08739809 -0.05602794 0.233675 1 0 1
0.08915997 -0.05635248 0.2340977 1 0 1
0.09121192 -0.05717902 0.2353278 1 0 1
0.09298937 -0.05749351 0.2357364 1 0 1
0.0950643 -0.05830889 0.2369502 1 0 1
0.09685722 -0.05861316 0.2373446 1 0 1
0.09895504 -0.05941734 0.238542 1 0 1
0.1004603 -0.0592071 0.2381132 1 0 1
0.1022704 -0.05949662 0.2384874 1 0 1
0.1034654 -0.05877484 0.2372418 1 0 1
0.1052794 -0.0590555 0.2376047 1 0 1
0.1067811 -0.05882912 0.2371565 1 0 1
0.1082811 -0.05859885 0.2367036 1 0 1
0.1101043 -0.05886555 0.2370484 1 0 1
0.111933 -0.05912722 0.2373862 1 0 1
0.1141 -0.05988349 0.2385169 1 0 1
0.115607 -0.05963527 0.2380413 1 0 1
0.1177921 -0.06038009 0.2391558 1 0 1
0.1193025 -0.0601227 0.2386686 1 0 1
0.1215057 -0.06085587 0.2397668 1 0 1
0.1237216 -0.06158249 0.2408556 1 0 1
0.1263049 -0.06279849 0.2427274 1 0 1
0.1285496 -0.06351124 0.2437959 1 0 1
0.1318933 -0.06570099 0.2472249 1 0 1
0.1341739 -0.06639825 0.2482703 1 0 1
0.1372058 -0.06807499 0.250881 1 0 1
0.1398916 -0.06924963 0.2526904 1 0 1
0.1418433 -0.0694323 0.2529173 1 0 1
0.1434195 -0.06911838 0.2523532 1 0 1
0.1453773 -0.06929062 0.2525666 1 0 1
0.1465647 -0.06847816 0.2512105 1 0 1
0.1489163 -0.06912944 0.2521914 1 0 1
0.1516747 -0.07026161 0.2539406 1 0 1
-0.2461553 -0.2277894 0.5646861 1 0 1
-0.2338529 -0.2183214 0.5466619 1 0 1
0.0160014 -0.1121767 0.3293549 1 0 1
0.01559317 -0.09706525 0.3045365 1 0 1
0.01604923 -0.08873127 0.2907708 1 0 1
0.01752174 -0.08717652 0.288043 1 0 1
0.01897037 -0.08561738 0.2853123 1 0 1
0.02029941 -0.08353188 0.2817314 1 0 1
