ply
format ascii 1.0
Comment Generated by Floating Hands
element vertex 1258
property double x
property double y
property double z
property uchar red
property uchar green
property uchar blue
end_header
0.1158041 -0.05601141 0.1408203 1 0 1
0.1166724 -0.05518094 0.1396462 1 0 1
0.1171486 -0.0537581 0.1377608 1 0 1
0.1183815 -0.05351416 0.1372954 1 0 1
0.118832 -0.05208885 0.135411 1 0 1
0.1196599 -0.05125137 0.1342349 1 0 1
0.1200812 -0.04982455 0.1323531 1 0 1
0.1208871 -0.04898413 0.1311769 1 0 1
0.1216837 -0.04814191 0.1300001 1 0 1
0.122063 -0.0467128 0.1281219 1 0 1
0.1232496 -0.04645232 0.1276445 1 0 1
0.1240187 -0.04560498 0.1264659 1 0 1
0.1243596 -0.04417319 0.1245904 1 0 1
0.1251067 -0.04332338 0.1234122 1 0 1
0.1262708 -0.04305315 0.1229269 1 0 1
0.1274329 -0.04277967 0.1224382 1 0 1
0.1285929 -0.04250297 0.1219461 1 0 1
0.1306244 -0.04338026 0.1228282 1 0 1
0.1313469 -0.04251769 0.121639 1 0 1
0.1329481 -0.04280733 0.1218209 1 0 1
0.1341067 -0.042516 0.1213122 1 0 1
0.1352632 -0.04222143 0.1208001 1 0 1
0.135963 -0.0413495 0.1196036 1 0 1
0.1375696 -0.04162268 0.1197658 1 0 1
0.1387195 -0.04131847 0.1192436 1 0 1
0.1394022 -0.04043965 0.1180417 1 0 1
0.1410126 -0.04070037 0.118189 1 0 1
0.1416838 -0.03981704 0.1169837 1 0 1
0.1432967 -0.04006945 0.1171211 1 0 1
0.1439564 -0.03918164 0.1159124 1 0 1
0.1455716 -0.03942571 0.1160398 1 0 1
0.1467056 -0.03909903 0.1154942 1 0 1
0.1478373 -0.03876916 0.1149453 1 0 1
0.1484739 -0.03787256 0.1137299 1 0 1
0.1500936 -0.03809986 0.1138374 1 0 1
-0.1214198 -0.2183554 0.3837825 1 0 1
-0.1161407 -0.2175052 0.3817665 1 0 1
-0.113434 -0.2167715 0.3803521 1 0 1
-0.1105807 -0.2154356 0.3781406 1 0 1
-0.1085324 -0.2170586 0.379866 1 0 1
-0.1063145 -0.2180839 0.3807959 1 0 1
-0.1039384 -0.2185092 0.3809294 1 0 1
-0.101706 -0.2195244 0.3818456 1 0 1
-0.09960561 -0.2211314 0.3835449 1 0 1
-0.09707654 -0.2209431 0.3828672 1 0 1
-0.09415377 -0.2189534 0.3798108 1 0 1
-0.09190835 -0.2199454 0.3806985 1 0 1
-0.08940274 -0.2197342 0.379998 1 0 1
-0.08666018 -0.2183158 0.3777083 1 0 1
-0.08429337 -0.2186891 0.3777836 1 0 1
-0.08181155 -0.2184552 0.3770606 1 0 1
-0.07933639 -0.218214 0.3763303 1 0 1
-0.07676184 -0.2173633 0.3748014 1 0 1
-0.07440641 -0.2177099 0.3748477 1 0 1
-0.07185329 -0.2168435 0.3733041 1 0 1
-0.06940929 -0.2165729 0.3725446 1 0 1
-0.06679112 -0.2150861 0.370195 1 0 1
-0.0644554 -0.2154052 0.3702126 1 0 1
-0.06220158 -0.2163238 0.3710147 1 0 1
-0.05986033 -0.2166313 0.3710183 1 0 1
-0.05759326 -0.2175394 0.3718063 1 0 1
-0.05538861 -0.2190494 0.3733787 1 0 1
-0.05310051 -0.2199477 0.3741524 1 0 1
-0.0506776 -0.219625 0.3733362 1 0 1
-0.04838039 -0.2205121 0.3740956 1 0 1
0.1102198 -0.07189797 0.1596209 1 0 1
0.1105369 -0.0698778 0.1570022 1 0 1
0.1115217 -0.06905795 0.1558294 1 0 1
0.1117982 -0.06703664 0.1532154 1 0 1
0.1120507 -0.06501549 0.1506052 1 0 1
0.1122793 -0.06299462 0.1479988 1 0 1
0.1124839 -0.0609741 0.1453965 1 0 1
0.1133932 -0.06014796 0.1442278 1 0 1
0.1142933 -0.05931967 0.1430581 1 0 1
0.1151842 -0.05848926 0.1418873 1 0 1
0.1160659 -0.05765676 0.1407155 1 0 1
0.1165595 -0.05622801 0.1388333 1 0 1
0.1170365 -0.05479866 0.1369529 1 0 1
0.1182695 -0.05455436 0.1364878 1 0 1
0.1191107 -0.05371462 0.1353137 1 0 1
0.1195493 -0.05228169 0.133435 1 0 1
0.1203685 -0.05143891 0.1322607 1 0 1
0.1207777 -0.0500045 0.1303847 1 0 1
0.1215749 -0.04915889 0.1292105 1 0 1
0.121955 -0.04772327 0.1273374 1 0 1
0.1231416 -0.04746246 0.1268603 1 0 1
0.1239112 -0.04661166 0.1256842 1 0 1
0.1242529 -0.04517335 0.1238138 1 0 1
0.1250006 -0.04432014 0.1226383 1 0 1
0.1265906 -0.04463374 0.1228443 1 0 1
0.1273271 -0.04377564 0.1216649 1 0 1
0.1289201 -0.0440811 0.1218611 1 0 1
0.1300818 -0.04379991 0.1213644 1 0 1
0.1312413 -0.04351553 0.1208643 1 0 1
0.1323987 -0.04322791 0.1203608 1 0 1
0.1335539 -0.04293707 0.119854 1 0 1
0.1342564 -0.0420649 0.1186635 1 0 1
0.1354039 -0.04176854 0.1181516 1 0 1
0.1365491 -0.04146894 0.1176362 1 0 1
0.1381533 -0.04174149 0.117793 1 0 1
0.1392976 -0.04143456 0.1172693 1 0 1
0.1409079 -0.0416979 0.1174146 1 0 1
0.1420512 -0.04138362 0.1168827 1 0 1
0.1431923 -0.04106613 0.1163475 1 0 1
0.1438525 -0.04017482 0.1151415 1 0 1
0.1449855 -0.03985186 0.1146012 1 0 1
0.1461163 -0.03952574 0.1140576 1 0 1
0.1472446 -0.03919642 0.1135107 1 0 1
0.1478782 -0.03829734 0.1122997 1 0 1
0.1494943 -0.03852819 0.112407 1 0 1
-0.1192685 -0.220705 0.3824906 1 0 1
-0.1155312 -0.216407 0.376373 1 0 1
-0.1130077 -0.2162597 0.3757477 1 0 1
-0.1101687 -0.2149124 0.3735416 1 0 1
-0.1081366 -0.2165394 0.3752608 1 0 1
-0.1059344 -0.2175656 0.3761868 1 0 1
-0.103723 -0.2185871 0.3771061 1 0 1
-0.1015025 -0.219604 0.3780188 1 0 1
-0.0994144 -0.2212157 0.3797121 1 0 1
-0.09689643 -0.2210229 0.3790356 1 0 1
-0.09425131 -0.2202217 0.3775637 1 0 1
-0.09201001 -0.2212168 0.3784483 1 0 1
-0.08938177 -0.2204001 0.3769612 1 0 1
-0.08676789 -0.2195748 0.3754664 1 0 1
-0.08440486 -0.219948 0.3755409 1 0 1
-0.08192638 -0.219711 0.3748198 1 0 1
-0.07945463 -0.2194667 0.3740912 1 0 1
-0.07698961 -0.2192152 0.3733553 1 0 1
-0.07453144 -0.2189564 0.3726122 1 0 1
-0.07198131 -0.2180839 0.3710729 1 0 1
-0.0694459 -0.2172032 0.3695263 1 0 1
-0.06683425 -0.2157067 0.3671834 1 0 1
-0.06459324 -0.2166332 0.3679896 1 0 1
-0.0620943 -0.215729 0.3664216 1 0 1
-0.0599269 -0.2172533 0.3680028 1 0 1
-0.05766788 -0.2181638 0.368788 1 0 1
-0.05547165 -0.2196795 0.3703552 1 0 1
-0.05325912 -0.221191 0.3719153 1 0 1
-0.05103021 -0.2226983 0.373468 1 0 1
-0.04884465 -0.224813 0.3758025 1 0 1
0.1084059 -0.06999046 0.1551418 1 0 1
0.1100731 -0.07037915 0.155417 1 0 1
0.1117458 -0.07076301 0.1556859 1 0 1
0.1120272 -0.06873152 0.153078 1 0 1
0.1126374 -0.06730223 0.1511903 1 0 1
0.1128745 -0.06527055 0.1485888 1 0 1
0.1130876 -0.06323923 0.1459913 1 0 1
0.1136408 -0.06180834 0.1441103 1 0 1
0.1141775 -0.06037662 0.1422308 1 0 1
0.1150688 -0.05954282 0.1410627 1 0 1
0.115951 -0.05870694 0.1398936 1 0 1
0.1164454 -0.05727171 0.1380164 1 0 1
0.1173055 -0.0564325 0.1368467 1 0 1
0.1185423 -0.05618712 0.1363805 1 0 1
0.1186086 -0.05415305 0.1338019 1 0 1
0.1194374 -0.05330873 0.1326311 1 0 1
0.1202572 -0.05246257 0.1314596 1 0 1
0.1210676 -0.05161456 0.1302873 1 0 1
0.1214649 -0.05017263 0.128417 1 0 1
0.1226609 -0.04991314 0.1279407 1 0 1
0.1234437 -0.04905991 0.1267666 1 0 1
0.1242174 -0.04820487 0.1255918 1 0 1
0.1245636 -0.0467593 0.123725 1 0 1
0.1253153 -0.04590181 0.1225507 1 0 1
0.1264832 -0.04562997 0.1220645 1 0 1
0.1272201 -0.04476848 0.1208879 1 0 1
0.1283804 -0.04449105 0.1203964 1 0 1
0.1299748 -0.04479503 0.1205856 1 0 1
0.1311345 -0.04451023 0.1200858 1 0 1
0.132292 -0.04422222 0.1195827 1 0 1
0.1334474 -0.04393097 0.1190762 1 0 1
0.1346007 -0.04363647 0.1185663 1 0 1
0.135298 -0.04275855 0.1173768 1 0 1
0.1369007 -0.04303787 0.1175364 1 0 1
0.1380474 -0.04273372 0.1170165 1 0 1
0.1391919 -0.04242637 0.1164932 1 0 1
0.1403342 -0.04211581 0.1159666 1 0 1
0.1419455 -0.04237758 0.1161049 1 0 1
0.1430867 -0.0420596 0.11557 1 0 1
0.1437474 -0.04116482 0.1143667 1 0 1
0.1448806 -0.04084143 0.1138268 1 0 1
0.1460114 -0.04051488 0.1132836 1 0 1
0.1466513 -0.03961449 0.1120771 1 0 1
0.1477741 -0.03928258 0.111529 1 0 1
0.14939 -0.03951594 0.1116342 1 0 1
-0.1208298 -0.2185383 0.3761379 1 0 1
-0.1176019 -0.2160154 0.3723964 1 0 1
-0.1147492 -0.2146747 0.3702123 1 0 1
-0.1124136 -0.2151191 0.370371 1 0 1
-0.1097539 -0.214359 0.3689546 1 0 1
-0.1075806 -0.2153899 0.369883 1 0 1
-0.105398 -0.2164163 0.3708049 1 0 1
-0.1032063 -0.217438 0.3717202 1 0 1
-0.1010054 -0.2184551 0.3726288 1 0 1
-0.09893743 -0.2200702 0.3743158 1 0 1
-0.09630036 -0.2192682 0.3728549 1 0 1
-0.09354345 -0.2178535 0.3706006 1 0 1
-0.09119941 -0.218243 0.3706955 1 0 1
-0.08872778 -0.2180211 0.3699973 1 0 1
-0.08626278 -0.217792 0.369292 1 0 1
-0.08392298 -0.2181621 0.3693653 1 0 1
-0.08158206 -0.2185261 0.3694315 1 0 1
-0.07935092 -0.2194919 0.370277 1 0 1
-0.07668332 -0.2180193 0.36797 1 0 1
-0.07434712 -0.2183641 0.3680149 1 0 1
-0.07181174 -0.2174838 0.3664797 1 0 1
-0.06929107 -0.2165952 0.3649372 1 0 1
-0.06678511 -0.2156985 0.3633876 1 0 1
-0.06464349 -0.2172381 0.3649775 1 0 1
-0.06215143 -0.2163272 0.3634138 1 0 1
-0.05991294 -0.2172448 0.3642032 1 0 1
-0.05751457 -0.216932 0.3634121 1 0 1
-0.05526679 -0.2178386 0.3641875 1 0 1
-0.05280702 -0.2168991 0.3625959 1 0 1
-0.05055396 -0.2177942 0.3633574 1 0 1
-0.04793245 -0.2149965 0.3593925 1 0 1
0.1072183 -0.06662256 0.1488088 1 0 1
0.1112777 -0.07125807 0.1541004 1 0 1
0.1122543 -0.07042909 0.1529317 1 0 1
0.1128691 -0.06899272 0.1510477 1 0 1
0.1138235 -0.0681597 0.1498776 1 0 1
0.1140489 -0.0661169 0.1472837 1 0 1
0.1142503 -0.06407452 0.1446939 1 0 1
0.1147951 -0.06263504 0.1428168 1 0 1
0.1153234 -0.06119476 0.1409414 1 0 1
0.1162097 -0.0603548 0.1397736 1 0 1
0.1167085 -0.05891248 0.1379002 1 0 1
0.1175728 -0.05806912 0.1367318 1 0 1
0.1188133 -0.05782274 0.1362645 1 0 1
0.1192736 -0.05637651 0.1343925 1 0 1
0.1201102 -0.05552736 0.1332216 1 0 1
0.1209376 -0.05467628 0.13205 1 0 1
0.1217558 -0.05382334 0.1308776 1 0 1
0.1217575 -0.05177834 0.1283146 1 0 1
0.1229572 -0.05151769 0.1278372 1 0 1
0.1237441 -0.05066017 0.1266643 1 0 1
0.1245219 -0.04980098 0.1254908 1 0 1
0.1248724 -0.04834816 0.1236276 1 0 1
0.1256282 -0.04748644 0.1224546 1 0 1
0.1263747 -0.04662311 0.121281 1 0 1
0.1266833 -0.04516878 0.1194224 1 0 1
0.1282725 -0.04548037 0.1196159 1 0 1
0.1294309 -0.04519926 0.1191214 1 0 1
0.1305871 -0.04491494 0.1186235 1 0 1
0.1317413 -0.0446274 0.1181222 1 0 1
0.1328933 -0.04433664 0.1176176 1 0 1
0.1335932 -0.04345846 0.1164341 1 0 1
0.1347375 -0.04316217 0.1159243 1 0 1
0.1358795 -0.04286268 0.1154113 1 0 1
0.1370193 -0.04255997 0.1148948 1 0 1
0.138621 -0.04283455 0.1150443 1 0 1
0.1402274 -0.04310398 0.1151871 1 0 1
0.1413676 -0.0427898 0.1146575 1 0 1
0.1434544 -0.04362755 0.1154531 1 0 1
0.1445971 -0.04330494 0.1149136 1 0 1
0.1452559 -0.04240355 0.1137098 1 0 1
0.1463903 -0.04207549 0.1131653 1 0 1
0.1475225 -0.04174423 0.1126175 1 0 1
0.1481605 -0.04083715 0.1114104 1 0 1
0.1487893 -0.03992898 0.1102034 1 0 1
-0.1223389 -0.2163309 0.3698042 1 0 1
-0.1203545 -0.2179942 0.3715455 1 0 1
-0.1169668 -0.2148538 0.3670333 1 0 1
-0.114471 -0.2147026 0.3664169 1 0 1
-0.1123125 -0.215747 0.3673557 1 0 1
-0.1098214 -0.2155823 0.3667246 1 0 1
-0.1074945 -0.2160132 0.3668679 1 0 1
-0.1054738 -0.2176456 0.3685686 1 0 1
-0.1028361 -0.216857 0.3671334 1 0 1
-0.1006511 -0.217875 0.3680382 1 0 1
-0.09845692 -0.2188883 0.3689363 1 0 1
-0.0959769 -0.218684 0.3682618 1 0 1
-0.09309979 -0.2166511 0.3652304 1 0 1
-0.09077506 -0.2170379 0.3653239 1 0 1
-0.08832237 -0.2168104 0.3646269 1 0 1
-0.08587638 -0.2165756 0.3639227 1 0 1
-0.08355594 -0.2169432 0.363995 1 0 1
-0.08134952 -0.217915 0.364844 1 0 1
-0.07924538 -0.2194929 0.3664701 1 0 1
-0.07680279 -0.2192328 0.3657376 1 0 1
-0.07436701 -0.2189655 0.3649979 1 0 1
-0.07183854 -0.2180786 0.3634669 1 0 1
-0.06932484 -0.2171833 0.3619288 1 0 1
-0.06682584 -0.2162798 0.3603834 1 0 1
-0.06442937 -0.2159824 0.3596152 1 0 1
-0.06203982 -0.215678 0.3588401 1 0 1
-0.05981728 -0.2165971 0.3596266 1 0 1
-0.05728198 -0.2150482 0.3572691 1 0 1
-0.05513007 -0.2165715 0.358826 1 0 1
-0.05262077 -0.2150073 0.3564549 1 0 1
-0.0502629 -0.2146685 0.3556453 1 0 1
-0.04718763 -0.2069108 0.3454197 1 0 1
0.1030034 -0.06037386 0.1393743 1 0 1
0.1097746 -0.0699155 0.1503737 1 0 1
0.1110855 -0.06969438 0.1499254 1 0 1
0.1127468 -0.07007778 0.1501847 1 0 1
0.1140576 -0.06984881 0.1497275 1 0 1
0.1146474 -0.06840271 0.1478487 1 0 1
0.1144941 -0.06574342 0.1445562 1 0 1
0.1146764 -0.06369136 0.1419767 1 0 1
0.1152055 -0.06224468 0.1401063 1 0 1
0.1157181 -0.06079729 0.1382376 1 0 1
0.1162141 -0.0593492 0.1363706 1 0 1
0.1174567 -0.05910589 0.1359072 1 0 1
0.1186974 -0.05885911 0.1354402 1 0 1
0.1191585 -0.05740652 0.1335733 1 0 1
0.1199956 -0.05655394 0.1324051 1 0 1
0.1208234 -0.05569949 0.1312362 1 0 1
0.1216421 -0.05484316 0.1300665 1 0 1
0.121645 -0.05278869 0.1275111 1 0 1
0.1228448 -0.05252768 0.127034 1 0 1
0.1236322 -0.0516668 0.1258638 1 0 1
0.1244105 -0.05080414 0.1246929 1 0 1
0.1247618 -0.04934487 0.1228349 1 0 1
0.1255181 -0.04847981 0.1216646 1 0 1
0.126265 -0.04761306 0.1204938 1 0 1
0.1270029 -0.04674473 0.1193225 1 0 1
0.1281635 -0.04646651 0.1188317 1 0 1
0.129322 -0.04618501 0.1183375 1 0 1
0.1304784 -0.0459003 0.1178399 1 0 1
0.1316327 -0.04561238 0.1173389 1 0 1
0.1327849 -0.0453212 0.1168346 1 0 1
0.1334852 -0.04443961 0.1156539 1 0 1
0.1346296 -0.04414287 0.1151445 1 0 1
0.1353151 -0.04325762 0.1139618 1 0 1
0.1369117 -0.04353986 0.1141157 1 0 1
0.1385132 -0.04381701 0.114263 1 0 1
0.1396523 -0.04350653 0.1137387 1 0 1
0.1407891 -0.04319285 0.1132111 1 0 1
0.1423978 -0.04345654 0.113342 1 0 1
0.1440112 -0.04371509 0.1134664 1 0 1
0.1446671 -0.04281117 0.112267 1 0 1
0.1457982 -0.04248366 0.1117245 1 0 1
0.1469271 -0.04215297 0.1111788 1 0 1
0.1475621 -0.04124345 0.1099761 1 0 1
0.1486828 -0.04090739 0.1094255 1 0 1
-0.1209378 -0.212745 0.3613407 1 0 1
-0.119699 -0.2168175 0.3661868 1 0 1
-0.1166755 -0.2148622 0.3632442 1 0 1
-0.1141909 -0.2147064 0.3626287 1 0 1
-0.1123761 -0.2169615 0.3651219 1 0 1
-0.1098885 -0.2167937 0.3644924 1 0 1
-0.107407 -0.2166185 0.3638553 1 0 1
-0.105395 -0.2182561 0.3655501 1 0 1
-0.1027641 -0.2174608 0.3641188 1 0 1
-0.1005871 -0.2184811 0.3650202 1 0 1
-0.09825835 -0.2188879 0.3651346 1 0 1
-0.09537312 -0.2168507 0.3621197 1 0 1
-0.09278753 -0.2160226 0.3606579 1 0 1
-0.0903473 -0.2157966 0.3599694 1 0 1
-0.08804074 -0.2161749 0.3600546 1 0 1
-0.08536328 -0.214711 0.3577895 1 0 1
-0.08330486 -0.2163008 0.359423 1 0 1
-0.08111427 -0.2172738 0.3602687 1 0 1
-0.07902642 -0.2188559 0.3618891 1 0 1
-0.07638365 -0.217362 0.359595 1 0 1
-0.07428206 -0.2189339 0.3612018 1 0 1
-0.07176452 -0.2180397 0.359675 1 0 1
-0.06945353 -0.2183695 0.3597046 1 0 1
-0.06695757 -0.2174599 0.3581636 1 0 1
-0.06447636 -0.2165422 0.3566157 1 0 1
-0.0620942 -0.2162342 0.3558425 1 0 1
-0.05963878 -0.2153009 0.3542806 1 0 1
-0.05727462 -0.2149783 0.3534937 1 0 1
-0.05484507 -0.2140296 0.3519182 1 0 1
-0.05243053 -0.2130729 0.3503359 1 0 1
-0.04990163 -0.2108679 0.3471835 1 0 1
-0.04661361 -0.2005841 0.333863 1 0 1
0.1113105 -0.07138499 0.1497708 1 0 1
0.1129752 -0.07177039 0.1500266 1 0 1
0.1150011 -0.07276148 0.1509839 1 0 1
0.1148842 -0.07008733 0.1476934 1 0 1
0.115099 -0.06802408 0.1451147 1 0 1
0.1152898 -0.0659613 0.1425402 1 0 1
0.1154568 -0.06389901 0.1399698 1 0 1
0.1159738 -0.06244452 0.1381049 1 0 1
0.1168519 -0.06159578 0.1369415 1 0 1
0.1177208 -0.06074496 0.1357772 1 0 1
0.1185804 -0.05989218 0.134612 1 0 1
0.1194307 -0.05903741 0.1334459 1 0 1
0.1202719 -0.0581807 0.1322791 1 0 1
0.1211039 -0.05732211 0.1311114 1 0 1
0.1215273 -0.05585967 0.1292515 1 0 1
0.1219343 -0.05439697 0.1273938 1 0 1
0.1231379 -0.05413483 0.1269156 1 0 1
0.1239294 -0.05326975 0.1257466 1 0 1
0.1242979 -0.05180413 0.1238913 1 0 1
0.1250674 -0.05093645 0.1227228 1 0 1
0.1262486 -0.05066428 0.1222365 1 0 1
0.1270032 -0.04979245 0.1210654 1 0 1
0.1273206 -0.04832358 0.1192141 1 0 1
0.1289165 -0.04863872 0.1194004 1 0 1
0.1296472 -0.04776136 0.1182267 1 0 1
0.1308072 -0.04747536 0.1177279 1 0 1
0.1315229 -0.04659414 0.116552 1 0 1
0.1326752 -0.04630256 0.116048 1 0 1
0.1329268 -0.04482733 0.1141994 1 0 1
0.1345206 -0.04512041 0.1143609 1 0 1
0.1352065 -0.04423175 0.113181 1 0 1
0.1363432 -0.04392913 0.1126669 1 0 1
0.1379409 -0.04420985 0.1128138 1 0 1
0.1390767 -0.04389982 0.1122914 1 0 1
0.1402101 -0.04358672 0.1117658 1 0 1
0.1418152 -0.04385395 0.1118964 1 0 1
0.1429476 -0.04353343 0.1113625 1 0 1
0.1445585 -0.04379125 0.1114815 1 0 1
0.1456898 -0.04346333 0.1109395 1 0 1
0.1463311 -0.04255256 0.1097412 1 0 1
0.1474543 -0.04221923 0.1091942 1 0 1
0.1485752 -0.04188267 0.108644 1 0 1
-0.1240252 -0.2158868 0.362036 1 0 1
-0.1220747 -0.2175634 0.363771 1 0 1
-0.1202851 -0.2198425 0.366276 1 0 1
-0.1169043 -0.216665 0.3617907 1 0 1
-0.1144192 -0.2165069 0.3611771 1 0 1
-0.1121066 -0.2169489 0.3613325 1 0 1
-0.109955 -0.2179932 0.3622578 1 0 1
-0.107477 -0.2178149 0.3616224 1 0 1
-0.1053148 -0.2188487 0.3625341 1 0 1
-0.1026909 -0.2180466 0.3611068 1 0 1
-0.1006689 -0.2196802 0.3627825 1 0 1
-0.09820087 -0.2194752 0.3621182 1 0 1
-0.09546102 -0.2180378 0.3598903 1 0 1
-0.09301374 -0.2178167 0.359211 1 0 1
-0.09044161 -0.2169745 0.3577459 1 0 1
-0.08788388 -0.2161238 0.3562734 1 0 1
-0.08534057 -0.2152646 0.3547933 1 0 1
-0.08305111 -0.2156284 0.3548636 1 0 1
-0.08099226 -0.2172188 0.3564848 1 0 1
-0.07902873 -0.2194226 0.3588786 1 0 1
-0.07660858 -0.2191541 0.3581495 1 0 1
-0.07450769 -0.2207325 0.3597508 1 0 1
-0.07218979 -0.2210699 0.359787 1 0 1
-0.06967823 -0.220163 0.3582577 1 0 1
-0.06718142 -0.2192479 0.3567211 1 0 1
-0.06461088 -0.2177043 0.3543982 1 0 1
-0.06231678 -0.218014 0.3544065 1 0 1
-0.05986046 -0.217075 0.3528489 1 0 1
-0.0574959 -0.21675 0.3520641 1 0 1
-0.05491975 -0.2145509 0.3489343 1 0 1
-0.05251219 -0.2135877 0.3473566 1 0 1
0.1111859 -0.0724633 0.1488993 1 0 1
0.1132019 -0.0734656 0.1498595 1 0 1
0.1155861 -0.07507522 0.1515161 1 0 1
0.1158371 -0.07300025 0.1489371 1 0 1
0.116064 -0.07092561 0.1463621 1 0 1
0.1159008 -0.06823988 0.1430898 1 0 1
0.1157064 -0.06555601 0.1398243 1 0 1
0.1158543 -0.06348435 0.1372646 1 0 1
0.1163556 -0.06202279 0.1354065 1 0 1
0.1172213 -0.06116932 0.1342463 1 0 1
0.1184622 -0.06092186 0.1337798 1 0 1
0.1193131 -0.06006376 0.1326165 1 0 1
0.1201548 -0.05920371 0.1314524 1 0 1
0.1209872 -0.05834172 0.1302875 1 0 1
0.1214115 -0.0568729 0.1284327 1 0 1
0.1218192 -0.0554038 0.1265802 1 0 1
0.1226168 -0.05453791 0.125416 1 0 1
0.1234052 -0.05367022 0.1242513 1 0 1
0.1245977 -0.05340264 0.1237692 1 0 1
0.1253712 -0.05253075 0.1226019 1 0 1
0.1265561 -0.05225736 0.1221145 1 0 1
0.1268907 -0.05078204 0.1202658 1 0 1
0.1276366 -0.04990524 0.1190971 1 0 1
0.1288046 -0.0496245 0.1186039 1 0 1
0.1295356 -0.04874373 0.1174328 1 0 1
0.1306958 -0.0484574 0.1169344 1 0 1
0.131412 -0.04757276 0.1157613 1 0 1
0.1325645 -0.04728078 0.1152577 1 0 1
0.1332658 -0.04639234 0.1140824 1 0 1
0.1344104 -0.04609482 0.1135737 1 0 1
0.1350969 -0.04520269 0.1123965 1 0 1
0.1366931 -0.0454901 0.1125463 1 0 1
0.1378312 -0.04518293 0.1120276 1 0 1
0.1385005 -0.04428404 0.1108453 1 0 1
0.1396306 -0.04397141 0.1103217 1 0 1
0.141232 -0.04424215 0.1104517 1 0 1
0.142838 -0.04450777 0.1105753 1 0 1
0.1439683 -0.04418358 0.1100386 1 0 1
0.1450963 -0.04385617 0.1094985 1 0 1
0.146222 -0.04352558 0.1089552 1 0 1
0.1473453 -0.04319179 0.1084086 1 0 1
0.1484663 -0.04285479 0.1078587 1 0 1
-0.1233247 -0.2146507 0.3567109 1 0 1
-0.1204835 -0.2132921 0.3545735 1 0 1
-0.1190901 -0.2167898 0.3586144 1 0 1
-0.1162612 -0.2154163 0.356462 1 0 1
-0.1143066 -0.2170818 0.3581706 1 0 1
-0.1120018 -0.2175229 0.3583248 1 0 1
-0.1100211 -0.2191808 0.3600211 1 0 1
-0.1073876 -0.2183874 0.3586127 1 0 1
-0.1053884 -0.2200361 0.3602958 1 0 1
-0.1026165 -0.2186144 0.3580974 1 0 1
-0.1004556 -0.2196393 0.358992 1 0 1
-0.09814224 -0.2200446 0.3591046 1 0 1
-0.09554849 -0.2192129 0.3576587 1 0 1
-0.09283333 -0.2177564 0.3554295 1 0 1
-0.09040383 -0.2175236 0.3547443 1 0 1
-0.08772513 -0.2160487 0.3524997 1 0 1
-0.08506861 -0.2145641 0.3502474 1 0 1
-0.0829148 -0.2155446 0.3510931 1 0 1
-0.08086836 -0.2171398 0.3527085 1 0 1
-0.07891759 -0.2193514 0.3550942 1 0 1
-0.0765087 -0.2190786 0.3543668 1 0 1
-0.07452472 -0.221283 0.3567394 1 0 1
-0.07231514 -0.2222415 0.3575518 1 0 1
-0.06970996 -0.2207062 0.3552499 1 0 1
-0.06731296 -0.2204072 0.3544947 1 0 1
-0.06474508 -0.2188546 0.3521787 1 0 1
-0.06245482 -0.2191642 0.3521865 1 0 1
-0.05992054 -0.2175948 0.3498566 1 0 1
-0.05756328 -0.2172661 0.3490738 1 0 1
-0.05499337 -0.2150545 0.3459535 1 0 1
-0.05245409 -0.212833 0.3428266 1 0 1
-0.04942203 -0.2055912 0.3334789 1 0 1
0.1116709 -0.07207753 0.1461628 1 0 1
0.115104 -0.07554803 0.1499259 1 0 1
0.1160696 -0.07469605 0.1487589 1 0 1
0.1159391 -0.07199612 0.14549 1 0 1
0.1157775 -0.06929803 0.1422278 1 0 1
0.1159541 -0.06721561 0.13967 1 0 1
0.1161069 -0.06513389 0.1371166 1 0 1
0.1166127 -0.06366523 0.1352623 1 0 1
0.1174825 -0.06280776 0.1341036 1 0 1
0.118343 -0.06194825 0.1329438 1 0 1
0.1195822 -0.06169703 0.132474 1 0 1
0.1204279 -0.06083287 0.1313112 1 0 1
0.1208694 -0.059358 0.1294596 1 0 1
0.1216931 -0.05849082 0.1282967 1 0 1
0.1221054 -0.05701457 0.1264479 1 0 1
0.122907 -0.05614449 0.1252851 1 0 1
0.1236994 -0.05527268 0.1241216 1 0 1
0.1244826 -0.0543991 0.1229576 1 0 1
0.1256732 -0.05412783 0.1224725 1 0 1
0.1268618 -0.05385324 0.1219838 1 0 1
0.1272008 -0.05237066 0.1201389 1 0 1
0.1283781 -0.05209113 0.1196464 1 0 1
0.1291224 -0.05120768 0.118477 1 0 1
0.129423 -0.0497229 0.1166353 1 0 1
0.1301453 -0.04883728 0.1154668 1 0 1
0.1308584 -0.04795013 0.114298 1 0 1
0.1315624 -0.04706155 0.1131289 1 0 1
0.1322571 -0.04617156 0.1119596 1 0 1
0.1333948 -0.04587544 0.1114543 1 0 1
0.1340747 -0.0449818 0.1102831 1 0 1
0.1352046 -0.04468023 0.1097728 1 0 1
0.1367949 -0.04496795 0.1099188 1 0 1
0.1374577 -0.04406754 0.1087425 1 0 1
0.138581 -0.0437564 0.1082224 1 0 1
0.1406483 -0.04462124 0.1090084 1 0 1
0.1422506 -0.04489037 0.1091315 1 0 1
0.1433776 -0.04456672 0.1085968 1 0 1
0.1449858 -0.04482646 0.1087084 1 0 1
0.1461116 -0.04449542 0.1081655 1 0 1
0.1472351 -0.04416116 0.1076193 1 0 1
0.1478623 -0.04324018 0.1064251 1 0 1
-0.1237389 -0.2170374 0.3560253 1 0 1
-0.120345 -0.2138396 0.351583 1 0 1
-0.1184253 -0.2155174 0.3532977 1 0 1
-0.1161389 -0.2159681 0.3534642 1 0 1
-0.1141928 -0.2176387 0.3551667 1 0 1
-0.1117285 -0.2174654 0.3545482 1 0 1
-0.1100866 -0.2203564 0.3577822 1 0 1
-0.1077748 -0.220787 0.3579222 1 0 1
-0.1053062 -0.2205959 0.3572828 1 0 1
-0.1025407 -0.2191644 0.3550908 1 0 1
-0.100388 -0.2201914 0.355982 1 0 1
-0.09793852 -0.2199781 0.3553205 1 0 1
-0.09521566 -0.2185206 0.3531054 1 0 1
-0.09278695 -0.2182914 0.3524291 1 0 1
-0.09049699 -0.2186747 0.3525191 1 0 1
-0.08794925 -0.2178112 0.3510549 1 0 1
-0.08516721 -0.2156971 0.3480357 1 0 1
-0.08301762 -0.2166805 0.3488783 1 0 1
-0.08097578 -0.2182816 0.3504883 1 0 1
-0.07880459 -0.2192564 0.3513177 1 0 1
-0.07662455 -0.2202262 0.3521404 1 0 1
-0.07454065 -0.2218155 0.3537308 1 0 1
-0.0723392 -0.2227764 0.3545401 1 0 1
-0.0697406 -0.2212315 0.3522451 1 0 1
-0.06725779 -0.2203031 0.3507174 1 0 1
-0.06470045 -0.2187403 0.3484083 1 0 1
-0.06233646 -0.218422 0.3476412 1 0 1
-0.05989808 -0.2174693 0.3460927 1 0 1
-0.05762969 -0.2177644 0.3460864 1 0 1
-0.05513964 -0.2161686 0.3437501 1 0 1
-0.05267239 -0.2145638 0.3414072 1 0 1
0.1153306 -0.07725024 0.1497372 1 0 1
0.1159421 -0.0757754 0.1478726 1 0 1
0.1165369 -0.07429954 0.1460094 1 0 1
0.1167497 -0.07220525 0.1434512 1 0 1
0.1169385 -0.07011146 0.1408971 1 0 1
0.1167306 -0.06740213 0.1376535 1 0 1
0.116868 -0.06531034 0.1351094 1 0 1
0.1177419 -0.06444877 0.1339519 1 0 1
0.1182227 -0.0629712 0.1321038 1 0 1
0.1190746 -0.0621064 0.130946 1 0 1
0.1199171 -0.0612396 0.1297873 1 0 1
0.1207505 -0.06037094 0.128628 1 0 1
0.1211764 -0.05888941 0.1267836 1 0 1
0.1219878 -0.05801781 0.1256242 1 0 1
0.1227898 -0.05714436 0.1244641 1 0 1
0.1235827 -0.05626918 0.1233035 1 0 1
0.1243664 -0.05539224 0.1221422 1 0 1
0.1255572 -0.05512062 0.1216574 1 0 1
0.1263261 -0.05423951 0.1204936 1 0 1
0.1270857 -0.05335672 0.1193293 1 0 1
0.1278361 -0.05247233 0.1181647 1 0 1
0.1290078 -0.05218997 0.1176706 1 0 1
0.1297434 -0.05130162 0.1165037 1 0 1
0.1304697 -0.05041169 0.1153364 1 0 1
0.1311869 -0.04952031 0.1141688 1 0 1
0.1318948 -0.04862743 0.1130009 1 0 1
0.1325935 -0.04773315 0.1118328 1 0 1
0.1337349 -0.04743574 0.1113264 1 0 1
0.1344187 -0.04653778 0.1101564 1 0 1
0.1355522 -0.04623485 0.1096449 1 0 1
0.1366835 -0.04592871 0.1091301 1 0 1
0.1378126 -0.04561938 0.1086121 1 0 1
0.1384702 -0.04471336 0.1074369 1 0 1
0.1400641 -0.04499115 0.1075662 1 0 1
0.1416628 -0.04526382 0.1076889 1 0 1
0.1427864 -0.04494072 0.1071562 1 0 1
0.1443909 -0.045204 0.1072675 1 0 1
0.1455134 -0.04487349 0.1067266 1 0 1
0.1471237 -0.04512734 0.1068264 1 0 1
0.1482449 -0.04478942 0.1062773 1 0 1
-0.1251206 -0.2146673 0.3497667 1 0 1
-0.1232202 -0.2163604 0.3514884 1 0 1
-0.1198394 -0.2131423 0.347059 1 0 1
-0.1179359 -0.2148236 0.348767 1 0 1
-0.1156648 -0.215272 0.3489318 1 0 1
-0.1135637 -0.2163302 0.3498587 1 0 1
-0.1111183 -0.216151 0.3492408 1 0 1
-0.1094972 -0.2190509 0.352463 1 0 1
-0.1073645 -0.2200966 0.3533711 1 0 1
-0.104911 -0.2199002 0.3527328 1 0 1
-0.1021599 -0.2184576 0.3505467 1 0 1
-0.100023 -0.2194854 0.351434 1 0 1
-0.09744442 -0.2186462 0.3500033 1 0 1
-0.09488011 -0.2177985 0.3485649 1 0 1
-0.09246654 -0.2175641 0.3478898 1 0 1
-0.09032461 -0.2185683 0.3487497 1 0 1
-0.08778782 -0.2176974 0.3472895 1 0 1
-0.08539015 -0.2174422 0.3465934 1 0 1
-0.08312001 -0.2178045 0.3466615 1 0 1
-0.08096579 -0.2187863 0.3474944 1 0 1
-0.07880275 -0.2197632 0.3483207 1 0 1
-0.07674004 -0.2213621 0.3499121 1 0 1
-0.07455549 -0.2223302 0.3507251 1 0 1
-0.07215945 -0.2220381 0.3499877 1 0 1
-0.06967271 -0.2211107 0.3484713 1 0 1
-0.06729438 -0.2208039 0.34772 1 0 1
-0.06465399 -0.2186021 0.3446458 1 0 1
-0.06238708 -0.2189095 0.3446527 1 0 1
-0.05995569 -0.2179503 0.3431088 1 0 1
-0.05769506 -0.2182449 0.3431022 1 0 1
-0.0550636 -0.2153767 0.339229 1 0 1
-0.05289123 -0.2162889 0.339981 1 0 1
-0.04978376 -0.2083433 0.3299201 1 0 1
0.1144928 -0.07708731 0.1474458 1 0 1
0.1165292 -0.0780949 0.1483754 1 0 1
0.1171322 -0.07661141 0.1465148 1 0 1
0.1173535 -0.07450645 0.1439617 1 0 1
0.1179196 -0.0730218 0.1421053 1 0 1
0.1177242 -0.07029806 0.1388679 1 0 1
0.1174976 -0.06757642 0.1356375 1 0 1
0.1179995 -0.06609239 0.1337915 1 0 1
0.1184848 -0.06460775 0.1319472 1 0 1
0.1193407 -0.06373889 0.1307908 1 0 1
0.1201874 -0.06286803 0.1296335 1 0 1
0.1210249 -0.06199522 0.1284755 1 0 1
0.1218531 -0.0611206 0.1273167 1 0 1
0.1226721 -0.06024406 0.1261572 1 0 1
0.1230768 -0.05875335 0.1243183 1 0 1
0.1238737 -0.05787399 0.1231589 1 0 1
0.1246615 -0.05699292 0.121999 1 0 1
0.1258559 -0.05672007 0.121513 1 0 1
0.1262093 -0.05522565 0.1196775 1 0 1
0.1273925 -0.05494778 0.1191876 1 0 1
0.1281469 -0.05405923 0.1180243 1 0 1
0.1288921 -0.05316902 0.1168604 1 0 1
0.1296282 -0.0522773 0.1156963 1 0 1
0.1303549 -0.05138402 0.1145318 1 0 1
0.1310726 -0.05048925 0.113367 1 0 1
0.131781 -0.04959299 0.112202 1 0 1
0.1324801 -0.04869534 0.1110367 1 0 1
0.1331702 -0.0477963 0.1098712 1 0 1
0.1343059 -0.04749619 0.1093634 1 0 1
0.1354395 -0.04719286 0.1088522 1 0 1
0.136109 -0.04628786 0.1076832 1 0 1
0.1372347 -0.04597912 0.1071672 1 0 1
0.1383582 -0.04566712 0.1066478 1 0 1
0.139952 -0.04594747 0.106775 1 0 1
0.1410745 -0.04562812 0.1062475 1 0 1
0.1426741 -0.04589913 0.1063633 1 0 1
0.1442784 -0.04616492 0.1064725 1 0 1
0.145401 -0.04583395 0.105932 1 0 1
0.1465212 -0.04549981 0.1053883 1 0 1
0.1476392 -0.04516245 0.1048413 1 0 1
-0.1232457 -0.2096525 0.3398938 1 0 1
-0.1226986 -0.2156537 0.3469642 1 0 1
-0.1198809 -0.2142649 0.344845 1 0 1
-0.1179819 -0.2159521 0.3465472 1 0 1
-0.1158903 -0.2170184 0.3474773 1 0 1
-0.1136178 -0.2174614 0.3476346 1 0 1
-0.1111759 -0.2172791 0.3470183 1 0 1
-0.1092323 -0.2189503 0.3486958 1 0 1
-0.1069514 -0.2193763 0.3488328 1 0 1
-0.1042005 -0.2179314 0.3466605 1 0 1
-0.1011668 -0.2152314 0.3429447 1 0 1
-0.09906132 -0.2162573 0.3438275 1 0 1
-0.09680222 -0.2166549 0.3439358 1 0 1
-0.09426043 -0.2157975 0.3425007 1 0 1
-0.09200659 -0.216182 0.342595 1 0 1
-0.08988445 -0.2171865 0.3434512 1 0 1
-0.08749532 -0.2169334 0.3427635 1 0 1
-0.0851128 -0.2166733 0.3420688 1 0 1
-0.082737 -0.216406 0.341367 1 0 1
-0.08071994 -0.2180165 0.3429655 1 0 1
-0.0784594 -0.2183657 0.3430193 1 0 1
-0.07652651 -0.2205975 0.345374 1 0 1
-0.07425221 -0.2209367 0.3454145 1 0 1
-0.071977 -0.2212699 0.3454482 1 0 1
-0.0695051 -0.2203348 0.3439362 1 0 1
-0.06714198 -0.2200233 0.3431868 1 0 1
-0.06451568 -0.2178079 0.340122 1 0 1
-0.06226431 -0.2181137 0.3401285 1 0 1
-0.05984776 -0.2171468 0.3385892 1 0 1
-0.05760274 -0.2174398 0.3385821 1 0 1
-0.05498499 -0.214555 0.3347212 1 0 1
-0.05268766 -0.2141989 0.3339315 1 0 1
-0.04873316 -0.1979527 0.3139013 1 0 1
0.09413435 -0.04457989 0.1093906 1 0 1
0.1108251 -0.07190465 0.1395972 1 0 1
0.1156838 -0.07792336 0.1460878 1 0 1
0.1173638 -0.07830748 0.1463134 1 0 1
0.1179547 -0.07681603 0.1444582 1 0 1
0.1188975 -0.07594649 0.1432946 1 0 1
0.1183425 -0.07258631 0.1393746 1 0 1
0.1181247 -0.06985095 0.1361517 1 0 1
0.1182553 -0.06773853 0.1336221 1 0 1
0.1187451 -0.06624684 0.1317818 1 0 1
0.1196051 -0.06537392 0.1306268 1 0 1
0.1200655 -0.0638805 0.1287889 1 0 1
0.1209034 -0.06300441 0.1276337 1 0 1
0.1221297 -0.06274337 0.1271569 1 0 1
0.1229528 -0.06186274 0.1259988 1 0 1
0.1233618 -0.0603649 0.1241636 1 0 1
0.1241629 -0.05948143 0.1230056 1 0 1
0.1249546 -0.05859617 0.121847 1 0 1
0.1257373 -0.05770924 0.1206879 1 0 1
0.1260915 -0.05620847 0.1188577 1 0 1
0.1272748 -0.05593027 0.1183682 1 0 1
0.1280297 -0.05503833 0.1172076 1 0 1
0.1287754 -0.05414475 0.1160466 1 0 1
0.1295118 -0.05324968 0.1148852 1 0 1
0.1302391 -0.05235306 0.1137236 1 0 1
0.1309572 -0.05145495 0.1125616 1 0 1
0.131666 -0.05055533 0.1113994 1 0 1
0.1323657 -0.04965435 0.1102369 1 0 1
0.1330561 -0.04875191 0.1090743 1 0 1
0.1346466 -0.04905461 0.1092221 1 0 1
0.1357839 -0.04874994 0.1087097 1 0 1
0.1364573 -0.0478407 0.107542 1 0 1
0.1375866 -0.0475305 0.1070246 1 0 1
0.1387137 -0.04721715 0.1065041 1 0 1
0.1398385 -0.04690057 0.1059802 1 0 1
0.1409612 -0.04658079 0.1054531 1 0 1
0.1420816 -0.04625785 0.1049228 1 0 1
0.1431997 -0.04593167 0.1043893 1 0 1
0.1448014 -0.04619674 0.1044932 1 0 1
0.1454289 -0.04526976 0.1033125 1 0 1
0.1465401 -0.04493405 0.1027692 1 0 1
-0.1232765 -0.2107458 0.3376946 1 0 1
-0.1219866 -0.2142986 0.3416901 1 0 1
-0.1195543 -0.2141367 0.3411027 1 0 1
-0.1176677 -0.2158282 0.3427984 1 0 1
-0.1159401 -0.2181378 0.3452522 1 0 1
-0.1138435 -0.2192026 0.3461727 1 0 1
-0.1114012 -0.2190179 0.3455583 1 0 1
-0.1089652 -0.2188259 0.3449366 1 0 1
-0.1065355 -0.2186265 0.3443076 1 0 1
-0.1036424 -0.2165456 0.3413762 1 0 1
-0.1009316 -0.2150787 0.3392017 1 0 1
-0.09868925 -0.21548 0.3393154 1 0 1
-0.09615569 -0.2146219 0.3378912 1 0 1
-0.0940597 -0.2156375 0.3387569 1 0 1
-0.09181755 -0.2160207 0.3388503 1 0 1
-0.0895741 -0.2163979 0.338937 1 0 1
-0.08732955 -0.2167693 0.3390169 1 0 1
-0.08520941 -0.2177648 0.3398564 1 0 1
-0.08283703 -0.2174945 0.3391565 1 0 1
-0.08070693 -0.2184795 0.3399828 1 0 1
-0.07845411 -0.2188281 0.3400361 1 0 1
-0.07631027 -0.2198033 0.3408492 1 0 1
-0.07383947 -0.2188745 0.3393553 1 0 1
-0.07148552 -0.2185712 0.3386213 1 0 1
-0.06913845 -0.2182608 0.3378804 1 0 1
-0.06698695 -0.219213 0.3386667 1 0 1
-0.06455556 -0.2182545 0.3371455 1 0 1
-0.06222552 -0.2179239 0.3363844 1 0 1
-0.05998509 -0.2182226 0.3363837 1 0 1
-0.05758655 -0.2172419 0.3348423 1 0 1
-0.05512818 -0.2156158 0.3325275 1 0 1
-0.04981118 -0.2078692 0.3225106 1 0 1
0.1064567 -0.06540188 0.1304089 1 0 1
0.1148388 -0.07773623 0.143806 1 0 1
0.1172328 -0.07937867 0.1454126 1 0 1
0.1189179 -0.0797604 0.1456297 1 0 1
0.1198721 -0.07888549 0.1444649 1 0 1
0.11933 -0.07550801 0.1405537 1 0 1
0.1187493 -0.07213391 0.1366521 1 0 1
0.1188883 -0.07001079 0.1341276 1 0 1
0.1186208 -0.06726554 0.1309253 1 0 1
0.1194813 -0.06638926 0.129773 1 0 1
0.1203325 -0.06551104 0.12862 1 0 1
0.1211745 -0.06463084 0.1274661 1 0 1
0.1224045 -0.06436868 0.1269882 1 0 1
0.1232317 -0.06348391 0.1258315 1 0 1
0.1236452 -0.06197903 0.1240003 1 0 1
0.1244502 -0.06109141 0.1228436 1 0 1
0.1248345 -0.05958532 0.1210154 1 0 1
0.1252023 -0.05807912 0.1191896 1 0 1
0.1255537 -0.0565729 0.1173662 1 0 1
0.1263112 -0.05568095 0.1162118 1 0 1
0.1270594 -0.05478737 0.115057 1 0 1
0.1282279 -0.05450472 0.1145654 1 0 1
0.1293944 -0.05421879 0.1140705 1 0 1
0.1296855 -0.0527081 0.1122511 1 0 1
0.1304004 -0.05180749 0.1110935 1 0 1
0.1311062 -0.05090546 0.1099356 1 0 1
0.13225 -0.05061005 0.1094335 1 0 1
0.1324902 -0.04909715 0.1076193 1 0 1
0.1340769 -0.04940334 0.1077665 1 0 1
0.1352108 -0.0490992 0.1072561 1 0 1
0.1363424 -0.0487918 0.1067424 1 0 1
0.1374718 -0.04848122 0.1062255 1 0 1
0.1385991 -0.04816744 0.1057053 1 0 1
0.1392523 -0.04724905 0.104537 1 0 1
0.1408468 -0.04753023 0.1046551 1 0 1
0.1414885 -0.04660744 0.1034837 1 0 1
0.1426033 -0.04628183 0.1029521 1 0 1
0.1437157 -0.04595306 0.1024174 1 0 1
0.1448259 -0.04562112 0.1018794 1 0 1
0.1459337 -0.04528599 0.1013383 1 0 1
-0.1227901 -0.2026818 0.3246699 1 0 1
-0.1234985 -0.2124482 0.3362538 1 0 1
-0.1220226 -0.2153949 0.3394759 1 0 1
-0.119962 -0.2164747 0.3404114 1 0 1
-0.1178921 -0.2175502 0.3413408 1 0 1
-0.1159892 -0.2192455 0.3430252 1 0 1
-0.1135519 -0.2190636 0.3424193 1 0 1
-0.1109523 -0.2182489 0.3410442 1 0 1
-0.1086961 -0.2186779 0.3411855 1 0 1
-0.105956 -0.2172201 0.3390331 1 0 1
-0.1030806 -0.2151245 0.3361102 1 0 1
-0.1005412 -0.2142741 0.3347042 1 0 1
-0.09831436 -0.2146731 0.3348166 1 0 1
-0.09579557 -0.213807 0.3333962 1 0 1
-0.09385695 -0.2154539 0.3350214 1 0 1
-0.09162641 -0.2158356 0.3351137 1 0 1
-0.08939466 -0.2162114 0.3351994 1 0 1
-0.08690218 -0.2153167 0.3337511 1 0 1
-0.08492778 -0.2169456 0.3353508 1 0 1
-0.08257062 -0.2166703 0.3346525 1 0 1
-0.08033831 -0.2170221 0.3347114 1 0 1
-0.07810507 -0.2173682 0.3347636 1 0 1
-0.075981 -0.2183439 0.3355733 1 0 1
-0.0736354 -0.2180428 0.334848 1 0 1
-0.07119413 -0.2170981 0.3333514 1 0 1
-0.06896479 -0.2174197 0.3333769 1 0 1
-0.06682935 -0.2183731 0.3341601 1 0 1
-0.06432197 -0.2167687 0.3318789 1 0 1
-0.06209793 -0.2170717 0.3318844 1 0 1
-0.05979017 -0.2167295 0.3311187 1 0 1
-0.05748946 -0.2163804 0.3303465 1 0 1
-0.05504556 -0.2147439 0.3280389 1 0 1
-0.05283824 -0.215021 0.328018 1 0 1
0.1181818 -0.08233662 0.1465711 1 0 1
0.1195136 -0.08208948 0.1460955 1 0 1
0.1201079 -0.08058116 0.1442457 1 0 1
0.1199427 -0.07781586 0.1410299 1 0 1
0.1197463 -0.07505253 0.1378209 1 0 1
0.1191401 -0.07166478 0.1339379 1 0 1
0.1192602 -0.0695325 0.1314244 1 0 1
0.1197424 -0.06802632 0.1295938 1 0 1
0.120208 -0.06651963 0.1277652 1 0 1
0.1210505 -0.06563616 0.1266142 1 0 1
0.1218837 -0.06475072 0.1254623 1 0 1
0.1227078 -0.06386348 0.1243099 1 0 1
0.1231185 -0.0623531 0.1224854 1 0 1
0.1243281 -0.06208344 0.1220029 1 0 1
0.1247131 -0.0605711 0.12018 1 0 1
0.1254966 -0.05967749 0.1190265 1 0 1
0.1258524 -0.05816419 0.117207 1 0 1
0.1266139 -0.05726805 0.116054 1 0 1
0.1273662 -0.05637029 0.1149006 1 0 1
0.1281092 -0.05547095 0.1137467 1 0 1
0.1297084 -0.05579922 0.1139117 1 0 1
0.130004 -0.05428133 0.1120961 1 0 1
0.130723 -0.0533765 0.1109398 1 0 1
0.1314327 -0.05247023 0.1097832 1 0 1
0.1321333 -0.05156255 0.1086265 1 0 1
0.1323743 -0.05004337 0.1068176 1 0 1
0.1339607 -0.05035207 0.1069627 1 0 1
0.1350947 -0.05004752 0.1064527 1 0 1
0.1357654 -0.04913248 0.1052922 1 0 1
0.1368915 -0.04882243 0.1047772 1 0 1
0.1380153 -0.04850922 0.104259 1 0 1
0.1386656 -0.04758844 0.1030952 1 0 1
0.1397815 -0.04726978 0.1025722 1 0 1
0.1408951 -0.04694796 0.1020459 1 0 1
0.1420065 -0.04662295 0.1015164 1 0 1
0.1431156 -0.04629474 0.1009837 1 0 1
0.1437336 -0.04536411 0.09981372 1 0 1
0.1453268 -0.04562885 0.09990878 1 0 1
-0.1247733 -0.2026293 0.3215585 1 0 1
-0.1243785 -0.2086945 0.3285615 1 0 1
-0.1235285 -0.2135211 0.3340487 1 0 1
-0.1214931 -0.2146056 0.334986 1 0 1
-0.1196327 -0.2163112 0.3366755 1 0 1
-0.117936 -0.2186404 0.3391179 1 0 1
-0.1160378 -0.2203413 0.3407964 1 0 1
-0.1137769 -0.2207841 0.3409511 1 0 1
-0.1115145 -0.221221 0.3410992 1 0 1
-0.1087552 -0.2197646 0.3389617 1 0 1
-0.1056953 -0.2170381 0.3352966 1 0 1
-0.1031448 -0.2161903 0.3339024 1 0 1
-0.1006085 -0.2153339 0.3325007 1 0 1
-0.09823593 -0.2151009 0.331852 1 0 1
-0.09586987 -0.2148608 0.3311963 1 0 1
-0.09393593 -0.2165134 0.3328158 1 0 1
-0.09129538 -0.2149929 0.3306247 1 0 1
-0.08907926 -0.2153667 0.3307094 1 0 1
-0.0868619 -0.2157346 0.3307873 1 0 1
-0.08476976 -0.2167328 0.3316199 1 0 1
-0.08242388 -0.2164532 0.3309234 1 0 1
-0.08044033 -0.2180782 0.3325045 1 0 1
-0.07809627 -0.2177863 0.3317945 1 0 1
-0.07586977 -0.2181258 0.3318394 1 0 1
-0.07342867 -0.2171816 0.3303542 1 0 1
-0.07110513 -0.2168688 0.3296239 1 0 1
-0.06898651 -0.2178292 0.3304106 1 0 1
-0.06666905 -0.2175036 0.329667 1 0 1
-0.06417613 -0.2158886 0.3273928 1 0 1
-0.06196775 -0.2161899 0.3273979 1 0 1
-0.05959186 -0.2152009 0.3258724 1 0 1
-0.05715139 -0.2135611 0.3235786 1 0 1
-0.0547337 -0.2119126 0.3212783 1 0 1
-0.05269708 -0.2134743 0.3227811 1 0 1
0.1120808 -0.07541434 0.1372009 1 0 1
0.1169674 -0.08151013 0.1435989 1 0 1
0.1186519 -0.08189714 0.1438114 1 0 1
0.1192397 -0.08038397 0.1419697 1 0 1
0.1198109 -0.07886991 0.1401294 1 0 1
0.1203654 -0.07735506 0.1382908 1 0 1
0.1201468 -0.07458033 0.1350966 1 0 1
0.1206609 -0.07306551 0.1332641 1 0 1
0.1211585 -0.07155008 0.1314333 1 0 1
0.1216395 -0.07003414 0.1296045 1 0 1
0.1221041 -0.06851777 0.1277777 1 0 1
0.1225521 -0.06700092 0.1259528 1 0 1
0.1233838 -0.06610877 0.1248003 1 0 1
0.1238025 -0.06459058 0.1229783 1 0 1
0.1246122 -0.06369554 0.1218259 1 0 1
0.1254125 -0.06279873 0.1206729 1 0 1
0.1257892 -0.06127837 0.1188548 1 0 1
0.1269855 -0.06099986 0.1183652 1 0 1
0.1273365 -0.05947776 0.116549 1 0 1
0.1280964 -0.05857501 0.1153955 1 0 1
0.1284182 -0.05705222 0.1135829 1 0 1
0.1295884 -0.05676466 0.1130872 1 0 1
0.1298847 -0.05524052 0.1112769 1 0 1
0.1306042 -0.05433239 0.1101235 1 0 1
0.1313144 -0.05342277 0.1089697 1 0 1
0.1320154 -0.05251174 0.1078158 1 0 1
0.1327072 -0.05159932 0.1066617 1 0 1
0.1338434 -0.05129756 0.1061553 1 0 1
0.1349774 -0.05099258 0.1056456 1 0 1
0.1356487 -0.05007423 0.104488 1 0 1
0.1367748 -0.04976377 0.1039734 1 0 1
0.1378987 -0.04945008 0.1034556 1 0 1
0.1385494 -0.04852601 0.1022946 1 0 1
0.1396654 -0.0482069 0.101772 1 0 1
0.1403012 -0.04727939 0.1006095 1 0 1
0.1409277 -0.04635073 0.09944715 1 0 1
0.14203 -0.04602415 0.0989182 1 0 1
0.1426417 -0.04509221 0.09775444 1 0 1
0.1442277 -0.04536149 0.09785073 1 0 1
-0.1279927 -0.2136451 0.3314649 1 0 1
-0.1242049 -0.2091094 0.3256186 1 0 1
-0.1227877 -0.2120754 0.3288216 1 0 1
-0.1207719 -0.2131595 0.3297542 1 0 1
-0.1193014 -0.2161243 0.3329479 1 0 1
-0.1176174 -0.2184604 0.3353813 1 0 1
-0.1160859 -0.2214253 0.3385659 1 0 1
-0.1138289 -0.221868 0.3387198 1 0 1
-0.1114009 -0.2216735 0.3381102 1 0 1
-0.1088138 -0.2208394 0.3367363 1 0 1
-0.1057558 -0.2180982 0.3330829 1 0 1
-0.1032085 -0.2172444 0.331693 1 0 1
-0.1006753 -0.2163821 0.3302958 1 0 1
-0.09815624 -0.2155111 0.3288909 1 0 1
-0.0959437 -0.2159028 0.3289948 1 0 1
-0.09401446 -0.2175613 0.3306086 1 0 1
-0.09123833 -0.2153949 0.3276661 1 0 1
-0.08902994 -0.2157679 0.3277499 1 0 1
-0.086951 -0.2167734 0.3285857 1 0 1
-0.08473647 -0.2171354 0.3286565 1 0 1
-0.08227523 -0.2162126 0.3272027 1 0 1
-0.08030412 -0.2178421 0.3287781 1 0 1
-0.07797138 -0.217546 0.3280699 1 0 1
-0.07542327 -0.2159603 0.3258366 1 0 1
-0.07332641 -0.2169328 0.3266332 1 0 1
-0.07111752 -0.2172583 0.3266641 1 0 1
-0.06890769 -0.217578 0.3266884 1 0 1
-0.06660155 -0.2172483 0.3259468 1 0 1
-0.064394 -0.2175558 0.325958 1 0 1
-0.06209793 -0.2172128 0.3252032 1 0 1
-0.05972514 -0.2162178 0.3236825 1 0 1
-0.05728745 -0.2145692 0.3213959 1 0 1
-0.05502443 -0.2142042 0.3206216 1 0 1
0.1170639 -0.08041862 0.1401706 1 0 1
0.1191059 -0.08144058 0.1410598 1 0 1
0.1200486 -0.08055429 0.1399038 1 0 1
0.1209819 -0.07966574 0.1387465 1 0 1
0.1207721 -0.07687744 0.1355601 1 0 1
0.1212943 -0.07535492 0.1337302 1 0 1
0.1214148 -0.07320076 0.1312287 1 0 1
0.1219003 -0.07167786 0.1294039 1 0 1
0.1223693 -0.07015448 0.1275811 1 0 1
0.1232179 -0.06925941 0.1264293 1 0 1
0.1232578 -0.06710649 0.1239413 1 0 1
0.1240807 -0.06620921 0.122791 1 0 1
0.1248943 -0.06531008 0.12164 1 0 1
0.1256987 -0.06440915 0.1204884 1 0 1
0.1256657 -0.06225698 0.1180123 1 0 1
0.1264444 -0.06135425 0.1168625 1 0 1
0.1276352 -0.0610729 0.1163713 1 0 1
0.1283991 -0.06016592 0.1152191 1 0 1
0.1287253 -0.05863605 0.1134105 1 0 1
0.1303311 -0.05896768 0.1135681 1 0 1
0.1306354 -0.0574355 0.1117602 1 0 1
0.1309233 -0.05590362 0.109955 1 0 1
0.1316375 -0.05498977 0.1088026 1 0 1
0.1327886 -0.05469137 0.1082985 1 0 1
0.1330383 -0.05315783 0.1064973 1 0 1
0.1341781 -0.05285473 0.1059896 1 0 1
0.1353157 -0.05254842 0.1054787 1 0 1
0.1359909 -0.05162574 0.1043224 1 0 1
0.136657 -0.05070179 0.103166 1 0 1
0.137781 -0.05038775 0.1026486 1 0 1
0.1384321 -0.04946032 0.1014906 1 0 1
0.139074 -0.04853164 0.1003325 1 0 1
0.1397068 -0.04760177 0.0991746 1 0 1
0.1403303 -0.04667078 0.09801678 1 0 1
0.1409447 -0.04573869 0.09685911 1 0 1
0.1420379 -0.04541057 0.09633072 1 0 1
0.1436203 -0.04568333 0.09642654 1 0 1
-0.1296187 -0.2197187 0.3352738 1 0 1
-0.1250138 -0.2126509 0.3264403 1 0 1
-0.122622 -0.2124834 0.3258707 1 0 1
-0.1204253 -0.2129391 0.3260467 1 0 1
-0.1184122 -0.2140203 0.3269694 1 0 1
-0.1165712 -0.2157292 0.3286394 1 0 1
-0.1147133 -0.2174355 0.3303039 1 0 1
-0.1126648 -0.2185055 0.3312088 1 0 1
-0.1104372 -0.2189369 0.3313534 1 0 1
-0.1080423 -0.2187275 0.3307367 1 0 1
-0.1048436 -0.2153322 0.3263395 1 0 1
-0.1024808 -0.2151046 0.3257076 1 0 1
-0.100433 -0.2161442 0.3265788 1 0 1
-0.09822565 -0.2165415 0.3266886 1 0 1
-0.09572406 -0.215656 0.3252808 1 0 1
-0.09394985 -0.2179581 0.3276441 1 0 1
-0.09145747 -0.217059 0.3262227 1 0 1
-0.08938393 -0.2180731 0.327062 1 0 1
-0.08717061 -0.2184415 0.3271388 1 0 1
-0.08495606 -0.2188042 0.3272091 1 0 1
-0.08249408 -0.217876 0.3257599 1 0 1
-0.08040451 -0.2188688 0.3265732 1 0 1
-0.07807535 -0.2185697 0.325867 1 0 1
-0.07541849 -0.2163308 0.3228842 1 0 1
-0.07332984 -0.2173056 0.3236777 1 0 1
-0.07112876 -0.2176304 0.3237081 1 0 1
-0.06892677 -0.2179494 0.3237319 1 0 1
-0.06662806 -0.2176161 0.3229923 1 0 1
-0.06452031 -0.2185701 0.3237599 1 0 1
-0.06231586 -0.2188717 0.323764 1 0 1
-0.06002646 -0.2185194 0.3230049 1 0 1
-0.05742325 -0.2155655 0.3192118 1 0 1
0.1164045 -0.07803047 0.1354032 1 0 1
0.1202844 -0.08224086 0.139669 1 0 1
0.120474 -0.08007597 0.1371635 1 0 1
0.1213948 -0.07918265 0.1360095 1 0 1
0.1219252 -0.0776525 0.1341823 1 0 1
0.1220541 -0.07548775 0.131686 1 0 1
0.1221592 -0.07332391 0.1291944 1 0 1
0.1226326 -0.07179351 0.1273755 1 0 1
0.1230896 -0.07026272 0.1255586 1 0 1
0.12353 -0.06873158 0.1237438 1 0 1
0.123954 -0.06720009 0.1219311 1 0 1
0.1251747 -0.06692699 0.1214454 1 0 1
0.125573 -0.0653935 0.1196343 1 0 1
0.1263686 -0.0644875 0.118485 1 0 1
0.127155 -0.06357981 0.1173352 1 0 1
0.1275112 -0.06204442 0.1155283 1 0 1
0.1282755 -0.06113419 0.114379 1 0 1
0.1286026 -0.0595981 0.1125757 1 0 1
0.1302081 -0.05993225 0.1127312 1 0 1
0.1305131 -0.05839386 0.1109287 1 0 1
0.1308019 -0.05685574 0.1091289 1 0 1
0.1319588 -0.05655929 0.1086269 1 0 1
0.1326678 -0.05563982 0.1074757 1 0 1
0.1333676 -0.05471887 0.1063242 1 0 1
0.1340581 -0.05379655 0.1051725 1 0 1
0.1347395 -0.05287291 0.1040208 1 0 1
0.1354117 -0.05194789 0.102869 1 0 1
0.136538 -0.05163661 0.1023551 1 0 1
0.1376621 -0.05132211 0.1018381 1 0 1
0.1378434 -0.04977826 0.1000481 1 0 1
0.138956 -0.04945933 0.09952781 1 0 1
0.1395892 -0.04852618 0.0983728 1 0 1
0.1402132 -0.04759185 0.09721789 1 0 1
0.1408281 -0.04665643 0.09606312 1 0 1
0.1419214 -0.04632787 0.0955351 1 0 1
0.1435034 -0.04660309 0.09562885 1 0 1
-0.1288381 -0.2182564 0.330048 1 0 1
-0.1250365 -0.2136771 0.3242415 1 0 1
-0.1226482 -0.2135066 0.3236735 1 0 1
-0.119887 -0.2120622 0.3215976 1 0 1
-0.1178899 -0.2131437 0.3225159 1 0 1
-0.1158834 -0.2142211 0.3234282 1 0 1
-0.1140456 -0.21593 0.3250857 1 0 1
-0.1120168 -0.2169997 0.3259861 1 0 1
-0.1099788 -0.2180652 0.3268806 1 0 1
-0.107599 -0.2178506 0.326265 1 0 1
-0.1047384 -0.2157127 0.3233858 1 0 1
-0.1025415 -0.2161207 0.3235078 1 0 1
-0.100034 -0.2152429 0.3221181 1 0 1
-0.09784226 -0.215638 0.3222266 1 0 1
-0.09550238 -0.215386 0.3215757 1 0 1
-0.093455 -0.216411 0.322424 1 0 1
-0.0911204 -0.2161461 0.3217596 1 0 1
-0.08919813 -0.2178045 0.3233487 1 0 1
-0.08712777 -0.2188157 0.3241782 1 0 1
-0.0846662 -0.2178879 0.3227403 1 0 1
-0.08234263 -0.2175974 0.3220492 1 0 1
-0.08026513 -0.2185918 0.3228591 1 0 1
-0.07794728 -0.2182884 0.3221548 1 0 1
-0.07530066 -0.2160365 0.3191815 1 0 1
-0.07311612 -0.2163652 0.3192177 1 0 1
-0.07113883 -0.2179849 0.3207557 1 0 1
-0.06894469 -0.2183032 0.320779 1 0 1
-0.06655717 -0.2173169 0.3192873 1 0 1
-0.06436917 -0.2176226 0.3192976 1 0 1
-0.06218039 -0.2179225 0.3193012 1 0 1
-0.05973723 -0.2162634 0.3170356 1 0 1
0.101203 -0.05493817 0.1092674 1 0 1
0.1212582 -0.0852092 0.1407724 1 0 1
0.1218335 -0.08367219 0.1389433 1 0 1
0.1227694 -0.08277269 0.1377867 1 0 1
0.1233151 -0.0812334 0.1359595 1 0 1
0.1234598 -0.07905656 0.1334657 1 0 1
0.1228044 -0.07560833 0.1296428 1 0 1
0.1232859 -0.07407023 0.1278265 1 0 1
0.1237509 -0.07253171 0.1260123 1 0 1
0.1238005 -0.07035904 0.1235374 1 0 1
0.1246314 -0.06945357 0.12239 1 0 1
0.1254532 -0.06854627 0.1212419 1 0 1
0.1262657 -0.06763714 0.1200931 1 0 1
0.1266556 -0.06609571 0.1182869 1 0 1
0.127446 -0.06518386 0.1171385 1 0 1
0.1282271 -0.06427033 0.1159896 1 0 1
0.1285749 -0.06272709 0.1141877 1 0 1
0.1289064 -0.06118392 0.1123884 1 0 1
0.1300839 -0.06089343 0.1118906 1 0 1
0.1308246 -0.05997426 0.1107416 1 0 1
0.1311176 -0.05842904 0.1089457 1 0 1
0.1318363 -0.05750771 0.1077976 1 0 1
0.1325458 -0.05658492 0.1066492 1 0 1
0.133246 -0.05566069 0.1055007 1 0 1
0.133937 -0.05473512 0.104352 1 0 1
0.1346189 -0.05380813 0.1032031 1 0 1
0.1352915 -0.0528798 0.1020542 1 0 1
0.1359549 -0.05195019 0.1009052 1 0 1
0.137542 -0.05225317 0.101024 1 0 1
0.1381941 -0.05131913 0.0998718 1 0 1
0.1383635 -0.04976888 0.09808894 1 0 1
0.1394705 -0.04944737 0.09756751 1 0 1
0.140095 -0.04850971 0.0964155 1 0 1
0.1407103 -0.04757094 0.09526365 1 0 1
0.1418037 -0.04724196 0.09473603 1 0 1
0.1433854 -0.04751962 0.09482767 1 0 1
-0.1296411 -0.2143835 0.3224059 1 0 1
-0.1286579 -0.2186604 0.3270814 1 0 1
-0.1252562 -0.2153263 0.3227885 1 0 1
-0.12248 -0.2138827 0.3207274 1 0 1
-0.1199154 -0.2130649 0.3194057 1 0 1
-0.1179225 -0.2141492 0.3203206 1 0 1
-0.115556 -0.2139537 0.3197327 1 0 1
-0.1139089 -0.2163053 0.3221323 1 0 1
-0.1117139 -0.2167377 0.3222803 1 0 1
-0.1100291 -0.2190846 0.3246691 1 0 1
-0.1076529 -0.2188668 0.3240552 1 0 1
-0.1046318 -0.2160757 0.3204359 1 0 1
-0.1026017 -0.2171251 0.3213067 1 0 1
-0.1000973 -0.2162414 0.3199215 1 0 1
-0.0979095 -0.2166364 0.3200292 1 0 1
-0.09542584 -0.2157369 0.3186297 1 0 1
-0.09338667 -0.2167642 0.3194747 1 0 1
-0.09119906 -0.2171412 0.3195627 1 0 1
-0.08928151 -0.2188053 0.321146 1 0 1
-0.08708377 -0.2191722 0.3212213 1 0 1
-0.08475705 -0.2188857 0.320539 1 0 1
-0.082561 -0.2192403 0.3206011 1 0 1
-0.08024389 -0.2189403 0.3199053 1 0 1
-0.07793345 -0.2186333 0.3192028 1 0 1
-0.07540537 -0.2170191 0.3169908 1 0 1
-0.07311643 -0.216697 0.3162749 1 0 1
-0.0710433 -0.2176706 0.3170556 1 0 1
-0.0686598 -0.216684 0.3155751 1 0 1
-0.06638777 -0.2163418 0.3148395 1 0 1
-0.06421541 -0.2166458 0.3148493 1 0 1
-0.06195345 -0.2162906 0.3141009 1 0 1
-0.05969855 -0.2159286 0.3133461 1 0 1
-0.05728876 -0.2142507 0.3110815 1 0 1
0.1225981 -0.08883403 0.1425276 1 0 1
0.1224425 -0.08600395 0.139359 1 0 1
0.1226325 -0.08381725 0.1368658 1 0 1
0.1235596 -0.08291234 0.1357111 1 0 1
0.123709 -0.08072564 0.133224 1 0 1
0.1234469 -0.0779008 0.1300771 1 0 1
0.1239366 -0.07635505 0.1282636 1 0 1
0.1244096 -0.07480879 0.126452 1 0 1
0.1248662 -0.07326216 0.1246424 1 0 1
0.1253062 -0.07171514 0.1228349 1 0 1
0.1257298 -0.07016788 0.1210296 1 0 1
0.1261369 -0.06862041 0.1192265 1 0 1
0.1265276 -0.06707277 0.1174257 1 0 1
0.1269019 -0.06552506 0.1156273 1 0 1
0.1281001 -0.06524085 0.1151341 1 0 1
0.1284487 -0.06369141 0.1133377 1 0 1
0.1292083 -0.06277213 0.1121923 1 0 1
0.1303895 -0.06248038 0.1116934 1 0 1
0.1311341 -0.06155705 0.1105457 1 0 1
0.1314316 -0.06000477 0.1087538 1 0 1
0.1321542 -0.05907925 0.1076071 1 0 1
0.1324226 -0.05752671 0.1058192 1 0 1
0.1331233 -0.05659923 0.1046736 1 0 1
0.1338148 -0.0556703 0.1035278 1 0 1
0.1349526 -0.05536276 0.103018 1 0 1
0.1356292 -0.05443021 0.1018704 1 0 1
0.1367592 -0.05411713 0.1013557 1 0 1
0.1378869 -0.05380082 0.1008378 1 0 1
0.1385428 -0.05286245 0.0996869 1 0 1
0.1387165 -0.051305 0.09790791 1 0 1
