ply
format ascii 1.0
Comment Generated by Floating Hands
element vertex 1244
property double x
property double y
property double z
property uchar red
property uchar green
property uchar blue
end_header
0.1103846 -0.01015987 0.1366886 1 0 1
0.1110803 -0.009424835 0.1354946 1 0 1
0.1109472 -0.007671964 0.1327852 1 0 1
0.1116177 -0.006935596 0.1315932 1 0 1
0.1122792 -0.006197862 0.1304009 1 0 1
0.1129318 -0.005458788 0.1292082 1 0 1
0.1139994 -0.005223469 0.1287669 1 0 1
0.1150653 -0.004985336 0.1283224 1 0 1
0.115698 -0.004240851 0.1271261 1 0 1
0.1167566 -0.003997788 0.1266766 1 0 1
0.1178133 -0.003751876 0.126224 1 0 1
0.1184262 -0.003002062 0.1250241 1 0 1
0.1190301 -0.002251091 0.1238241 1 0 1
0.120523 -0.00249767 0.124106 1 0 1
0.1206636 -0.001244298 0.1221633 1 0 1
0.1212441 -0.0004891824 0.1209617 1 0 1
0.1222752 -0.0002297212 0.1204963 1 0 1
0.1228414 0.0005283696 0.1192932 1 0 1
0.122932 0.001782351 0.117357 1 0 1
0.1239468 0.002047505 0.1168872 1 0 1
0.1244861 0.002808494 0.1156844 1 0 1
0.1254933 0.003078214 0.1152101 1 0 1
0.1264986 0.003350677 0.1147327 1 0 1
0.127018 0.004116179 0.1135274 1 0 1
0.1275285 0.004882496 0.1123224 1 0 1
0.09662468 -0.0531905 0.2024353 1 0 1
0.09832811 -0.05355276 0.2028219 1 0 1
0.09764256 -0.04967245 0.1968535 1 0 1
0.09750915 -0.04685359 0.1924814 1 0 1
0.09641623 -0.04244941 0.1857424 1 0 1
0.09526179 -0.03804949 0.1790172 1 0 1
0.09467474 -0.03470968 0.1738847 1 0 1
0.09404133 -0.03137253 0.168762 1 0 1
0.09400517 -0.0290918 0.1652229 1 0 1
0.09458873 -0.02786455 0.1632606 1 0 1
0.095485 -0.02716199 0.1620838 1 0 1
0.09603936 -0.02593202 0.1601224 1 0 1
0.09691393 -0.02522574 0.1589442 1 0 1
0.09743921 -0.02399334 0.156984 1 0 1
0.0982921 -0.02328351 0.1558047 1 0 1
0.09878827 -0.02204882 0.153846 1 0 1
0.09926809 -0.02081334 0.1518887 1 0 1
0.1004417 -0.02062059 0.1514844 1 0 1
0.1012549 -0.01990362 0.150302 1 0 1
0.1013343 -0.01814384 0.1475725 1 0 1
0.1017561 -0.01690461 0.145619 1 0 1
0.1021616 -0.01566495 0.1436674 1 0 1
0.1025508 -0.0144248 0.1417176 1 0 1
0.1029237 -0.01318431 0.1397697 1 0 1
0.1040417 -0.01297791 0.1393569 1 0 1
0.1047737 -0.01225202 0.1381755 1 0 1
0.1054967 -0.01152454 0.1369935 1 0 1
0.1069938 -0.01182578 0.1373358 1 0 1
0.1081013 -0.01160823 0.136911 1 0 1
0.109207 -0.01138768 0.1364828 1 0 1
0.1099086 -0.01065124 0.135293 1 0 1
0.1101951 -0.009401108 0.1333459 1 0 1
0.1108751 -0.008662482 0.1321567 1 0 1
0.1111329 -0.007411752 0.1302131 1 0 1
0.1117913 -0.006671133 0.1290245 1 0 1
0.1128611 -0.006438356 0.1285866 1 0 1
0.1139291 -0.006202745 0.1281456 1 0 1
0.1145677 -0.005456615 0.1269532 1 0 1
0.1156285 -0.005216039 0.1265073 1 0 1
0.1162527 -0.00446662 0.125313 1 0 1
0.116868 -0.003715997 0.1241186 1 0 1
0.1174743 -0.002964225 0.1229241 1 0 1
0.1185169 -0.002714747 0.1224699 1 0 1
0.1195576 -0.002462464 0.1220127 1 0 1
0.1201441 -0.001705602 0.1208149 1 0 1
0.1207216 -0.0009477132 0.1196172 1 0 1
0.1212902 -0.0001887265 0.1184194 1 0 1
0.1218498 0.0005712566 0.1172218 1 0 1
0.1224005 0.001332181 0.1160243 1 0 1
0.123412 0.001596822 0.1155563 1 0 1
0.1244215 0.0018642 0.1150853 1 0 1
0.1244756 0.003125181 0.113159 1 0 1
0.1254743 0.003396183 0.1126852 1 0 1
0.1255036 0.00465698 0.1107627 1 0 1
0.1260042 0.005424126 0.109565 1 0 1
0.09694514 -0.0498242 0.1944916 1 0 1
0.09680591 -0.0469895 0.1901324 1 0 1
0.09509473 -0.04149542 0.1818341 1 0 1
0.09454846 -0.038134 0.1767068 1 0 1
0.09426989 -0.03530623 0.1723762 1 0 1
0.09395245 -0.03248017 0.1680533 1 0 1
0.09423915 -0.03071606 0.1653074 1 0 1
0.09450198 -0.02895189 0.1625649 1 0 1
0.09539881 -0.02824569 0.1613903 1 0 1
0.09595401 -0.02700889 0.1594334 1 0 1
0.0964928 -0.02577108 0.1574776 1 0 1
0.09701519 -0.02453235 0.155523 1 0 1
0.09820864 -0.02434634 0.1551246 1 0 1
0.0983582 -0.02257851 0.1523941 1 0 1
0.09918624 -0.02186238 0.1512173 1 0 1
0.1000053 -0.02114434 0.1500396 1 0 1
0.1008154 -0.02042436 0.1488608 1 0 1
0.1012543 -0.01917881 0.1469101 1 0 1
0.1016769 -0.01793273 0.1449611 1 0 1
0.1020832 -0.01668613 0.1430138 1 0 1
0.1021 -0.01491725 0.1403013 1 0 1
0.1024701 -0.01367057 0.1383592 1 0 1
0.1035847 -0.01346452 0.1379479 1 0 1
0.1046977 -0.0132555 0.1375333 1 0 1
0.1050335 -0.0120053 0.1355919 1 0 1
0.106527 -0.01231014 0.1359337 1 0 1
0.1076311 -0.01209296 0.1355104 1 0 1
0.108335 -0.01135585 0.1343263 1 0 1
0.1086277 -0.01010098 0.1323855 1 0 1
0.1097157 -0.009877159 0.1319565 1 0 1
0.1099832 -0.008620915 0.1300177 1 0 1
0.1102346 -0.007364793 0.1280814 1 0 1
0.1113029 -0.007135303 0.1276485 1 0 1
0.1123694 -0.006902968 0.1272124 1 0 1
0.1134341 -0.006667728 0.1267731 1 0 1
0.1140696 -0.005918773 0.1255845 1 0 1
0.1151271 -0.005678624 0.1251402 1 0 1
0.1153139 -0.004417156 0.1232069 1 0 1
0.1154848 -0.003156166 0.1212764 1 0 1
0.1165224 -0.002910799 0.1208287 1 0 1
0.1175581 -0.002662659 0.1203779 1 0 1
0.118592 -0.002411685 0.1199241 1 0 1
0.119172 -0.00165288 0.1187317 1 0 1
0.1201985 -0.001397178 0.1182731 1 0 1
0.1207641 -0.0006354488 0.1170794 1 0 1
0.1208581 0.0006296264 0.1151551 1 0 1
0.1214023 0.001392408 0.1139632 1 0 1
0.1219376 0.002156145 0.1127714 1 0 1
0.1224639 0.002920772 0.1115799 1 0 1
0.1225048 0.004184892 0.1096645 1 0 1
0.1230099 0.004950312 0.1084751 1 0 1
0.123506 0.005716491 0.1072861 1 0 1
0.1239933 0.006483439 0.1060974 1 0 1
-0.1808121 -0.1980894 0.4697163 1 0 1
-0.1774982 -0.1972009 0.467612 1 0 1
0.09505252 -0.04781421 0.188976 1 0 1
0.0954976 -0.04603733 0.1862107 1 0 1
0.09377448 -0.04051197 0.1779383 1 0 1
0.09352525 -0.03766743 0.1736144 1 0 1
0.09386463 -0.03589325 0.1708677 1 0 1
0.09354509 -0.03305093 0.1665567 1 0 1
0.09382915 -0.03127725 0.1638185 1 0 1
0.09441434 -0.0300363 0.1618651 1 0 1
0.09531171 -0.02932655 0.1606927 1 0 1
0.09586772 -0.02808289 0.1587402 1 0 1
0.09640732 -0.02683825 0.1567888 1 0 1
0.09693051 -0.02559265 0.1548387 1 0 1
0.09778078 -0.02487627 0.1536651 1 0 1
0.09827489 -0.0236284 0.1517165 1 0 1
0.09875261 -0.02237974 0.1497692 1 0 1
0.09956852 -0.02165874 0.1485951 1 0 1
0.1003755 -0.02093582 0.1474199 1 0 1
0.1004496 -0.01915697 0.144706 1 0 1
0.1015968 -0.01895807 0.1442993 1 0 1
0.1016346 -0.01717887 0.1415901 1 0 1
0.1020218 -0.01592561 0.1396504 1 0 1
0.1023926 -0.01467202 0.1377127 1 0 1
0.1031273 -0.01394192 0.1365393 1 0 1
0.103853 -0.01321016 0.1353653 1 0 1
0.1045698 -0.01247688 0.1341906 1 0 1
0.1052777 -0.011742 0.1330154 1 0 1
0.1067659 -0.01204759 0.1333534 1 0 1
0.107463 -0.01130828 0.1321744 1 0 1
0.1077493 -0.01004804 0.1302409 1 0 1
0.1088303 -0.009825352 0.129815 1 0 1
0.1095005 -0.00908173 0.1286347 1 0 1
0.1093364 -0.007302246 0.1259545 1 0 1
0.1103978 -0.007073932 0.1255247 1 0 1
0.1114573 -0.006842783 0.1250918 1 0 1
0.1125151 -0.006608775 0.1246556 1 0 1
0.113144 -0.005857755 0.1234724 1 0 1
0.1141946 -0.005618863 0.1230314 1 0 1
0.1143751 -0.004352165 0.1211055 1 0 1
0.1149772 -0.003597569 0.1199218 1 0 1
0.1155704 -0.002841841 0.1187381 1 0 1
0.1170441 -0.003104953 0.1190269 1 0 1
0.1180747 -0.002854446 0.1185748 1 0 1
0.1186516 -0.002092933 0.1173865 1 0 1
0.1192196 -0.001330317 0.1161981 1 0 1
0.1193198 -6.020875E-05 0.1142798 1 0 1
0.1189418 0.001714609 0.1116363 1 0 1
0.1194724 0.00247744 0.1104531 1 0 1
0.1204635 0.002737378 0.1099955 1 0 1
0.1209799 0.00350291 0.1088111 1 0 1
0.1219636 0.003767342 0.108349 1 0 1
0.1219859 0.005036378 0.1064433 1 0 1
0.1224756 0.005804287 0.10526 1 0 1
0.1229565 0.006573 0.104077 1 0 1
-0.1890307 -0.2045785 0.4765802 1 0 1
-0.1846555 -0.2016868 0.4712051 1 0 1
-0.1810699 -0.2002957 0.4682924 1 0 1
-0.1772694 -0.1983831 0.4645401 1 0 1
-0.1761307 -0.2020492 0.4698744 1 0 1
0.09375931 -0.04684089 0.1850559 1 0 1
0.09328365 -0.04343831 0.1799433 1 0 1
0.09245546 -0.03949927 0.1740552 1 0 1
0.09250272 -0.03717818 0.1705305 1 0 1
0.09283202 -0.03539538 0.1677938 1 0 1
0.09313736 -0.03361228 0.1650601 1 0 1
0.09341881 -0.03182901 0.1623297 1 0 1
0.09400108 -0.03058176 0.1603818 1 0 1
0.0952237 -0.03040456 0.159991 1 0 1
0.09578051 -0.02915407 0.1580429 1 0 1
0.09632089 -0.02790257 0.1560959 1 0 1
0.09684495 -0.02665017 0.1541503 1 0 1
0.09769572 -0.02593021 0.1529791 1 0 1
0.09784374 -0.02414276 0.1502629 1 0 1
0.09866918 -0.02342001 0.149092 1 0 1
0.09948564 -0.02269541 0.1479202 1 0 1
0.1002931 -0.0219689 0.1467474 1 0 1
0.1003683 -0.02017995 0.14404 1 0 1
0.1015157 -0.01998074 0.1436335 1 0 1
0.1015546 -0.0181914 0.1409309 1 0 1
0.1015699 -0.01640295 0.1382328 1 0 1
0.1023141 -0.01567089 0.1370624 1 0 1
0.1030494 -0.01493716 0.1358913 1 0 1
0.1037756 -0.01420182 0.1347196 1 0 1
0.1044929 -0.01346493 0.1335474 1 0 1
0.1052013 -0.01272649 0.1323745 1 0 1
0.1059006 -0.01198652 0.1312011 1 0 1
0.1065911 -0.01124511 0.1300272 1 0 1
0.1072725 -0.01050219 0.1288529 1 0 1
0.1079449 -0.009757871 0.1276782 1 0 1
0.1090173 -0.009533454 0.1272521 1 0 1
0.109263 -0.008265125 0.1253276 1 0 1
0.1099086 -0.007516711 0.1241519 1 0 1
0.1109649 -0.007285942 0.1237206 1 0 1
0.1115961 -0.006534189 0.1225429 1 0 1
0.1126452 -0.006298583 0.1221068 1 0 1
0.1132622 -0.005543581 0.1209273 1 0 1
0.1138702 -0.004787319 0.1197475 1 0 1
0.1144692 -0.00402999 0.1185678 1 0 1
0.1150593 -0.003271462 0.117388 1 0 1
0.1165295 -0.003538273 0.1176765 1 0 1
0.1171088 -0.002775879 0.1164936 1 0 1
0.1176791 -0.002012457 0.1153107 1 0 1
0.1182406 -0.001247969 0.1141278 1 0 1
0.1183345 2.718755E-05 0.1122172 1 0 1
0.1179504 0.001810335 0.1095835 1 0 1
0.118009 0.003082903 0.1076811 1 0 1
0.1189898 0.00334052 0.1072285 1 0 1
0.1199688 0.00360082 0.1067729 1 0 1
0.1199938 0.004874038 0.1048747 1 0 1
0.1204824 0.005642013 0.1036983 1 0 1
0.1204792 0.006913925 0.1018057 1 0 1
0.1209468 0.007682399 0.1006318 1 0 1
-0.2035716 -0.1846933 0.4449787 1 0 1
-0.2010918 -0.1853693 0.4454338 1 0 1
-0.1960443 -0.2142703 0.4878717 1 0 1
-0.1905648 -0.2093528 0.4792406 1 0 1
-0.1861677 -0.2064442 0.4738823 1 0 1
-0.1813277 -0.2024961 0.4668597 1 0 1
-0.177525 -0.2005683 0.4631172 1 0 1
0.09008122 -0.04149506 0.174868 1 0 1
0.09077059 -0.04024791 0.1729176 1 0 1
0.09083194 -0.03791536 0.169402 1 0 1
0.09117137 -0.03612484 0.1666735 1 0 1
0.09211332 -0.0354159 0.165509 1 0 1
0.09241229 -0.03362372 0.1627842 1 0 1
0.0930081 -0.03237134 0.160841 1 0 1
0.09391183 -0.0316572 0.1596758 1 0 1
0.09480661 -0.03094088 0.1585093 1 0 1
0.09536055 -0.02968407 0.1565668 1 0 1
0.09556252 -0.02788859 0.1538521 1 0 1
0.09607992 -0.02663049 0.1519134 1 0 1
0.09692384 -0.02590809 0.1507469 1 0 1
0.09671891 -0.02357572 0.1472701 1 0 1
0.09753382 -0.02285126 0.1461054 1 0 1
0.09869374 -0.02265969 0.1457069 1 0 1
0.0994944 -0.02193087 0.1445389 1 0 1
0.09992468 -0.02066667 0.1426054 1 0 1
0.1007037 -0.0199348 0.141437 1 0 1
0.101105 -0.01866896 0.1395057 1 0 1
0.10149 -0.01740273 0.1375764 1 0 1
0.1018587 -0.0161361 0.1356489 1 0 1
0.1022112 -0.01486919 0.1337234 1 0 1
0.103314 -0.01466126 0.1333135 1 0 1
0.1040282 -0.01392148 0.1321449 1 0 1
0.1039523 -0.01212378 0.1294678 1 0 1
0.1050355 -0.01190984 0.1290535 1 0 1
0.1061169 -0.01169302 0.128636 1 0 1
0.1063939 -0.01042122 0.1267156 1 0 1
0.1074646 -0.01020009 0.1262945 1 0 1
0.1081251 -0.009451516 0.1251232 1 0 1
0.1087765 -0.008701622 0.1239515 1 0 1
0.1090033 -0.007427442 0.1220356 1 0 1
0.1100526 -0.00719792 0.1216075 1 0 1
0.1106772 -0.006444117 0.1204351 1 0 1
0.1112929 -0.005689154 0.1192625 1 0 1
0.1123297 -0.005452751 0.118828 1 0 1
0.1129311 -0.004694541 0.1176537 1 0 1
0.1135236 -0.003935233 0.1164794 1 0 1
0.1141071 -0.003174791 0.1153049 1 0 1
0.1151259 -0.00292973 0.1148626 1 0 1
0.1156951 -0.002166268 0.1136867 1 0 1
0.115804 -0.0008871448 0.1117819 1 0 1
0.1163519 -0.0001225614 0.1106077 1 0 1
0.1159741 0.001668836 0.1079821 1 0 1
0.1160353 0.002945551 0.1060872 1 0 1
0.116546 0.003710193 0.1049183 1 0 1
0.1175167 0.003965414 0.1044708 1 0 1
0.1184854 0.004223363 0.1040204 1 0 1
0.1194522 0.004483933 0.1035671 1 0 1
0.1194586 0.005761961 0.1016785 1 0 1
0.1199319 0.006532359 0.1005082 1 0 1
0.1203964 0.007303461 0.09933839 1 0 1
-0.2041138 -0.1873118 0.4444055 1 0 1
-0.2016298 -0.1879899 0.4448605 1 0 1
-0.1983001 -0.1871483 0.4428584 1 0 1
-0.1930492 -0.1827561 0.435125 1 0 1
-0.191153 -0.1844154 0.4371835 1 0 1
-0.1951736 -0.1972367 0.4572408 1 0 1
-0.1973472 -0.2185899 0.4896567 1 0 1
-0.1905746 -0.2110854 0.4769464 1 0 1
-0.1876837 -0.2112278 0.4765297 1 0 1
-0.1825738 -0.2067431 0.468706 1 0 1
-0.178997 -0.2053182 0.4657981 1 0 1
-0.1778432 -0.2090293 0.4711081 1 0 1
0.08730286 -0.03770619 0.1670762 1 0 1
0.08976974 -0.03973067 0.1698309 1 0 1
0.09043221 -0.03847669 0.1678888 1 0 1
0.09107821 -0.03722131 0.1659475 1 0 1
0.0920207 -0.0365088 0.1647854 1 0 1
0.0923208 -0.03470661 0.1620673 1 0 1
0.09291738 -0.03344745 0.1601285 1 0 1
0.09382171 -0.03272971 0.1589656 1 0 1
0.09504487 -0.032552 0.1585752 1 0 1
0.09527176 -0.0307463 0.1558635 1 0 1
0.09547481 -0.02894076 0.1531555 1 0 1
0.09565402 -0.02713538 0.1504511 1 0 1
0.09649479 -0.02641006 0.1492882 1 0 1
0.09628746 -0.02406495 0.1458215 1 0 1
0.09674915 -0.02279883 0.143894 1 0 1
0.09790203 -0.02260821 0.1434982 1 0 1
0.09869582 -0.02187705 0.1423352 1 0 1
0.09911955 -0.02060729 0.1404087 1 0 1
0.1002565 -0.02040936 0.1400065 1 0 1
0.1006549 -0.01913733 0.1380811 1 0 1
0.1010371 -0.01786491 0.1361575 1 0 1
0.1014029 -0.01659218 0.1342358 1 0 1
0.1017525 -0.01531912 0.1323162 1 0 1
0.1028519 -0.01511155 0.1319079 1 0 1
0.1031763 -0.01383674 0.1299898 1 0 1
0.1034845 -0.01256182 0.128074 1 0 1
0.1045643 -0.01234828 0.1276613 1 0 1
0.1056424 -0.01213182 0.1272454 1 0 1
0.1059165 -0.01085396 0.1253309 1 0 1
0.1069839 -0.01063322 0.1249114 1 0 1
0.1076412 -0.009881835 0.1237439 1 0 1
0.1082896 -0.009129127 0.1225761 1 0 1
0.108098 -0.007322657 0.1199242 1 0 1
0.1087213 -0.006568903 0.1187588 1 0 1
0.1097584 -0.006338579 0.1183322 1 0 1
0.1103674 -0.005581598 0.117165 1 0 1
0.1113973 -0.005346441 0.1167337 1 0 1
0.1119921 -0.004586287 0.1155648 1 0 1
0.1125779 -0.003825046 0.1143958 1 0 1
0.1135953 -0.003583235 0.1139584 1 0 1
0.1141668 -0.002818957 0.1127879 1 0 1
0.1147294 -0.002053633 0.1116174 1 0 1
0.1148321 -0.0007693712 0.1097203 1 0 1
0.1153734 -2.975289E-06 0.1085516 1 0 1
0.1149896 0.001796686 0.1059358 1 0 1
0.1155061 0.002563171 0.1047707 1 0 1
0.1155486 0.003844853 0.1028854 1 0 1
0.1165125 0.004098644 0.1024413 1 0 1
0.1174745 0.004355093 0.1019944 1 0 1
0.117959 0.00512573 0.100829 1 0 1
0.1184347 0.005897142 0.09966393 1 0 1
0.1189016 0.006669261 0.09849934 1 0 1
0.1193597 0.007442053 0.0973352 1 0 1
-0.2035007 -0.1879084 0.440568 1 0 1
-0.2010278 -0.1885844 0.4410201 1 0 1
-0.1954565 -0.1836699 0.4325071 1 0 1
-0.1913534 -0.1812705 0.4280466 1 0 1
-0.1889361 -0.1819109 0.4284642 1 0 1
-0.1886774 -0.1866305 0.4354043 1 0 1
-0.1886221 -0.1918714 0.4431637 1 0 1
-0.1926979 -0.205325 0.4640062 1 0 1
-0.1916648 -0.2090628 0.4693273 1 0 1
-0.1882884 -0.2081749 0.4672793 1 0 1
-0.185937 -0.2093366 0.4684967 1 0 1
0.0875057 -0.03934988 0.1671263 1 0 1
0.08937257 -0.04028875 0.1683121 1 0 1
0.09094771 -0.04067388 0.1687112 1 0 1
0.09129307 -0.03886278 0.1659947 1 0 1
0.09192717 -0.03759882 0.1640576 1 0 1
0.09222836 -0.03578658 0.1613462 1 0 1
0.09250565 -0.03397418 0.158638 1 0 1
0.09308292 -0.03270753 0.1567059 1 0 1
0.09429891 -0.03253062 0.1563181 1 0 1
0.09485076 -0.03126083 0.1543858 1 0 1
0.09505115 -0.02944578 0.1516856 1 0 1
0.09556646 -0.02817467 0.1497571 1 0 1
0.09606539 -0.02690268 0.1478299 1 0 1
0.09585571 -0.02454487 0.1443733 1 0 1
0.09631451 -0.02327259 0.1424515 1 0 1
0.09746391 -0.02308225 0.1420572 1 0 1
0.09825456 -0.0223482 0.1408978 1 0 1
0.09867539 -0.02107221 0.1389771 1 0 1
0.0998089 -0.02087465 0.1385764 1 0 1
0.1002045 -0.01959651 0.1366569 1 0 1
0.1009556 -0.01885604 0.1354955 1 0 1
0.1013222 -0.01757651 0.1335784 1 0 1
0.1012934 -0.01575992 0.1309096 1 0 1
0.1020067 -0.01501666 0.1297504 1 0 1
0.102711 -0.01427179 0.1285907 1 0 1
0.1030163 -0.01299076 0.1266807 1 0 1
0.1036991 -0.01224368 0.1255213 1 0 1
0.1047702 -0.01202834 0.1251085 1 0 1
0.1054387 -0.01127764 0.1239469 1 0 1
0.1060982 -0.01052557 0.1227849 1 0 1
0.1067488 -0.009772127 0.1216227 1 0 1
0.1073905 -0.009017345 0.1204601 1 0 1
0.1071928 -0.007202398 0.1178178 1 0 1
0.1082282 -0.006975314 0.117396 1 0 1
0.1084171 -0.005689687 0.1154974 1 0 1
0.1094419 -0.00545858 0.1150724 1 0 1
0.110465 -0.005224716 0.1146443 1 0 1
0.1114862 -0.004988038 0.1142132 1 0 1
0.112069 -0.004224043 0.1130482 1 0 1
0.1130831 -0.00398268 0.1126125 1 0 1
0.1136515 -0.003215669 0.1114459 1 0 1
0.1137638 -0.001925604 0.1095532 1 0 1
0.1138601 -0.0006363234 0.1076637 1 0 1
0.1143948 0.0001319446 0.1065006 1 0 1
0.114005 0.001939839 0.1038947 1 0 1
0.1145149 0.002708101 0.1027351 1 0 1
0.1150161 0.003477227 0.1015759 1 0 1
0.1159767 0.00373049 0.1011338 1 0 1
0.1169354 0.003986394 0.1006888 1 0 1
0.117417 0.004759725 0.09952734 1 0 1
0.1178897 0.005533774 0.09836636 1 0 1
0.1183535 0.0063085 0.09720583 1 0 1
0.1188086 0.007083929 0.0960458 1 0 1
-0.2040425 -0.1905154 0.4399782 1 0 1
-0.2012799 -0.1906836 0.4396186 1 0 1
-0.1962678 -0.1867568 0.4327524 1 0 1
-0.1918765 -0.1838294 0.4274924 1 0 1
-0.1894552 -0.1844718 0.4279098 1 0 1
-0.1878429 -0.1866497 0.4307622 1 0 1
-0.1872723 -0.1908866 0.4368696 1 0 1
-0.1879612 -0.1977099 0.4470547 1 0 1
0.08927622 -0.04138951 0.1675709 1 0 1
0.09054641 -0.04122593 0.1671916 1 0 1
0.0911978 -0.03995657 0.1652583 1 0 1
0.09183274 -0.03868582 0.1633256 1 0 1
0.09213506 -0.03686358 0.160621 1 0 1
0.09273329 -0.03559085 0.1586912 1 0 1
0.09299149 -0.0337678 0.155992 1 0 1
0.09420773 -0.03359059 0.1556042 1 0 1
0.09476039 -0.03231404 0.1536765 1 0 1
0.09496188 -0.030489 0.1509831 1 0 1
0.09513959 -0.02866417 0.1482934 1 0 1
0.09563561 -0.027386 0.146372 1 0 1
0.09542359 -0.02501558 0.1429255 1 0 1
0.09587949 -0.02373713 0.1410096 1 0 1
0.09702543 -0.02354708 0.1406167 1 0 1
0.09781292 -0.02281008 0.1394609 1 0 1
0.09823089 -0.02152805 0.1375462 1 0 1
0.09936097 -0.02133077 0.1371469 1 0 1
0.09975364 -0.02004647 0.1352332 1 0 1
0.1005016 -0.01930315 0.1340756 1 0 1
0.1008653 -0.01801751 0.1321644 1 0 1
0.1012128 -0.01673158 0.1302552 1 0 1
0.1015441 -0.01544543 0.1283482 1 0 1
0.1022453 -0.01469775 0.1271921 1 0 1
0.1029375 -0.01394857 0.1260356 1 0 1
0.1036208 -0.0131979 0.1248787 1 0 1
0.1042951 -0.01244576 0.1237213 1 0 1
0.1049605 -0.01169224 0.1225635 1 0 1
0.1060211 -0.01147231 0.1221473 1 0 1
0.1066722 -0.01071528 0.1209874 1 0 1
0.106903 -0.009423532 0.1190882 1 0 1
0.1071176 -0.008132013 0.1171917 1 0 1
0.1081534 -0.007904583 0.1167701 1 0 1
0.108343 -0.006612186 0.1148762 1 0 1
0.1089423 -0.005850451 0.1137182 1 0 1
0.109962 -0.005617034 0.1132919 1 0 1
0.1109799 -0.005380818 0.1128625 1 0 1
0.1111232 -0.004086298 0.1109727 1 0 1
0.1116904 -0.003319313 0.1098131 1 0 1
0.1122487 -0.002551295 0.1086536 1 0 1
0.1127982 -0.001782256 0.1074942 1 0 1
0.1128882 -0.0004879025 0.1056124 1 0 1
0.1134163 0.0002821577 0.1044548 1 0 1
0.113478 0.001575709 0.1025781 1 0 1
0.113985 0.002346614 0.1014226 1 0 1
0.1140184 0.003639156 0.09955122 1 0 1
0.1149723 0.00389097 0.09911256 1 0 1
0.1159243 0.004145395 0.09867106 1 0 1
0.1163993 0.004920405 0.09751535 1 0 1
0.1173441 0.005179171 0.09706977 1 0 1
0.118287 0.005440493 0.09662139 1 0 1
0.1187425 0.006219521 0.09546376 1 0 1
-0.2040054 -0.1920989 0.4377583 1 0 1
-0.2003882 -0.190725 0.4349712 1 0 1
-0.1967982 -0.1893367 0.4321711 1 0 1
-0.1932355 -0.1879341 0.4293579 1 0 1
-0.1910735 -0.1890975 0.4305885 1 0 1
-0.1894431 -0.1912909 0.4334367 1 0 1
-0.1877876 -0.1934839 0.436281 1 0 1
-0.187687 -0.1987904 0.4440007 1 0 1
-0.1854392 -0.1999487 0.4452129 1 0 1
-0.1834371 -0.2016233 0.4472327 1 0 1
-0.1834334 -0.20747 0.4557668 1 0 1
0.08917896 -0.04248725 0.1668255 1 0 1
0.09075402 -0.04287839 0.1672205 1 0 1
0.09171838 -0.04215622 0.1660635 1 0 1
0.09204947 -0.0403238 0.1633613 1 0 1
0.09235663 -0.03849106 0.1606622 1 0 1
0.09295943 -0.03721109 0.158736 1 0 1
0.09354578 -0.03592993 0.1568106 1 0 1
0.09411566 -0.03464769 0.1548864 1 0 1
0.09466913 -0.03336434 0.1529632 1 0 1
0.0948717 -0.03152932 0.1502766 1 0 1
0.09505046 -0.02969452 0.1475936 1 0 1
0.0955473 -0.02840964 0.1456768 1 0 1
0.09533662 -0.02602599 0.1422393 1 0 1
0.09544408 -0.02419239 0.1395681 1 0 1
0.09658661 -0.02400271 0.1391767 1 0 1
0.09701434 -0.02271567 0.1372673 1 0 1
0.09778597 -0.02197458 0.1361157 1 0 1
0.09854871 -0.02123179 0.1349632 1 0 1
0.09893481 -0.01994208 0.1330567 1 0 1
0.09967596 -0.0191965 0.1319041 1 0 1
0.1000332 -0.01790545 0.1300002 1 0 1
0.1007528 -0.01715733 0.1288477 1 0 1
0.1014634 -0.01640764 0.1276946 1 0 1
0.102165 -0.01565641 0.126541 1 0 1
0.1028577 -0.01490367 0.1253869 1 0 1
0.1035415 -0.01414947 0.1242323 1 0 1
0.1038196 -0.01285415 0.1223348 1 0 1
0.1044819 -0.01209784 0.1211809 1 0 1
0.1059431 -0.01241645 0.121506 1 0 1
0.1061871 -0.01111849 0.1196102 1 0 1
0.1068262 -0.01035736 0.118454 1 0 1
0.1070416 -0.009059089 0.116562 1 0 1
0.1076592 -0.008296208 0.1154067 1 0 1
0.1074241 -0.006463546 0.1127863 1 0 1
0.1080168 -0.005699883 0.1116338 1 0 1
0.1090295 -0.005467782 0.1112107 1 0 1
0.1100406 -0.005232859 0.1107846 1 0 1
0.1101775 -0.003933216 0.1089024 1 0 1
0.1107381 -0.003164377 0.1077483 1 0 1
0.1112898 -0.002394497 0.1065943 1 0 1
0.1113859 -0.00109521 0.1047184 1 0 1
0.1119164 -0.0003242639 0.1035663 1 0 1
0.1124379 0.0004476184 0.1024143 1 0 1
0.1129507 0.001220356 0.1012625 1 0 1
0.1134545 0.001993977 0.1001111 1 0 1
0.1139496 0.002768398 0.09895989 1 0 1
0.1149036 0.003020589 0.09852152 1 0 1
0.1153845 0.003797514 0.09736946 1 0 1
0.1163314 0.004054022 0.09692702 1 0 1
0.1167981 0.004833349 0.09577417 1 0 1
0.1177377 0.005094092 0.09532772 1 0 1
0.1181902 0.005875726 0.09417422 1 0 1
-0.2010669 -0.1885189 0.4274691 1 0 1
-0.1977754 -0.1876383 0.4254896 1 0 1
-0.1947862 -0.1872624 0.4243062 1 0 1
-0.1926458 -0.1884311 0.4255382 1 0 1
-0.1907702 -0.1901149 0.4275732 1 0 1
-0.188877 -0.1917965 0.429603 1 0 1
-0.1866986 -0.1929548 0.4308173 1 0 1
-0.1868837 -0.1988081 0.4393247 1 0 1
-0.1843912 -0.1994435 0.4397199 1 0 1
-0.1826646 -0.2016448 0.442544 1 0 1
-0.1806604 -0.2033204 0.4445509 1 0 1
-0.1813732 -0.2107788 0.4554995 1 0 1
0.0884796 -0.0424647 0.1645299 1 0 1
0.09035149 -0.04341789 0.1656969 1 0 1
0.09131265 -0.04269275 0.1645434 1 0 1
0.09195295 -0.04140804 0.1626188 1 0 1
0.09257675 -0.04012204 0.160695 1 0 1
0.09318411 -0.03883481 0.1587722 1 0 1
0.09345196 -0.03699081 0.1560842 1 0 1
0.09402269 -0.03570179 0.1541644 1 0 1
0.09424649 -0.03385725 0.1514822 1 0 1
0.09478063 -0.03256681 0.1495661 1 0 1
0.09462262 -0.03016866 0.1461286 1 0 1
0.0951165 -0.02887764 0.1442176 1 0 1
0.09524878 -0.0270336 0.1415492 1 0 1
0.09570627 -0.02574163 0.1396424 1 0 1
0.09614741 -0.02444906 0.1377372 1 0 1
0.09692857 -0.02370629 0.1365888 1 0 1
0.09734074 -0.02241201 0.1346858 1 0 1
0.09773661 -0.02111723 0.1327846 1 0 1
0.09811617 -0.01982206 0.1308852 1 0 1
0.0988505 -0.01907432 0.1297377 1 0 1
0.09920121 -0.01777784 0.1278411 1 0 1
0.09991398 -0.01702757 0.1266937 1 0 1
0.1006178 -0.01627573 0.1255457 1 0 1
0.1013127 -0.0155224 0.1243972 1 0 1
0.1019986 -0.01476752 0.1232483 1 0 1
0.1030685 -0.01455483 0.1228407 1 0 1
0.1033437 -0.01325353 0.1209492 1 0 1
0.1040029 -0.01249438 0.119799 1 0 1
0.1054605 -0.01281664 0.1201236 1 0 1
0.1057016 -0.01151268 0.1182339 1 0 1
0.1063376 -0.01074875 0.1170815 1 0 1
0.1065501 -0.009444542 0.1151956 1 0 1
0.1071647 -0.008678882 0.1140442 1 0 1
0.1073486 -0.007374552 0.1121624 1 0 1
0.1075165 -0.006070679 0.1102834 1 0 1
0.108526 -0.005838985 0.1098621 1 0 1
0.1091013 -0.005069552 0.1087119 1 0 1
0.1092318 -0.003764856 0.1068373 1 0 1
0.1097858 -0.002994139 0.1056888 1 0 1
0.109888 -0.001689921 0.103819 1 0 1
0.1108672 -0.001449712 0.1033919 1 0 1
0.1109446 -0.0001453585 0.1015255 1 0 1
0.1114596 0.0006283107 0.1003791 1 0 1
0.1124228 0.0008738416 0.09994798 1 0 1
0.1129237 0.001650121 0.09880053 1 0 1
0.1134157 0.002427174 0.09765342 1 0 1
0.1143665 0.002678847 0.09721691 1 0 1
0.1148443 0.003458409 0.0960689 1 0 1
0.1153134 0.004238664 0.09492137 1 0 1
0.1162516 0.004496267 0.09447966 1 0 1
0.117188 0.004756471 0.09403513 1 0 1
0.1176374 0.005540692 0.0928857 1 0 1
-0.2016051 -0.1910832 0.4268717 1 0 1
-0.1983084 -0.1901951 0.4248985 1 0 1
-0.1964462 -0.1918963 0.4269421 1 0 1
-0.1951246 -0.1946383 0.4305936 1 0 1
-0.1926686 -0.1952927 0.4310145 1 0 1
-0.1904816 -0.1964642 0.4322353 1 0 1
-0.1882845 -0.1976315 0.4334498 1 0 1
-0.1871337 -0.2008958 0.4378934 1 0 1
-0.1846409 -0.2015322 0.4382878 1 0 1
-0.1824021 -0.2026894 0.4394844 1 0 1
-0.1811642 -0.205955 0.443917 1 0 1
-0.180135 -0.2097527 0.4491585 1 0 1
-0.1062681 -0.2181146 0.446641 1 0 1
-0.1030221 -0.2157868 0.4426733 1 0 1
-0.100215 -0.2151043 0.4411635 1 0 1
-0.09898146 -0.2210527 0.4495181 1 0 1
-0.09602995 -0.2198059 0.4471704 1 0 1
-0.09184927 -0.2250542 0.4539741 1 0 1
-0.08890942 -0.2237853 0.451602 1 0 1
-0.08665486 -0.2258445 0.4541624 1 0 1
-0.08373593 -0.2245591 0.4517736 1 0 1
-0.07625202 -0.2273464 0.4544435 1 0 1
-0.06727315 -0.2205609 0.4430324 1 0 1
-0.06448335 -0.2192109 0.4405857 1 0 1
-0.05904303 -0.2170442 0.4364927 1 0 1
-0.05652003 -0.2173531 0.4364953 1 0 1
-0.05418751 -0.2193435 0.4389628 1 0 1
-0.05135222 -0.2168254 0.4348286 1 0 1
0.0862265 -0.04202282 0.1618376 1 0 1
0.08838112 -0.04354989 0.1637805 1 0 1
0.08994864 -0.04394794 0.1641736 1 0 1
0.09152217 -0.04434158 0.1645607 1 0 1
0.09216703 -0.04304969 0.1626396 1 0 1
0.0927954 -0.04175648 0.1607192 1 0 1
0.09340729 -0.040462 0.1587998 1 0 1
0.09368001 -0.03860752 0.1561175 1 0 1
0.09392875 -0.036753 0.1534385 1 0 1
0.0941537 -0.03489854 0.1507631 1 0 1
0.09402083 -0.03248705 0.1473309 1 0 1
0.09453198 -0.03119009 0.1454232 1 0 1
0.09468544 -0.02933632 0.1427589 1 0 1
0.09481507 -0.02748297 0.1400986 1 0 1
0.09492097 -0.02563013 0.1374423 1 0 1
0.09570789 -0.02488625 0.1362984 1 0 1
0.09612983 -0.02358701 0.1344008 1 0 1
0.09653543 -0.02228726 0.132505 1 0 1
0.09692471 -0.02098705 0.130611 1 0 1
0.09729777 -0.0196865 0.1287189 1 0 1
0.09765452 -0.01838561 0.1268288 1 0 1
0.09836941 -0.01763473 0.1256871 1 0 1
0.09945342 -0.01743193 0.1252898 1 0 1
0.1001541 -0.01667727 0.1241456 1 0 1
0.1008459 -0.01592108 0.1230009 1 0 1
0.1019176 -0.01571094 0.1225967 1 0 1
0.1025951 -0.01495111 0.1214497 1 0 1
0.1028675 -0.01364381 0.1195643 1 0 1
0.1035235 -0.01288191 0.118418 1 0 1
0.104574 -0.01266319 0.1180067 1 0 1
0.1048087 -0.01135405 0.1161245 1 0 1
0.105438 -0.01058813 0.1149774 1 0 1
0.1060583 -0.009820974 0.1138301 1 0 1
0.1070875 -0.009594042 0.1134121 1 0 1
0.1068508 -0.007742366 0.1108069 1 0 1
0.1074409 -0.006972411 0.1096607 1 0 1
0.1075935 -0.005662325 0.1077893 1 0 1
0.1081622 -0.004890979 0.1066445 1 0 1
0.1082863 -0.003581219 0.1047777 1 0 1
0.1088337 -0.00280867 0.1036346 1 0 1
0.1093722 -0.002035105 0.1024916 1 0 1
0.1099019 -0.001260624 0.1013487 1 0 1
0.1104227 -0.0004851919 0.1002061 1 0 1
0.1109347 0.0002911094 0.09906372 1 0 1
0.1118946 0.0005361729 0.09863444 1 0 1
0.1123924 0.001315049 0.09749106 1 0 1
0.1124175 0.002625045 0.09563833 1 0 1
0.1138289 0.00234589 0.09591335 1 0 1
0.1143037 0.003128038 0.09476947 1 0 1
0.1147697 0.00391092 0.09362599 1 0 1
0.1161824 0.003641414 0.0938894 1 0 1
0.1166377 0.004427609 0.0927436 1 0 1
0.1170843 0.005214417 0.09159832 1 0 1
-0.2009805 -0.1915623 0.423053 1 0 1
-0.1979807 -0.1911851 0.4218863 1 0 1
-0.1966932 -0.1939386 0.4255305 1 0 1
-0.1956525 -0.1972186 0.4299767 1 0 1
-0.1934683 -0.1984005 0.4312023 1 0 1
-0.192362 -0.2016842 0.4356434 1 0 1
-0.1896058 -0.2018065 0.4352463 1 0 1
-0.1873836 -0.2029776 0.4364538 1 0 1
-0.1851512 -0.2041443 0.4376546 1 0 1
-0.1829088 -0.2053067 0.4388489 1 0 1
-0.1806562 -0.2064646 0.4400365 1 0 1
-0.1803884 -0.2118762 0.4476896 1 0 1
-0.10644 -0.2098126 0.4302735 1 0 1
-0.1029844 -0.2167693 0.4395821 1 0 1
-0.1005865 -0.2177474 0.4405367 1 0 1
-0.09896145 -0.2220595 0.4464073 1 0 1
-0.09664849 -0.2235882 0.4481689 1 0 1
-0.0938285 -0.2228818 0.4466397 1 0 1
-0.0911414 -0.2227249 0.4459232 1 0 1
-0.08777212 -0.2192063 0.4402712 1 0 1
-0.08545408 -0.2207091 0.4420015 1 0 1
-0.08226333 -0.2177267 0.4371529 1 0 1
-0.07973676 -0.2180953 0.4372246 1 0 1
-0.07691152 -0.2167737 0.4348236 1 0 1
-0.07448983 -0.2176896 0.4357013 1 0 1
-0.07169367 -0.2163507 0.4332841 1 0 1
-0.06900745 -0.2155652 0.4316807 1 0 1
-0.06608507 -0.2130812 0.4276037 1 0 1
-0.06391818 -0.2156607 0.4309164 1 0 1
-0.06126437 -0.2148515 0.4292897 1 0 1
-0.05891299 -0.2162936 0.4309434 1 0 1
-0.0562052 -0.2149045 0.4284794 1 0 1
-0.05384059 -0.2163353 0.4301179 1 0 1
-0.05115869 -0.2149302 0.4276387 1 0 1
-0.04878094 -0.2163497 0.4292619 1 0 1
-0.04602036 -0.2137944 0.425124 1 0 1
-0.04358901 -0.214634 0.4259101 1 0 1
-0.03874188 -0.2168654 0.4282809 1 0 1
0.06644535 -0.007590837 0.1128992 1 0 1
0.08738173 -0.04293678 0.1607213 1 0 1
0.0892417 -0.04390385 0.1618831 1 0 1
0.09080767 -0.04430148 0.1622705 1 0 1
0.09175712 -0.04356747 0.1611214 1 0 1
0.09269758 -0.0428312 0.1599709 1 0 1
0.09331027 -0.04153003 0.1580561 1 0 1
0.09358407 -0.03966566 0.1553806 1 0 1
0.09350783 -0.03723975 0.1519481 1 0 1
0.09373008 -0.03537595 0.1492807 1 0 1
0.09392851 -0.03351228 0.146617 1 0 1
0.09410315 -0.03164887 0.143957 1 0 1
0.09391295 -0.02922658 0.1405452 1 0 1
0.09472568 -0.02848171 0.139403 1 0 1
0.09448429 -0.02606099 0.1360005 1 0 1
0.09526804 -0.02531426 0.1348603 1 0 1
0.0953313 -0.02345219 0.132218 1 0 1
0.0960898 -0.02270314 0.1310787 1 0 1
0.0961131 -0.02084141 0.1284426 1 0 1
0.09684635 -0.02009028 0.1273046 1 0 1
0.09720024 -0.01878336 0.1254204 1 0 1
0.09753788 -0.01747614 0.1235383 1 0 1
0.09899253 -0.01782721 0.1238867 1 0 1
0.09969003 -0.01706975 0.1227463 1 0 1
0.1007637 -0.01686217 0.1223455 1 0 1
0.1018356 -0.01665174 0.1219415 1 0 1
0.1025136 -0.01588836 0.120797 1 0 1
0.1027867 -0.01457437 0.1189162 1 0 1
0.1034433 -0.01380892 0.1177724 1 0 1
0.1040908 -0.01304212 0.1166282 1 0 1
0.1047295 -0.01227401 0.1154838 1 0 1
0.1053592 -0.0115046 0.1143391 1 0 1
0.1055661 -0.01018851 0.1124655 1 0 1
0.1061744 -0.009417382 0.1113219 1 0 1
0.1059316 -0.007557392 0.1087265 1 0 1
0.1069397 -0.007328565 0.1083101 1 0 1
0.1070894 -0.006012581 0.1064449 1 0 1
0.107655 -0.005238572 0.105304 1 0 1
0.1082117 -0.004463456 0.1041633 1 0 1
0.1083207 -0.003147707 0.1023043 1 0 1
0.1088561 -0.002371469 0.1011652 1 0 1
0.1089367 -0.001056354 0.0993111 1 0 1
0.1099004 -0.0008162461 0.09888785 1 0 1
0.1104093 -3.728707E-05 0.09774948 1 0 1
0.111366 0.0002072484 0.09732204 1 0 1
0.1118607 0.0009887771 0.0961827 1 0 1
0.1123466 0.001771089 0.09504373 1 0 1
0.1132908 0.002021656 0.09461095 1 0 1
0.1137626 0.002806437 0.09347114 1 0 1
0.1142256 0.003591905 0.09233179 1 0 1
0.1156348 0.003318691 0.0925949 1 0 1
0.1165681 0.003578704 0.0921526 1 0 1
0.1165306 0.004896831 0.0903121 1 0 1
-0.1991887 -0.1899184 0.4160392 1 0 1
-0.1967891 -0.1905799 0.4164727 1 0 1
-0.1955216 -0.1933419 0.4201041 1 0 1
-0.1945013 -0.1966335 0.4245351 1 0 1
-0.1928884 -0.1988718 0.4273598 1 0 1
-0.1915227 -0.2016395 0.430984 1 0 1
-0.1890496 -0.2022864 0.4313898 1 0 1
-0.186574 -0.2029271 0.4317879 1 0 1
-0.184879 -0.2051592 0.4345936 1 0 1
-0.1818723 -0.2047231 0.4333666 1 0 1
-0.1796387 -0.2058804 0.4345483 1 0 1
-0.1783941 -0.2091749 0.4389508 1 0 1
-0.1066746 -0.2118568 0.4288444 1 0 1
-0.10433 -0.2128429 0.4298088 1 0 1
-0.1022532 -0.2149409 0.432402 1 0 1
-0.1000172 -0.2164773 0.4341705 1 0 1
-0.09867903 -0.221928 0.4416603 1 0 1
-0.09600157 -0.2217803 0.4409608 1 0 1
-0.09357649 -0.2227467 0.4418904 1 0 1
-0.09078517 -0.2220231 0.4403561 1 0 1
-0.08777793 -0.2201664 0.4371754 1 0 1
-0.08513437 -0.2199867 0.4364432 1 0 1
-0.08206791 -0.2175462 0.4324261 1 0 1
-0.07955662 -0.217913 0.4324968 1 0 1
-0.07694465 -0.217709 0.4317404 1 0 1
-0.07462648 -0.2191927 0.4334348 1 0 1
-0.07183286 -0.2178442 0.4310238 1 0 1
-0.06923737 -0.2176185 0.4302441 1 0 1
-0.06656475 -0.2168186 0.4286369 1 0 1
-0.06422716 -0.2182789 0.4303009 1 0 1
-0.06133991 -0.2157615 0.426219 1 0 1
-0.05877993 -0.2155052 0.4254083 1 0 1
-0.05629535 -0.2158102 0.42541 1 0 1
-0.05387444 -0.216678 0.4262239 1 0 1
-0.05126341 -0.2158318 0.4245708 1 0 1
-0.04889387 -0.2172572 0.4261892 1 0 1
-0.04629719 -0.2163966 0.4245211 1 0 1
-0.04381317 -0.2166695 0.4244851 1 0 1
-0.04119388 -0.2152224 0.4219827 1 0 1
-0.03892539 -0.2183397 0.426029 1 0 1
0.08425248 -0.04075275 0.1557351 1 0 1
0.08758208 -0.04457459 0.1607367 1 0 1
0.08914193 -0.04497948 0.1611279 1 0 1
0.09070785 -0.04538007 0.1615131 1 0 1
0.09196877 -0.04520942 0.1611294 1 0 1
0.09291349 -0.04446914 0.1599801 1 0 1
0.09353076 -0.0431608 0.1580689 1 0 1
0.09380936 -0.04128601 0.1553991 1 0 1
0.09373825 -0.0388465 0.1519745 1 0 1
0.09363575 -0.03640817 0.1485559 1 0 1
0.09350199 -0.03397106 0.1451432 1 0 1
0.09367401 -0.03209836 0.1424914 1 0 1
0.09382218 -0.03022597 0.1398433 1 0 1
0.09429102 -0.02891588 0.1379515 1 0 1
0.09439541 -0.02704389 0.1353102 1 0 1
0.09482788 -0.0257331 0.1334228 1 0 1
0.095244 -0.0244217 0.1315371 1 0 1
0.09564382 -0.02310988 0.1296532 1 0 1
0.09602734 -0.0217976 0.1277711 1 0 1
0.09639461 -0.02048497 0.125891 1 0 1
0.09637545 -0.01861464 0.1232696 1 0 1
0.09708037 -0.01785882 0.1221368 1 0 1
0.09815384 -0.01765746 0.1217439 1 0 1
0.09884455 -0.01689789 0.1206087 1 0 1
0.1002958 -0.01724601 0.1209486 1 0 1
0.1013644 -0.01703596 0.1205463 1 0 1
0.1020392 -0.01626981 0.1194056 1 0 1
0.1027051 -0.01550225 0.1182645 1 0 1
0.1033621 -0.01473331 0.1171232 1 0 1
0.1036073 -0.01341212 0.1152507 1 0 1
0.1038364 -0.01209108 0.1133807 1 0 1
0.1044594 -0.01131972 0.1122414 1 0 1
0.1046598 -0.009998468 0.1103753 1 0 1
0.1052614 -0.009225426 0.1092371 1 0 1
0.1054333 -0.007904154 0.1073751 1 0 1
0.1060136 -0.007129642 0.1062383 1 0 1
0.1065849 -0.006353977 0.1051014 1 0 1
0.1071475 -0.005577235 0.1039646 1 0 1
0.107266 -0.004255784 0.1021102 1 0 1
0.1078072 -0.003477914 0.100975 1 0 1
0.1078974 -0.002157038 0.09912542 1 0 1
0.1084173 -0.001378092 0.09799216 1 0 1
0.1093778 -0.001138466 0.09757067 1 0 1
0.1098836 -0.0003568542 0.09643634 1 0 1
0.1108369 -0.0001128818 0.09601077 1 0 1
0.1113286 0.0006712539 0.09487549 1 0 1
0.1118115 0.001456193 0.09374058 1 0 1
0.1127524 0.001706191 0.09330972 1 0 1
0.1132211 0.002493553 0.09217402 1 0 1
0.1136811 0.003281649 0.09103875 1 0 1
0.1141322 0.004070376 0.089904 1 0 1
0.1150553 0.004327882 0.08946691 1 0 1
0.1150081 0.005649726 0.08763611 1 0 1
-0.2003072 -0.193502 0.4170264 1 0 1
-0.1976083 -0.1936389 0.4166626 1 0 1
-0.1963346 -0.1964163 0.4202857 1 0 1
-0.1947478 -0.198665 0.4231066 1 0 1
-0.1923062 -0.1993184 0.4235225 1 0 1
-0.190953 -0.2020966 0.4271351 1 0 1
-0.188222 -0.2022078 0.4267366 1 0 1
-0.1857612 -0.2028455 0.4271314 1 0 1
-0.1840822 -0.205084 0.4299273 1 0 1
-0.1810897 -0.2046389 0.4287017 1 0 1
-0.1783636 -0.2047212 0.42827 1 0 1
-0.1086429 -0.2106619 0.4231785 1 0 1
-0.1072025 -0.2150158 0.4290377 1 0 1
-0.1039942 -0.2126413 0.4251071 1 0 1
-0.1019337 -0.2147469 0.427692 1 0 1
-0.09971363 -0.2162877 0.4294547 1 0 1
-0.09786974 -0.2195136 0.4336588 1 0 1
-0.09534992 -0.2199217 0.4337757 1 0 1
-0.09295202 -0.2208876 0.4347014 1 0 1
-0.09018697 -0.220154 0.4331699 1 0 1
-0.08743618 -0.2194117 0.4316302 1 0 1
-0.08458813 -0.2180947 0.4292654 1 0 1
-0.08176231 -0.2167677 0.4268921 1 0 1
-0.07927017 -0.2171323 0.4269618 1 0 1
-0.07677694 -0.2174905 0.4270239 1 0 1
-0.0742827 -0.2178425 0.4270784 1 0 1
-0.07178746 -0.2181881 0.4271254 1 0 1
-0.06929123 -0.2185273 0.4271646 1 0 1
-0.06662538 -0.2177205 0.4255613 1 0 1
-0.06397431 -0.2169054 0.4239504 1 0 1
-0.06133794 -0.2160819 0.4223317 1 0 1
-0.0586438 -0.2146789 0.4198879 1 0 1
-0.0561784 -0.214982 0.419889 1 0 1
-0.05377714 -0.2158511 0.4207003 1 0 1
-0.05130641 -0.2161421 0.4206866 1 0 1
-0.04889201 -0.2169999 0.4214826 1 0 1
-0.04636296 -0.2167052 0.4206364 1 0 1
-0.04384121 -0.2164032 0.4197826 1 0 1
-0.04128144 -0.2155196 0.4181043 1 0 1
-0.03873681 -0.2146281 0.4164186 1 0 1
0.08356253 -0.04065635 0.1534632 1 0 1
0.08748151 -0.04564425 0.1599794 1 0 1
0.08934448 -0.04662308 0.1611314 1 0 1
0.09091406 -0.04702609 0.1615134 1 0 1
0.09186828 -0.04628468 0.1603681 1 0 1
0.09281353 -0.04554096 0.1592213 1 0 1
0.09343159 -0.04422593 0.1573147 1 0 1
0.09338949 -0.04177293 0.1538948 1 0 1
0.09364161 -0.03988879 0.1512365 1 0 1
0.09354052 -0.03743739 0.1478271 1 0 1
0.09307517 -0.03442052 0.14367 1 0 1
0.09324455 -0.03253858 0.1410264 1 0 1
0.09304971 -0.03009137 0.1376354 1 0 1
0.09351194 -0.02877579 0.1357507 1 0 1
0.09361003 -0.02689518 0.1331189 1 0 1
0.09438737 -0.02614272 0.1319861 1 0 1
0.09480064 -0.02482536 0.1301064 1 0 1
0.09555642 -0.02406996 0.1289733 1 0 1
0.0955782 -0.02218921 0.1263525 1 0 1
0.09630876 -0.02143178 0.1252206 1 0 1
0.09629069 -0.01955163 0.1226062 1 0 1
0.09699608 -0.01879233 0.1214758 1 0 1
0.09769256 -0.01803149 0.1203449 1 0 1
0.09876093 -0.0178276 0.1199504 1 0 1
0.09944321 -0.01706303 0.1188171 1 0 1
0.1005047 -0.01685407 0.1184177 1 0 1
0.1015645 -0.01664222 0.1180151 1 0 1
0.1018319 -0.0153163 0.1161465 1 0 1
0.1024821 -0.01454539 0.1150104 1 0 1
0.1027209 -0.01321899 0.1131454 1 0 1
0.1029435 -0.01189282 0.111283 1 0 1
0.1035598 -0.0111195 0.110149 1 0 1
0.1033404 -0.00924141 0.1075662 1 0 1
0.1043487 -0.0090182 0.1071578 1 0 1
0.1045142 -0.007691916 0.1053035 1 0 1
0.1055119 -0.007464857 0.104892 1 0 1
0.1056525 -0.006137987 0.1030407 1 0 1
0.1066395 -0.005907149 0.1026263 1 0 1
0.1067553 -0.004579845 0.1007781 1 0 1
0.1072934 -0.003799257 0.09964694 1 0 1
0.1078227 -0.003017739 0.09851598 1 0 1
0.1083431 -0.002235295 0.09738524 1 0 1
0.1088547 -0.001451937 0.0962547 1 0 1
0.10981 -0.001210242 0.09583221 1 0 1
0.1107635 -0.0009658517 0.09540688 1 0 1
0.1112557 -0.0001781981 0.09427411 1 0 1
0.1112759 0.00115 0.09243868 1 0 1
0.111747 0.00193829 0.09130827 1 0 1
0.1122092 0.002727297 0.09017827 1 0 1
0.1126626 0.003516997 0.08904877 1 0 1
0.1135843 0.003771359 0.08861635 1 0 1
0.1145041 0.004028291 0.08818119 1 0 1
0.1149381 0.004821795 0.08705004 1 0 1
-0.2020117 -0.19816 0.4195836 1 0 1
-0.1990052 -0.1977681 0.4184283 1 0 1
-0.1971489 -0.1994974 0.4204504 1 0 1
-0.1944327 -0.199623 0.4200748 1 0 1
-0.1917214 -0.1997404 0.4196904 1 0 1
-0.1903809 -0.2025291 0.4232914 1 0 1
-0.1876606 -0.2026351 0.4228924 1 0 1
-0.1852109 -0.2032707 0.4232846 1 0 1
-0.183806 -0.2060557 0.426872 1 0 1
-0.1810781 -0.206143 0.4264501 1 0 1
-0.1793723 -0.2083851 0.4292266 1 0 1
-0.1071445 -0.2159277 0.4259621 1 0 1
-0.104371 -0.2152291 0.4244813 1 0 1
-0.1018899 -0.2156512 0.4246189 1 0 1
-0.09967805 -0.2171978 0.4263762 1 0 1
-0.09784351 -0.2204387 0.4305681 1 0 1
-0.09520359 -0.2202796 0.4298701 1 0 1
-0.09281745 -0.2212474 0.4307925 1 0 1
-0.09006301 -0.2205063 0.4292646 1 0 1
-0.08732288 -0.2197564 0.4277284 1 0 1
-0.0844851 -0.2184286 0.4253694 1 0 1
-0.08177763 -0.2176607 0.4238169 1 0 1
-0.07929306 -0.2180247 0.4238859 1 0 1
-0.07680733 -0.2183824 0.4239473 1 0 1
-0.074417 -0.2193051 0.4248162 1 0 1
-0.07211035 -0.2207945 0.4264927 1 0 1
-0.06952131 -0.2205623 0.4257164 1 0 1
-0.0666851 -0.2186038 0.4224869 1 0 1
-0.06420235 -0.2189288 0.4225104 1 0 1
-0.06148808 -0.2175256 0.4200806 1 0 1
-0.05879645 -0.216113 0.4176431 1 0 1
-0.05640378 -0.216991 0.4184592 1 0 1
-0.05400255 -0.2178637 0.4192678 1 0 1
-0.05147024 -0.2175792 0.4184383 1 0 1
-0.04905982 -0.2184402 0.4192318 1 0 1
-0.0466409 -0.2192958 0.4200177 1 0 1
-0.04406502 -0.2184144 0.4183508 1 0 1
-0.04164106 -0.2192577 0.4191217 1 0 1
-0.03937547 -0.2224078 0.4231446 1 0 1
0.0888756 -0.04958418 0.1630268 1 0 1
0.09015124 -0.04941835 0.1626476 1 0 1
0.09173195 -0.04982275 0.1630241 1 0 1
0.09269793 -0.04907639 0.1618778 1 0 1
0.09334081 -0.04775499 0.1599728 1 0 1
0.09396715 -0.04643228 0.1580686 1 0 1
0.0936124 -0.04339359 0.1539007 1 0 1
0.09354405 -0.04092807 0.1504946 1 0 1
0.09377339 -0.03903418 0.1478469 1 0 1
0.0933134 -0.0360006 0.1437002 1 0 1
0.09315119 -0.03353889 0.1403122 1 0 1
0.093638 -0.03221622 0.1384282 1 0 1
0.0937646 -0.0303247 0.1357982 1 0 1
0.09351992 -0.02786609 0.1324258 1 0 1
0.0942978 -0.02711018 0.1312955 1 0 1
0.09471184 -0.02578616 0.1294205 1 0 1
0.0951095 -0.02446166 0.1275472 1 0 1
0.09512874 -0.02257175 0.1249347 1 0 1
0.09585613 -0.02181149 0.1238066 1 0 1
0.09620497 -0.02048591 0.1219392 1 0 1
0.09728412 -0.02028615 0.1215486 1 0 1
0.09798475 -0.01952112 0.1204188 1 0 1
0.09867641 -0.01875458 0.1192885 1 0 1
0.09974337 -0.01854751 0.1188911 1 0 1
0.1004209 -0.01777728 0.1177585 1 0 1
0.1010894 -0.01700565 0.1166256 1 0 1
0.101354 -0.01567382 0.1147632 1 0 1
0.102001 -0.01490013 0.1136309 1 0 1
0.1018346 -0.01301067 0.1110457 1 0 1
0.1020508 -0.01167934 0.1091909 1 0 1
0.1026603 -0.01090407 0.1080622 1 0 1
0.1028479 -0.009572689 0.1062114 1 0 1
0.1030195 -0.008241684 0.1043634 1 0 1
0.1035952 -0.007464518 0.1032375 1 0 1
0.104586 -0.007238706 0.1028292 1 0 1
0.1051475 -0.00645854 0.1017018 1 0 1
0.1057003 -0.005677292 0.1005744 1 0 1
0.1062442 -0.004895057 0.09944717 1 0 1
0.1067792 -0.004111857 0.09832008 1 0 1
0.1077471 -0.003875997 0.09790332 1 0 1
0.108268 -0.003090031 0.09677507 1 0 1
0.10878 -0.002303169 0.09564704 1 0 1
0.1097355 -0.002061097 0.09522483 1 0 1
0.1102334 -0.001271645 0.09409581 1 0 1
0.1107225 -0.0004813846 0.09296712 1 0 1
0.1107401 0.0008525553 0.09113802 1 0 1
0.111208 0.001643416 0.09001172 1 0 1
0.1116672 0.002435 0.08888587 1 0 1
0.1125908 0.002687144 0.08845649 1 0 1
0.1130359 0.003481009 0.08733001 1 0 1
0.1139525 0.003737343 0.08689678 1 0 1
0.1143835 0.004533382 0.0857698 1 0 1
-0.2010887 -0.198038 0.4149702 1 0 1
-0.1978077 -0.1971017 0.4130216 1 0 1
-0.1954011 -0.1977611 0.4134457 1 0 1
-0.1924295 -0.1973404 0.4122716 1 0 1
-0.1903023 -0.1985237 0.4134755 1 0 1
-0.1887122 -0.2007808 0.4162665 1 0 1
-0.1865573 -0.2019577 0.4174591 1 0 1
-0.1846583 -0.2036715 0.4194432 1 0 1
-0.1830037 -0.2059248 0.4222206 1 0 1
-0.1797735 -0.2049204 0.4201998 1 0 1
-0.1773273 -0.2055356 0.4205667 1 0 1
-0.1080521 -0.2107266 0.4146305 1 0 1
-0.1060543 -0.212855 0.4172125 1 0 1
-0.1038883 -0.2144138 0.4189774 1 0 1
-0.1015659 -0.2154011 0.4199246 1 0 1
-0.09964126 -0.2180891 0.4232986 1 0 1
-0.09742071 -0.2196377 0.4250437 1 0 1
-0.0950554 -0.2206125 0.4259701 1 0 1
-0.09255699 -0.2210118 0.4260772 1 0 1
-0.08981705 -0.2202625 0.4245526 1 0 1
-0.08697529 -0.2189327 0.4222078 1 0 1
-0.08426795 -0.2181654 0.4206668 1 0 1
-0.08157509 -0.2173894 0.4191177 1 0 1
-0.07910576 -0.2177517 0.4191859 1 0 1
-0.07663537 -0.2181077 0.4192464 1 0 1
-0.07426067 -0.2190319 0.4201123 1 0 1
-0.07169151 -0.2188007 0.4193451 1 0 1
-0.06921809 -0.2191378 0.4193831 1 0 1
-0.06631854 -0.2165879 0.4153491 1 0 1
-0.06394397 -0.2174864 0.4161848 1 0 1
-0.06125178 -0.2160711 0.4137613 1 0 1
-0.0587289 -0.2158018 0.4129561 1 0 1
-0.05635193 -0.2166816 0.4137695 1 0 1
-0.05396638 -0.217556 0.4145754 1 0 1
-0.05151069 -0.2178461 0.414561 1 0 1
-0.04911206 -0.2187093 0.4153518 1 0 1
-0.04675873 -0.2201471 0.4169481 1 0 1
-0.04423955 -0.2198393 0.4160983 1 0 1
-0.04186551 -0.2212666 0.4176793 1 0 1
0.08847293 -0.05008567 0.1614904 1 0 1
0.09065269 -0.05165214 0.1633876 1 0 1
0.09162823 -0.05090473 0.1622452 1 0 1
0.09290475 -0.05073131 0.1618575 1 0 1
0.09355221 -0.04940275 0.1599561 1 0 1
0.09418312 -0.04807296 0.1580555 1 0 1
0.09351254 -0.04444281 0.1531454 1 0 1
0.09377058 -0.04253856 0.1505001 1 0 1
0.09367604 -0.04006068 0.147108 1 0 1
0.09321778 -0.03701096 0.1429729 1 0 1
0.09305697 -0.03453632 0.1395942 1 0 1
0.09354456 -0.03320704 0.137715 1 0 1
0.09367227 -0.03130572 0.135092 1 0 1
0.09377622 -0.0294049 0.132473 1 0 1
0.09455825 -0.0286449 0.1313439 1 0 1
0.09533134 -0.02788313 0.130214 1 0 1
0.09537893 -0.02598189 0.1276027 1 0 1
0.09576482 -0.02464972 0.1257348 1 0 1
0.09650002 -0.02388468 0.1246066 1 0 1
0.09685705 -0.02255118 0.1227414 1 0 1
0.09757071 -0.02178361 0.1216133 1 0 1
0.09789887 -0.02044892 0.1197509 1 0 1
0.09859104 -0.01967893 0.1186231 1 0 1
0.09927426 -0.01890742 0.1174949 1 0 1
0.0999486 -0.01813446 0.1163662 1 0 1
0.100614 -0.01736005 0.1152371 1 0 1
0.1008757 -0.01602235 0.1133808 1 0 1
0.1015197 -0.01524593 0.1122525 1 0 1
0.1013507 -0.01334743 0.1096757 1 0 1
0.1011584 -0.01145065 0.1071044 1 0 1
0.1017612 -0.01067349 0.1059812 1 0 1
0.1023552 -0.009895091 0.1048578 1 0 1
0.1025238 -0.008558287 0.103016 1 0 1
0.1030965 -0.007778382 0.101894 1 0 1
0.1040838 -0.007553082 0.1014875 1 0 1
0.1046423 -0.006770264 0.1003641 1 0 1
0.1051919 -0.005986383 0.0992407 1 0 1
0.1057327 -0.005201496 0.09811748 1 0 1
0.1062647 -0.004415659 0.09699442 1 0 1
0.1067878 -0.003628866 0.09587152 1 0 1
0.107747 -0.003391712 0.09545524 1 0 1
0.108256 -0.002602274 0.09433131 1 0 1
0.1092081 -0.002360724 0.09391091 1 0 1
0.109703 -0.001568671 0.09278598 1 0 1
0.110189 -0.000775834 0.09166143 1 0 1
0.1102038 0.0005638024 0.08983869 1 0 1
0.1102027 0.001902299 0.08801958 1 0 1
0.1106554 0.002695473 0.08689949 1 0 1
0.1115722 0.002946143 0.08647361 1 0 1
0.1120108 0.003741547 0.08535292 1 0 1
0.1129205 0.00399634 0.08492325 1 0 1
0.1138285 0.004253657 0.08449091 1 0 1
-0.2016261 -0.2005704 0.4143223 1 0 1
-0.19834 -0.199627 0.4123804 1 0 1
-0.195359 -0.1992101 0.4112193 1 0 1
-0.1923902 -0.1987832 0.4100483 1 0 1
-0.1902671 -0.1999694 0.4112484 1 0 1
-0.1884076 -0.2016937 0.4132368 1 0 1
-0.1859903 -0.2023296 0.4136301 1 0 1
-0.1841032 -0.2040476 0.4156072 1 0 1
-0.1819357 -0.2052182 0.4167829 1 0 1
-0.1784642 -0.2036544 0.4139683 1 0 1
-0.1116544 -0.2156839 0.4178884 1 0 1
-0.1088897 -0.2149853 0.4164301 1 0 1
-0.1064342 -0.2154171 0.4165804 1 0 1
-0.1038335 -0.2152723 0.4159144 1 0 1
-0.1013791 -0.215691 0.4160494 1 0 1
-0.09933132 -0.2178186 0.4186041 1 0 1
-0.09673031 -0.2176543 0.4179155 1 0 1
-0.09413578 -0.2174825 0.4172189 1 0 1
-0.09192085 -0.219024 0.4189433 1 0 1
-0.08920714 -0.2182648 0.4174217 1 0 1
-0.08674102 -0.2186465 0.4175119 1 0 1
-0.08404827 -0.217871 0.4159745 1 0 1
-0.08147877 -0.217663 0.4152392 1 0 1
-0.07902084 -0.2180241 0.4153065 1 0 1
-0.07666293 -0.2189561 0.4161768 1 0 1
-0.07439326 -0.2204606 0.4178501 1 0 1
-0.07182736 -0.2202263 0.4170846 1 0 1
-0.06926825 -0.2199846 0.4163116 1 0 1
-0.06645985 -0.2179976 0.4130991 1 0 1
-0.06392625 -0.2177396 0.4123107 1 0 1
-0.06124444 -0.2163138 0.4098936 1 0 1
-0.05873264 -0.2160403 0.4090903 1 0 1
-0.05636747 -0.2169223 0.409901 1 0 1
-0.05392783 -0.2172172 0.4098935 1 0 1
-0.05148754 -0.2175058 0.4098788 1 0 1
-0.04898849 -0.2172055 0.4090459 1 0 1
-0.0466591 -0.2186474 0.4106375 1 0 1
-0.04416278 -0.2183343 0.40979 1 0 1
-0.04167368 -0.2180139 0.4089351 1 0 1
0.08866701 -0.05173972 0.1614688 1 0 1
0.09145425 -0.054476 0.1648703 1 0 1
0.09244155 -0.05372367 0.1637271 1 0 1
0.0934198 -0.05296892 0.1625823 1 0 1
0.09407553 -0.05163276 0.1606834 1 0 1
0.09471474 -0.05029527 0.1587853 1 0 1
0.09405364 -0.04664486 0.1538868 1 0 1
0.0939956 -0.04415235 0.150497 1 0 1
0.09357779 -0.04108414 0.1463651 1 0 1
0.09345338 -0.03859461 0.1429885 1 0 1
0.09296186 -0.03553082 0.1388724 1 0 1
0.09345023 -0.03419497 0.136998 1 0 1
0.09357902 -0.03228385 0.134382 1 0 1
0.09403097 -0.03094718 0.1325119 1 0 1
0.09481719 -0.03018313 0.1313841 1 0 1
0.09524018 -0.02884462 0.1295161 1 0 1
0.09528888 -0.02693366 0.1269118 1 0 1
0.09567552 -0.0255949 0.1250488 1 0 1
0.0960459 -0.02425575 0.1231877 1 0 1
0.09603103 -0.0223463 0.1205944 1 0 1
0.09673786 -0.02157661 0.1194714 1 0 1
0.0974358 -0.02080537 0.118348 1 0 1
0.09774485 -0.01946468 0.1164939 1 0 1
0.09842125 -0.01869109 0.1153709 1 0 1
0.0990888 -0.01791614 0.1142474 1 0 1
0.09974743 -0.01713975 0.1131237 1 0 1
0.1000027 -0.01579693 0.1112749 1 0 1
0.1002417 -0.01445422 0.1094287 1 0 1
0.1004647 -0.01311177 0.107585 1 0 1
0.1006715 -0.01176959 0.105744 1 0 1
0.1008623 -0.01042772 0.1039057 1 0 1
0.1014495 -0.009647422 0.1027878 1 0 1
0.1020279 -0.008866007 0.1016698 1 0 1
0.1025974 -0.0080835 0.1005518 1 0 1
0.1031581 -0.007299855 0.09943378 1 0 1
0.1037099 -0.006515218 0.09831589 1 0 1
0.1042529 -0.005729565 0.09719808 1 0 1
0.104787 -0.004942887 0.09608039 1 0 1
0.1053123 -0.004155292 0.09496288 1 0 1
0.1062699 -0.003921297 0.09455122 1 0 1
0.1067811 -0.003131017 0.09343264 1 0 1
0.1077316 -0.002892626 0.09301686 1 0 1
0.1082287 -0.002099726 0.0918973 1 0 1
