ply
format ascii 1.0
Comment Generated by Floating Hands
element vertex 1243
property double x
property double y
property double z
property uchar red
property uchar green
property uchar blue
end_header
-0.1336524 -0.2073581 0.275867 1 0 1
-0.1327635 -0.2111821 0.2796004 1 0 1
-0.1309502 -0.2123176 0.2805081 1 0 1
-0.1291276 -0.2134494 0.2814106 1 0 1
-0.1272957 -0.2145773 0.2823077 1 0 1
-0.1254545 -0.2157017 0.2831997 1 0 1
-0.1229869 -0.214793 0.2819643 1 0 1
-0.1199276 -0.2118441 0.2785989 1 0 1
-0.1178951 -0.2122714 0.2787637 1 0 1
-0.1158612 -0.2126933 0.2789228 1 0 1
-0.1138257 -0.2131098 0.2790757 1 0 1
-0.1119752 -0.2142012 0.2799315 1 0 1
-0.1104807 -0.2166509 0.2821999 1 0 1
-0.1084255 -0.217054 0.282336 1 0 1
-0.106194 -0.2167691 0.2817566 1 0 1
-0.103627 -0.2151104 0.2797509 1 0 1
-0.1014161 -0.2148099 0.279158 1 0 1
-0.09904841 -0.2138178 0.2778484 1 0 1
-0.09669492 -0.2128174 0.2765322 1 0 1
-0.0946667 -0.2131812 0.2766303 1 0 1
-0.0927889 -0.2142264 0.2774334 1 0 1
-0.09075442 -0.21458 0.2775199 1 0 1
-0.0888626 -0.2156162 0.2783114 1 0 1
-0.08696192 -0.2166484 0.2790975 1 0 1
-0.08478027 -0.2162973 0.278455 1 0 1
-0.08260535 -0.2159394 0.2778063 1 0 1
-0.08043727 -0.2155748 0.2771515 1 0 1
-0.07840027 -0.2158949 0.2772022 1 0 1
-0.07624185 -0.2155174 0.2765352 1 0 1
-0.07432342 -0.2165186 0.2772859 1 0 1
-0.07239631 -0.2175154 0.2780306 1 0 1
-0.07046049 -0.2185078 0.2787696 1 0 1
-0.06830632 -0.2181073 0.2780787 1 0 1
-0.06615912 -0.2177001 0.2773818 1 0 1
-0.06382485 -0.2158956 0.2752548 1 0 1
0.07234562 -0.204869 0.245235 1 0 1
0.075096 -0.2004172 0.2403604 1 0 1
0.07963067 -0.2030086 0.2423116 1 0 1
0.09241308 -0.1941217 0.2315131 1 0 1
0.09543079 -0.1916807 0.2286161 1 0 1
0.1025971 -0.1960594 0.2319739 1 0 1
0.1061469 -0.2007781 0.2362028 1 0 1
0.1200535 -0.2064938 0.2399099 1 0 1
0.1173968 -0.1943868 0.2281118 1 0 1
0.1197827 -0.1955501 0.2289305 1 0 1
0.1196971 -0.1904299 0.2237871 1 0 1
0.1217954 -0.1908866 0.2239362 1 0 1
0.1221975 -0.1871589 0.2201223 1 0 1
0.1228473 -0.1841271 0.2169723 1 0 1
0.126085 -0.1873523 0.21974 1 0 1
0.1284735 -0.1884827 0.2205235 1 0 1
0.1378245 -0.2011268 0.2318685 1 0 1
0.1378587 -0.1966819 0.2273853 1 0 1
0.1393949 -0.1957013 0.2261679 1 0 1
0.1402943 -0.1933329 0.2236471 1 0 1
0.1411688 -0.1909628 0.221128 1 0 1
0.1390461 -0.1741921 0.2045445 1 0 1
0.1341234 -0.1601165 0.191096 1 0 1
0.1136001 -0.1144083 0.1481055 1 0 1
0.09937775 -0.08253276 0.1181116 1 0 1
0.09408183 -0.0692588 0.1055267 1 0 1
0.09280743 -0.06424065 0.1006593 1 0 1
0.09288238 -0.06197055 0.09835908 1 0 1
0.0925793 -0.05901683 0.09542643 1 0 1
0.09260324 -0.05674971 0.0931365 1 0 1
0.09260356 -0.0544838 0.09085125 1 0 1
0.09258028 -0.05221923 0.08857072 1 0 1
0.09216453 -0.04927438 0.0856634 1 0 1
0.09246317 -0.04769459 0.08402443 1 0 1
0.09236939 -0.04543465 0.0817588 1 0 1
0.09263206 -0.0438559 0.08012608 1 0 1
0.09287859 -0.04227738 0.07849588 1 0 1
0.09272187 -0.04002135 0.07624327 1 0 1
0.09293258 -0.03844436 0.07461974 1 0 1
0.09391601 -0.03822016 0.07424349 1 0 1
0.09410182 -0.03664244 0.07262271 1 0 1
0.09427159 -0.03506525 0.07100477 1 0 1
0.09483055 -0.03416237 0.07000783 1 0 1
0.09538071 -0.03325847 0.06901105 1 0 1
0.09550969 -0.0316816 0.06739924 1 0 1
0.0956227 -0.03010556 0.06579053 1 0 1
0.09530026 -0.02786022 0.06357264 1 0 1
0.09537788 -0.02628687 0.06197178 1 0 1
0.09586626 -0.02538282 0.06098356 1 0 1
0.09634592 -0.02447795 0.05999576 1 0 1
0.09681682 -0.02357238 0.05900841 1 0 1
0.097279 -0.02266603 0.05802147 1 0 1
0.09773248 -0.02175901 0.05703506 1 0 1
0.09862158 -0.0215149 0.05665106 1 0 1
0.09861324 -0.01994304 0.0550639 1 0 1
0.09904058 -0.01903415 0.0540792 1 0 1
0.09945922 -0.01812465 0.05309513 1 0 1
0.09986919 -0.01721468 0.05211174 1 0 1
0.09980857 -0.01564563 0.05053495 1 0 1
0.09973231 -0.0140782 0.04896208 1 0 1
0.1001093 -0.01316888 0.04798408 1 0 1
-0.138338 -0.2091918 0.2754091 1 0 1
-0.1363207 -0.2096685 0.2756271 1 0 1
-0.1345307 -0.2108138 0.2765416 1 0 1
-0.1327312 -0.2119553 0.2774508 1 0 1
-0.1309225 -0.2130933 0.2783549 1 0 1
-0.1288868 -0.213551 0.2785502 1 0 1
-0.1270631 -0.2146806 0.2794434 1 0 1
-0.1250202 -0.2151282 0.2796271 1 0 1
-0.1229757 -0.2155703 0.2798047 1 0 1
-0.120323 -0.2139672 0.2778617 1 0 1
-0.1180886 -0.2137152 0.2773212 1 0 1
-0.1160548 -0.2141377 0.2774796 1 0 1
-0.1140196 -0.2145547 0.2776321 1 0 1
-0.1119828 -0.2149663 0.2777786 1 0 1
-0.1104934 -0.217424 0.2800381 1 0 1
-0.1080841 -0.2164577 0.2787602 1 0 1
-0.1058641 -0.2161682 0.2781821 1 0 1
-0.1033078 -0.2144995 0.2761836 1 0 1
-0.1011084 -0.2141947 0.2755923 1 0 1
-0.09842454 -0.2118203 0.2728721 1 0 1
-0.09640937 -0.2121878 0.2729751 1 0 1
-0.09439297 -0.21255 0.2730724 1 0 1
-0.09267929 -0.214286 0.2745797 1 0 1
-0.09065274 -0.2146387 0.2746654 1 0 1
-0.08876928 -0.2156768 0.2754536 1 0 1
-0.08673666 -0.2160192 0.2755276 1 0 1
-0.08483934 -0.2170484 0.2763043 1 0 1
-0.08240307 -0.2153018 0.2742404 1 0 1
-0.08050368 -0.2163201 0.2750053 1 0 1
-0.07834605 -0.2159458 0.2743465 1 0 1
-0.07631609 -0.2162596 0.2743907 1 0 1
-0.07416823 -0.2158725 0.2737199 1 0 1
-0.07236642 -0.2175667 0.2751706 1 0 1
-0.07022072 -0.2171681 0.2744879 1 0 1
-0.06808193 -0.2167629 0.2737992 1 0 1
-0.06595021 -0.2163512 0.2731045 1 0 1
-0.06392287 -0.216631 0.2731133 1 0 1
0.03186508 -0.1944017 0.2378028 1 0 1
0.05651434 -0.1961634 0.2360533 1 0 1
0.07042546 -0.199148 0.2370303 1 0 1
0.07364105 -0.196811 0.234233 1 0 1
0.07624141 -0.1995347 0.2365748 1 0 1
0.07943477 -0.2043772 0.2409451 1 0 1
0.08133886 -0.2042522 0.2405439 1 0 1
0.0837469 -0.1990309 0.234982 1 0 1
0.08561963 -0.198892 0.2345706 1 0 1
0.08929581 -0.1920836 0.227237 1 0 1
0.09331375 -0.19899 0.2335451 1 0 1
0.09362554 -0.1938826 0.2283997 1 0 1
0.09546583 -0.1937144 0.227962 1 0 1
0.09707437 -0.1928357 0.2268485 1 0 1
0.1005447 -0.197592 0.2310886 1 0 1
0.1002635 -0.1910652 0.2246116 1 0 1
0.1035346 -0.1951024 0.2281623 1 0 1
0.1031698 -0.1885736 0.2216951 1 0 1
0.1079665 -0.196817 0.2292214 1 0 1
0.1100703 -0.1973132 0.2294064 1 0 1
0.1152605 -0.2062329 0.2375497 1 0 1
0.1158581 -0.2024994 0.2337313 1 0 1
0.1203804 -0.2092886 0.2398444 1 0 1
0.1180061 -0.1978347 0.2287522 1 0 1
0.11714 -0.1905943 0.2216461 1 0 1
0.1167475 -0.1847588 0.2158732 1 0 1
0.1199252 -0.1880213 0.2186607 1 0 1
0.1197403 -0.1828843 0.2135544 1 0 1
0.1203615 -0.1798453 0.2104244 1 0 1
0.1224042 -0.180296 0.2105699 1 0 1
0.1285748 -0.1905061 0.2198538 1 0 1
0.1291897 -0.1874519 0.2167087 1 0 1
0.134604 -0.19554 0.2239839 1 0 1
0.1370488 -0.1966507 0.224728 1 0 1
0.1382684 -0.1949729 0.2228673 1 0 1
0.1391577 -0.1925976 0.2203585 1 0 1
0.1397054 -0.1895267 0.2172053 1 0 1
0.1376559 -0.180908 0.2088944 1 0 1
0.1361635 -0.1736849 0.201895 1 0 1
0.1306579 -0.1581633 0.1872003 1 0 1
0.1306268 -0.1544215 0.183462 1 0 1
0.1016181 -0.08827615 0.1216762 1 0 1
0.09532708 -0.0728764 0.1072211 1 0 1
0.09372368 -0.06714714 0.1017315 1 0 1
0.09346062 -0.06417834 0.09880056 1 0 1
0.09281258 -0.06052454 0.09524237 1 0 1
0.0924838 -0.05756147 0.09232678 1 0 1
0.09248532 -0.05528704 0.09005003 1 0 1
0.09209831 -0.05232875 0.08714771 1 0 1
0.09204905 -0.05005791 0.08488186 1 0 1
0.09234847 -0.04847234 0.08324873 1 0 1
0.09188001 -0.04552095 0.0803652 1 0 1
0.09213982 -0.04393723 0.07873958 1 0 1
0.09238349 -0.04235375 0.07711648 1 0 1
0.0926111 -0.04077061 0.075496 1 0 1
0.09282259 -0.03918782 0.07387821 1 0 1
0.09341201 -0.03828445 0.07288271 1 0 1
0.09359499 -0.03670182 0.07126911 1 0 1
0.09376197 -0.03511973 0.06965831 1 0 1
0.09391293 -0.03353828 0.06805048 1 0 1
0.09445629 -0.03263309 0.06705956 1 0 1
0.09457889 -0.03105224 0.06545638 1 0 1
0.09510109 -0.03014598 0.06446734 1 0 1
0.09519538 -0.02856595 0.06286899 1 0 1
0.09569649 -0.02765877 0.06188198 1 0 1
0.09618884 -0.02675077 0.06089533 1 0 1
0.09667244 -0.02584199 0.05990907 1 0 1
0.09714731 -0.02493243 0.05892323 1 0 1
0.09761339 -0.02402213 0.05793787 1 0 1
0.09807079 -0.02311112 0.05695298 1 0 1
0.09851945 -0.02219944 0.05596862 1 0 1
0.0989594 -0.0212871 0.0549848 1 0 1
0.09893967 -0.0197099 0.05340552 1 0 1
0.09935869 -0.01879741 0.05242449 1 0 1
0.09931104 -0.01722207 0.0508512 1 0 1
0.09924773 -0.01564833 0.04928172 1 0 1
0.09963378 -0.01473642 0.04830596 1 0 1
0.09954268 -0.01316486 0.04674278 1 0 1
-0.1385293 -0.2106241 0.2739666 1 0 1
-0.1365122 -0.2111014 0.274184 1 0 1
-0.1344934 -0.2115733 0.2743955 1 0 1
-0.1324728 -0.2120398 0.2746011 1 0 1
-0.1304504 -0.2125009 0.2748006 1 0 1
-0.1284264 -0.2129565 0.2749943 1 0 1
-0.1264008 -0.2134067 0.2751819 1 0 1
-0.1245837 -0.2145326 0.2760651 1 0 1
-0.1225509 -0.2149727 0.2762412 1 0 1
-0.120314 -0.2147249 0.2757092 1 0 1
-0.118282 -0.2151533 0.275873 1 0 1
-0.1162485 -0.2155763 0.2760309 1 0 1
-0.1140224 -0.2153089 0.2754798 1 0 1
-0.1119897 -0.2157201 0.2756254 1 0 1
-0.1103222 -0.2174992 0.2771723 1 0 1
-0.1080996 -0.2172137 0.2766027 1 0 1
-0.1055321 -0.2155451 0.2746186 1 0 1
-0.1029865 -0.2138665 0.2726271 1 0 1
-0.1007985 -0.2135572 0.2720374 1 0 1
-0.09796106 -0.21048 0.2686224 1 0 1
-0.09612168 -0.2115362 0.2694291 1 0 1
-0.09427331 -0.2125884 0.2702304 1 0 1
-0.09287298 -0.2157137 0.273142 1 0 1
-0.0906982 -0.2153737 0.2725219 1 0 1
-0.08896378 -0.2171081 0.2740122 1 0 1
-0.08679066 -0.2167566 0.27338 1 0 1
-0.08462418 -0.2163982 0.2727417 1 0 1
-0.08219873 -0.2146419 0.2706853 1 0 1
-0.08031157 -0.2156614 0.2714466 1 0 1
-0.07816542 -0.2152831 0.27079 1 0 1
-0.07614736 -0.2155954 0.2708336 1 0 1
-0.07412833 -0.2159024 0.2708712 1 0 1
-0.07210843 -0.2162038 0.2709031 1 0 1
-0.06997816 -0.2158007 0.2702226 1 0 1
-0.06806603 -0.2167904 0.2709491 1 0 1
-0.06594187 -0.2163752 0.2702568 1 0 1
-0.06421598 -0.218757 0.2723847 1 0 1
0.03107391 -0.2057146 0.2464458 1 0 1
0.03309086 -0.2064366 0.2468756 1 0 1
0.03423185 -0.2007248 0.2410624 1 0 1
0.03770131 -0.1985711 0.23844 1 0 1
0.03947218 -0.1978437 0.237469 1 0 1
0.04369398 -0.2006584 0.2396547 1 0 1
0.04521932 -0.1984872 0.2372888 1 0 1
0.04672038 -0.1963112 0.2349212 1 0 1
0.04884376 -0.1977001 0.2359929 1 0 1
0.05098174 -0.1990835 0.2370567 1 0 1
0.0524488 -0.1968926 0.2346783 1 0 1
0.05501942 -0.2004062 0.2377881 1 0 1
0.05748297 -0.2031999 0.2402003 1 0 1
0.05953021 -0.2038472 0.2405471 1 0 1
0.06112628 -0.2023492 0.2388348 1 0 1
0.06301869 -0.2022728 0.2384867 1 0 1
0.06507031 -0.2029039 0.238816 1 0 1
0.06729273 -0.2042422 0.2398204 1 0 1
0.06902498 -0.2034369 0.2387728 1 0 1
0.07074829 -0.2026266 0.2377214 1 0 1
0.07334186 -0.2053722 0.2400645 1 0 1
0.07524616 -0.2052631 0.2396804 1 0 1
0.07769981 -0.2072837 0.2413253 1 0 1
0.08092498 -0.2121432 0.2456692 1 0 1
0.08286364 -0.2120157 0.2452608 1 0 1
0.0844105 -0.2104609 0.2434956 1 0 1
0.08534355 -0.2067699 0.2397038 1 0 1
0.0864394 -0.2037868 0.2365891 1 0 1
0.08770965 -0.2015107 0.2341488 1 0 1
0.0891659 -0.199941 0.2323807 1 0 1
0.08974773 -0.1955296 0.2279252 1 0 1
0.09355485 -0.2017533 0.2335327 1 0 1
0.09298893 -0.1937907 0.2257267 1 0 1
0.09707995 -0.200707 0.231978 1 0 1
0.09871935 -0.1998225 0.2308602 1 0 1
0.1019838 -0.2038872 0.2344069 1 0 1
0.1036313 -0.2029911 0.2332758 1 0 1
0.1059926 -0.2042111 0.234136 1 0 1
0.1051834 -0.1962398 0.2263554 1 0 1
0.1082682 -0.1995696 0.229199 1 0 1
0.1103792 -0.2000675 0.2293795 1 0 1
0.1148027 -0.2069061 0.235502 1 0 1
0.1151383 -0.2024542 0.2310387 1 0 1
0.1209685 -0.2127932 0.2404215 1 0 1
0.1196826 -0.2041089 0.2320028 1 0 1
0.1204757 -0.2010577 0.2288591 1 0 1
0.1201356 -0.1951935 0.2230949 1 0 1
0.1233602 -0.1984631 0.2258553 1 0 1
0.1220958 -0.1904924 0.2181395 1 0 1
0.1247583 -0.1923468 0.21958 1 0 1
0.125409 -0.1892873 0.2164477 1 0 1
0.1310267 -0.1981317 0.2243775 1 0 1
0.1310814 -0.1936619 0.2199351 1 0 1
0.1368184 -0.2024777 0.2278179 1 0 1
0.1371551 -0.1986989 0.2240179 1 0 1
0.1408515 -0.2025986 0.2273298 1 0 1
0.1420883 -0.2009068 0.2254642 1 0 1
0.1429913 -0.1985153 0.2229543 1 0 1
0.1419482 -0.1919451 0.2165914 1 0 1
0.1408358 -0.1853809 0.2102447 1 0 1
0.1373606 -0.1739588 0.1994337 1 0 1
0.1357527 -0.1667179 0.1924897 1 0 1
0.1243515 -0.1393706 0.1670727 1 0 1
0.1082558 -0.1030625 0.1334727 1 0 1
0.09793808 -0.07928148 0.1114311 1 0 1
0.09463669 -0.07006673 0.102784 1 0 1
0.09403643 -0.06639372 0.09922785 1 0 1
0.09304424 -0.06203438 0.09504974 1 0 1
0.09236355 -0.05836994 0.09151398 1 0 1
0.09236621 -0.05608707 0.08924574 1 0 1
0.09234533 -0.05380553 0.08698227 1 0 1
0.09230088 -0.05152548 0.08472365 1 0 1
0.09260474 -0.04993341 0.08309495 1 0 1
0.09214153 -0.04697009 0.08022137 1 0 1
0.09202667 -0.04469493 0.0779779 1 0 1
0.09227115 -0.04310572 0.07636059 1 0 1
0.0921132 -0.0408336 0.07412634 1 0 1
0.09271182 -0.03992836 0.07313388 1 0 1
0.09330164 -0.03902196 0.07214139 1 0 1
0.09348539 -0.0374336 0.07053355 1 0 1
0.09365315 -0.03584579 0.06892856 1 0 1
0.09420928 -0.03493777 0.06793913 1 0 1
0.09434867 -0.03335043 0.06633866 1 0 1
0.09447204 -0.03176386 0.06474121 1 0 1
0.09499464 -0.03085459 0.06375521 1 0 1
0.09508974 -0.0292688 0.06216262 1 0 1
0.09559122 -0.02835862 0.06117866 1 0 1
0.09608394 -0.02744761 0.06019508 1 0 1
0.09656792 -0.02653585 0.05921185 1 0 1
0.09704319 -0.02562325 0.05822906 1 0 1
0.0975097 -0.02470994 0.05724674 1 0 1
0.09796745 -0.0237959 0.05626488 1 0 1
0.09841653 -0.02288124 0.05528358 1 0 1
0.09885687 -0.02196589 0.0543028 1 0 1
0.09928851 -0.02104993 0.05332265 1 0 1
0.09925735 -0.01946742 0.05175132 1 0 1
0.09921052 -0.01788638 0.05018378 1 0 1
0.09868692 -0.01564292 0.0480314 1 0 1
0.09906984 -0.01472904 0.04706028 1 0 1
0.09944418 -0.01381474 0.04608992 1 0 1
-0.1361088 -0.2045974 0.2648616 1 0 1
-0.1357692 -0.2098147 0.2699493 1 0 1
-0.1344552 -0.2123217 0.2722493 1 0 1
-0.1322127 -0.2121077 0.2717565 1 0 1
-0.1304203 -0.2132487 0.2726524 1 0 1
-0.1284004 -0.2137041 0.2728451 1 0 1
-0.1263788 -0.214154 0.2730318 1 0 1
-0.1243556 -0.2145985 0.2732127 1 0 1
-0.1223307 -0.2150376 0.2733876 1 0 1
-0.1203043 -0.2154712 0.2735564 1 0 1
-0.1178782 -0.2145271 0.27232 1 0 1
-0.1160516 -0.2156352 0.2731765 1 0 1
-0.1138331 -0.2153639 0.272627 1 0 1
-0.1116208 -0.2150857 0.272071 1 0 1
-0.1095986 -0.2154897 0.2722094 1 0 1
-0.1075748 -0.2158883 0.272342 1 0 1
-0.1051979 -0.2148999 0.271066 1 0 1
-0.102663 -0.2132114 0.2690816 1 0 1
-0.1004864 -0.2128977 0.2684934 1 0 1
-0.09782335 -0.2104982 0.2657931 1 0 1
-0.09583184 -0.2108624 0.2658941 1 0 1
-0.09430881 -0.2133045 0.2680962 1 0 1
-0.09291407 -0.2164405 0.2709962 1 0 1
-0.09089185 -0.2167933 0.2710808 1 0 1
-0.08915834 -0.2185336 0.2725652 1 0 1
-0.08726718 -0.219574 0.2733413 1 0 1
-0.08481848 -0.2178192 0.2712994 1 0 1
-0.08252534 -0.2167534 0.2699541 1 0 1
-0.08037614 -0.2163788 0.2693057 1 0 1
-0.07848465 -0.2173966 0.2700581 1 0 1
-0.07621973 -0.2163095 0.2686944 1 0 1
-0.0742048 -0.2166163 0.2687316 1 0 1
-0.07218899 -0.2169176 0.268763 1 0 1
-0.0701723 -0.2172134 0.2687885 1 0 1
-0.0681548 -0.2175038 0.2688082 1 0 1
-0.06634063 -0.2191949 0.2702295 1 0 1
-0.06519734 -0.225808 0.2765713 1 0 1
0.02852701 -0.2034705 0.2418715 1 0 1
0.03061061 -0.2049174 0.2429984 1 0 1
0.03270912 -0.2063592 0.2441177 1 0 1
0.03423623 -0.2034935 0.2410885 1 0 1
0.0361379 -0.2034907 0.2408167 1 0 1
0.0377222 -0.2013315 0.2384724 1 0 1
0.03939173 -0.1998843 0.2368146 1 0 1
0.04093151 -0.197715 0.2344659 1 0 1
0.04326769 -0.2005592 0.2369263 1 0 1
0.04466514 -0.1976629 0.2338833 1 0 1
0.04615556 -0.1954788 0.2315261 1 0 1
0.0481374 -0.1961567 0.2319088 1 0 1
0.0503917 -0.1982626 0.2336544 1 0 1
0.05225832 -0.1982132 0.2333387 1 0 1
0.0548268 -0.2017405 0.2364346 1 0 1
0.05743309 -0.2052613 0.2395184 1 0 1
0.0593354 -0.205195 0.2391798 1 0 1
0.06093205 -0.2036915 0.2374732 1 0 1
0.06313657 -0.2050465 0.2384865 1 0 1
0.06455543 -0.2028174 0.2360921 1 0 1
0.06693309 -0.2048769 0.2377717 1 0 1
0.06815854 -0.201923 0.2346926 1 0 1
0.07020984 -0.2025409 0.2350024 1 0 1
0.07296941 -0.2060126 0.2380129 1 0 1
0.07469036 -0.2051889 0.2369537 1 0 1
0.07695185 -0.2065037 0.2379166 1 0 1
0.08034955 -0.2120972 0.2429181 1 0 1
0.08189862 -0.2105422 0.2411642 1 0 1
0.08401503 -0.2111238 0.2414267 1 0 1
0.08435024 -0.2052791 0.2356337 1 0 1
0.08603954 -0.2044252 0.2345472 1 0 1
0.0871008 -0.2014282 0.2314461 1 0 1
0.08918035 -0.2019909 0.231694 1 0 1
0.08998233 -0.1982746 0.2279232 1 0 1
0.09379336 -0.2045223 0.233504 1 0 1
0.09479073 -0.201509 0.2303948 1 0 1
0.09733394 -0.2034713 0.231949 1 0 1
0.09921055 -0.2032939 0.2314974 1 0 1
0.1020178 -0.2059529 0.2336968 1 0 1
0.1027218 -0.2022133 0.2299152 1 0 1
0.106515 -0.2076976 0.2347461 1 0 1
0.1069441 -0.2032409 0.2302994 1 0 1
0.1075741 -0.1994926 0.2265193 1 0 1
0.1096769 -0.1999937 0.2266993 1 0 1
0.1143446 -0.2075683 0.2334545 1 0 1
0.11364 -0.2002701 0.2263803 1 0 1
0.1186545 -0.208531 0.2337582 1 0 1
0.1224125 -0.2028717 0.2276271 1 0 1
0.1259475 -0.2068552 0.2310165 1 0 1
0.1255724 -0.2009628 0.2252739 1 0 1
0.1271379 -0.2000021 0.2240927 1 0 1
0.128114 -0.1976301 0.2216108 1 0 1
0.1317082 -0.2015831 0.2249598 1 0 1
0.1335609 -0.2013096 0.2244108 1 0 1
0.1378205 -0.2066461 0.2290204 1 0 1
0.1393937 -0.2056563 0.2278076 1 0 1
0.1431175 -0.2095674 0.2310942 1 0 1
0.1415736 -0.2015637 0.2234468 1 0 1
0.1248531 -0.1418835 0.1672072 1 0 1
0.108786 -0.105432 0.1337488 1 0 1
0.09951556 -0.08364173 0.1136964 1 0 1
0.09623784 -0.07438775 0.1050791 1 0 1
0.09460974 -0.06861657 0.09964092 1 0 1
0.09362736 -0.06423926 0.09547712 1 0 1
0.09259925 -0.05986731 0.09132548 1 0 1
0.09260678 -0.05757527 0.08906453 1 0 1
0.09222662 -0.05459388 0.08618349 1 0 1
0.0921834 -0.05230539 0.08393344 1 0 1
0.09248802 -0.05070762 0.08231054 1 0 1
0.09202641 -0.04773313 0.07944828 1 0 1
0.09191275 -0.04544958 0.07721336 1 0 1
0.09215802 -0.04385467 0.07560183 1 0 1
0.09200126 -0.04157408 0.07337614 1 0 1
0.09221072 -0.03998072 0.07177129 1 0 1
0.09319044 -0.0397565 0.07139731 1 0 1
0.09337498 -0.03816244 0.06979524 1 0 1
0.09354352 -0.03656894 0.06819607 1 0 1
0.09410007 -0.03565789 0.06720966 1 0 1
0.09424023 -0.03406485 0.06561498 1 0 1
0.09436437 -0.03247255 0.06402335 1 0 1
0.09447265 -0.03088112 0.0624348 1 0 1
0.09498329 -0.02996883 0.0614536 1 0 1
0.09506325 -0.02837827 0.05987002 1 0 1
0.09555286 -0.02746522 0.05889096 1 0 1
0.09603365 -0.02655133 0.05791228 1 0 1
0.09650572 -0.02563669 0.05693404 1 0 1
0.09696909 -0.02472131 0.05595626 1 0 1
0.09742372 -0.02380526 0.05497899 1 0 1
0.0983128 -0.02356023 0.05459593 1 0 1
0.09875353 -0.02264188 0.05361823 1 0 1
0.09918558 -0.02172292 0.05264111 1 0 1
0.09915522 -0.02013472 0.05107559 1 0 1
0.09910918 -0.01854799 0.04951383 1 0 1
0.0985868 -0.01629614 0.04736996 1 0 1
0.09897014 -0.01537926 0.04640187 1 0 1
0.09887721 -0.01379735 0.04485179 1 0 1
-0.1379604 -0.2107504 0.2682914 1 0 1
-0.136427 -0.2125876 0.2698935 1 0 1
-0.1346464 -0.213741 0.2707971 1 0 1
-0.1324037 -0.2135248 0.2703065 1 0 1
-0.1303895 -0.2139853 0.2705042 1 0 1
-0.128155 -0.2137557 0.2700006 1 0 1
-0.1261413 -0.2142044 0.270186 1 0 1
-0.1241259 -0.2146478 0.2703656 1 0 1
-0.1223161 -0.215773 0.2712356 1 0 1
-0.1204971 -0.2168944 0.2721002 1 0 1
-0.1180705 -0.2159454 0.2708688 1 0 1
-0.1158533 -0.2156775 0.2703275 1 0 1
-0.1138341 -0.2160929 0.2704772 1 0 1
-0.1116256 -0.2158116 0.2699232 1 0 1
-0.1092393 -0.2148314 0.2686647 1 0 1
-0.1072274 -0.2152282 0.268796 1 0 1
-0.1052142 -0.2156196 0.2689214 1 0 1
-0.1025098 -0.2132285 0.2662458 1 0 1
-0.100678 -0.2143011 0.2670574 1 0 1
-0.09801362 -0.2118912 0.2643678 1 0 1
-0.09618312 -0.2129523 0.2651676 1 0 1
-0.09450064 -0.2147066 0.2666616 1 0 1
-0.09295452 -0.217156 0.2688502 1 0 1
-0.09108559 -0.2182072 0.2696342 1 0 1
-0.08920775 -0.2192542 0.2704125 1 0 1
-0.08732102 -0.220297 0.2711853 1 0 1
-0.08487532 -0.2185338 0.2691511 1 0 1
-0.08245191 -0.2167614 0.2671104 1 0 1
-0.08031032 -0.2163831 0.2664642 1 0 1
-0.07830138 -0.2167005 0.2665126 1 0 1
-0.07604759 -0.2156066 0.2651538 1 0 1
-0.07404459 -0.2159119 0.2651904 1 0 1
-0.07204065 -0.2162118 0.2652212 1 0 1
-0.07003591 -0.2165063 0.2652462 1 0 1
-0.06803029 -0.2167954 0.2652654 1 0 1
-0.06602392 -0.217079 0.2652788 1 0 1
0.02799246 -0.2019262 0.2377508 1 0 1
0.02996996 -0.2026588 0.2381857 1 0 1
0.03204798 -0.204106 0.2393021 1 0 1
0.0333623 -0.1997897 0.2349122 1 0 1
0.03513525 -0.1990671 0.2339575 1 0 1
0.03689963 -0.1983394 0.2329986 1 0 1
0.03843736 -0.1961671 0.2306643 1 0 1
0.04017676 -0.1954293 0.2296984 1 0 1
0.0426086 -0.1990042 0.232835 1 0 1
0.04423338 -0.1975364 0.2311735 1 0 1
0.04584169 -0.1960637 0.2295091 1 0 1
0.04794762 -0.1974638 0.2305723 1 0 1
0.05020057 -0.1995778 0.2323096 1 0 1
0.05193074 -0.1988091 0.2313127 1 0 1
0.05407262 -0.2001928 0.2323535 1 0 1
0.05666122 -0.2037278 0.2354261 1 0 1
0.05869581 -0.2043808 0.2357697 1 0 1
0.06043338 -0.2035908 0.2347494 1 0 1
0.06262917 -0.2049516 0.2357587 1 0 1
0.06372218 -0.2012777 0.2320201 1 0 1
0.06591953 -0.2026278 0.233018 1 0 1
0.06746177 -0.2010999 0.2313052 1 0 1
0.07018575 -0.2045923 0.234314 1 0 1
0.07207172 -0.2044893 0.2339395 1 0 1
0.07467211 -0.2072506 0.2362529 1 0 1
0.0769365 -0.2085704 0.2372096 1 0 1
0.07921485 -0.2098839 0.2381577 1 0 1
0.08112629 -0.2097578 0.2377555 1 0 1
0.08323059 -0.2103428 0.2380179 1 0 1
0.0835574 -0.2044769 0.23225 1 0 1
0.08503338 -0.2029051 0.2305006 1 0 1
0.08690426 -0.2027603 0.2300845 1 0 1
0.08835417 -0.2011798 0.2283297 1 0 1
0.08893298 -0.1967358 0.22391 1 0 1
0.09272494 -0.2030091 0.2294694 1 0 1
0.09392972 -0.2007003 0.2270393 1 0 1
0.09601002 -0.2012439 0.2272618 1 0 1
0.09763853 -0.2003545 0.2261529 1 0 1
0.1004212 -0.2030265 0.2283469 1 0 1
0.1006311 -0.1978497 0.2232645 1 0 1
0.1043905 -0.2033588 0.228081 1 0 1
0.1055239 -0.2010245 0.2256342 1 0 1
0.1066326 -0.1986876 0.2231882 1 0 1
0.1072131 -0.1949257 0.2194299 1 0 1
0.1113311 -0.2011126 0.2248528 1 0 1
0.1108479 -0.194502 0.2184723 1 0 1
0.1163458 -0.2042195 0.2271341 1 0 1
0.119279 -0.2068255 0.2292378 1 0 1
0.1096514 -0.1085068 0.134641 1 0 1
0.09972153 -0.0852346 0.1134117 1 0 1
0.09610747 -0.07524747 0.1042011 1 0 1
0.0944826 -0.0694543 0.09878537 1 0 1
0.09350263 -0.06506039 0.0946385 1 0 1
0.09247694 -0.06067193 0.09050373 1 0 1
0.09248564 -0.05837151 0.0882514 1 0 1
0.09210713 -0.05537901 0.08538172 1 0 1
0.09206507 -0.05308215 0.08314025 1 0 1
0.0923705 -0.05147867 0.08152315 1 0 1
0.09191047 -0.0484931 0.07867225 1 0 1
0.09217633 -0.04689146 0.0770627 1 0 1
0.09204406 -0.04460054 0.07484024 1 0 1
0.0918885 -0.0423116 0.07262312 1 0 1
0.09209876 -0.04071252 0.07102406 1 0 1
0.0926857 -0.03980098 0.07003912 1 0 1
0.09286744 -0.03820207 0.06844428 1 0 1
0.09303321 -0.03660373 0.06685228 1 0 1
0.09399004 -0.03637508 0.06647749 1 0 1
0.09372384 -0.03409273 0.06428291 1 0 1
0.09384522 -0.03249564 0.06269851 1 0 1
0.09395069 -0.0308994 0.06111726 1 0 1
0.09487602 -0.030666 0.06074193 1 0 1
0.09495684 -0.02906978 0.05916415 1 0 1
0.09544678 -0.02815371 0.05818816 1 0 1
0.095928 -0.02723682 0.05721253 1 0 1
0.09596837 -0.02564194 0.05564188 1 0 1
0.09642854 -0.02472454 0.05466867 1 0 1
0.09688002 -0.02380644 0.05369597 1 0 1
0.09732278 -0.02288773 0.05272382 1 0 1
0.09820316 -0.02264174 0.05234169 1 0 1
0.09863207 -0.02172079 0.05136917 1 0 1
0.09859902 -0.02012793 0.04981098 1 0 1
0.0985503 -0.01853653 0.04825656 1 0 1
0.09848587 -0.01694668 0.04670602 1 0 1
0.09886963 -0.01602682 0.045741 1 0 1
0.0987775 -0.01443928 0.04419676 1 0 1
-0.1411171 -0.2144017 0.2693838 1 0 1
-0.1391024 -0.2148862 0.2696053 1 0 1
-0.1370861 -0.2153654 0.2698209 1 0 1
-0.135068 -0.2158391 0.2700306 1 0 1
-0.1325947 -0.2149361 0.2688508 1 0 1
-0.1303578 -0.2147106 0.2683557 1 0 1
-0.128127 -0.214478 0.267854 1 0 1
-0.1259022 -0.2142383 0.2673457 1 0 1
-0.1238948 -0.2146806 0.267524 1 0 1
-0.1218858 -0.2151174 0.2676964 1 0 1
-0.1200789 -0.2162396 0.2685568 1 0 1
-0.1180629 -0.2166664 0.2687178 1 0 1
-0.1158495 -0.2163954 0.2681784 1 0 1
-0.1138344 -0.2168106 0.2683273 1 0 1
-0.111253 -0.2151385 0.2663853 1 0 1
-0.1090623 -0.2148458 0.2658264 1 0 1
-0.1068778 -0.2145461 0.2652611 1 0 1
-0.105053 -0.2156319 0.2660809 1 0 1
-0.1027008 -0.214623 0.2648075 1 0 1
-0.1008695 -0.2156988 0.265616 1 0 1
-0.09853406 -0.2146753 0.2643298 1 0 1
-0.09669646 -0.2157411 0.2651267 1 0 1
-0.09484986 -0.2168028 0.2659183 1 0 1
-0.09314778 -0.2185609 0.2674012 1 0 1
-0.09127941 -0.2196152 0.268182 1 0 1
-0.08925652 -0.2199635 0.2682599 1 0 1
-0.08723252 -0.2203063 0.2683319 1 0 1
-0.08493159 -0.2192372 0.2670029 1 0 1
-0.08264518 -0.2181603 0.2656677 1 0 1
-0.08037327 -0.2170753 0.2643261 1 0 1
-0.07824225 -0.2166874 0.2636762 1 0 1
-0.07611805 -0.2162929 0.2630203 1 0 1
-0.07411916 -0.2165981 0.2630564 1 0 1
-0.07200484 -0.2161909 0.2623888 1 0 1
-0.07000808 -0.2164847 0.2624133 1 0 1
-0.06822398 -0.2181889 0.2638284 1 0 1
-0.06652632 -0.2205984 0.2659359 1 0 1
0.02950563 -0.2176937 0.2501147 1 0 1
0.03075854 -0.2119272 0.2443659 1 0 1
0.03232044 -0.209045 0.2413602 1 0 1
0.03336568 -0.2025448 0.2349309 1 0 1
0.03534835 -0.2032645 0.2353459 1 0 1
0.03691909 -0.2010891 0.2330207 1 0 1
0.03868293 -0.2003534 0.2320594 1 0 1
0.04055073 -0.200335 0.2317762 1 0 1
0.0429999 -0.2039233 0.2348958 1 0 1
0.04464485 -0.2024498 0.2332369 1 0 1
0.04627327 -0.2009712 0.2315751 1 0 1
0.04852583 -0.2030985 0.2333093 1 0 1
0.05080076 -0.2052201 0.2350344 1 0 1
0.0528263 -0.2058918 0.2353932 1 0 1
0.05485853 -0.2065582 0.2357455 1 0 1
0.0570412 -0.2079407 0.2367681 1 0 1
0.05879558 -0.2071526 0.2357533 1 0 1
0.06008684 -0.2041952 0.2327075 1 0 1
0.06227784 -0.2055615 0.2337119 1 0 1
0.06400558 -0.2047585 0.2326853 1 0 1
0.06621359 -0.2061134 0.2336756 1 0 1
0.06760121 -0.2038586 0.2312935 1 0 1
0.0701599 -0.2066435 0.2336149 1 0 1
0.07204964 -0.2065402 0.2332397 1 0 1
0.073581 -0.2049913 0.2315183 1 0 1
0.07655465 -0.2091972 0.2351523 1 0 1
0.07994565 -0.2148342 0.2401093 1 0 1
0.0818762 -0.2147066 0.2397031 1 0 1
0.08477501 -0.2181693 0.2426279 1 0 1
0.08612847 -0.215873 0.2402075 1 0 1
0.08765893 -0.2142916 0.2384521 1 0 1
0.08920395 -0.2060905 0.2302883 1 0 1
0.09513041 -0.2129454 0.2360461 1 0 1
0.09704462 -0.212775 0.2355974 1 0 1
0.09738473 -0.2075831 0.2305213 1 0 1
0.1057965 -0.221538 0.2427795 1 0 1
0.1056301 -0.2089822 0.2306476 1 0 1
0.1071774 -0.2021464 0.2237966 1 0 1
0.1070174 -0.1962278 0.2180887 1 0 1
0.1131724 -0.2081462 0.2287081 1 0 1
0.1053853 -0.09803569 0.1231485 1 0 1
0.09908039 -0.082401 0.1089507 1 0 1
0.09574898 -0.07308458 0.1004242 1 0 1
0.09372935 -0.06657647 0.09441984 1 0 1
0.09270975 -0.06217085 0.0903008 1 0 1
0.09236374 -0.05916447 0.08743522 1 0 1
0.09235007 -0.05685702 0.08519623 1 0 1
0.09231289 -0.05455099 0.08296207 1 0 1
0.09262271 -0.05294114 0.08134954 1 0 1
0.09216799 -0.04994372 0.07850868 1 0 1
0.09243822 -0.04833565 0.07690364 1 0 1
0.09231084 -0.04603557 0.07468846 1 0 1
0.0925452 -0.04442885 0.07308985 1 0 1
0.09276346 -0.04282247 0.07149392 1 0 1
0.09335805 -0.04190632 0.07050928 1 0 1
0.09354779 -0.04030006 0.06891746 1 0 1
0.0937215 -0.03869439 0.06732858 1 0 1
0.09387924 -0.03708931 0.06574254 1 0 1
0.09361427 -0.03479861 0.06355659 1 0 1
0.09373643 -0.03319588 0.06197802 1 0 1
0.09425659 -0.03227853 0.06100266 1 0 1
0.09518547 -0.03204394 0.0606262 1 0 1
0.0956917 -0.03112392 0.05964999 1 0 1
0.09618913 -0.03020299 0.0586741 1 0 1
0.09624968 -0.02860042 0.05710439 1 0 1
0.0967261 -0.02767887 0.0561308 1 0 1
0.09675851 -0.02607757 0.05456647 1 0 1
0.09721392 -0.02515554 0.05359534 1 0 1
0.09766062 -0.02423287 0.05262475 1 0 1
0.09809864 -0.02330954 0.05165473 1 0 1
0.09807858 -0.02171057 0.05010019 1 0 1
0.09804284 -0.02011305 0.04854935 1 0 1
0.09799142 -0.01851699 0.04700231 1 0 1
0.09838421 -0.01759459 0.04603962 1 0 1
0.09923166 -0.01734268 0.04565657 1 0 1
0.09914384 -0.01574843 0.04411654 1 0 1
-0.1413076 -0.2158101 0.2679194 1 0 1
-0.1388162 -0.2149241 0.2667647 1 0 1
-0.1365731 -0.2147155 0.2662907 1 0 1
-0.1341049 -0.2138122 0.2651214 1 0 1
-0.1321044 -0.2142767 0.2653227 1 0 1
-0.1301022 -0.2147356 0.265518 1 0 1
-0.1276595 -0.2138092 0.264328 1 0 1
-0.1256617 -0.2142557 0.2645109 1 0 1
-0.1236621 -0.2146968 0.264688 1 0 1
-0.1214532 -0.2144399 0.2641684 1 0 1
-0.1194544 -0.2148694 0.2643335 1 0 1
-0.1174541 -0.2152935 0.2644927 1 0 1
-0.1150596 -0.2143221 0.2632627 1 0 1
-0.113064 -0.2147338 0.2634097 1 0 1
-0.111067 -0.2151401 0.2635508 1 0 1
-0.1088838 -0.2148437 0.2629936 1 0 1
-0.1068878 -0.2152384 0.2631228 1 0 1
-0.1048905 -0.2156278 0.2632462 1 0 1
-0.1027187 -0.2153121 0.2626706 1 0 1
-0.1007226 -0.2156899 0.2627821 1 0 1
-0.09855979 -0.2153612 0.2621942 1 0 1
-0.09656505 -0.2157275 0.262294 1 0 1
-0.09472685 -0.216791 0.2630819 1 0 1
-0.09287965 -0.2178504 0.2638644 1 0 1
-0.09087367 -0.2182018 0.263947 1 0 1
-0.08901254 -0.2192525 0.2647183 1 0 1
-0.08700043 -0.2195937 0.2647895 1 0 1
-0.08471066 -0.2185178 0.2634653 1 0 1
-0.08256978 -0.2181404 0.2628298 1 0 1
-0.08043569 -0.2177563 0.2621881 1 0 1
-0.078435 -0.2180733 0.2622355 1 0 1
-0.07631065 -0.2176765 0.2615821 1 0 1
-0.07431196 -0.217982 0.2616178 1 0 1
-0.07219753 -0.2175726 0.2609526 1 0 1
-0.07020099 -0.2178666 0.2609768 1 0 1
-0.06809655 -0.2174447 0.2602998 1 0 1
0.03082793 -0.2154482 0.2450164 1 0 1
0.03221774 -0.2111048 0.240656 1 0 1
0.03317375 -0.203855 0.2335698 1 0 1
0.03485452 -0.2024017 0.2319385 1 0 1
0.03631023 -0.1994929 0.228943 1 0 1
0.03816694 -0.1994798 0.2286669 1 0 1
0.03979857 -0.1980113 0.2270267 1 0 1
0.04234212 -0.2023385 0.230814 1 0 1
0.04385213 -0.2001346 0.2284851 1 0 1
0.0465762 -0.2051755 0.2329302 1 0 1
0.04845983 -0.205136 0.2326228 1 0 1
0.05205343 -0.2145134 0.2411017 1 0 1
0.05425665 -0.2159114 0.2421262 1 0 1
0.0554986 -0.2122316 0.2384179 1 0 1
0.05655744 -0.2078232 0.2340366 1 0 1
0.0584515 -0.2077569 0.2336998 1 0 1
0.05838105 -0.1982712 0.22461 1 0 1
0.06084214 -0.2010925 0.2269604 1 0 1
0.06301545 -0.2024595 0.227957 1 0 1
0.06617905 -0.2081626 0.2329696 1 0 1
0.06740505 -0.2051758 0.2299254 1 0 1
0.0704732 -0.2101413 0.2342434 1 0 1
0.07045757 -0.2020836 0.2265131 1 0 1
0.07544479 -0.2069226 0.230428 1 0 1
0.07899898 -0.2133047 0.2360326 1 0 1
0.08167268 -0.2160664 0.2382911 1 0 1
0.08321457 -0.2144897 0.2365508 1 0 1
0.09492216 -0.07252277 0.09830795 1 0 1
0.09254702 -0.06529063 0.09171114 1 0 1
0.0922299 -0.06227129 0.08885108 1 0 1
0.09188181 -0.05925464 0.08599821 1 0 1
0.09222855 -0.05763835 0.08438569 1 0 1
0.09255902 -0.05602206 0.08277539 1 0 1
0.09287331 -0.05440573 0.08116741 1 0 1
0.09242385 -0.05139656 0.07833667 1 0 1
0.09269851 -0.04978205 0.07673611 1 0 1
0.09257597 -0.04747288 0.07452826 1 0 1
0.09243006 -0.04516565 0.07232568 1 0 1
0.09264912 -0.04355362 0.07073562 1 0 1
0.09324403 -0.04263449 0.06975403 1 0 1
0.09383009 -0.04171418 0.06877248 1 0 1
0.09400825 -0.04010201 0.06718802 1 0 1
0.09376766 -0.03780057 0.06500491 1 0 1
0.09391018 -0.03619059 0.06342774 1 0 1
0.09362683 -0.03389321 0.06125489 1 0 1
0.09414737 -0.03297291 0.0602826 1 0 1
0.09465919 -0.03205168 0.05931059 1 0 1
0.09516219 -0.03112959 0.05833894 1 0 1
0.09608064 -0.03089114 0.05796054 1 0 1
0.09614202 -0.02928294 0.05639672 1 0 1
0.09618753 -0.02767583 0.05483625 1 0 1
0.0962172 -0.02606987 0.05327923 1 0 1
0.09666949 -0.02514581 0.05231267 1 0 1
0.09667117 -0.02354146 0.05076127 1 0 1
0.09710252 -0.02261713 0.0497974 1 0 1
0.09752515 -0.02169224 0.04883416 1 0 1
0.09748671 -0.02009012 0.04729074 1 0 1
0.0974326 -0.01848947 0.04575112 1 0 1
0.09828173 -0.01823978 0.04537078 1 0 1
0.09866625 -0.01731393 0.04441192 1 0 1
0.09904215 -0.01638772 0.04345387 1 0 1
-0.1435103 -0.2167216 0.2662233 1 0 1
-0.141498 -0.2172127 0.2664495 1 0 1
-0.139484 -0.2176985 0.2666698 1 0 1
-0.136763 -0.2161113 0.2648278 1 0 1
-0.1342943 -0.2152033 0.2636635 1 0 1
-0.1318392 -0.2142864 0.2624918 1 0 1
-0.1300685 -0.215436 0.2633724 1 0 1
-0.1274095 -0.2138112 0.2615001 1 0 1
-0.1256354 -0.2149501 0.2623691 1 0 1
-0.12364 -0.2153909 0.2625452 1 0 1
-0.121643 -0.2158263 0.2627155 1 0 1
-0.1194401 -0.2155603 0.2621918 1 0 1
-0.1174439 -0.215984 0.2623501 1 0 1
-0.1152495 -0.2157048 0.2618138 1 0 1
-0.1128684 -0.2147199 0.2605819 1 0 1
-0.1106904 -0.2144259 0.2600325 1 0 1
-0.1085187 -0.2141249 0.2594768 1 0 1
-0.1065345 -0.2145179 0.2596048 1 0 1
-0.1043716 -0.2142039 0.2590368 1 0 1
-0.1023887 -0.2145854 0.2591531 1 0 1
-0.1005741 -0.2156646 0.2599541 1 0 1
-0.09858477 -0.216036 0.2600589 1 0 1
-0.09643225 -0.2156976 0.259467 1 0 1
-0.09460238 -0.2167627 0.2602513 1 0 1
-0.09260944 -0.217118 0.2603388 1 0 1
-0.09076559 -0.2181744 0.261112 1 0 1
-0.08876644 -0.2185195 0.2611881 1 0 1
-0.08676624 -0.2188592 0.2612585 1 0 1
-0.08462626 -0.218485 0.260631 1 0 1
-0.08276253 -0.2195224 0.2613816 1 0 1
-0.08062837 -0.219136 0.2607425 1 0 1
-0.07875489 -0.2201638 0.2614816 1 0 1
-0.07650343 -0.2190543 0.2601384 1 0 1
-0.07450503 -0.2193602 0.2601738 1 0 1
-0.0723904 -0.2189484 0.259511 1 0 1
-0.07017132 -0.2178173 0.2581498 1 0 1
-0.06785952 -0.2159652 0.2560903 1 0 1
0.03288496 -0.2044317 0.2315248 1 0 1
0.03426229 -0.2007893 0.2278648 1 0 1
0.03539197 -0.195686 0.2228497 1 0 1
0.03646627 -0.1905778 0.2178375 1 0 1
0.03804394 -0.1891044 0.2162112 1 0 1
0.03937399 -0.1861706 0.2132303 1 0 1
0.04103061 -0.1854155 0.2122754 1 0 1
0.04403632 -0.1926598 0.2187388 1 0 1
0.04813762 -0.2057183 0.2305772 1 0 1
0.05119707 -0.212221 0.2363262 1 0 1
0.05474327 -0.2106593 0.2343299 1 0 1
0.05436014 -0.1989636 0.223254 1 0 1
0.05517246 -0.19381 0.2182316 1 0 1
0.0554775 -0.1864728 0.2112036 1 0 1
0.05894855 -0.1943945 0.2182411 1 0 1
0.0913664 -0.06398533 0.0890161 1 0 1
0.09103986 -0.06095717 0.08617138 1 0 1
0.09104118 -0.05863394 0.08394884 1 0 1
0.09174378 -0.05771499 0.08295847 1 0 1
0.09207141 -0.05609382 0.08135539 1 0 1
0.09238283 -0.05447266 0.07975462 1 0 1
0.0923047 -0.05215246 0.07754645 1 0 1
0.09258014 -0.05053232 0.07595179 1 0 1
0.09283944 -0.04891241 0.07435967 1 0 1
0.09269837 -0.04659608 0.07216439 1 0 1
0.09292184 -0.04497762 0.07057883 1 0 1
0.09352072 -0.04405472 0.06959905 1 0 1
0.0933206 -0.04174213 0.06741601 1 0 1
0.09309722 -0.03943181 0.06523862 1 0 1
0.09325296 -0.03781634 0.06366576 1 0 1
0.09339271 -0.03620163 0.0620959 1 0 1
0.0935165 -0.03458762 0.06052907 1 0 1
0.09403742 -0.03366438 0.05955989 1 0 1
0.09496623 -0.03342919 0.05918405 1 0 1
0.09589339 -0.0331913 0.05880566 1 0 1
0.0959714 -0.03157642 0.05724436 1 0 1
0.09603355 -0.02996261 0.05568643 1 0 1
0.09651072 -0.02903514 0.05471899 1 0 1
0.09654479 -0.02742263 0.05316637 1 0 1
0.09656303 -0.02581134 0.05161725 1 0 1
0.09612404 -0.023519 0.04948904 1 0 1
0.09655225 -0.02259272 0.04852979 1 0 1
0.09652332 -0.02098551 0.04699156 1 0 1
0.09693068 -0.02005914 0.04603516 1 0 1
0.09687387 -0.0184539 0.04450294 1 0 1
0.09771943 -0.01820495 0.04412451 1 0 1
0.09856337 -0.01795349 0.04374374 1 0 1
0.09893965 -0.01702429 0.04278879 1 0 1
-0.1437003 -0.2181177 0.2647483 1 0 1
-0.1409592 -0.2165395 0.2629285 1 0 1
-0.1389568 -0.217023 0.2631469 1 0 1
-0.1364818 -0.2161176 0.2619943 1 0 1
-0.1340204 -0.2152031 0.2608342 1 0 1
-0.1315725 -0.2142796 0.2596666 1 0 1
-0.1295862 -0.2147363 0.2598593 1 0 1
-0.1271579 -0.2137968 0.2586779 1 0 1
-0.1251759 -0.214241 0.2588584 1 0 1
-0.1234047 -0.2153769 0.2597177 1 0 1
-0.1214157 -0.2158111 0.2598869 1 0 1
-0.1194251 -0.21624 0.2600501 1 0 1
-0.1172321 -0.2159639 0.2595219 1 0 1
-0.1150452 -0.2156809 0.2589872 1 0 1
-0.1126715 -0.2146897 0.2577599 1 0 1
-0.110501 -0.214392 0.2572123 1 0 1
-0.1081513 -0.2133845 0.2559716 1 0 1
-0.1059974 -0.2130722 0.2554112 1 0 1
-0.1038499 -0.212753 0.2548446 1 0 1
-0.1018827 -0.2131319 0.2549594 1 0 1
-0.1000842 -0.2142112 0.2557562 1 0 1
-0.09827676 -0.2152867 0.2565477 1 0 1
-0.09678496 -0.2177726 0.2587104 1 0 1
-0.09495185 -0.2188415 0.2594916 1 0 1
-0.09264613 -0.2177808 0.2582017 1 0 1
-0.09080679 -0.2188397 0.2589716 1 0 1
-0.08866504 -0.2184747 0.2583582 1 0 1
-0.0865299 -0.2181029 0.2577389 1 0 1
-0.08440149 -0.2177244 0.2571135 1 0 1
-0.08255009 -0.218763 0.2578605 1 0 1
-0.08029617 -0.21766 0.2565341 1 0 1
-0.07843887 -0.2186883 0.2572697 1 0 1
-0.07632596 -0.2182851 0.2566209 1 0 1
-0.07421993 -0.2178753 0.2559662 1 0 1
-0.07212076 -0.2174589 0.2553055 1 0 1
-0.07002857 -0.217036 0.2546391 1 0 1
-0.0675118 -0.2137424 0.2512082 1 0 1
0.09053846 -0.06336693 0.08694958 1 0 1
0.09056093 -0.06103493 0.08473244 1 0 1
0.09127646 -0.06011386 0.08374427 1 0 1
0.09198305 -0.05919129 0.08275576 1 0 1
0.09268079 -0.05826709 0.08176681 1 0 1
0.0930003 -0.05663878 0.08016928 1 0 1
0.09255771 -0.05360699 0.07736028 1 0 1
0.09283759 -0.05198045 0.07577018 1 0 1
0.0927211 -0.04965395 0.07357837 1 0 1
0.09219738 -0.04662992 0.07078891 1 0 1
0.09280549 -0.0457053 0.06981216 1 0 1
0.0930137 -0.04408171 0.06823528 1 0 1
0.09320584 -0.04245864 0.06666114 1 0 1
0.09298368 -0.04014006 0.06449247 1 0 1
0.09314021 -0.03851902 0.06292553 1 0 1
0.09287528 -0.03620441 0.06076699 1 0 1
0.09340534 -0.03527914 0.05980065 1 0 1
0.09392663 -0.03435293 0.05883456 1 0 1
0.09527162 -0.03480909 0.05904935 1 0 1
0.09578251 -0.03387927 0.05808096 1 0 1
0.09670799 -0.03363837 0.05770031 1 0 1
0.09677808 -0.03201709 0.0561453 1 0 1
0.09683227 -0.0303969 0.05459364 1 0 1
0.09643671 -0.02809091 0.05246249 1 0 1
0.09689329 -0.02716004 0.0515007 1 0 1
0.09601802 -0.0241735 0.04879973 1 0 1
0.09644665 -0.02324429 0.04784359 1 0 1
0.09597043 -0.02094847 0.04573443 1 0 1
0.09682625 -0.02070217 0.04535798 1 0 1
0.09677029 -0.01909138 0.04383164 1 0 1
0.09807438 -0.01952204 0.04402572 1 0 1
0.09845971 -0.01859031 0.0430731 1 0 1
0.09930195 -0.01833603 0.04269031 1 0 1
-0.1458999 -0.21901 0.2630371 1 0 1
-0.1429013 -0.2167411 0.2605537 1 0 1
-0.140418 -0.2158446 0.2594189 1 0 1
-0.1384274 -0.2163259 0.2596355 1 0 1
-0.1359635 -0.215413 0.2584866 1 0 1
-0.133513 -0.2144911 0.2573303 1 0 1
-0.1310761 -0.2135603 0.2561666 1 0 1
-0.1288772 -0.2133177 0.2556767 1 0 1
-0.1262434 -0.211672 0.2538176 1 0 1
-0.1242808 -0.2121125 0.2539957 1 0 1
-0.1227422 -0.2139469 0.255532 1 0 1
-0.1205599 -0.2136778 0.255017 1 0 1
-0.1181785 -0.2127003 0.2538129 1 0 1
-0.1164149 -0.2138208 0.2546507 1 0 1
-0.1142472 -0.2135316 0.2541168 1 0 1
-0.1116987 -0.2118278 0.2522098 1 0 1
-0.1095512 -0.2115232 0.2516628 1 0 1
-0.1074101 -0.2112117 0.2511097 1 0 1
-0.1052753 -0.2108933 0.2505504 1 0 1
-0.103147 -0.2105681 0.249985 1 0 1
-0.1013736 -0.2116515 0.2507829 1 0 1
-0.09976173 -0.2134394 0.2522606 1 0 1
-0.09813311 -0.2152249 0.2537334 1 0 1
-0.09665042 -0.2177177 0.2558867 1 0 1
-0.09482571 -0.2187883 0.2566642 1 0 1
-0.09268219 -0.2184326 0.256065 1 0 1
-0.09069634 -0.2187819 0.2561454 1 0 1
-0.08856217 -0.2184133 0.2555343 1 0 1
-0.08629145 -0.2173249 0.2542309 1 0 1
-0.08417458 -0.2169421 0.2536075 1 0 1
-0.08219996 -0.2172673 0.2536646 1 0 1
-0.07996109 -0.2161569 0.252343 1 0 1
-0.07824776 -0.2179016 0.2537617 1 0 1
-0.07602256 -0.2167779 0.2524284 1 0 1
-0.07405189 -0.2170803 0.2524625 1 0 1
-0.0720804 -0.2173774 0.252491 1 0 1
-0.0698837 -0.2162329 0.2511401 1 0 1
-0.06683575 -0.2093311 0.2442887 1 0 1
0.09041265 -0.06415252 0.08611518 1 0 1
0.09079052 -0.06252054 0.08451743 1 0 1
0.09115217 -0.06088833 0.08292173 1 0 1
0.09258228 -0.06137634 0.08315247 1 0 1
0.09292243 -0.05974169 0.08155729 1 0 1
0.09287747 -0.05740179 0.07935894 1 0 1
0.09280907 -0.05506359 0.07716561 1 0 1
0.09309337 -0.0534307 0.07558013 1 0 1
0.09222213 -0.04968945 0.07219278 1 0 1
0.09246329 -0.0480595 0.07061644 1 0 1
0.09268834 -0.0464299 0.06904275 1 0 1
0.09289735 -0.04480076 0.06747179 1 0 1
0.09269603 -0.04247252 0.06530759 1 0 1
0.09247149 -0.0401466 0.06314906 1 0 1
0.09262524 -0.03852088 0.06158939 1 0 1
0.09276298 -0.03689585 0.06003276 1 0 1
0.09329341 -0.03596771 0.05906958 1 0 1
0.09381508 -0.03503855 0.0581066 1 0 1
0.09515957 -0.03549708 0.0583189 1 0 1
0.09609023 -0.03525768 0.05793969 1 0 1
0.09659629 -0.03432314 0.05697333 1 0 1
0.09666716 -0.03269631 0.05542425 1 0 1
0.09672223 -0.03107056 0.05387854 1 0 1
0.09632789 -0.02875639 0.05175612 1 0 1
0.09634776 -0.02713392 0.05021879 1 0 1
0.09591127 -0.02482521 0.04810794 1 0 1
0.09634025 -0.02389303 0.04715492 1 0 1
0.09631292 -0.02227473 0.0456285 1 0 1
0.09672108 -0.02134246 0.04467836 1 0 1
0.09712058 -0.02040972 0.04372888 1 0 1
0.09796958 -0.02015909 0.04334955 1 0 1
0.09835524 -0.01922444 0.04240008 1 0 1
0.09919746 -0.01896985 0.04201759 1 0 1
-0.1480308 -0.2138489 0.2556784 1 0 1
-0.1463107 -0.215043 0.2565916 1 0 1
-0.1448324 -0.2169268 0.2581752 1 0 1
-0.141604 -0.213949 0.2550245 1 0 1
-0.1398745 -0.2151279 0.2559207 1 0 1
-0.1381356 -0.2163033 0.256812 1 0 1
-0.1356789 -0.2153839 0.2556673 1 0 1
-0.1332356 -0.2144554 0.2545152 1 0 1
-0.1310344 -0.214217 0.2540337 1 0 1
-0.1288393 -0.2139715 0.2535456 1 0 1
-0.1262084 -0.2123176 0.2516941 1 0 1
-0.124467 -0.2134592 0.2525502 1 0 1
-0.1225031 -0.2138948 0.2527219 1 0 1
-0.120119 -0.2129187 0.251529 1 0 1
-0.1177488 -0.211934 0.2503291 1 0 1
-0.115594 -0.2116455 0.2498024 1 0 1
-0.1128521 -0.2092332 0.2472282 1 0 1
-0.1107213 -0.2089285 0.2466882 1 0 1
-0.108597 -0.2086169 0.2461419 1 0 1
-0.1066652 -0.2090066 0.2462708 1 0 1
-0.104732 -0.209391 0.2463941 1 0 1
-0.102976 -0.2104798 0.2471934 1 0 1
-0.1010364 -0.2108544 0.2473057 1 0 1
-0.09960787 -0.2133569 0.2494587 1 0 1
-0.09782104 -0.2144349 0.2502427 1 0 1
-0.09635141 -0.2169339 0.2523864 1 0 1
-0.09469812 -0.2187187 0.2538427 1 0 1
-0.09271759 -0.2190732 0.2539285 1 0 1
-0.09058448 -0.2187078 0.2533253 1 0 1
-0.08845796 -0.2183356 0.2527162 1 0 1
-0.08619451 -0.2172409 0.2514179 1 0 1
-0.08408532 -0.2168546 0.2507966 1 0 1
-0.08225463 -0.2178961 0.2515367 1 0 1
-0.08015119 -0.2174979 0.2509039 1 0 1
-0.07831075 -0.2185299 0.2516328 1 0 1
-0.07608894 -0.2174007 0.2503047 1 0 1
-0.07400213 -0.2169833 0.2496545 1 0 1
-0.07192227 -0.2165594 0.2489986 1 0 1
-0.06973674 -0.2154081 0.2476529 1 0 1
-0.06604521 -0.2041504 0.2367255 1 0 1
0.09203675 -0.06849287 0.08832323 1 0 1
0.09137231 -0.06471899 0.08490156 1 0 1
0.09209955 -0.06378992 0.08391585 1 0 1
0.09281783 -0.06285921 0.08292969 1 0 1
0.09316242 -0.06121827 0.0813392 1 0 1
0.09312234 -0.0588695 0.07914834 1 0 1
0.09268668 -0.05581515 0.07636111 1 0 1
0.09297179 -0.05417673 0.0747816 1 0 1
0.09248202 -0.05112754 0.07200733 1 0 1
0.0919616 -0.04808186 0.06924102 1 0 1
0.09218381 -0.04644753 0.06767462 1 0 1
0.09199977 -0.04411067 0.06551643 1 0 1
0.09179248 -0.04177596 0.06336374 1 0 1
0.09156196 -0.03944359 0.06121675 1 0 1
0.09211033 -0.03851451 0.06025627 1 0 1
0.09264992 -0.03758442 0.05929594 1 0 1
0.09318071 -0.03665333 0.0583359 1 0 1
0.09411455 -0.03641909 0.05796217 1 0 1
0.09504675 -0.03618213 0.05758588 1 0 1
0.09597734 -0.03594245 0.05720698 1 0 1
0.09606134 -0.03430995 0.05566199 1 0 1
0.09570345 -0.03198439 0.05354005 1 0 1
0.09618177 -0.03104813 0.05258203 1 0 1
0.09535203 -0.02803458 0.04989251 1 0 1
0.09536565 -0.02640855 0.04836417 1 0 1
0.09536355 -0.0247839 0.04683938 1 0 1
0.0957894 -0.0238498 0.04589102 1 0 1
0.09575938 -0.02222691 0.04437206 1 0 1
0.09661511 -0.02198002 0.04399627 1 0 1
0.097015 -0.02104436 0.04304996 1 0 1
0.09786394 -0.02079344 0.04267099 1 0 1
0.09825003 -0.01985586 0.04172462 1 0 1
0.09909216 -0.01960099 0.04134249 1 0 1
-0.1522352 -0.2088283 0.2487727 1 0 1
-0.1524279 -0.2148763 0.2543894 1 0 1
-0.1504529 -0.2153901 0.2546391 1 0 1
-0.1471792 -0.2124283 0.2515251 1 0 1
-0.1459861 -0.2150117 0.2537771 1 0 1
-0.143006 -0.2127237 0.2513185 1 0 1
-0.1407983 -0.2125135 0.2508695 1 0 1
-0.1390846 -0.2136919 0.2517607 1 0 1
-0.1371213 -0.214168 0.2519731 1 0 1
-0.1351562 -0.2146387 0.2521798 1 0 1
-0.1327241 -0.213703 0.2510317 1 0 1
-0.1305343 -0.2134598 0.2505512 1 0 1
-0.1283505 -0.2132096 0.2500643 1 0 1
-0.126394 -0.2136555 0.2502466 1 0 1
-0.1240011 -0.2126879 0.2490712 1 0 1
-0.122049 -0.2131215 0.2492415 1 0 1
-0.1200953 -0.2135497 0.249406 1 0 1
-0.1175226 -0.2118528 0.2475339 1 0 1
-0.1149714 -0.2101457 0.2456544 1 0 1
-0.1124419 -0.2084284 0.2437675 1 0 1
-0.1101283 -0.20741 0.242551 1 0 1
-0.1078288 -0.2063833 0.241328 1 0 1
-0.1061032 -0.2074803 0.2421335 1 0 1
-0.1043685 -0.2085735 0.2429339 1 0 1
-0.1026248 -0.209663 0.2437292 1 0 1
-0.100872 -0.2107487 0.2445194 1 0 1
-0.09962375 -0.2139717 0.2473422 1 0 1
-0.09800877 -0.2157664 0.2488022 1 0 1
-0.0965405 -0.2182738 0.2509368 1 0 1
-0.09456915 -0.2186327 0.2510274 1 0 1
-0.09275234 -0.2197028 0.2517923 1 0 1
-0.09062297 -0.2193344 0.2511914 1 0 1
-0.08850029 -0.2189594 0.2505846 1 0 1
-0.08638429 -0.2185776 0.2499719 1 0 1
-0.08427497 -0.2181892 0.2493531 1 0 1
-0.08230869 -0.2185139 0.2494092 1 0 1
-0.08007661 -0.2173923 0.248098 1 0 1
-0.07811619 -0.2177051 0.2481425 1 0 1
-0.07590554 -0.2165691 0.2468195 1 0 1
-0.07383029 -0.2161476 0.2461716 1 0 1
-0.071762 -0.2157196 0.245518 1 0 1
-0.06947482 -0.2138384 0.2434965 1 0 1
-0.06568404 -0.2018124 0.2319332 1 0 1
0.09371851 -0.07049222 0.0882964 1 0 1
0.09268646 -0.0659912 0.08428631 1 0 1
0.09341242 -0.0650561 0.08330072 1 0 1
0.09340072 -0.06269685 0.08111252 1 0 1
0.09336551 -0.06033907 0.07892914 1 0 1
0.0929352 -0.05727322 0.07615228 1 0 1
0.09322468 -0.05562847 0.07457741 1 0 1
0.09236122 -0.05185961 0.07121765 1 0 1
0.09184252 -0.04880316 0.06846292 1 0 1
0.09167939 -0.04645688 0.06630943 1 0 1
0.09188275 -0.0448183 0.06475311 1 0 1
0.09088987 -0.04106586 0.06142855 1 0 1
0.0914474 -0.04013495 0.06047105 1 0 1
0.0919961 -0.03920298 0.05951368 1 0 1
0.09294025 -0.03897216 0.05914269 1 0 1
0.09347502 -0.03803729 0.0581843 1 0 1
0.09441235 -0.03780187 0.05780948 1 0 1
0.09534805 -0.0375637 0.05743209 1 0 1
0.0958637 -0.03662422 0.05647168 1 0 1
0.0959485 -0.03498623 0.05493267 1 0 1
0.09559187 -0.03265256 0.05281948 1 0 1
0.09564142 -0.03101765 0.05128863 1 0 1
0.09480982 -0.02799432 0.04861222 1 0 1
0.09525692 -0.02705758 0.0476643 1 0 1
0.09525564 -0.02542737 0.04614546 1 0 1
0.09612512 -0.02518226 0.04577022 1 0 1
0.09609948 -0.02355288 0.04425569 1 0 1
0.09695864 -0.02330466 0.04387871 1 0 1
0.09736244 -0.02236507 0.04293398 1 0 1
0.09775753 -0.02142503 0.04198999 1 0 1
0.09814402 -0.02048456 0.04104675 1 0 1
0.0989861 -0.02022935 0.040665 1 0 1
-0.1562963 -0.2091185 0.2468031 1 0 1
-0.1529835 -0.2061775 0.2437313 1 0 1
-0.1516042 -0.208077 0.2453201 1 0 1
-0.1515441 -0.2134486 0.2502443 1 0 1
-0.1501115 -0.2153505 0.251828 1 0 1
-0.146844 -0.2123744 0.2487265 1 0 1
-0.1443803 -0.2114762 0.2476225 1 0 1
-0.1426862 -0.2126645 0.2485198 1 0 1
-0.1407344 -0.21315 0.2487423 1 0 1
-0.1387807 -0.2136301 0.248959 1 0 1
-0.1365846 -0.2134036 0.2484991 1 0 1
-0.1346313 -0.2138721 0.2487039 1 0 1
-0.1326762 -0.2143354 0.2489032 1 0 1
-0.130261 -0.2133852 0.2477525 1 0 1
-0.1280848 -0.2131311 0.2472671 1 0 1
-0.1261363 -0.2135758 0.2474481 1 0 1
-0.1235328 -0.211895 0.245604 1 0 1
-0.1211648 -0.2109115 0.2444257 1 0 1
-0.1190205 -0.2106277 0.2439143 1 0 1
-0.1162638 -0.2082092 0.2413743 1 0 1
-0.1137388 -0.206489 0.2395006 1 0 1
-0.1114339 -0.2054694 0.2382944 1 0 1
-0.1095324 -0.205865 0.2384315 1 0 1
-0.1076294 -0.2062553 0.2385631 1 0 1
-0.1059122 -0.2073538 0.2393648 1 0 1
-0.1041858 -0.2084485 0.2401614 1 0 1
-0.1026298 -0.2102544 0.2416289 1 0 1
-0.1008815 -0.2113425 0.2424155 1 0 1
-0.09963893 -0.2145756 0.2452262 1 0 1
-0.09802882 -0.2163752 0.2466798 1 0 1
-0.09656585 -0.2188902 0.2488053 1 0 1
-0.09475858 -0.2199673 0.2495722 1 0 1
-0.09278638 -0.2203213 0.2496566 1 0 1
-0.09050865 -0.2192303 0.2483807 1 0 1
-0.08854193 -0.2195721 0.2484535 1 0 1
-0.08628533 -0.2184663 0.2471654 1 0 1
-0.08418366 -0.2180744 0.2465489 1 0 1
-0.08195215 -0.2169532 0.2452486 1 0 1
-0.07986795 -0.2165474 0.2446203 1 0 1
-0.07766169 -0.2154113 0.2433082 1 0 1
-0.07559507 -0.2149917 0.2426683 1 0 1
-0.07353531 -0.2145656 0.2420226 1 0 1
-0.07148249 -0.2141329 0.2413713 1 0 1
-0.06943659 -0.2136939 0.2407143 1 0 1
0.09358716 -0.07128581 0.0874334 1 0 1
0.09327083 -0.06819956 0.08464245 1 0 1
0.09400448 -0.06726009 0.08365745 1 0 1
0.09363737 -0.06417729 0.08087721 1 0 1
0.09360705 -0.06181065 0.07870141 1 0 1
0.09355321 -0.05944559 0.07653049 1 0 1
0.09347592 -0.05708224 0.07436472 1 0 1
0.09223974 -0.05258849 0.07042513 1 0 1
0.09210479 -0.0502312 0.06827371 1 0 1
0.09117504 -0.0464578 0.06494714 1 0 1
0.09098623 -0.04410634 0.0628093 1 0 1
0.09077416 -0.04175713 0.06067706 1 0 1
0.09133201 -0.04082328 0.05972268 1 0 1
