ply
format ascii 1.0
Comment Generated by Floating Hands
element vertex 1120
property double x
property double y
property double z
property uchar red
property uchar green
property uchar blue
end_header
-0.1240757 -0.06123164 0.1802532 255 0 255
-0.1233026 -0.06186319 0.1814466 255 0 255
-0.1221808 -0.06206924 0.1817992 255 0 255
-0.1210575 -0.06227284 0.182148 255 0 255
-0.1172745 -0.05906758 0.1757603 255 0 255
0.07786942 -0.04673363 0.1572943 255 0 255
0.07959757 -0.04733942 0.1586474 255 0 255
0.07916791 -0.04546888 0.1549742 255 0 255
0.07980391 -0.04483568 0.1538126 255 0 255
0.08006194 -0.04379179 0.1518161 255 0 255
0.07993098 -0.04233975 0.1489883 255 0 255
-0.1395399 -0.05505797 0.166613 255 0 255
-0.1376694 -0.05447141 0.1653905 255 0 255
-0.1366155 -0.05470973 0.165791 255 0 255
-0.1355598 -0.0549458 0.166188 255 0 255
-0.1345024 -0.05517953 0.1665815 255 0 255
-0.1338343 -0.05582867 0.1677915 255 0 255
-0.1331573 -0.05647701 0.1690006 255 0 255
-0.1324714 -0.05712463 0.1702088 255 0 255
-0.1310163 -0.05693146 0.1697678 255 0 255
-0.1303198 -0.05757593 0.1709713 255 0 255
-0.1288687 -0.0573766 0.1705205 255 0 255
-0.1281616 -0.0580179 0.1717193 255 0 255
-0.1270801 -0.05823537 0.1720879 255 0 255
-0.1263588 -0.05887424 0.1732833 255 0 255
-0.1256286 -0.05951217 0.1744774 255 0 255
-0.124535 -0.05972403 0.1748375 255 0 255
-0.1237906 -0.06035939 0.1760279 255 0 255
-0.1230373 -0.06099377 0.1772171 255 0 255
-0.1222751 -0.06162714 0.1784049 255 0 255
-0.1215039 -0.0622595 0.1795913 255 0 255
-0.1200518 -0.06203362 0.1790989 255 0 255
-0.1162798 -0.05879912 0.1727217 255 0 255
-0.1122371 -0.05512177 0.1654817 255 0 255
0.07998444 -0.04870477 0.1590008 255 0 255
0.07919624 -0.04640394 0.1544991 255 0 255
0.0794667 -0.04535244 0.1525061 255 0 255
0.08009031 -0.0447157 0.1513467 255 0 255
0.08033213 -0.04366571 0.1493554 255 0 255
-0.1391359 -0.05564512 0.1652855 255 0 255
-0.1376744 -0.05546922 0.1648778 255 0 255
-0.1362183 -0.05528939 0.1644637 255 0 255
-0.135166 -0.05552511 0.1648591 255 0 255
-0.1341121 -0.05575855 0.1652509 255 0 255
-0.1334475 -0.05641074 0.1664576 255 0 255
-0.132774 -0.05706226 0.1676634 255 0 255
-0.1317078 -0.05729035 0.1680472 255 0 255
-0.13102 -0.05793951 0.1692497 255 0 255
-0.1299469 -0.05816373 0.1696276 255 0 255
-0.1288721 -0.05838555 0.1700018 255 0 255
-0.1281649 -0.05903079 0.1711987 255 0 255
-0.1267176 -0.05882229 0.1707396 255 0 255
-0.125638 -0.05903715 0.1711031 255 0 255
-0.124915 -0.05967752 0.1722927 255 0 255
-0.1241831 -0.06031697 0.1734812 255 0 255
-0.1234422 -0.06095552 0.1746684 255 0 255
-0.1226925 -0.06159307 0.1758543 255 0 255
-0.1219337 -0.06222965 0.1770389 255 0 255
-0.1211661 -0.0628652 0.1782222 255 0 255
-0.1203895 -0.0634997 0.179404 255 0 255
-0.118275 -0.06240228 0.1772322 255 0 255
-0.1165098 -0.06173185 0.175889 255 0 255
0.07850006 -0.0464997 0.1523546 255 0 255
0.07912881 -0.04586041 0.1511994 255 0 255
0.0797488 -0.04522062 0.1500432 255 0 255
0.08035999 -0.0445804 0.1488861 255 0 255
-0.1399587 -0.05748465 0.1663871 255 0 255
-0.1376786 -0.05646496 0.1643612 255 0 255
-0.1362224 -0.0562822 0.1639486 255 0 255
-0.13517 -0.05651841 0.1643437 255 0 255
-0.1341158 -0.05675235 0.1647353 255 0 255
-0.1330601 -0.05698393 0.1651233 255 0 255
-0.1320026 -0.05721324 0.1655077 255 0 255
-0.1313273 -0.05786629 0.1667078 255 0 255
-0.1302629 -0.05809176 0.1670865 255 0 255
-0.1295734 -0.0587425 0.1682834 255 0 255
-0.1285021 -0.05896407 0.1686561 255 0 255
-0.1277983 -0.0596124 0.1698496 255 0 255
-0.1263546 -0.05940019 0.1693908 255 0 255
-0.1252785 -0.05961477 0.1697528 255 0 255
-0.1242009 -0.05982701 0.1701112 255 0 255
-0.1234761 -0.0604689 0.1712952 255 0 255
-0.1227425 -0.06110988 0.1724779 255 0 255
-0.1219999 -0.06174991 0.1736595 255 0 255
-0.1215919 -0.0628231 0.1756725 255 0 255
-0.1204881 -0.06302702 0.1760186 255 0 255
-0.1200548 -0.06409954 0.1780313 255 0 255
-0.1186083 -0.06386386 0.177536 255 0 255
-0.116182 -0.06231399 0.1745224 255 0 255
0.08051518 -0.04697818 0.1512256 255 0 255
0.08113375 -0.0463324 0.1500681 255 0 255
-0.1403717 -0.05891181 0.1666696 255 0 255
-0.1380879 -0.05788324 0.1646501 255 0 255
-0.1362259 -0.0572729 0.1634296 255 0 255
-0.1351733 -0.0575096 0.1638244 255 0 255
-0.1337243 -0.05731688 0.1634022 255 0 255
-0.132672 -0.05754817 0.1637886 255 0 255
-0.131618 -0.05777715 0.1641715 255 0 255
-0.1309462 -0.0584333 0.1653682 255 0 255
-0.1298853 -0.05865845 0.1657453 255 0 255
-0.1291992 -0.05931232 0.1669388 255 0 255
-0.1285043 -0.05996538 0.1681314 255 0 255
-0.1274312 -0.06018505 0.1685002 255 0 255
-0.1263565 -0.06040239 0.1688655 255 0 255
-0.1252803 -0.06061743 0.1692273 255 0 255
-0.1242024 -0.06083008 0.1695853 255 0 255
-0.1234776 -0.06147586 0.1707673 255 0 255
-0.1227438 -0.06212069 0.171948 255 0 255
-0.1216539 -0.06232772 0.1722977 255 0 255
-0.1212494 -0.06340752 0.1743057 255 0 255
-0.1204889 -0.06404943 0.1754826 255 0 255
-0.1200554 -0.06512921 0.1774914 255 0 255
-0.118941 -0.06533012 0.1778321 255 0 255
-0.1178252 -0.06552859 0.178169 255 0 255
-0.116383 -0.06528375 0.1776656 255 0 255
0.07735326 -0.04557587 0.1461015 255 0 255
0.0794334 -0.04662806 0.1482629 255 0 255
0.08078761 -0.04682704 0.1487625 255 0 255
-0.1403749 -0.05991637 0.1661384 255 0 255
-0.1380909 -0.05887811 0.164124 255 0 255
-0.1366307 -0.05869037 0.1637158 255 0 255
-0.1355743 -0.05892835 0.1641116 255 0 255
-0.1341216 -0.05873355 0.1636923 255 0 255
-0.1326744 -0.05853476 0.1632667 255 0 255
-0.1320077 -0.05919635 0.1644636 255 0 255
-0.1309483 -0.05942429 0.164844 255 0 255
-0.1298872 -0.05964988 0.1652208 255 0 255
-0.129201 -0.06030761 0.1664122 255 0 255
-0.1281331 -0.06052934 0.1667832 255 0 255
-0.1274327 -0.06118468 0.1679713 255 0 255
-0.1263579 -0.06140245 0.1683363 255 0 255
-0.1252815 -0.06161793 0.1686978 255 0 255
-0.1242035 -0.06183105 0.1690556 255 0 255
-0.1231239 -0.0620418 0.1694098 255 0 255
-0.1220429 -0.06225021 0.1697604 255 0 255
-0.1209603 -0.06245628 0.1701075 255 0 255
-0.1202196 -0.06310095 0.1712801 255 0 255
-0.1201494 -0.06462797 0.1741121 255 0 255
-0.1193835 -0.065272 0.1752844 255 0 255
-0.1186087 -0.065915 0.1764552 255 0 255
-0.1184821 -0.06744426 0.1792922 255 0 255
-0.1183316 -0.06897507 0.1821321 255 0 255
0.07835059 -0.04625553 0.1453074 255 0 255
0.08193435 -0.04901865 0.1507522 255 0 255
-0.1403775 -0.06091877 0.1656032 255 0 255
-0.1380933 -0.05987086 0.1635939 255 0 255
-0.1366329 -0.05968019 0.1631872 255 0 255
-0.1351781 -0.05948558 0.1627743 255 0 255
-0.1341235 -0.05972094 0.163165 255 0 255
-0.1326762 -0.05951926 0.1627409 255 0 255
-0.1316218 -0.0597492 0.1631232 255 0 255
-0.1305659 -0.0599768 0.163502 255 0 255
-0.1298885 -0.06063917 0.1646923 255 0 255
-0.1288257 -0.06086293 0.1650653 255 0 255
-0.1281341 -0.06152292 0.1662524 255 0 255
-0.1274336 -0.06218215 0.1674384 255 0 255
-0.1263586 -0.06240037 0.1678032 255 0 255
-0.1249202 -0.06217544 0.1673429 255 0 255
-0.1238458 -0.06238828 0.1676993 255 0 255
-0.1227698 -0.06259877 0.1680521 255 0 255
-0.1216922 -0.06280687 0.1684012 255 0 255
-0.1209603 -0.06345635 0.169573 255 0 255
-0.119876 -0.06366049 0.1699162 255 0 255
-0.1198094 -0.06519748 0.1727414 255 0 255
-0.1190471 -0.06584467 0.1739104 255 0 255
-0.1186081 -0.06693727 0.1759089 255 0 255
-0.1167065 -0.06777992 0.177409 255 0 255
0.08121379 -0.04907946 0.1486172 255 0 255
-0.1403794 -0.06191896 0.1650641 255 0 255
-0.1376895 -0.06042655 0.162256 255 0 255
-0.1362326 -0.0602322 0.1618494 255 0 255
-0.1351796 -0.06047037 0.1622434 255 0 255
-0.1341249 -0.06070619 0.1626338 255 0 255
-0.1326773 -0.06050159 0.1622113 255 0 255
-0.1316229 -0.06073201 0.1625933 255 0 255
-0.1305668 -0.06096009 0.1629718 255 0 255
-0.1298893 -0.06162629 0.16416 255 0 255
-0.1288264 -0.06185051 0.1645328 255 0 255
-0.1277617 -0.0620724 0.1649019 255 0 255
-0.1270647 -0.06273466 0.1660845 255 0 255
-0.1259933 -0.0629526 0.1664478 255 0 255
-0.1249203 -0.06316822 0.1668075 255 0 255
-0.1238457 -0.06338149 0.1671636 255 0 255
-0.1227695 -0.06359238 0.1675161 255 0 255
-0.1216919 -0.06380096 0.167865 255 0 255
-0.1206127 -0.06400716 0.1682103 255 0 255
-0.1198754 -0.0646588 0.1693776 255 0 255
-0.1194689 -0.06575795 0.1713703 255 0 255
-0.1183741 -0.06595913 0.1717082 255 0 255
-0.1176101 -0.0666078 0.1728716 255 0 255
-0.1165087 -0.06680486 0.1732033 255 0 255
-0.1399715 -0.06247958 0.1637203 255 0 255
-0.1376906 -0.06141157 0.16172 255 0 255
-0.1362336 -0.0612143 0.161315 255 0 255
-0.1351804 -0.06145294 0.1617087 255 0 255
-0.1341256 -0.06168926 0.1620988 255 0 255
-0.1326779 -0.06148178 0.1616778 255 0 255
-0.1316234 -0.06171265 0.1620595 255 0 255
-0.1305672 -0.06194118 0.1624377 255 0 255
-0.1298895 -0.06261126 0.1636239 255 0 255
-0.1288263 -0.06283594 0.1639963 255 0 255
-0.1281345 -0.06350363 0.1651792 255 0 255
-0.1270645 -0.06372438 0.1655457 255 0 255
-0.1259929 -0.06394278 0.1659087 255 0 255
-0.1249197 -0.06415881 0.1662681 255 0 255
-0.123845 -0.06437252 0.1666239 255 0 255
-0.1231232 -0.06503296 0.1677964 255 0 255
-0.1216909 -0.06479286 0.1673249 255 0 255
-0.1202645 -0.06454898 0.1668474 255 0 255
-0.1195307 -0.06520376 0.1680114 255 0 255
-0.1191278 -0.06630945 0.169999 255 0 255
-0.1183726 -0.06696292 0.1711616 255 0 255
-0.1172762 -0.06716213 0.1714956 255 0 255
-0.1174925 -0.06917459 0.175139 255 0 255
-0.1391537 -0.06259051 0.1615773 255 0 255
-0.1372855 -0.0619528 0.1603798 255 0 255
-0.135832 -0.06175182 0.159975 255 0 255
-0.1347823 -0.06199015 0.160367 255 0 255
-0.1337309 -0.06222613 0.1607555 255 0 255
-0.1326779 -0.06245976 0.1611405 255 0 255
-0.1316232 -0.06269112 0.161522 255 0 255
-0.1305669 -0.06292011 0.1618999 255 0 255
-0.1298891 -0.06359404 0.1630839 255 0 255
-0.1288258 -0.06381915 0.163456 255 0 255
-0.1281338 -0.06449068 0.1646367 255 0 255
-0.1270637 -0.06471188 0.165003 255 0 255
-0.1259919 -0.06493072 0.1653657 255 0 255
-0.1249187 -0.06514723 0.1657249 255 0 255
-0.1234856 -0.06490961 0.1652634 255 0 255
-0.1224129 -0.0651207 0.1656142 255 0 255
-0.1216894 -0.06578257 0.1667809 255 0 255
-0.1202629 -0.06553574 0.1663051 255 0 255
-0.119529 -0.06619431 0.1674669 255 0 255
-0.1194656 -0.06776249 0.1702735 255 0 255
-0.1187065 -0.06842045 0.1714351 255 0 255
-0.1179385 -0.06907742 0.1725953 255 0 255
-0.1181473 -0.0711052 0.1762333 255 0 255
-0.1157262 -0.06947209 0.1732565 255 0 255
-0.1387445 -0.06312989 0.160235 255 0 255
-0.1368797 -0.06248514 0.1590396 255 0 255
-0.1350277 -0.06183467 0.1578351 255 0 255
-0.1343835 -0.06251842 0.1590253 255 0 255
-0.1333357 -0.06275405 0.1594122 255 0 255
-0.1322862 -0.06298739 0.1597955 255 0 255
-0.131235 -0.06321838 0.1601754 255 0 255
-0.130566 -0.06389686 0.1613582 255 0 255
-0.1295079 -0.064124 0.1617323 255 0 255
-0.1288247 -0.0648002 0.1629119 255 0 255
-0.1277597 -0.06502342 0.1632802 255 0 255
-0.1266931 -0.06524431 0.163645 255 0 255
-0.1256249 -0.06546286 0.1640062 255 0 255
-0.1245551 -0.06567904 0.1643638 255 0 255
-0.1234838 -0.06589289 0.1647179 255 0 255
-0.122411 -0.06610436 0.1650684 255 0 255
-0.1213366 -0.0663135 0.1654154 255 0 255
-0.1202607 -0.06652025 0.1657588 255 0 255
-0.1195267 -0.06718264 0.1669185 255 0 255
-0.1191235 -0.06830271 0.1688981 255 0 255
-0.118704 -0.06942317 0.1708787 255 0 255
-0.1179358 -0.0700839 0.1720368 255 0 255
-0.1178158 -0.07166498 0.1748425 255 0 255
-0.1157232 -0.07047942 0.1726974 255 0 255
-0.1383347 -0.06366035 0.1588925 255 0 255
-0.1360678 -0.06256026 0.1569026 255 0 255
-0.1346249 -0.06235103 0.1564969 255 0 255
-0.1335858 -0.06258783 0.1568843 255 0 255
-0.1325451 -0.06282231 0.1572681 255 0 255
-0.1315027 -0.06305449 0.1576485 255 0 255
-0.1308462 -0.06373671 0.1588288 255 0 255
-0.1301807 -0.06441824 0.1600081 255 0 255
-0.1291261 -0.06464506 0.1603806 255 0 255
-0.1284465 -0.06532425 0.1615568 255 0 255
-0.127385 -0.06554718 0.1619235 255 0 255
-0.1266911 -0.06622403 0.1630964 255 0 255
-0.1256228 -0.06644303 0.1634574 255 0 255
-0.1245529 -0.06665964 0.1638148 255 0 255
-0.1234815 -0.06687393 0.1641686 255 0 255
-0.1224085 -0.06708585 0.1645188 255 0 255
-0.121334 -0.06729538 0.1648655 255 0 255
-0.1199109 -0.06704193 0.1643917 255 0 255
-0.1191805 -0.0677074 0.1655482 255 0 255
-0.1184411 -0.06837191 0.1667034 255 0 255
-0.1183648 -0.06996088 0.169498 255 0 255
-0.1176003 -0.07062475 0.1706528 255 0 255
-0.1174839 -0.07221569 0.1734514 255 0 255
-0.1157197 -0.07148448 0.1721345 255 0 255
-0.11429 -0.07121359 0.1716342 255 0 255
-0.1379242 -0.06418191 0.1575501 255 0 255
-0.1356609 -0.0630714 0.1555641 255 0 255
-0.1338194 -0.06240603 0.1543626 255 0 255
-0.1327875 -0.06264165 0.154747 255 0 255
-0.131754 -0.06287499 0.1551279 255 0 255
-0.1307187 -0.06310599 0.1555053 255 0 255
-0.1300693 -0.06379046 0.1566808 255 0 255
-0.129411 -0.06447418 0.1578553 255 0 255
-0.1283636 -0.06469988 0.158225 255 0 255
-0.1276911 -0.06538133 0.1593964 255 0 255
-0.1266368 -0.06560317 0.1597603 255 0 255
-0.1259502 -0.06628229 0.1609286 255 0 255
-0.1248891 -0.06650019 0.1612868 255 0 255
-0.1241883 -0.0671769 0.1624516 255 0 255
-0.1231204 -0.06739086 0.162804 255 0 255
-0.122051 -0.06760249 0.1631528 255 0 255
-0.1209801 -0.06781173 0.163498 255 0 255
-0.1202547 -0.06848266 0.1646547 255 0 255
-0.1191771 -0.0686879 0.164994 255 0 255
-0.1184376 -0.06935618 0.166147 255 0 255
-0.1183612 -0.07095569 0.1689356 255 0 255
-0.1169321 -0.07068975 0.1684491 255 0 255
-0.1164944 -0.07182244 0.1704188 255 0 255
-0.1150661 -0.07155099 0.1699239 255 0 255
-0.1139648 -0.0717446 0.170246 255 0 255
-0.1379223 -0.06514867 0.156999 255 0 255
-0.1360645 -0.06448363 0.1558113 255 0 255
-0.1338174 -0.06335709 0.1538204 255 0 255
-0.132387 -0.06313654 0.153409 255 0 255
-0.131357 -0.06336952 0.1537883 255 0 255
-0.1303252 -0.06360018 0.1541642 255 0 255
-0.1296794 -0.06428763 0.1553361 255 0 255
-0.1290246 -0.06497437 0.1565071 255 0 255
-0.1279807 -0.06519974 0.1568752 255 0 255
-0.1269353 -0.06542279 0.1572399 255 0 255
-0.1266339 -0.06656791 0.1592102 255 0 255
-0.1255779 -0.06678786 0.1595704 255 0 255
-0.1245204 -0.06700546 0.159927 255 0 255
-0.1238232 -0.06768519 0.1610885 255 0 255
-0.123117 -0.06836407 0.1622489 255 0 255
-0.121693 -0.06811016 0.1617867 255 0 255
-0.1206257 -0.06831913 0.1621305 255 0 255
-0.1199039 -0.0689931 0.1632838 255 0 255
-0.1191732 -0.06966614 0.1644359 255 0 255
-0.1184336 -0.07033821 0.1655868 255 0 255
-0.118357 -0.07194822 0.1683694 255 0 255
-0.11726 -0.07214946 0.1687022 255 0 255
-0.1168185 -0.07328997 0.170669 255 0 255
-0.1157111 -0.07348774 0.1709967 255 0 255
-0.1142812 -0.07321092 0.1704998 255 0 255
-0.1379198 -0.06611322 0.1564442 255 0 255
-0.1356563 -0.0649837 0.154469 255 0 255
-0.1334127 -0.06384683 0.1524823 255 0 255
-0.1319859 -0.06362258 0.1520712 255 0 255
-0.1305646 -0.0633944 0.1516539 255 0 255
-0.1295401 -0.06362389 0.1520268 255 0 255
-0.1285139 -0.06385112 0.1523964 255 0 255
-0.1282538 -0.06500248 0.1543602 255 0 255
-0.1272171 -0.06522668 0.1547254 255 0 255
-0.1261789 -0.06544863 0.1550872 255 0 255
-0.1255119 -0.06613378 0.1562482 255 0 255
-0.124836 -0.06681821 0.1574083 255 0 255
-0.1237857 -0.06703472 0.1577622 255 0 255
-0.1230957 -0.06771675 0.1589191 255 0 255
-0.1220386 -0.06792937 0.1592672 255 0 255
-0.1209801 -0.06813962 0.1596119 255 0 255
-0.1202707 -0.06881756 0.160763 255 0 255
-0.1192055 -0.06902388 0.1611018 255 0 255
-0.1184821 -0.06969927 0.1622494 255 0 255
-0.1177498 -0.07037369 0.1633958 255 0 255
-0.1173445 -0.07151996 0.1653555 255 0 255
-0.1165907 -0.07219312 0.1665004 255 0 255
-0.1154996 -0.07239098 0.1668271 255 0 255
-0.1150565 -0.07353618 0.1687861 255 0 255
-0.112992 -0.07230405 0.1666506 255 0 255
-0.1077757 -0.06630389 0.1563038 255 0 255
-0.1375075 -0.06661469 0.1550979 255 0 255
-0.1352475 -0.06547489 0.153127 255 0 255
-0.1334095 -0.06479014 0.1519347 255 0 255
-0.1315842 -0.06409974 0.1507335 255 0 255
-0.1305612 -0.064332 0.1511096 255 0 255
-0.1291455 -0.06409702 0.1506878 255 0 255
-0.1285103 -0.06478962 0.1518514 255 0 255
-0.1278662 -0.06548153 0.1530141 255 0 255
-0.1268331 -0.06570542 0.1533778 255 0 255
-0.1257984 -0.06592702 0.1537381 255 0 255
-0.1255078 -0.06708407 0.1556963 255 0 255
-0.1244626 -0.06730258 0.1560522 255 0 255
-0.1237814 -0.06798922 0.1572079 255 0 255
-0.1227295 -0.06820384 0.157558 255 0 255
-0.1220341 -0.06888802 0.1587104 255 0 255
-0.1209754 -0.06909872 0.1590548 255 0 255
-0.120266 -0.06978042 0.1602037 255 0 255
-0.1192006 -0.06998713 0.1605422 255 0 255
-0.1188204 -0.07114106 0.162498 255 0 255
-0.1180843 -0.07181997 0.1636433 255 0 255
-0.1176752 -0.07297405 0.1656 255 0 255
-0.1165854 -0.07317475 0.1659301 255 0 255
-0.1158226 -0.07385056 0.1670714 255 0 255
-0.1150509 -0.07452535 0.1682114 255 0 255
-0.1129863 -0.0732835 0.1660815 255 0 255
-0.107453 -0.06676059 0.1549416 255 0 255
-0.1370946 -0.06710734 0.1537519 255 0 255
-0.1356492 -0.06688704 0.153359 255 0 255
-0.1334056 -0.06573123 0.1513833 255 0 255
-0.1315802 -0.06503468 0.1501857 255 0 255
-0.1301624 -0.06479995 0.1497704 255 0 255
-0.1291414 -0.06502952 0.1501414 255 0 255
-0.1281186 -0.06525686 0.1505091 255 0 255
-0.1274781 -0.06595173 0.1516683 255 0 255
-0.1264486 -0.06617529 0.1520304 255 0 255
-0.1254174 -0.06639653 0.1523891 255 0 255
-0.1247575 -0.06708768 0.1535432 255 0 255
-0.1237196 -0.0673051 0.1538963 255 0 255
-0.1230456 -0.06799395 0.1550472 255 0 255
-0.1223627 -0.068682 0.1561972 255 0 255
-0.1216709 -0.0693692 0.1573461 255 0 255
-0.1206159 -0.06957959 0.157689 255 0 255
-0.1202607 -0.070741 0.1596406 255 0 255
-0.1191952 -0.07094814 0.1599788 255 0 255
-0.1188149 -0.07210916 0.1619305 255 0 255
-0.1184183 -0.07327062 0.1638831 255 0 255
-0.1176695 -0.07395299 0.1650261 255 0 255
-0.1169117 -0.07463428 0.1661677 255 0 255
-0.1164735 -0.07579542 0.1681209 255 0 255
-0.1150448 -0.07551214 0.1676327 255 0 255
-0.1113753 -0.0718496 0.1614328 255 0 255
-0.1064953 -0.06624268 0.1519472 255 0 255
-0.1366811 -0.06759108 0.1524059 255 0 255
-0.1352393 -0.06736713 0.1520134 255 0 255
-0.1329992 -0.06620099 0.1500418 255 0 255
-0.1315757 -0.06596737 0.1496343 255 0 255
-0.1301578 -0.06572979 0.1492206 255 0 255
-0.1287456 -0.06548827 0.148801 255 0 255
-0.1277265 -0.06571525 0.149167 255 0 255
-0.1270894 -0.06641307 0.1503227 255 0 255
-0.1260635 -0.06663626 0.1506832 255 0 255
-0.1250359 -0.06685717 0.1510404 255 0 255
-0.1247523 -0.06802684 0.1529878 255 0 255
-0.1237143 -0.06824468 0.1533406 255 0 255
-0.1234057 -0.06941435 0.1552886 255 0 255
-0.1223572 -0.06962906 0.155637 255 0 255
-0.1216654 -0.07032003 0.1567837 255 0 255
-0.1206102 -0.07053081 0.1571263 255 0 255
-0.1199042 -0.0712193 0.1582696 255 0 255
-0.1188424 -0.07142612 0.1586065 255 0 255
-0.1184656 -0.07259349 0.1605527 255 0 255
-0.117733 -0.0732792 0.1616924 255 0 255
-0.1173273 -0.07444672 0.1636396 255 0 255
-0.1165732 -0.07513109 0.1647779 255 0 255
-0.1161385 -0.07629862 0.1667258 255 0 255
-0.1147135 -0.07601175 0.1662382 255 0 255
-0.1116897 -0.07329332 0.1616791 255 0 255
-0.1090267 -0.07105083 0.1579177 255 0 255
-0.1358579 -0.06759526 0.1502785 255 0 255
-0.1348287 -0.06783832 0.1506679 255 0 255
-0.1329941 -0.0671343 0.1494851 255 0 255
-0.1311723 -0.06642465 0.1482934 255 0 255
-0.129758 -0.06618338 0.1478801 255 0 255
-0.1287404 -0.06641306 0.1482493 255 0 255
-0.1273337 -0.06616479 0.1478253 255 0 255
-0.1267003 -0.06686559 0.1489774 255 0 255
-0.1256778 -0.06708844 0.1493364 255 0 255
-0.1246538 -0.06730896 0.149692 255 0 255
-0.124001 -0.06800606 0.150839 255 0 255
-0.1229703 -0.06822281 0.1511891 255 0 255
-0.1226689 -0.06939797 0.1531304 255 0 255
-0.1216277 -0.06961161 0.1534761 255 0 255
-0.1213011 -0.07078668 0.1554178 255 0 255
-0.1206039 -0.0714798 0.15656 255 0 255
-0.1195472 -0.07168865 0.1568989 255 0 255
-0.118489 -0.0718952 0.1572343 255 0 255
-0.1177725 -0.07258411 0.1583706 255 0 255
-0.1170472 -0.07327209 0.1595058 255 0 255
-0.116313 -0.07395912 0.1606398 255 0 255
-0.1155699 -0.07464513 0.1617724 255 0 255
-0.1151463 -0.07581768 0.1637127 255 0 255
-0.114057 -0.07601408 0.1640337 255 0 255
-0.1116827 -0.0742525 0.1611064 255 0 255
-0.1071165 -0.0690565 0.1524812 255 0 255
-0.1358523 -0.06853195 0.1497147 255 0 255
-0.1348231 -0.06877548 0.1501039 255 0 255
-0.1333903 -0.06854101 0.1497071 255 0 255
-0.1315648 -0.06782605 0.1485204 255 0 255
-0.1301468 -0.0675828 0.1481102 255 0 255
-0.1287345 -0.06733561 0.1476939 255 0 255
-0.1277152 -0.06756347 0.1480594 255 0 255
-0.1266942 -0.06778901 0.1484215 255 0 255
-0.1252917 -0.0675317 0.1479898 255 0 255
-0.1242713 -0.06775188 0.1483439 255 0 255
-0.1232493 -0.06796981 0.1486946 255 0 255
-0.1225949 -0.06866834 0.149836 255 0 255
-0.1219316 -0.06936611 0.1509765 255 0 255
-0.1216212 -0.07054754 0.1529125 255 0 255
-0.1212945 -0.07172962 0.15485 255 0 255
-0.1205972 -0.07242647 0.1559899 255 0 255
-0.1195403 -0.07263575 0.1563285 255 0 255
-0.118829 -0.07333004 0.157465 255 0 255
-0.1181087 -0.07402342 0.1586003 255 0 255
-0.11704 -0.07422704 0.1589307 255 0 255
-0.1166416 -0.07540727 0.1608671 255 0 255
-0.1158946 -0.0760977 0.1619987 255 0 255
-0.1151388 -0.07678709 0.1631288 255 0 255
-0.1146988 -0.07796697 0.1650658 255 0 255
-0.1136006 -0.07816266 0.1653851 255 0 255
-0.1109151 -0.0758916 0.1616496 255 0 255
-0.1350279 -0.06851187 0.1475918 255 0 255
-0.1344113 -0.06923226 0.148757 255 0 255
-0.1329821 -0.06899412 0.1483606 255 0 255
-0.1311602 -0.0682722 0.1471763 255 0 255
-0.1297458 -0.06802534 0.1467664 255 0 255
-0.1283371 -0.06777445 0.1463505 255 0 255
-0.126934 -0.06751968 0.1459286 255 0 255
-0.1259203 -0.06774405 0.1462878 255 0 255
-0.124905 -0.06796619 0.1466437 255 0 255
-0.1238882 -0.06818601 0.1469962 255 0 255
-0.1228698 -0.06840356 0.1473454 255 0 255
-0.122588 -0.06959126 0.1492753 255 0 255
-0.1219246 -0.07029272 0.1504135 255 0 255
-0.1212524 -0.07099344 0.1515508 255 0 255
-0.1209292 -0.07218182 0.1534827 255 0 255
-0.1198812 -0.0723924 0.1538222 255 0 255
-0.1188317 -0.0726006 0.1541582 255 0 255
-0.1181276 -0.0732972 0.1552901 255 0 255
-0.1174147 -0.07399284 0.1564208 255 0 255
-0.1163534 -0.07419545 0.1567487 255 0 255
-0.1159622 -0.0753813 0.1586785 255 0 255
-0.1155546 -0.07656754 0.1606094 255 0 255
-0.1144741 -0.07676577 0.1609312 255 0 255
-0.1146906 -0.07894102 0.1644738 255 0 255
-0.1135923 -0.07913712 0.1647929 255 0 255
-0.134203 -0.06847639 0.1454733 255 0 255
-0.1335936 -0.06919882 0.1466334 255 0 255
-0.1325734 -0.06943842 0.1470145 255 0 255
-0.1307551 -0.06870958 0.1458326 255 0 255
-0.1293443 -0.06845901 0.145423 255 0 255
-0.1279391 -0.06820448 0.1450075 255 0 255
-0.1269269 -0.06843158 0.1453698 255 0 255
-0.1259132 -0.06865642 0.1457287 255 0 255
-0.1248979 -0.06887897 0.1460843 255 0 255
-0.1238809 -0.06909922 0.1464365 255 0 255
-0.1232352 -0.06980593 0.1475742 255 0 255
-0.1225806 -0.07051191 0.148711 255 0 255
-0.1219171 -0.07121707 0.1498469 255 0 255
-0.1212448 -0.07192152 0.1509819 255 0 255
-0.1205635 -0.07262509 0.1521158 255 0 255
-0.1195191 -0.07283535 0.1524538 255 0 255
-0.1188238 -0.0735365 0.1535845 255 0 255
-0.1181197 -0.07423675 0.154714 255 0 255
-0.1174066 -0.07493612 0.1558425 255 0 255
-0.1163452 -0.07513912 0.1561701 255 0 255
-0.1156181 -0.07583586 0.157295 255 0 255
-0.1152142 -0.07702842 0.1592204 255 0 255
-0.1141373 -0.07722637 0.1595409 255 0 255
-0.1140328 -0.07891637 0.1622699 255 0 255
-0.1145461 -0.08160567 0.1666122 255 0 255
-0.1341957 -0.06939316 0.1449066 255 0 255
-0.1335862 -0.07011928 0.1460644 255 0 255
-0.1325659 -0.07035934 0.1464452 255 0 255
-0.1307476 -0.06962445 0.145267 255 0 255
-0.1289422 -0.06888387 0.1440801 255 0 255
-0.1279316 -0.06911369 0.1444454 255 0 255
-0.1269193 -0.06934125 0.1448074 255 0 255
-0.1259055 -0.0695665 0.145166 255 0 255
-0.1248901 -0.06978948 0.1455213 255 0 255
-0.1242495 -0.07050139 0.1466588 255 0 255
-0.1232273 -0.07072058 0.1470087 255 0 255
-0.1225726 -0.07143024 0.1481431 255 0 255
-0.1215437 -0.0716456 0.1484875 255 0 255
-0.1208749 -0.07235295 0.1496189 255 0 255
-0.1201973 -0.0730595 0.1507493 255 0 255
-0.1195108 -0.0737652 0.1518788 255 0 255
-0.1184648 -0.07397352 0.1522131 255 0 255
-0.1181111 -0.075174 0.1541343 255 0 255
-0.1170548 -0.07537906 0.1544641 255 0 255
-0.1163365 -0.07608049 0.1555879 255 0 255
-0.1159451 -0.07728028 0.1575091 255 0 255
-0.1152053 -0.07798041 0.1586315 255 0 255
-0.1147849 -0.07918032 0.1605535 255 0 255
-0.1146728 -0.08088198 0.1632785 255 0 255
-0.1151784 -0.08358949 0.1676124 255 0 255
-0.1153281 -0.08579835 0.1711494 255 0 255
-0.1333698 -0.06933356 0.142793 255 0 255
-0.1327674 -0.07006169 0.1439458 255 0 255
-0.1317543 -0.0703005 0.1443235 255 0 255
-0.1299433 -0.06955783 0.1431463 255 0 255
-0.1285396 -0.06929996 0.1427376 255 0 255
-0.1271417 -0.06903815 0.142323 255 0 255
-0.1265239 -0.06975657 0.1434617 255 0 255
-0.1255137 -0.06998146 0.1438188 255 0 255
-0.1248818 -0.07069773 0.1449548 255 0 255
-0.1238648 -0.07091885 0.1453064 255 0 255
-0.1235915 -0.07212821 0.1472243 255 0 255
-0.1225641 -0.0723463 0.1475717 255 0 255
-0.1219004 -0.07305889 0.148703 255 0 255
-0.1208662 -0.07327311 0.1490448 255 0 255
-0.1201885 -0.07398336 0.150173 255 0 255
-0.1191477 -0.07419368 0.1505092 255 0 255
-0.1184559 -0.07490148 0.1516341 255 0 255
-0.1181021 -0.07610892 0.153551 255 0 255
-0.1173889 -0.07681566 0.1546748 255 0 255
-0.1166667 -0.07752144 0.1557974 255 0 255
-0.1162714 -0.07872891 0.1577154 255 0 255
-0.1155279 -0.07943346 0.1588367 255 0 255
-0.1147754 -0.08013692 0.1599566 255 0 255
-0.1143385 -0.08134407 0.1618751 255 0 255
-0.1145269 -0.08356234 0.1653965 255 0 255
-0.1134158 -0.08375912 0.1657144 255 0 255
-0.1329523 -0.06974894 0.1414536 255 0 255
-0.1323535 -0.07047992 0.1426027 255 0 255
-0.1313439 -0.07071833 0.1429787 255 0 255
-0.1291384 -0.06947593 0.1410303 255 0 255
-0.127742 -0.06921359 0.1406207 255 0 255
-0.1267422 -0.06944181 0.1409815 255 0 255
-0.126128 -0.07016306 0.1421166 255 0 255
-0.1255049 -0.07088371 0.1432511 255 0 255
-0.1248729 -0.0716037 0.1443847 255 0 255
-0.1242321 -0.07232299 0.1455175 255 0 255
-0.1232099 -0.07254302 0.1458668 255 0 255
-0.122555 -0.07326007 0.1469966 255 0 255
-0.121526 -0.07347625 0.1473404 255 0 255
-0.1204954 -0.07369014 0.1476808 255 0 255
-0.1194634 -0.07390168 0.1480178 255 0 255
-0.1184299 -0.07411091 0.1483513 255 0 255
-0.118096 -0.07532401 0.1502615 255 0 255
-0.1173989 -0.07603385 0.1513818 255 0 255
-0.116693 -0.07674283 0.1525009 255 0 255
-0.1163176 -0.0779561 0.1544123 255 0 255
-0.1159259 -0.07916982 0.1563248 255 0 255
-0.115186 -0.07987732 0.1574426 255 0 255
-0.1144371 -0.08058378 0.1585591 255 0 255
-0.1146528 -0.08281327 0.1620679 255 0 255
-0.1141958 -0.0840283 0.1639839 255 0 255
-0.1149903 -0.08728097 0.1691007 255 0 255
-0.1329433 -0.07064905 0.1408824 255 0 255
-0.1323443 -0.07138371 0.1420291 255 0 255
-0.1313348 -0.07162258 0.1424048 255 0 255
-0.1295274 -0.07086701 0.141234 255 0 255
-0.1277329 -0.07010577 0.1400544 255 0 255
-0.1263422 -0.06983666 0.1396407 255 0 255
-0.1253443 -0.07006222 0.1399966 255 0 255
-0.1247285 -0.07078493 0.141126 255 0 255
-0.1244836 -0.07200716 0.1430329 255 0 255
-0.1234702 -0.07222834 0.1433827 255 0 255
-0.1228277 -0.07294901 0.1445099 255 0 255
-0.1218076 -0.07316639 0.1448543 255 0 255
-0.1207859 -0.07338142 0.1451953 255 0 255
-0.1197626 -0.07359421 0.1455329 255 0 255
-0.1190958 -0.07430951 0.1466528 255 0 255
-0.1180659 -0.07451838 0.1469849 255 0 255
-0.1177355 -0.07573765 0.1488894 255 0 255
-0.1170421 -0.07645046 0.1500062 255 0 255
-0.1163398 -0.07716235 0.1511219 255 0 255
-0.1163074 -0.07889037 0.1538191 255 0 255
-0.1155799 -0.07960178 0.1549347 255 0 255
-0.1148436 -0.08031224 0.156049 255 0 255
-0.1144266 -0.0815323 0.1579568 255 0 255
-0.1139932 -0.08275265 0.1598654 255 0 255
-0.1135435 -0.08397327 0.1617748 255 0 255
-0.116564 -0.0908331 0.1724624 255 0 255
-0.1321158 -0.07055338 0.1387766 255 0 255
-0.1319293 -0.0717876 0.140685 255 0 255
-0.1309233 -0.07202607 0.1410591 255 0 255
-0.1287216 -0.0707643 0.1391212 255 0 255
-0.1273287 -0.0704955 0.1387138 255 0 255
-0.1263324 -0.07072376 0.1390727 255 0 255
-0.1253345 -0.07094977 0.1394283 255 0 255
-0.1247186 -0.07167614 0.1405554 255 0 255
-0.1244737 -0.07290527 0.1424578 255 0 255
-0.123084 -0.07262263 0.14203 255 0 255
-0.1224451 -0.0733462 0.1431536 255 0 255
-0.1214286 -0.07356318 0.1434964 255 0 255
-0.1204105 -0.0737779 0.1438359 255 0 255
-0.1193909 -0.07399029 0.1441721 255 0 255
-0.1183699 -0.07420039 0.1445049 255 0 255
-0.1177015 -0.07491702 0.145619 255 0 255
-0.1170242 -0.07563286 0.1467322 255 0 255
-0.1166849 -0.07685816 0.1486312 255 0 255
-0.1159862 -0.07757299 0.1497434 255 0 255
-0.115618 -0.07879868 0.1516437 255 0 255
-0.1152335 -0.08002484 0.1535451 255 0 255
-0.1145008 -0.08073824 0.1546559 255 0 255
-0.1140874 -0.0819645 0.1565581 255 0 255
-0.113982 -0.08370563 0.1592549 255 0 255
-0.1135322 -0.08493318 0.1611599 255 0 255
-0.130879 -0.06994255 0.1359121 255 0 255
-0.1311085 -0.07168189 0.1385768 255 0 255
-0.1301097 -0.0719191 0.1389479 255 0 255
-0.1283133 -0.07114893 0.1377808 255 0 255
-0.1269241 -0.07087651 0.1373738 255 0 255
-0.1259314 -0.07110437 0.1377311 255 0 255
-0.1249371 -0.07132997 0.1380851 255 0 255
-0.1243248 -0.07205918 0.1392086 255 0 255
-0.1237035 -0.07278772 0.1403313 255 0 255
-0.1226973 -0.07300816 0.140678 255 0 255
-0.1216896 -0.07322627 0.1410214 255 0 255
-0.1210491 -0.07395118 0.1421392 255 0 255
-0.1196695 -0.07365568 0.1416983 255 0 255
-0.1190188 -0.07437754 0.1428119 255 0 255
-0.1183591 -0.07509863 0.1439246 255 0 255
-0.1173366 -0.07530683 0.1442538 255 0 255
-0.1166629 -0.07602555 0.1453634 255 0 255
-0.1163271 -0.07725703 0.1472568 255 0 255
-0.1156321 -0.07797477 0.1483655 255 0 255
-0.1152675 -0.07920661 0.1502601 255 0 255
-0.1148866 -0.08043896 0.1521559 255 0 255
-0.1141576 -0.08115532 0.1532633 255 0 255
-0.1137477 -0.08238775 0.15516 255 0 255
-0.113646 -0.08413836 0.1578491 255 0 255
-0.1135204 -0.08589061 0.1605412 255 0 255
-0.1300507 -0.06981328 0.1338181 255 0 255
-0.1306925 -0.07206503 0.1372363 255 0 255
-0.1296973 -0.07230182 0.1376057 255 0 255
-0.1283025 -0.07203057 0.1372064 255 0 255
-0.1269133 -0.07175534 0.1368013 255 0 255
-0.1259206 -0.07198366 0.1371583 255 0 255
-0.1245392 -0.07170141 0.1367427 255 0 255
-0.1239304 -0.07243345 0.1378625 255 0 255
-0.1233127 -0.07316484 0.1389815 255 0 255
-0.1223102 -0.07338488 0.1393267 255 0 255
-0.1209336 -0.07309112 0.1388942 255 0 255
-0.1203004 -0.07381809 0.1400071 255 0 255
-0.1192933 -0.07403127 0.1403424 255 0 255
-0.1186461 -0.07475601 0.1414524 255 0 255
-0.1176324 -0.0749654 0.1417823 255 0 255
-0.1169712 -0.07568781 0.1428893 255 0 255
-0.1163012 -0.07640944 0.1439953 255 0 255
-0.115969 -0.07764703 0.1458831 255 0 255
-0.1152776 -0.07836769 0.1469882 255 0 255
-0.1145774 -0.07908741 0.1480922 255 0 255
-0.1145393 -0.08084417 0.1507674 255 0 255
-0.1144774 -0.08260281 0.1534459 255 0 255
-0.1134077 -0.08280207 0.1537623 255 0 255
-0.1136338 -0.0850832 0.1572333 255 0 255
-0.1141492 -0.08788904 0.1614999 255 0 255
-0.1193785 -0.09853532 0.1776483 255 0 255
-0.1292219 -0.06966893 0.1317291 255 0 255
-0.1298707 -0.0719322 0.1351358 255 0 255
-0.1292843 -0.07267579 0.1362641 255 0 255
-0.1278932 -0.07240091 0.1358654 255 0 255
-0.126902 -0.07263191 0.1362253 255 0 255
-0.1255185 -0.07234997 0.1358161 255 0 255
-0.1241408 -0.07206412 0.135401 255 0 255
-0.1235356 -0.072799 0.1365172 255 0 255
-0.1225418 -0.07302009 0.1368628 255 0 255
-0.1219225 -0.07375283 0.1379761 255 0 255
-0.1209221 -0.07397021 0.1383165 255 0 255
-0.1199201 -0.0741853 0.1386535 255 0 255
-0.1192817 -0.07491439 0.139762 255 0 255
-0.118273 -0.0751257 0.1400937 255 0 255
-0.1176206 -0.07585252 0.1411992 255 0 255
-0.1169594 -0.07657858 0.1423038 255 0 255
-0.1162893 -0.07730379 0.1434074 255 0 255
-0.115957 -0.07854825 0.1452907 255 0 255
-0.1152655 -0.07927252 0.1463934 255 0 255
-0.1145652 -0.07999585 0.147495 255 0 255
-0.1141915 -0.08124049 0.1493795 255 0 255
-0.1141333 -0.08300853 0.1520503 255 0 255
-0.1133952 -0.08373107 0.1531516 255 0 255
-0.1129726 -0.08497693 0.155039 255 0 255
-0.1154185 -0.09094788 0.1640233 255 0 255
-0.1193647 -0.09955943 0.176975 255 0 255
-0.127984 -0.06899987 0.128888 255 0 255
-0.1290486 -0.0717842 0.1330403 255 0 255
-0.1284693 -0.07252973 0.1341636 255 0 255
-0.1270854 -0.07225039 0.133764 255 0 255
-0.1264958 -0.07299315 0.1348835 255 0 255
-0.1255066 -0.07322146 0.1352386 255 0 255
-0.1245159 -0.0734475 0.1355904 255 0 255
-0.1235236 -0.07367129 0.135939 255 0 255
-0.1225298 -0.07389279 0.1362843 255 0 255
-0.1219105 -0.07462919 0.1373952 255 0 255
-0.1205376 -0.07432903 0.1369652 255 0 255
-0.1195393 -0.07454374 0.1373007 255 0 255
-0.1189045 -0.07527567 0.1384056 255 0 255
-0.1182609 -0.07600689 0.1395096 255 0 255
-0.1172507 -0.07621627 0.1398377 255 0 255
-0.1165931 -0.07694517 0.1409387 255 0 255
-0.1162769 -0.07819581 0.1428161 255 0 255
-0.1159445 -0.07944709 0.1446948 255 0 255
-0.115253 -0.08017496 0.1457951 255 0 255
-0.1145526 -0.08090194 0.1468943 255 0 255
-0.1145142 -0.08267885 0.1495562 255 0 255
-0.1141203 -0.08393148 0.1514383 255 0 255
-0.1140382 -0.08571132 0.1541055 255 0 255
-0.1139322 -0.08749292 0.1567758 255 0 255
-0.1160458 -0.0929736 0.1649531 255 0 255
-0.1283806 -0.07036046 0.1290763 255 0 255
-0.1294413 -0.07316206 0.1332191 255 0 255
-0.1284569 -0.07339757 0.1335835 255 0 255
-0.1274709 -0.07363085 0.1339448 255 0 255
-0.1260891 -0.07334563 0.1335425 255 0 255
-0.1254941 -0.07409057 0.1346576 255 0 255
-0.1241165 -0.07379916 0.1342462 255 0 255
-0.1231278 -0.07402253 0.1345931 255 0 255
-0.1221376 -0.07424366 0.1349369 255 0 255
-0.1215219 -0.07498284 0.1360442 255 0 255
-0.1197804 -0.07415798 0.1348467 255 0 255
-0.1187894 -0.0743715 0.1351795 255 0 255
-0.1181619 -0.0751055 0.1362795 255 0 255
-0.1175256 -0.07583874 0.1373787 255 0 255
-0.1168804 -0.07657126 0.138477 255 0 255
-0.1165803 -0.077828 0.1403484 255 0 255
-0.116264 -0.07908544 0.1422212 255 0 255
-0.1159315 -0.08034356 0.1440954 255 0 255
-0.1152399 -0.08107503 0.1451933 255 0 255
-0.1148785 -0.08233353 0.1470687 255 0 255
-0.1145009 -0.08359252 0.1489452 255 0 255
-0.1144386 -0.08538132 0.1516036 255 0 255
-0.1143525 -0.08717192 0.1542652 255 0 255
-0.114891 -0.09002576 0.158496 255 0 255
-0.1183853 -0.1000032 0.1732608 255 0 255
-0.1283679 -0.07120919 0.1285042 255 0 255
-0.1290233 -0.07351031 0.1318817 255 0 255
-0.1280425 -0.07374539 0.1322445 255 0 255
-0.1270601 -0.07397823 0.1326041 255 0 255
-0.1260761 -0.07420883 0.1329605 255 0 255
-0.1250906 -0.07443713 0.1333137 255 0 255
-0.1241034 -0.07466319 0.1336636 255 0 255
-0.1231148 -0.07488699 0.1340103 255 0 255
-0.121745 -0.0745858 0.1335905 255 0 255
-0.1211329 -0.07532778 0.134694 255 0 255
-0.1197674 -0.07502045 0.1342652 255 0 255
-0.1184078 -0.07470927 0.1338306 255 0 255
-0.1177839 -0.07544607 0.134927 255 0 255
-0.1171512 -0.07618213 0.1360225 255 0 255
-0.1165096 -0.07691747 0.1371171 255 0 255
-0.1162132 -0.07818022 0.1389828 255 0 255
-0.1162506 -0.07997271 0.1416229 255 0 255
-0.1159179 -0.08123758 0.1434924 255 0 255
-0.115569 -0.08250304 0.1453632 255 0 255
-0.1148648 -0.08323795 0.1464587 255 0 255
-0.114487 -0.08450375 0.1483307 255 0 255
-0.1144246 -0.08630259 0.1509823 255 0 255
-0.1143383 -0.08810318 0.1536371 255 0 255
-0.1148766 -0.09097344 0.1578568 255 0 255
-0.1189004 -0.0997292 0.1706855 255 0 255
-0.1287632 -0.07257474 0.1286794 255 0 255
-0.1290098 -0.07436985 0.1312973 255 0 255
-0.128029 -0.07460538 0.1316598 255 0 255
-0.1270465 -0.07483864 0.1320191 255 0 255
-0.1256684 -0.07454708 0.1316192 255 0 255
-0.125077 -0.07529841 0.1327281 255 0 255
-0.123703 -0.07500066 0.1323191 255 0 255
-0.122718 -0.07522402 0.1326642 255 0 255
-0.1213519 -0.07491925 0.132245 255 0 255
-0.1207434 -0.07566399 0.1333448 255 0 255
-0.1197539 -0.07588061 0.1336803 255 0 255
-0.1183943 -0.07556663 0.1332476 255 0 255
-0.1177703 -0.07630699 0.1343415 255 0 255
-0.1171376 -0.07704665 0.1354345 255 0 255
-0.1164959 -0.07778557 0.1365268 255 0 255
-0.1165532 -0.07958654 0.1391575 255 0 255
-0.1162367 -0.08085755 0.1410211 255 0 255
-0.1159039 -0.0821292 0.142886 255 0 255
-0.1155548 -0.08340145 0.1447522 255 0 255
-0.1151896 -0.08467427 0.1466195 255 0 255
-0.114808 -0.08594757 0.148488 255 0 255
-0.1144101 -0.08722132 0.1503574 255 0 255
-0.1153071 -0.09064136 0.1553384 255 0 255
-0.1164821 -0.09460444 0.1611076 255 0 255
-0.1208068 -0.1039531 0.1746863 255 0 255
-0.1287492 -0.07342202 0.1280986 255 0 255
-0.1285908 -0.07470389 0.1299597 255 0 255
-0.1276136 -0.074939 0.1303206 255 0 255
-0.1270324 -0.07569669 0.1314308 255 0 255
-0.1256544 -0.07540241 0.1310327 255 0 255
-0.1246724 -0.07563072 0.1313839 255 0 255
-0.1233022 -0.07532936 0.1309755 255 0 255
-0.1223208 -0.07555234 0.1313191 255 0 255
-0.1213379 -0.07577305 0.1316594 255 0 255
-0.1207293 -0.0765214 0.1327568 255 0 255
-0.1193676 -0.07620771 0.1323305 255 0 255
-0.1187488 -0.07695313 0.1334239 255 0 255
-0.1177562 -0.0771656 0.1337526 255 0 255
-0.1171234 -0.0779088 0.1348432 255 0 255
-0.1164818 -0.07865129 0.135933 255 0 255
-0.1165388 -0.08046218 0.1385569 255 0 255
-0.1158721 -0.08120463 0.1396471 255 0 255
-0.1155429 -0.08248231 0.1415063 255 0 255
-0.1155402 -0.08429739 0.1441376 255 0 255
-0.1151748 -0.08557698 0.1460003 255 0 255
-0.1147931 -0.08685703 0.1478641 255 0 255
-0.1147266 -0.08867652 0.1505032 255 0 255
-0.114964 -0.09103744 0.1539209 255 0 255
-0.1151703 -0.09340151 0.1573439 255 0 255
-0.116306 -0.09739169 0.1631047 255 0 255
-0.1287347 -0.07426696 0.1275143 255 0 255
-0.1285761 -0.07555559 0.1293708 255 0 255
-0.1275989 -0.07579109 0.1297313 255 0 255
-0.1270178 -0.07655241 0.1308391 255 0 255
-0.1256398 -0.07625537 0.1304428 255 0 255
-0.1246578 -0.07648412 0.1307938 255 0 255
-0.1232876 -0.07618 0.1303872 255 0 255
-0.1223062 -0.07640339 0.1307305 255 0 255
-0.1213233 -0.07662452 0.1310706 255 0 255
-0.1207147 -0.07737643 0.1321655 255 0 255
-0.1197252 -0.07759384 0.1325004 255 0 255
-0.1187341 -0.07780896 0.132832 255 0 255
-0.1177416 -0.07802182 0.1331604 255 0 255
-0.1171087 -0.07876859 0.1342485 255 0 255
-0.1168244 -0.08005165 0.1361 255 0 255
-0.1165239 -0.08133546 0.1379529 255 0 255
-0.1162072 -0.08261995 0.1398071 255 0 255
-0.1158742 -0.08390514 0.1416628 255 0 255
-0.1158675 -0.08573088 0.1442884 255 0 255
-0.1151594 -0.08647721 0.1453776 255 0 255
-0.1151128 -0.08830545 0.1480077 255 0 255
-0.114711 -0.0895934 0.1498689 255 0 255
-0.1152759 -0.09251031 0.1540508 255 0 255
-0.1161262 -0.09597526 0.1590144 255 0 255
-0.1283111 -0.07458096 0.1261826 255 0 255
-0.1277513 -0.07534598 0.1272875 255 0 255
-0.1271825 -0.07611052 0.1283919 255 0 255
-0.1266049 -0.07687455 0.1294958 255 0 255
-0.1256246 -0.07710596 0.1298497 255 0 255
-0.1242523 -0.07680222 0.1294495 255 0 255
-0.1228858 -0.07649454 0.1290436 255 0 255
-0.1222911 -0.07725208 0.1301386 255 0 255
-0.1209288 -0.07693823 0.1297238 255 0 255
-0.1203238 -0.07769285 0.1308149 255 0 255
-0.1193379 -0.07790986 0.1311483 255 0 255
-0.118719 -0.07866241 0.1322367 255 0 255
-0.1177265 -0.07887568 0.1325649 255 0 255
-0.1174546 -0.08016538 0.1344112 255 0 255
-0.1168091 -0.08091576 0.1354972 255 0 255
-0.1165085 -0.08220629 0.1373454 255 0 255
-0.1158417 -0.08295583 0.1384307 255 0 255
-0.1158586 -0.08478939 0.1410459 255 0 255
-0.1155092 -0.08608188 0.142898 255 0 255
-0.1151436 -0.08737491 0.1447513 255 0 255
-0.1147617 -0.08866845 0.1466057 255 0 255
-0.1143635 -0.08996245 0.1484611 255 0 255
-0.1146043 -0.09234884 0.1518595 255 0 255
-0.1148138 -0.09473843 0.1552631 255 0 255
-0.1278872 -0.07488637 0.124852 255 0 255
-0.1273308 -0.07565407 0.125953 255 0 255
-0.1267656 -0.0764213 0.1270536 255 0 255
-0.1261916 -0.07718799 0.1281536 255 0 255
-0.1252149 -0.07741898 0.1285058 255 0 255
-0.1238464 -0.07711169 0.1281063 255 0 255
-0.1228702 -0.07733732 0.1284509 255 0 255
-0.1218925 -0.07756067 0.1287923 255 0 255
-0.1205339 -0.07724323 0.1283781 255 0 255
-0.1199325 -0.07800063 0.1294655 255 0 255
-0.1193223 -0.07875738 0.1305522 255 0 255
-0.1187033 -0.07951348 0.1316381 255 0 255
-0.1180754 -0.08026884 0.1327233 255 0 255
-0.1174388 -0.08102354 0.1338076 255 0 255
-0.1171505 -0.08232074 0.1356508 255 0 255
-0.1164925 -0.08307467 0.1367346 255 0 255
-0.1158257 -0.08382777 0.1378173 255 0 255
-0.1154962 -0.0851256 0.1396624 255 0 255
-0.115493 -0.08697038 0.142273 255 0 255
-0.1147885 -0.08772311 0.1433561 255 0 255
-0.1144102 -0.08902261 0.1452046 255 0 255
-0.1143469 -0.09087106 0.1478219 255 0 255
-0.1139323 -0.09217213 0.1496735 255 0 255
-0.1135013 -0.09347355 0.151526 255 0 255
-0.1136942 -0.0958764 0.1549211 255 0 255
-0.1274627 -0.07518314 0.1235225 255 0 255
-0.1269099 -0.07595351 0.1246197 255 0 255
-0.1263483 -0.07672339 0.1257164 255 0 255
-0.1261754 -0.07803026 0.1275564 255 0 255
-0.1251986 -0.07826167 0.1279082 255 0 255
-0.1238302 -0.07795165 0.1275107 255 0 255
-0.122854 -0.07817768 0.1278549 255 0 255
-0.1218763 -0.07840145 0.128196 255 0 255
-0.1205178 -0.07808128 0.1277837 255 0 255
-0.1195408 -0.07829973 0.1281172 255 0 255
-0.1189342 -0.07905921 0.1292001 255 0 255
-0.1183188 -0.07981801 0.1302823 255 0 255
-0.1176946 -0.08057617 0.1313637 255 0 255
-0.1174225 -0.08187927 0.1332006 255 0 255
-0.1167769 -0.08263672 0.1342816 255 0 255
-0.1164761 -0.08394065 0.1361203 255 0 255
-0.116159 -0.08524524 0.1379604 255 0 255
-0.1154796 -0.08600177 0.1390409 255 0 255
-0.1154762 -0.08785638 0.1416445 255 0 255
-0.1147717 -0.08861265 0.1427251 255 0 255
-0.1143933 -0.08991882 0.1445688 255 0 255
-0.1139986 -0.09122549 0.1464136 255 0 255
-0.1129325 -0.09142783 0.1467263 255 0 255
-0.1121888 -0.0921808 0.1478031 255 0 255
-0.1278543 -0.07654724 0.1236693 255 0 255
-0.1272979 -0.07732198 0.1247653 255 0 255
-0.1267326 -0.07809632 0.1258608 255 0 255
-0.1257611 -0.07832954 0.1262142 255 0 255
-0.1251818 -0.07910197 0.1273073 255 0 255
-0.1238135 -0.07878925 0.1269117 255 0 255
-0.1228373 -0.07901567 0.1272556 255 0 255
-0.1218596 -0.07923986 0.1275964 255 0 255
-0.1208804 -0.07946178 0.127934 255 0 255
-0.1198997 -0.07968143 0.1282684 255 0 255
-0.1192894 -0.08044524 0.12935 255 0 255
-0.1183021 -0.08066113 0.1296793 255 0 255
-0.1176779 -0.08142281 0.1307582 255 0 255
-0.1170448 -0.08218373 0.1318362 255 0 255
-0.1167601 -0.08349355 0.1336687 255 0 255
-0.1164592 -0.08480411 0.1355027 255 0 255
-0.116142 -0.0861154 0.137338 255 0 255
-0.1154625 -0.08687546 0.1384159 255 0 255
-0.1151166 -0.08818727 0.1402526 255 0 255
-0.115093 -0.09005298 0.1428515 255 0 255
-0.1143759 -0.09081249 0.1439295 255 0 255
-0.1143123 -0.09268062 0.1465328 255 0 255
-0.11357 -0.09343954 0.1476105 255 0 255
-0.1141138 -0.09642226 0.1517486 255 0 255
-0.1278371 -0.07737406 0.1230731 255 0 255
-0.126876 -0.07761047 0.1234299 255 0 255
-0.1263143 -0.07838741 0.1245215 255 0 255
-0.1257438 -0.07916391 0.1256126 255 0 255
-0.1247707 -0.0793953 0.1259626 255 0 255
-0.1234061 -0.07907897 0.1255675 255 0 255
-0.1228201 -0.07985125 0.126653 255 0 255
-0.1218424 -0.08007584 0.1269935 255 0 255
-0.1208632 -0.08029817 0.1273308 255 0 255
-0.1198826 -0.08051823 0.1276649 255 0 255
-0.1192722 -0.08128555 0.128744 255 0 255
-0.1186531 -0.08205222 0.1298224 255 0 255
-0.1180251 -0.08281816 0.1308999 255 0 255
-0.1173883 -0.08358343 0.1319767 255 0 255
-0.1170998 -0.08490064 0.1338055 255 0 255
-0.116795 -0.08621863 0.1356358 255 0 255
-0.1161244 -0.08698305 0.1367122 255 0 255
-0.1154449 -0.08774664 0.1377875 255 0 255
-0.1150988 -0.0890651 0.1396195 255 0 255
-0.1147365 -0.09038408 0.1414526 255 0 255
-0.114358 -0.09170362 0.1432867 255 0 255
-0.1142942 -0.09358154 0.1458829 255 0 255
-0.1132244 -0.09378533 0.1461961 255 0 255
-0.1282274 -0.07874268 0.1232067 255 0 255
-0.1276672 -0.07952546 0.1242989 255 0 255
-0.1266974 -0.07976178 0.1246549 255 0 255
-0.1257259 -0.07999581 0.1250077 255 0 255
-0.1243592 -0.07967997 0.1246191 255 0 255
-0.1233883 -0.07990863 0.1249643 255 0 255
-0.1224158 -0.08013506 0.1253063 255 0 255
-0.1218246 -0.08090942 0.1263874 255 0 255
-0.1208455 -0.08113214 0.1267244 255 0 255
-0.1198648 -0.08135258 0.1270582 255 0 255
-0.1192544 -0.08212343 0.1281347 255 0 255
-0.1186352 -0.08289357 0.1292105 255 0 255
-0.1180072 -0.08366308 0.1302855 255 0 255
-0.1173704 -0.08443183 0.1313597 255 0 255
-0.1174388 -0.0863115 0.1339344 255 0 255
-0.1171303 -0.08763691 0.1357611 255 0 255
-0.1164559 -0.08840558 0.136836 255 0 255
-0.1161186 -0.08973154 0.1386641 255 0 255
-0.1154228 -0.09049923 0.1397382 255 0 255
-0.1150567 -0.09182564 0.1415676 255 0 255
-0.1143395 -0.09259216 0.1426405 255 0 255
-0.1142756 -0.09447984 0.1452295 255 0 255
-0.1128785 -0.09412226 0.1447827 255 0 255
-0.128617 -0.0801151 0.1233325 255 0 255
-0.1276487 -0.08035409 0.1236914 255 0 255
-0.1266789 -0.08059087 0.124047 255 0 255
-0.1257074 -0.08082534 0.1243996 255 0 255
-0.1243409 -0.08050681 0.1240129 255 0 255
-0.12337 -0.08073589 0.1243578 255 0 255
-0.1223975 -0.0809627 0.1246995 255 0 255
-0.1218063 -0.08174057 0.125778 255 0 255
-0.1208272 -0.0819637 0.1261147 255 0 255
-0.1198465 -0.08218452 0.1264482 255 0 255
-0.1196078 -0.08351465 0.1282657 255 0 255
-0.1189849 -0.08428913 0.1293402 255 0 255
-0.1183532 -0.08506289 0.1304138 255 0 255
-0.1177127 -0.08583596 0.1314866 255 0 255
-0.1170633 -0.08660821 0.1325585 255 0 255
-0.1167584 -0.08793939 0.1343791 255 0 255
-0.1160877 -0.08871084 0.1354504 255 0 255
-0.1160998 -0.0906039 0.1380244 255 0 255
-0.1157462 -0.09193708 0.1398489 255 0 255
-0.1150378 -0.09270807 0.1409204 255 0 255
-0.11499 -0.09460507 0.1435013 255 0 255
-0.1149185 -0.09650392 0.1460854 255 0 255
-0.1135141 -0.09614497 0.1456427 255 0 255
-0.1124392 -0.09634774 0.1459529 255 0 255
-0.1285978 -0.08094092 0.1227221 255 0 255
-0.1276296 -0.08118036 0.1230806 255 0 255
-0.1266598 -0.08141752 0.123436 255 0 255
-0.1256884 -0.08165243 0.1237881 255 0 255
-0.124322 -0.08133119 0.1234034 255 0 255
-0.1233511 -0.08156069 0.123748 255 0 255
-0.1223787 -0.08178791 0.1240894 255 0 255
-0.1217874 -0.08256928 0.1251653 255 0 255
-0.1211872 -0.08335002 0.1262406 255 0 255
-0.1205783 -0.08413016 0.1273151 255 0 255
-0.1199605 -0.0849096 0.1283889 255 0 255
-0.1193339 -0.08568839 0.129462 255 0 255
-0.1183342 -0.08590597 0.1297905 255 0 255
-0.1176937 -0.08668245 0.1308607 255 0 255
-0.1170443 -0.08745822 0.13193 255 0 255
-0.116386 -0.08823319 0.1329985 255 0 255
-0.115719 -0.08900734 0.1340659 255 0 255
-0.1157347 -0.09090939 0.1366317 255 0 255
-0.1153847 -0.09224838 0.1384501 255 0 255
-0.11468 -0.09302213 0.1395179 255 0 255
-0.1143011 -0.0943615 0.1413376 255 0 255
-0.1142369 -0.09626861 0.1439123 255 0 255
-0.11284 -0.0959055 0.1434694 255 0 255
-0.1277623 -0.08065747 0.120656 255 0 255
-0.1272056 -0.08144985 0.121739 255 0 255
-0.1262395 -0.08168654 0.1220928 255 0 255
-0.1252717 -0.08192097 0.1224433 255 0 255
-0.1243025 -0.08215315 0.1227907 255 0 255
-0.1233317 -0.08238305 0.123135 255 0 255
-0.1227455 -0.08316933 0.1242102 255 0 255
-0.1221505 -0.08395501 0.1252847 255 0 255
-0.1211678 -0.08417975 0.125622 255 0 255
-0.1205588 -0.08496337 0.126694 255 0 255
-0.119941 -0.08574632 0.1277652 255 0 255
-0.1196823 -0.08709133 0.1295759 255 0 255
-0.1186789 -0.08731009 0.1299053 255 0 255
-0.1176741 -0.08752651 0.1302315 255 0 255
-0.1170247 -0.08830572 0.1312982 255 0 255
-0.1163665 -0.08908419 0.132364 255 0 255
-0.1160488 -0.09042849 0.1341751 255 0 255
-0.115715 -0.0917735 0.1359874 255 0 255
-0.1153648 -0.09311909 0.137801 255 0 255
-0.1153367 -0.09503421 0.1403653 255 0 255
-0.1149503 -0.0963816 0.1421822 255 0 255
-0.1138859 -0.09658863 0.1424966 255 0 255
-0.1124928 -0.09622205 0.1420547 255 0 255
-0.1277421 -0.08147226 0.1200438 255 0 255
-0.126377 -0.08115338 0.1196737 255 0 255
-0.1254181 -0.08138873 0.1200244 255 0 255
-0.1244577 -0.08162184 0.120372 255 0 255
-0.1234957 -0.08185266 0.1207165 255 0 255
-0.122922 -0.08264212 0.1217884 255 0 255
-0.1223394 -0.08343103 0.1228596 255 0 255
-0.121748 -0.08421933 0.1239303 255 0 255
-0.1211478 -0.08500703 0.1250003 255 0 255
