ply
format ascii 1.0
Comment Generated by Floating Hands
element vertex 1112
property double x
property double y
property double z
property uchar red
property uchar green
property uchar blue
end_header
0.09293655 -0.08649977 0.153157 255 0 255
0.0940313 -0.08624152 0.1528206 255 0 255
0.09512448 -0.08598077 0.1524807 255 0 255
0.0958466 -0.08520964 0.1513589 255 0 255
0.09693296 -0.0849447 0.151013 255 0 255
-0.1137884 -0.07983545 0.1356667 255 0 255
-0.1142065 -0.08214106 0.1390907 255 0 255
-0.1135259 -0.08288158 0.1401974 255 0 255
-0.1128365 -0.08362126 0.1413031 255 0 255
-0.1117896 -0.0838355 0.141631 255 0 255
-0.1107413 -0.08404733 0.1419554 255 0 255
-0.1103738 -0.08530869 0.1438347 255 0 255
-0.1096525 -0.08604378 0.1449349 255 0 255
-0.1092561 -0.08730533 0.1468152 255 0 255
-0.1088433 -0.08856727 0.1486965 255 0 255
-0.1087404 -0.09035837 0.1513621 255 0 255
-0.1073238 -0.09003294 0.1508923 255 0 255
-0.1059132 -0.0897036 0.150417 255 0 255
-0.1041937 -0.08883946 0.1491492 255 0 255
-0.1034216 -0.08956491 0.1502371 255 0 255
-0.1020257 -0.08922463 0.149746 255 0 255
-0.1009396 -0.08941346 0.1500391 255 0 255
-0.09985225 -0.08959977 0.1503287 255 0 255
-0.09905979 -0.09031773 0.1514066 255 0 255
-0.09796606 -0.09049962 0.1516902 255 0 255
-0.0965824 -0.09014358 0.1511766 255 0 255
-0.09548992 -0.0903198 0.1514522 255 0 255
-0.09383398 -0.08942023 0.150133 255 0 255
-0.09246928 -0.08905302 0.1496032 255 0 255
-0.09111095 -0.08868206 0.149068 255 0 255
-0.09002879 -0.08884591 0.149326 255 0 255
-0.08894542 -0.08900722 0.1495804 255 0 255
-0.08812304 -0.08970557 0.1506315 255 0 255
-0.08703359 -0.08986246 0.1508798 255 0 255
-0.085943 -0.09001683 0.1511246 255 0 255
-0.08485133 -0.09016867 0.1513659 255 0 255
-0.08375855 -0.090318 0.1516038 255 0 255
-0.08242168 -0.08992264 0.1510337 255 0 255
-0.08109139 -0.08952377 0.1504585 255 0 255
-0.08000311 -0.08966457 0.1506842 255 0 255
-0.07914531 -0.09034649 0.1517131 255 0 255
-0.07805114 -0.09048274 0.1519325 255 0 255
-0.07695599 -0.09061649 0.1521485 255 0 255
-0.07585984 -0.0907477 0.1523609 255 0 255
-0.07476274 -0.09087637 0.1525698 255 0 255
-0.0736647 -0.09100257 0.1527752 255 0 255
-0.07256572 -0.09112618 0.152977 255 0 255
-0.07126123 -0.09070052 0.1523634 255 0 255
-0.07036503 -0.09136593 0.1533701 255 0 255
-0.06906649 -0.09093436 0.1527481 255 0 255
-0.06816081 -0.09159552 0.153749 255 0 255
-0.0670574 -0.0917065 0.1539332 255 0 255
-0.06595317 -0.09181499 0.1541139 255 0 255
-0.06484812 -0.0919209 0.1542909 255 0 255
-0.06391976 -0.09257387 0.1552809 255 0 255
-0.06280924 -0.09267506 0.1554514 255 0 255
-0.06169794 -0.09277373 0.1556184 255 0 255
-0.06075172 -0.09342039 0.1566 255 0 255
-0.05963504 -0.09351427 0.1567604 255 0 255
-0.05867567 -0.09415681 0.1577365 255 0 255
-0.05755366 -0.09424589 0.1578903 255 0 255
-0.05643096 -0.09433237 0.1580405 255 0 255
-0.05530759 -0.09441629 0.1581871 255 0 255
-0.05418354 -0.09449764 0.15833 255 0 255
-0.05319739 -0.09512908 0.1592912 255 0 255
-0.05206817 -0.09520552 0.1594274 255 0 255
-0.05106906 -0.09583258 0.1603827 255 0 255
-0.04993473 -0.09590411 0.1605121 255 0 255
-0.04879979 -0.09597301 0.1606379 255 0 255
-0.04766432 -0.09603932 0.16076 255 0 255
-0.04664335 -0.09665719 0.1617029 255 0 255
-0.04550287 -0.0967185 0.1618181 255 0 255
-0.04436187 -0.0967772 0.1619297 255 0 255
-0.04322039 -0.0968333 0.1620376 255 0 255
-0.04197903 -0.09633186 0.1613159 255 0 255
-0.04084053 -0.09638254 0.1614161 255 0 255
-0.03970157 -0.09643061 0.1615126 255 0 255
-0.03864979 -0.09703152 0.1624324 255 0 255
-0.03758975 -0.09763008 0.1633492 255 0 255
-0.03652145 -0.09822632 0.1642629 255 0 255
-0.03536909 -0.09826435 0.1643456 255 0 255
-0.03414452 -0.09774379 0.1635966 255 0 255
-0.0329954 -0.09777642 0.1636716 255 0 255
-0.03178196 -0.09725028 0.1629144 255 0 255
-0.03069622 -0.09783382 0.1638107 255 0 255
-0.02949005 -0.0973022 0.1630456 255 0 255
-0.02839587 -0.09788068 0.1639349 255 0 255
-0.02724531 -0.09790014 0.1639915 255 0 255
-0.02613881 -0.09847358 0.1648741 255 0 255
-0.02498385 -0.09848781 0.1649234 255 0 255
-0.0238651 -0.09905609 0.165799 255 0 255
-0.02273828 -0.09962174 0.1666711 255 0 255
-0.02157488 -0.09962811 0.1667096 255 0 255
-0.02043591 -0.1001885 0.1675747 255 0 255
-0.01926828 -0.1001896 0.1676057 255 0 255
-0.01810055 -0.100188 0.1676331 255 0 255
-0.01694544 -0.1007404 0.1684873 255 0 255
-0.01576479 -0.1001768 0.1676765 255 0 255
-0.01460165 -0.1007238 0.1685233 255 0 255
-0.0134297 -0.1007114 0.1685356 255 0 255
-0.01225465 -0.1012529 0.169375 255 0 255
-0.01107174 -0.1017917 0.1702106 255 0 255
-0.009880944 -0.1023276 0.1710425 255 0 255
-0.008682253 -0.1028606 0.1718705 255 0 255
-0.007494575 -0.1028345 0.1718639 255 0 255
-0.006284162 -0.1033618 0.1726842 255 0 255
-0.005065945 -0.1038863 0.1735006 255 0 255
-0.003870599 -0.1038518 0.1734824 255 0 255
-0.00264081 -0.1043704 0.174291 255 0 255
-0.001441785 -0.1043304 0.174265 255 0 255
-0.0001579423 -0.1053986 0.1758959 255 0 255
0.00109506 -0.1059082 0.1766923 255 0 255
0.002355743 -0.1064147 0.1774845 255 0 255
0.003624118 -0.106918 0.1782725 255 0 255
0.004900144 -0.1074183 0.1790564 255 0 255
0.006245978 -0.1084701 0.1806657 255 0 255
0.007607286 -0.1095183 0.1822704 255 0 255
0.009054146 -0.1111172 0.1846997 255 0 255
0.01059832 -0.113266 0.1879531 255 0 255
0.01209567 -0.1148564 0.1903717 255 0 255
0.0136163 -0.1164425 0.1927849 255 0 255
0.01507435 -0.1174709 0.1943641 255 0 255
0.0167272 -0.1196016 0.1975946 255 0 255
0.01841109 -0.1217273 0.2008189 255 0 255
0.02022358 -0.1244005 0.2048644 255 0 255
0.02197333 -0.1265155 0.2080753 255 0 255
0.02375396 -0.1286252 0.2112795 255 0 255
0.02545612 -0.1301777 0.21365 255 0 255
0.02718127 -0.1317253 0.2160141 255 0 255
0.02975 -0.1371258 0.2241546 255 0 255
0.03179077 -0.1397626 0.2281547 255 0 255
0.06502536 -0.1006048 0.1709443 255 0 255
0.06826179 -0.1046818 0.177144 255 0 255
0.06869089 -0.1028788 0.1744751 255 0 255
0.06988927 -0.1026751 0.1742189 255 0 255
0.07108648 -0.1024686 0.1739587 255 0 255
0.0722824 -0.1022594 0.1736947 255 0 255
0.0726494 -0.1004553 0.1710227 255 0 255
0.0735517 -0.09971268 0.169953 255 0 255
0.07472868 -0.09949804 0.1696808 255 0 255
0.07504245 -0.09769479 0.1670086 255 0 255
0.07591433 -0.09694891 0.1659336 255 0 255
0.07707226 -0.09672903 0.1656536 255 0 255
0.07793023 -0.09598001 0.1645739 255 0 255
0.07847684 -0.09470408 0.1626972 255 0 255
0.07961945 -0.09447843 0.1624088 255 0 255
0.08045074 -0.09372592 0.1613235 255 0 255
0.08127311 -0.09297235 0.1602364 255 0 255
0.08208662 -0.09221768 0.1591476 255 0 255
0.08257 -0.09094003 0.157267 255 0 255
0.08368693 -0.09070523 0.156965 255 0 255
0.08447369 -0.08994751 0.1558713 255 0 255
0.08558408 -0.08970836 0.155563 255 0 255
0.08702926 -0.08998539 0.1560373 255 0 255
0.08780052 -0.0892224 0.1549357 255 0 255
0.08890656 -0.08897557 0.1546167 255 0 255
0.08966374 -0.08820999 0.1535111 255 0 255
0.09111416 -0.0884743 0.1539676 255 0 255
0.09186092 -0.08770531 0.1528571 255 0 255
0.0933157 -0.08796282 0.1533041 255 0 255
0.0944142 -0.08770327 0.152967 255 0 255
0.09551112 -0.08744117 0.1526262 255 0 255
0.09623687 -0.08666552 0.1515058 255 0 255
0.09732697 -0.08639926 0.151159 255 0 255
-0.1091421 -0.07086668 0.1205838 255 0 255
-0.1122271 -0.07683631 0.1293553 255 0 255
-0.1141399 -0.08124726 0.1358404 255 0 255
-0.1145541 -0.08356689 0.1392567 255 0 255
-0.1135139 -0.08378563 0.1395898 255 0 255
-0.1128244 -0.08452886 0.140693 255 0 255
-0.1117775 -0.08474352 0.1410206 255 0 255
-0.1107291 -0.08495571 0.1413448 255 0 255
-0.1100204 -0.08569471 0.1424426 255 0 255
-0.1096401 -0.0869626 0.1443173 255 0 255
-0.1089099 -0.08770031 0.1454138 255 0 255
-0.1085007 -0.08896833 0.1472894 255 0 255
-0.1087275 -0.09130082 0.1507285 255 0 255
-0.1069885 -0.09043979 0.1494782 255 0 255
-0.1055816 -0.09010693 0.1490037 255 0 255
-0.1041809 -0.08977018 0.1485235 255 0 255
-0.1030975 -0.08996437 0.1488234 255 0 255
-0.1017053 -0.08962058 0.1483331 255 0 255
-0.1006229 -0.0898091 0.148625 255 0 255
-0.09953931 -0.08999508 0.1489134 255 0 255
-0.09845436 -0.09017857 0.1491982 255 0 255
-0.09736813 -0.09035958 0.1494797 255 0 255
-0.09628062 -0.09053805 0.1497576 255 0 255
-0.09490705 -0.09017472 0.1492395 255 0 255
-0.09353977 -0.08980767 0.148716 255 0 255
-0.09245612 -0.08997741 0.1489816 255 0 255
-0.0910978 -0.08960356 0.1484484 255 0 255
-0.09001557 -0.0897677 0.1487061 255 0 255
-0.0886663 -0.08938713 0.1481632 255 0 255
-0.08784763 -0.09008846 0.149211 255 0 255
-0.08676195 -0.09024507 0.1494582 255 0 255
-0.08567514 -0.09039918 0.149702 255 0 255
-0.0843366 -0.09000641 0.1491417 255 0 255
-0.08349826 -0.09069989 0.150179 255 0 255
-0.08216518 -0.09030107 0.1496102 255 0 255
-0.08107789 -0.09044464 0.1498391 255 0 255
-0.07998956 -0.09058569 0.1500646 255 0 255
-0.07913167 -0.09127113 0.1510912 255 0 255
-0.07803748 -0.09140765 0.1513105 255 0 255
-0.07716607 -0.09208949 0.1523323 255 0 255
-0.07584608 -0.0916731 0.1517384 255 0 255
-0.07496504 -0.09235081 0.1527547 255 0 255
-0.07365084 -0.09192846 0.1521524 255 0 255
-0.07255182 -0.09205236 0.152354 255 0 255
-0.07124735 -0.09162361 0.1517425 255 0 255
-0.07035104 -0.09229252 0.1527468 255 0 255
-0.06905252 -0.0918579 0.1521268 255 0 255
-0.06814674 -0.09252256 0.1531255 255 0 255
-0.06704328 -0.09263375 0.1533094 255 0 255
-0.06612421 -0.09329449 0.1543029 255 0 255
-0.06483392 -0.09284859 0.1536669 255 0 255
-0.06390546 -0.09350501 0.1546545 255 0 255
-0.0627949 -0.09360639 0.1548249 255 0 255
-0.06168357 -0.09370525 0.1549918 255 0 255
-0.06073724 -0.09435536 0.1559711 255 0 255
-0.05962054 -0.09444944 0.1561314 255 0 255
-0.05850308 -0.09454092 0.1562881 255 0 255
-0.05753901 -0.09518464 0.1572588 255 0 255
-0.05641625 -0.09527131 0.1574088 255 0 255
-0.05543914 -0.0959108 0.158374 255 0 255
-0.05431116 -0.09599257 0.1585173 255 0 255
-0.053321 -0.0966277 0.1594766 255 0 255
-0.05205324 -0.09614837 0.1587931 255 0 255
-0.05105406 -0.09677883 0.1597461 255 0 255
-0.04979291 -0.09629379 0.1590545 255 0 255
-0.04866186 -0.09636261 0.1591797 255 0 255
-0.04753024 -0.09642884 0.1593013 255 0 255
-0.04651308 -0.09704984 0.1602415 255 0 255
-0.04537648 -0.09711109 0.1603562 255 0 255
-0.04423936 -0.0971697 0.1604673 255 0 255
-0.04310177 -0.09722573 0.1605747 255 0 255
-0.04196368 -0.09727915 0.1606785 255 0 255
-0.04072973 -0.09677158 0.1599545 255 0 255
-0.03968613 -0.09737811 0.1608751 255 0 255
-0.0387218 -0.09854105 0.1626174 255 0 255
-0.03765773 -0.09914314 0.1635322 255 0 255
-0.03650571 -0.09918392 0.1636186 255 0 255
-0.03542906 -0.09978114 0.1645269 255 0 255
-0.03420057 -0.09925748 0.1637803 255 0 255
-0.03297959 -0.09873098 0.1630294 255 0 255
-0.03176617 -0.09820164 0.1622743 255 0 255
-0.03068032 -0.09878851 0.1631683 255 0 255
-0.02947417 -0.09825373 0.1624055 255 0 255
-0.02832776 -0.0982758 0.1624655 255 0 255
-0.02718111 -0.09829526 0.1625218 255 0 255
-0.02607843 -0.0988719 0.1634019 255 0 255
-0.02492738 -0.09888617 0.1634511 255 0 255
-0.02381248 -0.09945773 0.1643243 255 0 255
-0.0226895 -0.1000266 0.1651941 255 0 255
-0.02155848 -0.100593 0.1660604 255 0 255
-0.02039488 -0.1005967 0.1660951 255 0 255
-0.01925174 -0.1011578 0.1669544 255 0 255
-0.01808397 -0.1011562 0.1669817 255 0 255
-0.01692877 -0.1017119 0.1678337 255 0 255
-0.01574814 -0.101145 0.1670251 255 0 255
-0.0145849 -0.1016952 0.1678697 255 0 255
-0.0134129 -0.1016829 0.167882 255 0 255
-0.01223776 -0.1022277 0.1687192 255 0 255
-0.01106179 -0.1022099 0.168724 255 0 255
-0.009874809 -0.1027491 0.1695537 255 0 255
-0.008680005 -0.1032855 0.1703796 255 0 255
-0.007477318 -0.1038189 0.1712016 255 0 255
-0.006266843 -0.1043495 0.1720197 255 0 255
-0.005048525 -0.1048772 0.172834 255 0 255
-0.003822425 -0.1054019 0.1736443 255 0 255
-0.002623215 -0.1053645 0.1736222 255 0 255
-0.001385543 -0.1058834 0.1744245 255 0 255
-0.0001826948 -0.1058403 0.1743946 255 0 255
0.001066461 -0.1063532 0.1751889 255 0 255
0.002373734 -0.1074216 0.1768071 255 0 255
0.003642213 -0.1079281 0.177593 255 0 255
0.004918298 -0.1084315 0.1783747 255 0 255
0.006264292 -0.1094898 0.1799797 255 0 255
0.007625801 -0.1105445 0.1815801 255 0 255
0.009072847 -0.112153 0.1840029 255 0 255
0.0106173 -0.1143149 0.1872475 255 0 255
0.01211492 -0.1159149 0.1896596 255 0 255
0.01355383 -0.1169538 0.1912398 255 0 255
0.01517982 -0.1191021 0.1944675 255 0 255
0.01674709 -0.1206891 0.196863 255 0 255
0.01833752 -0.1222716 0.1992528 255 0 255
0.02014642 -0.1249612 0.2032877 255 0 255
0.02209575 -0.1282007 0.2081407 255 0 255
0.02366954 -0.1292123 0.2096861 255 0 255
0.02536801 -0.1307747 0.2120504 255 0 255
0.0272028 -0.1328869 0.2152327 255 0 255
0.02953759 -0.1372111 0.2217035 255 0 255
0.06982397 -0.1089302 0.1812751 255 0 255
0.0697543 -0.1060402 0.177003 255 0 255
0.07043889 -0.1047617 0.1751403 255 0 255
0.07164375 -0.1045535 0.1748787 255 0 255
0.07257516 -0.103808 0.1738132 255 0 255
0.0729458 -0.1019932 0.1711471 255 0 255
0.07385189 -0.1012463 0.170079 255 0 255
0.07474909 -0.100498 0.1690087 255 0 255
0.07535008 -0.09921656 0.1671398 255 0 255
0.0765169 -0.09899751 0.1668621 255 0 255
0.07768241 -0.09877584 0.1665806 255 0 255
0.07824918 -0.09749205 0.1647075 255 0 255
0.07910201 -0.09673753 0.1636274 255 0 255
0.07994591 -0.09598178 0.1625454 255 0 255
0.08078089 -0.09522493 0.1614616 255 0 255
0.08129324 -0.09394025 0.159586 255 0 255
0.08210673 -0.09318197 0.1584996 255 0 255
0.08258999 -0.09189751 0.1566236 255 0 255
0.08370695 -0.09166232 0.1563219 255 0 255
0.08482252 -0.09142453 0.1560166 255 0 255
0.08593664 -0.09118416 0.1557077 255 0 255
0.08738564 -0.09146317 0.156179 255 0 255
0.08816059 -0.09069574 0.1550789 255 0 255
0.08892665 -0.08992739 0.1539773 255 0 255
0.09003124 -0.08967761 0.1536549 255 0 255
0.09113432 -0.08942524 0.1533289 255 0 255
0.09188105 -0.0886526 0.1522207 255 0 255
0.09333596 -0.08891288 0.152666 255 0 255
0.09443446 -0.08865289 0.1523291 255 0 255
0.0955314 -0.08839034 0.1519887 255 0 255
0.09625715 -0.08761103 0.1508707 255 0 255
0.09697392 -0.086831 0.1497515 255 0 255
-0.1151856 -0.07704103 0.1277765 255 0 255
-0.1161711 -0.08169124 0.1345657 255 0 255
-0.1166176 -0.08402247 0.1379701 255 0 255
-0.1159435 -0.08477429 0.1390774 255 0 255
-0.1152606 -0.08552524 0.1401838 255 0 255
-0.1131455 -0.0841578 0.1382085 255 0 255
-0.1124595 -0.08490391 0.1393082 255 0 255
-0.1114163 -0.0851182 0.1396343 255 0 255
-0.1103716 -0.08533005 0.139957 255 0 255
-0.1096665 -0.08607183 0.1410512 255 0 255
-0.1092898 -0.08734581 0.1429201 255 0 255
-0.1088968 -0.08862022 0.1447901 255 0 255
-0.1081577 -0.08936044 0.1458829 255 0 255
-0.1077357 -0.09063488 0.1477537 255 0 255
-0.1066527 -0.0908377 0.1480648 255 0 255
-0.1055683 -0.09103796 0.1483724 255 0 255
-0.1041676 -0.09069837 0.1478942 255 0 255
-0.1030841 -0.09089291 0.1481938 255 0 255
-0.1016919 -0.09054625 0.1477054 255 0 255
-0.1003059 -0.09019578 0.1472116 255 0 255
-0.09922598 -0.09038147 0.1474988 255 0 255
-0.09814474 -0.09056467 0.1477824 255 0 255
-0.09706225 -0.09074536 0.1480626 255 0 255
-0.0959785 -0.09092353 0.1483393 255 0 255
-0.09460869 -0.09055672 0.1478222 255 0 255
-0.0932452 -0.09018618 0.1472998 255 0 255
-0.09188811 -0.08981195 0.146772 255 0 255
-0.09053737 -0.08943401 0.1462389 255 0 255
-0.0894627 -0.08959729 0.1464946 255 0 255
-0.08812109 -0.0892127 0.1459519 255 0 255
-0.08757192 -0.09046236 0.1477913 255 0 255
-0.08649002 -0.09061874 0.1480375 255 0 255
-0.08540697 -0.09077262 0.1482802 255 0 255
-0.08432285 -0.09092397 0.1485194 255 0 255
-0.08323763 -0.09107284 0.1487552 255 0 255
-0.08190841 -0.09067053 0.1481874 255 0 255
-0.08106402 -0.09136301 0.1492162 255 0 255
-0.07997564 -0.09150435 0.1494415 255 0 255
-0.07888624 -0.09164315 0.1496633 255 0 255
-0.07802343 -0.09233004 0.1506847 255 0 255
-0.07715194 -0.09301538 0.1517042 255 0 255
-0.07583196 -0.09259602 0.1511124 255 0 255
-0.07473478 -0.09272519 0.1513209 255 0 255
-0.07363664 -0.09285185 0.151526 255 0 255
-0.07232924 -0.09242311 0.1509207 255 0 255
-0.07123314 -0.09254424 0.151118 255 0 255
-0.07033671 -0.0932166 0.1521199 255 0 255
-0.06903821 -0.09277898 0.151502 255 0 255
-0.06793946 -0.09289256 0.1516888 255 0 255
-0.06683985 -0.09300359 0.151872 255 0 255
-0.06592456 -0.0936674 0.1528624 255 0 255
-0.06463815 -0.09321807 0.1522278 255 0 255
-0.06371349 -0.09387755 0.1532125 255 0 255
-0.06278028 -0.09453521 0.1541948 255 0 255
-0.0616689 -0.09463425 0.1543615 255 0 255
-0.06055677 -0.09473072 0.1545247 255 0 255
-0.05960573 -0.09538206 0.1554986 255 0 255
-0.05848824 -0.09547377 0.1556552 255 0 255
-0.05737003 -0.09556284 0.1558082 255 0 255
-0.05625115 -0.09564938 0.1559576 255 0 255
-0.05527784 -0.09629198 0.1569199 255 0 255
-0.05415372 -0.09637363 0.1570626 255 0 255
-0.05302894 -0.09645274 0.1572017 255 0 255
-0.05190356 -0.09652919 0.1573372 255 0 255
-0.05090819 -0.09716285 0.1582876 255 0 255
-0.04965096 -0.09667441 0.1575975 255 0 255
-0.04852379 -0.09674315 0.1577222 255 0 255
-0.04751492 -0.09736972 0.1586629 255 0 255
-0.04649768 -0.0979941 0.1596008 255 0 255
-0.04536105 -0.09805549 0.1597155 255 0 255
-0.04433101 -0.09867532 0.1606473 255 0 255
-0.04318945 -0.09873161 0.160755 255 0 255
-0.04194812 -0.09822388 0.1600375 255 0 255
-0.04080954 -0.09827478 0.1601375 255 0 255
-0.03976192 -0.09888486 0.1610561 255 0 255
-0.03870604 -0.09949262 0.1619717 255 0 255
-0.03755831 -0.09953597 0.1620615 255 0 255
-0.03641018 -0.09957666 0.1621474 255 0 255
-0.03526169 -0.09961475 0.1622298 255 0 255
-0.03404108 -0.09908772 0.1614848 255 0 255
-0.03282799 -0.09855776 0.1607355 255 0 255
-0.03162245 -0.09802502 0.1599821 255 0 255
-0.03060435 -0.09917784 0.1616979 255 0 255
-0.02940216 -0.09863974 0.1609369 255 0 255
-0.02825966 -0.09866183 0.1609967 255 0 255
-0.02716503 -0.09924429 0.1618779 255 0 255
-0.02606227 -0.09982426 0.1627557 255 0 255
-0.02491117 -0.09983855 0.1628049 255 0 255
-0.02379618 -0.1004134 0.1636758 255 0 255
-0.02267312 -0.1009856 0.1645434 255 0 255
-0.021542 -0.1015553 0.1654075 255 0 255
-0.02037838 -0.101559 0.1654422 255 0 255
-0.01923514 -0.1021233 0.1662992 255 0 255
-0.01806733 -0.1021218 0.1663265 255 0 255
-0.01691203 -0.1026807 0.1671763 255 0 255
-0.01574011 -0.1026737 0.1671962 255 0 255
-0.01456809 -0.1026641 0.1672123 255 0 255
-0.01339606 -0.1026517 0.1672246 255 0 255
-0.01222083 -0.1031998 0.1680596 255 0 255
-0.01104479 -0.103182 0.1680644 255 0 255
-0.009857752 -0.1037244 0.1688919 255 0 255
-0.008662817 -0.104264 0.1697156 255 0 255
-0.007460076 -0.1048007 0.1705354 255 0 255
-0.006249474 -0.1053345 0.1713514 255 0 255
-0.005031066 -0.1058654 0.1721634 255 0 255
-0.003804906 -0.1063933 0.1729716 255 0 255
-0.002605663 -0.1063559 0.1729495 255 0 255
-0.001406559 -0.1063157 0.1729236 255 0 255
-0.0001650132 -0.1068349 0.1737198 255 0 255
0.001130786 -0.1079129 0.1753378 255 0 255
0.002391692 -0.1084258 0.1761257 255 0 255
0.003660233 -0.1089355 0.1769095 255 0 255
0.004994823 -0.1100035 0.1785145 255 0 255
0.006344914 -0.111068 0.180115 255 0 255
0.00771048 -0.1121289 0.1817108 255 0 255
0.009161712 -0.1137469 0.1841269 255 0 255
0.01071037 -0.1159215 0.1873625 255 0 255
0.01229017 -0.1180914 0.1905924 255 0 255
0.01381911 -0.1196963 0.1929921 255 0 255
0.01537129 -0.1212969 0.1953863 255 0 255
0.01694663 -0.1228931 0.1977748 255 0 255
0.01854515 -0.1244846 0.2001575 255 0 255
0.02006903 -0.1255125 0.2017111 255 0 255
0.02201482 -0.1287716 0.2065512 255 0 255
0.02347928 -0.1292313 0.2072699 255 0 255
0.02517007 -0.1308039 0.2096283 255 0 255
0.02688389 -0.1323715 0.2119805 255 0 255
0.02932481 -0.1372802 0.2192565 255 0 255
0.03025904 -0.1349343 0.2158439 255 0 255
0.07081789 -0.1092246 0.1795094 255 0 255
0.07098841 -0.1068584 0.1760489 255 0 255
0.07220093 -0.1066486 0.175786 255 0 255
0.07286771 -0.1053603 0.1739234 255 0 255
0.07351802 -0.104072 0.1720602 255 0 255
0.07415178 -0.1027836 0.1701967 255 0 255
0.07505281 -0.102031 0.1691279 255 0 255
0.07565745 -0.1007421 0.1672628 255 0 255
0.07653692 -0.0999876 0.166191 255 0 255
0.07770241 -0.09976552 0.1659097 255 0 255
0.07856788 -0.09900785 0.164833 255 0 255
0.07942444 -0.09824897 0.1637544 255 0 255
0.08027206 -0.09748891 0.1626739 255 0 255
0.08111081 -0.0967277 0.1615916 255 0 255
0.0816268 -0.09543548 0.1597196 255 0 255
0.082444 -0.09467279 0.1586347 255 0 255
0.08293091 -0.09338073 0.1567623 255 0 255
0.08405165 -0.09314434 0.1564599 255 0 255
0.08517098 -0.09290536 0.1561539 255 0 255
0.0859563 -0.09213784 0.1550614 255 0 255
0.08740538 -0.09241961 0.1555309 255 0 255
0.08852036 -0.09217289 0.1552139 255 0 255
0.08929009 -0.0914001 0.1541137 255 0 255
0.09005091 -0.09062637 0.153012 255 0 255
0.09150524 -0.0908954 0.1534637 255 0 255
0.09190068 -0.08959734 0.1515807 255 0 255
0.09335572 -0.08986036 0.152024 255 0 255
0.09445422 -0.08959993 0.1516875 255 0 255
0.09555119 -0.08933692 0.1513474 255 0 255
0.09627693 -0.08855402 0.150232 255 0 255
0.09736707 -0.08828681 0.1498858 255 0 255
-0.1195938 -0.08241776 0.1336875 255 0 255
-0.1194229 -0.08552146 0.1381917 255 0 255
-0.1176403 -0.08469356 0.1370137 255 0 255
-0.1169714 -0.08545056 0.1381207 255 0 255
-0.1162936 -0.08620679 0.1392268 255 0 255
-0.1145285 -0.08536677 0.1380315 255 0 255
-0.1131324 -0.08505374 0.137596 255 0 255
-0.1120943 -0.08527009 0.137924 255 0 255
-0.1110547 -0.08548398 0.1382487 255 0 255
-0.1100137 -0.0856955 0.1385701 255 0 255
-0.1089713 -0.08590453 0.138888 255 0 255
-0.1086019 -0.08718378 0.1407501 255 0 255
-0.1078826 -0.08792649 0.1418384 255 0 255
-0.1071546 -0.08866813 0.1429255 255 0 255
-0.1070698 -0.0904857 0.1455654 255 0 255
-0.1063166 -0.09122664 0.1466521 255 0 255
-0.1052358 -0.0914266 0.1469584 255 0 255
-0.1041537 -0.09162403 0.1472612 255 0 255
-0.1030702 -0.09181891 0.1475605 255 0 255
-0.101678 -0.09146942 0.1470741 255 0 255
-0.1005956 -0.09165862 0.1473655 255 0 255
-0.09951191 -0.09184534 0.1476534 255 0 255
-0.09813083 -0.09148569 0.1471526 255 0 255
-0.096756 -0.09112224 0.1466464 255 0 255
-0.095676 -0.09130012 0.1469218 255 0 255
-0.09430998 -0.09092977 0.1464057 255 0 255
-0.09295031 -0.09055575 0.1458843 255 0 255
-0.09159698 -0.09017801 0.1453576 255 0 255
-0.09052345 -0.09034408 0.1456165 255 0 255
-0.0891792 -0.0899596 0.1450801 255 0 255
-0.08810712 -0.09012014 0.1453312 255 0 255
-0.08729588 -0.09082737 0.1463724 255 0 255
-0.08621775 -0.09098347 0.1466175 255 0 255
-0.08513851 -0.0911371 0.1468592 255 0 255
-0.08405815 -0.09128819 0.1470973 255 0 255
-0.08297671 -0.0914368 0.1473321 255 0 255
-0.08189423 -0.09158292 0.1475633 255 0 255
-0.08104973 -0.09227887 0.1485897 255 0 255
-0.07972611 -0.09186759 0.1480154 255 0 255
-0.0786405 -0.09200617 0.1482362 255 0 255
-0.07778145 -0.0926961 0.1492545 255 0 255
-0.07669004 -0.09283013 0.1494692 255 0 255
-0.07559762 -0.09296162 0.1496803 255 0 255
-0.07450424 -0.09309062 0.149888 255 0 255
-0.07319778 -0.09266139 0.1492882 255 0 255
-0.07210641 -0.09278486 0.1494881 255 0 255
-0.07101411 -0.09290583 0.1496846 255 0 255
-0.07012151 -0.09358123 0.1506835 255 0 255
-0.06882688 -0.09314018 0.1500669 255 0 255
-0.06792479 -0.09381136 0.1510602 255 0 255
-0.06682516 -0.09392261 0.1512432 255 0 255
-0.06590977 -0.09458986 0.1522313 255 0 255
-0.0648046 -0.09469641 0.152408 255 0 255
-0.06369864 -0.0948004 0.1525811 255 0 255
-0.06259188 -0.09490184 0.1527506 255 0 255
-0.06148439 -0.09500075 0.1529167 255 0 255
-0.06037611 -0.09509707 0.1530791 255 0 255
-0.05942888 -0.09575152 0.1540501 255 0 255
-0.05831524 -0.09584307 0.1542061 255 0 255
-0.05720092 -0.09593203 0.1543584 255 0 255
-0.05623599 -0.09658001 0.1553209 255 0 255
-0.05511641 -0.09666412 0.1554665 255 0 255
-0.05399616 -0.09674568 0.1556087 255 0 255
-0.05301364 -0.09738707 0.1565624 255 0 255
-0.05175373 -0.09690102 0.1558822 255 0 255
-0.05076217 -0.09753779 0.1568297 255 0 255
-0.04963555 -0.09760921 0.1569578 255 0 255
-0.04850833 -0.09767808 0.1570825 255 0 255
-0.04749939 -0.09830801 0.1580208 255 0 255
-0.04648207 -0.09893581 0.1589564 255 0 255
-0.0453454 -0.09899728 0.159071 255 0 255
-0.04420823 -0.09905618 0.1591819 255 0 255
-0.04307054 -0.09911241 0.1592892 255 0 255
-0.04193239 -0.09916604 0.1593928 255 0 255
-0.04079378 -0.09921706 0.1594928 255 0 255
-0.03974607 -0.09983049 0.1604091 255 0 255
-0.03860265 -0.09987642 0.1605021 255 0 255
-0.03745882 -0.0999197 0.1605914 255 0 255
-0.0363146 -0.09996036 0.1606771 255 0 255
-0.03517002 -0.09999837 0.160759 255 0 255
-0.03395337 -0.09946802 0.1600159 255 0 255
-0.03274423 -0.09893481 0.1592686 255 0 255
-0.0316065 -0.09896473 0.1593391 255 0 255
-0.03052835 -0.09955806 0.1602281 255 0 255
-0.02938608 -0.09958283 0.1602915 255 0 255
-0.02824355 -0.09960498 0.1603513 255 0 255
-0.02719689 -0.100757 0.162053 255 0 255
-0.02604599 -0.100774 0.1621058 255 0 255
-0.02489487 -0.1007883 0.1621549 255 0 255
-0.02377978 -0.1013665 0.1630236 255 0 255
-0.02262433 -0.1013756 0.1630655 255 0 255
-0.02149707 -0.1019484 0.1639272 255 0 255
-0.02036177 -0.1025187 0.1647855 255 0 255
-0.01919798 -0.1025198 0.1648164 255 0 255
-0.01805061 -0.1030847 0.1656676 255 0 255
-0.01689523 -0.1036469 0.1665151 255 0 255
-0.01571464 -0.1030735 0.1657109 255 0 255
-0.01455123 -0.1036303 0.1665511 255 0 255
-0.01337914 -0.1036179 0.1665634 255 0 255
-0.01220386 -0.1041692 0.1673962 255 0 255
-0.01102779 -0.1041514 0.167401 255 0 255
-0.009829569 -0.1052633 0.1690505 255 0 255
-0.008645649 -0.1052399 0.1690478 255 0 255
-0.007423794 -0.1063459 0.1706896 255 0 255
-0.006232133 -0.1063169 0.1706792 255 0 255
-0.005013638 -0.106851 0.1714891 255 0 255
-0.003818185 -0.1068164 0.171471 255 0 255
-0.002588084 -0.1073446 0.1722729 255 0 255
-0.001350235 -0.1078698 0.173071 255 0 255
-0.0001046574 -0.108392 0.1738649 255 0 255
0.001195228 -0.1094763 0.1754784 255 0 255
0.00246013 -0.1099922 0.176264 255 0 255
0.003787228 -0.1110698 0.1778689 255 0 255
0.005129847 -0.1121439 0.1794692 255 0 255
0.006550339 -0.1137789 0.1818881 255 0 255
0.007927862 -0.1148456 0.183479 255 0 255
0.009391088 -0.1164727 0.1858879 255 0 255
0.01102602 -0.1192233 0.1899366 255 0 255
0.01262187 -0.1214052 0.1931569 255 0 255
0.0140847 -0.1224555 0.194727 255 0 255
0.01582085 -0.1251913 0.1987576 255 0 255
0.01732614 -0.1262329 0.2003167 255 0 255
0.01894059 -0.127833 0.2026918 255 0 255
0.02057813 -0.1294285 0.205061 255 0 255
0.02244224 -0.1321435 0.2090656 255 0 255
0.02381686 -0.1320433 0.2089605 255 0 255
0.02541006 -0.1330631 0.2104914 255 0 255
0.02701846 -0.1340785 0.2120165 255 0 255
0.02887674 -0.1362112 0.2151748 255 0 255
0.02979512 -0.1338535 0.2117726 255 0 255
0.07288766 -0.1063752 0.1732295 255 0 255
0.07381395 -0.1056204 0.1721658 255 0 255
0.07445145 -0.1043246 0.170306 255 0 255
0.07535618 -0.1035678 0.1692389 255 0 255
0.07625205 -0.1028096 0.1681697 255 0 255
0.07684773 -0.1015126 0.1663072 255 0 255
0.07801708 -0.1012894 0.1660253 255 0 255
0.07888624 -0.1005274 0.1649502 255 0 255
0.07974656 -0.09976418 0.1638731 255 0 255
0.08059792 -0.09899978 0.1627941 255 0 255
0.0814404 -0.09823424 0.1617133 255 0 255
0.08196005 -0.09693443 0.159845 255 0 255
0.08278095 -0.09616742 0.1587617 255 0 255
0.08359296 -0.0953993 0.1576765 255 0 255
0.08439602 -0.09463017 0.1565898 255 0 255
0.08551912 -0.09439 0.1562831 255 0 255
0.08664081 -0.09414718 0.1559726 255 0 255
0.087761 -0.0939018 0.1556585 255 0 255
0.08887978 -0.09365378 0.1553408 255 0 255
0.0896532 -0.09287654 0.154242 255 0 255
0.09076525 -0.09262423 0.1539181 255 0 255
0.09187583 -0.0923693 0.1535905 255 0 255
0.09227487 -0.09106361 0.151711 255 0 255
0.09373365 -0.09132851 0.1521514 255 0 255
0.0944735 -0.09054438 0.1510422 255 0 255
0.0955705 -0.09028095 0.1507024 255 0 255
0.0962962 -0.08949439 0.1495894 255 0 255
0.09738636 -0.08922674 0.1492436 255 0 255
-0.1245932 -0.08522933 0.13578 255 0 255
-0.1258921 -0.08864328 0.1406734 255 0 255
-0.1225245 -0.08571392 0.1365063 255 0 255
-0.1203433 -0.08436222 0.1345925 255 0 255
-0.1204492 -0.08618867 0.1372192 255 0 255
-0.1201575 -0.08748593 0.1390902 255 0 255
-0.1183677 -0.08665372 0.1379187 255 0 255
-0.1173245 -0.08688258 0.1382634 255 0 255
-0.116643 -0.08764315 0.1393682 255 0 255
-0.1148742 -0.08679794 0.1381781 255 0 255
-0.1131188 -0.0859472 0.13698 255 0 255
-0.1117286 -0.08562741 0.1365408 255 0 255
-0.1106927 -0.08584096 0.136864 255 0 255
-0.1093108 -0.08551408 0.1364147 255 0 255
-0.1082757 -0.085722 0.1367302 255 0 255
-0.1075764 -0.08646701 0.1378138 255 0 255
-0.1072018 -0.08775131 0.1396689 255 0 255
-0.1064811 -0.08849509 0.1407513 255 0 255
-0.1064036 -0.09032121 0.1433822 255 0 255
-0.1056577 -0.09106427 0.1444643 255 0 255
-0.104903 -0.09180626 0.1455451 255 0 255
-0.1041394 -0.09254713 0.1466246 255 0 255
-0.1030559 -0.09274239 0.1469237 255 0 255
-0.1016637 -0.09239004 0.1464393 255 0 255
-0.1005813 -0.0925796 0.1467303 255 0 255
-0.09919772 -0.09222026 0.146236 255 0 255
-0.09782042 -0.09185709 0.1457361 255 0 255
-0.09674164 -0.09203783 0.1460148 255 0 255
-0.09537312 -0.09166773 0.1455051 255 0 255
-0.09401092 -0.09129392 0.1449901 255 0 255
-0.09265503 -0.09091638 0.1444697 255 0 255
-0.09158267 -0.09108526 0.1447318 255 0 255
-0.09023578 -0.09070097 0.1442018 255 0 255
-0.08916485 -0.09086428 0.1444561 255 0 255
-0.08782701 -0.09047326 0.1439165 255 0 255
-0.08675762 -0.09063104 0.1441631 255 0 255
-0.08568707 -0.09078633 0.1444062 255 0 255
-0.08486971 -0.09149264 0.145439 255 0 255
-0.08379315 -0.09164349 0.1456762 255 0 255
-0.08271553 -0.09179185 0.1459098 255 0 255
-0.08163683 -0.09193771 0.1461401 255 0 255
-0.08079609 -0.09263667 0.1471632 255 0 255
-0.07947632 -0.09222194 0.1465902 255 0 255
-0.07862584 -0.09291686 0.147608 255 0 255
-0.0777667 -0.09361023 0.1486239 255 0 255
-0.07645161 -0.09318697 0.1480388 255 0 255
-0.07536303 -0.09331826 0.1482491 255 0 255
-0.07448942 -0.09400551 0.1492568 255 0 255
-0.073183 -0.0935733 0.1486591 255 0 255
-0.07188334 -0.09313767 0.1480564 255 0 255
-0.07079488 -0.09325846 0.148252 255 0 255
-0.06970554 -0.09337672 0.1484441 255 0 255
-0.06861532 -0.0934924 0.1486327 255 0 255
-0.06752424 -0.09360562 0.1488178 255 0 255
-0.06662123 -0.0942777 0.1498051 255 0 255
-0.06570964 -0.09494801 0.1507903 255 0 255
-0.06460833 -0.0950544 0.1509662 255 0 255
-0.06350622 -0.09515821 0.1511385 255 0 255
-0.06257673 -0.09582236 0.1521154 255 0 255
-0.06129965 -0.09535824 0.1514726 255 0 255
-0.06019526 -0.09545442 0.1516344 255 0 255
-0.05909011 -0.09554805 0.1517926 255 0 255
-0.05814208 -0.09620334 0.1527577 255 0 255
-0.05703161 -0.09629215 0.1529094 255 0 255
-0.05592047 -0.09637844 0.1530575 255 0 255
-0.0549548 -0.09702726 0.1540141 255 0 255
-0.05398065 -0.0976741 0.1549681 255 0 255
-0.05285974 -0.09775321 0.1551065 255 0 255
-0.05173819 -0.09782971 0.1552413 255 0 255
-0.05074656 -0.09846986 0.1561864 255 0 255
-0.04949331 -0.09797501 0.1555002 255 0 255
-0.04836999 -0.09804378 0.1556243 255 0 255
-0.04736487 -0.09867685 0.1565599 255 0 255
-0.0463514 -0.09930778 0.1574928 255 0 255
-0.04521861 -0.09936918 0.1576069 255 0 255
-0.04419234 -0.09999552 0.1585337 255 0 255
-0.04295155 -0.09948415 0.1578241 255 0 255
-0.04181728 -0.09953771 0.1579273 255 0 255
-0.04077781 -0.1001568 0.1588443 255 0 255
-0.03963872 -0.1002052 0.1589405 255 0 255
-0.03849921 -0.1002511 0.1590331 255 0 255
-0.03735929 -0.1002943 0.1591221 255 0 255
-0.03621899 -0.100335 0.1592074 255 0 255
-0.03507829 -0.1003729 0.159289 255 0 255
-0.03386561 -0.09983929 0.1585478 255 0 255
-0.03266045 -0.09930281 0.1578024 255 0 255
-0.0315904 -0.09990188 0.1586924 255 0 255
-0.03051217 -0.1004985 0.1595791 255 0 255
-0.02936987 -0.1005233 0.1596425 255 0 255
-0.02827927 -0.101115 0.1605226 255 0 255
-0.02718053 -0.1017041 0.1613994 255 0 255
-0.02602961 -0.1017212 0.1614522 255 0 255
-0.02487846 -0.1017355 0.1615012 255 0 255
-0.02372709 -0.1017473 0.1615466 255 0 255
-0.02257557 -0.1017563 0.1615883 255 0 255
-0.02145216 -0.1023325 0.1624477 255 0 255
-0.02032073 -0.102906 0.1633035 255 0 255
-0.01918128 -0.1034768 0.1641559 255 0 255
-0.01801735 -0.1034753 0.1641831 255 0 255
-0.01687836 -0.1046105 0.1658501 255 0 255
-0.01570639 -0.1046035 0.16587 255 0 255
-0.01453432 -0.1045939 0.1658861 255 0 255
-0.01336289 -0.1051511 0.1667204 255 0 255
-0.01218358 -0.1057056 0.1675509 255 0 255
-0.01100354 -0.1056877 0.1675558 255 0 255
-0.009812361 -0.1062365 0.1683788 255 0 255
-0.008613353 -0.1067825 0.1691981 255 0 255
-0.007425514 -0.1067563 0.1691916 255 0 255
-0.006214743 -0.1072965 0.1700031 255 0 255
-0.004996168 -0.1078338 0.1708108 255 0 255
-0.003769811 -0.1083681 0.1716145 255 0 255
-0.002535718 -0.1088995 0.1724143 255 0 255
-0.001293841 -0.1094277 0.1732099 255 0 255
-4.423982E-05 -0.109953 0.1740016 255 0 255
0.001213102 -0.1104751 0.1747892 255 0 255
0.002528689 -0.1115624 0.1763939 255 0 255
0.003805318 -0.1120782 0.177173 255 0 255
0.00520653 -0.1137266 0.17959 255 0 255
0.00663116 -0.115371 0.182002 255 0 255
0.008012805 -0.1164439 0.1835884 255 0 255
0.009550477 -0.1186478 0.186811 255 0 255
0.01111935 -0.120847 0.1900279 255 0 255
0.01279755 -0.1236083 0.1940591 255 0 255
0.01435051 -0.1252312 0.1964443 255 0 255
0.01627091 -0.1291151 0.2021023 255 0 255
0.01779601 -0.1301618 0.2036558 255 0 255
0.01943029 -0.1317702 0.206023 255 0 255
0.02089203 -0.1322427 0.2067465 255 0 255
0.02276822 -0.1349728 0.2107393 255 0 255
0.02404893 -0.1343066 0.2098152 255 0 255
0.02575982 -0.1358968 0.2121589 255 0 255
0.02738009 -0.1369176 0.2136787 255 0 255
0.02901549 -0.1379339 0.2151927 255 0 255
0.0299375 -0.1355627 0.2117992 255 0 255
0.07419091 -0.1047835 0.1688235 255 0 255
0.07565933 -0.1051082 0.1693415 255 0 255
0.07655894 -0.1043457 0.1682739 255 0 255
0.07744965 -0.103582 0.1672043 255 0 255
0.07833149 -0.1028169 0.1661327 255 0 255
0.07950329 -0.1025899 0.1658463 255 0 255
0.08037108 -0.1018217 0.1647699 255 0 255
0.08153643 -0.10159 0.1644769 255 0 255
0.08207991 -0.1002815 0.1626113 255 0 255
0.082293 -0.09843709 0.1599623 255 0 255
0.08311763 -0.09766573 0.1588804 255 0 255
0.08393332 -0.09689325 0.1577968 255 0 255
0.08474009 -0.09611975 0.1567115 255 0 255
0.08553798 -0.0953452 0.1556246 255 0 255
0.08699238 -0.09563432 0.1560929 255 0 255
0.08811633 -0.09538771 0.1557781 255 0 255
0.08923884 -0.09513845 0.1554596 255 0 255
0.09001598 -0.09435678 0.1543622 255 0 255
0.09078413 -0.09357417 0.1532633 255 0 255
0.09189472 -0.09331881 0.1529361 255 0 255
0.09264871 -0.09253361 0.1518332 255 0 255
0.09375252 -0.092274 0.1514999 255 0 255
0.09485478 -0.09201177 0.1511628 255 0 255
0.09595548 -0.09174702 0.1508222 255 0 255
0.09668478 -0.0909559 0.1497106 255 0 255
0.09777865 -0.09068689 0.1493639 255 0 255
-0.1294386 -0.08933324 0.1396589 255 0 255
-0.1256112 -0.0858793 0.1347892 255 0 255
-0.1249715 -0.08665635 0.1359083 255 0 255
-0.125489 -0.08902742 0.1392844 255 0 255
-0.1228954 -0.0871435 0.1366365 255 0 255
-0.1203293 -0.08525033 0.1339751 255 0 255
-0.1204351 -0.08708674 0.136595 255 0 255
-0.1197691 -0.08785579 0.1377036 255 0 255
-0.117983 -0.08701686 0.136535 255 0 255
-0.1173103 -0.08778187 0.1376382 255 0 255
-0.1162656 -0.08800869 0.1379793 255 0 255
-0.1145006 -0.08715678 0.1367922 255 0 255
-0.1131046 -0.08683819 0.1363605 255 0 255
-0.1117145 -0.08651564 0.1359233 255 0 255
-0.1106786 -0.08672956 0.1362462 255 0 255
-0.1092966 -0.08639985 0.1357988 255 0 255
-0.1075798 -0.0855243 0.1345776 255 0 255
-0.1068878 -0.08627138 0.1356565 255 0 255
-0.1065205 -0.08756095 0.1375047 255 0 255
-0.1058072 -0.08830682 0.1385825 255 0 255
-0.105411 -0.08959656 0.1404317 255 0 255
-0.1049985 -0.09088664 0.1422818 255 0 255
-0.1042512 -0.0916308 0.143358 255 0 255
-0.1038098 -0.09292074 0.1452086 255 0 255
-0.10273 -0.0931157 0.1455064 255 0 255
-0.1016489 -0.09330815 0.1458008 255 0 255
-0.1005664 -0.09349803 0.1460916 255 0 255
-0.09888317 -0.09258624 0.1448193 255 0 255
-0.09750964 -0.0922196 0.1443205 255 0 255
-0.09614243 -0.09184914 0.1438162 255 0 255
-0.09478148 -0.09147495 0.1433066 255 0 255
-0.09342688 -0.09109706 0.1427916 255 0 255
-0.0920786 -0.09071542 0.1422714 255 0 255
-0.09073674 -0.09033012 0.1417458 255 0 255
-0.08967453 -0.09049503 0.1420015 255 0 255
-0.08861115 -0.09065749 0.1422538 255 0 255
-0.08754665 -0.09081747 0.1425027 255 0 255
-0.08674285 -0.0915306 0.1435373 255 0 255
-0.0856723 -0.09168616 0.1437803 255 0 255
-0.08485487 -0.09239598 0.1448106 255 0 255
-0.08377828 -0.0925471 0.1450476 255 0 255
-0.08270062 -0.09269574 0.145281 255 0 255
-0.08162191 -0.09284188 0.1455111 255 0 255
-0.08078107 -0.09354429 0.1465318 255 0 255
-0.07946135 -0.09312662 0.1459608 255 0 255
-0.07837953 -0.09326524 0.1461805 255 0 255
-0.07752415 -0.09396159 0.1471931 255 0 255
-0.07643651 -0.09409566 0.1474067 255 0 255
-0.07534791 -0.09422719 0.1476167 255 0 255
-0.07425835 -0.0943562 0.1478233 255 0 255
-0.07316785 -0.09448267 0.1480263 255 0 255
-0.07186824 -0.0940441 0.1474258 255 0 255
-0.07057542 -0.0936021 0.1468204 255 0 255
-0.06969038 -0.09428357 0.1478132 255 0 255
-0.06840354 -0.0938357 0.1471994 255 0 255
-0.06750904 -0.09451294 0.1481866 255 0 255
-0.0664171 -0.09462382 0.148368 255 0 255
-0.06550932 -0.09529718 0.1493501 255 0 255
-0.06441186 -0.09540339 0.1495252 255 0 255
-0.06349084 -0.0960728 0.1505021 255 0 255
-0.06238793 -0.09617427 0.1506708 255 0 255
-0.06128424 -0.0962732 0.150836 255 0 255
-0.06017981 -0.09636955 0.1509976 255 0 255
-0.05907464 -0.09646336 0.1511557 255 0 255
-0.05796877 -0.09655463 0.1513103 255 0 255
-0.05686217 -0.09664333 0.1514613 255 0 255
-0.05590488 -0.09729748 0.152418 255 0 255
-0.05479307 -0.09738136 0.1525624 255 0 255
-0.05382274 -0.0980313 0.1535136 255 0 255
-0.05270571 -0.09811028 0.1536514 255 0 255
-0.05158807 -0.09818671 0.1537857 255 0 255
-0.05060024 -0.09882995 0.154728 255 0 255
-0.0494775 -0.09890146 0.1548556 255 0 255
-0.04847677 -0.09954026 0.155792 255 0 255
-0.04734896 -0.09960677 0.1559128 255 0 255
-0.0463354 -0.1002411 0.1568433 255 0 255
-0.0452026 -0.1003026 0.1569573 255 0 255
-0.0440693 -0.1003615 0.1570677 255 0 255
-0.0429355 -0.1004178 0.1571744 255 0 255
-0.04180123 -0.1004715 0.1572775 255 0 255
-0.04066649 -0.1005225 0.1573769 255 0 255
-0.03962256 -0.1011424 0.1582883 255 0 255
-0.03848303 -0.1011884 0.1583808 255 0 255
-0.0372597 -0.1006599 0.1576536 255 0 255
-0.03612329 -0.1007005 0.1577385 255 0 255
-0.03506207 -0.1013105 0.1586366 255 0 255
-0.03392099 -0.1013459 0.1587145 255 0 255
-0.03271194 -0.1008064 0.1579716 255 0 255
-0.0317016 -0.1019813 0.1596769 255 0 255
-0.03055563 -0.1020089 0.1597441 255 0 255
-0.02935354 -0.1014612 0.1589897 255 0 255
-0.02826287 -0.1020562 0.1598676 255 0 255
-0.02716405 -0.1026486 0.1607421 255 0 255
-0.0260131 -0.1026657 0.1607948 255 0 255
-0.02486193 -0.1026801 0.1608438 255 0 255
-0.02371056 -0.1026919 0.1608892 255 0 255
-0.02252681 -0.102128 0.1601119 255 0 255
-0.02143554 -0.1032804 0.161788 255 0 255
-0.02027973 -0.1032842 0.1618224 255 0 255
-0.01916449 -0.1044313 0.1634917 255 0 255
-0.01800055 -0.1044297 0.1635189 255 0 255
-0.01686143 -0.1055714 0.1651814 255 0 255
-0.0156894 -0.1055644 0.1652012 255 0 255
-0.01452193 -0.1061277 0.166037 255 0 255
-0.01334585 -0.1061153 0.1660494 255 0 255
-0.01216975 -0.1061001 0.166058 255 0 255
-0.01098642 -0.106655 0.1668826 255 0 255
-0.009795162 -0.1072071 0.1677034 255 0 255
-0.008596044 -0.1077562 0.1685204 255 0 255
-0.007408191 -0.10773 0.1685139 255 0 255
-0.00617433 -0.1088459 0.1701429 255 0 255
-0.004951736 -0.1093863 0.1709483 255 0 255
-0.003721353 -0.1099236 0.1717497 255 0 255
-0.002483207 -0.110458 0.1725471 255 0 255
-0.001198481 -0.1115613 0.1741599 255 0 255
5.908067E-05 -0.1120894 0.1749492 255 0 255
0.001324348 -0.1126144 0.1757344 255 0 255
0.002647992 -0.1137078 0.1773344 255 0 255
0.003932549 -0.1142264 0.1781111 255 0 255
0.00528332 -0.1153129 0.1797023 255 0 255
0.006712083 -0.1169667 0.1821074 255 0 255
0.008164194 -0.1186166 0.1845076 255 0 255
0.009780392 -0.1214034 0.1885391 255 0 255
0.01136133 -0.1236148 0.1917466 255 0 255
0.01312988 -0.1269617 0.1965839 255 0 255
0.01486314 -0.1297328 0.2005967 255 0 255
0.01680758 -0.1336379 0.2062377 255 0 255
0.01826637 -0.13412 0.2069681 255 0 255
0.01982653 -0.1351675 0.2085105 255 0 255
0.02130407 -0.135642 0.2092308 255 0 255
0.02309445 -0.1378184 0.212395 255 0 255
0.02449268 -0.1377163 0.2122884 255 0 255
0.02621942 -0.1393148 0.2146242 255 0 255
0.02785552 -0.1403406 0.2161384 255 0 255
0.02962431 -0.1419293 0.2184617 255 0 255
0.03093011 -0.1412446 0.2175196 255 0 255
0.07504997 -0.1074175 0.1704996 255 0 255
0.0759622 -0.1066522 0.1694358 255 0 255
0.07715317 -0.1064301 0.1691576 255 0 255
0.07834285 -0.1062053 0.1688756 255 0 255
0.07923596 -0.1054345 0.1678037 255 0 255
0.08012015 -0.1046625 0.1667298 255 0 255
0.08129819 -0.1044309 0.1664381 255 0 255
0.08216833 -0.1036556 0.1653593 255 0 255
0.08271921 -0.1023388 0.1634965 255 0 255
0.08293966 -0.100483 0.1608525 255 0 255
0.08377175 -0.09970644 0.1597712 255 0 255
0.08459492 -0.09892882 0.1586881 255 0 255
0.08540917 -0.09815013 0.1576033 255 0 255
0.08654352 -0.09790672 0.1572941 255 0 255
0.08767642 -0.09766068 0.1569812 255 0 255
0.0888079 -0.09741201 0.1566646 255 0 255
0.08959763 -0.09662682 0.1555702 255 0 255
0.09072234 -0.09637368 0.1552473 255 0 255
0.09149788 -0.09558581 0.1541488 255 0 255
0.09261593 -0.09532835 0.1538197 255 0 255
0.09337729 -0.09453781 0.1527171 255 0 255
0.09412969 -0.09374643 0.1516132 255 0 255
0.09487315 -0.09295419 0.1505079 255 0 255
0.09597388 -0.09268896 0.1501676 255 0 255
0.09670313 -0.09189427 0.1490585 255 0 255
0.09742341 -0.09109884 0.1479482 255 0 255
-0.1205471 -0.07541113 0.1181639 255 0 255
-0.1264461 -0.08467808 0.1311825 255 0 255
-0.1286245 -0.08918399 0.1375246 255 0 255
-0.1279719 -0.08997057 0.1386497 255 0 255
-0.1261336 -0.08915488 0.1375268 255 0 255
-0.1246968 -0.08886798 0.1371458 255 0 255
-0.1232656 -0.08857689 0.1367588 255 0 255
-0.1210774 -0.0872088 0.1348601 255 0 255
-0.1200426 -0.08744501 0.135213 255 0 255
-0.1193803 -0.08821684 0.136318 255 0 255
-0.118709 -0.08898784 0.137422 255 0 255
-0.1172955 -0.08867866 0.1370095 255 0 255
-0.1162508 -0.08890586 0.1373503 255 0 255
-0.1144859 -0.08804805 0.1361673 255 0 255
-0.1130899 -0.08772669 0.1357376 255 0 255
-0.1113479 -0.08685853 0.1345397 255 0 255
-0.1099674 -0.08652847 0.1340975 255 0 255
-0.1089374 -0.08673884 0.1344146 255 0 255
-0.1075652 -0.08640167 0.1339624 255 0 255
-0.1065361 -0.08660644 0.1342717 255 0 255
-0.105839 -0.08735539 0.1353459 255 0 255
-0.105133 -0.08810338 0.1364191 255 0 255
-0.1044183 -0.08885037 0.137491 255 0 255
-0.104339 -0.09069376 0.1401046 255 0 255
-0.1039176 -0.09198947 0.1419487 255 0 255
-0.1034798 -0.09328548 0.1437936 255 0 255
-0.1024037 -0.09348009 0.1440901 255 0 255
-0.1016335 -0.09422364 0.1451587 255 0 255
-0.1002476 -0.09386178 0.1446727 255 0 255
-0.09886792 -0.09349611 0.1441813 255 0 255
-0.09719852 -0.09257317 0.1429058 255 0 255
-0.0958351 -0.09219924 0.1424025 255 0 255
-0.09447797 -0.09182157 0.1418939 255 0 255
-0.09312717 -0.09144016 0.14138 255 0 255
-0.09178273 -0.09105507 0.1408608 255 0 255
-0.09072169 -0.09122277 0.1411197 255 0 255
-0.08965944 -0.09138799 0.1413751 255 0 255
-0.08859606 -0.09155075 0.1416272 255 0 255
-0.08753155 -0.09171104 0.1418759 255 0 255
-0.08672769 -0.09242763 0.1429081 255 0 255
-0.0856571 -0.09258349 0.1431508 255 0 255
-0.08458541 -0.09273686 0.1433901 255 0 255
-0.08351266 -0.09288776 0.143626 255 0 255
-0.08243879 -0.09303613 0.1438584 255 0 255
-0.0816066 -0.0937435 0.1448786 255 0 255
-0.08052683 -0.0938874 0.1451049 255 0 255
-0.07921094 -0.09346629 0.1445352 255 0 255
-0.07836419 -0.09416766 0.1455474 255 0 255
-0.07728137 -0.09430401 0.1457634 255 0 255
-0.07619755 -0.09443784 0.145976 255 0 255
-0.07489307 -0.09400476 0.1453894 255 0 255
-0.07402702 -0.09469798 0.1463908 255 0 255
-0.07294037 -0.09482424 0.1465929 255 0 255
-0.07185277 -0.09494798 0.1467916 255 0 255
-0.07056002 -0.09450302 0.1461883 255 0 255
-0.0696749 -0.09518789 0.1471786 255 0 255
-0.0683881 -0.09473705 0.146567 255 0 255
-0.06749352 -0.09541772 0.1475517 255 0 255
-0.06640158 -0.09552882 0.147733 255 0 255
-0.06530878 -0.09563737 0.1479108 255 0 255
-0.06439625 -0.09631199 0.1488877 255 0 255
-0.06329797 -0.09641584 0.1490591 255 0 255
-0.06219893 -0.09651718 0.1492271 255 0 255
-0.06109913 -0.09661593 0.1493915 255 0 255
-0.05983305 -0.09614216 0.1487476 255 0 255
-0.05889729 -0.09680581 0.1497098 255 0 255
-0.05779527 -0.09689693 0.1498637 255 0 255
-0.05669257 -0.09698546 0.1500141 255 0 255
-0.05558919 -0.09707147 0.1501609 255 0 255
-0.05463116 -0.09772648 0.1511118 255 0 255
-0.05352258 -0.09780765 0.1512521 255 0 255
-0.05255154 -0.09845833 0.1521972 255 0 255
-0.0515721 -0.09910703 0.1531398 255 0 255
-0.05045382 -0.09918103 0.1532704 255 0 255
-0.04946145 -0.09982531 0.1542072 255 0 255
-0.04846066 -0.1004675 0.1551413 255 0 255
-0.04745149 -0.1011075 0.1560727 255 0 255
-0.04620447 -0.1005982 0.1553791 255 0 255
-0.04518641 -0.1012334 0.1563041 255 0 255
-0.04405308 -0.1012924 0.1564143 255 0 255
-0.04281628 -0.1007746 0.1557087 255 0 255
-0.04168591 -0.1008282 0.1558114 255 0 255
-0.04065022 -0.1014538 0.1567234 255 0 255
-0.03951503 -0.1015023 0.1568192 255 0 255
-0.03829215 -0.1009733 0.1560978 255 0 255
-0.03716005 -0.1010164 0.1561859 255 0 255
-0.03602758 -0.1010569 0.1562705 255 0 255
-0.0349702 -0.1016701 0.157166 255 0 255
-0.03383306 -0.1017055 0.1572436 255 0 255
-0.03269559 -0.1017383 0.1573176 255 0 255
-0.0316851 -0.1029197 0.1590183 255 0 255
-0.03053913 -0.1029474 0.1590855 255 0 255
-0.02939287 -0.1029724 0.159149 255 0 255
-0.02829818 -0.1035706 0.1600247 255 0 255
-0.02714745 -0.1035905 0.1600811 255 0 255
-0.0259965 -0.1036076 0.1601338 255 0 255
-0.02484531 -0.103622 0.1601828 255 0 255
-0.02369392 -0.1036338 0.1602281 255 0 255
-0.02251023 -0.1030668 0.1594531 255 0 255
-0.02139062 -0.1036495 0.1603077 255 0 255
-0.020263 -0.1042295 0.1611589 255 0 255
-0.01912733 -0.1048068 0.1620067 255 0 255
-0.01798368 -0.1053815 0.1628509 255 0 255
-0.01684443 -0.1065296 0.1645088 255 0 255
-0.01566394 -0.1059465 0.1637114 255 0 255
-0.01450486 -0.1070891 0.1653622 255 0 255
-0.01332877 -0.1070767 0.1653746 255 0 255
-0.01214928 -0.1076376 0.1662007 255 0 255
-0.0109619 -0.1081957 0.167023 255 0 255
-0.009766626 -0.1087508 0.1678416 255 0 255
-0.008578749 -0.1087273 0.1678389 255 0 255
-0.007390883 -0.1087011 0.1678324 255 0 255
-0.006156866 -0.1098233 0.1694569 255 0 255
-0.004934203 -0.1103669 0.1702601 255 0 255
-0.003672751 -0.1114829 0.1718765 255 0 255
-0.002395646 -0.1125956 0.1734889 255 0 255
-0.0011029 -0.113705 0.175097 255 0 255
0.0001197801 -0.113661 0.1750669 255 0 255
0.001435837 -0.1147639 0.1766666 255 0 255
0.002716772 -0.1152886 0.1774451 255 0 255
0.004059998 -0.1163847 0.1790361 255 0 255
0.005477391 -0.1180516 0.1814391 255 0 255
0.006980705 -0.1202886 0.1846534 255 0 255
0.008448757 -0.1219472 0.1870461 255 0 255
0.01008101 -0.1247492 0.1910657 255 0 255
0.01167795 -0.1269725 0.1942634 255 0 255
0.01354091 -0.1309111 0.1999019 255 0 255
0.01545861 -0.1348433 0.2055331 255 0 255
0.01725868 -0.1376233 0.2095264 255 0 255
0.01873717 -0.1381073 0.2102535 255 0 255
0.02022311 -0.1385875 0.2109755 255 0 255
0.02161849 -0.1384919 0.2108783 255 0 255
0.02301332 -0.138393 0.2107765 255 0 255
0.02451346 -0.1388625 0.211484 255 0 255
0.02624039 -0.1404705 0.2138133 255 0 255
0.02787661 -0.1415026 0.215323 255 0 255
0.029528 -0.1425302 0.2168269 255 0 255
0.03107283 -0.1429829 0.2175124 255 0 255
0.033503 -0.1474212 0.223877 255 0 255
0.07569702 -0.1071027 0.1679488 255 0 255
0.07688416 -0.106881 0.1676717 255 0 255
0.07807005 -0.1066565 0.1673909 255 0 255
0.07895937 -0.1058829 0.1663225 255 0 255
0.07983971 -0.105108 0.165252 255 0 255
0.08101393 -0.1048767 0.1649615 255 0 255
0.08218688 -0.1046428 0.1646672 255 0 255
0.08273772 -0.1033193 0.1628091 255 0 255
0.08327206 -0.1019962 0.1609511 255 0 255
0.08410787 -0.1012153 0.1598713 255 0 255
