ply
format ascii 1.0
Comment Generated by Floating Hands
element vertex 1128
property double x
property double y
property double z
property uchar red
property uchar green
property uchar blue
end_header
-0.1261933 -0.1077487 0.140563 255 0 255
-0.1243432 -0.1068571 0.1394731 255 0 255
-0.1228766 -0.1065333 0.1391054 255 0 255
-0.1210489 -0.1056308 0.1380001 255 0 255
-0.1192343 -0.1047223 0.1368866 255 0 255
-0.1177922 -0.104384 0.1364989 255 0 255
-0.1160002 -0.1034647 0.1353703 255 0 255
-0.1145735 -0.1031173 0.1349699 255 0 255
-0.1135009 -0.1033442 0.1353015 255 0 255
-0.1124269 -0.1035686 0.1356296 255 0 255
-0.1110104 -0.1032104 0.1352146 255 0 255
-0.1099371 -0.1034289 0.1355348 255 0 255
-0.1085289 -0.1030633 0.1351095 255 0 255
-0.1074565 -0.1032759 0.1354218 255 0 255
-0.1060565 -0.102903 0.1349866 255 0 255
-0.1046627 -0.102526 0.1345458 255 0 255
-0.1035935 -0.1027295 0.1348458 255 0 255
-0.1018934 -0.1017602 0.1336477 255 0 255
-0.1005179 -0.1013713 0.1331905 255 0 255
-0.09884127 -0.1003921 0.1319785 255 0 255
-0.09748195 -0.09999481 0.1315096 255 0 255
-0.09612889 -0.09959363 0.1310353 255 0 255
-0.09507807 -0.09977718 0.131308 255 0 255
-0.09431826 -0.1005474 0.1323308 255 0 255
-0.09326121 -0.1007266 0.1325979 255 0 255
-0.09220296 -0.1009032 0.1328616 255 0 255
-0.09114347 -0.1010773 0.1331219 255 0 255
-0.08952858 -0.1000656 0.1318648 255 0 255
-0.08820099 -0.09964122 0.1313588 255 0 255
-0.08687983 -0.09921312 0.1308475 255 0 255
-0.0858309 -0.09937481 0.1310909 255 0 255
-0.0845189 -0.09894 0.1305704 255 0 255
-0.08372966 -0.09969072 0.1315678 255 0 255
-0.08344036 -0.1016304 0.1340882 255 0 255
-0.08287656 -0.1029752 0.1358471 255 0 255
-0.0825431 -0.1049158 0.1383699 255 0 255
-0.08169995 -0.1056636 0.1393646 255 0 255
-0.08084807 -0.1064098 0.1403575 255 0 255
-0.07975233 -0.1065566 0.1405821 255 0 255
-0.07865554 -0.1067008 0.1408033 255 0 255
-0.07733022 -0.1062436 0.1402531 255 0 255
-0.07623527 -0.1063821 0.1404667 255 0 255
-0.07513933 -0.1065181 0.1406767 255 0 255
-0.07425842 -0.1072517 0.1416534 255 0 255
-0.07294457 -0.1067821 0.1410864 255 0 255
-0.07184581 -0.1069103 0.1412861 255 0 255
-0.07074611 -0.1070358 0.1414822 255 0 255
-0.06984604 -0.1077608 0.1424478 255 0 255
-0.06854404 -0.107279 0.1418642 255 0 255
-0.06744167 -0.1073967 0.1420499 255 0 255
-0.06633848 -0.1075118 0.1422322 255 0 255
-0.06541952 -0.108228 0.1431864 255 0 255
-0.06412959 -0.1077342 0.1425863 255 0 255
-0.06320126 -0.1084459 0.1435348 255 0 255
-0.06226436 -0.1091556 0.144481 255 0 255
-0.06131893 -0.1098635 0.1454248 255 0 255
-0.06036495 -0.1105694 0.1463662 255 0 255
-0.05940245 -0.1112734 0.1473052 255 0 255
-0.05843144 -0.1119754 0.1482418 255 0 255
-0.05745192 -0.1126753 0.1491759 255 0 255
-0.05616373 -0.1121596 0.1485462 255 0 255
-0.05502883 -0.1122477 0.1486931 255 0 255
-0.05403556 -0.1129405 0.1496179 255 0 255
-0.05275707 -0.1124158 0.148976 255 0 255
-0.05175468 -0.1131037 0.1498946 255 0 255
-0.05074387 -0.1137896 0.1508105 255 0 255
-0.04959798 -0.1138647 0.1509403 255 0 255
-0.04857424 -0.1145459 0.1518503 255 0 255
-0.0475421 -0.1152248 0.1527575 255 0 255
-0.04638667 -0.1152923 0.1528772 255 0 255
-0.04523069 -0.1153571 0.1529933 255 0 255
-0.04418126 -0.1160287 0.1538912 255 0 255
-0.04302034 -0.1160882 0.1540003 255 0 255
-0.04185892 -0.116145 0.1541058 255 0 255
-0.04079233 -0.1168092 0.1549941 255 0 255
-0.03971744 -0.117471 0.1558795 255 0 255
-0.0385468 -0.1175198 0.1559746 255 0 255
-0.03745925 -0.1181766 0.1568534 255 0 255
-0.03628387 -0.11822 0.1569414 255 0 255
-0.03518373 -0.1188717 0.1578138 255 0 255
-0.03393194 -0.1182986 0.1571063 255 0 255
-0.03275543 -0.1183337 0.1571831 255 0 255
-0.03157862 -0.118366 0.1572563 255 0 255
-0.03046137 -0.119007 0.1581147 255 0 255
-0.02927999 -0.1190339 0.1581807 255 0 255
-0.02809833 -0.119058 0.1582429 255 0 255
-0.02696447 -0.1196909 0.159091 255 0 255
-0.02582251 -0.1203212 0.1599357 255 0 255
-0.02459202 -0.1197253 0.159197 255 0 255
-0.02347802 -0.1209619 0.1608247 255 0 255
-0.02231571 -0.1215839 0.1616589 255 0 255
-0.02117373 -0.1228151 0.1632801 255 0 255
-0.01999137 -0.1234316 0.1641074 255 0 255
-0.01880099 -0.1240453 0.1649311 255 0 255
-0.0176026 -0.1246561 0.1657512 255 0 255
-0.01639621 -0.125264 0.1665675 255 0 255
-0.01517321 -0.1252572 0.1665893 255 0 255
-0.01395482 -0.1258593 0.1673981 255 0 255
-0.01272853 -0.1264584 0.1682032 255 0 255
-0.01149114 -0.1276663 0.1697955 255 0 255
-0.01023792 -0.128871 0.171384 255 0 255
-0.008980037 -0.1294609 0.1721776 255 0 255
-0.007699236 -0.1306593 0.1737582 255 0 255
-0.006383781 -0.1324657 0.1761259 255 0 255
-0.005067588 -0.1336573 0.1776984 255 0 255
-0.003762591 -0.1342342 0.1784756 255 0 255
-0.002388186 -0.1360302 0.1808307 255 0 255
-0.001025022 -0.1372114 0.1823904 255 0 255
0.0003151209 -0.1377781 0.1831549 255 0 255
0.001705605 -0.1389522 0.1847057 255 0 255
0.003111672 -0.1401225 0.1862521 255 0 255
0.004482772 -0.1406788 0.1870032 255 0 255
0.005915971 -0.1418418 0.1885404 255 0 255
0.007247893 -0.1417809 0.1884923 255 0 255
0.008641898 -0.1423266 0.1892301 255 0 255
0.01004344 -0.1428689 0.1899634 255 0 255
0.01159299 -0.1446265 0.1922714 255 0 255
0.01301756 -0.1451612 0.192995 255 0 255
0.01484003 -0.1487373 0.1976605 255 0 255
0.01646327 -0.150481 0.1999518 255 0 255
0.01810968 -0.1522201 0.2022373 255 0 255
0.01959955 -0.1527377 0.2029398 255 0 255
0.02119056 -0.1538596 0.2044257 255 0 255
0.02260139 -0.1537615 0.2043299 255 0 255
0.02441835 -0.15609 0.2073809 255 0 255
0.02616061 -0.1578056 0.2096375 255 0 255
0.02770684 -0.1583024 0.2103134 255 0 255
0.02937375 -0.1594017 0.2117709 255 0 255
0.03129055 -0.1617088 0.2147957 255 0 255
0.03311671 -0.1634039 0.217027 255 0 255
0.03484055 -0.164488 0.2184656 255 0 255
0.03683763 -0.1667777 0.2214692 255 0 255
0.03873228 -0.1684562 0.2236798 255 0 255
0.04023881 -0.1683155 0.2235291 255 0 255
0.04202626 -0.1693794 0.2249424 255 0 255
0.04353904 -0.1692308 0.2247813 255 0 255
0.04534832 -0.1702853 0.2261824 255 0 255
0.04686724 -0.1701288 0.2260108 255 0 255
0.04901126 -0.1723788 0.2289649 255 0 255
0.05038359 -0.1716113 0.2279996 255 0 255
0.08669067 -0.1181693 0.1594818 255 0 255
0.08756042 -0.1173419 0.1584235 255 0 255
0.08809986 -0.115937 0.1566119 255 0 255
0.08829769 -0.1139571 0.1540499 255 0 255
0.08945818 -0.1137032 0.1537386 255 0 255
0.09061716 -0.1134465 0.1534236 255 0 255
0.09110203 -0.1120412 0.1516101 255 0 255
0.0919105 -0.1112086 0.1505433 255 0 255
0.09236625 -0.1098038 0.1487296 255 0 255
0.09280559 -0.1083997 0.1469165 255 0 255
0.09322851 -0.1069963 0.145104 255 0 255
0.09363507 -0.1055939 0.1432923 255 0 255
0.09474251 -0.1053278 0.1429634 255 0 255
0.09548609 -0.1044922 0.141891 255 0 255
0.09658677 -0.1042217 0.141556 255 0 255
0.09731614 -0.1033836 0.1404799 255 0 255
0.09840997 -0.1031088 0.1401389 255 0 255
0.09912509 -0.1022683 0.1390592 255 0 255
-0.138991 -0.112211 0.1439352 255 0 255
-0.1358511 -0.1096516 0.1407605 255 0 255
-0.1327455 -0.1070805 0.1375691 255 0 255
-0.1308621 -0.1062096 0.1365196 255 0 255
-0.1293838 -0.1059041 0.1361822 255 0 255
-0.127911 -0.1055942 0.1358389 255 0 255
-0.1264438 -0.10528 0.1354895 255 0 255
-0.1253636 -0.1055355 0.1358587 255 0 255
-0.1242817 -0.1057885 0.1362245 255 0 255
-0.1228241 -0.105463 0.1358598 255 0 255
-0.1217426 -0.1057099 0.1362175 255 0 255
-0.1202928 -0.1053767 0.1358423 255 0 255
-0.1184857 -0.1044609 0.1347308 255 0 255
-0.1174104 -0.1046976 0.1350746 255 0 255
-0.1156223 -0.1037717 0.1339491 255 0 255
-0.1141994 -0.1034209 0.1335497 255 0 255
-0.1131306 -0.1036475 0.1338798 255 0 255
-0.1117158 -0.1032892 0.1334702 255 0 255
-0.1103069 -0.1029268 0.1330549 255 0 255
-0.1092411 -0.1031441 0.1333726 255 0 255
-0.1081738 -0.1033589 0.133687 255 0 255
-0.1071051 -0.1035712 0.1339979 255 0 255
-0.106035 -0.1037808 0.1343054 255 0 255
-0.1049635 -0.103988 0.1346096 255 0 255
-0.1035721 -0.103605 0.1341664 255 0 255
-0.1018721 -0.1026299 0.1329729 255 0 255
-0.1001858 -0.1016495 0.1317718 255 0 255
-0.09882034 -0.1012533 0.1313102 255 0 255
-0.09715768 -0.100263 0.1300954 255 0 255
-0.09580848 -0.09985846 0.1296222 255 0 255
-0.0947615 -0.1000417 0.1298937 255 0 255
-0.09400542 -0.1008146 0.1309129 255 0 255
-0.0929522 -0.1009935 0.1311787 255 0 255
-0.09161314 -0.1005763 0.1306885 255 0 255
-0.09056126 -0.1007495 0.1309467 255 0 255
-0.08923119 -0.1003254 0.130447 255 0 255
-0.08790749 -0.09989765 0.1299421 255 0 255
-0.08659027 -0.09946618 0.1294322 255 0 255
-0.08554518 -0.09962755 0.1296744 255 0 255
-0.0847608 -0.1003836 0.1306717 255 0 255
-0.08370969 -0.1005405 0.1309082 255 0 255
-0.08316597 -0.1018915 0.1326613 255 0 255
-0.08260591 -0.1032422 0.1344144 255 0 255
-0.08202948 -0.1045924 0.1361674 255 0 255
-0.08143674 -0.1059423 0.1379202 255 0 255
-0.08058869 -0.1066914 0.1389097 255 0 255
-0.07949681 -0.1068379 0.1391334 255 0 255
-0.07840391 -0.1069819 0.1393536 255 0 255
-0.07730998 -0.1071233 0.1395703 255 0 255
-0.07621507 -0.1072621 0.1397836 255 0 255
-0.07511918 -0.1073983 0.1399935 255 0 255
-0.07402233 -0.1075318 0.1401998 255 0 255
-0.07271247 -0.107059 0.1396344 255 0 255
-0.07182579 -0.1077912 0.1406022 255 0 255
-0.07052182 -0.1073122 0.1400284 255 0 255
-0.06962562 -0.10804 0.1409907 255 0 255
-0.06832757 -0.1075551 0.1404087 255 0 255
-0.06742188 -0.1082785 0.1413654 255 0 255
-0.06612986 -0.1077875 0.1407751 255 0 255
-0.06521475 -0.1085065 0.1417261 255 0 255
-0.06410994 -0.1086165 0.1419012 255 0 255
-0.06335883 -0.109939 0.1436215 255 0 255
-0.06224468 -0.1100446 0.1437908 255 0 255
-0.06129921 -0.1107558 0.1447321 255 0 255
-0.06034525 -0.111465 0.145671 255 0 255
-0.05938273 -0.1121722 0.1466074 255 0 255
-0.0584117 -0.1128775 0.1475414 255 0 255
-0.05743215 -0.1135807 0.1484729 255 0 255
-0.05629409 -0.1136719 0.1486237 255 0 255
-0.05515538 -0.1137605 0.148771 255 0 255
-0.05401596 -0.1138463 0.1489145 255 0 255
-0.0528759 -0.1139295 0.1490546 255 0 255
-0.05173519 -0.1140099 0.149191 255 0 255
-0.05072437 -0.114699 0.1501044 255 0 255
-0.04957852 -0.1147743 0.1502341 255 0 255
-0.04867746 -0.1160706 0.151923 255 0 255
-0.04752262 -0.1161409 0.1520462 255 0 255
-0.04636725 -0.1162085 0.1521658 255 0 255
-0.04532224 -0.1168859 0.1530645 255 0 255
-0.0442689 -0.117561 0.1539602 255 0 255
-0.0431041 -0.1176208 0.1540696 255 0 255
-0.04193882 -0.1176779 0.1541754 255 0 255
-0.0408683 -0.1183455 0.1550616 255 0 255
-0.03988077 -0.1196241 0.1567291 255 0 255
-0.03870234 -0.1196734 0.1568248 255 0 255
-0.03760694 -0.1203337 0.1577018 255 0 255
-0.03650326 -0.1209914 0.1585756 255 0 255
-0.03531574 -0.1210326 0.1586607 255 0 255
-0.03405618 -0.1204568 0.1579561 255 0 255
-0.03287188 -0.1204922 0.1580334 255 0 255
-0.03168723 -0.1205248 0.158107 255 0 255
-0.03056212 -0.1211692 0.1589634 255 0 255
-0.02937291 -0.1211963 0.1590297 255 0 255
-0.02818343 -0.1212206 0.1590922 255 0 255
-0.02699369 -0.1212421 0.159151 255 0 255
-0.02584776 -0.1218756 0.1599935 255 0 255
-0.0246536 -0.1218915 0.1600449 255 0 255
-0.02349543 -0.1225195 0.1608804 255 0 255
-0.02229692 -0.1225298 0.1609244 255 0 255
-0.02112656 -0.1231523 0.1617527 255 0 255
-0.01994815 -0.1237719 0.1625775 255 0 255
-0.01878214 -0.1250037 0.1641869 255 0 255
-0.01756727 -0.1250027 0.1642161 255 0 255
-0.01637737 -0.1262287 0.1658184 255 0 255
-0.01516304 -0.1268369 0.1666286 255 0 255
-0.0139407 -0.127442 0.1674351 255 0 255
-0.01271047 -0.1280442 0.1682378 255 0 255
-0.01146904 -0.1292583 0.1698253 255 0 255
-0.01021186 -0.1304691 0.171409 255 0 255
-0.008950002 -0.1310621 0.1722002 255 0 255
-0.007650168 -0.1328812 0.1745647 255 0 255
-0.006307655 -0.1353114 0.1777137 255 0 255
-0.005002577 -0.1358944 0.1784927 255 0 255
-0.003689661 -0.1364742 0.1792675 255 0 255
-0.0023073 -0.1382792 0.1816152 255 0 255
-0.0009709616 -0.1388522 0.1823815 255 0 255
0.0003343747 -0.1388078 0.1823552 255 0 255
0.001682221 -0.1393742 0.183113 255 0 255
0.003084384 -0.1405509 0.1846547 255 0 255
0.004451536 -0.1411104 0.1854036 255 0 255
0.005880832 -0.1422798 0.1869361 255 0 255
0.007267191 -0.1428321 0.1876761 255 0 255
0.008723564 -0.1439938 0.1891991 255 0 255
0.01012907 -0.1445389 0.1899298 255 0 255
0.01168266 -0.1463056 0.1922306 255 0 255
0.01318534 -0.1474553 0.1937387 255 0 255
0.01493777 -0.1504374 0.1976025 255 0 255
0.01672922 -0.153414 0.2014598 255 0 255
0.01830152 -0.1545497 0.2029511 255 0 255
0.01988916 -0.1556813 0.204437 255 0 255
0.02139815 -0.1561973 0.2051314 255 0 255
0.02281676 -0.1560985 0.2050352 255 0 255
0.02454 -0.1578282 0.2072907 255 0 255
0.02628628 -0.1595527 0.2095399 255 0 255
0.027946 -0.160662 0.2109979 255 0 255
0.0297343 -0.1623765 0.2132347 255 0 255
0.03178038 -0.1653042 0.2170332 255 0 255
0.03350102 -0.1663981 0.2184722 255 0 255
0.03511136 -0.1668786 0.2191216 255 0 255
0.03724559 -0.1697881 0.222898 255 0 255
0.03901897 -0.1708666 0.2243177 255 0 255
0.04039623 -0.1701173 0.2233841 255 0 255
0.04190581 -0.1699725 0.2232285 255 0 255
0.0437042 -0.1710377 0.224631 255 0 255
0.04536872 -0.1714913 0.225246 255 0 255
0.0467349 -0.1707285 0.224294 255 0 255
0.04903167 -0.1735967 0.2280192 255 0 255
0.08607664 -0.1179747 0.1572292 255 0 255
0.08820942 -0.1194656 0.1591757 255 0 255
0.08779198 -0.1163149 0.1551199 255 0 255
0.0886362 -0.1154831 0.1540626 255 0 255
0.09012926 -0.1158056 0.1544978 255 0 255
0.09063039 -0.1143932 0.1526889 255 0 255
0.09111511 -0.1129814 0.1508804 255 0 255
0.09192349 -0.1121454 0.1498163 255 0 255
0.09272288 -0.1113083 0.1487507 255 0 255
0.09281822 -0.1093234 0.1461997 255 0 255
0.09324102 -0.1079136 0.1443923 255 0 255
0.09400243 -0.1070763 0.1433253 255 0 255
0.09475484 -0.1062381 0.142257 255 0 255
0.09549832 -0.105399 0.1411873 255 0 255
0.09659893 -0.1051281 0.1408527 255 0 255
0.09695846 -0.1037185 0.139044 255 0 255
0.09767509 -0.1028771 0.1379704 255 0 255
0.09875989 -0.1026011 0.1376286 255 0 255
-0.1369326 -0.1102949 0.1396352 255 0 255
-0.1342142 -0.1082882 0.1371798 255 0 255
-0.1319225 -0.1068443 0.1354263 255 0 255
-0.1300466 -0.1059661 0.1343786 255 0 255
-0.1281835 -0.1050816 0.1333223 255 0 255
-0.1267217 -0.1047665 0.1329771 255 0 255
-0.1256505 -0.1050234 0.1333469 255 0 255
-0.1245776 -0.1052777 0.1337132 255 0 255
-0.1235031 -0.1055294 0.1340762 255 0 255
-0.1220529 -0.1051996 0.1337111 255 0 255
-0.1206085 -0.1048655 0.1333403 255 0 255
-0.1195364 -0.1051078 0.1336905 255 0 255
-0.1180999 -0.104766 0.1333092 255 0 255
-0.1170283 -0.1050023 0.1336515 255 0 255
-0.1155996 -0.104653 0.1332598 255 0 255
-0.1141768 -0.1042995 0.1328625 255 0 255
-0.1127599 -0.1039419 0.1324594 255 0 255
-0.1113489 -0.1035801 0.1320508 255 0 255
-0.1099438 -0.1032143 0.1316365 255 0 255
-0.1088818 -0.1034313 0.1319527 255 0 255
-0.107485 -0.1030581 0.1315284 255 0 255
-0.1064238 -0.1032692 0.1318369 255 0 255
-0.1053612 -0.1034777 0.132142 255 0 255
-0.1042972 -0.1036838 0.1324437 255 0 255
-0.1029134 -0.1032967 0.1320006 255 0 255
-0.1012211 -0.1023144 0.1308094 255 0 255
-0.09954247 -0.1013268 0.1296107 255 0 255
-0.09849183 -0.1015193 0.129894 255 0 255
-0.09683311 -0.1005225 0.1286826 255 0 255
-0.09548777 -0.1001146 0.1282106 255 0 255
-0.0947405 -0.100892 0.1292285 255 0 255
-0.09369232 -0.1010731 0.1294964 255 0 255
-0.09235456 -0.1006556 0.1290116 255 0 255
-0.09130772 -0.100831 0.129272 255 0 255
-0.0902597 -0.1010039 0.1295291 255 0 255
-0.08893351 -0.1005764 0.1290306 255 0 255
-0.08761375 -0.1001453 0.128527 255 0 255
-0.08656982 -0.1003095 0.1287723 255 0 255
-0.08579037 -0.1010707 0.1297693 255 0 255
-0.08447861 -0.1006303 0.1292532 255 0 255
-0.08368933 -0.1013877 0.1302453 255 0 255
-0.08289135 -0.1021438 0.1312358 255 0 255
-0.08208464 -0.1028984 0.1322247 255 0 255
-0.08176231 -0.1048565 0.1347302 255 0 255
-0.08117331 -0.1062123 0.1364772 255 0 255
-0.08032905 -0.1069641 0.1374633 255 0 255
-0.07924105 -0.1071104 0.137686 255 0 255
-0.07838324 -0.1078586 0.1386675 255 0 255
-0.07706203 -0.1073953 0.138121 255 0 255
-0.07597101 -0.1075338 0.1383333 255 0 255
-0.07487901 -0.1076698 0.1385422 255 0 255
-0.07378606 -0.1078031 0.1387477 255 0 255
-0.07248019 -0.107327 0.1381837 255 0 255
-0.07159734 -0.108062 0.1391483 255 0 255
-0.07050161 -0.1081875 0.1393434 255 0 255
-0.06940498 -0.1083105 0.1395351 255 0 255
-0.06850401 -0.1090394 0.140492 255 0 255
-0.06740177 -0.1091575 0.1406775 255 0 255
-0.06629869 -0.1092731 0.1408594 255 0 255
-0.06519476 -0.1093859 0.1410378 255 0 255
-0.06427107 -0.1101064 0.1419841 255 0 255
-0.06333882 -0.1108251 0.142928 255 0 255
-0.0622247 -0.1109308 0.1430972 255 0 255
-0.06127924 -0.1116452 0.1440359 255 0 255
-0.06032526 -0.1123578 0.1449722 255 0 255
-0.05920109 -0.1124562 0.145132 255 0 255
-0.05823394 -0.1131644 0.1460628 255 0 255
-0.05725828 -0.1138706 0.1469913 255 0 255
-0.05612421 -0.1139617 0.1471414 255 0 255
-0.05484336 -0.1134368 0.1465117 255 0 255
-0.05385396 -0.1141358 0.147431 255 0 255
-0.05285611 -0.1148327 0.1483476 255 0 255
-0.05184982 -0.1155275 0.1492616 255 0 255
-0.05070463 -0.1156056 0.1493947 255 0 255
-0.04968537 -0.1162958 0.1503028 255 0 255
-0.04865771 -0.1169837 0.1512082 255 0 255
-0.04750294 -0.1170541 0.1513314 255 0 255
-0.04634763 -0.1171219 0.1514509 255 0 255
-0.04530262 -0.1178025 0.152347 255 0 255
-0.04414232 -0.117865 0.1524596 255 0 255
-0.04298151 -0.1179247 0.1525686 255 0 255
-0.04191932 -0.1185979 0.1534552 255 0 255
-0.04084879 -0.1192687 0.1543388 255 0 255
-0.03967872 -0.1193205 0.1544374 255 0 255
-0.03868283 -0.1206031 0.156097 255 0 255
-0.03750403 -0.1206496 0.1561889 255 0 255
-0.03648374 -0.1219275 0.1578428 255 0 255
-0.03529628 -0.1219687 0.1579278 255 0 255
-0.03410846 -0.1220072 0.1580091 255 0 255
-0.03292029 -0.1220428 0.1580866 255 0 255
-0.03173177 -0.1220756 0.1581603 255 0 255
-0.03054293 -0.1221056 0.1582303 255 0 255
-0.02935379 -0.1221328 0.1582966 255 0 255
-0.02821627 -0.122775 0.1591437 255 0 255
-0.02707062 -0.1234145 0.1599874 255 0 255
-0.02587281 -0.1234333 0.1600428 255 0 255
-0.02467476 -0.1234493 0.1600944 255 0 255
-0.02347651 -0.1234625 0.1601421 255 0 255
-0.02231027 -0.1240909 0.1609717 255 0 255
-0.02110771 -0.1240984 0.161012 255 0 255
-0.01992931 -0.1247212 0.1618343 255 0 255
-0.01876325 -0.1259592 0.1634388 255 0 255
-0.01756487 -0.1265763 0.164254 255 0 255
-0.01637096 -0.1278086 0.1658515 255 0 255
-0.01515269 -0.1284198 0.1666594 255 0 255
-0.01392642 -0.129028 0.1674635 255 0 255
-0.01269226 -0.1296333 0.1682638 255 0 255
-0.01144354 -0.1314714 0.1706327 255 0 255
-0.01018566 -0.1320705 0.1714254 255 0 255
-0.008908681 -0.1332842 0.1730004 255 0 255
-0.007600811 -0.1351125 0.1753576 255 0 255
-0.00626936 -0.1369372 0.1777107 255 0 255
-0.00498334 -0.1369057 0.177701 255 0 255
-0.003643475 -0.138106 0.1792596 255 0 255
-0.002287981 -0.1393028 0.1808139 255 0 255
-0.000951659 -0.1398788 0.1815778 255 0 255
0.0003535964 -0.1398344 0.1815515 255 0 255
0.001744167 -0.1410208 0.1830928 255 0 255
0.003103626 -0.1415867 0.1838438 255 0 255
0.004521375 -0.1427658 0.185376 255 0 255
0.005954656 -0.1439411 0.1869036 255 0 255
0.007344967 -0.1444963 0.187641 255 0 255
0.008805316 -0.145664 0.1891591 255 0 255
0.01028112 -0.1468278 0.1906724 255 0 255
0.01177234 -0.1479875 0.1921807 255 0 255
0.01327899 -0.1491432 0.1936838 255 0 255
0.01511379 -0.1527556 0.1983198 255 0 255
0.01691325 -0.155747 0.2021647 255 0 255
0.01866561 -0.1581179 0.2052188 255 0 255
0.02026901 -0.1592545 0.206699 255 0 255
0.0217937 -0.1597724 0.2073901 255 0 255
0.02332578 -0.1602864 0.2080761 255 0 255
0.02486517 -0.1607964 0.2087572 255 0 255
0.02662333 -0.1625292 0.2109984 255 0 255
0.02829484 -0.1636436 0.2124508 255 0 255
0.03043566 -0.1672045 0.2170257 255 0 255
0.03238801 -0.1695331 0.2200285 255 0 255
0.034371 -0.1718557 0.2230239 255 0 255
0.03588347 -0.1717249 0.2228875 255 0 255
0.03791215 -0.1740362 0.2258691 255 0 255
0.03943878 -0.1738968 0.2257217 255 0 255
0.04096468 -0.1737538 0.2255693 255 0 255
0.0426308 -0.1742175 0.2261918 255 0 255
0.04444878 -0.1752868 0.2275876 255 0 255
0.04613277 -0.1757413 0.2281981 255 0 255
0.04751835 -0.1749731 0.2272466 255 0 255
0.05014797 -0.179072 0.2325132 255 0 255
0.0863165 -0.1169337 0.1539332 255 0 255
0.08844792 -0.1184306 0.1558692 255 0 255
0.0896247 -0.1181754 0.1555583 255 0 255
0.0904711 -0.1173366 0.1544989 255 0 255
0.09064314 -0.115337 0.1519505 255 0 255
0.09112766 -0.1139187 0.1501471 255 0 255
0.0922761 -0.1136574 0.1498273 255 0 255
0.09273525 -0.1122387 0.1480228 255 0 255
0.09317801 -0.1108207 0.1462187 255 0 255
0.09395568 -0.1099791 0.1451538 255 0 255
0.09436938 -0.1085619 0.14335 255 0 255
0.09512538 -0.1077193 0.1422833 255 0 255
0.09587246 -0.1068759 0.1412152 255 0 255
0.09697671 -0.1066037 0.1408798 255 0 255
0.09733977 -0.1051867 0.1390751 255 0 255
0.09843344 -0.104911 0.1387348 255 0 255
0.09952556 -0.1046327 0.1383911 255 0 255
-0.1344677 -0.1077718 0.1346446 255 0 255
-0.1329804 -0.1074727 0.1343268 255 0 255
-0.1314986 -0.1071691 0.1340029 255 0 255
-0.1296265 -0.1062844 0.1329582 255 0 255
-0.1277672 -0.1053935 0.1319051 255 0 255
-0.1266977 -0.1056534 0.1322779 255 0 255
-0.1248569 -0.104752 0.1312103 255 0 255
-0.1237914 -0.105005 0.1315738 255 0 255
-0.1227242 -0.1052554 0.1319339 255 0 255
-0.1212815 -0.1049213 0.1315685 255 0 255
-0.1194744 -0.1040002 0.1304738 255 0 255
-0.1184133 -0.1042403 0.1308202 255 0 255
-0.1173508 -0.1044779 0.1311631 255 0 255
-0.1162866 -0.104713 0.1315027 255 0 255
-0.1148655 -0.1043594 0.1311108 255 0 255
-0.113802 -0.1045885 0.1314425 255 0 255
-0.1123889 -0.1042275 0.1310404 255 0 255
-0.1113261 -0.1044507 0.1313642 255 0 255
-0.1095805 -0.103493 0.1302193 255 0 255
-0.1085221 -0.1037096 0.1305342 255 0 255
-0.106796 -0.1027423 0.129376 255 0 255
-0.1057423 -0.1029523 0.129682 255 0 255
-0.1046872 -0.1031598 0.1299847 255 0 255
-0.1036307 -0.1033647 0.130284 255 0 255
-0.1025729 -0.1035671 0.13058 255 0 255
-0.1011991 -0.1031727 0.1301325 255 0 255
-0.09952067 -0.1021794 0.1289384 255 0 255
-0.09816299 -0.1017764 0.1284791 255 0 255
-0.09681156 -0.1013696 0.1280145 255 0 255
-0.09546635 -0.1009589 0.1275446 255 0 255
-0.09471904 -0.1017397 0.1285599 255 0 255
-0.0936709 -0.1019211 0.1288276 255 0 255
-0.09233332 -0.1015009 0.1283449 255 0 255
-0.09128653 -0.1016766 0.128605 255 0 255
-0.08995786 -0.1012495 0.1281129 255 0 255
-0.0886356 -0.1008187 0.1276157 255 0 255
-0.08759287 -0.1009857 0.1278641 255 0 255
-0.08654898 -0.1011501 0.1281092 255 0 255
-0.0857695 -0.1019147 0.1291036 255 0 255
-0.08471958 -0.1020748 0.129343 255 0 255
-0.08366858 -0.1022323 0.1295791 255 0 255
-0.08261651 -0.1023873 0.1298119 255 0 255
-0.08181362 -0.1031448 0.1307973 255 0 255
-0.08149491 -0.1051117 0.1332945 255 0 255
-0.08090963 -0.1064733 0.1350357 255 0 255
-0.08006918 -0.107228 0.1360183 255 0 255
-0.07922003 -0.1079811 0.1369991 255 0 255
-0.07813112 -0.108125 0.1372181 255 0 255
-0.07704113 -0.1082664 0.1374337 255 0 255
-0.07572672 -0.1077966 0.1368844 255 0 255
-0.07463863 -0.1079324 0.1370924 255 0 255
-0.07376536 -0.108675 0.1380598 255 0 255
-0.07267153 -0.1088059 0.1382617 255 0 255
-0.07178482 -0.1095447 0.1392243 255 0 255
-0.07068528 -0.1096709 0.1394199 255 0 255
-0.06958486 -0.1097945 0.1396121 255 0 255
-0.06848355 -0.1099155 0.1398008 255 0 255
-0.06738136 -0.1100338 0.1399861 255 0 255
-0.06627834 -0.1101495 0.1401678 255 0 255
-0.06517446 -0.1102626 0.1403461 255 0 255
-0.06425077 -0.1109864 0.1412897 255 0 255
-0.06331849 -0.1117083 0.1422311 255 0 255
-0.06220445 -0.1118142 0.1424001 255 0 255
-0.06125897 -0.112532 0.1433362 255 0 255
-0.06030498 -0.1132477 0.14427 255 0 255
-0.05918088 -0.1133464 0.1444296 255 0 255
-0.05821374 -0.1140578 0.1453579 255 0 255
-0.05723809 -0.1147672 0.1462837 255 0 255
-0.05610405 -0.1148585 0.1464338 255 0 255
-0.05496934 -0.1149471 0.1465802 255 0 255
-0.05383394 -0.115033 0.146723 255 0 255
-0.05283609 -0.1157331 0.1476371 255 0 255
-0.05182979 -0.1164311 0.1485485 255 0 255
-0.05081504 -0.1171269 0.1494572 255 0 255
-0.04966542 -0.1172028 0.1495871 255 0 255
-0.04863775 -0.1178939 0.1504899 255 0 255
-0.04760169 -0.1185828 0.1513899 255 0 255
-0.04632781 -0.1180324 0.1507323 255 0 255
-0.0452828 -0.1187162 0.1516259 255 0 255
-0.04412257 -0.1187788 0.1517384 255 0 255
-0.04296182 -0.1188387 0.1518473 255 0 255
-0.0418006 -0.1188958 0.1519525 255 0 255
-0.040734 -0.1195696 0.1528332 255 0 255
-0.03965909 -0.120241 0.1537111 255 0 255
-0.03857591 -0.12091 0.1545857 255 0 255
-0.03748442 -0.1215765 0.1554574 255 0 255
-0.03638469 -0.1222404 0.1563259 255 0 255
-0.03535213 -0.1235222 0.1579721 255 0 255
-0.03408892 -0.1229405 0.1572725 255 0 255
-0.03296841 -0.1235967 0.1581312 255 0 255
-0.03177604 -0.1236297 0.1582052 255 0 255
-0.03064303 -0.1242806 0.1590571 255 0 255
-0.02944611 -0.124308 0.1591237 255 0 255
-0.02824888 -0.1243326 0.1591866 255 0 255
-0.02705138 -0.1243543 0.1592457 255 0 255
-0.02585365 -0.1243732 0.159301 255 0 255
-0.0246957 -0.1250104 0.1601353 255 0 255
-0.02349358 -0.1250236 0.1601832 255 0 255
-0.02232341 -0.1256552 0.1610103 255 0 255
-0.02114518 -0.1262839 0.161834 255 0 255
-0.01995889 -0.1269099 0.162654 255 0 255
-0.01876458 -0.1275329 0.1634704 255 0 255
-0.01756228 -0.1281531 0.1642833 255 0 255
-0.01636438 -0.1293916 0.165876 255 0 255
-0.01514217 -0.1300058 0.1666815 255 0 255
-0.01391198 -0.1306172 0.1674832 255 0 255
-0.01267447 -0.1318466 0.1690649 255 0 255
-0.01142112 -0.1330728 0.1706427 255 0 255
-0.01015928 -0.1336749 0.171433 255 0 255
-0.008889598 -0.1342738 0.1722193 255 0 255
-0.007581631 -0.1361113 0.1745692 255 0 255
-0.006250046 -0.1379453 0.176915 255 0 255
-0.004941064 -0.1385344 0.1776891 255 0 255
-0.003570194 -0.1403613 0.1800265 255 0 255
-0.002237709 -0.1409436 0.1807922 255 0 255
-0.0009323842 -0.1409022 0.18077 255 0 255
0.0004116494 -0.1414779 0.1815273 255 0 255
0.001806186 -0.1426703 0.1830636 255 0 255
0.003122825 -0.1426193 0.1830288 255 0 255
0.004540601 -0.1438044 0.1845562 255 0 255
0.006028568 -0.1456054 0.186862 255 0 255
0.007422753 -0.1461634 0.187597 255 0 255
0.008824565 -0.1467178 0.1883274 255 0 255
0.01030039 -0.1478877 0.1898358 255 0 255
0.01193243 -0.150291 0.1929041 255 0 255
0.01352129 -0.1520709 0.1951844 255 0 255
0.01528988 -0.1550828 0.1990232 255 0 255
0.01709741 -0.158089 0.2028555 255 0 255
0.0189439 -0.1610895 0.2066811 255 0 255
0.02055907 -0.1622313 0.2081558 255 0 255
0.02200158 -0.1621341 0.2080628 255 0 255
0.02354148 -0.1626505 0.2087459 255 0 255
0.02508871 -0.1631628 0.209424 255 0 255
0.02674899 -0.1642877 0.2108773 255 0 255
0.02853413 -0.1660241 0.2131046 255 0 255
0.03079665 -0.1702185 0.218444 255 0 255
0.03276086 -0.1725584 0.2214362 255 0 255
0.03475578 -0.174892 0.224421 255 0 255
0.0360291 -0.1735303 0.2227265 255 0 255
0.03819109 -0.1764679 0.2264764 255 0 255
0.03972549 -0.1763276 0.2263284 255 0 255
0.04125914 -0.1761836 0.2261755 255 0 255
0.04293299 -0.1766495 0.2267948 255 0 255
0.04504872 -0.1789499 0.2297384 255 0 255
0.04719476 -0.1812436 0.2326738 255 0 255
0.05283116 -0.1907046 0.2447218 255 0 255
0.09114151 -0.1194544 0.1552339 255 0 255
0.0909881 -0.1168608 0.1519496 255 0 255
0.09147624 -0.1154351 0.1501502 255 0 255
0.09228811 -0.1145913 0.1490906 255 0 255
0.09274712 -0.1131662 0.1472911 255 0 255
0.09353738 -0.1123212 0.1462294 255 0 255
0.09431862 -0.1114753 0.1451661 255 0 255
0.09473587 -0.1100507 0.1433664 255 0 255
0.0954955 -0.1092038 0.1423013 255 0 255
0.09624618 -0.108356 0.1412348 255 0 255
0.09662174 -0.1069324 0.1394353 255 0 255
0.09735081 -0.1060839 0.1383673 255 0 255
0.09807093 -0.1052347 0.1372981 255 0 255
0.09878208 -0.1043847 0.1362276 255 0 255
-0.1332228 -0.1069407 0.1318042 255 0 255
-0.1321494 -0.1072142 0.1321942 255 0 255
-0.1306749 -0.1069062 0.1318697 255 0 255
-0.129206 -0.1065939 0.1315392 255 0 255
-0.1269585 -0.1051159 0.1297755 255 0 255
-0.1258963 -0.1053744 0.1301455 255 0 255
-0.124063 -0.1044657 0.1290798 255 0 255
-0.1226237 -0.1041342 0.1287231 255 0 255
-0.1215676 -0.1043824 0.1290792 255 0 255
-0.120136 -0.1040432 0.1287121 255 0 255
-0.1187102 -0.1036997 0.1283393 255 0 255
-0.118023 -0.1045252 0.1294051 255 0 255
-0.1166014 -0.104175 0.1290232 255 0 255
-0.1155447 -0.1044088 0.1293601 255 0 255
-0.1141311 -0.104051 0.128968 255 0 255
-0.1134267 -0.1048688 0.130024 255 0 255
-0.1120174 -0.1045043 0.1296228 255 0 255
-0.1109584 -0.1047271 0.1299452 255 0 255
-0.1092167 -0.103763 0.1288037 255 0 255
-0.1084991 -0.1045721 0.1298485 255 0 255
-0.1067731 -0.1035991 0.1286948 255 0 255
-0.10539 -0.1032151 0.1282669 255 0 255
-0.1043387 -0.1034221 0.1285683 255 0 255
-0.103286 -0.1036267 0.1288663 255 0 255
-0.102232 -0.1038287 0.1291609 255 0 255
-0.1008621 -0.1034309 0.1287145 255 0 255
-0.09949839 -0.1030292 0.1282627 255 0 255
-0.09814085 -0.1026235 0.1278056 255 0 255
-0.0964863 -0.1016146 0.1266024 255 0 255
-0.09514502 -0.1012005 0.1261336 255 0 255
-0.09440143 -0.101984 0.1271452 255 0 255
-0.09306518 -0.1015636 0.1266679 255 0 255
-0.09202345 -0.1017415 0.1269302 255 0 255
-0.0906961 -0.1013142 0.1264436 255 0 255
-0.08965576 -0.1014864 0.1266983 255 0 255
-0.08861424 -0.1016561 0.1269497 255 0 255
-0.08784458 -0.1024279 0.1279463 255 0 255
-0.08679698 -0.1025932 0.128192 255 0 255
-0.08601367 -0.1033617 0.1291847 255 0 255
-0.08496002 -0.1035226 0.1294247 255 0 255
-0.08364745 -0.1030742 0.1289096 255 0 255
-0.08259542 -0.1032295 0.1291421 255 0 255
-0.08154231 -0.1033822 0.1293714 255 0 255
-0.0809809 -0.1047495 0.131106 255 0 255
-0.08040319 -0.1061165 0.1328405 255 0 255
-0.0798091 -0.107483 0.1345748 255 0 255
-0.07896378 -0.1082389 0.1355522 255 0 255
-0.07810979 -0.1089932 0.1365276 255 0 255
-0.07679266 -0.1085237 0.1359848 255 0 255
-0.07570562 -0.1086623 0.136196 255 0 255
-0.07461759 -0.1087982 0.1364038 255 0 255
-0.07352863 -0.1089316 0.1366081 255 0 255
-0.07243871 -0.1090623 0.136809 255 0 255
-0.07155584 -0.1098039 0.1377684 255 0 255
-0.07046025 -0.1099299 0.1379631 255 0 255
-0.06956401 -0.1106676 0.1389177 255 0 255
-0.06846275 -0.1107888 0.1391062 255 0 255
-0.06736063 -0.1109074 0.1392912 255 0 255
-0.06644635 -0.1116389 0.140238 255 0 255
-0.06533868 -0.1117526 0.1404167 255 0 255
-0.06423015 -0.1118636 0.140592 255 0 255
-0.06347494 -0.1132055 0.1422977 255 0 255
-0.06235709 -0.113312 0.1424672 255 0 255
-0.06123845 -0.1134159 0.1426331 255 0 255
-0.06028446 -0.1141349 0.1435642 255 0 255
-0.05932191 -0.1148519 0.144493 255 0 255
-0.05803568 -0.1143299 0.1438796 255 0 255
-0.05706391 -0.1150423 0.1448023 255 0 255
-0.05608365 -0.1157525 0.1457225 255 0 255
-0.05494901 -0.1158413 0.1458688 255 0 255
-0.05395571 -0.116547 0.1467834 255 0 255
-0.05281584 -0.1166307 0.1469231 255 0 255
-0.05180953 -0.1173319 0.1478319 255 0 255
-0.0507948 -0.1180309 0.148738 255 0 255
-0.04964524 -0.1181069 0.1488678 255 0 255
-0.04861757 -0.1188013 0.149768 255 0 255
-0.04746295 -0.1188721 0.149891 255 0 255
-0.04642243 -0.1195616 0.1507852 255 0 255
-0.0453735 -0.1202489 0.1516766 255 0 255
-0.04420942 -0.1203118 0.1517894 255 0 255
-0.04304483 -0.120372 0.1518985 255 0 255
-0.04187976 -0.1204294 0.152004 255 0 255
-0.0407142 -0.120484 0.1521058 255 0 255
-0.03954819 -0.1205358 0.1522039 255 0 255
-0.03846894 -0.1212078 0.1530758 255 0 255
-0.03746466 -0.1225004 0.1547223 255 0 255
-0.03636493 -0.1231676 0.1555884 255 0 255
-0.03533233 -0.1244555 0.1572295 255 0 255
-0.03414071 -0.1244943 0.1573109 255 0 255
-0.03294874 -0.1245302 0.1573885 255 0 255
-0.03182004 -0.125187 0.1582414 255 0 255
-0.03062348 -0.1252173 0.1583118 255 0 255
-0.02937088 -0.1246209 0.1575988 255 0 255
-0.02822947 -0.1252694 0.1584412 255 0 255
-0.02707989 -0.1259153 0.1592802 255 0 255
-0.02583439 -0.1253102 0.1585555 255 0 255
-0.02467646 -0.1259505 0.1593873 255 0 255
-0.02351043 -0.1265879 0.1602156 255 0 255
-0.02233634 -0.1272227 0.1610404 255 0 255
-0.02115417 -0.1278546 0.1618617 255 0 255
-0.01998816 -0.1291079 0.1634602 255 0 255
-0.01876573 -0.1291098 0.1634935 255 0 255
-0.0175758 -0.1303574 0.165085 255 0 255
-0.01635761 -0.1309777 0.1658918 255 0 255
-0.01513149 -0.131595 0.1666949 255 0 255
-0.01390184 -0.1328336 0.1682755 255 0 255
-0.01265585 -0.1334449 0.169071 255 0 255
-0.01139855 -0.1346773 0.170644 255 0 255
-0.01014015 -0.1346583 0.1706505 255 0 255
-0.008859154 -0.1358843 0.1722157 255 0 255
-0.007562442 -0.137107 0.1737769 255 0 255
-0.006230765 -0.1389503 0.1761154 255 0 255
-0.004921779 -0.1395424 0.1768871 255 0 255
-0.003550814 -0.1413785 0.1792171 255 0 255
-0.002218364 -0.1419638 0.1799804 255 0 255
-0.0008781589 -0.1425458 0.1807394 255 0 255
0.0004308681 -0.1425012 0.1807131 255 0 255
0.001868292 -0.1443228 0.1830256 255 0 255
0.003188772 -0.1442715 0.1829907 255 0 255
0.004610519 -0.1454626 0.1845132 255 0 255
0.00599314 -0.1460273 0.1852503 255 0 255
0.00750062 -0.1478334 0.1875439 255 0 255
0.008906337 -0.1483906 0.1882718 255 0 255
0.01045261 -0.1501884 0.1905554 255 0 255
0.01223353 -0.1538472 0.1951736 255 0 255
0.0138382 -0.1556353 0.1974459 255 0 255
0.0156227 -0.1586616 0.2012716 255 0 255
0.01761065 -0.1629245 0.2066496 255 0 255
0.01930853 -0.1646969 0.2089034 255 0 255
0.02066916 -0.1639818 0.2080357 255 0 255
0.02220953 -0.1645045 0.2087211 255 0 255
0.0238552 -0.1656434 0.2101799 255 0 255
0.0251085 -0.1642984 0.2085206 255 0 255
0.02687462 -0.1660488 0.2107468 255 0 255
0.02844425 -0.1665554 0.2114116 255 0 255
0.03301626 -0.1749796 0.2220478 255 0 255
0.03526214 -0.1785613 0.2265753 255 0 255
0.0400122 -0.1787669 0.2269206 255 0 255
0.04127924 -0.1773883 0.225217 255 0 255
0.04309414 -0.1784734 0.2266087 255 0 255
0.04564875 -0.1826338 0.231865 255 0 255
0.0487804 -0.1823128 0.2315179 255 0 255
0.09029989 -0.1212551 0.1555316 255 0 255
0.09016646 -0.1186476 0.152256 255 0 255
0.09066716 -0.1172157 0.1504624 255 0 255
0.0908149 -0.1151994 0.1479314 255 0 255
0.09195946 -0.1149381 0.1476134 255 0 255
0.09241455 -0.1135074 0.1458201 255 0 255
0.09320097 -0.1126598 0.1447621 255 0 255
0.0939784 -0.1118113 0.1437027 255 0 255
0.09474688 -0.1109619 0.1426418 255 0 255
0.09550641 -0.1101116 0.1415794 255 0 255
0.09625696 -0.1092604 0.1405157 255 0 255
0.09663238 -0.1078303 0.1387213 255 0 255
0.09736134 -0.1069784 0.1376561 255 0 255
0.09845489 -0.1067019 0.1373165 255 0 255
0.09954683 -0.1064227 0.1369735 255 0 255
-0.1319778 -0.1060889 0.1289746 255 0 255
-0.1305124 -0.1057791 0.1286529 255 0 255
-0.1294518 -0.1060467 0.1290339 255 0 255
-0.1279939 -0.1057291 0.1287016 255 0 255
-0.1261495 -0.1048235 0.1276522 255 0 255
-0.1247064 -0.1044962 0.1273067 255 0 255
-0.1228843 -0.1035793 0.1262417 255 0 255
-0.1218371 -0.1038288 0.1265983 255 0 255
-0.1207883 -0.1040758 0.1269516 255 0 255
-0.1197379 -0.1043202 0.1273016 255 0 255
-0.1186859 -0.104562 0.1276483 255 0 255
-0.1176323 -0.1048013 0.1279915 255 0 255
-0.1165772 -0.1050381 0.1283315 255 0 255
-0.1155206 -0.1052723 0.1286681 255 0 255
-0.1137518 -0.1043198 0.1275547 255 0 255
-0.1126994 -0.1045474 0.1278823 255 0 255
-0.1112978 -0.1041787 0.127481 255 0 255
-0.1102462 -0.1044003 0.1278008 255 0 255
-0.1088526 -0.1040242 0.1273894 255 0 255
-0.1081387 -0.1048359 0.1284305 255 0 255
-0.1064166 -0.1038565 0.1272802 255 0 255
-0.1053668 -0.1040665 0.1275845 255 0 255
-0.1039899 -0.1036757 0.1271534 255 0 255
-0.102941 -0.1038799 0.12745 255 0 255
-0.1018908 -0.1040816 0.1277433 255 0 255
-0.1005248 -0.1036804 0.127298 255 0 255
-0.0988543 -0.1026742 0.126111 255 0 255
-0.09781133 -0.1028662 0.1263914 255 0 255
-0.09646393 -0.1024532 0.1259301 255 0 255
-0.09512276 -0.1020364 0.1254635 255 0 255
-0.09408354 -0.1022196 0.1257321 255 0 255
-0.09304308 -0.1024003 0.1259973 255 0 255
-0.0917133 -0.1019733 0.1255171 255 0 255
-0.0906742 -0.1021484 0.1257749 255 0 255
-0.08991445 -0.1029272 0.1267734 255 0 255
-0.08859246 -0.1024909 0.1262806 255 0 255
-0.0878228 -0.103266 0.1272744 255 0 255
-0.08704443 -0.1040398 0.1282668 255 0 255
-0.08599194 -0.1042035 0.1285099 255 0 255
-0.08493836 -0.1043646 0.1287497 255 0 255
-0.08362592 -0.1039134 0.1282368 255 0 255
-0.08257396 -0.104069 0.1284691 255 0 255
-0.08152092 -0.104222 0.1286982 255 0 255
-0.08095944 -0.1055957 0.1304276 255 0 255
-0.08013915 -0.1063568 0.1314043 255 0 255
-0.07978743 -0.1083418 0.1338862 255 0 255
-0.07894213 -0.109101 0.1348609 255 0 255
-0.07785713 -0.1092449 0.1350787 255 0 255
-0.07677115 -0.1093863 0.1352932 255 0 255
-0.07568417 -0.1095251 0.1355042 255 0 255
-0.07437675 -0.1090461 0.1349545 255 0 255
-0.0732917 -0.1091793 0.1351579 255 0 255
-0.07241748 -0.1099259 0.1361167 255 0 255
-0.07153461 -0.1106707 0.1370733 255 0 255
-0.07043906 -0.110797 0.1372679 255 0 255
-0.06934264 -0.1109205 0.137459 255 0 255
-0.06844164 -0.1116593 0.1384081 255 0 255
-0.0673396 -0.1117781 0.138593 255 0 255
-0.0664253 -0.1125129 0.1395371 255 0 255
-0.06531771 -0.1126268 0.1397157 255 0 255
-0.06420927 -0.1127381 0.1398908 255 0 255
-0.06345397 -0.1140863 0.1415914 255 0 255
-0.06233619 -0.114193 0.1417608 255 0 255
-0.06121764 -0.114297 0.1419265 255 0 255
-0.06026364 -0.1150192 0.142855 255 0 255
-0.0593011 -0.1157395 0.1437812 255 0 255
-0.05817254 -0.1158362 0.1439375 255 0 255
-0.05704326 -0.1159302 0.1440903 255 0 255
-0.05621273 -0.1172659 0.1457763 255 0 255
-0.05492843 -0.1167326 0.145154 255 0 255
-0.05393514 -0.1174416 0.146066 255 0 255
-0.05293338 -0.1181485 0.1469754 255 0 255
-0.05192318 -0.1188532 0.1478821 255 0 255
-0.05077431 -0.1189321 0.1480154 255 0 255
-0.04975115 -0.1196321 0.1489162 255 0 255
-0.04859718 -0.1197058 0.1490426 255 0 255
-0.04756113 -0.120401 0.1499375 255 0 255
-0.04651668 -0.1210941 0.1508296 255 0 255
-0.04546387 -0.1217847 0.1517188 255 0 255
-0.04429594 -0.121848 0.1518319 255 0 255
-0.04312753 -0.1219085 0.1519413 255 0 255
-0.04185971 -0.1213407 0.151273 255 0 255
-0.04069424 -0.1213954 0.1513747 255 0 255
-0.03952832 -0.1214474 0.1514728 255 0 255
-0.03844906 -0.1221226 0.1523421 255 0 255
-0.03744472 -0.1234214 0.1539837 255 0 255
-0.03642426 -0.124718 0.1556227 255 0 255
-0.03538769 -0.1260123 0.1572591 255 0 255
-0.03426363 -0.1266779 0.1581168 255 0 255
-0.03306387 -0.1267141 0.1581949 255 0 255
-0.0319273 -0.1273742 0.1590458 255 0 255
-0.03072294 -0.1274048 0.1591165 255 0 255
-0.02946265 -0.1268056 0.1584065 255 0 255
-0.02831336 -0.1274574 0.1592467 255 0 255
-0.02710815 -0.1274794 0.159306 255 0 255
-0.02590269 -0.1274985 0.1593616 255 0 255
-0.02473691 -0.128142 0.1601912 255 0 255
-0.02352707 -0.1281555 0.1602394 255 0 255
-0.02234904 -0.1287933 0.1610618 255 0 255
-0.02116297 -0.1294283 0.1618808 255 0 255
-0.01996884 -0.1300605 0.1626961 255 0 255
-0.0187667 -0.1306898 0.1635078 255 0 255
-0.01757277 -0.1319435 0.1650944 255 0 255
-0.01635067 -0.1325669 0.1658989 255 0 255
-0.01512899 -0.1338146 0.1674783 255 0 255
-0.01389142 -0.1350593 0.169054 255 0 255
-0.01263804 -0.1363009 0.170626 255 0 255
-0.01136884 -0.1375392 0.1721942 255 0 255
-0.01009874 -0.13752 0.1722008 255 0 255
-0.008817245 -0.1381249 0.1729822 255 0 255
-0.007497268 -0.1399806 0.1753173 255 0 255
-0.006153676 -0.1418328 0.1776484 255 0 255
-0.004856092 -0.1418008 0.1776387 255 0 255
-0.003477162 -0.1436459 0.1799613 255 0 255
-0.002167951 -0.1436074 0.1799433 255 0 255
-0.0007888082 -0.1448188 0.1814785 255 0 255
0.0004890324 -0.1441475 0.1806735 255 0 255
0.001887556 -0.1453519 0.1822001 255 0 255
0.003254789 -0.1459266 0.1829436 255 0 255
0.004731327 -0.1477495 0.1852394 255 0 255
0.006121789 -0.1483168 0.1859739 255 0 255
0.007637217 -0.1501316 0.1882599 255 0 255
0.00923861 -0.1525675 0.1913186 255 0 255
0.01080463 -0.1543734 0.1935941 255 0 255
0.01253497 -0.1574246 0.1974192 255 0 255
0.0143043 -0.1604703 0.201238 255 0 255
0.0159559 -0.1622615 0.2034961 255 0 255
0.01795986 -0.1665448 0.2088561 255 0 255
0.01975974 -0.1689493 0.2118784 255 0 255
0.0210497 -0.167606 0.2102356 255 0 255
0.02260572 -0.1681306 0.2109177 255 0 255
0.02416912 -0.1686512 0.2115946 255 0 255
0.02533203 -0.1666761 0.2091639 255 0 255
0.02700018 -0.1678123 0.2106069 255 0 255
0.02879331 -0.1695662 0.2128192 255 0 255
0.03186019 -0.1781566 0.2235469 255 0 255
0.09050699 -0.1201787 0.1522387 255 0 255
0.09067842 -0.1181507 0.1497129 255 0 255
0.0911625 -0.116713 0.1479248 255 0 255
0.09197047 -0.1158632 0.1468717 255 0 255
0.09242543 -0.114426 0.1450837 255 0 255
0.09321168 -0.113575 0.1440284 255 0 255
0.09398904 -0.1127231 0.1429717 255 0 255
0.09475738 -0.1118703 0.1419135 255 0 255
0.09551679 -0.1110165 0.1408539 255 0 255
0.09662975 -0.1107438 0.1405209 255 0 255
0.09737493 -0.1098874 0.1394575 255 0 255
0.09774125 -0.1084501 0.137667 255 0 255
0.09846481 -0.1075931 0.1366021 255 0 255
0.09917944 -0.1067353 0.135536 255 0 255
-0.1311389 -0.1057991 0.1268596 255 0 255
-0.1292783 -0.1049012 0.1258324 255 0 255
-0.1282285 -0.1051665 0.1262091 255 0 255
-0.1263862 -0.1042579 0.1251675 255 0 255
-0.1249485 -0.1039298 0.1248262 255 0 255
-0.1242928 -0.1047722 0.1258991 255 0 255
-0.1228591 -0.1044372 0.1255487 255 0 255
-0.121812 -0.1046871 0.1259049 255 0 255
-0.1207633 -0.1049345 0.1262579 255 0 255
-0.1197129 -0.1051793 0.1266075 255 0 255
-0.1179211 -0.104238 0.1255214 255 0 255
-0.1172412 -0.1050687 0.1265794 255 0 255
-0.1161899 -0.105305 0.1269178 255 0 255
-0.1147781 -0.1049446 0.1265332 255 0 255
-0.1133721 -0.1045799 0.1261429 255 0 255
-0.1126751 -0.1054029 0.1271911 255 0 255
-0.1109257 -0.1044349 0.1260687 255 0 255
-0.1095337 -0.1040587 0.1256627 255 0 255
-0.1084882 -0.1042766 0.1259767 255 0 255
-0.1074413 -0.104492 0.1262874 255 0 255
-0.1060599 -0.1041051 0.1258671 255 0 255
-0.1046845 -0.1037143 0.1254414 255 0 255
-0.1033153 -0.1033194 0.1250102 255 0 255
-0.1022739 -0.1035224 0.1253044 255 0 255
-0.1015493 -0.1043257 0.1263273 255 0 255
-0.1001872 -0.1039211 0.1258831 255 0 255
-0.09914184 -0.1041166 0.1261675 255 0 255
-0.09778835 -0.1037049 0.1257137 255 0 255
-0.09674416 -0.1038947 0.1259905 255 0 255
-0.09539942 -0.1034759 0.1255271 255 0 255
-0.09435648 -0.10366 0.1257963 255 0 255
-0.09331232 -0.1038416 0.1260623 255 0 255
-0.09197892 -0.1034126 0.1255852 255 0 255
-0.09093612 -0.1035886 0.1258436 255 0 255
-0.08989211 -0.103762 0.1260988 255 0 255
-0.08884694 -0.103933 0.1263507 255 0 255
-0.08807346 -0.104712 0.1273427 255 0 255
-0.08702222 -0.1048785 0.1275889 255 0 255
-0.08596981 -0.1050425 0.1278318 255 0 255
-0.08465484 -0.1045916 0.1273253 255 0 255
-0.08334634 -0.104137 0.1268138 255 0 255
-0.08255212 -0.1049058 0.1277928 255 0 255
-0.08149915 -0.1050591 0.1280216 255 0 255
-0.08044514 -0.1052098 0.1282471 255 0 255
-0.0796325 -0.1059733 0.1292195 255 0 255
-0.0792883 -0.1079665 0.1316923 255 0 255
-0.07845062 -0.1087279 0.1326627 255 0 255
-0.0776043 -0.1094878 0.1336314 255 0 255
-0.0765222 -0.109629 0.1338449 255 0 255
-0.07543914 -0.1097675 0.1340549 255 0 255
-0.07435511 -0.1099034 0.1342616 255 0 255
-0.07327013 -0.1100368 0.1344648 255 0 255
-0.07239588 -0.1107866 0.1354209 255 0 255
-0.07151304 -0.1115348 0.1363749 255 0 255
-0.07041758 -0.1116612 0.1365693 255 0 255
-0.06952133 -0.1124055 0.1375185 255 0 255
-0.06842024 -0.1125271 0.1377067 255 0 255
-0.06751063 -0.1132674 0.138651 255 0 255
-0.06640396 -0.1133841 0.1388329 255 0 255
-0.06548107 -0.1141203 0.1397721 255 0 255
-0.06436886 -0.1142321 0.1399476 255 0 255
-0.06343272 -0.1149642 0.1408817 255 0 255
-0.06231501 -0.1150711 0.1410509 255 0 255
-0.06119655 -0.1151753 0.1412165 255 0 255
-0.06024256 -0.1159008 0.1421424 255 0 255
-0.05928004 -0.1166243 0.1430659 255 0 255
-0.05815153 -0.1167212 0.1432221 255 0 255
-0.05717589 -0.1174403 0.1441401 255 0 255
-0.05619176 -0.1181573 0.1450556 255 0 255
-0.05505337 -0.1182467 0.1452021 255 0 255
-0.05391432 -0.1183333 0.1453451 255 0 255
-0.05291257 -0.1190434 0.1462519 255 0 255
-0.05190239 -0.1197513 0.147156 255 0 255
-0.0507536 -0.1198303 0.1472891 255 0 255
-0.04973047 -0.1205336 0.1481874 255 0 255
-0.04857659 -0.1206074 0.1483137 255 0 255
-0.04754055 -0.1213059 0.149206 255 0 255
-0.0464961 -0.122002 0.1500955 255 0 255
-0.0454433 -0.1226959 0.1509822 255 0 255
-0.04438214 -0.1233874 0.1518659 255 0 255
-0.04320987 -0.1234482 0.1519755 255 0 255
-0.04203712 -0.1235062 0.1520815 255 0 255
-0.04076898 -0.1229327 0.151412 255 0 255
-0.03959922 -0.1229849 0.1515102 255 0 255
-0.03851606 -0.1236634 0.1523773 255 0 255
-0.03742463 -0.1243394 0.1532414 255 0 255
-0.03640412 -0.1256423 0.1548754 255 0 255
-0.03536751 -0.1269428 0.1565068 255 0 255
-0.0343148 -0.1282411 0.1581356 255 0 255
-0.03311119 -0.1282775 0.1582138 255 0 255
-0.03197071 -0.1289409 0.1590624 255 0 255
-0.03076253 -0.1289717 0.1591333 255 0 255
-0.02955402 -0.1289995 0.1592005 255 0 255
-0.02839689 -0.1296546 0.1600386 255 0 255
-0.0271839 -0.1296768 0.1600983 255 0 255
-0.02592689 -0.1290659 0.159379 255 0 255
-0.02475718 -0.1297125 0.1602063 255 0 255
-0.02354349 -0.1297261 0.1602546 255 0 255
-0.0223935 -0.1309974 0.1618503 255 0 255
-0.02122757 -0.132266 0.1634427 255 0 255
-0.02002166 -0.1329013 0.1642559 255 0 255
-0.01880771 -0.1335337 0.1650655 255 0 255
-0.01760193 -0.1347936 0.1666474 255 0 255
-0.01636803 -0.13542 0.1674496 255 0 255
-0.01512619 -0.1360434 0.168248 255 0 255
-0.01388072 -0.1372941 0.1698189 255 0 255
-0.01261982 -0.1391721 0.1721624 255 0 255
-0.01134585 -0.1391559 0.172173 255 0 255
-0.01006439 -0.1397668 0.172956 255 0 255
-0.008763616 -0.1410047 0.1745113 255 0 255
-0.007447138 -0.1422393 0.1760627 255 0 255
-0.006095584 -0.1441004 0.1783863 255 0 255
-0.004766956 -0.1446981 0.1791529 255 0 255
-0.003430528 -0.1452925 0.1799154 255 0 255
-0.002117476 -0.1452539 0.1798974 255 0 255
-0.0007694286 -0.1458417 0.1806514 255 0 255
0.000547277 -0.1457967 0.180625 255 0 255
0.001949754 -0.147007 0.1821466 255 0 255
0.003367835 -0.1482136 0.1836635 255 0 255
0.004852274 -0.1500453 0.1859516 255 0 255
0.006195773 -0.1499865 0.1859078 255 0 255
0.007715194 -0.1518103 0.1881863 255 0 255
0.009195334 -0.1530013 0.1896843 255 0 255
0.01069087 -0.1541883 0.1911773 255 0 255
0.01241349 -0.1572551 0.1949905 255 0 255
0.01402615 -0.159061 0.1972477 255 0 255
0.01574047 -0.1614897 0.200274 255 0 255
0.01781528 -0.1664223 0.2063918 255 0 255
0.0196074 -0.1688395 0.2094048 255 0 255
0.0207991 -0.1668636 0.2069936 255 0 255
0.02262569 -0.1692715 0.2099952 255 0 255
0.02487545 -0.1741786 0.2160839 255 0 255
0.02606561 -0.1721923 0.2136586 255 0 255
0.02786719 -0.1739581 0.2158678 255 0 255
0.02958183 -0.1750931 0.2172977 255 0 255
0.09102208 -0.1196745 0.1496937 255 0 255
0.09117316 -0.1176385 0.1471768 255 0 255
0.09198094 -0.1167853 0.1461264 255 0 255
0.0924358 -0.1153416 0.1443435 255 0 255
0.09322193 -0.1144873 0.1432911 255 0 255
0.09399915 -0.113632 0.1422371 255 0 255
0.09512256 -0.1133624 0.1419094 255 0 255
0.09588553 -0.1125043 0.1408515 255 0 255
0.09663956 -0.1116454 0.1397922 255 0 255
0.09738462 -0.1107856 0.1387316 255 0 255
0.0981207 -0.109925 0.1376696 255 0 255
0.09847424 -0.1084814 0.1358842 255 0 255
0.09918876 -0.1076202 0.1348208 255 0 255
-0.1307061 -0.1060807 0.1254521 255 0 255
-0.1288493 -0.1051763 0.1244281 255 0 255
-0.1274042 -0.1048534 0.1240993 255 0 255
-0.1259648 -0.1045261 0.1237647 255 0 255
-0.1245309 -0.1041945 0.1234242 255 0 255
-0.1234907 -0.1044491 0.1237854 255 0 255
-0.1220645 -0.1041097 0.1234345 255 0 255
-0.1210247 -0.1043583 0.123788 255 0 255
-0.1199834 -0.1046043 0.1241381 255 0 255
-0.1189404 -0.1048479 0.1244849 255 0 255
-0.117526 -0.1044941 0.1241147 255 0 255
-0.1168498 -0.1053273 0.1251687 255 0 255
-0.1158022 -0.1055632 0.1255057 255 0 255
-0.1143942 -0.1051993 0.125122 255 0 255
-0.1129921 -0.1048313 0.1247326 255 0 255
-0.1119473 -0.1050579 0.1250573 255 0 255
-0.1105533 -0.1046824 0.1246579 255 0 255
-0.1095093 -0.1049032 0.1249749 255 0 255
-0.1081234 -0.1045203 0.1245655 255 0 255
-0.1070803 -0.1047353 0.1248748 255 0 255
-0.1057027 -0.104345 0.1244556 255 0 255
-0.1043313 -0.1039508 0.1240309 255 0 255
-0.1032914 -0.1041567 0.1243282 255 0 255
-0.1019284 -0.1037552 0.1238938 255 0 255
-0.1008895 -0.1039554 0.1241834 255 0 255
-0.09984928 -0.1041531 0.1244697 255 0 255
