ply
format ascii 1.0
Comment Generated by Floating Hands
element vertex 1120
property double x
property double y
property double z
property uchar red
property uchar green
property uchar blue
end_header
0.03670616 -0.02475112 0.1276211 255 0 255
0.0499963 -0.04112191 0.1685138 255 0 255
0.05482344 -0.04594724 0.180782 255 0 255
0.0575227 -0.04788651 0.1858936 255 0 255
0.05998294 -0.0494573 0.190101 255 0 255
0.06133369 -0.04959279 0.1907385 255 0 255
0.06269065 -0.04972433 0.1913707 255 0 255
0.06375994 -0.04949717 0.1911099 255 0 255
0.06482801 -0.0492676 0.1908455 255 0 255
0.06589482 -0.04903565 0.1905776 255 0 255
0.0675704 -0.04950587 0.1920756 255 0 255
0.06864202 -0.04926744 0.1917986 255 0 255
0.07002478 -0.04937724 0.1924008 255 0 255
0.07141363 -0.04948292 0.1929975 255 0 255
0.07280849 -0.0495845 0.1935886 255 0 255
0.07388583 -0.04933386 0.1932941 255 0 255
0.07594342 -0.05012241 0.1956326 255 0 255
0.07735991 -0.05021058 0.1962056 255 0 255
0.07878231 -0.05029455 0.1967729 255 0 255
0.07987238 -0.0500297 0.1964587 255 0 255
0.08096091 -0.04976239 0.1961408 255 0 255
0.08170243 -0.04914989 0.1949457 255 0 255
0.08278432 -0.04887857 0.1946216 255 0 255
0.08457048 -0.04928662 0.1960365 255 0 255
0.08565664 -0.04900854 0.1957028 255 0 255
0.04988471 -0.04333842 0.1710111 255 0 255
0.05467529 -0.04822407 0.1832707 255 0 255
0.05709071 -0.04982697 0.1874889 255 0 255
0.05870487 -0.0503357 0.1890263 255 0 255
0.06033286 -0.05083898 0.1905566 255 0 255
0.06140122 -0.05061707 0.1903041 255 0 255
0.06275878 -0.0507518 0.190935 255 0 255
0.0635343 -0.05016597 0.1897883 255 0 255
0.06459898 -0.04993683 0.1895251 255 0 255
0.06566244 -0.04970524 0.1892583 255 0 255
0.06733513 -0.05018301 0.1907544 255 0 255
0.0680944 -0.04958998 0.1895963 255 0 255
0.06978306 -0.0500588 0.1910805 255 0 255
0.07116875 -0.05016849 0.1916769 255 0 255
0.07256053 -0.05027408 0.1922677 255 0 255
0.0742821 -0.05072714 0.1937313 255 0 255
0.07601703 -0.05117426 0.1951871 255 0 255
0.0774341 -0.0512656 0.1957589 255 0 255
0.07885711 -0.05135268 0.1963249 255 0 255
0.07994749 -0.05108738 0.196011 255 0 255
0.08103644 -0.05081962 0.1956934 255 0 255
0.08212385 -0.05054939 0.1953721 255 0 255
0.08320975 -0.05027671 0.1950471 255 0 255
0.08500041 -0.05069046 0.1964582 255 0 255
0.08644736 -0.0507545 0.1969924 255 0 255
0.05396755 -0.04978893 0.1839662 255 0 255
0.05664254 -0.05178123 0.1890737 255 0 255
0.05853438 -0.05266489 0.1915006 255 0 255
0.05960921 -0.05244665 0.1912546 255 0 255
0.06096601 -0.05259022 0.1918922 255 0 255
0.06175535 -0.0520029 0.1907518 255 0 255
0.06282657 -0.05177738 0.1904951 255 0 255
0.06389655 -0.05154946 0.1902347 255 0 255
0.06496533 -0.0513191 0.1899708 255 0 255
0.065731 -0.05072612 0.1888206 255 0 255
0.06709903 -0.05085117 0.1894322 255 0 255
0.06816393 -0.05061359 0.1891576 255 0 255
0.06954046 -0.05073137 0.1897592 255 0 255
0.07123973 -0.05120195 0.1912341 255 0 255
0.07231176 -0.0509546 0.1909458 255 0 255
0.07370642 -0.05106001 0.1915307 255 0 255
0.07576253 -0.05186995 0.1938616 255 0 255
0.07684511 -0.05161178 0.1935584 255 0 255
0.07826136 -0.05170376 0.1941253 255 0 255
0.08002226 -0.05214316 0.1955591 255 0 255
0.0814539 -0.05222572 0.1961134 255 0 255
0.08254539 -0.05195411 0.1957913 255 0 255
0.08398499 -0.05202896 0.1963349 255 0 255
0.08578381 -0.0524475 0.197741 255 0 255
0.08723865 -0.05251269 0.1982718 255 0 255
0.05219214 -0.04987279 0.181093 255 0 255
0.05564133 -0.05300766 0.1888694 255 0 255
0.05752409 -0.05390637 0.1912981 255 0 255
0.05887637 -0.05405948 0.1919433 255 0 255
0.05967566 -0.05347154 0.1908101 255 0 255
0.06103306 -0.05361829 0.1914463 255 0 255
0.06210959 -0.05339405 0.1911925 255 0 255
0.06318492 -0.05316733 0.190935 255 0 255
0.0639644 -0.05257281 0.1897911 255 0 255
0.06503348 -0.05234205 0.1895273 255 0 255
0.06579926 -0.05174508 0.188379 255 0 255
0.06716786 -0.05187332 0.1889893 255 0 255
0.0682331 -0.05163532 0.1887149 255 0 255
0.06992339 -0.05211759 0.1901934 255 0 255
0.0713103 -0.05223356 0.1907872 255 0 255
0.07270323 -0.0523454 0.1913755 255 0 255
0.07377795 -0.05209431 0.1910828 255 0 255
0.07517919 -0.05219867 0.1916608 255 0 255
0.07625475 -0.05194185 0.1913599 255 0 255
0.07799956 -0.05239481 0.1927998 255 0 255
0.07975761 -0.05284176 0.1942318 255 0 255
0.08118621 -0.05292831 0.1947859 255 0 255
0.08262065 -0.05301056 0.1953342 255 0 255
0.08441089 -0.05344096 0.1967445 255 0 255
0.08621418 -0.05386518 0.1981467 255 0 255
0.08767328 -0.05393251 0.1986751 255 0 255
0.05331368 -0.05235489 0.1842156 255 0 255
0.05597443 -0.05439543 0.1893124 255 0 255
0.05731719 -0.05455645 0.1899623 255 0 255
0.05866626 -0.05471351 0.190607 255 0 255
0.05974183 -0.05449452 0.1903614 255 0 255
0.06109979 -0.05464445 0.1909964 255 0 255
0.06217667 -0.05441982 0.1907428 255 0 255
0.06325232 -0.05419274 0.1904856 255 0 255
0.06432673 -0.05396323 0.1902248 255 0 255
0.06510131 -0.05336311 0.1890799 255 0 255
0.06616945 -0.05312958 0.1888129 255 0 255
0.06723638 -0.0528936 0.1885423 255 0 255
0.06799224 -0.05228947 0.1873904 255 0 255
0.0696796 -0.05277925 0.1888671 255 0 255
0.07106338 -0.05289922 0.1894606 255 0 255
0.0721324 -0.05265186 0.1891737 255 0 255
0.07352452 -0.05276441 0.1897571 255 0 255
0.07492264 -0.05287277 0.1903348 255 0 255
0.07632679 -0.05297691 0.1909069 255 0 255
0.07773688 -0.05307686 0.1914733 255 0 255
0.0798313 -0.05389011 0.1937731 255 0 255
0.08126049 -0.05397974 0.1943259 255 0 255
0.08304207 -0.054422 0.1957404 255 0 255
0.08483683 -0.05485811 0.1971468 255 0 255
0.08664465 -0.05528796 0.1985451 255 0 255
0.08810795 -0.05535743 0.1990711 255 0 255
0.05523207 -0.05599976 0.189982 255 0 255
0.05738308 -0.05730021 0.1932919 255 0 255
0.05819995 -0.05670631 0.1921661 255 0 255
0.05956087 -0.0568643 0.1928069 255 0 255
0.0603679 -0.05626699 0.1916756 255 0 255
0.06145006 -0.05604364 0.1914249 255 0 255
0.06253099 -0.05581784 0.1911707 255 0 255
0.06361073 -0.05558959 0.1909128 255 0 255
0.06439412 -0.05498633 0.1897714 255 0 255
0.06516882 -0.05438227 0.1886283 255 0 255
0.06623729 -0.05414833 0.1883616 255 0 255
0.0669983 -0.05354187 0.1872142 255 0 255
0.06806047 -0.05330391 0.1869412 255 0 255
0.069435 -0.05343194 0.1875398 255 0 255
0.07081562 -0.05355588 0.188133 255 0 255
0.07188126 -0.05330896 0.1878473 255 0 255
0.07327027 -0.05342548 0.1884304 255 0 255
0.0746653 -0.05353782 0.1890078 255 0 255
0.07606629 -0.05364597 0.1895796 255 0 255
0.0778091 -0.05411309 0.1910148 255 0 255
0.0799046 -0.05493648 0.1933103 255 0 255
0.08202067 -0.05575199 0.1955957 255 0 255
0.08346362 -0.05583855 0.1961393 255 0 255
0.0856133 -0.05663987 0.1984065 255 0 255
0.0874293 -0.05707448 0.1997999 255 0 255
0.0889005 -0.05714506 0.2003223 255 0 255
0.05635733 -0.05854582 0.1930667 255 0 255
0.05798648 -0.05909419 0.1945985 255 0 255
0.05881096 -0.05849484 0.1934729 255 0 255
0.05990335 -0.05827452 0.1932279 255 0 255
0.06071423 -0.0576725 0.1920976 255 0 255
0.06180046 -0.057448 0.1918463 255 0 255
0.06288546 -0.05722103 0.1915913 255 0 255
0.06396925 -0.0569916 0.1913328 255 0 255
0.06475649 -0.05638365 0.1901924 255 0 255
0.06553499 -0.05577482 0.1890502 255 0 255
0.06630475 -0.05516522 0.1879063 255 0 255
0.06706583 -0.0545548 0.1867607 255 0 255
0.06781816 -0.05394363 0.1856134 255 0 255
0.06918956 -0.05407564 0.1862117 255 0 255
0.07056703 -0.05420355 0.1868044 255 0 255
0.07162926 -0.05395707 0.1865201 255 0 255
0.07269017 -0.05370818 0.1862322 255 0 255
0.07440706 -0.05419387 0.1876799 255 0 255
0.07580491 -0.05430601 0.1882514 255 0 255
0.07754482 -0.05478067 0.1896848 255 0 255
0.07963771 -0.05561512 0.1919768 255 0 255
0.08209462 -0.05680654 0.1951243 255 0 255
0.08388522 -0.05726017 0.1965308 255 0 255
0.08639041 -0.05843375 0.1996558 255 0 255
0.08821454 -0.05887303 0.2010441 255 0 255
0.09040969 -0.05966718 0.2032851 255 0 255
0.05642191 -0.05957517 0.1926003 255 0 255
0.05805182 -0.06013029 0.1941291 255 0 255
0.05887644 -0.05952704 0.1930053 255 0 255
0.05996917 -0.05930635 0.1927606 255 0 255
0.06106068 -0.05908317 0.1925123 255 0 255
0.06186668 -0.05847551 0.1913809 255 0 255
0.06324009 -0.05862938 0.1920047 255 0 255
0.06432795 -0.05839878 0.1917455 255 0 255
0.06482346 -0.05740647 0.1897294 255 0 255
0.06560203 -0.05679372 0.188589 255 0 255
0.0663719 -0.05618015 0.187447 255 0 255
0.06713308 -0.0555658 0.1863032 255 0 255
0.06819589 -0.05532702 0.1860307 255 0 255
0.06925742 -0.05508584 0.1857547 255 0 255
0.07031763 -0.05484224 0.1854751 255 0 255
0.071698 -0.05496996 0.186062 255 0 255
0.0727592 -0.05472064 0.1857743 255 0 255
0.07414797 -0.05484095 0.1863512 255 0 255
0.07554272 -0.05495705 0.1869224 255 0 255
0.07727971 -0.05543922 0.1883539 255 0 255
0.07970998 -0.056654 0.1915073 255 0 255
0.08216817 -0.05785909 0.1946487 255 0 255
0.08465425 -0.05905433 0.1977778 255 0 255
0.08751906 -0.06060624 0.2017562 255 0 255
0.08970959 -0.06141492 0.2039987 255 0 255
0.09192048 -0.06221537 0.2062308 255 0 255
0.05648622 -0.06060258 0.1921299 255 0 255
0.05784735 -0.06077583 0.1927745 255 0 255
0.05894161 -0.06055725 0.1925337 255 0 255
0.06003464 -0.06033618 0.1922892 255 0 255
0.06112649 -0.06011264 0.1920411 255 0 255
0.0619326 -0.05950105 0.1909116 255 0 255
0.06301825 -0.05927332 0.1906572 255 0 255
0.06410266 -0.05904314 0.1903991 255 0 255
0.06489007 -0.05842731 0.1892623 255 0 255
0.06566874 -0.05781065 0.1881239 255 0 255
0.06643873 -0.05719316 0.1869836 255 0 255
0.06719992 -0.05657488 0.1858418 255 0 255
0.06795242 -0.05595583 0.1846982 255 0 255
0.06901055 -0.05571509 0.1844234 255 0 255
0.0703854 -0.05585007 0.1850144 255 0 255
0.07144456 -0.05560364 0.1847315 255 0 255
0.07282784 -0.0557312 0.1853125 255 0 255
0.07421716 -0.05585457 0.1858879 255 0 255
0.07561245 -0.05597378 0.1864578 255 0 255
0.07735026 -0.05646252 0.1878864 255 0 255
0.0794416 -0.05731807 0.1901704 255 0 255
0.08189741 -0.05853766 0.1933067 255 0 255
0.08438106 -0.05974742 0.1964308 255 0 255
0.08829747 -0.06242764 0.2029826 255 0 255
0.09227087 -0.06509033 0.2095131 255 0 255
0.09450843 -0.06589416 0.211733 255 0 255
0.05818163 -0.06219657 0.1931781 255 0 255
0.05900647 -0.06158549 0.192058 255 0 255
0.06009981 -0.06136407 0.1918138 255 0 255
0.06119199 -0.06114013 0.1915659 255 0 255
0.06199815 -0.06052464 0.1904382 255 0 255
0.06308415 -0.06029653 0.190184 255 0 255
0.06416888 -0.06006593 0.1899261 255 0 255
0.06466039 -0.05905952 0.1879179 255 0 255
0.06543541 -0.05843974 0.1867822 255 0 255
0.06650516 -0.05820424 0.1865164 255 0 255
0.06726646 -0.05758204 0.1853763 255 0 255
0.068019 -0.05695904 0.1842346 255 0 255
0.06907743 -0.05671788 0.18396 255 0 255
0.07045285 -0.05685601 0.1845497 255 0 255
0.07151232 -0.05660914 0.1842671 255 0 255
0.07289615 -0.05673977 0.1848467 255 0 255
0.07395658 -0.05648721 0.1845561 255 0 255
0.07534871 -0.05661036 0.1851256 255 0 255
0.07641006 -0.05635203 0.1848268 255 0 255
0.07815089 -0.056844 0.1862478 255 0 255
0.08093742 -0.05845626 0.1902426 255 0 255
0.08375919 -0.06005691 0.1942233 255 0 255
0.08767056 -0.06276653 0.2007646 255 0 255
0.09305947 -0.0669493 0.210714 255 0 255
0.09709936 -0.06961984 0.2172081 255 0 255
0.05528289 -0.06066947 0.1867837 255 0 255
0.05716623 -0.06164407 0.1891852 255 0 255
0.05824982 -0.06142702 0.1889473 255 0 255
0.05960969 -0.06160164 0.1895819 255 0 255
0.06097591 -0.06177227 0.1902113 255 0 255
0.06206344 -0.06154622 0.1899608 255 0 255
0.06286099 -0.06092595 0.1888333 255 0 255
0.0639423 -0.06069577 0.1885766 255 0 255
0.0647261 -0.06007294 0.1874445 255 0 255
0.06550124 -0.05944925 0.1863106 255 0 255
0.06626759 -0.05882477 0.1851751 255 0 255
0.06702522 -0.05819948 0.1840379 255 0 255
0.06777414 -0.05757341 0.182899 255 0 255
0.0685143 -0.05694665 0.1817586 255 0 255
0.06988283 -0.05708957 0.1823488 255 0 255
0.0709352 -0.05684401 0.1820684 255 0 255
0.07198618 -0.05659605 0.1817845 255 0 255
0.07336546 -0.05672826 0.1823602 255 0 255
0.07441742 -0.05647459 0.1820684 255 0 255
0.07546801 -0.05621851 0.181773 255 0 255
0.07719856 -0.05671975 0.183194 255 0 255
0.0792868 -0.05759393 0.1854664 255 0 255
0.08174367 -0.05883817 0.1885866 255 0 255
0.08633877 -0.06233509 0.1968353 255 0 255
0.09207167 -0.06693926 0.2076255 255 0 255
0.09682096 -0.07039053 0.2158194 255 0 255
0.05294739 -0.05807398 0.1784167 255 0 255
0.05668915 -0.06185978 0.1869539 255 0 255
0.05803944 -0.06204229 0.1875932 255 0 255
0.05967382 -0.06261849 0.1891017 255 0 255
0.06104055 -0.06279225 0.1897296 255 0 255
0.06212835 -0.06256585 0.1894794 255 0 255
0.06263702 -0.06154633 0.1874818 255 0 255
0.06371488 -0.06131657 0.1872262 255 0 255
0.06449506 -0.06069064 0.1860969 255 0 255
0.06496631 -0.05967095 0.1840967 255 0 255
0.06602922 -0.05943626 0.1838332 255 0 255
0.06709082 -0.05919916 0.1835662 255 0 255
0.06752843 -0.05817881 0.1815628 255 0 255
0.06858001 -0.05793853 0.1812906 255 0 255
0.06963028 -0.05769585 0.181015 255 0 255
0.07067922 -0.05745076 0.1807358 255 0 255
0.07172681 -0.05720325 0.1804532 255 0 255
0.07310294 -0.05733943 0.1810286 255 0 255
0.0741515 -0.05708621 0.1807379 255 0 255
0.07519865 -0.05683061 0.1804439 255 0 255
0.07658537 -0.05695597 0.1810046 255 0 255
0.07866724 -0.05784201 0.1832744 255 0 255
0.08146633 -0.05948312 0.1872467 255 0 255
0.08535653 -0.06225426 0.1937701 255 0 255
0.09108194 -0.06690612 0.2045425 255 0 255
0.09618228 -0.0707733 0.2135765 255 0 255
0.05729249 -0.06367017 0.1882232 255 0 255
0.05837665 -0.06345239 0.1879857 255 0 255
0.05973761 -0.0636333 0.1886174 255 0 255
0.06110485 -0.06381021 0.1892439 255 0 255
0.06190753 -0.06318382 0.1881229 255 0 255
0.0624123 -0.06215771 0.1861297 255 0 255
0.0634867 -0.06192836 0.1858752 255 0 255
0.06426322 -0.06129935 0.1847488 255 0 255
0.06473059 -0.06027308 0.182753 255 0 255
0.06548589 -0.05964323 0.181624 255 0 255
0.0668482 -0.05980217 0.1822248 255 0 255
0.06759352 -0.05916914 0.1810907 255 0 255
0.06833008 -0.05853541 0.179955 255 0 255
0.06969591 -0.05868538 0.1805433 255 0 255
0.0704224 -0.05804854 0.1794027 255 0 255
0.0714666 -0.0578015 0.1791213 255 0 255
0.07283956 -0.0579416 0.1796962 255 0 255
0.0735509 -0.05730022 0.1785482 255 0 255
0.07459097 -0.05704597 0.1782564 255 0 255
0.07597081 -0.05717621 0.1788179 255 0 255
0.07770146 -0.05768817 0.1802294 255 0 255
0.08049104 -0.05934906 0.1841969 255 0 255
0.08402022 -0.06176632 0.189857 255 0 255
0.08902268 -0.06570042 0.1989078 255 0 255
0.09446361 -0.0699933 0.2087819 255 0 255
0.05762574 -0.06508643 0.188609 255 0 255
0.05898839 -0.06527295 0.1892429 255 0 255
0.06007921 -0.0650508 0.1890003 255 0 255
0.06145075 -0.06523006 0.1896245 255 0 255
0.06225723 -0.064599 0.1885045 255 0 255
0.06218677 -0.06276006 0.184777 255 0 255
0.06296459 -0.0621296 0.183656 255 0 255
0.0637337 -0.06149832 0.1825332 255 0 255
0.06419339 -0.06046633 0.1805429 255 0 255
0.06494129 -0.05983426 0.1794177 255 0 255
0.06629667 -0.05999793 0.1800189 255 0 255
0.06703459 -0.0593627 0.1788886 255 0 255
0.06807931 -0.05912332 0.1786188 255 0 255
0.06912269 -0.05888155 0.1783457 255 0 255
0.07016479 -0.05863737 0.178069 255 0 255
0.07120555 -0.05839081 0.1777889 255 0 255
0.07224496 -0.05814185 0.1775053 255 0 255
0.07294895 -0.05749831 0.1763612 255 0 255
0.07398189 -0.05724547 0.1760717 255 0 255
0.0753549 -0.05738056 0.1766339 255 0 255
0.07707899 -0.05790085 0.1780444 255 0 255
0.07916509 -0.0588036 0.1803002 255 0 255
0.08268158 -0.06124847 0.1859532 255 0 255
0.08696006 -0.06445089 0.1932889 255 0 255
0.09202246 -0.06840502 0.2023003 255 0 255
0.0579592 -0.0665076 0.1889874 255 0 255
0.05905146 -0.0662876 0.1887487 255 0 255
0.06042098 -0.06647327 0.1893759 255 0 255
0.06151463 -0.06624744 0.1891291 255 0 255
0.06232119 -0.06561255 0.188011 255 0 255
0.06225014 -0.06375924 0.1842905 255 0 255
0.063028 -0.0631249 0.1831715 255 0 255
0.06350005 -0.06208554 0.1811856 255 0 255
0.06425669 -0.06145038 0.1800639 255 0 255
0.06500467 -0.06081443 0.1789407 255 0 255
0.06605224 -0.06057948 0.1786781 255 0 255
0.06678646 -0.05994122 0.1775507 255 0 255
0.06782772 -0.05970231 0.1772822 255 0 255
0.06886768 -0.05946099 0.1770102 255 0 255
0.06958314 -0.05881898 0.1758763 255 0 255
0.07061677 -0.05857373 0.1755985 255 0 255
0.07164904 -0.05832615 0.1753172 255 0 255
0.07267996 -0.05807616 0.1750325 255 0 255
0.07370951 -0.05782378 0.1747443 255 0 255
0.07507934 -0.05796284 0.1753061 255 0 255
0.07714581 -0.05888346 0.1775669 255 0 255
0.07923292 -0.05979614 0.1798179 255 0 255
0.08204594 -0.06148283 0.1837591 255 0 255
0.08596322 -0.06432783 0.1902331 255 0 255
0.09029751 -0.06754421 0.1975336 255 0 255
0.05829274 -0.06793376 0.1893584 255 0 255
0.05911427 -0.06730019 0.1882505 255 0 255
0.05992706 -0.06666563 0.1871408 255 0 255
0.0610135 -0.06644103 0.186896 255 0 255
0.06152651 -0.0653937 0.1849155 255 0 255
0.0620233 -0.06434707 0.182935 255 0 255
0.06279747 -0.06370968 0.1818188 255 0 255
0.06326561 -0.06266376 0.1798375 255 0 255
0.06431968 -0.06243243 0.1795811 255 0 255
0.06506768 -0.06179262 0.1784598 255 0 255
0.06611551 -0.06155726 0.1781975 255 0 255
0.06684981 -0.06091516 0.1770721 255 0 255
0.06789132 -0.06067583 0.1768037 255 0 255
0.06861187 -0.06003149 0.1756743 255 0 255
0.06964707 -0.05978823 0.1754001 255 0 255
0.07068095 -0.0595426 0.1751225 255 0 255
0.07138264 -0.05889457 0.1739867 255 0 255
0.07241014 -0.05864505 0.1737033 255 0 255
0.07343627 -0.05839318 0.1734165 255 0 255
0.07480291 -0.0585362 0.1739779 255 0 255
0.07686664 -0.05946774 0.1762349 255 0 255
0.07895104 -0.06039128 0.1784821 255 0 255
0.08140892 -0.06170129 0.1815678 255 0 255
0.08532104 -0.0645754 0.1880306 255 0 255
0.08929023 -0.06743179 0.1944722 255 0 255
0.0586264 -0.06936481 0.1897219 255 0 255
0.05945175 -0.06872662 0.1886152 255 0 255
0.05943197 -0.06684202 0.1849086 255 0 255
0.06051116 -0.06661861 0.1846657 255 0 255
0.0613028 -0.0659791 0.183555 255 0 255
0.06150562 -0.06451314 0.1807156 255 0 255
0.06227235 -0.06387349 0.1796031 255 0 255
0.06332795 -0.06364422 0.1793505 255 0 255
0.0643823 -0.06341248 0.1790944 255 0 255
0.0648253 -0.06235931 0.1771153 255 0 255
0.06586967 -0.06212441 0.1768542 255 0 255
0.06691277 -0.06188711 0.1765896 255 0 255
0.06795454 -0.06164738 0.1763215 255 0 255
0.06867512 -0.06099916 0.175194 255 0 255
0.06971059 -0.0607555 0.1749201 255 0 255
0.07074472 -0.06050947 0.1746427 255 0 255
0.07144648 -0.05985756 0.173509 255 0 255
0.0724742 -0.05960765 0.1732258 255 0 255
0.07316214 -0.05895369 0.1720883 255 0 255
0.07452559 -0.05910065 0.1726492 255 0 255
0.07624079 -0.05964324 0.1740535 255 0 255
0.07796934 -0.06017971 0.1754502 255 0 255
0.08006425 -0.06110797 0.1776859 255 0 255
0.08360703 -0.06361607 0.183294 255 0 255
0.08719955 -0.06610835 0.1888833 255 0 255
0.0567883 -0.06743948 0.1831509 255 0 255
0.05868834 -0.06848036 0.1855121 255 0 255
0.05949373 -0.06783965 0.1844079 255 0 255
0.05972485 -0.06636232 0.1815751 255 0 255
0.06079184 -0.06613842 0.1813315 255 0 255
0.06156735 -0.06549577 0.1802226 255 0 255
0.06233415 -0.06485227 0.1791121 255 0 255
0.06309218 -0.06420799 0.1779999 255 0 255
0.06414305 -0.0639767 0.1777449 255 0 255
0.06488741 -0.06333 0.1766285 255 0 255
0.06562302 -0.0626826 0.1755104 255 0 255
0.06666268 -0.06244573 0.175247 255 0 255
0.06770097 -0.06220649 0.1749802 255 0 255
0.06841787 -0.06155527 0.1738557 255 0 255
0.06977375 -0.06172078 0.1744363 255 0 255
0.07048055 -0.06106654 0.1733069 255 0 255
0.07117864 -0.06041166 0.1721761 255 0 255
0.07220293 -0.06016222 0.1718942 255 0 255
0.07322586 -0.05991039 0.1716089 255 0 255
0.07424743 -0.05965623 0.1713202 255 0 255
0.07595969 -0.0602062 0.1727224 255 0 255
0.07768523 -0.06075007 0.174117 255 0 255
0.07977749 -0.06168918 0.1763488 255 0 255
0.0829614 -0.06382147 0.1811024 255 0 255
0.08654851 -0.06633931 0.186682 255 0 255
0.05899671 -0.06799106 0.1821784 255 0 255
0.05950293 -0.06692584 0.1802144 255 0 255
0.06056643 -0.06670231 0.1799718 255 0 255
0.06162872 -0.06647638 0.1797258 255 0 255
0.06239555 -0.06582906 0.1786172 255 0 255
0.06315366 -0.06518089 0.1775069 255 0 255
0.06420477 -0.06494924 0.1772522 255 0 255
0.06494915 -0.06429873 0.1761378 255 0 255
0.06568482 -0.06364744 0.1750218 255 0 255
0.0667247 -0.06341017 0.1747586 255 0 255
0.06776328 -0.06317056 0.174492 255 0 255
0.06848019 -0.06251545 0.1733695 255 0 255
0.06951246 -0.06227188 0.1730971 255 0 255
0.07054339 -0.0620259 0.1728212 255 0 255
0.07124148 -0.06136718 0.1716924 255 0 255
0.072266 -0.06111734 0.1714108 255 0 255
0.07328921 -0.06086509 0.1711258 255 0 255
0.07431103 -0.0606105 0.1708373 255 0 255
0.07602399 -0.06116695 0.1722364 255 0 255
0.07740026 -0.0613115 0.1727834 255 0 255
0.07948978 -0.06226142 0.1750114 255 0 255
0.0823144 -0.064011 0.1789137 255 0 255
0.08553512 -0.06615145 0.1836426 255 0 255
0.05905743 -0.06897762 0.1816734 255 0 255
0.05956346 -0.06790511 0.1797132 255 0 255
0.06062721 -0.06768123 0.1794708 255 0 255
0.06198049 -0.0678781 0.1800832 255 0 255
0.06245662 -0.06680375 0.1781185 255 0 255
0.06321478 -0.06615178 0.1770102 255 0 255
0.06426614 -0.06591973 0.1767558 255 0 255
0.06501056 -0.06526539 0.1756434 255 0 255
0.06543684 -0.06419121 0.1736757 255 0 255
0.0664732 -0.06395441 0.1734137 255 0 255
0.06750833 -0.06371521 0.1731483 255 0 255
0.06822152 -0.0630572 0.1720288 255 0 255
0.06925035 -0.06281407 0.1717576 255 0 255
0.07027779 -0.0625686 0.171483 255 0 255
0.07130395 -0.06232072 0.171205 255 0 255
0.07232873 -0.06207046 0.1709236 255 0 255
0.07301302 -0.06140581 0.1697931 255 0 255
0.0743742 -0.0615628 0.1703507 255 0 255
0.07574134 -0.06171554 0.1709028 255 0 255
0.07711445 -0.06186406 0.1714495 255 0 255
0.07920122 -0.06282476 0.1736735 255 0 255
0.08166607 -0.0641847 0.1767281 255 0 255
0.08451989 -0.06594088 0.1806097 255 0 255
0.05887157 -0.07147229 0.1839806 255 0 255
0.05939746 -0.07039112 0.1820235 255 0 255
0.05962367 -0.0688823 0.1792081 255 0 255
0.06097487 -0.06908551 0.1798232 255 0 255
0.06175046 -0.0684314 0.1787204 255 0 255
0.06251737 -0.06777642 0.1776159 255 0 255
0.06297711 -0.06669559 0.1756551 255 0 255
0.06372281 -0.06603984 0.1745481 255 0 255
0.06445978 -0.06538331 0.1734395 255 0 255
0.06487837 -0.06430356 0.1714775 255 0 255
0.06590753 -0.06406809 0.1712177 255 0 255
0.06693547 -0.06383024 0.1709545 255 0 255
0.06796205 -0.06359001 0.1706879 255 0 255
0.06898738 -0.06334735 0.1704179 255 0 255
0.07033965 -0.06352051 0.1709915 255 0 255
0.07136602 -0.06327225 0.1707138 255 0 255
0.07239106 -0.06302156 0.1704327 255 0 255
0.07341469 -0.06276851 0.1701482 255 0 255
0.07443698 -0.06251304 0.1698603 255 0 255
0.07580461 -0.06266881 0.170411 255 0 255
0.07717819 -0.0628203 0.1709561 255 0 255
0.07891174 -0.0633792 0.1723354 255 0 255
0.08137408 -0.06475334 0.1753842 255 0 255
0.08386427 -0.06611736 0.1784209 255 0 255
0.05973759 -0.07180938 0.182366 255 0 255
0.05968355 -0.06985743 0.1786992 255 0 255
0.06074781 -0.06963282 0.1784573 255 0 255
0.06181087 -0.06940576 0.178212 255 0 255
0.06228288 -0.06831769 0.1762558 255 0 255
0.0627387 -0.06723049 0.1742997 255 0 255
0.06378307 -0.06699932 0.1740476 255 0 255
0.06452005 -0.06633899 0.172941 255 0 255
0.06493846 -0.06525197 0.1709828 255 0 255
0.06596787 -0.06501613 0.1707233 255 0 255
0.06699599 -0.06477787 0.1704603 255 0 255
0.06770179 -0.06411391 0.1693467 255 0 255
0.06872366 -0.06387177 0.169078 255 0 255
0.07007261 -0.06404882 0.1696511 255 0 255
0.07109552 -0.06380103 0.1693746 255 0 255
0.07211708 -0.06355083 0.1690948 255 0 255
0.07313728 -0.06329829 0.1688116 255 0 255
0.07449938 -0.06346128 0.1693662 255 0 255
0.07586744 -0.06362004 0.1699153 255 0 255
0.07724147 -0.06377454 0.1704589 255 0 255
0.07933009 -0.06475494 0.1726729 255 0 255
0.08143922 -0.0657272 0.1748769 255 0 255
0.08356889 -0.06669125 0.177071 255 0 255
0.06009739 -0.07520301 0.1863645 255 0 255
0.06007783 -0.07323243 0.1827011 255 0 255
0.06002698 -0.07126556 0.1790409 255 0 255
0.06080764 -0.0706055 0.1779448 255 0 255
0.06187089 -0.07037805 0.1776997 255 0 255
0.06204764 -0.06885009 0.1748955 255 0 255
0.06249949 -0.06775638 0.1729442 255 0 255
0.06354036 -0.06752571 0.1726932 255 0 255
0.06427364 -0.0668624 0.1715896 255 0 255
0.06499819 -0.06619836 0.1704845 255 0 255
0.06602783 -0.06596211 0.1702251 255 0 255
0.06673864 -0.06529585 0.1691161 255 0 255
0.06776201 -0.06505568 0.1688509 255 0 255
0.06878404 -0.06481316 0.1685824 255 0 255
0.06980482 -0.06456823 0.1683106 255 0 255
0.07115664 -0.06474502 0.1688777 255 0 255
0.07217841 -0.06449445 0.1685982 255 0 255
0.07319884 -0.06424148 0.1683153 255 0 255
0.07456135 -0.06440748 0.1688683 255 0 255
0.07592988 -0.06456922 0.1694159 255 0 255
0.07765523 -0.06514614 0.1707952 255 0 255
0.07939386 -0.0657169 0.1721669 255 0 255
0.0811457 -0.0662814 0.1735308 255 0 255
0.08327264 -0.06725618 0.1757209 255 0 255
0.06013789 -0.07422084 0.1821752 255 0 255
0.06037048 -0.07267845 0.1793751 255 0 255
0.0608671 -0.07157602 0.1774284 255 0 255
0.06163904 -0.07091129 0.1763326 255 0 255
0.06210696 -0.06980959 0.1743851 255 0 255
0.0625586 -0.0687087 0.1724376 255 0 255
0.06359968 -0.06847762 0.1721869 255 0 255
0.06433299 -0.06781053 0.1710854 255 0 255
0.06505755 -0.06714267 0.1699823 255 0 255
0.0657734 -0.06647413 0.1688777 255 0 255
0.06679827 -0.06623596 0.1686162 255 0 255
0.06750034 -0.06556524 0.1675078 255 0 255
0.06851891 -0.06532319 0.1672405 255 0 255
0.06986508 -0.0655072 0.1678115 255 0 255
0.07088474 -0.06525946 0.1675365 255 0 255
0.07223933 -0.06543598 0.1680978 255 0 255
0.07359999 -0.06560829 0.1686537 255 0 255
0.07496666 -0.06577635 0.1692042 255 0 255
0.07633933 -0.06594013 0.1697492 255 0 255
0.07806905 -0.06652252 0.1711241 255 0 255
0.07945724 -0.06667675 0.1716571 255 0 255
0.0812098 -0.06724761 0.1730176 255 0 255
0.08297554 -0.06781217 0.1743704 255 0 255
0.05879515 -0.07299336 0.1773871 255 0 255
0.06014558 -0.07321211 0.1780002 255 0 255
0.06063823 -0.07210328 0.1760583 255 0 255
0.0614064 -0.07143559 0.1749655 255 0 255
0.0621659 -0.070767 0.1738709 255 0 255
0.06261738 -0.06965893 0.1719274 255 0 255
0.06365871 -0.06942748 0.1716769 255 0 255
0.06469879 -0.0691936 0.1714229 255 0 255
0.06511656 -0.06808492 0.1694764 255 0 255
0.06614663 -0.06784794 0.1692176 255 0 255
0.06717546 -0.06760851 0.1689554 255 0 255
0.06755958 -0.06649951 0.1670063 255 0 255
0.06857836 -0.06625708 0.1667393 255 0 255
0.06992498 -0.06644405 0.1673087 255 0 255
0.07094482 -0.06619597 0.167034 255 0 255
0.07229989 -0.06637547 0.1675938 255 0 255
0.07332073 -0.06612169 0.1673114 255 0 255
0.07468415 -0.06629363 0.1678613 255 0 255
0.07605357 -0.06646134 0.1684058 255 0 255
0.07742894 -0.06662479 0.1689449 255 0 255
0.0791652 -0.0672092 0.1703109 255 0 255
0.08091475 -0.06778738 0.1716692 255 0 255
0.08267747 -0.06835924 0.1730198 255 0 255
0.06137982 -0.07797587 0.1845107 255 0 255
0.06191115 -0.07685445 0.1825678 255 0 255
0.06184975 -0.07484451 0.1789286 255 0 255
0.06234102 -0.07372598 0.1769871 255 0 255
0.06281605 -0.07260824 0.1750457 255 0 255
0.06327479 -0.07149131 0.1731043 255 0 255
0.06432384 -0.07125781 0.1728522 255 0 255
0.06506465 -0.07058145 0.1717531 255 0 255
0.06548598 -0.06946469 0.1698096 255 0 255
0.06651999 -0.06922643 0.16955 255 0 255
0.06723456 -0.0685479 0.1684462 255 0 255
0.06794038 -0.06786871 0.167341 255 0 255
0.06896308 -0.06762499 0.1670733 255 0 255
0.07031383 -0.06781409 0.1676402 255 0 255
0.07100456 -0.06713039 0.1665278 255 0 255
0.07202327 -0.0668795 0.1662501 255 0 255
0.0733811 -0.06705865 0.1668039 255 0 255
0.0744008 -0.06680207 0.1665184 255 0 255
0.07576695 -0.06697369 0.1670624 255 0 255
0.07749061 -0.06757069 0.1684327 255 0 255
0.07887235 -0.06773274 0.1689647 255 0 255
0.08025995 -0.06789046 0.1694911 255 0 255
0.08201601 -0.0684706 0.1708404 255 0 255
0.05834975 -0.07402609 0.1746385 255 0 255
0.06162042 -0.07537086 0.1775489 255 0 255
0.06239993 -0.07469316 0.1764577 255 0 255
0.06257877 -0.07312185 0.1736757 255 0 255
0.06333333 -0.0724441 0.1725828 255 0 255
0.06407913 -0.07176556 0.1714883 255 0 255
0.06512336 -0.0715301 0.1712339 255 0 255
0.06554447 -0.07040614 0.1692944 255 0 255
0.06657873 -0.07016753 0.1690351 255 0 255
0.06729329 -0.06948521 0.1679334 255 0 255
0.06799911 -0.06880223 0.1668303 255 0 255
0.06902201 -0.06855813 0.1665629 255 0 255
0.07004362 -0.06831161 0.1662921 255 0 255
0.07073062 -0.06762499 0.1651828 255 0 255
0.07208282 -0.06781141 0.1657405 255 0 255
0.0731004 -0.06755769 0.1654596 255 0 255
0.07411662 -0.06730164 0.1651755 255 0 255
0.07547949 -0.06747712 0.1657189 255 0 255
0.07684835 -0.06764837 0.1662569 255 0 255
0.07822313 -0.06781531 0.1667895 255 0 255
0.07960386 -0.06797794 0.1673165 255 0 255
0.08135325 -0.0685663 0.1686647 255 0 255
0.06316973 -0.0806377 0.1848625 255 0 255
0.0625449 -0.07769377 0.1795466 255 0 255
0.06245852 -0.07565817 0.1759245 255 0 255
0.06293311 -0.07452605 0.1739909 255 0 255
0.06369141 -0.07384368 0.1728993 255 0 255
0.06413727 -0.07271246 0.1709651 255 0 255
0.06518174 -0.07247663 0.1707111 255 0 255
0.06560262 -0.07134555 0.1687756 255 0 255
0.06695196 -0.07155205 0.1693546 255 0 255
0.06735164 -0.07042041 0.167417 255 0 255
0.06837977 -0.07017743 0.1671522 255 0 255
0.06908059 -0.06948914 0.1660488 255 0 255
0.07010238 -0.06924225 0.1657783 255 0 255
0.07078936 -0.06855184 0.1646712 255 0 255
0.07214199 -0.06874121 0.1652272 255 0 255
0.07315978 -0.06848714 0.1649466 255 0 255
0.07417618 -0.06823061 0.1646627 255 0 255
0.07519123 -0.06797173 0.1643755 255 0 255
0.07655678 -0.06814686 0.164913 255 0 255
0.07792833 -0.06831771 0.165445 255 0 255
0.07930577 -0.06848421 0.1659716 255 0 255
0.0806891 -0.06864638 0.1664926 255 0 255
0.06231488 -0.07821576 0.1781593 255 0 255
0.06280932 -0.07707494 0.176229 255 0 255
0.06239839 -0.07457545 0.1717765 255 0 255
0.06344931 -0.07434328 0.1715285 255 0 255
0.06389122 -0.07320573 0.1695994 255 0 255
0.06493212 -0.07297036 0.1693464 255 0 255
0.06566042 -0.07228277 0.168253 255 0 255
0.06701017 -0.07249226 0.1688304 255 0 255
0.06772847 -0.07180151 0.167732 255 0 255
0.06876054 -0.07155728 0.1674665 255 0 255
0.06946501 -0.07086432 0.1663643 255 0 255
0.07049076 -0.07061613 0.1660931 255 0 255
0.07084773 -0.06947658 0.1641558 255 0 255
0.07186337 -0.06922538 0.1638798 255 0 255
0.07287764 -0.0689718 0.1636006 255 0 255
0.07354574 -0.06827414 0.1624897 255 0 255
0.07455358 -0.06801673 0.1622049 255 0 255
0.07591219 -0.06819671 0.1627429 255 0 255
0.07727678 -0.06837242 0.1632755 255 0 255
0.07864729 -0.0685438 0.1638026 255 0 255
0.08038691 -0.06914772 0.1651472 255 0 255
0.06266221 -0.07964503 0.178453 255 0 255
0.06257458 -0.0775816 0.1748466 255 0 255
0.06275223 -0.07597868 0.1720823 255 0 255
0.06350675 -0.07528964 0.1709958 255 0 255
0.06425253 -0.07459982 0.1699077 255 0 255
0.06529741 -0.07436321 0.1696541 255 0 255
0.06602945 -0.07367098 0.1685619 255 0 255
0.06706803 -0.07343033 0.1683024 255 0 255
0.06778628 -0.07273585 0.1672063 255 0 255
0.0684958 -0.07204068 0.1661087 255 0 255
0.06919656 -0.07134484 0.1650096 255 0 255
0.07021876 -0.07109714 0.1647396 255 0 255
0.07090572 -0.0703992 0.1636368 255 0 255
0.07192153 -0.0701476 0.1633611 255 0 255
0.07259466 -0.06944765 0.1622547 255 0 255
0.07360409 -0.06919219 0.1619734 255 0 255
0.0746121 -0.06893436 0.1616889 255 0 255
0.07597111 -0.0691173 0.1622252 255 0 255
0.0773361 -0.06929592 0.1627563 255 0 255
0.07906677 -0.06991145 0.1641039 255 0 255
0.08044727 -0.07008044 0.1646229 255 0 255
0.06263214 -0.07854 0.1743019 255 0 255
0.06251258 -0.07646671 0.1707068 255 0 255
0.06326333 -0.07577475 0.1696233 255 0 255
0.06400535 -0.075082 0.1685383 255 0 255
0.06504667 -0.07484587 0.1682858 255 0 255
0.06608672 -0.07460728 0.16803 255 0 255
0.06712552 -0.07436624 0.1677708 255 0 255
0.06784374 -0.07366801 0.1666768 255 0 255
0.06887621 -0.07342296 0.1664118 255 0 255
0.06958068 -0.07272249 0.165314 255 0 255
0.07060677 -0.07247349 0.1650432 255 0 255
0.07096329 -0.07131969 0.1631141 255 0 255
0.07197931 -0.07106771 0.1628387 255 0 255
0.07265241 -0.07036396 0.1617345 255 0 255
0.07366199 -0.07010811 0.1614535 255 0 255
0.0746702 -0.06984986 0.1611692 255 0 255
0.07602965 -0.07003573 0.161704 255 0 255
0.07739501 -0.0702173 0.1622334 255 0 255
0.07876631 -0.07039453 0.1627573 255 0 255
0.0805072 -0.07101098 0.1640949 255 0 255
0.06538326 -0.08577148 0.1848745 255 0 255
0.06316309 -0.07833556 0.1718363 255 0 255
0.06362063 -0.0771758 0.1699192 255 0 255
0.0643664 -0.07647847 0.1688354 255 0 255
0.06510342 -0.07578038 0.16775 255 0 255
0.06614365 -0.0755414 0.1674945 255 0 255
0.06686691 -0.07484098 0.1664051 255 0 255
0.06790085 -0.074598 0.1661437 255 0 255
0.06893349 -0.07435256 0.165879 255 0 255
0.0696379 -0.07364835 0.1647833 255 0 255
0.07066421 -0.07339895 0.1645128 255 0 255
0.07102051 -0.07223806 0.1625879 255 0 255
0.07203666 -0.07198568 0.1623127 255 0 255
0.07270976 -0.07127818 0.1612107 255 0 255
0.07371952 -0.07102189 0.16093 255 0 255
0.07472792 -0.07076323 0.160646 255 0 255
0.07573491 -0.07050219 0.1603587 255 0 255
0.07709697 -0.07068764 0.1608874 255 0 255
0.07882518 -0.07131667 0.1622291 255 0 255
0.08020284 -0.07149246 0.162746 255 0 255
0.06362642 -0.08185245 0.1757031 255 0 255
0.06351693 -0.07974904 0.1721214 255 0 255
0.06337611 -0.07764978 0.1685432 255 0 255
0.06442279 -0.07741451 0.1682937 255 0 255
0.06515979 -0.07671266 0.1672105 255 0 255
0.06588805 -0.07601011 0.1661258 255 0 255
0.06692345 -0.07576919 0.165868 255 0 255
0.06795756 -0.07552581 0.1656069 255 0 255
0.06899038 -0.07527999 0.1653425 255 0 255
0.06969478 -0.07457203 0.164249 255 0 255
0.07039042 -0.07386345 0.1631542 255 0 255
0.07074277 -0.07269638 0.1612343 255 0 255
0.07175543 -0.07244449 0.1609604 255 0 255
0.07242478 -0.0717342 0.1598616 255 0 255
0.07343104 -0.07147847 0.1595822 255 0 255
0.07443588 -0.07122034 0.1592995 255 0 255
0.07543936 -0.07095984 0.1590136 255 0 255
0.07679813 -0.07114916 0.1595418 255 0 255
0.07852325 -0.07178542 0.160881 255 0 255
0.07989758 -0.07196511 0.1613972 255 0 255
0.0630963 -0.08187259 0.1734774 255 0 255
0.06416817 -0.08163697 0.1732298 255 0 255
0.06403424 -0.07952224 0.1696579 255 0 255
0.06478371 -0.07881664 0.1685776 255 0 255
0.06552444 -0.07811023 0.1674958 255 0 255
0.0665688 -0.07786964 0.1672398 255 0 255
0.0669796 -0.07669521 0.1653274 255 0 255
0.06769406 -0.0759866 0.1642409 255 0 255
0.06872333 -0.07574127 0.1639776 255 0 255
0.069424 -0.0750305 0.1628874 255 0 255
0.06978485 -0.07385694 0.160973 255 0 255
0.070799 -0.07360707 0.1607027 255 0 255
0.07147338 -0.07289451 0.1596084 255 0 255
0.07213899 -0.0721814 0.1585128 255 0 255
0.07348754 -0.07238464 0.1590534 255 0 255
0.07449257 -0.07212608 0.158771 255 0 255
0.0754962 -0.07186519 0.1584853 255 0 255
0.07685534 -0.07205743 0.1590119 255 0 255
0.07822046 -0.07224532 0.159533 255 0 255
0.07959153 -0.07242888 0.1600488 255 0 255
0.06197738 -0.0809288 0.1695959 255 0 255
0.06333197 -0.08116943 0.1701811 255 0 255
0.06378883 -0.07998842 0.1682764 255 0 255
0.06453454 -0.07927997 0.1671993 255 0 255
0.06558031 -0.07904145 0.1669469 255 0 255
0.06631222 -0.07833058 0.1658657 255 0 255
0.06703543 -0.07761899 0.164783 255 0 255
0.06806988 -0.07737486 0.1645224 255 0 255
0.06877927 -0.07666098 0.1634358 255 0 255
0.06947989 -0.07594649 0.1623477 255 0 255
0.07017172 -0.07523133 0.1612583 255 0 255
0.07051987 -0.07405105 0.1593478 255 0 255
0.07152914 -0.07379933 0.1590755 255 0 255
0.07219473 -0.07308246 0.1579821 255 0 255
0.07319759 -0.07282687 0.1577043 255 0 255
0.07454886 -0.07302967 0.1582389 255 0 255
0.07519921 -0.07230852 0.1571389 255 0 255
0.07655508 -0.07250462 0.1576648 255 0 255
0.07791686 -0.07269642 0.1581854 255 0 255
0.07928456 -0.07288384 0.1587005 255 0 255
0.06189868 -0.07972631 0.1654863 255 0 255
0.06293958 -0.07949408 0.1652427 255 0 255
0.06458984 -0.08020931 0.1666466 255 0 255
0.06532677 -0.07949634 0.16557 255 0 255
0.0663677 -0.07925587 0.1653155 255 0 255
0.06709085 -0.07854058 0.164235 255 0 255
0.06812547 -0.07829604 0.1639747 255 0 255
0.06851082 -0.07710788 0.1620696 255 0 255
0.06920769 -0.07639055 0.1609847 255 0 255
0.06989577 -0.0756726 0.1598985 255 0 255
0.07023997 -0.07448621 0.1579932 255 0 255
0.07124569 -0.07423499 0.1577222 255 0 255
0.07190749 -0.07351539 0.1566321 255 0 255
0.0732531 -0.07372537 0.1571704 255 0 255
0.07425474 -0.07346699 0.1568895 255 0 255
0.07525498 -0.07320622 0.1566055 255 0 255
0.0762539 -0.07294305 0.1563181 255 0 255
0.07761237 -0.0731387 0.1568381 255 0 255
0.0789768 -0.07333001 0.1573527 255 0 255
0.06464483 -0.08113645 0.1660902 255 0 255
0.06600018 -0.08137463 0.1666608 255 0 255
0.06704877 -0.08113205 0.1664047 255 0 255
0.06777935 -0.08041129 0.1653246 255 0 255
0.06850113 -0.07968981 0.164243 255 0 255
0.06889001 -0.07849374 0.1623412 255 0 255
0.06959055 -0.07777181 0.1612577 255 0 255
0.06995069 -0.07657714 0.1593559 255 0 255
0.07029463 -0.07538372 0.1574548 255 0 255
0.07130048 -0.07513211 0.1571841 255 0 255
0.07230502 -0.07487809 0.1569101 255 0 255
0.07330818 -0.07462168 0.1566328 255 0 255
0.07431 -0.0743629 0.1563523 255 0 255
0.07531041 -0.07410172 0.1560685 255 0 255
0.076667 -0.07430361 0.1565911 255 0 255
0.07766832 -0.0740367 0.1562998 255 0 255
0.07866818 -0.07376737 0.1560052 255 0 255
0.06500514 -0.08254287 0.1663514 255 0 255
0.06605513 -0.08230241 0.166099 255 0 255
0.06710386 -0.08205946 0.1658432 255 0 255
0.06751749 -0.080856 0.1639467 255 0 255
0.06823552 -0.08013171 0.1628683 255 0 255
0.06894479 -0.07940675 0.1617885 255 0 255
0.06931716 -0.0782048 0.1598914 255 0 255
0.07000519 -0.07747946 0.1588098 255 0 255
0.07068442 -0.07675356 0.1577268 255 0 255
0.07135487 -0.07602705 0.1566425 255 0 255
0.07201663 -0.07530002 0.155557 255 0 255
0.07336289 -0.07551583 0.1560918 255 0 255
0.0740145 -0.07478592 0.1550018 255 0 255
0.07536546 -0.07499503 0.155528 255 0 255
0.07672235 -0.07519984 0.156049 255 0 255
0.07772381 -0.07493246 0.1557579 255 0 255
0.0790889 -0.07512952 0.1562691 255 0 255
0.06580011 -0.08274389 0.1647151 255 0 255
0.06653187 -0.08201823 0.1636429 255 0 255
0.06725492 -0.08129185 0.1625693 255 0 255
0.06796914 -0.08056477 0.161494 255 0 255
0.06867462 -0.07983701 0.1604175 255 0 255
0.06937137 -0.07910859 0.1593394 255 0 255
0.07005931 -0.07837958 0.1582601 255 0 255
0.07073851 -0.07764994 0.1571793 255 0 255
0.07140889 -0.07691977 0.1560974 255 0 255
0.07241372 -0.07666497 0.1558239 255 0 255
0.0734172 -0.07640776 0.1555472 255 0 255
0.07406875 -0.07567416 0.1544595 255 0 255
0.07542003 -0.07588615 0.154984 255 0 255
0.07677726 -0.07609382 0.1555032 255 0 255
0.07777885 -0.07582604 0.1552125 255 0 255
0.07914434 -0.07602593 0.1557219 255 0 255
0.06554434 -0.08317645 0.1633316 255 0 255
0.06658588 -0.08293447 0.1630781 255 0 255
0.06730884 -0.08220444 0.1620068 255 0 255
0.06802304 -0.08147366 0.1609339 255 0 255
0.06872846 -0.08074223 0.1598596 255 0 255
0.06942512 -0.08001013 0.1587839 255 0 255
0.07011303 -0.07927743 0.1577068 255 0 255
0.07079216 -0.07854413 0.1566284 255 0 255
0.07146253 -0.07781027 0.1555487 255 0 255
0.07246748 -0.07755508 0.1552755 255 0 255
0.0734711 -0.07729746 0.1549991 255 0 255
0.07412256 -0.07656018 0.1539137 255 0 255
0.07547417 -0.07677503 0.1544365 255 0 255
0.07647363 -0.07651024 0.1541504 255 0 255
0.07783351 -0.07671739 0.1546635 255 0 255
0.0788338 -0.0764468 0.1543698 255 0 255
0.06497777 -0.0831095 0.1611343 255 0 255
0.06632573 -0.08335865 0.1616963 255 0 255
0.06704488 -0.08262583 0.1606282 255 0 255
0.06807655 -0.08238028 0.1603701 255 0 255
0.0687819 -0.08164518 0.1592981 255 0 255
0.06947854 -0.0809094 0.1582247 255 0 255
0.07016638 -0.08017303 0.15715 255 0 255
0.07084545 -0.07943608 0.1560739 255 0 255
0.07185558 -0.07918195 0.1558032 255 0 255
0.07252084 -0.07844295 0.1547236 255 0 255
0.07352457 -0.07818495 0.1544475 255 0 255
0.07452695 -0.07792453 0.1541681 255 0 255
0.07552793 -0.07766172 0.1538855 255 0 255
0.07652751 -0.07739648 0.1535996 255 0 255
0.07788774 -0.07760649 0.154111 255 0 255
0.07888816 -0.07733548 0.1538176 255 0 255
0.05725303 -0.07336838 0.1429237 255 0 255
0.06347947 -0.08154542 0.1565047 255 0 255
0.06575087 -0.08328095 0.1595037 255 0 255
0.06646252 -0.0825462 0.1584396 255 0 255
0.0674868 -0.08230206 0.1581837 255 0 255
0.06850984 -0.08205546 0.1579245 255 0 255
0.06953155 -0.08180644 0.1576621 255 0 255
0.07021929 -0.08106641 0.1565896 255 0 255
0.07123464 -0.08081339 0.1563215 255 0 255
0.07190863 -0.08007126 0.1552455 255 0 255
0.07257377 -0.0793286 0.1541682 255 0 255
0.07323021 -0.0785854 0.1530897 255 0 255
0.07422901 -0.07832555 0.1528116 255 0 255
0.07522642 -0.07806329 0.1525303 255 0 255
0.07658099 -0.0782805 0.1530454 255 0 255
0.07794151 -0.07849336 0.1535551 255 0 255
0.07894208 -0.07822191 0.1532619 255 0 255
0.06508286 -0.0849181 0.1599944 255 0 255
0.06611732 -0.08467676 0.1597436 255 0 255
0.06715051 -0.08443294 0.1594894 255 0 255
0.0678608 -0.08369211 0.1584245 255 0 255
0.0688877 -0.08344424 0.1581646 255 0 255
0.06958416 -0.08270115 0.1570958 255 0 255
0.07027186 -0.08195749 0.1560258 255 0 255
0.07095081 -0.0812132 0.1549543 255 0 255
0.07196122 -0.08095831 0.1546843 255 0 255
0.07262634 -0.08021196 0.1536093 255 0 255
0.07363034 -0.07995314 0.1533337 255 0 255
0.07463297 -0.07969195 0.153055 255 0 255
0.07527915 -0.07894224 0.1519744 255 0 255
0.07627527 -0.07867716 0.1516902 255 0 255
0.07763244 -0.07889382 0.1521991 255 0 255
0.07899558 -0.07910611 0.1527027 255 0 255
0.0629608 -0.08231581 0.1537622 255 0 255
0.06616942 -0.08557723 0.1591686 255 0 255
0.06720274 -0.08533303 0.1589147 255 0 255
0.06791298 -0.08458855 0.1578521 255 0 255
0.06861442 -0.0838434 0.156788 255 0 255
0.06963639 -0.08359359 0.1565261 255 0 255
0.06999103 -0.08235122 0.1546559 255 0 255
0.07100293 -0.08209836 0.1543893 255 0 255
0.07167299 -0.08134986 0.153319 255 0 255
0.07267846 -0.08109308 0.153047 255 0 255
0.07333475 -0.0803426 0.1519732 255 0 255
0.07468534 -0.08057225 0.1524931 255 0 255
0.07568669 -0.08030821 0.1522114 255 0 255
0.07668663 -0.08004177 0.1519264 255 0 255
0.07804781 -0.08026028 0.1524326 255 0 255
0.0790486 -0.07998803 0.1521401 255 0 255
0.06021422 -0.07865819 0.1459437 255 0 255
0.0646486 -0.08396122 0.1545644 255 0 255
0.06725462 -0.08623079 0.1583364 255 0 255
0.06796478 -0.08548268 0.1572762 255 0 255
0.06866615 -0.08473392 0.1562145 255 0 255
0.06935877 -0.08398449 0.1551514 255 0 255
0.07004265 -0.08323445 0.1540871 255 0 255
0.07071769 -0.08248383 0.1530214 255 0 255
0.07138401 -0.08173266 0.1519544 255 0 255
0.07273021 -0.08197192 0.1524811 255 0 255
0.07338641 -0.08121779 0.1514097 255 0 255
0.07473733 -0.08145028 0.1519279 255 0 255
0.07573877 -0.08118583 0.1516464 255 0 255
0.07709798 -0.08141059 0.1521551 255 0 255
0.07810032 -0.08114033 0.1518661 255 0 255
0.07910123 -0.08086763 0.1515739 255 0 255
0.06532846 -0.08585296 0.1555989 255 0 255
0.06698764 -0.08662102 0.1569525 255 0 255
0.06801618 -0.08637448 0.1566967 255 0 255
0.06871749 -0.08562211 0.1556375 255 0 255
0.06941004 -0.08486903 0.1545768 255 0 255
0.07009379 -0.08411539 0.1535148 255 0 255
0.0707688 -0.08336114 0.1524515 255 0 255
0.07177585 -0.083106 0.1521832 255 0 255
0.07243704 -0.0823497 0.1511164 255 0 255
0.07343768 -0.08209067 0.1508427 255 0 255
0.0744369 -0.08182923 0.1505658 255 0 255
0.07579043 -0.08206118 0.151078 255 0 255
0.07714993 -0.08228875 0.1515848 255 0 255
0.07851537 -0.0825119 0.1520863 255 0 255
0.07952005 -0.08223779 0.1517933 255 0 255
0.06569377 -0.08724596 0.1558205 255 0 255
0.0673572 -0.08801928 0.1571692 255 0 255
0.06838959 -0.08777147 0.1569128 255 0 255
0.06909455 -0.08701456 0.155855 255 0 255
0.06979074 -0.08625697 0.1547958 255 0 255
0.07047818 -0.08549879 0.1537352 255 0 255
0.07115683 -0.08473999 0.1526733 255 0 255
0.07182667 -0.08398061 0.1516102 255 0 255
0.07248779 -0.08322072 0.1505458 255 0 255
0.07348853 -0.0829613 0.1502724 255 0 255
0.07448789 -0.08269943 0.1499957 255 0 255
0.07584167 -0.08293421 0.1505061 255 0 255
0.07720145 -0.08316461 0.1510111 255 0 255
0.0785672 -0.08339053 0.1515108 255 0 255
0.07957201 -0.08311601 0.1512181 255 0 255
0.06605908 -0.08864314 0.1560345 255 0 255
0.06708909 -0.08839833 0.1557825 255 0 255
0.06811786 -0.08815106 0.1555274 255 0 255
0.06947158 -0.08841113 0.1560648 255 0 255
0.07017145 -0.08764904 0.1550071 255 0 255
0.07086248 -0.08688629 0.1539479 255 0 255
0.07154478 -0.08612297 0.1528875 255 0 255
0.07221826 -0.08535904 0.1518258 255 0 255
0.07253807 -0.08408941 0.1499716 255 0 255
0.07388753 -0.08433378 0.1504886 255 0 255
0.0748907 -0.08407057 0.1502113 255 0 255
0.0758925 -0.08380491 0.1499307 255 0 255
0.07725258 -0.08403811 0.150434 255 0 255
0.0786186 -0.08426686 0.1509319 255 0 255
0.07925643 -0.0834927 0.1498546 255 0 255
0.0670549 -0.09107588 0.1578338 255 0 255
0.06809627 -0.09082802 0.1575794 255 0 255
0.06881359 -0.09006371 0.156527 255 0 255
0.07017507 -0.0903248 0.1570607 255 0 255
0.07055209 -0.08904513 0.1552106 255 0 255
0.07124679 -0.08827789 0.1541529 255 0 255
0.07193271 -0.08750999 0.1530939 255 0 255
0.07226847 -0.08623222 0.1512437 255 0 255
0.07293309 -0.08546416 0.1501831 255 0 255
0.07393773 -0.08520298 0.1499093 255 0 255
0.07458851 -0.08443292 0.1488453 255 0 255
0.0755867 -0.08416785 0.1485661 255 0 255
0.07694335 -0.08440481 0.1490685 255 0 255
0.07794239 -0.08413392 0.1487818 255 0 255
0.07894005 -0.08386058 0.1484919 255 0 255
0.06868228 -0.09456343 0.1612056 255 0 255
0.06878494 -0.09275653 0.1585663 255 0 255
0.06918676 -0.09146966 0.1567218 255 0 255
0.07087889 -0.09224892 0.1580444 255 0 255
0.07093274 -0.09044529 0.1554063 255 0 255
0.07196519 -0.09018791 0.1551399 255 0 255
0.07265846 -0.08941458 0.1540814 255 0 255
0.07300136 -0.0881281 0.1522337 255 0 255
0.07332806 -0.08684297 0.1503868 255 0 255
0.07398753 -0.08606981 0.1493264 255 0 255
0.0746382 -0.08529617 0.1482649 255 0 255
0.0752801 -0.08452205 0.1472022 255 0 255
0.07627327 -0.08425513 0.1469212 255 0 255
0.07762881 -0.0844925 0.1474186 255 0 255
0.07862285 -0.08421973 0.14713 255 0 255
0.06979334 -0.09521668 0.1603324 255 0 255
0.06988299 -0.09339995 0.1576993 255 0 255
0.07125622 -0.09366395 0.1582265 255 0 255
0.07164391 -0.09236795 0.1563828 255 0 255
0.07234959 -0.09159072 0.1553271 255 0 255
0.07304649 -0.09081287 0.1542701 255 0 255
0.07339285 -0.08951866 0.152426 255 0 255
0.07372299 -0.08822579 0.1505828 255 0 255
0.07438606 -0.08744811 0.1495239 255 0 255
0.07504032 -0.08666989 0.1484638 255 0 255
0.07532927 -0.08537935 0.1466209 255 0 255
0.07632254 -0.08511206 0.1463402 255 0 255
0.0773144 -0.08484232 0.1460562 255 0 255
0.07830483 -0.08457021 0.1457691 255 0 255
0.07257286 -0.1026779 0.1694536 255 0 255
0.07048283 -0.09716909 0.1612927 255 0 255
0.06993297 -0.09429345 0.157088 255 0 255
0.07097945 -0.09403761 0.1568259 255 0 255
0.07202464 -0.09377923 0.1565606 255 0 255
0.07239949 -0.09247669 0.154721 255 0 255
0.07309631 -0.09169528 0.1536665 255 0 255
0.07378428 -0.09091321 0.1526106 255 0 255
0.07446347 -0.09013057 0.1515534 255 0 255
0.07478454 -0.08883037 0.1497135 255 0 255
0.0750894 -0.08753161 0.1478744 255 0 255
0.07537801 -0.08623432 0.1460363 255 0 255
0.07637136 -0.0859666 0.1457558 255 0 255
0.0769992 -0.08518347 0.1446948 255 0 255
0.07798602 -0.08491195 0.144409 255 0 255
0.07053324 -0.0980764 0.1606666 255 0 255
0.06998257 -0.09518447 0.1564732 255 0 255
0.07070199 -0.09440242 0.1554263 255 0 255
0.07174344 -0.09414461 0.1551622 255 0 255
0.07244897 -0.09336022 0.1541115 255 0 255
0.07314568 -0.09257521 0.1530594 255 0 255
0.07383358 -0.0917896 0.152006 255 0 255
0.07451265 -0.09100338 0.1509513 255 0 255
0.07483342 -0.08969646 0.1491161 255 0 255
0.0754912 -0.08891013 0.14806 255 0 255
0.07578327 -0.08760513 0.1462255 255 0 255
0.07678039 -0.08733603 0.1459442 255 0 255
0.07704747 -0.08603212 0.1441095 255 0 255
0.0780344 -0.0857602 0.1438241 255 0 255
0.07394119 -0.1066814 0.171296 255 0 255
0.0715429 -0.1005737 0.1623913 255 0 255
0.07035541 -0.09660295 0.1566387 255 0 255
0.07107845 -0.09581642 0.1555934 255 0 255
0.07212375 -0.09555726 0.1553286 255 0 255
0.07249805 -0.09424127 0.1534984 255 0 255
