ply
format ascii 1.0
Comment Generated by Floating Hands
element vertex 1124
property double x
property double y
property double z
property uchar red
property uchar green
property uchar blue
end_header
0.06728985 -0.03312819 0.1791139 255 0 255
0.0682919 -0.03289406 0.1788323 255 0 255
0.06962214 -0.03296936 0.1794385 255 0 255
0.07062525 -0.03272984 0.1791491 255 0 255
0.07162699 -0.03248811 0.1788562 255 0 255
0.07262737 -0.03224411 0.1785599 255 0 255
0.07397053 -0.032306 0.1791471 255 0 255
0.07566733 -0.03267101 0.1806145 255 0 255
0.07772865 -0.03333642 0.1829588 255 0 255
0.05284518 -0.03532484 0.1775642 255 0 255
0.05551277 -0.03708343 0.1827516 255 0 255
0.05709706 -0.03752702 0.1843153 255 0 255
0.05840962 -0.03764012 0.1849705 255 0 255
0.05943923 -0.03742503 0.1847197 255 0 255
0.06046768 -0.03720762 0.1844655 255 0 255
0.06149494 -0.03698792 0.1842077 255 0 255
0.06222067 -0.03644392 0.1830486 255 0 255
0.06324176 -0.03622048 0.1827849 255 0 255
0.06364624 -0.03535399 0.1807259 255 0 255
0.06434608 -0.03480811 0.1795622 255 0 255
0.06503729 -0.03426158 0.1783972 255 0 255
0.06635737 -0.03435023 0.1790166 255 0 255
0.06703866 -0.03380094 0.1778467 255 0 255
0.06803743 -0.03356726 0.1775664 255 0 255
0.06936464 -0.03364659 0.1781725 255 0 255
0.07036445 -0.03340757 0.1778844 255 0 255
0.07136291 -0.03316627 0.1775928 255 0 255
0.07236002 -0.03292277 0.1772979 255 0 255
0.07370014 -0.03298873 0.177885 255 0 255
0.07539419 -0.03336146 0.1793511 255 0 255
0.07710143 -0.03372826 0.1808092 255 0 255
0.05043928 -0.03332017 0.1690641 255 0 255
0.0541882 -0.03642821 0.1778588 255 0 255
0.05660063 -0.03787115 0.1821275 255 0 255
0.05819208 -0.03831783 0.1836834 255 0 255
0.05921836 -0.03810314 0.1834337 255 0 255
0.06024348 -0.03788613 0.1831806 255 0 255
0.06097057 -0.03734044 0.1820266 255 0 255
0.06168901 -0.03679404 0.180871 255 0 255
0.06270307 -0.03657182 0.1806095 255 0 255
0.06340797 -0.03602332 0.1794499 255 0 255
0.0644159 -0.03579736 0.1791824 255 0 255
0.0651072 -0.03524685 0.178019 255 0 255
0.0661089 -0.03501725 0.1777457 255 0 255
0.06678663 -0.03446477 0.1765784 255 0 255
0.06778208 -0.03423156 0.1762994 255 0 255
0.06877624 -0.03399607 0.1760169 255 0 255
0.07010278 -0.0340764 0.1766185 255 0 255
0.07109795 -0.03383559 0.1763283 255 0 255
0.07243275 -0.03390876 0.1769199 255 0 255
0.0737735 -0.03397792 0.177506 255 0 255
0.0751202 -0.03404302 0.1780864 255 0 255
0.07717664 -0.034731 0.1804252 255 0 255
0.04390735 -0.0262281 0.1470649 255 0 255
0.05258239 -0.0354011 0.1720758 255 0 255
0.05582075 -0.03786592 0.1790417 255 0 255
0.05797376 -0.03898663 0.1823952 255 0 255
0.05928641 -0.03910395 0.1830445 255 0 255
0.06031188 -0.03888658 0.1827916 255 0 255
0.06103906 -0.03833687 0.1816392 255 0 255
0.06175766 -0.03778647 0.1804852 255 0 255
0.06246758 -0.03723542 0.1793298 255 0 255
0.06316892 -0.03668375 0.1781728 255 0 255
0.06386159 -0.03613148 0.1770144 255 0 255
0.06486126 -0.03590454 0.1767457 255 0 255
0.0658596 -0.03567538 0.1764736 255 0 255
0.06685671 -0.03544399 0.1761982 255 0 255
0.06785252 -0.03521034 0.1759194 255 0 255
0.06851674 -0.03465198 0.1747501 255 0 255
0.06950629 -0.03441472 0.1744656 255 0 255
0.07083211 -0.03449599 0.1750626 255 0 255
0.07216392 -0.03457327 0.1756542 255 0 255
0.07350162 -0.0346465 0.1762402 255 0 255
0.07519385 -0.0350337 0.1777023 255 0 255
0.07689922 -0.03541497 0.1791566 255 0 255
0.03571361 -0.01693051 0.1197308 255 0 255
0.05041593 -0.03365375 0.1645077 255 0 255
0.05475663 -0.0375005 0.1750624 255 0 255
0.05746848 -0.03931046 0.1802086 255 0 255
0.0593541 -0.04010308 0.1826513 255 0 255
0.06008634 -0.03955088 0.1815031 255 0 255
0.06080994 -0.03899797 0.1803533 255 0 255
0.06152492 -0.03844437 0.1792019 255 0 255
0.06253605 -0.03822218 0.1789417 255 0 255
0.06323747 -0.0376665 0.1777864 255 0 255
0.06393024 -0.03711022 0.1766296 255 0 255
0.06493024 -0.03688292 0.1763611 255 0 255
0.06592901 -0.03665332 0.1760893 255 0 255
0.06692646 -0.0364215 0.1758141 255 0 255
0.06759576 -0.0358605 0.1746488 255 0 255
0.06825639 -0.03529897 0.1734822 255 0 255
0.06957681 -0.03538743 0.1740836 255 0 255
0.07022748 -0.03482321 0.1729124 255 0 255
0.0715526 -0.03490546 0.1735049 255 0 255
0.07322883 -0.03530622 0.1749734 255 0 255
0.07456947 -0.03537943 0.1755537 255 0 255
0.07591598 -0.03544862 0.1761285 255 0 255
0.04685052 -0.03014094 0.1524709 255 0 255
0.0531249 -0.03642362 0.1692971 255 0 255
0.05638908 -0.03893884 0.176232 255 0 255
0.05855107 -0.04008392 0.1795692 255 0 255
0.05956614 -0.03986819 0.1793194 255 0 255
0.06028242 -0.03931287 0.1781731 255 0 255
0.06129141 -0.03909337 0.1779175 255 0 255
0.06199417 -0.03853596 0.1767672 255 0 255
0.06299701 -0.03831273 0.1765058 255 0 255
0.0639986 -0.03808728 0.1762409 255 0 255
0.06499897 -0.03785957 0.1759727 255 0 255
0.06599803 -0.03762962 0.1757011 255 0 255
0.06667243 -0.03706597 0.1745398 255 0 255
0.06733808 -0.03650179 0.1733772 255 0 255
0.06832597 -0.03626683 0.1730976 255 0 255
0.06931256 -0.03602965 0.1728146 255 0 255
0.07029777 -0.03579024 0.1725282 255 0 255
0.0712817 -0.03554859 0.1722386 255 0 255
0.07295518 -0.03595703 0.1737055 255 0 255
0.07429275 -0.03603436 0.1742857 255 0 255
0.07598899 -0.03643189 0.1757382 255 0 255
0.04327858 -0.02653269 0.1404682 255 0 255
0.05233886 -0.03633385 0.1662315 255 0 255
0.05616747 -0.03956643 0.1749464 255 0 255
0.05861749 -0.0410688 0.1791724 255 0 255
0.05963286 -0.0408527 0.1789229 255 0 255
0.06005147 -0.03995252 0.1768866 255 0 255
0.06105708 -0.03973344 0.1766321 255 0 255
0.06206151 -0.03951212 0.1763743 255 0 255
0.06275573 -0.0389501 0.1752242 255 0 255
0.06375399 -0.03872509 0.1749606 255 0 255
0.064751 -0.03849783 0.1746936 255 0 255
0.06542672 -0.03793238 0.1735373 255 0 255
0.0664175 -0.03770151 0.1732646 255 0 255
0.06707963 -0.03713422 0.1721047 255 0 255
0.06806415 -0.03689973 0.1718263 255 0 255
0.06904741 -0.03666301 0.1715446 255 0 255
0.07002932 -0.03642408 0.1712596 255 0 255
0.07135199 -0.03651356 0.1718508 255 0 255
0.07268059 -0.03659902 0.1724366 255 0 255
0.07401514 -0.03668039 0.1730168 255 0 255
0.0753556 -0.03675772 0.1735914 255 0 255
0.04165643 -0.02526792 0.1347632 255 0 255
0.05183426 -0.03656847 0.1640648 255 0 255
0.05594509 -0.0401851 0.1736599 255 0 255
0.05839295 -0.04170592 0.1778797 255 0 255
0.05969937 -0.04183548 0.1785225 255 0 255
0.06011778 -0.04092775 0.1764893 255 0 255
0.06112378 -0.04070828 0.1762351 255 0 255
0.06182301 -0.04014376 0.1750891 255 0 255
0.06251364 -0.03957855 0.1739417 255 0 255
0.06350853 -0.03935399 0.1736792 255 0 255
0.06418561 -0.03878682 0.1725281 255 0 255
0.06549462 -0.03889814 0.1731443 255 0 255
0.06616178 -0.03832817 0.1719884 255 0 255
0.06682029 -0.03775775 0.1708312 255 0 255
0.06780151 -0.03752375 0.1705542 255 0 255
0.06911641 -0.03762352 0.171154 255 0 255
0.06976 -0.03704909 0.16999 255 0 255
0.0710796 -0.03714263 0.1705811 255 0 255
0.07205917 -0.03689883 0.1702897 255 0 255
0.07303739 -0.03665283 0.169995 255 0 255
0.07472078 -0.03706752 0.1714466 255 0 255
0.03947179 -0.02325456 0.1272864 255 0 255
0.05132848 -0.03678704 0.1619003 255 0 255
0.05572198 -0.04079491 0.1723726 255 0 255
0.05816764 -0.04233411 0.1765861 255 0 255
0.0594709 -0.0424677 0.1772285 255 0 255
0.05988549 -0.04155321 0.1751995 255 0 255
0.06088809 -0.04133419 0.1749464 255 0 255
0.06158374 -0.04076646 0.173803 255 0 255
0.0625802 -0.04054375 0.1735442 255 0 255
0.06326228 -0.03997405 0.1723971 255 0 255
0.06425261 -0.03974767 0.1721325 255 0 255
0.06524166 -0.03951906 0.1718646 255 0 255
0.06590521 -0.03894602 0.1707114 255 0 255
0.06688802 -0.03871384 0.1704379 255 0 255
0.06786957 -0.03847941 0.170161 255 0 255
0.06884979 -0.03824278 0.1698808 255 0 255
0.06948981 -0.03766523 0.1687196 255 0 255
0.07080634 -0.03776283 0.1693106 255 0 255
0.07212881 -0.03785643 0.1698961 255 0 255
0.07345726 -0.03794594 0.170476 255 0 255
0.07479161 -0.03803138 0.1710505 255 0 255
0.03952256 -0.02402699 0.1269642 255 0 255
0.05195614 -0.03840891 0.1633017 255 0 255
0.05607289 -0.0421039 0.1728645 255 0 255
0.05823266 -0.04330667 0.1761807 255 0 255
0.05924171 -0.04309101 0.1759336 255 0 255
0.06024953 -0.04287305 0.1756832 255 0 255
0.06095391 -0.04230205 0.1745431 255 0 255
0.06164962 -0.04173034 0.1734015 255 0 255
0.06264644 -0.04150726 0.1731429 255 0 255
0.06332862 -0.04093353 0.1719975 255 0 255
0.06400215 -0.04035929 0.1708507 255 0 255
0.06466704 -0.03978451 0.1697026 255 0 255
0.0656478 -0.03955499 0.1694336 255 0 255
0.06662727 -0.03932328 0.1691613 255 0 255
0.06793728 -0.03943338 0.1697641 255 0 255
0.06891786 -0.03919632 0.1694841 255 0 255
0.06989712 -0.03895703 0.1692009 255 0 255
0.07121784 -0.03905692 0.1697895 255 0 255
0.07185157 -0.03847185 0.1686245 255 0 255
0.07317697 -0.03856542 0.1692043 255 0 255
0.07450825 -0.03865493 0.1697786 255 0 255
0.05400399 -0.04183547 0.1691402 255 0 255
0.05728688 -0.04449123 0.1760149 255 0 255
0.05888013 -0.04499114 0.1775466 255 0 255
0.05960186 -0.04441748 0.1764113 255 0 255
0.06061378 -0.04419837 0.1761602 255 0 255
0.06101941 -0.04326814 0.174136 255 0 255
0.06202147 -0.04304609 0.17388 255 0 255
0.06240241 -0.04211625 0.1718549 255 0 255
0.06339462 -0.04189136 0.1715941 255 0 255
0.06406823 -0.04131314 0.170449 255 0 255
0.06473321 -0.0407344 0.1693026 255 0 255
0.06571427 -0.04050449 0.1690339 255 0 255
0.06669407 -0.04027236 0.1687618 255 0 255
0.06734049 -0.0396904 0.1676096 255 0 255
0.06864982 -0.03980143 0.1682079 255 0 255
0.0696257 -0.03956265 0.1679259 255 0 255
0.07060028 -0.03932167 0.1676407 255 0 255
0.0715735 -0.03907844 0.1673522 255 0 255
0.0728958 -0.03917608 0.1679319 255 0 255
0.07422403 -0.03926967 0.1685061 255 0 255
0.05463416 -0.0435006 0.1705145 255 0 255
0.05763889 -0.04582187 0.1764886 255 0 255
0.05894506 -0.04596737 0.1771305 255 0 255
0.05966688 -0.04538978 0.1759969 255 0 255
0.06067912 -0.04517026 0.175746 255 0 255
0.06108462 -0.0442325 0.1737252 255 0 255
0.0617805 -0.0436529 0.172587 255 0 255
0.06246779 -0.04307272 0.1714475 255 0 255
0.06314639 -0.04249195 0.1703065 255 0 255
0.0638164 -0.04191062 0.1691642 255 0 255
0.06479904 -0.04168256 0.168899 255 0 255
0.06545546 -0.0410993 0.167753 255 0 255
0.06676053 -0.04121973 0.1683586 255 0 255
0.06773938 -0.04098497 0.1680835 255 0 255
0.06871689 -0.04074802 0.1678051 255 0 255
0.06969313 -0.04050881 0.1675234 255 0 255
0.07066802 -0.0402674 0.1672384 255 0 255
0.07164153 -0.04002378 0.1669502 255 0 255
0.07261375 -0.03977793 0.1666586 255 0 255
0.07429322 -0.04022124 0.1681016 255 0 255
0.03939296 -0.02596969 0.1250924 255 0 255
0.0544119 -0.04408164 0.1692202 255 0 255
0.05741482 -0.04642833 0.1751845 255 0 255
0.05871784 -0.04657783 0.175826 255 0 255
0.05973161 -0.04636025 0.1755787 255 0 255
0.06074415 -0.0461404 0.175328 255 0 255
0.06114951 -0.04519511 0.1733104 255 0 255
0.06184549 -0.04461157 0.1721741 255 0 255
0.06253283 -0.04402744 0.1710363 255 0 255
0.06352568 -0.04380177 0.1707759 255 0 255
0.06419944 -0.04321564 0.1696344 255 0 255
0.06486455 -0.04262897 0.1684915 255 0 255
0.06584625 -0.0423983 0.1682233 255 0 255
0.06682666 -0.04216537 0.1679517 255 0 255
0.0678058 -0.04193022 0.1676768 255 0 255
0.06878366 -0.04169285 0.1673986 255 0 255
0.06976015 -0.04145324 0.1671172 255 0 255
0.07073539 -0.04121141 0.1668325 255 0 255
0.07170923 -0.04096737 0.1665444 255 0 255
0.07268173 -0.0407211 0.1662532 255 0 255
0.07400746 -0.04082181 0.1668259 255 0 255
0.05532726 -0.04613031 0.1714641 255 0 255
0.05719002 -0.04702591 0.1738797 255 0 255
0.05907404 -0.04791447 0.1762867 255 0 255
0.05979601 -0.04732898 0.1751567 255 0 255
0.06080888 -0.04710873 0.1749062 255 0 255
0.06121407 -0.04615595 0.1728919 255 0 255
0.06221709 -0.04593278 0.1726366 255 0 255
0.06228687 -0.04461696 0.169743 255 0 255
0.06327634 -0.04439175 0.1694839 255 0 255
0.06394646 -0.04380254 0.1683451 255 0 255
0.06492975 -0.04357367 0.1680804 255 0 255
0.06558627 -0.04298257 0.166938 255 0 255
0.06689247 -0.04310929 0.167541 255 0 255
0.06787192 -0.04287371 0.1672664 255 0 255
0.06885006 -0.04263595 0.1669884 255 0 255
0.06948671 -0.04203947 0.165837 255 0 255
0.07045853 -0.04179813 0.1655536 255 0 255
0.07142904 -0.04155456 0.1652669 255 0 255
0.07204702 -0.0409551 0.16411 255 0 255
0.07336599 -0.04106081 0.1646838 255 0 255
0.05254091 -0.04335376 0.1622138 255 0 255
0.05638731 -0.04687075 0.1708097 255 0 255
0.05826114 -0.04777202 0.1732149 255 0 255
0.05956408 -0.04792561 0.1738503 255 0 255
0.0608733 -0.0480753 0.1744806 255 0 255
0.06127837 -0.04711505 0.1724697 255 0 255
0.06228169 -0.04689146 0.1722145 255 0 255
0.06235104 -0.04556461 0.1693259 255 0 255
0.0633408 -0.04533902 0.169067 255 0 255
0.06401103 -0.04474586 0.16793 255 0 255
0.06499458 -0.04451665 0.1676655 255 0 255
0.06565114 -0.04392159 0.1665249 255 0 255
0.06695792 -0.04405144 0.1671266 255 0 255
0.0676046 -0.04345366 0.1659814 255 0 255
0.06857935 -0.04321639 0.1657048 255 0 255
0.06921238 -0.04261688 0.1645563 255 0 255
0.07018084 -0.04237603 0.1642742 255 0 255
0.07114798 -0.042133 0.1639888 255 0 255
0.07211377 -0.04188772 0.1637003 255 0 255
0.07343327 -0.04199656 0.1642727 255 0 255
0.04946454 -0.04012816 0.1521098 255 0 255
0.05500529 -0.04594166 0.165984 255 0 255
0.05715397 -0.04723181 0.1692689 255 0 255
0.05873886 -0.04776565 0.1707855 255 0 255
0.06063742 -0.048667 0.1731731 255 0 255
0.06134231 -0.04807231 0.1720436 255 0 255
0.06203849 -0.04747698 0.1709126 255 0 255
0.06272606 -0.04688105 0.1697802 255 0 255
0.06371982 -0.04665424 0.1695205 255 0 255
0.06407522 -0.04568745 0.1675112 255 0 255
0.06505908 -0.04545783 0.1672469 255 0 255
0.06604169 -0.04522594 0.1669793 255 0 255
0.06735265 -0.04535805 0.1675786 255 0 255
0.06800309 -0.04475548 0.1664343 255 0 255
0.06898181 -0.04451688 0.1661568 255 0 255
0.06961855 -0.04391252 0.1650091 255 0 255
0.07024662 -0.04330773 0.1638602 255 0 255
0.07121403 -0.04306428 0.1635751 255 0 255
0.07218015 -0.04281861 0.1632867 255 0 255
0.07314488 -0.04257071 0.1629952 255 0 255
0.05275355 -0.04383836 0.1585332 255 0 255
0.05663022 -0.04741787 0.1670883 255 0 255
0.0588014 -0.04871479 0.1703584 255 0 255
0.06040075 -0.04924985 0.171865 255 0 255
0.06140592 -0.04902779 0.1716137 255 0 255
0.06210219 -0.04842855 0.1704845 255 0 255
0.06278981 -0.04782868 0.1693539 255 0 255
0.06378388 -0.04760148 0.1690945 255 0 255
0.06413908 -0.04662725 0.1670886 255 0 255
0.06480075 -0.04602572 0.1659539 255 0 255
0.06610617 -0.04616496 0.1665572 255 0 255
0.06708776 -0.04593046 0.1662866 255 0 255
0.06773455 -0.04532484 0.1651451 255 0 255
0.06904715 -0.04545473 0.1657355 255 0 255
0.06968395 -0.04484639 0.1645895 255 0 255
0.07031207 -0.0442377 0.1634425 255 0 255
0.07127979 -0.04399382 0.1631576 255 0 255
0.07224617 -0.04374772 0.1628695 255 0 255
0.07321116 -0.0434994 0.1625782 255 0 255
0.05107639 -0.04244174 0.1528594 255 0 255
0.05669126 -0.04835145 0.1666637 255 0 255
0.05886364 -0.04966216 0.1699275 255 0 255
0.06076424 -0.05058396 0.1723059 255 0 255
0.06146926 -0.04998145 0.1711801 255 0 255
0.06247349 -0.04975675 0.1709256 255 0 255
0.06316489 -0.04915214 0.1697959 255 0 255
0.06416296 -0.04892371 0.1695358 255 0 255
0.06452169 -0.04794115 0.1675323 255 0 255
0.0651871 -0.04733485 0.1663985 255 0 255
0.06617032 -0.0471022 0.1661313 255 0 255
0.06715222 -0.04686728 0.165861 255 0 255
0.06779901 -0.04625775 0.1647213 255 0 255
0.06911217 -0.04639072 0.1653104 255 0 255
0.06974899 -0.0457785 0.1641663 255 0 255
0.07037716 -0.04516585 0.1630211 255 0 255
0.07099665 -0.04455284 0.1618748 255 0 255
0.0723118 -0.04467506 0.1624486 255 0 255
0.07327711 -0.04442633 0.1621576 255 0 255
0.05675199 -0.04928322 0.1662353 255 0 255
0.05892558 -0.05060768 0.1694929 255 0 255
0.06082721 -0.0515397 0.1718667 255 0 255
0.06183667 -0.0513161 0.1716149 255 0 255
0.0625368 -0.05070821 0.1704885 255 0 255
0.06322826 -0.05009969 0.1693606 255 0 255
0.0642266 -0.04987084 0.1691007 255 0 255
0.06490441 -0.04926032 0.167969 255 0 255
0.06557357 -0.04864924 0.1668361 255 0 255
0.06656078 -0.0484153 0.1665682 255 0 255
0.06754664 -0.04817912 0.1662971 255 0 255
0.06819719 -0.04756474 0.1651583 255 0 255
0.06917682 -0.04732493 0.1648816 255 0 255
0.0701551 -0.04708289 0.1646017 255 0 255
0.07078694 -0.04646541 0.1634572 255 0 255
0.07141012 -0.04584754 0.1623117 255 0 255
0.07272948 -0.04597192 0.1628831 255 0 255
0.07369874 -0.0457218 0.1625912 255 0 255
0.05869005 -0.0511634 0.1681821 255 0 255
0.06028797 -0.05171931 0.1696806 255 0 255
0.06159494 -0.0518833 0.1703015 255 0 255
0.06259976 -0.05165781 0.1700476 255 0 255
0.06360336 -0.05143005 0.1697903 255 0 255
0.06460574 -0.05119998 0.1695296 255 0 255
0.06528732 -0.05058467 0.1683989 255 0 255
0.06596024 -0.04996882 0.1672668 255 0 255
0.06662446 -0.04935243 0.1661334 255 0 255
0.06728002 -0.04873554 0.1649987 255 0 255
0.06826122 -0.04849759 0.1647256 255 0 255
0.06924109 -0.04825737 0.1644491 255 0 255
0.07021966 -0.04801488 0.1641694 255 0 255
0.07085153 -0.0473935 0.1630269 255 0 255
0.07182377 -0.04714745 0.1627417 255 0 255
0.07279464 -0.04689916 0.1624533 255 0 255
0.07340782 -0.0462748 0.1613053 255 0 255
0.06004864 -0.05227365 0.1683673 255 0 255
0.06165731 -0.05283143 0.1698566 255 0 255
0.06297103 -0.05299455 0.1704709 255 0 255
0.06366631 -0.05237743 0.1693458 255 0 255
0.0643529 -0.05175966 0.1682193 255 0 255
0.06535058 -0.05152776 0.1679566 255 0 255
0.06570006 -0.05052242 0.1659622 255 0 255
0.06603348 -0.04951834 0.1639686 255 0 255
0.06701253 -0.04928312 0.1637 255 0 255
0.06765579 -0.04866276 0.162567 255 0 255
0.06862856 -0.04842392 0.1622929 255 0 255
0.06994193 -0.04856398 0.1628745 255 0 255
0.07091577 -0.04831977 0.1625928 255 0 255
0.07153905 -0.04769405 0.1614511 255 0 255
0.07285941 -0.04782461 0.1620198 255 0 255
0.07347262 -0.04719632 0.1608737 255 0 255
0.06041137 -0.05360742 0.1687899 255 0 255
0.06171935 -0.05377769 0.169408 255 0 255
0.06334242 -0.05433648 0.1708872 255 0 255
0.06404147 -0.05371458 0.169763 255 0 255
0.06473182 -0.05309209 0.1686375 255 0 255
0.06573347 -0.05285895 0.168374 255 0 255
0.0657628 -0.05145627 0.1655197 255 0 255
0.06642342 -0.05083299 0.1643912 255 0 255
0.06707534 -0.05020916 0.1632613 255 0 255
0.06771861 -0.04958493 0.1621302 255 0 255
0.06869166 -0.04934571 0.1618563 255 0 255
0.07000554 -0.04948884 0.1624366 255 0 255
0.07063381 -0.04886055 0.1612989 255 0 255
0.07195241 -0.04899734 0.1618705 255 0 255
0.07292382 -0.04874823 0.1615826 255 0 255
0.07389384 -0.04849687 0.1612915 255 0 255
0.05917038 -0.05437136 0.1677172 255 0 255
0.05986936 -0.05375334 0.1666059 255 0 255
0.06178108 -0.0547221 0.1689556 255 0 255
0.0634049 -0.05528748 0.1704317 255 0 255
0.06379118 -0.05426656 0.1684457 255 0 255
0.06447784 -0.05364103 0.167323 255 0 255
0.06547605 -0.05340836 0.1670608 255 0 255
0.06582518 -0.05238826 0.1650736 255 0 255
0.06648584 -0.05176108 0.1639469 255 0 255
0.0668065 -0.05074262 0.1619602 255 0 255
0.06778111 -0.05050524 0.1616898 255 0 255
0.0687544 -0.05026564 0.1614162 255 0 255
0.07006877 -0.05041184 0.161995 255 0 255
0.0706971 -0.04977968 0.1608592 255 0 255
0.07166643 -0.04953332 0.1605759 255 0 255
0.07298783 -0.04966997 0.1611418 255 0 255
0.07360109 -0.0490339 0.1599996 255 0 255
0.06023163 -0.05508694 0.1670195 255 0 255
0.06184247 -0.05566459 0.1684995 255 0 255
0.06315771 -0.05583709 0.1691094 255 0 255
0.0635401 -0.05480966 0.1671281 255 0 255
0.06422309 -0.05418112 0.1660083 255 0 255
0.06521787 -0.05394893 0.1657472 255 0 255
0.06556307 -0.05292236 0.1637647 255 0 255
0.06622005 -0.05229218 0.1626409 255 0 255
0.06686835 -0.0516615 0.1615159 255 0 255
0.06750795 -0.05103038 0.1603897 255 0 255
0.06847785 -0.05079127 0.1601173 255 0 255
0.06978906 -0.05094143 0.1606957 255 0 255
0.07041369 -0.05030634 0.159563 255 0 255
0.0717296 -0.05045017 0.1601329 255 0 255
0.07269783 -0.05020116 0.1598466 255 0 255
0.07366472 -0.04994993 0.1595571 255 0 255
0.06119821 -0.05723487 0.1691523 255 0 255
0.06159777 -0.05620138 0.1671775 255 0 255
0.06321928 -0.05678079 0.1686482 255 0 255
0.06360146 -0.05574602 0.1666704 255 0 255
0.0642845 -0.05511361 0.1655526 255 0 255
0.06495885 -0.05448062 0.1644333 255 0 255
0.06562453 -0.05384709 0.1633128 255 0 255
0.06628153 -0.05321306 0.162191 255 0 255
0.06692985 -0.05257854 0.1610679 255 0 255
0.0675695 -0.05194353 0.1599437 255 0 255
0.06853965 -0.05170402 0.1596716 255 0 255
0.06985134 -0.05185727 0.1602486 255 0 255
0.07047599 -0.05121827 0.1591178 255 0 255
0.07144214 -0.05097204 0.1588361 255 0 255
0.07276088 -0.05111574 0.1594002 255 0 255
0.073728 -0.05086409 0.159111 255 0 255
0.06095665 -0.05776927 0.1678254 255 0 255
0.06012816 -0.0551001 0.1624131 255 0 255
0.06235128 -0.05650322 0.1656045 255 0 255
0.06303556 -0.05586924 0.1644918 255 0 255
0.0640284 -0.05563945 0.1642355 255 0 255
0.06469906 -0.05500349 0.1631192 255 0 255
0.06536104 -0.05436699 0.1620016 255 0 255
0.06634267 -0.05413207 0.1617375 255 0 255
0.06699102 -0.05349367 0.1606164 255 0 255
0.0679664 -0.05325512 0.1603467 255 0 255
0.06860108 -0.0526149 0.1592223 255 0 255
0.06957013 -0.05237277 0.1589472 255 0 255
0.07019113 -0.05173081 0.1578194 255 0 255
0.0715043 -0.05188173 0.1583875 255 0 255
0.07211529 -0.05123715 0.1572554 255 0 255
0.07307535 -0.05098698 0.1569687 255 0 255
0.06018725 -0.05601606 0.1619563 255 0 255
0.0624115 -0.05743267 0.1651409 255 0 255
0.06246841 -0.05597673 0.1623165 255 0 255
0.06377146 -0.05615647 0.1629183 255 0 255
0.06443845 -0.05551751 0.1618049 255 0 255
0.06509673 -0.05487806 0.1606903 255 0 255
0.06574639 -0.05423807 0.1595744 255 0 255
0.06705182 -0.05440695 0.1601612 255 0 255
0.0676915 -0.05376424 0.1590409 255 0 255
0.06866214 -0.05352392 0.1587693 255 0 255
0.06963143 -0.05328138 0.1584945 255 0 255
0.07059945 -0.05303656 0.1582165 255 0 255
0.07121543 -0.05238945 0.1570886 255 0 255
0.07217707 -0.05214109 0.1568052 255 0 255
0.07313736 -0.0518905 0.1565187 255 0 255
0.06216121 -0.05794677 0.1638176 255 0 255
0.0628418 -0.05730602 0.1627099 255 0 255
0.06414906 -0.05748795 0.1633092 255 0 255
0.06449842 -0.0564335 0.1613436 255 0 255
0.06515671 -0.05579022 0.160231 255 0 255
0.06613514 -0.0555554 0.1599683 255 0 255
0.06711229 -0.05531831 0.1597024 255 0 255
0.06775195 -0.05467175 0.1585841 255 0 255
0.06872283 -0.05443107 0.1583128 255 0 255
0.06969239 -0.05418811 0.1580382 255 0 255
0.07031336 -0.05353845 0.1569144 255 0 255
0.07092573 -0.05288843 0.1557895 255 0 255
0.07188392 -0.05264059 0.1555075 255 0 255
0.07284077 -0.05239055 0.1552224 255 0 255
0.06191013 -0.05845205 0.1624941 255 0 255
0.06321533 -0.05864027 0.1630962 255 0 255
0.06389102 -0.0579942 0.1619881 255 0 255
0.06423645 -0.05693334 0.1600273 255 0 255
0.06521637 -0.05670043 0.1597681 255 0 255
0.06619503 -0.05646523 0.1595057 255 0 255
0.06717237 -0.05622777 0.15924 255 0 255
0.06814849 -0.05598802 0.1589712 255 0 255
0.06878319 -0.05533627 0.1578526 255 0 255
0.06975298 -0.0550929 0.1575784 255 0 255
0.07037394 -0.05443941 0.1564566 255 0 255
0.07098629 -0.05378554 0.1553337 255 0 255
0.07194474 -0.05353732 0.155052 255 0 255
0.07290182 -0.05328684 0.1547671 255 0 255
0.06134763 -0.05852824 0.160318 255 0 255
0.0632746 -0.05956002 0.1626236 255 0 255
0.06363219 -0.05849161 0.160667 255 0 255
0.06429553 -0.05784203 0.1595606 255 0 255
0.06527564 -0.05760874 0.1593016 255 0 255
0.06592532 -0.05695726 0.1581918 255 0 255
0.06689923 -0.0567203 0.1579274 255 0 255
0.06787184 -0.05648107 0.1576598 255 0 255
0.06884316 -0.05623959 0.157389 255 0 255
0.06946917 -0.05558358 0.1562713 255 0 255
0.07078186 -0.05574982 0.1568377 255 0 255
0.07139787 -0.05509112 0.1557158 255 0 255
0.07236021 -0.05484153 0.1554333 255 0 255
0.07332116 -0.05458972 0.1551476 255 0 255
0.06327082 -0.06197843 0.1649517 255 0 255
0.06364813 -0.06090075 0.1629974 255 0 255
0.0643275 -0.06024618 0.1618924 255 0 255
0.06532031 -0.06001214 0.161634 255 0 255
0.06566034 -0.05893534 0.1596785 255 0 255
0.06631371 -0.05827916 0.1585697 255 0 255
0.06729156 -0.05804091 0.1583045 255 0 255
0.06793122 -0.05738286 0.1571922 255 0 255
0.06856222 -0.05672434 0.1560788 255 0 255
0.06952879 -0.05648114 0.1558061 255 0 255
0.07049401 -0.05623563 0.1555302 255 0 255
0.07110629 -0.05557411 0.1544114 255 0 255
0.07242048 -0.05573788 0.1549688 255 0 255
0.07338168 -0.05548562 0.1546834 255 0 255
0.06402172 -0.06224631 0.1633638 255 0 255
0.06438633 -0.06116166 0.1614129 255 0 255
0.06537937 -0.06092724 0.1611548 255 0 255
0.06571914 -0.05984321 0.1592031 255 0 255
0.06637251 -0.05918322 0.1580963 255 0 255
0.06701718 -0.0585227 0.1569882 255 0 255
0.06799027 -0.05828268 0.1567212 255 0 255
0.06862126 -0.05762038 0.1556098 255 0 255
0.06958802 -0.05737675 0.1553373 255 0 255
0.07055346 -0.05713086 0.1550617 255 0 255
0.07151762 -0.05688269 0.1547828 255 0 255
0.07248037 -0.05663229 0.1545008 255 0 255
0.07344177 -0.05637962 0.1542157 255 0 255
0.06250526 -0.0610185 0.1586457 255 0 255
0.06316981 -0.0603598 0.1575487 255 0 255
0.06447059 -0.06055648 0.1581389 255 0 255
0.06545146 -0.06032202 0.1578808 255 0 255
0.06610109 -0.05965911 0.156777 255 0 255
0.06674206 -0.05899573 0.155672 255 0 255
0.06804895 -0.05918059 0.1562466 255 0 255
0.0686799 -0.05851446 0.1551372 255 0 255
0.06964689 -0.05827043 0.154865 255 0 255
0.07061256 -0.05802413 0.1545897 255 0 255
0.07157688 -0.05777558 0.1543111 255 0 255
0.07218413 -0.05710511 0.1531943 255 0 255
0.0731421 -0.056853 0.1529105 255 0 255
0.06256253 -0.06192012 0.1581642 255 0 255
0.06290808 -0.06082539 0.1562258 255 0 255
0.06452831 -0.06145736 0.157658 255 0 255
0.06550932 -0.06122253 0.1574 255 0 255
0.06615899 -0.06055582 0.1562983 255 0 255
0.06679991 -0.05988862 0.1551954 255 0 255
0.06810723 -0.06007651 0.1557684 255 0 255
0.0687382 -0.05940658 0.1546611 255 0 255
0.0697054 -0.05916214 0.1543892 255 0 255
0.07032269 -0.05849048 0.1532787 255 0 255
0.07128353 -0.05824248 0.1530015 255 0 255
0.07224306 -0.05799219 0.152721 255 0 255
0.07284159 -0.05731758 0.1516053 255 0 255
0.06360316 -0.06258916 0.1574279 255 0 255
0.06490853 -0.06279104 0.158014 255 0 255
0.06556687 -0.06212104 0.1569157 255 0 255
0.06621651 -0.06145056 0.1558161 255 0 255
0.0671915 -0.06121165 0.155553 255 0 255
0.06816518 -0.06097048 0.1552867 255 0 255
0.06879612 -0.06029673 0.1541815 255 0 255
0.06976354 -0.0600519 0.1539098 255 0 255
0.0703808 -0.05937646 0.1528014 255 0 255
0.07134184 -0.05912803 0.1525245 255 0 255
0.07194538 -0.05845091 0.1514129 255 0 255
0.07290006 -0.05819893 0.1511307 255 0 255
0.06110474 -0.05997401 0.1502214 255 0 255
0.06399637 -0.06237682 0.1550077 255 0 255
0.06529722 -0.06258029 0.15559 255 0 255
0.06627369 -0.0623433 0.1553303 255 0 255
0.06724886 -0.06210401 0.1550675 255 0 255
0.06856073 -0.06229695 0.1556362 255 0 255
0.06919536 -0.06161855 0.1545322 255 0 255
0.0698213 -0.0609397 0.1534269 255 0 255
0.07078757 -0.06069219 0.1531524 255 0 255
0.07139981 -0.06001164 0.152044 255 0 255
0.07164688 -0.05890087 0.1501049 255 0 255
0.07259811 -0.05864947 0.1498241 255 0 255
0.06275754 -0.06305438 0.1539339 255 0 255
0.06405257 -0.06326494 0.1545197 255 0 255
0.0656809 -0.06391209 0.1559364 255 0 255
0.06666128 -0.06367379 0.155676 255 0 255
0.06730587 -0.06299437 0.1545784 255 0 255
0.06861815 -0.0631903 0.1551456 255 0 255
0.06925279 -0.06250812 0.1540437 255 0 255
0.06987868 -0.06182547 0.1529405 255 0 255
0.07049589 -0.06114244 0.1518364 255 0 255
0.07145732 -0.06089323 0.15156 255 0 255
0.07170417 -0.05977535 0.1496249 255 0 255
0.0726556 -0.05952351 0.1493444 255 0 255
0.06377246 -0.06527496 0.1559522 255 0 255
0.06507913 -0.06548586 0.1565335 255 0 255
0.06606465 -0.06524862 0.1562756 255 0 255
0.06671795 -0.0645659 0.1551813 255 0 255
0.06769723 -0.06432491 0.154918 255 0 255
0.06867524 -0.06408165 0.1546515 255 0 255
0.06930982 -0.06339566 0.1535517 255 0 255
0.06993572 -0.06270925 0.1524507 255 0 255
0.07090236 -0.06246095 0.1521766 255 0 255
0.07151452 -0.06177282 0.1510725 255 0 255
0.07211795 -0.06108434 0.1499673 255 0 255
0.07307319 -0.06083116 0.1496859 255 0 255
0.06513526 -0.06638008 0.1560329 255 0 255
0.06579354 -0.06569503 0.1549431 255 0 255
0.06644307 -0.06500945 0.1538519 255 0 255
0.06708395 -0.06432338 0.1527596 255 0 255
0.06839333 -0.06452625 0.1533246 255 0 255
0.06902418 -0.06383742 0.1522279 255 0 255
0.07033836 -0.06403384 0.1527845 255 0 255
0.07095918 -0.06334231 0.1516835 255 0 255
0.07192469 -0.06309133 0.1514066 255 0 255
0.07253178 -0.06239813 0.1503025 255 0 255
0.07349089 -0.06214355 0.1500204 255 0 255
0.06486709 -0.06682054 0.1546975 255 0 255
0.0658493 -0.06658342 0.1544411 255 0 255
0.06649884 -0.06589411 0.1533521 255 0 255
0.06747478 -0.06565326 0.1530903 255 0 255
0.06844943 -0.06541014 0.1528253 255 0 255
0.0694228 -0.06516468 0.1525571 255 0 255
0.0700486 -0.06447076 0.1514605 255 0 255
0.0710156 -0.06422167 0.151187 255 0 255
0.07162769 -0.06352601 0.1500871 255 0 255
0.07223106 -0.06283 0.1489863 255 0 255
0.0731867 -0.062576 0.1487055 255 0 255
0.06393869 -0.06794243 0.1544448 255 0 255
0.06492233 -0.06770727 0.1541918 255 0 255
0.06557681 -0.06701563 0.1531072 255 0 255
0.06655423 -0.06677672 0.1528489 255 0 255
0.06753035 -0.0665355 0.1525873 255 0 255
0.06850517 -0.06629197 0.1523225 255 0 255
0.06947871 -0.06604613 0.1520546 255 0 255
0.07045092 -0.06579798 0.1517835 255 0 255
0.0710717 -0.06509895 0.1506869 255 0 255
0.07203753 -0.06484716 0.1504105 255 0 255
0.07264453 -0.06414645 0.1493108 255 0 255
0.07360402 -0.06389103 0.1490292 255 0 255
0.06399341 -0.06882746 0.1539353 255 0 255
0.06595037 -0.06996711 0.1561648 255 0 255
0.06595979 -0.06835404 0.1534266 255 0 255
0.06660924 -0.06765725 0.1523421 255 0 255
0.06758553 -0.06741568 0.1520808 255 0 255
0.06856054 -0.06717175 0.1518163 255 0 255
0.06919128 -0.06647169 0.1507261 255 0 255
0.07015998 -0.06622408 0.1504563 255 0 255
0.07112736 -0.06597419 0.1501834 255 0 255
0.07173933 -0.06527106 0.1490879 255 0 255
0.07270032 -0.06501754 0.1488097 255 0 255
0.07366001 -0.06476174 0.1485284 255 0 255
0.06600553 -0.07085971 0.1556463 255 0 255
0.06634279 -0.06969707 0.1537387 255 0 255
0.06732797 -0.06945558 0.1534789 255 0 255
0.06831187 -0.06921175 0.1532159 255 0 255
0.06861555 -0.06804944 0.1513066 255 0 255
0.06958943 -0.06780282 0.1510392 255 0 255
0.07056198 -0.06755386 0.1507686 255 0 255
0.07118264 -0.06684736 0.1496764 255 0 255
0.07179458 -0.0661405 0.1485832 255 0 255
0.07275573 -0.0658866 0.1483053 255 0 255
0.07371555 -0.0656304 0.1480242 255 0 255
0.06410179 -0.07059126 0.1529059 255 0 255
0.06541074 -0.07082003 0.1534772 255 0 255
0.06705441 -0.07150884 0.154866 255 0 255
0.0680472 -0.07126514 0.1546044 255 0 255
0.06870272 -0.07055674 0.1535191 255 0 255
0.06900986 -0.06938644 0.151613 255 0 255
0.06998757 -0.06913849 0.1513448 255 0 255
0.07061693 -0.06842868 0.150256 255 0 255
0.07123753 -0.06771848 0.149166 255 0 255
0.07184943 -0.0670079 0.148075 255 0 255
0.07281076 -0.06675355 0.1477973 255 0 255
0.07377075 -0.06649695 0.1475166 255 0 255
0.06415545 -0.07147001 0.152386 255 0 255
0.06776645 -0.0733318 0.1559819 255 0 255
0.06843438 -0.07261931 0.154899 255 0 255
0.06909356 -0.07190628 0.1538149 255 0 255
0.06940418 -0.07072799 0.151912 255 0 255
0.07038577 -0.0704787 0.1516431 255 0 255
0.07067151 -0.06930142 0.1497399 255 0 255
0.07129208 -0.06858747 0.1486521 255 0 255
0.07190394 -0.06787317 0.1475634 255 0 255
0.07322375 -0.06807838 0.1480984 255 0 255
0.07382549 -0.06736144 0.1470055 255 0 255
0.06649406 -0.07399646 0.1548892 255 0 255
0.06815003 -0.07469509 0.1562677 255 0 255
0.06915429 -0.07444786 0.1560038 255 0 255
0.06948451 -0.0732603 0.1541033 255 0 255
0.06979854 -0.07207408 0.1522036 255 0 255
0.070784 -0.07182346 0.151934 255 0 255
0.07107315 -0.07063819 0.1500339 255 0 255
0.07169735 -0.06991959 0.1489474 255 0 255
0.07231287 -0.0692006 0.1478599 255 0 255
0.07327814 -0.06894449 0.1475817 255 0 255
0.07424212 -0.06868609 0.1473004 255 0 255
0.06752421 -0.07630891 0.1568074 255 0 255
0.06853366 -0.0760628 0.156546 255 0 255
0.06920893 -0.07534105 0.1554658 255 0 255
0.06953887 -0.07414649 0.1535695 255 0 255
0.06985265 -0.07295327 0.1516741 255 0 255
0.07118224 -0.07317264 0.1522174 255 0 255
0.07147484 -0.07197942 0.1503206 255 0 255
0.0721027 -0.07125617 0.1492353 255 0 255
0.07272182 -0.07053252 0.148149 255 0 255
0.07369097 -0.07027505 0.1478701 255 0 255
0.0742963 -0.06954968 0.1467806 255 0 255
0.06627589 -0.07529064 0.153001 255 0 255
0.06759994 -0.0755252 0.1535584 255 0 255
0.06826398 -0.07480256 0.1524833 255 0 255
0.0689193 -0.07407935 0.151407 255 0 255
0.06990641 -0.07383029 0.1511411 255 0 255
0.07089214 -0.07357889 0.1508721 255 0 255
0.07152867 -0.07285236 0.1497902 255 0 255
0.07215651 -0.07212543 0.1487072 255 0 255
0.07277552 -0.07139809 0.1476232 255 0 255
0.07374482 -0.0711402 0.1473445 255 0 255
0.07435006 -0.07041115 0.1462573 255 0 255
0.06828377 -0.07906011 0.1573428 255 0 255
0.06732371 -0.0759271 0.1522045 255 0 255
0.06798402 -0.07520166 0.1511327 255 0 255
0.06897252 -0.07495461 0.1508703 255 0 255
0.07030042 -0.07518309 0.1514143 255 0 255
0.07129003 -0.07493033 0.1511445 255 0 255
0.07193022 -0.07419919 0.1500639 255 0 255
0.07256164 -0.0734676 0.1489822 255 0 255
0.0731843 -0.07273561 0.1478994 255 0 255
0.07415739 -0.07247633 0.14762 255 0 255
0.07476631 -0.07174259 0.146534 255 0 255
0.06770325 -0.07559203 0.1497826 255 0 255
0.06835103 -0.07486337 0.1487129 255 0 255
0.07001271 -0.07557786 0.1500648 255 0 255
0.07099876 -0.07532565 0.1497963 255 0 255
0.07163514 -0.07459176 0.148719 255 0 255
0.07261477 -0.0743358 0.1484452 255 0 255
0.07359309 -0.07407749 0.1481682 255 0 255
0.07421065 -0.07334045 0.1470856 255 0 255
0.07481947 -0.07260305 0.1460019 255 0 255
0.06775537 -0.07646 0.1492408 255 0 255
0.0680657 -0.07524226 0.1473668 255 0 255
0.06972423 -0.07596383 0.1487159 255 0 255
0.07070667 -0.0757122 0.1484487 255 0 255
0.07133931 -0.07497563 0.1473748 255 0 255
0.07231539 -0.07472023 0.1471023 255 0 255
0.073646 -0.07494311 0.147628 255 0 255
0.07426351 -0.0742024 0.1465477 255 0 255
0.07487224 -0.07346133 0.1454664 255 0 255
0.06747327 -0.07683616 0.1478901 255 0 255
0.06845479 -0.07658981 0.1476304 255 0 255
0.07011748 -0.0773166 0.1489747 255 0 255
0.07110381 -0.07706361 0.1487068 255 0 255
0.07208876 -0.07680825 0.1484356 255 0 255
0.07271997 -0.07606565 0.1473609 255 0 255
0.07369852 -0.07580654 0.1470845 255 0 255
0.07431592 -0.07506217 0.1460065 255 0 255
0.0749246 -0.07431743 0.1449276 255 0 255
0.06819255 -0.07868223 0.1489503 255 0 255
0.06884383 -0.07794167 0.1478865 255 0 255
0.07016933 -0.07818264 0.1484245 255 0 255
0.07150093 -0.07841931 0.1489573 255 0 255
0.07248971 -0.0781626 0.1486854 255 0 255
0.07347712 -0.07790353 0.1484104 255 0 255
0.07410689 -0.0771549 0.1473348 255 0 255
0.0747279 -0.07640588 0.1462582 255 0 255
0.07497657 -0.07517136 0.1443853 255 0 255
0.06957085 -0.07979302 0.1489355 255 0 255
0.07090408 -0.08003496 0.1494696 255 0 255
0.07224342 -0.0802726 0.1499986 255 0 255
0.07254156 -0.07902889 0.1481303 255 0 255
0.0735291 -0.07876939 0.1478556 255 0 255
0.07451526 -0.07850754 0.1475777 255 0 255
0.07477974 -0.07726447 0.1457081 255 0 255
0.07539193 -0.07651144 0.1446328 255 0 255
0.07165084 -0.08364886 0.1531657 255 0 255
0.07163924 -0.081898 0.150503 255 0 255
0.07264072 -0.08164003 0.1502319 255 0 255
0.07294232 -0.08038849 0.1483671 255 0 255
0.07393365 -0.08012763 0.1480916 255 0 255
0.07456698 -0.07937074 0.1470197 255 0 255
0.07519151 -0.07861347 0.1459468 255 0 255
0.07544327 -0.07736414 0.1440817 255 0 255
0.07237939 -0.08553452 0.1541825 255 0 255
0.07237477 -0.08377165 0.1515244 255 0 255
0.07338378 -0.08351139 0.1512516 255 0 255
0.07404192 -0.08274987 0.1501824 255 0 255
0.07433816 -0.08149003 0.1483199 255 0 255
0.07533193 -0.08122538 0.1480405 255 0 255
0.07560323 -0.07996662 0.1461778 255 0 255
0.07585838 -0.07870948 0.1443162 255 0 255
0.07843916 -0.09730204 0.1705635 255 0 255
0.07446238 -0.08945028 0.1583635 255 0 255
0.07345288 -0.08615986 0.1533271 255 0 255
0.07412718 -0.08539332 0.1522595 255 0 255
0.07409338 -0.08362219 0.1496086 255 0 255
0.07509601 -0.08335762 0.1493306 255 0 255
0.07574024 -0.08259057 0.1482605 255 0 255
0.07637568 -0.08182303 0.1471892 255 0 255
0.07663793 -0.08055703 0.14533 255 0 255
0.07654722 -0.09340229 0.1625154 255 0 255
0.07384683 -0.08755068 0.1535316 255 0 255
0.07487091 -0.08728578 0.1532553 255 0 255
0.07449422 -0.0849975 0.1498203 255 0 255
0.0755007 -0.08473151 0.1495416 255 0 255
0.07614852 -0.08395983 0.1484728 255 0 255
0.07714847 -0.08368997 0.1481887 255 0 255
0.07741779 -0.08241517 0.146332 255 0 255
0.07388937 -0.09023195 0.1555815 255 0 255
0.07424081 -0.08894559 0.1537284 255 0 255
0.07526868 -0.0886793 0.1534514 255 0 255
0.07489505 -0.08637679 0.1500241 255 0 255
0.07590531 -0.08610945 0.1497447 255 0 255
0.07691415 -0.08583964 0.1494621 255 0 255
0.07756045 -0.08506195 0.1483926 255 0 255
0.07783322 -0.08377931 0.1465393 255 0 255
0.07566311 -0.0918851 0.1562771 255 0 255
0.07601292 -0.09058939 0.1544253 255 0 255
0.07599624 -0.08878338 0.1517895 255 0 255
0.0770177 -0.08851272 0.1515074 255 0 255
0.07768012 -0.08772988 0.1504394 255 0 255
0.07833372 -0.08694654 0.1493702 255 0 255
0.07861356 -0.08565511 0.1475195 255 0 255
0.07502863 -0.09174727 0.1540984 255 0 255
0.07641077 -0.09199404 0.1546035 255 0 255
0.07639734 -0.09017712 0.1519736 255 0 255
0.07742261 -0.08990502 0.1516907 255 0 255
0.07808862 -0.08911759 0.1506242 255 0 255
0.07838434 -0.08781783 0.1487771 255 0 255
0.07829868 -0.08600885 0.1461527 255 0 255
0.07439297 -0.09159423 0.1519249 255 0 255
0.07576799 -0.0918457 0.1524301 255 0 255
0.07679842 -0.09157475 0.1521498 255 0 255
0.07747313 -0.09078427 0.151087 255 0 255
0.07813907 -0.08999325 0.1500229 255 0 255
0.0784345 -0.08868676 0.1481806 255 0 255
0.07871374 -0.08738182 0.1463391 255 0 255
0.07581622 -0.0945646 0.154437 255 0 255
0.07720634 -0.09481502 0.1549364 255 0 255
0.07755014 -0.09349743 0.1530962 255 0 255
0.07787772 -0.09218127 0.1512569 255 0 255
0.0789054 -0.09190486 0.1509703 255 0 255
0.07884607 -0.09007145 0.1483555 255 0 255
0.07912873 -0.08875874 0.1465178 255 0 255
0.07620995 -0.09597909 0.1545945 255 0 255
0.07725681 -0.09570596 0.1543141 255 0 255
0.0783022 -0.09543029 0.1540304 255 0 255
0.07863692 -0.09410542 0.1521937 255 0 255
0.07931371 -0.09330431 0.1511316 255 0 255
0.0792576 -0.09145997 0.1485227 255 0 255
0.07917792 -0.08961925 0.1459169 255 0 255
0.07661202 -0.09553754 0.152139 255 0 255
0.07800119 -0.09579088 0.1526312 255 0 255
0.07833191 -0.09446032 0.1508003 255 0 255
0.07864638 -0.09313113 0.1489702 255 0 255
0.0793068 -0.09232796 0.1479115 255 0 255
0.07922667 -0.09047735 0.1453126 255 0 255
0.07945588 -0.09879567 0.1550901 255 0 255
0.07909106 -0.09639522 0.1517191 255 0 255
0.07941268 -0.09505738 0.1498917 255 0 255
0.08044278 -0.09477621 0.1496018 255 0 255
0.08037321 -0.09291274 0.1470067 255 0 255
0.08020854 -0.1007555 0.1559892 255 0 255
0.08020572 -0.09887286 0.1533936 255 0 255
0.08017921 -0.09699362 0.1508008 255 0 255
0.0812168 -0.09671 0.1505091 255 0 255
0.08152036 -0.09536447 0.1486841 255 0 255
0.0809615 -0.1027253 0.1568757 255 0 255
0.08025494 -0.09975916 0.1527535 255 0 255
0.08022795 -0.09787012 0.1501677 255 0 255
0.08126555 -0.0975861 0.1498764 255 0 255
0.08193531 -0.0967667 0.1488189 255 0 255
0.08202804 -0.1071552 0.1611034 255 0 255
0.08136288 -0.1041649 0.1569851 255 0 255
0.07994819 -0.1001039 0.1513461 255 0 255
0.07991703 -0.0982061 0.1487686 255 0 255
0.08095104 -0.09792271 0.1484786 255 0 255
0.0823501 -0.09817266 0.1489458 255 0 255
0.08106021 -0.104522 0.1555616 255 0 255
0.08070771 -0.102066 0.152224 255 0 255
0.0806835 -0.1001566 0.1496515 255 0 255
0.08172489 -0.09987067 0.1493598 255 0 255
0.08276482 -0.09958226 0.1490648 255 0 255
0.08005247 -0.1037779 0.1526189 255 0 255
0.08039991 -0.1024025 0.150812 255 0 255
0.08073109 -0.1010284 0.1490058 255 0 255
0.08140929 -0.100199 0.1479574 255 0 255
0.08244552 -0.09991121 0.1476638 255 0 255
0.07833861 -0.1019141 0.1481711 255 0 255
0.08009135 -0.1027301 0.1494012 255 0 255
0.08077823 -0.1018977 0.1483566 255 0 255
0.08145627 -0.1010648 0.1473109 255 0 255
0.08212548 -0.1002314 0.1462639 255 0 255
0.08013818 -0.1036003 0.1487459 255 0 255
0.0811848 -0.1033148 0.1484575 255 0 255
0.08222999 -0.1030266 0.1481657 255 0 255
0.08290642 -0.1021877 0.1471193 255 0 255
0.08160999 -0.1066854 0.1510957 255 0 255
0.08267143 -0.1063954 0.1508035 255 0 255
0.08336765 -0.1055505 0.1497579 255 0 255
0.08368759 -0.1041536 0.147962 255 0 255
0.08235783 -0.1067157 0.1493836 255 0 255
0.08377804 -0.1069791 0.1498372 255 0 255
0.08373373 -0.1050203 0.1472986 255 0 255
0.08382421 -0.1078527 0.1491629 255 0 255
0.08377945 -0.1058844 0.1466317 255 0 255
0.08314148 -0.1076006 0.1469992 255 0 255
0.08382471 -0.1067457 0.1459615 255 0 255
0.08063573 -0.1045111 0.1411384 255 0 255
0.08239718 -0.1053505 0.1423294 255 0 255
0.07666922 -0.09910659 0.1323545 255 0 255
0.08096799 -0.1039284 0.138713 255 0 255
0.07561635 -0.09819756 0.1295069 255 0 255
0.07916868 -0.1019102 0.1343776 255 0 255
0.07663036 -0.09871431 0.1285982 255 0 255
0.04620542 -0.3134424 0.3671782 255 0 255
0.04831781 -0.3125612 0.366272 255 0 255
0.05054647 -0.3123163 0.366117 255 0 255
0.04629171 -0.315141 0.3657202 255 0 255
0.04876799 -0.3161899 0.3670818 255 0 255
-0.1301347 -0.157079 0.1597401 255 0 255
-0.1323078 -0.1665812 0.1701272 255 0 255
-0.1310412 -0.1668288 0.1704946 255 0 255
-0.1320193 -0.1715922 0.1757091 255 0 255
-0.1294545 -0.1692529 0.1733001 255 0 255
-0.1253508 -0.1636698 0.1674034 255 0 255
-0.1237904 -0.1632523 0.1670532 255 0 255
-0.1219301 -0.1621818 0.1660001 255 0 255
-0.1176656 -0.1559132 0.1593538 255 0 255
-0.1093856 -0.1489221 0.1521938 255 0 255
-0.1082188 -0.1491139 0.1524896 255 0 255
-0.1081689 -0.1519139 0.155598 255 0 255
-0.1089148 -0.1566761 0.1608252 255 0 255
-0.1041663 -0.1483627 0.1519444 255 0 255
-0.1289109 -0.1532521 0.1537362 255 0 255
-0.1304124 -0.1586582 0.1595795 255 0 255
-0.1298613 -0.1601956 0.1613141 255 0 255
-0.1283091 -0.1597918 0.1609846 255 0 255
-0.1267628 -0.1593833 0.1606493 255 0 255
-0.1255431 -0.1596186 0.1609986 255 0 255
-0.1233708 -0.1579033 0.1592699 255 0 255
-0.1209061 -0.1555306 0.1568389 255 0 255
-0.1197079 -0.1557515 0.15717 255 0 255
-0.1175909 -0.1540156 0.1554139 255 0 255
-0.117005 -0.155532 0.157126 255 0 255
-0.1137224 -0.1539908 0.1556686 255 0 255
-0.1128227 -0.1548473 0.1566764 255 0 255
-0.1104792 -0.1524295 0.1541851 255 0 255
-0.1090142 -0.151969 0.153784 255 0 255
-0.1089523 -0.1547827 0.1568845 255 0 255
-0.1094101 -0.1589108 0.1613936 255 0 255
-0.1087338 -0.1604152 0.1630972 255 0 255
-0.1091812 -0.1680279 0.1714399 255 0 255
-0.1102518 -0.174144 0.1780912 255 0 255
-0.1256706 -0.1433311 0.1413037 255 0 255
-0.1288535 -0.1541621 0.1529046 255 0 255
-0.1280055 -0.1550529 0.1539426 255 0 255
-0.1284753 -0.1585384 0.1577174 255 0 255
-0.1262822 -0.1568294 0.1560146 255 0 255
-0.1247585 -0.1564141 0.1556751 255 0 255
-0.1229202 -0.1553429 0.1546421 255 0 255
-0.1207783 -0.1536136 0.1529125 255 0 255
-0.1177182 -0.1499189 0.1491034 255 0 255
-0.1162481 -0.1494798 0.1487329 255 0 255
-0.1144786 -0.1483822 0.1476651 255 0 255
-0.1139299 -0.1498979 0.1493614 255 0 255
-0.1124706 -0.149447 0.1489766 255 0 255
-0.1121947 -0.1516161 0.151366 255 0 255
-0.1107327 -0.1511591 0.1509742 255 0 255
-0.1092767 -0.1506978 0.150577 255 0 255
-0.107261 -0.1489162 0.1487787 255 0 255
-0.1066627 -0.1504209 0.1504652 255 0 255
-0.1057726 -0.1512657 0.1514522 255 0 255
-0.1051453 -0.1527685 0.1531383 255 0 255
-0.1047693 -0.1549309 0.1555261 255 0 255
-0.1046334 -0.1577547 0.1586182 255 0 255
-0.1049863 -0.1619028 0.1631204 255 0 255
-0.1063181 -0.1687026 0.1704465 255 0 255
-0.1063092 -0.1721971 0.1742608 255 0 255
-0.1069082 -0.181183 0.1840239 255 0 255
-0.1062871 -0.1833563 0.1864392 255 0 255
-0.1039801 -0.1808764 0.1838966 255 0 255
-0.1042715 -0.1857059 0.1891449 255 0 255
-0.1033594 -0.1872104 0.1908503 255 0 255
-0.1019789 -0.1873809 0.1911331 255 0 255
-0.0994869 -0.1842149 0.1878538 255 0 255
-0.09725034 -0.1817078 0.1852752 255 0 255
0.05145088 -0.3164352 0.3408896 255 0 255
-0.1306627 -0.1561222 0.1530689 255 0 255
-0.1287955 -0.1550687 0.1520694 255 0 255
-0.1272768 -0.1546603 0.1517428 255 0 255
-0.1270902 -0.1568551 0.1541381 255 0 255
-0.1252405 -0.1557877 0.1531215 255 0 255
-0.12308 -0.1540608 0.1514128 255 0 255
-0.1209403 -0.1523264 0.1496942 255 0 255
-0.1188215 -0.1505847 0.1479658 255 0 255
-0.1160978 -0.1475246 0.1448531 255 0 255
-0.1146467 -0.1470795 0.1444798 255 0 255
-0.1128963 -0.1459731 0.1434118 255 0 255
-0.1120645 -0.146834 0.1444072 255 0 255
-0.1109259 -0.1470348 0.14471 255 0 255
-0.1097859 -0.1472327 0.1450094 255 0 255
-0.1083542 -0.146768 0.1446121 255 0 255
-0.1072153 -0.1469593 0.1449037 255 0 255
-0.1055095 -0.145826 0.1438016 255 0 255
-0.1049336 -0.147333 0.1454768 255 0 255
-0.1040661 -0.1481774 0.1464553 255 0 255
-0.1031897 -0.1490199 0.1474323 255 0 255
-0.1028398 -0.1511872 0.1498055 255 0 255
-0.1027298 -0.1540186 0.1528805 255 0 255
-0.1023281 -0.1561872 0.1552584 255 0 255
-0.1024149 -0.1596858 0.1590412 255 0 255
-0.1022099 -0.1625213 0.1621266 255 0 255
-0.1019731 -0.1653579 0.1652152 255 0 255
-0.1024391 -0.170195 0.1704193 255 0 255
-0.1016453 -0.171701 0.1721066 255 0 255
-0.100835 -0.1732056 0.1737933 255 0 255
-0.1004748 -0.1760449 0.1768926 255 0 255
-0.1003124 -0.1795532 0.1807018 255 0 255
-0.09965894 -0.1817248 0.1830985 255 0 255
-0.09942498 -0.1852347 0.1869139 255 0 255
-0.09980554 -0.1907555 0.1928621 255 0 255
-0.09862407 -0.1915872 0.1938449 255 0 255
-0.09617173 -0.1883914 0.190558 255 0 255
-0.0932027 -0.188021 0.1903637 255 0 255
0.03330388 -0.3137875 0.3338788 255 0 255
0.03626356 -0.3189658 0.3396322 255 0 255
0.03853586 -0.3194257 0.3402492 255 0 255
-0.129714 -0.1528695 0.1478131 255 0 255
-0.1295762 -0.1550732 0.1501974 255 0 255
-0.1283982 -0.1553188 0.1505536 255 0 255
-0.1265484 -0.1542531 0.14955 255 0 255
-0.1257059 -0.1551456 0.1505763 255 0 255
-0.1238715 -0.1540699 0.1495602 255 0 255
-0.1217265 -0.152332 0.1478548 255 0 255
-0.1196024 -0.1505865 0.1461395 255 0 255
-0.1174991 -0.1488338 0.1444144 255 0 255
-0.1151041 -0.1464154 0.141995 255 0 255
-0.1133556 -0.1453067 0.1409353 255 0 255
-0.1119258 -0.144852 0.1405548 255 0 255
-0.1111052 -0.145714 0.1415443 255 0 255
-0.1096802 -0.145252 0.1411551 255 0 255
-0.1082614 -0.1447859 0.1407605 255 0 255
-0.1074292 -0.1456403 0.141742 255 0 255
-0.1063017 -0.14583 0.1420304 255 0 255
-0.1043249 -0.1440257 0.1402378 255 0 255
-0.103485 -0.1448719 0.1412102 255 0 255
-0.1026363 -0.1457164 0.1421812 255 0 255
-0.1017788 -0.1465592 0.1431506 255 0 255
-0.1014474 -0.1487323 0.145511 255 0 255
-0.1010921 -0.1509059 0.1478735 255 0 255
-0.1007127 -0.1530799 0.1502379 255 0 255
-0.1005654 -0.155922 0.1533029 255 0 255
-0.09988181 -0.1574288 0.1549719 255 0 255
-0.09943029 -0.1596034 0.1573414 255 0 255
-0.0991993 -0.1624474 0.1604138 255 0 255
-0.09821403 -0.1632828 0.1613823 255 0 255
-0.09793097 -0.1661271 0.1644582 255 0 255
-0.09738294 -0.1683013 0.166833 255 0 255
-0.09658141 -0.1698037 0.1685041 255 0 255
-0.09553783 -0.1706329 0.1694691 255 0 255
-0.0953722 -0.174149 0.1732571 255 0 255
-0.09538485 -0.1783392 0.1777558 255 0 255
-0.09492222 -0.1811848 0.1808442 255 0 255
-0.09442769 -0.1840305 0.1839345 255 0 255
-0.09472645 -0.1895725 0.1898637 255 0 255
0.003835161 -0.3237576 0.339834 255 0 255
0.007720686 -0.3173755 0.3332084 255 0 255
0.009862253 -0.3172372 0.3331783 255 0 255
0.01146297 -0.3109801 0.3265589 255 0 255
-0.1293094 -0.1531028 0.14631 255 0 255
-0.1291748 -0.1553147 0.1486848 255 0 255
-0.1273234 -0.1542475 0.1476907 255 0 255
-0.1254851 -0.1531743 0.1466886 255 0 255
-0.1239913 -0.1527526 0.1463554 255 0 255
-0.1218485 -0.1510095 0.144661 255 0 255
-0.1194028 -0.1486 0.1422779 255 0 255
-0.1176254 -0.1475011 0.1412426 255 0 255
-0.1155452 -0.145736 0.1395189 255 0 255
-0.1131734 -0.1433024 0.1371035 255 0 255
