ply
format ascii 1.0
Comment Generated by Floating Hands
element vertex 1110
property double x
property double y
property double z
property uchar red
property uchar green
property uchar blue
end_header
0.05501371 0.009281734 0.1759656 255 0 255
0.05599288 0.009436772 0.1757112 255 0 255
0.0572532 0.009386102 0.17639 255 0 255
0.05851987 0.009338557 0.1770633 255 0 255
0.05950321 0.00950054 0.1767965 255 0 255
0.0604854 0.009664441 0.1765262 255 0 255
0.06146644 0.009830247 0.1762523 255 0 255
0.06214564 0.0102025 0.1750434 255 0 255
0.06312069 0.01037152 0.1747636 255 0 255
0.06409458 0.01054245 0.1744804 255 0 255
0.06506728 0.01071528 0.1741936 255 0 255
0.06603879 0.01089 0.1739033 255 0 255
0.06732813 0.01086541 0.1745357 255 0 255
0.06797816 0.01124524 0.1733124 255 0 255
0.06796689 0.01202541 0.1702401 255 0 255
0.06727243 0.01320176 0.1653259 255 0 255
0.06620662 0.0145716 0.1594981 255 0 255
0.06543325 0.01573697 0.1546016 255 0 255
0.0646223 0.01689711 0.1497136 255 0 255
0.06411843 0.01785542 0.1457524 255 0 255
0.06358436 0.01880972 0.1417977 255 0 255
0.06337196 0.01956488 0.1387654 255 0 255
0.06349213 0.02012313 0.1366517 255 0 255
-0.1170129 0.01662008 0.1435634 255 0 255
-0.116161 0.01644014 0.1439149 255 0 255
-0.1153076 0.01626193 0.1442634 255 0 255
-0.1148533 0.01588582 0.1455031 255 0 255
-0.1143904 0.01550996 0.1467426 255 0 255
-0.1143125 0.01493333 0.1488789 255 0 255
-0.1142189 0.01435563 0.1510177 255 0 255
-0.114496 0.01357439 0.1540588 255 0 255
-0.1151331 0.01258758 0.1580062 255 0 255
-0.1164985 0.0111893 0.1637664 255 0 255
-0.1144395 0.01162571 0.161404 255 0 255
-0.1112845 0.01268366 0.1563146 255 0 255
-0.1059607 0.01498673 0.1457666 255 0 255
-0.00655143 0.01732151 0.1232877 255 0 255
-0.005133143 0.01477975 0.1339254 255 0 255
-0.004066949 0.0138804 0.1377644 255 0 255
-0.003168854 0.01368518 0.1386885 255 0 255
-0.002193186 0.0132584 0.1405791 255 0 255
-0.001276258 0.01306731 0.1414963 255 0 255
-0.0004296532 0.01311138 0.1414407 255 0 255
0.0004983374 0.01292415 0.1423511 255 0 255
0.001433748 0.01273897 0.143258 255 0 255
0.002376558 0.01255587 0.1441614 255 0 255
0.003419945 0.01214262 0.1460293 255 0 255
0.004381388 0.01196396 0.146925 255 0 255
0.005451036 0.0115557 0.1487846 255 0 255
0.006535695 0.01115009 0.1506397 255 0 255
0.007635377 0.01074723 0.1524903 255 0 255
0.008750028 0.01034712 0.1543363 255 0 255
0.009995819 0.009719077 0.1571437 255 0 255
0.01114419 0.009324931 0.1589799 255 0 255
0.01243132 0.008703474 0.1617765 255 0 255
0.01361329 0.008315444 0.1636024 255 0 255
0.01454711 0.008389506 0.1634946 255 0 255
0.0156158 0.00823611 0.1643474 255 0 255
0.01655246 0.00831407 0.1642325 255 0 255
0.01734566 0.008622425 0.1631514 255 0 255
0.0184243 0.008475394 0.1639929 255 0 255
0.01951008 0.008330855 0.1648301 255 0 255
0.02091175 0.007733649 0.1675858 255 0 255
0.02217755 0.007367605 0.1693741 255 0 255
0.02345795 0.007004814 0.1711569 255 0 255
0.02491889 0.006418886 0.1738938 255 0 255
0.02623239 0.006063185 0.1756647 255 0 255
0.02773389 0.005485159 0.1783884 255 0 255
0.02890301 0.005362047 0.1791889 255 0 255
0.02971689 0.005691506 0.17807 255 0 255
0.03052252 0.006022103 0.1769487 255 0 255
0.03131985 0.006353743 0.1758253 255 0 255
0.03210885 0.006686514 0.1746997 255 0 255
0.03308581 0.006796993 0.1745268 255 0 255
0.033862 0.007132216 0.1733963 255 0 255
0.03524125 0.006801256 0.175124 255 0 255
0.03642728 0.006695943 0.1758928 255 0 255
0.03762007 0.006593415 0.1766566 255 0 255
0.03924981 0.006051692 0.1793179 255 0 255
0.04046357 0.005955787 0.1800703 255 0 255
0.04190668 0.005642705 0.1817674 255 0 255
0.04313759 0.005553099 0.1825089 255 0 255
0.04460526 0.005247318 0.1841934 255 0 255
0.04585312 0.005164105 0.1849238 255 0 255
0.04734524 0.004865798 0.1865955 255 0 255
0.0483686 0.005006645 0.1863688 255 0 255
0.04890057 0.005583531 0.1842487 255 0 255
0.04916773 0.006376777 0.1811845 255 0 255
0.04966413 0.006952822 0.179065 255 0 255
0.05014459 0.007528618 0.1769454 255 0 255
0.05112936 0.007674408 0.1767087 255 0 255
0.05211312 0.00782213 0.1764685 255 0 255
0.0530959 0.007971753 0.1762248 255 0 255
0.05407763 0.008123302 0.1759775 255 0 255
0.0553333 0.008064185 0.1766644 255 0 255
0.05631665 0.008220137 0.1764093 255 0 255
0.05758133 0.008166604 0.1770864 255 0 255
0.0588523 0.008116215 0.1777579 255 0 255
0.06012958 0.008068978 0.178424 255 0 255
0.0608261 0.008444027 0.1772191 255 0 255
0.06181128 0.008610844 0.1769443 255 0 255
0.06249446 0.008987891 0.1757355 255 0 255
0.06347365 0.009157924 0.1754548 255 0 255
0.06445165 0.009329877 0.1751706 255 0 255
0.0654285 0.009503752 0.174883 255 0 255
0.06703528 0.009268107 0.1764445 255 0 255
0.06833623 0.0092421 0.1770728 255 0 255
0.06899746 0.009628097 0.1758472 255 0 255
0.06932356 0.01021841 0.1736973 255 0 255
0.06897338 0.01121385 0.1697049 255 0 255
0.06792507 0.01261025 0.163877 255 0 255
0.06716932 0.0137985 0.1589792 255 0 255
0.06637597 0.01498145 0.1540899 255 0 255
0.06588985 0.01595887 0.1501265 255 0 255
0.0653735 0.01693225 0.1461695 255 0 255
0.06517895 0.0177028 0.1431338 255 0 255
0.06496152 0.01847061 0.1401025 255 0 255
-0.1178723 0.01530784 0.1451206 255 0 255
-0.1166053 0.01532791 0.1445843 255 0 255
-0.1161521 0.01494587 0.145826 255 0 255
-0.1160911 0.01436071 0.1479609 255 0 255
-0.1152203 0.01418263 0.1483088 255 0 255
-0.1155286 0.0133918 0.1513421 255 0 255
-0.1162043 0.01239292 0.1552783 255 0 255
-0.11685 0.0113902 0.1592223 255 0 255
-0.117083 0.01059067 0.1622737 255 0 255
-0.1169138 0.009996502 0.1644283 255 0 255
-0.1137233 0.0110681 0.1593608 255 0 255
-0.1109464 0.01194067 0.1551783 255 0 255
-0.1093095 0.0121927 0.1536965 255 0 255
-0.1069558 0.01286988 0.1503924 255 0 255
-0.1046295 0.01355404 0.1470748 255 0 255
-0.1030462 0.01382188 0.1455629 255 0 255
-0.005763377 0.01658058 0.1230613 255 0 255
-0.004364207 0.01423763 0.1327146 255 0 255
-0.00328599 0.01332507 0.1365463 255 0 255
-0.002177168 0.01241556 0.1403733 255 0 255
-0.001185761 0.01198354 0.1422582 255 0 255
-0.0002570609 0.01179092 0.1431707 255 0 255
0.0007607929 0.01136358 0.1450479 255 0 255
0.001708239 0.01117533 0.145953 255 0 255
0.002573682 0.01122547 0.1458871 255 0 255
0.003438829 0.01127729 0.1458181 255 0 255
0.004400757 0.01109493 0.1467129 255 0 255
0.005471003 0.01067907 0.1485707 255 0 255
0.006556249 0.0102659 0.150424 255 0 255
0.007547895 0.01009059 0.1513069 255 0 255
0.008659308 0.009682652 0.1531515 255 0 255
0.009901968 0.009042958 0.1559565 255 0 255
0.01092699 0.00887523 0.1568266 255 0 255
0.01220717 0.008241856 0.1596212 255 0 255
0.01325435 0.008079397 0.1604823 255 0 255
0.01430872 0.007919317 0.1613393 255 0 255
0.01537028 0.007761634 0.1621922 255 0 255
0.01643904 0.007606389 0.1630408 255 0 255
0.01722872 0.007918401 0.1619612 255 0 255
0.01845099 0.007535302 0.1637638 255 0 255
0.01953729 0.007387087 0.1646002 255 0 255
0.02063068 0.007241385 0.1654322 255 0 255
0.02204786 0.006636115 0.1681798 255 0 255
0.02348732 0.006034811 0.1709207 255 0 255
0.02478306 0.005667908 0.1726961 255 0 255
0.02626322 0.005074427 0.175424 255 0 255
0.02776555 0.004485128 0.178145 255 0 255
0.02893524 0.004358415 0.1789448 255 0 255
0.02993066 0.004463186 0.1787833 255 0 255
0.03055541 0.005026596 0.1767067 255 0 255
0.03154185 0.005134374 0.1765394 255 0 255
0.03233499 0.005471584 0.1754142 255 0 255
0.03311981 0.005809864 0.1742869 255 0 255
0.03409647 0.005922502 0.1741106 255 0 255
0.0352763 0.005810817 0.1748834 255 0 255
0.0364629 0.005701912 0.1756513 255 0 255
0.03786778 0.005370531 0.1773654 255 0 255
0.03928692 0.005042916 0.179073 255 0 255
0.04072032 0.004719115 0.1807742 255 0 255
0.04194515 0.004623057 0.1815199 255 0 255
0.04317663 0.004529883 0.1822606 255 0 255
0.04464504 0.004216782 0.1839434 255 0 255
0.04612764 0.003907657 0.1856194 255 0 255
0.04738643 0.003824435 0.1863429 255 0 255
0.04841023 0.003965554 0.1861164 255 0 255
0.04894239 0.004550399 0.1839983 255 0 255
0.04920953 0.0053554 0.180937 255 0 255
0.04970609 0.005939395 0.1788195 255 0 255
0.05018666 0.006523103 0.1767019 255 0 255
0.05117192 0.006669249 0.1764654 255 0 255
0.05215614 0.006817277 0.1762253 255 0 255
0.05340705 0.006749714 0.1769203 255 0 255
0.05466442 0.006685176 0.17761 255 0 255
0.05592814 0.006623745 0.1782942 255 0 255
0.05691937 0.00678123 0.1780373 255 0 255
0.05819207 0.006725466 0.1787116 255 0 255
0.05947109 0.006672855 0.1793804 255 0 255
0.06046642 0.006837365 0.179111 255 0 255
0.06116689 0.007217205 0.1779062 255 0 255
0.06215619 0.007385001 0.1776305 255 0 255
0.06314439 0.007554736 0.1773515 255 0 255
0.06382663 0.007937912 0.1761402 255 0 255
0.06450033 0.008321691 0.1749275 255 0 255
0.06578971 0.008285789 0.1755665 255 0 255
0.06708521 0.008253118 0.1761998 255 0 255
0.06838682 0.008223725 0.1768274 255 0 255
0.0693714 0.008405779 0.1765261 255 0 255
0.07002798 0.008797242 0.1752992 255 0 255
0.07001516 0.009602812 0.1722292 255 0 255
0.06964516 0.01061222 0.1682429 255 0 255
0.06924474 0.01161789 0.1642626 255 0 255
0.06881393 0.01261978 0.1602883 255 0 255
0.06800787 0.01382164 0.1554041 255 0 255
0.06751285 0.01481485 0.1514437 255 0 255
0.06733985 0.01560153 0.1484035 255 0 255
0.06678806 0.01658722 0.1444551 255 0 255
-0.1179091 0.01439151 0.1448942 255 0 255
-0.1170493 0.01420925 0.1452482 255 0 255
-0.1161881 0.01402875 0.1455993 255 0 255
-0.1165277 0.01322847 0.1486246 255 0 255
-0.1160502 0.01284138 0.1498675 255 0 255
-0.1167452 0.01182879 0.153796 255 0 255
-0.1174103 0.0108123 0.1577325 255 0 255
-0.1168858 0.01042207 0.1589826 255 0 255
-0.1163528 0.0100323 0.1602323 255 0 255
-0.1154318 0.009854405 0.1605806 255 0 255
-0.1126302 0.01073881 0.1564153 255 0 255
-0.1113519 0.01078077 0.1558471 255 0 255
-0.1077177 0.01151646 0.1519751 255 0 255
-0.1068292 0.01135503 0.1522929 255 0 255
-0.003602565 0.01370547 0.1315001 255 0 255
-0.002371869 0.01229731 0.1372603 255 0 255
-0.001169223 0.01113405 0.1420471 255 0 255
-0.0001621127 0.01069686 0.1439262 255 0 255
0.0008601507 0.01026217 0.1458012 255 0 255
0.001811907 0.01007037 0.1467052 255 0 255
0.002771075 0.009880676 0.1476056 255 0 255
0.003550995 0.010173 0.1465697 255 0 255
0.004517263 0.009987146 0.1474634 255 0 255
0.005490886 0.009803422 0.1483533 255 0 255
0.00647189 0.009621926 0.1492395 255 0 255
0.00746019 0.009442624 0.1501219 255 0 255
0.008568362 0.009026889 0.1519649 255 0 255
0.009691495 0.008613938 0.1538034 255 0 255
0.01070936 0.008441948 0.1546734 255 0 255
0.0119826 0.007796642 0.157466 255 0 255
0.01327838 0.007154838 0.160253 255 0 255
0.01433328 0.006991083 0.1611091 255 0 255
0.01539537 0.006829718 0.1619611 255 0 255
0.01646465 0.006670813 0.1628089 255 0 255
0.01739787 0.006750599 0.1626914 255 0 255
0.01847758 0.006596258 0.1635311 255 0 255
0.01956442 0.0064444 0.1643666 255 0 255
0.020813 0.006059808 0.1661573 255 0 255
0.02223476 0.005443594 0.1689016 255 0 255
0.02351654 0.005065884 0.1706807 255 0 255
0.02497908 0.004457384 0.1734122 255 0 255
0.02663374 0.003619248 0.1770941 255 0 255
0.02814449 0.003019445 0.1798112 255 0 255
0.02914486 0.003122917 0.1796528 255 0 255
0.03014455 0.003228309 0.1794908 255 0 255
0.03077329 0.003800015 0.1774155 255 0 255
0.03157505 0.004140222 0.1762935 255 0 255
0.03236851 0.004481491 0.1751694 255 0 255
0.03335014 0.004592919 0.174996 255 0 255
0.03433103 0.004706242 0.1748192 255 0 255
0.03551524 0.004591451 0.1755904 255 0 255
0.03670619 0.00447943 0.1763568 255 0 255
0.03790393 0.004370257 0.1771182 255 0 255
0.03910841 0.00426394 0.1778748 255 0 255
0.04053879 0.003932314 0.1795749 255 0 255
0.04198338 0.003604557 0.1812685 255 0 255
0.04344218 0.003280647 0.1829554 255 0 255
0.04491512 0.002960711 0.1846357 255 0 255
0.0464022 0.002644749 0.1863091 255 0 255
0.0476654 0.002558534 0.187031 255 0 255
0.0486934 0.002700496 0.1868038 255 0 255
0.04898399 0.003518459 0.1837439 255 0 255
0.04950035 0.004111085 0.1816276 255 0 255
0.05000075 0.004703508 0.1795113 255 0 255
0.05074193 0.005072704 0.1783353 255 0 255
0.05173509 0.005220243 0.1780971 255 0 255
0.05272723 0.005369753 0.1778553 255 0 255
0.0539862 0.005299835 0.1785477 255 0 255
0.05525163 0.005233007 0.1792347 255 0 255
0.0565234 0.005169287 0.1799163 255 0 255
0.05752247 0.005328308 0.1796576 255 0 255
0.05880323 0.005270288 0.1803292 255 0 255
0.0598038 0.005433806 0.1800624 255 0 255
0.06080327 0.005599305 0.1797921 255 0 255
0.0618016 0.005766789 0.1795181 255 0 255
0.06279876 0.005936223 0.1792407 255 0 255
0.0634935 0.006323511 0.1780309 255 0 255
0.06417968 0.006711461 0.1768197 255 0 255
0.06485734 0.007100058 0.175607 255 0 255
0.06615102 0.007061426 0.1762442 255 0 255
0.06745078 0.007026022 0.1768757 255 0 255
0.06875671 0.006993892 0.1775014 255 0 255
0.06974539 0.007177025 0.1771992 255 0 255
0.07073281 0.007362119 0.1768933 255 0 255
0.07105777 0.007970259 0.174744 255 0 255
0.0710326 0.008787431 0.1716769 255 0 255
0.07132217 0.009393144 0.1695312 255 0 255
0.07125435 0.01020633 0.1664701 255 0 255
0.07047313 0.01143255 0.1615823 255 0 255
0.07000314 0.01244633 0.1576172 255 0 255
0.06950283 0.01345608 0.1536586 255 0 255
0.0686163 0.01466716 0.1487951 255 0 255
-0.1183569 0.01326758 0.1455513 255 0 255
-0.1170852 0.01329362 0.145018 255 0 255
-0.116628 0.01290247 0.146259 255 0 255
-0.1169641 0.01208981 0.1492827 255 0 255
-0.1168801 0.01148618 0.1514189 255 0 255
-0.1171744 0.01066909 0.1544519 255 0 255
-0.1174458 0.009849502 0.1574901 255 0 255
-0.1169211 0.009455092 0.1587391 255 0 255
-0.1156216 0.009490096 0.1581908 255 0 255
-0.1139482 0.009743549 0.1567367 255 0 255
-0.1119117 0.01021741 0.1543728 255 0 255
-0.1102677 0.01048066 0.1529003 255 0 255
-0.1093743 0.01031395 0.1532269 255 0 255
-0.1073839 0.01080267 0.1508351 255 0 255
-0.1075835 0.009985949 0.1538706 255 0 255
-0.1077601 0.009167083 0.1569105 255 0 255
-0.1064962 0.009225479 0.1563193 255 0 255
-0.1024319 0.01105053 0.1484413 255 0 255
-0.002567012 0.01220306 0.1341499 255 0 255
-0.001152699 0.01028552 0.1418327 255 0 255
-6.703666E-05 0.009596101 0.1446764 255 0 255
0.0009596322 0.009154022 0.1465492 255 0 255
0.001915728 0.00895871 0.1474521 255 0 255
0.002700101 0.009253532 0.1464199 255 0 255
0.003569881 0.009305811 0.1463507 255 0 255
0.004439388 0.009359754 0.1462785 255 0 255
0.00540966 0.009172103 0.1471678 255 0 255
0.006387285 0.008986608 0.1480534 255 0 255
0.007263448 0.00904614 0.1479713 255 0 255
0.008364518 0.0086223 0.1498133 255 0 255
0.009480572 0.008201296 0.1516506 255 0 255
0.01049126 0.00802506 0.1525205 255 0 255
0.01175754 0.007367816 0.1553112 255 0 255
0.01317436 0.006472693 0.1590581 255 0 255
0.01435776 0.006063903 0.1608753 255 0 255
0.01555601 0.005658143 0.1626875 255 0 255
0.01649017 0.005736295 0.1625733 255 0 255
0.01742382 0.005816263 0.1624558 255 0 255
0.01850406 0.00565828 0.1632947 255 0 255
0.01959143 0.00550278 0.1641293 255 0 255
0.02084068 0.005110737 0.1659181 255 0 255
0.02226321 0.004483245 0.1686596 255 0 255
0.02387044 0.003621393 0.172352 255 0 255
0.02517517 0.003240312 0.1741226 255 0 255
0.02683458 0.002387475 0.1778002 255 0 255
0.02852376 0.001539639 0.1814697 255 0 255
0.02953219 0.00164413 0.1813101 255 0 255
0.03053996 0.001750556 0.181147 255 0 255
0.03136174 0.002094937 0.1800264 255 0 255
0.03198618 0.002676033 0.1779503 255 0 255
0.03259471 0.003257392 0.1758732 255 0 255
0.03358059 0.003369487 0.1756993 255 0 255
0.03436529 0.003717774 0.1745706 255 0 255
0.03555005 0.003599432 0.175341 255 0 255
0.03674161 0.003483867 0.1761066 255 0 255
0.03815169 0.003138209 0.1778163 255 0 255
0.03936053 0.003028812 0.1785712 255 0 255
0.0407954 0.002690303 0.1802688 255 0 255
0.04224448 0.002355678 0.1819599 255 0 255
0.04393464 0.001793939 0.1845904 255 0 255
0.04541586 0.001467665 0.1862673 255 0 255
0.04667684 0.001375419 0.1869928 255 0 255
0.04770627 0.001515725 0.1867694 255 0 255
0.04849284 0.001886978 0.1855994 255 0 255
0.04877969 0.002716138 0.1825434 255 0 255
0.04929246 0.00331615 0.18043 255 0 255
0.05004238 0.003688608 0.1792568 255 0 255
0.05078385 0.004061908 0.178082 255 0 255
0.05203803 0.003983534 0.1787824 255 0 255
0.05329866 0.003908191 0.1794775 255 0 255
0.05483379 0.003610802 0.181104 255 0 255
0.05583918 0.0037668 0.1808517 255 0 255
0.057119 0.003700822 0.1815305 255 0 255
0.05784678 0.004084783 0.1803362 255 0 255
0.05913183 0.004023931 0.181006 255 0 255
0.06013656 0.004188415 0.1807384 255 0 255
0.06114017 0.004354916 0.1804672 255 0 255
0.06184863 0.004744301 0.1792626 255 0 255
0.06284621 0.004914108 0.1789853 255 0 255
0.06354123 0.005305565 0.1777766 255 0 255
0.06422767 0.005697665 0.1765665 255 0 255
0.0652144 0.005872053 0.1762807 255 0 255
0.06651235 0.005830687 0.176916 255 0 255
0.06781643 0.00579254 0.1775456 255 0 255
0.06880683 0.005974126 0.177247 255 0 255
0.06979594 0.006157653 0.176945 255 0 255
0.07078379 0.006343155 0.1766393 255 0 255
0.0711088 0.006959231 0.1744921 255 0 255
0.07141793 0.007574498 0.1723459 255 0 255
0.07238733 0.007763023 0.1720344 255 0 255
0.07267199 0.008377856 0.1698884 255 0 255
0.07259545 0.009203236 0.1668293 255 0 255
0.07214681 0.01023686 0.1628609 255 0 255
0.07166788 0.0112665 0.1588989 255 0 255
0.07044625 0.01271057 0.1531221 255 0 255
-0.1179811 0.01256213 0.1444305 255 0 255
-0.1175286 0.01216586 0.1456719 255 0 255
-0.1170677 0.01176986 0.1469131 255 0 255
-0.1174003 0.01094476 0.1499352 255 0 255
-0.1173126 0.01033247 0.1520707 255 0 255
-0.1176033 0.009502976 0.1551021 255 0 255
-0.1170905 0.009104702 0.1563491 255 0 255
-0.1161822 0.008924368 0.1566995 255 0 255
-0.114506 0.00918238 0.1552518 255 0 255
-0.1132223 0.009226047 0.1546943 255 0 255
-0.1115683 0.009492585 0.1532307 255 0 255
-0.1106723 0.009323003 0.1535616 255 0 255
-0.1097749 0.009155281 0.1538893 255 0 255
-0.1081455 0.009432568 0.1524057 255 0 255
-0.1079761 0.008825157 0.1545353 255 0 255
-0.1081491 0.007993976 0.1575735 255 0 255
-0.1079446 0.007384349 0.1597081 255 0 255
-0.104917 0.008567802 0.1545712 255 0 255
-0.1015844 0.0099855 0.1485058 255 0 255
-0.003395982 0.01437278 0.1223483 255 0 255
-0.001433118 0.01043277 0.1377521 255 0 255
-0.0002060892 0.009234139 0.1425248 255 0 255
0.0008134205 0.008784072 0.1443962 255 0 255
0.001762283 0.008584591 0.1452987 255 0 255
0.002539254 0.008882879 0.1442682 255 0 255
0.003308253 0.009182425 0.1432353 255 0 255
0.004166568 0.009235766 0.1431641 255 0 255
0.005125781 0.009043657 0.1440535 255 0 255
0.006092363 0.008853707 0.1449392 255 0 255
0.006957385 0.008912566 0.1448582 255 0 255
0.008160252 0.00823408 0.147662 255 0 255
0.009269201 0.00780498 0.1494983 255 0 255
0.01039312 0.007378728 0.1513298 255 0 255
0.01165624 0.006709849 0.154118 255 0 255
0.01307003 0.005799274 0.1578615 255 0 255
0.01438214 0.005137801 0.1606378 255 0 255
0.01558102 0.004724569 0.1624481 255 0 255
0.01665518 0.004558645 0.1632936 255 0 255
0.01759307 0.004639108 0.1631758 255 0 255
0.01853044 0.0047214 0.1630546 255 0 255
0.01961834 0.004562265 0.1638883 255 0 255
0.02071334 0.004405635 0.1647177 255 0 255
0.02213282 0.003766499 0.1674568 255 0 255
0.02389967 0.002647034 0.1721024 255 0 255
0.02537138 0.002016752 0.1748271 255 0 255
0.02720565 0.0009078137 0.1794558 255 0 255
0.02872941 0.0002866928 0.1821654 255 0 255
0.02991987 0.0001512056 0.1829595 255 0 255
0.03075412 0.0004988846 0.1818417 255 0 255
0.03139469 0.001087593 0.1797687 255 0 255
0.03201933 0.00167655 0.1776946 255 0 255
0.03282099 0.002026791 0.1765712 255 0 255
0.03381112 0.002139571 0.1763968 255 0 255
0.03480044 0.00225429 0.1762188 255 0 255
0.03599335 0.002133248 0.1769869 255 0 255
0.03719307 0.002015071 0.1777502 255 0 255
0.03839951 0.001899696 0.1785085 255 0 255
0.03961273 0.001787273 0.1792618 255 0 255
0.0410521 0.001441898 0.1809569 255 0 255
0.04250571 0.001100401 0.1826453 255 0 255
0.04397349 0.0007628567 0.1843271 255 0 255
0.04545546 0.0004292702 0.1860022 255 0 255
0.04648252 0.0005673493 0.1857833 255 0 255
0.04774691 0.0004741134 0.1865036 255 0 255
0.04829177 0.001082295 0.1843928 255 0 255
0.04882064 0.001690354 0.1822817 255 0 255
0.04933356 0.002298301 0.1801704 255 0 255
0.05008374 0.002674872 0.1789984 255 0 255
0.05108256 0.002821694 0.1787631 255 0 255
0.05234107 0.002740372 0.1794619 255 0 255
0.05360603 0.002662139 0.1801552 255 0 255
0.05487742 0.002587031 0.1808432 255 0 255
0.0561552 0.002515028 0.1815259 255 0 255
0.05743937 0.002446193 0.182203 255 0 255
0.05817109 0.002834843 0.1810088 255 0 255
0.05946049 0.002771156 0.1816769 255 0 255
0.06018257 0.003162621 0.1804775 255 0 255
0.06147714 0.00310412 0.1811364 255 0 255
0.06218953 0.003498278 0.1799319 255 0 255
0.06319129 0.003669089 0.1796537 255 0 255
0.06419187 0.00384189 0.179372 255 0 255
0.06488596 0.004239452 0.1781609 255 0 255
0.06557145 0.00463768 0.1769484 255 0 255
0.06687373 0.004593546 0.1775818 255 0 255
0.0681821 0.004552747 0.1782096 255 0 255
0.06885657 0.004955532 0.1769886 255 0 255
0.06984614 0.005139446 0.1766867 255 0 255
0.07083444 0.005325365 0.1763813 255 0 255
0.0711595 0.005949415 0.1742361 255 0 255
0.07180329 0.006355217 0.173009 255 0 255
0.07311504 0.006328149 0.1736123 255 0 255
0.07374892 0.006736442 0.1723805 255 0 255
0.07402867 0.007360443 0.1702343 255 0 255
0.07394341 0.008197944 0.1671772 255 0 255
0.07348219 0.009246719 0.1632131 255 0 255
0.07192142 0.0109305 0.1565264 255 0 255
-0.118428 0.01143292 0.1450784 255 0 255
-0.1183801 0.01081481 0.1472069 255 0 255
-0.1179118 0.01041312 0.1484499 255 0 255
-0.1178361 0.009793339 0.1505822 255 0 255
-0.1169496 0.009610727 0.150935 255 0 255
-0.1164557 0.009210035 0.1521771 255 0 255
-0.1155627 0.009030339 0.1525251 255 0 255
-0.1146683 0.008852441 0.1528698 255 0 255
-0.1137725 0.008676338 0.1532114 255 0 255
-0.1124954 0.008724776 0.152652 255 0 255
-0.1116004 0.008552979 0.1529859 255 0 255
-0.1103313 0.008607089 0.1524162 255 0 255
-0.1094371 0.008439625 0.1527425 255 0 255
-0.108907 0.008048554 0.1539687 255 0 255
-0.1083684 0.007657966 0.1551943 255 0 255
-0.1085378 0.006814469 0.1582307 255 0 255
-0.1076202 0.006651004 0.1585507 255 0 255
-0.1059993 0.006945361 0.157051 255 0 255
-0.1030019 0.008158552 0.1519054 255 0 255
-0.1000468 0.009381043 0.146742 255 0 255
-0.001937092 0.01136921 0.1307819 255 0 255
-0.0005799774 0.009645454 0.1374803 255 0 255
0.0005848323 0.008682561 0.1412796 255 0 255
0.001522595 0.008478677 0.142182 255 0 255
0.002288328 0.00878025 0.1411534 255 0 255
0.003046081 0.009083036 0.1401225 255 0 255
0.00399066 0.008884588 0.1410153 255 0 255
0.004841377 0.008939222 0.1409417 255 0 255
0.005901999 0.008494105 0.1427899 255 0 255
0.006977675 0.008051675 0.1446337 255 0 255
0.00806837 0.00761201 0.1464729 255 0 255
0.009174072 0.007175126 0.1483076 255 0 255
0.01029473 0.006741065 0.1501376 255 0 255
0.01143035 0.006309876 0.1519629 255 0 255
0.01296544 0.005134566 0.1566633 255 0 255
0.01427444 0.0044615 0.1594371 255 0 255
0.01560596 0.003792064 0.162205 255 0 255
0.01682031 0.00337443 0.1640083 255 0 255
0.01790597 0.003207659 0.1648481 255 0 255
0.01899873 0.003043405 0.1656837 255 0 255
0.01994749 0.00312872 0.1655579 255 0 255
0.02105065 0.002969151 0.1663852 255 0 255
0.02247853 0.002319484 0.1691204 255 0 255
0.02409136 0.001427866 0.1728046 255 0 255
0.02573412 0.0005411063 0.1764808 255 0 255
0.02740679 -0.0003407022 0.180149 255 0 255
0.02893518 -0.0009726424 0.1828552 255 0 255
0.02995214 -0.0008669003 0.1826946 255 0 255
0.0307867 -0.0005151383 0.1815779 255 0 255
0.03142747 8.138984E-05 0.1795069 255 0 255
0.0322416 0.0004350161 0.1783863 255 0 255
0.03304736 0.0007897434 0.1772634 255 0 255
0.0340417 0.0009031846 0.1770883 255 0 255
0.03523596 0.0007766943 0.1778591 255 0 255
0.03643702 0.0006529996 0.178625 255 0 255
0.03743662 0.0007731909 0.178438 255 0 255
0.03864744 0.0006547688 0.1791947 255 0 255
0.039865 0.0005392616 0.1799465 255 0 255
0.04108927 0.0004266276 0.1806932 255 0 255
0.04276694 -0.0001612709 0.1833248 255 0 255
0.04446638 -0.0007442804 0.1859481 255 0 255
0.04572574 -0.0008460061 0.1866764 255 0 255
0.04652233 -0.0004695184 0.1855143 255 0 255
0.04778733 -0.0005662182 0.1862337 255 0 255
0.04809014 0.0002864303 0.183184 255 0 255
0.04886139 0.0006658433 0.182016 255 0 255
0.04937441 0.001281687 0.1799068 255 0 255
0.05037834 0.001427397 0.1796743 255 0 255
0.05112411 0.001809504 0.1785008 255 0 255
0.05264416 0.001490861 0.1801353 255 0 255
0.0536488 0.001643046 0.1798913 255 0 255
0.05518914 0.001331738 0.1815132 255 0 255
0.05647128 0.001256877 0.1821941 255 0 255
0.05803561 0.0009536528 0.1838023 255 0 255
0.05877506 0.001347667 0.1826073 255 0 255
0.0597892 0.001512094 0.1823417 255 0 255
0.06080226 0.001678537 0.1820724 255 0 255
0.06181417 0.001846979 0.1817996 255 0 255
0.06253052 0.002245939 0.1805952 255 0 255
0.06323833 0.002645623 0.1793892 255 0 255
0.06423932 0.002818766 0.1791077 255 0 255
0.06523913 0.002993921 0.1788226 255 0 255
0.06592859 0.003396968 0.1776101 255 0 255
0.06723513 0.003350136 0.1782417 255 0 255
0.06823131 0.003531218 0.177946 255 0 255
0.06890605 0.003938167 0.1767262 255 0 255
0.07021988 0.003899266 0.1773438 255 0 255
0.07088474 0.004308821 0.1761192 255 0 255
0.07154102 0.004718925 0.1748933 255 0 255
0.07252351 0.004908446 0.1745821 255 0 255
0.07384317 0.004879506 0.1751823 255 0 255
0.07448457 0.005293369 0.1739493 255 0 255
0.07477163 0.005926768 0.1718028 255 0 255
0.07504279 0.006559175 0.1696577 255 0 255
0.07423911 0.007843136 0.164784 255 0 255
0.07304122 0.00933828 0.1590105 255 0 255
-0.1184628 0.01051729 0.1448366 255 0 255
-0.1184148 0.009891263 0.1469629 255 0 255
-0.1179462 0.009485425 0.1482047 255 0 255
-0.1174691 0.009079908 0.1494463 255 0 255
-0.116188 0.00912051 0.1489075 255 0 255
-0.1149125 0.009164382 0.1483629 255 0 255
-0.1136427 0.009211478 0.1478123 255 0 255
-0.1131528 0.008811655 0.1490443 255 0 255
-0.1118874 0.008863731 0.1484847 255 0 255
-0.1113876 0.008466077 0.1497131 255 0 255
-0.1105029 0.008295971 0.1500429 255 0 255
-0.1096168 0.008127673 0.1503695 255 0 255
-0.1087294 0.007961162 0.150693 255 0 255
-0.1085718 0.007338132 0.1528177 255 0 255
-0.1083985 0.006714223 0.1549443 255 0 255
-0.1078511 0.006320018 0.1561682 255 0 255
-0.1069403 0.006157452 0.1564855 255 0 255
-0.1056771 0.006228513 0.1558923 255 0 255
-0.1030298 0.007232177 0.1516598 255 0 255
-0.09766646 0.010108 0.1401348 255 0 255
-0.001995825 0.01082208 0.1296049 255 0 255
-0.000641653 0.009071452 0.1362966 255 0 255
0.0002736716 0.00886094 0.1372025 255 0 255
0.001282417 0.008396764 0.1390679 255 0 255
0.002126689 0.008446085 0.139004 255 0 255
0.002970693 0.008497071 0.138937 255 0 255
0.003814366 0.008549676 0.1388672 255 0 255
0.004860489 0.008094377 0.1407177 255 0 255
0.005816457 0.007896266 0.1416026 255 0 255
0.006888829 0.007446087 0.1434447 255 0 255
0.007976246 0.006998635 0.1452824 255 0 255
0.009078659 0.006553965 0.1471155 255 0 255
0.01019606 0.006112131 0.1489439 255 0 255
0.01145289 0.005420018 0.1517271 255 0 255
0.01286058 0.004478592 0.1554636 255 0 255
0.01429853 0.003541387 0.1591934 255 0 255
0.01576675 0.002608464 0.1629164 255 0 255
0.01712533 0.001931782 0.1656748 255 0 255
0.01821915 0.001762033 0.1665128 255 0 255
0.01932014 0.00159482 0.1673465 255 0 255
0.0204282 0.00143014 0.1681758 255 0 255
0.02154339 0.001268037 0.1690007 255 0 255
0.02298349 0.0006081818 0.1717314 255 0 255
0.02477141 -0.0005471348 0.1763644 255 0 255
0.02643033 -0.001447451 0.1800344 255 0 255
0.02794876 -0.002093702 0.182743 255 0 255
0.02931522 -0.002487042 0.1844918 255 0 255
0.03034025 -0.002380251 0.1843301 255 0 255
0.03081913 -0.001527968 0.1813101 255 0 255
0.03146009 -0.0009235835 0.1792412 255 0 255
0.03227453 -0.0005659153 0.1781217 255 0 255
0.03308061 -0.0002071309 0.1769999 255 0 255
0.03407539 -9.339087E-05 0.1768249 255 0 255
0.03547103 -0.000469204 0.1785431 255 0 255
0.03667644 -0.0005959743 0.1793074 255 0 255
0.03768023 -0.0004750871 0.1791199 255 0 255
0.03889543 -0.0005965613 0.179875 255 0 255
0.04011734 -0.0007151173 0.1806251 255 0 255
0.04156569 -0.001074182 0.1823149 255 0 255
0.0430283 -0.001429319 0.1839982 255 0 255
0.04473235 -0.002022906 0.1866178 255 0 255
0.04576503 -0.001885727 0.1864021 255 0 255
0.04679674 -0.001746538 0.1861827 255 0 255
0.04758893 -0.001364441 0.1850189 255 0 255
0.04813035 -0.0007409774 0.1829132 255 0 255
0.04890186 -0.0003574493 0.1817462 255 0 255
0.04966485 2.697388E-05 0.1805775 255 0 255
0.050673 0.0001735342 0.1803443 255 0 255
0.05168011 0.0003221026 0.1801075 255 0 255
0.05294729 0.0002349614 0.1808028 255 0 255
0.05422091 0.0001509929 0.1814927 255 0 255
0.0557695 -0.0001663896 0.183111 255 0 255
0.05705968 -0.0002434957 0.1837891 255 0 255
0.0583562 -0.0003174432 0.1844617 255 0 255
0.05909967 8.128903E-05 0.1832669 255 0 255
0.06011796 0.0002467174 0.1830004 255 0 255
0.06113515 0.0004141152 0.1827304 255 0 255
0.0621512 0.0005835642 0.1824566 255 0 255
0.06287155 0.0009872839 0.1812524 255 0 255
0.0635833 0.001391739 0.1800466 255 0 255
0.06458843 0.00156593 0.1797642 255 0 255
0.06559236 0.001742088 0.1794783 255 0 255
0.06628576 0.002149957 0.1782659 255 0 255
0.06759659 0.002100401 0.1788956 255 0 255
0.06859686 0.002282525 0.1785989 255 0 255
0.06927548 0.002694338 0.1773792 255 0 255
0.07059361 0.002652744 0.177995 255 0 255
0.0712624 0.003067169 0.1767704 255 0 255
0.07159121 0.003707771 0.1746283 255 0 255
0.07257414 0.003897731 0.1743174 255 0 255
0.07355573 0.00408964 0.1740029 255 0 255
0.07419372 0.004506958 0.1727723 255 0 255
0.07482308 0.004924796 0.1715406 255 0 255
0.07474475 0.005787164 0.1684874 255 0 255
0.07464325 0.006646986 0.165438 255 0 255
0.0734482 0.008165813 0.1596693 255 0 255
-0.118085 0.009826442 0.1437078 255 0 255
-0.1180404 0.009193274 0.1458305 255 0 255
-0.1171701 0.009009202 0.1461836 255 0 255
-0.115897 0.009052811 0.145646 255 0 255
-0.1146295 0.009099697 0.1451024 255 0 255
-0.1133677 0.009149798 0.144553 255 0 255
-0.1121117 0.009203093 0.1439978 255 0 255
-0.1112486 0.009030779 0.1443299 255 0 255
-0.1103841 0.008860235 0.1446589 255 0 255
-0.1098984 0.008461243 0.1458807 255 0 255
-0.1094041 0.008062599 0.1471022 255 0 255
-0.1089013 0.00766439 0.1483233 255 0 255
-0.1080207 0.007498853 0.148644 255 0 255
-0.1075045 0.007102178 0.1498628 255 0 255
-0.1069797 0.006705945 0.151081 255 0 255
-0.1064464 0.006310218 0.1522986 255 0 255
-0.1055498 0.006149875 0.1526107 255 0 255
-0.105003 0.005755815 0.1538258 255 0 255
-0.1034049 0.006070771 0.152318 255 0 255
-0.10182 0.006390014 0.1508021 255 0 255
-0.001905817 0.009763202 0.1303523 255 0 255
-0.0007035508 0.008506045 0.1351116 255 0 255
0.0001262 0.008551373 0.1350547 255 0 255
0.001127774 0.008079216 0.1369186 255 0 255
0.001874801 0.008387506 0.1358937 255 0 255
0.002801351 0.008178841 0.136789 255 0 255
0.003637703 0.008231086 0.1367198 255 0 255
0.004575183 0.008026345 0.1376084 255 0 255
0.005625359 0.007565435 0.1394537 255 0 255
0.006799763 0.006849148 0.1422545 255 0 255
0.007883885 0.006393911 0.1440905 255 0 255
0.009099878 0.005683939 0.1468812 255 0 255
0.01021786 0.005234602 0.1487077 255 0 255
0.01147535 0.004531201 0.1514878 255 0 255
0.01275546 0.00383134 0.1542623 255 0 255
0.01432258 0.002622399 0.158946 255 0 255
0.01592763 0.001418366 0.163622 255 0 255
0.01729078 0.0007307602 0.166377 255 0 255
0.01853269 0.0003023486 0.1681696 255 0 255
0.01949429 0.0003871788 0.1680458 255 0 255
0.02060673 0.0002192296 0.1688737 255 0 255
0.02188146 -0.000200479 0.1706517 255 0 255
0.02332996 -0.0008708256 0.1733783 255 0 255
0.02512652 -0.002044276 0.1780052 255 0 255
0.02679398 -0.002958816 0.1816701 255 0 255
0.02832082 -0.003615509 0.1843746 255 0 255
0.02952128 -0.003763001 0.1851684 255 0 255
0.03037244 -0.003403554 0.1840551 255 0 255
0.03085141 -0.002539577 0.1810383 255 0 255
0.03149256 -0.001927363 0.1789715 255 0 255
0.03230731 -0.001565638 0.1778531 255 0 255
0.03311372 -0.001202814 0.1767325 255 0 255
0.03430607 -0.001338779 0.1775056 255 0 255
0.03550522 -0.001471972 0.1782739 255 0 255
0.03671121 -0.001602281 0.1790373 255 0 255
0.03792398 -0.001729731 0.1797958 255 0 255
0.03935579 -0.002102422 0.1814945 255 0 255
0.04058585 -0.002223561 0.1822422 255 0 255
0.04182259 -0.00234179 0.182985 255 0 255
0.04351335 -0.002950414 0.1856084 255 0 255
0.04499841 -0.003307887 0.1872815 255 0 255
0.04603526 -0.003169921 0.1870651 255 0 255
0.0466013 -0.002539518 0.1849639 255 0 255
0.04762875 -0.002398483 0.1847418 255 0 255
0.04817028 -0.001767161 0.1826382 255 0 255
0.04894211 -0.001379533 0.1814725 255 0 255
0.0497054 -0.0009910085 0.1803049 255 0 255
0.05096769 -0.00108665 0.1810081 255 0 255
0.05197898 -0.0009372205 0.1807706 255 0 255
0.05325048 -0.001027243 0.1814641 255 0 255
0.05426348 -0.0008732214 0.1812186 255 0 255
0.0560815 -0.001438113 0.1837678 255 0 255
0.05710357 -0.001278366 0.1835123 255 0 255
0.05840071 -0.001355735 0.1841841 255 0 255
0.0594243 -0.001191368 0.1839204 255 0 255
0.06073038 -0.001262882 0.1845821 255 0 255
0.0611808 -0.0006192747 0.1824542 255 0 255
0.06248832 -0.0006861427 0.1831077 255 0 255
0.06321258 -0.0002776565 0.1819036 255 0 255
0.06392831 0.0001315723 0.1806979 255 0 255
0.06493757 0.0003067845 0.1804146 255 0 255
0.06594562 0.0004840023 0.1801278 255 0 255
0.06664295 0.0008966373 0.1789156 255 0 255
0.06795807 0.0008443973 0.1795434 255 0 255
0.0692793 0.0007954651 0.1801655 255 0 255
0.06964502 0.001444239 0.1780262 255 0 255
0.07064318 0.001630741 0.1777226 255 0 255
0.07098432 0.002279416 0.1755829 255 0 255
0.07164106 0.00269786 0.1743594 255 0 255
0.07228921 0.003116888 0.1731346 255 0 255
0.07360644 0.003080554 0.1737343 255 0 255
0.07424464 0.003502051 0.1725049 255 0 255
0.07487425 0.003924062 0.1712744 255 0 255
0.07514545 0.004572311 0.1691336 255 0 255
0.07469404 0.005669578 0.1651782 255 0 255
0.07385521 0.006987029 0.1603225 255 0 255
-0.1181186 0.008916819 0.1434598 255 0 255
-0.1176652 0.00850392 0.1446966 255 0 255
-0.116393 0.008549087 0.1441629 255 0 255
-0.1151264 0.008597518 0.1436232 255 0 255
-0.1134675 0.008879542 0.1421897 255 0 255
-0.1122159 0.008935157 0.141637 255 0 255
-0.1113609 0.008762129 0.1419692 255 0 255
-0.1105046 0.008590862 0.1422984 255 0 255
-0.1096469 0.008421335 0.1426246 255 0 255
-0.109168 0.008019585 0.1438426 255 0 255
-0.1086807 0.007618227 0.1450602 255 0 255
-0.1081848 0.00721726 0.1462774 255 0 255
-0.107311 0.007052692 0.1465954 255 0 255
-0.1071676 0.006416549 0.1487105 255 0 255
-0.1066462 0.006016914 0.1499262 255 0 255
-0.1061162 0.005617693 0.1511414 255 0 255
-0.1048678 0.005696241 0.1505482 255 0 255
-0.1050308 0.004820792 0.15357 255 0 255
-0.1037797 0.004902988 0.1529704 255 0 255
-0.1042552 0.003785566 0.1569033 255 0 255
-0.003266818 0.01103396 0.1224876 255 0 255
-0.001964734 0.009225667 0.1291711 255 0 255
-0.0009223766 0.008476884 0.1320028 255 0 255
-2.16049E-05 0.008258075 0.1329078 255 0 255
0.0009727759 0.007777961 0.1347702 255 0 255
0.001802334 0.007826595 0.1347075 255 0 255
0.002631631 0.007876865 0.1346419 255 0 255
0.003558317 0.007666082 0.1355334 255 0 255
0.004593952 0.007195022 0.1373809 255 0 255
0.00564466 0.006726579 0.1392241 255 0 255
0.006710457 0.006260858 0.1410629 255 0 255
0.007904374 0.005536239 0.1438558 255 0 255
0.00900408 0.005076319 0.1456853 255 0 255
0.01011877 0.004619217 0.1475102 255 0 255
0.01137309 0.003904244 0.1502876 255 0 255
0.01277852 0.002932348 0.1540164 255 0 255
0.01434652 0.001704515 0.158695 255 0 255
0.01608863 0.0002217711 0.1643219 255 0 255
0.01745634 -0.0004767549 0.1670733 255 0 255
0.01870271 -0.0009122575 0.1688635 255 0 255
0.01981621 -0.001085751 0.1696938 255 0 255
0.02093683 -0.001256627 0.1705197 255 0 255
0.02206455 -0.001424897 0.1713412 255 0 255
0.02351763 -0.002106112 0.1740642 255 0 255
0.02531898 -0.003297994 0.1786855 255 0 255
0.02715792 -0.004484181 0.1832977 255 0 255
0.0285226 -0.00489466 0.1850467 255 0 255
0.02972742 -0.005045306 0.185839 255 0 255
0.03040449 -0.004425562 0.1837761 255 0 255
0.03070147 -0.003294533 0.1798129 255 0 255
0.03133902 -0.002674846 0.177749 255 0 255
0.03233992 -0.002564148 0.1775806 255 0 255
0.03334009 -0.002451464 0.1774088 255 0 255
0.03433953 -0.002336802 0.1772334 255 0 255
0.0357403 -0.002726841 0.178947 255 0 255
0.0371555 -0.003113071 0.1806543 255 0 255
0.03816777 -0.002990726 0.1804657 255 0 255
0.03960407 -0.003370252 0.1821617 255 0 255
0.04105469 -0.003745897 0.1838512 255 0 255
0.04229959 -0.003866651 0.1845915 255 0 255
0.04377494 -0.004234916 0.1862685 255 0 255
0.04526449 -0.004599166 0.1879389 255 0 255
0.04607426 -0.004210896 0.1867816 255 0 255
0.04687552 -0.003821594 0.1856221 255 0 255
0.04766831 -0.003431319 0.1844606 255 0 255
0.04845262 -0.003040024 0.1832971 255 0 255
0.04922846 -0.00264778 0.1821317 255 0 255
0.05024594 -0.00250146 0.1819006 255 0 255
0.05126241 -0.00235317 0.181666 255 0 255
0.05227788 -0.002202808 0.1814277 255 0 255
0.05355375 -0.002295706 0.1821195 255 0 255
0.05457088 -0.002140837 0.1818732 255 0 255
0.05612471 -0.002472008 0.1834867 255 0 255
0.05741978 -0.002555421 0.1841622 255 0 255
0.05899755 -0.002878509 0.1857621 255 0 255
0.06002904 -0.002712562 0.1854966 255 0 255
0.06105937 -0.00254463 0.1852276 255 0 255
0.06180109 -0.002133556 0.1840279 255 0 255
0.06282541 -0.001962122 0.1837526 255 0 255
0.0632588 -0.00130905 0.1816237 255 0 255
0.06427334 -0.001134847 0.1813432 255 0 255
0.06528673 -0.000958595 0.181059 255 0 255
0.06629889 -0.0007803673 0.1807713 255 0 255
0.06700016 -0.0003628975 0.1795592 255 0 255
0.06831956 -0.0004178683 0.1801851 255 0 255
0.06932803 -0.0002336206 0.1798866 255 0 255
0.07001453 0.000187917 0.1786671 255 0 255
0.07069242 0.0006100464 0.1774462 255 0 255
0.07103359 0.001266585 0.1753087 255 0 255
0.07169055 0.001689213 0.1740864 255 0 255
0.07233892 0.002112401 0.1728629 255 0 255
0.07331772 0.002304419 0.1725499 255 0 255
0.0739525 0.002729366 0.1713229 255 0 255
0.07457868 0.003154809 0.1700948 255 0 255
0.0748463 0.003810244 0.1679575 255 0 255
0.07439084 0.004922145 0.1640075 255 0 255
0.07390504 0.006029924 0.160064 255 0 255
-0.1177393 0.008239459 0.1423269 255 0 255
-0.1168804 0.008055035 0.1426784 255 0 255
-0.1156147 0.008105002 0.1421426 255 0 255
-0.1143548 0.008158254 0.1416011 255 0 255
-0.1127023 0.008448807 0.1401667 255 0 255
-0.1118519 0.008274389 0.1405003 255 0 255
-0.1110002 0.008101693 0.140831 255 0 255
-0.1101471 0.007930722 0.1411587 255 0 255
-0.1092926 0.007761529 0.1414833 255 0 255
-0.1088171 0.007356393 0.1426988 255 0 255
-0.108333 0.006951624 0.1439139 255 0 255
-0.1078405 0.006547189 0.1451286 255 0 255
-0.10697 0.006382911 0.1454451 255 0 255
-0.1068299 0.005739589 0.1475567 255 0 255
-0.1063119 0.005336471 0.1487699 255 0 255
-0.1057853 0.004933792 0.1499827 255 0 255
-0.10454 0.00501638 0.1493891 255 0 255
-0.1047065 0.004129973 0.1524063 255 0 255
-0.1031108 0.004459833 0.1509012 255 0 255
-0.1029052 0.00381688 0.1530142 255 0 255
-0.00296918 0.009191823 0.1261166 255 0 255
-0.001949221 0.008428896 0.1289495 255 0 255
-0.0009847499 0.007936377 0.1308177 255 0 255
-0.0001697361 0.007981027 0.1307619 255 0 255
0.0008174119 0.007492942 0.1326228 255 0 255
0.001639641 0.007541242 0.1325607 255 0 255
0.002555474 0.007324422 0.133455 255 0 255
0.003576524 0.006843239 0.1353046 255 0 255
0.004612661 0.006364679 0.13715 255 0 255
0.00566392 0.005888745 0.1389912 255 0 255
0.006839562 0.005149825 0.1417858 255 0 255
0.007924808 0.004679626 0.1436178 255 0 255
0.009025072 0.004212219 0.1454452 255 0 255
0.01014032 0.003747652 0.147268 255 0 255
0.01152001 0.002756838 0.1509987 255 0 255
0.01293007 0.001770174 0.1547228 255 0 255
0.01463522 0.0002598451 0.1603512 255 0 255
0.016386 -0.00124493 0.1659709 255 0 255
0.01790217 -0.002217357 0.1696728 255 0 255
0.01916067 -0.002659286 0.1714596 255 0 255
0.02028622 -0.002835354 0.1722874 255 0 255
0.02141884 -0.003008782 0.1731108 255 0 255
0.02255856 -0.003179604 0.1739298 255 0 255
0.02418314 -0.004132501 0.1776001 255 0 255
0.0258377 -0.005080483 0.1812626 255 0 255
0.02752221 -0.006023488 0.1849171 255 0 255
0.02889518 -0.00644056 0.186663 255 0 255
0.02993367 -0.006333904 0.1865034 255 0 255
0.03061472 -0.005705968 0.1844421 255 0 255
0.03109766 -0.004818368 0.1814311 255 0 255
0.03174299 -0.004190053 0.1793682 255 0 255
0.03256213 -0.003819818 0.1782514 255 0 255
0.03356654 -0.003706464 0.178079 255 0 255
0.03496497 -0.004106221 0.1797948 255 0 255
0.03637784 -0.00450225 0.1815045 255 0 255
0.03760013 -0.004637806 0.1822632 255 0 255
0.0386204 -0.00451424 0.1820732 255 0 255
0.04027755 -0.005155879 0.1847089 255 0 255
0.04152386 -0.00528215 0.1854519 255 0 255
0.04277689 -0.005405435 0.1861898 255 0 255
0.04426054 -0.005779967 0.1878634 255 0 255
0.04553068 -0.005896746 0.1885902 255 0 255
0.04611302 -0.005250589 0.1864939 255 0 255
0.04691457 -0.004857196 0.1853356 255 0 255
0.04770765 -0.004462807 0.1841753 255 0 255
0.04849226 -0.004067451 0.183013 255 0 255
0.0495149 -0.003922282 0.1827848 255 0 255
0.05028626 -0.003524475 0.1816179 255 0 255
0.0515572 -0.003625938 0.1823177 255 0 255
0.05257684 -0.003474747 0.1820787 255 0 255
0.05385701 -0.00357049 0.1827686 255 0 255
0.05487833 -0.003414691 0.1825216 255 0 255
0.05643664 -0.003752506 0.1841324 255 0 255
0.05746328 -0.0035915 0.1838762 255 0 255
0.05904181 -0.003921736 0.1854742 255 0 255
0.06007372 -0.003755459 0.1852089 255 0 255
0.06138839 -0.003832577 0.1858669 255 0 255
0.0621341 -0.003416763 0.1846675 255 0 255
0.0628712 -0.003000146 0.1834664 255 0 255
0.06359974 -0.002582735 0.1822637 255 0 255
0.06431965 -0.002164557 0.1810594 255 0 255
0.06503098 -0.001745673 0.1798536 255 0 255
0.06603988 -0.001567704 0.1795671 255 0 255
0.06735739 -0.001628664 0.1801967 255 0 255
0.06836754 -0.001446015 0.179902 255 0 255
0.06969367 -0.00150098 0.1805213 255 0 255
0.07006316 -0.0008357258 0.1783854 255 0 255
0.07106585 -0.000647679 0.1780811 255 0 255
0.07141076 1.74647E-05 0.1759448 255 0 255
0.07173972 0.0006817991 0.1738094 255 0 255
0.07272383 0.0008729957 0.173499 255 0 255
0.07336747 0.001301581 0.1722744 255 0 255
0.07434534 0.001495986 0.1719582 255 0 255
0.07462887 0.002160298 0.1698218 255 0 255
0.07454637 0.00305687 0.1667795 255 0 255
0.07444068 0.003950915 0.1637409 255 0 255
0.0743119 0.004842327 0.1607065 255 0 255
-0.1173591 0.007570681 0.1411925 255 0 255
-0.1160945 0.0076222 0.1406607 255 0 255
-0.1148354 0.007676996 0.140123 255 0 255
-0.1135821 0.00773502 0.1395795 255 0 255
-0.1123344 0.007796307 0.1390301 255 0 255
-0.1110925 0.007860764 0.1384749 255 0 255
-0.1106387 0.007449859 0.1396913 255 0 255
-0.1094012 0.007519226 0.1391274 255 0 255
-0.1085535 0.007351046 0.1394492 255 0 255
-0.1080849 0.006943181 0.1406608 255 0 255
-0.107231 0.00677779 0.1409779 255 0 255
-0.1071222 0.00612853 0.1430829 255 0 255
-0.1066281 0.005721781 0.1442933 255 0 255
-0.1064916 0.005071298 0.1464013 255 0 255
-0.1063393 0.004419861 0.1485114 255 0 255
-0.1058125 0.004013109 0.1497229 255 0 255
-0.1045667 0.004099064 0.1491303 255 0 255
-0.1047332 0.003201056 0.1521442 255 0 255
-0.1038327 0.003043245 0.1524495 255 0 255
-0.1074789 -0.001245405 0.1675581 255 0 255
-0.003951782 0.009184342 0.1230613 255 0 255
-0.002883443 0.008135585 0.1268548 255 0 255
-0.001859032 0.007361539 0.1296842 255 0 255
-0.001047294 0.007404486 0.1296315 255 0 255
-0.0002357933 0.00744904 0.129576 255 0 255
0.0006617097 0.00722418 0.1304764 255 0 255
0.00147657 0.007272127 0.130415 255 0 255
0.002479097 0.006780624 0.132267 255 0 255
0.003398961 0.00656198 0.133157 255 0 255
0.004529627 0.0058054 0.1359585 255 0 255
0.005577553 0.005321721 0.1377979 255 0 255
0.006640557 0.004840737 0.139633 255 0 255
0.007831885 0.004093305 0.14242 255 0 255
0.009045965 0.00334919 0.1452017 255 0 255
0.0101618 0.002877162 0.1470224 255 0 255
0.01166707 0.00160293 0.1517041 255 0 255
0.01321039 0.0003334598 0.1563784 255 0 255
0.0147917 -0.0009311517 0.1610452 255 0 255
0.01654733 -0.002458204 0.1666581 255 0 255
0.01806817 -0.003445299 0.1703553 255 0 255
0.0193311 -0.003894338 0.1721395 255 0 255
0.02046099 -0.004073672 0.1729659 255 0 255
0.02159797 -0.004250384 0.1737878 255 0 255
0.02289758 -0.004690165 0.1755567 255 0 255
0.02453067 -0.005657285 0.1792218 255 0 255
0.02619375 -0.006619495 0.182879 255 0 255
0.02788677 -0.007576714 0.1865282 255 0 255
0.02926805 -0.008000361 0.1882709 255 0 255
0.03031463 -0.007892699 0.1881103 255 0 255
0.03100354 -0.007256126 0.18605 255 0 255
0.03149415 -0.006356104 0.1830412 255 0 255
0.03233341 -0.005981749 0.181926 255 0 255
0.03316427 -0.005606249 0.1808084 255 0 255
0.0341805 -0.005491335 0.1806342 255 0 255
0.03539351 -0.005635782 0.1814012 255 0 255
0.03681467 -0.006038208 0.1831074 255 0 255
0.03825021 -0.006436823 0.1848073 255 0 255
0.03928227 -0.00631162 0.1846153 255 0 255
0.04095162 -0.006962881 0.1872458 255 0 255
0.04220988 -0.007091225 0.1879856 255 0 255
0.04325457 -0.006958003 0.1877798 255 0 255
0.04452239 -0.007080821 0.1885101 255 0 255
0.04534121 -0.006685424 0.1873572 255 0 255
0.04615154 -0.006288994 0.1862021 255 0 255
0.04695336 -0.005891528 0.185045 255 0 255
0.04774676 -0.005493063 0.183886 255 0 255
0.04853165 -0.005093593 0.1827249 255 0 255
0.0495547 -0.004948121 0.1824968 255 0 255
0.05057676 -0.004800645 0.1822652 255 0 255
0.05159786 -0.004651114 0.1820299 255 0 255
0.05261795 -0.004499582 0.1817911 255 0 255
0.05389864 -0.004598771 0.1824802 255 0 255
0.05518581 -0.004694777 0.1831638 255 0 255
0.05647943 -0.00478764 0.1838421 255 0 255
0.0577794 -0.004877273 0.1845149 255 0 255
0.05936238 -0.005214101 0.1861099 255 0 255
0.06039845 -0.005046842 0.1858439 255 0 255
0.06143335 -0.004877544 0.1855741 255 0 255
0.06246715 -0.004706157 0.1853008 255 0 255
0.06320824 -0.004284782 0.1840999 255 0 255
0.0639407 -0.003862615 0.1828974 255 0 255
0.06466459 -0.003439695 0.1816933 255 0 255
0.06568249 -0.00326205 0.1814086 255 0 255
0.0666992 -0.003082383 0.1811201 255 0 255
0.06771468 -0.002900667 0.1808281 255 0 255
0.06904264 -0.002961 0.1814501 255 0 255
0.06974187 -0.002531197 0.1802333 255 0 255
0.07043252 -0.002100736 0.1790151 255 0 255
0.07111455 -0.001669605 0.1777956 255 0 255
0.07145951 -0.0009965354 0.1756615 255 0 255
0.07178851 -0.0003242928 0.1735284 255 0 255
0.07277308 -0.0001327039 0.1732183 255 0 255
0.07341692 0.0003000319 0.1719949 255 0 255
0.07439517 0.0004948759 0.1716789 255 0 255
0.07467872 0.001167072 0.1695447 255 0 255
0.07424568 0.002312241 0.1655995 255 0 255
0.07378223 0.003453348 0.1616607 255 0 255
0.07364602 0.004354872 0.158632 255 0 255
-0.1169782 0.006910523 0.1400568 255 0 255
-0.1157166 0.006966117 0.1395244 255 0 255
-0.1144607 0.007024953 0.1389861 255 0 255
-0.1132104 0.007087038 0.1384421 255 0 255
-0.1123642 0.006910825 0.138777 255 0 255
-0.1111218 0.006978634 0.1382228 255 0 255
-0.1102764 0.006806604 0.1385503 255 0 255
-0.109042 0.00688006 0.1379859 255 0 255
-0.1081976 0.006712204 0.1383062 255 0 255
-0.1077323 0.006300934 0.1395152 255 0 255
-0.1072586 0.005890023 0.1407239 255 0 255
-0.1067764 0.005479455 0.1419322 255 0 255
-0.1066554 0.00482205 0.1440358 255 0 255
-0.1061525 0.004411606 0.1452445 255 0 255
-0.1056412 0.004001566 0.1464528 255 0 255
-0.1054802 0.003342804 0.1485601 255 0 255
-0.1045929 0.003182939 0.1488679 255 0 255
-0.1044076 0.002523828 0.1509764 255 0 255
-0.1042066 0.001864004 0.1530868 255 0 255
-0.1070895 -0.001062542 0.1633388 255 0 255
-0.004786192 0.008651218 0.1219235 255 0 255
-0.003669355 0.007309055 0.1266754 255 0 255
-0.002726671 0.006797114 0.1285464 255 0 255
-0.001918224 0.006838376 0.1284968 255 0 255
-0.001110014 0.006881208 0.1284444 255 0 255
-0.0002195583 0.006650633 0.1293472 255 0 255
0.0005920198 0.006696852 0.1292889 255 0 255
0.001493549 0.006470126 0.1301851 255 0 255
0.002402533 0.006245458 0.1310779 255 0 255
0.00341689 0.005748788 0.132924 255 0 255
0.004446367 0.00525474 0.1347659 255 0 255
0.005596596 0.004489777 0.1375595 255 0 255
0.006660155 0.004001322 0.1393925 255 0 255
0.007852121 0.003242624 0.1421763 255 0 255
