ply
format ascii 1.0
Comment Generated by Floating Hands
element vertex 1129
property double x
property double y
property double z
property uchar red
property uchar green
property uchar blue
end_header
0.07635388 -0.09652232 0.1564553 255 0 255
0.0774745 -0.09625889 0.1561416 255 0 255
0.07824574 -0.09545295 0.1550577 255 0 255
0.08006271 -0.09626349 0.1562683 255 0 255
0.08118251 -0.09599155 0.1559424 255 0 255
0.0823007 -0.09571706 0.1556128 255 0 255
0.08341736 -0.09544003 0.1552795 255 0 255
0.08453246 -0.09516046 0.1549424 255 0 255
0.08490583 -0.0938094 0.153082 255 0 255
0.08563663 -0.09299308 0.1519812 255 0 255
-0.1294989 -0.1414697 0.2053754 255 0 255
-0.1286824 -0.1428122 0.2072741 255 0 255
-0.1267434 -0.1418634 0.206085 255 0 255
-0.1253634 -0.1420555 0.2064331 255 0 255
-0.1231752 -0.1405237 0.2044555 255 0 255
-0.1215385 -0.1401337 0.2040173 255 0 255
-0.1199079 -0.1397397 0.2035728 255 0 255
-0.118541 -0.1399165 0.2038986 255 0 255
-0.1166654 -0.1389391 0.2026652 255 0 255
-0.1155531 -0.1396848 0.2037588 255 0 255
-0.1141859 -0.1398517 0.2040706 255 0 255
-0.1130595 -0.1405925 0.205158 255 0 255
-0.1114473 -0.1401761 0.2046809 255 0 255
-0.1098415 -0.1397558 0.2041978 255 0 255
-0.1082421 -0.1393314 0.2037086 255 0 255
-0.106876 -0.1394818 0.2039967 255 0 255
-0.1050625 -0.1384707 0.2027121 255 0 255
-0.1034825 -0.1380344 0.2022049 255 0 255
-0.1021242 -0.1381741 0.2024776 255 0 255
-0.1005533 -0.1377304 0.2019594 255 0 255
-0.09878128 -0.1367022 0.2006481 255 0 255
-0.09743113 -0.1368314 0.2009054 255 0 255
-0.09607986 -0.1369576 0.2011584 255 0 255
-0.09472754 -0.1370806 0.201407 255 0 255
-0.09356632 -0.1377827 0.2024413 255 0 255
-0.09220801 -0.1378999 0.2026819 255 0 255
-0.0910331 -0.1385967 0.2037096 255 0 255
-0.08966886 -0.138708 0.2039421 255 0 255
-0.08812699 -0.1382328 0.2033775 255 0 255
-0.08676465 -0.1383375 0.2036007 255 0 255
-0.08523249 -0.1378551 0.2030254 255 0 255
-0.08370714 -0.137369 0.2024445 255 0 255
-0.08234985 -0.1374638 0.2026533 255 0 255
-0.08114891 -0.1381403 0.2036535 255 0 255
-0.0796326 -0.1376441 0.2030578 255 0 255
-0.07812323 -0.1371443 0.2024565 255 0 255
-0.07691197 -0.137812 0.2034447 255 0 255
-0.07540881 -0.1373055 0.2028337 255 0 255
-0.07391266 -0.1367954 0.2022171 255 0 255
-0.07269125 -0.1374542 0.2031933 255 0 255
-0.07133134 -0.1375239 0.2033666 255 0 255
-0.06984472 -0.1370039 0.2027355 255 0 255
-0.06860944 -0.137654 0.2037 255 0 255
-0.06712923 -0.1371274 0.2030592 255 0 255
-0.06577051 -0.1371845 0.2032145 255 0 255
-0.06441116 -0.1372385 0.2033654 255 0 255
-0.06305119 -0.1372894 0.203512 255 0 255
-0.06158809 -0.1367497 0.2028515 255 0 255
-0.06023086 -0.1367942 0.2029889 255 0 255
-0.05877843 -0.1362479 0.2023185 255 0 255
-0.05742406 -0.1362862 0.2024468 255 0 255
-0.05606918 -0.1363213 0.2025707 255 0 255
-0.05487965 -0.1375296 0.2042993 255 0 255
-0.05351595 -0.1375587 0.2044152 255 0 255
-0.05222686 -0.138173 0.2053319 255 0 255
-0.05085837 -0.138196 0.2054393 255 0 255
-0.04948948 -0.1382159 0.2055423 255 0 255
-0.04812017 -0.1382326 0.2056408 255 0 255
-0.04675053 -0.1382462 0.205735 255 0 255
-0.04538053 -0.1382567 0.2058247 255 0 255
-0.04406163 -0.1388526 0.2067169 255 0 255
-0.04268707 -0.1388569 0.2067981 255 0 255
-0.04131222 -0.138858 0.2068748 255 0 255
-0.03993712 -0.138856 0.206947 255 0 255
-0.03859744 -0.1394394 0.2078226 255 0 255
-0.03721792 -0.1394311 0.2078862 255 0 255
-0.03586601 -0.1400081 0.2087534 255 0 255
-0.03448217 -0.1399935 0.2088083 255 0 255
-0.03311808 -0.1405641 0.209667 255 0 255
-0.03171404 -0.1399549 0.2089046 255 0 255
-0.03032981 -0.1399308 0.208946 255 0 255
-0.02895352 -0.1404918 0.2097917 255 0 255
-0.02756518 -0.1404613 0.2098243 255 0 255
-0.02617697 -0.1410157 0.2106613 255 0 255
-0.02478081 -0.1415667 0.211494 255 0 255
-0.02337678 -0.1421143 0.2123223 255 0 255
-0.02196488 -0.1426585 0.2131461 255 0 255
-0.02054508 -0.1431993 0.2139655 255 0 255
-0.01909796 -0.1443239 0.2155895 255 0 255
-0.01770553 -0.1436831 0.2147817 255 0 255
-0.01629372 -0.1436265 0.2147784 255 0 255
-0.01488198 -0.1435666 0.2147705 255 0 255
-0.01347042 -0.1435036 0.214758 255 0 255
-0.0121375 -0.1422642 0.2131231 255 0 255
-0.01073415 -0.1421952 0.2131017 255 0 255
-0.009378133 -0.1415368 0.2122668 255 0 255
-0.008030245 -0.1408756 0.2114276 255 0 255
-0.006690486 -0.1402117 0.2105841 255 0 255
-0.005299923 -0.1401305 0.2105449 255 0 255
-0.004224089 -0.1371201 0.2064591 255 0 255
-0.00318795 -0.134109 0.2023701 255 0 255
-0.002205911 -0.1204873 0.1836798 255 0 255
0.06861192 -0.1164634 0.1816002 255 0 255
0.06898274 -0.1145478 0.1789785 255 0 255
0.06873845 -0.1115246 0.1748023 255 0 255
0.06905355 -0.1096141 0.1721849 255 0 255
0.06934462 -0.1077057 0.1695689 255 0 255
0.06991845 -0.1063516 0.1677296 255 0 255
0.07016524 -0.1044465 0.1651159 255 0 255
0.07070239 -0.1030943 0.1632772 255 0 255
0.07122308 -0.1017428 0.1614386 255 0 255
0.07204922 -0.100941 0.1603712 255 0 255
0.07286645 -0.1001383 0.1593021 255 0 255
0.07400403 -0.09988214 0.1590005 255 0 255
0.07480716 -0.09907681 0.1579268 255 0 255
0.07593808 -0.09881637 0.1576188 255 0 255
0.07672705 -0.09800842 0.1565407 255 0 255
0.07785133 -0.09774373 0.1562262 255 0 255
0.07827813 -0.09639024 0.1543797 255 0 255
0.08009528 -0.09720659 0.1555861 255 0 255
0.08121503 -0.09693424 0.1552606 255 0 255
0.0823332 -0.09665933 0.1549313 255 0 255
0.08344977 -0.09638185 0.1545983 255 0 255
0.08456483 -0.09610185 0.1542616 255 0 255
0.08493793 -0.09474409 0.152406 255 0 255
0.0860424 -0.09446089 0.1520643 255 0 255
-0.1233453 -0.127486 0.1842479 255 0 255
-0.1283527 -0.1433872 0.2056666 255 0 255
-0.1264178 -0.1424319 0.2044808 255 0 255
-0.1253141 -0.1432001 0.2055981 255 0 255
-0.1233952 -0.1422359 0.2043986 255 0 255
-0.1214899 -0.1412665 0.203191 255 0 255
-0.1198595 -0.1408696 0.2027484 255 0 255
-0.1184927 -0.1410469 0.203074 255 0 255
-0.1168709 -0.1406422 0.2026201 255 0 255
-0.1157547 -0.1413919 0.2037119 255 0 255
-0.1143837 -0.1415596 0.2040243 255 0 255
-0.1127692 -0.1411441 0.2035545 255 0 255
-0.1111611 -0.1407245 0.2030787 255 0 255
-0.1095593 -0.1403009 0.2025967 255 0 255
-0.1079639 -0.1398732 0.2021088 255 0 255
-0.1066016 -0.1400235 0.2023958 255 0 255
-0.1047924 -0.139006 0.2011148 255 0 255
-0.1034354 -0.1391492 0.2013916 255 0 255
-0.1018619 -0.1387061 0.2008806 255 0 255
-0.1002951 -0.1382591 0.2003638 255 0 255
-0.09873474 -0.1378083 0.199841 255 0 255
-0.09738462 -0.1379378 0.2000981 255 0 255
-0.09603344 -0.1380643 0.2003509 255 0 255
-0.09468114 -0.1381876 0.2005993 255 0 255
-0.09351984 -0.1388931 0.2016311 255 0 255
-0.09234975 -0.1395962 0.2026599 255 0 255
-0.09098659 -0.1397108 0.2028967 255 0 255
-0.08962241 -0.1398223 0.203129 255 0 255
-0.0880807 -0.1393442 0.2025665 255 0 255
-0.08654577 -0.1388623 0.2019984 255 0 255
-0.08501766 -0.1383766 0.2014246 255 0 255
-0.08349638 -0.1378873 0.2008453 255 0 255
-0.08230403 -0.1385698 0.2018462 255 0 255
-0.08110301 -0.1392497 0.2028439 255 0 255
-0.07958689 -0.1387505 0.2022503 255 0 255
-0.0780777 -0.1382478 0.2016513 255 0 255
-0.07672095 -0.1383301 0.2018418 255 0 255
-0.07536339 -0.1384093 0.2020281 255 0 255
-0.07400503 -0.1384854 0.2022099 255 0 255
-0.07277966 -0.1391477 0.2031842 255 0 255
-0.07154573 -0.1398074 0.2041551 255 0 255
-0.07017735 -0.1398746 0.2043248 255 0 255
-0.06868629 -0.1393486 0.2036919 255 0 255
-0.06708429 -0.1382291 0.2022551 255 0 255
-0.06561146 -0.1376961 0.2016112 255 0 255
-0.06414582 -0.1371597 0.2009622 255 0 255
-0.06279375 -0.1372105 0.2011077 255 0 255
-0.06144109 -0.1372581 0.2012489 255 0 255
-0.06008784 -0.1373026 0.2013859 255 0 255
-0.05873407 -0.1373441 0.2015184 255 0 255
-0.05737976 -0.1373824 0.2016466 255 0 255
-0.05602493 -0.1374177 0.2017705 255 0 255
-0.05475241 -0.1380412 0.2026922 255 0 255
-0.05347155 -0.1386617 0.2036102 255 0 255
-0.05210748 -0.1386878 0.2037216 255 0 255
-0.05081396 -0.1393023 0.2046317 255 0 255
-0.04944514 -0.1393223 0.2047347 255 0 255
-0.04813901 -0.1399308 0.2056369 255 0 255
-0.04670631 -0.1393528 0.2049273 255 0 255
-0.04539162 -0.1399551 0.2058213 255 0 255
-0.0440174 -0.1399625 0.2059068 255 0 255
-0.0426429 -0.1399669 0.2059879 255 0 255
-0.0412681 -0.1399681 0.2060646 255 0 255
-0.03989308 -0.1399661 0.2061368 255 0 255
-0.03851778 -0.139961 0.2062046 255 0 255
-0.03717387 -0.1405444 0.2070736 255 0 255
-0.03579422 -0.1405331 0.2071327 255 0 255
-0.03441439 -0.1405185 0.2071873 255 0 255
-0.03305418 -0.1410924 0.2080436 255 0 255
-0.03167011 -0.1410715 0.2080895 255 0 255
-0.03028594 -0.1410475 0.208131 255 0 255
-0.02890959 -0.1416116 0.2089743 255 0 255
-0.02752933 -0.1427637 0.2106199 255 0 255
-0.02613305 -0.1421387 0.2098416 255 0 255
-0.02473294 -0.1432839 0.2114786 255 0 255
-0.02332492 -0.1438347 0.2123046 255 0 255
-0.02192075 -0.143791 0.2123195 255 0 255
-0.02048522 -0.1449256 0.2139433 255 0 255
-0.01903393 -0.1460565 0.2155627 255 0 255
-0.0176142 -0.1460027 0.215564 255 0 255
-0.01619452 -0.1459457 0.2155607 255 0 255
-0.01483798 -0.1447053 0.2139393 255 0 255
-0.01346189 -0.1440523 0.2131203 255 0 255
-0.01221198 -0.1416273 0.2098768 255 0 255
-0.01086383 -0.1409692 0.209049 255 0 255
-0.009571037 -0.1397191 0.2074102 255 0 255
-0.008396638 -0.1372884 0.2041546 255 0 255
-0.007419412 -0.1330897 0.1984762 255 0 255
-0.006556648 -0.1283025 0.1919888 255 0 255
-0.006828483 -0.1135132 0.1717953 255 0 255
0.06877359 -0.1125304 0.1740685 255 0 255
0.06938765 -0.1111674 0.1722328 255 0 255
0.06998523 -0.1098046 0.1703968 255 0 255
0.07025936 -0.1078868 0.1677877 255 0 255
0.07113092 -0.1070805 0.166724 255 0 255
0.07136464 -0.1051653 0.1641164 255 0 255
0.0718926 -0.1038055 0.1622807 255 0 255
0.07272605 -0.1029986 0.161214 255 0 255
0.07355057 -0.1021907 0.1601455 255 0 255
0.07469556 -0.1019324 0.1598422 255 0 255
0.07550597 -0.1011219 0.1587692 255 0 255
0.07630742 -0.1003104 0.1576943 255 0 255
0.07709996 -0.09949812 0.1566178 255 0 255
0.07822789 -0.09923209 0.1563027 255 0 255
0.07865816 -0.09787104 0.1544599 255 0 255
0.07977562 -0.09760171 0.1541394 255 0 255
0.08089156 -0.09732978 0.1538152 255 0 255
0.08236513 -0.09759884 0.154246 255 0 255
0.0834817 -0.09732091 0.1539133 255 0 255
0.08423007 -0.09649885 0.1528206 255 0 255
0.08496951 -0.09567603 0.1517263 255 0 255
0.08569992 -0.0948526 0.1506307 255 0 255
-0.1267494 -0.1354703 0.1926414 255 0 255
-0.1291158 -0.1431754 0.2029375 255 0 255
-0.1283027 -0.1445307 0.2048255 255 0 255
-0.1266443 -0.1441485 0.2044112 255 0 255
-0.1255368 -0.1449207 0.2055269 255 0 255
-0.123883 -0.144531 0.2051018 255 0 255
-0.1219704 -0.1435567 0.2039004 255 0 255
-0.1203326 -0.1431581 0.2034618 255 0 255
-0.118701 -0.1427553 0.203017 255 0 255
-0.1168222 -0.1417665 0.2017931 255 0 255
-0.1157059 -0.1425196 0.2028824 255 0 255
-0.1140892 -0.1421049 0.2024199 255 0 255
-0.1127207 -0.1422694 0.2027268 255 0 255
-0.1111128 -0.141847 0.202253 255 0 255
-0.1095112 -0.1414205 0.2017731 255 0 255
-0.1079159 -0.1409901 0.2012871 255 0 255
-0.1065537 -0.1411407 0.201574 255 0 255
-0.1047448 -0.1401172 0.2002974 255 0 255
-0.1033878 -0.1402607 0.2005739 255 0 255
-0.1020297 -0.1404009 0.2008461 255 0 255
-0.1004591 -0.1399516 0.2003321 255 0 255
-0.09868778 -0.1389112 0.1990296 255 0 255
-0.09754123 -0.1396284 0.2000698 255 0 255
-0.09598657 -0.1391678 0.199539 255 0 255
-0.09463435 -0.1392913 0.1997872 255 0 255
-0.09347297 -0.1400003 0.2008165 255 0 255
-0.09230279 -0.1407067 0.2018428 255 0 255
-0.09093969 -0.1408216 0.2020793 255 0 255
-0.08957556 -0.1409334 0.2023115 255 0 255
-0.08803404 -0.1404523 0.2017512 255 0 255
-0.0864993 -0.1399675 0.2011852 255 0 255
-0.08497141 -0.139479 0.2006136 255 0 255
-0.08345032 -0.1389867 0.2000364 255 0 255
-0.08209701 -0.1390817 0.2002442 255 0 255
-0.0808998 -0.1397647 0.2012389 255 0 255
-0.07938775 -0.1392623 0.2006469 255 0 255
-0.07803189 -0.139348 0.2008417 255 0 255
-0.07667518 -0.1394305 0.2010321 255 0 255
-0.07531768 -0.1395099 0.2012182 255 0 255
-0.07395938 -0.1395862 0.2013999 255 0 255
-0.07273395 -0.1402519 0.2023717 255 0 255
-0.07137024 -0.1403222 0.2025452 255 0 255
-0.07013161 -0.1409823 0.2035097 255 0 255
-0.06864073 -0.1404533 0.2028791 255 0 255
-0.06715702 -0.1399209 0.2022431 255 0 255
-0.06556641 -0.1387916 0.2008051 255 0 255
-0.06421112 -0.1388457 0.2009554 255 0 255
-0.06274898 -0.138303 0.2003037 255 0 255
-0.06139638 -0.1383508 0.2004448 255 0 255
-0.06014156 -0.1389895 0.2013801 255 0 255
-0.05868948 -0.1384371 0.2007141 255 0 255
-0.05733524 -0.1384756 0.2008422 255 0 255
-0.05598048 -0.138511 0.200966 255 0 255
-0.0547079 -0.1391377 0.2018852 255 0 255
-0.05342699 -0.1397615 0.2028008 255 0 255
-0.05206296 -0.1397877 0.2029122 255 0 255
-0.05076938 -0.1404055 0.2038199 255 0 255
-0.04940061 -0.1404255 0.2039228 255 0 255
-0.04803146 -0.1404424 0.2040212 255 0 255
-0.04660286 -0.1398614 0.2033135 255 0 255
-0.04534717 -0.1410617 0.2050068 255 0 255
-0.04397304 -0.1410692 0.2050923 255 0 255
-0.04259858 -0.1410736 0.2051734 255 0 255
-0.04122386 -0.1410749 0.20525 255 0 255
-0.03988825 -0.1416679 0.206125 255 0 255
-0.03850908 -0.1416628 0.206193 255 0 255
-0.03716118 -0.1422495 0.2070598 255 0 255
-0.03577766 -0.142238 0.207119 255 0 255
-0.03439395 -0.1422235 0.2071739 255 0 255
-0.03302975 -0.1428005 0.2080279 255 0 255
-0.03164181 -0.1427795 0.2080739 255 0 255
-0.03025377 -0.1427554 0.2081155 255 0 255
-0.02888125 -0.1439172 0.2097606 255 0 255
-0.02749292 -0.1450754 0.2114017 255 0 255
-0.02608885 -0.1450415 0.2114302 255 0 255
-0.02468479 -0.1450043 0.2114541 255 0 255
-0.02327273 -0.1455579 0.2122779 255 0 255
-0.02186473 -0.1455142 0.2122928 255 0 255
-0.02044089 -0.1460611 0.2131076 255 0 255
-0.01898947 -0.1471983 0.2147224 255 0 255
-0.01756977 -0.1471445 0.2147237 255 0 255
-0.01615021 -0.1470874 0.2147204 255 0 255
-0.01482557 -0.1452474 0.2122993 255 0 255
-0.01348917 -0.1439983 0.2106783 255 0 255
-0.0123662 -0.1397822 0.2050313 255 0 255
-0.01121172 -0.1367511 0.2009891 255 0 255
-0.01019161 -0.132534 0.1953349 255 0 255
-0.009432182 -0.1259477 0.1864611 255 0 255
-0.01202192 -0.07431258 0.1164545 255 0 255
0.07061992 -0.1144045 0.1745892 255 0 255
0.07123234 -0.113032 0.1727544 255 0 255
0.07121419 -0.1105427 0.1693784 255 0 255
0.07147525 -0.1086148 0.1667753 255 0 255
0.07171233 -0.106689 0.164174 255 0 255
0.07224376 -0.1053218 0.1623422 255 0 255
0.07275875 -0.1039551 0.1605104 255 0 255
0.07358307 -0.1031437 0.1594445 255 0 255
0.07472803 -0.102885 0.1591415 255 0 255
0.07587152 -0.1026238 0.1588348 255 0 255
0.07667655 -0.1018079 0.1577616 255 0 255
0.07713186 -0.1004402 0.155925 255 0 255
0.07791524 -0.09962346 0.1548494 255 0 255
0.07868971 -0.09880605 0.1537722 255 0 255
0.07945525 -0.09798782 0.1526935 255 0 255
0.080923 -0.09826392 0.1531282 255 0 255
0.08203731 -0.097989 0.1528006 255 0 255
0.0831501 -0.09771158 0.1524694 255 0 255
0.0842613 -0.09743161 0.1521345 255 0 255
0.08500056 -0.09660529 0.1510429 255 0 255
0.08610487 -0.09632117 0.1507018 255 0 255
-0.1272756 -0.1377235 0.1933552 255 0 255
-0.1287819 -0.1437282 0.2013338 255 0 255
-0.1279723 -0.1450895 0.2032159 255 0 255
-0.12687 -0.1458679 0.2043326 255 0 255
-0.1252141 -0.1454792 0.2039149 255 0 255
-0.1238327 -0.1456692 0.2042577 255 0 255
-0.1221851 -0.1452726 0.2038283 255 0 255
-0.1205437 -0.1448717 0.2033926 255 0 255
-0.1186514 -0.1438822 0.2021812 255 0 255
-0.1170262 -0.1434724 0.2017322 255 0 255
-0.1154072 -0.1430586 0.201277 255 0 255
-0.1137945 -0.1426406 0.2008157 255 0 255
-0.1126717 -0.1433914 0.2018946 255 0 255
-0.1110639 -0.1429662 0.2014228 255 0 255
-0.1094625 -0.142537 0.200945 255 0 255
-0.1080978 -0.1426914 0.2012368 255 0 255
-0.1067319 -0.1428427 0.2015242 255 0 255
-0.1049194 -0.1418137 0.2002528 255 0 255
-0.1033399 -0.1413689 0.1997519 255 0 255
-0.1019818 -0.1415095 0.2000238 255 0 255
-0.1004114 -0.1410572 0.1995119 255 0 255
-0.09884761 -0.1406011 0.1989941 255 0 255
-0.09749378 -0.1407315 0.1992515 255 0 255
-0.09593931 -0.140268 0.1987229 255 0 255
-0.09458715 -0.1403918 0.1989709 255 0 255
-0.09342571 -0.1411042 0.1999976 255 0 255
-0.09225547 -0.141814 0.2010214 255 0 255
-0.0907084 -0.141337 0.2004733 255 0 255
-0.08952837 -0.1420412 0.2014897 255 0 255
-0.08798703 -0.1415572 0.2009315 255 0 255
-0.08662491 -0.1416627 0.2011541 255 0 255
-0.08526184 -0.141765 0.2013723 255 0 255
-0.08373318 -0.1412703 0.2007985 255 0 255
-0.08237216 -0.1413661 0.2010073 255 0 255
-0.08116709 -0.142053 0.2020006 255 0 255
-0.07949454 -0.1409537 0.2006226 255 0 255
-0.07813479 -0.1410397 0.2008178 255 0 255
-0.07677425 -0.1411227 0.2010086 255 0 255
-0.07541293 -0.1412025 0.201195 255 0 255
-0.07405081 -0.1412793 0.2013772 255 0 255
-0.07295483 -0.1425442 0.203139 255 0 255
-0.07145385 -0.1420191 0.2025208 255 0 255
-0.07021126 -0.1426827 0.2034833 255 0 255
-0.06871666 -0.142151 0.2028554 255 0 255
-0.06711141 -0.1410193 0.2014281 255 0 255
-0.06563506 -0.1404805 0.2007891 255 0 255
-0.06416589 -0.1399381 0.2001448 255 0 255
-0.06281003 -0.1399893 0.2002907 255 0 255
-0.06145359 -0.1400374 0.2004321 255 0 255
-0.06009656 -0.1400823 0.2005692 255 0 255
-0.05873899 -0.1401241 0.2007019 255 0 255
-0.05738089 -0.1401629 0.2008303 255 0 255
-0.05602228 -0.1401985 0.2009543 255 0 255
-0.05474571 -0.1408286 0.2018716 255 0 255
-0.0533822 -0.140858 0.2019872 255 0 255
-0.05209294 -0.1414821 0.2028966 255 0 255
-0.05079538 -0.1421032 0.2038023 255 0 255
-0.04935594 -0.1415255 0.2031066 255 0 255
-0.04798685 -0.1415425 0.2032049 255 0 255
-0.04661739 -0.1415563 0.2032989 255 0 255
-0.04530257 -0.1421651 0.2041881 255 0 255
-0.04397957 -0.1427707 0.2050734 255 0 255
-0.04264839 -0.1433732 0.2059547 255 0 255
-0.04126585 -0.1433745 0.2060317 255 0 255
-0.03988307 -0.1433726 0.2061042 255 0 255
-0.03850004 -0.1433676 0.2061724 255 0 255
-0.03714815 -0.1439575 0.2070369 255 0 255
-0.03576076 -0.1439461 0.2070963 255 0 255
-0.0343732 -0.1439315 0.2071513 255 0 255
-0.033005 -0.1445116 0.2080031 255 0 255
-0.03162876 -0.1450884 0.2088507 255 0 255
-0.03023292 -0.1450642 0.2088925 255 0 255
-0.02885234 -0.1462322 0.2105332 255 0 255
-0.0274522 -0.146799 0.211368 255 0 255
-0.02604427 -0.1467649 0.2113965 255 0 255
-0.02463635 -0.1467276 0.2114206 255 0 255
-0.0232203 -0.1472843 0.2122421 255 0 255
-0.02179638 -0.1478375 0.213059 255 0 255
-0.02038061 -0.1477903 0.2130695 255 0 255
-0.01892504 -0.1489336 0.2146796 255 0 255
-0.01752533 -0.1482829 0.2138789 255 0 255
-0.01616144 -0.1470326 0.2122715 255 0 255
-0.01487688 -0.144587 0.2090555 255 0 255
-0.013624 -0.1421396 0.2058353 255 0 255
-0.01275939 -0.1343261 0.1953931 255 0 255
-0.01212812 -0.1247269 0.1825423 255 0 255
-0.01214569 -0.1085791 0.1608693 255 0 255
-0.01422813 -0.07100441 0.1103336 255 0 255
0.07209639 -0.1207385 0.1810688 255 0 255
0.07215223 -0.118227 0.1776932 255 0 255
0.07187315 -0.1151563 0.1735515 255 0 255
0.07216914 -0.1132143 0.1709513 255 0 255
0.07213026 -0.1107133 0.1675854 255 0 255
0.0720598 -0.1082162 0.1642231 255 0 255
0.07227629 -0.1062821 0.1616299 255 0 255
0.0731131 -0.1054673 0.1605675 255 0 255
0.07361513 -0.1040939 0.1587397 255 0 255
0.07476001 -0.1038349 0.1584371 255 0 255
0.0759034 -0.1035732 0.1581307 255 0 255
0.07670826 -0.1027538 0.1570601 255 0 255
0.07716331 -0.1013794 0.1552284 255 0 255
0.0782911 -0.1011125 0.1549138 255 0 255
0.0790691 -0.1002907 0.1538382 255 0 255
0.07983816 -0.09946804 0.152761 255 0 255
0.08095392 -0.09919528 0.1524375 255 0 255
0.08242758 -0.09946967 0.1528644 255 0 255
0.083544 -0.09919088 0.1525324 255 0 255
0.08429203 -0.09836169 0.1514448 255 0 255
0.08540155 -0.09807871 0.1511066 255 0 255
0.08613538 -0.09724726 0.1500151 255 0 255
-0.1287311 -0.1448552 0.2004911 255 0 255
-0.1276417 -0.1456387 0.2016066 255 0 255
-0.126543 -0.14642 0.2027196 255 0 255
-0.1248911 -0.1460281 0.202303 255 0 255
-0.1235136 -0.146218 0.2026446 255 0 255
-0.12187 -0.1458181 0.2022163 255 0 255
-0.1202326 -0.145414 0.2017817 255 0 255
-0.1180876 -0.1438304 0.1998065 255 0 255
-0.1167233 -0.1440051 0.200126 255 0 255
-0.1151083 -0.1435879 0.1996719 255 0 255
-0.1137451 -0.1437558 0.1999818 255 0 255
-0.1126222 -0.14451 0.201058 255 0 255
-0.1112524 -0.144672 0.2013599 255 0 255
-0.1096475 -0.1442404 0.200885 255 0 255
-0.1080488 -0.1438048 0.2004041 255 0 255
-0.1064566 -0.1433651 0.1999172 255 0 255
-0.1048708 -0.1429214 0.1994244 255 0 255
-0.1032915 -0.1424738 0.1989255 255 0 255
-0.1019334 -0.1426147 0.1991972 255 0 255
-0.1003633 -0.1421596 0.1986874 255 0 255
-0.09879969 -0.1417006 0.1981718 255 0 255
-0.09764915 -0.142425 0.1992076 255 0 255
-0.09629042 -0.1425529 0.1994611 255 0 255
-0.0949306 -0.1426778 0.1997103 255 0 255
-0.0935697 -0.1427995 0.1999552 255 0 255
-0.09239553 -0.1435131 0.2009771 255 0 255
-0.09084479 -0.1430335 0.2004317 255 0 255
-0.08948078 -0.1431457 0.2006635 255 0 255
-0.08793966 -0.1426588 0.2001075 255 0 255
-0.08657759 -0.1427645 0.2003299 255 0 255
-0.08521459 -0.142867 0.2005479 255 0 255
-0.08368614 -0.1423695 0.1999763 255 0 255
-0.08232522 -0.1424655 0.2001849 255 0 255
-0.08112011 -0.1431558 0.2011758 255 0 255
-0.07960068 -0.142648 0.2005893 255 0 255
-0.07808822 -0.1421366 0.1999973 255 0 255
-0.07672772 -0.1422198 0.2001879 255 0 255
-0.07550762 -0.1428982 0.2011629 255 0 255
-0.07414167 -0.1429753 0.2013454 255 0 255
-0.07290828 -0.1436481 0.2023132 255 0 255
-0.0714075 -0.1431201 0.2016972 255 0 255
-0.07016485 -0.143787 0.2026573 255 0 255
-0.06867047 -0.1432523 0.2020315 255 0 255
-0.06706555 -0.1421145 0.2006088 255 0 255
-0.06570317 -0.1421724 0.2007641 255 0 255
-0.06423032 -0.1416272 0.2001225 255 0 255
-0.06276466 -0.1410786 0.1994758 255 0 255
-0.06140829 -0.1411268 0.1996171 255 0 255
-0.05995325 -0.1405715 0.1989603 255 0 255
-0.05859968 -0.1406134 0.1990927 255 0 255
-0.05733583 -0.1412527 0.200015 255 0 255
-0.05597729 -0.1412884 0.2001389 255 0 255
-0.05470068 -0.1419217 0.2010537 255 0 255
-0.05349417 -0.143153 0.2027602 255 0 255
-0.05219698 -0.1437805 0.2036679 255 0 255
-0.05082091 -0.143804 0.2037756 255 0 255
-0.04944443 -0.1438243 0.2038789 255 0 255
-0.0480048 -0.1432404 0.2031811 255 0 255
-0.04663151 -0.1432544 0.2032752 255 0 255
-0.04531271 -0.1438663 0.2041623 255 0 255
-0.0439857 -0.1444752 0.2050454 255 0 255
-0.04260356 -0.1444798 0.2051268 255 0 255
-0.04126415 -0.1450823 0.2060017 255 0 255
-0.03991662 -0.1456817 0.2068726 255 0 255
-0.03849063 -0.1450755 0.2061427 255 0 255
-0.03713476 -0.1456685 0.2070051 255 0 255
-0.0357435 -0.1456571 0.2070646 255 0 255
-0.03432873 -0.1450414 0.2063208 255 0 255
-0.0329799 -0.1462258 0.2079693 255 0 255
-0.03158422 -0.1462048 0.2080156 255 0 255
-0.03018846 -0.1461805 0.2080573 255 0 255
-0.02880772 -0.1473548 0.2096933 255 0 255
-0.02741118 -0.1485255 0.2113251 255 0 255
-0.02599908 -0.1490919 0.2121533 255 0 255
-0.02458331 -0.1490544 0.2121774 255 0 255
-0.02315939 -0.149614 0.2129967 255 0 255
-0.02172755 -0.1501702 0.2138114 255 0 255
-0.02030394 -0.1501226 0.213822 255 0 255
-0.01890046 -0.1494718 0.2130282 255 0 255
-0.01750491 -0.148818 0.2122298 255 0 255
-0.01617317 -0.1469619 0.2098275 255 0 255
-0.01502451 -0.1421057 0.2034222 255 0 255
-0.01402962 -0.115615 0.1682109 255 0 255
-0.01562724 -0.0772197 0.1170212 255 0 255
0.07390686 -0.125173 0.1849091 255 0 255
0.07338551 -0.1215111 0.1800023 255 0 255
0.07312087 -0.1184214 0.1758689 255 0 255
0.07312432 -0.1159016 0.1725064 255 0 255
0.07247419 -0.1122574 0.1676175 255 0 255
0.07272176 -0.1103098 0.1650278 255 0 255
0.07294536 -0.1083644 0.16244 255 0 255
0.07346725 -0.1069829 0.1606161 255 0 255
0.07397274 -0.1056021 0.1587924 255 0 255
0.07512128 -0.1053417 0.158489 255 0 255
0.07593488 -0.1045198 0.1574228 255 0 255
0.07673951 -0.1036969 0.1563549 255 0 255
0.07753521 -0.1028732 0.1552851 255 0 255
0.078322 -0.1020486 0.1542138 255 0 255
0.07909979 -0.1012232 0.1531409 255 0 255
0.07986866 -0.1003971 0.1520663 255 0 255
0.08098439 -0.1001239 0.1517431 255 0 255
0.08245806 -0.1004009 0.1521681 255 0 255
0.08357438 -0.1001217 0.1518364 255 0 255
0.08432224 -0.09928897 0.1507515 255 0 255
0.08543172 -0.09900557 0.1504136 255 0 255
0.08616532 -0.09817056 0.1493247 255 0 255
-0.1309087 -0.1475359 0.2015581 255 0 255
-0.1298131 -0.1483272 0.2026773 255 0 255
-0.1275902 -0.1467659 0.2007568 255 0 255
-0.1264916 -0.1475507 0.2018671 255 0 255
-0.1248398 -0.1471561 0.2014526 255 0 255
-0.1234624 -0.1473464 0.2017939 255 0 255
-0.121819 -0.1469437 0.2013676 255 0 255
-0.1204425 -0.1471271 0.2016992 255 0 255
-0.1185509 -0.1461258 0.2004965 255 0 255
-0.116926 -0.1457105 0.2000517 255 0 255
-0.1153075 -0.1452911 0.1996006 255 0 255
-0.1139405 -0.1454598 0.199911 255 0 255
-0.1125722 -0.1456254 0.2002171 255 0 255
-0.1109648 -0.1451946 0.1997495 255 0 255
-0.1095977 -0.1453533 0.2000459 255 0 255
-0.1077693 -0.1443208 0.1987962 255 0 255
-0.1061811 -0.143878 0.1983106 255 0 255
-0.1045994 -0.143431 0.197819 255 0 255
-0.1030241 -0.1429802 0.1973216 255 0 255
-0.10167 -0.143121 0.1975922 255 0 255
-0.1003147 -0.1432587 0.1978587 255 0 255
-0.09895831 -0.1433932 0.1981207 255 0 255
-0.09760075 -0.1435246 0.1983783 255 0 255
-0.09624209 -0.1436529 0.1986317 255 0 255
-0.0950777 -0.1443755 0.1996583 255 0 255
-0.09371304 -0.1444978 0.1999037 255 0 255
-0.09234729 -0.1446169 0.2001447 255 0 255
-0.09098049 -0.1447329 0.2003812 255 0 255
-0.08961273 -0.1448458 0.2006135 255 0 255
-0.08806796 -0.1443563 0.2000603 255 0 255
-0.08670209 -0.1444625 0.2002831 255 0 255
-0.08516704 -0.1439658 0.1997193 255 0 255
-0.08380316 -0.1440654 0.1999327 255 0 255
-0.08243842 -0.1441619 0.2001418 255 0 255
-0.08122935 -0.1448558 0.2011307 255 0 255
-0.07970626 -0.1443453 0.2005469 255 0 255
-0.07848769 -0.1450334 0.2015281 255 0 255
-0.07697073 -0.1445162 0.2009345 255 0 255
-0.07574274 -0.1451984 0.2019081 255 0 255
-0.07436906 -0.1452761 0.2020915 255 0 255
-0.07286144 -0.1447487 0.2014831 255 0 255
-0.07136087 -0.1442177 0.2008693 255 0 255
-0.07011817 -0.144888 0.2018269 255 0 255
-0.06850254 -0.1437478 0.2004146 255 0 255
-0.067137 -0.1438091 0.2005745 255 0 255
-0.06577079 -0.1438673 0.2007301 255 0 255
-0.06418449 -0.1427162 0.1993011 255 0 255
-0.06282486 -0.1427679 0.1994471 255 0 255
-0.06146466 -0.1428163 0.1995887 255 0 255
-0.0600059 -0.1422582 0.1989347 255 0 255
-0.05855445 -0.1416967 0.1982755 255 0 255
-0.05738067 -0.142943 0.1999876 255 0 255
-0.0561045 -0.1435827 0.2009042 255 0 255
-0.05473771 -0.1436156 0.2010244 255 0 255
-0.05352711 -0.1448533 0.2027264 255 0 255
-0.05215154 -0.14488 0.2028385 255 0 255
-0.05084601 -0.1455078 0.2037399 255 0 255
-0.04939915 -0.144924 0.2030493 255 0 255
-0.04802236 -0.1449413 0.2031482 255 0 255
-0.04658652 -0.1443511 0.2024479 255 0 255
-0.04532244 -0.1455706 0.2041274 255 0 255
-0.04399147 -0.1461827 0.2050083 255 0 255
-0.04260545 -0.1461873 0.2050899 255 0 255
-0.04126209 -0.1467931 0.2059626 255 0 255
-0.03991057 -0.1473956 0.2068313 255 0 255
-0.0385159 -0.1473906 0.2069 255 0 255
-0.03712099 -0.1473825 0.2069641 255 0 255
-0.03575306 -0.1479754 0.2078201 255 0 255
-0.03435383 -0.1479607 0.2078755 255 0 255
-0.03297374 -0.1485471 0.208723 255 0 255
-0.0315856 -0.1491301 0.2095663 255 0 255
-0.03017811 -0.1491056 0.2096083 255 0 255
-0.02878539 -0.150286 0.2112399 255 0 255
-0.02737681 -0.1514627 0.2128672 255 0 255
-0.02595334 -0.1514282 0.2128961 255 0 255
-0.0245254 -0.1519941 0.2137176 255 0 255
-0.0230979 -0.151953 0.2137374 255 0 255
-0.02167046 -0.1519085 0.2137526 255 0 255
-0.02025921 -0.1512575 0.2129658 255 0 255
-0.01883576 -0.1512067 0.2129718 255 0 255
-0.01748468 -0.1493436 0.2105812 255 0 255
-0.01621343 -0.1462723 0.2065913 255 0 255
-0.01536551 -0.1359671 0.1930292 255 0 255
-0.01526244 -0.1154219 0.1659098 255 0 255
0.07791683 -0.1310816 0.1907077 255 0 255
0.07558323 -0.1239831 0.1812215 255 0 255
0.07500165 -0.1203083 0.1763343 255 0 255
0.07375123 -0.1155061 0.1699288 255 0 255
0.07369858 -0.1129792 0.1665811 255 0 255
0.07393304 -0.1110217 0.1639977 255 0 255
0.07446589 -0.1096311 0.1621759 255 0 255
0.0749823 -0.1082412 0.1603542 255 0 255
0.07548229 -0.106852 0.1585326 255 0 255
0.07629943 -0.1060257 0.157468 255 0 255
0.07710765 -0.1051984 0.1564017 255 0 255
0.0775658 -0.10381 0.1545789 255 0 255
0.0783524 -0.1029819 0.1535102 255 0 255
0.0794785 -0.1027116 0.1531926 255 0 255
0.07989871 -0.1013234 0.151368 255 0 255
0.08137026 -0.1016065 0.1517956 255 0 255
0.08248804 -0.1013294 0.151468 255 0 255
0.08360426 -0.1010497 0.1511367 255 0 255
0.08435196 -0.1002135 0.1500544 255 0 255
0.08546133 -0.09992966 0.1497169 255 0 255
0.08619474 -0.09909113 0.1486307 255 0 255
-0.131253 -0.1435386 0.1939417 255 0 255
-0.1314302 -0.1498444 0.2022099 255 0 255
-0.1297607 -0.1494599 0.2018164 255 0 255
-0.1272589 -0.147299 0.1991456 255 0 255
-0.1261639 -0.1480868 0.2002524 255 0 255
-0.124788 -0.1482807 0.2005978 255 0 255
-0.1231426 -0.147879 0.2001789 255 0 255
-0.1217675 -0.148066 0.2005146 255 0 255
-0.120391 -0.1482497 0.2008458 255 0 255
-0.1184998 -0.1472426 0.1996476 255 0 255
-0.1166224 -0.1462302 0.1984414 255 0 255
-0.1152569 -0.1464024 0.1987559 255 0 255
-0.1136448 -0.1459761 0.1983008 255 0 255
-0.1125217 -0.1467373 0.1993718 255 0 255
-0.1109146 -0.1463037 0.1989063 255 0 255
-0.1093138 -0.1458661 0.1984348 255 0 255
-0.1077195 -0.1454244 0.1979573 255 0 255
-0.1061315 -0.1449787 0.1974738 255 0 255
-0.10455 -0.144529 0.1969843 255 0 255
-0.1031933 -0.1446737 0.1972599 255 0 255
-0.101621 -0.1442165 0.1967595 255 0 255
-0.1004764 -0.1449536 0.197798 255 0 255
-0.09890939 -0.1444893 0.1972874 255 0 255
-0.09755194 -0.144621 0.1975448 255 0 255
-0.09619333 -0.1447494 0.1977979 255 0 255
-0.09502891 -0.1454755 0.1988221 255 0 255
-0.09366431 -0.1455981 0.1990671 255 0 255
-0.09229869 -0.1457175 0.1993079 255 0 255
-0.09093197 -0.1458337 0.1995443 255 0 255
-0.08956429 -0.1459468 0.1997763 255 0 255
-0.08801972 -0.1454545 0.1992253 255 0 255
-0.08682594 -0.1461634 0.2002272 255 0 255
-0.08528722 -0.1456642 0.1996662 255 0 255
-0.08391956 -0.1457643 0.1998801 255 0 255
-0.08255101 -0.1458612 0.2000897 255 0 255
-0.08118156 -0.145955 0.2002948 255 0 255
-0.07965867 -0.1454417 0.1997133 255 0 255
-0.07844008 -0.1461331 0.200692 255 0 255
-0.07692333 -0.1456129 0.2001006 255 0 255
-0.07555443 -0.1456938 0.2002877 255 0 255
-0.07404778 -0.1451666 0.1996859 255 0 255
-0.07268124 -0.1452409 0.1998637 255 0 255
-0.07131397 -0.1453121 0.2000371 255 0 255
-0.06994597 -0.1453801 0.2002062 255 0 255
-0.06857727 -0.145445 0.2003709 255 0 255
-0.0672079 -0.1455067 0.2005312 255 0 255
-0.06583788 -0.1455652 0.2006871 255 0 255
-0.0643576 -0.1450143 0.2000509 255 0 255
-0.06288458 -0.1444601 0.1994095 255 0 255
-0.06152053 -0.1445088 0.1995514 255 0 255
-0.06005809 -0.1439478 0.1989 255 0 255
-0.05860294 -0.1433835 0.1982435 255 0 255
-0.05742505 -0.1446362 0.1999511 255 0 255
-0.05614489 -0.1452793 0.2008656 255 0 255
-0.05485641 -0.1459194 0.2017764 255 0 255
-0.05363778 -0.1471637 0.2034744 255 0 255
-0.05225446 -0.1471907 0.2035869 255 0 255
-0.05087069 -0.1472145 0.2036951 255 0 255
-0.04942011 -0.1466278 0.2030072 255 0 255
-0.047977 -0.1460378 0.2023142 255 0 255
-0.04654141 -0.1454446 0.2016164 255 0 255
-0.04527714 -0.1466704 0.203291 255 0 255
-0.04394614 -0.1472857 0.2041695 255 0 255
-0.04256022 -0.1472903 0.204251 255 0 255
-0.04121683 -0.1478993 0.2051213 255 0 255
-0.03986528 -0.1485051 0.2059875 255 0 255
-0.03850561 -0.1491076 0.2068497 255 0 255
-0.03713786 -0.1497069 0.2077079 255 0 255
-0.03573497 -0.1496954 0.2077678 255 0 255
-0.034355 -0.1502881 0.2086174 255 0 255
-0.03298613 -0.1514848 0.210257 255 0 255
-0.03158614 -0.1520708 0.2110982 255 0 255
-0.0301782 -0.1526534 0.2119352 255 0 255
-0.02876223 -0.1532325 0.2127678 255 0 255
-0.02733831 -0.1538083 0.213596 255 0 255
-0.02590644 -0.1543805 0.2144198 255 0 255
-0.02447571 -0.1537356 0.2136494 255 0 255
-0.02304437 -0.1536943 0.2136693 255 0 255
-0.02162543 -0.1530432 0.2128896 255 0 255
-0.02024709 -0.1511761 0.2105153 255 0 255
-0.01893302 -0.148094 0.2065465 255 0 255
-0.01777955 -0.1419793 0.1985982 255 0 255
-0.0176357 -0.09339999 0.1349925 255 0 255
0.07622477 -0.1261603 0.18196 255 0 255
0.07534256 -0.121894 0.1763241 255 0 255
0.07409501 -0.1170658 0.1699368 255 0 255
0.07404561 -0.1145254 0.1665978 255 0 255
0.07428343 -0.1125575 0.1640208 255 0 255
0.07481974 -0.1111595 0.162203 255 0 255
0.07468721 -0.1086284 0.1588724 255 0 255
0.07551306 -0.1077995 0.1578123 255 0 255
0.07599632 -0.1064045 0.1559959 255 0 255
0.07680064 -0.1055747 0.1549332 255 0 255
0.07759594 -0.1047439 0.1538689 255 0 255
0.07838232 -0.1039124 0.1528028 255 0 255
0.07950836 -0.1036417 0.1524855 255 0 255
0.08028055 -0.1028076 0.1514152 255 0 255
0.0817558 -0.1030925 0.1518399 255 0 255
0.0825175 -0.1022551 0.1507643 255 0 255
0.08363365 -0.101975 0.1504333 255 0 255
0.08474822 -0.1016923 0.1500987 255 0 255
0.08586118 -0.1014071 0.1497604 255 0 255
0.08659813 -0.1005641 0.1486757 255 0 255
-0.1326729 -0.1475966 0.1968517 255 0 255
-0.1321805 -0.1495827 0.1994726 255 0 255
-0.1310902 -0.1503836 0.2005898 255 0 255
-0.1294246 -0.1499959 0.2001974 255 0 255
-0.1274858 -0.1490101 0.199044 255 0 255
-0.1261115 -0.1492076 0.1993936 255 0 255
-0.124464 -0.1488069 0.198982 255 0 255
-0.1228226 -0.1484021 0.1985644 255 0 255
-0.1214514 -0.1485888 0.1988988 255 0 255
-0.1198184 -0.148176 0.1984696 255 0 255
-0.1181917 -0.147759 0.1980341 255 0 255
-0.1165712 -0.1473377 0.1975926 255 0 255
-0.1149568 -0.1469124 0.1971448 255 0 255
-0.1133488 -0.1464829 0.196691 255 0 255
-0.1122295 -0.147247 0.1977585 255 0 255
-0.1106265 -0.1468102 0.1972943 255 0 255
-0.1092634 -0.1469691 0.1975894 255 0 255
-0.1076692 -0.1465247 0.197114 255 0 255
-0.1058556 -0.1454756 0.1958657 255 0 255
-0.1042781 -0.1450227 0.1953776 255 0 255
-0.1029254 -0.1451672 0.1956521 255 0 255
-0.1015714 -0.1453086 0.1959223 255 0 255
-0.1004269 -0.1460491 0.1969583 255 0 255
-0.09906676 -0.1461846 0.1972206 255 0 255
-0.09770553 -0.1463169 0.1974785 255 0 255
-0.09634317 -0.1464461 0.1977322 255 0 255
-0.09517482 -0.1471758 0.1987543 255 0 255
-0.09361521 -0.1466949 0.1982263 255 0 255
-0.09243702 -0.147419 0.1992412 255 0 255
-0.09088305 -0.1469311 0.1987031 255 0 255
-0.08951546 -0.1470444 0.1989349 255 0 255
-0.08814687 -0.1471546 0.1991623 255 0 255
-0.0867773 -0.1472616 0.1993855 255 0 255
-0.08540679 -0.1473654 0.1996042 255 0 255
-0.08403536 -0.147466 0.1998185 255 0 255
-0.08266298 -0.1475635 0.2000284 255 0 255
-0.08144604 -0.1482645 0.2010133 255 0 255
-0.07991563 -0.1477488 0.2004352 255 0 255
-0.07854066 -0.1478367 0.200632 255 0 255
-0.07702024 -0.1473138 0.2000433 255 0 255
-0.07550681 -0.1467874 0.1994493 255 0 255
-0.07400041 -0.1462573 0.1988497 255 0 255
-0.07250103 -0.1457236 0.1982449 255 0 255
-0.07113778 -0.1457947 0.1984176 255 0 255
-0.06989889 -0.1464713 0.1993696 255 0 255
-0.06853029 -0.1465363 0.1995341 255 0 255
-0.06716099 -0.1465982 0.1996944 255 0 255
-0.06590443 -0.147266 0.2006351 255 0 255
-0.0644205 -0.1467123 0.2000015 255 0 255
-0.06294376 -0.1461553 0.1993628 255 0 255
-0.06157591 -0.1462043 0.1995051 255 0 255
-0.06010976 -0.1456404 0.1988563 255 0 255
-0.05865093 -0.1450731 0.1982025 255 0 255
-0.0573791 -0.1457224 0.1991182 255 0 255
-0.05609892 -0.1463687 0.2000302 255 0 255
-0.05489239 -0.1476223 0.2017267 255 0 255
-0.05359162 -0.1482627 0.2026317 255 0 255
-0.0522084 -0.1482898 0.2027442 255 0 255
-0.05089493 -0.1489241 0.2036412 255 0 255
-0.04950692 -0.1489448 0.2037452 255 0 255
-0.04799386 -0.1477415 0.2022656 255 0 255
-0.04661295 -0.1477557 0.2023602 255 0 255
-0.04534066 -0.1489879 0.2040304 255 0 255
-0.04395122 -0.1489959 0.2041166 255 0 255
-0.04260808 -0.1496112 0.2049889 255 0 255
-0.04129944 -0.1508339 0.206648 255 0 255
-0.03993606 -0.1514429 0.2075124 255 0 255
-0.03852975 -0.1514379 0.2075815 255 0 255
-0.03715409 -0.1520403 0.2084376 255 0 255
-0.03571653 -0.1514184 0.2077064 255 0 255
-0.0343326 -0.1520142 0.2085537 255 0 255
-0.03297867 -0.1538276 0.2109805 255 0 255
-0.03155569 -0.1538062 0.2110276 255 0 255
-0.03013265 -0.1537815 0.2110701 255 0 255
-0.02872387 -0.154974 0.2126925 255 0 255
-0.02729273 -0.1549426 0.2127262 255 0 255
-0.02586154 -0.1549079 0.2127552 255 0 255
-0.02443032 -0.1548699 0.2127796 255 0 255
-0.02299909 -0.1548287 0.2127995 255 0 255
-0.02158043 -0.1541744 0.2120222 255 0 255
-0.02021903 -0.1516883 0.2088626 255 0 255
-0.01909325 -0.1431057 0.1977726 255 0 255
-0.01854044 -0.1229477 0.1716189 255 0 255
0.07506112 -0.1197753 0.1714519 255 0 255
0.07533753 -0.1177922 0.1688768 255 0 255
0.0752712 -0.1152397 0.1655474 255 0 255
0.07581849 -0.1138327 0.1637318 255 0 255
0.07569662 -0.1112863 0.160408 255 0 255
0.07620353 -0.1098823 0.1585945 255 0 255
0.07636017 -0.1079108 0.156029 255 0 255
0.07716794 -0.1070766 0.154968 255 0 255
0.0776256 -0.105675 0.1531551 255 0 255
0.07875673 -0.1054056 0.1528409 255 0 255
0.07988638 -0.1051336 0.1525228 255 0 255
0.08066213 -0.1042952 0.1514542 255 0 255
0.08178499 -0.1040189 0.1511298 255 0 255
0.08290629 -0.10374 0.1508018 255 0 255
0.08402605 -0.1034585 0.15047 255 0 255
0.08514419 -0.1031745 0.1501347 255 0 255
0.08626077 -0.1028878 0.1497956 255 0 255
0.08700117 -0.1020404 0.1487124 255 0 255
-0.1330882 -0.1467135 0.1933807 255 0 255
-0.1335023 -0.1504927 0.1982372 255 0 255
-0.1327077 -0.151895 0.2001043 255 0 255
-0.1313231 -0.1521047 0.2004706 255 0 255
-0.1293711 -0.1511186 0.19933 255 0 255
-0.1274327 -0.150127 0.1981811 255 0 255
-0.1257831 -0.1497275 0.1977771 255 0 255
-0.1241397 -0.1493236 0.1973667 255 0 255
-0.1222346 -0.148317 0.1961951 255 0 255
-0.120871 -0.1485031 0.1965274 255 0 255
-0.1195061 -0.1486861 0.1968554 255 0 255
-0.1178834 -0.1482658 0.1964211 255 0 255
-0.1160144 -0.1472409 0.1952221 255 0 255
-0.1149054 -0.1480138 0.1962938 255 0 255
-0.1132976 -0.1475815 0.1958421 255 0 255
-0.1119372 -0.1477471 0.1961457 255 0 255
-0.1103382 -0.1473071 0.1956827 255 0 255
-0.1092124 -0.1480688 0.1967397 255 0 255
-0.1076185 -0.1476215 0.1962664 255 0 255
-0.1058052 -0.1465665 0.1950226 255 0 255
-0.1044499 -0.146715 0.195302 255 0 255
-0.1030934 -0.1468602 0.1955771 255 0 255
-0.1017358 -0.1470023 0.1958478 255 0 255
-0.1003769 -0.1471413 0.1961143 255 0 255
-0.09901689 -0.1472771 0.1963763 255 0 255
-0.09765574 -0.1474097 0.1966341 255 0 255
-0.09629349 -0.1475391 0.1968875 255 0 255
-0.09493013 -0.1476654 0.1971365 255 0 255
-0.09356574 -0.1477885 0.1973812 255 0 255
-0.09220026 -0.1479084 0.1976216 255 0 255
-0.09083378 -0.1480252 0.1978576 255 0 255
-0.08946629 -0.1481388 0.1980892 255 0 255
-0.08809779 -0.1482491 0.1983164 255 0 255
-0.08672833 -0.1483563 0.1985393 255 0 255
-0.08519006 -0.1478513 0.1979827 255 0 255
-0.08382261 -0.1479519 0.1981963 255 0 255
-0.08261431 -0.1486589 0.1991818 255 0 255
-0.08124116 -0.1487534 0.1993871 255 0 255
-0.07986715 -0.1488447 0.1995882 255 0 255
-0.07849228 -0.1489327 0.1997847 255 0 255
-0.0769721 -0.148407 0.1991984 255 0 255
-0.07545891 -0.1478776 0.1986066 255 0 255
-0.07395273 -0.1473446 0.1980093 255 0 255
-0.07232083 -0.1461966 0.1966265 255 0 255
-0.07096156 -0.1462678 0.1967986 255 0 255
-0.06960157 -0.1463357 0.1969665 255 0 255
-0.06836197 -0.1470124 0.1979116 255 0 255
-0.06699671 -0.1470743 0.1980712 255 0 255
-0.06585726 -0.1483574 0.1997914 255 0 255
-0.06426423 -0.1471884 0.1983772 255 0 255
-0.06289706 -0.1472408 0.1985238 255 0 255
-0.06142782 -0.1466772 0.1978821 255 0 255
-0.06006341 -0.1467231 0.1980195 255 0 255
-0.05869845 -0.1467658 0.1981524 255 0 255
-0.05742267 -0.1474184 0.199066 255 0 255
-0.05613854 -0.148068 0.199976 255 0 255
-0.05492793 -0.149328 0.2016678 255 0 255
-0.05370113 -0.1505851 0.2033566 255 0 255
-0.05223615 -0.149999 0.2026834 255 0 255
-0.05091874 -0.1506366 0.2035783 255 0 255
-0.04959306 -0.151271 0.2044693 255 0 255
-0.04807248 -0.1500616 0.2029951 255 0 255
-0.04668382 -0.150076 0.20309 255 0 255
-0.04540352 -0.1513146 0.204756 255 0 255
-0.04400631 -0.1513227 0.2048426 255 0 255
-0.0426088 -0.1513275 0.2049247 255 0 255
-0.04129608 -0.1525565 0.2065792 255 0 255
-0.03989015 -0.1525549 0.2066528 255 0 255
-0.03848397 -0.15255 0.2067219 255 0 255
-0.03710828 -0.1531556 0.2075755 255 0 255
-0.03572451 -0.1537578 0.2084249 255 0 255
-0.03430985 -0.153743 0.2084808 255 0 255
-0.0329517 -0.1555657 0.2109004 255 0 255
-0.03153987 -0.1561578 0.2117372 255 0 255
-0.03009805 -0.1555196 0.2109903 255 0 255
-0.02868519 -0.1567183 0.212608 255 0 255
-0.02725335 -0.1573 0.2134316 255 0 255
-0.0258144 -0.1572651 0.2134608 255 0 255
-0.02437541 -0.1572269 0.2134854 255 0 255
-0.02294512 -0.1565724 0.2127153 255 0 255
-0.02157329 -0.1534636 0.20878 255 0 255
-0.01970744 -0.1245757 0.1716589 255 0 255
0.07599951 -0.1199295 0.1696239 255 0 255
0.07562125 -0.1167879 0.1655487 255 0 255
0.07617196 -0.1153735 0.1637372 255 0 255
0.07605341 -0.1128137 0.1604222 255 0 255
0.07623357 -0.1108302 0.157862 255 0 255
0.07672375 -0.1094204 0.1560536 255 0 255
0.0775351 -0.1085819 0.1549943 255 0 255
0.0779961 -0.1071729 0.1531855 255 0 255
0.07913088 -0.1069022 0.1528705 255 0 255
0.08026411 -0.1066289 0.1525518 255 0 255
0.08104337 -0.105786 0.1514848 255 0 255
0.08216984 -0.1055084 0.1511597 255 0 255
0.08293489 -0.1046631 0.1500884 255 0 255
0.08405453 -0.1043812 0.149757 255 0 255
0.08517255 -0.1040967 0.149422 255 0 255
0.08628903 -0.1038096 0.1490832 255 0 255
0.08702923 -0.1029587 0.1480028 255 0 255
-0.1317625 -0.1396329 0.1821225 255 0 255
-0.1346858 -0.1481941 0.1928975 255 0 255
-0.1351195 -0.1519923 0.1977384 255 0 255
-0.1340361 -0.1528061 0.1988581 255 0 255
-0.1323629 -0.1524213 0.1984816 255 0 255
-0.1309822 -0.1526309 0.1988465 255 0 255
-0.1290343 -0.1516384 0.1977094 255 0 255
-0.127379 -0.1512405 0.1973138 255 0 255
-0.1257298 -0.1508383 0.1969119 255 0 255
-0.1243579 -0.1510328 0.1972554 255 0 255
-0.1224494 -0.1500209 0.1960892 255 0 255
-0.1210822 -0.150208 0.1964221 255 0 255
-0.1194536 -0.1497892 0.1959961 255 0 255
-0.1180873 -0.1499693 0.1963194 255 0 255
-0.1162148 -0.148939 0.1951257 255 0 255
-0.1148534 -0.1491118 0.1954385 255 0 255
-0.1132459 -0.1486768 0.1949889 255 0 255
-0.1118855 -0.1488427 0.1952922 255 0 255
-0.1102868 -0.1484 0.1948314 255 0 255
-0.1089277 -0.1485591 0.1951251 255 0 255
-0.1075673 -0.148715 0.1954145 255 0 255
-0.10598 -0.148261 0.1949375 255 0 255
-0.104621 -0.1484101 0.1952174 255 0 255
-0.1032608 -0.1485561 0.195493 255 0 255
-0.1018993 -0.1486989 0.1957643 255 0 255
-0.1005367 -0.1488385 0.1960313 255 0 255
-0.0989666 -0.1483661 0.1955278 255 0 255
-0.09740305 -0.1478899 0.1950186 255 0 255
-0.09584606 -0.1474097 0.1945036 255 0 255
-0.09468536 -0.1481454 0.1955192 255 0 255
-0.09332491 -0.1482684 0.195763 255 0 255
-0.09215052 -0.1489989 0.1967719 255 0 255
-0.09078413 -0.1491158 0.1970077 255 0 255
-0.08959605 -0.1498409 0.19801 255 0 255
-0.08804834 -0.1493403 0.1974662 255 0 255
-0.08667897 -0.1494477 0.1976889 255 0 255
-0.08530866 -0.149552 0.1979073 255 0 255
-0.08393741 -0.1496531 0.1981212 255 0 255
-0.08256528 -0.1497509 0.1983308 255 0 255
-0.08119224 -0.1498457 0.198536 255 0 255
-0.07981833 -0.1499372 0.1987369 255 0 255
-0.07844357 -0.1500254 0.1989333 255 0 255
-0.07692366 -0.1494968 0.1983492 255 0 255
-0.07541069 -0.1489645 0.1977596 255 0 255
-0.07376824 -0.1478144 0.1963874 255 0 255
-0.07227327 -0.1472746 0.1957865 255 0 255
-0.0709141 -0.1473459 0.1959585 255 0 255
-0.06955424 -0.147414 0.1961262 255 0 255
-0.06831458 -0.148094 0.1970687 255 0 255
-0.06706645 -0.1487712 0.1980078 255 0 255
-0.06580984 -0.1494455 0.1989435 255 0 255
-0.06432637 -0.148886 0.1983145 255 0 255
-0.06295539 -0.1489386 0.1984614 255 0 255
-0.06148249 -0.1483722 0.1978225 255 0 255
-0.0602117 -0.1490342 0.1987419 255 0 255
-0.058839 -0.1490773 0.1988755 255 0 255
-0.05755536 -0.1497334 0.1997873 255 0 255
-0.05626335 -0.1503865 0.2006954 255 0 255
-0.05504474 -0.1516529 0.202383 255 0 255
-0.05365432 -0.1516836 0.2025004 255 0 255
-0.05226346 -0.1517111 0.2026135 255 0 255
-0.05094211 -0.1523519 0.2035062 255 0 255
-0.04961248 -0.1529896 0.2043951 255 0 255
-0.04815043 -0.1523908 0.2037105 255 0 255
-0.04669587 -0.1517886 0.203021 255 0 255
-0.0454115 -0.1530335 0.2046823 255 0 255
-0.04406076 -0.1536584 0.2055546 255 0 255
-0.04270184 -0.1542802 0.2064229 255 0 255
-0.04133474 -0.1548987 0.2072871 255 0 255
-0.03992106 -0.1548971 0.2073611 255 0 255
-0.03854165 -0.1555091 0.208217 255 0 255
-0.03715414 -0.1561176 0.2090686 255 0 255
-0.03570525 -0.1554894 0.2083426 255 0 255
-0.03430948 -0.1560914 0.2091855 255 0 255
-0.03294318 -0.1579233 0.2115982 255 0 255
-0.03150867 -0.1579018 0.2116457 255 0 255
-0.03007401 -0.1578769 0.2116886 255 0 255
-0.02864619 -0.1584652 0.2125142 255 0 255
-0.02721042 -0.15905 0.2133355 255 0 255
-0.02576765 -0.159015 0.2133648 255 0 255
-0.02432485 -0.1589767 0.2133894 255 0 255
-0.02290851 -0.1570869 0.2110465 255 0 255
0.07699379 -0.1252402 0.1744279 255 0 255
0.07697667 -0.1226545 0.1711098 255 0 255
0.07660905 -0.1194948 0.167044 255 0 255
0.07684796 -0.1174944 0.1644844 255 0 255
0.0764099 -0.1143443 0.1604279 255 0 255
0.07659341 -0.1123503 0.1578741 255 0 255
0.07708697 -0.1109332 0.1560698 255 0 255
0.07756416 -0.1095169 0.1542658 255 0 255
0.07836633 -0.108674 0.1532075 255 0 255
0.07950471 -0.1084019 0.1528918 255 0 255
0.08064158 -0.1081273 0.1525723 255 0 255
0.08107176 -0.1067102 0.1507647 255 0 255
0.08184182 -0.1058631 0.1496988 255 0 255
0.08296294 -0.1055834 0.1493714 255 0 255
0.08408248 -0.105301 0.1490404 255 0 255
0.08520044 -0.1050161 0.1487057 255 0 255
0.08668782 -0.1052938 0.149104 255 0 255
0.08743154 -0.1044384 0.1480252 255 0 255
-0.1360971 -0.1464575 0.1883215 255 0 255
-0.135983 -0.1490732 0.191659 255 0 255
-0.1355357 -0.1510911 0.1942592 255 0 255
-0.1347667 -0.1525094 0.1961188 255 0 255
-0.133687 -0.153326 0.1972346 255 0 255
-0.1317276 -0.1523366 0.1961147 255 0 255
-0.1303546 -0.1525455 0.1964774 255 0 255
-0.1284147 -0.1515462 0.1953427 255 0 255
-0.127046 -0.1517476 0.1956947 255 0 255
-0.1254008 -0.1513421 0.1952939 255 0 255
-0.1240328 -0.1515364 0.1956361 255 0 255
-0.122396 -0.1511229 0.1952238 255 0 255
-0.1207652 -0.1507051 0.1948052 255 0 255
-0.1191406 -0.1502832 0.1943804 255 0 255
-0.1175222 -0.149857 0.1939495 255 0 255
-0.11591 -0.1494266 0.1935125 255 0 255
-0.1145525 -0.1495992 0.1938241 255 0 255
-0.1131936 -0.1497687 0.1941315 255 0 255
-0.1118334 -0.1499349 0.1944344 255 0 255
-0.1102349 -0.1494894 0.1939758 255 0 255
-0.1088759 -0.1496488 0.1942693 255 0 255
-0.1072863 -0.1491957 0.1937995 255 0 255
-0.1059287 -0.1493483 0.1940835 255 0 255
-0.1043481 -0.1488875 0.1936026 255 0 255
-0.1029918 -0.1490333 0.1938772 255 0 255
-0.1016343 -0.149176 0.1941475 255 0 255
-0.1002757 -0.1493155 0.1944135 255 0 255
-0.09870966 -0.14884 0.1939115 255 0 255
-0.0973526 -0.1489728 0.194168 255 0 255
-0.09579588 -0.1484898 0.1936553 255 0 255
-0.09463514 -0.1492288 0.1946682 255 0 255
-0.09327481 -0.1493521 0.1949118 255 0 255
-0.09191343 -0.1494722 0.195151 255 0 255
-0.09073409 -0.1502031 0.1961537 255 0 255
-0.0893668 -0.1503172 0.196385 255 0 255
-0.08799853 -0.1504281 0.1966118 255 0 255
-0.08645782 -0.1499208 0.1960646 255 0 255
-0.08525908 -0.1506402 0.1970524 255 0 255
-0.0837243 -0.150126 0.1964953 255 0 255
-0.08235617 -0.1502238 0.1967041 255 0 255
-0.08114302 -0.1509345 0.1976807 255 0 255
-0.07976923 -0.1510262 0.1978813 255 0 255
-0.07839458 -0.1511147 0.1980776 255 0 255
-0.0768749 -0.1505832 0.1974957 255 0 255
-0.07522189 -0.1494309 0.1961341 255 0 255
-0.07372011 -0.1488919 0.1955409 255 0 255
-0.07222539 -0.1483492 0.1949423 255 0 255
-0.07099497 -0.1490384 0.19589 255 0 255
-0.069756 -0.1497248 0.1968343 255 0 255
-0.06850851 -0.1504084 0.1977752 255 0 255
-0.0670188 -0.1498526 0.1971582 255 0 255
-0.06587514 -0.1511486 0.198869 255 0 255
-0.06449705 -0.1512049 0.199021 255 0 255
-0.06311837 -0.151258 0.1991685 255 0 255
-0.06163788 -0.1506889 0.1985327 255 0 255
-0.06035921 -0.1513544 0.1994503 255 0 255
-0.05897881 -0.1513979 0.1995846 255 0 255
