ply
format ascii 1.0
Comment Generated by Floating Hands
element vertex 1136
property double x
property double y
property double z
property uchar red
property uchar green
property uchar blue
end_header
0.07062711 -0.06026359 0.3256387 255 0 255
0.07181935 -0.05946652 0.3234765 255 0 255
0.07299506 -0.05866826 0.3213116 255 0 255
0.07393482 -0.05757844 0.3182126 255 0 255
0.07529684 -0.05706824 0.3169739 255 0 255
0.07687674 -0.05684524 0.3166611 255 0 255
0.0779938 -0.05604149 0.3144846 255 0 255
0.07932874 -0.05552493 0.3132341 255 0 255
0.08089291 -0.05529403 0.3129073 255 0 255
0.08269757 -0.05534707 0.313502 255 0 255
0.08450827 -0.05539576 0.3140897 255 0 255
0.08732295 -0.05658398 0.318371 255 0 255
0.08941381 -0.05690705 0.3198655 255 0 255
0.09151801 -0.05722452 0.3213511 255 0 255
0.0941571 -0.05810473 0.3246731 255 0 255
0.09655989 -0.05869327 0.3270607 255 0 255
0.09791039 -0.05814303 0.325754 255 0 255
0.09870767 -0.05702607 0.3226035 255 0 255
0.1000322 -0.05647307 0.3212911 255 0 255
0.1005091 -0.05507493 0.3172207 255 0 255
0.1012377 -0.05395913 0.3140694 255 0 255
0.1025158 -0.05340358 0.3127509 255 0 255
0.1040753 -0.05312523 0.312344 255 0 255
0.1053387 -0.05256531 0.3110175 255 0 255
0.1074868 -0.05283678 0.3124275 255 0 255
0.1090444 -0.05254826 0.3120034 255 0 255
0.1112109 -0.05280935 0.3133965 255 0 255
0.1136993 -0.05334004 0.3156902 255 0 255
0.1171462 -0.05468819 0.3206997 255 0 255
0.1200023 -0.0554761 0.3238748 255 0 255
0.1225656 -0.05598148 0.3261289 255 0 255
0.1235297 -0.05511528 0.3238411 255 0 255
0.125132 -0.05479285 0.3233618 255 0 255
0.12607 -0.05392451 0.3210694 255 0 255
0.1273258 -0.05332654 0.3196786 255 0 255
0.1285721 -0.05272681 0.3182845 255 0 255
0.1304932 -0.05266337 0.3186879 255 0 255
0.1324193 -0.05259521 0.3190835 255 0 255
0.1343504 -0.05252221 0.3194712 255 0 255
0.1376985 -0.05351114 0.3234383 255 0 255
0.1417938 -0.05502057 0.329179 255 0 255
0.1459374 -0.05651544 0.3348972 255 0 255
0.1486738 -0.05693856 0.33702 255 0 255
0.1503268 -0.05656318 0.3364537 255 0 255
0.1512353 -0.05565914 0.3341003 255 0 255
0.1528761 -0.05527859 0.333525 255 0 255
0.1537578 -0.05437282 0.3311677 255 0 255
0.1557681 -0.05424732 0.3314703 255 0 255
0.1562413 -0.05307984 0.3282224 255 0 255
0.1570794 -0.05217257 0.3258609 255 0 255
0.0715641 -0.07399436 0.3617765 255 0 255
0.06959158 -0.06812961 0.3437255 255 0 255
0.06927847 -0.06494936 0.3340966 255 0 255
0.07011423 -0.06355237 0.3300732 255 0 255
0.07050196 -0.06156468 0.324185 255 0 255
0.07190266 -0.06105549 0.3229577 255 0 255
0.07264703 -0.05966016 0.3189335 255 0 255
0.07379886 -0.05885397 0.3167699 255 0 255
0.07493412 -0.05804663 0.3146037 255 0 255
0.07627992 -0.05753131 0.3133638 255 0 255
0.07738586 -0.05672133 0.3111921 255 0 255
0.0789446 -0.05649436 0.3108724 255 0 255
0.08074033 -0.05655558 0.3114738 255 0 255
0.08229981 -0.05632173 0.3111426 255 0 255
0.08410376 -0.05637499 0.3117307 255 0 255
0.08666293 -0.05729298 0.3150838 255 0 255
0.08849006 -0.0573358 0.3156554 255 0 255
0.09058034 -0.05766274 0.3171421 255 0 255
0.09477187 -0.0602874 0.3259911 255 0 255
0.09691869 -0.06059817 0.3274529 255 0 255
0.09773636 -0.0594698 0.3243074 255 0 255
0.0985299 -0.05834188 0.3211617 255 0 255
0.09957515 -0.05749992 0.3189337 255 0 255
0.1000444 -0.05608771 0.3148701 255 0 255
0.1013322 -0.05552986 0.3135564 255 0 255
0.1028979 -0.0552536 0.3131543 255 0 255
0.1044617 -0.05497414 0.3127466 255 0 255
0.1057291 -0.05440938 0.3114206 255 0 255
0.1075838 -0.05440567 0.3119151 255 0 255
0.10884 -0.05383593 0.3105803 255 0 255
0.1106983 -0.05382456 0.311062 255 0 255
0.1128712 -0.05408797 0.3124453 255 0 255
0.1163091 -0.05546011 0.3174509 255 0 255
0.1194724 -0.05654251 0.3215314 255 0 255
0.1223501 -0.05733718 0.3246899 255 0 255
0.1236348 -0.05674025 0.3233105 255 0 255
0.1255655 -0.05669305 0.3237351 255 0 255
0.1265072 -0.055816 0.3214442 255 0 255
0.1274319 -0.05493876 0.3191523 255 0 255
0.1290174 -0.05460827 0.31866 255 0 255
0.1309429 -0.05454721 0.3190612 255 0 255
0.1321816 -0.0539375 0.3176586 255 0 255
0.1344595 -0.05413962 0.3189433 255 0 255
0.1374563 -0.0548761 0.3220089 255 0 255
0.1411935 -0.05614207 0.3268482 255 0 255
0.1453322 -0.05766394 0.3325606 255 0 255
0.1484268 -0.05836717 0.3355744 255 0 255
0.150077 -0.05799189 0.3350096 255 0 255
0.1513532 -0.05734693 0.3335496 255 0 255
0.1526198 -0.05670026 0.3320863 255 0 255
0.1538765 -0.05605193 0.3306199 255 0 255
0.1555056 -0.05566569 0.3300359 255 0 255
0.1567465 -0.05501316 0.3285619 255 0 255
0.1575882 -0.05409696 0.3262018 255 0 255
0.1588059 -0.05344208 0.324723 255 0 255
0.07016438 -0.06777978 0.3372874 255 0 255
0.07040149 -0.06546582 0.3304711 255 0 255
0.07079245 -0.06345492 0.3245897 255 0 255
0.07198519 -0.06264228 0.3224326 255 0 255
0.07294538 -0.06153005 0.3193431 255 0 255
0.07410122 -0.06071552 0.3171814 255 0 255
0.07501698 -0.05960251 0.3140889 255 0 255
0.07613585 -0.05878631 0.3119228 255 0 255
0.07723825 -0.05796909 0.3097544 255 0 255
0.07902871 -0.05803804 0.3103616 255 0 255
0.08058652 -0.05780754 0.3100366 255 0 255
0.08190047 -0.05727928 0.308782 255 0 255
0.08369771 -0.05733705 0.3093706 255 0 255
0.08600082 -0.0579774 0.3117978 255 0 255
0.08731009 -0.05743962 0.310527 255 0 255
0.08938264 -0.05777664 0.3120156 255 0 255
0.09277453 -0.05956631 0.3180963 255 0 255
0.09595227 -0.06105316 0.3232399 255 0 255
0.09675498 -0.05991568 0.3201018 255 0 255
0.09807838 -0.05935822 0.3187985 255 0 255
0.0996687 -0.05908797 0.3184082 255 0 255
0.1004176 -0.05794891 0.3152654 255 0 255
0.1017095 -0.05738622 0.3139521 255 0 255
0.1029921 -0.05682167 0.3126353 255 0 255
0.1045566 -0.05654176 0.3122278 255 0 255
0.1058244 -0.05597282 0.3109031 255 0 255
0.1070829 -0.05540206 0.3095751 255 0 255
0.1086343 -0.05511399 0.3091533 255 0 255
0.1101838 -0.05482272 0.3087263 255 0 255
0.1120409 -0.05481145 0.3092016 255 0 255
0.1151564 -0.05592511 0.3132964 255 0 255
0.1183068 -0.05702842 0.3173751 255 0 255
0.1211713 -0.05784039 0.3205332 255 0 255
0.122766 -0.05752235 0.3200631 255 0 255
0.1250145 -0.05775998 0.3213923 255 0 255
0.1259489 -0.05687653 0.3191063 255 0 255
0.1275371 -0.05654871 0.3186197 255 0 255
0.1287843 -0.05594044 0.3172285 255 0 255
0.1303644 -0.0556069 0.3167319 255 0 255
0.1319423 -0.05527013 0.3162298 255 0 255
0.1338679 -0.05520498 0.3166179 255 0 255
0.1357984 -0.05513505 0.3169981 255 0 255
0.1398767 -0.05669996 0.3227294 255 0 255
0.1443642 -0.05852277 0.3293304 255 0 255
0.1481783 -0.05978595 0.3341246 255 0 255
0.1498255 -0.05941087 0.3335613 255 0 255
0.1518417 -0.05930239 0.3338805 255 0 255
0.152737 -0.05838144 0.3315305 255 0 255
0.1539941 -0.05772868 0.3300655 255 0 255
0.1552415 -0.05707434 0.3285974 255 0 255
0.156865 -0.05668492 0.3280093 255 0 255
0.1577069 -0.05576067 0.3256519 255 0 255
0.1589249 -0.05510145 0.3241746 255 0 255
0.06966453 -0.06586636 0.3262076 255 0 255
0.07024832 -0.0641378 0.3212664 255 0 255
0.07185467 -0.0639242 0.3209722 255 0 255
0.0728111 -0.06280094 0.3178873 255 0 255
0.07418332 -0.06228076 0.3166566 255 0 255
0.07509907 -0.06115625 0.3135679 255 0 255
0.07621819 -0.06033228 0.3114045 255 0 255
0.07708947 -0.05920725 0.3083133 255 0 255
0.07887691 -0.05928015 0.30892 255 0 255
0.08019274 -0.05875101 0.307672 255 0 255
0.08149951 -0.05821978 0.3064203 255 0 255
0.08329005 -0.0582821 0.3070095 255 0 255
0.08533668 -0.05863723 0.3085131 255 0 255
0.08663509 -0.05809714 0.3072462 255 0 255
0.0884397 -0.05814705 0.3078152 255 0 255
0.09155727 -0.05966944 0.3129718 255 0 255
0.09418784 -0.06059183 0.3162764 255 0 255
0.09603997 -0.06062357 0.316817 255 0 255
0.09762514 -0.06035743 0.3164341 255 0 255
0.09893224 -0.05979514 0.3151304 255 0 255
0.10023 -0.05923087 0.313823 255 0 255
0.1012348 -0.0583731 0.3115987 255 0 255
0.1025104 -0.0578057 0.3102852 255 0 255
0.1037767 -0.05723647 0.3089683 255 0 255
0.1047387 -0.05637579 0.3067373 255 0 255
0.1062815 -0.05609243 0.3063242 255 0 255
0.1078224 -0.05580598 0.3059057 255 0 255
0.1096675 -0.05580386 0.3063894 255 0 255
0.1118278 -0.05608403 0.3077723 255 0 255
0.1149414 -0.05721648 0.311862 255 0 255
0.1174555 -0.05776781 0.3141269 255 0 255
0.1203106 -0.05859625 0.3172835 255 0 255
0.1222193 -0.05856383 0.3177191 255 0 255
0.1244615 -0.05880986 0.3190482 255 0 255
0.1257206 -0.05820233 0.3176672 255 0 255
0.1273058 -0.05787474 0.3171818 255 0 255
0.1292279 -0.05782483 0.3175887 255 0 255
0.1308124 -0.05748995 0.3170913 255 0 255
0.1317016 -0.05659312 0.3147973 255 0 255
0.1336244 -0.05653191 0.3151855 255 0 255
0.1359058 -0.05674364 0.3164589 255 0 255
0.1396291 -0.05805687 0.32129 255 0 255
0.1437545 -0.05963325 0.3269916 255 0 255
0.1479282 -0.06119497 0.3326707 255 0 255
0.1492041 -0.06054559 0.3312206 255 0 255
0.1508421 -0.06016812 0.3306543 255 0 255
0.1517267 -0.05924158 0.3283108 255 0 255
0.1533525 -0.05885909 0.3277356 255 0 255
0.1549756 -0.05847324 0.3271547 255 0 255
0.15621 -0.05781373 0.3256863 255 0 255
0.1574346 -0.0571526 0.3242148 255 0 255
0.1586494 -0.05648988 0.3227403 255 0 255
0.07036001 -0.06838627 0.3284526 255 0 255
0.07032865 -0.06571666 0.3207301 255 0 255
0.07172297 -0.06519642 0.3195082 255 0 255
0.07245932 -0.06375632 0.3155006 255 0 255
0.07360421 -0.06292781 0.3133463 255 0 255
0.07495651 -0.06240297 0.3121151 255 0 255
0.07607204 -0.06157173 0.3099551 255 0 255
0.07693953 -0.06043574 0.3068685 255 0 255
0.07895927 -0.06081574 0.3083983 255 0 255
0.0802755 -0.0602825 0.3071517 255 0 255
0.08158267 -0.05974725 0.3059013 255 0 255
0.08312735 -0.05951146 0.3055683 255 0 255
0.08467051 -0.0592725 0.30523 255 0 255
0.08595801 -0.05873007 0.303967 255 0 255
0.08775216 -0.05878515 0.3045374 255 0 255
0.09007539 -0.05943402 0.3069361 255 0 255
0.09321568 -0.06097152 0.3120747 255 0 255
0.09613012 -0.06220054 0.3162812 255 0 255
0.09771592 -0.06193396 0.3158985 255 0 255
0.0993 -0.0616641 0.3155102 255 0 255
0.1003216 -0.06079907 0.3132902 255 0 255
0.1013265 -0.0599335 0.3110686 255 0 255
0.1023147 -0.05906731 0.3088453 255 0 255
0.1032862 -0.05820058 0.3066204 255 0 255
0.1042409 -0.05733337 0.3043942 255 0 255
0.1060757 -0.05734356 0.3048914 255 0 255
0.1076135 -0.05705733 0.3044741 255 0 255
0.1094557 -0.05705915 0.3049577 255 0 255
0.1116133 -0.05734697 0.3063393 255 0 255
0.1144112 -0.05820837 0.3095197 255 0 255
0.1172367 -0.05906085 0.3126864 255 0 255
0.1197684 -0.05961595 0.314937 255 0 255
0.1216707 -0.05958818 0.3153737 255 0 255
0.1239066 -0.05984259 0.3167027 255 0 255
0.1254909 -0.05951845 0.3162241 255 0 255
0.127073 -0.0591911 0.3157402 255 0 255
0.1286529 -0.05886046 0.3152506 255 0 255
0.1305737 -0.05881039 0.315651 255 0 255
0.1318061 -0.05818943 0.3142552 255 0 255
0.1337297 -0.05813134 0.3146423 255 0 255
0.1356582 -0.05806845 0.3150217 255 0 255
0.1390223 -0.05912336 0.3189559 255 0 255
0.1431428 -0.06072662 0.3246514 255 0 255
0.1469467 -0.06203609 0.3294361 255 0 255
0.1489491 -0.06194127 0.3297653 255 0 255
0.1505841 -0.06156403 0.3292005 255 0 255
0.1518409 -0.06090685 0.3277455 255 0 255
0.1534672 -0.06052373 0.3271706 255 0 255
0.1554739 -0.0604121 0.327472 255 0 255
0.1570987 -0.06002131 0.3268844 255 0 255
0.1591109 -0.05990034 0.3271706 255 0 255
0.160734 -0.05950201 0.3265704 255 0 255
0.16156 -0.05855757 0.3242111 255 0 255
0.07085075 -0.07061523 0.3297557 255 0 255
0.07061715 -0.06760388 0.3211149 255 0 255
0.07201575 -0.06707907 0.3198937 255 0 255
0.07232258 -0.0650041 0.3140388 255 0 255
0.07324356 -0.06385931 0.3109627 255 0 255
0.07436455 -0.06302295 0.30881 255 0 255
0.07546889 -0.06218557 0.3066548 255 0 255
0.07655674 -0.06134719 0.3044974 255 0 255
0.07856989 -0.06173539 0.3060263 255 0 255
0.07987896 -0.06119925 0.3047827 255 0 255
0.08117892 -0.06066104 0.3035353 255 0 255
0.08271669 -0.06042603 0.3032041 255 0 255
0.08400232 -0.05988329 0.3019485 255 0 255
0.08553323 -0.05964261 0.3016076 255 0 255
0.08706257 -0.05939876 0.3012613 255 0 255
0.08937577 -0.06006023 0.3036589 255 0 255
0.09250662 -0.06162144 0.3087925 255 0 255
0.09460348 -0.06196582 0.3102517 255 0 255
0.09671357 -0.06230441 0.3117018 255 0 255
0.09883689 -0.0626373 0.313143 255 0 255
0.09957065 -0.06146611 0.3100157 255 0 255
0.1008487 -0.06089361 0.3087105 255 0 255
0.1018296 -0.06002092 0.3064918 255 0 255
0.1027938 -0.05914763 0.3042716 255 0 255
0.1037413 -0.05827394 0.30205 255 0 255
0.1055695 -0.05828877 0.3025481 255 0 255
0.1071004 -0.05800341 0.302133 255 0 255
0.1089359 -0.05800989 0.3026176 255 0 255
0.110777 -0.0580118 0.3030948 255 0 255
0.1129375 -0.05830262 0.3044676 255 0 255
0.1154283 -0.05888027 0.3067327 255 0 255
0.1182605 -0.0597424 0.309887 255 0 255
0.1204702 -0.06001282 0.3112278 255 0 255
0.1230212 -0.06056763 0.3134574 255 0 255
0.1252597 -0.06082489 0.3147774 255 0 255
0.1268387 -0.06049773 0.3142947 255 0 255
0.1284155 -0.06016733 0.3138066 255 0 255
0.1299901 -0.05983368 0.3133129 255 0 255
0.1312156 -0.05921002 0.3119209 255 0 255
0.1327821 -0.05887065 0.3114175 255 0 255
0.1343463 -0.05852809 0.3109087 255 0 255
0.1376977 -0.05960409 0.3148416 255 0 255
0.1425289 -0.06180285 0.3223098 255 0 255
0.1463277 -0.06313547 0.3270896 255 0 255
0.1479549 -0.06276348 0.3265345 255 0 255
0.1499521 -0.06266914 0.3268581 255 0 255
0.151578 -0.06228956 0.3262904 255 0 255
0.1528218 -0.0616272 0.3248351 255 0 255
0.1548221 -0.0615203 0.325138 255 0 255
0.1564403 -0.06113063 0.3245533 255 0 255
0.1576655 -0.06046079 0.3230849 255 0 255
0.1588811 -0.0597894 0.3216135 255 0 255
0.1600867 -0.05911641 0.3201392 255 0 255
0.07010953 -0.07096776 0.3254873 255 0 255
0.07027792 -0.06855325 0.3187129 255 0 255
0.07166931 -0.06802545 0.3174945 255 0 255
0.07218475 -0.06624221 0.3125736 255 0 255
0.07310193 -0.06508644 0.3095021 255 0 255
0.07444365 -0.06455512 0.308276 255 0 255
0.0753201 -0.06339827 0.3052012 255 0 255
0.07640432 -0.06255266 0.3030472 255 0 255
0.078179 -0.06263795 0.3036535 255 0 255
0.07972032 -0.06240887 0.3033329 255 0 255
0.08101692 -0.06186721 0.3020878 255 0 255
0.08255146 -0.06163242 0.3017574 255 0 255
0.08383368 -0.0610862 0.3005041 255 0 255
0.08510685 -0.06053798 0.2992473 255 0 255
0.08662922 -0.060295 0.2989029 255 0 255
0.08867408 -0.0606619 0.3003834 255 0 255
0.09126393 -0.06163507 0.3036835 255 0 255
0.09361254 -0.06229483 0.306058 255 0 255
0.09598193 -0.06294759 0.3084218 255 0 255
0.09837204 -0.06359345 0.3107747 255 0 255
0.0990983 -0.06241199 0.3076534 255 0 255
0.1003693 -0.06183665 0.3063515 255 0 255
0.1013429 -0.06095742 0.3041374 255 0 255
0.1022997 -0.06007767 0.3019219 255 0 255
0.1032399 -0.05919744 0.299705 255 0 255
0.1053608 -0.0595169 0.3011098 255 0 255
0.1068886 -0.05923186 0.3006958 255 0 255
0.109028 -0.05954083 0.302084 255 0 255
0.1105593 -0.05924805 0.3016574 255 0 255
0.1124029 -0.05924935 0.3021272 255 0 255
0.1142519 -0.05924606 0.3025896 255 0 255
0.1167493 -0.05982962 0.3048436 255 0 255
0.1186165 -0.05981557 0.3052889 255 0 255
0.1218044 -0.06097396 0.3093162 255 0 255
0.1243618 -0.06153456 0.3115346 255 0 255
0.1262667 -0.06150195 0.3119505 255 0 255
0.1278368 -0.06117247 0.3114648 255 0 255
0.1294046 -0.06083984 0.3109737 255 0 255
0.1306231 -0.06021351 0.3095855 255 0 255
0.1321829 -0.05987516 0.3090847 255 0 255
0.1340949 -0.05982245 0.3094678 255 0 255
0.1378025 -0.06120508 0.3142838 255 0 255
0.1419131 -0.06286195 0.3199669 255 0 255
0.1457066 -0.06421769 0.3247416 255 0 255
0.1473272 -0.06384671 0.3241892 255 0 255
0.1496905 -0.06404184 0.3253976 255 0 255
0.1513134 -0.06366246 0.3248314 255 0 255
0.1529338 -0.06327969 0.3242595 255 0 255
0.1553183 -0.06345797 0.3254409 255 0 255
0.1569407 -0.06306676 0.3248551 255 0 255
0.1581699 -0.06239173 0.3233871 255 0 255
0.1597834 -0.0619947 0.3227914 255 0 255
0.1605989 -0.0610369 0.3204418 255 0 255
0.1621999 -0.06063491 0.3198375 255 0 255
0.07101019 -0.07383653 0.328626 255 0 255
0.07098377 -0.07107568 0.3209335 255 0 255
0.07174762 -0.06958973 0.3169424 255 0 255
0.07247967 -0.06810462 0.3129514 255 0 255
0.07340065 -0.06693691 0.3098833 255 0 255
0.07474651 -0.06640102 0.3086578 255 0 255
0.07585508 -0.06554762 0.3065074 255 0 255
0.07694704 -0.06469315 0.3043545 255 0 255
0.07849418 -0.06446636 0.3040386 255 0 255
0.08003981 -0.06423642 0.3037174 255 0 255
0.08134054 -0.06369011 0.3024729 255 0 255
0.08263224 -0.06314176 0.3012246 255 0 255
0.08391483 -0.0625915 0.2999728 255 0 255
0.08493363 -0.06172781 0.2978019 255 0 255
0.08671127 -0.06179585 0.2983731 255 0 255
0.08849483 -0.0618596 0.2989373 255 0 255
0.0908163 -0.06253818 0.3013203 255 0 255
0.09261911 -0.06259193 0.3018688 255 0 255
0.09524821 -0.06356636 0.3051435 255 0 255
0.09735105 -0.06391705 0.3065853 255 0 255
0.09862421 -0.0633408 0.3052902 255 0 255
0.09931871 -0.06214982 0.3021749 255 0 255
0.1008544 -0.0618769 0.3017823 255 0 255
0.1020961 -0.06129573 0.3004778 255 0 255
0.1030326 -0.06040835 0.2982647 255 0 255
0.1054504 -0.06103915 0.3005724 255 0 255
0.1069787 -0.06075361 0.3001586 255 0 255
0.1091191 -0.06106954 0.3015444 255 0 255
0.1106511 -0.06077629 0.301118 255 0 255
0.1124954 -0.06078078 0.3015866 255 0 255
0.1140271 -0.06048054 0.3011486 255 0 255
0.1162003 -0.06077595 0.3025018 255 0 255
0.1180608 -0.06076659 0.3029482 255 0 255
0.1212431 -0.06194437 0.3069713 255 0 255
0.1241272 -0.06281419 0.3100831 255 0 255
0.1260292 -0.06278545 0.3104991 255 0 255
0.1272561 -0.06216062 0.309122 255 0 255
0.129161 -0.06212384 0.309525 255 0 255
0.1303761 -0.06149408 0.3081394 255 0 255
0.1322839 -0.0614493 0.3085292 255 0 255
0.1341967 -0.06139969 0.3089113 255 0 255
0.1379063 -0.0628038 0.3137197 255 0 255
0.1420191 -0.06448577 0.319394 255 0 255
0.1461802 -0.066153 0.3250456 255 0 255
0.1478051 -0.06578057 0.3244922 255 0 255
0.1501731 -0.06598157 0.325697 255 0 255
0.1510473 -0.06502558 0.3233685 255 0 255
0.1526646 -0.06464301 0.3227981 255 0 255
0.1542793 -0.06425712 0.3222222 255 0 255
0.1562787 -0.06415284 0.3225175 255 0 255
0.1571103 -0.06319112 0.320178 255 0 255
0.1587137 -0.062796 0.3195866 255 0 255
0.1599164 -0.06211524 0.3181167 255 0 255
0.070972 -0.06986676 0.3126935 255 0 255
0.07212289 -0.06900998 0.3105547 255 0 255
0.07281536 -0.06751167 0.3065709 255 0 255
0.0741502 -0.06697338 0.305349 255 0 255
0.07501909 -0.06579474 0.3022838 255 0 255
0.07656065 -0.0655719 0.3019748 255 0 255
0.07786468 -0.06502786 0.3007422 255 0 255
0.07963941 -0.06511672 0.3013409 255 0 255
0.08093294 -0.06456754 0.3000994 255 0 255
0.08221745 -0.06401628 0.2988543 255 0 255
0.08349286 -0.06346315 0.2976056 255 0 255
0.08475921 -0.062908 0.2963532 255 0 255
0.08627515 -0.06266546 0.2960107 255 0 255
0.08778946 -0.06241982 0.2956631 255 0 255
0.09036706 -0.06342427 0.2989565 255 0 255
0.09216309 -0.06348258 0.2995055 255 0 255
0.09423871 -0.06384853 0.3009574 255 0 255
0.09605014 -0.0638974 0.3014913 255 0 255
0.09730492 -0.06332027 0.3002024 255 0 255
0.09826559 -0.06243116 0.2980029 255 0 255
0.1003642 -0.06277935 0.2994263 255 0 255
0.1015988 -0.06219539 0.2981254 255 0 255
0.1031202 -0.06191773 0.2977252 255 0 255
0.1052393 -0.06225173 0.299126 255 0 255
0.107068 -0.06227316 0.2996155 255 0 255
0.1085949 -0.06198398 0.2991966 255 0 255
0.109809 -0.06138641 0.2978723 255 0 255
0.1113285 -0.06109167 0.297444 255 0 255
0.1131643 -0.06109764 0.2979084 255 0 255
0.1150054 -0.06109901 0.2983653 255 0 255
0.116852 -0.06109577 0.298815 255 0 255
0.1193625 -0.06169119 0.3010466 255 0 255
0.122226 -0.06257977 0.3041599 255 0 255
0.1244435 -0.06285888 0.3054741 255 0 255
0.1263331 -0.06283234 0.305887 255 0 255
0.1282278 -0.06280105 0.3062923 255 0 255
0.12978 -0.06246716 0.3058008 255 0 255
0.13133 -0.06213007 0.3053039 255 0 255
0.1332326 -0.06208596 0.3056884 255 0 255
0.136216 -0.06292322 0.3087218 255 0 255
0.1406751 -0.0649289 0.3152774 255 0 255
0.1451899 -0.06691823 0.3218081 255 0 255
0.1471739 -0.06684055 0.3221405 255 0 255
0.1495357 -0.06704997 0.3233455 255 0 255
0.1511562 -0.06667015 0.3227811 255 0 255
0.1523937 -0.06599659 0.3213329 255 0 255
0.1540055 -0.06561088 0.3207585 255 0 255
0.1556146 -0.06522181 0.3201786 255 0 255
0.1568301 -0.06454165 0.3187188 255 0 255
0.1580358 -0.06385989 0.3172561 255 0 255
0.1592317 -0.06317656 0.3157904 255 0 255
0.1604179 -0.06249165 0.3143219 255 0 255
0.07211554 -0.07303631 0.3167411 255 0 255
0.07263382 -0.07119595 0.3118398 255 0 255
0.07333373 -0.06968145 0.3078599 255 0 255
0.07445163 -0.06881472 0.3057188 255 0 255
0.07509557 -0.06730128 0.3017386 255 0 255
0.07663772 -0.06707808 0.3014297 255 0 255
0.07794213 -0.06653007 0.3001986 255 0 255
0.07947752 -0.06630111 0.2998799 255 0 255
0.08076765 -0.06574845 0.2986407 255 0 255
0.08180109 -0.06487374 0.2964833 255 0 255
0.08332067 -0.06463712 0.2961514 255 0 255
0.08458359 -0.06407854 0.2949014 255 0 255
0.08583745 -0.063518 0.2936479 255 0 255
0.08787007 -0.06390841 0.2951243 255 0 255
0.09018257 -0.06461029 0.2975022 255 0 255
0.09170548 -0.06435614 0.2971417 255 0 255
0.09377453 -0.06473035 0.2985927 255 0 255
0.09530157 -0.06446867 0.2982198 255 0 255
0.09654551 -0.06388939 0.2969351 255 0 255
0.09806535 -0.06362206 0.2965527 255 0 255
0.1001611 -0.06397785 0.2979745 255 0 255
0.1013923 -0.06339044 0.296676 255 0 255
0.1032068 -0.0634248 0.2971798 255 0 255
0.1053269 -0.06376578 0.2985781 255 0 255
0.1071563 -0.06379042 0.2990664 255 0 255
0.1080689 -0.06288141 0.2968481 255 0 255
0.1095871 -0.06259006 0.2964262 255 0 255
0.1114182 -0.06260382 0.2968968 255 0 255
0.1129362 -0.06230547 0.2964633 255 0 255
0.1150966 -0.06261757 0.2978158 255 0 255
0.1169439 -0.06261754 0.2982643 255 0 255
0.1194557 -0.06322339 0.3004921 255 0 255
0.121321 -0.06321254 0.3009235 255 0 255
0.1242022 -0.06410835 0.3040209 255 0 255
0.1254077 -0.06347968 0.3026537 255 0 255
0.1272923 -0.06345385 0.3030613 255 0 255
0.1295298 -0.06372466 0.304349 255 0 255
0.1310767 -0.06338782 0.3038535 255 0 255
0.1329765 -0.06334761 0.3042381 255 0 255
0.1359577 -0.06419972 0.3072676 255 0 255
0.1396907 -0.06563854 0.3120481 255 0 255
0.1434649 -0.06706416 0.3168086 255 0 255
0.1458012 -0.06729034 0.3180266 255 0 255
0.148523 -0.06780548 0.3201135 255 0 255
0.1501331 -0.06742757 0.3195531 255 0 255
0.1521213 -0.06734031 0.3198639 255 0 255
0.1537299 -0.06695483 0.3192911 255 0 255
0.1553361 -0.066566 0.3187127 255 0 255
0.156157 -0.06559097 0.3163829 255 0 255
0.1577507 -0.06519717 0.315796 255 0 255
0.1581464 -0.06393113 0.3125928 255 0 255
0.1597242 -0.0635334 0.3119988 255 0 255
0.07227483 -0.07208187 0.3094363 255 0 255
0.07318822 -0.07088094 0.306382 255 0 255
0.07475264 -0.07066117 0.30608 255 0 255
0.07562911 -0.06945861 0.3030217 255 0 255
0.07671402 -0.0685821 0.3008787 255 0 255
0.07801876 -0.06803 0.2996491 255 0 255
0.07931447 -0.06747588 0.2984158 255 0 255
0.08035716 -0.06659543 0.2962649 255 0 255
0.08138322 -0.06571416 0.294112 255 0 255
0.08314734 -0.06580149 0.2946941 255 0 255
0.08466213 -0.06556194 0.2943579 255 0 255
0.08617539 -0.0653193 0.2940165 255 0 255
0.08794989 -0.06539483 0.2945797 255 0 255
0.08999688 -0.0657867 0.2960449 255 0 255
0.09151657 -0.06553279 0.2956853 255 0 255
0.09303459 -0.06527574 0.2953205 255 0 255
0.09455092 -0.0650156 0.2949505 255 0 255
0.09606552 -0.0647523 0.2945753 255 0 255
0.09757847 -0.06448587 0.294195 255 0 255
0.09908956 -0.06421634 0.2938094 255 0 255
0.1008917 -0.06425978 0.2943211 255 0 255
0.102996 -0.06461421 0.295727 255 0 255
0.1051134 -0.06496275 0.2971238 255 0 255
0.1066359 -0.06467722 0.2967125 255 0 255
0.1081565 -0.06438856 0.296296 255 0 255
0.1093639 -0.06378406 0.2949768 255 0 255
0.111192 -0.06380176 0.2954472 255 0 255
0.1127068 -0.06350365 0.2950151 255 0 255
0.1148645 -0.06382332 0.2963662 255 0 255
0.1167089 -0.0638272 0.2968146 255 0 255
0.1185585 -0.0638264 0.2972555 255 0 255
0.1204135 -0.06382094 0.2976891 255 0 255
0.1226109 -0.06411828 0.299005 255 0 255
0.1241392 -0.06379596 0.2985337 255 0 255
0.1266988 -0.06438817 0.3007199 255 0 255
0.1296263 -0.06527759 0.3037802 255 0 255
0.1315254 -0.06524451 0.3041703 255 0 255
0.133785 -0.06551015 0.3054366 255 0 255
0.136775 -0.06637467 0.3084585 255 0 255
0.1401545 -0.06753133 0.3123472 255 0 255
0.1435679 -0.06867644 0.3162182 255 0 255
0.1455354 -0.068609 0.3165546 255 0 255
0.1482548 -0.06913536 0.318639 255 0 255
0.1498619 -0.06875766 0.3180801 255 0 255
0.152228 -0.06897198 0.3192666 255 0 255
0.1534528 -0.06828904 0.3178198 255 0 255
0.1558319 -0.06849229 0.3189887 255 0 255
0.1570479 -0.06780346 0.3175322 255 0 255
0.1590445 -0.06770142 0.3178131 255 0 255
0.1602482 -0.06700768 0.3163481 255 0 255
0.1610398 -0.06602001 0.3140126 255 0 255
0.07183972 -0.0754912 0.3137543 255 0 255
0.07256731 -0.07394615 0.309786 255 0 255
0.07326309 -0.072402 0.305818 255 0 255
0.07482806 -0.07218195 0.3055162 255 0 255
0.07570443 -0.07096797 0.3024619 255 0 255
0.0770224 -0.07041338 0.3012368 255 0 255
0.07809463 -0.06952762 0.2990938 255 0 255
0.07963112 -0.06929803 0.2987753 255 0 255
0.08043355 -0.06808136 0.2957138 255 0 255
0.08170772 -0.06751977 0.2944756 255 0 255
0.08322457 -0.067283 0.2941447 255 0 255
0.08499542 -0.06736934 0.2947187 255 0 255
0.08651293 -0.06712569 0.2943766 255 0 255
0.08776584 -0.06655397 0.2931209 255 0 255
0.08954322 -0.06662906 0.2936769 255 0 255
0.09132645 -0.06669977 0.2942258 255 0 255
0.09284125 -0.06644298 0.2938621 255 0 255
0.09407627 -0.06586059 0.2925883 255 0 255
0.09558395 -0.0655982 0.2922151 255 0 255
0.09737544 -0.06565382 0.2927397 255 0 255
0.09888337 -0.06538451 0.2923553 255 0 255
0.1006825 -0.06543188 0.2928667 255 0 255
0.1024873 -0.06547479 0.293371 255 0 255
0.1045982 -0.06583162 0.2947672 255 0 255
0.1064179 -0.06586479 0.2952562 255 0 255
0.1076274 -0.06525932 0.2939438 255 0 255
0.1091393 -0.06496844 0.2935242 255 0 255
0.1112797 -0.06530564 0.2948896 255 0 255
0.112795 -0.06500705 0.2944576 255 0 255
0.1149536 -0.0653336 0.2958061 255 0 255
0.1171251 -0.06565404 0.2971452 255 0 255
0.1186492 -0.06534301 0.2966932 255 0 255
0.1201712 -0.06502881 0.2962359 255 0 255
0.1223658 -0.06533369 0.2975505 255 0 255
0.123891 -0.06501166 0.2970806 255 0 255
0.1264481 -0.06561509 0.299264 255 0 255
0.1293734 -0.06651937 0.3023203 255 0 255
0.1309176 -0.0661822 0.3018265 255 0 255
0.1328153 -0.066149 0.3022101 255 0 255
0.1354365 -0.06672364 0.3043489 255 0 255
0.1388032 -0.06790125 0.3082358 255 0 255
0.1425702 -0.06937205 0.3129843 255 0 255
0.1452679 -0.06991797 0.315079 255 0 255
0.147985 -0.07045544 0.3171608 255 0 255
0.1492116 -0.06977578 0.315728 255 0 255
0.1511905 -0.06969715 0.3160405 255 0 255
0.1527895 -0.06931293 0.3154721 255 0 255
0.1543858 -0.06892542 0.3148981 255 0 255
0.1559797 -0.06853451 0.3143186 255 0 255
0.1579664 -0.06843811 0.3146025 255 0 255
0.1587606 -0.06744581 0.3122755 255 0 255
0.1591355 -0.06615774 0.3090821 255 0 255
0.07177029 -0.0741379 0.3055444 255 0 255
0.07245065 -0.07258082 0.3015848 255 0 255
0.0742264 -0.07269699 0.3022012 255 0 255
0.07509139 -0.07147328 0.2991534 255 0 255
0.07639829 -0.07091638 0.297932 255 0 255
0.07745934 -0.07002459 0.2957942 255 0 255
0.07898497 -0.06979635 0.2954782 255 0 255
0.07977599 -0.06857002 0.2924235 255 0 255
0.08128735 -0.0683372 0.2920994 255 0 255
0.08279717 -0.0681013 0.2917704 255 0 255
0.08456119 -0.0681921 0.2923448 255 0 255
0.08633114 -0.06827863 0.2929124 255 0 255
0.08784381 -0.06803214 0.2925661 255 0 255
0.08962191 -0.06811047 0.2931207 255 0 255
0.09140585 -0.0681845 0.2936685 255 0 255
0.09292116 -0.06792734 0.2933049 255 0 255
0.09415654 -0.0673409 0.2920327 255 0 255
0.09566467 -0.06707808 0.2916597 255 0 255
0.09745687 -0.06713697 0.2921831 255 0 255
0.09867583 -0.06654308 0.2908981 255 0 255
0.100472 -0.06659439 0.2914093 255 0 255
0.1019769 -0.06631837 0.2910147 255 0 255
0.1037806 -0.06636136 0.2915125 255 0 255
0.1052855 -0.06607845 0.2911067 255 0 255
0.1067885 -0.0657924 0.2906955 255 0 255
0.1086015 -0.06582321 0.291174 255 0 255
0.1110509 -0.06648795 0.2934324 255 0 255
0.1125631 -0.06618965 0.2930017 255 0 255
0.1143961 -0.06620597 0.2934572 255 0 255
0.1162346 -0.06621765 0.2939054 255 0 255
0.1174178 -0.06559209 0.2925676 255 0 255
0.1189257 -0.06528041 0.292115 255 0 255
0.120769 -0.06528037 0.2925443 255 0 255
0.1222764 -0.06496166 0.2920803 255 0 255
0.1255062 -0.06620588 0.2960352 255 0 255
0.1287704 -0.06743903 0.2999734 255 0 255
0.1306601 -0.06741453 0.3003646 255 0 255
0.1329107 -0.06769605 0.3016295 255 0 255
0.1362522 -0.06890109 0.3055249 255 0 255
0.1389014 -0.06947635 0.3076449 255 0 255
0.1419369 -0.07035169 0.31063 255 0 255
0.1446286 -0.07090959 0.3127232 255 0 255
0.1469655 -0.0711524 0.3139284 255 0 255
0.1489369 -0.07108267 0.3142491 255 0 255
0.150913 -0.07100786 0.3145618 255 0 255
0.1525088 -0.07062388 0.3139949 255 0 255
0.1544906 -0.0705398 0.3142926 255 0 255
0.156085 -0.07014824 0.3137134 255 0 255
0.1576768 -0.06975338 0.3131287 255 0 255
0.1588667 -0.0690546 0.3116722 255 0 255
0.07184313 -0.07565452 0.3049684 255 0 255
0.07274516 -0.07442109 0.3019289 255 0 255
0.07452541 -0.0745401 0.3025432 255 0 255
0.0756236 -0.07364207 0.3004119 255 0 255
0.0767052 -0.07274307 0.2982784 255 0 255
0.07753316 -0.07150657 0.2952313 255 0 255
0.07905933 -0.071278 0.2949154 255 0 255
0.07985029 -0.07004032 0.291865 255 0 255
0.08136217 -0.06980717 0.2915411 255 0 255
0.08287246 -0.06957091 0.2912121 255 0 255
0.08463713 -0.06966504 0.2917853 255 0 255
0.08640782 -0.06975487 0.2923517 255 0 255
0.087921 -0.06950799 0.2920055 255 0 255
0.08943262 -0.06925794 0.2916541 255 0 255
0.09121347 -0.06933586 0.2922015 255 0 255
0.09272553 -0.06907892 0.291839 255 0 255
0.09395749 -0.06848904 0.2905692 255 0 255
0.09546243 -0.06822648 0.2901973 255 0 255
0.09725152 -0.06828928 0.2907203 255 0 255
0.09846709 -0.06769199 0.2894379 255 0 255
0.1002602 -0.06774721 0.2899488 255 0 255
0.1017618 -0.06747147 0.2895553 255 0 255
0.1038633 -0.06784415 0.2909493 255 0 255
0.1050642 -0.06723572 0.2896483 255 0 255
0.1068724 -0.06727429 0.2901327 255 0 255
0.108686 -0.06730826 0.2906099 255 0 255
0.1108209 -0.0676606 0.2919721 255 0 255
0.1123299 -0.06736253 0.2915426 255 0 255
0.1144829 -0.06770422 0.2928881 255 0 255
0.1159953 -0.06739834 0.2924461 255 0 255
0.1175057 -0.06708934 0.2919989 255 0 255
0.1190141 -0.06677718 0.2915466 255 0 255
0.1211959 -0.06709874 0.2928604 255 0 255
0.1223659 -0.06646107 0.2915109 255 0 255
0.1255973 -0.067723 0.2954591 255 0 255
0.1288632 -0.06897381 0.2993906 255 0 255
0.1307535 -0.06895241 0.2997806 255 0 255
0.1333612 -0.06955511 0.301923 255 0 255
0.136708 -0.07077699 0.3058104 255 0 255
0.1389986 -0.07104889 0.3070478 255 0 255
0.1416686 -0.07162624 0.3091512 255 0 255
0.1439872 -0.07188413 0.3103668 255 0 255
0.1466921 -0.07244558 0.3124458 255 0 255
0.1486606 -0.07237969 0.3127666 255 0 255
0.1506338 -0.07230879 0.3130794 255 0 255
0.1529967 -0.07254049 0.3142542 255 0 255
0.1553716 -0.07276541 0.3154185 255 0 255
0.1569737 -0.07237142 0.3148369 255 0 255
0.1581773 -0.07166901 0.3133836 255 0 255
0.16017 -0.0715734 0.3136572 255 0 255
0.07215128 -0.07489701 0.2986124 255 0 255
0.07437241 -0.07570461 0.301052 255 0 255
0.07546699 -0.07479946 0.2989244 255 0 255
0.07631155 -0.07355262 0.2958839 255 0 255
0.07713188 -0.07230593 0.2928427 255 0 255
0.07841001 -0.07173856 0.2916193 255 0 255
0.07943431 -0.07083023 0.2894839 255 0 255
0.0809391 -0.07059792 0.2891618 255 0 255
0.08244234 -0.07036252 0.2888346 255 0 255
0.08445627 -0.0707984 0.2903141 255 0 255
0.08648373 -0.07122872 0.2917851 255 0 255
0.08799741 -0.07098149 0.2914391 255 0 255
0.08950949 -0.07073109 0.291088 255 0 255
0.09129107 -0.07081228 0.291634 255 0 255
0.09280361 -0.07055495 0.2912716 255 0 255
0.09375718 -0.06962755 0.2891028 255 0 255
0.09554127 -0.06969807 0.2896316 255 0 255
0.09733111 -0.06976407 0.2901535 255 0 255
0.09825706 -0.06883124 0.2879747 255 0 255
0.1000471 -0.06889038 0.2884854 255 0 255
0.1018429 -0.06894502 0.2889889 255 0 255
0.1033432 -0.06866574 0.2885905 255 0 255
0.1048417 -0.0683833 0.2881869 255 0 255
0.1066468 -0.06842578 0.2886711 255 0 255
0.1087697 -0.06879097 0.29004 255 0 255
0.1109054 -0.06915016 0.2913995 255 0 255
0.1124148 -0.06885161 0.2909703 255 0 255
0.1139223 -0.06854993 0.2905358 255 0 255
0.1154278 -0.06824505 0.2900961 255 0 255
0.1166006 -0.06761346 0.2887648 255 0 255
0.1180984 -0.06730308 0.2883159 255 0 255
0.1202701 -0.06763372 0.2896306 255 0 255
0.1221128 -0.06763677 0.2900524 255 0 255
0.1253421 -0.06891715 0.2939949 255 0 255
0.1279078 -0.06954709 0.2961591 255 0 255
0.1301407 -0.06985005 0.2974312 255 0 255
0.1323859 -0.07014661 0.2986934 255 0 255
0.1357233 -0.07138854 0.3025776 255 0 255
0.1376404 -0.07135317 0.3029399 255 0 255
0.1410314 -0.0725754 0.3067942 255 0 255
0.1433438 -0.07284161 0.3080097 255 0 255
0.1464171 -0.07372902 0.3109597 255 0 255
0.1483827 -0.073667 0.3112807 255 0 255
0.150353 -0.0735999 0.3115936 255 0 255
0.1523281 -0.07352775 0.3118985 255 0 255
0.1543078 -0.07345051 0.3121954 255 0 255
0.1558996 -0.07305855 0.311618 255 0 255
0.1566966 -0.07204584 0.3093057 255 0 255
0.1586757 -0.07195676 0.3095834 255 0 255
0.07222213 -0.07638652 0.2980331 255 0 255
0.07421832 -0.07685937 0.2995578 255 0 255
0.0748497 -0.07525729 0.2956138 255 0 255
0.07614999 -0.07468951 0.2943985 255 0 255
0.07672915 -0.07308823 0.2904539 255 0 255
0.07824115 -0.07286133 0.2901414 255 0 255
0.07950673 -0.07228853 0.2889168 255 0 255
0.08101198 -0.07205588 0.2885949 255 0 255
0.08276822 -0.07216161 0.2891731 255 0 255
0.0847868 -0.07260383 0.290649 255 0 255
0.08655881 -0.07270027 0.2912128 255 0 255
0.08780921 -0.07211298 0.2899642 255 0 255
0.08958554 -0.07220189 0.2905159 255 0 255
0.0910965 -0.07194795 0.2901597 255 0 255
0.09288087 -0.07202862 0.2906985 255 0 255
0.09383457 -0.07109349 0.2885326 255 0 255
0.09533669 -0.07083084 0.2881619 255 0 255
0.09712351 -0.07090076 0.2886835 255 0 255
0.09862591 -0.07063115 0.2883015 255 0 255
0.1004204 -0.07069284 0.2888099 255 0 255
0.1022206 -0.07074998 0.2893113 255 0 255
0.1040263 -0.07080264 0.2898055 255 0 255
0.1055327 -0.07051839 0.2894001 255 0 255
0.1070372 -0.07023095 0.2889895 255 0 255
0.1088523 -0.0702714 0.2894643 255 0 255
0.110989 -0.07063736 0.2908212 255 0 255
0.1121791 -0.07000885 0.2895038 255 0 255
0.1136834 -0.06970738 0.2890705 255 0 255
0.1151856 -0.0694028 0.2886322 255 0 255
0.116355 -0.0687678 0.2873035 255 0 255
0.1181842 -0.06878417 0.28774 255 0 255
0.1200186 -0.06879587 0.2881691 255 0 255
0.1222002 -0.06912781 0.2894726 255 0 255
0.1247399 -0.06977754 0.2916471 255 0 255
0.1269502 -0.07009608 0.29293 255 0 255
0.1288201 -0.07008564 0.2933247 255 0 255
0.1314082 -0.07071388 0.2954662 255 0 255
0.1340159 -0.07133402 0.2975953 255 0 255
0.1362794 -0.07162595 0.2988372 255 0 255
0.1389225 -0.07223053 0.3009424 255 0 255
0.1415851 -0.0728268 0.303035 255 0 255
0.1450165 -0.0740499 0.3068569 255 0 255
0.1473466 -0.07431103 0.3080516 255 0 255
0.1496888 -0.07456541 0.3092358 255 0 255
0.1516574 -0.07449795 0.3095421 255 0 255
0.1540197 -0.07473958 0.3107064 255 0 255
0.1556084 -0.07434781 0.3101306 255 0 255
0.1560056 -0.07301578 0.3069593 255 0 255
0.1571785 -0.07230861 0.3055145 255 0 255
0.1575346 -0.07097895 0.3023456 255 0 255
0.07229228 -0.0778737 0.2974482 255 0 255
0.07451544 -0.07870267 0.2998795 255 0 255
0.07538037 -0.07743365 0.2968492 255 0 255
0.07622106 -0.07616473 0.2938181 255 0 255
0.07703755 -0.07489598 0.2907865 255 0 255
0.07807115 -0.07397434 0.2886608 255 0 255
0.07933325 -0.0733982 0.2874385 255 0 255
0.08083524 -0.07316579 0.2871175 255 0 255
0.08258837 -0.07327538 0.2876952 255 0 255
0.08434754 -0.07338066 0.2882662 255 0 255
0.08611266 -0.07348161 0.2888304 255 0 255
0.08761982 -0.07323485 0.2884863 255 0 255
0.08939305 -0.07332764 0.2890376 255 0 255
0.09117222 -0.07341602 0.2895821 255 0 255
0.092682 -0.07315854 0.2892209 255 0 255
0.09419008 -0.07289795 0.2888546 255 0 255
0.0954137 -0.07229407 0.2875862 255 0 255
0.09720115 -0.07236723 0.2881065 255 0 255
0.09841383 -0.0717584 0.2868297 255 0 255
0.1002052 -0.07182399 0.2873378 255 0 255
0.1020023 -0.07188504 0.2878388 255 0 255
0.103805 -0.07194163 0.2883328 255 0 255
0.1053082 -0.07165761 0.2879286 255 0 255
0.1068095 -0.07137049 0.2875193 255 0 255
0.1089341 -0.07174931 0.2888828 255 0 255
0.1107553 -0.07178832 0.2893491 255 0 255
0.112262 -0.07148951 0.2889212 255 0 255
0.1134431 -0.07085519 0.2876023 255 0 255
0.1149421 -0.07055086 0.2871652 255 0 255
0.1164392 -0.07024343 0.286723 255 0 255
0.1179342 -0.0699328 0.2862757 255 0 255
0.1197657 -0.0699484 0.2867047 255 0 255
0.1219444 -0.07028782 0.2880067 255 0 255
0.1241358 -0.07062102 0.2892991 255 0 255
0.1263397 -0.0709478 0.2905816 255 0 255
0.1285561 -0.07126825 0.2918544 255 0 255
0.1314984 -0.07223298 0.2948687 255 0 255
0.1337469 -0.0725389 0.2961192 255 0 255
0.1360076 -0.07283832 0.2973597 255 0 255
0.1379129 -0.07280825 0.2977179 255 0 255
0.1401945 -0.07309535 0.2989393 255 0 255
0.1436129 -0.07433931 0.3027594 255 0 255
0.1463081 -0.0749308 0.3048248 255 0 255
0.1486404 -0.07519439 0.3060102 255 0 255
0.1513703 -0.07576975 0.3080509 255 0 255
0.15373 -0.07601874 0.3092139 255 0 255
0.1553157 -0.07562725 0.3086398 255 0 255
0.1561056 -0.07460053 0.3063363 255 0 255
0.158079 -0.07451917 0.3066145 255 0 255
0.157231 -0.0722339 0.3008696 255 0 255
0.07191665 -0.07865175 0.29504 255 0 255
0.07435955 -0.07984526 0.2983764 255 0 255
0.07545075 -0.07891779 0.2962585 255 0 255
0.0762914 -0.07763754 0.293232 255 0 255
0.07734551 -0.07670865 0.2911105 255 0 255
0.07838307 -0.0757788 0.288987 255 0 255
0.07964925 -0.07519807 0.2877655 255 0 255
0.08090641 -0.07461537 0.2865405 255 0 255
0.0826602 -0.07472827 0.287117 255 0 255
0.08441999 -0.07483687 0.2876866 255 0 255
0.08592539 -0.07459348 0.2873487 255 0 255
0.08742922 -0.074347 0.2870057 255 0 255
0.08946732 -0.07479005 0.2884556 255 0 255
0.09097546 -0.07453595 0.2881006 255 0 255
0.09248195 -0.07427876 0.2877404 255 0 255
0.09398672 -0.0740184 0.2873752 255 0 255
0.09520689 -0.07341112 0.2861093 255 0 255
0.09670456 -0.07314512 0.2857348 255 0 255
0.09820045 -0.072876 0.2853551 255 0 255
0.09969459 -0.07260375 0.2849703 255 0 255
0.1017828 -0.07301047 0.2863636 255 0 255
0.1035824 -0.07307091 0.2868573 255 0 255
0.1053877 -0.07312682 0.2873439 255 0 255
0.1068895 -0.07283921 0.2869347 255 0 255
0.1093277 -0.07356309 0.2891831 255 0 255
0.1108368 -0.07326705 0.2887606 255 0 255
0.112344 -0.0729678 0.2883329 255 0 255
0.1135253 -0.07232936 0.2870156 255 0 255
0.1153524 -0.07235983 0.2874621 255 0 255
0.1168537 -0.07205108 0.287019 255 0 255
0.1180179 -0.07140549 0.2856896 255 0 255
0.11985 -0.07142419 0.2861174 255 0 255
0.122372 -0.07210255 0.2882957 255 0 255
0.1242219 -0.0721103 0.2887065 255 0 255
0.1264267 -0.07244377 0.2899863 255 0 255
0.128644 -0.07277095 0.2912565 255 0 255
0.1308737 -0.07309164 0.2925167 255 0 255
0.1331157 -0.07340588 0.2937669 255 0 255
0.1350059 -0.07338627 0.2941353 255 0 255
0.136901 -0.07336181 0.2944961 255 0 255
0.1399156 -0.07430932 0.2974574 255 0 255
0.143332 -0.0755716 0.3012717 255 0 255
0.1456459 -0.0758503 0.3024675 255 0 255
0.1479718 -0.07612218 0.3036528 255 0 255
0.1510817 -0.07703166 0.3065564 255 0 255
0.1534388 -0.07728814 0.3077182 255 0 255
0.1542349 -0.07625601 0.3054219 255 0 255
0.1562044 -0.07618275 0.3057071 255 0 255
0.1577782 -0.0757857 0.305125 255 0 255
0.1561178 -0.07284356 0.2976746 255 0 255
0.07220762 -0.08048377 0.2953534 255 0 255
0.07420254 -0.08097814 0.2968705 255 0 255
0.07575062 -0.08075535 0.2965678 255 0 255
0.07636094 -0.07910803 0.2926401 255 0 255
0.07741527 -0.07817145 0.2905217 255 0 255
0.07845288 -0.07723397 0.2884011 255 0 255
0.0799648 -0.0770029 0.2880839 255 0 255
0.08097679 -0.07606259 0.2859579 255 0 255
0.08273123 -0.07617882 0.286533 255 0 255
0.08449171 -0.07629068 0.2871013 255 0 255
0.08599754 -0.07604697 0.2867636 255 0 255
0.08750185 -0.07580007 0.2864207 255 0 255
0.08927266 -0.07590006 0.2869703 255 0 255
0.09104935 -0.07599558 0.2875129 255 0 255
0.09255632 -0.07573798 0.287153 255 0 255
0.09406158 -0.07547725 0.2867878 255 0 255
0.09556513 -0.07521334 0.2864176 255 0 255
0.09706704 -0.07494625 0.2860422 255 0 255
0.09827647 -0.07433002 0.2847697 255 0 255
0.0997711 -0.07405735 0.2843851 255 0 255
0.1015621 -0.07412619 0.2848856 255 0 255
0.1036604 -0.07453452 0.2862681 255 0 255
0.1054664 -0.07459363 0.2867534 255 0 255
0.1066594 -0.07396299 0.2854572 255 0 255
0.1090949 -0.07469804 0.2877024 255 0 255
0.1106008 -0.07440223 0.2872812 255 0 255
0.1117843 -0.07376289 0.2859707 255 0 255
0.1129585 -0.07312182 0.2846573 255 0 255
0.1151067 -0.07349582 0.2859865 255 0 255
0.1166046 -0.07318734 0.2855447 255 0 255
0.1177654 -0.07253841 0.2842181 255 0 255
0.1192556 -0.07222442 0.2837672 255 0 255
0.1217714 -0.07291467 0.2859435 255 0 255
0.1232685 -0.07259204 0.285479 255 0 255
0.1251133 -0.07260049 0.2858846 255 0 255
0.1280238 -0.07360433 0.2889046 255 0 255
0.130247 -0.07393339 0.2901646 255 0 255
0.1324827 -0.07425592 0.2914145 255 0 255
0.1343662 -0.07424103 0.2917841 255 0 255
0.1366229 -0.07455133 0.2930152 255 0 255
0.1392634 -0.07518431 0.2951043 255 0 255
0.1422987 -0.07613736 0.2980474 255 0 255
0.1446027 -0.07642516 0.2992442 255 0 255
0.1473013 -0.07703292 0.301295 255 0 255
0.1500191 -0.07763217 0.3033327 255 0 255
0.1519765 -0.07757299 0.303634 255 0 255
0.1535451 -0.07718462 0.3030669 255 0 255
0.1559051 -0.07743918 0.3042126 255 0 255
0.1578763 -0.07736461 0.3044899 255 0 255
0.07138402 -0.08051746 0.2911297 255 0 255
0.07404446 -0.08210122 0.2953616 255 0 255
0.07581967 -0.08223822 0.2959641 255 0 255
0.07689834 -0.08129391 0.2938494 255 0 255
0.07819837 -0.08070709 0.2926352 255 0 255
0.07900569 -0.07940244 0.2896135 255 0 255
0.08028004 -0.0788126 0.2883936 255 0 255
0.0815453 -0.07822075 0.2871703 255 0 255
0.08305474 -0.07798299 0.2868429 255 0 255
0.08456258 -0.07774207 0.2865104 255 0 255
0.08606891 -0.07749799 0.2861727 255 0 255
0.08730911 -0.07689653 0.2849331 255 0 255
0.08880849 -0.07664675 0.2845861 255 0 255
0.09030625 -0.07639387 0.284234 255 0 255
0.09180237 -0.0761378 0.2838769 255 0 255
0.09329682 -0.0758786 0.2835146 255 0 255
0.09478962 -0.07561628 0.2831473 255 0 255
0.09656776 -0.07570115 0.2836665 255 0 255
0.09806081 -0.07543189 0.2832881 255 0 255
0.09955217 -0.07515948 0.2829046 255 0 255
0.1016383 -0.07558056 0.2842934 255 0 255
0.1037375 -0.0759957 0.2856731 255 0 255
0.1052384 -0.07571109 0.2852705 255 0 255
0.1064279 -0.07507712 0.283977 255 0 255
0.1085476 -0.07547784 0.2853344 255 0 255
0.1097296 -0.07483825 0.2840318 255 0 255
0.1109023 -0.07419704 0.2827262 255 0 255
0.1123899 -0.0738974 0.2822991 255 0 255
0.1145315 -0.07427961 0.2836277 255 0 255
0.1163542 -0.07431395 0.2840676 255 0 255
0.117847 -0.0740026 0.283622 255 0 255
0.1196767 -0.0740283 0.2840484 255 0 255
0.1218544 -0.07438872 0.2853435 255 0 255
0.123352 -0.07406555 0.2848792 255 0 255
0.1258976 -0.07475274 0.2870308 255 0 255
0.128463 -0.07543189 0.2891704 255 0 255
0.1310481 -0.07610294 0.2912978 255 0 255
0.133292 -0.07643049 0.2925427 255 0 255
0.1351834 -0.07641698 0.2929087 255 0 255
0.1367116 -0.07606486 0.2923993 255 0 255
0.1389813 -0.07637518 0.2936176 255 0 255
0.1423899 -0.0776749 0.2974217 255 0 255
0.1446947 -0.07796934 0.2986158 255 0 255
0.1477772 -0.07891756 0.3015252 255 0 255
0.1504998 -0.07952607 0.3035576 255 0 255
0.1528514 -0.07979748 0.3047166 255 0 255
0.1544276 -0.07940667 0.3041472 255 0 255
0.157193 -0.07999269 0.3061453 255 0 255
0.1603781 -0.08089577 0.3089862 255 0 255
0.03199159 -0.02066244 0.1380486 255 0 255
0.07100438 -0.08124807 0.2887205 255 0 255
0.07365848 -0.08285085 0.2929466 255 0 255
0.07565734 -0.08335541 0.2944518 255 0 255
0.07696674 -0.0827667 0.293243 255 0 255
0.07826706 -0.08217592 0.2920304 255 0 255
0.07931634 -0.08122154 0.2899138 255 0 255
0.08034896 -0.08026627 0.2877952 255 0 255
0.08136488 -0.07931018 0.2856745 255 0 255
0.08261762 -0.07871292 0.2844501 255 0 255
0.08411837 -0.07847288 0.2841194 255 0 255
0.08535667 -0.07787118 0.2828873 255 0 255
0.08685054 -0.07762543 0.2825473 255 0 255
0.0886113 -0.0777338 0.2830968 255 0 255
0.09010576 -0.07748114 0.2827458 255 0 255
0.09159854 -0.07722535 0.2823897 255 0 255
0.09336945 -0.07732172 0.2829204 255 0 255
0.09486268 -0.07705898 0.2825533 255 0 255
0.0963542 -0.07679311 0.2821811 255 0 255
0.09784399 -0.07652413 0.2818038 255 0 255
0.09903724 -0.07589935 0.2805333 255 0 255
0.1008183 -0.07597668 0.281034 255 0 255
0.1026049 -0.07604954 0.2815278 255 0 255
0.1047032 -0.07646835 0.2828996 255 0 255
0.1055758 -0.07548189 0.2807257 255 0 255
0.1079986 -0.07624066 0.2829666 255 0 255
0.1098076 -0.0762952 0.2834319 255 0 255
0.1113013 -0.07599749 0.283009 255 0 255
0.1124686 -0.07534979 0.2817011 255 0 255
0.1149392 -0.07608487 0.2839058 255 0 255
0.1164344 -0.07577617 0.2834656 255 0 255
0.117592 -0.07511979 0.2821434 255 0 255
0.1190794 -0.0748056 0.2816941 255 0 255
0.1209077 -0.07483125 0.2821141 255 0 255
0.1227413 -0.07485218 0.2825268 255 0 255
0.1252806 -0.0755512 0.2846766 255 0 255
0.1285476 -0.07692349 0.2885564 255 0 255
0.1307762 -0.07726502 0.2898097 255 0 255
0.1333785 -0.07793903 0.2919218 255 0 255
0.1356355 -0.07826669 0.293154 255 0 255
0.1367992 -0.07757583 0.2917773 255 0 255
0.1386976 -0.07755634 0.2921279 255 0 255
0.1417283 -0.07853871 0.2950623 255 0 255
0.1436474 -0.07850672 0.2953937 255 0 255
0.1459543 -0.07880354 0.2965786 255 0 255
0.1494332 -0.08009257 0.3003332 255 0 255
0.1517749 -0.08037315 0.3014935 255 0 255
0.1533408 -0.0799844 0.3009284 255 0 255
0.1560965 -0.08058327 0.3029261 255 0 255
0.1596731 -0.08183212 0.3066202 255 0 255
-0.003574375 -0.01632375 0.1214019 255 0 255
0.0692843 -0.0797544 0.2808956 255 0 255
0.0728171 -0.08284877 0.2887279 255 0 255
0.07503232 -0.08372927 0.2911344 255 0 255
0.07656518 -0.08350457 0.2908299 255 0 255
0.07785822 -0.08291092 0.2896205 255 0 255
0.07890003 -0.0819501 0.2875086 255 0 255
0.08017111 -0.08135293 0.2862928 255 0 255
0.08118342 -0.08038981 0.2841762 255 0 255
0.08268613 -0.08015256 0.2838507 255 0 255
0.08393003 -0.0795494 0.2826245 255 0 255
0.08542592 -0.07930646 0.2822897 255 0 255
0.08665533 -0.0786989 0.2810559 255 0 255
0.08841296 -0.07881113 0.2816049 255 0 255
0.08963162 -0.07819851 0.2803627 255 0 255
0.09139352 -0.0783032 0.2808998 255 0 255
0.09288137 -0.07804454 0.2805397 255 0 255
0.09465121 -0.078141 0.2810641 255 0 255
0.0961394 -0.07787542 0.280693 255 0 255
0.09762587 -0.07760667 0.2803168 255 0 255
0.09881568 -0.07697856 0.2790489 255 0 255
0.1005936 -0.07705979 0.2795494 255 0 255
0.1023771 -0.07713649 0.2800427 255 0 255
0.1041663 -0.07720867 0.2805291 255 0 255
0.1053414 -0.07656945 0.2792431 255 0 255
0.1077615 -0.07733931 0.2814806 255 0 255
0.1095674 -0.07739772 0.2819457 255 0 255
0.1110578 -0.07710028 0.2815241 255 0 255
0.1125463 -0.07679971 0.2810974 255 0 255
0.1143612 -0.07684565 0.281543 255 0 255
0.1158495 -0.07653806 0.2811052 255 0 255
0.1169999 -0.07587908 0.2797869 255 0 255
0.1188199 -0.07591336 0.2802141 255 0 255
0.1206451 -0.0759429 0.280634 255 0 255
0.1224756 -0.07596771 0.2810466 255 0 255
0.1250123 -0.07667784 0.2831933 255 0 255
0.1275688 -0.07737992 0.2853279 255 0 255
0.1297874 -0.07773057 0.286582 255 0 255
0.1323797 -0.07841731 0.2886934 255 0 255
0.1342615 -0.07841234 0.2890604 255 0 255
0.1361483 -0.07840247 0.2894199 255 0 255
0.1380401 -0.07838768 0.2897718 255 0 255
0.1406889 -0.07904632 0.2918405 255 0 255
0.1429773 -0.07935824 0.2930356 255 0 255
0.1456611 -0.08000086 0.2950801 255 0 255
0.1479773 -0.08029835 0.2962532 255 0 255
0.1510864 -0.08126036 0.2991304 255 0 255
0.1526455 -0.0808728 0.2985682 255 0 255
0.1549975 -0.08114965 0.2997098 255 0 255
0.1569599 -0.08108655 0.2999875 255 0 255
0.158927 -0.08101834 0.3002571 255 0 255
0.002056792 -0.06322492 0.2306488 255 0 255
0.006192372 -0.08017711 0.2710641 255 0 255
0.0101764 -0.07800358 0.2662344 255 0 255
0.008662573 -0.0577749 0.2182799 255 0 255
0.005307758 -0.03765504 0.1704341 255 0 255
0.07333659 -0.085041 0.2899182 255 0 255
0.07532943 -0.08556058 0.2914191 255 0 255
0.07686652 -0.08533499 0.291114 255 0 255
