ply
format ascii 1.0
Comment Generated by Floating Hands
element vertex 1136
property double x
property double y
property double z
property uchar red
property uchar green
property uchar blue
end_header
0.03854653 -0.1558506 0.2271521 255 0 255
0.0416333 -0.1559682 0.2275708 255 0 255
0.04348567 -0.1569093 0.2289421 255 0 255
0.0441101 -0.1542955 0.2256309 255 0 255
0.04512436 -0.1528653 0.2238767 255 0 255
0.04633685 -0.1520247 0.2228983 255 0 255
0.0473219 -0.1505928 0.2211387 255 0 255
0.04806792 -0.1485716 0.2185997 255 0 255
0.04901595 -0.1471394 0.216836 255 0 255
0.05040772 -0.1468816 0.216622 255 0 255
0.05133037 -0.1454473 0.2148528 255 0 255
0.05247423 -0.1445986 0.2138563 255 0 255
0.05385088 -0.1443334 0.2136306 255 0 255
0.05522632 -0.144065 0.2134003 255 0 255
0.05635116 -0.1432099 0.2123929 255 0 255
0.05822655 -0.1441018 0.2136987 255 0 255
0.059345 -0.1432411 0.2126829 255 0 255
0.06097605 -0.1435415 0.2132056 255 0 255
0.06208415 -0.142676 0.2121822 255 0 255
0.06318331 -0.1418091 0.2111559 255 0 255
0.06427349 -0.1409406 0.2101265 255 0 255
0.06507863 -0.1394925 0.2083263 255 0 255
0.06614698 -0.1386218 0.2072918 255 0 255
0.06749 -0.1383263 0.2070207 255 0 255
0.06911897 -0.1386032 0.2075109 255 0 255
0.0704628 -0.1383006 0.2072302 255 0 255
0.07210024 -0.1385688 0.2077091 255 0 255
0.07344493 -0.1382592 0.2074189 255 0 255
0.07478809 -0.1379465 0.2071242 255 0 255
0.07612979 -0.1376307 0.2068251 255 0 255
0.07808998 -0.1384526 0.2080429 255 0 255
0.07943608 -0.1381288 0.2077332 255 0 255
0.08141569 -0.138939 0.2089369 255 0 255
0.08308737 -0.1391749 0.2093747 255 0 255
0.08411475 -0.1382724 0.208292 255 0 255
0.08546181 -0.1379344 0.2079629 255 0 255
0.08680719 -0.1375934 0.2076293 255 0 255
0.0878146 -0.1366854 0.206537 255 0 255
0.08949286 -0.136902 0.2069488 255 0 255
-0.1459581 -0.1542231 0.2041832 255 0 255
-0.1433685 -0.1520074 0.2016466 255 0 255
-0.1411093 -0.150388 0.1998346 255 0 255
-0.138871 -0.1487622 0.1980116 255 0 255
-0.1366536 -0.1471301 0.1961779 255 0 255
-0.1332933 -0.1430709 0.1913697 255 0 255
-0.1311329 -0.1414245 0.1895106 255 0 255
-0.1287101 -0.1391658 0.1868979 255 0 255
-0.1265957 -0.137507 0.1850169 255 0 255
-0.1247784 -0.1364495 0.1838709 255 0 255
-0.123519 -0.1366024 0.1842091 255 0 255
-0.1222583 -0.1367523 0.1845434 255 0 255
-0.1209961 -0.1368992 0.1848736 255 0 255
-0.1194718 -0.1364341 0.1844507 255 0 255
-0.1179538 -0.1359652 0.1840219 255 0 255
-0.116442 -0.1354924 0.1835872 255 0 255
-0.1149366 -0.1350159 0.1831466 255 0 255
-0.1129465 -0.1333145 0.1811944 255 0 255
-0.1114614 -0.1328296 0.1807403 255 0 255
-0.1099827 -0.132341 0.1802804 255 0 255
-0.1087445 -0.1324605 0.1805706 255 0 255
-0.1068145 -0.1307408 0.1785872 255 0 255
-0.1055854 -0.1308534 0.1788668 255 0 255
-0.1043552 -0.1309631 0.1791426 255 0 255
-0.1029052 -0.1304567 0.1786554 255 0 255
-0.1014617 -0.1299468 0.1781626 255 0 255
-0.100447 -0.1306608 0.1791857 255 0 255
-0.09921627 -0.1307584 0.1794451 255 0 255
-0.09798451 -0.1308532 0.1797006 255 0 255
-0.09655224 -0.1303305 0.179189 255 0 255
-0.09551796 -0.131034 0.1801997 255 0 255
-0.09447497 -0.1317352 0.1812082 255 0 255
-0.09323537 -0.1318186 0.1814488 255 0 255
-0.09217887 -0.1325147 0.1824515 255 0 255
-0.09111371 -0.1332084 0.1834519 255 0 255
-0.09003988 -0.1338997 0.1844497 255 0 255
-0.0889574 -0.1345884 0.185445 255 0 255
-0.08786629 -0.1352745 0.1864377 255 0 255
-0.08693124 -0.136575 0.1881974 255 0 255
-0.08565816 -0.1366392 0.188415 255 0 255
-0.08438427 -0.1367004 0.1886286 255 0 255
-0.08295649 -0.1361413 0.1880665 255 0 255
-0.08108819 -0.1337262 0.1851823 255 0 255
-0.07939553 -0.1319245 0.183062 255 0 255
-0.0780082 -0.1313547 0.1824812 255 0 255
-0.07649048 -0.1301637 0.1811211 255 0 255
-0.07538837 -0.1308235 0.1820787 255 0 255
-0.07414811 -0.1308625 0.1822582 255 0 255
-0.07278138 -0.1302802 0.1816581 255 0 255
-0.07166559 -0.1309316 0.1826056 255 0 255
-0.07042337 -0.1309619 0.1827734 255 0 255
-0.06906648 -0.1303706 0.1821598 255 0 255
-0.06771684 -0.1297761 0.1815413 255 0 255
-0.0665869 -0.1304163 0.1824746 255 0 255
-0.06524395 -0.1298159 0.1818472 255 0 255
-0.0640067 -0.1298315 0.1819943 255 0 255
-0.06276893 -0.1298441 0.1821374 255 0 255
-0.06162126 -0.1304728 0.1830567 255 0 255
-0.06037859 -0.1304796 0.1831924 255 0 255
-0.05921821 -0.1311026 0.1841051 255 0 255
-0.05804955 -0.1317226 0.1850147 255 0 255
-0.05687261 -0.1323397 0.1859211 255 0 255
-0.05568743 -0.1329539 0.1868243 255 0 255
-0.05462805 -0.1348029 0.1892893 255 0 255
-0.05341854 -0.135411 0.1901866 255 0 255
-0.05220082 -0.136016 0.1910805 255 0 255
-0.05103014 -0.1372367 0.1927546 255 0 255
-0.04979212 -0.1378355 0.1936419 255 0 255
-0.04859336 -0.1390498 0.19531 255 0 255
-0.04729165 -0.1390235 0.195406 255 0 255
0.04046436 -0.1579531 0.2276356 255 0 255
0.04231424 -0.158904 0.2290076 255 0 255
0.04397507 -0.1592537 0.2295954 255 0 255
0.04460627 -0.1566259 0.2262931 255 0 255
0.04541654 -0.154594 0.2237666 255 0 255
0.04641753 -0.1531561 0.2220145 255 0 255
0.04762084 -0.1523101 0.2210353 255 0 255
0.04836991 -0.1502787 0.2185031 255 0 255
0.04932119 -0.1488393 0.2167439 255 0 255
0.05071673 -0.1485803 0.2165296 255 0 255
0.05164262 -0.1471388 0.2147649 255 0 255
0.05279001 -0.146286 0.2137705 255 0 255
0.05417033 -0.1460197 0.2135445 255 0 255
0.05554948 -0.1457502 0.213314 255 0 255
0.05667773 -0.1448908 0.2123085 255 0 255
0.05830388 -0.1452017 0.2128394 255 0 255
0.05967917 -0.1449227 0.2125954 255 0 255
0.06105311 -0.1446405 0.212347 255 0 255
0.06242569 -0.1443552 0.2120941 255 0 255
0.06352834 -0.1434839 0.2110697 255 0 255
0.06462192 -0.1426111 0.2100423 255 0 255
0.06570657 -0.1417368 0.209012 255 0 255
0.06650213 -0.1402807 0.207214 255 0 255
0.06784878 -0.1399839 0.2069425 255 0 255
0.06919398 -0.1396839 0.2066666 255 0 255
0.07053776 -0.1393809 0.2063863 255 0 255
0.07188003 -0.1390747 0.2061016 255 0 255
0.07322084 -0.1387655 0.2058126 255 0 255
0.07456015 -0.1384532 0.2055191 255 0 255
0.07589784 -0.1381378 0.2052212 255 0 255
0.07754432 -0.1383927 0.2056772 255 0 255
0.07919672 -0.1386428 0.2061271 255 0 255
0.08085513 -0.138888 0.2065709 255 0 255
0.08251937 -0.1391282 0.2070084 255 0 255
0.08386422 -0.1387937 0.206685 255 0 255
0.08553641 -0.139025 0.207111 255 0 255
0.08654884 -0.1381155 0.2060249 255 0 255
0.08788867 -0.1377718 0.2056883 255 0 255
0.08956701 -0.1379909 0.2060982 255 0 255
-0.1461718 -0.1559429 0.2040399 255 0 255
-0.144191 -0.1549284 0.2029821 255 0 255
-0.1419215 -0.1533018 0.2011803 255 0 255
-0.1393746 -0.1510615 0.1986311 255 0 255
-0.136856 -0.1488138 0.1960691 255 0 255
-0.1334938 -0.144734 0.1912785 255 0 255
-0.1310436 -0.1424705 0.1886877 255 0 255
-0.1289052 -0.1408092 0.1868251 255 0 255
-0.1267879 -0.139142 0.1849521 255 0 255
-0.1249674 -0.1380791 0.1838116 255 0 255
-0.1239762 -0.1388435 0.1848944 255 0 255
-0.1224398 -0.1383834 0.1844856 255 0 255
-0.1209096 -0.1379195 0.1840709 255 0 255
-0.1193857 -0.1374517 0.1836502 255 0 255
-0.117868 -0.13698 0.1832235 255 0 255
-0.1161038 -0.1358916 0.1820423 255 0 255
-0.1146025 -0.1354118 0.181603 255 0 255
-0.112617 -0.133701 0.1796568 255 0 255
-0.1113776 -0.133827 0.1799555 255 0 255
-0.1098992 -0.1333357 0.1794979 255 0 255
-0.1086611 -0.1334554 0.1797878 255 0 255
-0.1069619 -0.1323419 0.1785655 255 0 255
-0.1057291 -0.1324551 0.1788459 255 0 255
-0.1042728 -0.1319494 0.1783664 255 0 255
-0.1028231 -0.1314402 0.1778814 255 0 255
-0.10138 -0.1309274 0.1773909 255 0 255
-0.1003651 -0.1316447 0.1784114 255 0 255
-0.09892752 -0.1311255 0.1779115 255 0 255
-0.0979028 -0.1318376 0.1789259 255 0 255
-0.09667011 -0.1319297 0.1791772 255 0 255
-0.09563182 -0.1326368 0.1801862 255 0 255
-0.09439328 -0.1327233 0.1804306 255 0 255
-0.09334144 -0.1334254 0.181434 255 0 255
-0.09228092 -0.134125 0.1824351 255 0 255
-0.09121174 -0.1348222 0.1834335 255 0 255
-0.09013386 -0.1355169 0.1844295 255 0 255
-0.08904736 -0.1362091 0.1854229 255 0 255
-0.08795223 -0.1368987 0.1864136 255 0 255
-0.08701289 -0.1382057 0.188169 255 0 255
-0.08557547 -0.1376502 0.1876193 255 0 255
-0.08414496 -0.1370912 0.1870641 255 0 255
-0.08256863 -0.1359086 0.1857344 255 0 255
-0.08085813 -0.1341016 0.1836285 255 0 255
-0.0791702 -0.1322906 0.1815147 255 0 255
-0.07778712 -0.1317177 0.1809356 255 0 255
-0.07641112 -0.1311415 0.1803513 255 0 255
-0.07517553 -0.1311834 0.1805341 255 0 255
-0.07393926 -0.1312224 0.180713 255 0 255
-0.07270233 -0.1312584 0.180888 255 0 255
-0.07158636 -0.1319131 0.181833 255 0 255
-0.07034425 -0.1319434 0.1820006 255 0 255
-0.06898771 -0.1313491 0.1813895 255 0 255
-0.06774832 -0.1313735 0.1815487 255 0 255
-0.06640234 -0.1307731 0.1809282 255 0 255
-0.06516572 -0.1307916 0.1810791 255 0 255
-0.06402673 -0.1314292 0.1820029 255 0 255
-0.06278516 -0.131442 0.1821464 255 0 255
-0.06172374 -0.1326959 0.1838415 255 0 255
-0.06047335 -0.1327028 0.183978 255 0 255
-0.05930499 -0.1333289 0.184889 255 0 255
-0.05812832 -0.1339521 0.1857969 255 0 255
-0.05701804 -0.1351944 0.187481 255 0 255
-0.05582093 -0.1358117 0.1883828 255 0 255
-0.05468238 -0.1370479 0.1900615 255 0 255
-0.05352774 -0.138281 0.1917375 255 0 255
-0.05223916 -0.1382671 0.1918491 255 0 255
-0.05095024 -0.1382501 0.1919567 255 0 255
-0.04971212 -0.1388519 0.1928416 255 0 255
-0.04851295 -0.1400724 0.1945048 255 0 255
0.04079901 -0.1552663 0.221895 255 0 255
0.04344714 -0.1586153 0.2263596 255 0 255
0.0446881 -0.1577697 0.2253922 255 0 255
0.04528626 -0.1551314 0.2220993 255 0 255
0.04671321 -0.1548802 0.2218996 255 0 255
0.04770095 -0.1534345 0.2201497 255 0 255
0.0486721 -0.1519884 0.2183973 255 0 255
0.04939996 -0.1499477 0.215871 255 0 255
0.05079531 -0.1496883 0.215657 255 0 255
0.05172065 -0.1482403 0.2138974 255 0 255
0.05262933 -0.1467921 0.2121357 255 0 255
0.05400574 -0.1465261 0.2119106 255 0 255
0.05538088 -0.1462569 0.2116811 255 0 255
0.05675475 -0.1459846 0.2114471 255 0 255
0.05812736 -0.1457091 0.2112086 255 0 255
0.05949867 -0.1454305 0.2109656 255 0 255
0.0608687 -0.1451487 0.2107182 255 0 255
0.06223733 -0.1448637 0.2104662 255 0 255
0.06360459 -0.1445757 0.2102099 255 0 255
0.06442523 -0.1431143 0.2084214 255 0 255
0.06550574 -0.1422374 0.2073946 255 0 255
0.06657715 -0.141359 0.2063648 255 0 255
0.06792365 -0.1410617 0.2060937 255 0 255
0.06898089 -0.1401796 0.2050574 255 0 255
0.07032073 -0.1398769 0.2047782 255 0 255
0.07165909 -0.1395712 0.2044947 255 0 255
0.07269678 -0.1386832 0.2034484 255 0 255
0.0740284 -0.1383722 0.2031569 255 0 255
0.07566516 -0.1386355 0.2036179 255 0 255
0.07699745 -0.1383174 0.2033168 255 0 255
0.07895667 -0.1391474 0.2045215 255 0 255
0.08092933 -0.1399706 0.2057182 255 0 255
0.08227187 -0.1396396 0.2054005 255 0 255
0.08361281 -0.1393057 0.2050784 255 0 255
0.08528136 -0.1395403 0.2055033 255 0 255
0.08595677 -0.1380574 0.2036705 255 0 255
0.08762567 -0.138285 0.2040857 255 0 255
0.0886195 -0.1373697 0.2029973 255 0 255
-0.1465038 -0.1550303 0.2005537 255 0 255
-0.1451475 -0.1552304 0.2009649 255 0 255
-0.1434839 -0.1548178 0.20064 255 0 255
-0.1412228 -0.1531814 0.1988429 255 0 255
-0.1383865 -0.1503178 0.195567 255 0 255
-0.1361746 -0.1486677 0.1937461 255 0 255
-0.1331123 -0.1451772 0.1897061 255 0 255
-0.1309537 -0.1435132 0.1878608 255 0 255
-0.1288161 -0.1418431 0.1860051 255 0 255
-0.1266997 -0.140167 0.1841392 255 0 255
-0.1248798 -0.1390984 0.1830033 255 0 255
-0.1236168 -0.1392523 0.183342 255 0 255
-0.1220846 -0.1387891 0.1829344 255 0 255
-0.1208226 -0.1389366 0.1832642 255 0 255
-0.119299 -0.138466 0.1828456 255 0 255
-0.1172689 -0.1367605 0.1809307 255 0 255
-0.1155128 -0.1356655 0.1797522 255 0 255
-0.1140195 -0.1351821 0.1793132 255 0 255
-0.1122876 -0.1340783 0.1781203 255 0 255
-0.1108108 -0.1335871 0.1776688 255 0 255
-0.1095778 -0.1337097 0.1779615 255 0 255
-0.1083436 -0.1338293 0.1782503 255 0 255
-0.1066488 -0.1327095 0.1770318 255 0 255
-0.1056458 -0.1334411 0.1780636 255 0 255
-0.1041899 -0.1329327 0.1775864 255 0 255
-0.1027406 -0.1324206 0.1771037 255 0 255
-0.1012978 -0.131905 0.1766153 255 0 255
-0.1000722 -0.1320057 0.1768774 255 0 255
-0.09884548 -0.1321035 0.1771356 255 0 255
-0.09761778 -0.1321984 0.1773899 255 0 255
-0.09658802 -0.1329111 0.1783986 255 0 255
-0.09554959 -0.1336216 0.179405 255 0 255
-0.09431114 -0.1337082 0.1796491 255 0 255
-0.09344656 -0.1350352 0.1814106 255 0 255
-0.09238201 -0.1357383 0.1824097 255 0 255
-0.09130878 -0.1364389 0.1834063 255 0 255
-0.09022691 -0.1371371 0.1844004 255 0 255
-0.08913636 -0.1378328 0.1853919 255 0 255
-0.08786912 -0.1379031 0.1856166 255 0 255
-0.08676519 -0.1385934 0.1866022 255 0 255
-0.0851717 -0.1374116 0.1852886 255 0 255
-0.0835929 -0.1362261 0.1839683 255 0 255
-0.08202883 -0.1350369 0.1826415 255 0 255
-0.08047951 -0.1338439 0.1813082 255 0 255
-0.07894499 -0.1326475 0.1799685 255 0 255
-0.07756615 -0.1320714 0.1793911 255 0 255
-0.07619441 -0.1314922 0.1788085 255 0 255
-0.0749628 -0.131534 0.1789906 255 0 255
-0.07373055 -0.131573 0.1791689 255 0 255
-0.07249762 -0.131609 0.1793433 255 0 255
-0.07138543 -0.1322668 0.1802851 255 0 255
-0.07014732 -0.1322971 0.1804522 255 0 255
-0.06879505 -0.1316997 0.1798428 255 0 255
-0.06755965 -0.1317241 0.1800015 255 0 255
-0.06632369 -0.1317457 0.1801563 255 0 255
-0.06498535 -0.1311392 0.1795332 255 0 255
-0.06385014 -0.1317799 0.1804541 255 0 255
-0.06280058 -0.1330429 0.1821468 255 0 255
-0.06164477 -0.1336779 0.183062 255 0 255
-0.06039449 -0.1336849 0.1831985 255 0 255
-0.05930822 -0.1349394 0.1848832 255 0 255
-0.05812752 -0.1355656 0.185789 255 0 255
-0.05708731 -0.1374393 0.1882455 255 0 255
-0.05588223 -0.1380596 0.1891456 255 0 255
-0.05473544 -0.139302 0.19082 255 0 255
-0.05357255 -0.1405413 0.1924918 255 0 255
-0.05227625 -0.1405272 0.1926041 255 0 255
-0.0509796 -0.1405102 0.1927123 255 0 255
-0.04973348 -0.141115 0.1935953 255 0 255
-0.04871362 -0.144841 0.1983715 255 0 255
0.03848022 -0.1491682 0.2117243 255 0 255
0.04291764 -0.1579549 0.2231338 255 0 255
0.04456209 -0.1583093 0.2237147 255 0 255
0.04536688 -0.1562591 0.2212038 255 0 255
0.04657828 -0.1554082 0.2202335 255 0 255
0.0480001 -0.155154 0.2200301 255 0 255
0.0487514 -0.1531028 0.2175124 255 0 255
0.0497054 -0.1516498 0.2157629 255 0 255
0.05087367 -0.1507928 0.2147799 255 0 255
0.05179837 -0.1493384 0.2130255 255 0 255
0.05294501 -0.1484786 0.2120365 255 0 255
0.05432512 -0.1482115 0.2118111 255 0 255
0.05545778 -0.1473477 0.210815 255 0 255
0.05683152 -0.147075 0.2105812 255 0 255
0.05845778 -0.1473911 0.211108 255 0 255
0.05957513 -0.14652 0.2101005 255 0 255
0.06094496 -0.1462378 0.2098533 255 0 255
0.06231342 -0.1459524 0.2096017 255 0 255
0.06368061 -0.1456639 0.2093458 255 0 255
0.06450067 -0.1441961 0.2075625 255 0 255
0.06558076 -0.1433157 0.2065383 255 0 255
0.06665182 -0.1424338 0.2055113 255 0 255
0.06799819 -0.1421361 0.2052405 255 0 255
0.0690551 -0.1412505 0.2042069 255 0 255
0.07039476 -0.1409474 0.2039282 255 0 255
0.07143735 -0.1400582 0.2028883 255 0 255
0.07277031 -0.1397498 0.2026016 255 0 255
0.07410177 -0.1394383 0.2023105 255 0 255
0.07543168 -0.1391237 0.202015 255 0 255
0.0767601 -0.1388061 0.2017152 255 0 255
0.07871581 -0.1396425 0.2029163 255 0 255
0.08004859 -0.1393169 0.202606 255 0 255
0.08170165 -0.139565 0.2030423 255 0 255
0.08336063 -0.1398081 0.2034723 255 0 255
0.08502547 -0.1400462 0.2038962 255 0 255
0.08602979 -0.1391316 0.2028176 255 0 255
0.08769874 -0.1393617 0.2032308 255 0 255
0.08903284 -0.1390148 0.2028914 255 0 255
-0.1439056 -0.1512413 0.1938571 255 0 255
-0.1428882 -0.152049 0.1949872 255 0 255
-0.1418616 -0.1528547 0.1961153 255 0 255
-0.1396201 -0.1512068 0.1943196 255 0 255
-0.1373994 -0.1495526 0.1925131 255 0 255
-0.1354936 -0.148506 0.1914286 255 0 255
-0.1327307 -0.145611 0.1881344 255 0 255
-0.1305767 -0.1439376 0.1862951 255 0 255
-0.1290091 -0.143489 0.185917 255 0 255
-0.1268898 -0.1418047 0.1840591 255 0 255
-0.1253418 -0.141347 0.1836667 255 0 255
-0.1240713 -0.1415022 0.1840072 255 0 255
-0.1222644 -0.1404199 0.1828639 255 0 255
-0.120735 -0.1399505 0.1824535 255 0 255
-0.1189518 -0.138859 0.1812953 255 0 255
-0.1166702 -0.1365257 0.1786436 255 0 255
-0.1149224 -0.135424 0.1774679 255 0 255
-0.1131885 -0.1343177 0.1762845 255 0 255
-0.1114686 -0.1332068 0.1750934 255 0 255
-0.1100036 -0.1327116 0.1746414 255 0 255
-0.1087821 -0.1328333 0.1749311 255 0 255
-0.1075595 -0.132952 0.1752171 255 0 255
-0.1063357 -0.1330679 0.1754991 255 0 255
-0.1051108 -0.1331808 0.1757773 255 0 255
-0.1041065 -0.1339128 0.1768026 255 0 255
-0.1026575 -0.1333979 0.1763221 255 0 255
-0.1014292 -0.1335021 0.1765886 255 0 255
-0.09998956 -0.1329804 0.1760979 255 0 255
-0.09876297 -0.1330784 0.1763559 255 0 255
-0.09753536 -0.1331735 0.17661 255 0 255
-0.09650544 -0.1338895 0.1776161 255 0 255
-0.09546685 -0.1346031 0.1786199 255 0 255
-0.09441952 -0.1353144 0.1796212 255 0 255
-0.09355068 -0.1366479 0.1813784 255 0 255
-0.0922988 -0.1367296 0.1816167 255 0 255
-0.0915843 -0.1386838 0.18413 255 0 255
-0.09049455 -0.1393857 0.1851229 255 0 255
-0.08922441 -0.1394594 0.1853522 255 0 255
-0.08778559 -0.1389043 0.1848158 255 0 255
-0.08651757 -0.1389719 0.1850363 255 0 255
-0.08476852 -0.1371577 0.1829638 255 0 255
-0.08304194 -0.1353394 0.1808833 255 0 255
-0.08164241 -0.1347702 0.1803237 255 0 255
-0.0801015 -0.1335709 0.1789939 255 0 255
-0.07871988 -0.1329951 0.1784233 255 0 255
-0.07748592 -0.133043 0.1786138 255 0 255
-0.07611453 -0.1324608 0.1780336 255 0 255
-0.07488305 -0.1325028 0.1782156 255 0 255
-0.0736509 -0.1325419 0.1783938 255 0 255
-0.07241808 -0.132578 0.1785681 255 0 255
-0.07130573 -0.1332389 0.1795074 255 0 255
-0.07006775 -0.1332693 0.1796743 255 0 255
-0.06871584 -0.132669 0.1790673 255 0 255
-0.06748056 -0.1326935 0.179226 255 0 255
-0.06613921 -0.1320871 0.1786097 255 0 255
-0.06490673 -0.1321057 0.17876 255 0 255
-0.06377137 -0.1327495 0.1796783 255 0 255
-0.06272143 -0.1340186 0.181366 255 0 255
-0.0615655 -0.1346569 0.1822788 255 0 255
-0.06040125 -0.1352921 0.1831884 255 0 255
-0.05931068 -0.1365528 0.1848685 255 0 255
-0.05812591 -0.1371822 0.1857723 255 0 255
-0.05700701 -0.1384369 0.1874472 255 0 255
-0.05594225 -0.1403167 0.1898946 255 0 255
-0.05485354 -0.1421935 0.19234 255 0 255
-0.05361614 -0.1428106 0.1932323 255 0 255
-0.0523121 -0.1427965 0.1933453 255 0 255
-0.05095319 -0.1421513 0.1926778 255 0 255
-0.0495007 -0.1402471 0.1904525 255 0 255
0.04544735 -0.1573832 0.2203039 255 0 255
0.04687397 -0.1571312 0.2201049 255 0 255
0.04808 -0.1562743 0.2191332 255 0 255
0.04927715 -0.1554156 0.2181581 255 0 255
0.05023828 -0.1539547 0.2164125 255 0 255
0.05141384 -0.1530929 0.2154311 255 0 255
0.05234566 -0.1516305 0.2136806 255 0 255
0.05349958 -0.1507659 0.2126931 255 0 255
0.05464463 -0.1498996 0.2117024 255 0 255
0.05578079 -0.1490316 0.2107084 255 0 255
0.05690797 -0.1481618 0.2097111 255 0 255
0.0582803 -0.1478856 0.2094733 255 0 255
0.05939345 -0.1470118 0.2084692 255 0 255
0.06102092 -0.1473235 0.2089842 255 0 255
0.06238928 -0.1470377 0.208733 255 0 255
0.06375629 -0.1467488 0.2084773 255 0 255
0.06484886 -0.1458655 0.2074582 255 0 255
0.06620928 -0.1455711 0.2071944 255 0 255
0.06700694 -0.1440947 0.2054111 255 0 255
0.06807245 -0.1432071 0.2043831 255 0 255
0.06912897 -0.142318 0.2033523 255 0 255
0.07046848 -0.1420144 0.2030739 255 0 255
0.07151072 -0.1411218 0.2020368 255 0 255
0.07284349 -0.1408129 0.2017505 255 0 255
0.0741748 -0.140501 0.2014597 255 0 255
0.07611886 -0.1413527 0.2026685 255 0 255
0.0771437 -0.1404503 0.2016163 255 0 255
0.07878874 -0.1407097 0.2020618 255 0 255
0.08012137 -0.1403837 0.201752 255 0 255
0.08177457 -0.1406342 0.2021862 255 0 255
0.08310771 -0.1403011 0.2018667 255 0 255
0.08476883 -0.1405426 0.2022895 255 0 255
0.08576901 -0.1396255 0.2012146 255 0 255
0.08777139 -0.1404349 0.2023716 255 0 255
0.08876448 -0.1395125 0.2012888 255 0 255
-0.144435 -0.1535426 0.1944419 255 0 255
-0.1431012 -0.1537401 0.1948456 255 0 255
-0.1417658 -0.1539343 0.1952452 255 0 255
-0.1395252 -0.1522778 0.1934565 255 0 255
-0.1373055 -0.1506149 0.1916571 255 0 255
-0.1354003 -0.1495625 0.1905771 255 0 255
-0.1326388 -0.1466528 0.1872948 255 0 255
-0.131058 -0.1462065 0.1869272 255 0 255
-0.1292008 -0.1451377 0.18582 255 0 255
-0.1270787 -0.1434451 0.1839702 255 0 255
-0.1255273 -0.1429852 0.1835811 255 0 255
-0.1242532 -0.1431412 0.1839223 255 0 255
-0.1224431 -0.1420536 0.1827846 255 0 255
-0.1206467 -0.140961 0.181639 255 0 255
-0.1188642 -0.1398638 0.1804854 255 0 255
-0.1165837 -0.1375186 0.1778433 255 0 255
-0.1148365 -0.1364111 0.1766721 255 0 255
-0.1131033 -0.135299 0.1754934 255 0 255
-0.111384 -0.1341824 0.1743071 255 0 255
-0.1099194 -0.1336844 0.1738573 255 0 255
-0.108698 -0.1338063 0.1741468 255 0 255
-0.1074755 -0.1339253 0.1744325 255 0 255
-0.1062518 -0.1340414 0.1747143 255 0 255
-0.105027 -0.1341545 0.1749923 255 0 255
-0.1040225 -0.1348898 0.176015 255 0 255
-0.1025739 -0.134372 0.1755367 255 0 255
-0.1011319 -0.1338508 0.1750529 255 0 255
-0.09990643 -0.1339519 0.1753146 255 0 255
-0.09867996 -0.1340501 0.1755724 255 0 255
-0.09745244 -0.1341454 0.1758263 255 0 255
-0.09622391 -0.1342378 0.1760764 255 0 255
-0.09518901 -0.1349544 0.1770768 255 0 255
-0.09452692 -0.1369235 0.1795847 255 0 255
-0.09346691 -0.1376359 0.1805818 255 0 255
-0.09221516 -0.1377178 0.18082 255 0 255
-0.09132081 -0.1390531 0.1825685 255 0 255
-0.09023479 -0.139758 0.1835581 255 0 255
-0.08879719 -0.139203 0.183028 255 0 255
-0.08736648 -0.1386446 0.1824925 255 0 255
-0.08594266 -0.1380828 0.1819517 255 0 255
-0.08420613 -0.136259 0.1798844 255 0 255
-0.08249208 -0.1344311 0.1778092 255 0 255
-0.08125661 -0.1344882 0.1780119 255 0 255
-0.07987224 -0.1339124 0.1774481 255 0 255
-0.07863915 -0.1339634 0.1776424 255 0 255
-0.07740531 -0.1340115 0.1778328 255 0 255
-0.07617075 -0.1340566 0.1780192 255 0 255
-0.07480291 -0.1334684 0.1774368 255 0 255
-0.07357087 -0.1335076 0.1776149 255 0 255
-0.07233819 -0.1335439 0.177789 255 0 255
-0.07110484 -0.1335772 0.1779593 255 0 255
-0.06987087 -0.1336076 0.1781256 255 0 255
-0.06852322 -0.1330042 0.1775205 255 0 255
-0.06729198 -0.1330287 0.1776785 255 0 255
-0.06606016 -0.1330503 0.1778327 255 0 255
-0.06482778 -0.133069 0.1779829 255 0 255
-0.06378971 -0.1343472 0.1796682 255 0 255
-0.06273547 -0.1356226 0.1813514 255 0 255
-0.06166508 -0.1368951 0.1830324 255 0 255
-0.0604072 -0.1369023 0.1831695 255 0 255
-0.05931234 -0.1381691 0.1848451 255 0 255
-0.05820135 -0.1394329 0.1865184 255 0 255
-0.05700035 -0.1400625 0.1874171 255 0 255
-0.05593103 -0.1419516 0.1898574 255 0 255
-0.05483777 -0.1438375 0.1922957 255 0 255
-0.05359635 -0.1444577 0.1931859 255 0 255
-0.05211391 -0.1425501 0.1909789 255 0 255
-0.05076326 -0.1419019 0.1903132 255 0 255
-0.04896712 -0.1355712 0.1826759 255 0 255
0.04552755 -0.1585037 0.2193996 255 0 255
0.04695402 -0.1582514 0.2192009 255 0 255
0.04815964 -0.1573911 0.2182319 255 0 255
0.04935645 -0.1565289 0.2172595 255 0 255
0.05008959 -0.1544583 0.2147548 255 0 255
0.05126089 -0.1535939 0.2137767 255 0 255
0.05242339 -0.1527276 0.2127952 255 0 255
0.05357696 -0.1518596 0.2118104 255 0 255
0.0547216 -0.1509899 0.2108224 255 0 255
0.05585738 -0.1501185 0.2098311 255 0 255
0.0572346 -0.1498442 0.2095975 255 0 255
0.05835631 -0.1489686 0.2085992 255 0 255
0.05946914 -0.1480915 0.2075978 255 0 255
0.06083484 -0.1478092 0.2073521 255 0 255
0.06246486 -0.1481195 0.2078599 255 0 255
0.06356221 -0.1472352 0.2068473 255 0 255
0.06492387 -0.1469435 0.2065882 255 0 255
0.06628411 -0.1466486 0.2063248 255 0 255
0.06736204 -0.1457581 0.2053017 255 0 255
0.06814633 -0.1442746 0.2035215 255 0 255
0.0692025 -0.1433821 0.2024935 255 0 255
0.07054185 -0.1430781 0.2022155 255 0 255
0.07158371 -0.142182 0.2011811 255 0 255
0.07291636 -0.1418727 0.2008951 255 0 255
0.07424743 -0.1415603 0.2006047 255 0 255
0.07588442 -0.1418311 0.2010596 255 0 255
0.07690515 -0.1409262 0.200011 255 0 255
0.07823166 -0.1406046 0.1997076 255 0 255
0.07955662 -0.1402798 0.1993999 255 0 255
0.08087996 -0.139952 0.1990879 255 0 255
0.08220169 -0.1396212 0.1987714 255 0 255
0.08385167 -0.1398681 0.1991949 255 0 255
0.0848403 -0.1389503 0.1981256 255 0 255
0.08649443 -0.1391891 0.1985386 255 0 255
0.08815432 -0.139423 0.1989453 255 0 255
-0.1434592 -0.1501003 0.1881131 255 0 255
-0.1434019 -0.1527664 0.1914016 255 0 255
-0.1420794 -0.1529626 0.1918017 255 0 255
-0.1413647 -0.1543923 0.1936465 255 0 255
-0.1394296 -0.1533454 0.1925893 255 0 255
-0.1369136 -0.1510543 0.1900702 255 0 255
-0.1350129 -0.1499958 0.1889938 255 0 255
-0.1328359 -0.1483116 0.1871801 255 0 255
-0.1309658 -0.1472422 0.1860858 255 0 255
-0.1291093 -0.1461677 0.1849832 255 0 255
-0.126988 -0.1444664 0.1831405 255 0 255
-0.1254371 -0.1440037 0.1827535 255 0 255
-0.124163 -0.14416 0.1830945 255 0 255
-0.1220865 -0.1424434 0.1812265 255 0 255
-0.1202946 -0.1413447 0.1800845 255 0 255
-0.1185165 -0.1402412 0.1789346 255 0 255
-0.1164967 -0.1385084 0.1770391 255 0 255
-0.1144983 -0.1367701 0.1751338 255 0 255
-0.1127695 -0.1356518 0.1739588 255 0 255
-0.1112989 -0.1351548 0.1735169 255 0 255
-0.110075 -0.1352802 0.173811 255 0 255
-0.1086134 -0.1347761 0.1733586 255 0 255
-0.1076237 -0.1355224 0.1743876 255 0 255
-0.1061674 -0.1350117 0.1739258 255 0 255
-0.1051677 -0.1357528 0.1749488 255 0 255
-0.1039381 -0.1358636 0.1752236 255 0 255
-0.1022724 -0.1347147 0.1740007 255 0 255
-0.1010481 -0.134819 0.174266 255 0 255
-0.09961306 -0.1342913 0.173779 255 0 255
-0.09818462 -0.1337601 0.1732864 255 0 255
-0.09696492 -0.133855 0.1735386 255 0 255
-0.09594242 -0.1345769 0.1745379 255 0 255
-0.09491122 -0.1352965 0.1755348 255 0 255
-0.09425233 -0.1372746 0.1780344 255 0 255
-0.09319603 -0.1379899 0.1790281 255 0 255
-0.09213103 -0.1387028 0.1800194 255 0 255
-0.09105738 -0.1394131 0.1810081 255 0 255
-0.08980001 -0.1394895 0.181239 255 0 255
-0.08837058 -0.1389312 0.1807098 255 0 255
-0.08694798 -0.1383695 0.1801752 255 0 255
-0.08536886 -0.1371722 0.178878 255 0 255
-0.08364487 -0.1353389 0.176816 255 0 255
-0.08209901 -0.134134 0.1755049 255 0 255
-0.08087146 -0.1341907 0.1757062 255 0 255
-0.07949522 -0.1336118 0.1751436 255 0 255
-0.07841402 -0.1342956 0.1760971 255 0 255
-0.0771842 -0.1343436 0.1762867 255 0 255
-0.07595366 -0.1343888 0.1764725 255 0 255
-0.07459009 -0.1337975 0.1758919 255 0 255
-0.07336207 -0.1338367 0.1760693 255 0 255
-0.0721334 -0.1338729 0.1762428 255 0 255
-0.07090408 -0.1339063 0.1764124 255 0 255
-0.06967413 -0.1339367 0.1765781 255 0 255
-0.0684436 -0.1339642 0.1767399 255 0 255
-0.06732137 -0.1346229 0.1776635 255 0 255
-0.06608576 -0.1346446 0.177818 255 0 255
-0.06495068 -0.1352976 0.1787352 255 0 255
-0.06380725 -0.1359478 0.1796494 255 0 255
-0.06274871 -0.1372294 0.181328 255 0 255
-0.06167402 -0.1385082 0.1830044 255 0 255
-0.06049777 -0.1391498 0.1839103 255 0 255
-0.05931319 -0.1397884 0.1848129 255 0 255
-0.05819792 -0.1410584 0.1864816 255 0 255
-0.05699288 -0.141691 0.1873782 255 0 255
-0.0558493 -0.1429549 0.1890414 255 0 255
-0.05468963 -0.1442158 0.190702 255 0 255
-0.05345203 -0.1448391 0.1915894 255 0 255
-0.05191647 -0.1422881 0.1886183 255 0 255
-0.05057403 -0.1416371 0.1879545 255 0 255
0.04454651 -0.1565752 0.21467 255 0 255
0.04703387 -0.1593679 0.2182924 255 0 255
0.04845904 -0.159112 0.2180893 255 0 255
0.04988304 -0.1588527 0.2178817 255 0 255
0.05039544 -0.156165 0.2146215 255 0 255
0.05157023 -0.1552964 0.2136455 255 0 255
0.05273614 -0.154426 0.2126662 255 0 255
0.05413229 -0.154158 0.2124438 255 0 255
0.05504127 -0.15268 0.2106977 255 0 255
0.05642728 -0.152407 0.2104675 255 0 255
0.05781197 -0.1521308 0.2102328 255 0 255
0.05868655 -0.1506492 0.2084784 255 0 255
0.05980279 -0.1497678 0.2074792 255 0 255
0.06091006 -0.1488849 0.2064769 255 0 255
0.06254014 -0.1491977 0.2069825 255 0 255
0.06363709 -0.14831 0.2059727 255 0 255
0.0649986 -0.1480179 0.205714 255 0 255
0.06608137 -0.1471263 0.2046974 255 0 255
0.06743621 -0.1468287 0.2044306 255 0 255
0.06821992 -0.1453387 0.2026556 255 0 255
0.0692757 -0.1444428 0.2016304 255 0 255
0.07061492 -0.1441384 0.2013528 255 0 255
0.07165636 -0.1432388 0.2003212 255 0 255
0.07298882 -0.142929 0.2000356 255 0 255
0.0743198 -0.1426161 0.1997456 255 0 255
0.07564926 -0.1423002 0.1994513 255 0 255
0.07666588 -0.1413926 0.1984065 255 0 255
0.07798847 -0.1410715 0.1981043 255 0 255
0.07930948 -0.1407471 0.1977978 255 0 255
0.08062888 -0.1404198 0.197487 255 0 255
0.08194673 -0.1400894 0.197172 255 0 255
0.08359299 -0.1403397 0.1975943 255 0 255
0.08491131 -0.1400022 0.1972696 255 0 255
0.08656541 -0.1402436 0.1976806 255 0 255
0.08788414 -0.139899 0.1973463 255 0 255
-0.1328532 -0.1280432 0.1603035 255 0 255
-0.143048 -0.1505312 0.1865343 255 0 255
-0.1429934 -0.1532091 0.1898114 255 0 255
-0.1413667 -0.1527843 0.1894892 255 0 255
-0.140659 -0.1542193 0.1913265 255 0 255
-0.1390327 -0.1537875 0.1909948 255 0 255
-0.1365217 -0.1514843 0.1884842 255 0 255
-0.1349184 -0.1510425 0.1881365 255 0 255
-0.1330317 -0.149973 0.1870563 255 0 255
-0.130873 -0.1482745 0.1852403 255 0 255
-0.1287352 -0.14657 0.1834139 255 0 255
-0.1268967 -0.1454843 0.1823068 255 0 255
-0.1253462 -0.145019 0.181922 255 0 255
-0.1235312 -0.1439239 0.1807997 255 0 255
-0.12173 -0.1428238 0.1796693 255 0 255
-0.1199425 -0.1417189 0.1785311 255 0 255
-0.118428 -0.1412365 0.1781194 255 0 255
-0.116409 -0.1394949 0.1762309 255 0 255
-0.1144116 -0.1377478 0.1743329 255 0 255
-0.1126834 -0.1366237 0.1731626 255 0 255
-0.1112132 -0.136124 0.172723 255 0 255
-0.1097493 -0.1356204 0.1722777 255 0 255
-0.1085282 -0.1357428 0.1725668 255 0 255
-0.1073059 -0.1358623 0.172852 255 0 255
-0.1060824 -0.1359788 0.1731334 255 0 255
-0.1048578 -0.1360925 0.173411 255 0 255
-0.103632 -0.1362032 0.1736847 255 0 255
-0.1024052 -0.1363109 0.1739546 255 0 255
-0.1009639 -0.135784 0.1734754 255 0 255
-0.0995292 -0.1352535 0.1729906 255 0 255
-0.09830678 -0.1353519 0.1732472 255 0 255
-0.09688157 -0.1348146 0.1727524 255 0 255
-0.09566097 -0.1349068 0.1730005 255 0 255
-0.09482758 -0.1362626 0.1747433 255 0 255
-0.09378754 -0.1369829 0.1757352 255 0 255
-0.0929252 -0.1383347 0.1774755 255 0 255
-0.09168141 -0.1384165 0.1777119 255 0 255
-0.09079402 -0.1397638 0.1794488 255 0 255
-0.08954066 -0.1398402 0.1796789 255 0 255
-0.08811545 -0.1392788 0.1791513 255 0 255
-0.08653008 -0.138079 0.1778641 255 0 255
-0.08495937 -0.1368754 0.1765703 255 0 255
-0.08340332 -0.1356681 0.1752699 255 0 255
-0.08186199 -0.134457 0.173963 255 0 255
-0.08063842 -0.1345138 0.1741635 255 0 255
-0.07926647 -0.1339318 0.1736026 255 0 255
-0.07804528 -0.1339825 0.1737948 255 0 255
-0.07682338 -0.1340304 0.1739831 255 0 255
-0.07560074 -0.1340754 0.1741676 255 0 255
-0.07437741 -0.1341174 0.1743482 255 0 255
-0.07315343 -0.1341565 0.1745249 255 0 255
-0.07192878 -0.1341928 0.1746977 255 0 255
-0.07082383 -0.1348629 0.1756283 255 0 255
-0.06959403 -0.1348935 0.1757939 255 0 255
-0.06836361 -0.134921 0.1759556 255 0 255
-0.06724126 -0.1355828 0.1768766 255 0 255
-0.06611054 -0.1362418 0.1777947 255 0 255
-0.06507223 -0.1375352 0.1794738 255 0 255
-0.06392086 -0.1381886 0.1803863 255 0 255
-0.06285413 -0.1394765 0.1820608 255 0 255
-0.06177124 -0.1407615 0.1837331 255 0 255
-0.06058702 -0.1414062 0.1846372 255 0 255
-0.05931328 -0.1414106 0.1847719 255 0 255
-0.05819371 -0.1426867 0.1864359 255 0 255
-0.05698465 -0.1433224 0.1873304 255 0 255
-0.05569782 -0.1433177 0.1874541 255 0 255
-0.05447618 -0.1439473 0.1883416 255 0 255
-0.05312305 -0.1432992 0.1876894 255 0 255
-0.05120043 -0.1362754 0.1793476 255 0 255
0.04732978 -0.1610923 0.2181407 255 0 255
0.04875861 -0.1608353 0.2179374 255 0 255
0.05018631 -0.1605749 0.2177294 255 0 255
0.05092934 -0.1584834 0.2152384 255 0 255
0.05234306 -0.1582185 0.2150229 255 0 255
0.05375562 -0.1579504 0.214803 255 0 255
0.05468825 -0.1564649 0.213063 255 0 255
0.0556043 -0.154979 0.2113209 255 0 255
0.05675079 -0.1540985 0.2103333 255 0 255
0.05788834 -0.1532162 0.2093425 255 0 255
0.05850763 -0.1511242 0.2068382 255 0 255
0.05987809 -0.1508435 0.2065969 255 0 255
0.06098498 -0.1499571 0.2055973 255 0 255
0.06261511 -0.1502726 0.2061009 255 0 255
0.06371168 -0.1493814 0.2050938 255 0 255
0.06507298 -0.1490889 0.2048355 255 0 255
0.06643291 -0.1487931 0.2045727 255 0 255
0.06751005 -0.1478958 0.2035553 255 0 255
0.0682932 -0.1463994 0.2017856 255 0 255
0.06934857 -0.1455001 0.2007632 255 0 255
0.0706876 -0.1451952 0.2004859 255 0 255
0.07202514 -0.1448871 0.2002041 255 0 255
0.07276079 -0.1433878 0.1984256 255 0 255
0.07439177 -0.1436685 0.1988823 255 0 255
0.07572106 -0.1433521 0.1985883 255 0 255
0.07673727 -0.1424412 0.1975463 255 0 255
0.07742921 -0.1409385 0.1957587 255 0 255
0.07906153 -0.1412052 0.1961965 255 0 255
0.08037705 -0.1408782 0.1958869 255 0 255
0.08201747 -0.141136 0.1963134 255 0 255
0.08366375 -0.1413888 0.1967337 255 0 255
0.08531585 -0.1416366 0.1971479 255 0 255
0.08663603 -0.1412946 0.1968184 255 0 255
0.08795453 -0.1409496 0.1964845 255 0 255
-0.145159 -0.1559341 0.1906854 255 0 255
-0.1441427 -0.1567586 0.1918085 255 0 255
-0.1428092 -0.1569571 0.1922113 255 0 255
-0.1411701 -0.1565281 0.1918904 255 0 255
-0.1395367 -0.1560948 0.191563 255 0 255
-0.1370194 -0.153781 0.1890641 255 0 255
-0.1351162 -0.1527117 0.1879981 255 0 255
-0.1329373 -0.1510107 0.1861997 255 0 255
-0.1310648 -0.1499304 0.1851157 255 0 255
-0.1289242 -0.1482177 0.1832976 255 0 255
-0.1270826 -0.1471268 0.1821961 255 0 255
-0.1252547 -0.1460309 0.1810866 255 0 255
-0.1239808 -0.1461878 0.181427 255 0 255
-0.1219062 -0.1444536 0.1795733 255 0 255
-0.1201157 -0.1433435 0.1784407 255 0 255
-0.1183388 -0.1422286 0.1773003 255 0 255
-0.116831 -0.1417395 0.176885 255 0 255
-0.1148269 -0.1399845 0.174996 255 0 255
-0.1130917 -0.1388555 0.1738323 255 0 255
-0.1116143 -0.1383537 0.1733968 255 0 255
-0.1101432 -0.1378482 0.1729556 255 0 255
-0.1086785 -0.137339 0.1725087 255 0 255
-0.1072203 -0.1368261 0.1720562 255 0 255
-0.1059969 -0.1369429 0.1723374 255 0 255
-0.1045478 -0.136423 0.1718746 255 0 255
-0.1035468 -0.1371676 0.1728883 255 0 255
-0.1021032 -0.1366412 0.172416 255 0 255
-0.1006661 -0.1361112 0.1719382 255 0 255
-0.09944487 -0.1362126 0.1721985 255 0 255
-0.09822258 -0.1363112 0.172455 255 0 255
-0.09679775 -0.1357711 0.1719624 255 0 255
-0.09577496 -0.1364994 0.1729563 255 0 255
-0.09493732 -0.1378617 0.1746947 255 0 255
-0.09389327 -0.1385855 0.1756848 255 0 255
-0.09284055 -0.139307 0.1766724 255 0 255
-0.09159692 -0.139389 0.1769087 255 0 255
-0.09035232 -0.139468 0.177141 255 0 255
-0.0889323 -0.1389065 0.176619 255 0 255
-0.08751911 -0.1383416 0.1760917 255 0 255
-0.0861128 -0.1377732 0.1755591 255 0 255
-0.08455049 -0.1365633 0.1742688 255 0 255
-0.08316186 -0.1359881 0.1737251 255 0 255
-0.08193535 -0.1360481 0.17393 255 0 255
-0.08055679 -0.1354664 0.1733766 255 0 255
-0.07918523 -0.1348815 0.1728181 255 0 255
-0.07796416 -0.1349324 0.1730101 255 0 255
-0.07674238 -0.1349803 0.1731983 255 0 255
-0.07551988 -0.1350254 0.1733826 255 0 255
-0.07429669 -0.1350676 0.1735631 255 0 255
-0.07320075 -0.1357465 0.1744977 255 0 255
-0.07197232 -0.1357829 0.174671 255 0 255
-0.07086338 -0.1364564 0.1755995 255 0 255
-0.0696298 -0.1364871 0.1757655 255 0 255
-0.06839562 -0.1365149 0.1759277 255 0 255
-0.06726924 -0.1371798 0.1768466 255 0 255
-0.06613447 -0.137842 0.1777625 255 0 255
-0.06509189 -0.1391416 0.1794371 255 0 255
-0.06403314 -0.1404384 0.1811095 255 0 255
-0.06295822 -0.1417325 0.1827798 255 0 255
-0.06186714 -0.1430237 0.1844479 255 0 255
-0.0607599 -0.144312 0.1861137 255 0 255
-0.05955552 -0.1449568 0.1870133 255 0 255
-0.05841992 -0.1462391 0.1886738 255 0 255
-0.05719505 -0.1468778 0.1895673 255 0 255
-0.05575426 -0.1455923 0.1881627 255 0 255
-0.05445934 -0.1455846 0.188283 255 0 255
-0.05291857 -0.1430124 0.1853368 255 0 255
0.047516 -0.1582649 0.212469 255 0 255
0.04936877 -0.1592344 0.2137799 255 0 255
0.05032364 -0.1577487 0.2120559 255 0 255
0.05218941 -0.1587088 0.2133555 255 0 255
0.05359793 -0.158441 0.2131363 255 0 255
0.05452613 -0.1569498 0.2114023 255 0 255
0.05543777 -0.1554583 0.2096661 255 0 255
0.05682722 -0.1551837 0.2094359 255 0 255
0.05771324 -0.1536903 0.2076945 255 0 255
0.05858284 -0.1521967 0.2059513 255 0 255
0.05969451 -0.1513093 0.2049583 255 0 255
0.06105967 -0.1510258 0.2047136 255 0 255
0.06242349 -0.1507391 0.2044644 255 0 255
0.06378599 -0.1504493 0.2042108 255 0 255
0.06542097 -0.1507594 0.2047019 255 0 255
0.0665068 -0.1498601 0.2036903 255 0 255
0.06758364 -0.1489594 0.2026757 255 0 255
0.06836614 -0.1474566 0.2009113 255 0 255
0.06913203 -0.1459541 0.1991456 255 0 255
0.07017427 -0.1450508 0.1981239 255 0 255
0.07180069 -0.1453421 0.1985888 255 0 255
0.07253201 -0.1438372 0.1968164 255 0 255
0.07415924 -0.1441213 0.1972718 255 0 255
0.07548454 -0.1438054 0.1969791 255 0 255
0.07649662 -0.1428919 0.1959407 255 0 255
0.07749966 -0.1419771 0.1948997 255 0 255
0.0788128 -0.1416538 0.1945958 255 0 255
0.08012445 -0.1413273 0.1942875 255 0 255
0.08176109 -0.1415885 0.1947128 255 0 255
0.08340369 -0.1418447 0.195132 255 0 255
0.08471787 -0.1415072 0.1948091 255 0 255
0.08535463 -0.139991 0.1930117 255 0 255
0.08699967 -0.1402361 0.1934161 255 0 255
-0.1453753 -0.1576213 0.1905158 255 0 255
-0.1446663 -0.1590759 0.192352 255 0 255
-0.1427104 -0.1580224 0.1913249 255 0 255
-0.1407678 -0.1569635 0.1902891 255 0 255
-0.1391386 -0.156527 0.1899628 255 0 255
-0.1369226 -0.1548295 0.1881917 255 0 255
-0.1347275 -0.1531256 0.18641 255 0 255
-0.1328422 -0.1520449 0.185339 255 0 255
-0.1306853 -0.1503291 0.1835373 255 0 255
-0.1282681 -0.1479767 0.1810018 255 0 255
-0.1261572 -0.1462483 0.1791785 255 0 255
-0.124615 -0.1457766 0.1787961 255 0 255
-0.1230789 -0.145301 0.1784077 255 0 255
-0.121549 -0.1448214 0.1780134 255 0 255
-0.1200252 -0.1443379 0.177613 255 0 255
-0.1185077 -0.1438505 0.1772069 255 0 255
-0.1167416 -0.1427255 0.1760643 255 0 255
-0.1149895 -0.1415958 0.1749139 255 0 255
-0.1132512 -0.1404615 0.173756 255 0 255
-0.1117703 -0.1399574 0.1733237 255 0 255
-0.1102958 -0.1394496 0.1728856 255 0 255
-0.1090635 -0.1395736 0.173177 255 0 255
-0.107598 -0.1390587 0.1727286 255 0 255
-0.1063672 -0.1391764 0.1730113 255 0 255
-0.1049108 -0.1386545 0.1725525 255 0 255
-0.103461 -0.1381289 0.172088 255 0 255
-0.1020178 -0.1375997 0.1716181 255 0 255
-0.1005811 -0.1370668 0.1711426 255 0 255
-0.09936003 -0.1371685 0.1714027 255 0 255
-0.09813789 -0.1372672 0.171659 255 0 255
-0.09691469 -0.137363 0.1719114 255 0 255
-0.09569051 -0.137456 0.17216 255 0 255
-0.0946589 -0.1381851 0.1731489 255 0 255
-0.09361859 -0.1389119 0.1741355 255 0 255
-0.09238374 -0.1389965 0.174374 255 0 255
-0.09096596 -0.1384381 0.1738622 255 0 255
-0.08973309 -0.1385165 0.1740922 255 0 255
-0.08832509 -0.1379515 0.1735705 255 0 255
-0.08692389 -0.137383 0.1730434 255 0 255
-0.08552961 -0.1368112 0.1725112 255 0 255
-0.08414222 -0.136236 0.1719736 255 0 255
-0.08292051 -0.1362989 0.1721816 255 0 255
-0.08169802 -0.1363588 0.1723857 255 0 255
-0.08032373 -0.1357741 0.171834 255 0 255
-0.07880934 -0.1345442 0.1705247 255 0 255
-0.07773944 -0.1352369 0.1714686 255 0 255
-0.07638235 -0.1346427 0.1709024 255 0 255
-0.07530321 -0.13533 0.1718397 255 0 255
-0.07421561 -0.1360147 0.1727743 255 0 255
-0.07299189 -0.136054 0.1729509 255 0 255
-0.07189125 -0.1367333 0.1738795 255 0 255
-0.07066234 -0.1367669 0.1740489 255 0 255
-0.06943281 -0.1367976 0.1742143 255 0 255
-0.06831472 -0.1374685 0.1751335 255 0 255
-0.06729635 -0.1387796 0.1768078 255 0 255
-0.0662618 -0.1400882 0.1784802 255 0 255
-0.06521104 -0.141394 0.1801506 255 0 255
-0.06424051 -0.1433404 0.1825784 255 0 255
-0.06315349 -0.1446407 0.1842449 255 0 255
-0.06205029 -0.1459381 0.1859093 255 0 255
-0.06093093 -0.1472325 0.1875712 255 0 255
-0.05963398 -0.1472371 0.1877083 255 0 255
-0.05849019 -0.1485254 0.1893645 255 0 255
-0.05733028 -0.1498107 0.1910183 255 0 255
-0.05574042 -0.1472323 0.1880949 255 0 255
-0.05450681 -0.1478679 0.1889783 255 0 255
0.04967137 -0.1609464 0.2136215 255 0 255
0.05062941 -0.1594535 0.2119022 255 0 255
0.05249928 -0.1604185 0.2131964 255 0 255
0.05391144 -0.1601497 0.2129771 255 0 255
0.05508265 -0.1592644 0.2120004 255 0 255
0.05624489 -0.1583774 0.2110204 255 0 255
0.05739823 -0.1574886 0.2100372 255 0 255
0.05829136 -0.1559872 0.2082998 255 0 255
0.05916796 -0.1544858 0.2065606 255 0 255
0.06028683 -0.1535935 0.205569 255 0 255
0.06139673 -0.1526995 0.2045744 255 0 255
0.06276415 -0.1524116 0.2043249 255 0 255
0.06385993 -0.1515137 0.2033235 255 0 255
0.06549497 -0.1518262 0.2038125 255 0 255
0.06658041 -0.1509236 0.2028037 255 0 255
0.06765681 -0.1500195 0.201792 255 0 255
0.06843874 -0.1485103 0.2000328 255 0 255
0.0697826 -0.1482068 0.1997598 255 0 255
0.07053896 -0.1466966 0.1979966 255 0 255
0.07187237 -0.1463885 0.1977164 255 0 255
0.07260305 -0.1448773 0.1959493 255 0 255
0.07392592 -0.1445648 0.1956621 255 0 255
0.07524728 -0.1442492 0.1953705 255 0 255
0.07625523 -0.1433332 0.1943358 255 0 255
0.07756975 -0.1430124 0.1940366 255 0 255
0.07888275 -0.1426885 0.193733 255 0 255
0.07987101 -0.141767 0.1926889 255 0 255
0.08150396 -0.1420316 0.193113 255 0 255
0.08281215 -0.1416986 0.1927966 255 0 255
0.08378432 -0.1407708 0.1917424 255 0 255
0.08474744 -0.1398418 0.1906857 255 0 255
0.08604324 -0.1395016 0.1903583 255 0 255
-0.1469237 -0.1591045 0.1899254 255 0 255
-0.145905 -0.1599395 0.1910482 255 0 255
-0.1442551 -0.159514 0.1907444 255 0 255
-0.1419964 -0.1578246 0.1890074 255 0 255
-0.1400619 -0.156759 0.1879741 255 0 255
-0.1384406 -0.1563189 0.1876478 255 0 255
-0.1362331 -0.1546117 0.1858817 255 0 255
-0.1343387 -0.1535301 0.1848228 255 0 255
-0.1327464 -0.1530756 0.1844744 255 0 255
-0.1303057 -0.1507183 0.18196 255 0 255
-0.1284556 -0.1496207 0.1808751 255 0 255
-0.1260646 -0.1472502 0.178338 255 0 255
-0.1245228 -0.1467758 0.1779578 255 0 255
-0.1229871 -0.1462976 0.1775717 255 0 255
-0.1214576 -0.1458153 0.1771796 255 0 255
-0.1199342 -0.1453291 0.1767815 255 0 255
-0.1184171 -0.1448389 0.1763776 255 0 255
-0.1169063 -0.1443449 0.1759677 255 0 255
-0.115151 -0.1432099 0.1748231 255 0 255
-0.1134096 -0.1420703 0.1736708 255 0 255
-0.1119253 -0.1415639 0.1732417 255 0 255
-0.1104474 -0.1410537 0.1728069 255 0 255
-0.1087404 -0.1399011 0.1716338 255 0 255
-0.1072791 -0.139383 0.1711867 255 0 255
-0.1060522 -0.1395006 0.1714684 255 0 255
-0.1046001 -0.1389756 0.171011 255 0 255
-0.1033747 -0.1390869 0.1712841 255 0 255
-0.1019319 -0.138555 0.1708164 255 0 255
-0.1007082 -0.1386601 0.171081 255 0 255
-0.0992747 -0.1381212 0.1706032 255 0 255
-0.09805268 -0.1382202 0.1708592 255 0 255
-0.09662864 -0.1376745 0.1703713 255 0 255
-0.09560559 -0.1384092 0.1713598 255 0 255
-0.09438054 -0.1384994 0.1716044 255 0 255
-0.09315452 -0.1385866 0.1718451 255 0 255
-0.09192753 -0.1386708 0.172082 255 0 255
-0.09051789 -0.1381091 0.171571 255 0 255
-0.0892929 -0.1381872 0.1717995 255 0 255
-0.08789302 -0.1376189 0.1712787 255 0 255
-0.08667009 -0.1376908 0.1714986 255 0 255
-0.08528008 -0.1371159 0.1709681 255 0 255
-0.08389698 -0.1365377 0.1704323 255 0 255
-0.08267931 -0.1366005 0.1706394 255 0 255
-0.08146083 -0.1366604 0.1708427 255 0 255
-0.08009083 -0.1360726 0.1702928 255 0 255
-0.07887468 -0.1361265 0.1704878 255 0 255
-0.0776578 -0.1361775 0.170679 255 0 255
-0.07644019 -0.1362256 0.1708664 255 0 255
-0.07522187 -0.1362708 0.1710499 255 0 255
-0.07400286 -0.136313 0.1712295 255 0 255
-0.07303797 -0.1376437 0.1729112 255 0 255
-0.07193334 -0.1383262 0.1738379 255 0 255
-0.07082025 -0.1390059 0.1747616 255 0 255
-0.06958306 -0.1390369 0.174928 255 0 255
-0.06845705 -0.139711 0.1758456 255 0 255
-0.0674305 -0.1410285 0.1775158 255 0 255
-0.06628381 -0.1416971 0.178428 255 0 255
-0.06522878 -0.143009 0.1800937 255 0 255
-0.06425373 -0.1449646 0.1825143 255 0 255
-0.06307019 -0.1456246 0.1834188 255 0 255
-0.06205498 -0.1475745 0.1858358 255 0 255
-0.06093136 -0.148875 0.1874931 255 0 255
-0.05971111 -0.1495261 0.1883893 255 0 255
-0.05855915 -0.1508205 0.1900412 255 0 255
-0.05753635 -0.1534047 0.1932096 255 0 255
-0.05586325 -0.1501678 0.1895379 255 0 255
0.05253462 -0.1654885 0.2170034 255 0 255
0.05443545 -0.1664533 0.2182883 255 0 255
0.05540584 -0.1649446 0.2165628 255 0 255
0.05611964 -0.1628194 0.2140848 255 0 255
0.05729684 -0.161926 0.2131051 255 0 255
0.05821743 -0.1604163 0.2113731 255 0 255
0.05912143 -0.1589063 0.2096391 255 0 255
0.06000884 -0.1573961 0.2079033 255 0 255
0.06113875 -0.1564981 0.2069126 255 0 255
0.0619968 -0.1549869 0.2051724 255 0 255
0.0633717 -0.154697 0.2049218 255 0 255
0.06420416 -0.1531843 0.2031769 255 0 255
0.06556867 -0.1528896 0.2029189 255 0 255
0.06665368 -0.1519836 0.2019129 255 0 255
0.06772973 -0.151076 0.200904 255 0 255
0.06851102 -0.1495605 0.1991502 255 0 255
0.06985473 -0.1492566 0.1988775 255 0 255
0.07090369 -0.1483447 0.1978601 255 0 255
0.07194364 -0.1474315 0.1968398 255 0 255
0.07297454 -0.1465169 0.1958169 255 0 255
0.07430098 -0.146203 0.1955292 255 0 255
0.07531764 -0.1452849 0.1945001 255 0 255
0.07601307 -0.1437652 0.1927319 255 0 255
0.07732366 -0.1434449 0.1924339 255 0 255
0.07895225 -0.1437199 0.1928662 255 0 255
0.07994016 -0.142795 0.191825 255 0 255
0.08124603 -0.1424654 0.1915141 255 0 255
0.08255026 -0.1421328 0.191199 255 0 255
0.08351835 -0.1412025 0.1901485 255 0 255
0.08413899 -0.1396775 0.1883655 255 0 255
0.08542722 -0.1393387 0.1880404 255 0 255
-0.1500047 -0.1664747 0.1961043 255 0 255
-0.1470618 -0.1635293 0.1929838 255 0 255
-0.1444652 -0.161207 0.1905574 255 0 255
-0.1422037 -0.1595096 0.1888287 255 0 255
-0.139963 -0.1578057 0.1870891 255 0 255
-0.1380426 -0.1567291 0.1860519 255 0 255
-0.1358397 -0.1550129 0.1842919 255 0 255
-0.1342418 -0.15456 0.183952 255 0 255
-0.1323617 -0.1534675 0.1828894 255 0 255
-0.1299259 -0.1510981 0.1803837 255 0 255
-0.1280803 -0.1499943 0.1793024 255 0 255
-0.1262483 -0.1488855 0.1782131 255 0 255
-0.1247031 -0.1484091 0.1778362 255 0 255
-0.1231641 -0.1479286 0.1774533 255 0 255
-0.1216312 -0.1474441 0.1770644 255 0 255
-0.1201044 -0.1469556 0.1766696 255 0 255
-0.118584 -0.1464632 0.1762689 255 0 255
-0.1168155 -0.1453273 0.1751368 255 0 255
-0.1153113 -0.1448267 0.1747234 255 0 255
-0.1135668 -0.1436817 0.1735769 255 0 255
-0.1120792 -0.143173 0.173151 255 0 255
-0.1103588 -0.1420193 0.1719902 255 0 255
-0.1088877 -0.1415026 0.171552 255 0 255
-0.1071917 -0.1403402 0.1703771 255 0 255
-0.1059649 -0.140458 0.1706586 255 0 255
-0.1045132 -0.1399302 0.1702035 255 0 255
-0.103288 -0.1400418 0.1704764 255 0 255
-0.1020616 -0.1401505 0.1707454 255 0 255
-0.1008342 -0.1402561 0.1710107 255 0 255
-0.09939731 -0.1397148 0.170536 255 0 255
-0.0981716 -0.1398143 0.1707927 255 0 255
-0.09674411 -0.1392661 0.1703079 255 0 255
-0.09532332 -0.1387144 0.1698177 255 0 255
-0.09410228 -0.1388045 0.1700613 255 0 255
-0.09288025 -0.1388916 0.1703011 255 0 255
-0.09165726 -0.1389757 0.170537 255 0 255
-0.09043334 -0.1390569 0.1707691 255 0 255
-0.08920849 -0.1391352 0.1709973 255 0 255
-0.0876353 -0.1379175 0.169736 255 0 255
-0.0864164 -0.1379895 0.1699552 255 0 255
-0.08503067 -0.1374115 0.1694263 255 0 255
-0.08381398 -0.1374774 0.1696372 255 0 255
-0.08259644 -0.1375403 0.1698441 255 0 255
-0.08153247 -0.138248 0.1707935 255 0 255
-0.080159 -0.1376575 0.1702467 255 0 255
-0.07864594 -0.1364158 0.1689472 255 0 255
-0.0775758 -0.1371149 0.1698858 255 0 255
-0.07621952 -0.1365149 0.1693243 255 0 255
-0.07500525 -0.13656 0.1695072 255 0 255
-0.07392131 -0.1372508 0.170436 255 0 255
-0.07295605 -0.1385875 0.1721125 255 0 255
-0.07197454 -0.1399219 0.1737874 255 0 255
-0.07085746 -0.1406048 0.1747091 255 0 255
-0.06961651 -0.140636 0.1748759 255 0 255
-0.06848649 -0.1413133 0.1757913 255 0 255
-0.06745569 -0.1426369 0.1774569 255 0 255
-0.06620128 -0.1426594 0.1776135 255 0 255
-0.0652457 -0.1446268 0.180028 255 0 255
-0.06426611 -0.1465914 0.1824414 255 0 255
-0.06317056 -0.1479039 0.1840986 255 0 255
-0.06197079 -0.1485641 0.1849982 255 0 255
-0.06084682 -0.1498707 0.1866503 255 0 255
-0.05954626 -0.1498754 0.1867876 255 0 255
