ply
format ascii 1.0
Comment Generated by Floating Hands
element vertex 1109
property double x
property double y
property double z
property uchar red
property uchar green
property uchar blue
end_header
0.05001299 -0.04755901 0.1238857 255 0 255
0.05091576 -0.04739201 0.1236813 255 0 255
0.05181753 -0.04722299 0.1234739 255 0 255
0.05271832 -0.04705197 0.1232635 255 0 255
0.05361812 -0.04687893 0.1230502 255 0 255
0.05481064 -0.04717018 0.1236682 255 0 255
0.05571215 -0.04699238 0.123448 255 0 255
0.05661267 -0.04681257 0.1232248 255 0 255
0.05751212 -0.04663073 0.1229986 255 0 255
0.05871924 -0.04691019 0.1236001 255 0 255
0.05962031 -0.04672356 0.123367 255 0 255
0.06052024 -0.04653488 0.1231309 255 0 255
0.06173914 -0.04680517 0.1237195 255 0 255
0.06264061 -0.04661169 0.1234764 255 0 255
0.06386844 -0.04687552 0.124056 255 0 255
0.06510259 -0.04713569 0.1246305 255 0 255
0.06634305 -0.04739218 0.1252 255 0 255
0.06758972 -0.04764495 0.1257643 255 0 255
0.06884265 -0.04789402 0.1263235 255 0 255
0.07010178 -0.04813932 0.1268774 255 0 255
0.07066743 -0.04747229 0.1257876 255 0 255
0.07193149 -0.04771174 0.1263332 255 0 255
0.07284442 -0.04749488 0.1260566 255 0 255
0.07411703 -0.04772762 0.1265928 255 0 255
0.0750311 -0.04750576 0.1263089 255 0 255
0.07631215 -0.04773166 0.1268356 255 0 255
-0.1054299 -0.06099375 0.1384725 255 0 255
-0.1088361 -0.06735042 0.1493412 255 0 255
-0.1094754 -0.06991525 0.1537261 255 0 255
-0.1097462 -0.07200781 0.157304 255 0 255
-0.1086811 -0.07219446 0.1576233 255 0 255
-0.1082595 -0.07333431 0.1595734 255 0 255
-0.1071841 -0.07351737 0.159888 255 0 255
-0.1064223 -0.07417707 0.1610184 255 0 255
-0.1053405 -0.07435582 0.161327 255 0 255
-0.1039499 -0.0740518 0.1608108 255 0 255
-0.1028691 -0.07422505 0.1611113 255 0 255
-0.1011871 -0.07343278 0.1597614 255 0 255
-0.1001112 -0.07359995 0.1600528 255 0 255
-0.09874167 -0.07328196 0.1595152 255 0 255
-0.0973784 -0.07296041 0.1589722 255 0 255
-0.09602141 -0.07263529 0.1584237 255 0 255
-0.09495193 -0.07279103 0.1586982 255 0 255
-0.09360387 -0.07245942 0.1581399 255 0 255
-0.09280935 -0.07309518 0.1592369 255 0 255
-0.0917363 -0.0732436 0.159501 255 0 255
-0.09092809 -0.07387609 0.1605938 255 0 255
-0.08958679 -0.07353318 0.1600187 255 0 255
-0.08876871 -0.07416181 0.1611064 255 0 255
-0.08743277 -0.07381302 0.1605224 255 0 255
-0.08610339 -0.07346084 0.1599333 255 0 255
-0.08502744 -0.07359419 0.1601755 255 0 255
-0.08395047 -0.0737251 0.1604142 255 0 255
-0.08263315 -0.07336375 0.1598111 255 0 255
-0.08179343 -0.07397965 0.1608812 255 0 255
-0.08094503 -0.07459397 0.1619494 255 0 255
-0.07963233 -0.07422442 0.1613342 255 0 255
-0.07855032 -0.07434316 0.1615554 255 0 255
-0.07768746 -0.07495145 0.1626154 255 0 255
-0.0763834 -0.0745733 0.1619873 255 0 255
-0.07529853 -0.07468472 0.1621979 255 0 255
-0.07421275 -0.07479366 0.162405 255 0 255
-0.07312606 -0.07490017 0.1626086 255 0 255
-0.07203852 -0.07500425 0.1628087 255 0 255
-0.07114709 -0.07560015 0.1638519 255 0 255
-0.07005394 -0.07569966 0.1640456 255 0 255
-0.06914924 -0.0762917 0.1650838 255 0 255
-0.06805054 -0.07638663 0.165271 255 0 255
-0.06695107 -0.07647908 0.1654547 255 0 255
-0.06602845 -0.07706501 0.1664847 255 0 255
-0.0649235 -0.07715284 0.1666619 255 0 255
-0.06415763 -0.07823127 0.1685378 255 0 255
-0.06304342 -0.07831472 0.168709 255 0 255
-0.06225277 -0.0793899 0.1705812 255 0 255
-0.06097105 -0.07897145 0.1698933 255 0 255
-0.05985078 -0.07904764 0.1700541 255 0 255
-0.05872984 -0.07912129 0.1702113 255 0 255
-0.05760819 -0.07919243 0.1703648 255 0 255
-0.05648591 -0.07926106 0.1705147 255 0 255
-0.05536298 -0.07932717 0.170661 255 0 255
-0.05450922 -0.08038847 0.1725158 255 0 255
-0.05324628 -0.07995088 0.1717991 255 0 255
-0.05224472 -0.08050889 0.1727919 255 0 255
-0.05111159 -0.08056534 0.1729244 255 0 255
-0.05009717 -0.08111884 0.1739113 255 0 255
-0.04895904 -0.08117035 0.1740368 255 0 255
-0.04793181 -0.08171929 0.1750175 255 0 255
-0.04678873 -0.08176588 0.1751361 255 0 255
-0.04574877 -0.08231018 0.1761106 255 0 255
-0.04460079 -0.08235174 0.1762221 255 0 255
-0.04354813 -0.08289132 0.1771903 255 0 255
-0.04239533 -0.0829279 0.1772947 255 0 255
-0.04124211 -0.08296185 0.1773953 255 0 255
-0.04008847 -0.08299326 0.1774922 255 0 255
-0.03885436 -0.08252104 0.1767237 255 0 255
-0.03778005 -0.08304827 0.1776747 255 0 255
-0.03669752 -0.08357313 0.1786227 255 0 255
-0.03567509 -0.0845968 0.18043 255 0 255
-0.03463661 -0.08561812 0.1822346 255 0 255
-0.03364254 -0.08713844 0.1848995 255 0 255
-0.03273759 -0.0896593 0.1892888 255 0 255
-0.03184561 -0.0926793 0.19454 255 0 255
0.01276826 -0.06402672 0.1474563 255 0 255
0.01344484 -0.06245545 0.1447908 255 0 255
0.01444717 -0.06236815 0.1447077 255 0 255
0.01532859 -0.06178425 0.1437603 255 0 255
0.01632611 -0.06169285 0.1436709 255 0 255
0.01706657 -0.06061191 0.1418579 255 0 255
0.01792309 -0.06002355 0.140903 255 0 255
0.01863524 -0.05894085 0.1390862 255 0 255
0.01961125 -0.05884254 0.1389858 255 0 255
0.02029893 -0.05775788 0.137165 255 0 255
0.02097049 -0.05667265 0.1353427 255 0 255
0.02177761 -0.0560782 0.1343767 255 0 255
0.0224208 -0.05499169 0.1325513 255 0 255
0.02304785 -0.05390475 0.1307245 255 0 255
0.02382213 -0.05330746 0.1297529 255 0 255
0.02475533 -0.05319848 0.129635 255 0 255
0.02551678 -0.05259839 0.1286588 255 0 255
0.02626985 -0.05199717 0.1276805 255 0 255
0.02719346 -0.05188293 0.1275545 255 0 255
0.02811643 -0.05176662 0.1274255 255 0 255
0.02903878 -0.05164825 0.1272934 255 0 255
0.02976991 -0.05104123 0.1263057 255 0 255
0.03068705 -0.05091927 0.1261682 255 0 255
0.0316035 -0.05079527 0.1260276 255 0 255
0.03251925 -0.05066923 0.1258841 255 0 255
0.03343432 -0.05054114 0.1257375 255 0 255
0.03434866 -0.05041101 0.1255879 255 0 255
0.03526222 -0.05027885 0.1254354 255 0 255
0.03617508 -0.05014462 0.1252798 255 0 255
0.03708714 -0.05000839 0.1251212 255 0 255
0.03799846 -0.04987012 0.1249596 255 0 255
0.03890899 -0.04972981 0.124795 255 0 255
0.03981867 -0.04958747 0.1246275 255 0 255
0.0404908 -0.04896325 0.1236121 255 0 255
0.04163565 -0.04929671 0.1242833 255 0 255
0.04229841 -0.04866969 0.1232635 255 0 255
0.04344922 -0.04899785 0.1239273 255 0 255
0.04435475 -0.04884537 0.1237447 255 0 255
0.04551529 -0.04916755 0.1244002 255 0 255
0.04642281 -0.04901039 0.124211 255 0 255
0.04732947 -0.04885118 0.1240187 255 0 255
0.04796781 -0.04821529 0.1229849 255 0 255
0.04913992 -0.0485267 0.1236252 255 0 255
0.05004374 -0.04836143 0.1234239 255 0 255
0.05094662 -0.04819414 0.1232197 255 0 255
0.05184852 -0.04802483 0.1230125 255 0 255
0.05274941 -0.04785349 0.1228023 255 0 255
0.0539394 -0.04815058 0.1234226 255 0 255
0.05484206 -0.04797447 0.1232056 255 0 255
0.05574372 -0.04779635 0.1229855 255 0 255
0.05664431 -0.04761623 0.1227625 255 0 255
0.05754383 -0.04743408 0.1225365 255 0 255
0.05844232 -0.04724989 0.1223076 255 0 255
0.05965239 -0.0475296 0.1229034 255 0 255
0.0608689 -0.04780572 0.1234943 255 0 255
0.06177156 -0.0476139 0.1232544 255 0 255
0.06267314 -0.0474201 0.1230115 255 0 255
0.06390122 -0.04768695 0.1235894 255 0 255
0.06513562 -0.0479501 0.1241623 255 0 255
0.06637628 -0.0482096 0.12473 255 0 255
0.06762324 -0.04846535 0.1252926 255 0 255
0.06887639 -0.0487174 0.1258501 255 0 255
0.06978953 -0.04850718 0.1255839 255 0 255
0.07070141 -0.04829491 0.1253147 255 0 255
0.07196566 -0.04853735 0.1258587 255 0 255
0.07287874 -0.04832012 0.1255823 255 0 255
0.07379051 -0.04810081 0.1253028 255 0 255
0.07470101 -0.04787945 0.1250203 255 0 255
0.07597861 -0.04810923 0.1255465 255 0 255
-0.1115523 -0.06723049 0.147027 255 0 255
-0.1119101 -0.06933144 0.1505851 255 0 255
-0.1118578 -0.07258561 0.1560978 255 0 255
-0.1117961 -0.07421514 0.1588593 255 0 255
-0.1110509 -0.07488649 0.1599982 255 0 255
-0.1099707 -0.07507611 0.1603218 255 0 255
-0.1092115 -0.07574446 0.161457 255 0 255
-0.1078062 -0.075448 0.1609584 255 0 255
-0.1064069 -0.07514776 0.1604541 255 0 255
-0.1053249 -0.07532687 0.1607625 255 0 255
-0.1036267 -0.07453619 0.1594284 255 0 255
-0.1025496 -0.07470917 0.1597277 255 0 255
-0.1011712 -0.07439483 0.159202 255 0 255
-0.09979904 -0.07407685 0.1586707 255 0 255
-0.09843316 -0.07375529 0.1581338 255 0 255
-0.09765081 -0.07440334 0.1592407 255 0 255
-0.09600511 -0.07358859 0.1578694 255 0 255
-0.09493549 -0.07374463 0.1581437 255 0 255
-0.09386465 -0.07389826 0.1584146 255 0 255
-0.09279265 -0.07404942 0.1586819 255 0 255
-0.09198919 -0.07468749 0.1597752 255 0 255
-0.09091103 -0.07483431 0.1600365 255 0 255
-0.08956967 -0.07448834 0.1594632 255 0 255
-0.08849304 -0.07462977 0.1597166 255 0 255
-0.08716085 -0.07427741 0.1591336 255 0 255
-0.08608587 -0.07441349 0.1593792 255 0 255
-0.08476294 -0.07405484 0.1587866 255 0 255
-0.08393269 -0.07467833 0.1598598 255 0 255
-0.08285453 -0.07480708 0.1600949 255 0 255
-0.08201076 -0.07542706 0.1611637 255 0 255
-0.08115833 -0.07604549 0.1622305 255 0 255
-0.07984172 -0.07567325 0.1616179 255 0 255
-0.07875574 -0.07579266 0.1618397 255 0 255
-0.07766875 -0.07590961 0.162058 255 0 255
-0.07636461 -0.07552832 0.1614317 255 0 255
-0.07506723 -0.0751438 0.1608004 255 0 255
-0.07398517 -0.07525264 0.1610066 255 0 255
-0.07310685 -0.07585594 0.1620527 255 0 255
-0.07221995 -0.07645755 0.1630966 255 0 255
-0.07132445 -0.07705741 0.1641384 255 0 255
-0.0702273 -0.07715752 0.1643327 255 0 255
-0.06931852 -0.07775348 0.1653694 255 0 255
-0.06821583 -0.07784896 0.1655571 255 0 255
-0.06711232 -0.07794195 0.1657413 255 0 255
-0.06618562 -0.0785318 0.1667699 255 0 255
-0.06507666 -0.07862014 0.1669476 255 0 255
-0.06396692 -0.07870595 0.1671216 255 0 255
-0.0630224 -0.07928953 0.1681418 255 0 255
-0.06206938 -0.07987117 0.1691597 255 0 255
-0.06094967 -0.07995004 0.169324 255 0 255
-0.05982926 -0.08002637 0.1694847 255 0 255
-0.05870815 -0.08010022 0.1696418 255 0 255
-0.05758637 -0.08017153 0.1697952 255 0 255
-0.05660655 -0.08074214 0.1707982 255 0 255
-0.05547959 -0.08080862 0.1709448 255 0 255
-0.0544868 -0.08137481 0.1719419 255 0 255
-0.0533547 -0.08143648 0.1720818 255 0 255
-0.05234901 -0.08199825 0.173073 255 0 255
-0.05121183 -0.082055 0.1732059 255 0 255
-0.05019326 -0.08261224 0.1741911 255 0 255
-0.04905106 -0.08266406 0.174317 255 0 255
-0.0480197 -0.0832167 0.1752961 255 0 255
-0.04687256 -0.08326356 0.175415 255 0 255
-0.04572491 -0.08330782 0.1755302 255 0 255
-0.0446764 -0.08385333 0.1764996 255 0 255
-0.04361958 -0.08439659 0.1774662 255 0 255
-0.04246272 -0.08443336 0.1775708 255 0 255
-0.04121758 -0.08396331 0.1768127 255 0 255
-0.04006379 -0.08399481 0.1769095 255 0 255
-0.03890961 -0.08402371 0.1770027 255 0 255
-0.03783113 -0.08455453 0.177952 255 0 255
-0.03674445 -0.08508294 0.1788982 255 0 255
-0.03578597 -0.08661825 0.1815624 255 0 255
-0.03467502 -0.08714187 0.1825027 255 0 255
-0.03367661 -0.08867253 0.1851619 255 0 255
-0.03287998 -0.09222019 0.1912641 255 0 255
-0.03208048 -0.09627057 0.1982273 255 0 255
0.01334049 -0.06740163 0.1512433 255 0 255
0.01414919 -0.06631681 0.1494419 255 0 255
0.01482514 -0.06473298 0.1467792 255 0 255
0.01547716 -0.06314892 0.1441151 255 0 255
0.01660319 -0.06355442 0.144884 255 0 255
0.01735138 -0.06246581 0.1430744 255 0 255
0.01808343 -0.06137647 0.1412629 255 0 255
0.0189356 -0.06078274 0.1403072 255 0 255
0.01991953 -0.06068346 0.1402061 255 0 255
0.0204709 -0.05909555 0.137532 255 0 255
0.02114624 -0.05800296 0.1357133 255 0 255
0.02195725 -0.05740454 0.134749 255 0 255
0.02275996 -0.05680483 0.1337824 255 0 255
0.02323502 -0.05521628 0.131104 255 0 255
0.02417673 -0.05510831 0.1309883 255 0 255
0.02495044 -0.05450534 0.1300157 255 0 255
0.02571575 -0.05390121 0.1290411 255 0 255
0.02664788 -0.05378789 0.1289172 255 0 255
0.02757936 -0.05367248 0.1287902 255 0 255
0.02832728 -0.05306403 0.1278085 255 0 255
0.0292536 -0.05294496 0.127676 255 0 255
0.02998861 -0.05233385 0.1266899 255 0 255
0.03090972 -0.05221117 0.1265519 255 0 255
0.03183014 -0.05208643 0.1264109 255 0 255
0.03274988 -0.05195964 0.1262669 255 0 255
0.0336689 -0.05183079 0.1261198 255 0 255
0.0345872 -0.05169988 0.1259698 255 0 255
0.03529092 -0.05108016 0.1249697 255 0 255
0.03620385 -0.05094573 0.1248143 255 0 255
0.03711604 -0.05080927 0.1246559 255 0 255
0.03780205 -0.05018571 0.1236495 255 0 255
0.03893808 -0.05053019 0.12433 255 0 255
0.03984788 -0.05038762 0.1241626 255 0 255
0.04051998 -0.04975976 0.1231493 255 0 255
0.04166507 -0.05009634 0.1238188 255 0 255
0.04232781 -0.04946569 0.1228011 255 0 255
0.04347887 -0.04979695 0.1234631 255 0 255
0.04438447 -0.04964422 0.1232807 255 0 255
0.04580129 -0.05044952 0.1247735 255 0 255
0.04645288 -0.04981206 0.1237454 255 0 255
0.04735963 -0.04965259 0.1235533 255 0 255
0.04826541 -0.04949109 0.1233582 255 0 255
0.04917031 -0.04932753 0.1231601 255 0 255
0.05007422 -0.04916198 0.1229591 255 0 255
0.05097721 -0.04899439 0.122755 255 0 255
0.05216184 -0.04930003 0.1233812 255 0 255
0.05278022 -0.04865316 0.122338 255 0 255
0.05397042 -0.04895328 0.1229565 255 0 255
0.05487319 -0.04877689 0.1227397 255 0 255
0.05577495 -0.04859845 0.1225198 255 0 255
0.05667562 -0.048418 0.122297 255 0 255
0.05757528 -0.04823553 0.1220713 255 0 255
0.05847386 -0.04805105 0.1218425 255 0 255
0.05937137 -0.04786455 0.1216108 255 0 255
0.06058433 -0.04814446 0.1222009 255 0 255
0.06180368 -0.04842077 0.1227861 255 0 255
0.06270536 -0.0482266 0.1225435 255 0 255
0.06393366 -0.04849647 0.1231197 255 0 255
0.06516828 -0.04876262 0.1236908 255 0 255
0.06640922 -0.0490251 0.1242568 255 0 255
0.06731743 -0.04882032 0.123999 255 0 255
0.06890979 -0.04953885 0.1253735 255 0 255
0.07016943 -0.0497901 0.1259241 255 0 255
0.07108511 -0.04957661 0.125654 255 0 255
0.07235333 -0.04982113 0.1261952 255 0 255
0.07327018 -0.04960263 0.1259179 255 0 255
0.07382454 -0.04892375 0.1248255 255 0 255
0.07473513 -0.04870197 0.1245432 255 0 255
0.07601299 -0.04893468 0.1250677 255 0 255
-0.1238931 -0.08163372 0.1691106 255 0 255
-0.1192471 -0.07706045 0.1614359 255 0 255
-0.116067 -0.0743898 0.1569547 255 0 255
-0.1156869 -0.07555252 0.1589071 255 0 255
-0.1139268 -0.07479065 0.1576305 255 0 255
-0.113529 -0.0759512 0.1595807 255 0 255
-0.1127814 -0.07662937 0.160722 255 0 255
-0.1116951 -0.0768232 0.1610511 255 0 255
-0.1102812 -0.07653065 0.1605645 255 0 255
-0.1095181 -0.07720338 0.1616987 255 0 255
-0.1077903 -0.07641936 0.1603885 255 0 255
-0.1063909 -0.07611616 0.1598859 255 0 255
-0.1053088 -0.07629562 0.1601941 255 0 255
-0.1036106 -0.0754986 0.1588638 255 0 255
-0.1025333 -0.07567195 0.1591628 255 0 255
-0.1011548 -0.07535461 0.1586389 255 0 255
-0.1000787 -0.07552244 0.1589299 255 0 255
-0.09870898 -0.07519842 0.1583958 255 0 255
-0.09763411 -0.07536077 0.1586789 255 0 255
-0.09627318 -0.07503017 0.1581349 255 0 255
-0.09491863 -0.07469598 0.1575854 255 0 255
-0.09384765 -0.07484991 0.1578561 255 0 255
-0.09277551 -0.07500143 0.1581233 255 0 255
-0.09170216 -0.07515046 0.158387 255 0 255
-0.09062769 -0.07529707 0.1586472 255 0 255
-0.0895521 -0.07544123 0.1589039 255 0 255
-0.08847535 -0.07558297 0.1591572 255 0 255
-0.08739751 -0.07572223 0.1594069 255 0 255
-0.08606796 -0.07536391 0.1588214 255 0 255
-0.08499175 -0.07549785 0.1590633 255 0 255
-0.0841575 -0.07612543 0.1601352 255 0 255
-0.0828362 -0.07575835 0.1595366 255 0 255
-0.08199224 -0.07638195 0.1606032 255 0 255
-0.08113959 -0.07700402 0.1616679 255 0 255
-0.07982292 -0.07662866 0.1610571 255 0 255
-0.07873677 -0.07674833 0.1612788 255 0 255
-0.07764967 -0.07686553 0.1614969 255 0 255
-0.07634548 -0.07648114 0.1608725 255 0 255
-0.07526031 -0.07659302 0.1610828 255 0 255
-0.0739658 -0.0762025 0.160449 255 0 255
-0.07308728 -0.07680945 0.161493 255 0 255
-0.07199945 -0.07691398 0.1616928 255 0 255
-0.07130447 -0.07801815 0.1635745 255 0 255
-0.07040019 -0.07861986 0.164612 255 0 255
-0.06948735 -0.0792198 0.1656473 255 0 255
-0.06838064 -0.0793158 0.1658356 255 0 255
-0.0672731 -0.07940933 0.1660203 255 0 255
-0.06634233 -0.08000311 0.1670474 255 0 255
-0.06522933 -0.08009193 0.1672255 255 0 255
-0.06411558 -0.08017824 0.1674 255 0 255
-0.06316698 -0.08076567 0.1684188 255 0 255
-0.06220984 -0.08135118 0.1694351 255 0 255
-0.06108611 -0.0814305 0.1695999 255 0 255
-0.05980743 -0.08100282 0.1689115 255 0 255
-0.05883652 -0.08158157 0.1699186 255 0 255
-0.05771071 -0.0816533 0.1700724 255 0 255
-0.05672676 -0.08222767 0.1710737 255 0 255
-0.05545712 -0.08178915 0.1703692 255 0 255
-0.05446413 -0.0823589 0.1713642 255 0 255
-0.05346272 -0.08292656 0.1723566 255 0 255
-0.05232596 -0.08298602 0.1724931 255 0 255
-0.05118864 -0.08304288 0.1726259 255 0 255
-0.05028895 -0.08411011 0.174463 255 0 255
-0.0491427 -0.08416224 0.1745894 255 0 255
-0.04799593 -0.08421177 0.1747119 255 0 255
-0.04695601 -0.0847657 0.175686 255 0 255
-0.04580429 -0.08481023 0.1758015 255 0 255
-0.04465212 -0.08485216 0.1759133 255 0 255
-0.04359508 -0.0853989 0.1768777 255 0 255
-0.04234638 -0.08492827 0.1761256 255 0 255
-0.04119285 -0.08496245 0.1762262 255 0 255
-0.04003893 -0.084994 0.176323 255 0 255
-0.03888461 -0.08502302 0.176416 255 0 255
-0.0378059 -0.08555733 0.1773633 255 0 255
-0.03679104 -0.0865972 0.1791658 255 0 255
-0.03569198 -0.08712672 0.1801071 255 0 255
-0.03471312 -0.08867001 0.1827627 255 0 255
-0.03358983 -0.08919456 0.1836979 255 0 255
-0.03274004 -0.09225783 0.1889265 255 0 255
-0.03199994 -0.09684368 0.1967329 255 0 255
0.01372618 -0.0651983 0.1454901 255 0 255
0.01485334 -0.06561157 0.1462637 255 0 255
0.01562583 -0.06451835 0.1444626 255 0 255
0.01675602 -0.06492672 0.1452292 255 0 255
0.01763652 -0.06433127 0.1442795 255 0 255
0.01837629 -0.06323422 0.1424714 255 0 255
0.01909993 -0.06213647 0.1406615 255 0 255
0.0200879 -0.06203665 0.1405601 255 0 255
0.02064294 -0.06043798 0.1378916 255 0 255
0.02147009 -0.05983651 0.1369308 255 0 255
0.02228893 -0.0592337 0.1359677 255 0 255
0.0230994 -0.05862958 0.1350023 255 0 255
0.02358204 -0.05702983 0.1323291 255 0 255
0.024368 -0.05642406 0.1313602 255 0 255
0.02531309 -0.05631335 0.1312411 255 0 255
0.02591481 -0.0552089 0.1294162 255 0 255
0.02667562 -0.05459958 0.1284411 255 0 255
0.02760723 -0.05448397 0.1283143 255 0 255
0.02853819 -0.0543663 0.1281844 255 0 255
0.02928156 -0.05375266 0.1272023 255 0 255
0.03020735 -0.05363132 0.1270669 255 0 255
0.03113243 -0.05350792 0.1269285 255 0 255
0.03205685 -0.05338243 0.126787 255 0 255
0.03277814 -0.05276313 0.1257957 255 0 255
0.03369727 -0.05263405 0.1256488 255 0 255
0.03461567 -0.05250293 0.1254988 255 0 255
0.03531936 -0.05187961 0.124501 255 0 255
0.03623242 -0.05174495 0.1243457 255 0 255
0.03714471 -0.05160824 0.1241874 255 0 255
0.03805619 -0.0514695 0.1240261 255 0 255
0.03896695 -0.0513287 0.1238618 255 0 255
0.03987687 -0.05118588 0.1236946 255 0 255
0.04054891 -0.0505544 0.1226835 255 0 255
0.04169424 -0.0508941 0.1233511 255 0 255
0.04235698 -0.05025981 0.1223355 255 0 255
0.04350824 -0.0505942 0.1229957 255 0 255
0.04466631 -0.05092525 0.1236514 255 0 255
0.04557494 -0.05076958 0.1234655 255 0 255
0.04648267 -0.05061187 0.1232766 255 0 255
0.04738952 -0.05045211 0.1230846 255 0 255
0.04829543 -0.05029031 0.1228897 255 0 255
0.04920041 -0.0501265 0.1226919 255 0 255
0.05010444 -0.04996064 0.122491 255 0 255
0.05072853 -0.04931347 0.1214551 255 0 255
0.05190962 -0.04962287 0.1220804 255 0 255
0.05281069 -0.04945094 0.1218706 255 0 255
0.05371084 -0.049277 0.1216578 255 0 255
0.05490403 -0.04957742 0.1222706 255 0 255
0.05580587 -0.04939866 0.122051 255 0 255
0.05670665 -0.0492179 0.1218284 255 0 255
0.0576064 -0.04903513 0.1216029 255 0 255
0.05850507 -0.04885032 0.1213743 255 0 255
0.05940267 -0.04866347 0.1211428 255 0 255
0.06029915 -0.04847463 0.1209083 255 0 255
0.06151499 -0.04875475 0.1214927 255 0 255
0.06273721 -0.04903124 0.1220722 255 0 255
0.06363782 -0.0488347 0.1218268 255 0 255
0.06486897 -0.04910469 0.1223972 255 0 255
0.06610636 -0.04937097 0.1229626 255 0 255
0.06735006 -0.04963354 0.1235229 255 0 255
0.06859998 -0.04989237 0.124078 255 0 255
0.0698561 -0.05014744 0.1246279 255 0 255
0.07076819 -0.04993444 0.1243592 255 0 255
0.07203296 -0.0501828 0.1248998 255 0 255
0.07294622 -0.04996477 0.1246239 255 0 255
0.07385819 -0.04974471 0.1243449 255 0 255
0.07476887 -0.04952258 0.1240629 255 0 255
0.07604696 -0.04975823 0.1245858 255 0 255
-0.1170948 -0.07184546 0.1505479 255 0 255
-0.1181861 -0.07494098 0.1556957 255 0 255
-0.1167677 -0.07466545 0.15524 255 0 255
-0.1157034 -0.07486926 0.1555817 255 0 255
-0.1146376 -0.0750706 0.1559199 255 0 255
-0.1139113 -0.07575408 0.1570603 255 0 255
-0.1135132 -0.07692166 0.1590062 255 0 255
-0.1127654 -0.07760359 0.1601454 255 0 255
-0.1116789 -0.0777978 0.1604742 255 0 255
-0.110265 -0.0775023 0.1599894 255 0 255
-0.1091794 -0.07769086 0.1603101 255 0 255
-0.1077739 -0.07738841 0.1598149 255 0 255
-0.1060596 -0.07659309 0.1585006 255 0 255
-0.10467 -0.07628257 0.157993 255 0 255
-0.1032866 -0.07596836 0.1574799 255 0 255
-0.1019094 -0.07565046 0.1569611 255 0 255
-0.1008382 -0.07582051 0.1572544 255 0 255
-0.09976567 -0.07598809 0.1575442 255 0 255
-0.09839964 -0.07566049 0.1570109 255 0 255
-0.09761692 -0.07631592 0.1581133 255 0 255
-0.0959712 -0.07548841 0.1567496 255 0 255
-0.09490129 -0.07564508 0.1570235 255 0 255
-0.09355301 -0.07530435 0.1564704 255 0 255
-0.09248453 -0.07545561 0.1567365 255 0 255
-0.09141488 -0.07560445 0.1569991 255 0 255
-0.09060985 -0.07624743 0.1580845 255 0 255
-0.08927213 -0.07589482 0.1575138 255 0 255
-0.08819906 -0.07603633 0.157766 255 0 255
-0.08712489 -0.07617541 0.1580147 255 0 255
-0.08604962 -0.07631209 0.1582599 255 0 255
-0.08497332 -0.07644626 0.1585016 255 0 255
-0.08413885 -0.07707751 0.1595714 255 0 255
-0.08305661 -0.07720727 0.1598069 255 0 255
-0.08197331 -0.07733458 0.160039 255 0 255
-0.08088901 -0.07745942 0.1602675 255 0 255
-0.08003134 -0.0780831 0.1613274 255 0 255
-0.07871746 -0.07770173 0.1607141 255 0 255
-0.07741029 -0.07731707 0.1600957 255 0 255
-0.07610988 -0.07692912 0.1594723 255 0 255
-0.07502843 -0.07704087 0.1596818 255 0 255
-0.07373773 -0.07664685 0.1590492 255 0 255
-0.07286286 -0.07725698 0.1600902 255 0 255
-0.07197939 -0.07786546 0.1611292 255 0 255
-0.07108735 -0.07847216 0.162166 255 0 255
-0.07018671 -0.07907711 0.1632007 255 0 255
-0.06946662 -0.08018541 0.1650753 255 0 255
-0.06835978 -0.08028166 0.1652635 255 0 255
-0.06725212 -0.08037538 0.165448 255 0 255
-0.06614366 -0.08046662 0.165629 255 0 255
-0.065208 -0.08106176 0.166651 255 0 255
-0.0640941 -0.08114827 0.1668254 255 0 255
-0.06314527 -0.08173928 0.167842 255 0 255
-0.06202602 -0.08182103 0.1680098 255 0 255
-0.06106406 -0.08240787 0.169021 255 0 255
-0.05978534 -0.08197699 0.1683344 255 0 255
-0.05881421 -0.08255925 0.1693394 255 0 255
-0.05768826 -0.08263114 0.1694932 255 0 255
-0.05670411 -0.08320908 0.1704924 255 0 255
-0.05529584 -0.08225849 0.1689401 255 0 255
-0.05444119 -0.08334062 0.1707827 255 0 255
-0.05330878 -0.08340254 0.1709223 255 0 255
-0.05230267 -0.0839714 0.1719094 255 0 255
-0.05116522 -0.08402843 0.1720421 255 0 255
-0.05026523 -0.08510258 0.1738752 255 0 255
-0.04911884 -0.08515482 0.1740014 255 0 255
-0.04797193 -0.08520448 0.1741239 255 0 255
-0.04693178 -0.0857619 0.1750959 255 0 255
-0.04577994 -0.08580656 0.1752113 255 0 255
-0.04472706 -0.08635924 0.176177 255 0 255
-0.04347483 -0.08588807 0.175431 255 0 255
-0.04232161 -0.08592493 0.1755352 255 0 255
-0.04116794 -0.0859592 0.1756357 255 0 255
-0.04001388 -0.08599087 0.1757325 255 0 255
-0.03885943 -0.08601994 0.1758254 255 0 255
-0.0377805 -0.08655769 0.1767707 255 0 255
-0.03676531 -0.08760447 0.1785691 255 0 255
-0.03573407 -0.08864889 0.1803649 255 0 255
-0.03468677 -0.08969097 0.182158 255 0 255
-0.03362345 -0.09073061 0.1839482 255 0 255
-0.03271281 -0.09330267 0.1883076 255 0 255
-0.03165793 -0.09484907 0.1909503 255 0 255
0.01429702 -0.06396356 0.1414686 255 0 255
0.01553303 -0.06488341 0.1430928 255 0 255
0.01690893 -0.06630376 0.145567 255 0 255
0.01766473 -0.06520057 0.1437648 255 0 255
0.01853693 -0.06460005 0.1428146 255 0 255
0.01940082 -0.06399806 0.1418619 255 0 255
0.02039668 -0.06389727 0.1417598 255 0 255
0.02110358 -0.06278975 0.1399492 255 0 255
0.02179431 -0.06168162 0.1381371 255 0 255
0.02262091 -0.06107443 0.1371752 255 0 255
0.02343917 -0.0604659 0.136211 255 0 255
0.02392937 -0.05885494 0.133543 255 0 255
0.02472312 -0.05824473 0.1325753 255 0 255
0.02550845 -0.05763325 0.1316054 255 0 255
0.02628545 -0.0570206 0.1306335 255 0 255
0.02705403 -0.05640677 0.1296595 255 0 255
0.02781421 -0.05579178 0.1286834 255 0 255
0.02874914 -0.05567342 0.1285532 255 0 255
0.02968344 -0.05555292 0.1284198 255 0 255
0.03042613 -0.05493364 0.1274368 255 0 255
0.03135519 -0.05480951 0.1272979 255 0 255
0.03208494 -0.05418761 0.1263105 255 0 255
0.03300874 -0.05405986 0.1261662 255 0 255
0.03393183 -0.05393002 0.1260188 255 0 255
0.03485417 -0.05379812 0.1258684 255 0 255
0.03556171 -0.05317066 0.124872 255 0 255
0.03647872 -0.0530352 0.1247162 255 0 255
0.03717317 -0.05240532 0.1237158 255 0 255
0.03808477 -0.05226635 0.1235547 255 0 255
0.03899557 -0.0521253 0.1233905 255 0 255
0.0399056 -0.05198224 0.1232234 255 0 255
0.0408148 -0.05183711 0.1230534 255 0 255
0.04172315 -0.05168996 0.1228803 255 0 255
0.04263068 -0.05154077 0.1227043 255 0 255
0.04378601 -0.0518776 0.1233619 255 0 255
0.04469564 -0.0517237 0.1231791 255 0 255
0.04586066 -0.0520545 0.1238285 255 0 255
0.04651222 -0.05140975 0.1228046 255 0 255
0.04741917 -0.05124973 0.1226129 255 0 255
0.04832516 -0.05108766 0.1224182 255 0 255
0.04923024 -0.05092354 0.1222205 255 0 255
0.05013436 -0.05075741 0.1220198 255 0 255
0.05103753 -0.05058925 0.1218162 255 0 255
0.05193971 -0.05041906 0.1216096 255 0 255
0.05284091 -0.05024684 0.1214 255 0 255
0.05374111 -0.05007256 0.1211874 255 0 255
0.05493453 -0.05037604 0.1217984 255 0 255
0.05583646 -0.05019699 0.121579 255 0 255
0.05643558 -0.04953767 0.1205319 255 0 255
0.05733165 -0.04935535 0.1203075 255 0 255
0.05822663 -0.04917099 0.1200801 255 0 255
0.05943365 -0.0494605 0.1206717 255 0 255
0.06064707 -0.04974645 0.1212583 255 0 255
0.06186689 -0.05002875 0.12184 255 0 255
0.06309304 -0.05030743 0.1224167 255 0 255
0.0639975 -0.05010976 0.1221705 255 0 255
0.06523259 -0.05038189 0.1227382 255 0 255
0.06613843 -0.05017928 0.1224849 255 0 255
0.06738235 -0.05044483 0.1230435 255 0 255
0.06863251 -0.05070662 0.1235969 255 0 255
0.06954218 -0.05049619 0.1233325 255 0 255
0.07045064 -0.05028366 0.1230651 255 0 255
0.07171194 -0.05053583 0.1236051 255 0 255
0.0726216 -0.05031833 0.1233305 255 0 255
0.07352997 -0.05009877 0.1230529 255 0 255
0.07480218 -0.05034122 0.1235794 255 0 255
0.07571168 -0.05011663 0.1232946 255 0 255
-0.1203136 -0.07714363 0.1571663 255 0 255
-0.1192374 -0.07735562 0.1575195 255 0 255
-0.1181598 -0.07756515 0.1578692 255 0 255
-0.1167323 -0.07728571 0.1574141 255 0 255
-0.1156554 -0.07748958 0.1577556 255 0 255
-0.114236 -0.07720307 0.1572899 255 0 255
-0.113834 -0.07837839 0.1592328 255 0 255
-0.1124154 -0.07808625 0.158759 255 0 255
-0.1110029 -0.07779028 0.1582795 255 0 255
-0.1102483 -0.07847162 0.1594104 255 0 255
-0.1091626 -0.07866058 0.1597309 255 0 255
-0.107757 -0.07835517 0.1592374 255 0 255
-0.1060427 -0.07755356 0.1579269 255 0 255
-0.104964 -0.07773314 0.1582336 255 0 255
-0.1032695 -0.07692285 0.1569097 255 0 255
-0.1018922 -0.07660196 0.1563927 255 0 255
-0.1005212 -0.07627745 0.1558702 255 0 255
-0.09945228 -0.07644477 0.1561587 255 0 255
-0.09808995 -0.07611358 0.1556262 255 0 255
-0.09731082 -0.07677215 0.1567255 255 0 255
-0.09595354 -0.0764349 0.1561841 255 0 255
-0.09488352 -0.07659192 0.1564578 255 0 255
-0.09381228 -0.07674649 0.1567281 255 0 255
-0.09246655 -0.07639973 0.1561724 255 0 255
-0.09139676 -0.07654887 0.1564348 255 0 255
-0.09032582 -0.07669558 0.1566937 255 0 255
-0.08899183 -0.07633938 0.1561239 255 0 255
-0.08818057 -0.07698167 0.1572012 255 0 255
-0.08710629 -0.07712102 0.1574496 255 0 255
-0.0860309 -0.07725795 0.1576947 255 0 255
-0.08520113 -0.07789481 0.1587649 255 0 255
-0.08411978 -0.0780273 0.1590038 255 0 255
-0.08303741 -0.07815734 0.1592392 255 0 255
-0.081954 -0.07828492 0.1594711 255 0 255
-0.08063821 -0.07790582 0.1588675 255 0 255
-0.07955664 -0.07802804 0.1590916 255 0 255
-0.07847407 -0.07814781 0.1593121 255 0 255
-0.07739054 -0.07826507 0.1595292 255 0 255
-0.07609006 -0.07787402 0.1589076 255 0 255
-0.0750085 -0.077986 0.159117 255 0 255
-0.07371772 -0.07758886 0.1584862 255 0 255
-0.07284268 -0.07820259 0.1595251 255 0 255
-0.071959 -0.07881463 0.1605619 255 0 255
-0.07106677 -0.07942495 0.1615966 255 0 255
-0.07016595 -0.08003348 0.1626291 255 0 255
-0.06944555 -0.08114874 0.1644996 255 0 255
-0.06833858 -0.08124519 0.1646876 255 0 255
-0.06741205 -0.08184831 0.1657134 255 0 255
-0.06629959 -0.08194003 0.1658949 255 0 255
-0.06535985 -0.08253906 0.1669154 255 0 255
-0.06424195 -0.08262607 0.1670903 255 0 255
-0.06312331 -0.08271055 0.1672615 255 0 255
-0.0620039 -0.0827925 0.1674292 255 0 255
-0.06088378 -0.08287191 0.1675932 255 0 255
-0.05976296 -0.0829488 0.1677536 255 0 255
-0.05864145 -0.08302312 0.1679103 255 0 255
-0.05766556 -0.08360668 0.1689101 255 0 255
-0.05668118 -0.08418813 0.1699072 255 0 255
-0.05541143 -0.08374317 0.1692065 255 0 255
-0.05455257 -0.08483242 0.1710454 255 0 255
-0.05341616 -0.08489472 0.1711854 255 0 255
-0.05227914 -0.08495446 0.1713218 255 0 255
-0.0512644 -0.08552464 0.1723039 255 0 255
-0.05024128 -0.08609267 0.1732834 255 0 255
-0.0492098 -0.08665841 0.1742599 255 0 255
-0.04805883 -0.08670837 0.1743827 255 0 255
-0.04701454 -0.08726946 0.175353 255 0 255
-0.04575537 -0.08680052 0.1746172 255 0 255
-0.04470227 -0.08735669 0.1755808 255 0 255
-0.04345 -0.08688224 0.1748368 255 0 255
-0.04229664 -0.08691919 0.1749409 255 0 255
-0.04114286 -0.08695354 0.1750413 255 0 255
-0.03998865 -0.08698532 0.175138 255 0 255
-0.0389138 -0.08752909 0.1760847 255 0 255
-0.03790654 -0.08858513 0.1778822 255 0 255
-0.0368113 -0.08912412 0.1788228 255 0 255
-0.03577582 -0.09017547 0.1806148 255 0 255
-0.0347883 -0.09173933 0.1832588 255 0 255
-0.0336567 -0.09227096 0.1841904 255 0 255
-0.0325731 -0.09331497 0.1859739 255 0 255
-0.03163013 -0.09590163 0.1903212 255 0 255
-0.03011646 -0.09281992 0.1852531 255 0 255
0.01350556 -0.06126316 0.1349838 255 0 255
0.01568173 -0.06625547 0.1434295 255 0 255
0.01718679 -0.06819301 0.1467498 255 0 255
0.01782158 -0.06657496 0.1440989 255 0 255
0.01883032 -0.06647737 0.1440022 255 0 255
0.01970202 -0.06587105 0.1430509 255 0 255
0.02070583 -0.06576931 0.1429481 255 0 255
0.02142036 -0.06465409 0.1411408 255 0 255
0.02226703 -0.06404344 0.1401821 255 0 255
0.0229532 -0.06292664 0.1383713 255 0 255
0.02377923 -0.06231369 0.1374084 255 0 255
0.024277 -0.06069155 0.1347456 255 0 255
0.02491467 -0.05957343 0.1329307 255 0 255
0.02570389 -0.05895796 0.1319625 255 0 255
0.02648474 -0.05834129 0.1309922 255 0 255
0.02725719 -0.0577234 0.1300198 255 0 255
0.02820063 -0.05760597 0.1298917 255 0 255
0.02896014 -0.0569853 0.1289147 255 0 255
0.02971127 -0.05636354 0.1279357 255 0 255
0.03064498 -0.05624078 0.1277995 255 0 255
0.03157802 -0.05611591 0.1276602 255 0 255
0.03231159 -0.05548989 0.1266743 255 0 255
0.03303673 -0.05486288 0.1256867 255 0 255
0.03395992 -0.05473283 0.1255395 255 0 255
0.03488237 -0.05460071 0.1253892 255 0 255
0.03537567 -0.05347282 0.123554 255 0 255
0.03628891 -0.05333767 0.123399 255 0 255
0.03720139 -0.05320052 0.123241 255 0 255
0.03811308 -0.05306128 0.1230801 255 0 255
0.039024 -0.05292001 0.1229161 255 0 255
0.03993411 -0.05277669 0.1227492 255 0 255
0.0408434 -0.05263133 0.1225793 255 0 255
0.04199297 -0.05297661 0.1232425 255 0 255
0.04265949 -0.05233448 0.1222305 255 0 255
0.04381501 -0.05267439 0.1228863 255 0 255
0.04472473 -0.05252022 0.1227037 255 0 255
0.04588998 -0.05285411 0.1233512 255 0 255
0.04654149 -0.05220576 0.1223296 255 0 255
0.04744853 -0.05204544 0.122138 255 0 255
0.04862245 -0.05237117 0.1227741 255 0 255
0.04953144 -0.0522061 0.1225758 255 0 255
0.05016398 -0.05155228 0.1215455 255 0 255
0.05106725 -0.05138382 0.121342 255 0 255
0.05225255 -0.0516986 0.1219629 255 0 255
0.0528708 -0.0510408 0.1209262 255 0 255
0.05406169 -0.05135007 0.1215394 255 0 255
0.05496475 -0.05117276 0.1213231 255 0 255
0.05586677 -0.05099339 0.1211039 255 0 255
0.05646584 -0.05033044 0.120059 255 0 255
0.05766768 -0.05062858 0.1206566 255 0 255
0.05825707 -0.04996312 0.1196076 255 0 255
0.05946431 -0.05025565 0.1201974 255 0 255
0.06067793 -0.05054457 0.1207823 255 0 255
0.06189796 -0.05082989 0.1213622 255 0 255
0.06312437 -0.05111155 0.1219371 255 0 255
0.06402888 -0.05091351 0.1216912 255 0 255
0.0652642 -0.05118863 0.1222571 255 0 255
0.06617013 -0.05098565 0.1220041 255 0 255
0.06741428 -0.05125418 0.1225609 255 0 255
0.06832156 -0.05104628 0.1223008 255 0 255
0.06957441 -0.05130812 0.1228484 255 0 255
0.07048298 -0.05109524 0.1225812 255 0 255
0.07139026 -0.05088029 0.1223111 255 0 255
0.0722963 -0.05066331 0.1220379 255 0 255
0.07356268 -0.05091251 0.1225679 255 0 255
0.07483514 -0.05115788 0.1230926 255 0 255
0.0757447 -0.0509329 0.1228081 255 0 255
-0.1194436 -0.07211863 0.1467923 255 0 255
-0.1224452 -0.07767802 0.1558677 255 0 255
-0.1210159 -0.0790856 0.1581753 255 0 255
-0.1192212 -0.07832273 0.1569369 255 0 255
-0.1181433 -0.07853266 0.1572862 255 0 255
-0.1167158 -0.07825033 0.1568329 255 0 255
-0.1152942 -0.07796408 0.1563736 255 0 255
-0.1142193 -0.07816516 0.1567102 255 0 255
-0.11348 -0.07885565 0.1578461 255 0 255
-0.1123985 -0.07905247 0.1581768 255 0 255
-0.1109858 -0.07875354 0.157699 255 0 255
-0.1102311 -0.07943859 0.1588277 255 0 255
-0.1091452 -0.07962793 0.1591479 255 0 255
-0.1077395 -0.07931959 0.1586562 255 0 255
-0.1060252 -0.07851166 0.1573495 255 0 255
-0.1049464 -0.07869163 0.1576559 255 0 255
-0.103252 -0.07787502 0.1563358 255 0 255
-0.1018746 -0.07755116 0.1558206 255 0 255
-0.1008031 -0.07772189 0.1561134 255 0 255
-0.09943447 -0.07739133 0.1555882 255 0 255
-0.09836423 -0.07755659 0.1558731 255 0 255
-0.09700437 -0.07721934 0.1553379 255 0 255
-0.09565083 -0.07687856 0.1547973 255 0 255
-0.09458444 -0.07703533 0.1550699 255 0 255
-0.09351689 -0.07718965 0.155339 255 0 255
-0.09244815 -0.07734154 0.1556046 255 0 255
-0.09137824 -0.077491 0.1558668 255 0 255
-0.09004151 -0.07713474 0.1553033 255 0 255
-0.08897313 -0.07727878 0.1555576 255 0 255
-0.08790363 -0.07742039 0.1558085 255 0 255
-0.08708725 -0.07806434 0.1568809 255 0 255
-0.08626218 -0.0787068 0.1579516 255 0 255
-0.08518179 -0.07884205 0.1581938 255 0 255
-0.08410033 -0.07897481 0.1584325 255 0 255
-0.08301783 -0.07910513 0.1586678 255 0 255
-0.08169917 -0.07872584 0.1580703 255 0 255
-0.08061848 -0.07885078 0.1582977 255 0 255
-0.07953676 -0.07897326 0.1585217 255 0 255
-0.07845409 -0.07909324 0.158742 255 0 255
-0.07737043 -0.07921083 0.158959 255 0 255
-0.07628582 -0.0793259 0.1591724 255 0 255
-0.07498822 -0.07892886 0.1585484 255 0 255
-0.07390562 -0.07903861 0.1587541 255 0 255
-0.07302651 -0.07965634 0.1597916 255 0 255
-0.07193828 -0.07976152 0.1599909 255 0 255
-0.0712425 -0.08088659 0.1618602 255 0 255
-0.07014484 -0.08098754 0.1620538 255 0 255
-0.06942416 -0.08210973 0.16392 255 0 255
-0.06831706 -0.08220641 0.1641079 255 0 255
-0.06739033 -0.08281306 0.1651316 255 0 255
-0.06627775 -0.08290502 0.1653129 255 0 255
-0.0653378 -0.0835076 0.1663313 255 0 255
-0.06421977 -0.0835948 0.1665061 255 0 255
-0.06310099 -0.08367949 0.1666772 255 0 255
-0.06181971 -0.08324757 0.1660024 255 0 255
-0.06086124 -0.0838412 0.1670086 255 0 255
-0.0597403 -0.08391827 0.1671689 255 0 255
-0.05861866 -0.08399279 0.1673256 255 0 255
-0.05764256 -0.08457984 0.1683232 255 0 255
-0.0568003 -0.0856802 0.1701633 255 0 255
-0.0555266 -0.0852322 0.1694649 255 0 255
-0.05452906 -0.08581281 0.1704542 255 0 255
-0.05352309 -0.08639126 0.1714407 255 0 255
-0.05250873 -0.08696756 0.1724245 255 0 255
-0.05136319 -0.08702524 0.1725579 255 0 255
-0.05045481 -0.0881135 0.1743835 255 0 255
-0.04930034 -0.08816638 0.1745105 255 0 255
-0.04814534 -0.08821665 0.1746337 255 0 255
-0.04709693 -0.08878139 0.1756023 255 0 255
-0.04583379 -0.08830932 0.1748688 255 0 255
-0.04467728 -0.08835173 0.1749808 255 0 255
-0.04342497 -0.08787399 0.1742386 255 0 255
-0.04236292 -0.08842874 0.1751934 255 0 255
-0.04120507 -0.0884633 0.1752941 255 0 255
-0.04004683 -0.08849527 0.1753911 255 0 255
-0.03904748 -0.08956059 0.1771876 255 0 255
-0.03803207 -0.09062365 0.1789816 255 0 255
-0.03692875 -0.09116626 0.1799208 255 0 255
-0.03581724 -0.09170633 0.1808566 255 0 255
-0.0348254 -0.09328047 0.1834948 255 0 255
-0.03368965 -0.09381558 0.1844246 255 0 255
-0.03260179 -0.09486645 0.1862042 255 0 255
-0.03155005 -0.09643321 0.1888344 255 0 255
-0.03047443 -0.09799742 0.191462 255 0 255
0.01522544 -0.06507572 0.1395044 255 0 255
0.01746497 -0.07009362 0.1479212 255 0 255
0.0182362 -0.06897514 0.1461258 255 0 255
0.01925676 -0.06887625 0.1460282 255 0 255
0.02014018 -0.06826526 0.1450778 255 0 255
0.0211558 -0.06816215 0.1449738 255 0 255
0.02188198 -0.06703882 0.1431695 255 0 255
0.02259196 -0.06591482 0.1413636 255 0 255
0.02343806 -0.06529842 0.1404038 255 0 255
0.02411959 -0.0641729 0.1385944 255 0 255
0.02478497 -0.06304691 0.1367836 255 0 255
0.0254342 -0.06192053 0.1349715 255 0 255
0.02623508 -0.06130014 0.134004 255 0 255
0.02685584 -0.0601726 0.132189 255 0 255
0.02728481 -0.05853936 0.1295281 255 0 255
0.02822833 -0.05842174 0.1294001 255 0 255
0.02917121 -0.05830198 0.129269 255 0 255
0.02992619 -0.05767615 0.1282917 255 0 255
0.03067275 -0.05704922 0.1273124 255 0 255
0.03160585 -0.05692413 0.1271732 255 0 255
0.0325383 -0.05679698 0.127031 255 0 255
0.03326726 -0.05616584 0.1260449 255 0 255
0.0339878 -0.05553372 0.1250569 255 0 255
0.03491033 -0.05540137 0.1249068 255 0 255
0.03540351 -0.05426654 0.1230758 255 0 255
0.03609865 -0.05363156 0.1220826 255 0 255
0.03700738 -0.05349473 0.1219255 255 0 255
0.03814119 -0.05385431 0.1226023 255 0 255
0.03882248 -0.05321493 0.1216023 255 0 255
0.03996239 -0.05356923 0.1222718 255 0 255
0.04110917 -0.05392028 0.1229369 255 0 255
0.04202155 -0.05377199 0.1227634 255 0 255
0.0429331 -0.05362165 0.122587 255 0 255
0.04384376 -0.05346927 0.1224076 255 0 255
0.04500629 -0.05380892 0.123057 255 0 255
0.04591902 -0.05365179 0.1228708 255 0 255
0.04683084 -0.05349258 0.1226816 255 0 255
0.04774179 -0.05333131 0.1224895 255 0 255
0.04865179 -0.05316802 0.1222943 255 0 255
0.04956084 -0.05300265 0.1220962 255 0 255
0.05019334 -0.05234525 0.1210681 255 0 255
0.05109671 -0.05217649 0.1208648 255 0 255
0.05228218 -0.05249431 0.1214838 255 0 255
0.05290042 -0.05183288 0.1204494 255 0 255
0.05380082 -0.05165802 0.1202372 255 0 255
0.05499465 -0.05196753 0.1208447 255 0 255
0.05589676 -0.05178787 0.1206257 255 0 255
0.05679783 -0.05160616 0.1204037 255 0 255
0.05769785 -0.05142242 0.1201788 255 0 255
0.05859677 -0.05123666 0.1199509 255 0 255
0.05949464 -0.05104885 0.11972 255 0 255
0.0607085 -0.05134079 0.1203031 255 0 255
0.06224958 -0.05211001 0.1216972 255 0 255
0.06315532 -0.0519137 0.1214544 255 0 255
0.06405995 -0.05171534 0.1212087 255 0 255
0.06529547 -0.0519934 0.1217728 255 0 255
0.06620149 -0.0517901 0.1215201 255 0 255
0.06744582 -0.05206156 0.1220751 255 0 255
0.06835318 -0.05185331 0.1218153 255 0 255
0.06960628 -0.0521181 0.1223611 255 0 255
0.0705149 -0.05190486 0.1220942 255 0 255
0.07142226 -0.05168954 0.1218243 255 0 255
0.07232841 -0.05147216 0.1215513 255 0 255
0.07359499 -0.05172431 0.1220796 255 0 255
0.07486768 -0.05197256 0.1226026 255 0 255
0.07614641 -0.05221698 0.1231203 255 0 255
-0.1205385 -0.07451153 0.148599 255 0 255
-0.1227953 -0.07913094 0.1560733 255 0 255
-0.1213555 -0.0788593 0.1556417 255 0 255
-0.1202806 -0.07907461 0.1559978 255 0 255
-0.1184932 -0.07830413 0.1547606 255 0 255
-0.1174227 -0.07851303 0.1551074 255 0 255
-0.1160025 -0.07822637 0.1546534 255 0 255
-0.1152771 -0.07892343 0.1557904 255 0 255
-0.114202 -0.07912491 0.1561268 255 0 255
-0.1134626 -0.07981911 0.1572603 255 0 255
-0.1123809 -0.08001629 0.1575908 255 0 255
-0.1109682 -0.07971447 0.1571147 255 0 255
-0.1095615 -0.07940883 0.156633 255 0 255
-0.108483 -0.07959722 0.1569507 255 0 255
-0.1070848 -0.07928465 0.1564587 255 0 255
-0.105378 -0.07846922 0.1551536 255 0 255
-0.1043066 -0.07864828 0.1554576 255 0 255
-0.1029268 -0.07832451 0.1549487 255 0 255
-0.1015531 -0.07799707 0.1544342 255 0 255
-0.1004853 -0.07816756 0.1547258 255 0 255
-0.09941617 -0.07833558 0.1550139 255 0 255
-0.09805375 -0.07799839 0.1544851 255 0 255
-0.0969859 -0.07816092 0.1547652 255 0 255
-0.09563232 -0.07781713 0.1542265 255 0 255
-0.09456582 -0.07797424 0.1544989 255 0 255
-0.09349813 -0.0781289 0.1547678 255 0 255
-0.0921561 -0.07777553 0.1542148 255 0 255
-0.09108987 -0.07792477 0.1544759 255 0 255
-0.08975691 -0.07756496 0.1539132 255 0 255
-0.0886922 -0.07770879 0.1541665 255 0 255
-0.08788436 -0.07835779 0.1552383 255 0 255
-0.08706783 -0.07900536 0.1563085 255 0 255
-0.08599221 -0.07914285 0.1565532 255 0 255
-0.08516205 -0.07978697 0.157619 255 0 255
-0.08383776 -0.07941046 0.1570321 255 0 255
-0.08275898 -0.0795406 0.1572663 255 0 255
-0.08167914 -0.07966825 0.157497 255 0 255
-0.08059833 -0.07979346 0.1577243 255 0 255
-0.07951652 -0.07991619 0.157948 255 0 255
-0.07865727 -0.0805482 0.1589978 255 0 255
-0.07756965 -0.0806664 0.1592153 255 0 255
-0.0764811 -0.08078214 0.1594293 255 0 255
-0.07517959 -0.08038241 0.158808 255 0 255
-0.07388487 -0.07997941 0.1581817 255 0 255
-0.07320987 -0.08111446 0.1600502 255 0 255
-0.07191724 -0.08070614 0.1594162 255 0 255
-0.0710246 -0.08132359 0.1604466 255 0 255
-0.07012337 -0.08193929 0.1614748 255 0 255
-0.06921359 -0.08255318 0.1625008 255 0 255
-0.06829522 -0.08316527 0.1635245 255 0 255
-0.06736831 -0.08377549 0.164546 255 0 255
-0.06625561 -0.08386766 0.1647273 255 0 255
-0.06531545 -0.08447378 0.1657434 255 0 255
-0.06419732 -0.08456118 0.1659181 255 0 255
-0.06307842 -0.08464605 0.1660891 255 0 255
-0.06195878 -0.08472838 0.1662565 255 0 255
-0.06083844 -0.08480815 0.1664203 255 0 255
-0.05971736 -0.08488538 0.1665805 255 0 255
-0.05859559 -0.08496007 0.166737 255 0 255
-0.0576193 -0.08555067 0.1677325 255 0 255
-0.05663454 -0.08613919 0.1687253 255 0 255
-0.05550301 -0.0862067 0.168872 255 0 255
-0.05450527 -0.08679082 0.1698591 255 0 255
-0.05349911 -0.08737274 0.1708434 255 0 255
-0.05248455 -0.08795256 0.1718251 255 0 255
-0.05146157 -0.08853016 0.1728039 255 0 255
-0.05043022 -0.08910553 0.1737799 255 0 255
-0.04927563 -0.08915852 0.1739067 255 0 255
-0.04812049 -0.08920892 0.1740299 255 0 255
-0.04696485 -0.08925667 0.1741492 255 0 255
-0.04580872 -0.08930183 0.1742648 255 0 255
-0.04465209 -0.08934435 0.1743767 255 0 255
-0.043495 -0.08938428 0.1744849 255 0 255
-0.04233748 -0.08942156 0.1745893 255 0 255
-0.04126694 -0.08997738 0.1755389 255 0 255
-0.04010463 -0.09000955 0.1756361 255 0 255
-0.03910107 -0.09108181 0.1774289 255 0 255
-0.03808141 -0.09215176 0.179219 255 0 255
-0.03697398 -0.09269787 0.1801564 255 0 255
-0.03585832 -0.09324148 0.1810904 255 0 255
-0.03492599 -0.09534752 0.1845734 255 0 255
-0.03366235 -0.09484275 0.1837996 255 0 255
-0.03251823 -0.09537866 0.1847239 255 0 255
-0.03152207 -0.09747732 0.1881991 255 0 255
-0.03006124 -0.09487705 0.184007 255 0 255
0.0136781 -0.05923516 0.1279531 255 0 255
0.01649311 -0.06686264 0.1405963 255 0 255
0.01826449 -0.06985161 0.1455928 255 0 255
0.01941803 -0.07026608 0.1463429 255 0 255
0.02044211 -0.07016434 0.1462417 255 0 255
0.02132498 -0.06954753 0.1452901 255 0 255
0.02219948 -0.06892924 0.1443361 255 0 255
0.02291714 -0.06779752 0.1425335 255 0 255
0.02361866 -0.06666525 0.1407293 255 0 255
0.02430397 -0.06553241 0.1389237 255 0 255
0.02497314 -0.06439911 0.1371166 255 0 255
0.02579018 -0.06377556 0.1361525 255 0 255
0.02643085 -0.06264099 0.1343424 255 0 255
0.02722722 -0.06201535 0.1333744 255 0 255
0.02766371 -0.06037091 0.1307188 255 0 255
0.02843548 -0.05974382 0.1297476 255 0 255
0.02938233 -0.05962336 0.1296161 255 0 255
0.03014117 -0.05899348 0.1286403 255 0 255
0.03089155 -0.0583625 0.1276627 255 0 255
0.03202378 -0.05874295 0.128363 255 0 255
0.03276505 -0.05810878 0.1273804 255 0 255
0.03329497 -0.05696836 0.125557 255 0 255
0.03422222 -0.05683731 0.1254095 255 0 255
0.0351487 -0.05670416 0.1252589 255 0 255
0.03564556 -0.05556189 0.1234314 255 0 255
0.03634456 -0.05492276 0.1224398 255 0 255
0.03725718 -0.05478513 0.1222821 255 0 255
0.03816907 -0.05464543 0.1221215 255 0 255
0.03908015 -0.05450368 0.1219579 255 0 255
0.04022411 -0.05486046 0.1226248 255 0 255
0.04113742 -0.05471398 0.1224545 255 0 255
0.04229121 -0.05506479 0.1231133 255 0 255
0.04320667 -0.05491358 0.1229363 255 0 255
0.04412127 -0.05476029 0.1227563 255 0 255
0.04503497 -0.05460494 0.1225733 255 0 255
0.04594781 -0.05444753 0.1223873 255 0 255
0.04659925 -0.05379195 0.12137 255 0 255
0.04750645 -0.05363109 0.1211789 255 0 255
0.04868081 -0.05396292 0.1218113 255 0 255
0.04958994 -0.0537973 0.1216134 255 0 255
0.05049811 -0.05362961 0.1214124 255 0 255
0.05140533 -0.05345985 0.1212085 255 0 255
0.05231154 -0.05328805 0.1210016 255 0 255
0.05292975 -0.05262303 0.1199694 255 0 255
0.05383021 -0.05244788 0.1197574 255 0 255
0.05472966 -0.0522707 0.1195425 255 0 255
0.05562805 -0.05209147 0.1193246 255 0 255
0.05652541 -0.05191022 0.1191038 255 0 255
0.05772769 -0.05221435 0.1196978 255 0 255
0.0586267 -0.05202825 0.1194701 255 0 255
0.05983808 -0.05232599 0.1200553 255 0 255
0.06105591 -0.0526201 0.1206357 255 0 255
0.06228008 -0.05291058 0.1212111 255 0 255
0.06351064 -0.05319737 0.1217815 255 0 255
0.06409063 -0.0525152 0.120723 255 0 255
0.06499419 -0.05231443 0.1204745 255 0 255
0.06589657 -0.05211161 0.120223 255 0 255
0.06679778 -0.05190676 0.1199686 255 0 255
0.06804112 -0.05217912 0.1205188 255 0 255
0.06929068 -0.05244769 0.121064 255 0 255
0.0701957 -0.05223495 0.1207984 255 0 255
0.07145394 -0.05249679 0.1213343 255 0 255
0.07236009 -0.05227905 0.1210616 255 0 255
0.07398877 -0.05300895 0.1223904 255 0 255
0.0748998 -0.05278528 0.1221094 255 0 255
0.07580951 -0.05255954 0.1218254 255 0 255
-0.1241797 -0.07866742 0.1531769 255 0 255
-0.1223729 -0.07790586 0.151966 255 0 255
-0.1227781 -0.08009534 0.1554819 255 0 255
-0.1209754 -0.07932734 0.1542616 255 0 255
-0.1199041 -0.07954234 0.1546162 255 0 255
-0.1184759 -0.07925989 0.1541745 255 0 255
-0.1174052 -0.07946923 0.154521 255 0 255
-0.115985 -0.07917968 0.1540687 255 0 255
-0.1152594 -0.07988042 0.1552035 255 0 255
-0.1141843 -0.08008228 0.1555395 255 0 255
-0.1127707 -0.07978321 0.1550734 255 0 255
-0.1116963 -0.07997943 0.1554013 255 0 255
-0.110291 -0.07967331 0.1549248 255 0 255
-0.1092176 -0.07986394 0.1552446 255 0 255
-0.1081427 -0.08005206 0.155561 255 0 255
-0.1067481 -0.07973591 0.1550697 255 0 255
-0.1053597 -0.07941601 0.1545727 255 0 255
-0.1042882 -0.07959546 0.1548766 255 0 255
-0.1029083 -0.07926871 0.1543694 255 0 255
-0.1015346 -0.07893832 0.1538568 255 0 255
-0.1004666 -0.07910913 0.1541481 255 0 255
-0.09910162 -0.07877202 0.1536255 255 0 255
-0.0980349 -0.07893734 0.153909 255 0 255
-0.09667876 -0.07859356 0.1533764 255 0 255
-0.09561335 -0.07875343 0.153652 255 0 255
-0.09454676 -0.07891084 0.1539242 255 0 255
-0.09347895 -0.07906578 0.1541928 255 0 255
-0.09213687 -0.07870942 0.1536417 255 0 255
-0.09133983 -0.07936836 0.1547199 255 0 255
-0.08973751 -0.07849614 0.1533418 255 0 255
-0.08893443 -0.07915067 0.1544139 255 0 255
-0.08786469 -0.07929288 0.1546645 255 0 255
-0.08679385 -0.07943261 0.1549115 255 0 255
-0.08597223 -0.08008184 0.1559769 255 0 255
-0.08514189 -0.08072955 0.1570405 255 0 255
-0.08381758 -0.08035003 0.1564555 255 0 255
-0.08273868 -0.0804804 0.1566895 255 0 255
-0.08165875 -0.08060831 0.15692 255 0 255
-0.08057784 -0.08073379 0.1571471 255 0 255
-0.07949587 -0.08085679 0.1573707 255 0 255
-0.07841298 -0.0809773 0.1575908 255 0 255
-0.07732911 -0.08109535 0.1578074 255 0 255
-0.07646005 -0.08172684 0.1588495 255 0 255
-0.07515853 -0.081324 0.1582301 255 0 255
-0.07407185 -0.08143463 0.1584362 255 0 255
-0.07318851 -0.08205986 0.1594699 255 0 255
