ply
format ascii 1.0
Comment Generated by Floating Hands
element vertex 1144
property double x
property double y
property double z
property uchar red
property uchar green
property uchar blue
end_header
0.03359009 -0.1391157 0.2584444 255 0 255
0.03523789 -0.1394209 0.2590849 255 0 255
0.03669819 -0.1391776 0.2589031 255 0 255
0.03815744 -0.1389311 0.2587166 255 0 255
0.03961566 -0.1386814 0.2585252 255 0 255
0.04127859 -0.1389703 0.2591439 255 0 255
0.04252873 -0.1381722 0.2581281 255 0 255
0.04419715 -0.1384533 0.258736 255 0 255
0.04565471 -0.1381899 0.2585249 255 0 255
0.04733234 -0.1384624 0.2591215 255 0 255
0.04879138 -0.1381919 0.2589001 255 0 255
0.05047812 -0.1384558 0.2594854 255 0 255
0.05193857 -0.138178 0.2592537 255 0 255
0.05387098 -0.1389694 0.2606377 255 0 255
0.05557699 -0.1392192 0.2612046 255 0 255
0.05704506 -0.1389294 0.2609566 255 0 255
0.05851179 -0.1386364 0.2607036 255 0 255
0.05997717 -0.1383401 0.2604457 255 0 255
0.0614412 -0.1380406 0.2601831 255 0 255
0.06264422 -0.1372062 0.2591093 255 0 255
0.06489184 -0.1384934 0.2612541 255 0 255
0.06716085 -0.1397726 0.2633897 255 0 255
0.06983922 -0.1386078 0.2620099 255 0 255
-0.0143844 -0.1509125 0.2673137 255 0 255
-0.01287364 -0.1507783 0.2672962 255 0 255
-0.01123211 -0.1517685 0.2689204 255 0 255
-0.009575238 -0.1527538 0.2705394 255 0 255
-0.00790303 -0.1537342 0.272153 255 0 255
-0.006370096 -0.1535843 0.2721153 255 0 255
-0.005000006 -0.1523062 0.2704267 255 0 255
-0.003646114 -0.1510263 0.2687335 255 0 255
-0.0022193 -0.1503062 0.2678586 255 0 255
-0.0008007949 -0.1495835 0.2669791 255 0 255
0.0005123545 -0.1482976 0.2652725 255 0 255
0.002011073 -0.1481306 0.2652062 255 0 255
0.003509226 -0.1479602 0.2651348 255 0 255
0.005006822 -0.1477864 0.2650586 255 0 255
0.006503867 -0.1476093 0.2649775 255 0 255
0.008116786 -0.1479872 0.2657128 255 0 255
0.009496002 -0.147245 0.2648005 255 0 255
0.01099114 -0.1470578 0.2647047 255 0 255
0.012229 -0.1457536 0.2629628 255 0 255
0.01371494 -0.1455608 0.2628578 255 0 255
0.01520013 -0.1453646 0.2627478 255 0 255
0.01654457 -0.1446099 0.2618133 255 0 255
0.01788047 -0.1438528 0.2608745 255 0 255
0.01920774 -0.1430935 0.2599315 255 0 255
0.02052645 -0.142332 0.2589843 255 0 255
0.02199217 -0.1421216 0.2588515 255 0 255
0.02345704 -0.1419079 0.2587138 255 0 255
0.02492103 -0.1416909 0.2585713 255 0 255
0.02638417 -0.1414707 0.258424 255 0 255
0.02784641 -0.1412472 0.2582719 255 0 255
0.02913262 -0.1404702 0.2572985 255 0 255
0.03058913 -0.1402408 0.2571372 255 0 255
0.0322275 -0.1405572 0.2577867 255 0 255
0.03349919 -0.1397722 0.2568002 255 0 255
0.03495271 -0.1395331 0.2566246 255 0 255
0.03659972 -0.1398379 0.2572582 255 0 255
0.03805504 -0.1395916 0.2570725 255 0 255
0.03910492 -0.1382505 0.2552556 255 0 255
0.04096251 -0.1390894 0.2566866 255 0 255
0.04241458 -0.1388334 0.2564864 255 0 255
0.04386554 -0.1385742 0.2562815 255 0 255
0.04531536 -0.1383118 0.2560717 255 0 255
0.04720699 -0.1391308 0.2574781 255 0 255
0.0486621 -0.1388605 0.2572576 255 0 255
0.05034525 -0.1391279 0.2578416 255 0 255
0.05180178 -0.1388504 0.2576109 255 0 255
0.05373079 -0.1396485 0.2589914 255 0 255
0.05519246 -0.139363 0.2587498 255 0 255
0.05665284 -0.1390743 0.2585033 255 0 255
0.05811187 -0.1387823 0.2582521 255 0 255
0.05956953 -0.1384871 0.2579959 255 0 255
0.06102588 -0.1381886 0.257735 255 0 255
0.06222092 -0.1373521 0.2566651 255 0 255
0.06446161 -0.13865 0.2588052 255 0 255
0.06592132 -0.1383402 0.2585282 255 0 255
0.06602319 -0.1353653 0.2542372 255 0 255
0.06718584 -0.1345216 0.2531532 255 0 255
-0.01086925 -0.1552799 0.2713415 255 0 255
-0.009405295 -0.15457 0.270493 255 0 255
-0.007802274 -0.1549899 0.2712814 255 0 255
-0.006114251 -0.1559716 0.2728854 255 0 255
-0.004818411 -0.1541205 0.2703805 255 0 255
-0.003546566 -0.1522684 0.2678714 255 0 255
-0.002030696 -0.1521095 0.2678193 255 0 255
-0.0006085896 -0.151383 0.266942 255 0 255
0.0008051803 -0.1506538 0.2660601 255 0 255
0.002210559 -0.1499222 0.2651736 255 0 255
0.003712596 -0.149751 0.2651023 255 0 255
0.005214067 -0.1495765 0.2650261 255 0 255
0.006602108 -0.1488366 0.2641256 255 0 255
0.008098419 -0.1486559 0.2640398 255 0 255
0.009473463 -0.1479107 0.2631302 255 0 255
0.0109646 -0.1477237 0.2630349 255 0 255
0.01219798 -0.1464132 0.2612979 255 0 255
0.01367993 -0.1462206 0.2611933 255 0 255
0.01502485 -0.1454655 0.2602661 255 0 255
0.01650143 -0.1452668 0.2601521 255 0 255
0.01797727 -0.1450648 0.2600333 255 0 255
0.01945235 -0.1448595 0.2599097 255 0 255
0.02077467 -0.1440939 0.2589646 255 0 255
0.02224422 -0.1438826 0.2588317 255 0 255
0.02355315 -0.1431122 0.2578781 255 0 255
0.02485344 -0.1423396 0.2569204 255 0 255
0.02631264 -0.1421196 0.2567737 255 0 255
0.02777092 -0.1418963 0.2566223 255 0 255
0.02922832 -0.1416698 0.256466 255 0 255
0.03068477 -0.14144 0.256305 255 0 255
0.03214022 -0.1412069 0.2561392 255 0 255
0.03340772 -0.1404191 0.2551557 255 0 255
0.03504819 -0.1407311 0.2557932 255 0 255
0.03669538 -0.1410387 0.2564249 255 0 255
0.03834927 -0.1413417 0.257051 255 0 255
0.03940244 -0.1399931 0.2552383 255 0 255
0.04126436 -0.1408373 0.2566646 255 0 255
0.04272025 -0.1405802 0.2564642 255 0 255
0.04438904 -0.1408668 0.2570684 255 0 255
0.0456286 -0.1400563 0.2560491 255 0 255
0.04730276 -0.140335 0.2566425 255 0 255
0.04898348 -0.1406091 0.2572301 255 0 255
0.0504412 -0.1403344 0.2570045 255 0 255
0.05189764 -0.1400564 0.2567741 255 0 255
0.05359002 -0.1403178 0.2573448 255 0 255
0.05528872 -0.1405745 0.2579093 255 0 255
0.05650421 -0.1397441 0.2568586 255 0 255
0.058208 -0.1399928 0.2574123 255 0 255
0.05966565 -0.1396971 0.2571565 255 0 255
0.06086558 -0.1388593 0.2560934 255 0 255
0.0620565 -0.1380199 0.2550268 255 0 255
0.0642941 -0.1393276 0.2571613 255 0 255
0.06601764 -0.1395544 0.2576858 255 0 255
0.06666126 -0.1376343 0.2550055 255 0 255
0.06975855 -0.1405283 0.259515 255 0 255
0.06927124 -0.1364685 0.2536346 255 0 255
-0.007553604 -0.1573811 0.2720421 255 0 255
-0.005935045 -0.1577991 0.2728231 255 0 255
-0.004636107 -0.1559377 0.270325 255 0 255
-0.00327549 -0.1546437 0.268641 255 0 255
-0.00184143 -0.1539158 0.2677706 255 0 255
-0.0003221272 -0.1537529 0.2677137 255 0 255
0.001001675 -0.1524523 0.266016 255 0 255
0.00251209 -0.1522834 0.2659494 255 0 255
0.003811311 -0.1509787 0.2642429 255 0 255
0.005312719 -0.1508039 0.2641669 255 0 255
0.006587287 -0.1494953 0.2624518 255 0 255
0.008079633 -0.1493147 0.2623664 255 0 255
0.009450441 -0.1485664 0.2614595 255 0 255
0.01106251 -0.1489435 0.262181 255 0 255
0.01229531 -0.1476263 0.2604488 255 0 255
0.01377723 -0.1474333 0.2603444 255 0 255
0.01525845 -0.1472371 0.2602352 255 0 255
0.01687943 -0.1475993 0.2609364 255 0 255
0.01836301 -0.1473959 0.2608172 255 0 255
0.01984583 -0.1471892 0.2606932 255 0 255
0.02117564 -0.146419 0.25975 255 0 255
0.0224968 -0.1456466 0.2588026 255 0 255
0.02380934 -0.144872 0.2578511 255 0 255
0.0251132 -0.1440953 0.2568955 255 0 255
0.02657622 -0.1438744 0.2567488 255 0 255
0.02786664 -0.1430929 0.2557848 255 0 255
0.02914839 -0.1423094 0.2548168 255 0 255
0.03060084 -0.1420798 0.2546566 255 0 255
0.03205236 -0.141847 0.2544914 255 0 255
0.0333157 -0.1410562 0.2535109 255 0 255
0.0349525 -0.1413717 0.2541469 255 0 255
0.036596 -0.1416826 0.2547772 255 0 255
0.0382462 -0.1419891 0.2554018 255 0 255
0.03970036 -0.1417387 0.2552118 255 0 255
0.04135999 -0.1420367 0.2558253 255 0 255
0.04302627 -0.14233 0.2564328 255 0 255
0.04427053 -0.1415184 0.2554204 255 0 255
0.04572407 -0.1412544 0.2552107 255 0 255
0.04739846 -0.1415359 0.2558022 255 0 255
0.04862759 -0.1407167 0.254777 255 0 255
0.05030725 -0.1409902 0.2553578 255 0 255
0.05175985 -0.1407125 0.2551284 255 0 255
0.05344853 -0.1409774 0.2556977 255 0 255
0.05538483 -0.1417825 0.257064 255 0 255
0.05684505 -0.1414928 0.2568183 255 0 255
0.05805508 -0.1406564 0.255766 255 0 255
0.0595088 -0.1403609 0.2555113 255 0 255
0.06070466 -0.1395203 0.2544514 255 0 255
0.06215179 -0.1392192 0.2541877 255 0 255
0.0641259 -0.1399955 0.2555171 255 0 255
0.0661138 -0.1407654 0.2568387 255 0 255
0.06730012 -0.1399126 0.2557603 255 0 255
0.06930414 -0.1406718 0.2570686 255 0 255
-0.003003194 -0.1570283 0.2693966 255 0 255
-0.001381894 -0.1574384 0.2701603 255 0 255
0.0001530487 -0.1572735 0.270103 255 0 255
0.001296548 -0.154824 0.2667781 255 0 255
0.002713102 -0.1540841 0.265896 255 0 255
0.004121223 -0.1533417 0.2650093 255 0 255
0.005520959 -0.1525968 0.264118 255 0 255
0.006912221 -0.1518494 0.2632222 255 0 255
0.008412372 -0.1516677 0.2631366 255 0 255
0.00991193 -0.1514825 0.2630461 255 0 255
0.01141077 -0.151294 0.2629507 255 0 255
0.01265086 -0.149969 0.2612226 255 0 255
0.01414053 -0.1497748 0.261118 255 0 255
0.01562945 -0.1495772 0.2610084 255 0 255
0.01711768 -0.1493762 0.260894 255 0 255
0.01860511 -0.1491719 0.2607748 255 0 255
0.01994318 -0.1484004 0.2598382 255 0 255
0.02127262 -0.1476267 0.2588975 255 0 255
0.02259347 -0.1468508 0.2579527 255 0 255
0.02390572 -0.1460727 0.2570037 255 0 255
0.02520925 -0.1452924 0.2560506 255 0 255
0.02667219 -0.1450711 0.2559041 255 0 255
0.02813426 -0.1448465 0.2557527 255 0 255
0.02924371 -0.143499 0.2539772 255 0 255
0.03069618 -0.1432691 0.2538171 255 0 255
0.03214763 -0.1430359 0.2536523 255 0 255
0.0334106 -0.1422415 0.2526743 255 0 255
0.03485623 -0.1420025 0.2525004 255 0 255
0.03669128 -0.1428736 0.2539367 255 0 255
0.03814258 -0.1426267 0.2537523 255 0 255
0.03959281 -0.1423767 0.2535632 255 0 255
0.04124875 -0.142678 0.2541752 255 0 255
0.04270065 -0.1424208 0.253976 255 0 255
0.04415144 -0.1421603 0.253772 255 0 255
0.04581945 -0.1424492 0.2543675 255 0 255
0.04749397 -0.1427334 0.2549571 255 0 255
0.04872286 -0.1419106 0.2539345 255 0 255
0.05017273 -0.1416363 0.2537108 255 0 255
0.0516214 -0.141359 0.2534823 255 0 255
0.05306877 -0.1410783 0.253249 255 0 255
0.0547564 -0.1413426 0.2538117 255 0 255
0.05645027 -0.1416021 0.2543683 255 0 255
0.05790148 -0.1413102 0.2541194 255 0 255
0.05960429 -0.141561 0.2546645 255 0 255
0.06079978 -0.1407167 0.2536072 255 0 255
0.06198628 -0.1398707 0.2525465 255 0 255
0.0636926 -0.1401102 0.2530758 255 0 255
0.06540503 -0.1403448 0.2535988 255 0 255
0.06657963 -0.1394908 0.2525252 255 0 255
0.06829685 -0.1397173 0.2530372 255 0 255
0.06974051 -0.1393987 0.2527492 255 0 255
-0.001280606 -0.1586857 0.2692724 255 0 255
0.0003482491 -0.1590944 0.2700287 255 0 255
0.001396612 -0.156058 0.2658996 255 0 255
0.00281285 -0.1553147 0.26502 255 0 255
0.004220638 -0.1545688 0.2641357 255 0 255
0.005729771 -0.1543926 0.2640597 255 0 255
0.007124675 -0.1536413 0.2631662 255 0 255
0.008511087 -0.1528875 0.2622682 255 0 255
0.009889066 -0.1521314 0.2613658 255 0 255
0.01138391 -0.151943 0.2612709 255 0 255
0.01249018 -0.1500422 0.2587362 255 0 255
0.01397196 -0.1498487 0.2586323 255 0 255
0.01545303 -0.1496518 0.2585236 255 0 255
0.01693334 -0.1494516 0.25841 255 0 255
0.0184129 -0.1492481 0.2582916 255 0 255
0.02004053 -0.1496083 0.2589785 255 0 255
0.02121694 -0.1482645 0.2572305 255 0 255
0.02269022 -0.1480516 0.2570979 255 0 255
0.02400209 -0.1472699 0.2561515 255 0 255
0.02530532 -0.1464862 0.2552009 255 0 255
0.02659988 -0.1457003 0.2542464 255 0 255
0.02823017 -0.1460395 0.2549036 255 0 255
0.02933905 -0.1446853 0.2531328 255 0 255
0.03061144 -0.1438926 0.252166 255 0 255
0.03205891 -0.1436597 0.2520018 255 0 255
0.03350544 -0.1434235 0.251833 255 0 255
0.03495101 -0.1431841 0.2516594 255 0 255
0.0367865 -0.1440611 0.2530915 255 0 255
0.03823771 -0.1438139 0.2529074 255 0 255
0.03968786 -0.1435634 0.2527186 255 0 255
0.04155109 -0.1444253 0.2541323 255 0 255
0.04279579 -0.1436098 0.2531297 255 0 255
0.04424649 -0.1433489 0.252926 255 0 255
0.0459147 -0.1436405 0.2535197 255 0 255
0.04736691 -0.1433724 0.2533059 255 0 255
0.04859157 -0.1425467 0.2522863 255 0 255
0.05003754 -0.1422728 0.2520635 255 0 255
0.05124824 -0.1414428 0.2510363 255 0 255
0.05316363 -0.1422673 0.2524028 255 0 255
0.05460968 -0.141983 0.2521651 255 0 255
0.05629998 -0.142246 0.2527205 255 0 255
0.0574979 -0.1414046 0.2516754 255 0 255
0.05919319 -0.1416595 0.2522199 255 0 255
0.06038076 -0.1408132 0.2511666 255 0 255
0.06129837 -0.1394178 0.2493147 255 0 255
0.06246405 -0.138569 0.2482554 255 0 255
0.06415765 -0.1388103 0.2487802 255 0 255
0.0650406 -0.1374118 0.2469198 255 0 255
0.06645909 -0.1371017 0.2466422 255 0 255
0.06787604 -0.1367884 0.2463599 255 0 255
0.07042632 -0.1386419 0.2492357 255 0 255
0.071568 -0.1377772 0.2481509 255 0 255
0.07211811 -0.1358296 0.2454847 255 0 255
0.07529928 -0.1387429 0.2499136 255 0 255
-0.001088906 -0.1605069 0.269191 255 0 255
0.001791539 -0.1590185 0.2674495 255 0 255
0.003014841 -0.1571179 0.26495 255 0 255
0.004532333 -0.1569439 0.2648788 255 0 255
0.005939225 -0.1561912 0.2639921 255 0 255
0.007223785 -0.1548611 0.2622905 255 0 255
0.008609848 -0.1541039 0.261395 255 0 255
0.01010922 -0.1539181 0.2613049 255 0 255
0.01135662 -0.1525823 0.2595908 255 0 255
0.01245814 -0.1506721 0.2570634 255 0 255
0.01393593 -0.1504788 0.2569601 255 0 255
0.01541298 -0.1502821 0.2568519 255 0 255
0.01688933 -0.1500821 0.2567388 255 0 255
0.01836492 -0.1498788 0.256621 255 0 255
0.01998883 -0.1502424 0.2573061 255 0 255
0.02116073 -0.1488925 0.2555633 255 0 255
0.0227869 -0.1492489 0.2562385 255 0 255
0.02409848 -0.1484638 0.2552945 255 0 255
0.02556605 -0.1482445 0.255153 255 0 255
0.02686416 -0.1474545 0.2542005 255 0 255
0.02849853 -0.1477959 0.2548554 255 0 255
0.02978702 -0.1470005 0.2538942 255 0 255
0.03106683 -0.1462031 0.252929 255 0 255
0.03233794 -0.1454036 0.25196 255 0 255
0.03378826 -0.1451664 0.2517909 255 0 255
0.03523758 -0.144926 0.2516172 255 0 255
0.03688162 -0.1452452 0.2522416 255 0 255
0.03833275 -0.1449976 0.2520578 255 0 255
0.03998629 -0.1453084 0.2526712 255 0 255
0.04164648 -0.1456145 0.2532788 255 0 255
0.04267969 -0.1442352 0.2514779 255 0 255
0.04412645 -0.1439745 0.251275 255 0 255
0.04579096 -0.1442695 0.2518673 255 0 255
0.04723923 -0.1440017 0.2516544 255 0 255
0.0482331 -0.1426157 0.2498393 255 0 255
0.04967127 -0.1423428 0.2496181 255 0 255
0.05110822 -0.1420667 0.2493921 255 0 255
0.05278208 -0.1423426 0.2499582 255 0 255
0.05422038 -0.1420592 0.2497221 255 0 255
0.05590318 -0.1423264 0.2502768 255 0 255
0.05734273 -0.1420359 0.2500306 255 0 255
0.05903436 -0.1422943 0.2505739 255 0 255
0.0602177 -0.1414451 0.2495238 255 0 255
0.06139208 -0.1405943 0.2484704 255 0 255
0.06229256 -0.1391921 0.2466215 255 0 255
0.06398249 -0.1394368 0.2471452 255 0 255
0.06540607 -0.1391286 0.2468719 255 0 255
0.06655192 -0.1382699 0.2458039 255 0 255
0.06824899 -0.1385026 0.2463112 255 0 255
0.06966824 -0.1381848 0.2460238 255 0 255
0.07108594 -0.1378638 0.2457317 255 0 255
0.07162759 -0.1359079 0.2430741 255 0 255
0.003217471 -0.158924 0.2648707 255 0 255
0.004738789 -0.1587493 0.2647995 255 0 255
0.006149231 -0.1579926 0.2639151 255 0 255
0.007551312 -0.1572335 0.2630261 255 0 255
0.008826775 -0.1558944 0.2613249 255 0 255
0.010208 -0.1551308 0.2604272 255 0 255
0.01158071 -0.1543648 0.2595252 255 0 255
0.01268529 -0.1524443 0.2570046 255 0 255
0.01416688 -0.1522502 0.2569012 255 0 255
0.01551015 -0.1514776 0.2559865 255 0 255
0.01698638 -0.1512774 0.2558737 255 0 255
0.01831643 -0.1504998 0.2549502 255 0 255
0.01993661 -0.1508667 0.2556336 255 0 255
0.02125729 -0.1500836 0.2547011 255 0 255
0.02272649 -0.1498706 0.2545694 255 0 255
0.02419483 -0.1496542 0.2544329 255 0 255
0.02566233 -0.1494345 0.2542916 255 0 255
0.02712895 -0.1492115 0.2541455 255 0 255
0.02859464 -0.1489852 0.2539945 255 0 255
0.02988284 -0.1481863 0.2530359 255 0 255
0.0309818 -0.1468167 0.2512708 255 0 255
0.03224865 -0.1460143 0.2503047 255 0 255
0.03369502 -0.1457773 0.2501365 255 0 255
0.03514037 -0.1455371 0.2499634 255 0 255
0.03658475 -0.1452937 0.2497856 255 0 255
0.03802802 -0.145047 0.2496032 255 0 255
0.03947024 -0.144797 0.2494159 255 0 255
0.04111903 -0.145108 0.2500231 255 0 255
0.04214006 -0.1437239 0.2482286 255 0 255
0.04357515 -0.143465 0.2480277 255 0 255
0.04566655 -0.1448889 0.2502148 255 0 255
0.04688789 -0.14406 0.2492057 255 0 255
0.04832721 -0.1437899 0.2489896 255 0 255
0.04999602 -0.1440764 0.2495644 255 0 255
0.05120214 -0.14324 0.2485429 255 0 255
0.05263778 -0.1429602 0.2483125 255 0 255
0.05407216 -0.1426771 0.2480774 255 0 255
0.05550524 -0.1423909 0.2478376 255 0 255
0.05668709 -0.1415453 0.2468003 255 0 255
0.05836742 -0.1418087 0.2473437 255 0 255
0.05953898 -0.1409583 0.2462983 255 0 255
0.06070156 -0.1401063 0.2452496 255 0 255
0.06132481 -0.1381468 0.2426177 255 0 255
0.06299967 -0.1383975 0.2431424 255 0 255
0.06440799 -0.1380921 0.2428724 255 0 255
0.06581483 -0.1377835 0.2425978 255 0 255
0.06693987 -0.1369221 0.2415314 255 0 255
0.06919257 -0.1382542 0.2436069 255 0 255
0.0703146 -0.1373865 0.2425313 255 0 255
0.07171935 -0.1370644 0.2422372 255 0 255
0.07312262 -0.1367392 0.2419386 255 0 255
0.003626077 -0.1618979 0.2663945 255 0 255
0.005052466 -0.1611395 0.2655168 255 0 255
0.006359922 -0.1597968 0.2638286 255 0 255
0.007765511 -0.1590338 0.262942 255 0 255
0.009162689 -0.1582682 0.2620508 255 0 255
0.01042909 -0.15692 0.26035 255 0 255
0.01167924 -0.1555704 0.2586452 255 0 255
0.01304309 -0.1547986 0.2577413 255 0 255
0.01426445 -0.1534457 0.2560286 255 0 255
0.01574524 -0.1532479 0.2559206 255 0 255
0.01708348 -0.1524691 0.2550038 255 0 255
0.01841321 -0.1516881 0.2540829 255 0 255
0.01988393 -0.1514813 0.253961 255 0 255
0.02135387 -0.1512713 0.2538343 255 0 255
0.02266552 -0.1504824 0.2529003 255 0 255
0.0242912 -0.1508411 0.2535666 255 0 255
0.0257586 -0.1506211 0.2534255 255 0 255
0.02705603 -0.149824 0.2524782 255 0 255
0.02869072 -0.1501711 0.253129 255 0 255
0.02997858 -0.1493686 0.252173 255 0 255
0.03125767 -0.1485642 0.251213 255 0 255
0.03252807 -0.1477576 0.250249 255 0 255
0.0339782 -0.1475197 0.2500806 255 0 255
0.03523497 -0.1467085 0.2491085 255 0 255
0.03667923 -0.1464647 0.248931 255 0 255
0.03792233 -0.145649 0.2479509 255 0 255
0.03956458 -0.1459672 0.2485619 255 0 255
0.0407978 -0.1451463 0.2475733 255 0 255
0.04202222 -0.1443236 0.2465811 255 0 255
0.04345332 -0.1440649 0.246381 255 0 255
0.04532215 -0.1449333 0.2477668 255 0 255
0.0467587 -0.1446667 0.2475563 255 0 255
0.04842118 -0.1449607 0.2481351 255 0 255
0.04985918 -0.1446869 0.2479145 255 0 255
0.05129595 -0.1444099 0.2476892 255 0 255
0.05249283 -0.1435681 0.2466668 255 0 255
0.05392325 -0.1432853 0.2464326 255 0 255
0.05510604 -0.1424394 0.2454027 255 0 255
0.0565301 -0.142151 0.2451598 255 0 255
0.0579528 -0.1418594 0.2449122 255 0 255
0.05911638 -0.141007 0.2438708 255 0 255
0.06000936 -0.1395961 0.2420378 255 0 255
0.06088573 -0.1381853 0.2402029 255 0 255
0.06201464 -0.1373298 0.2391531 255 0 255
0.06368065 -0.1375816 0.2396727 255 0 255
0.065076 -0.137275 0.2394006 255 0 255
0.06675058 -0.1375179 0.2399087 255 0 255
0.06900011 -0.1388597 0.2419785 255 0 255
0.07040628 -0.1385402 0.2416894 255 0 255
0.07181092 -0.1382176 0.2413958 255 0 255
0.07350981 -0.138441 0.2418791 255 0 255
0.07491515 -0.1381112 0.2415753 255 0 255
0.07692563 -0.1388731 0.2428267 255 0 255
0.003727573 -0.16313 0.2654876 255 0 255
0.005260436 -0.1629534 0.2654163 255 0 255
0.006571169 -0.1616037 0.2637327 255 0 255
0.007980349 -0.1608368 0.2628484 255 0 255
0.009262461 -0.1594835 0.2611564 255 0 255
0.01052826 -0.1581287 0.2594604 255 0 255
0.01177777 -0.1567725 0.2577605 255 0 255
0.01301094 -0.1554149 0.2560566 255 0 255
0.01436201 -0.1546378 0.2551512 255 0 255
0.01570454 -0.1538583 0.2542416 255 0 255
0.01703853 -0.1530766 0.2533277 255 0 255
0.018364 -0.1522927 0.2524096 255 0 255
0.01998057 -0.1526658 0.2530892 255 0 255
0.02145042 -0.1524554 0.2529628 255 0 255
0.02276174 -0.1516631 0.2520313 255 0 255
0.02438759 -0.1520246 0.2526956 255 0 255
0.02585486 -0.1518042 0.2525548 255 0 255
0.02698259 -0.1504269 0.2508109 255 0 255
0.02844033 -0.1502011 0.2506613 255 0 255
0.02989714 -0.1499719 0.250507 255 0 255
0.03099104 -0.1485896 0.2487521 255 0 255
0.03243818 -0.1483552 0.2485891 255 0 255
0.03388438 -0.1481175 0.2484214 255 0 255
0.03532953 -0.1478765 0.2482489 255 0 255
0.03657715 -0.1470598 0.2472757 255 0 255
0.03781605 -0.1462413 0.2462986 255 0 255
0.03925036 -0.1459918 0.246113 255 0 255
0.04047549 -0.1451688 0.2451281 255 0 255
0.04169184 -0.1443439 0.2441395 255 0 255
0.04311509 -0.1440862 0.2439409 255 0 255
0.04497666 -0.1449618 0.2453235 255 0 255
0.04618185 -0.1441287 0.244322 255 0 255
0.04806028 -0.1449943 0.2456924 255 0 255
0.04949049 -0.1447216 0.2454733 255 0 255
0.05091952 -0.1444456 0.2452495 255 0 255
0.05210827 -0.1436017 0.244231 255 0 255
0.05353099 -0.1433201 0.2439984 255 0 255
0.05421269 -0.1413459 0.2413949 255 0 255
0.05562127 -0.1410601 0.2411549 255 0 255
0.05702858 -0.1407712 0.2409103 255 0 255
0.05817652 -0.1399184 0.2398743 255 0 255
0.05931549 -0.1390639 0.2388351 255 0 255
0.06044545 -0.138208 0.2377926 255 0 255
0.06183589 -0.1379088 0.2375316 255 0 255
0.06322496 -0.1376065 0.237266 255 0 255
0.06488967 -0.1378577 0.237779 255 0 255
0.06656057 -0.1381042 0.2382859 255 0 255
0.06880692 -0.1394556 0.24035 255 0 255
0.07049764 -0.1396905 0.240843 255 0 255
0.0724867 -0.1404738 0.24211 255 0 255
0.07448933 -0.1412504 0.243369 255 0 255
0.07590586 -0.1409173 0.2430632 255 0 255
0.07762446 -0.1411316 0.2435303 255 0 255
0.004345125 -0.1673027 0.2685841 255 0 255
0.006783059 -0.1634133 0.2636273 255 0 255
0.008195805 -0.1626424 0.2627453 255 0 255
0.009600025 -0.1618691 0.2618589 255 0 255
0.01075028 -0.1599203 0.2593667 255 0 255
0.01200306 -0.158557 0.2576714 255 0 255
0.01323951 -0.1571923 0.2559722 255 0 255
0.01472864 -0.1569962 0.2558689 255 0 255
0.01594025 -0.1556278 0.2541617 255 0 255
0.01727777 -0.1548421 0.25325 255 0 255
0.01860676 -0.1540542 0.2523342 255 0 255
0.02007724 -0.1538468 0.2522128 255 0 255
0.02154696 -0.153636 0.2520866 255 0 255
0.02285797 -0.1528402 0.2511578 255 0 255
0.0243221 -0.1526234 0.2510224 255 0 255
0.02595112 -0.1529838 0.2516794 255 0 255
0.02724786 -0.1521798 0.2507372 255 0 255
0.02853586 -0.1513737 0.2497912 255 0 255
0.03016994 -0.1517229 0.2504331 255 0 255
0.03108583 -0.1497553 0.2478871 255 0 255
0.03253286 -0.1495205 0.2477244 255 0 255
0.03397892 -0.1492824 0.2475569 255 0 255
0.03542399 -0.149041 0.2473848 255 0 255
0.03647453 -0.1476453 0.2456203 255 0 255
0.03790977 -0.1473987 0.2454397 255 0 255
0.03913948 -0.1465748 0.2444616 255 0 255
0.04056875 -0.1463224 0.244272 255 0 255
0.04157251 -0.1449212 0.2424944 255 0 255
0.04299187 -0.1446637 0.2422965 255 0 255
0.04484984 -0.1455459 0.2436754 255 0 255
0.0460509 -0.1447099 0.2426771 255 0 255
0.04769829 -0.1450121 0.2432543 255 0 255
0.04888921 -0.1441711 0.2422478 255 0 255
0.05030658 -0.1438969 0.2420261 255 0 255
0.05124435 -0.1424841 0.2402244 255 0 255
0.05265161 -0.142205 0.2399946 255 0 255
0.05331713 -0.1402241 0.237401 255 0 255
0.05496095 -0.1405064 0.2379497 255 0 255
0.05635664 -0.1402194 0.2377075 255 0 255
0.05749278 -0.1393653 0.2366761 255 0 255
0.05861988 -0.1385098 0.2356417 255 0 255
0.06000399 -0.1382149 0.235387 255 0 255
0.06138671 -0.1379169 0.2351278 255 0 255
0.06276801 -0.1376157 0.234864 255 0 255
0.0644253 -0.1378712 0.2353765 255 0 255
0.06636985 -0.1386808 0.2366632 255 0 255
0.06832815 -0.1394838 0.2379421 255 0 255
0.07001141 -0.1397231 0.2384349 255 0 255
0.07199327 -0.1405137 0.2396991 255 0 255
0.0736924 -0.1407423 0.2401787 255 0 255
0.07569762 -0.1415205 0.241428 255 0 255
0.0777164 -0.1422918 0.2426695 255 0 255
0.003310094 -0.1620316 0.2588637 255 0 255
0.005141357 -0.1636316 0.2611911 255 0 255
0.006884251 -0.1646344 0.2627136 255 0 255
0.00829661 -0.1638602 0.2618341 255 0 255
0.009700498 -0.1630834 0.2609502 255 0 255
0.01097289 -0.1617146 0.2592635 255 0 255
0.01235589 -0.1609333 0.2583709 255 0 255
0.01359952 -0.159561 0.2566761 255 0 255
0.01509634 -0.1593636 0.2565725 255 0 255
0.01631512 -0.1579876 0.2548697 255 0 255
0.01751753 -0.1566104 0.2531631 255 0 255
0.01885002 -0.1558184 0.2522495 255 0 255
0.02017397 -0.1550242 0.2513317 255 0 255
0.02148926 -0.1542277 0.2504099 255 0 255
0.02279601 -0.1534291 0.2494839 255 0 255
0.02441821 -0.1537967 0.2501444 255 0 255
0.02571541 -0.1529926 0.2492096 255 0 255
0.02717386 -0.1527694 0.2490653 255 0 255
0.02845762 -0.1519604 0.2481222 255 0 255
0.0299103 -0.1517312 0.2479688 255 0 255
0.03099907 -0.1503362 0.2462242 255 0 255
0.03244212 -0.1501017 0.2460622 255 0 255
0.03369495 -0.1492839 0.2451031 255 0 255
0.03513211 -0.1490434 0.2449322 255 0 255
0.0363713 -0.1482211 0.2439651 255 0 255
0.03760171 -0.1473968 0.2429943 255 0 255
0.03882333 -0.1465707 0.2420198 255 0 255
0.04024473 -0.1463193 0.2418316 255 0 255
0.04145262 -0.1454887 0.2408493 255 0 255
0.04286799 -0.1452316 0.2406524 255 0 255
0.04450241 -0.1455457 0.2412391 255 0 255
0.04591934 -0.1452815 0.2410323 255 0 255
0.04710728 -0.1444409 0.2400337 255 0 255
0.04851804 -0.144171 0.2398182 255 0 255
0.04969202 -0.1433262 0.2388121 255 0 255
0.05061774 -0.141909 0.2370171 255 0 255
0.05177009 -0.1410616 0.2360048 255 0 255
0.05266648 -0.1396434 0.2342051 255 0 255
0.05404805 -0.1393622 0.2339704 255 0 255
0.05568304 -0.1396455 0.234514 255 0 255
0.05680733 -0.1387903 0.2334874 255 0 255
0.05818501 -0.1384997 0.233239 255 0 255
0.05956136 -0.138206 0.2329861 255 0 255
0.06093633 -0.1379092 0.2327287 255 0 255
0.06230995 -0.1376092 0.2324667 255 0 255
0.06395969 -0.137869 0.2329789 255 0 255
0.06589703 -0.1386859 0.2342627 255 0 255
0.06784812 -0.1394963 0.235539 255 0 255
0.06981286 -0.1403001 0.2368076 255 0 255
0.07149854 -0.1405379 0.237293 255 0 255
0.07319029 -0.1407708 0.2377722 255 0 255
0.07518832 -0.1415564 0.239019 255 0 255
0.07719988 -0.1423351 0.2402579 255 0 255
0.07922495 -0.1431071 0.2414887 255 0 255
0.08126345 -0.1438722 0.2427116 255 0 255
0.08047711 -0.1396448 0.2369916 255 0 255
0.008397508 -0.1650743 0.2609182 255 0 255
0.009800991 -0.1642941 0.2600368 255 0 255
0.01131933 -0.1641041 0.2599469 255 0 255
0.0125826 -0.1627263 0.2582607 255 0 255
0.01382947 -0.161347 0.2565705 255 0 255
0.01519508 -0.1605575 0.2556717 255 0 255
0.01655215 -0.1597656 0.2547687 255 0 255
0.01761498 -0.1577912 0.2522722 255 0 255
0.01894708 -0.1569958 0.2513612 255 0 255
0.02027066 -0.1561981 0.2504461 255 0 255
0.02158563 -0.1553982 0.2495268 255 0 255
0.02289194 -0.1545961 0.2486035 255 0 255
0.02435195 -0.1543792 0.2484689 255 0 255
0.02581113 -0.1541589 0.2483297 255 0 255
0.0272694 -0.1539354 0.2481856 255 0 255
0.02855282 -0.1531229 0.2472451 255 0 255
0.03000541 -0.1528933 0.247092 255 0 255
0.03127526 -0.1520761 0.2461432 255 0 255
0.03253643 -0.1512569 0.2451906 255 0 255
0.03378888 -0.1504356 0.2442342 255 0 255
0.03522594 -0.1501948 0.2440635 255 0 255
0.0362675 -0.1487873 0.2423099 255 0 255
0.03769481 -0.1485412 0.2421309 255 0 255
0.039121 -0.148292 0.2419471 255 0 255
0.04054619 -0.1480395 0.2417587 255 0 255
0.04197025 -0.1477837 0.2415657 255 0 255
0.0433932 -0.1475248 0.2413679 255 0 255
0.0445946 -0.146685 0.2403796 255 0 255
0.04578715 -0.1458434 0.2393877 255 0 255
0.04674277 -0.1444239 0.2376074 255 0 255
0.04791372 -0.1435795 0.2366091 255 0 255
0.04860423 -0.1415842 0.2340401 255 0 255
0.04974975 -0.140738 0.2330364 255 0 255
0.05064296 -0.139317 0.2312468 255 0 255
0.05151958 -0.137896 0.2294552 255 0 255
0.05313302 -0.1381898 0.2300052 255 0 255
0.0550078 -0.1390498 0.23133 255 0 255
0.05637903 -0.1387635 0.2310879 255 0 255
0.05774892 -0.138474 0.2308413 255 0 255
0.05965032 -0.1393183 0.232147 255 0 255
0.06075499 -0.1384534 0.2311122 255 0 255
0.06212466 -0.1381538 0.2308513 255 0 255
0.0640486 -0.1389829 0.2321385 255 0 255
0.06598624 -0.1398055 0.2334181 255 0 255
0.06765229 -0.1400573 0.2339154 255 0 255
0.06932443 -0.1403043 0.2344066 255 0 255
0.07158861 -0.1416713 0.236438 255 0 255
0.07298371 -0.1413452 0.2361428 255 0 255
0.07497832 -0.1421372 0.2373862 255 0 255
0.07729077 -0.1434823 0.2393925 255 0 255
0.0793162 -0.1442598 0.2406191 255 0 255
0.08073137 -0.1439146 0.2402996 255 0 255
0.08246046 -0.1441232 0.2407436 255 0 255
0.009308592 -0.1704624 0.2655554 255 0 255
0.01038017 -0.1678864 0.2622937 255 0 255
0.01166692 -0.1665025 0.2606159 255 0 255
0.01280984 -0.1645218 0.2581409 255 0 255
0.01406002 -0.1631355 0.2564555 255 0 255
0.01542917 -0.1623421 0.2555591 255 0 255
0.01678973 -0.1615463 0.2546583 255 0 255
0.01785555 -0.1595616 0.2521689 255 0 255
0.01933819 -0.159355 0.252052 255 0 255
0.02051825 -0.1579606 0.2503473 255 0 255
0.0218367 -0.1571568 0.2494303 255 0 255
0.02314658 -0.1563506 0.2485092 255 0 255
0.02461036 -0.1561327 0.2483746 255 0 255
0.0259068 -0.1553217 0.247445 255 0 255
0.02736499 -0.1550978 0.2473013 255 0 255
0.02864799 -0.1542819 0.2463634 255 0 255
0.02992232 -0.1534639 0.2454216 255 0 255
0.03118794 -0.1526439 0.2444759 255 0 255
0.03244483 -0.1518218 0.2435263 255 0 255
0.03369301 -0.1509977 0.242573 255 0 255
0.03493244 -0.1501717 0.2416159 255 0 255
0.03616314 -0.1493437 0.240655 255 0 255
0.03758639 -0.149098 0.2404767 255 0 255
0.03900865 -0.148849 0.2402938 255 0 255
0.04063891 -0.1491796 0.2408914 255 0 255
0.04206283 -0.1489234 0.2406987 255 0 255
0.04348568 -0.1486641 0.2405012 255 0 255
0.04468668 -0.1478207 0.2395155 255 0 255
0.04587888 -0.1469757 0.2385263 255 0 255
0.04637712 -0.1443911 0.2351861 255 0 255
0.04754001 -0.1435447 0.2341916 255 0 255
0.04798593 -0.1409634 0.2308498 255 0 255
0.04887968 -0.139539 0.2290698 255 0 255
0.05000062 -0.1386907 0.2280679 255 0 255
0.05111264 -0.1378409 0.2270627 255 0 255
0.05246722 -0.1375642 0.2268333 255 0 255
0.05458607 -0.1390062 0.2289337 255 0 255
0.05594955 -0.138721 0.2286933 255 0 255
0.05757454 -0.1390049 0.2292252 255 0 255
0.05947249 -0.1398557 0.2305274 255 0 255
0.06084337 -0.1395587 0.2302714 255 0 255
0.06221291 -0.1392587 0.2300109 255 0 255
0.06385917 -0.1395244 0.2305198 255 0 255
0.0657934 -0.1403535 0.2317959 255 0 255
0.06717008 -0.1400415 0.2315196 255 0 255
0.06883479 -0.1402928 0.2320103 255 0 255
0.07079876 -0.1411047 0.2332659 255 0 255
0.07247937 -0.1413453 0.2337436 255 0 255
0.07476757 -0.1427085 0.2357536 255 0 255
0.07677229 -0.1435002 0.2369857 255 0 255
0.07879052 -0.1442852 0.2382098 255 0 255
0.08051008 -0.1445022 0.2386591 255 0 255
0.0816039 -0.1435941 0.2375703 255 0 255
0.01012216 -0.1673038 0.2589871 255 0 255
0.01164411 -0.1671128 0.2588973 255 0 255
0.01303772 -0.1663199 0.2580118 255 0 255
0.01429116 -0.1649265 0.2563311 255 0 255
0.01566377 -0.1641292 0.255437 255 0 255
0.01702783 -0.1633295 0.2545385 255 0 255
0.01824003 -0.1619311 0.252846 255 0 255
0.01958309 -0.1611272 0.2519393 255 0 255
0.02076641 -0.1597258 0.2502393 255 0 255
0.0219333 -0.1583232 0.2485356 255 0 255
0.02324275 -0.1575137 0.2476172 255 0 255
0.02454358 -0.156702 0.2466947 255 0 255
0.02600248 -0.156481 0.2465559 255 0 255
0.02746049 -0.1562567 0.2464124 255 0 255
0.02874314 -0.1554374 0.2454772 255 0 255
0.03001708 -0.154616 0.244538 255 0 255
0.03128227 -0.1537925 0.243595 255 0 255
0.03216648 -0.1517872 0.2410765 255 0 255
0.03340653 -0.1509609 0.2401267 255 0 255
0.03463785 -0.1501328 0.2391732 255 0 255
0.03605819 -0.1498905 0.2390003 255 0 255
0.03747746 -0.1496451 0.2388228 255 0 255
0.03889566 -0.1493964 0.2386406 255 0 255
0.04052222 -0.1497303 0.2392367 255 0 255
0.04215534 -0.1500597 0.2398272 255 0 255
0.04336096 -0.1492154 0.2388483 255 0 255
0.04455775 -0.1483693 0.2378658 255 0 255
0.04574571 -0.1475215 0.2368798 255 0 255
0.04623895 -0.1449249 0.2335498 255 0 255
0.0471652 -0.1434942 0.2317791 255 0 255
0.04760227 -0.1409016 0.2284483 255 0 255
0.04872782 -0.1400522 0.2274528 255 0 255
0.04960058 -0.1386219 0.2256764 255 0 255
0.05095243 -0.1383487 0.2254524 255 0 255
0.05255462 -0.1386501 0.2260003 255 0 255
0.05441863 -0.1395238 0.2273183 255 0 255
0.05577817 -0.139239 0.2270789 255 0 255
0.05766256 -0.1401017 0.228384 255 0 255
0.0592939 -0.1403836 0.228908 255 0 255
0.06066092 -0.140087 0.2286531 255 0 255
0.06202649 -0.1397872 0.2283937 255 0 255
0.063669 -0.1400564 0.2289014 255 0 255
0.06531774 -0.1403208 0.229403 255 0 255
0.0664008 -0.1394398 0.2283586 255 0 255
0.06805424 -0.1396962 0.2288497 255 0 255
0.07000723 -0.1405163 0.2301033 255 0 255
0.07197385 -0.1413298 0.2313492 255 0 255
0.07395404 -0.1421366 0.2325874 255 0 255
0.07594779 -0.1429366 0.2338176 255 0 255
0.07795504 -0.1437299 0.23504 255 0 255
0.07966346 -0.1439522 0.2354899 255 0 255
0.08011341 -0.141917 0.2328793 255 0 255
0.01186904 -0.1689173 0.2587563 255 0 255
0.01352208 -0.1693235 0.2594501 255 0 255
0.0147866 -0.1679221 0.2577737 255 0 255
0.0158989 -0.1659189 0.2553054 255 0 255
0.01726653 -0.1651152 0.2544093 255 0 255
0.01862552 -0.1643092 0.2535089 255 0 255
0.01982848 -0.162902 0.2518171 255 0 255
0.02101505 -0.1614935 0.2501217 255 0 255
0.02218518 -0.1600838 0.2484228 255 0 255
0.02333894 -0.1586731 0.2467206 255 0 255
0.02463934 -0.157858 0.2458007 255 0 255
0.02609813 -0.1576367 0.2456622 255 0 255
0.02755601 -0.1574121 0.2455189 255 0 255
0.02901301 -0.1571842 0.245371 255 0 255
0.0302904 -0.1563587 0.2444341 255 0 255
0.03137661 -0.1549375 0.2427095 255 0 255
0.0324463 -0.1535156 0.2409818 255 0 255
0.0336898 -0.1526852 0.2400342 255 0 255
0.03473046 -0.1512613 0.2383004 255 0 255
0.03615064 -0.1510187 0.2381278 255 0 255
0.03736786 -0.1501825 0.2371691 255 0 255
0.03878213 -0.1499341 0.2369877 255 0 255
0.0401953 -0.1496825 0.2368018 255 0 255
0.04182085 -0.1500159 0.2373912 255 0 255
0.04323566 -0.1497571 0.2371955 255 0 255
0.04420706 -0.1483214 0.2354373 255 0 255
0.04516182 -0.1468854 0.2336768 255 0 255
0.04587128 -0.1448637 0.2311361 255 0 255
0.0467892 -0.143428 0.2293716 255 0 255
0.047454 -0.1414081 0.2268284 255 0 255
0.04857536 -0.140556 0.2258363 255 0 255
0.04944369 -0.1391199 0.2240656 255 0 255
0.05103952 -0.1394286 0.2246172 255 0 255
0.05264185 -0.1397326 0.2251631 255 0 255
0.05450623 -0.1406121 0.2264768 255 0 255
0.05612512 -0.1409059 0.2270105 255 0 255
0.05801364 -0.1417736 0.2283105 255 0 255
0.05964898 -0.1420572 0.2288318 255 0 255
0.06074866 -0.1411825 0.2278059 255 0 255
0.06211415 -0.1408823 0.2275468 255 0 255
0.06347824 -0.140579 0.2272833 255 0 255
0.06512321 -0.1408468 0.2277838 255 0 255
0.0662021 -0.139963 0.2267427 255 0 255
0.06785181 -0.1402229 0.2272327 255 0 255
0.06980138 -0.1410495 0.2284828 255 0 255
0.07206204 -0.1424402 0.2304905 255 0 255
0.0740426 -0.1432525 0.2317243 255 0 255
0.07573166 -0.1434892 0.2321865 255 0 255
0.07742663 -0.1437208 0.2326425 255 0 255
0.07818992 -0.1422462 0.2308061 255 0 255
0.07893654 -0.1407722 0.2289685 255 0 255
0.01271619 -0.1737497 0.2625375 255 0 255
0.01387986 -0.1717373 0.2600833 255 0 255
0.01475503 -0.1685162 0.2560538 255 0 255
0.01627073 -0.1683146 0.2559499 255 0 255
0.01750574 -0.1669035 0.2542706 255 0 255
0.01886824 -0.1660935 0.2533725 255 0 255
0.02007444 -0.1646792 0.2516855 255 0 255
0.02141588 -0.1638651 0.2507792 255 0 255
0.02243761 -0.1618471 0.2483007 255 0 255
0.02375404 -0.1610295 0.2473868 255 0 255
0.02506182 -0.1602098 0.2464689 255 0 255
0.02636099 -0.1593879 0.2455469 255 0 255
0.02765146 -0.1585639 0.2446209 255 0 255
0.0291083 -0.1583355 0.2444732 255 0 255
0.03038535 -0.1575066 0.243539 255 0 255
0.03165361 -0.1566756 0.2426008 255 0 255
0.03272656 -0.1552466 0.2408779 255 0 255
0.03416405 -0.1550075 0.240713 255 0 255
0.0350174 -0.152981 0.2382033 255 0 255
0.03624302 -0.1521434 0.2372509 255 0 255
0.03745988 -0.1513037 0.2362948 255 0 255
0.03887394 -0.151055 0.2361138 255 0 255
0.04007714 -0.1502109 0.23515 255 0 255
0.04148517 -0.1499564 0.2349603 255 0 255
0.04267459 -0.149108 0.2339888 255 0 255
0.04363376 -0.1476679 0.2322374 255 0 255
0.04457638 -0.1462275 0.2304837 255 0 255
0.04550249 -0.1447869 0.2287276 255 0 255
0.04664502 -0.1439338 0.2277441 255 0 255
0.04754194 -0.1424921 0.2259832 255 0 255
0.04890354 -0.1422226 0.2257674 255 0 255
0.04977497 -0.1407793 0.2240012 255 0 255
0.05112652 -0.1405051 0.2237778 255 0 255
0.05272897 -0.1408118 0.2243217 255 0 255
0.05459367 -0.1416969 0.2256308 255 0 255
0.05621262 -0.1419934 0.2261626 255 0 255
0.0581015 -0.1428666 0.2274582 255 0 255
0.05973693 -0.1431528 0.2279775 255 0 255
0.06083621 -0.1422746 0.2269543 255 0 255
0.06220152 -0.1419739 0.2266956 255 0 255
0.06356548 -0.1416702 0.2264324 255 0 255
0.06492798 -0.1413632 0.2261648 255 0 255
0.06628905 -0.1410532 0.2258926 255 0 255
0.06822905 -0.1418912 0.2271452 255 0 255
0.07018273 -0.1427225 0.2283901 255 0 255
0.07214998 -0.1435471 0.2296274 255 0 255
0.07382935 -0.1437921 0.2300946 255 0 255
0.07582001 -0.1446041 0.2313171 255 0 255
0.07689703 -0.1436962 0.2302501 255 0 255
0.07796492 -0.142787 0.2291802 255 0 255
0.07902376 -0.1418764 0.2281074 255 0 255
0.01538502 -0.1721361 0.2582512 255 0 255
0.01664355 -0.1707189 0.2565801 255 0 255
0.01788571 -0.1693003 0.2549053 255 0 255
0.0191115 -0.1678803 0.2532267 255 0 255
0.02032088 -0.166459 0.2515444 255 0 255
0.02181774 -0.1662454 0.2514225 255 0 255
0.02284633 -0.1642167 0.2489508 255 0 255
0.02401042 -0.1627913 0.2472576 255 0 255
0.02532168 -0.1619676 0.246342 255 0 255
0.02662433 -0.1611417 0.2454223 255 0 255
0.0277469 -0.159712 0.2437184 255 0 255
0.02902831 -0.1588824 0.2427911 255 0 255
0.03012189 -0.1574504 0.2410806 255 0 255
0.03138203 -0.1566172 0.2401459 255 0 255
0.03263343 -0.155782 0.2392075 255 0 255
0.03387614 -0.1549448 0.2382652 255 0 255
0.03491548 -0.1535079 0.2365416 255 0 255
0.03633533 -0.1532645 0.2363696 255 0 255
0.03734939 -0.151825 0.2346394 255 0 255
0.03855321 -0.1509808 0.2336829 255 0 255
0.03974823 -0.1501347 0.2327229 255 0 255
0.04093445 -0.1492867 0.2317593 255 0 255
0.04189412 -0.1478434 0.2300175 255 0 255
0.04305888 -0.1469926 0.2290475 255 0 255
0.04421484 -0.1461401 0.2280741 255 0 255
0.04536196 -0.145286 0.2270973 255 0 255
0.04650025 -0.1444301 0.2261172 255 0 255
0.04762968 -0.1435726 0.2251337 255 0 255
0.0489911 -0.1433028 0.2249182 255 0 255
0.04986198 -0.1418529 0.2231572 255 0 255
0.0514619 -0.142166 0.2237041 255 0 255
0.05306821 -0.1424745 0.2242452 255 0 255
0.05468088 -0.1427783 0.2247807 255 0 255
0.05629994 -0.1430774 0.2253103 255 0 255
0.05818919 -0.1439562 0.2266015 255 0 255
0.05955705 -0.1436613 0.2263522 255 0 255
0.06092356 -0.1433633 0.2260983 255 0 255
0.0620135 -0.1424802 0.2250749 255 0 255
0.06393154 -0.1433391 0.2263417 255 0 255
0.06529769 -0.1430308 0.2260737 255 0 255
0.06666246 -0.1427194 0.2258012 255 0 255
0.06802573 -0.1424049 0.2255242 255 0 255
0.07027011 -0.1438203 0.2275269 255 0 255
0.0719397 -0.1440737 0.2279992 255 0 255
0.07361539 -0.1443222 0.2284653 255 0 255
0.07499152 -0.1439907 0.2281663 255 0 255
0.07636618 -0.143656 0.2278627 255 0 255
0.07773919 -0.1433182 0.2275546 255 0 255
0.07911064 -0.1429773 0.227242 255 0 255
0.01619804 -0.1694734 0.2525114 255 0 255
0.01728335 -0.1674413 0.2500622 255 0 255
0.01892211 -0.1678434 0.2507308 255 0 255
0.02012306 -0.1664169 0.2490542 255 0 255
0.02176408 -0.1668116 0.2497128 255 0 255
0.02278787 -0.1647739 0.2472489 255 0 255
0.02394738 -0.1633427 0.2455611 255 0 255
0.02558207 -0.1637278 0.2462056 255 0 255
0.02672042 -0.1622927 0.2445101 255 0 255
0.02784234 -0.1608566 0.2428113 255 0 255
0.02912332 -0.1600236 0.2418867 255 0 255
0.03039561 -0.1591884 0.2409582 255 0 255
0.03147589 -0.1577485 0.2392493 255 0 255
0.03291409 -0.157512 0.2390897 255 0 255
0.0339692 -0.1560692 0.237374 255 0 255
0.03520277 -0.1552267 0.2364307 255 0 255
0.03642754 -0.1543822 0.2354838 255 0 255
0.03744097 -0.1529362 0.2337588 255 0 255
0.03843787 -0.1514897 0.2320312 255 0 255
0.03920792 -0.1494447 0.2295278 255 0 255
0.04038216 -0.1485954 0.2285684 255 0 255
0.04132956 -0.1471477 0.2268334 255 0 255
0.04248239 -0.1462956 0.2258677 255 0 255
0.04362636 -0.1454418 0.2248986 255 0 255
0.04499118 -0.145181 0.2246968 255 0 255
0.04612136 -0.1443232 0.2237206 255 0 255
0.04771725 -0.1446498 0.22428 255 0 255
0.04907857 -0.1443795 0.2240648 255 0 255
0.05019374 -0.1435146 0.2230771 255 0 255
0.0515488 -0.1432389 0.2228537 255 0 255
0.05315521 -0.14355 0.2233928 255 0 255
0.05451157 -0.1432672 0.2231599 255 0 255
0.05586664 -0.1429814 0.2229226 255 0 255
0.05774855 -0.1438675 0.2242107 255 0 255
0.05910864 -0.1435737 0.2239631 255 0 255
0.06046738 -0.1432769 0.2237111 255 0 255
0.06210024 -0.143562 0.2242174 255 0 255
0.0640186 -0.1444264 0.2254798 255 0 255
0.06538463 -0.1441177 0.2252122 255 0 255
0.06703602 -0.1443883 0.2257006 255 0 255
0.06869354 -0.1446539 0.226183 255 0 255
0.07065162 -0.1454955 0.2274184 255 0 255
0.07202695 -0.1451706 0.2271297 255 0 255
0.07309872 -0.1442638 0.226079 255 0 255
0.07416143 -0.1433556 0.2250254 255 0 255
0.07552454 -0.1430232 0.2247247 255 0 255
0.07688612 -0.1426876 0.2244195 255 0 255
0.07824611 -0.142349 0.2241099 255 0 255
0.01766369 -0.1698336 0.2506852 255 0 255
0.01902099 -0.1690141 0.2497955 255 0 255
0.02022125 -0.1675811 0.248124 255 0 255
0.02186239 -0.1679786 0.2487804 255 0 255
0.02304151 -0.1665414 0.2471009 255 0 255
0.0245247 -0.1663221 0.2469708 255 0 255
0.02584293 -0.1654904 0.2460599 255 0 255
0.02698445 -0.1640483 0.2443691 255 0 255
0.02828145 -0.1632129 0.2434505 255 0 255
0.02921826 -0.1611611 0.2409779 255 0 255
0.03049013 -0.1603226 0.2400521 255 0 255
0.03156975 -0.1588762 0.2383483 255 0 255
0.03300775 -0.1586393 0.2381889 255 0 255
0.03425347 -0.1577947 0.2372517 255 0 255
0.03549045 -0.156948 0.2363107 255 0 255
0.03651971 -0.1554962 0.2345936 255 0 255
0.03753246 -0.1540438 0.2328738 255 0 255
0.0383219 -0.151989 0.2303799 255 0 255
0.0388766 -0.1493341 0.2271136 255 0 255
0.04004274 -0.1484828 0.226158 255 0 255
0.04098172 -0.14703 0.2244292 255 0 255
0.04212644 -0.146176 0.2234673 255 0 255
0.04326233 -0.1453203 0.2225021 255 0 255
0.04484911 -0.145658 0.22307 255 0 255
0.04620878 -0.1453943 0.2228647 255 0 255
0.04756725 -0.1451275 0.2226549 255 0 255
0.04892454 -0.1448576 0.2224407 255 0 255
0.05028063 -0.1445845 0.2222221 255 0 255
0.05163552 -0.1443083 0.2219991 255 0 255
0.05298915 -0.1440291 0.2217716 255 0 255
0.05434151 -0.1437467 0.2215398 255 0 255
0.0559531 -0.1440525 0.2220666 255 0 255
0.05757103 -0.1443536 0.2225877 255 0 255
0.05919525 -0.14465 0.223103 255 0 255
0.06055382 -0.1443527 0.2228513 255 0 255
0.06218677 -0.1446404 0.2233556 255 0 255
0.06410541 -0.1455103 0.2246136 255 0 255
0.06575458 -0.1457874 0.2251052 255 0 255
0.06740985 -0.1460597 0.2255909 255 0 255
0.06907124 -0.146327 0.2260706 255 0 255
0.07044409 -0.1460058 0.2257875 255 0 255
0.0718154 -0.1456813 0.2255 255 0 255
0.07318521 -0.1453537 0.2252079 255 0 255
0.07424752 -0.144442 0.2241571 255 0 255
0.0756105 -0.1441091 0.2238568 255 0 255
0.07697191 -0.143773 0.2235521 255 0 255
0.07864902 -0.144012 0.2239945 255 0 255
0.01926481 -0.1707957 0.2496309 255 0 255
0.02046826 -0.1693557 0.2479643 255 0 255
0.02196066 -0.1691418 0.2478434 255 0 255
0.0234523 -0.1689244 0.2477178 255 0 255
0.02478261 -0.1680911 0.2468133 255 0 255
0.02626863 -0.1678673 0.2466784 255 0 255
0.02741727 -0.1664176 0.244992 255 0 255
0.02837731 -0.1643562 0.2425295 255 0 255
0.02931316 -0.162295 0.2400645 255 0 255
0.0304047 -0.1608436 0.2383693 255 0 255
0.03147979 -0.1593915 0.2366711 255 0 255
0.03291368 -0.1591549 0.2365125 255 0 255
0.03396359 -0.1576999 0.2348075 255 0 255
0.03519242 -0.1568512 0.2338701 255 0 255
0.03641249 -0.1560005 0.2329291 255 0 255
0.03721756 -0.1539368 0.2304455 255 0 255
0.03820539 -0.1524788 0.2287291 255 0 255
0.03896588 -0.1504162 0.2262419 255 0 255
0.04013157 -0.1495615 0.225289 255 0 255
0.04085137 -0.1474996 0.2227979 255 0 255
0.04221423 -0.1472449 0.2226062 255 0 255
0.04334967 -0.1463858 0.2216437 255 0 255
0.04470645 -0.1461255 0.2214437 255 0 255
0.04606207 -0.1458622 0.2212393 255 0 255
0.04741653 -0.1455957 0.2210305 255 0 255
0.04876984 -0.1453261 0.2208172 255 0 255
0.05012191 -0.1450534 0.2205996 255 0 255
0.05147283 -0.1447776 0.2203775 255 0 255
0.05282244 -0.1444987 0.220151 255 0 255
0.05442772 -0.1448118 0.2206816 255 0 255
0.05551792 -0.1439315 0.2196848 255 0 255
0.05739284 -0.1448304 0.2209653 255 0 255
0.05874499 -0.1445374 0.2207198 255 0 255
0.06009574 -0.1442413 0.2204699 255 0 255
0.06172115 -0.1445332 0.2209736 255 0 255
0.06363255 -0.1454104 0.2222286 255 0 255
0.06555773 -0.1462811 0.2234762 255 0 255
0.06692194 -0.1459682 0.2232049 255 0 255
0.06857584 -0.1462398 0.223684 255 0 255
0.06994091 -0.1459198 0.2234029 255 0 255
0.07100581 -0.1450109 0.2223639 255 0 255
0.07206167 -0.1441007 0.221322 255 0 255
0.07372095 -0.144357 0.2217809 255 0 255
0.07507624 -0.1440254 0.2214827 255 0 255
0.07705738 -0.1448549 0.2226803 255 0 255
0.07873458 -0.1450964 0.2231207 255 0 255
0.01921882 -0.1713442 0.2479111 255 0 255
0.02026863 -0.1692812 0.2454773 255 0 255
0.02190599 -0.1696846 0.2461297 255 0 255
0.02339355 -0.1694674 0.2460046 255 0 255
0.02471949 -0.1686313 0.2451032 255 0 255
0.02603681 -0.167793 0.2441977 255 0 255
0.02734551 -0.1669523 0.2432881 255 0 255
0.02864551 -0.1661095 0.2423745 255 0 255
0.02923174 -0.1628122 0.2383765 255 0 255
0.03049882 -0.1619675 0.2374566 255 0 255
0.03157324 -0.1605089 0.2357636 255 0 255
0.03281905 -0.1596608 0.2348364 255 0 255
0.03367262 -0.1575895 0.2323687 255 0 255
0.03469762 -0.1561288 0.230667 255 0 255
0.03570616 -0.1546675 0.2289626 255 0 255
0.03669821 -0.1532057 0.2272556 255 0 255
0.03767377 -0.1517433 0.2255459 255 0 255
0.03863287 -0.1502805 0.2238338 255 0 255
0.03979042 -0.1494239 0.2228847 255 0 255
0.0407204 -0.1479597 0.2211673 255 0 255
0.04207923 -0.1477053 0.2209764 255 0 255
0.04321044 -0.1468435 0.2200173 255 0 255
0.04479351 -0.1471872 0.2205815 255 0 255
0.04614893 -0.1469234 0.2203774 255 0 255
0.0472652 -0.1460545 0.2194067 255 0 255
0.04837264 -0.145184 0.2184329 255 0 255
0.04971689 -0.1449124 0.2182168 255 0 255
0.05130943 -0.1452375 0.2187566 255 0 255
0.0526551 -0.1449589 0.2185311 255 0 255
0.0542566 -0.1452754 0.2190602 255 0 255
0.05560355 -0.1449898 0.2188252 255 0 255
0.05694918 -0.1447012 0.2185859 255 0 255
0.05829352 -0.1444094 0.2183421 255 0 255
0.05963652 -0.1441145 0.2180939 255 0 255
0.06125436 -0.1444106 0.218597 255 0 255
0.06315847 -0.145295 0.219849 255 0 255
0.06507636 -0.1461729 0.2210936 255 0 255
0.06672035 -0.1464528 0.2215774 255 0 255
0.06837057 -0.1467278 0.2220553 255 0 255
0.06943651 -0.1458185 0.2210236 255 0 255
0.07049345 -0.1449079 0.219989 255 0 255
0.07184406 -0.1445838 0.2197018 255 0 255
0.07349961 -0.1448436 0.2201595 255 0 255
0.07485091 -0.1445124 0.2198625 255 0 255
0.07682862 -0.1453482 0.2210565 255 0 255
0.07818431 -0.145009 0.2207489 255 0 255
0.02139122 -0.1683587 0.2421069 255 0 255
0.02333426 -0.1700008 0.2442918 255 0 255
0.02481688 -0.1697804 0.2441626 255 0 255
0.02596887 -0.1683207 0.242491 255 0 255
0.02761073 -0.168712 0.2431213 255 0 255
0.02891419 -0.1678652 0.24221 255 0 255
0.02967936 -0.165168 0.2389919 255 0 255
0.03077336 -0.1637032 0.2373067 255 0 255
0.0320352 -0.1628525 0.2363853 255 0 255
0.03291204 -0.1607713 0.2339273 255 0 255
0.03376467 -0.1586906 0.2314672 255 0 255
0.03478895 -0.1572235 0.2297708 255 0 255
0.035597 -0.1551436 0.2273066 255 0 255
0.03658452 -0.153676 0.2256052 255 0 255
0.03755552 -0.152208 0.2239013 255 0 255
0.03829871 -0.1501293 0.2214313 255 0 255
0.03966335 -0.1498802 0.2212491 255 0 255
0.04080788 -0.1490191 0.2202999 255 0 255
0.04194359 -0.1481563 0.2193473 255 0 255
0.04307045 -0.1472919 0.2183916 255 0 255
0.04464982 -0.1476389 0.2189541 255 0 255
0.04600126 -0.1473755 0.218751 255 0 255
0.04735153 -0.1471089 0.2185434 255 0 255
0.04870059 -0.1468392 0.2183313 255 0 255
0.04980258 -0.145963 0.2173565 255 0 255
0.0511454 -0.1456879 0.2171363 255 0 255
0.05274063 -0.1460116 0.2176691 255 0 255
0.05408486 -0.1457296 0.2174395 255 0 255
0.05568899 -0.1460447 0.2179614 255 0 255
0.0570344 -0.1457556 0.2177224 255 0 255
0.05864743 -0.146062 0.2182336 255 0 255
0.0597214 -0.145168 0.2172313 255 0 255
0.06133933 -0.1454666 0.2177322 255 0 255
0.06296345 -0.1457604 0.2182273 255 0 255
0.06459378 -0.1460494 0.2187165 255 0 255
0.06623026 -0.1463334 0.2191998 255 0 255
0.06787294 -0.1466127 0.2196772 255 0 255
