ply
format ascii 1.0
Comment Generated by Floating Hands
element vertex 1147
property double x
property double y
property double z
property uchar red
property uchar green
property uchar blue
end_header
0.101273 -0.1205056 0.2202831 255 0 255
0.1025971 -0.1201483 0.2199212 255 0 255
0.1039193 -0.1197879 0.219555 255 0 255
0.1055991 -0.11991 0.2199813 255 0 255
0.1076475 -0.1205116 0.2211971 255 0 255
0.1097088 -0.121106 0.2224042 255 0 255
0.06182602 -0.106996 0.1918412 255 0 255
0.06357238 -0.1077587 0.1932337 255 0 255
0.06477785 -0.1074969 0.1929899 255 0 255
0.06598199 -0.1072323 0.1927423 255 0 255
0.06746979 -0.1074724 0.1933038 255 0 255
0.06809756 -0.106188 0.1914229 255 0 255
0.06841634 -0.1043984 0.1887298 255 0 255
0.06930373 -0.103621 0.1876592 255 0 255
0.07018223 -0.1028426 0.1865864 255 0 255
0.07105181 -0.1020632 0.1855115 255 0 255
0.07252764 -0.1022874 0.1860509 255 0 255
0.0740096 -0.1025071 0.1865847 255 0 255
0.07518251 -0.1022217 0.1863065 255 0 255
0.07667282 -0.1024331 0.18683 255 0 255
0.07784659 -0.1021413 0.1865434 255 0 255
0.07967143 -0.1028421 0.1878602 255 0 255
0.08216976 -0.1045298 0.1907749 255 0 255
0.08636508 -0.108686 0.1976869 255 0 255
0.09197568 -0.1148014 0.2077809 255 0 255
0.09836353 -0.1218762 0.2194452 255 0 255
0.1024467 -0.1254685 0.2254841 255 0 255
0.1034501 -0.124615 0.2243221 255 0 255
0.1040919 -0.1232695 0.2223608 255 0 255
0.105785 -0.1233944 0.2227868 255 0 255
0.1071239 -0.1230253 0.2224114 255 0 255
0.1091877 -0.1236287 0.2236192 255 0 255
0.1105301 -0.1232511 0.223233 255 0 255
0.06189901 -0.1080245 0.1911705 255 0 255
0.06391975 -0.1093066 0.1933725 255 0 255
0.06512913 -0.1090437 0.1931282 255 0 255
0.06633714 -0.1087778 0.1928799 255 0 255
0.06754387 -0.1085092 0.1926279 255 0 255
0.0681713 -0.1072178 0.1907514 255 0 255
0.06848945 -0.105418 0.1880649 255 0 255
0.0693767 -0.104637 0.1869967 255 0 255
0.07025508 -0.103855 0.1859264 255 0 255
0.07142859 -0.1035783 0.1856608 255 0 255
0.07260068 -0.103299 0.1853915 255 0 255
0.07408296 -0.1035215 0.1859234 255 0 255
0.07525599 -0.1032357 0.1856456 255 0 255
0.07642758 -0.1029471 0.185364 255 0 255
0.07792047 -0.1031577 0.185881 255 0 255
0.07909281 -0.1028626 0.1855908 255 0 255
0.08092421 -0.1035648 0.1868981 255 0 255
0.08343692 -0.1052584 0.189797 255 0 255
0.08699097 -0.1084357 0.1950805 255 0 255
0.09230253 -0.1140818 0.204335 255 0 255
0.1008077 -0.1241664 0.2207327 255 0 255
0.1038853 -0.1262847 0.2243526 255 0 255
0.1048829 -0.1254253 0.2231896 255 0 255
0.1065838 -0.1255508 0.2236118 255 0 255
0.1079302 -0.1251791 0.2232348 255 0 255
0.1092747 -0.1248042 0.2228534 255 0 255
0.1109845 -0.1249162 0.2232582 255 0 255
0.0605045 -0.1087874 0.189917 255 0 255
0.06170131 -0.1085329 0.1896837 255 0 255
0.06399316 -0.1103418 0.1926915 255 0 255
0.06548049 -0.1105941 0.193258 255 0 255
0.06669237 -0.110327 0.1930093 255 0 255
0.06761757 -0.1095431 0.1919478 255 0 255
0.0682446 -0.1082449 0.1900759 255 0 255
0.06914819 -0.1074596 0.1890107 255 0 255
0.0700428 -0.1066732 0.1879432 255 0 255
0.07092854 -0.1058858 0.1868736 255 0 255
0.07210968 -0.105607 0.1866067 255 0 255
0.0732894 -0.1053254 0.1863358 255 0 255
0.07446767 -0.105041 0.1860612 255 0 255
0.07532901 -0.104247 0.1849806 255 0 255
0.07681995 -0.104464 0.1855006 255 0 255
0.07799389 -0.1041713 0.1852145 255 0 255
0.07949308 -0.10438 0.1857241 255 0 255
0.08099828 -0.1045841 0.186228 255 0 255
0.08317783 -0.1057879 0.1883213 255 0 255
0.08537813 -0.1069831 0.1904049 255 0 255
0.08759914 -0.1081697 0.1924789 255 0 255
0.09674805 -0.1193338 0.2104354 255 0 255
0.1039714 -0.1274594 0.2235805 255 0 255
0.1049689 -0.1265962 0.2224201 255 0 255
0.1073829 -0.127717 0.2244238 255 0 255
0.109097 -0.127838 0.2248356 255 0 255
0.1104527 -0.1274595 0.2244516 255 0 255
0.1121739 -0.127571 0.2248515 255 0 255
0.06164328 -0.1118931 0.1924824 255 0 255
0.06204383 -0.1100733 0.1898169 255 0 255
0.0643405 -0.1118939 0.1928156 255 0 255
0.06555383 -0.1116293 0.1925711 255 0 255
0.06648394 -0.1108438 0.1915152 255 0 255
0.06769085 -0.1105744 0.1912637 255 0 255
0.06889641 -0.1103021 0.1910083 255 0 255
0.06980736 -0.1095114 0.1899438 255 0 255
0.07070945 -0.1087197 0.1888772 255 0 255
0.07160257 -0.1079268 0.1878083 255 0 255
0.07248678 -0.107133 0.1867373 255 0 255
0.07367032 -0.1068501 0.186466 255 0 255
0.07422839 -0.1055422 0.184589 255 0 255
0.07508582 -0.1047454 0.1835118 255 0 255
0.07625382 -0.104457 0.1832316 255 0 255
0.07742036 -0.1041657 0.1829477 255 0 255
0.07891244 -0.1043791 0.1834573 255 0 255
0.08041042 -0.1045878 0.1839613 255 0 255
0.08224887 -0.1052973 0.185255 255 0 255
0.08376246 -0.1054956 0.1857465 255 0 255
0.08494005 -0.1051858 0.1854389 255 0 255
0.08749838 -0.1068832 0.1882974 255 0 255
0.09602295 -0.1170958 0.2045996 255 0 255
0.1085392 -0.1303925 0.2260121 255 0 255
0.110625 -0.1310115 0.2272076 255 0 255
0.1123595 -0.1311258 0.2276071 255 0 255
0.1129963 -0.1297455 0.2256411 255 0 255
0.06038105 -0.1103004 0.1877507 255 0 255
0.06184495 -0.1105698 0.1883264 255 0 255
0.06413884 -0.1124038 0.1913175 255 0 255
0.06562677 -0.1126618 0.1918802 255 0 255
0.06655677 -0.1118727 0.1908267 255 0 255
0.06747781 -0.1110824 0.1897709 255 0 255
0.06839005 -0.1102909 0.1887128 255 0 255
0.0695867 -0.1100172 0.1884554 255 0 255
0.07048491 -0.1092226 0.187392 255 0 255
0.07197608 -0.1094611 0.1879291 255 0 255
0.07316866 -0.1091788 0.1876601 255 0 255
0.07405132 -0.1083785 0.1865878 255 0 255
0.07461272 -0.1070629 0.1847145 255 0 255
0.07515773 -0.1057482 0.182841 255 0 255
0.07600605 -0.1049468 0.1817642 255 0 255
0.07684545 -0.1041446 0.1806855 255 0 255
0.07833037 -0.1043626 0.1811951 255 0 255
0.07982123 -0.104576 0.1816991 255 0 255
0.08165275 -0.1052934 0.1829907 255 0 255
0.08315918 -0.1054964 0.1834824 255 0 255
0.08467154 -0.1056948 0.1839684 255 0 255
0.08584389 -0.1053827 0.1836583 255 0 255
0.1012534 -0.1233877 0.2121954 255 0 255
0.1079117 -0.1305704 0.2236462 255 0 255
0.1114331 -0.1332041 0.2279851 255 0 255
0.1131753 -0.1333189 0.2283808 255 0 255
0.113451 -0.1314299 0.2256332 255 0 255
0.06339084 -0.117118 0.1959365 255 0 255
0.06327106 -0.1142193 0.1916692 255 0 255
0.06503536 -0.1150092 0.1930386 255 0 255
0.06597786 -0.1142169 0.1919892 255 0 255
0.06691153 -0.1134233 0.1909374 255 0 255
0.0675501 -0.1121049 0.1890808 255 0 255
0.06875207 -0.1118327 0.1888268 255 0 255
0.06965894 -0.1110357 0.1877681 255 0 255
0.07085438 -0.1107586 0.1875071 255 0 255
0.07204844 -0.1104788 0.1872423 255 0 255
0.07324106 -0.1101961 0.1869737 255 0 255
0.07412359 -0.1093922 0.1859038 255 0 255
0.07468463 -0.1080698 0.1840352 255 0 255
0.07522925 -0.1067482 0.1821663 255 0 255
0.07639737 -0.1064588 0.1818868 255 0 255
0.07691666 -0.1051373 0.1800157 255 0 255
0.0787293 -0.1058719 0.1813164 255 0 255
0.0802242 -0.1060871 0.1818176 255 0 255
0.08172508 -0.1062976 0.1823132 255 0 255
0.08323181 -0.1065035 0.1828031 255 0 255
0.08474442 -0.1067045 0.1832873 255 0 255
0.08591685 -0.106392 0.1829775 255 0 255
0.08778723 -0.1070924 0.1842383 255 0 255
0.0946193 -0.1148828 0.196498 255 0 255
0.1076397 -0.1312383 0.2220694 255 0 255
0.1168513 -0.13714 0.2318728 255 0 255
0.06280077 -0.1141865 0.1893629 255 0 255
0.06455798 -0.1149841 0.1907298 255 0 255
0.06605031 -0.115247 0.1912879 255 0 255
0.06670123 -0.1139221 0.1894376 255 0 255
0.067622 -0.1131246 0.1883866 255 0 255
0.06882399 -0.112852 0.1881329 255 0 255
0.06973074 -0.1120514 0.1870767 255 0 255
0.07062857 -0.1112497 0.1860183 255 0 255
0.07181893 -0.1109703 0.1857546 255 0 255
0.07300787 -0.1106881 0.1854871 255 0 255
0.07388644 -0.1098815 0.1844205 255 0 255
0.07444336 -0.1085531 0.1825574 255 0 255
0.07498382 -0.1072257 0.1806941 255 0 255
0.07550789 -0.1058992 0.1788305 255 0 255
0.07666343 -0.1056095 0.1785503 255 0 255
0.07814516 -0.105834 0.1790571 255 0 255
0.0796329 -0.1060539 0.1795584 255 0 255
0.08112663 -0.1062691 0.180054 255 0 255
0.08296512 -0.1069937 0.1813319 255 0 255
0.08481689 -0.1077116 0.1826022 255 0 255
0.08564307 -0.1068864 0.1815067 255 0 255
0.0875103 -0.1075938 0.1827646 255 0 255
0.08939066 -0.1082944 0.1840146 255 0 255
0.06435449 -0.115476 0.189226 255 0 255
0.06612234 -0.1162743 0.1905827 255 0 255
0.06677286 -0.1149426 0.1887369 255 0 255
0.06798007 -0.1146716 0.1884866 255 0 255
0.06889557 -0.1138686 0.1874351 255 0 255
0.06950801 -0.112536 0.1855849 255 0 255
0.07010398 -0.1112041 0.1837341 255 0 255
0.07128687 -0.1109261 0.1834724 255 0 255
0.07246838 -0.1106453 0.183207 255 0 255
0.07333925 -0.1098368 0.1821446 255 0 255
0.07420122 -0.1090275 0.1810801 255 0 255
0.07473756 -0.1076941 0.1792223 255 0 255
0.07557789 -0.1068838 0.1781548 255 0 255
0.0764093 -0.1060726 0.1770854 255 0 255
0.07788759 -0.1063008 0.1775912 255 0 255
0.07937191 -0.1065244 0.1780915 255 0 255
0.08086218 -0.1067433 0.1785862 255 0 255
0.08269741 -0.1074748 0.1798611 255 0 255
0.08420322 -0.1076833 0.1803435 255 0 255
0.08571486 -0.107887 0.1808202 255 0 255
0.08758254 -0.1086003 0.182074 255 0 255
0.0905252 -0.1108466 0.1856656 255 0 255
0.09529128 -0.1156411 0.1931474 255 0 255
0.06607825 -0.1197093 0.1933098 255 0 255
0.06675246 -0.1183687 0.1914681 255 0 255
0.06741013 -0.1170286 0.1896255 255 0 255
0.06833813 -0.1162223 0.188578 255 0 255
0.06867612 -0.1143499 0.1859382 255 0 255
0.06928438 -0.1130114 0.1840935 255 0 255
0.07017434 -0.1122043 0.1830417 255 0 255
0.0710554 -0.1113961 0.1819877 255 0 255
0.07192756 -0.1105869 0.1809316 255 0 255
0.07310012 -0.1103047 0.1806643 255 0 255
0.07395816 -0.1094926 0.1796033 255 0 255
0.07480728 -0.1086796 0.1785402 255 0 255
0.07532682 -0.1073404 0.1766869 255 0 255
0.07647872 -0.1070509 0.1764082 255 0 255
0.07762915 -0.1067585 0.1761258 255 0 255
0.07910998 -0.1069858 0.1766252 255 0 255
0.08093239 -0.1077299 0.1779035 255 0 255
0.08276816 -0.1084672 0.1791742 255 0 255
0.08427425 -0.1086785 0.1796549 255 0 255
0.08647963 -0.1099218 0.181693 255 0 255
0.08905616 -0.1116739 0.1845022 255 0 255
0.09321953 -0.1135989 0.1877489 255 0 255
0.06615032 -0.120744 0.1925872 255 0 255
0.06682416 -0.1193967 0.1907503 255 0 255
0.06748147 -0.1180499 0.1889125 255 0 255
0.0684093 -0.1172399 0.1878674 255 0 255
0.06903744 -0.1158933 0.1860273 255 0 255
0.06964909 -0.1145472 0.1841866 255 0 255
0.07024431 -0.1132017 0.1823453 255 0 255
0.07112519 -0.11239 0.1812938 255 0 255
0.07199714 -0.1115772 0.1802402 255 0 255
0.07255049 -0.1102323 0.178396 255 0 255
0.07340086 -0.1094185 0.1773392 255 0 255
0.07455947 -0.109133 0.1770673 255 0 255
0.07507481 -0.1077881 0.1752197 255 0 255
0.07654764 -0.1080264 0.1757273 255 0 255
0.07769817 -0.1077337 0.1754452 255 0 255
0.07917929 -0.1079637 0.1759426 255 0 255
0.08100217 -0.1087136 0.1772169 255 0 255
0.08249889 -0.1089333 0.1777022 255 0 255
0.08400149 -0.1091482 0.1781818 255 0 255
0.08585697 -0.1098801 0.1794353 255 0 255
0.08772567 -0.1106051 0.180681 255 0 255
0.08960754 -0.1113232 0.1819189 255 0 255
0.09329297 -0.1146273 0.1870313 255 0 255
0.06511851 -0.1196072 0.1886858 255 0 255
0.06577676 -0.1182565 0.1868566 255 0 255
0.06670196 -0.1174468 0.1858188 255 0 255
0.06790555 -0.1171755 0.18557 255 0 255
0.06881676 -0.1163626 0.1845269 255 0 255
0.06942425 -0.1150106 0.1826917 255 0 255
0.07001526 -0.1136594 0.180856 255 0 255
0.0708922 -0.1128449 0.1798079 255 0 255
0.07145413 -0.1114943 0.1779704 255 0 255
0.07230943 -0.1106787 0.176919 255 0 255
0.07315586 -0.1098623 0.1758656 255 0 255
0.07399335 -0.1090449 0.1748102 255 0 255
0.07482195 -0.1082266 0.1737529 255 0 255
0.07629132 -0.1084687 0.1742596 255 0 255
0.07776671 -0.1087061 0.1747607 255 0 255
0.07891579 -0.1084102 0.1744752 255 0 255
0.08107148 -0.1096947 0.1765264 255 0 255
0.08256849 -0.1099171 0.1770098 255 0 255
0.08441483 -0.1106605 0.1782658 255 0 255
0.0862745 -0.1113971 0.1795141 255 0 255
0.08814734 -0.112127 0.1807547 255 0 255
0.08967883 -0.1123272 0.1812124 255 0 255
0.09239704 -0.1121924 0.1813369 255 0 255
0.06629332 -0.1228048 0.1911298 255 0 255
0.06584677 -0.1192661 0.1861397 255 0 255
0.06705552 -0.1189964 0.1858943 255 0 255
0.06797542 -0.1181811 0.184856 255 0 255
0.06830401 -0.1162808 0.1822386 255 0 255
0.06919855 -0.115465 0.1811974 255 0 255
0.0697854 -0.1141079 0.1793672 255 0 255
0.07035583 -0.1127515 0.1775366 255 0 255
0.07121611 -0.1119343 0.1764906 255 0 255
0.07237758 -0.1116536 0.1762268 255 0 255
0.07322382 -0.1108336 0.175176 255 0 255
0.07406117 -0.1100127 0.1741232 255 0 255
0.07521089 -0.1097255 0.17385 255 0 255
0.07635919 -0.1094356 0.1735732 255 0 255
0.07783486 -0.1096758 0.1740723 255 0 255
0.07931647 -0.1099113 0.174566 255 0 255
0.08114035 -0.1106729 0.175832 255 0 255
0.08229759 -0.1103681 0.1755366 255 0 255
0.08414073 -0.1111184 0.1767894 255 0 255
0.08599712 -0.1118619 0.1780346 255 0 255
0.0878668 -0.1125985 0.1792721 255 0 255
0.08974966 -0.1133284 0.1805019 255 0 255
0.09307969 -0.1161507 0.1848118 255 0 255
0.06591641 -0.1202727 0.1854187 255 0 255
0.06684127 -0.1194559 0.184386 255 0 255
0.06775723 -0.1186379 0.183351 255 0 255
0.06808139 -0.1167287 0.1807415 255 0 255
0.06897198 -0.1159101 0.1797036 255 0 255
0.06985367 -0.1150906 0.1786636 255 0 255
0.07072645 -0.11427 0.1776214 255 0 255
0.07128382 -0.1129068 0.1757944 255 0 255
0.07213499 -0.1120851 0.1747489 255 0 255
0.0729773 -0.1112624 0.1737015 255 0 255
0.07381068 -0.1104389 0.1726521 255 0 255
0.07495671 -0.1101522 0.1723801 255 0 255
0.07610132 -0.1098629 0.1721045 255 0 255
0.07724442 -0.1095708 0.1718252 255 0 255
0.07905161 -0.1103459 0.1730953 255 0 255
0.08053574 -0.1105804 0.1735824 255 0 255
0.0820258 -0.1108102 0.174064 255 0 255
0.08386567 -0.1115672 0.1753136 255 0 255
0.08571887 -0.1123175 0.1765556 255 0 255
0.08758527 -0.113061 0.17779 255 0 255
0.08981992 -0.1143267 0.1797874 255 0 255
0.09279262 -0.1166393 0.1833145 255 0 255
0.06486432 -0.1190734 0.1815492 255 0 255
0.06605797 -0.1188064 0.1813075 255 0 255
0.06725031 -0.1185365 0.181062 255 0 255
0.06814963 -0.1177156 0.1800289 255 0 255
0.0687446 -0.1163462 0.1782105 255 0 255
0.06962234 -0.115524 0.1771739 255 0 255
0.07049116 -0.1147007 0.1761351 255 0 255
0.07104433 -0.1133318 0.1743137 255 0 255
0.07189156 -0.1125075 0.1732717 255 0 255
0.07272994 -0.1116822 0.1722277 255 0 255
0.07387736 -0.1113979 0.1719597 255 0 255
0.07502346 -0.111111 0.1716881 255 0 255
0.07584254 -0.1102812 0.1706365 255 0 255
0.0773112 -0.1105287 0.1711337 255 0 255
0.0787859 -0.1107715 0.1716253 255 0 255
0.07992981 -0.1104726 0.1713381 255 0 255
0.08141265 -0.110707 0.1718196 255 0 255
0.08324559 -0.1114719 0.173067 255 0 255
0.08509175 -0.1122299 0.1743068 255 0 255
0.08695127 -0.1129813 0.1755389 255 0 255
0.08917918 -0.1142578 0.1775319 255 0 255
0.09250457 -0.1171188 0.1818177 255 0 255
0.0947846 -0.1183742 0.183788 255 0 255
0.06549343 -0.1211696 0.1823972 255 0 255
0.06612603 -0.1197944 0.1805881 255 0 255
0.06703023 -0.1189719 0.1795605 255 0 255
0.06792556 -0.1181483 0.1785308 255 0 255
0.06851635 -0.1167732 0.1767181 255 0 255
0.06909065 -0.1153987 0.1749049 255 0 255
0.07025497 -0.1151224 0.1746494 255 0 255
0.07080398 -0.1137478 0.1728338 255 0 255
0.07164726 -0.1129209 0.1717952 255 0 255
0.07279616 -0.1126389 0.1715312 255 0 255
0.0742619 -0.1128993 0.1720392 255 0 255
0.07541171 -0.112611 0.171767 255 0 255
0.07656004 -0.1123199 0.171491 255 0 255
0.07770699 -0.112026 0.1712114 255 0 255
0.07885244 -0.1117293 0.1709282 255 0 255
0.07999638 -0.1114299 0.1706412 255 0 255
0.08147947 -0.111667 0.1711207 255 0 255
0.08331284 -0.1124377 0.172364 255 0 255
0.0851595 -0.1132016 0.1735996 255 0 255
0.0873712 -0.114495 0.1755948 255 0 255
0.08960349 -0.1157794 0.1775804 255 0 255
0.09221555 -0.1175891 0.1803214 255 0 255
0.09376688 -0.1177881 0.1807578 255 0 255
0.09825623 -0.1222392 0.1872939 255 0 255
0.06518979 -0.1241015 0.1842549 255 0 255
0.06696521 -0.1249466 0.1855769 255 0 255
0.06676272 -0.1218919 0.1814264 255 0 255
0.0676743 -0.1210642 0.1803999 255 0 255
0.06799278 -0.1191264 0.1778126 255 0 255
0.06858314 -0.1177446 0.1760048 255 0 255
0.06885742 -0.1158109 0.1734189 255 0 255
0.07001797 -0.1155351 0.1731646 255 0 255
0.07086994 -0.1147056 0.1721306 255 0 255
0.07202403 -0.1144252 0.1718697 255 0 255
0.0731767 -0.1141419 0.1716052 255 0 255
0.07464641 -0.1144041 0.1721103 255 0 255
0.07547776 -0.1135672 0.171065 255 0 255
0.07662615 -0.1132757 0.1707894 255 0 255
0.07777305 -0.1129814 0.1705101 255 0 255
0.07858513 -0.11214 0.1694574 255 0 255
0.07972534 -0.1118412 0.1691717 255 0 255
0.08086408 -0.1115396 0.1688824 255 0 255
0.08269046 -0.112318 0.1701233 255 0 255
0.08453014 -0.1130897 0.1713566 255 0 255
0.0867351 -0.1143939 0.1733474 255 0 255
0.08824931 -0.1146126 0.1738005 255 0 255
0.09048802 -0.115901 0.1757738 255 0 255
0.09238418 -0.1166441 0.1769754 255 0 255
0.09319314 -0.1157746 0.1758861 255 0 255
0.06731492 -0.1265111 0.1856125 255 0 255
0.06626084 -0.1217616 0.1791375 255 0 255
0.0671647 -0.1209322 0.1781152 255 0 255
0.06747494 -0.1189864 0.1755367 255 0 255
0.06835345 -0.1181565 0.1745116 255 0 255
0.06892319 -0.1167697 0.172709 255 0 255
0.07008374 -0.1164936 0.172455 255 0 255
0.07093555 -0.1156606 0.1714236 255 0 255
0.07208961 -0.1153798 0.1711631 255 0 255
0.07292738 -0.114544 0.1701268 255 0 255
0.07439356 -0.1148098 0.1706309 255 0 255
0.07522096 -0.1139703 0.1695891 255 0 255
0.0763656 -0.1136793 0.1693147 255 0 255
0.07717893 -0.1128372 0.1682683 255 0 255
0.07831693 -0.1125417 0.1679875 255 0 255
0.07979078 -0.1127899 0.1684696 255 0 255
0.08092952 -0.1124879 0.1681806 255 0 255
0.08275633 -0.113272 0.1694172 255 0 255
0.08459646 -0.1140495 0.1706463 255 0 255
0.08644982 -0.1148201 0.1718679 255 0 255
0.08831647 -0.1155839 0.1730817 255 0 255
0.09019623 -0.1163407 0.1742879 255 0 255
0.09136255 -0.1160119 0.1739669 255 0 255
0.09252726 -0.1156802 0.1736421 255 0 255
0.0959142 -0.1185692 0.1778592 255 0 255
0.06682103 -0.1263891 0.1833087 255 0 255
0.06575772 -0.121616 0.1768541 255 0 255
0.06607627 -0.1196617 0.1742851 255 0 255
0.0672484 -0.1193919 0.1740409 255 0 255
0.06812286 -0.1185594 0.1730192 255 0 255
0.06868844 -0.1171668 0.1712223 255 0 255
0.07014911 -0.1174493 0.1717416 255 0 255
0.07130831 -0.1171699 0.1714842 255 0 255
0.07215478 -0.1163316 0.1704526 255 0 255
0.07330746 -0.1160476 0.1701887 255 0 255
0.07413984 -0.1152064 0.1691523 255 0 255
0.07528591 -0.1149178 0.1688819 255 0 255
0.07643057 -0.1146264 0.1686078 255 0 255
0.07757379 -0.1143323 0.1683301 255 0 255
0.0787155 -0.1140354 0.1680488 255 0 255
0.07985575 -0.1137357 0.1677637 255 0 255
0.08133579 -0.1139818 0.1682383 255 0 255
0.08282173 -0.1142233 0.1687074 255 0 255
0.08466228 -0.1150064 0.1699323 255 0 255
0.08651609 -0.1157828 0.1711495 255 0 255
0.08838312 -0.1165523 0.1723591 255 0 255
0.09026332 -0.1173148 0.1735611 255 0 255
0.09179316 -0.117528 0.1739978 255 0 255
0.09332873 -0.1177362 0.1744287 255 0 255
0.06582372 -0.1225862 0.1761239 255 0 255
0.06614164 -0.1206222 0.1735621 255 0 255
0.06702103 -0.1197882 0.1725459 255 0 255
0.06818806 -0.119516 0.1722991 255 0 255
0.06875318 -0.118117 0.1705073 255 0 255
0.06991001 -0.1178409 0.1702546 255 0 255
0.07137325 -0.1181223 0.1707674 255 0 255
0.07221953 -0.1172805 0.1697384 255 0 255
0.0733722 -0.1169961 0.1694748 255 0 255
0.07452346 -0.116709 0.1692075 255 0 255
0.07535043 -0.1158625 0.168171 255 0 255
0.07682168 -0.1161263 0.1686619 255 0 255
0.0779686 -0.1158307 0.1683836 255 0 255
0.07911404 -0.1155325 0.1681017 255 0 255
0.08025803 -0.1152314 0.1678161 255 0 255
0.081742 -0.1154792 0.1682878 255 0 255
0.08288665 -0.1151716 0.1679939 255 0 255
0.0843787 -0.1154109 0.1684554 255 0 255
0.08622921 -0.116194 0.1696693 255 0 255
0.08809297 -0.1169702 0.1708757 255 0 255
0.08960987 -0.1171929 0.1713182 255 0 255
0.09113251 -0.1174107 0.171755 255 0 255
0.09229349 -0.1170792 0.171432 255 0 255
0.0664601 -0.1246907 0.1769328 255 0 255
0.06678499 -0.1227153 0.1743768 255 0 255
0.06708579 -0.1207423 0.1718218 255 0 255
0.06825282 -0.1204698 0.1715753 255 0 255
0.06911801 -0.1196293 0.1705567 255 0 255
0.06997432 -0.1187878 0.1695361 255 0 255
0.07112971 -0.1185086 0.1692801 255 0 255
0.0722838 -0.1182266 0.1690205 255 0 255
0.07343647 -0.1179418 0.1687572 255 0 255
0.07426844 -0.1170937 0.1677261 255 0 255
0.07541453 -0.1168043 0.1674563 255 0 255
0.07688595 -0.1170708 0.1679453 255 0 255
0.07803286 -0.1167749 0.1676673 255 0 255
0.07884408 -0.1159195 0.1666252 255 0 255
0.08032232 -0.1161747 0.1671004 255 0 255
0.08180643 -0.1164251 0.1675701 255 0 255
0.08295107 -0.1161171 0.1672765 255 0 255
0.08444333 -0.116359 0.1677361 255 0 255
0.08594143 -0.1165961 0.16819 255 0 255
0.08780188 -0.1173791 0.169393 255 0 255
0.08967553 -0.1181551 0.1705884 255 0 255
0.09083446 -0.1178269 0.1702705 255 0 255
0.09272698 -0.118591 0.1714523 255 0 255
0.09426124 -0.1188016 0.1718756 255 0 255
0.0662401 -0.1250895 0.175421 255 0 255
0.06656055 -0.1231053 0.1728732 255 0 255
0.06744333 -0.1222636 0.1718615 255 0 255
0.06831715 -0.1214207 0.1708477 255 0 255
0.06948279 -0.1211449 0.1705977 255 0 255
0.07034269 -0.1202991 0.169579 255 0 255
0.07119366 -0.1194522 0.1685582 255 0 255
0.07234769 -0.1191698 0.1682988 255 0 255
0.07350037 -0.1188847 0.1680358 255 0 255
0.07433208 -0.1180331 0.1670074 255 0 255
0.07547814 -0.1177433 0.1667379 255 0 255
0.07727674 -0.1185741 0.1679849 255 0 255
0.0784274 -0.1182768 0.1677063 255 0 255
0.07924213 -0.117417 0.1666659 255 0 255
0.08072425 -0.1176739 0.1671382 255 0 255
0.08187044 -0.1173682 0.1668487 255 0 255
0.08301506 -0.1170597 0.1665555 255 0 255
0.08450747 -0.1173043 0.167013 255 0 255
0.08600573 -0.117544 0.167465 255 0 255
0.0878666 -0.1183326 0.1686637 255 0 255
0.08974066 -0.1191143 0.1698547 255 0 255
0.09089955 -0.1187857 0.1695372 255 0 255
0.09316026 -0.120106 0.1714641 255 0 255
0.09544142 -0.1214171 0.1733811 255 0 255
0.06662498 -0.1240602 0.1721365 255 0 255
0.0678008 -0.123788 0.1718927 255 0 255
0.06867826 -0.1229408 0.1708807 255 0 255
0.06954677 -0.1220925 0.1698667 255 0 255
0.07040639 -0.1212432 0.1688506 255 0 255
0.07156557 -0.1209624 0.1685944 255 0 255
0.07241113 -0.1201102 0.1675734 255 0 255
0.07356375 -0.1198246 0.1673108 255 0 255
0.07471496 -0.1195363 0.1670444 255 0 255
0.0758648 -0.1192451 0.1667744 255 0 255
0.07734038 -0.1195159 0.1672584 255 0 255
0.07849099 -0.1192182 0.1669802 255 0 255
0.0796401 -0.1189177 0.1666983 255 0 255
0.08078779 -0.1186145 0.1664128 255 0 255
0.08193389 -0.1183084 0.1661236 255 0 255
0.0830785 -0.1179995 0.1658307 255 0 255
0.08457112 -0.1182467 0.1662862 255 0 255
0.0860696 -0.118489 0.1667362 255 0 255
0.08757387 -0.1187265 0.1671804 255 0 255
0.08908396 -0.1189591 0.1676191 255 0 255
0.09059982 -0.1191868 0.168052 255 0 255
0.09248944 -0.1199633 0.1692263 255 0 255
0.09402039 -0.1201801 0.1696467 255 0 255
0.06726853 -0.126166 0.1729233 255 0 255
0.06786481 -0.1247395 0.1711526 255 0 255
0.06874197 -0.1238889 0.1701433 255 0 255
0.06961026 -0.1230372 0.1691319 255 0 255
0.07046967 -0.1221845 0.1681185 255 0 255
0.07132015 -0.1213308 0.1671031 255 0 255
0.07278657 -0.1216192 0.1676031 255 0 255
0.07394296 -0.1213323 0.1673399 255 0 255
0.07509789 -0.1210426 0.167073 255 0 255
0.07625142 -0.1207501 0.1668024 255 0 255
0.07773086 -0.1210226 0.1672834 255 0 255
0.07855406 -0.1201567 0.1662503 255 0 255
0.07970317 -0.1198558 0.1659688 255 0 255
0.0808508 -0.1195521 0.1656836 255 0 255
0.08199693 -0.1192456 0.1653947 255 0 255
0.08314149 -0.1189364 0.1651022 255 0 255
0.08428455 -0.1186243 0.1648061 255 0 255
0.0857795 -0.1188702 0.1652549 255 0 255
0.08728025 -0.1191114 0.1656982 255 0 255
0.08878681 -0.1193476 0.1661358 255 0 255
0.09029914 -0.119579 0.1665678 255 0 255
0.09181722 -0.1198054 0.166994 255 0 255
0.09371295 -0.1205825 0.1681582 255 0 255
0.06929618 -0.1337827 0.1807974 255 0 255
0.06907251 -0.1306012 0.1767417 255 0 255
0.06880971 -0.1274256 0.17269 255 0 255
0.06969798 -0.1265688 0.171681 255 0 255
0.07027601 -0.1251337 0.1699111 255 0 255
0.07114269 -0.1242757 0.1688988 255 0 255
0.07200047 -0.1234167 0.1678843 255 0 255
0.07316197 -0.1231314 0.1676242 255 0 255
0.07400569 -0.1222695 0.166605 255 0 255
0.07516062 -0.1219794 0.1663384 255 0 255
0.07663798 -0.1222583 0.1668219 255 0 255
0.07779372 -0.1219617 0.1665471 255 0 255
0.07861669 -0.1210923 0.1655167 255 0 255
0.07976578 -0.120791 0.1652355 255 0 255
0.08091337 -0.1204869 0.1649507 255 0 255
0.08205948 -0.12018 0.1646622 255 0 255
0.08320401 -0.1198703 0.16437 255 0 255
0.08469697 -0.1201227 0.1648215 255 0 255
0.08619577 -0.1203702 0.1652674 255 0 255
0.08770043 -0.1206129 0.1657077 255 0 255
0.08884981 -0.1202889 0.165398 255 0 255
0.09036233 -0.1205229 0.1658279 255 0 255
0.09224898 -0.1213116 0.1669945 255 0 255
0.0941487 -0.1220932 0.1681532 255 0 255
0.06826673 -0.1298224 0.1736981 255 0 255
0.06887344 -0.1283803 0.1719352 255 0 255
0.07005923 -0.1281015 0.1716862 255 0 255
0.07094213 -0.1272394 0.170677 255 0 255
0.07151084 -0.1257967 0.16891 255 0 255
0.07268121 -0.125512 0.1686523 255 0 255
0.07322452 -0.124069 0.166883 255 0 255
0.07438461 -0.1237805 0.1666195 255 0 255
0.07522289 -0.1229133 0.1656002 255 0 255
0.07637635 -0.12262 0.1653303 255 0 255
0.07720054 -0.1217501 0.1643062 255 0 255
0.07834734 -0.1214521 0.1640299 255 0 255
0.07915736 -0.1205795 0.1630013 255 0 255
0.08063651 -0.1208478 0.1634663 255 0 255
0.0817788 -0.1205415 0.1631791 255 0 255
0.08326606 -0.1208013 0.1636341 255 0 255
0.08475918 -0.1210563 0.1640836 255 0 255
0.0859043 -0.1207396 0.1637835 255 0 255
0.0874054 -0.1209858 0.1642227 255 0 255
0.08855103 -0.1206625 0.1639144 255 0 255
0.09042493 -0.1214638 0.1650843 255 0 255
0.09194333 -0.1216954 0.1655065 255 0 255
0.09346744 -0.121922 0.165923 255 0 255
0.06978254 -0.133711 0.1767164 255 0 255
0.06952516 -0.1305025 0.1726878 255 0 255
0.07071849 -0.1302215 0.1724375 255 0 255
0.07130692 -0.1287708 0.1706754 255 0 255
0.07187893 -0.1273207 0.1689128 255 0 255
0.07305305 -0.1270347 0.1686546 255 0 255
0.07391272 -0.1261651 0.1676411 255 0 255
0.07444665 -0.1247148 0.1658749 255 0 255
0.0752847 -0.1238442 0.1648582 255 0 255
0.07643814 -0.1235505 0.1645887 255 0 255
0.07726207 -0.1226771 0.1635673 255 0 255
0.07807709 -0.1218029 0.1625442 255 0 255
0.07921863 -0.1215027 0.1622655 255 0 255
0.08035868 -0.1211998 0.1619831 255 0 255
0.0818402 -0.121467 0.1624416 255 0 255
0.08332757 -0.1217294 0.1628946 255 0 255
0.08482088 -0.121987 0.163342 255 0 255
0.08632001 -0.1222397 0.1637838 255 0 255
0.08746722 -0.1219187 0.1634795 255 0 255
0.0886128 -0.1215948 0.1631715 255 0 255
0.09012193 -0.121835 0.1635984 255 0 255
0.0916368 -0.1220702 0.1640196 255 0 255
0.0935299 -0.1228651 0.1651716 255 0 255
0.06841093 -0.1291042 0.1689078 255 0 255
0.07018542 -0.1300012 0.1701658 255 0 255
0.07136975 -0.1297187 0.1699137 255 0 255
0.07224701 -0.1288478 0.1689071 255 0 255
0.07311537 -0.1279759 0.1678983 255 0 255
0.074288 -0.1276866 0.1676367 255 0 255
0.07482529 -0.1262289 0.1658748 255 0 255
0.07566684 -0.125354 0.1648601 255 0 255
0.07682396 -0.1250589 0.1645899 255 0 255
0.07732318 -0.1236013 0.1628249 255 0 255
0.07813792 -0.1227237 0.1618044 255 0 255
0.07927942 -0.1224231 0.1615261 255 0 255
0.08041948 -0.1221198 0.1612441 255 0 255
0.08155796 -0.1218136 0.1609585 255 0 255
0.08304177 -0.1220796 0.1614103 255 0 255
0.08418098 -0.1217668 0.1611165 255 0 255
0.08567286 -0.1220242 0.1615582 255 0 255
0.08717053 -0.1222766 0.1619943 255 0 255
0.08831237 -0.1219535 0.1616877 255 0 255
0.08981796 -0.1221972 0.1621136 255 0 255
0.09169835 -0.1230047 0.1632689 255 0 255
0.09396449 -0.1243727 0.1651506 255 0 255
0.06965139 -0.1324089 0.1711496 255 0 255
0.07114294 -0.1327175 0.1716499 255 0 255
0.07233858 -0.132432 0.1713957 255 0 255
0.07292091 -0.1309664 0.169641 255 0 255
0.07348691 -0.1295016 0.1678859 255 0 255
0.07434985 -0.1286244 0.166877 255 0 255
0.07488666 -0.1271603 0.1651203 255 0 255
0.07572797 -0.1262819 0.1641083 255 0 255
0.07656038 -0.1254027 0.1630944 255 0 255
0.07738379 -0.1245225 0.1620787 255 0 255
0.07819831 -0.1236414 0.161061 255 0 255
0.07933977 -0.1233405 0.160783 255 0 255
0.08014014 -0.1224568 0.1597608 255 0 255
0.08127487 -0.1221512 0.1594765 255 0 255
0.08240811 -0.1218429 0.1591886 255 0 255
0.08389054 -0.1221086 0.1596347 255 0 255
0.08502439 -0.1217937 0.1593386 255 0 255
0.08687297 -0.1226257 0.1605104 255 0 255
0.08801107 -0.1223031 0.1602051 255 0 255
0.08987866 -0.1231232 0.1613637 255 0 255
0.09139012 -0.1233645 0.1617818 255 0 255
0.09365313 -0.1247422 0.1636577 255 0 255
0.07090699 -0.1330754 0.1701255 255 0 255
0.07209878 -0.1327904 0.1698724 255 0 255
0.07298307 -0.1319109 0.1688697 255 0 255
0.07385847 -0.1310304 0.1678648 255 0 255
0.07409763 -0.1289694 0.1653694 255 0 255
0.07463028 -0.1274999 0.1636188 255 0 255
0.07546755 -0.1266191 0.1626104 255 0 255
0.07629592 -0.1257374 0.1616002 255 0 255
0.07744398 -0.1254407 0.1613288 255 0 255
0.07825824 -0.1245563 0.160314 255 0 255
0.07939965 -0.1242549 0.1600363 255 0 255
0.07985992 -0.1227849 0.1582788 255 0 255
0.08099093 -0.1224799 0.1579958 255 0 255
0.08246758 -0.1227531 0.1584453 255 0 255
0.08359921 -0.1224416 0.1581542 255 0 255
0.08472928 -0.1221272 0.1578594 255 0 255
0.0862162 -0.122388 0.1582943 255 0 255
0.08770891 -0.1226438 0.1587237 255 0 255
0.08957312 -0.1234705 0.1598788 255 0 255
0.09108102 -0.1237154 0.1602959 255 0 255
0.09296776 -0.124529 0.1614366 255 0 255
0.07246324 -0.1343306 0.1698388 255 0 255
0.07335104 -0.1334469 0.1688381 255 0 255
0.07391987 -0.1319684 0.1670925 255 0 255
0.07447221 -0.1304908 0.1653467 255 0 255
0.07469053 -0.1284223 0.1628594 255 0 255
0.0758489 -0.1281289 0.1625939 255 0 255
0.07668081 -0.1272429 0.1615856 255 0 255
0.07783253 -0.1269448 0.1613137 255 0 255
0.07865024 -0.126056 0.1603008 255 0 255
0.07945902 -0.1251664 0.1592859 255 0 255
0.0802589 -0.1242759 0.1582694 255 0 255
0.08104982 -0.1233846 0.157251 255 0 255
0.08217918 -0.1230765 0.1569648 255 0 255
0.08365814 -0.1233484 0.1574077 255 0 255
0.0847882 -0.1230337 0.1571133 255 0 255
0.08627518 -0.1232969 0.1575461 255 0 255
0.08813023 -0.1241351 0.1587033 255 0 255
0.08963254 -0.1243875 0.159124 255 0 255
0.0918798 -0.1257902 0.1609947 255 0 255
0.09340093 -0.1260305 0.161402 255 0 255
0.07282766 -0.1358737 0.1697965 255 0 255
0.07371897 -0.1349857 0.1687978 255 0 255
0.07429107 -0.1335 0.1670567 255 0 255
0.07484671 -0.1320151 0.1653152 255 0 255
0.07538591 -0.130531 0.1635734 255 0 255
0.07590869 -0.1290479 0.1618313 255 0 255
0.07674032 -0.1281585 0.1608257 255 0 255
0.07756297 -0.1272682 0.1598184 255 0 255
0.07870946 -0.1269679 0.159544 255 0 255
0.07951796 -0.1260749 0.158532 255 0 255
0.08031756 -0.125181 0.1575183 255 0 255
0.08110821 -0.1242864 0.1565028 255 0 255
0.08223749 -0.1239778 0.1562168 255 0 255
0.08371659 -0.1242523 0.1566576 255 0 255
0.08484659 -0.1239371 0.1563636 255 0 255
0.08669247 -0.1247867 0.1575227 255 0 255
0.08855148 -0.1256293 0.1586743 255 0 255
0.09005763 -0.1258831 0.1590919 255 0 255
0.09193926 -0.1267127 0.1602293 255 0 255
0.09346049 -0.1269555 0.1606346 255 0 255
0.07258742 -0.1389131 0.1714803 255 0 255
0.07349493 -0.138021 0.1704849 255 0 255
0.07347341 -0.1353264 0.1672718 255 0 255
0.07404133 -0.1338353 0.1655369 255 0 255
0.07459277 -0.132345 0.1638015 255 0 255
0.07512778 -0.1308556 0.1620658 255 0 255
0.07564633 -0.129367 0.1603299 255 0 255
0.07679938 -0.129071 0.1600623 255 0 255
0.07762175 -0.1281774 0.1590576 255 0 255
0.07876814 -0.1278767 0.1587837 255 0 255
0.0795764 -0.1269803 0.1577745 255 0 255
0.08037575 -0.1260831 0.1567636 255 0 255
0.08151022 -0.1257759 0.1564807 255 0 255
0.08264318 -0.1254659 0.1561941 255 0 255
0.08412611 -0.125742 0.1566318 255 0 255
0.08525968 -0.1254254 0.1563372 255 0 255
0.08675062 -0.1256927 0.1567649 255 0 255
0.08860999 -0.1265407 0.1579119 255 0 255
0.09011621 -0.1267971 0.1583274 255 0 255
0.09199818 -0.1276321 0.1594602 255 0 255
0.09351949 -0.1278774 0.1598634 255 0 255
0.07384638 -0.1422847 0.1736289 255 0 255
0.07355633 -0.1389683 0.1696859 255 0 255
0.07384088 -0.1368649 0.1672191 255 0 255
0.07410141 -0.1347641 0.1647535 255 0 255
0.07465239 -0.1332675 0.1630235 255 0 255
0.07550508 -0.1323724 0.1620265 255 0 255
0.07602692 -0.1308766 0.1602951 255 0 255
0.07685798 -0.1299806 0.1592952 255 0 255
0.0776801 -0.1290836 0.1582934 255 0 255
0.07882642 -0.1287825 0.1580198 255 0 255
0.07963441 -0.1278827 0.1570134 255 0 255
0.080774 -0.127577 0.1567335 255 0 255
0.08156783 -0.1266746 0.1557227 255 0 255
0.08270071 -0.1263643 0.1554365 255 0 255
0.08418377 -0.1266428 0.1558722 255 0 255
0.08567268 -0.1269165 0.1563022 255 0 255
0.08680831 -0.1265956 0.1560034 255 0 255
0.08866797 -0.1274491 0.1571459 255 0 255
0.0901743 -0.127708 0.1575593 255 0 255
0.09168636 -0.1279619 0.1579671 255 0 255
0.09320411 -0.1282109 0.1583692 255 0 255
0.04426845 -0.3117618 0.3680822 255 0 255
0.05085333 -0.3103182 0.3669026 255 0 255
0.07330934 -0.1420275 0.1713431 255 0 255
0.07361727 -0.1399124 0.1688831 255 0 255
0.0735941 -0.1371934 0.1656908 255 0 255
0.07385024 -0.1350843 0.1632338 255 0 255
0.07439697 -0.1335824 0.1615099 255 0 255
0.07556397 -0.1332884 0.1612477 255 0 255
0.07608532 -0.1317864 0.1595216 255 0 255
0.07724196 -0.1314887 0.1592538 255 0 255
0.07773799 -0.1299867 0.1575256 255 0 255
0.07888419 -0.1296852 0.1572523 255 0 255
0.07969191 -0.1287822 0.1562488 255 0 255
0.08083144 -0.128476 0.1559692 255 0 255
0.08162501 -0.1275703 0.1549612 255 0 255
0.08310597 -0.1278552 0.1553993 255 0 255
0.08424097 -0.1275406 0.1551089 255 0 255
0.08572993 -0.1278168 0.1555369 255 0 255
0.08686548 -0.1274955 0.1552384 255 0 255
0.08872546 -0.1283544 0.1563762 255 0 255
0.08986519 -0.1280254 0.1560686 255 0 255
0.091744 -0.1288723 0.1571932 255 0 255
0.09326191 -0.1291237 0.1575933 255 0 255
0.04662361 -0.3132032 0.3664876 255 0 255
0.0489882 -0.3135769 0.3671034 255 0 255
0.05162018 -0.3152275 0.3692233 255 0 255
0.07428478 -0.1420738 0.1695402 255 0 255
0.07457553 -0.1399501 0.1670876 255 0 255
0.07484227 -0.1378291 0.1646361 255 0 255
0.07508504 -0.1357106 0.1621858 255 0 255
0.07625943 -0.1354144 0.1619222 255 0 255
0.07678784 -0.1339043 0.1601997 255 0 255
0.07762586 -0.1329996 0.1592038 255 0 255
0.07812513 -0.1314904 0.15748 255 0 255
0.07894153 -0.1305849 0.1564812 255 0 255
0.07974894 -0.1296785 0.1554806 255 0 255
0.08088838 -0.129372 0.1552013 255 0 255
0.08168168 -0.128463 0.1541962 255 0 255
0.08316272 -0.1287504 0.1546321 255 0 255
0.08464968 -0.1290329 0.1550625 255 0 255
0.08578671 -0.1287141 0.154768 255 0 255
0.08692216 -0.1283923 0.1544698 255 0 255
0.08841921 -0.1286622 0.1548856 255 0 255
0.08992203 -0.1289272 0.1552957 255 0 255
0.09143062 -0.1291872 0.1557003 255 0 255
0.09294487 -0.1294422 0.1560992 255 0 255
0.0439063 -0.3119339 0.3613831 255 0 255
0.04661652 -0.3142557 0.3642661 255 0 255
0.04859743 -0.312697 0.3626195 255 0 255
0.05121417 -0.3143582 0.364733 255 0 255
0.05398776 -0.3166552 0.367591 255 0 255
0.07313053 -0.1405646 0.165808 255 0 255
0.07309812 -0.1378232 0.1626381 255 0 255
0.07396779 -0.1369203 0.1616538 255 0 255
0.0745136 -0.1354059 0.1599407 255 0 255
0.0759991 -0.1357207 0.1604051 255 0 255
0.07684571 -0.1348137 0.159414 255 0 255
0.07768343 -0.1339058 0.1584209 255 0 255
0.07851221 -0.1329969 0.1574259 255 0 255
0.07933204 -0.1320871 0.156429 255 0 255
0.08014295 -0.1311764 0.1554304 255 0 255
0.08094484 -0.1302649 0.1544299 255 0 255
0.08208269 -0.1299551 0.1541475 255 0 255
0.08321899 -0.1296425 0.1538614 255 0 255
0.08435377 -0.129327 0.1535718 255 0 255
0.08548702 -0.1290088 0.1532785 255 0 255
0.08697834 -0.1292862 0.1536977 255 0 255
0.0881121 -0.1289612 0.1533964 255 0 255
0.08924429 -0.1286334 0.1530914 255 0 255
0.09111629 -0.1294932 0.1542088 255 0 255
0.09262696 -0.1297518 0.1546067 255 0 255
0.05369946 -0.3164169 0.363856 255 0 255
0.07410135 -0.1433416 0.1671793 255 0 255
0.07377174 -0.1399702 0.1632916 255 0 255
0.07464869 -0.1390621 0.1623086 255 0 255
0.07488638 -0.1369263 0.1598749 255 0 255
0.07605682 -0.1366304 0.1596129 255 0 255
0.07690316 -0.1357201 0.1586246 255 0 255
0.07806697 -0.1354192 0.1583561 255 0 255
0.07856904 -0.1338966 0.1566423 255 0 255
0.07938857 -0.1329836 0.1556484 255 0 255
0.08019922 -0.1320696 0.1546526 255 0 255
0.08100084 -0.1311547 0.153655 255 0 255
0.08213856 -0.1308445 0.1533729 255 0 255
0.0832748 -0.1305316 0.1530872 255 0 255
0.08405702 -0.1296123 0.1520826 255 0 255
0.08554257 -0.129897 0.1525051 255 0 255
0.08667413 -0.1295755 0.1522086 255 0 255
0.08780411 -0.1292512 0.1519087 255 0 255
0.0889325 -0.1289241 0.1516051 255 0 255
0.09080108 -0.1297904 0.1527189 255 0 255
0.09230816 -0.1300524 0.1531155 255 0 255
0.07324857 -0.1424187 0.1641868 255 0 255
0.07439514 -0.1393609 0.1607819 255 0 255
0.07431307 -0.1366007 0.1576354 255 0 255
0.07611407 -0.1375368 0.1588171 255 0 255
0.07728298 -0.1372376 0.1585518 255 0 255
0.0781238 -0.136322 0.1575635 255 0 255
0.07895576 -0.1354056 0.1565735 255 0 255
0.08011276 -0.1350996 0.1562989 255 0 255
0.08059272 -0.13357 0.1545877 255 0 255
0.08139785 -0.1326509 0.1535921 255 0 255
0.08253918 -0.1323393 0.1533095 255 0 255
0.08333008 -0.1314175 0.1523094 255 0 255
0.08411203 -0.130495 0.1513077 255 0 255
0.08524134 -0.1301769 0.1510162 255 0 255
0.08636909 -0.1298561 0.1507212 255 0 255
0.08785898 -0.1301356 0.1511324 255 0 255
0.08898725 -0.129808 0.1508292 255 0 255
0.090485 -0.1300786 0.1512304 255 0 255
0.09198849 -0.1303443 0.1516259 255 0 255
0.07388795 -0.1418055 0.161674 255 0 255
0.07507604 -0.1415109 0.1614166 255 0 255
0.07500064 -0.1387368 0.1582791 255 0 255
0.07680938 -0.1396765 0.1594543 255 0 255
0.07733963 -0.1381405 0.1577527 255 0 255
0.07818021 -0.1372217 0.1567674 255 0 255
0.07901184 -0.136302 0.1557802 255 0 255
0.08016876 -0.1359956 0.155506 255 0 255
0.0806483 -0.1344598 0.1538003 255 0 255
0.08145304 -0.1335374 0.1528076 255 0 255
0.08259426 -0.1332254 0.1525253 255 0 255
0.08338485 -0.1323004 0.1515282 255 0 255
0.08416654 -0.1313746 0.1505294 255 0 255
0.08529573 -0.1310561 0.1502383 255 0 255
0.08678359 -0.1313419 0.1506518 255 0 255
0.08791335 -0.1310168 0.1503526 255 0 255
0.08904146 -0.1306888 0.1500498 255 0 255
0.09053929 -0.1309619 0.1504488 255 0 255
0.09204283 -0.13123 0.1508422 255 0 255
0.07544533 -0.1430462 0.1613201 255 0 255
0.07474142 -0.1390153 0.1567592 255 0 255
0.0762272 -0.1393403 0.1572148 255 0 255
0.07771903 -0.1396604 0.1576649 255 0 255
0.07823613 -0.1381183 0.1559677 255 0 255
0.07939812 -0.1378134 0.1556966 255 0 255
0.08055863 -0.1375056 0.1554218 255 0 255
0.08104142 -0.1359627 0.1537207 255 0 255
0.08184962 -0.135036 0.1527301 255 0 255
0.08264887 -0.1341085 0.1517376 255 0 255
0.08343919 -0.1331802 0.1507435 255 0 255
0.08386757 -0.131639 0.1490399 255 0 255
0.0853496 -0.1319322 0.1494568 255 0 255
0.08647714 -0.1316106 0.1491625 255 0 255
0.08760309 -0.131286 0.1488646 255 0 255
0.08872745 -0.1309587 0.1485631 255 0 255
0.09022161 -0.1312353 0.1489609 255 0 255
0.09172155 -0.1315069 0.1493532 255 0 255
0.07581445 -0.1445841 0.1612148 255 0 255
0.07448138 -0.1392849 0.155241 255 0 255
0.07628308 -0.1402373 0.1564083 255 0 255
0.07745164 -0.1399368 0.1561439 255 0 255
0.07829159 -0.1390116 0.1551645 255 0 255
0.0791226 -0.1380854 0.1541831 255 0 255
0.08061384 -0.1383982 0.1546193 255 0 255
0.08109614 -0.1368491 0.1529237 255 0 255
0.08190404 -0.1359192 0.1519359 255 0 255
0.08270302 -0.1349884 0.1509464 255 0 255
0.08349302 -0.1340568 0.1499552 255 0 255
0.08427409 -0.1331244 0.1489623 255 0 255
0.085403 -0.1328052 0.1486719 255 0 255
0.08653039 -0.1324831 0.148378 255 0 255
0.08765621 -0.1321582 0.1480804 255 0 255
0.08878047 -0.1318305 0.1477794 255 0 255
0.09027469 -0.1321095 0.148175 255 0 255
0.09177466 -0.1323836 0.148565 255 0 255
0.07587124 -0.1454958 0.1603885 255 0 255
0.07516872 -0.1414288 0.1558586 255 0 255
0.07697815 -0.1423846 0.1570193 255 0 255
0.07847757 -0.1427077 0.1574633 255 0 255
0.07900115 -0.1411514 0.1557754 255 0 255
0.07983934 -0.14022 0.1547953 255 0 255
0.08100331 -0.1399105 0.1545203 255 0 255
0.08148886 -0.1383543 0.1528293 255 0 255
0.08230019 -0.1374201 0.1518436 255 0 255
0.08310255 -0.136485 0.1508562 255 0 255
0.08354631 -0.1349303 0.1491635 255 0 255
0.08432707 -0.1339947 0.1481736 255 0 255
0.08545592 -0.1336751 0.1478835 255 0 255
0.08658318 -0.1333526 0.1475899 255 0 255
0.08807328 -0.1336419 0.1479924 255 0 255
0.08920104 -0.1333127 0.1476907 255 0 255
0.09032722 -0.1329806 0.1473855 255 0 255
0.09182723 -0.1332571 0.1477734 255 0 255
0.05492569 -0.3291183 0.357798 255 0 255
0.07686494 -0.1482988 0.1616873 255 0 255
0.0764887 -0.1448421 0.1578797 255 0 255
0.07735342 -0.1439104 0.1569084 255 0 255
0.0782092 -0.1429777 0.1559351 255 0 255
0.07872855 -0.1414164 0.1542536 255 0 255
0.07989388 -0.1411094 0.1539827 255 0 255
0.08072281 -0.1401737 0.1530036 255 0 255
0.08154274 -0.1392372 0.1520227 255 0 255
0.08235379 -0.1382998 0.1510399 255 0 255
0.08315584 -0.1373615 0.1500555 255 0 255
0.08394893 -0.1364224 0.1490692 255 0 255
0.08473309 -0.1354825 0.1480813 255 0 255
0.08586548 -0.1351614 0.1477907 255 0 255
0.08699628 -0.1348374 0.1474965 255 0 255
0.08812554 -0.1345106 0.1471987 255 0 255
0.08925319 -0.134181 0.1468975 255 0 255
0.09037924 -0.1338485 0.1465926 255 0 255
0.09187929 -0.1341274 0.1469783 255 0 255
0.05067183 -0.3203778 0.3447019 255 0 255
0.052999 -0.3207686 0.3452853 255 0 255
0.05463334 -0.3178173 0.3422028 255 0 255
0.05781733 -0.322197 0.3471616 255 0 255
0.0594299 -0.3192372 0.3440671 255 0 255
0.08096626 -0.1603141 0.1731378 255 0 255
0.07723396 -0.1498468 0.1615529 255 0 255
0.07717685 -0.147008 0.1584641 255 0 255
0.07740845 -0.1448063 0.1560834 255 0 255
0.07891169 -0.1451334 0.1565221 255 0 255
0.07911043 -0.1429334 0.1541408 255 0 255
0.07994794 -0.1419955 0.1531666 255 0 255
0.08077654 -0.1410567 0.1521905 255 0 255
0.08159622 -0.1401169 0.1512126 255 0 255
0.08240692 -0.1391763 0.1502329 255 0 255
0.08355492 -0.1388602 0.1499504 255 0 255
0.08435143 -0.1379169 0.1489663 255 0 255
0.08513896 -0.1369727 0.1479804 255 0 255
0.08591752 -0.1360278 0.1469928 255 0 255
0.08668715 -0.1350821 0.1460036 255 0 255
0.08781258 -0.134756 0.1457072 255 0 255
0.08893641 -0.134427 0.1454073 255 0 255
0.09005858 -0.1340952 0.1451039 255 0 255
0.09117921 -0.1337606 0.1447969 255 0 255
0.07760289 -0.1513972 0.1614096 255 0 255
0.07786523 -0.149182 0.1590344 255 0 255
0.07810367 -0.1469694 0.1566603 255 0 255
0.0786422 -0.1453941 0.1549894 255 0 255
0.07916432 -0.1438196 0.1533183 255 0 255
0.08000156 -0.1428785 0.152347 255 0 255
0.08049456 -0.141305 0.1506747 255 0 255
0.08164917 -0.1409934 0.150399 255 0 255
0.08280229 -0.1406789 0.1501196 255 0 255
0.08360738 -0.1397332 0.1491402 255 0 255
0.0844036 -0.1387866 0.148159 255 0 255
0.0851908 -0.1378392 0.1471761 255 0 255
0.08632662 -0.1375163 0.1468853 255 0 255
0.08709961 -0.1365663 0.1458981 255 0 255
0.08786365 -0.1356156 0.1449093 255 0 255
0.08898731 -0.1352862 0.1446098 255 0 255
0.09048167 -0.1355749 0.1449965 255 0 255
0.09160578 -0.1352388 0.1446889 255 0 255
0.002072046 -0.3221523 0.3367018 255 0 255
0.003791654 -0.3158627 0.3301336 255 0 255
0.005548256 -0.3109359 0.3250183 255 0 255
0.01423705 -0.2930879 0.3066497 255 0 255
0.01686504 -0.2983491 0.312441 255 0 255
0.07887062 -0.1520031 0.1602914 255 0 255
0.07944009 -0.1504169 0.1586232 255 0 255
0.07966884 -0.1481945 0.1562554 255 0 255
0.08020172 -0.146611 0.1545873 255 0 255
0.0807181 -0.1450286 0.152919 255 0 255
0.08121809 -0.1434471 0.1512505 255 0 255
0.0820408 -0.1424999 0.1502776 255 0 255
0.08285458 -0.1415519 0.149303 255 0 255
0.08400597 -0.141234 0.1490204 255 0 255
0.08480556 -0.1402832 0.1480413 255 0 255
0.08559616 -0.1393316 0.1470604 255 0 255
0.08637784 -0.1383792 0.1460779 255 0 255
0.08715048 -0.137426 0.1450938 255 0 255
0.08827931 -0.1370979 0.1447971 255 0 255
0.08940648 -0.1367671 0.144497 255 0 255
0.0905321 -0.1364334 0.1441933 255 0 255
0.09127992 -0.1354742 0.1432 255 0 255
-0.0001124439 -0.3218221 0.333026 255 0 255
0.002186007 -0.3237313 0.3352125 255 0 255
0.00405453 -0.3194701 0.3308496 255 0 255
0.005875553 -0.3152069 0.3264803 255 0 255
0.00811474 -0.3164155 0.3279205 255 0 255
0.009872041 -0.3121462 0.3235387 255 0 255
0.01144956 -0.306508 0.3176973 255 0 255
0.07829194 -0.1516281 0.1580378 255 0 255
0.07885342 -0.1500379 0.1563769 255 0 255
0.07939842 -0.1484485 0.1547156 255 0 255
0.07992706 -0.1468601 0.1530541 255 0 255
0.08043922 -0.1452726 0.1513923 255 0 255
0.08093495 -0.1436861 0.1497304 255 0 255
0.0814143 -0.1421008 0.1480683 255 0 255
0.08256333 -0.1417865 0.1477906 255 0 255
0.08336414 -0.1408354 0.1468181 255 0 255
0.08415596 -0.1398834 0.1458438 255 0 255
0.08529302 -0.1395626 0.1455573 255 0 255
0.08642852 -0.1392388 0.1452671 255 0 255
0.0868393 -0.1376527 0.1435985 255 0 255
0.08796425 -0.1373254 0.1433033 255 0 255
0.08908761 -0.1369952 0.1430045 255 0 255
0.09020939 -0.1366621 0.1427022 255 0 255
0.09132952 -0.1363262 0.1423964 255 0 255
-0.0002550537 -0.3192575 0.3271929 255 0 255
0.001740355 -0.3170493 0.3250257 255 0 255
0.003863579 -0.3169 0.3250248 255 0 255
0.005659497 -0.3126214 0.320672 255 0 255
0.007816796 -0.3131502 0.3213827 255 0 255
0.009482711 -0.3081791 0.3162934 255 0 255
0.07922808 -0.1515755 0.1562219 255 0 255
0.07945181 -0.1493364 0.1538716 255 0 255
0.08030818 -0.1483838 0.1529088 255 0 255
0.08082357 -0.1467894 0.1512518 255 0 255
0.08132255 -0.1451959 0.1495946 255 0 255
0.08180512 -0.1436036 0.1479374 255 0 255
0.08261455 -0.1426501 0.1469697 255 0 255
0.08341498 -0.1416958 0.1460001 255 0 255
0.08420649 -0.1407407 0.1450289 255 0 255
0.08569766 -0.1410541 0.1454295 255 0 255
0.0864787 -0.1400953 0.144453 255 0 255
0.08725072 -0.1391357 0.1434748 255 0 255
0.08801377 -0.1381754 0.1424951 255 0 255
0.08913699 -0.1378448 0.1421967 255 0 255
0.09025856 -0.1375114 0.1418948 255 0 255
0.09100214 -0.1365469 0.1409085 255 0 255
0.002320069 -0.3254897 0.3307724 255 0 255
0.004076196 -0.3198139 0.3249991 255 0 255
0.006206605 -0.3196587 0.324992 255 0 255
0.00845386 -0.3208778 0.3264215 255 0 255
0.07992362 -0.1537618 0.1567501 255 0 255
0.07950466 -0.150221 0.1530241 255 0 255
0.08068918 -0.1499098 0.1527546 255 0 255
0.08120779 -0.1483084 0.1511025 255 0 255
0.08171 -0.146708 0.1494502 255 0 255
0.08219579 -0.1451087 0.1477977 255 0 255
0.08300858 -0.144151 0.1468321 255 0 255
0.08346531 -0.142553 0.1451788 255 0 255
0.08460729 -0.1422332 0.1448956 255 0 255
0.08610219 -0.142548 0.145293 255 0 255
0.08688654 -0.1415849 0.1443186 255 0 255
0.08802383 -0.1412565 0.1440247 255 0 255
0.08879393 -0.1402908 0.1430461 255 0 255
0.08955508 -0.1393245 0.1420659 255 0 255
0.09068018 -0.1389895 0.1417634 255 0 255
0.09180366 -0.1386517 0.1414574 255 0 255
0.07965586 -0.154008 0.155196 255 0 255
0.07923212 -0.1504538 0.1514845 255 0 255
0.08107001 -0.1514379 0.1525916 255 0 255
0.0812595 -0.1491833 0.1502575 255 0 255
0.08176114 -0.1475769 0.1486109 255 0 255
0.08258632 -0.1466161 0.1476493 255 0 255
0.08340247 -0.1456542 0.1466858 255 0 255
0.08386241 -0.1440492 0.1450373 255 0 255
0.08500786 -0.143728 0.1447536 255 0 255
0.08615186 -0.1434039 0.1444663 255 0 255
0.08729424 -0.1430768 0.1441754 255 0 255
0.08843503 -0.1427469 0.143881 255 0 255
0.08920851 -0.141777 0.1429045 255 0 255
0.089973 -0.1408065 0.1419264 255 0 255
0.09110161 -0.14047 0.1416233 255 0 255
0.09222855 -0.1401307 0.1413166 255 0 255
0.07970861 -0.1548972 0.1543303 255 0 255
0.07993399 -0.152631 0.1520043 255 0 255
0.08145072 -0.1529683 0.1524198 255 0 255
0.08230831 -0.1520022 0.1514615 255 0 255
0.0824844 -0.1497388 0.1491348 255 0 255
0.08297663 -0.1481257 0.1474921 255 0 255
0.08413987 -0.1478058 0.1472123 255 0 255
0.08460674 -0.1461928 0.1455677 255 0 255
0.08540833 -0.1452251 0.1446028 255 0 255
0.08655582 -0.1448995 0.144315 255 0 255
0.08806024 -0.145213 0.1447013 255 0 255
0.08884604 -0.1442396 0.1437285 255 0 255
0.08962281 -0.1432655 0.1427541 255 0 255
0.09076024 -0.1429294 0.142453 255 0 255
0.09189598 -0.1425903 0.1421483 255 0 255
0.09303014 -0.1422484 0.1418401 255 0 255
