ply
format ascii 1.0
Comment Generated by Floating Hands
element vertex 1138
property double x
property double y
property double z
property uchar red
property uchar green
property uchar blue
end_header
0.1328451 -0.02584564 0.2790251 255 0 255
0.1354118 -0.02617715 0.2811822 255 0 255
0.1376027 -0.02627476 0.2824355 255 0 255
0.1398056 -0.02636588 0.2836785 255 0 255
0.1420202 -0.02645052 0.284911 255 0 255
0.1438413 -0.0263057 0.2852464 255 0 255
0.1477108 -0.02726612 0.2900002 255 0 255
0.1512078 -0.02799143 0.2938483 255 0 255
0.1543216 -0.02848431 0.2967947 255 0 255
0.1574609 -0.02896662 0.2997245 255 0 255
0.1606256 -0.02943831 0.3026377 255 0 255
0.1629629 -0.02946474 0.3037778 255 0 255
0.08514551 -0.03337894 0.2801557 255 0 255
0.08543794 -0.03211026 0.2761 255 0 255
0.08711091 -0.03211308 0.2766727 255 0 255
0.08821753 -0.03160552 0.2753902 255 0 255
0.08931512 -0.03109655 0.2741047 255 0 255
0.09011019 -0.03033444 0.2718941 255 0 255
0.09148314 -0.03007441 0.2715252 255 0 255
0.09225272 -0.02931097 0.269311 255 0 255
0.09361495 -0.02904684 0.2689345 255 0 255
0.09497543 -0.02877998 0.2685532 255 0 255
0.09633418 -0.02851043 0.2681671 255 0 255
0.09769119 -0.02823809 0.2677763 255 0 255
0.09936565 -0.02820971 0.2682957 255 0 255
0.1013685 -0.02842303 0.2697222 255 0 255
0.1024045 -0.02789508 0.2684011 255 0 255
0.1050823 -0.02858793 0.2716359 255 0 255
0.1077874 -0.02927191 0.2748571 255 0 255
0.1101821 -0.02970403 0.277155 255 0 255
0.1115736 -0.02940235 0.2767161 255 0 255
0.1136524 -0.02958046 0.2780867 255 0 255
0.1146988 -0.02903114 0.2767296 255 0 255
0.115384 -0.02824085 0.2744652 255 0 255
0.1164083 -0.02768998 0.2731044 255 0 255
0.1174233 -0.02713788 0.2717411 255 0 255
0.1187917 -0.0268219 0.2712766 255 0 255
0.1197918 -0.02626677 0.2699073 255 0 255
0.1211525 -0.02594609 0.2694344 255 0 255
0.1232582 -0.02609193 0.2707516 255 0 255
0.1253761 -0.0262316 0.2720589 255 0 255
0.1271254 -0.02613209 0.2724614 255 0 255
0.1296482 -0.02649217 0.2746435 255 0 255
0.132578 -0.02707534 0.2777053 255 0 255
0.1347512 -0.02718796 0.2789696 255 0 255
0.1369363 -0.02729417 0.2802238 255 0 255
0.1387347 -0.02716549 0.2805792 255 0 255
0.14094 -0.02725967 0.2818139 255 0 255
0.1419403 -0.02666735 0.2803816 255 0 255
0.1449766 -0.02720265 0.2833677 255 0 255
0.1484511 -0.02795238 0.2872204 255 0 255
0.1519583 -0.02868986 0.291054 255 0 255
0.1559176 -0.02963779 0.2957482 255 0 255
0.1599164 -0.03057136 0.30042 255 0 255
0.1618215 -0.03038543 0.300684 255 0 255
0.08581415 -0.03377891 0.276605 255 0 255
0.08692642 -0.03326931 0.2753277 255 0 255
0.088316 -0.03301518 0.2749705 255 0 255
0.08912385 -0.03224582 0.2727642 255 0 255
0.09020904 -0.03173194 0.2714781 255 0 255
0.09158258 -0.03147147 0.2711093 255 0 255
0.09265333 -0.0309542 0.2698166 255 0 255
0.09341019 -0.03018214 0.267603 255 0 255
0.09445911 -0.02966293 0.2663058 255 0 255
0.09581108 -0.02939434 0.265922 255 0 255
0.09716135 -0.02912303 0.2655335 255 0 255
0.09882931 -0.02909941 0.2660541 255 0 255
0.1011491 -0.02957101 0.2683935 255 0 255
0.1021818 -0.02903958 0.2670748 255 0 255
0.1048576 -0.02974775 0.2703065 255 0 255
0.1072266 -0.03019954 0.272615 255 0 255
0.1092778 -0.03039734 0.2740036 255 0 255
0.1110003 -0.03034336 0.2744755 255 0 255
0.1134181 -0.03077504 0.2767524 255 0 255
0.1141125 -0.02997798 0.274493 255 0 255
0.1151427 -0.0294248 0.2731371 255 0 255
0.1165195 -0.02911301 0.2726813 255 0 255
0.1178942 -0.02879843 0.2722206 255 0 255
0.1189038 -0.02824016 0.270855 255 0 255
0.1202708 -0.02792083 0.2703859 255 0 255
0.1220059 -0.02783794 0.2708095 255 0 255
0.1233723 -0.02751226 0.2703295 255 0 255
0.1254913 -0.02765879 0.2716348 255 0 255
0.1276225 -0.02779907 0.2729302 255 0 255
0.1301503 -0.02816885 0.2751079 255 0 255
0.1330855 -0.0287654 0.2781642 255 0 255
0.1356551 -0.02911805 0.2803152 255 0 255
0.1378485 -0.02922926 0.2815646 255 0 255
0.1392562 -0.02886966 0.2810294 255 0 255
0.1410639 -0.02873847 0.281375 255 0 255
0.1420644 -0.02814179 0.2799439 255 0 255
0.1442837 -0.0282324 0.2811598 255 0 255
0.1469276 -0.02854489 0.2832468 255 0 255
0.1504229 -0.02930403 0.2870808 255 0 255
0.1543708 -0.03027734 0.2917744 255 0 255
0.1587815 -0.03146188 0.2973229 255 0 255
0.1615309 -0.03173123 0.2993425 255 0 255
0.08674069 -0.03441619 0.2739795 255 0 255
0.08784053 -0.03390164 0.2727014 255 0 255
0.08893138 -0.03338571 0.2714204 255 0 255
0.09001317 -0.03286833 0.2701366 255 0 255
0.09138356 -0.03260817 0.2697689 255 0 255
0.09245094 -0.0320874 0.2684785 255 0 255
0.09381428 -0.03182242 0.2681023 255 0 255
0.09517588 -0.0315547 0.2677213 255 0 255
0.0962234 -0.03102853 0.2664207 255 0 255
0.09757787 -0.03075603 0.2660312 255 0 255
0.09925034 -0.03073497 0.2665499 255 0 255
0.1006049 -0.03045627 0.2661499 255 0 255
0.1016306 -0.02992208 0.2648346 255 0 255
0.1039701 -0.03039437 0.2671547 255 0 255
0.1063295 -0.0308593 0.2694634 255 0 255
0.108709 -0.03131671 0.2717605 255 0 255
0.1104251 -0.03126757 0.2722338 255 0 255
0.1131822 -0.03196029 0.2754148 255 0 255
0.1142219 -0.03140402 0.2740628 255 0 255
0.1152524 -0.03084654 0.2727082 255 0 255
0.1166298 -0.03053423 0.2722526 255 0 255
0.1180051 -0.03021908 0.2717921 255 0 255
0.119015 -0.02965652 0.2704278 255 0 255
0.1203825 -0.02933664 0.2699589 255 0 255
0.1217479 -0.029014 0.2694851 255 0 255
0.1231113 -0.02868859 0.2690067 255 0 255
0.1252279 -0.02884287 0.2703112 255 0 255
0.1273567 -0.02899087 0.2716058 255 0 255
0.1298824 -0.02937209 0.2737817 255 0 255
0.1324273 -0.02974521 0.275945 255 0 255
0.1353833 -0.0303479 0.2789842 255 0 255
0.1375744 -0.03046683 0.280233 255 0 255
0.1393782 -0.03034341 0.2805854 255 0 255
0.1407841 -0.02998027 0.2800455 255 0 255
0.1421876 -0.02961424 0.2795005 255 0 255
0.1439984 -0.02947849 0.2798325 255 0 255
0.146227 -0.02957019 0.2810373 255 0 255
0.148884 -0.02988652 0.2831106 255 0 255
0.1536608 -0.03134582 0.2895588 255 0 255
0.1580673 -0.03255752 0.2951028 255 0 255
0.1612385 -0.03306752 0.2979969 255 0 255
0.08712001 -0.03608383 0.2744714 255 0 255
0.08765018 -0.03503569 0.2713522 255 0 255
0.08873763 -0.03451629 0.2700735 255 0 255
0.08981602 -0.03399546 0.2687919 255 0 255
0.09118325 -0.03373555 0.2684253 255 0 255
0.09224728 -0.0332113 0.2671372 255 0 255
0.09360746 -0.03294658 0.2667622 255 0 255
0.09496599 -0.03267917 0.2663824 255 0 255
0.09632277 -0.03240894 0.2659979 255 0 255
0.09799416 -0.03239464 0.2665213 255 0 255
0.09903107 -0.0318603 0.2652146 255 0 255
0.1003825 -0.03158184 0.2648159 255 0 255
0.1014049 -0.03104428 0.263503 255 0 255
0.1034111 -0.03127242 0.2649126 255 0 255
0.1057646 -0.03174956 0.2672203 255 0 255
0.1081382 -0.03221926 0.2695164 255 0 255
0.1105317 -0.03268149 0.271801 255 0 255
0.1132905 -0.03338862 0.2749776 255 0 255
0.1139814 -0.0325764 0.2727243 255 0 255
0.1153613 -0.03226636 0.2722737 255 0 255
0.1167392 -0.03195352 0.2718183 255 0 255
0.117755 -0.03138866 0.2704589 255 0 255
0.1187615 -0.03082266 0.2690972 255 0 255
0.1204933 -0.03075062 0.2695263 255 0 255
0.1222302 -0.03067411 0.2699482 255 0 255
0.1239721 -0.03059307 0.2703626 255 0 255
0.126097 -0.03075252 0.2716627 255 0 255
0.1282341 -0.03090567 0.2729526 255 0 255
0.1303833 -0.03105246 0.2742326 255 0 255
0.1321557 -0.03095057 0.2746136 255 0 255
0.1347177 -0.03132692 0.2767622 255 0 255
0.1369028 -0.0314545 0.2780116 255 0 255
0.1390998 -0.03157558 0.2792508 255 0 255
0.1405027 -0.03121273 0.2787124 255 0 255
0.1419033 -0.03084701 0.2781691 255 0 255
0.1437114 -0.03071523 0.2785016 255 0 255
0.1459377 -0.0308146 0.2797058 255 0 255
0.1485927 -0.03114232 0.2817774 255 0 255
0.153369 -0.03263147 0.2882183 255 0 255
0.1573507 -0.03363625 0.2928809 255 0 255
0.1600892 -0.03393021 0.2949001 255 0 255
0.08693231 -0.03721952 0.2731145 255 0 255
0.08774569 -0.03642855 0.2709194 255 0 255
0.08854263 -0.03563751 0.2687233 255 0 255
0.0896176 -0.0351132 0.267444 255 0 255
0.09068355 -0.03458757 0.266162 255 0 255
0.0920423 -0.03432589 0.2657929 255 0 255
0.0933994 -0.03406147 0.265419 255 0 255
0.0947548 -0.03379427 0.2650403 255 0 255
0.09579547 -0.03326124 0.2637445 255 0 255
0.09714373 -0.03298932 0.2633575 255 0 255
0.0984902 -0.03271465 0.2629658 255 0 255
0.09983488 -0.03243728 0.2625694 255 0 255
0.1008502 -0.031897 0.26126 255 0 255
0.1031814 -0.03239304 0.2635769 255 0 255
0.1055327 -0.03288167 0.2658824 255 0 255
0.1075654 -0.03310508 0.2672715 255 0 255
0.109953 -0.03357953 0.269555 255 0 255
0.1123605 -0.03404643 0.2718268 255 0 255
0.1137394 -0.03373947 0.2713825 255 0 255
0.1151162 -0.03342974 0.2709333 255 0 255
0.1164911 -0.03311716 0.2704793 255 0 255
0.1175035 -0.03254891 0.2691225 255 0 255
0.1188707 -0.03223155 0.2686601 255 0 255
0.1202357 -0.03191145 0.2681929 255 0 255
0.1219698 -0.03183889 0.2686149 255 0 255
0.1240837 -0.03201146 0.2699227 255 0 255
0.1258315 -0.03192905 0.2703289 255 0 255
0.1279661 -0.03208992 0.2716181 255 0 255
0.1301129 -0.03224441 0.2728973 255 0 255
0.1314936 -0.03190054 0.2723909 255 0 255
0.1340499 -0.03228915 0.2745389 255 0 255
0.1358329 -0.03218115 0.2749039 255 0 255
0.1384201 -0.03255507 0.2770288 255 0 255
0.1398165 -0.03219342 0.2764935 255 0 255
0.1420241 -0.03231185 0.2777152 255 0 255
0.1442434 -0.03242367 0.2789266 255 0 255
0.1464744 -0.0325289 0.2801273 255 0 255
0.1491343 -0.03286607 0.2821943 255 0 255
0.1530755 -0.03390774 0.286874 255 0 255
0.1570563 -0.03493492 0.2915316 255 0 255
0.1606485 -0.03571174 0.2952941 255 0 255
0.08784048 -0.03781946 0.2704811 255 0 255
0.08863745 -0.03702056 0.2682876 255 0 255
0.0897127 -0.03649209 0.2670096 255 0 255
0.09077891 -0.03596233 0.2657289 255 0 255
0.09183609 -0.03543117 0.2644455 255 0 255
0.09319007 -0.035167 0.2640727 255 0 255
0.09454228 -0.03490017 0.2636953 255 0 255
0.09557959 -0.03436362 0.2624018 255 0 255
0.09692467 -0.034092 0.262016 255 0 255
0.09826805 -0.03381763 0.2616256 255 0 255
0.09960961 -0.03354056 0.2612304 255 0 255
0.1009494 -0.0332607 0.2608306 255 0 255
0.1029504 -0.03350438 0.2622381 255 0 255
0.1052994 -0.03400448 0.2645414 255 0 255
0.1069908 -0.0339741 0.2650257 255 0 255
0.1093724 -0.03446079 0.2673081 255 0 255
0.1121201 -0.0351999 0.2704805 255 0 255
0.1141955 -0.03541147 0.2718381 255 0 255
0.1155765 -0.03510034 0.2713878 255 0 255
0.1165985 -0.03452897 0.2700349 255 0 255
0.1179719 -0.03421308 0.2695763 255 0 255
0.1189789 -0.03363857 0.2682173 255 0 255
0.1203445 -0.03331789 0.2677503 255 0 255
0.1220794 -0.03324855 0.2681715 255 0 255
0.1238194 -0.03317467 0.2685854 255 0 255
0.1251858 -0.03284395 0.2681015 255 0 255
0.1269323 -0.03276186 0.2685019 255 0 255
0.1294552 -0.03317646 0.2706708 255 0 255
0.1308294 -0.0328337 0.2701673 255 0 255
0.1333799 -0.0332347 0.2723147 255 0 255
0.1355531 -0.03337945 0.2735654 255 0 255
0.1381382 -0.03376477 0.2756884 255 0 255
0.1399351 -0.03364952 0.2760358 255 0 255
0.142551 -0.03401986 0.2781354 255 0 255
0.1443644 -0.03389331 0.2784648 255 0 255
0.1470107 -0.03424853 0.2805406 255 0 255
0.1488403 -0.03411045 0.2808517 255 0 255
0.151938 -0.03469175 0.2837776 255 0 255
0.1554859 -0.03550285 0.28756 255 0 255
0.1590663 -0.03630127 0.2913228 255 0 255
0.08735929 -0.03865735 0.2682029 255 0 255
0.08844017 -0.03812685 0.2669301 255 0 255
0.08951205 -0.03759496 0.2656545 255 0 255
0.09087359 -0.03733516 0.2652904 255 0 255
0.09193102 -0.03679987 0.2640083 255 0 255
0.09328552 -0.03653532 0.2636357 255 0 255
0.09494812 -0.03653934 0.2641698 255 0 255
0.09567586 -0.03572732 0.2619663 255 0 255
0.09702148 -0.03545523 0.2615807 255 0 255
0.09836539 -0.03518041 0.2611904 255 0 255
0.09938297 -0.03463453 0.2598884 255 0 255
0.1007197 -0.03435497 0.2594899 255 0 255
0.1027181 -0.0346064 0.2608963 255 0 255
0.1047293 -0.03485193 0.2622936 255 0 255
0.1067533 -0.03509155 0.2636817 255 0 255
0.1094754 -0.03585415 0.2668634 255 0 255
0.1125712 -0.03687124 0.2709315 255 0 255
0.1146512 -0.03708893 0.2722857 255 0 255
0.1156828 -0.03651446 0.2709366 255 0 255
0.116705 -0.03593883 0.269585 255 0 255
0.117718 -0.03536207 0.2682312 255 0 255
0.1187217 -0.03478412 0.2668748 255 0 255
0.1200842 -0.03446377 0.2664092 255 0 255
0.1214447 -0.03414063 0.2659388 255 0 255
0.1231783 -0.03407164 0.2663543 255 0 255
0.1245381 -0.03374202 0.2658731 255 0 255
0.1258958 -0.03340963 0.2653871 255 0 255
0.1280233 -0.03358307 0.2666699 255 0 255
0.1297734 -0.03349674 0.2670572 255 0 255
0.1319215 -0.03365837 0.2683212 255 0 255
0.1344783 -0.03406518 0.2704579 255 0 255
0.1374545 -0.03471441 0.2734632 255 0 255
0.1392451 -0.03460404 0.2738124 255 0 255
0.1426701 -0.03548446 0.2776689 255 0 255
0.1448952 -0.0356088 0.2788746 255 0 255
0.1471321 -0.03572651 0.2800699 255 0 255
0.1493806 -0.03583751 0.2812545 255 0 255
0.1524836 -0.0364319 0.2841747 255 0 255
0.1551871 -0.03677148 0.2862066 255 0 255
0.1583376 -0.03734547 0.2890952 255 0 255
0.08716422 -0.0397577 0.2668401 255 0 255
0.08824168 -0.03922375 0.2655696 255 0 255
0.08960541 -0.03896638 0.2652105 255 0 255
0.09096749 -0.03870618 0.2648465 255 0 255
0.09202525 -0.03816672 0.2635657 255 0 255
0.09338022 -0.03790173 0.2631933 255 0 255
0.09473352 -0.03763399 0.2628163 255 0 255
0.09577136 -0.03708911 0.2615255 255 0 255
0.09711754 -0.0368166 0.26114 255 0 255
0.09814089 -0.03626847 0.259843 255 0 255
0.09915505 -0.0357192 0.2585434 255 0 255
0.1001601 -0.0351687 0.2572414 255 0 255
0.1024844 -0.03569907 0.2595515 255 0 255
0.1041573 -0.0356826 0.2600452 255 0 255
0.1065145 -0.03619971 0.2623347 255 0 255
0.1092346 -0.03697748 0.265513 255 0 255
0.1123285 -0.0380134 0.2695764 255 0 255
0.114406 -0.03823879 0.2709296 255 0 255
0.1154342 -0.03766089 0.269583 255 0 255
0.1160956 -0.036817 0.2673386 255 0 255
0.1174628 -0.03650169 0.2668828 255 0 255
0.1184632 -0.03592034 0.2655291 255 0 255
0.1198226 -0.0356003 0.265065 255 0 255
0.12118 -0.03527746 0.264596 255 0 255
0.1229108 -0.03521247 0.2650118 255 0 255
0.1238884 -0.03462338 0.263644 255 0 255
0.1256221 -0.03455111 0.2640477 255 0 255
0.1281335 -0.03499024 0.2662151 255 0 255
0.1291046 -0.03439282 0.264833 255 0 255
0.1320336 -0.03507544 0.2678633 255 0 255
0.1345918 -0.0354927 0.2699966 255 0 255
0.1371691 -0.03590169 0.2721171 255 0 255
0.1389571 -0.03579533 0.2724668 255 0 255
0.1419728 -0.03644186 0.2754415 255 0 255
0.1441921 -0.03657485 0.2766479 255 0 255
0.1468378 -0.0369518 0.2787186 255 0 255
0.1490839 -0.03707046 0.2799025 255 0 255
0.1521851 -0.03767984 0.2828196 255 0 255
0.1544612 -0.03778299 0.2839793 255 0 255
0.1580353 -0.03861969 0.2877353 255 0 255
0.08696795 -0.04084871 0.2654744 255 0 255
0.08833381 -0.04059368 0.2651201 255 0 255
0.08940255 -0.04005421 0.2638481 255 0 255
0.09106064 -0.04007524 0.2643972 255 0 255
0.09211866 -0.03953169 0.2631178 255 0 255
0.09316757 -0.03898675 0.2618358 255 0 255
0.09482804 -0.03899803 0.2623687 255 0 255
0.09555213 -0.03817101 0.2601715 255 0 255
0.09689515 -0.03789878 0.2597872 255 0 255
0.09823641 -0.0376238 0.2593984 255 0 255
0.09957583 -0.03734612 0.2590048 255 0 255
0.1005848 -0.03679067 0.2577031 255 0 255
0.1029141 -0.03733094 0.2600086 255 0 255
0.1045915 -0.03731691 0.2605001 255 0 255
0.1066139 -0.03757121 0.2618849 255 0 255
0.1093356 -0.0383633 0.2650585 255 0 255
0.1124315 -0.03941723 0.269116 255 0 255
0.1141594 -0.03937928 0.2695703 255 0 255
0.1155385 -0.03906742 0.2691219 255 0 255
0.1165577 -0.03848411 0.2677743 255 0 255
0.117929 -0.03816745 0.2673176 255 0 255
0.1189332 -0.03758103 0.2659641 255 0 255
0.1199281 -0.03699354 0.2646083 255 0 255
0.121286 -0.03667015 0.2641396 255 0 255
0.1226418 -0.03634395 0.2636662 255 0 255
0.123616 -0.03575149 0.2623011 255 0 255
0.125347 -0.0356832 0.2627051 255 0 255
0.1278562 -0.03613373 0.2648704 255 0 255
0.129214 -0.0357937 0.2643741 255 0 255
0.131751 -0.03623059 0.2665181 255 0 255
0.134307 -0.03665924 0.2686494 255 0 255
0.1368822 -0.03707958 0.2707679 255 0 255
0.138263 -0.03672004 0.2702404 255 0 255
0.1416813 -0.03763874 0.2740894 255 0 255
0.1434867 -0.0375241 0.2744202 255 0 255
0.1465417 -0.03816768 0.2773638 255 0 255
0.1487854 -0.03829395 0.278547 255 0 255
0.1518849 -0.03891835 0.2814611 255 0 255
0.1541587 -0.03902914 0.2826201 255 0 255
0.1577314 -0.03988443 0.2863718 255 0 255
0.08734716 -0.04250389 0.2659328 255 0 255
0.08871728 -0.04224776 0.2655777 255 0 255
0.08949418 -0.04141811 0.2633946 255 0 255
0.09115309 -0.04144248 0.2639426 255 0 255
0.09251456 -0.04117865 0.2635742 255 0 255
0.09326051 -0.0403456 0.2613839 255 0 255
0.09461118 -0.04007774 0.2610081 255 0 255
0.09564588 -0.03952532 0.2597212 255 0 255
0.09698939 -0.03925259 0.2593371 255 0 255
0.09800951 -0.03869696 0.2580439 255 0 255
0.09967109 -0.03869906 0.2585551 255 0 255
0.1006803 -0.03813941 0.2572547 255 0 255
0.1026783 -0.0384124 0.2586555 255 0 255
0.1043528 -0.03840237 0.2591471 255 0 255
0.1067125 -0.03894077 0.2614297 255 0 255
0.1094358 -0.03974716 0.2645985 255 0 255
0.1125336 -0.04081909 0.2686501 255 0 255
0.1142623 -0.04078429 0.2691034 255 0 255
0.1156419 -0.04047193 0.2686552 255 0 255
0.1170194 -0.0401567 0.2682022 255 0 255
0.1180332 -0.03956721 0.2668526 255 0 255
0.1186723 -0.038706 0.2646098 255 0 255
0.1200328 -0.03838483 0.2641461 255 0 255
0.1210186 -0.037792 0.2627895 255 0 255
0.1223713 -0.0374661 0.2623175 255 0 255
0.1237219 -0.03713744 0.2618408 255 0 255
0.1258369 -0.03733854 0.2631282 255 0 255
0.1279642 -0.03753327 0.2644057 255 0 255
0.1301036 -0.03772167 0.2656733 255 0 255
0.132649 -0.03816719 0.2678113 255 0 255
0.134816 -0.03834176 0.2690573 255 0 255
0.137396 -0.03877161 0.2711711 255 0 255
0.1387809 -0.03841049 0.2706424 255 0 255
0.1417965 -0.03908618 0.2736093 255 0 255
0.1440145 -0.03923346 0.2748127 255 0 255
0.1466595 -0.03963213 0.2768781 255 0 255
0.1484855 -0.03950804 0.2771883 255 0 255
0.151583 -0.0401474 0.2800991 255 0 255
0.1538545 -0.04026577 0.2812575 255 0 255
0.1574257 -0.04113976 0.2850048 255 0 255
0.08492569 -0.04296318 0.2621682 255 0 255
0.08686032 -0.04329313 0.2636465 255 0 255
0.08851583 -0.04332776 0.2642048 255 0 255
0.08988113 -0.04306911 0.263846 255 0 255
0.09184422 -0.04338444 0.2653013 255 0 255
0.09291015 -0.04283111 0.2640227 255 0 255
0.09396698 -0.04227645 0.2627414 255 0 255
0.09501472 -0.04172045 0.2614575 255 0 255
0.09605334 -0.04116314 0.2601708 255 0 255
0.09708285 -0.0406046 0.2588817 255 0 255
0.09842509 -0.04032871 0.2584931 255 0 255
0.09944006 -0.03976687 0.2571978 255 0 255
0.1004458 -0.03920388 0.2559 255 0 255
0.1024412 -0.03948456 0.2572996 255 0 255
0.1041127 -0.03947857 0.2577913 255 0 255
0.10613 -0.03974829 0.2591738 255 0 255
0.1088475 -0.04057058 0.2623401 255 0 255
0.1122873 -0.04194051 0.2672834 255 0 255
0.1136621 -0.04163207 0.2668425 255 0 255
0.1153896 -0.04159765 0.26729 255 0 255
0.116764 -0.04128277 0.2668384 255 0 255
0.1181364 -0.040965 0.266382 255 0 255
0.1187755 -0.04009581 0.264142 255 0 255
0.1197673 -0.03950069 0.2627903 255 0 255
0.1211226 -0.03917707 0.2623233 255 0 255
0.1220994 -0.03857893 0.2609659 255 0 255
0.1238269 -0.03852139 0.2613751 255 0 255
0.125943 -0.03872931 0.2626603 255 0 255
0.1280713 -0.03893082 0.2639356 255 0 255
0.1306024 -0.03939416 0.2660815 255 0 255
0.1335472 -0.04011648 0.2690939 255 0 255
0.1357224 -0.04029594 0.2703351 255 0 255
0.1379095 -0.04046887 0.2715661 255 0 255
0.1397035 -0.04037079 0.2719116 255 0 255
0.1419107 -0.04053147 0.2731233 255 0 255
0.1437177 -0.04042287 0.2734522 255 0 255
0.1463605 -0.04083281 0.2755154 255 0 255
0.1486029 -0.04097343 0.2766958 255 0 255
0.1512796 -0.04136697 0.2787338 255 0 255
0.1535487 -0.04149296 0.2798913 255 0 255
0.1571183 -0.04238555 0.2836343 255 0 255
0.0888983 -0.04498539 0.2646491 255 0 255
0.08997155 -0.04443283 0.2633805 255 0 255
0.09133565 -0.04417098 0.2630172 255 0 255
0.09239445 -0.04361496 0.261742 255 0 255
0.09344412 -0.0430576 0.2604642 255 0 255
0.09479579 -0.04278883 0.2600887 255 0 255
0.09583097 -0.04222814 0.2588046 255 0 255
0.09685706 -0.04166616 0.2575179 255 0 255
0.09819617 -0.04139058 0.2571306 255 0 255
0.09920767 -0.04082539 0.2558378 255 0 255
0.10021 -0.04025898 0.2545426 255 0 255
0.1022027 -0.04054736 0.2559409 255 0 255
0.1038714 -0.04054535 0.2564326 255 0 255
0.105886 -0.04082278 0.2578139 255 0 255
0.1082573 -0.04137721 0.2600813 255 0 255
0.1116919 -0.04277039 0.2650195 255 0 255
0.1134113 -0.04274441 0.2654741 255 0 255
0.115491 -0.04299445 0.2668135 255 0 255
0.1168659 -0.042679 0.2663622 255 0 255
0.1178765 -0.04208189 0.2650166 255 0 255
0.118512 -0.0412057 0.2627805 255 0 255
0.1198699 -0.04088432 0.2623185 255 0 255
0.1208526 -0.04028391 0.260966 255 0 255
0.1225793 -0.04023315 0.2613802 255 0 255
0.1243112 -0.04017789 0.2617872 255 0 255
0.126432 -0.04039171 0.2630689 255 0 255
0.128565 -0.04059909 0.2643405 255 0 255
0.131101 -0.04107194 0.2664816 255 0 255
0.134051 -0.04180743 0.269488 255 0 255
0.1362308 -0.04199276 0.2707256 255 0 255
0.1384226 -0.04217149 0.271953 255 0 255
0.1398155 -0.04180732 0.2714222 255 0 255
0.1416151 -0.04170748 0.2717591 255 0 255
0.1434193 -0.04160283 0.2720883 255 0 255
0.145644 -0.04175875 0.2732798 255 0 255
0.1478805 -0.04190788 0.2744607 255 0 255
0.1505515 -0.04231371 0.276498 255 0 255
0.1532411 -0.04271074 0.2785219 255 0 255
0.1568093 -0.04362185 0.2822604 255 0 255
0.0889877 -0.04635124 0.2641768 255 0 255
0.09006118 -0.04579455 0.2629096 255 0 255
0.09142581 -0.04553227 0.2625464 255 0 255
0.09218096 -0.04467706 0.2603669 255 0 255
0.09322719 -0.04411635 0.2590915 255 0 255
0.09426433 -0.04355427 0.2578134 255 0 255
0.09529239 -0.04299092 0.2565328 255 0 255
0.09663004 -0.0427184 0.2561514 255 0 255
0.09796594 -0.04244316 0.2557654 255 0 255
0.09930006 -0.04216514 0.2553747 255 0 255
0.1003027 -0.04159458 0.2540809 255 0 255
0.1019629 -0.04160091 0.2545795 255 0 255
0.1036287 -0.04160287 0.2550712 255 0 255
0.1052999 -0.04160054 0.2555561 255 0 255
0.1076652 -0.04216713 0.2578222 255 0 255
0.1107466 -0.04329773 0.2618623 255 0 255
0.1128075 -0.04356238 0.2632112 255 0 255
0.1155915 -0.04438925 0.2663316 255 0 255
0.1169669 -0.04407329 0.2658804 255 0 255
0.1179778 -0.04347196 0.2645364 255 0 255
0.1186131 -0.04258788 0.262303 255 0 255
0.1199716 -0.04226593 0.2618412 255 0 255
0.1209544 -0.0416613 0.2604903 255 0 255
0.1219281 -0.04105556 0.2591371 255 0 255
0.1240341 -0.04128332 0.2604274 255 0 255
0.1257682 -0.04122748 0.2608274 255 0 255
0.127895 -0.04144346 0.2620994 255 0 255
0.1300339 -0.04165301 0.2633615 255 0 255
0.1329747 -0.04240531 0.266367 255 0 255
0.1355434 -0.04287374 0.2684818 255 0 255
0.1381311 -0.0433338 0.2705836 255 0 255
0.1403322 -0.04351358 0.2717999 255 0 255
0.142136 -0.04341584 0.2721345 255 0 255
0.1439446 -0.04331326 0.2724613 255 0 255
0.1453416 -0.04293693 0.271912 255 0 255
0.1471559 -0.04282566 0.2722248 255 0 255
0.1493979 -0.04297662 0.2733958 255 0 255
0.1520783 -0.04338684 0.2754204 255 0 255
0.1560682 -0.04458357 0.2800202 255 0 255
0.08907636 -0.04771509 0.2636992 255 0 255
0.0895566 -0.0465539 0.2606202 255 0 255
0.09091429 -0.04629263 0.2602592 255 0 255
0.09166203 -0.04543108 0.2580844 255 0 255
0.09300894 -0.04516573 0.2577161 255 0 255
0.09404264 -0.04460024 0.2564405 255 0 255
0.09538253 -0.04433006 0.2560639 255 0 255
0.09640168 -0.04376134 0.2547822 255 0 255
0.0977344 -0.04348635 0.2543974 255 0 255
0.09906533 -0.0432087 0.254008 255 0 255
0.1000645 -0.04263474 0.2527168 255 0 255
0.1017218 -0.04264504 0.2532153 255 0 255
0.1030473 -0.04235912 0.2528121 255 0 255
0.104712 -0.04236158 0.2532981 255 0 255
0.1067267 -0.04265 0.2546701 255 0 255
0.1097989 -0.04380092 0.2587075 255 0 255
0.1122018 -0.04436354 0.2609479 255 0 255
0.11498 -0.04520629 0.2640657 255 0 255
0.1167079 -0.04517846 0.2645051 255 0 255
0.1177153 -0.04457381 0.2631638 255 0 255
0.1179806 -0.04339736 0.2600489 255 0 255
0.1193323 -0.04307659 0.2595898 255 0 255
0.1203082 -0.04246945 0.2582428 255 0 255
0.121652 -0.042144 0.2577755 255 0 255
0.1233747 -0.04209756 0.2581842 255 0 255
0.1254867 -0.04232759 0.2594651 255 0 255
0.127611 -0.04255117 0.260736 255 0 255
0.130139 -0.04304752 0.2628739 255 0 255
0.1330814 -0.04381385 0.2658745 255 0 255
0.1364488 -0.04484738 0.2697339 255 0 255
0.139045 -0.04531588 0.2718295 255 0 255
0.1408484 -0.04522501 0.2721694 255 0 255
0.1422472 -0.04485484 0.2716315 255 0 255
0.1436436 -0.0444817 0.2710887 255 0 255
0.1450375 -0.04410565 0.270541 255 0 255
0.1468491 -0.0439984 0.2708544 255 0 255
0.1495122 -0.04442763 0.2728889 255 0 255
0.1526211 -0.04511784 0.275773 255 0 255
0.1570473 -0.04660352 0.2812257 255 0 255
0.08887099 -0.04877233 0.2623099 255 0 255
0.08934728 -0.04760038 0.2592361 255 0 255
0.09040108 -0.04703625 0.2579719 255 0 255
0.09144577 -0.04647079 0.2567052 255 0 255
0.09278949 -0.04620572 0.256338 255 0 255
0.09413157 -0.04593783 0.2559661 255 0 255
0.09547186 -0.04566722 0.2555897 255 0 255
0.09649128 -0.04509436 0.2543095 255 0 255
0.09782446 -0.04481892 0.2539248 255 0 255
0.09882932 -0.04424286 0.2526386 255 0 255
0.09982505 -0.0436656 0.25135 255 0 255
0.1011455 -0.04338349 0.2509538 255 0 255
0.1024642 -0.0430987 0.2505529 255 0 255
0.1041222 -0.04310595 0.2510401 255 0 255
0.1064755 -0.04369682 0.2533033 255 0 255
0.1091973 -0.04457327 0.2564453 255 0 255
0.1115941 -0.04514804 0.2586843 255 0 255
0.1143667 -0.04600659 0.2617995 255 0 255
0.1164474 -0.0462743 0.263127 255 0 255
0.1174514 -0.04566626 0.2617884 255 0 255
0.1180795 -0.04476812 0.2595632 255 0 255
0.1194316 -0.04444682 0.2591043 255 0 255
0.1204077 -0.04383547 0.2577588 255 0 255
0.1213746 -0.04322306 0.2564112 255 0 255
0.1230943 -0.04318062 0.2568201 255 0 255
0.1248192 -0.04313363 0.2572218 255 0 255
0.1265489 -0.04308205 0.2576162 255 0 255
0.1294594 -0.04387438 0.2606298 255 0 255
0.1323962 -0.04465652 0.2636281 255 0 255
0.1357584 -0.04570949 0.267484 255 0 255
0.1383487 -0.04619027 0.2695787 255 0 255
0.1405519 -0.04638344 0.2707904 255 0 255
0.141538 -0.04573531 0.2693853 255 0 255
0.1429277 -0.04536346 0.2688456 255 0 255
0.1447318 -0.04526496 0.2691669 255 0 255
0.1461203 -0.0448863 0.2686161 255 0 255
0.1492016 -0.04560214 0.2715131 255 0 255
0.1531633 -0.04685396 0.2761174 255 0 255
0.1571646 -0.04809102 0.2806995 255 0 255
0.08854229 -0.04802237 0.2560414 255 0 255
0.08988609 -0.04776315 0.2556846 255 0 255
0.09092365 -0.04719501 0.2544213 255 0 255
0.09226047 -0.04693097 0.2540564 255 0 255
0.09359554 -0.04666413 0.2536867 255 0 255
0.09524479 -0.04669844 0.2542114 255 0 255
0.09658013 -0.04642539 0.2538315 255 0 255
0.09759064 -0.04584715 0.2525503 255 0 255
0.09859202 -0.04526772 0.2512667 255 0 255
0.0995843 -0.04468708 0.2499806 255 0 255
0.1009016 -0.04440532 0.2495857 255 0 255
0.102217 -0.04412083 0.2491862 255 0 255
0.1038722 -0.04413207 0.2496734 255 0 255
0.1058778 -0.04443664 0.2510439 255 0 255
0.108245 -0.04503209 0.2532942 255 0 255
0.1106322 -0.04561979 0.2555329 255 0 255
0.1133953 -0.046495 0.2586466 255 0 255
0.1154661 -0.04677198 0.2599753 255 0 255
0.1164595 -0.04616232 0.2586418 255 0 255
0.1174436 -0.04555152 0.257306 255 0 255
0.118789 -0.04523142 0.2568498 255 0 255
0.1197581 -0.04461759 0.2555083 255 0 255
0.1207179 -0.04400272 0.2541648 255 0 255
0.1224312 -0.04396519 0.2545751 255 0 255
0.1245345 -0.04421133 0.255855 255 0 255
0.1262615 -0.04416376 0.2562497 255 0 255
0.1287777 -0.04468445 0.2583854 255 0 255
0.1317089 -0.0454825 0.2613815 255 0 255
0.1350658 -0.04655495 0.2652337 255 0 255
0.1376503 -0.0470479 0.2673275 255 0 255
0.1394411 -0.04696681 0.2676706 255 0 255
0.1412366 -0.04688095 0.2680062 255 0 255
0.1426233 -0.04650936 0.2674681 255 0 255
0.1444246 -0.04641479 0.2677898 255 0 255
0.1462306 -0.04631546 0.268104 255 0 255
0.1488893 -0.04676717 0.2701342 255 0 255
0.1528497 -0.04804112 0.2747324 255 0 255
0.1572809 -0.04957629 0.2801674 255 0 255
0.08833005 -0.04904275 0.2546547 255 0 255
0.09027301 -0.04940484 0.2561022 255 0 255
0.09131449 -0.04883188 0.2548394 255 0 255
0.09265547 -0.04856667 0.2544736 255 0 255
0.09399474 -0.04829868 0.2541031 255 0 255
0.09533232 -0.04802795 0.253728 255 0 255
0.09634849 -0.04744757 0.2524519 255 0 255
0.09767894 -0.04717205 0.2520687 255 0 255
0.0986805 -0.04658853 0.2507866 255 0 255
0.09967294 -0.04600375 0.249502 255 0 255
0.1009907 -0.04572155 0.2491073 255 0 255
0.1023066 -0.04543657 0.248708 255 0 255
0.1043042 -0.04575314 0.250084 255 0 255
0.1059691 -0.04576242 0.250562 255 0 255
0.1079885 -0.04606785 0.2519209 255 0 255
0.1100205 -0.04636722 0.2532706 255 0 255
0.1127779 -0.04725815 0.2563815 255 0 255
0.1148424 -0.0475437 0.2577101 255 0 255
0.1165559 -0.04752579 0.2581463 255 0 255
0.1175402 -0.04691082 0.2568122 255 0 255
0.1192568 -0.04688563 0.2572367 255 0 255
0.1198553 -0.04597218 0.2550163 255 0 255
0.1211934 -0.04564683 0.2545523 255 0 255
0.1225293 -0.04531869 0.2540836 255 0 255
0.1246336 -0.04557156 0.2553611 255 0 255
0.1259725 -0.04523603 0.2548805 255 0 255
0.1288788 -0.04605817 0.2578866 255 0 255
0.1314156 -0.04658097 0.2600061 255 0 255
0.1343712 -0.0473837 0.2629831 255 0 255
0.137353 -0.04817616 0.2659447 255 0 255
0.1399543 -0.04867181 0.2680232 255 0 255
0.1413438 -0.04830253 0.2674902 255 0 255
0.1431448 -0.04821483 0.2678172 255 0 255
0.1445331 -0.04783879 0.2672731 255 0 255
0.1463398 -0.04774241 0.2675862 255 0 255
0.1489999 -0.04820437 0.2696128 255 0 255
0.1525345 -0.04921879 0.2733442 255 0 255
0.1569646 -0.05077968 0.2787719 255 0 255
0.08841436 -0.05036862 0.2541666 255 0 255
0.09035823 -0.05073765 0.2556116 255 0 255
0.09170504 -0.05047407 0.2552496 255 0 255
0.09305023 -0.05020772 0.2548829 255 0 255
0.09439366 -0.04993854 0.2545116 255 0 255
0.09541915 -0.04935538 0.2532395 255 0 255
0.09675546 -0.0490814 0.25286 255 0 255
0.09776642 -0.04849494 0.2515818 255 0 255
0.09876821 -0.0479073 0.2503013 255 0 255
0.09976086 -0.04731841 0.2490182 255 0 255
0.1014137 -0.04734311 0.2495145 255 0 255
0.1023954 -0.04675029 0.2482246 255 0 255
0.1043939 -0.0470737 0.2495981 255 0 255
0.1060595 -0.0470862 0.250075 255 0 255
0.1077306 -0.04709426 0.2505451 255 0 255
0.10976 -0.04740131 0.2518935 255 0 255
0.1121585 -0.04800471 0.2541164 255 0 255
0.1142168 -0.04829863 0.2554449 255 0 255
0.1155599 -0.04798482 0.255001 255 0 255
0.116901 -0.04766816 0.2545523 255 0 255
0.1186111 -0.04764783 0.2549782 255 0 255
0.119577 -0.04702651 0.2536411 255 0 255
0.1209119 -0.04670145 0.2531785 255 0 255
0.1226266 -0.04667009 0.2535866 255 0 255
0.1247318 -0.0469297 0.2548617 255 0 255
0.1264603 -0.04688828 0.2552542 255 0 255
0.128979 -0.04742975 0.2573825 255 0 255
0.1311208 -0.04767006 0.258628 255 0 255
0.1336745 -0.04819573 0.2607324 255 0 255
0.1362473 -0.04871295 0.262824 255 0 255
0.1388392 -0.04922177 0.2649029 255 0 255
0.1406291 -0.04914377 0.2652391 255 0 255
0.1424237 -0.049061 0.2655677 255 0 255
0.144223 -0.0489734 0.2658888 255 0 255
0.1468692 -0.04945338 0.2679236 255 0 255
0.1495341 -0.04992462 0.269945 255 0 255
0.1530741 -0.05095549 0.2736687 255 0 255
0.1570784 -0.05225677 0.2782295 255 0 255
0.08833163 -0.05322662 0.2576273 255 0 255
0.08968964 -0.05296678 0.2572728 255 0 255
0.09104603 -0.05270411 0.2569135 255 0 255
0.09179001 -0.05180441 0.2547539 255 0 255
0.09282652 -0.05122121 0.2534905 255 0 255
0.09416669 -0.0509524 0.2531204 255 0 255
0.09518871 -0.05036588 0.2518509 255 0 255
0.09652181 -0.05009223 0.2514727 255 0 255
0.09752925 -0.04950242 0.2501971 255 0 255
0.09852757 -0.0489114 0.2489191 255 0 255
0.09984799 -0.04863103 0.2485293 255 0 255
0.1008317 -0.04803687 0.2472455 255 0 255
0.1021449 -0.04775177 0.2468477 255 0 255
0.1041406 -0.0480828 0.2482198 255 0 255
0.1058033 -0.04809927 0.2486967 255 0 255
0.1074714 -0.04811131 0.2491668 255 0 255
0.1094981 -0.04842597 0.2505138 255 0 255
0.1115374 -0.04873453 0.2518515 255 0 255
0.1135892 -0.04903696 0.2531799 255 0 255
0.1152896 -0.04902872 0.2536187 255 0 255
0.1169953 -0.04901602 0.2540505 255 0 255
0.1183347 -0.04869605 0.2535974 255 0 255
0.1192972 -0.04807141 0.2522632 255 0 255
0.1206289 -0.04774675 0.2518021 255 0 255
0.1227229 -0.04801942 0.2530844 255 0 255
0.1240576 -0.04768739 0.2526116 255 0 255
0.1257796 -0.04765083 0.2530056 255 0 255
0.1278995 -0.04790702 0.2542624 255 0 255
0.129635 -0.04786032 0.2546406 255 0 255
0.1321756 -0.04839998 0.2567465 255 0 255
0.1351391 -0.04922592 0.2597059 255 0 255
0.1381287 -0.05004141 0.2626498 255 0 255
0.140323 -0.05026107 0.2638512 255 0 255
0.1429435 -0.05076576 0.2659044 255 0 255
0.1443291 -0.05038938 0.2653623 255 0 255
0.1465552 -0.05058975 0.266534 255 0 255
0.1487929 -0.05078329 0.2676952 255 0 255
0.1518992 -0.05154569 0.2705589 255 0 255
0.1558951 -0.05287092 0.2751162 255 0 255
0.08812045 -0.05424048 0.2562237 255 0 255
0.08917701 -0.05365872 0.2549718 255 0 255
0.0908283 -0.05371863 0.2555122 255 0 255
0.09187414 -0.05313271 0.254253 255 0 255
0.09291086 -0.05254545 0.2529912 255 0 255
0.09393852 -0.05195687 0.2517268 255 0 255
0.09495705 -0.05136701 0.2504599 255 0 255
0.09628684 -0.05109368 0.2500829 255 0 255
0.09729081 -0.05050055 0.2488099 255 0 255
0.09861344 -0.05022246 0.2484249 255 0 255
0.09993429 -0.04994161 0.2480352 255 0 255
0.1012534 -0.04965802 0.247641 255 0 255
0.1022318 -0.04905779 0.2463554 255 0 255
0.103886 -0.04908259 0.2468391 255 0 255
0.1055457 -0.04910302 0.247316 255 0 255
0.1068611 -0.04880764 0.2469025 255 0 255
0.1088814 -0.04913072 0.2482493 255 0 255
0.1112714 -0.0497575 0.250468 255 0 255
0.1125992 -0.04944969 0.250035 255 0 255
0.1146537 -0.04975525 0.2513551 255 0 255
0.1159848 -0.04944012 0.2509106 255 0 255
0.1173138 -0.0491222 0.2504615 255 0 255
0.1182656 -0.048496 0.2491325 255 0 255
0.1203446 -0.04878262 0.2504232 255 0 255
0.1220535 -0.0487592 0.2508316 255 0 255
0.1237675 -0.04873124 0.251233 255 0 255
0.1258761 -0.04900059 0.2524972 255 0 255
0.127997 -0.04926348 0.2537516 255 0 255
0.1297332 -0.04921979 0.2541287 255 0 255
0.1322751 -0.04976976 0.2562307 255 0 255
0.1348361 -0.05031131 0.2583202 255 0 255
0.1374162 -0.05084438 0.2603968 255 0 255
0.1400154 -0.05136886 0.2624605 255 0 255
0.1422189 -0.0515894 0.2636505 255 0 255
0.1440161 -0.05150871 0.2639708 255 0 255
0.1462396 -0.05171663 0.2651415 255 0 255
0.1489001 -0.05221017 0.2671583 255 0 255
0.1511504 -0.05240342 0.2683065 255 0 255
0.1551414 -0.05375161 0.2728589 255 0 255
0.0885916 -0.05779255 0.2614584 255 0 255
0.08849744 -0.05589817 0.2566138 255 0 255
0.08955795 -0.05531166 0.2553625 255 0 255
0.09091149 -0.05504891 0.2550046 255 0 255
0.09226339 -0.05478333 0.254642 255 0 255
0.09299451 -0.05386755 0.2524867 255 0 255
0.09402233 -0.0532749 0.2512239 255 0 255
0.09504104 -0.05268096 0.2499585 255 0 255
0.09605067 -0.05208576 0.2486907 255 0 255
0.0970512 -0.05148929 0.2474204 255 0 255
0.09837051 -0.05121158 0.2470366 255 0 255
0.09968813 -0.05093104 0.2466482 255 0 255
0.1010039 -0.05064778 0.2462554 255 0 255
0.102318 -0.05036173 0.2458579 255 0 255
0.1036301 -0.05007301 0.245456 255 0 255
0.1056332 -0.05041333 0.2468162 255 0 255
0.106949 -0.05011745 0.2464029 255 0 255
0.1089702 -0.0504473 0.2477471 255 0 255
0.1110041 -0.05077108 0.2490821 255 0 255
0.1126896 -0.05077618 0.2495292 255 0 255
0.1143804 -0.05077673 0.2499692 255 0 255
0.1157083 -0.05046195 0.2495261 255 0 255
0.1170342 -0.0501444 0.2490784 255 0 255
0.118358 -0.04982404 0.2486261 255 0 255
0.1200588 -0.04980919 0.2490418 255 0 255
0.1217649 -0.04978974 0.2494504 255 0 255
0.1234759 -0.04976571 0.2498518 255 0 255
0.125192 -0.04973711 0.2502461 255 0 255
0.1273067 -0.0500085 0.2515006 255 0 255
0.1286394 -0.04966599 0.2510131 255 0 255
0.1311717 -0.05022907 0.2531153 255 0 255
0.1337232 -0.05078366 0.2552048 255 0 255
0.1367017 -0.05163069 0.2581437 255 0 255
0.139295 -0.05216728 0.2602063 255 0 255
0.1419072 -0.05269531 0.2622559 255 0 255
0.1437016 -0.05261861 0.2625766 255 0 255
0.1463445 -0.05313112 0.2646028 255 0 255
0.1485806 -0.0533388 0.2657605 255 0 255
0.1512575 -0.05383462 0.2677616 255 0 255
0.154818 -0.05490972 0.2714537 255 0 255
0.08614311 -0.05807602 0.2576918 255 0 255
0.08692706 -0.05715803 0.2555509 255 0 255
0.08798941 -0.05657025 0.2543059 255 0 255
0.08934134 -0.05631066 0.2539538 255 0 255
0.09038928 -0.0557194 0.2527024 255 0 255
0.09173415 -0.0554549 0.252342 255 0 255
0.09276758 -0.05486021 0.2510843 255 0 255
0.09379193 -0.05426426 0.2498241 255 0 255
0.09480713 -0.05366697 0.2485614 255 0 255
0.09613411 -0.05339352 0.2481858 255 0 255
0.09745941 -0.05311732 0.2478056 255 0 255
0.09845457 -0.05251481 0.2465334 255 0 255
0.0994407 -0.05191107 0.2452589 255 0 255
0.1007532 -0.05162813 0.2448673 255 0 255
0.1017247 -0.05102134 0.2435871 255 0 255
0.10303 -0.0507337 0.2431875 255 0 255
0.1050266 -0.05108245 0.2445474 255 0 255
0.1063355 -0.05078774 0.2441366 255 0 255
0.1083503 -0.05112605 0.2454806 255 0 255
0.1100203 -0.05114122 0.2459369 255 0 255
0.1120568 -0.05146816 0.2472636 255 0 255
0.1130113 -0.05084286 0.2459528 255 0 255
0.1146936 -0.05084552 0.2463896 255 0 255
0.1156369 -0.05021637 0.2450722 255 0 255
0.1173224 -0.05021178 0.2454974 255 0 255
0.1190131 -0.05020263 0.2459157 255 0 255
0.1207089 -0.05018896 0.2463269 255 0 255
0.1224099 -0.0501707 0.246731 255 0 255
0.124506 -0.05045702 0.2479953 255 0 255
0.1266144 -0.05073692 0.2492499 255 0 255
0.1283376 -0.05070301 0.2496299 255 0 255
0.1308676 -0.05127723 0.2517295 255 0 255
0.1330123 -0.05153755 0.2529544 255 0 255
0.1355771 -0.05209583 0.2550301 255 0 255
0.1381609 -0.0526455 0.2570928 255 0 255
0.1415939 -0.05379178 0.2608586 255 0 255
0.1438041 -0.05402064 0.2620361 255 0 255
0.1464482 -0.05454332 0.2640585 255 0 255
0.1491111 -0.05505722 0.2660676 255 0 255
0.1513635 -0.05526354 0.267211 255 0 255
0.1540602 -0.05576058 0.2691947 255 0 255
0.08642465 -0.05781607 0.25324 255 0 255
0.08836512 -0.05822739 0.2546841 255 0 255
0.08912348 -0.05730028 0.2525427 255 0 255
0.09047046 -0.05703818 0.2521871 255 0 255
0.0915095 -0.05644147 0.2509346 255 0 255
0.09253943 -0.05584349 0.2496796 255 0 255
0.09356028 -0.05524419 0.248422 255 0 255
0.09488939 -0.05497309 0.2480512 255 0 255
0.09589569 -0.0543705 0.2467876 255 0 255
0.09721766 -0.05409461 0.2464086 255 0 255
0.09788091 -0.05316163 0.2442531 255 0 255
0.09919199 -0.05288178 0.2438673 255 0 255
0.1005013 -0.05259919 0.243477 255 0 255
0.1014692 -0.05198907 0.2421995 255 0 255
0.1031145 -0.05202579 0.2426829 255 0 255
0.1047651 -0.05205813 0.2431597 255 0 255
0.1060707 -0.05176376 0.2427502 255 0 255
0.1080828 -0.05210969 0.2440927 255 0 255
0.1097498 -0.05212885 0.2445491 255 0 255
0.1114221 -0.05214351 0.2449985 255 0 255
0.1130997 -0.05215376 0.245441 255 0 255
0.1144139 -0.0518414 0.2450032 255 0 255
0.1157261 -0.05152626 0.2445608 255 0 255
0.1170363 -0.05120836 0.2441139 255 0 255
0.1191036 -0.0515187 0.245402 255 0 255
0.1208001 -0.05150807 0.245812 255 0 255
0.1228885 -0.05180657 0.2470822 255 0 255
0.1249891 -0.05209863 0.2483426 255 0 255
0.127102 -0.05238429 0.2495933 255 0 255
0.129227 -0.05266343 0.2508342 255 0 255
0.1313642 -0.05293604 0.2520652 255 0 255
0.1335135 -0.05320205 0.2532863 255 0 255
0.1356747 -0.05346146 0.2544973 255 0 255
0.1382597 -0.05402138 0.2565562 255 0 255
0.1408637 -0.05457266 0.2586021 255 0 255
0.1439056 -0.05542044 0.2614902 255 0 255
0.1461285 -0.05564905 0.2626548 255 0 255
0.148789 -0.05617403 0.2646614 255 0 255
0.1510388 -0.05638786 0.2658038 255 0 255
0.1537332 -0.05689601 0.267785 255 0 255
0.01831676 -0.03058553 0.1694641 255 0 255
0.08755921 -0.05853944 0.2514791 255 0 255
0.08890448 -0.0582805 0.2511294 255 0 255
0.09055095 -0.05835475 0.2516667 255 0 255
0.0915902 -0.05775408 0.2504159 255 0 255
0.09262032 -0.05715197 0.2491624 255 0 255
0.09364133 -0.05654863 0.2479065 255 0 255
0.09465325 -0.05594398 0.246648 255 0 255
0.09565601 -0.0553381 0.2453871 255 0 255
0.09697469 -0.05506255 0.2450094 255 0 255
0.09796295 -0.05445344 0.2437426 255 0 255
0.09894201 -0.05384313 0.2424735 255 0 255
0.1005841 -0.05389011 0.2429669 255 0 255
0.101892 -0.05360432 0.2425723 255 0 255
0.1031981 -0.05331577 0.2421732 255 0 255
0.1048494 -0.05335128 0.2426487 255 0 255
0.1061555 -0.05305642 0.2422395 255 0 255
0.107814 -0.05308398 0.2427026 255 0 255
0.109836 -0.05343138 0.2440345 255 0 255
0.1111473 -0.05312576 0.2436083 255 0 255
0.1128219 -0.05313992 0.2440508 255 0 255
0.1141329 -0.05282792 0.2436144 255 0 255
0.1154419 -0.05251316 0.2431736 255 0 255
0.1167488 -0.05219564 0.2427281 255 0 255
0.1188134 -0.0525135 0.2440148 255 0 255
0.1205069 -0.05250683 0.2444249 255 0 255
0.1225926 -0.05281292 0.2456937 255 0 255
0.1250812 -0.05342894 0.2478174 255 0 255
0.127195 -0.05372124 0.2490655 255 0 255
0.1289232 -0.05369245 0.2494419 255 0 255
0.1310577 -0.05397264 0.2506717 255 0 255
0.1332043 -0.0542462 0.2518915 255 0 255
0.1345458 -0.05388973 0.2513855 255 0 255
0.1367092 -0.05415195 0.252588 255 0 255
0.1401315 -0.0553368 0.2563457 255 0 255
0.1431677 -0.05620031 0.2592313 255 0 255
0.1458072 -0.05674523 0.2612485 255 0 255
0.1484655 -0.05728136 0.2632526 255 0 255
0.1511424 -0.05780857 0.2652433 255 0 255
0.1542713 -0.05863167 0.2680688 255 0 255
0.02534164 -0.06746808 0.2591112 255 0 255
0.02672836 -0.06733918 0.2589729 255 0 255
0.02798263 -0.06684279 0.257908 255 0 255
0.0293641 -0.06670843 0.2577607 255 0 255
0.02962875 -0.06366067 0.250241 255 0 255
0.0873423 -0.0595099 0.2500624 255 0 255
0.08958216 -0.06027259 0.2523878 255 0 255
0.09093367 -0.06000894 0.2520316 255 0 255
0.09167009 -0.05906446 0.249892 255 0 255
0.09270042 -0.05845838 0.2486402 255 0 255
0.09340746 -0.05751344 0.2464985 255 0 255
0.09441584 -0.05690551 0.2452427 255 0 255
0.09541514 -0.05629631 0.2439845 255 0 255
0.09673051 -0.0560211 0.243608 255 0 255
0.09771521 -0.05540868 0.2423439 255 0 255
0.09902341 -0.05512873 0.2419596 255 0 255
0.1003298 -0.05484606 0.2415708 255 0 255
0.1019745 -0.05489264 0.2420574 255 0 255
0.1032809 -0.05460364 0.2416585 255 0 255
0.1049329 -0.05464228 0.2421328 255 0 255
0.1065903 -0.05467656 0.2426003 255 0 255
0.1082531 -0.05470638 0.2430609 255 0 255
0.1095631 -0.05440388 0.2426407 255 0 255
0.1112331 -0.05442565 0.2430889 255 0 255
0.1129083 -0.05444292 0.2435302 255 0 255
0.1145889 -0.05445578 0.2439646 255 0 255
0.1159019 -0.05413961 0.2435227 255 0 255
0.1175893 -0.05414425 0.2439444 255 0 255
0.119282 -0.05414433 0.2443591 255 0 255
0.1209797 -0.05413986 0.2447668 255 0 255
0.1230699 -0.05445168 0.2460317 255 0 255
0.1251724 -0.05475707 0.2472869 255 0 255
0.1268926 -0.05473691 0.2476707 255 0 255
0.1286178 -0.05471211 0.2480472 255 0 255
0.1299464 -0.05436545 0.2475575 255 0 255
0.131678 -0.0543322 0.2479209 255 0 255
0.1330056 -0.05397893 0.2474206 255 0 255
0.1351557 -0.05425154 0.2486259 255 0 255
0.1385655 -0.0554576 0.2523823 255 0 255
0.1424278 -0.05696351 0.2569726 255 0 255
0.1450613 -0.05752056 0.2589886 255 0 255
0.1477137 -0.05806873 0.2609915 255 0 255
0.1512449 -0.05922692 0.2646773 255 0 255
0.1543753 -0.06006366 0.2674974 255 0 255
0.02273999 -0.06939739 0.2597659 255 0 255
0.02485424 -0.0714898 0.2651655 255 0 255
0.02639344 -0.07173015 0.2659503 255 0 255
0.02793966 -0.07196684 0.2667297 255 0 255
0.02922909 -0.07146333 0.2656627 255 0 255
0.03051001 -0.07095763 0.2645919 255 0 255
0.03164274 -0.07008222 0.2625976 255 0 255
0.03275922 -0.06920546 0.2606003 255 0 255
0.03371203 -0.06796068 0.2576814 255 0 255
0.08742 -0.06081573 0.2495343 255 0 255
0.08996046 -0.061933 0.2527453 255 0 255
0.09101289 -0.06132483 0.2514994 255 0 255
0.09174929 -0.06037271 0.2493629 255 0 255
0.09309039 -0.06010445 0.2489997 255 0 255
0.09380116 -0.05915108 0.24686 255 0 255
0.09449535 -0.05819798 0.24472 255 0 255
0.09549478 -0.05758474 0.2434634 255 0 255
0.09681056 -0.05730911 0.2430872 255 0 255
0.09779542 -0.05669262 0.2418248 255 0 255
0.09877116 -0.05607497 0.24056 255 0 255
0.1004108 -0.05612908 0.241052 255 0 255
0.1017159 -0.05584318 0.240659 255 0 255
0.103363 -0.05588936 0.2411387 255 0 255
0.1050155 -0.05593119 0.2416117 255 0 255
0.1066736 -0.05596856 0.2420779 255 0 255
0.108337 -0.05600151 0.2425374 255 0 255
0.1100059 -0.05603001 0.2429901 255 0 255
0.111318 -0.0557234 0.2425643 255 0 255
0.1129939 -0.05574379 0.2430044 255 0 255
0.1150445 -0.05608863 0.2443067 255 0 255
0.1163616 -0.05577108 0.2438638 255 0 255
0.1180532 -0.05577791 0.2442831 255 0 255
0.1197501 -0.0557802 0.2446953 255 0 255
0.1214521 -0.05577789 0.2451005 255 0 255
0.1235468 -0.05609544 0.2463615 255 0 255
0.1256537 -0.05640657 0.2476128 255 0 255
0.1273782 -0.05638851 0.2479941 255 0 255
0.1291077 -0.0563658 0.2483682 255 0 255
0.1304402 -0.0560176 0.2478773 255 0 255
0.132176 -0.05598645 0.2482383 255 0 255
0.1335076 -0.05563165 0.2477369 255 0 255
0.1352496 -0.05559195 0.2480847 255 0 255
0.1382448 -0.05649835 0.2509818 255 0 255
0.1421055 -0.0580261 0.255565 255 0 255
0.1447366 -0.05859422 0.2575785 255 0 255
0.1478135 -0.05946751 0.2604268 255 0 255
0.1513463 -0.06064288 0.2641058 255 0 255
0.1544782 -0.06149329 0.2669204 255 0 255
0.02196721 -0.07269845 0.2639575 255 0 255
0.02396305 -0.0744426 0.2684329 255 0 255
0.02551519 -0.07468846 0.2692201 255 0 255
0.02695003 -0.074558 0.269082 255 0 255
0.02838413 -0.07442449 0.2689391 255 0 255
0.02968542 -0.07391614 0.2678725 255 0 255
0.03111419 -0.07377697 0.2677203 255 0 255
0.03240236 -0.07326374 0.2666454 255 0 255
0.03382569 -0.07311901 0.266484 255 0 255
0.03524821 -0.07297133 0.2663178 255 0 255
0.03651845 -0.07245073 0.2652302 255 0 255
0.03762483 -0.07155845 0.2632225 255 0 255
0.03871487 -0.07066493 0.2612121 255 0 255
0.03995164 -0.07013883 0.2601141 255 0 255
0.06605319 -0.03989007 0.1917512 255 0 255
0.08147655 -0.05678984 0.2350995 255 0 255
0.08779296 -0.06246782 0.2498904 255 0 255
0.09033837 -0.06359847 0.2530947 255 0 255
0.09139474 -0.06298555 0.2518495 255 0 255
0.09244198 -0.06237123 0.2506016 255 0 255
0.0934801 -0.06175558 0.2493511 255 0 255
0.09387989 -0.06044909 0.2463292 255 0 255
0.09457402 -0.05948828 0.2441923 255 0 255
0.09557364 -0.05887101 0.2429374 255 0 255
0.09688986 -0.05859494 0.2425614 255 0 255
0.09787486 -0.05797442 0.2413006 255 0 255
0.09918387 -0.05769358 0.2409167 255 0 255
0.1004911 -0.05740998 0.2405283 255 0 255
0.1017965 -0.05712362 0.2401354 255 0 255
0.1034442 -0.05717298 0.2406138 255 0 255
0.1050974 -0.05721787 0.2410856 255 0 255
0.106756 -0.05725839 0.2415506 255 0 255
0.1087752 -0.05763046 0.2428812 255 0 255
0.1100896 -0.05732611 0.2424602 255 0 255
0.1114021 -0.05701895 0.2420347 255 0 255
0.1130786 -0.05704246 0.2424736 255 0 255
0.1147604 -0.05706146 0.2429055 255 0 255
0.1160741 -0.05674428 0.2424641 255 0 255
0.1181398 -0.05708583 0.2437485 255 0 255
0.1198372 -0.05709119 0.2441596 255 0 255
0.1215399 -0.0570919 0.2445635 255 0 255
0.1236355 -0.05741607 0.2458218 255 0 255
0.1253519 -0.05740669 0.2462104 255 0 255
0.1270734 -0.05739259 0.2465917 255 0 255
0.1287999 -0.05737382 0.2469659 255 0 255
0.1305314 -0.05735034 0.2473329 255 0 255
0.1322678 -0.05732219 0.2476926 255 0 255
0.1340091 -0.05728927 0.2480451 255 0 255
0.1361681 -0.05757309 0.2492424 255 0 255
0.138339 -0.05785016 0.2504296 255 0 255
0.1422016 -0.0593988 0.2550045 255 0 255
0.1444104 -0.05965842 0.2561658 255 0 255
0.1474851 -0.0605463 0.25901 255 0 255
0.1510161 -0.06173994 0.2626835 255 0 255
0.15458 -0.06292052 0.2663377 255 0 255
0.01973856 -0.07112506 0.2561738 255 0 255
0.02247582 -0.07553584 0.2670852 255 0 255
0.02437166 -0.07691978 0.2706328 255 0 255
0.02569477 -0.07641489 0.2695804 255 0 255
0.02713392 -0.07628395 0.2694421 255 0 255
0.02857233 -0.07614996 0.2692988 255 0 255
0.02987777 -0.07563743 0.2682334 255 0 255
0.03117471 -0.07512262 0.2671639 255 0 255
0.03260315 -0.07498036 0.267007 255 0 255
0.03403079 -0.07483508 0.2668452 255 0 255
0.03545758 -0.07468686 0.2666786 255 0 255
0.03688359 -0.07453559 0.2665072 255 0 255
0.03815322 -0.07400818 0.2654164 255 0 255
0.03941427 -0.07347862 0.2643217 255 0 255
0.04066669 -0.07294701 0.2632232 255 0 255
0.04191052 -0.07241325 0.262121 255 0 255
0.04280388 -0.07113463 0.2591898 255 0 255
0.08213394 -0.05873935 0.2363626 255 0 255
0.08786944 -0.06377292 0.2493506 255 0 255
0.09011615 -0.06456625 0.2516622 255 0 255
0.0914726 -0.06430062 0.2513055 255 0 255
