ply
format ascii 1.0
Comment Generated by Floating Hands
element vertex 1115
property double x
property double y
property double z
property uchar red
property uchar green
property uchar blue
end_header
0.01106197 0.0149677 0.225698 255 0 255
0.0121574 0.01519186 0.2246312 255 0 255
0.01332881 0.01525807 0.2245443 255 0 255
0.01441212 0.01548602 0.22347 255 0 255
0.01557891 0.01555641 0.2233751 255 0 255
0.0167453 0.01562898 0.223276 255 0 255
0.01791126 0.01570379 0.2231727 255 0 255
0.01917966 0.01562222 0.2240473 255 0 255
0.02024182 0.01585989 0.2229538 255 0 255
0.02140637 0.01594127 0.222838 255 0 255
0.02245613 0.01618253 0.2217373 255 0 255
0.02361589 0.01626798 0.2216136 255 0 255
0.02489692 0.01619844 0.2224658 255 0 255
0.02618503 0.01613171 0.2233131 255 0 255
0.02735065 0.01622431 0.2231761 255 0 255
0.02864895 0.01616283 0.2240136 255 0 255
0.02995418 0.01610415 0.2248461 255 0 255
0.0309848 0.01635958 0.2237179 255 0 255
0.03215175 0.01646128 0.2235638 255 0 255
0.03331807 0.01656518 0.2234054 255 0 255
0.03448367 0.01667122 0.223243 255 0 255
0.03564861 0.01677954 0.2230763 255 0 255
0.03697247 0.01673607 0.2238806 255 0 255
0.0383031 0.01669561 0.2246796 255 0 255
0.03980768 0.01650487 0.2264472 255 0 255
0.04115563 0.01647064 0.2272349 255 0 255
0.04268494 0.01628703 0.2289899 255 0 255
0.04405005 0.01625922 0.229766 255 0 255
0.04523967 0.01638606 0.2295651 255 0 255
0.04661436 0.01636394 0.2303307 255 0 255
0.04780597 0.01649566 0.2301206 255 0 255
0.04899674 0.01662964 0.2299063 255 0 255
0.05038373 0.016616 0.2306565 255 0 255
0.05197819 0.01645593 0.2323691 255 0 255
0.05338197 0.0164489 0.2331072 255 0 255
0.05500068 0.01629652 0.2348062 255 0 255
0.05684538 0.01600006 0.2374639 255 0 255
0.05827978 0.01600405 0.2381824 255 0 255
0.06015969 0.01571684 0.2408236 255 0 255
0.06161429 0.01572831 0.2415286 255 0 255
0.06330225 0.01559684 0.2431904 255 0 255
0.06523468 0.01532391 0.2458066 255 0 255
0.06765704 0.01476581 0.2503358 255 0 255
0.0691628 0.01479417 0.2510106 255 0 255
0.07115845 0.0145375 0.2535982 255 0 255
0.07292952 0.01443011 0.2552173 255 0 255
0.07446497 0.0144704 0.2558706 255 0 255
0.07600648 0.01451424 0.2565174 255 0 255
0.07755408 0.01456163 0.2571578 255 0 255
0.07962833 0.01432942 0.2597018 255 0 255
-0.05424598 0.02574082 0.1537206 255 0 255
-0.05778997 0.02146018 0.1791379 255 0 255
-0.05846415 0.0197673 0.1890244 255 0 255
-0.05857238 0.01855945 0.1960001 255 0 255
-0.05798891 0.01800198 0.1990858 255 0 255
-0.05753794 0.01728195 0.2031452 255 0 255
-0.05644804 0.01721575 0.2033063 255 0 255
-0.05565399 0.01682438 0.2054141 255 0 255
-0.0548442 0.01643423 0.2075202 255 0 255
-0.05415938 0.01588124 0.2106008 255 0 255
-0.05317739 0.01565766 0.2117267 255 0 255
-0.05232039 0.01527136 0.213827 255 0 255
-0.05118895 0.01521577 0.2139695 255 0 255
-0.04993135 0.01532711 0.2131298 255 0 255
-0.04880255 0.01527595 0.2132638 255 0 255
-0.04767321 0.01522691 0.2133938 255 0 255
-0.04654333 0.01518004 0.2135199 255 0 255
-0.04552336 0.01496982 0.2146219 255 0 255
-0.04460191 0.01459581 0.2167011 255 0 255
-0.043562 0.01438918 0.217797 255 0 255
-0.042613 0.01401851 0.2198707 255 0 255
-0.04164839 0.01364961 0.2219419 255 0 255
-0.04048531 0.01361459 0.2220465 255 0 255
-0.03914655 0.01391427 0.2201826 255 0 255
-0.0377388 0.01438279 0.2173308 255 0 255
-0.03595348 0.01568616 0.2095592 255 0 255
-0.03308566 0.01949048 0.1870324 255 0 255
-0.02923433 0.02596577 0.1487551 255 0 255
0.001485702 0.01398212 0.2220679 255 0 255
0.002847809 0.01336699 0.2259591 255 0 255
0.004133149 0.0130856 0.2278752 255 0 255
0.00531882 0.01313701 0.2278171 255 0 255
0.006565381 0.01302585 0.2287392 255 0 255
0.007689375 0.01324657 0.2276882 255 0 255
0.008805456 0.01346908 0.2266334 255 0 255
0.009913608 0.01369349 0.2255749 255 0 255
0.0110138 0.01391971 0.2245127 255 0 255
0.01218622 0.01398385 0.2244301 255 0 255
0.0133583 0.01405022 0.2243433 255 0 255
0.01444216 0.0142822 0.2232696 255 0 255
0.01560964 0.01435273 0.2231748 255 0 255
0.01677671 0.0144255 0.2230757 255 0 255
0.0179433 0.01450041 0.2229726 255 0 255
0.01910949 0.01457755 0.2228652 255 0 255
0.02016838 0.01481907 0.2217727 255 0 255
0.02144038 0.0147384 0.2226381 255 0 255
0.0226051 0.0148221 0.2225182 255 0 255
0.0237693 0.01490802 0.2223942 255 0 255
0.02493296 0.01499608 0.2222661 255 0 255
0.02622181 0.01492564 0.2231127 255 0 255
0.02738813 0.01501842 0.2229759 255 0 255
0.02855385 0.0151134 0.2228348 255 0 255
0.02985609 0.01505073 0.2236671 255 0 255
0.03088348 0.01530991 0.2225402 255 0 255
0.03204734 0.01541152 0.2223866 255 0 255
0.03321054 0.01551527 0.2222289 255 0 255
0.03437303 0.01562122 0.2220671 255 0 255
0.03553486 0.01572939 0.221901 255 0 255
0.03685573 0.01568192 0.2227053 255 0 255
0.03834694 0.01547995 0.2244782 255 0 255
0.03968517 0.01543871 0.2252713 255 0 255
0.04120123 0.01524377 0.2270317 255 0 255
0.0425567 0.01520892 0.2278134 255 0 255
0.04391886 0.01517705 0.2285897 255 0 255
0.04510538 0.01530375 0.2283895 255 0 255
0.04647714 0.01527761 0.2291553 255 0 255
0.04785554 0.01525453 0.2299155 255 0 255
0.04904696 0.0153888 0.2297013 255 0 255
0.0504348 0.01537148 0.2304509 255 0 255
0.05182916 0.01535731 0.2311949 255 0 255
0.05343488 0.01519334 0.2328999 255 0 255
0.05484601 0.01518597 0.2336318 255 0 255
0.05647593 0.01502972 0.2353231 255 0 255
0.05768773 0.01518077 0.2350779 255 0 255
0.05977736 0.0147297 0.2386836 255 0 255
0.06122543 0.01473664 0.2393896 255 0 255
0.06313418 0.01444666 0.2420141 255 0 255
0.06483322 0.01431156 0.2436679 255 0 255
0.06724972 0.01373335 0.2481956 255 0 255
0.06851069 0.01390585 0.2479119 255 0 255
0.07049652 0.01363635 0.2505003 255 0 255
0.0720119 0.01366759 0.2511629 255 0 255
0.07353341 0.01370227 0.2518191 255 0 255
0.07480799 0.01388704 0.2515127 255 0 255
0.07685163 0.01363624 0.2540679 255 0 255
0.0776137 0.01411844 0.2518407 255 0 255
-0.0498599 0.03055879 0.1202976 255 0 255
-0.05729779 0.02288492 0.1650474 255 0 255
-0.05967316 0.01966534 0.183648 255 0 255
-0.06036675 0.01793255 0.1935283 255 0 255
-0.06031578 0.01686202 0.19953 255 0 255
-0.05972877 0.01629034 0.202618 255 0 255
-0.05911844 0.01571926 0.2057057 255 0 255
-0.05848481 0.01514879 0.2087929 255 0 255
-0.05752371 0.01491375 0.2099314 255 0 255
-0.05670268 0.01451281 0.2120416 255 0 255
-0.05586589 0.01411311 0.21415 255 0 255
-0.05473185 0.0140507 0.2143051 255 0 255
-0.05373416 0.01382225 0.2154323 255 0 255
-0.05286142 0.01342718 0.2175332 255 0 255
-0.05171419 0.01337068 0.2176776 255 0 255
-0.05044078 0.01348512 0.2168403 255 0 255
-0.04941797 0.01326418 0.2179542 255 0 255
-0.04838705 0.0130451 0.2190649 255 0 255
-0.04734798 0.01282791 0.2201724 255 0 255
-0.04630081 0.01261258 0.2212765 255 0 255
-0.04524553 0.01239912 0.2223774 255 0 255
-0.04418218 0.01218762 0.2234749 255 0 255
-0.04311074 0.01197811 0.2245691 255 0 255
-0.04212648 0.01160059 0.2266406 255 0 255
-0.04094369 0.01156488 0.2267469 255 0 255
-0.03976049 0.01153143 0.226849 255 0 255
-0.03840926 0.01184073 0.2249833 255 0 255
-0.03715286 0.01198229 0.2240943 255 0 255
-0.03559893 0.0128079 0.2192709 255 0 255
-0.03219285 0.01549143 0.2037058 255 0 255
-0.02922074 0.02042134 0.1752638 255 0 255
0.001462274 0.01295539 0.220879 255 0 255
0.002821523 0.0123245 0.2247678 255 0 255
0.004103888 0.01203517 0.2266828 255 0 255
0.00534384 0.01191764 0.2276088 255 0 255
0.006529909 0.0119714 0.2275465 255 0 255
0.007650701 0.01219594 0.2264965 255 0 255
0.008832412 0.01225399 0.226426 255 0 255
0.009941138 0.01248241 0.2253682 255 0 255
0.01104189 0.01271262 0.2243067 255 0 255
0.01213469 0.01294468 0.2232416 255 0 255
0.01330361 0.01301096 0.2231551 255 0 255
0.01456004 0.01291215 0.2240465 255 0 255
0.01564028 0.01315015 0.2229697 255 0 255
0.01690351 0.01305618 0.2238521 255 0 255
0.01797527 0.01329811 0.2227676 255 0 255
0.01914209 0.0133754 0.2226604 255 0 255
0.02020157 0.01362099 0.2215686 255 0 255
0.02147436 0.01353658 0.2224333 255 0 255
0.02252523 0.01378603 0.221334 255 0 255
0.02380458 0.01370657 0.2221896 255 0 255
0.02509098 0.01362982 0.2230403 255 0 255
0.02625852 0.01372059 0.2229076 255 0 255
0.02742548 0.01381357 0.2227708 255 0 255
0.02859186 0.01390876 0.2226299 255 0 255
0.02989487 0.01384238 0.2234616 255 0 255
0.03092279 0.01410573 0.2223354 255 0 255
0.03208729 0.0142075 0.222182 255 0 255
0.03310256 0.01447426 0.2210489 255 0 255
0.03441431 0.0144177 0.2218626 255 0 255
0.03557678 0.01452607 0.2216967 255 0 255
0.03689846 0.01447493 0.2225003 255 0 255
0.03839059 0.01426534 0.224272 255 0 255
0.03989705 0.01405951 0.2260372 255 0 255
0.04107543 0.01417862 0.2258517 255 0 255
0.04242794 0.01413969 0.2266335 255 0 255
0.04360843 0.01426359 0.2264389 255 0 255
0.04497062 0.01423038 0.2272103 255 0 255
0.04633943 0.01420018 0.2279762 255 0 255
0.04771489 0.01417308 0.2287365 255 0 255
0.04909695 0.01414904 0.2294913 255 0 255
0.0506831 0.0139704 0.2312079 255 0 255
0.05208205 0.01395309 0.2319508 255 0 255
0.0536925 0.01378205 0.2336539 255 0 255
0.05531692 0.01361513 0.2353498 255 0 255
0.05674287 0.01360828 0.2360738 255 0 255
0.05774288 0.01391563 0.2348641 255 0 255
0.05961402 0.01360431 0.2375042 255 0 255
0.0608356 0.01376174 0.2372481 255 0 255
0.06251077 0.01361346 0.2389107 255 0 255
0.0646618 0.0131624 0.2424873 255 0 255
0.06707624 0.01256463 0.2470128 255 0 255
0.06833419 0.01273698 0.24673 255 0 255
0.07031751 0.01245566 0.2493174 255 0 255
0.07158419 0.01263438 0.249023 255 0 255
0.07334881 0.01251355 0.250637 255 0 255
0.0741138 0.01299905 0.2484205 255 0 255
0.07640466 0.01258549 0.2519313 255 0 255
0.0779417 0.01262675 0.2525687 255 0 255
-0.05119897 0.02931083 0.1229251 255 0 255
-0.05898327 0.02129856 0.1685867 255 0 255
-0.06123768 0.01817638 0.1861988 255 0 255
-0.06160878 0.01674375 0.1941317 255 0 255
-0.06140608 0.01581888 0.1991595 255 0 255
-0.06099782 0.01506373 0.2032186 255 0 255
-0.06023181 0.01464962 0.2053352 255 0 255
-0.05945003 0.01423668 0.2074502 255 0 255
-0.05865248 0.01382489 0.2095636 255 0 255
-0.05783911 0.01341426 0.2116753 255 0 255
-0.05700998 0.01300488 0.2137852 255 0 255
-0.05616506 0.01259678 0.2158932 255 0 255
-0.05516358 0.01236186 0.2170243 255 0 255
-0.05415391 0.01212875 0.2181524 255 0 255
-0.05313604 0.01189741 0.2192773 255 0 255
-0.05185118 0.01201283 0.2184461 255 0 255
-0.05069892 0.01195814 0.2185869 255 0 255
-0.0495461 0.01190567 0.2187236 255 0 255
-0.04851072 0.01168235 0.219834 255 0 255
-0.047353 0.01163409 0.219963 255 0 255
-0.04630519 0.0114147 0.2210664 255 0 255
-0.04524928 0.0111972 0.2221666 255 0 255
-0.04418526 0.01098168 0.2232634 255 0 255
-0.04311318 0.01076811 0.2243568 255 0 255
-0.04203302 0.01055647 0.2254468 255 0 255
-0.04085339 0.01052079 0.2255527 255 0 255
-0.03967333 0.01048734 0.2256545 255 0 255
-0.03849287 0.01045615 0.2257521 255 0 255
-0.03715198 0.01077567 0.2238827 255 0 255
-0.03590217 0.01092343 0.2229896 255 0 255
-0.03458726 0.01124798 0.2211098 255 0 255
-0.03315012 0.01192403 0.2172603 255 0 255
-0.03180793 0.01242824 0.2143872 255 0 255
-0.02963517 0.01537948 0.1977501 255 0 255
0.001530801 0.01159101 0.2216544 255 0 255
0.002795078 0.01129094 0.2235731 255 0 255
0.004074438 0.01099372 0.2254868 255 0 255
0.005311325 0.01087219 0.2264125 255 0 255
0.006494283 0.01092589 0.2263504 255 0 255
0.007676942 0.0109818 0.2262842 255 0 255
0.008790354 0.0112122 0.2252311 255 0 255
0.009968608 0.01127241 0.2251567 255 0 255
0.01099339 0.01167857 0.2231138 255 0 255
0.01208295 0.01191442 0.2220497 255 0 255
0.0132487 0.01198062 0.2219636 255 0 255
0.01450207 0.01187782 0.2228546 255 0 255
0.01567085 0.01194864 0.2227599 255 0 255
0.01683924 0.01202166 0.222661 255 0 255
0.01800717 0.01209687 0.2225579 255 0 255
0.01917465 0.01217436 0.2224507 255 0 255
0.02023463 0.01242401 0.2213597 255 0 255
0.02150819 0.01233583 0.2222238 255 0 255
0.02255961 0.01258937 0.2211253 255 0 255
0.0238397 0.01250617 0.2219803 255 0 255
0.0251269 0.01242577 0.2228303 255 0 255
0.02629508 0.01251668 0.2226978 255 0 255
0.02746273 0.01260991 0.2225611 255 0 255
0.02862974 0.01270525 0.2224201 255 0 255
0.02979618 0.0128028 0.2222751 255 0 255
0.03082083 0.01306997 0.2211502 255 0 255
0.03198219 0.01317162 0.2209973 255 0 255
0.03314289 0.01327549 0.2208403 255 0 255
0.03430294 0.01338152 0.2206791 255 0 255
0.03561855 0.01332383 0.2214875 255 0 255
0.03694102 0.01326901 0.2222907 255 0 255
0.03827028 0.01321715 0.2230885 255 0 255
0.03977391 0.01300338 0.2248529 255 0 255
0.0411205 0.01295781 0.2256395 255 0 255
0.04247385 0.01291529 0.2264207 255 0 255
0.04365496 0.01303946 0.2262263 255 0 255
0.04501794 0.01300259 0.2269971 255 0 255
0.04638757 0.01296878 0.2277625 255 0 255
0.04776386 0.01293805 0.2285222 255 0 255
0.04914672 0.01291041 0.2292764 255 0 255
0.05073384 0.0127243 0.2309919 255 0 255
0.05213363 0.01270337 0.2317341 255 0 255
0.05374509 0.0125249 0.233436 255 0 255
0.05516165 0.01251079 0.234166 255 0 255
0.05658467 0.01249989 0.2348902 255 0 255
0.05779781 0.01265159 0.2346453 255 0 255
0.05923002 0.01264677 0.2353585 255 0 255
0.06066857 0.01264517 0.2360658 255 0 255
0.06279607 0.01217312 0.2396499 255 0 255
0.06472098 0.01186478 0.2422629 255 0 255
0.067137 0.01124792 0.2467853 255 0 255
0.06887296 0.01110786 0.2484194 255 0 255
0.07013784 0.01128399 0.2481306 255 0 255
0.07140148 0.01146253 0.2478372 255 0 255
0.07291373 0.0114887 0.2484951 255 0 255
0.07392512 0.01182696 0.2472368 255 0 255
0.07569941 0.01170529 0.2488378 255 0 255
-0.05976909 0.02055046 0.1672719 255 0 255
-0.0626429 0.01684211 0.187766 255 0 255
-0.06321568 0.01520435 0.1966617 255 0 255
-0.06267135 0.01460556 0.1997502 255 0 255
-0.06210369 0.01400721 0.2028385 255 0 255
-0.06134545 0.01358362 0.2049563 255 0 255
-0.06040793 0.01333542 0.2061017 255 0 255
-0.05978153 0.01273957 0.2091874 255 0 255
-0.0591318 0.01214435 0.2122727 255 0 255
-0.05815441 0.01190021 0.2134119 255 0 255
-0.05716879 0.01165775 0.2145482 255 0 255
-0.05631952 0.01124144 0.2166553 255 0 255
-0.05531366 0.01100223 0.2177861 255 0 255
-0.05429958 0.01076481 0.2189139 255 0 255
-0.05314409 0.0107054 0.2190633 255 0 255
-0.05198799 0.01064821 0.2192086 255 0 255
-0.05070566 0.01076976 0.2183736 255 0 255
-0.04967402 0.01054039 0.2194869 255 0 255
-0.04851619 0.01048976 0.2196199 255 0 255
-0.04735781 0.01044135 0.2197488 255 0 255
-0.04630936 0.01021795 0.2208516 255 0 255
-0.0452528 0.009996416 0.221951 255 0 255
-0.04418817 0.009776836 0.2230471 255 0 255
-0.04311543 0.009559201 0.2241397 255 0 255
-0.04203461 0.009343539 0.225229 255 0 255
-0.04085432 0.009307779 0.225335 255 0 255
-0.0396736 0.009274222 0.2254367 255 0 255
-0.03849247 0.009242907 0.2255343 255 0 255
-0.03723094 0.009392032 0.224647 255 0 255
-0.03597667 0.00954353 0.2237549 255 0 255
-0.03487441 0.009340783 0.2248207 255 0 255
-0.03348996 0.009853655 0.2219566 255 0 255
-0.03238704 0.009655341 0.2230141 255 0 255
-0.03091064 0.01053029 0.2181755 255 0 255
-0.02935792 0.01176511 0.2113662 255 0 255
0.0002609911 0.01088503 0.2185353 255 0 255
0.001691653 0.009865459 0.2243899 255 0 255
0.002918294 0.009735189 0.2253237 255 0 255
0.004098587 0.009784326 0.2252703 255 0 255
0.005278643 0.009835692 0.2252127 255 0 255
0.006458404 0.009889304 0.2251509 255 0 255
0.007637939 0.009945157 0.225085 255 0 255
0.008748123 0.01017941 0.2240329 255 0 255
0.00985034 0.01041549 0.2229771 255 0 255
0.01094462 0.0106534 0.2219176 255 0 255
0.01203095 0.01089313 0.2208545 255 0 255
0.01319352 0.01095921 0.2207687 255 0 255
0.01444383 0.01085239 0.2216593 255 0 255
0.01560948 0.01092314 0.221565 255 0 255
0.01677469 0.01099606 0.2214665 255 0 255
0.01793945 0.0110712 0.2213638 255 0 255
0.0191038 0.01114858 0.221257 255 0 255
0.02026765 0.01122812 0.2211461 255 0 255
0.02143103 0.01130984 0.221031 255 0 255
0.02259389 0.01139383 0.2209118 255 0 255
0.02387477 0.01130689 0.2217662 255 0 255
0.02504036 0.01139552 0.2216383 255 0 255
0.02620544 0.01148637 0.2215063 255 0 255
0.02736992 0.01157943 0.2213701 255 0 255
0.02853381 0.01167468 0.2212297 255 0 255
0.02969707 0.01177218 0.2210852 255 0 255
0.03085973 0.01187185 0.2209366 255 0 255
0.03202177 0.01197371 0.2207838 255 0 255
0.0331831 0.0120778 0.2206269 255 0 255
0.0344964 0.01201385 0.2214393 255 0 255
0.03566019 0.0121227 0.2212736 255 0 255
0.03698341 0.01206422 0.2220761 255 0 255
0.03831344 0.01200869 0.2228734 255 0 255
0.03981801 0.01178738 0.2246366 255 0 255
0.04116539 0.01173818 0.2254225 255 0 255
0.04251951 0.01169198 0.2262032 255 0 255
0.04370132 0.01181643 0.2260088 255 0 255
0.04524786 0.01160874 0.2277479 255 0 255
0.04643553 0.01173855 0.2275438 255 0 255
0.0478126 0.01170419 0.228303 255 0 255
0.04900225 0.0118389 0.2280898 255 0 255
0.05078436 0.01147935 0.2307708 255 0 255
0.05198345 0.01161991 0.230547 255 0 255
0.0533868 0.01159814 0.2312836 255 0 255
0.05479675 0.01157955 0.2320145 255 0 255
0.05621314 0.01156418 0.2327397 255 0 255
0.05720295 0.01187851 0.2315339 255 0 255
0.05884502 0.01170589 0.2332106 255 0 255
0.06027699 0.0116998 0.2339189 255 0 255
0.06239839 0.01121158 0.2375019 255 0 255
0.06408565 0.01105229 0.2391553 255 0 255
0.0667272 0.01025408 0.2446353 255 0 255
0.06821797 0.01026584 0.2453123 255 0 255
0.06995749 0.01012128 0.2469399 255 0 255
0.07121818 0.01029974 0.2466475 255 0 255
0.07297754 0.01016314 0.2482609 255 0 255
0.0739894 0.01050562 0.2470034 255 0 255
0.07602211 0.010219 0.2495567 255 0 255
0.07755356 0.01025222 0.250195 255 0 255
-0.05807912 0.02210608 0.1533968 255 0 255
-0.06313296 0.01638031 0.1844875 255 0 255
-0.06448091 0.01400071 0.1972412 255 0 255
-0.06412301 0.01321126 0.2012978 255 0 255
-0.06320976 0.01295428 0.2024502 255 0 255
-0.06245928 0.01252106 0.2045692 255 0 255
-0.061693 0.01208893 0.2066868 255 0 255
-0.06074734 0.01183619 0.2078325 255 0 255
-0.06027266 0.01104935 0.2118881 255 0 255
-0.05945511 0.0106203 0.2140014 255 0 255
-0.05846957 0.01037163 0.215141 255 0 255
-0.05762422 0.009945357 0.2172502 255 0 255
-0.0566184 0.009699888 0.2183843 255 0 255
-0.05560436 0.009456224 0.2195154 255 0 255
-0.0545821 0.009214314 0.2206435 255 0 255
-0.05355163 0.008974266 0.2217684 255 0 255
-0.05225405 0.009096586 0.2209401 255 0 255
-0.05096347 0.009221557 0.2201066 255 0 255
-0.04980176 0.009168421 0.2202441 255 0 255
-0.04863948 0.009117481 0.2203775 255 0 255
-0.04747667 0.00906876 0.2205068 255 0 255
-0.04642379 0.008841145 0.2216093 255 0 255
-0.04536281 0.008615436 0.2227083 255 0 255
-0.04419084 0.008573067 0.222826 255 0 255
-0.04311747 0.00835142 0.2239179 255 0 255
-0.04203602 0.00813179 0.2250064 255 0 255
-0.04076364 0.008277652 0.2241333 255 0 255
-0.03958606 0.008244102 0.2242347 255 0 255
-0.03840809 0.008212761 0.224332 255 0 255
-0.03714973 0.008365811 0.2234451 255 0 255
-0.0359748 0.008339022 0.2235337 255 0 255
-0.03479952 0.008314502 0.2236182 255 0 255
-0.03355535 0.008474552 0.2227177 255 0 255
-0.03244795 0.008272164 0.2237746 255 0 255
-0.03127171 0.008254358 0.2238466 255 0 255
-0.0300381 0.008421237 0.2229329 255 0 255
0.0004944748 0.008797504 0.2232315 255 0 255
0.001806789 0.008298658 0.226134 255 0 255
0.003041791 0.008164839 0.2270668 255 0 255
0.004176546 0.008395204 0.2260311 255 0 255
0.005361059 0.008446853 0.2259733 255 0 255
0.006422382 0.008861672 0.2239481 255 0 255
0.007598739 0.008917425 0.2238824 255 0 255
0.008705663 0.009155505 0.2228313 255 0 255
0.009877557 0.00921555 0.2227575 255 0 255
0.0109724 0.009457473 0.2216987 255 0 255
0.01205928 0.009701206 0.2206365 255 0 255
0.0132225 0.009767454 0.2205507 255 0 255
0.01447355 0.00965685 0.2214407 255 0 255
0.01563982 0.009727758 0.2213464 255 0 255
0.01680565 0.009800812 0.2212479 255 0 255
0.01797108 0.009876088 0.2211454 255 0 255
0.01913605 0.009953622 0.2210386 255 0 255
0.02030053 0.01003332 0.2209278 255 0 255
0.02146458 0.01011525 0.2208128 255 0 255
0.02262807 0.01019937 0.2206936 255 0 255
0.0239097 0.0101087 0.2215474 255 0 255
0.02507597 0.01019756 0.2214196 255 0 255
0.02624166 0.0102886 0.2212876 255 0 255
0.02740677 0.01038184 0.2211515 255 0 255
0.02870513 0.0103015 0.2219865 255 0 255
0.02987283 0.0103995 0.2218416 255 0 255
0.0310399 0.0104997 0.2216926 255 0 255
0.03220634 0.01060213 0.2215394 255 0 255
0.03337213 0.01070677 0.2213821 255 0 255
0.03453724 0.01081364 0.2212206 255 0 255
0.03570162 0.01092266 0.2210549 255 0 255
0.03686533 0.01103399 0.2208851 255 0 255
0.03819236 0.01097443 0.2216823 255 0 255
0.03969407 0.01074519 0.2234448 255 0 255
0.0412101 0.0105197 0.2252007 255 0 255
0.04256504 0.01046988 0.2259807 255 0 255
0.04374748 0.01059459 0.2257865 255 0 255
0.04529494 0.01037936 0.2275243 255 0 255
0.04648327 0.01050943 0.2273204 255 0 255
0.04767069 0.01064172 0.2271121 255 0 255
0.04905143 0.01060648 0.2278658 255 0 255
0.05063672 0.01040496 0.2295794 255 0 255
0.05183267 0.01054539 0.2293564 255 0 255
0.05323315 0.01051957 0.2300931 255 0 255
0.05464013 0.01049697 0.2308242 255 0 255
0.05584066 0.01064515 0.2305869 255 0 255
0.0570402 0.01079566 0.2303453 255 0 255
0.05867951 0.01061514 0.2320215 255 0 255
0.06010858 0.01060503 0.2327301 255 0 255
0.06245548 0.009935433 0.2372707 255 0 255
0.06391218 0.009933871 0.2379642 255 0 255
0.06655172 0.009112315 0.2434409 255 0 255
0.06827863 0.008955907 0.2450752 255 0 255
0.07001923 0.008803979 0.2467015 255 0 255
0.07103413 0.009145913 0.245454 255 0 255
0.07304098 0.008838841 0.2480215 255 0 255
0.07379951 0.009347639 0.2458113 255 0 255
0.07531466 0.009372292 0.2464581 255 0 255
-0.06227079 0.01720565 0.1744539 255 0 255
-0.06519539 0.0133352 0.1949124 255 0 255
-0.06559007 0.01180603 0.2028317 255 0 255
-0.06485191 0.01136143 0.204955 255 0 255
-0.0637482 0.01128076 0.2051416 255 0 255
-0.06281479 0.01102046 0.2062925 255 0 255
-0.06187309 0.01076174 0.2074408 255 0 255
-0.06092313 0.01050465 0.2085864 255 0 255
-0.0602844 0.009884224 0.2116694 255 0 255
-0.05962233 0.009264559 0.214752 255 0 255
-0.05878465 0.008828576 0.2168626 255 0 255
-0.05793113 0.00839388 0.2189713 255 0 255
-0.05691716 0.00814387 0.2201058 255 0 255
-0.05589493 0.007895685 0.2212372 255 0 255
-0.05472741 0.007833159 0.221392 255 0 255
-0.05369254 0.007588861 0.2225167 255 0 255
-0.0523905 0.007714709 0.2216895 255 0 255
-0.05109546 0.007843208 0.2208572 255 0 255
-0.04992931 0.007789748 0.2209952 255 0 255
-0.04888067 0.007553803 0.2221046 255 0 255
-0.04770963 0.007504649 0.2222348 255 0 255
-0.04653803 0.007457691 0.2223607 255 0 255
-0.04536594 0.007412959 0.2224825 255 0 255
-0.04419333 0.007370501 0.2226002 255 0 255
-0.04302026 0.007330235 0.2227137 255 0 255
-0.04194196 0.007106697 0.2238011 255 0 255
-0.04076419 0.007070809 0.2239067 255 0 255
-0.03958597 0.00703715 0.2240081 255 0 255
-0.03840735 0.007005749 0.2241054 255 0 255
-0.03722832 0.006976592 0.2241984 255 0 255
-0.03604895 0.006949644 0.2242873 255 0 255
-0.03494154 0.006738803 0.225352 255 0 255
-0.03375764 0.006716277 0.2254328 255 0 255
-0.03270285 0.006323463 0.2274701 255 0 255
-0.03144977 0.00649167 0.2265624 255 0 255
-0.03020407 0.006662257 0.2256501 255 0 255
-0.02891247 0.007021631 0.2237522 255 0 255
-0.02768535 0.007196906 0.2228305 255 0 255
-0.02628324 0.008120499 0.2179786 255 0 255
-0.02336546 0.01109418 0.2023675 255 0 255
-0.000735269 0.007926195 0.2210835 255 0 255
0.0006862799 0.006857245 0.2269339 255 0 255
0.001875955 0.006902391 0.2268887 255 0 255
0.003065402 0.006949763 0.2268393 255 0 255
0.004146834 0.007368864 0.224823 255 0 255
0.005328195 0.007420417 0.2247654 255 0 255
0.006447722 0.007658615 0.2237228 255 0 255
0.007624682 0.007714472 0.2236572 255 0 255
0.00873219 0.007956565 0.2226069 255 0 255
0.009831702 0.008200529 0.2215528 255 0 255
0.01092327 0.008446294 0.2204952 255 0 255
0.01200687 0.008693848 0.2194339 255 0 255
0.01316691 0.008759973 0.2193485 255 0 255
0.01441489 0.008645399 0.2202382 255 0 255
0.01567009 0.008533467 0.2211231 255 0 255
0.01683656 0.008606736 0.2210247 255 0 255
0.01800261 0.008682133 0.2209222 255 0 255
0.01916823 0.008759818 0.2208155 255 0 255
0.02033336 0.008839695 0.2207047 255 0 255
0.02149802 0.008921766 0.2205898 255 0 255
0.02266215 0.009006042 0.2204708 255 0 255
0.02406329 0.00873081 0.2223001 255 0 255
0.02511142 0.00900069 0.2211962 255 0 255
0.02627776 0.009091925 0.2210642 255 0 255
0.02757364 0.009005386 0.2219032 255 0 255
0.02874259 0.009101356 0.2217625 255 0 255
0.03004869 0.009020176 0.2225918 255 0 255
0.0312202 0.009120916 0.2224424 255 0 255
0.03239108 0.009223899 0.2222888 255 0 255
0.03341216 0.009507453 0.2211584 255 0 255
0.03457788 0.009614546 0.220997 255 0 255
0.0357429 0.009723816 0.2208315 255 0 255
0.03706771 0.009658039 0.2216328 255 0 255
0.03823504 0.009772165 0.2214584 255 0 255
0.03973769 0.009535361 0.2232195 255 0 255
0.04108284 0.009478497 0.2240049 255 0 255
0.04243476 0.009424649 0.2247848 255 0 255
0.04361409 0.009549238 0.2245913 255 0 255
0.04515875 0.00932613 0.2263284 255 0 255
0.0465308 0.009281493 0.227092 255 0 255
0.04771885 0.009414051 0.2268839 255 0 255
0.0491004 0.009375216 0.227637 255 0 255
0.05068666 0.009166228 0.2293493 255 0 255
0.05188325 0.009306963 0.2291264 255 0 255
0.05328452 0.009277559 0.2298625 255 0 255
0.05448297 0.009423334 0.2296303 255 0 255
0.05589348 0.009399864 0.2303558 255 0 255
0.05709369 0.009550752 0.2301143 255 0 255
0.0585134 0.009533316 0.2308289 255 0 255
0.05993954 0.009519129 0.2315376 255 0 255
0.06228421 0.008830057 0.2360756 255 0 255
0.06396981 0.00865547 0.2377273 255 0 255
0.06637558 0.007979543 0.2422427 255 0 255
0.06857821 0.007479133 0.2457892 255 0 255
0.07032356 0.007320365 0.2474134 255 0 255
0.07158931 0.007500087 0.2471205 255 0 255
0.07335443 0.007349333 0.2487305 255 0 255
0.07462507 0.00753499 0.2484267 255 0 255
0.07563672 0.007888528 0.2471665 255 0 255
0.07559386 0.008902605 0.2420993 255 0 255
-0.05648907 0.02270308 0.1403496 255 0 255
-0.06418492 0.01434528 0.1839022 255 0 255
-0.06614141 0.01131251 0.1995267 255 0 255
-0.06615219 0.01012011 0.2055118 255 0 255
-0.06522354 0.009851741 0.2066692 255 0 255
-0.06411168 0.009770263 0.206857 255 0 255
-0.06317018 0.009505331 0.2080084 255 0 255
-0.06222037 0.009241993 0.2091571 255 0 255
-0.06142587 0.008794197 0.2112719 255 0 255
-0.06061554 0.008347545 0.213385 255 0 255
-0.05994538 0.007715491 0.2164663 255 0 255
-0.05909956 0.007271033 0.2185766 255 0 255
-0.05823793 0.00682794 0.2206848 255 0 255
-0.05721578 0.006573459 0.2218195 255 0 255
-0.05618537 0.006320784 0.2229512 255 0 255
-0.05487253 0.006445332 0.2221344 255 0 255
-0.05369995 0.006384636 0.2222857 255 0 255
-0.05239725 0.006514265 0.2214592 255 0 255
-0.05122725 0.006458241 0.2216016 255 0 255
-0.04993476 0.0065929 0.2207655 255 0 255
-0.04876743 0.006541493 0.2208993 255 0 255
-0.04759952 0.006492343 0.2210289 255 0 255
-0.04643111 0.006445429 0.2211545 255 0 255
-0.04536885 0.006211653 0.222252 255 0 255
-0.04409275 0.006358246 0.2213932 255 0 255
-0.04292285 0.006318005 0.2215063 255 0 255
-0.04194298 0.005901087 0.2235698 255 0 255
-0.04067311 0.006054654 0.2226977 255 0 255
-0.03958568 0.005831323 0.2237768 255 0 255
-0.03849022 0.005610023 0.2248522 255 0 255
-0.03730674 0.005580658 0.2249456 255 0 255
-0.03612291 0.005553582 0.2250348 255 0 255
-0.03501104 0.005338641 0.2260988 255 0 255
-0.03375414 0.005506131 0.2252006 255 0 255
-0.03269867 0.005105419 0.2272364 255 0 255
-0.03150584 0.005087209 0.2273094 255 0 255
-0.03031274 0.005071308 0.2273781 255 0 255
-0.02911934 0.005057611 0.2274425 255 0 255
-0.0279751 0.004855868 0.2284832 255 0 255
-0.02668627 0.005227532 0.2265782 255 0 255
-0.02553774 0.005030269 0.2276107 255 0 255
-0.02441929 0.004644789 0.2296202 255 0 255
-0.02318308 0.004832912 0.2286828 255 0 255
-0.002021143 0.00745294 0.2169663 255 0 255
-0.0005593064 0.005978593 0.2247801 255 0 255
0.0007085942 0.005643161 0.2267015 255 0 255
0.001898891 0.005688381 0.2266563 255 0 255
0.003038865 0.005924649 0.2256262 255 0 255
0.00417093 0.00616283 0.2245921 255 0 255
0.005295091 0.006402923 0.2235543 255 0 255
0.006411369 0.006644956 0.2225127 255 0 255
0.007585163 0.006700757 0.2224474 255 0 255
0.008689389 0.006946668 0.221398 255 0 255
0.009785648 0.007194415 0.220345 255 0 255
0.01095085 0.007256504 0.2202677 255 0 255
0.01203499 0.007508071 0.2192072 255 0 255
0.01319566 0.007574395 0.2191218 255 0 255
0.01435598 0.00764286 0.2190325 255 0 255
0.01551588 0.007713584 0.2189389 255 0 255
0.01677141 0.007600089 0.219819 255 0 255
0.01793428 0.00767544 0.2197169 255 0 255
0.01920032 0.007567102 0.2205877 255 0 255
0.0203661 0.00764718 0.220477 255 0 255
0.02153137 0.007729417 0.2203621 255 0 255
0.02269614 0.00781391 0.2202431 255 0 255
0.02397927 0.007715785 0.2210956 255 0 255
0.02514679 0.007804976 0.2209679 255 0 255
0.0264402 0.007712189 0.2218108 255 0 255
0.02748011 0.007990035 0.2207001 255 0 255
0.02877996 0.007902301 0.2215339 255 0 255
0.03008678 0.007817433 0.2223625 255 0 255
0.03111731 0.008101359 0.2212403 255 0 255
0.03228501 0.008204186 0.2210873 255 0 255
0.03345205 0.008309285 0.2209301 255 0 255
0.0346184 0.008416574 0.2207688 255 0 255
0.03562726 0.008707639 0.2196326 255 0 255
0.03694902 0.008637846 0.2204337 255 0 255
0.03811322 0.008751824 0.22026 255 0 255
0.03961297 0.008507165 0.2220203 255 0 255
0.04095513 0.008446268 0.2228056 255 0 255
0.04247977 0.008208741 0.2245535 255 0 255
0.04383916 0.008154324 0.2253274 255 0 255
0.04520531 0.008102966 0.2260958 255 0 255
0.04657809 0.008054702 0.2268588 255 0 255
0.04776683 0.008187613 0.2266508 255 0 255
0.04914917 0.008145167 0.2274033 255 0 255
0.05053811 0.008105871 0.2281502 255 0 255
0.05173158 0.008246435 0.2279281 255 0 255
0.05312991 0.008213025 0.2286644 255 0 255
0.05453473 0.008182795 0.2293949 255 0 255
0.05573282 0.008331205 0.2291586 255 0 255
0.05714688 0.008307001 0.2298784 255 0 255
0.05878816 0.008111627 0.231552 255 0 255
0.05999442 0.008268367 0.2313005 255 0 255
0.06211235 0.007733637 0.2348769 255 0 255
0.06379521 0.007551156 0.2365281 255 0 255
0.06596314 0.007028198 0.2400844 255 0 255
0.0681597 0.006511657 0.2436298 255 0 255
0.07038483 0.006001711 0.2471638 255 0 255
0.07189807 0.006010928 0.247825 255 0 255
0.07366794 0.00585338 0.2494328 255 0 255
0.07519721 0.00587023 0.2500805 255 0 255
0.07621671 0.006229074 0.2488193 255 0 255
0.07644265 0.007095359 0.2447044 255 0 255
-0.05940857 0.01900525 0.1546206 255 0 255
-0.06552975 0.01197255 0.1904406 255 0 255
-0.06671511 0.009628751 0.2022004 255 0 255
-0.06634931 0.008789289 0.2062531 255 0 255
-0.06541634 0.008516522 0.2074103 255 0 255
-0.06447507 0.008245359 0.2085648 255 0 255
-0.06352548 0.007975798 0.2097167 255 0 255
-0.06256758 0.007707831 0.2108658 255 0 255
-0.06192859 0.007061509 0.2139482 255 0 255
-0.06126624 0.006415879 0.2170302 255 0 255
-0.06042437 0.005961505 0.2191423 255 0 255
-0.05941436 0.005699139 0.2202828 255 0 255
-0.05869307 0.005056627 0.2233609 255 0 255
-0.05751424 0.004988592 0.2235256 255 0 255
-0.05647566 0.004731429 0.2246574 255 0 255
-0.05501745 0.005050887 0.2228705 255 0 255
-0.05384043 0.004989816 0.2230222 255 0 255
-0.05253327 0.005122976 0.2221969 255 0 255
-0.05123314 0.005258776 0.2213666 255 0 255
-0.05006192 0.005204842 0.2215049 255 0 255
-0.04889013 0.005153123 0.2216391 255 0 255
-0.0477178 0.005103696 0.2217691 255 0 255
-0.04654494 0.005056462 0.221895 255 0 255
-0.04537157 0.005011484 0.2220168 255 0 255
-0.0441977 0.004968715 0.2221344 255 0 255
-0.04292429 0.005121494 0.2212717 255 0 255
-0.0419438 0.004696662 0.2233337 255 0 255
-0.04076473 0.00466053 0.2234392 255 0 255
-0.03958524 0.004626684 0.2235406 255 0 255
-0.03840533 0.004595052 0.2236378 255 0 255
-0.03730501 0.004371932 0.2247086 255 0 255
-0.03612052 0.004344732 0.2247978 255 0 255
-0.03500799 0.004125842 0.2258611 255 0 255
-0.033819 0.004103113 0.2259422 255 0 255
-0.03269435 0.003888535 0.2269979 255 0 255
-0.03150088 0.003870249 0.2270709 255 0 255
-0.03030712 0.00385427 0.2271396 255 0 255
-0.02911308 0.003840541 0.2272041 255 0 255
-0.02791881 0.003829102 0.2272643 255 0 255
-0.02681538 0.003431303 0.2292801 255 0 255
-0.02569644 0.00303571 0.2312924 255 0 255
-0.02456198 0.002642365 0.233301 255 0 255
-0.02348013 0.001862551 0.2372666 255 0 255
-0.02230701 0.001473754 0.239268 255 0 255
-0.001756351 0.004926179 0.2236003 255 0 255
-0.0004602679 0.00438723 0.2265052 255 0 255
0.0007308801 0.004430264 0.2264643 255 0 255
0.00187545 0.00466837 0.225439 255 0 255
0.003062364 0.00471579 0.2253898 255 0 255
0.004194994 0.004957981 0.2243566 255 0 255
0.005319724 0.005202081 0.2233195 255 0 255
0.006436559 0.005448105 0.2222788 255 0 255
0.007545453 0.005695974 0.2212342 255 0 255
0.008646375 0.00594574 0.220186 255 0 255
0.009812561 0.006005686 0.2201128 255 0 255
0.0109014 0.006259306 0.219057 255 0 255
0.01198222 0.006514695 0.2179976 255 0 255
0.01313972 0.006580865 0.2179126 255 0 255
0.01438528 0.006458553 0.2188011 255 0 255
0.0155458 0.006529364 0.2187077 255 0 255
0.01680206 0.006412152 0.2195871 255 0 255
0.01806546 0.006297629 0.2204617 255 0 255
0.01923234 0.006375603 0.2203552 255 0 255
0.02039872 0.006455798 0.2202446 255 0 255
0.02156463 0.006538219 0.2201298 255 0 255
0.02284518 0.006433901 0.2209861 255 0 255
0.02401388 0.006521052 0.2208626 255 0 255
0.02518201 0.006610414 0.220735 255 0 255
0.02634959 0.006702012 0.2206033 255 0 255
0.02751661 0.006795854 0.2204674 255 0 255
0.02881721 0.006704465 0.2213004 255 0 255
0.03012477 0.006615893 0.2221284 255 0 255
0.03129753 0.006717063 0.2219791 255 0 255
0.03232409 0.007006945 0.2208541 255 0 255
0.03364113 0.006926107 0.2216682 255 0 255
0.03465874 0.00721976 0.2205358 255 0 255
0.03582505 0.00732955 0.2203705 255 0 255
0.03715133 0.007256475 0.2211704 255 0 255
0.03831992 0.00737101 0.2209963 255 0 255
0.0396561 0.007303539 0.2217862 255 0 255
0.04117108 0.007055096 0.2235387 255 0 255
0.0423487 0.007177517 0.2233502 255 0 255
0.04370512 0.007119131 0.224124 255 0 255
0.04506826 0.007063763 0.2248925 255 0 255
0.04643808 0.007011476 0.2256554 255 0 255
0.04743277 0.007326141 0.2244836 255 0 255
0.04880835 0.007279235 0.2252368 255 0 255
0.05019057 0.007235498 0.2259845 255 0 255
0.05157935 0.007194888 0.2267264 255 0 255
0.05297469 0.007157483 0.2274628 255 0 255
0.05437659 0.00712322 0.2281935 255 0 255
0.05578499 0.007092233 0.2289184 255 0 255
0.05719985 0.007064494 0.2296376 255 0 255
0.05884208 0.006861669 0.2313098 255 0 255
0.06027358 0.00684096 0.2320166 255 0 255
0.06216828 0.006468932 0.234632 255 0 255
0.06361998 0.006455866 0.2353253 255 0 255
0.06602137 0.005740952 0.2398353 255 0 255
0.06797973 0.005385129 0.242423 255 0 255
0.07020252 0.004859557 0.2459551 255 0 255
0.07195982 0.004690086 0.2475696 255 0 255
0.07373083 0.004525242 0.2491761 255 0 255
0.07500648 0.004712217 0.2488718 255 0 255
0.0762809 0.004901741 0.2485629 255 0 255
0.07703035 0.005438747 0.2463503 255 0 255
-0.06077873 0.01672509 0.1611679 255 0 255
-0.0663048 0.01012237 0.1940754 255 0 255
-0.0672888 0.007922848 0.2048651 255 0 255
-0.06672876 0.007259304 0.2079525 255 0 255
-0.06596649 0.006789065 0.2100749 255 0 255
-0.06483835 0.006706037 0.2102651 255 0 255
-0.06405187 0.00623845 0.2123834 255 0 255
-0.06308206 0.005965647 0.2135335 255 0 255
-0.06243128 0.005306682 0.2166154 255 0 255
-0.06175706 0.004648471 0.2196967 255 0 255
-0.06090328 0.004185367 0.2218089 255 0 255
-0.06003365 0.003723609 0.2239192 255 0 255
-0.05914815 0.003263174 0.2260276 255 0 255
-0.05795731 0.003194284 0.2261938 255 0 255
-0.05662485 0.003322996 0.2253852 255 0 255
-0.0552993 0.003454318 0.2245715 255 0 255
-0.05398073 0.003588397 0.2237525 255 0 255
-0.05266912 0.003725111 0.2229284 255 0 255
-0.05136453 0.003864459 0.2220993 255 0 255
-0.05018887 0.003810195 0.222238 255 0 255
-0.04901265 0.003758172 0.2223725 255 0 255
-0.04772157 0.003904973 0.2215292 255 0 255
-0.04654808 0.0038576 0.2216551 255 0 255
-0.04548077 0.003615641 0.2227514 255 0 255
-0.04419958 0.003769654 0.2218944 255 0 255
-0.04302461 0.003729031 0.2220079 255 0 255
-0.04194442 0.003493421 0.2230929 255 0 255
-0.04076473 0.003457213 0.2231984 255 0 255
-0.03967221 0.003225733 0.2242762 255 0 255
-0.03848785 0.003193924 0.2243737 255 0 255
-0.03738307 0.002966685 0.225444 255 0 255
-0.03611799 0.003137068 0.2245561 255 0 255
-0.03493249 0.003112052 0.2246411 255 0 255
-0.03381517 0.002891395 0.2256997 255 0 255
-0.03268988 0.002672851 0.2267547 255 0 255
-0.03149575 0.002654523 0.2268276 255 0 255
-0.03030137 0.00263845 0.2268963 255 0 255
-0.02910668 0.002624661 0.2269607 255 0 255
-0.02791177 0.00261319 0.227021 255 0 255
-0.02680767 0.002207557 0.2290353 255 0 255
-0.02564633 0.002002344 0.2300667 255 0 255
-0.02447712 0.001799387 0.2310942 255 0 255
-0.0233341 0.001400494 0.2330973 255 0 255
-0.02214538 0.001202131 0.2341169 255 0 255
-0.02086975 0.001600894 0.2321931 255 0 255
-0.01956423 0.002398352 0.2283047 255 0 255
-0.01810231 0.005180071 0.2146116 255 0 255
-0.002916165 0.003687821 0.2233927 255 0 255
-0.001630561 0.003134564 0.2262998 255 0 255
-0.0003997857 0.002978424 0.2272428 255 0 255
0.0007532105 0.003218525 0.2262223 255 0 255
0.001898333 0.003460657 0.2251978 255 0 255
0.003085884 0.003508115 0.2251487 255 0 255
0.004164923 0.003950709 0.2231372 255 0 255
0.005344348 0.004002404 0.2230801 255 0 255
0.0063999 0.004448486 0.2210614 255 0 255
0.007571136 0.004504283 0.2209963 255 0 255
0.008603146 0.004953769 0.2189707 255 0 255
0.009766141 0.005013608 0.2188978 255 0 255
0.01092876 0.005075734 0.2188208 255 0 255
0.01201013 0.005335142 0.2177623 255 0 255
0.01316823 0.005401465 0.2176774 255 0 255
0.01441454 0.005275362 0.2185652 255 0 255
0.01557568 0.005346357 0.2184718 255 0 255
0.01683264 0.005225381 0.2193505 255 0 255
0.01809676 0.005107126 0.2202244 255 0 255
0.0193681 0.004991588 0.2210935 255 0 255
0.02064656 0.004878824 0.2219577 255 0 255
0.02170924 0.005155075 0.2208675 255 0 255
0.02287908 0.005240109 0.2207483 255 0 255
0.0240484 0.005327489 0.2206249 255 0 255
0.02521712 0.005417047 0.2204974 255 0 255
0.02651203 0.005316839 0.2213389 255 0 255
0.02768349 0.00541118 0.2212027 255 0 255
0.02898863 0.005316424 0.2220346 255 0 255
0.03043881 0.005033456 0.2238332 255 0 255
0.03147789 0.00532621 0.2227117 255 0 255
0.03250873 0.005620514 0.221587 255 0 255
0.03368083 0.005726393 0.2214296 255 0 255
0.03485222 0.005834483 0.2212679 255 0 255
0.03586582 0.006134149 0.2201329 255 0 255
0.03719288 0.00605743 0.2209322 255 0 255
0.0383621 0.006172258 0.2207581 255 0 255
0.03969899 0.006101115 0.2215474 255 0 255
0.04104269 0.006033011 0.2223314 255 0 255
0.04239313 0.005967891 0.22311 255 0 255
0.04375034 0.005905861 0.2238832 255 0 255
0.04511423 0.005846882 0.224651 255 0 255
0.04629755 0.005977193 0.2244488 255 0 255
0.04747998 0.006109796 0.2242424 255 0 255
0.04885635 0.006059329 0.2249949 255 0 255
0.05023931 0.006011995 0.2257419 255 0 255
0.05142656 0.006152304 0.2255215 255 0 255
0.053025 0.00592682 0.2272189 255 0 255
0.05463754 0.005705516 0.2289093 255 0 255
0.05626407 0.005488313 0.2305925 255 0 255
0.0574699 0.005640597 0.2303507 255 0 255
0.05911683 0.005430869 0.2320208 255 0 255
0.06055288 0.00540708 0.2327261 255 0 255
0.0619953 0.005386625 0.2334256 255 0 255
0.06390867 0.005008214 0.2360305 255 0 255
0.06607928 0.004455058 0.2395811 255 0 255
0.06827857 0.003908358 0.2431207 255 0 255
0.07026298 0.003547373 0.2456959 255 0 255
0.07202134 0.003370576 0.247309 255 0 255
0.07354243 0.00337643 0.2479627 255 0 255
0.07481507 0.003563277 0.2476594 255 0 255
0.07556982 0.004106502 0.2454521 255 0 255
0.07657047 0.004473598 0.2441928 255 0 255
0.07809384 0.004490343 0.2448265 255 0 255
-0.06234327 0.01419611 0.1686617 255 0 255
-0.06727007 0.008046379 0.1986617 255 0 255
-0.06786253 0.006194779 0.2075206 255 0 255
-0.06729071 0.005518522 0.2106075 255 0 255
-0.06651662 0.005039413 0.2127303 255 0 255
-0.06555161 0.004758375 0.2138869 255 0 255
-0.06457822 0.004478973 0.2150409 255 0 255
-0.06359652 0.004201268 0.2161919 255 0 255
-0.06309761 0.003331928 0.2202396 255 0 255
-0.06224781 0.002858896 0.2223537 255 0 255
-0.061226 0.002585375 0.2234984 255 0 255
-0.06034822 0.002115198 0.2256082 255 0 255
-0.05945455 0.001646347 0.227716 255 0 255
-0.05811074 0.001775825 0.226914 255 0 255
-0.05677382 0.001907981 0.2261067 255 0 255
-0.05530668 0.00224222 0.2243238 255 0 255
-0.05398743 0.002380011 0.2235056 255 0 255
-0.0526752 0.002520404 0.2226824 255 0 255
-0.05136995 0.002663484 0.2218539 255 0 255
-0.05007173 0.002809193 0.2210205 255 0 255
-0.04901683 0.00255687 0.2221272 255 0 255
-0.0477251 0.002707403 0.2212846 255 0 255
-0.04644049 0.002860542 0.220437 255 0 255
-0.04537639 0.002614696 0.2215321 255 0 255
-0.04409837 0.002772603 0.2206755 255 0 255
-0.04292659 0.002731979 0.2207886 255 0 255
-0.04184959 0.00249248 0.2218724 255 0 255
-0.04076453 0.002255033 0.2229528 255 0 255
-0.03958378 0.002220928 0.2230541 255 0 255
-0.0384864 0.001987647 0.2241273 255 0 255
-0.03738099 0.001756448 0.2251968 255 0 255
-0.0361914 0.001728981 0.2252862 255 0 255
-0.03500146 0.00170381 0.2253714 255 0 255
-0.03381118 0.001680894 0.2254525 255 0 255
-0.03262058 0.001660225 0.2255293 255 0 255
-0.03142967 0.001641892 0.225602 255 0 255
-0.03023847 0.001625802 0.2256705 255 0 255
-0.029047 0.001612041 0.2257347 255 0 255
-0.02785527 0.001600504 0.2257948 255 0 255
-0.02670881 0.001389166 0.226829 255 0 255
-0.02559614 0.0009779619 0.2288378 255 0 255
-0.02439227 0.0009732319 0.2288857 255 0 255
-0.02318821 0.0009708252 0.2289294 255 0 255
-0.0219538 0.001172852 0.22799 255 0 255
-0.0207006 0.001579321 0.226067 255 0 255
-0.01944012 0.002190105 0.2231604 255 0 255
-0.01823987 0.002398862 0.2222074 255 0 255
-0.01707683 0.002205679 0.2232087 255 0 255
-0.003995179 0.001848925 0.2261136 255 0 255
-0.002739856 0.001482979 0.2280435 255 0 255
-0.001504365 0.001320815 0.2289899 255 0 255
-0.0003391456 0.001563012 0.227974 255 0 255
0.0008182331 0.001807226 0.2269542 255 0 255
0.001921182 0.002254063 0.2249518 255 0 255
0.00305899 0.002502119 0.2239243 255 0 255
0.004188889 0.002752098 0.222893 255 0 255
0.005310881 0.003004021 0.2218578 255 0 255
0.006424971 0.003257867 0.2208189 255 0 255
0.007596792 0.003313769 0.2207538 255 0 255
0.008629288 0.003771116 0.2187298 255 0 255
0.00979286 0.003831107 0.218657 255 0 255
0.01087891 0.004092494 0.2176032 255 0 255
0.01203801 0.004156753 0.2175224 255 0 255
0.01311188 0.004421968 0.2164611 255 0 255
0.01426635 0.004490435 0.2163725 255 0 255
0.01551297 0.004362772 0.2172555 255 0 255
0.01676683 0.004237834 0.2181338 255 0 255
0.01802784 0.004115568 0.2190073 255 0 255
0.01929608 0.003996038 0.219876 255 0 255
0.02067923 0.003682025 0.2217143 255 0 255
0.02174241 0.003962329 0.2206249 255 0 255
0.02291286 0.004047574 0.2205058 255 0 255
0.02408276 0.004135093 0.2203825 255 0 255
0.02525214 0.004224835 0.220255 255 0 255
0.02654778 0.004120973 0.2210959 255 0 255
0.02771983 0.004215498 0.2209597 255 0 255
0.0290257 0.00411701 0.2217909 255 0 255
0.03033855 0.004021432 0.222617 255 0 255
0.03137434 0.004317945 0.2214969 255 0 255
0.03254769 0.004421757 0.2213436 255 0 255
0.03372038 0.004527882 0.2211862 255 0 255
0.03473898 0.004829739 0.2200557 255 0 255
0.03590648 0.004939944 0.2198905 255 0 255
0.03707327 0.005052401 0.2197212 255 0 255
0.03823933 0.005167112 0.2195478 255 0 255
0.03940464 0.005284064 0.2193702 255 0 255
0.04074151 0.005211526 0.2201546 255 0 255
0.04208518 0.005142035 0.2209339 255 0 255
0.04361544 0.004884665 0.2226726 255 0 255
0.04497635 0.004821731 0.2234403 255 0 255
0.04653135 0.004571741 0.2251663 255 0 255
0.04771818 0.004705059 0.2249594 255 0 255
0.04909909 0.004651429 0.2257105 255 0 255
0.05028788 0.004789717 0.2254945 255 0 255
0.05188069 0.004553643 0.2271962 255 0 255
0.05328137 0.004509573 0.2279305 255 0 255
0.05489857 0.004281241 0.2296188 255 0 255
0.05631603 0.004244096 0.2303409 255 0 255
0.05773998 0.004210175 0.2310573 255 0 255
0.05939164 0.003993579 0.2327252 255 0 255
0.06083221 0.003966761 0.2334291 255 0 255
0.06205047 0.004128293 0.2331714 255 0 255
0.0637325 0.003923125 0.2348192 255 0 255
0.06566455 0.003538405 0.2374135 255 0 255
0.06761783 0.003159123 0.2399985 255 0 255
0.06934863 0.002968341 0.2416216 255 0 255
0.07134043 0.002599664 0.2441884 255 0 255
0.07310229 0.002418535 0.2457948 255 0 255
0.07436818 0.002604714 0.2454935 255 0 255
0.07563277 0.002793379 0.2451876 255 0 255
0.0768961 0.002984453 0.2448772 255 0 255
0.07948752 0.00227963 0.2492978 255 0 255
-0.06766503 0.006531998 0.2003519 255 0 255
-0.06824978 0.004644673 0.2092049 255 0 255
-0.06766999 0.003955997 0.2122906 255 0 255
-0.06688788 0.003468346 0.214413 255 0 255
-0.06591472 0.003182614 0.2155701 255 0 255
-0.06476192 0.003099715 0.2157599 255 0 255
-0.06394339 0.002616268 0.2178758 255 0 255
-0.06343646 0.001730723 0.2219214 255 0 255
-0.06273851 0.001047302 0.2250013 255 0 255
-0.06139239 0.001173281 0.2242131 255 0 255
-0.06051028 0.0006949125 0.2263218 255 0 255
-0.05961224 0.000217888 0.2284285 255 0 255
-0.05811919 0.000553633 0.2266593 255 0 255
-0.05664063 0.0008925189 0.2248838 255 0 255
-0.05531379 0.001031302 0.2240715 255 0 255
-0.05386053 0.001376221 0.2222841 255 0 255
-0.05255144 0.001520566 0.2214611 255 0 255
-0.05137514 0.001463708 0.2216039 255 0 255
-0.05019825 0.00140915 0.2217425 255 0 255
-0.0490208 0.001356833 0.2218771 255 0 255
-0.04772845 0.001511107 0.2210352 255 0 255
-0.04655372 0.001463458 0.221161 255 0 255
-0.04537847 0.001418062 0.2212828 255 0 255
-0.04420273 0.001374987 0.2214003 255 0 255
-0.04302653 0.001334118 0.2215137 255 0 255
-0.04194509 0.001090513 0.222597 255 0 255
-0.04076415 0.001054038 0.2227025 255 0 255
-0.03949516 0.001225114 0.2218291 255 0 255
-0.038401 0.000987931 0.222901 255 0 255
-0.0372188 0.0009583238 0.222994 255 0 255
-0.03611239 0.0007253761 0.2240585 255 0 255
-0.03492565 0.0007001732 0.2241435 255 0 255
-0.03373857 0.0006772613 0.2242243 255 0 255
-0.03248654 0.0008623955 0.2233244 255 0 255
-0.03130266 0.0008440785 0.2233966 255 0 255
-0.03017547 0.0006221863 0.2244415 255 0 255
-0.0289872 0.0006083709 0.2245056 255 0 255
-0.027848 0.0003908823 0.2255428 255 0 255
-0.0267009 0.0001755965 0.2265762 255 0 255
-0.02558753 -0.0002434434 0.2285833 255 0 255
-0.02430742 0.000163889 0.2266756 255 0 255
-0.02317834 -0.000250645 0.2286749 255 0 255
-0.02194335 -4.47524E-05 0.2277363 255 0 255
-0.02074217 -4.259392E-05 0.2277714 255 0 255
-0.01951841 0.0001678716 0.226824 255 0 255
-0.01839534 -0.0006493804 0.2307641 255 0 255
-0.01722664 -0.001258132 0.233722 255 0 255
-0.01602394 -0.001658414 0.2356976 255 0 255
-0.01482 -0.002467954 0.2396261 255 0 255
-0.01356897 -0.00224555 0.2386577 255 0 255
-0.01112527 -0.0001482609 0.2288786 255 0 255
-0.009936265 0.0002859298 0.2269184 255 0 255
-0.008798938 0.001338758 0.2220184 255 0 255
-0.006402336 0.0009841247 0.2239487 255 0 255
-0.00516906 0.0006052236 0.2258859 255 0 255
-0.003893058 2.384762E-05 0.228797 255 0 255
-0.002688019 6.064177E-05 0.2287685 255 0 255
-0.001483105 9.968479E-05 0.2287358 255 0 255
-0.0003173383 0.0003458398 0.2277208 255 0 255
0.0008406071 0.0005940258 0.2267018 255 0 255
0.001944026 0.001048719 0.2247012 255 0 255
0.003082401 0.001300745 0.2236745 255 0 255
0.00421283 0.001554714 0.222644 255 0 255
0.005393483 0.001606579 0.2225869 255 0 255
0.006449967 0.002068416 0.2205716 255 0 255
0.007556638 0.002328094 0.2195298 255 0 255
0.008655354 0.002589657 0.2184843 255 0 255
0.009746084 0.002853054 0.2174352 255 0 255
0.0109061 0.002915198 0.2173585 255 0 255
0.01206577 0.002979561 0.2172778 255 0 255
0.01322513 0.003046159 0.217193 255 0 255
0.01429528 0.003317352 0.2161288 255 0 255
0.0156352 0.002983802 0.217986 255 0 255
0.01689355 0.002855335 0.2188633 255 0 255
0.01815911 0.002729632 0.2197358 255 0 255
0.01932781 0.002808084 0.2196294 255 0 255
0.0206039 0.002687571 0.2204926 255 0 255
0.02177548 0.002770795 0.2203777 255 0 255
0.02294655 0.002856224 0.2202586 255 0 255
0.02399773 0.003144241 0.2191629 255 0 255
