ply
format ascii 1.0
Comment Generated by Floating Hands
element vertex 1161
property double x
property double y
property double z
property uchar red
property uchar green
property uchar blue
end_header
0.05245445 -0.1211426 0.2657654 255 0 255
0.0539673 -0.1209502 0.2655449 255 0 255
0.0552876 -0.120282 0.2644591 255 0 255
0.05659902 -0.1196114 0.2633696 255 0 255
0.05810077 -0.11941 0.2631353 255 0 255
0.05960135 -0.1192054 0.2628962 255 0 255
0.06110074 -0.1189974 0.262652 255 0 255
0.06280971 -0.1192559 0.2632602 255 0 255
0.06431045 -0.1190408 0.2630055 255 0 255
0.06602847 -0.1192911 0.2636018 255 0 255
0.06686353 -0.1176642 0.260771 255 0 255
0.06857891 -0.1179079 0.2613574 255 0 255
0.06984064 -0.1172131 0.2602299 255 0 255
0.07085951 -0.1160497 0.2582458 255 0 255
0.07233703 -0.1158171 0.2579644 255 0 255
0.07405464 -0.1160465 0.2585298 255 0 255
0.07528791 -0.1153422 0.2573871 255 0 255
0.0770103 -0.1155639 0.2579413 255 0 255
0.07848594 -0.1153177 0.2576397 255 0 255
0.07996007 -0.1150682 0.2573332 255 0 255
0.08091163 -0.1138914 0.2553264 255 0 255
0.08237518 -0.1136367 0.2550119 255 0 255
0.083569 -0.1129181 0.2538464 255 0 255
0.08502568 -0.1126577 0.2535231 255 0 255
0.08675645 -0.1128534 0.2540392 255 0 255
0.08849321 -0.1130445 0.2545489 255 0 255
0.08966934 -0.1123151 0.2533667 255 0 255
0.09141038 -0.1124984 0.2538649 255 0 255
0.09257566 -0.1117639 0.2526749 255 0 255
0.09343704 -0.1105719 0.250642 255 0 255
0.09517683 -0.1107449 0.2511249 255 0 255
0.0963181 -0.1100045 0.2499251 255 0 255
0.09775605 -0.109716 0.2495596 255 0 255
0.09950183 -0.1098772 0.2500253 255 0 255
0.10094 -0.1095815 0.2496493 255 0 255
0.1020592 -0.1088315 0.2484343 255 0 255
0.1038108 -0.1089808 0.2488829 255 0 255
0.1049189 -0.108226 0.2476604 255 0 255
0.1066743 -0.1083673 0.2480974 255 0 255
0.1077711 -0.1076078 0.2468675 255 0 255
0.1095301 -0.1077412 0.247293 255 0 255
0.1109551 -0.1074234 0.2468837 255 0 255
0.1123782 -0.1071025 0.2464696 255 0 255
0.1141462 -0.1072231 0.2468766 255 0 255
0.115569 -0.106895 0.246452 255 0 255
0.117344 -0.1070068 0.2468463 255 0 255
0.1187665 -0.1066715 0.2464111 255 0 255
0.1205485 -0.1067743 0.2467924 255 0 255
0.1219704 -0.1064319 0.2463467 255 0 255
0.1237592 -0.1065257 0.2467152 255 0 255
0.1255533 -0.1066147 0.2470765 255 0 255
0.1273524 -0.1066986 0.2474308 255 0 255
0.1291568 -0.1067776 0.2477779 255 0 255
0.1309661 -0.1068515 0.2481178 255 0 255
0.1323933 -0.1064855 0.2476376 255 0 255
0.1342091 -0.1065503 0.2479643 255 0 255
0.1360299 -0.10661 0.2482838 255 0 255
0.1386519 -0.1075287 0.2502145 255 0 255
0.140088 -0.1071452 0.2497088 255 0 255
0.1427378 -0.1080489 0.2516184 255 0 255
0.1449979 -0.1085143 0.25271 255 0 255
0.1476825 -0.1094007 0.2545956 255 0 255
0.1491378 -0.1089964 0.2540602 255 0 255
0.1518498 -0.1098673 0.2559241 255 0 255
0.1528875 -0.1090284 0.254575 255 0 255
0.1573306 -0.1115811 0.2596131 255 0 255
0.04189219 -0.1287109 0.2752322 255 0 255
0.04329556 -0.1280607 0.274184 255 0 255
0.04469018 -0.127408 0.2731316 255 0 255
0.0464051 -0.1277112 0.2737993 255 0 255
0.04745316 -0.1260949 0.2710145 255 0 255
0.04882151 -0.1254346 0.2699499 255 0 255
0.05035723 -0.1252496 0.2697417 255 0 255
0.05135176 -0.1236291 0.2669485 255 0 255
0.0526898 -0.122962 0.2658725 255 0 255
0.05420678 -0.1227688 0.2656515 255 0 255
0.05553103 -0.1220964 0.2645672 255 0 255
0.05684637 -0.1214217 0.2634791 255 0 255
0.05835218 -0.1212196 0.2632444 255 0 255
0.06006008 -0.1214886 0.2638613 255 0 255
0.06136031 -0.1208054 0.26276 255 0 255
0.06286255 -0.1205933 0.2625105 255 0 255
0.06436356 -0.1203779 0.262256 255 0 255
0.06586327 -0.1201592 0.2619965 255 0 255
0.06691676 -0.1189939 0.2600256 255 0 255
0.06863249 -0.1192408 0.2606103 255 0 255
0.07012442 -0.1190127 0.2603367 255 0 255
0.07114708 -0.1178416 0.2583559 255 0 255
0.07239085 -0.1171389 0.2572235 255 0 255
0.07410879 -0.1173714 0.2577872 255 0 255
0.0753421 -0.1166634 0.2566466 255 0 255
0.07681559 -0.1164208 0.2563508 255 0 255
0.07828762 -0.1161749 0.2560502 255 0 255
0.0797582 -0.1159258 0.2557447 255 0 255
0.08070588 -0.1147424 0.2537428 255 0 255
0.08216581 -0.1144881 0.2534292 255 0 255
0.0836242 -0.1142306 0.2531108 255 0 255
0.08480898 -0.1135063 0.2519443 255 0 255
0.08681218 -0.1141685 0.2533021 255 0 255
0.08854932 -0.1143627 0.25381 255 0 255
0.09000892 -0.1140909 0.2534707 255 0 255
0.0914669 -0.1138158 0.2531265 255 0 255
0.09263217 -0.1130776 0.2519386 255 0 255
0.09349351 -0.1118784 0.2499097 255 0 255
0.09493511 -0.1115959 0.2495539 255 0 255
0.09637498 -0.1113102 0.2491933 255 0 255
0.09781308 -0.1110213 0.248828 255 0 255
0.09924947 -0.1107292 0.2484579 255 0 255
0.1013112 -0.1113449 0.2497495 255 0 255
0.1024341 -0.1105902 0.2485357 255 0 255
0.1038688 -0.1102878 0.2481503 255 0 255
0.1056264 -0.1104353 0.2485905 255 0 255
0.1070611 -0.1101258 0.2481946 255 0 255
0.1084939 -0.109813 0.2477939 255 0 255
0.1099248 -0.1094971 0.2473886 255 0 255
0.1116933 -0.1096279 0.2478045 255 0 255
0.1127807 -0.1088558 0.2465636 255 0 255
0.1142057 -0.1085304 0.246144 255 0 255
0.1159794 -0.1086491 0.2465425 255 0 255
0.1177586 -0.1087629 0.246934 255 0 255
0.1191849 -0.1084263 0.246498 255 0 255
0.1206091 -0.1080865 0.2460572 255 0 255
0.1220313 -0.1077435 0.2456117 255 0 255
0.1238204 -0.1078403 0.2459785 255 0 255
0.125242 -0.1074901 0.2455225 255 0 255
0.1270379 -0.1075778 0.2458763 255 0 255
0.1288389 -0.1076606 0.246223 255 0 255
0.130645 -0.1077382 0.2465626 255 0 255
0.1320687 -0.1073727 0.246084 255 0 255
0.1342723 -0.1078785 0.2472202 255 0 255
0.1356988 -0.1075047 0.2467295 255 0 255
0.1383178 -0.108434 0.2486561 255 0 255
0.1401524 -0.1084853 0.2489581 255 0 255
0.1428029 -0.1093985 0.2508623 255 0 255
0.1446544 -0.1094376 0.2511471 255 0 255
0.1469234 -0.109903 0.2522265 255 0 255
0.1483717 -0.1095001 0.2516941 255 0 255
0.1506573 -0.109953 0.2527559 255 0 255
0.1512608 -0.1086847 0.2506149 255 0 255
0.1539828 -0.1095545 0.2524583 255 0 255
0.1545705 -0.1082827 0.2503117 255 0 255
0.04365979 -0.1303994 0.2751305 255 0 255
0.04522302 -0.1302253 0.2749399 255 0 255
0.04678529 -0.1300478 0.2747441 255 0 255
0.0476725 -0.1279378 0.2711045 255 0 255
0.04887237 -0.1267916 0.2691822 255 0 255
0.05040826 -0.1266065 0.2689742 255 0 255
0.05140269 -0.1249755 0.2661869 255 0 255
0.05274079 -0.1243047 0.2651129 255 0 255
0.05444588 -0.1245913 0.2657491 255 0 255
0.05596584 -0.1243941 0.2655226 255 0 255
0.05709335 -0.1232359 0.2635796 255 0 255
0.05860324 -0.123033 0.2633444 255 0 255
0.06011198 -0.1228268 0.2631042 255 0 255
0.06141232 -0.12214 0.2620051 255 0 255
0.06270371 -0.1214509 0.2609023 255 0 255
0.06463085 -0.1221882 0.262354 255 0 255
0.0661346 -0.1219686 0.262094 255 0 255
0.0674145 -0.1212708 0.2609778 255 0 255
0.06891182 -0.1210451 0.2607085 255 0 255
0.07040783 -0.1208162 0.2604345 255 0 255
0.07120012 -0.1191641 0.2576078 255 0 255
0.07244392 -0.1184577 0.2564775 255 0 255
0.07416226 -0.1186933 0.2570394 255 0 255
0.07515 -0.1175102 0.2550538 255 0 255
0.07661987 -0.1172678 0.254759 255 0 255
0.07834153 -0.1174925 0.2553048 255 0 255
0.07955526 -0.1167735 0.2541548 255 0 255
0.08075988 -0.1160525 0.2530016 255 0 255
0.08222003 -0.1157978 0.2526882 255 0 255
0.0836786 -0.11554 0.2523701 255 0 255
0.08513568 -0.1152789 0.2520471 255 0 255
0.08686714 -0.1154807 0.2525598 255 0 255
0.0886046 -0.1156779 0.253066 255 0 255
0.09006441 -0.1154058 0.2527269 255 0 255
0.09123521 -0.1146663 0.251545 255 0 255
0.09268792 -0.1143883 0.2511972 255 0 255
0.09354915 -0.1131819 0.2491723 255 0 255
0.09499095 -0.112899 0.2488167 255 0 255
0.09673346 -0.1130741 0.2492906 255 0 255
0.09817554 -0.112784 0.2489246 255 0 255
0.09961585 -0.1124908 0.2485537 255 0 255
0.101368 -0.1126532 0.2490094 255 0 255
0.1028085 -0.1123528 0.2486281 255 0 255
0.1042471 -0.1120492 0.248242 255 0 255
0.1056839 -0.1117424 0.2478511 255 0 255
0.1071188 -0.1114324 0.2474555 255 0 255
0.1088841 -0.1115741 0.2478814 255 0 255
0.1099829 -0.1108029 0.24665 255 0 255
0.1117518 -0.1109365 0.2470643 255 0 255
0.1128391 -0.1101606 0.2458256 255 0 255
0.1146115 -0.1102863 0.2462283 255 0 255
0.1160384 -0.1099564 0.2458031 255 0 255
0.1178178 -0.1100731 0.246193 255 0 255
0.1188861 -0.109287 0.2449386 255 0 255
0.1206688 -0.1093957 0.2453168 255 0 255
0.1220912 -0.1090522 0.2448716 255 0 255
0.1238807 -0.1091519 0.2452369 255 0 255
0.1256754 -0.1092465 0.245595 255 0 255
0.1274752 -0.1093362 0.2459461 255 0 255
0.1289 -0.1089773 0.2454784 255 0 255
0.1310903 -0.1095005 0.2466268 255 0 255
0.1321304 -0.1086918 0.2453381 255 0 255
0.1343344 -0.1092038 0.2464708 255 0 255
0.1357611 -0.1088294 0.2459805 255 0 255
0.1379823 -0.1093295 0.2470962 255 0 255
0.1394116 -0.1089467 0.2465938 255 0 255
0.1420555 -0.1098714 0.2484953 255 0 255
0.1443095 -0.1103511 0.2495826 255 0 255
0.1465753 -0.1108236 0.2506599 255 0 255
0.1484367 -0.110855 0.2509282 255 0 255
0.1503028 -0.1108811 0.251189 255 0 255
0.1517498 -0.1104702 0.2506459 255 0 255
0.1540488 -0.1109176 0.2516879 255 0 255
0.1511901 -0.1062002 0.243197 255 0 255
0.03893053 -0.1217095 0.2564784 255 0 255
0.04462988 -0.1296541 0.2707201 255 0 255
0.04667112 -0.1309365 0.273101 255 0 255
0.04789139 -0.1297845 0.2711853 255 0 255
0.04909514 -0.1286308 0.2692665 255 0 255
0.05045873 -0.1279604 0.2682014 255 0 255
0.05163321 -0.1268031 0.2662762 255 0 255
0.05297529 -0.1261283 0.2652037 255 0 255
0.05430856 -0.125451 0.2641273 255 0 255
0.05582483 -0.125254 0.2639016 255 0 255
0.05714419 -0.1245716 0.2628171 255 0 255
0.0586543 -0.1243685 0.2625819 255 0 255
0.0601632 -0.1241621 0.262342 255 0 255
0.06167091 -0.1239523 0.2620969 255 0 255
0.06296624 -0.123259 0.2609956 255 0 255
0.06489775 -0.1240023 0.2624429 255 0 255
0.06596777 -0.1228239 0.2604822 255 0 255
0.06746657 -0.1226013 0.2602181 255 0 255
0.06896414 -0.1223754 0.2599491 255 0 255
0.07022991 -0.1216689 0.2588272 255 0 255
0.07125239 -0.1204836 0.2568545 255 0 255
0.07249625 -0.1197735 0.2557263 255 0 255
0.07397302 -0.1195368 0.2554406 255 0 255
0.07520259 -0.118822 0.2543049 255 0 255
0.07667269 -0.1185794 0.2540103 255 0 255
0.07839465 -0.1188071 0.2545543 255 0 255
0.07960846 -0.1180843 0.2534064 255 0 255
0.08055213 -0.1168874 0.2514134 255 0 255
0.08200867 -0.1166331 0.251101 255 0 255
0.08373223 -0.1168465 0.2516242 255 0 255
0.08491711 -0.1161148 0.2504619 255 0 255
0.08664514 -0.1163204 0.2509738 255 0 255
0.08837911 -0.1165213 0.2514792 255 0 255
0.08983535 -0.1162495 0.2511411 255 0 255
0.0910024 -0.1155069 0.2499623 255 0 255
0.0921603 -0.1147626 0.2487805 255 0 255
0.09360398 -0.1144825 0.2484299 255 0 255
0.09504592 -0.1141992 0.2480745 255 0 255
0.09648617 -0.1139127 0.2477144 255 0 255
0.098231 -0.1140868 0.2481808 255 0 255
0.09967151 -0.1137932 0.2478102 255 0 255
0.1011102 -0.1134963 0.2474349 255 0 255
0.1025472 -0.1131963 0.2470548 255 0 255
0.1039822 -0.1128931 0.2466699 255 0 255
0.1054154 -0.1125866 0.2462803 255 0 255
0.1068468 -0.112277 0.245886 255 0 255
0.1086087 -0.1124225 0.2463112 255 0 255
0.1097038 -0.1116483 0.2450832 255 0 255
0.1114693 -0.1117857 0.2454968 255 0 255
0.112553 -0.1110068 0.2442614 255 0 255
0.1139747 -0.1106813 0.2438435 255 0 255
0.1153944 -0.1103526 0.2434208 255 0 255
0.1171668 -0.110474 0.2438113 255 0 255
0.1185861 -0.1101381 0.2433781 255 0 255
0.1203654 -0.1102505 0.2437558 255 0 255
0.12215 -0.110358 0.2441264 255 0 255
0.1239399 -0.1104605 0.24449 255 0 255
0.1253618 -0.1101093 0.2440345 255 0 255
0.1271584 -0.1102027 0.2443852 255 0 255
0.1293405 -0.110738 0.2455384 255 0 255
0.1311509 -0.1108205 0.2458735 255 0 255
0.1325786 -0.1104529 0.2453943 255 0 255
0.1343955 -0.1105262 0.2457163 255 0 255
0.1362173 -0.1105943 0.246031 255 0 255
0.1380441 -0.1106574 0.2463386 255 0 255
0.1394736 -0.1102741 0.2458365 255 0 255
0.1425239 -0.1116485 0.2485335 255 0 255
0.1439631 -0.1112549 0.2480167 255 0 255
0.1458129 -0.1112962 0.2482936 255 0 255
0.1476673 -0.1113324 0.2485629 255 0 255
0.150367 -0.1122358 0.2504162 255 0 255
0.1505429 -0.1105186 0.2474905 255 0 255
0.1536864 -0.1118435 0.2501191 255 0 255
0.1512537 -0.1075261 0.2424407 255 0 255
0.04754541 -0.1347525 0.276594 255 0 255
0.0486163 -0.1331021 0.2738241 255 0 255
0.04966285 -0.131451 0.271052 255 0 255
0.05086165 -0.1302874 0.2691327 255 0 255
0.05204381 -0.1291222 0.2672104 255 0 255
0.0533937 -0.1284427 0.2661389 255 0 255
0.05492291 -0.1282475 0.2659166 255 0 255
0.05625896 -0.1275627 0.2648368 255 0 255
0.05758614 -0.1268756 0.2637531 255 0 255
0.05910418 -0.1266712 0.263517 255 0 255
0.06041741 -0.1259789 0.2624252 255 0 255
0.06172172 -0.1252842 0.2613296 255 0 255
0.06301709 -0.1245873 0.2602304 255 0 255
0.06473381 -0.1248541 0.2608251 255 0 255
0.06623801 -0.1246341 0.2605653 255 0 255
0.06796372 -0.1248926 0.2611482 255 0 255
0.0694691 -0.1246653 0.2608779 255 0 255
0.07074261 -0.1239539 0.2597567 255 0 255
0.07177269 -0.1227603 0.2577866 255 0 255
0.07302433 -0.1220453 0.2566592 255 0 255
0.07426688 -0.1213282 0.2555283 255 0 255
0.07525449 -0.1201308 0.2535509 255 0 255
0.07697441 -0.1203655 0.2540988 255 0 255
0.07844703 -0.1201187 0.2537986 255 0 255
0.07966086 -0.1193922 0.2526529 255 0 255
0.08060448 -0.1181882 0.250664 255 0 255
0.08206116 -0.1179335 0.2503518 255 0 255
0.08378506 -0.11815 0.2508732 255 0 255
0.08524249 -0.1178882 0.2505506 255 0 255
0.08697462 -0.1180962 0.2510599 255 0 255
0.08843265 -0.1178272 0.2507268 255 0 255
0.08988903 -0.117555 0.250389 255 0 255
0.09105618 -0.1168087 0.2492124 255 0 255
0.09221409 -0.1160606 0.2480327 255 0 255
0.09336274 -0.1153108 0.2468502 255 0 255
0.09480115 -0.1150278 0.2464959 255 0 255
0.0965405 -0.1152096 0.2469673 255 0 255
0.0982857 -0.1153867 0.247432 255 0 255
0.1000366 -0.115559 0.2478901 255 0 255
0.1014792 -0.115261 0.247514 255 0 255
0.1029201 -0.1149597 0.2471331 255 0 255
0.1043591 -0.1146553 0.2467476 255 0 255
0.1057962 -0.1143477 0.2463572 255 0 255
0.1072314 -0.1140368 0.2459621 255 0 255
0.1086648 -0.1137227 0.2455623 255 0 255
0.1100962 -0.1134055 0.2451577 255 0 255
0.1111856 -0.1126251 0.2439282 255 0 255
0.1126095 -0.1123023 0.2435152 255 0 255
0.1140313 -0.1119764 0.2430975 255 0 255
0.1154512 -0.1116472 0.2426752 255 0 255
0.1172238 -0.1117715 0.243064 255 0 255
0.1190019 -0.1118908 0.2434458 255 0 255
0.1207853 -0.1120052 0.2438207 255 0 255
0.1222079 -0.1116607 0.2433761 255 0 255
0.1243677 -0.1122191 0.2445494 255 0 255
0.1254202 -0.1114144 0.2432829 255 0 255
0.1272171 -0.1115107 0.2436319 255 0 255
0.1293997 -0.1120522 0.2447816 255 0 255
0.1315946 -0.1125868 0.2459217 255 0 255
0.1330262 -0.1122177 0.2454415 255 0 255
0.1352385 -0.1127403 0.2465648 255 0 255
0.1370679 -0.1128094 0.2468755 255 0 255
0.1385035 -0.1124278 0.2463773 255 0 255
0.1399367 -0.1120429 0.2458743 255 0 255
0.1417736 -0.1120985 0.2461656 255 0 255
0.1436153 -0.1121488 0.2464495 255 0 255
0.1450486 -0.1117524 0.2459296 255 0 255
0.1468963 -0.1117933 0.2462 255 0 255
0.1495894 -0.1127082 0.2480506 255 0 255
0.1506057 -0.1118594 0.2467186 255 0 255
0.1533225 -0.1127596 0.2485488 255 0 255
0.1534715 -0.1110314 0.2456277 255 0 255
0.04849709 -0.1339815 0.2721728 255 0 255
0.05005795 -0.1337965 0.2719671 255 0 255
0.05144108 -0.1331164 0.2709035 255 0 255
0.05263483 -0.1319428 0.2689837 255 0 255
0.0539964 -0.1312583 0.2679127 255 0 255
0.05534913 -0.1305714 0.2668377 255 0 255
0.056693 -0.1298819 0.2657588 255 0 255
0.05783193 -0.128701 0.2638261 255 0 255
0.05915413 -0.1280074 0.2627402 255 0 255
0.06046743 -0.1273114 0.2616505 255 0 255
0.06177178 -0.1266131 0.2605571 255 0 255
0.06306722 -0.1259125 0.2594599 255 0 255
0.06456897 -0.1256962 0.259206 255 0 255
0.06606951 -0.1254764 0.2589471 255 0 255
0.06779167 -0.1257386 0.2595288 255 0 255
0.06952026 -0.1259963 0.2601041 255 0 255
0.07079383 -0.1252813 0.2589851 255 0 255
0.07205831 -0.1245641 0.2578624 255 0 255
0.07331383 -0.1238448 0.2567364 255 0 255
0.07431802 -0.1226411 0.254765 255 0 255
0.07530562 -0.1214366 0.2527917 255 0 255
0.07702587 -0.1216744 0.2533378 255 0 255
0.07824501 -0.1209469 0.2521983 255 0 255
0.07945511 -0.1202174 0.2510555 255 0 255
0.08039482 -0.1190069 0.2490715 255 0 255
0.08211292 -0.119231 0.2495976 255 0 255
0.08356828 -0.1189728 0.2492808 255 0 255
0.08502208 -0.1187113 0.2489592 255 0 255
0.08675074 -0.118923 0.2494676 255 0 255
0.08848536 -0.1191301 0.2499694 255 0 255
0.08965796 -0.1183826 0.2487989 255 0 255
0.09082131 -0.1176332 0.2476253 255 0 255
0.09226704 -0.1173556 0.2472799 255 0 255
0.09371109 -0.1170748 0.2469297 255 0 255
0.09485431 -0.1163187 0.2457455 255 0 255
0.09659402 -0.1165035 0.2462152 255 0 255
0.0986461 -0.117154 0.2475055 255 0 255
0.1000907 -0.1168588 0.2471345 255 0 255
0.1018476 -0.1170294 0.2475841 255 0 255
0.1036102 -0.1171951 0.248027 255 0 255
0.1050569 -0.1168887 0.2476396 255 0 255
0.1061763 -0.1161124 0.2464251 255 0 255
0.1072864 -0.1153345 0.2452078 255 0 255
0.1090527 -0.115485 0.2456286 255 0 255
0.1101515 -0.1147023 0.2444039 255 0 255
0.111241 -0.1139181 0.2431766 255 0 255
0.112665 -0.1135949 0.2427639 255 0 255
0.1140869 -0.1132685 0.2423465 255 0 255
0.1151557 -0.1124781 0.2411094 255 0 255
0.11728 -0.113066 0.2423116 255 0 255
0.1186997 -0.1127292 0.241879 255 0 255
0.1204796 -0.1128474 0.2422533 255 0 255
0.122631 -0.1134178 0.2434312 255 0 255
0.1247948 -0.1139814 0.2445997 255 0 255
0.1258511 -0.113172 0.2433343 255 0 255
0.1272749 -0.1128157 0.2428735 255 0 255
0.1290771 -0.1129098 0.2432138 255 0 255
0.1312689 -0.1134515 0.2443516 255 0 255
0.132309 -0.1126311 0.2430696 255 0 255
0.1345145 -0.1131617 0.2441918 255 0 255
0.1367323 -0.1136853 0.2453042 255 0 255
0.1377655 -0.1128552 0.244008 255 0 255
0.1395942 -0.1129197 0.2443063 255 0 255
0.1418339 -0.1134259 0.2453944 255 0 255
0.1436759 -0.113479 0.2456767 255 0 255
0.1455227 -0.1135269 0.2459517 255 0 255
0.1477912 -0.1140135 0.2470123 255 0 255
0.1496511 -0.1140499 0.2472712 255 0 255
0.1498192 -0.1123134 0.2443605 255 0 255
0.1512464 -0.1119025 0.2438205 255 0 255
0.1479273 -0.1066504 0.2346103 255 0 255
0.05079867 -0.1371432 0.2745715 255 0 255
0.05219737 -0.1364577 0.2735079 255 0 255
0.05340661 -0.1352752 0.27159 255 0 255
0.05441468 -0.1335972 0.2688196 255 0 255
0.0559636 -0.1333991 0.2685947 255 0 255
0.05731913 -0.1327045 0.2675161 255 0 255
0.05846962 -0.1315151 0.2655858 255 0 255
0.05980344 -0.1308163 0.2645002 255 0 255
0.06072063 -0.1291323 0.2617173 255 0 255
0.0618212 -0.1279389 0.2597793 255 0 255
0.06290507 -0.1267444 0.2578388 255 0 255
0.06461862 -0.1270181 0.2584305 255 0 255
0.06590001 -0.1263089 0.2573276 255 0 255
0.06784179 -0.1270634 0.2587516 255 0 255
0.06979762 -0.1278122 0.2601679 255 0 255
0.07084424 -0.1266055 0.2582082 255 0 255
0.07210883 -0.1258846 0.2570877 255 0 255
0.07336437 -0.1251617 0.2559638 255 0 255
0.07436851 -0.1239509 0.2539966 255 0 255
0.07535596 -0.1227394 0.2520275 255 0 255
0.0770765 -0.1229803 0.2525718 255 0 255
0.0785495 -0.1227329 0.252272 255 0 255
0.07976341 -0.121999 0.2511306 255 0 255
0.08070684 -0.1207807 0.24915 255 0 255
0.08242908 -0.1210073 0.2496734 255 0 255
0.08361939 -0.1202669 0.2485216 255 0 255
0.0850734 -0.1200051 0.2482003 255 0 255
0.08680233 -0.1202198 0.2487069 255 0 255
0.08881767 -0.1209089 0.2500387 255 0 255
0.08999402 -0.120157 0.2488695 255 0 255
0.09116122 -0.1194032 0.2476973 255 0 255
0.09261087 -0.1191245 0.2473512 255 0 255
0.09376337 -0.1183664 0.2461721 255 0 255
0.09520587 -0.118082 0.2458174 255 0 255
0.09664666 -0.1177943 0.245458 255 0 255
0.09869915 -0.1184513 0.2467447 255 0 255
0.100144 -0.1181556 0.2463738 255 0 255
0.1015869 -0.1178568 0.2459982 255 0 255
0.103346 -0.1180263 0.2464404 255 0 255
0.1051109 -0.118191 0.2468758 255 0 255
0.1062303 -0.1174109 0.2456634 255 0 255
0.1076696 -0.1170984 0.2452679 255 0 255
0.1091071 -0.1167826 0.2448675 255 0 255
0.1102059 -0.1159962 0.2436451 255 0 255
0.1112954 -0.1152082 0.24242 255 0 255
0.1127195 -0.1148845 0.2420076 255 0 255
0.1137939 -0.1140926 0.2407763 255 0 255
0.1152104 -0.1137634 0.2403556 255 0 255
0.11698 -0.1138943 0.2407422 255 0 255
0.118755 -0.1140202 0.2411218 255 0 255
0.1205353 -0.1141413 0.2414945 255 0 255
0.1223208 -0.1142573 0.2418602 255 0 255
0.1241117 -0.1143684 0.2422189 255 0 255
0.1255341 -0.1140157 0.2417644 255 0 255
0.1273316 -0.1141176 0.2421101 255 0 255
0.1291342 -0.1142145 0.2424487 255 0 255
0.1313264 -0.1147624 0.2435829 255 0 255
0.1327547 -0.1143932 0.2431047 255 0 255
0.1345725 -0.1144749 0.2434218 255 0 255
0.1367906 -0.1150046 0.2445307 255 0 255
0.1378238 -0.1141707 0.2432368 255 0 255
0.1388476 -0.1133355 0.2419407 255 0 255
0.1414867 -0.1143 0.2438228 255 0 255
0.1429156 -0.1139076 0.2433111 255 0 255
0.145169 -0.1144085 0.2443795 255 0 255
0.1474344 -0.1149021 0.2454381 255 0 255
0.1492909 -0.1149422 0.2456966 255 0 255
0.1507279 -0.1145319 0.2451591 255 0 255
0.1525903 -0.1145625 0.245404 255 0 255
0.1505746 -0.1105995 0.238569 255 0 255
0.05188575 -0.1415115 0.278853 255 0 255
0.05330783 -0.1408196 0.2777884 255 0 255
0.05435945 -0.1391294 0.2750232 255 0 255
0.05520208 -0.1369411 0.2714084 255 0 255
0.05657816 -0.136244 0.2703343 255 0 255
0.05775295 -0.135048 0.2684097 255 0 255
0.05891108 -0.1338505 0.2664823 255 0 255
0.06025267 -0.133147 0.2653976 255 0 255
0.06117741 -0.1314516 0.2626197 255 0 255
0.06228558 -0.1302501 0.2606845 255 0 255
0.06337712 -0.1290475 0.258747 255 0 255
0.06466752 -0.1283369 0.2576499 255 0 255
0.06616839 -0.1281167 0.2573913 255 0 255
0.0681144 -0.1288771 0.2588107 255 0 255
0.06984747 -0.1291404 0.2593817 255 0 255
0.07112496 -0.1284175 0.2582662 255 0 255
0.07239339 -0.1276924 0.2571473 255 0 255
0.07389138 -0.1274548 0.2568634 255 0 255
0.07490309 -0.1262358 0.2548988 255 0 255
0.07589813 -0.125016 0.2529325 255 0 255
0.07762656 -0.1252586 0.2534733 255 0 255
0.07885349 -0.1245225 0.2523366 255 0 255
0.08007126 -0.1237843 0.2511967 255 0 255
0.0810184 -0.1225583 0.2492194 255 0 255
0.0824794 -0.1223021 0.248907 255 0 255
0.08366979 -0.121558 0.2477574 255 0 255
0.0853968 -0.1217797 0.2482678 255 0 255
0.08685315 -0.1215136 0.2479411 255 0 255
0.08886889 -0.1222091 0.2492692 255 0 255
0.09032958 -0.1219351 0.2489311 255 0 255
0.09178865 -0.1216579 0.2485882 255 0 255
0.09324598 -0.1213773 0.2482406 255 0 255
0.09440605 -0.1206141 0.2470619 255 0 255
0.09555689 -0.119849 0.2458802 255 0 255
0.0970016 -0.1195602 0.2455201 255 0 255
0.0987514 -0.1197454 0.2459787 255 0 255
0.1001963 -0.1194494 0.2456081 255 0 255
0.1016394 -0.1191502 0.2452327 255 0 255
0.1033989 -0.1193226 0.2456732 255 0 255
0.105164 -0.1194902 0.2461068 255 0 255
0.1062835 -0.1187064 0.2448967 255 0 255
0.1077229 -0.1183934 0.2445014 255 0 255
0.1094936 -0.1185489 0.2449178 255 0 255
0.1105961 -0.1177578 0.2436966 255 0 255
0.1116893 -0.1169652 0.2424727 255 0 255
0.1131174 -0.1166402 0.2420595 255 0 255
0.1141955 -0.1158437 0.2408294 255 0 255
0.1156158 -0.1155131 0.2404079 255 0 255
0.1173894 -0.115646 0.2407916 255 0 255
0.1191684 -0.115774 0.2411685 255 0 255
0.1209527 -0.115897 0.2415384 255 0 255
0.1227422 -0.116015 0.2419013 255 0 255
0.1241669 -0.115665 0.2414517 255 0 255
0.1255895 -0.1153118 0.2409974 255 0 255
0.1270099 -0.1149553 0.2405385 255 0 255
0.1291902 -0.1155163 0.2416785 255 0 255
0.1309982 -0.115611 0.2420084 255 0 255
0.1328112 -0.1157006 0.2423312 255 0 255
0.1342374 -0.1153275 0.2418485 255 0 255
0.136848 -0.1163209 0.243752 255 0 255
0.1378812 -0.115483 0.2424603 255 0 255
0.1393077 -0.1150985 0.241961 255 0 255
0.1415447 -0.1156179 0.2430432 255 0 255
0.1429737 -0.1152249 0.2425318 255 0 255
0.1456411 -0.1161834 0.2443873 255 0 255
0.1474933 -0.1162316 0.2446517 255 0 255
0.149771 -0.116724 0.2456965 255 0 255
0.1520606 -0.1172091 0.2467313 255 0 255
0.1556459 -0.1190292 0.2501115 255 0 255
0.156675 -0.118157 0.24877 255 0 255
0.05609019 -0.1549564 0.2983553 255 0 255
0.05548121 -0.148229 0.2871196 255 0 255
0.05531288 -0.1430141 0.2784309 255 0 255
0.05580506 -0.1398082 0.2731303 255 0 255
0.05719278 -0.139106 0.2720566 255 0 255
0.05799403 -0.136902 0.2684455 255 0 255
0.059156 -0.1356971 0.2665217 255 0 255
0.06030127 -0.1344907 0.2645952 255 0 255
0.0614299 -0.1332831 0.2626661 255 0 255
0.06254184 -0.1320741 0.2607345 255 0 255
0.06384899 -0.131361 0.2596419 255 0 255
0.06514714 -0.1306457 0.2585456 255 0 255
0.0668754 -0.13092 0.259126 255 0 255
0.06861002 -0.1311898 0.2597001 255 0 255
0.07035096 -0.1314551 0.2602679 255 0 255
0.07163616 -0.1307274 0.2591532 255 0 255
0.07291235 -0.1299974 0.2580349 255 0 255
0.07441815 -0.1297583 0.2577498 255 0 255
0.07543744 -0.128531 0.255788 255 0 255
0.07644001 -0.1273029 0.2538243 255 0 255
0.0779262 -0.1270563 0.2535274 255 0 255
0.07941097 -0.1268063 0.2532258 255 0 255
0.08037854 -0.1255733 0.2512535 255 0 255
0.08159104 -0.1248288 0.2501118 255 0 255
0.08305979 -0.1245708 0.2497979 255 0 255
0.08425781 -0.1238218 0.2486489 255 0 255
0.08571969 -0.1235579 0.2483263 255 0 255
0.08690317 -0.1228044 0.2471702 255 0 255
0.0889193 -0.1235062 0.2484945 255 0 255
0.09038016 -0.1232319 0.2481567 255 0 255
0.09183936 -0.1229542 0.2478141 255 0 255
0.09329687 -0.1226733 0.2474666 255 0 255
0.09504844 -0.1228721 0.2479386 255 0 255
0.09590729 -0.1216196 0.2459341 255 0 255
0.09735592 -0.1213297 0.2455732 255 0 255
0.09880275 -0.1210366 0.2452076 255 0 255
0.1002478 -0.1207401 0.2448373 255 0 255
0.1016911 -0.1204405 0.2444622 255 0 255
0.1037691 -0.1210942 0.2457194 255 0 255
0.1052162 -0.1207864 0.2453328 255 0 255
0.1066615 -0.1204755 0.2449415 255 0 255
0.1084343 -0.1206371 0.2453609 255 0 255
0.1098794 -0.1203189 0.244959 255 0 255
0.1109858 -0.1195232 0.243739 255 0 255
0.1120827 -0.1187259 0.2425164 255 0 255
0.1135146 -0.1183996 0.2421024 255 0 255
0.1145964 -0.1175984 0.2408735 255 0 255
0.1156689 -0.1167958 0.2396421 255 0 255
0.1174427 -0.1169315 0.2400241 255 0 255
0.119222 -0.1170623 0.2403993 255 0 255
0.1206437 -0.11672 0.2399618 255 0 255
0.1224298 -0.1168417 0.2403241 255 0 255
0.1242212 -0.1169585 0.2406795 255 0 255
0.1256439 -0.1166048 0.2402255 255 0 255
0.1270645 -0.1162478 0.2397669 255 0 255
0.1292452 -0.1168149 0.2409033 255 0 255
0.1314383 -0.1173751 0.2420301 255 0 255
0.1324784 -0.1165431 0.2407552 255 0 255
0.1342931 -0.1166313 0.2410702 255 0 255
0.1365086 -0.1171742 0.2421732 255 0 255
0.1375382 -0.1163335 0.2408852 255 0 255
0.1393642 -0.1164072 0.2411799 255 0 255
0.141195 -0.1164757 0.2414673 255 0 255
0.1426205 -0.1160832 0.2409576 255 0 255
0.1444574 -0.1161423 0.2412316 255 0 255
0.1471338 -0.117104 0.2430728 255 0 255
0.1485664 -0.1166977 0.2425436 255 0 255
0.1508457 -0.1171919 0.2435787 255 0 255
0.1531367 -0.1176787 0.2446037 255 0 255
0.1537127 -0.116359 0.242491 255 0 255
0.1547072 -0.115489 0.2411595 255 0 255
0.05801104 -0.1567263 0.2980861 255 0 255
0.05566845 -0.1406758 0.2714601 255 0 255
0.05724111 -0.140474 0.2712322 255 0 255
0.05784947 -0.1377533 0.2667868 255 0 255
0.05920393 -0.1370445 0.2657097 255 0 255
0.06034916 -0.1358312 0.2637874 255 0 255
0.06168193 -0.1351181 0.2627032 255 0 255
0.06300575 -0.1344027 0.2616153 255 0 255
0.06432065 -0.1336849 0.2605236 255 0 255
0.06562651 -0.1329648 0.2594282 255 0 255
0.06714308 -0.1327418 0.2591673 255 0 255
0.06865831 -0.1325154 0.2589014 255 0 255
0.07039964 -0.1327838 0.2594673 255 0 255
0.07145368 -0.1315548 0.2575187 255 0 255
0.07272602 -0.1308218 0.2564034 255 0 255
0.07422812 -0.130583 0.2561192 255 0 255
0.07548617 -0.1298451 0.2549962 255 0 255
0.07648865 -0.1286099 0.2530367 255 0 255
0.07822531 -0.1288575 0.2535724 255 0 255
0.0794599 -0.1281127 0.2524385 255 0 255
0.0809433 -0.1278591 0.2521322 255 0 255
0.08190166 -0.126617 0.250161 255 0 255
0.08337438 -0.1263581 0.2498465 255 0 255
0.08457621 -0.1256047 0.2486989 255 0 255
0.08604206 -0.1253398 0.2483757 255 0 255
0.0872293 -0.1245818 0.247221 255 0 255
0.08924967 -0.1252893 0.2485406 255 0 255
0.09071441 -0.1250139 0.2482021 255 0 255
0.09217755 -0.1247352 0.2478588 255 0 255
0.0933469 -0.1239663 0.2466876 255 0 255
0.09509877 -0.124168 0.2471578 255 0 255
0.09625714 -0.1233939 0.2459788 255 0 255
0.09740627 -0.1226182 0.2447969 255 0 255
0.09885325 -0.1223246 0.2444316 255 0 255
0.1002985 -0.1220278 0.2440614 255 0 255
0.1014272 -0.1212453 0.2428691 255 0 255
0.1031835 -0.1214245 0.243307 255 0 255
0.1049454 -0.1215987 0.2437383 255 0 255
0.1067129 -0.1217681 0.2441627 255 0 255
0.1081564 -0.1214536 0.2437669 255 0 255
0.109598 -0.1211356 0.2433663 255 0 255
0.1107006 -0.120337 0.2421496 255 0 255
0.1117938 -0.1195368 0.2409303 255 0 255
0.1132221 -0.1192108 0.2405177 255 0 255
0.1146485 -0.1188818 0.2401004 255 0 255
0.1157209 -0.1180753 0.2388712 255 0 255
0.1171395 -0.1177407 0.2384457 255 0 255
0.1189153 -0.1178752 0.2388202 255 0 255
0.1203335 -0.1175333 0.2383841 255 0 255
0.1217496 -0.1171881 0.2379433 255 0 255
0.1235339 -0.1173095 0.2382993 255 0 255
0.1253234 -0.1174259 0.2386483 255 0 255
0.1267405 -0.1170694 0.2381911 255 0 255
0.1289179 -0.1176436 0.2393251 255 0 255
0.1311078 -0.1182108 0.2404495 255 0 255
0.1321442 -0.1173758 0.239178 255 0 255
0.1343478 -0.1179319 0.2402869 255 0 255
0.1361678 -0.1180178 0.2405933 255 0 255
0.1371938 -0.1171741 0.2393088 255 0 255
0.1386133 -0.1167904 0.2388127 255 0 255
0.1404372 -0.1168637 0.2391011 255 0 255
0.1418557 -0.1164725 0.2385942 255 0 255
0.1440995 -0.1169946 0.2396559 255 0 255
0.1463554 -0.1175094 0.2407076 255 0 255
0.1473599 -0.1166485 0.2393974 255 0 255
0.1500535 -0.1176069 0.2412156 255 0 255
0.1519095 -0.1176476 0.2414585 255 0 255
0.1520428 -0.1158708 0.2385743 255 0 255
0.153023 -0.115001 0.2372505 255 0 255
0.05608599 -0.1430557 0.2723134 255 0 255
0.05804438 -0.1438668 0.2737665 255 0 255
0.05905324 -0.1421399 0.2710101 255 0 255
0.06003776 -0.1404125 0.2682519 255 0 255
0.0613988 -0.1396957 0.2671707 255 0 255
0.06234222 -0.1379665 0.2644083 255 0 255
0.06367767 -0.1372458 0.2633207 255 0 255
0.06500412 -0.1365228 0.2622293 255 0 255
0.06632163 -0.1357975 0.2611341 255 0 255
0.06741033 -0.1345671 0.2591992 255 0 255
0.06915319 -0.1348419 0.2597682 255 0 255
0.07044748 -0.1341092 0.2586615 255 0 255
0.07173272 -0.1333742 0.2575512 255 0 255
0.07300896 -0.1326369 0.2564373 255 0 255
0.07475402 -0.132897 0.2569852 255 0 255
0.07601978 -0.1321542 0.2558629 255 0 255
0.07678316 -0.1304123 0.2530751 255 0 255
0.07852391 -0.1306623 0.2536082 255 0 255
0.08001658 -0.1304104 0.2533053 255 0 255
0.08124968 -0.1296586 0.2521688 255 0 255
0.08247363 -0.1289048 0.251029 255 0 255
0.08395411 -0.1286442 0.2507132 255 0 255
0.0851636 -0.1278857 0.2495662 255 0 255
0.08663713 -0.1276191 0.2492415 255 0 255
0.08755495 -0.1263629 0.2472626 255 0 255
0.08957948 -0.1270761 0.2485776 255 0 255
0.09104812 -0.1267996 0.2482384 255 0 255
0.09222678 -0.1260288 0.2470725 255 0 255
0.09368834 -0.1257464 0.2467246 255 0 255
0.09544419 -0.1259503 0.2471921 255 0 255
0.09630665 -0.124683 0.2451952 255 0 255
0.0974557 -0.1239036 0.2440156 255 0 255
0.0989029 -0.1236096 0.2436505 255 0 255
0.1000372 -0.1228259 0.2424642 255 0 255
0.1011622 -0.1220405 0.2412751 255 0 255
0.102915 -0.1222232 0.2417122 255 0 255
0.1043511 -0.1219171 0.2413292 255 0 255
0.1061115 -0.122091 0.2417539 255 0 255
0.1078774 -0.1222602 0.2421719 255 0 255
0.1093154 -0.1219427 0.2417726 255 0 255
0.1104143 -0.1211411 0.2405592 255 0 255
0.1115038 -0.1203379 0.2393433 255 0 255
0.1129285 -0.1200124 0.238932 255 0 255
0.1143513 -0.1196837 0.2385161 255 0 255
0.115772 -0.1193518 0.2380955 255 0 255
0.116835 -0.1185401 0.2368662 255 0 255
0.1186074 -0.1186783 0.2372401 255 0 255
0.120022 -0.1183368 0.2368055 255 0 255
0.1214346 -0.1179921 0.2363662 255 0 255
0.1232155 -0.1181173 0.2367216 255 0 255
0.1250017 -0.1182374 0.2370701 255 0 255
0.1267929 -0.1183524 0.2374115 255 0 255
0.1289707 -0.1189327 0.2385417 255 0 255
0.1307759 -0.1190367 0.2388678 255 0 255
0.1321975 -0.1186673 0.2383933 255 0 255
0.1340091 -0.118762 0.2387063 255 0 255
0.1358257 -0.1188515 0.2390122 255 0 255
0.1372477 -0.1184705 0.2385211 255 0 255
0.1386674 -0.1180863 0.2380254 255 0 255
0.1404915 -0.1181623 0.2383121 255 0 255
0.1419101 -0.1177706 0.2378056 255 0 255
0.1437403 -0.1178372 0.238079 255 0 255
0.1455753 -0.1178986 0.2383451 255 0 255
0.1474151 -0.1179546 0.2386039 255 0 255
0.1505341 -0.1193808 0.2411971 255 0 255
0.152394 -0.1194232 0.241437 255 0 255
0.1542585 -0.1194602 0.2416694 255 0 255
0.1539498 -0.1172154 0.2380117 255 0 255
0.05755755 -0.1394259 0.2634661 255 0 255
0.05929783 -0.1397296 0.2640701 255 0 255
0.06084409 -0.13952 0.2638306 255 0 255
0.06218466 -0.1387987 0.2627496 255 0 255
0.06372459 -0.1385827 0.2625007 255 0 255
0.06547545 -0.1388705 0.2630821 255 0 255
0.0670167 -0.138647 0.2628226 255 0 255
0.0681169 -0.137408 0.26089 255 0 255
0.06964782 -0.1371787 0.2606217 255 0 255
0.07072224 -0.1359363 0.2586832 255 0 255
0.07224274 -0.1357013 0.2584063 255 0 255
0.07376192 -0.135463 0.2581245 255 0 255
0.07551877 -0.1357243 0.2586683 255 0 255
0.07655307 -0.1344735 0.2567163 255 0 255
0.07781735 -0.1337237 0.2555913 255 0 255
0.07907256 -0.1329718 0.254463 255 0 255
0.08057299 -0.1327183 0.2541588 255 0 255
0.08181374 -0.1319615 0.2530229 255 0 255
0.08330734 -0.1317019 0.2527097 255 0 255
0.0845336 -0.1309405 0.2515666 255 0 255
0.08602026 -0.1306748 0.2512444 255 0 255
0.08723193 -0.1299087 0.250094 255 0 255
0.0881572 -0.1286441 0.2481178 255 0 255
0.08962767 -0.1283705 0.2477837 255 0 255
0.09109648 -0.1280937 0.2474448 255 0 255
0.09227511 -0.1273192 0.2462811 255 0 255
0.09373681 -0.1270364 0.2459334 255 0 255
0.09519684 -0.1267504 0.245581 255 0 255
0.09635526 -0.125969 0.2444066 255 0 255
0.09750438 -0.1251858 0.2432292 255 0 255
0.09895166 -0.1248914 0.2428643 255 0 255
0.1003971 -0.1245939 0.2424948 255 0 255
0.1015259 -0.1238039 0.241307 255 0 255
0.102964 -0.1235006 0.2409289 255 0 255
0.1044003 -0.123194 0.2405462 255 0 255
0.1058348 -0.1228842 0.2401587 255 0 255
0.1075972 -0.123057 0.2405759 255 0 255
0.1090316 -0.1227399 0.2401779 255 0 255
0.1104641 -0.1224196 0.2397752 255 0 255
0.1115535 -0.1216127 0.2385617 255 0 255
0.1129784 -0.1212867 0.2381507 255 0 255
0.1144013 -0.1209576 0.237735 255 0 255
0.11547 -0.1201444 0.2365116 255 0 255
0.1168852 -0.1198097 0.2360877 255 0 255
0.1182983 -0.1194718 0.2356592 255 0 255
0.1197094 -0.1191307 0.235226 255 0 255
0.1211184 -0.1187864 0.2347881 255 0 255
0.1232664 -0.1193916 0.2359404 255 0 255
0.1246785 -0.1190391 0.2354909 255 0 255
0.1264665 -0.1191579 0.2358318 255 0 255
0.128641 -0.1197452 0.2369595 255 0 255
0.1304428 -0.1198529 0.2372851 255 0 255
0.131472 -0.1190122 0.2360208 255 0 255
0.1336691 -0.1195823 0.2371247 255 0 255
0.1354823 -0.1196757 0.2374302 255 0 255
0.136501 -0.1188262 0.236153 255 0 255
0.138317 -0.1189112 0.2364465 255 0 255
0.1397308 -0.1185241 0.2359477 255 0 255
0.1411422 -0.1181339 0.2354443 255 0 255
0.1429655 -0.1182052 0.2357186 255 0 255
0.1456292 -0.1191989 0.2375482 255 0 255
0.1474692 -0.1192577 0.2378053 255 0 255
0.1501638 -0.1202347 0.2396122 255 0 255
0.152449 -0.1207415 0.2406291 255 0 255
0.1534495 -0.1198619 0.2393081 255 0 255
0.1531332 -0.1176054 0.2356617 255 0 255
0.1505897 -0.1130665 0.2281558 255 0 255
0.06052494 -0.1441432 0.2682567 255 0 255
0.06169308 -0.142906 0.2663436 255 0 255
0.06263991 -0.1411558 0.2635933 255 0 255
0.06439617 -0.1414496 0.2641772 255 0 255
0.06594654 -0.1412282 0.2639215 255 0 255
0.0672795 -0.1404934 0.2628282 255 0 255
0.06860344 -0.1397563 0.2617312 255 0 255
0.06991828 -0.1390168 0.2606305 255 0 255
0.07122415 -0.1382751 0.2595261 255 0 255
0.07252098 -0.137531 0.2584182 255 0 255
0.07380874 -0.1367847 0.2573067 255 0 255
0.07556582 -0.1370491 0.2578486 255 0 255
0.07684306 -0.1362972 0.2567286 255 0 255
0.0781112 -0.1355431 0.2556052 255 0 255
0.07937025 -0.1347869 0.2544783 255 0 255
0.0808746 -0.1345325 0.2541735 255 0 255
0.0823775 -0.1342746 0.2538638 255 0 255
0.08387884 -0.1340134 0.2535492 255 0 255
0.08537862 -0.1337488 0.2532297 255 0 255
0.08660711 -0.1329796 0.2520831 255 0 255
0.08782641 -0.1322084 0.2509332 255 0 255
0.08875909 -0.1309354 0.2489596 255 0 255
0.09023732 -0.1306601 0.248624 255 0 255
0.09142892 -0.129883 0.2474648 255 0 255
0.09261136 -0.1291042 0.2463025 255 0 255
0.09349201 -0.1278264 0.2443202 255 0 255
0.09524461 -0.1280369 0.244785 255 0 255
0.09610301 -0.1267564 0.2427977 255 0 255
0.09755217 -0.1264649 0.2424378 255 0 255
0.09899951 -0.1261702 0.2420732 255 0 255
0.1004452 -0.1258722 0.2417039 255 0 255
0.1015739 -0.1250785 0.2405185 255 0 255
0.1030122 -0.1247748 0.2401407 255 0 255
0.1044486 -0.1244678 0.2397581 255 0 255
0.1058832 -0.1241576 0.2393709 255 0 255
0.1076458 -0.1243333 0.2397863 255 0 255
0.1090803 -0.1240158 0.2393887 255 0 255
0.1101755 -0.1232075 0.238181 255 0 255
0.1112613 -0.1223977 0.2369708 255 0 255
0.1126825 -0.1220721 0.2365612 255 0 255
0.1141018 -0.1217433 0.2361469 255 0 255
0.1155191 -0.1214114 0.2357279 255 0 255
0.1169344 -0.1210762 0.2353043 255 0 255
0.1183476 -0.1207378 0.2348761 255 0 255
0.1197588 -0.1203963 0.2344432 255 0 255
0.1208009 -0.1195709 0.2332091 255 0 255
0.1229457 -0.1201831 0.2343588 255 0 255
0.1239798 -0.1193524 0.2331167 255 0 255
0.1261387 -0.1199536 0.2342512 255 0 255
0.1279283 -0.1200711 0.2345845 255 0 255
0.129723 -0.1201835 0.2349108 255 0 255
0.1311339 -0.1198158 0.2344407 255 0 255
0.1333277 -0.120393 0.2355421 255 0 255
0.1351376 -0.12049 0.2358471 255 0 255
0.1365525 -0.1201098 0.2353593 255 0 255
0.1375617 -0.1192553 0.2340824 255 0 255
0.1389684 -0.1188697 0.2335865 255 0 255
0.1403728 -0.1184808 0.2330859 255 0 255
0.1417747 -0.1180888 0.2325807 255 0 255
0.144846 -0.1195619 0.2351877 255 0 255
0.1466791 -0.1196254 0.2354458 255 0 255
0.1493672 -0.1206138 0.2372498 255 0 255
0.1507882 -0.1202006 0.2367152 255 0 255
0.1522066 -0.1197843 0.236176 255 0 255
0.1497002 -0.1152079 0.2286797 255 0 255
0.06694476 -0.1489626 0.2733222 255 0 255
0.06769188 -0.1466791 0.2697344 255 0 255
0.06862311 -0.1449097 0.2669771 255 0 255
0.06930979 -0.1426274 0.2633888 255 0 255
0.07041231 -0.1413704 0.2614591 255 0 255
0.07149802 -0.1401123 0.2595271 255 0 255
0.07326199 -0.140386 0.2600763 255 0 255
0.07456128 -0.1396343 0.258965 255 0 255
0.07633009 -0.1398999 0.2595027 255 0 255
0.07737572 -0.1386334 0.2575572 255 0 255
0.07865151 -0.1378745 0.2564346 255 0 255
0.07966732 -0.1366054 0.2544843 255 0 255
0.08117567 -0.13635 0.2541789 255 0 255
0.08294094 -0.1365978 0.2546912 255 0 255
0.08418782 -0.135829 0.2535535 255 0 255
0.08595754 -0.1360687 0.2540543 255 0 255
0.08719366 -0.1352944 0.2529083 255 0 255
0.08869415 -0.135022 0.2525784 255 0 255
0.08963817 -0.1337399 0.2506067 255 0 255
0.09112789 -0.1334622 0.2502687 255 0 255
0.09233085 -0.1326793 0.2491091 255 0 255
0.09323578 -0.1313936 0.2471307 255 0 255
0.09441646 -0.1306076 0.2459659 255 0 255
0.09558794 -0.1298199 0.2447981 255 0 255
0.09675007 -0.1290303 0.2436273 255 0 255
0.09790298 -0.1282389 0.2424537 255 0 255
0.09966185 -0.1284403 0.2428996 255 0 255
0.1008037 -0.1276439 0.2417183 255 0 255
0.1019362 -0.1268457 0.2405342 255 0 255
0.1033783 -0.1265408 0.2401557 255 0 255
0.1048186 -0.1262326 0.2397725 255 0 255
0.106257 -0.1259211 0.2393845 255 0 255
0.1076935 -0.1256064 0.2389918 255 0 255
0.1091282 -0.1252885 0.2385944 255 0 255
0.1105609 -0.1249673 0.2381923 255 0 255
0.1116503 -0.1241529 0.2369834 255 0 255
0.1127305 -0.1233369 0.2357719 255 0 255
0.1141498 -0.1230077 0.2353579 255 0 255
0.1155672 -0.1226752 0.2349392 255 0 255
0.1169826 -0.1223396 0.234516 255 0 255
0.1183959 -0.1220008 0.2340881 255 0 255
0.1198073 -0.1216587 0.2336554 255 0 255
0.1212165 -0.1213135 0.2332182 255 0 255
0.1229945 -0.1214479 0.2335696 255 0 255
0.1244031 -0.1210954 0.233122 255 0 255
0.1261878 -0.1212207 0.2334606 255 0 255
0.1275959 -0.1208608 0.2330025 255 0 255
0.1293872 -0.1209769 0.2333283 255 0 255
0.1307946 -0.1206097 0.2328597 255 0 255
0.1329851 -0.1211938 0.2339587 255 0 255
0.1351879 -0.1217709 0.235048 255 0 255
0.136603 -0.1213901 0.2345605 255 0 255
0.1376121 -0.1205318 0.233286 255 0 255
0.1394262 -0.1206191 0.2335716 255 0 255
0.1412451 -0.120701 0.2338499 255 0 255
0.1426544 -0.1203064 0.2333424 255 0 255
0.1453155 -0.1213197 0.2351619 255 0 255
0.1479957 -0.1223235 0.2369687 255 0 255
0.150695 -0.1233179 0.2387628 255 0 255
0.1521268 -0.1229011 0.2382247 255 0 255
0.1535561 -0.122481 0.2376818 255 0 255
0.153675 -0.1206623 0.2348229 255 0 255
0.155528 -0.1207029 0.2350437 255 0 255
0.1538409 -0.1170343 0.2291157 255 0 255
0.06858822 -0.1501111 0.2721922 255 0 255
0.06979593 -0.144999 0.2642008 255 0 255
0.07090601 -0.143734 0.2622741 255 0 255
0.07177138 -0.141953 0.2595187 255 0 255
0.07353944 -0.1422291 0.2600653 255 0 255
0.07531376 -0.1425006 0.2606055 255 0 255
0.07685486 -0.1422543 0.260315 255 0 255
0.07815131 -0.141492 0.2591958 255 0 255
0.07943855 -0.1407275 0.2580732 255 0 255
0.08071668 -0.1399609 0.2569471 255 0 255
0.08198569 -0.1391921 0.2558176 255 0 255
0.08298697 -0.1379113 0.2538642 255 0 255
0.08449616 -0.1376481 0.2535484 255 0 255
0.08627 -0.13789 0.2540466 255 0 255
0.08723988 -0.1366036 0.252084 255 0 255
0.08874051 -0.1363308 0.2517543 255 0 255
0.08996198 -0.1355482 0.2506034 255 0 255
0.09117422 -0.1347637 0.2494493 255 0 255
0.09237719 -0.1339771 0.248292 255 0 255
0.09357091 -0.1331887 0.2471317 255 0 255
0.09446266 -0.1318948 0.2451555 255 0 255
0.0956341 -0.1311034 0.24399 255 0 255
0.09679626 -0.1303101 0.2428216 255 0 255
0.09794915 -0.129515 0.2416503 255 0 255
0.0994005 -0.1292187 0.2412852 255 0 255
0.1011616 -0.1294189 0.2417236 255 0 255
0.1022979 -0.1286163 0.2405409 255 0 255
0.1037438 -0.1283102 0.2401616 255 0 255
0.1048652 -0.1275034 0.2389724 255 0 255
0.1063037 -0.1271915 0.2385847 255 0 255
0.1077404 -0.1268764 0.2381923 255 0 255
0.1088411 -0.1260631 0.2369931 255 0 255
0.1102702 -0.1257423 0.2365923 255 0 255
0.1116974 -0.1254182 0.2361869 255 0 255
0.1127774 -0.1245985 0.2349777 255 0 255
0.1141969 -0.1242689 0.234564 255 0 255
0.1156145 -0.123936 0.2341457 255 0 255
0.1173861 -0.1240897 0.2345184 255 0 255
0.1188033 -0.1237495 0.2340897 255 0 255
0.1202184 -0.1234061 0.2336563 255 0 255
0.1216314 -0.1230594 0.2332182 255 0 255
0.1234132 -0.1231958 0.2335667 255 0 255
0.1244511 -0.1223566 0.2323282 255 0 255
0.126236 -0.1224847 0.2326651 255 0 255
0.1280261 -0.1226077 0.232995 255 0 255
0.1294357 -0.1222431 0.2325314 255 0 255
0.1308431 -0.1218754 0.2320631 255 0 255
0.133034 -0.1224656 0.2331583 255 0 255
0.1344442 -0.1220895 0.2326784 255 0 255
0.1358522 -0.1217101 0.2321937 255 0 255
0.1372578 -0.1213276 0.2317045 255 0 255
0.1390684 -0.1214185 0.2319896 255 0 255
0.1412949 -0.1219799 0.2330452 255 0 255
0.143119 -0.1220593 0.2333146 255 0 255
0.1466205 -0.124028 0.2366771 255 0 255
0.1488902 -0.1245654 0.2377004 255 0 255
0.1511717 -0.1250954 0.2387137 255 0 255
0.1521783 -0.1242064 0.2374035 255 0 255
0.1536077 -0.1237858 0.236861 255 0 255
0.152418 -0.1205514 0.2317034 255 0 255
0.1529416 -0.1191959 0.2296257 255 0 255
0.1499029 -0.1141115 0.2214238 255 0 255
0.07229616 -0.1481827 0.2663755 255 0 255
0.07295641 -0.1458697 0.2627982 255 0 255
0.07497571 -0.1466635 0.264163 255 0 255
0.07630189 -0.1459003 0.2630512 255 0 255
0.07737934 -0.1446186 0.2611136 255 0 255
0.07868342 -0.1438514 0.2599953 255 0 255
0.07997832 -0.1430821 0.2588735 255 0 255
0.0812641 -0.1423106 0.2577481 255 0 255
0.08254072 -0.1415368 0.2566194 255 0 255
0.08380816 -0.1407609 0.2554872 255 0 255
0.08506644 -0.1399829 0.2543516 255 0 255
0.0865818 -0.1397147 0.2540295 255 0 255
0.08755539 -0.1384206 0.2520706 255 0 255
0.08878606 -0.1376364 0.2509252 255 0 255
0.09000751 -0.1368501 0.2497765 255 0 255
0.09150116 -0.136571 0.2494381 255 0 255
0.09270793 -0.1357801 0.2482824 255 0 255
0.09419451 -0.1354948 0.2479351 255 0 255
0.09509366 -0.1341925 0.2459615 255 0 255
0.09656924 -0.133902 0.2456065 255 0 255
0.09744231 -0.1325975 0.2436287 255 0 255
0.09860273 -0.1317972 0.2424579 255 0 255
0.09975386 -0.1309951 0.2412841 255 0 255
0.1012073 -0.1306944 0.2409136 255 0 255
0.1023435 -0.1298881 0.2397333 255 0 255
0.1037896 -0.1295815 0.2393543 255 0 255
0.104588 -0.1282704 0.2373643 255 0 255
0.1066761 -0.1289586 0.2385822 255 0 255
0.1074559 -0.1276442 0.2365868 255 0 255
0.108887 -0.1273262 0.236191 255 0 255
0.1103162 -0.1270049 0.2357905 255 0 255
0.1117434 -0.1266804 0.2353854 255 0 255
0.1128235 -0.125857 0.2341786 255 0 255
0.114592 -0.1260218 0.2345611 255 0 255
0.1160133 -0.1256875 0.2341419 255 0 255
0.1174326 -0.1253501 0.2337181 255 0 255
0.1188498 -0.1250094 0.2332897 255 0 255
0.1199013 -0.1241742 0.2320652 255 0 255
0.1213108 -0.123828 0.2316286 255 0 255
0.1230892 -0.1239681 0.2319765 255 0 255
0.124498 -0.1236146 0.2315295 255 0 255
0.1259048 -0.1232578 0.2310779 255 0 255
0.1276914 -0.1233845 0.2314073 255 0 255
0.1290975 -0.1230204 0.2309452 255 0 255
0.1308907 -0.1231379 0.2312617 255 0 255
0.1326889 -0.1232503 0.2315711 255 0 255
0.1344922 -0.1233575 0.2318734 255 0 255
0.1359002 -0.1229776 0.2313892 255 0 255
0.1373059 -0.1225946 0.2309003 255 0 255
0.1387093 -0.1222083 0.2304068 255 0 255
0.1409326 -0.1227766 0.2314599 255 0 255
0.1431679 -0.1233376 0.2325032 255 0 255
0.1462518 -0.1248452 0.2350828 255 0 255
0.1480964 -0.1249137 0.235332 255 0 255
0.1507966 -0.1259265 0.2371145 255 0 255
0.1517995 -0.1250347 0.2358081 255 0 255
0.1532254 -0.1246145 0.2352674 255 0 255
0.1546488 -0.124191 0.2347219 255 0 255
0.1569492 -0.1247054 0.2357017 255 0 255
0.1592612 -0.1252121 0.2366711 255 0 255
0.1633722 -0.127585 0.2406789 255 0 255
0.07409269 -0.1459251 0.2600151 255 0 255
0.07540351 -0.1451609 0.2589085 255 0 255
0.07718452 -0.1454337 0.2594384 255 0 255
0.07848472 -0.1446636 0.2583231 255 0 255
0.07977582 -0.1438913 0.2572044 255 0 255
0.08156004 -0.1441523 0.2577177 255 0 255
0.08309542 -0.1438915 0.2574075 255 0 255
0.08411173 -0.1425942 0.2554598 255 0 255
0.08537377 -0.1418118 0.2543258 255 0 255
0.08715945 -0.1420577 0.2548178 255 0 255
0.08787033 -0.140241 0.2520478 255 0 255
0.08910473 -0.1394524 0.2509039 255 0 255
0.09060777 -0.1391748 0.2505689 255 0 255
0.09210912 -0.1388939 0.2502291 255 0 255
0.0930381 -0.1375863 0.2482634 255 0 255
0.09452853 -0.1373 0.2479156 255 0 255
0.09572428 -0.1365001 0.2467542 255 0 255
0.09691078 -0.1356984 0.2455898 255 0 255
0.09778748 -0.134386 0.2436155 255 0 255
0.09925588 -0.1340893 0.2432521 255 0 255
0.1004145 -0.133282 0.2420788 255 0 255
0.1018756 -0.1329793 0.2417067 255 0 255
0.1030193 -0.1321678 0.2405268 255 0 255
0.1041537 -0.1313545 0.239344 255 0 255
0.1052787 -0.1305394 0.2381586 255 0 255
0.1070479 -0.1307291 0.2385704 255 0 255
0.1081617 -0.1299092 0.2373776 255 0 255
0.108932 -0.1285861 0.235384 255 0 255
0.1103612 -0.1282644 0.2349838 255 0 255
0.1117885 -0.1279395 0.234579 255 0 255
0.1128686 -0.1271123 0.2333746 255 0 255
0.1142883 -0.1267818 0.2329615 255 0 255
0.1160587 -0.1269452 0.2333364 255 0 255
0.1174781 -0.1266073 0.232913 255 0 255
0.1188955 -0.1262662 0.2324848 255 0 255
0.1199468 -0.1254272 0.2312627 255 0 255
0.1217239 -0.1255743 0.2316147 255 0 255
0.123135 -0.1252234 0.2311726 255 0 255
0.124544 -0.1248694 0.2307259 255 0 255
0.1263293 -0.125003 0.2310593 255 0 255
0.1277377 -0.1246416 0.2306022 255 0 255
0.1291438 -0.124277 0.2301405 255 0 255
0.1313266 -0.1248853 0.2312363 255 0 255
0.1323425 -0.1240252 0.2299831 255 0 255
0.1341424 -0.1241361 0.2302849 255 0 255
0.1359473 -0.1242419 0.2305796 255 0 255
0.1373531 -0.1238583 0.2300911 255 0 255
0.1391641 -0.1239546 0.2303728 255 0 255
0.1413913 -0.1245279 0.2314208 255 0 255
0.1432157 -0.1246128 0.2316869 255 0 255
0.1458818 -0.1256526 0.2334875 255 0 255
0.147301 -0.1252457 0.2329667 255 0 255
0.1495689 -0.1257917 0.2339777 255 0 255
0.1514194 -0.1258533 0.2342118 255 0 255
0.1524091 -0.1249575 0.2329072 255 0 255
0.1538254 -0.1245355 0.2323649 255 0 255
0.1574386 -0.1264794 0.2356323 255 0 255
0.1588676 -0.1260455 0.2350737 255 0 255
0.07297595 -0.1446328 0.2550597 255 0 255
0.07591911 -0.1475331 0.2596895 255 0 255
0.07746817 -0.1472847 0.259398 255 0 255
0.07925943 -0.1475552 0.2599187 255 0 255
