ply
format ascii 1.0
Comment Generated by Floating Hands
element vertex 1107
property double x
property double y
property double z
property uchar red
property uchar green
property uchar blue
end_header
-0.08770275 -0.07381908 0.1842589 255 0 255
-0.08610895 -0.07299484 0.1827733 255 0 255
-0.08494507 -0.07311135 0.182994 255 0 255
-0.08398409 -0.07369819 0.1840682 255 0 255
-0.08261442 -0.073337 0.1834238 255 0 255
-0.08164383 -0.07391963 0.1844916 255 0 255
-0.08066463 -0.07450047 0.1855568 255 0 255
-0.07967678 -0.07507954 0.1866194 255 0 255
-0.0786803 -0.07565679 0.1876794 255 0 255
-0.07803653 -0.07718191 0.1904594 255 0 255
-0.07719187 -0.07823128 0.1923773 255 0 255
-0.07633084 -0.07927936 0.1942936 255 0 255
-0.07562246 -0.08080189 0.1970715 255 0 255
-0.07488997 -0.08232363 0.1998488 255 0 255
-0.07397206 -0.08336814 0.2017611 255 0 255
-0.0731952 -0.08488776 0.2045365 255 0 255
-0.07285455 -0.08783721 0.2099074 255 0 255
-0.07186811 -0.08887834 0.2118164 255 0 255
-0.06940869 -0.08514331 0.2050584 255 0 255
-0.05578024 -0.08731389 0.209261 255 0 255
-0.05509038 -0.09024397 0.2146118 255 0 255
-0.05359448 -0.08933304 0.2129855 255 0 255
-0.05229556 -0.08937912 0.2130983 255 0 255
-0.05099614 -0.08942245 0.2132069 255 0 255
-0.04969628 -0.08946304 0.2133111 255 0 255
-0.04831688 -0.08902039 0.2125376 255 0 255
-0.04702007 -0.0890554 0.2126329 255 0 255
-0.04565164 -0.08860695 0.2118498 255 0 255
-0.04435801 -0.08863641 0.2119361 255 0 255
-0.04306401 -0.08866312 0.2120181 255 0 255
-0.04176967 -0.08868714 0.2120958 255 0 255
-0.04053053 -0.08918948 0.2130441 255 0 255
-0.03928323 -0.08968918 0.2139885 255 0 255
-0.03802777 -0.09018621 0.2149289 255 0 255
-0.03676416 -0.09068065 0.2158654 255 0 255
-0.03549245 -0.09117236 0.2167979 255 0 255
-0.03417682 -0.09118013 0.2168504 255 0 255
-0.03289286 -0.09166638 0.2177745 255 0 255
-0.03154498 -0.09118734 0.2169421 255 0 255
-0.03022877 -0.09118681 0.2169814 255 0 255
-0.02881218 -0.08877731 0.2126345 255 0 255
-0.0274832 -0.08780892 0.2109117 255 0 255
-0.1320611 -0.08184212 0.1961829 255 0 255
-0.1357693 -0.08894636 0.2089325 255 0 255
-0.1357844 -0.09100656 0.2126245 255 0 255
-0.1344812 -0.09122632 0.2130122 255 0 255
-0.1322225 -0.09005938 0.2109106 255 0 255
-0.1302988 -0.08934791 0.2096274 255 0 255
-0.1274571 -0.08724362 0.2058442 255 0 255
-0.1246513 -0.08513065 0.2020461 255 0 255
-0.1218816 -0.08300906 0.1982333 255 0 255
-0.1197464 -0.08180752 0.1960731 255 0 255
-0.1176323 -0.08059989 0.1939027 255 0 255
-0.1161227 -0.08031709 0.1933933 255 0 255
-0.1146192 -0.08003061 0.192878 255 0 255
-0.1128378 -0.07927387 0.191519 255 0 255
-0.1116308 -0.07944653 0.1918292 255 0 255
-0.1098694 -0.07868137 0.1904563 255 0 255
-0.1083946 -0.07837971 0.189916 255 0 255
-0.1066571 -0.07760577 0.1885285 255 0 255
-0.1051988 -0.07729639 0.1879755 255 0 255
-0.103224 -0.07604416 0.1857303 255 0 255
-0.1015285 -0.07525659 0.1843198 255 0 255
-0.09984697 -0.07446455 0.1829019 255 0 255
-0.09792965 -0.07319701 0.1806306 255 0 255
-0.09652621 -0.07286733 0.1800439 255 0 255
-0.09512933 -0.07253429 0.1794517 255 0 255
-0.09397741 -0.07267033 0.1797023 255 0 255
-0.0925898 -0.07233104 0.1790999 255 0 255
-0.09213181 -0.07388186 0.1818923 255 0 255
-0.09096899 -0.07401144 0.182133 255 0 255
-0.08958205 -0.07366429 0.1815182 255 0 255
-0.08864024 -0.07426315 0.1826029 255 0 255
-0.08768973 -0.07486032 0.1836851 255 0 255
-0.08609591 -0.07402953 0.1822031 255 0 255
-0.08493193 -0.07414635 0.1824238 255 0 255
-0.08397075 -0.0747369 0.1834958 255 0 255
-0.08280099 -0.07484913 0.1837093 255 0 255
-0.08182639 -0.07543579 0.1847757 255 0 255
-0.08084313 -0.07602073 0.1858395 255 0 255
-0.07985125 -0.07660381 0.1869008 255 0 255
-0.07885074 -0.07718509 0.1879594 255 0 255
-0.07802223 -0.07824282 0.1898748 255 0 255
-0.07717735 -0.07929929 0.1917887 255 0 255
-0.0763161 -0.08035448 0.1937011 255 0 255
-0.07577644 -0.08236681 0.1973344 255 0 255
-0.07503979 -0.08389942 0.2001065 255 0 255
-0.074279 -0.08543113 0.2028779 255 0 255
-0.07349406 -0.08696189 0.2056485 255 0 255
-0.07299178 -0.08945236 0.2101454 255 0 255
-0.0724498 -0.09194277 0.2146434 255 0 255
-0.07012063 -0.08866236 0.208767 255 0 255
-0.05617297 -0.09037355 0.2121178 255 0 255
-0.05526963 -0.0923585 0.2157188 255 0 255
-0.0538606 -0.09192459 0.2149671 255 0 255
-0.05236813 -0.091004 0.2133398 255 0 255
-0.05106465 -0.09104761 0.2134485 255 0 255
-0.04967776 -0.09060464 0.2126818 255 0 255
-0.04837733 -0.09064262 0.2127817 255 0 255
-0.04700136 -0.09019381 0.2120053 255 0 255
-0.04563284 -0.08974202 0.2112241 255 0 255
-0.04433908 -0.08977161 0.2113103 255 0 255
-0.04304496 -0.08979843 0.2113923 255 0 255
-0.0417505 -0.08982256 0.2114699 255 0 255
-0.04051119 -0.09032843 0.2124162 255 0 255
-0.03926367 -0.09083166 0.2133587 255 0 255
-0.03800804 -0.09133226 0.2142971 255 0 255
-0.0367006 -0.09134556 0.214358 255 0 255
-0.03543264 -0.09184078 0.2152884 255 0 255
-0.03415659 -0.0923333 0.2162146 255 0 255
-0.03287243 -0.09282305 0.2171368 255 0 255
-0.03152446 -0.09234065 0.2163063 255 0 255
-0.0302321 -0.09282489 0.21722 255 0 255
-0.02885171 -0.09136754 0.2146316 255 0 255
-0.02757514 -0.0923309 0.2164109 255 0 255
-0.1350459 -0.08711667 0.2029609 255 0 255
-0.1374035 -0.09242678 0.2123999 255 0 255
-0.1364235 -0.09311392 0.213617 255 0 255
-0.1347911 -0.09287138 0.2131813 255 0 255
-0.1322107 -0.09123072 0.2102596 255 0 255
-0.1299728 -0.09004766 0.2081525 255 0 255
-0.1265141 -0.08699451 0.2027201 255 0 255
-0.1240263 -0.08532977 0.1997576 255 0 255
-0.1215671 -0.08365756 0.1967825 255 0 255
-0.1197347 -0.08291335 0.1954584 255 0 255
-0.1182114 -0.0826325 0.1949589 255 0 255
-0.1164025 -0.08187907 0.1936195 255 0 255
-0.1146074 -0.08112075 0.192272 255 0 255
-0.11311 -0.08082755 0.1917523 255 0 255
-0.1116188 -0.08053067 0.1912265 255 0 255
-0.1098574 -0.07975917 0.1898572 255 0 255
-0.1083825 -0.07945444 0.1893186 255 0 255
-0.106645 -0.07867408 0.1879345 255 0 255
-0.1051865 -0.07836169 0.1873833 255 0 255
-0.1032118 -0.07709961 0.1851435 255 0 255
-0.1012587 -0.07583203 0.1828943 255 0 255
-0.09958098 -0.07503305 0.1814791 255 0 255
-0.0981672 -0.07470421 0.1809005 255 0 255
-0.09651387 -0.07389691 0.1794714 255 0 255
-0.09511691 -0.0735608 0.1788809 255 0 255
-0.09396487 -0.07369718 0.1791313 255 0 255
-0.09257719 -0.07335476 0.1785306 255 0 255
-0.09188826 -0.07443936 0.1804689 255 0 255
-0.09072916 -0.07456883 0.1807087 255 0 255
-0.08956902 -0.07469581 0.1809446 255 0 255
-0.08862708 -0.07529838 0.1820271 255 0 255
-0.0876764 -0.07589927 0.1831073 255 0 255
-0.08608258 -0.07506193 0.181629 255 0 255
-0.08491845 -0.07517903 0.1818494 255 0 255
-0.08395714 -0.07577328 0.1829194 255 0 255
-0.08278726 -0.07588578 0.1831327 255 0 255
-0.08200854 -0.07695652 0.1850519 255 0 255
-0.0808291 -0.07706477 0.1852588 255 0 255
-0.07983706 -0.07765158 0.186318 255 0 255
-0.07883639 -0.07823654 0.1873746 255 0 255
-0.07800766 -0.07930136 0.189286 255 0 255
-0.07716257 -0.08036494 0.1911959 255 0 255
-0.07647394 -0.08190963 0.1939631 255 0 255
-0.07593007 -0.08393619 0.1975892 255 0 255
-0.07518928 -0.08547962 0.2003561 255 0 255
-0.07442433 -0.08702215 0.2031222 255 0 255
-0.07363524 -0.08856372 0.2058875 255 0 255
-0.07328206 -0.09155566 0.2112369 255 0 255
-0.07243297 -0.09309588 0.2140019 255 0 255
-0.06879396 -0.08543277 0.2003746 255 0 255
-0.05670731 -0.08805227 0.2052882 255 0 255
-0.0560524 -0.09102526 0.2106168 255 0 255
-0.055054 -0.09253721 0.2133417 255 0 255
-0.05365277 -0.09209972 0.2125912 255 0 255
-0.05234966 -0.09214622 0.2127042 255 0 255
-0.05104608 -0.09218996 0.212813 255 0 255
-0.04974203 -0.09223099 0.2129174 255 0 255
-0.04843755 -0.0922692 0.2130174 255 0 255
-0.04698252 -0.09132969 0.2113733 255 0 255
-0.04568508 -0.09136219 0.2114641 255 0 255
-0.04438726 -0.09139197 0.2115505 255 0 255
-0.04302582 -0.09093122 0.210762 255 0 255
-0.04173125 -0.09095544 0.2108395 255 0 255
-0.04049173 -0.09146485 0.2117839 255 0 255
-0.03924407 -0.09197164 0.2127244 255 0 255
-0.03798825 -0.09247577 0.2136609 255 0 255
-0.03668071 -0.09248916 0.2137217 255 0 255
-0.03545219 -0.09347599 0.2155219 255 0 255
-0.034172 -0.09397203 0.2164464 255 0 255
-0.03285198 -0.0939772 0.2164946 255 0 255
-0.03150395 -0.09349141 0.215666 255 0 255
-0.03018752 -0.09349097 0.2157052 255 0 255
-0.02881114 -0.09202334 0.2131225 255 0 255
-0.1377205 -0.09407367 0.2125589 255 0 255
-0.1364112 -0.09429851 0.2129526 255 0 255
-0.1344571 -0.09358566 0.211695 255 0 255
-0.1325163 -0.0928675 0.2104287 255 0 255
-0.1299604 -0.09120669 0.2075023 255 0 255
-0.1268122 -0.08859964 0.2029097 255 0 255
-0.1243208 -0.08692241 0.1999555 255 0 255
-0.1218578 -0.08523771 0.1969888 255 0 255
-0.1200217 -0.0844878 0.1956693 255 0 255
-0.1181991 -0.0837329 0.1943416 255 0 255
-0.1166818 -0.08344533 0.1938376 255 0 255
-0.1151706 -0.08315398 0.1933275 255 0 255
-0.1133816 -0.08238558 0.1919775 255 0 255
-0.1118866 -0.08208626 0.1914544 255 0 255
-0.1103978 -0.08178326 0.1909253 255 0 255
-0.1086426 -0.08100169 0.1895536 255 0 255
-0.1069013 -0.08021544 0.188174 255 0 255
-0.1051739 -0.07942459 0.1867868 255 0 255
-0.1031992 -0.0781527 0.1845526 255 0 255
-0.1012461 -0.07687529 0.1823089 255 0 255
-0.09956834 -0.07606982 0.1808972 255 0 255
-0.09815452 -0.07573792 0.1803203 255 0 255
-0.09674715 -0.07540259 0.1797379 255 0 255
-0.0953463 -0.07506379 0.1791498 255 0 255
-0.09419034 -0.075201 0.179401 255 0 255
-0.09279876 -0.07485596 0.1788028 255 0 255
-0.09187513 -0.07546794 0.1798917 255 0 255
-0.09071593 -0.0755977 0.1801312 255 0 255
-0.0895557 -0.075725 0.1803669 255 0 255
-0.08861361 -0.07633127 0.1814474 255 0 255
-0.08744747 -0.07645402 0.1816761 255 0 255
-0.08606892 -0.07609201 0.1810507 255 0 255
-0.08490469 -0.07620939 0.181271 255 0 255
-0.08394323 -0.07680733 0.1823389 255 0 255
-0.08277325 -0.07692012 0.1825521 255 0 255
-0.08179832 -0.07751419 0.1836143 255 0 255
-0.08062263 -0.07762234 0.1838204 255 0 255
-0.07963431 -0.0782125 0.1848768 255 0 255
-0.07882177 -0.07928562 0.1867856 255 0 255
-0.07781232 -0.07987238 0.1878374 255 0 255
-0.0769709 -0.08094274 0.1897427 255 0 255
-0.07628588 -0.08249758 0.1925034 255 0 255
-0.07574562 -0.08453783 0.1961211 255 0 255
-0.07500843 -0.08609142 0.1988814 255 0 255
-0.07456931 -0.08861751 0.2033582 255 0 255
-0.07377607 -0.09016988 0.2061183 255 0 255
-0.07326527 -0.09269565 0.2105968 255 0 255
-0.07241592 -0.09424636 0.2133559 255 0 255
-0.06906862 -0.0875042 0.2014807 255 0 255
-0.05613675 -0.09264762 0.2108467 255 0 255
-0.05493703 -0.09318982 0.211834 255 0 255
-0.0536343 -0.09323921 0.2119512 255 0 255
-0.05233108 -0.09328587 0.2120642 255 0 255
-0.05102737 -0.09332979 0.2121729 255 0 255
-0.04972322 -0.09337091 0.2122771 255 0 255
-0.04841861 -0.09340928 0.2123771 255 0 255
-0.04696359 -0.09246301 0.2107369 255 0 255
-0.04566604 -0.09249566 0.2108275 255 0 255
-0.04436811 -0.09252553 0.2109139 255 0 255
-0.04300661 -0.09206146 0.2101272 255 0 255
-0.04165265 -0.09159449 0.2093357 255 0 255
-0.04041692 -0.09210737 0.2102779 255 0 255
-0.039173 -0.09261762 0.2112162 255 0 255
-0.03792093 -0.09312522 0.2121505 255 0 255
-0.03661721 -0.09313866 0.2122111 255 0 255
-0.0353924 -0.09413242 0.2140073 255 0 255
-0.03415162 -0.0951235 0.2157997 255 0 255
-0.03283149 -0.09512874 0.2158478 255 0 255
-0.0314834 -0.09463955 0.2150212 255 0 255
-0.03019067 -0.09513078 0.2159309 255 0 255
-0.02877067 -0.09266976 0.2116128 255 0 255
-0.1393482 -0.09549575 0.2123106 255 0 255
-0.1373788 -0.09478551 0.2110709 255 0 255
-0.1354225 -0.09406987 0.2098222 255 0 255
-0.1341227 -0.09429052 0.210208 255 0 255
-0.1321855 -0.09356545 0.208944 255 0 255
-0.1293194 -0.091419 0.2052002 255 0 255
-0.1264892 -0.08926363 0.2014414 255 0 255
-0.1243081 -0.08804602 0.1993194 255 0 255
-0.1218452 -0.08634828 0.19636 255 0 255
-0.120009 -0.08559203 0.1950441 255 0 255
-0.1184818 -0.08530585 0.1945489 255 0 255
-0.1166691 -0.08454026 0.1932176 255 0 255
-0.1151578 -0.08424596 0.1927092 255 0 255
-0.1133688 -0.08347121 0.1913628 255 0 255
-0.1118737 -0.08316889 0.1908413 255 0 255
-0.1101084 -0.08238514 0.18948 255 0 255
-0.1086296 -0.08207497 0.1889458 255 0 255
-0.1063506 -0.08032466 0.1858983 255 0 255
-0.1048958 -0.08000573 0.1853496 255 0 255
-0.102925 -0.07872353 0.1831199 255 0 255
-0.1012332 -0.07791615 0.1817193 255 0 255
-0.09955536 -0.07710426 0.1803113 255 0 255
-0.09814144 -0.0767693 0.1797361 255 0 255
-0.09673403 -0.0764309 0.1791554 255 0 255
-0.09533311 -0.07608907 0.1785691 255 0 255
-0.09417706 -0.07622658 0.17882 255 0 255
-0.09278544 -0.07587846 0.1782235 255 0 255
-0.09163103 -0.07601058 0.1784659 255 0 255
-0.09047558 -0.07614022 0.1787045 255 0 255
-0.08954205 -0.07675182 0.1797851 255 0 255
-0.08838069 -0.07687695 0.1800168 255 0 255
-0.0872183 -0.07699958 0.1802446 255 0 255
-0.08584356 -0.07663409 0.1796203 255 0 255
-0.0846831 -0.0767514 0.1798396 255 0 255
-0.08372536 -0.07735258 0.1809047 255 0 255
-0.08255912 -0.07746529 0.181117 255 0 255
-0.08158793 -0.07806267 0.1821765 255 0 255
-0.08060808 -0.07865828 0.1832334 255 0 255
-0.07961962 -0.0792521 0.1842877 255 0 255
-0.07862252 -0.07984407 0.1853395 255 0 255
-0.07779726 -0.08092273 0.1872423 255 0 255
-0.07695566 -0.08200018 0.1891436 255 0 255
-0.07627039 -0.08356551 0.1918983 255 0 255
-0.07572983 -0.08561961 0.1955081 255 0 255
-0.07499238 -0.08718374 0.1982624 255 0 255
-0.07439185 -0.08923706 0.2018728 255 0 255
-0.07344508 -0.09030925 0.2037691 255 0 255
-0.07309497 -0.09334241 0.2090944 255 0 255
-0.07195052 -0.09392157 0.2101305 255 0 255
-0.06934287 -0.08958682 0.2025749 255 0 255
-0.05761083 -0.08873708 0.2013195 255 0 255
-0.05752263 -0.0942191 0.2109422 255 0 255
-0.05632329 -0.09476769 0.2119319 255 0 255
-0.05501704 -0.09482019 0.2120538 255 0 255
-0.0536157 -0.09437615 0.2113069 255 0 255
-0.05231236 -0.09442297 0.2114198 255 0 255
-0.05100855 -0.09446701 0.2115283 255 0 255
-0.04962148 -0.09401415 0.2107672 255 0 255
-0.04839957 -0.09454676 0.2117324 255 0 255
-0.04694454 -0.09359378 0.2100959 255 0 255
-0.04564688 -0.09362653 0.2101866 255 0 255
-0.04428178 -0.09316198 0.2094063 255 0 255
-0.04298731 -0.09318915 0.209488 255 0 255
-0.0416333 -0.09271888 0.2086985 255 0 255
-0.04039739 -0.09323525 0.2096386 255 0 255
-0.03915331 -0.09374906 0.2105749 255 0 255
-0.03790108 -0.09426015 0.2115072 255 0 255
-0.03659725 -0.09427369 0.2115678 255 0 255
-0.03541173 -0.09576934 0.214228 255 0 255
-0.0341312 -0.0962724 0.2151486 255 0 255
-0.03281095 -0.09627768 0.2151966 255 0 255
-0.03149052 -0.09628016 0.2152403 255 0 255
-0.03019367 -0.09677485 0.2161481 255 0 255
-0.02880956 -0.09528668 0.2135771 255 0 255
-0.1360495 -0.09406929 0.2071299 255 0 255
-0.135084 -0.09476545 0.2083358 255 0 255
-0.1337878 -0.09498592 0.2087201 255 0 255
-0.1324899 -0.0952036 0.2091 255 0 255
-0.1293061 -0.09256599 0.2045448 255 0 255
-0.126476 -0.09039428 0.2007953 255 0 255
-0.1239883 -0.08869041 0.1978549 255 0 255
-0.1218321 -0.08745625 0.1957269 255 0 255
-0.1196969 -0.08621591 0.1935885 255 0 255
-0.1181733 -0.0859262 0.193094 255 0 255
-0.1160729 -0.08467478 0.1909373 255 0 255
-0.1148568 -0.08485591 0.1912575 255 0 255
-0.1130715 -0.08407427 0.1899137 255 0 255
-0.1113 -0.08328781 0.188562 255 0 255
-0.1098187 -0.08297777 0.1880344 255 0 255
-0.1083436 -0.0826641 0.1875009 255 0 255
-0.1060685 -0.08090013 0.18446 255 0 255
-0.1046174 -0.08057764 0.183912 255 0 255
-0.1026504 -0.07928517 0.181687 255 0 255
-0.1009624 -0.07847087 0.1802891 255 0 255
-0.09954199 -0.07813633 0.1797213 255 0 255
-0.09812805 -0.07779832 0.1791479 255 0 255
-0.09672057 -0.07745687 0.1785689 255 0 255
-0.09556167 -0.07759765 0.1788243 255 0 255
-0.09440169 -0.0777359 0.1790758 255 0 255
-0.09300619 -0.07738519 0.1784819 255 0 255
-0.09184788 -0.07751802 0.1787249 255 0 255
-0.09068849 -0.07764843 0.1789641 255 0 255
-0.08952805 -0.07777633 0.1791994 255 0 255
-0.08814756 -0.07741349 0.1785861 255 0 255
-0.08720413 -0.07802469 0.1796585 255 0 255
-0.08582936 -0.07765608 0.179036 255 0 255
-0.08466878 -0.07777365 0.1792551 255 0 255
-0.08371092 -0.07837854 0.1803181 255 0 255
-0.08254457 -0.07849152 0.1805302 255 0 255
-0.08157324 -0.0790926 0.1815876 255 0 255
-0.08059326 -0.07969186 0.1826424 255 0 255
-0.07960466 -0.08028931 0.1836946 255 0 255
-0.07842313 -0.08039336 0.1838932 255 0 255
-0.07760157 -0.08147876 0.1857913 255 0 255
-0.07676361 -0.08256291 0.1876879 255 0 255
-0.07608199 -0.08413839 0.190436 255 0 255
-0.07537622 -0.08571318 0.1931837 255 0 255
-0.07481121 -0.08778035 0.1967851 255 0 255
-0.07405326 -0.08935375 0.1995322 255 0 255
-0.07311408 -0.09043243 0.2014233 255 0 255
-0.07231174 -0.09200358 0.2041683 255 0 255
-0.07163454 -0.09406796 0.2077686 255 0 255
-0.06961671 -0.09168055 0.2036569 255 0 255
-0.05759312 -0.08983319 0.2006926 255 0 255
-0.05697269 -0.0928695 0.2059868 255 0 255
-0.05599754 -0.0944145 0.2086959 255 0 255
-0.05470297 -0.09446671 0.2088167 255 0 255
-0.05350241 -0.0950133 0.2097956 255 0 255
-0.05229351 -0.09555742 0.2107709 255 0 255
-0.05090291 -0.09510419 0.2100162 255 0 255
-0.04960248 -0.09514546 0.21012 255 0 255
-0.0483804 -0.09568167 0.2110832 255 0 255
-0.04692541 -0.09472195 0.2094506 255 0 255
-0.04562764 -0.09475486 0.2095412 255 0 255
-0.04426249 -0.09428699 0.2087628 255 0 255
-0.04290483 -0.09381619 0.2079796 255 0 255
-0.04161388 -0.09384064 0.2080568 255 0 255
-0.04037779 -0.09436058 0.2089949 255 0 255
-0.03908229 -0.09437957 0.2090636 255 0 255
-0.03788117 -0.0953925 0.2108595 255 0 255
-0.03657723 -0.09540609 0.21092 255 0 255
-0.03531251 -0.09591528 0.2118422 255 0 255
-0.03407523 -0.0969202 0.2136266 255 0 255
-0.03275882 -0.09692554 0.2136745 255 0 255
-0.03146986 -0.09742653 0.2145845 255 0 255
-0.03007808 -0.09593096 0.212024 255 0 255
-0.02870984 -0.09443264 0.2094584 255 0 255
-0.1347201 -0.09332353 0.2031997 255 0 255
-0.1340946 -0.09449786 0.2052156 255 0 255
-0.1334524 -0.09567194 0.2072315 255 0 255
-0.132476 -0.09636765 0.2084289 255 0 255
-0.1292923 -0.09371036 0.2038849 255 0 255
-0.1270828 -0.0924811 0.2017867 255 0 255
-0.1245878 -0.09076542 0.1988559 255 0 255
-0.1221212 -0.08904228 0.1959125 255 0 255
-0.1202812 -0.08827404 0.1946048 255 0 255
-0.1184549 -0.0875008 0.1932888 255 0 255
-0.1163508 -0.08624028 0.1911386 255 0 255
-0.1148432 -0.0859395 0.1906326 255 0 255
-0.1130579 -0.0851515 0.1892924 255 0 255
-0.1112863 -0.08435873 0.1879443 255 0 255
-0.109805 -0.08404571 0.1874184 255 0 255
-0.1083298 -0.08372906 0.1868866 255 0 255
-0.1063236 -0.08243755 0.1846851 255 0 255
-0.1046037 -0.08162651 0.183307 255 0 255
-0.103159 -0.08129749 0.182755 255 0 255
-0.101206 -0.07999069 0.180528 255 0 255
-0.09978174 -0.07965362 0.1799628 255 0 255
-0.09836393 -0.07931306 0.179392 255 0 255
-0.09670676 -0.07848048 0.1779784 255 0 255
-0.09554778 -0.07862159 0.1782336 255 0 255
-0.09438768 -0.07876018 0.1784849 255 0 255
-0.09322651 -0.07889629 0.1787324 255 0 255
-0.09206427 -0.07902993 0.1789761 255 0 255
-0.09067426 -0.07867023 0.1783745 255 0 255
-0.08951374 -0.07879845 0.1786097 255 0 255
-0.08813321 -0.07843253 0.1779981 255 0 255
-0.08697452 -0.07855538 0.1782248 255 0 255
-0.08581483 -0.07867571 0.1784476 255 0 255
-0.08486163 -0.07928637 0.1795116 255 0 255
-0.08369616 -0.07940213 0.1797274 255 0 255
-0.08272948 -0.08000898 0.1807858 255 0 255
-0.08155828 -0.08012012 0.1809946 255 0 255
-0.08057817 -0.08072304 0.1820473 255 0 255
-0.0795894 -0.08132416 0.1830974 255 0 255
-0.07840779 -0.08142845 0.1832958 255 0 255
-0.0777664 -0.08301622 0.1860396 255 0 255
-0.07674792 -0.08361211 0.1870824 255 0 255
-0.07606605 -0.08519803 0.1898245 255 0 255
-0.07519131 -0.08628693 0.1917146 255 0 255
-0.07446506 -0.08787104 0.1944551 255 0 255
-0.0735537 -0.08895739 0.1963423 255 0 255
-0.0729401 -0.09103664 0.1999344 255 0 255
-0.07198823 -0.09212049 0.2018189 255 0 255
-0.07206483 -0.09668674 0.2096822 255 0 255
-0.07105295 -0.09776913 0.2115661 255 0 255
-0.05963152 -0.09436601 0.2059419 255 0 255
-0.05779554 -0.09192663 0.2017794 255 0 255
-0.0570606 -0.09448379 0.206203 255 0 255
-0.05587664 -0.09503882 0.207187 255 0 255
-0.05458588 -0.095091 0.2073072 255 0 255
-0.05338911 -0.09564103 0.2082837 255 0 255
-0.05218398 -0.09618857 0.2092566 255 0 255
-0.0508839 -0.09623277 0.2093647 255 0 255
-0.04950066 -0.09577323 0.2086069 255 0 255
-0.04828238 -0.09631286 0.2095678 255 0 255
-0.04683134 -0.09534632 0.2079387 255 0 255
-0.04553741 -0.09537923 0.2080289 255 0 255
-0.0442431 -0.09540938 0.2081148 255 0 255
-0.04288542 -0.09493528 0.2073336 255 0 255
-0.04159436 -0.09495986 0.2074107 255 0 255
-0.04035815 -0.09548329 0.2083468 255 0 255
-0.03911375 -0.09600407 0.209279 255 0 255
-0.03786119 -0.09652222 0.2102073 255 0 255
-0.03664384 -0.09753945 0.2119956 255 0 255
-0.0353711 -0.09805222 0.2129161 255 0 255
-0.03405478 -0.09806041 0.2129684 255 0 255
-0.03276979 -0.09856765 0.2138806 255 0 255
-0.03144915 -0.09857027 0.2139243 255 0 255
-0.03003386 -0.09656265 0.2105049 255 0 255
-0.02857121 -0.09254493 0.2036215 255 0 255
-0.1294432 -0.08679335 0.1895183 255 0 255
-0.1331048 -0.09420744 0.2021023 255 0 255
-0.1327952 -0.09586767 0.2049266 255 0 255
-0.1318261 -0.09656595 0.2061195 255 0 255
-0.129592 -0.09533418 0.2040385 255 0 255
-0.1270685 -0.0936132 0.2011279 255 0 255
-0.1242671 -0.09140127 0.1973846 255 0 255
-0.1221071 -0.09014849 0.1952687 255 0 255
-0.1202672 -0.08937397 0.1939646 255 0 255
-0.1181456 -0.08810933 0.1918292 255 0 255
-0.116628 -0.08780995 0.1913319 255 0 255
-0.1148291 -0.08702053 0.1900034 255 0 255
-0.1133276 -0.08671308 0.189493 255 0 255
-0.1115523 -0.08591452 0.1881495 255 0 255
-0.110067 -0.08559906 0.1876262 255 0 255
-0.1083156 -0.08479152 0.1862681 255 0 255
-0.1063094 -0.08349032 0.1840723 255 0 255
-0.1048545 -0.08316237 0.1835287 255 0 255
-0.1028837 -0.08185091 0.1813158 255 0 255
-0.1011919 -0.08102436 0.1799263 255 0 255
-0.09976759 -0.08068424 0.1793628 255 0 255
-0.09810011 -0.07984921 0.1779594 255 0 255
-0.09669255 -0.0795017 0.1773839 255 0 255
-0.09529153 -0.07915074 0.1768028 255 0 255
-0.0941352 -0.07928922 0.1770531 255 0 255
-0.09297778 -0.07942518 0.1772996 255 0 255
-0.09204977 -0.08005243 0.1783807 255 0 255
-0.09065973 -0.07968969 0.177781 255 0 255
-0.08949912 -0.07981821 0.1780159 255 0 255
-0.08811855 -0.07944922 0.1774062 255 0 255
-0.08695979 -0.07957232 0.1776327 255 0 255
-0.08558877 -0.07919716 0.177013 255 0 255
-0.08463928 -0.0798111 0.1780741 255 0 255
-0.08347759 -0.07992674 0.178289 255 0 255
-0.08251464 -0.08053688 0.1793446 255 0 255
-0.08154302 -0.08114523 0.1803976 255 0 255
-0.08056279 -0.08175182 0.1814482 255 0 255
-0.0795739 -0.0823566 0.1824962 255 0 255
-0.07857641 -0.08295953 0.1835416 255 0 255
-0.07775059 -0.08405936 0.1854322 255 0 255
-0.0769084 -0.0851579 0.1873212 255 0 255
-0.07604983 -0.08625518 0.1892088 255 0 255
-0.07517492 -0.08735111 0.1910948 255 0 255
-0.07444841 -0.08894564 0.1938293 255 0 255
-0.07353687 -0.09003903 0.1957124 255 0 255
-0.07307997 -0.09263259 0.2001477 255 0 255
-0.07212403 -0.09372376 0.2020287 255 0 255
-0.07219614 -0.09832103 0.2098746 255 0 255
-0.07132547 -0.09991207 0.212608 255 0 255
-0.07071346 -0.1025051 0.217047 255 0 255
-0.06868666 -0.100079 0.212947 255 0 255
-0.06696539 -0.09865198 0.2105467 255 0 255
-0.06435908 -0.09370448 0.2021548 255 0 255
-0.05984122 -0.09648692 0.2070059 255 0 255
-0.0582178 -0.09503776 0.2045681 255 0 255
-0.05725444 -0.09660579 0.2072684 255 0 255
-0.0560625 -0.09716473 0.2082511 255 0 255
-0.05476382 -0.0972174 0.208372 255 0 255
-0.0533702 -0.09676332 0.2076301 255 0 255
-0.05216493 -0.0973144 0.2086008 255 0 255
-0.05077818 -0.0968545 0.2078496 255 0 255
-0.04948149 -0.09689593 0.2079529 255 0 255
-0.04818435 -0.09693461 0.2080519 255 0 255
-0.04681205 -0.09646589 0.2072866 255 0 255
-0.04551801 -0.09649889 0.2073767 255 0 255
-0.04415673 -0.09602437 0.2066019 255 0 255
-0.04286592 -0.09605181 0.2066832 255 0 255
-0.04157476 -0.09607648 0.2067602 255 0 255
-0.04033841 -0.09660339 0.2076942 255 0 255
-0.03909386 -0.0971277 0.2086245 255 0 255
-0.03784116 -0.09764932 0.2095507 255 0 255
-0.03662361 -0.09867341 0.211335 255 0 255
-0.03539004 -0.09969492 0.2131156 255 0 255
-0.03406971 -0.09970322 0.213168 255 0 255
-0.03281207 -0.1007192 0.2149407 255 0 255
-0.03148347 -0.1007219 0.2149846 255 0 255
-0.03010756 -0.0997112 0.2132987 255 0 255
-0.1324399 -0.09437788 0.199809 255 0 255
-0.1334233 -0.09798412 0.20588 255 0 255
-0.1321289 -0.09820265 0.206258 255 0 255
-0.1298911 -0.09696196 0.2041837 255 0 255
-0.1270538 -0.09474265 0.2004647 255 0 255
-0.1245589 -0.0930011 0.1975489 255 0 255
-0.1220925 -0.09125209 0.1946206 255 0 255
-0.1202526 -0.0904713 0.1933202 255 0 255
-0.1184262 -0.08968552 0.1920115 255 0 255
-0.1166135 -0.08889475 0.1906948 255 0 255
-0.1148145 -0.08809907 0.18937 255 0 255
-0.1130292 -0.08729848 0.1880371 255 0 255
-0.1112577 -0.08649307 0.1866964 255 0 255
-0.1097762 -0.08617413 0.1861739 255 0 255
-0.1080286 -0.08535971 0.1848185 255 0 255
-0.1065635 -0.08503293 0.1842833 255 0 255
-0.1048399 -0.08420968 0.1829135 255 0 255
-0.1031302 -0.08338185 0.1815361 255 0 255
-0.1014346 -0.08254942 0.1801512 255 0 255
-0.09975308 -0.08171246 0.1787588 255 0 255
-0.09833519 -0.08136586 0.1781915 255 0 255
-0.09692378 -0.08101578 0.1776185 255 0 255
-0.0955189 -0.08066226 0.1770401 255 0 255
-0.09435865 -0.08080154 0.1772911 255 0 255
-0.09319732 -0.08093828 0.1775381 255 0 255
-0.09203491 -0.08107252 0.1777814 255 0 255
-0.09064486 -0.08070672 0.1771834 255 0 255
-0.08948419 -0.08083555 0.1774182 255 0 255
-0.08810358 -0.08046349 0.1768102 255 0 255
-0.08694474 -0.0805869 0.1770365 255 0 255
-0.08557369 -0.08020864 0.1764186 255 0 255
-0.0846241 -0.08082625 0.1774776 255 0 255
-0.0836658 -0.08144215 0.1785341 255 0 255
-0.08269887 -0.08205632 0.1795883 255 0 255
-0.08172328 -0.08266867 0.1806398 255 0 255
-0.08093091 -0.08378034 0.1825328 255 0 255
-0.07993416 -0.08438949 0.18358 255 0 255
-0.07892877 -0.08499672 0.1846245 255 0 255
-0.07809502 -0.08610421 0.1865122 255 0 255
-0.0770685 -0.08670799 0.187552 255 0 255
-0.07620589 -0.0878126 0.189436 255 0 255
-0.0753269 -0.08891585 0.1913185 255 0 255
-0.074761 -0.09102444 0.1948957 255 0 255
-0.07368065 -0.09162173 0.195927 255 0 255
-0.0732195 -0.09423276 0.2003528 255 0 255
-0.07256559 -0.09633964 0.20393 255 0 255
-0.07232711 -0.09995945 0.2100586 255 0 255
-0.07116183 -0.1005516 0.2110845 255 0 255
-0.07055333 -0.1031615 0.2155129 255 0 255
-0.06921782 -0.1032447 0.215682 255 0 255
-0.06788161 -0.1033252 0.2158468 255 0 255
-0.0666743 -0.1039084 0.2168601 255 0 255
-0.06533276 -0.1039833 0.2170164 255 0 255
-0.06277254 -0.09899391 0.2086302 255 0 255
-0.06111517 -0.097542 0.2062107 255 0 255
-0.05959465 -0.09659269 0.2046389 255 0 255
-0.0583093 -0.09665333 0.2047715 255 0 255
-0.05712951 -0.09721804 0.2057551 255 0 255
-0.05594135 -0.09778038 0.2067353 255 0 255
-0.05464651 -0.09783304 0.2068557 255 0 255
-0.05325678 -0.09737559 0.2061153 255 0 255
-0.0520553 -0.09793008 0.2070837 255 0 255
-0.05067247 -0.09746678 0.206334 255 0 255
-0.04929704 -0.09700044 0.2055794 255 0 255
-0.04808634 -0.09754691 0.2065356 255 0 255
-0.04679263 -0.09758283 0.20663 255 0 255
-0.04542776 -0.09710788 0.2058617 255 0 255
-0.04413724 -0.09713818 0.2059472 255 0 255
-0.04290924 -0.09767397 0.2068873 255 0 255
-0.04155512 -0.09719047 0.2061054 255 0 255
-0.04037363 -0.09822933 0.2078967 255 0 255
-0.03912501 -0.09875715 0.2088251 255 0 255
-0.03791539 -0.09979083 0.2106092 255 0 255
-0.03668974 -0.1008219 0.2123898 255 0 255
-0.03544808 -0.1018503 0.2141667 255 0 255
-0.03411978 -0.1018587 0.2142193 255 0 255
-0.03282267 -0.102373 0.215128 255 0 255
-0.03151748 -0.1028844 0.2160324 255 0 255
-0.136943 -0.104499 0.2141274 255 0 255
-0.1343368 -0.1027723 0.2112654 255 0 255
-0.1311312 -0.1000601 0.2067624 255 0 255
-0.1279689 -0.09733761 0.2022422 255 0 255
-0.1251565 -0.09509503 0.1985211 255 0 255
-0.1223801 -0.09284368 0.1947854 255 0 255
-0.1205364 -0.09205725 0.1934896 255 0 255
-0.1187062 -0.09126578 0.1921857 255 0 255
-0.1171811 -0.09096169 0.1916938 255 0 255
-0.115087 -0.08966795 0.1895535 255 0 255
-0.113298 -0.08886166 0.1882253 255 0 255
-0.1118027 -0.08854456 0.1877124 255 0 255
-0.1100374 -0.08772914 0.1863694 255 0 255
-0.108286 -0.08690898 0.1850188 255 0 255
-0.1068171 -0.08657972 0.1844862 255 0 255
-0.1050897 -0.08575068 0.1831211 255 0 255
-0.1033763 -0.084917 0.1817483 255 0 255
-0.1016769 -0.08407871 0.180368 255 0 255
-0.1002449 -0.08373361 0.1798098 255 0 255
-0.09856979 -0.0828868 0.1784156 255 0 255
-0.09715457 -0.08253418 0.1778453 255 0 255
-0.09574582 -0.0821781 0.1772695 255 0 255
-0.09458169 -0.08231813 0.177521 255 0 255
-0.09341646 -0.08245567 0.1777688 255 0 255
-0.09201977 -0.08209021 0.177178 255 0 255
-0.09062967 -0.08172138 0.1765819 255 0 255
-0.08946892 -0.08185049 0.1768164 255 0 255
-0.08830716 -0.08197711 0.1770472 255 0 255
-0.0871444 -0.08210123 0.177274 255 0 255
-0.08576946 -0.08172028 0.1766587 255 0 255
-0.08481588 -0.08234194 0.1777162 255 0 255
-0.08385364 -0.08296187 0.1787713 255 0 255
-0.0828827 -0.08358005 0.1798239 255 0 255
-0.08190314 -0.08419646 0.1808741 255 0 255
-0.08091488 -0.08481101 0.1819216 255 0 255
-0.08010597 -0.08592859 0.1838092 255 0 255
-0.07909657 -0.08653981 0.1848522 255 0 255
-0.07807858 -0.08714914 0.1858926 255 0 255
-0.07705194 -0.08775656 0.1869302 255 0 255
-0.07636159 -0.08937429 0.1896552 255 0 255
-0.07547852 -0.09048484 0.1915341 255 0 255
-0.07490844 -0.09260743 0.1951036 255 0 255
-0.07430643 -0.09472977 0.1986738 255 0 255
-0.07398622 -0.09786637 0.203939 255 0 255
-0.07331254 -0.09998837 0.2075108 255 0 255
-0.07275595 -0.1026176 0.211931 255 0 255
-0.0715788 -0.1032142 0.2129563 255 0 255
-0.07039309 -0.1038084 0.2139782 255 0 255
-0.06919882 -0.1044003 0.2149968 255 0 255
-0.06772903 -0.103972 0.2143109 255 0 255
-0.06626635 -0.1035405 0.2136198 255 0 255
-0.06518779 -0.1046336 0.2154773 255 0 255
-0.06144991 -0.1001872 0.2081055 255 0 255
-0.05980376 -0.09872194 0.2056863 255 0 255
-0.05851052 -0.0987831 0.2058194 255 0 255
-0.05700453 -0.09782091 0.2042415 255 0 255
-0.05592231 -0.09889708 0.206073 255 0 255
-0.05452916 -0.0984393 0.2053391 255 0 255
-0.05333196 -0.09899996 0.2063093 255 0 255
-0.05194565 -0.09853631 0.2055662 255 0 255
-0.0506532 -0.09858068 0.2056733 255 0 255
-0.04927775 -0.09811112 0.2049207 255 0 255
-0.04806691 -0.09866109 0.2058748 255 0 255
-0.04677312 -0.09869713 0.205969 255 0 255
-0.04540824 -0.09821889 0.2052026 255 0 255
-0.04418442 -0.0987609 0.2061447 255 0 255
-0.04288953 -0.09878863 0.2062261 255 0 255
-0.04159427 -0.09881356 0.2063032 255 0 255
-0.0403537 -0.09934757 0.2072334 255 0 255
-0.03915596 -0.1003907 0.2090172 255 0 255
-0.03789511 -0.1009194 0.2099398 255 0 255
-0.03666928 -0.1019574 0.2117163 255 0 255
-0.03542743 -0.1029926 0.2134891 255 0 255
-0.03413432 -0.1035131 0.2143999 255 0 255
-0.03283313 -0.1040308 0.2153067 255 0 255
-0.1434616 -0.1132988 0.2259643 255 0 255
-0.1346381 -0.1044367 0.211375 255 0 255
-0.1314289 -0.1017057 0.2068847 255 0 255
-0.1282631 -0.09896439 0.2023772 255 0 255
-0.125447 -0.09670622 0.1986668 255 0 255
-0.1226671 -0.09443927 0.1949418 255 0 255
-0.1211184 -0.09414177 0.194467 255 0 255
-0.1192808 -0.09334525 0.1931688 255 0 255
-0.1177481 -0.09303939 0.1926806 255 0 255
-0.1156465 -0.09173719 0.190548 255 0 255
-0.1138499 -0.09092576 0.1892255 255 0 255
-0.1120671 -0.09010945 0.1878952 255 0 255
-0.1100219 -0.08879036 0.1857348 255 0 255
-0.1085429 -0.08846237 0.1852109 255 0 255
-0.1068017 -0.08763169 0.1838571 255 0 255
-0.105339 -0.08729584 0.1833205 255 0 255
-0.1036218 -0.08645635 0.1819524 255 0 255
-0.1019186 -0.08561225 0.1805768 255 0 255
-0.1004828 -0.08526464 0.1800213 255 0 255
-0.09905342 -0.08491347 0.1794601 255 0 255
-0.09738484 -0.0840568 0.178064 255 0 255
-0.09573047 -0.08319572 0.1766607 255 0 255
-0.09456626 -0.08333611 0.1769121 255 0 255
-0.09340096 -0.08347395 0.1771596 255 0 255
-0.09223458 -0.08360927 0.1774032 255 0 255
-0.09084065 -0.08323783 0.1768097 255 0 255
-0.089676 -0.08336772 0.1770449 255 0 255
-0.08851032 -0.08349504 0.1772761 255 0 255
-0.08712869 -0.08311436 0.1766679 255 0 255
-0.08596483 -0.08323623 0.1768908 255 0 255
-0.0850073 -0.08386194 0.1779468 255 0 255
-0.08383768 -0.0839792 0.1781627 255 0 255
-0.08286663 -0.08460099 0.1792131 255 0 255
-0.08188693 -0.08522102 0.1802611 255 0 255
-0.08109037 -0.08634707 0.1821464 255 0 255
-0.08008949 -0.08696377 0.1831898 255 0 255
-0.07926401 -0.08808716 0.1850718 255 0 255
-0.07824201 -0.08870042 0.1861106 255 0 255
-0.07738765 -0.08982095 0.1879891 255 0 255
-0.07651692 -0.09094015 0.1898661 255 0 255
-0.07562978 -0.092058 0.1917414 255 0 255
-0.07505553 -0.09419466 0.1953034 255 0 255
-0.07444934 -0.09633098 0.1988659 255 0 255
-0.07396803 -0.09897759 0.2032741 255 0 255
-0.07329401 -0.1011133 0.2068377 255 0 255
-0.07258804 -0.1032484 0.2104012 255 0 255
-0.07126955 -0.1033368 0.2105769 255 0 255
-0.0700915 -0.1039341 0.2115956 255 0 255
-0.06890491 -0.1045291 0.212611 255 0 255
-0.06770977 -0.1051217 0.2136229 255 0 255
-0.06624711 -0.104687 0.2129337 255 0 255
-0.06491712 -0.1047616 0.2130884 255 0 255
-0.06322145 -0.1032947 0.2106894 255 0 255
-0.06131306 -0.1007975 0.206583 255 0 255
-0.05967093 -0.09932216 0.2041692 255 0 255
-0.05849146 -0.09989677 0.205153 255 0 255
-0.05709156 -0.09944168 0.2044303 255 0 255
-0.05590311 -0.1000111 0.2054063 255 0 255
-0.05460814 -0.1000641 0.2055265 255 0 255
-0.05321839 -0.09960016 0.2047899 255 0 255
-0.05192633 -0.09964743 0.2049012 255 0 255
-0.05063378 -0.09969194 0.2050083 255 0 255
-0.04925834 -0.09921914 0.2042576 255 0 255
-0.04796885 -0.09925798 0.2043557 255 0 255
-0.04675352 -0.09980877 0.2053037 255 0 255
-0.04545928 -0.09984217 0.2053936 255 0 255
-0.0442314 -0.1003877 0.2063339 255 0 255
-0.0429325 -0.1004157 0.2064155 255 0 255
-0.04163326 -0.1004408 0.2064928 255 0 255
-0.0403886 -0.1009783 0.207421 255 0 255
-0.03913577 -0.1015131 0.2083454 255 0 255
-0.03787479 -0.1020453 0.2092659 255 0 255
-0.03664875 -0.1030901 0.2110383 255 0 255
-0.03540672 -0.1041322 0.2128071 255 0 255
-0.03404307 -0.1036254 0.2120034 255 0 255
-0.03271835 -0.103631 0.2120514 255 0 255
-0.146369 -0.1189759 0.2324796 255 0 255
-0.1352563 -0.1065998 0.212285 255 0 255
-0.131726 -0.1033552 0.2069985 255 0 255
-0.1285567 -0.1005951 0.2025038 255 0 255
-0.1257371 -0.09832137 0.1988042 255 0 255
-0.1229535 -0.09603885 0.1950899 255 0 255
-0.1211023 -0.09524121 0.1938037 255 0 255
-0.1198547 -0.09543537 0.1941396 255 0 255
-0.1180232 -0.09462876 0.192839 255 0 255
-0.1162053 -0.09381716 0.1915303 255 0 255
-0.1144012 -0.09300059 0.1902135 255 0 255
-0.1126109 -0.09217913 0.1888888 255 0 255
-0.1102822 -0.0903503 0.1859161 255 0 255
-0.108527 -0.08951807 0.1845738 255 0 255
-0.1067857 -0.08868112 0.1832238 255 0 255
-0.1053232 -0.08834231 0.182689 255 0 255
-0.103606 -0.08749655 0.1813248 255 0 255
-0.1019029 -0.08664612 0.1799529 255 0 255
-0.1007203 -0.08679985 0.1802247 255 0 255
-0.09928706 -0.08644617 0.1796662 255 0 255
-0.09786031 -0.08608899 0.179102 255 0 255
-0.09619831 -0.0852225 0.1777042 255 0 255
-0.09502639 -0.08536414 0.177957 255 0 255
-0.09361926 -0.08499651 0.1773762 255 0 255
-0.09221869 -0.08462544 0.17679 255 0 255
-0.0910512 -0.08475854 0.1770295 255 0 255
-0.09010525 -0.08539715 0.1780973 255 0 255
-0.08871306 -0.08501719 0.1774971 255 0 255
-0.08754246 -0.08514271 0.1777251 255 0 255
-0.0861598 -0.08475649 0.1771149 255 0 255
-0.0849911 -0.08487652 0.1773344 255 0 255
-0.08402477 -0.0855041 0.1783858 255 0 255
-0.08304974 -0.08612992 0.1794348 255 0 255
-0.08206604 -0.08675394 0.1804812 255 0 255
-0.08107372 -0.08737615 0.1815251 255 0 255
-0.08007274 -0.08799648 0.1825664 255 0 255
-0.07924709 -0.08912679 0.1844442 255 0 255
-0.07804486 -0.0892315 0.184641 255 0 255
-0.07737043 -0.09087119 0.1873551 255 0 255
-0.07649954 -0.09199736 0.1892278 255 0 255
-0.07578069 -0.09363531 0.1919405 255 0 255
-0.07520228 -0.09578593 0.1954949 255 0 255
-0.07475257 -0.09844999 0.1998924 255 0 255
-0.07394958 -0.1000861 0.2026048 255 0 255
-0.0731224 -0.1017212 0.2053163 255 0 255
-0.07227106 -0.1033551 0.2080267 255 0 255
-0.07110535 -0.1039581 0.209046 255 0 255
-0.06978995 -0.1040436 0.2092167 255 0 255
-0.06861103 -0.1046417 0.2102289 255 0 255
-0.06742357 -0.1052374 0.2112377 255 0 255
-0.06583925 -0.1042832 0.2097026 255 0 255
-0.06452097 -0.1043574 0.2098558 255 0 255
-0.06283712 -0.1028799 0.2074614 255 0 255
-0.06105844 -0.100882 0.2042119 255 0 255
-0.05965184 -0.1004296 0.2035005 255 0 255
-0.05847226 -0.1010078 0.2044821 255 0 255
-0.05696638 -0.1000325 0.202912 255 0 255
-0.0558838 -0.1011225 0.2047352 255 0 255
-0.05458874 -0.1011756 0.2048554 255 0 255
-0.05319899 -0.1007084 0.2041207 255 0 255
-0.05181662 -0.1002382 0.2033811 255 0 255
-0.05061425 -0.1008005 0.2043389 255 0 255
-0.04923881 -0.1003245 0.2035901 255 0 255
-0.04794925 -0.1003634 0.2036882 255 0 255
-0.04673382 -0.1009178 0.2046341 255 0 255
-0.04551012 -0.1014695 0.2055762 255 0 255
-0.0442115 -0.1015003 0.2056621 255 0 255
-0.04297527 -0.1020468 0.2065964 255 0 255
-0.04167203 -0.1020721 0.2066738 255 0 255
-0.0404233 -0.1026131 0.2076002 255 0 255
-0.03916642 -0.1031515 0.2085228 255 0 255
-0.03790138 -0.1036872 0.2094413 255 0 255
-0.03662818 -0.1042201 0.210356 255 0 255
-0.03542505 -0.1057878 0.2129746 255 0 255
-0.03405744 -0.1052777 0.2121731 255 0 255
-0.03275993 -0.1058022 0.2130755 255 0 255
-0.03139984 -0.1052864 0.2122648 255 0 255
-0.1368261 -0.1102675 0.215603 255 0 255
-0.1320225 -0.1050085 0.2071038 255 0 255
-0.1288496 -0.1022296 0.2026219 255 0 255
-0.1263326 -0.1004404 0.1997432 255 0 255
-0.1235418 -0.09814297 0.1960408 255 0 255
-0.1213844 -0.09683911 0.1939482 255 0 255
-0.1201329 -0.09703428 0.1942848 255 0 255
-0.1180065 -0.09571974 0.1921748 255 0 255
-0.1164761 -0.0954048 0.1916851 255 0 255
-0.1143847 -0.0940791 0.1895569 255 0 255
-0.1125944 -0.09325143 0.188236 255 0 255
-0.1102658 -0.0914097 0.1852711 255 0 255
-0.1085107 -0.09057123 0.1839326 255 0 255
-0.1067695 -0.08972802 0.1825865 255 0 255
-0.1055715 -0.0898924 0.1828743 255 0 255
-0.1041114 -0.08954751 0.1823364 255 0 255
-0.1026577 -0.08919903 0.1817928 255 0 255
-0.1012104 -0.08884691 0.1812435 255 0 255
-0.100019 -0.08899942 0.1815129 255 0 255
-0.09833521 -0.08813202 0.1801279 255 0 255
-0.09690734 -0.08776926 0.1795616 255 0 255
-0.09548598 -0.08740301 0.1789898 255 0 255
-0.09407115 -0.08703329 0.1784125 255 0 255
-0.09266293 -0.08666007 0.1778296 255 0 255
-0.0914877 -0.08679438 0.1780706 255 0 255
-0.0903114 -0.08692615 0.1783077 255 0 255
-0.08891537 -0.08654358 0.1777101 255 0 255
-0.0877409 -0.08666983 0.1779386 255 0 255
-0.08635438 -0.08628088 0.1773309 255 0 255
-0.08518174 -0.08640163 0.177551 255 0 255
-0.08400816 -0.08651984 0.1777672 255 0 255
-0.08303304 -0.08714928 0.1788139 255 0 255
-0.08204924 -0.08777691 0.1798582 255 0 255
-0.08105681 -0.08840273 0.1808999 255 0 255
-0.08024351 -0.0895415 0.1827753 255 0 255
-0.07922989 -0.09016395 0.1838125 255 0 255
-0.07820767 -0.09078446 0.1848469 255 0 255
-0.07735296 -0.09191889 0.1867169 255 0 255
-0.07665418 -0.09356821 0.1894244 255 0 255
-0.07559444 -0.09418374 0.1904523 255 0 255
-0.07485511 -0.09583088 0.1931576 255 0 255
-0.07441287 -0.09851134 0.1975437 255 0 255
-0.07346071 -0.09963977 0.1994074 255 0 255
-0.07279783 -0.101802 0.2029527 255 0 255
-0.07195405 -0.1034456 0.2056558 255 0 255
-0.07094108 -0.1045699 0.2075148 255 0 255
-0.0696295 -0.1046554 0.2076848 255 0 255
-0.06859159 -0.1057755 0.2095382 255 0 255
-0.06727072 -0.1058558 0.2097005 255 0 255
-0.06569036 -0.1048949 0.2081688 255 0 255
-0.06450142 -0.1054885 0.2091667 255 0 255
-0.06293927 -0.1045208 0.2076241 255 0 255
-0.06127448 -0.1030296 0.2052292 255 0 255
-0.05974632 -0.1020544 0.203674 255 0 255
-0.0585627 -0.1026363 0.2046538 255 0 255
-0.05705298 -0.1016546 0.2030881 255 0 255
-0.05586429 -0.1022311 0.2040598 255 0 255
-0.05447115 -0.1017637 0.2033317 255 0 255
-0.05317945 -0.1018141 0.2034471 255 0 255
-0.05179708 -0.1013406 0.2027095 255 0 255
-0.05050835 -0.1013853 0.202816 255 0 255
-0.04913683 -0.1009059 0.2020689 255 0 255
-0.04792956 -0.1014662 0.2030163 255 0 255
-0.04663954 -0.1015025 0.2031101 255 0 255
-0.04541964 -0.1020577 0.2040498 255 0 255
-0.04419151 -0.1026102 0.2049858 255 0 255
-0.04295517 -0.1031601 0.205918 255 0 255
-0.0417106 -0.1037074 0.2068464 255 0 255
-0.04045783 -0.104252 0.207771 255 0 255
-0.03924773 -0.1053159 0.209543 255 0 255
-0.03797469 -0.1058551 0.2104599 255 0 255
-0.03665053 -0.1058695 0.210521 255 0 255
-0.03544322 -0.1074473 0.2131335 255 0 255
-0.03403659 -0.1064118 0.211482 255 0 255
-0.1445823 -0.1212433 0.2305549 255 0 255
-0.1374426 -0.1124612 0.2164815 255 0 255
-0.1323183 -0.1066655 0.2072005 255 0 255
-0.1291419 -0.1038679 0.2027315 255 0 255
-0.1263152 -0.1015633 0.1990536 255 0 255
-0.1238269 -0.09975368 0.1961701 255 0 255
-0.1216659 -0.09844097 0.1940844 255 0 255
-0.1204106 -0.09863717 0.1944217 255 0 255
-0.1185717 -0.09781933 0.1931307 255 0 255
-0.1167464 -0.09699644 0.1918315 255 0 255
-0.1149348 -0.09616857 0.1905243 255 0 255
-0.1128572 -0.0948284 0.1883941 255 0 255
-0.110525 -0.09297438 0.185438 255 0 255
-0.108494 -0.0916218 0.1832873 255 0 255
-0.1067529 -0.09077233 0.181945 255 0 255
-0.1052902 -0.09042761 0.1814138 255 0 255
-0.1040947 -0.09058923 0.1816965 255 0 255
-0.102641 -0.09023778 0.1811547 255 0 255
-0.1014469 -0.09039371 0.1814286 255 0 255
-0.1002515 -0.09054705 0.1816987 255 0 255
-0.098564 -0.08967381 0.1803184 255 0 255
-0.09713232 -0.08930858 0.1797548 255 0 255
-0.09570713 -0.08893977 0.1791856 255 0 255
-0.0942885 -0.0885675 0.1786109 255 0 255
-0.09287643 -0.08819174 0.1780307 255 0 255
-0.091471 -0.08781254 0.177445 255 0 255
-0.09029463 -0.0879446 0.1776819 255 0 255
-0.08911727 -0.08807411 0.1779149 255 0 255
-0.08793888 -0.08820105 0.178144 255 0 255
-0.08675946 -0.08832545 0.1783692 255 0 255
-0.08537202 -0.08793096 0.1777596 255 0 255
-0.08419451 -0.08804984 0.1779763 255 0 255
-0.08301605 -0.08816614 0.1781891 255 0 255
-0.08183667 -0.0882799 0.178398 255 0 255
-0.08084799 -0.08890896 0.1794368 255 0 255
-0.08003841 -0.09005434 0.1813074 255 0 255
-0.07921245 -0.09119853 0.1831767 255 0 255
-0.07819011 -0.09182264 0.1842089 255 0 255
-0.07751136 -0.09348324 0.186911 255 0 255
-0.07663625 -0.09462362 0.1887758 255 0 255
-0.07574473 -0.09576257 0.190639 255 0 255
-0.07483685 -0.09690009 0.1925005 255 0 255
-0.0742337 -0.09907708 0.1960375 255 0 255
-0.07328527 -0.1002122 0.1978964 255 0 255
-0.07247325 -0.1018667 0.200593 255 0 255
-0.07163706 -0.10352 0.2032887 255 0 255
-0.07048672 -0.1041291 0.2043016 255 0 255
-0.0693279 -0.1047359 0.2053113 255 0 255
-0.06816047 -0.1053403 0.2063176 255 0 255
-0.06685127 -0.1054201 0.2064784 255 0 255
-0.06528269 -0.1044521 0.2049492 255 0 255
-0.06423081 -0.1055713 0.2067869 255 0 255
-0.06267658 -0.1045967 0.2052473 255 0 255
-0.06125493 -0.1041415 0.2045458 255 0 255
-0.0598405 -0.1036832 0.2038391 255 0 255
-0.05865287 -0.1042688 0.2048171 255 0 255
-0.05703345 -0.102757 0.2024105 255 0 255
-0.05584468 -0.103337 0.20338 255 0 255
-0.05454951 -0.1033905 0.2035 255 0 255
-0.05315977 -0.1029169 0.2027692 255 0 255
-0.05177741 -0.1024403 0.2020336 255 0 255
-0.05057483 -0.1030096 0.202987 255 0 255
-0.04919941 -0.1025271 0.2022422 255 0 255
-0.04790976 -0.1025663 0.2023401 255 0 255
-0.04654526 -0.1020779 0.2015858 255 0 255
-0.0453292 -0.1026364 0.2025232 255 0 255
-0.0441049 -0.1031923 0.2034568 255 0 255
-0.04293498 -0.1042707 0.2052353 255 0 255
-0.0416903 -0.1048215 0.2061616 255 0 255
-0.04049214 -0.1058948 0.2079332 255 0 255
-0.03922716 -0.1064402 0.2088519 255 0 255
-0.037954 -0.1069829 0.2097666 255 0 255
-0.0366727 -0.1075228 0.2106774 255 0 255
-0.03542225 -0.1085854 0.212434 255 0 255
-0.03398067 -0.1070177 0.2099365 255 0 255
-0.03268688 -0.1075491 0.2108346 255 0 255
-0.03103225 -0.1012458 0.200674 255 0 255
-0.1407088 -0.1164477 0.2201575 255 0 255
-0.1348846 -0.109618 0.2093189 255 0 255
-0.1316726 -0.1068103 0.2048768 255 0 255
-0.1291238 -0.105004 0.2020276 255 0 255
-0.1266034 -0.10319 0.1991656 255 0 255
-0.1238092 -0.1008611 0.195484 255 0 255
-0.1219468 -0.1000467 0.1942122 255 0 255
-0.1203929 -0.09973555 0.1937412 255 0 255
-0.118554 -0.09891154 0.1924539 255 0 255
-0.1167288 -0.09808245 0.1911586 255 0 255
-0.1149173 -0.0972484 0.1898552 255 0 255
-0.1128398 -0.09589873 0.1877308 255 0 255
-0.1105078 -0.09403188 0.1847827 255 0 255
-0.1084769 -0.09266973 0.1826379 255 0 255
-0.1067358 -0.09181403 0.1812994 255 0 255
-0.1055377 -0.09197915 0.1815867 255 0 255
-0.1040776 -0.0916284 0.1810525 255 0 255
-0.1028809 -0.09178781 0.1813311 255 0 255
-0.1016828 -0.09194456 0.1816056 255 0 255
-0.1002344 -0.09158394 0.181056 255 0 255
-0.0987924 -0.09121974 0.1805008 255 0 255
-0.09735686 -0.09085193 0.1799398 255 0 255
-0.09592786 -0.09048064 0.1793733 255 0 255
-0.09450538 -0.09010582 0.1788013 255 0 255
-0.09308951 -0.08972753 0.1782237 255 0 255
-0.09168022 -0.08934575 0.1776407 255 0 255
-0.0905 -0.08947856 0.1778781 255 0 255
-0.08931874 -0.08960881 0.1781117 255 0 255
-0.08792171 -0.08921761 0.1775139 255 0 255
-0.08674226 -0.08934228 0.1777389 255 0 255
-0.08556184 -0.08946439 0.17796 255 0 255
-0.08417727 -0.08906389 0.1773476 255 0 255
-0.08299879 -0.08918049 0.1775603 255 0 255
-0.08181937 -0.08929454 0.1777691 255 0 255
-0.08083059 -0.08992715 0.1788056 255 0 255
-0.08002084 -0.09107948 0.1806719 255 0 255
-0.07919475 -0.09223059 0.1825369 255 0 255
-0.07817228 -0.09285826 0.1835668 255 0 255
-0.07749333 -0.09452911 0.1862626 255 0 255
-0.07679023 -0.09619924 0.188958 255 0 255
-0.07589467 -0.09734544 0.1908175 255 0 255
-0.07498274 -0.0984902 0.1926752 255 0 255
-0.07405442 -0.09963348 0.1945312 255 0 255
-0.07295313 -0.1002511 0.1955481 255 0 255
-0.07214867 -0.1019153 0.1982373 255 0 255
-0.07117125 -0.1030537 0.2000873 255 0 255
-0.07017745 -0.1041904 0.2019352 255 0 255
-0.06916729 -0.1053254 0.2037809 255 0 255
-0.06800368 -0.1059332 0.2047846 255 0 255
-0.06683153 -0.1065386 0.2057849 255 0 255
-0.06526304 -0.105564 0.2042597 255 0 255
-0.06408562 -0.106164 0.2052519 255 0 255
-0.06253537 -0.1051827 0.203716 255 0 255
-0.06100011 -0.1041977 0.202174 255 0 255
-0.05970718 -0.1042625 0.2023109 255 0 255
-0.05852336 -0.1048515 0.2032863 255 0 255
-0.05701376 -0.1038567 0.2017286 255 0 255
-0.05582488 -0.1044403 0.202696 255 0 255
-0.05452967 -0.1044939 0.2028158 255 0 255
-0.05313996 -0.1040171 0.202087 255 0 255
-0.0518477 -0.104065 0.202198 255 0 255
-0.0504688 -0.1035822 0.2014597 255 0 255
-0.04909732 -0.1030964 0.2007165 255 0 255
-0.04781155 -0.1031356 0.200814 255 0 255
-0.04652537 -0.1031721 0.2009073 255 0 255
-0.04537961 -0.1042623 0.2026887 255 0 255
-0.04408481 -0.1042934 0.202774 255 0 255
-0.04291471 -0.1053786 0.2045484 255 0 255
-0.04166992 -0.1059328 0.2054724 255 0 255
-0.04052627 -0.1075416 0.2080869 255 0 255
-0.03925724 -0.1080905 0.2090037 255 0 255
-0.03798004 -0.1086366 0.2099165 255 0 255
-0.03665185 -0.1086512 0.2099776 255 0 255
-0.03536233 -0.1091918 0.2108822 255 0 255
-0.03385492 -0.1065564 0.2066947 255 0 255
-0.03238675 -0.103918 0.2025014 255 0 255
-0.1371572 -0.1120776 0.2106042 255 0 255
-0.1339135 -0.1092593 0.2061882 255 0 255
-0.1310266 -0.106939 0.2025569 255 0 255
-0.1284854 -0.1051189 0.1997134 255 0 255
-0.1265849 -0.1043106 0.1984652 255 0 255
-0.1234886 -0.1014553 0.1939886 255 0 255
-0.1216301 -0.1006341 0.1927195 255 0 255
-0.1203748 -0.1008312 0.1930563 255 0 255
-0.1182449 -0.09948877 0.1909648 255 0 255
-0.1164236 -0.09865297 0.1896724 255 0 255
-0.1148993 -0.09832552 0.1891818 255 0 255
-0.1131016 -0.09748032 0.1878743 255 0 255
-0.1110418 -0.09611572 0.1857471 255 0 255
-0.1090035 -0.09474516 0.1836101 255 0 255
-0.1075232 -0.09439985 0.183091 255 0 255
-0.1060492 -0.09405082 0.1825662 255 0 255
-0.1045815 -0.09369815 0.1820356 255 0 255
