ply
format ascii 1.0
Comment Generated by Floating Hands
element vertex 1129
Comment Left: (0.0, 0.0, 0.0)
Comment Right: (0.1, 0.0, 0.4)
Comment Time: 2023-05-01 09:21:41,165
property double x
property double y
property double z
property uchar red
property uchar green
property uchar blue
end_header
0.02027948 0.07503558 0.4589332 255 0 255
0.02145309 0.07499647 0.4599622 255 0 255
0.04186532 0.07631034 0.4117317 255 0 255
0.07042591 0.07875817 0.3579885 255 0 255
0.07218461 0.07910167 0.3504816 255 0 255
0.07505073 0.07908454 0.3559966 255 0 255
0.07651671 0.07907972 0.358742 255 0 255
0.08011409 0.07915622 0.3630391 255 0 255
0.0839184 0.07936818 0.3641616 255 0 255
0.08634894 0.0794476 0.3666313 255 0 255
0.08693215 0.07953246 0.3654425 255 0 255
0.009008281 0.07373699 0.4664069 255 0 255
0.01127311 0.07425407 0.4485176 255 0 255
0.01398772 0.07445175 0.4406548 255 0 255
0.01842706 0.07431961 0.4428416 255 0 255
0.01953161 0.07427451 0.4438774 255 0 255
0.02295016 0.07423907 0.4439619 255 0 255
0.02405914 0.07416853 0.4459803 255 0 255
0.02630822 0.07396951 0.4520033 255 0 255
0.04286614 0.07465184 0.4316674 255 0 255
0.04061584 0.0765591 0.36973 255 0 255
0.06982679 0.07828674 0.3468715 255 0 255
0.07907481 0.07825086 0.3622384 255 0 255
0.08096218 0.07834797 0.362817 255 0 255
0.08203059 0.07838733 0.3635853 255 0 255
0.08637124 0.07856072 0.3666078 255 0 255
0.007305617 0.07226173 0.4732688 255 0 255
0.01154534 0.07323106 0.4434894 255 0 255
0.01412288 0.07339258 0.437622 255 0 255
0.01528493 0.07340726 0.4366768 255 0 255
0.01747105 0.07333767 0.4377686 255 0 255
0.02191482 0.0732486 0.4389038 255 0 255
0.02525486 0.07315232 0.44096 255 0 255
0.03226011 0.07243885 0.4609459 255 0 255
0.04037258 0.07634585 0.350697 255 0 255
0.06715473 0.0774066 0.345344 255 0 255
0.07006998 0.07729449 0.3519003 255 0 255
0.06963854 0.07751597 0.3458677 255 0 255
0.07040147 0.07756412 0.3457094 255 0 255
0.07421272 0.0775194 0.3520458 255 0 255
0.07566491 0.07749041 0.3547939 255 0 255
0.07713898 0.07746392 0.357534 255 0 255
0.08288199 0.07757851 0.3633524 255 0 255
0.08454229 0.07770798 0.3629306 255 0 255
0.08749565 0.07771786 0.3673234 255 0 255
0.01522446 0.07222306 0.4376326 255 0 255
0.0196921 0.07215776 0.4378027 255 0 255
0.02192697 0.07213318 0.4378622 255 0 255
0.02416238 0.07211403 0.4379047 255 0 255
0.02528021 0.07210648 0.4379195 255 0 255
0.0263904 0.07206152 0.4389294 255 0 255
0.0297675 0.07193465 0.4419333 255 0 255
0.0357812 0.07136305 0.4568421 255 0 255
0.03737656 0.07078856 0.4717958 255 0 255
0.04037288 0.07554137 0.3506676 255 0 255
0.06949277 0.07639419 0.3530085 255 0 255
0.07068218 0.07637633 0.3548096 255 0 255
0.07041629 0.07676892 0.3456815 255 0 255
0.0730127 0.07670839 0.3502373 255 0 255
0.07422921 0.07669734 0.352017 255 0 255
0.07947225 0.07664253 0.360043 255 0 255
0.0815893 0.07670388 0.361588 255 0 255
0.08829606 0.07674189 0.3701888 255 0 255
0.009633132 0.07040495 0.4552972 255 0 255
0.01863195 0.07110731 0.4357225 255 0 255
0.02085217 0.07108018 0.4357902 255 0 255
0.02307296 0.07105845 0.4358408 255 0 255
0.02638942 0.0709505 0.4378832 255 0 255
0.02750796 0.07094567 0.4378895 255 0 255
0.02975271 0.07085452 0.4398876 255 0 255
0.03087906 0.07085375 0.4398811 255 0 255
0.03955917 0.06990591 0.4626809 255 0 255
0.04461649 0.06978861 0.4664684 255 0 255
0.07844198 0.07576166 0.3592299 255 0 255
0.08030943 0.07584685 0.3598137 255 0 255
0.08375376 0.07590061 0.3630794 255 0 255
0.08669259 0.07586879 0.3674823 255 0 255
0.09075552 0.07571816 0.3757095 255 0 255
0.01138133 0.0696196 0.4453397 255 0 255
0.02639638 0.06989444 0.4358339 255 0 255
0.0275038 0.06984296 0.4368392 255 0 255
0.02861895 0.0697928 0.4378402 255 0 255
0.0341954 0.06984247 0.4367881 255 0 255
0.03647953 0.06975984 0.4387342 255 0 255
0.04135094 0.06937908 0.4475624 255 0 255
0.07651425 0.07504635 0.3545152 255 0 255
0.07800083 0.07498702 0.3572483 255 0 255
0.08893583 0.07504716 0.368922 255 0 255
0.009042531 0.06751575 0.4641542 255 0 255
0.02529947 0.06886072 0.4337705 255 0 255
0.03194752 0.0687429 0.4357677 255 0 255
0.03417137 0.06874821 0.4357338 255 0 255
0.040841 0.06879674 0.4355307 255 0 255
0.04325736 0.06969496 0.4184183 255 0 255
0.04140293 0.07294147 0.3545015 255 0 255
0.07198684 0.07448567 0.3452536 255 0 255
0.07882721 0.07420208 0.3570186 255 0 255
0.08010966 0.0741779 0.3587666 255 0 255
0.08116545 0.07419778 0.3595381 255 0 255
0.08329728 0.07424233 0.3610662 255 0 255
0.08462542 0.07422601 0.3627894 255 0 255
0.08816803 0.07427086 0.3659889 255 0 255
0.01071135 0.06666601 0.456185 255 0 255
0.01228187 0.06702003 0.4492712 255 0 255
0.01379868 0.06737655 0.4423502 255 0 255
0.01856051 0.06763 0.4365533 255 0 255
0.02195398 0.06769992 0.4346522 255 0 255
0.02418606 0.06773543 0.433696 255 0 255
0.02749984 0.06771705 0.4337276 255 0 255
0.03525588 0.06766699 0.4346523 255 0 255
0.04088165 0.06760208 0.4364685 255 0 255
0.04337835 0.06950597 0.4023547 255 0 255
0.04245133 0.07120141 0.3714012 255 0 255
0.07052261 0.07334764 0.3496077 255 0 255
0.07486001 0.07351371 0.3507196 255 0 255
0.07884501 0.07335848 0.3569758 255 0 255
0.08118425 0.07334292 0.3594948 255 0 255
0.0846457 0.07335628 0.3627455 255 0 255
0.08682615 0.07340395 0.3642408 255 0 255
0.08903316 0.07345837 0.3657152 255 0 255
0.01492264 0.06618852 0.4423379 255 0 255
0.01739394 0.06644338 0.4374455 255 0 255
0.0196645 0.06647141 0.4365243 255 0 255
0.02080787 0.06651682 0.4355582 255 0 255
0.02528179 0.06659558 0.4336464 255 0 255
0.02638691 0.06658944 0.433657 255 0 255
0.02749207 0.0665847 0.4336633 255 0 255
0.03520565 0.06664798 0.432592 255 0 255
0.03740797 0.0666615 0.4325334 255 0 255
0.03964836 0.06662197 0.4334558 255 0 255
0.04291169 0.066719 0.4323139 255 0 255
0.04272683 0.07085317 0.3623315 255 0 255
0.07588656 0.07270209 0.3514697 255 0 255
0.07967144 0.0725759 0.3567365 255 0 255
0.08096173 0.07253814 0.3584788 255 0 255
0.08202145 0.07255197 0.359246 255 0 255
0.08606767 0.07267202 0.3612997 255 0 255
0.08768425 0.07259794 0.3639694 255 0 255
0.08932239 0.07252683 0.3666296 255 0 255
0.01596263 0.06487797 0.4443111 255 0 255
0.01722615 0.06504691 0.4413649 255 0 255
0.02074255 0.06525226 0.4374843 255 0 255
0.02300351 0.06529267 0.4365376 255 0 255
0.02413623 0.06534617 0.4355588 255 0 255
0.02748844 0.06551528 0.4325966 255 0 255
0.0285903 0.06551191 0.4325987 255 0 255
0.02969218 0.06550992 0.4325967 255 0 255
0.03301312 0.06544946 0.4335634 255 0 255
0.03740484 0.0655338 0.4324652 255 0 255
0.03850635 0.06554265 0.4324296 255 0 255
0.04079368 0.06543974 0.4343404 255 0 255
0.04190252 0.06545277 0.434292 255 0 255
0.04296111 0.0655294 0.4332426 255 0 255
0.04406573 0.06554509 0.433186 255 0 255
0.04476573 0.06599716 0.4261504 255 0 255
0.04403786 0.06876281 0.3821987 255 0 255
0.06897086 0.07190517 0.3457603 255 0 255
0.07055052 0.07172844 0.3495151 255 0 255
0.07257625 0.07221328 0.3439814 255 0 255
0.0740024 0.07210124 0.3467329 255 0 255
0.08073887 0.07174151 0.3574599 255 0 255
0.0850049 0.07179094 0.3605014 255 0 255
0.08638712 0.07198111 0.359102 255 0 255
0.08586808 0.07230911 0.3540692 255 0 255
0.02411133 0.06414029 0.4364828 255 0 255
0.02636261 0.06425954 0.4345128 255 0 255
0.02747676 0.06432126 0.4335215 255 0 255
0.0296856 0.06438237 0.4325238 255 0 255
0.033008 0.06431805 0.4334903 255 0 255
0.04190139 0.06431784 0.4342189 255 0 255
0.04406561 0.06441431 0.4331131 255 0 255
0.06878427 0.07117204 0.3447321 255 0 255
0.07076775 0.07085904 0.3504412 255 0 255
0.07379532 0.07136004 0.3457093 255 0 255
0.07524027 0.07123876 0.3484528 255 0 255
0.07693716 0.07106165 0.3521597 255 0 255
0.07819609 0.07100413 0.3539154 255 0 255
0.08051566 0.07095307 0.356438 255 0 255
0.08476847 0.07098671 0.3594827 255 0 255
0.08636849 0.0708871 0.3621592 255 0 255
0.01435326 0.0599367 0.4810293 255 0 255
0.0163839 0.06124891 0.462142 255 0 255
0.01788221 0.06179295 0.4542106 255 0 255
0.01922527 0.06212865 0.4492638 255 0 255
0.02292538 0.06279531 0.4393771 255 0 255
0.02408648 0.062927 0.4374017 255 0 255
0.0252322 0.06306022 0.4354217 255 0 255
0.02635455 0.06312449 0.4344349 255 0 255
0.02857615 0.06325726 0.4324484 255 0 255
0.02967905 0.06325527 0.4324464 255 0 255
0.03298769 0.06325754 0.4324153 255 0 255
0.03407142 0.06333146 0.4313993 255 0 255
0.03629601 0.06327213 0.4323466 255 0 255
0.04079043 0.06317024 0.4341896 255 0 255
0.04553634 0.06415966 0.4209624 255 0 255
0.04541578 0.06543723 0.4029789 255 0 255
0.04446219 0.06741183 0.3750492 255 0 255
0.07057787 0.0701105 0.3494096 255 0 255
0.07336544 0.07068991 0.3437102 255 0 255
0.0764934 0.07036346 0.3501623 255 0 255
0.07924908 0.07017242 0.3546391 255 0 255
0.08029208 0.07017282 0.3554134 255 0 255
0.08264726 0.07011758 0.3579138 255 0 255
0.08453168 0.07019065 0.358461 255 0 255
0.01723818 0.05924523 0.4720617 255 0 255
0.01883898 0.06004479 0.461138 255 0 255
0.02027275 0.06062424 0.4531977 255 0 255
0.02159779 0.06105738 0.4472452 255 0 255
0.02745758 0.06198518 0.4343589 255 0 255
0.03518927 0.06213945 0.432292 255 0 255
0.03629245 0.06214574 0.4322649 255 0 255
0.03849857 0.06216241 0.4321981 255 0 255
0.03967832 0.06202431 0.4341516 255 0 255
0.04078883 0.06203616 0.4341074 255 0 255
0.04295925 0.06213817 0.4330106 255 0 255
0.04401142 0.06222817 0.4319582 255 0 255
0.04508803 0.06584733 0.3839378 255 0 255
0.07459241 0.06982382 0.3454262 255 0 255
0.08030958 0.06933533 0.3553541 255 0 255
0.08455091 0.06933859 0.3584009 255 0 255
0.08562803 0.06934353 0.35915 255 0 255
0.08592 0.06954086 0.3570066 255 0 255
0.08485781 0.07005419 0.350057 255 0 255
0.01985076 0.05824262 0.4680535 255 0 255
0.02967332 0.0608458 0.4342722 255 0 255
0.03300812 0.06084825 0.434241 255 0 255
0.03410061 0.06093017 0.4332255 255 0 255
0.03520824 0.06093514 0.4332025 255 0 255
0.03739254 0.0610275 0.4321475 255 0 255
0.0396378 0.06096887 0.4330687 255 0 255
0.04395739 0.06118078 0.4308768 255 0 255
0.04600777 0.0627152 0.411782 255 0 255
0.04550581 0.06444536 0.3898338 255 0 255
0.06978988 0.06878211 0.3453858 255 0 255
0.07138655 0.06854536 0.3491303 255 0 255
0.07880755 0.06864437 0.35258 255 0 255
0.08375185 0.06841882 0.3585486 255 0 255
0.08514757 0.06889606 0.3540571 255 0 255
0.02056417 0.05515419 0.4899014 255 0 255
0.02232584 0.05695015 0.468008 255 0 255
0.0274051 0.05897691 0.44315 255 0 255
0.02855328 0.05930268 0.4391659 255 0 255
0.03189113 0.05971252 0.4341643 255 0 255
0.03300318 0.05971476 0.4341497 255 0 255
0.03520427 0.05980571 0.4331116 255 0 255
0.03738954 0.05990211 0.432057 255 0 255
0.0417584 0.0600291 0.4308948 255 0 255
0.04285792 0.06004374 0.4308428 255 0 255
0.04584699 0.06050509 0.4256884 255 0 255
0.04592367 0.06299645 0.3957224 255 0 255
0.04468878 0.06546454 0.3658358 255 0 255
0.07140005 0.06773783 0.3490664 255 0 255
0.07133633 0.06809229 0.3450046 255 0 255
0.07416946 0.0683829 0.3433616 255 0 255
0.07709205 0.06805335 0.3488264 255 0 255
0.07986081 0.06780794 0.3532904 255 0 255
0.08090436 0.06779839 0.354061 255 0 255
0.08377031 0.06756721 0.3584816 255 0 255
0.0840755 0.0677796 0.3563429 255 0 255
0.08569496 0.06791817 0.3559153 255 0 255
0.02969598 0.05771661 0.4440477 255 0 255
0.03190832 0.05840701 0.436061 255 0 255
0.03630882 0.05868322 0.4329891 255 0 255
0.04499891 0.05904259 0.4296374 255 0 255
0.04646884 0.06002431 0.4185691 255 0 255
0.07079054 0.06716955 0.3460744 255 0 255
0.07134972 0.06730101 0.3449388 255 0 255
0.07687365 0.06732158 0.3477903 255 0 255
0.07963593 0.06705654 0.3522546 255 0 255
0.08435065 0.06686059 0.3572367 255 0 255
0.08544984 0.06715086 0.3548843 255 0 255
0.08250362 0.06827092 0.3412197 255 0 255
0.02973521 0.055372 0.4568909 255 0 255
0.03085613 0.05636371 0.4459294 255 0 255
0.03305405 0.05708861 0.437937 255 0 255
0.03414446 0.05727271 0.4359265 255 0 255
0.03521933 0.05745823 0.433912 255 0 255
0.04660111 0.05877264 0.420462 255 0 255
0.04641249 0.06040585 0.4025079 255 0 255
0.07038818 0.06654162 0.3440558 255 0 255
0.07541949 0.06670312 0.344993 255 0 255
0.08069301 0.06621518 0.3529539 255 0 255
0.08330059 0.06602554 0.3564093 255 0 255
0.08385538 0.06617362 0.3552371 255 0 255
0.08466244 0.0662426 0.355026 255 0 255
0.08546867 0.06631265 0.3548118 255 0 255
0.08332566 0.06725099 0.3440325 255 0 255
0.02981584 0.05179562 0.4816666 255 0 255
0.03744202 0.05634095 0.4337488 255 0 255
0.04065413 0.05665519 0.4306455 255 0 255
0.04395682 0.05669983 0.43049 255 0 255
0.04499954 0.05681124 0.4294358 255 0 255
0.04673336 0.05750575 0.4223493 255 0 255
0.04662225 0.05911658 0.4053944 255 0 255
0.07667011 0.06579717 0.3466787 255 0 255
0.08021855 0.06555701 0.3509475 255 0 255
0.08150814 0.06545289 0.3526798 255 0 255
0.08335959 0.06550267 0.3532355 255 0 255
0.08387986 0.06629081 0.3458802 255 0 255
0.03643244 0.05480964 0.4376504 255 0 255
0.04073718 0.05534028 0.4325262 255 0 255
0.04401058 0.05548321 0.4313759 255 0 255
0.04505763 0.05559871 0.430322 255 0 255
0.04686561 0.05622357 0.4242308 255 0 255
0.0467626 0.05790168 0.4072818 255 0 255
0.04477185 0.06300426 0.3555393 255 0 255
0.07645082 0.06508614 0.3456347 255 0 255
0.08127557 0.06471435 0.3516372 255 0 255
0.08444779 0.06498526 0.3508148 255 0 255
0.03658956 0.05305145 0.4435018 255 0 255
0.03761999 0.05346758 0.4394921 255 0 255
0.03861928 0.05388491 0.4354791 255 0 255
0.03970255 0.05399778 0.434445 255 0 255
0.04184538 0.05422755 0.4323652 255 0 255
0.04690294 0.05667152 0.4091637 255 0 255
0.04623621 0.05902315 0.3862731 255 0 255
0.07195377 0.06428819 0.3435091 255 0 255
0.07599676 0.06447669 0.3436207 255 0 255
0.07873289 0.06413315 0.3480854 255 0 255
0.08233991 0.06386648 0.352318 255 0 255
0.08313748 0.0639343 0.352113 255 0 255
0.03505671 0.04752591 0.4841932 255 0 255
0.03783144 0.05157283 0.446329 255 0 255
0.04081868 0.05287646 0.4342825 255 0 255
0.04184433 0.05310177 0.4322476 255 0 255
0.04603648 0.05359311 0.428044 255 0 255
0.08264028 0.06329968 0.3501049 255 0 255
0.0829081 0.06355833 0.3479776 255 0 255
0.08368934 0.06362716 0.3477706 255 0 255
0.08285948 0.06426349 0.3418086 255 0 255
0.03751814 0.0468689 0.4780285 255 0 255
0.03834886 0.04852552 0.4630901 255 0 255
0.04098624 0.05130452 0.438132 255 0 255
0.04198173 0.05164764 0.4351044 255 0 255
0.04406402 0.05200864 0.4320174 255 0 255
0.04505847 0.05224575 0.4299722 255 0 255
0.04603721 0.05248403 0.4279239 255 0 255
0.04693462 0.05283273 0.4248805 255 0 255
0.04638631 0.05691702 0.3880552 255 0 255
0.04500892 0.0602107 0.3582554 255 0 255
0.07954516 0.06258333 0.3477251 255 0 255
0.08344176 0.06291696 0.3467251 255 0 255
0.03923315 0.04398023 0.491748 255 0 255
0.04054093 0.04809744 0.4559176 255 0 255
0.04207296 0.05028411 0.4369616 255 0 255
0.0430532 0.05064036 0.4339318 255 0 255
0.04400992 0.05099767 0.4308989 255 0 255
0.04597621 0.05148885 0.4268077 255 0 255
0.04690737 0.053569 0.4088278 255 0 255
0.04485636 0.05960372 0.3561807 255 0 255
0.07805207 0.06202699 0.344933 255 0 255
0.08293077 0.06156266 0.3508881 255 0 255
0.08289316 0.06269345 0.3416381 255 0 255
0.04609639 0.05548366 0.3838762 255 0 255
0.08268064 0.06162765 0.3436687 255 0 255
0.08317833 0.06180302 0.3425056 255 0 255
0.08366772 0.06197875 0.3413416 255 0 255
0.04258718 0.04324535 0.4754156 255 0 255
0.04276289 0.04617603 0.4515637 255 0 255
0.04335213 0.04764926 0.439612 255 0 255
0.04649353 0.0522297 0.4026422 255 0 255
0.07987262 0.06045595 0.3453299 255 0 255
0.08216695 0.06105633 0.3416588 255 0 255
0.08368433 0.06119513 0.3412487 255 0 255
0.04427896 0.04701382 0.435448 255 0 255
0.04505949 0.04778371 0.4294441 255 0 255
0.07988755 0.0596596 0.345232 255 0 255
0.04474426 0.03821529 0.4938531 255 0 255
0.04420121 0.04314515 0.4561562 255 0 255
0.04634986 0.04851658 0.4153161 255 0 255
0.04607945 0.05098694 0.396452 255 0 255
0.07814249 0.05927717 0.3414757 255 0 255
0.07965223 0.05898311 0.3441701 255 0 255
0.08170711 0.05887875 0.3456973 255 0 255
0.08196066 0.05918425 0.3435798 255 0 255
0.04540675 0.04475851 0.4350902 255 0 255
0.04604119 0.04584259 0.4271113 255 0 255
0.08146463 0.05820259 0.3446343 255 0 255
0.08145314 0.05863806 0.3415614 255 0 255
0.04575375 0.04280091 0.4408686 255 0 255
0.04545677 0.0502508 0.3872942 255 0 255
0.07893044 0.05778199 0.34108 255 0 255
0.08019779 0.05759396 0.3428069 255 0 255
0.08146807 0.0578556 0.3414558 255 0 255
0.04627415 0.04037442 0.4496008 255 0 255
0.04622747 0.04321183 0.4297698 255 0 255
0.04576253 0.04661056 0.4059924 255 0 255
0.04375816 0.05438404 0.3515514 255 0 255
0.08097858 0.05687512 0.3425019 255 0 255
0.08148281 0.05707365 0.3413471 255 0 255
0.04719914 0.03686495 0.4652328 255 0 255
0.07971796 0.05629092 0.3406695 255 0 255
0.04351476 0.0515678 0.3592626 255 0 255
0.0820351 0.05523589 0.3430309 255 0 255
0.04604406 0.04032703 0.4263141 255 0 255
0.04360062 0.04858023 0.3729953 255 0 255
0.04289037 0.05210314 0.3502621 255 0 255
0.08204935 0.05444783 0.3429117 255 0 255
0.04314217 0.0487846 0.3659572 255 0 255
0.04274928 0.04888398 0.3599093 255 0 255
0.08053202 0.05325223 0.3399998 255 0 255
0.08155343 0.05317206 0.340757 255 0 255
0.04216073 0.04791906 0.3506388 255 0 255
0.04327024 0.04164892 0.3810028 255 0 255
0.04203011 0.04746955 0.3485325 255 0 255
0.04644926 0.02674459 0.4503892 255 0 255
0.04271556 0.04146048 0.3718362 255 0 255
0.0419005 0.0454682 0.3461324 255 0 255
0.04209908 0.04160608 0.3617021 255 0 255
0.04172935 0.0411129 0.3554971 255 0 255
0.04286566 0.03337131 0.3886091 255 0 255
0.04154444 0.0409022 0.3523968 255 0 255
0.04228763 0.03449049 0.3786433 255 0 255
0.08761964 0.04402338 0.3394486 255 0 255
0.08476973 0.04340154 0.3380497 255 0 255
0.08637676 0.042888 0.3406563 255 0 255
0.0420564 0.03352802 0.3743499 255 0 255
0.08533709 0.04222951 0.3397614 255 0 255
0.08667039 0.04190672 0.3414253 255 0 255
0.08773249 0.04178732 0.342145 255 0 255
0.04170958 0.03394533 0.3683065 255 0 255
0.04111329 0.03920604 0.3448828 255 0 255
0.04176737 0.03285296 0.3690827 255 0 255
0.04117521 0.03820622 0.3456797 255 0 255
0.08702786 0.03942386 0.3450406 255 0 255
0.08810262 0.03929747 0.3457586 255 0 255
0.09098417 0.03984695 0.3439184 255 0 255
0.04567365 0.01182205 0.455487 255 0 255
0.08948155 0.03815677 0.3472216 255 0 255
0.04518833 0.0126792 0.446457 255 0 255
0.0873284 0.03761359 0.3456075 255 0 255
0.08840743 0.03748063 0.3463229 255 0 255
0.08977884 0.03713371 0.3479669 255 0 255
0.09029615 0.03743605 0.3468058 255 0 255
0.04497242 0.01243673 0.4422924 255 0 255
0.08706114 0.03703471 0.3444826 255 0 255
0.09169648 0.03628018 0.3482451 255 0 255
0.04475653 0.01222612 0.4381306 255 0 255
0.04159378 0.03007943 0.3653482 255 0 255
0.04111409 0.03532604 0.343972 255 0 255
0.08463055 0.03750551 0.3388955 255 0 255
0.09118767 0.03515562 0.3492119 255 0 255
0.09452863 0.03476218 0.3512849 255 0 255
0.08708212 0.035446 0.3440949 255 0 255
0.09009825 0.03447856 0.3483106 255 0 255
0.09201282 0.03442968 0.3487778 255 0 255
0.09371722 0.03384268 0.3513244 255 0 255
0.04111432 0.03377954 0.3435864 255 0 255
0.08437562 0.03619547 0.3375795 255 0 255
0.08788636 0.03473699 0.3436783 255 0 255
0.08925135 0.03436022 0.3453175 255 0 255
0.04470158 0.00904288 0.4363005 255 0 255
0.04111442 0.03300749 0.3433889 255 0 255
0.08598875 0.03480302 0.3399701 255 0 255
0.08897579 0.03379581 0.344185 255 0 255
0.09027404 0.0342052 0.3428054 255 0 255
0.09225373 0.03336013 0.3462791 255 0 255
0.04475509 0.007651834 0.4369706 255 0 255
0.08599822 0.0340267 0.3397691 255 0 255
0.08927181 0.0327627 0.3449074 255 0 255
0.09007204 0.03285054 0.3446817 255 0 255
0.09116492 0.03270185 0.3453788 255 0 255
0.09256172 0.03231792 0.3469957 255 0 255
0.04153554 0.02605535 0.3632888 255 0 255
0.08600749 0.03325124 0.3395651 255 0 255
0.09037187 0.0318115 0.345398 255 0 255
0.09117515 0.03190125 0.3451683 255 0 255
0.08029889 0.03299594 0.3368413 255 0 255
0.08929125 0.03116868 0.3444848 255 0 255
0.09147871 0.03085632 0.3458786 255 0 255
0.0930904 0.03104088 0.3454082 255 0 255
0.0415353 0.02435708 0.3628295 255 0 255
0.08574674 0.03195358 0.3382208 255 0 255
0.08793436 0.03078594 0.3426391 255 0 255
0.08958672 0.03012321 0.3451939 255 0 255
0.09236944 0.02930684 0.3484294 255 0 255
0.09378207 0.02890304 0.3500363 255 0 255
0.0411147 0.02915993 0.3423564 255 0 255
0.08082403 0.03180827 0.335302 255 0 255
0.08575526 0.03118451 0.3380086 255 0 255
0.0912703 0.02865475 0.3475161 255 0 255
0.09237909 0.02849399 0.3482053 255 0 255
0.09361002 0.0297841 0.3438117 255 0 255
0.04165062 0.02211855 0.3642779 255 0 255
0.08931857 0.02878446 0.3438273 255 0 255
0.09231396 0.02854408 0.3449821 255 0 255
0.04679971 -0.009657838 0.4715631 255 0 255
0.083132 0.03053456 0.3342865 255 0 255
0.08416974 0.03035271 0.3350093 255 0 255
0.08767778 0.02868755 0.3410552 255 0 255
0.09282773 0.02809812 0.343601 255 0 255
0.04199708 0.01873503 0.3695377 255 0 255
0.04142336 0.0254641 0.3464914 255 0 255
0.0823756 0.02970304 0.3342687 255 0 255
0.09262954 0.02668268 0.3454421 255 0 255
0.0936381 0.02739892 0.3431338 255 0 255
0.04205471 0.01757763 0.370238 255 0 255
0.08578698 0.02811727 0.3371297 255 0 255
0.08985496 0.02676706 0.341998 255 0 255
0.09197611 0.02882957 0.3353554 255 0 255
0.04160848 0.02303745 0.3488956 255 0 255
0.08034864 0.02769252 0.3353322 255 0 255
0.08319162 0.02737847 0.3365965 255 0 255
0.08741879 0.02662002 0.3394499 255 0 255
0.08906514 0.02589096 0.3419881 255 0 255
0.09225091 0.02625875 0.3410754 255 0 255
0.09198447 0.02806746 0.335129 255 0 255
0.0800989 0.02721773 0.3341792 255 0 255
0.08138499 0.02673702 0.3358378 255 0 255
0.08319832 0.02661784 0.336367 255 0 255
0.08451632 0.02614416 0.3380083 255 0 255
0.09168355 0.02757961 0.3339886 255 0 255
0.0419787 0.01968539 0.3541346 255 0 255
0.08879361 0.02460106 0.340595 255 0 255
0.0906752 0.02450407 0.3410614 255 0 255
0.04197437 0.0227706 0.3414524 255 0 255
0.08243446 0.02501852 0.3360979 255 0 255
0.08425813 0.0248965 0.3366166 255 0 255
0.08715741 0.02458354 0.3378237 255 0 255
0.09245821 0.0245678 0.3383023 255 0 255
0.04223702 0.02079906 0.3450158 255 0 255
0.08037245 0.02468239 0.3344043 255 0 255
0.08244038 0.02426052 0.3358594 255 0 255
0.08637913 0.02372857 0.3377955 255 0 255
0.08909391 0.02275579 0.3410222 255 0 255
0.09076297 0.02198712 0.3435379 255 0 255
0.09417909 0.02303772 0.3405458 255 0 255
0.0803779 0.02393227 0.3341649 255 0 255
0.08349044 0.02329209 0.3363371 255 0 255
0.08532444 0.02316736 0.3368451 255 0 255
0.08717035 0.02304907 0.3373376 255 0 255
0.09047947 0.02148542 0.3423735 255 0 255
0.09268437 0.02109518 0.3437333 255 0 255
0.09480465 0.02167838 0.3421088 255 0 255
0.0437066 0.007767661 0.3796706 255 0 255
0.04256534 0.01769778 0.3492585 255 0 255
0.07935923 0.02340394 0.3331901 255 0 255
0.08038312 0.02318316 0.3339225 255 0 255
0.08349606 0.02253266 0.3360914 255 0 255
0.08689366 0.02257827 0.3361773 255 0 255
0.09158521 0.02049853 0.3428003 255 0 255
0.04494095 0.0005850085 0.3983224 255 0 255
0.08219305 0.02229321 0.3342092 255 0 255
0.08428149 0.02185785 0.3356405 255 0 255
0.08853974 0.02101152 0.3384445 255 0 255
0.0915916 0.0197089 0.3425416 255 0 255
0.09299555 0.01921119 0.344124 255 0 255
0.04660732 -0.008966278 0.4235452 255 0 255
0.08116401 0.02176704 0.3332382 255 0 255
0.08219806 0.02154295 0.3339599 255 0 255
0.08350662 0.02101684 0.3355911 255 0 255
0.0924059 0.01901669 0.3420477 255 0 255
0.09463056 0.01861389 0.3433825 255 0 255
0.09500343 0.02001202 0.339287 255 0 255
0.09453235 0.02130653 0.3354409 255 0 255
0.04381271 0.009223896 0.3664191 255 0 255
0.04305127 0.01694441 0.3436912 255 0 255
0.08691041 0.02029839 0.33542 255 0 255
0.08876139 0.02017331 0.3358949 255 0 255
0.09211388 0.01853375 0.3408781 255 0 255
0.09452194 0.0188299 0.3401681 255 0 255
0.04453484 0.004792369 0.3765041 255 0 255
0.08194362 0.02035729 0.3325397 255 0 255
0.08507613 0.01967528 0.3346721 255 0 255
0.09211954 0.01775135 0.3406113 255 0 255
0.09322502 0.01754168 0.3412802 255 0 255
0.09407648 0.01937411 0.336063 255 0 255
0.0459792 -0.003330929 0.3969227 255 0 255
0.04381679 0.01179187 0.3535231 255 0 255
0.07938164 0.01969086 0.3319398 255 0 255
0.08014986 0.01976913 0.3317531 255 0 255
0.08117743 0.01953276 0.3324761 255 0 255
0.08585955 0.01900874 0.3342042 255 0 255
0.0931428 0.01953781 0.3331053 255 0 255
0.07938549 0.01895135 0.331681 255 0 255
0.0809214 0.01910963 0.331305 255 0 255
0.08298966 0.01863525 0.3327363 255 0 255
0.0837625 0.01871938 0.3325365 255 0 255
0.08480991 0.01848686 0.3332411 255 0 255
0.086925 0.01802802 0.3346359 255 0 255
0.09153393 0.01682034 0.3382667 255 0 255
0.05274149 -0.03987119 0.493017 255 0 255
0.0456261 0.00144607 0.3773767 255 0 255
0.04429275 0.01558638 0.3378123 255 0 255
0.07707953 0.01798378 0.3319618 255 0 255
0.07785013 0.01805896 0.3317838 255 0 255
0.0809252 0.0183717 0.3310435 255 0 255
0.08272594 0.01821289 0.3315644 255 0 255
0.08558919 0.01782628 0.3327698 255 0 255
0.08692938 0.01727339 0.3343685 255 0 255
0.09124064 0.01636747 0.3370936 255 0 255
0.09283995 0.01834929 0.3316802 255 0 255
0.04489512 0.008369625 0.3554176 255 0 255
0.07708277 0.0172457 0.3316969 255 0 255
0.07964508 0.01714791 0.332065 255 0 255
0.08041737 0.01722733 0.3318778 255 0 255
0.08092881 0.01763484 0.330779 255 0 255
0.08299743 0.01714686 0.3322055 255 0 255
0.08693352 0.01651985 0.3340981 255 0 255
0.08878541 0.01637936 0.3345678 255 0 255
0.08986293 0.01615013 0.3352465 255 0 255
0.09173603 0.01602023 0.3356915 255 0 255
0.0922184 0.01644025 0.3345636 255 0 255
0.09207352 0.01750283 0.3316451 255 0 255
0.04994058 -0.02162903 0.4348011 255 0 255
0.07939587 0.01673931 0.3308871 255 0 255
0.08119234 0.01656856 0.3314189 255 0 255
0.08196317 0.01665068 0.3312261 255 0 255
0.08300099 0.0164043 0.3319357 255 0 255
0.08482175 0.01624657 0.3324373 255 0 255
0.08800539 0.01553106 0.3345112 255 0 255
0.09191711 0.01600758 0.3333935 255 0 255
0.04688028 -0.002623676 0.3800674 255 0 255
0.07785945 0.01584868 0.3309805 255 0 255
0.08482521 0.01550201 0.3321635 255 0 255
0.08772233 0.0151076 0.3333348 255 0 255
0.09254004 0.01643808 0.329976 255 0 255
0.07554746 0.01488935 0.3312315 255 0 255
0.07709131 0.01503798 0.3308846 255 0 255
0.0791297 0.01451344 0.3323412 255 0 255
0.08145865 0.01475521 0.3317774 255 0 255
0.08327527 0.01458551 0.33229 255 0 255
0.08588312 0.01451124 0.3325804 255 0 255
0.08694448 0.014266 0.3332693 255 0 255
0.0877258 0.01435773 0.3330557 255 0 255
0.08879684 0.01411629 0.3337357 255 0 255
0.08987458 0.01387702 0.3344108 255 0 255
0.09332368 0.01393796 0.3343871 255 0 255
0.09348358 0.01470291 0.3323703 255 0 255
0.04715894 -0.001239259 0.3709243 255 0 255
0.04605281 0.01119713 0.3381806 255 0 255
0.07245374 0.01387167 0.3316142 255 0 255
0.0747768 0.01408248 0.3311238 255 0 255
0.07578317 0.01381102 0.3318641 255 0 255
0.07757583 0.01361743 0.3324235 255 0 255
0.0796297 0.01308761 0.3338739 255 0 255
0.08016197 0.01351028 0.3327821 255 0 255
0.08119852 0.01324967 0.3334975 255 0 255
0.08276428 0.01341666 0.3331096 255 0 255
0.0858862 0.0137656 0.3322995 255 0 255
0.08987796 0.01312163 0.3341262 255 0 255
0.09126062 0.01254411 0.3356879 255 0 255
0.09235556 0.01230633 0.3363506 255 0 255
0.09458221 0.0137204 0.3327377 255 0 255
0.04638993 0.005416643 0.3509813 255 0 255
0.07963213 0.01234098 0.3335891 255 0 255
0.08198437 0.01258669 0.3330204 255 0 255
0.08616827 0.01267809 0.3329125 255 0 255
0.08695055 0.01276913 0.332702 255 0 255
0.09205689 0.01188209 0.3351686 255 0 255
0.09364015 0.01208422 0.3347016 255 0 255
0.09443039 0.0121872 0.3344637 255 0 255
0.09395162 0.01364463 0.3306789 255 0 255
0.09344183 0.01509932 0.3269004 255 0 255
0.07602068 0.01198738 0.3322058 255 0 255
0.0788487 0.01151588 0.3334851 255 0 255
0.08120337 0.01175857 0.3329254 255 0 255
0.08802159 0.01176931 0.333094 255 0 255
0.09205987 0.01112239 0.3348756 255 0 255
0.09315776 0.01087973 0.3355317 255 0 255
0.09490585 0.0118749 0.3330458 255 0 255
0.09504889 0.01266302 0.3310366 255 0 255
0.09485143 0.01379129 0.3281468 255 0 255
0.04891305 -0.00749106 0.379113 255 0 255
0.0732342 0.01174304 0.3306051 255 0 255
0.0740087 0.01181399 0.3304419 255 0 255
0.07524163 0.01117523 0.332088 255 0 255
0.07602248 0.01124938 0.3319176 255 0 255
0.08067384 0.01057919 0.3337251 255 0 255
0.08146185 0.01066202 0.3335348 255 0 255
0.08303554 0.01083142 0.3331457 255 0 255
0.08539011 0.01109495 0.3325405 255 0 255
0.08645258 0.01083509 0.3332272 255 0 255
0.08802409 0.01102047 0.3328017 255 0 255
0.08988655 0.01086247 0.3332546 255 0 255
0.0920626 0.0103639 0.3345795 255 0 255
0.09594666 0.01281791 0.3284977 255 0 255
0.04844195 -0.002109309 0.3629388 255 0 255
0.04765719 0.008259837 0.3368846 255 0 255
0.07168461 0.0108742 0.3306342 255 0 255
0.07246047 0.01094288 0.3304768 255 0 255
0.07547272 0.01007909 0.3327014 255 0 255
0.07988688 0.009750919 0.3336174 255 0 255
0.08146374 0.009915804 0.33324 255 0 255
0.08539221 0.01035007 0.3322463 255 0 255
0.08695789 0.01053261 0.3318289 255 0 255
0.09097367 0.009858106 0.3336219 255 0 255
0.0964967 0.008623247 0.3368637 255 0 255
0.09697936 0.009080357 0.3357352 255 0 255
0.09777812 0.009189622 0.3354856 255 0 255
0.07345878 0.009920301 0.3309299 255 0 255
0.07751749 0.008766831 0.3338637 255 0 255
0.08409289 0.009069596 0.3332492 255 0 255
0.08460998 0.009516751 0.3321535 255 0 255
0.0853941 0.009606411 0.3319491 255 0 255
0.08802835 0.00952638 0.3322082 255 0 255
0.08910356 0.009265453 0.3328795 255 0 255
0.09097579 0.009105331 0.3333211 255 0 255
0.05475592 -0.03159795 0.4305476 255 0 255
0.0489618 0.001515847 0.3491961 255 0 255
0.07033955 0.008913484 0.3312606 255 0 255
0.07112058 0.008980435 0.3311082 255 0 255
0.07289876 0.008750678 0.3316991 255 0 255
0.07468981 0.008527358 0.3322755 255 0 255
0.07547531 0.008601306 0.3321073 255 0 255
0.07649355 0.008310537 0.3328372 255 0 255
0.08330485 0.00823515 0.3331468 255 0 255
0.08436236 0.007960598 0.3338401 255 0 255
0.08488325 0.008412053 0.332745 255 0 255
0.08567122 0.008502423 0.3325398 255 0 255
0.08752775 0.008326359 0.3330095 255 0 255
0.09650124 0.007086134 0.3362463 255 0 255
0.09757251 0.01164523 0.3251274 255 0 255
0.04915949 0.006468644 0.3349178 255 0 255
0.06857775 0.008424491 0.3303511 255 0 255
0.06955867 0.008116425 0.331111 255 0 255
0.07154199 0.007506082 0.3326176 255 0 255
0.07469077 0.00779005 0.3319739 255 0 255
0.07728259 0.00764716 0.3323598 255 0 255
0.07831099 0.007356695 0.33308 255 0 255
0.07934632 0.007068262 0.3337955 255 0 255
0.08118518 0.006865275 0.3343178 255 0 255
0.08223739 0.006582683 0.3350202 255 0 255
0.08357025 0.007123091 0.3337342 255 0 255
0.08515634 0.007301414 0.3333307 255 0 255
0.08567265 0.007757588 0.3322353 255 0 255
0.0883185 0.007673414 0.3324891 255 0 255
0.08910692 0.007769616 0.3322715 255 0 255
0.09018889 0.007504269 0.3329352 255 0 255
0.0937806 0.0063603 0.3357768 255 0 255
0.09458335 0.006465342 0.3355393 255 0 255
0.09730661 0.006428957 0.3356856 255 0 255
0.09843382 0.006180889 0.3363104 255 0 255
0.0997114 0.00676523 0.3349258 255 0 255
0.1013095 0.006995949 0.3344046 255 0 255
0.102107 0.007113249 0.3341396 255 0 255
0.0495636 0.004201639 0.3382864 255 0 255
0.06779931 0.007634499 0.3301935 255 0 255
0.06877701 0.007321453 0.3309554 255 0 255
0.06976186 0.007010304 0.3317131 255 0 255
0.07211672 0.007213403 0.3312543 255 0 255
0.07390533 0.006980856 0.3318346 255 0 255
0.07934728 0.00632256 0.3334872 255 0 255
0.08014081 0.00640451 0.3333023 255 0 255
0.08118619 0.006116485 0.3340081 255 0 255
0.08515751 0.006553941 0.3330216 255 0 255
0.08831977 0.006927076 0.3321806 255 0 255
0.09187545 0.005756663 0.3350458 255 0 255
0.09762906 0.005300961 0.3362443 255 0 255
0.09876003 0.005050173 0.3368666 255 0 255
0.1013112 0.006232574 0.3340892 255 0 255
0.09908805 0.01042025 0.3240267 255 0 255
0.05064495 0.005447661 0.3332339 255 0 255
0.06799452 0.006528546 0.3307941 255 0 255
0.0689761 0.006212424 0.3315538 255 0 255
0.0746922 0.006319145 0.3313621 255 0 255
0.0791031 0.005953752 0.3322821 255 0 255
0.0830382 0.00516656 0.3342 255 0 255
0.08383631 0.005254747 0.3340019 255 0 255
0.08436574 0.005717399 0.3329126 255 0 255
0.08515841 0.005807724 0.3327097 255 0 255
0.09107476 0.004896885 0.3349561 255 0 255
0.09217481 0.004628638 0.3356089 255 0 255
0.09458604 0.004941755 0.334906 255 0 255
0.09650583 0.004790018 0.3352974 255 0 255
0.09763035 0.004533619 0.3359236 255 0 255
0.09989887 0.004027955 0.3371602 255 0 255
0.1007107 0.004143616 0.3369007 255 0 255
0.1015215 0.004260614 0.3366383 255 0 255
0.05079633 0.001177215 0.3412381 255 0 255
0.05132488 0.005140999 0.3319291 255 0 255
0.06917508 0.00509741 0.3321464 255 0 255
0.07175381 0.004916399 0.3325941 255 0 255
0.07570782 0.005279657 0.3317799 255 0 255
0.07649659 0.005356167 0.3316085 255 0 255
0.07752194 0.005053961 0.3323282 255 0 255
0.0822399 0.004330081 0.3340783 255 0 255
0.08781535 0.004967424 0.3326518 255 0 255
0.08889538 0.004689175 0.3333181 255 0 255
0.08998211 0.004413131 0.3339796 255 0 255
0.09107557 0.004139357 0.3346359 255 0 255
0.09408995 0.003703775 0.3356983 255 0 255
0.09489654 0.003810259 0.3354602 255 0 255
0.09682389 0.003656633 0.335848 255 0 255
0.09763133 0.003767594 0.3356 255 0 255
0.1003797 0.003739991 0.3357062 255 0 255
0.1016532 0.004342322 0.3343153 255 0 255
0.1014246 0.005561796 0.3314557 255 0 255
0.06147207 -0.04960479 0.4571768 255 0 255
0.05162468 0.0004505002 0.3408302 255 0 255
0.05234686 0.003666606 0.3333597 255 0 255
0.0529017 0.004489848 0.331449 255 0 255
0.06233114 0.005049698 0.3301942 255 0 255
0.06311397 0.005104652 0.3300713 255 0 255
0.06467819 0.005218382 0.3298168 255 0 255
0.06642728 0.004949114 0.3304536 255 0 255
0.06721138 0.005010743 0.3303159 255 0 255
0.06897654 0.004750693 0.3309322 255 0 255
0.07233199 0.004635664 0.3312247 255 0 255
0.07491862 0.004468509 0.3316338 255 0 255
0.07831347 0.00439485 0.3318344 255 0 255
0.07934889 0.004093029 0.3325445 255 0 255
0.08144055 0.003495672 0.3339505 255 0 255
0.08463473 0.003847917 0.3331648 255 0 255
0.08515956 0.004319134 0.3320769 255 0 255
0.08674252 0.004504794 0.3316629 255 0 255
0.08753274 0.00459957 0.3314516 255 0 255
0.08860902 0.004317559 0.3321176 255 0 255
0.08969197 0.004037796 0.3327786 255 0 255
0.09489718 0.003048162 0.3351346 255 0 255
0.09601618 0.002781631 0.3357662 255 0 255
0.09682459 0.002891601 0.3355212 255 0 255
0.0979529 0.00262926 0.3361435 255 0 255
0.1011875 0.003089868 0.3351175 255 0 255
0.05269683 0.001746034 0.3357753 255 0 255
0.05460563 0.003450134 0.3318642 255 0 255
0.05697805 0.003581581 0.3315705 255 0 255
0.05840951 0.004070003 0.3304535 255 0 255
0.06092359 0.00382643 0.3310241 255 0 255
0.06661426 0.003831521 0.3310407 255 0 255
0.06838449 0.003566008 0.3316607 255 0 255
0.06917519 0.00363102 0.3315159 255 0 255
0.07311964 0.003975405 0.3307494 255 0 255
0.07412849 0.003659468 0.3314818 255 0 255
0.07570818 0.003809542 0.3311479 255 0 255
0.07673039 0.003498978 0.3318685 255 0 255
0.07831357 0.003657563 0.3315158 255 0 255
0.08622719 0.003286216 0.3324323 255 0 255
0.08781613 0.003475927 0.3320109 255 0 255
0.08969228 0.003289703 0.3324554 255 0 255
0.09489752 0.002287368 0.3348059 255 0 255
0.09795331 0.001862338 0.3358123 255 0 255
0.09876351 0.00197582 0.3355604 255 0 255
0.09990109 0.001714514 0.3361719 255 0 255
0.100713 0.001831223 0.3359129 255 0 255
0.1015238 0.001949263 0.3356509 255 0 255
0.1023337 0.002068652 0.335386 255 0 255
0.102562 0.003804924 0.331406 255 0 255
0.1008985 0.006535701 0.3251238 255 0 255
0.05866845 -0.03112269 0.4085295 255 0 255
0.05328025 -0.0009941926 0.339997 255 0 255
0.0543121 0.001084549 0.3352718 255 0 255
0.05885346 0.002153367 0.3328537 255 0 255
0.06140271 0.001908917 0.333418 255 0 255
0.06220217 0.001962694 0.3332985 255 0 255
0.06619181 0.002251193 0.3326578 255 0 255
0.06778391 0.002375718 0.3323814 255 0 255
0.06917501 0.002899743 0.3311963 255 0 255
0.07514426 0.002608629 0.3318878 255 0 255
0.0777595 0.002450637 0.3322613 255 0 255
0.07934897 0.002613083 0.3319014 255 0 255
0.08198398 0.002477811 0.3322249 255 0 255
0.08383755 0.002266249 0.3327174 255 0 255
0.08463494 0.002356806 0.3325169 255 0 255
0.08543149 0.002448677 0.3323135 255 0 255
0.08674276 0.00302245 0.3310189 255 0 255
0.08889622 0.002444062 0.3323481 255 0 255
0.09570329 0.001636699 0.3342336 255 0 255
0.09990121 0.0009460677 0.3358364 255 0 255
0.1038292 0.0006673221 0.3365033 255 0 255
0.1039503 0.001544702 0.3345126 255 0 255
0.05446943 -0.002921319 0.3422931 255 0 255
0.05493464 -0.00167012 0.3394784 255 0 255
0.05645554 -0.001179595 0.3383772 255 0 255
0.05700499 -0.0003293045 0.3364649 255 0 255
0.05848817 0.0001673066 0.3353505 255 0 255
0.06269287 2.589185E-05 0.3356783 255 0 255
0.06350353 8.19434E-05 0.3355542 255 0 255
0.06431367 0.0001393444 0.3354272 255 0 255
0.07016738 0.001838938 0.3316214 255 0 255
0.07096077 0.001907253 0.3314704 255 0 255
0.07434993 0.001797791 0.3317289 255 0 255
0.07775921 0.001712151 0.3319352 255 0 255
0.08490259 0.001222221 0.3330691 255 0 255
0.08543123 0.001705367 0.3319853 255 0 255
0.08622696 0.001798811 0.3317792 255 0 255
0.08889597 0.001698315 0.3320189 255 0 255
0.08969209 0.001797495 0.3318002 255 0 255
0.09489741 0.0007697953 0.3341396 255 0 255
0.09795326 0.0003325539 0.3351407 255 0 255
0.09990102 0.0001789832 0.3354978 255 0 255
0.1010451 -8.631217E-05 0.3361013 255 0 255
0.1033524 -0.0006095274 0.337292 255 0 255
0.1049912 -0.0003619865 0.3367466 255 0 255
0.1044989 0.002166771 0.3310609 255 0 255
0.06882886 -0.06692734 0.4827721 255 0 255
0.0574135 -0.002292516 0.3388431 255 0 255
0.06236058 -0.001986784 0.3381684 255 0 255
0.06318343 -0.001931075 0.3380456 255 0 255
0.06400577 -0.001874022 0.3379198 255 0 255
0.06465612 -0.001412068 0.3368923 255 0 255
0.06547353 -0.001352605 0.3367613 255 0 255
0.06611113 -0.0008887939 0.3357298 255 0 255
0.06655727 -2.156079E-05 0.3337998 255 0 255
0.06857827 0.0009737231 0.3315878 255 0 255
0.06937287 0.001039653 0.3314426 255 0 255
0.07016689 0.001106887 0.3312946 255 0 255
0.07096028 0.00117543 0.3311437 255 0 255
0.07254523 0.001316409 0.3308333 255 0 255
0.07434946 0.001063266 0.331401 255 0 255
0.07752149 0.001372836 0.3307199 255 0 255
0.07910326 0.00153547 0.3303622 255 0 255
0.08463421 0.0008709762 0.3318573 255 0 255
0.08781543 0.001248522 0.3310274 255 0 255
0.08998231 0.0006615729 0.332341 255 0 255
0.0918777 0.000474564 0.3327639 255 0 255
0.09458738 0.0004024108 0.3329345 255 0 255
0.09682444 -0.0001551137 0.3341836 255 0 255
0.09795277 -0.0004303018 0.3348004 255 0 255
0.1002289 -0.0009734594 0.336018 255 0 255
0.06519946 -0.0497051 0.4413122 255 0 255
0.0570023 -0.01307059 0.3605874 255 0 255
0.05704545 -0.007237319 0.3477339 255 0 255
0.05935203 -0.00376876 0.3400916 255 0 255
0.06018462 -0.003717839 0.3399797 255 0 255
0.06267951 -0.003556871 0.3396259 255 0 255
0.06564825 -0.002509361 0.3373194 255 0 255
0.06692291 -0.001572924 0.3352568 255 0 255
0.06816425 -0.0006334916 0.3331879 255 0 255
0.06877241 -0.0001627302 0.3321511 255 0 255
0.07036877 -2.851784E-05 0.3318566 255 0 255
0.07275871 0.0001826591 0.3313934 255 0 255
0.07593618 0.000482669 0.3307356 255 0 255
0.07672884 0.0005609545 0.330564 255 0 255
0.07934753 0.0004030214 0.3309149 255 0 255
0.0811866 0.0001723575 0.3314253 255 0 255
0.08277769 0.0003476421 0.3310413 255 0 255
0.08383611 3.869207E-05 0.3317233 255 0 255
0.08463351 0.0001300528 0.3315232 255 0 255
0.08515836 0.0006204101 0.3304438 255 0 255
0.08702067 0.000412081 0.3309055 255 0 255
0.08998159 -8.473352E-05 0.3320045 255 0 255
0.09078059 1.6821E-05 0.3317821 255 0 255
0.09378374 -0.0004573103 0.3328316 255 0 255
0.09682367 -0.0009133632 0.3338417 255 0 255
0.09876221 -0.001076955 0.3342057 255 0 255
0.1021943 -0.001891906 0.3360075 255 0 255
0.105337 -0.002297118 0.3369066 255 0 255
0.108702 -0.0008786987 0.3337907 255 0 255
0.0589322 -0.0205317 0.3746415 255 0 255
0.06116795 -0.00483787 0.3404164 255 0 255
0.06200349 -0.004783813 0.3402981 255 0 255
0.06433954 -0.004202319 0.3390287 255 0 255
0.06710529 -0.002727348 0.3358109 255 0 255
0.06773401 -0.00225395 0.3347782 255 0 255
0.06957009 -0.0008294204 0.331671 255 0 255
0.07036795 -0.0007614623 0.3315224 255 0 255
0.07217215 -0.001029132 0.3321053 255 0 255
0.07275788 -0.0005496323 0.3310595 255 0 255
0.07616488 -0.0006545112 0.3312868 255 0 255
0.0769614 -0.0005756009 0.3311145 255 0 255
0.0777572 -0.000495387 0.3309393 255 0 255
0.0809331 -0.0001613403 0.3302099 255 0 255
0.08781375 -0.0002297367 0.3303573 255 0 255
0.08998059 -0.0008296707 0.331665 255 0 255
0.09107406 -0.00112623 0.3323114 255 0 255
0.09378272 -0.0012081 0.3324895 255 0 255
0.09458559 -0.001099916 0.3322535 255 0 255
0.09989871 -0.002113984 0.3344641 255 0 255
0.1010427 -0.002388805 0.3350632 255 0 255
0.1021932 -0.002661175 0.335657 255 0 255
0.1036896 -0.003323187 0.3371004 255 0 255
0.1049888 -0.002681368 0.335701 255 0 255
0.05910128 -0.01251885 0.3550007 255 0 255
0.05963945 -0.008668897 0.3466904 255 0 255
0.0659973 -0.004840164 0.338417 255 0 255
0.06792007 -0.003410068 0.3353271 255 0 255
0.06916024 -0.002452958 0.3332593 255 0 255
0.07137065 -0.001835004 0.3319218 255 0 255
0.0737702 -0.00161754 0.3314483 255 0 255
0.07536663 -0.001465918 0.3311182 255 0 255
0.07855119 -0.001146763 0.3304237 255 0 255
0.08118458 -0.00130039 0.3307504 255 0 255
0.0819805 -0.001212906 0.3305601 255 0 255
0.08356998 -0.001033975 0.3301709 255 0 255
0.08515624 -0.0008497231 0.3297701 255 0 255
0.08889259 -0.001271164 0.3306726 255 0 255
0.09187466 -0.00176904 0.3317414 255 0 255
0.0926756 -0.001663718 0.3315125 255 0 255
0.09538615 -0.001739149 0.3316698 255 0 255
0.09989733 -0.002875493 0.3341134 255 0 255
0.1010413 -0.003153495 0.3347111 255 0 255
0.1054544 -0.002930491 0.3342203 255 0 255
0.1066217 -0.003195736 0.3347903 255 0 255
0.1063628 -0.001887527 0.3319667 255 0 255
0.1064424 -0.0009736749 0.3299937 255 0 255
0.06713495 -0.05094544 0.4349464 255 0 255
0.06240588 -0.03068543 0.3916737 255 0 255
0.0607694 -0.02179774 0.3726898 255 0 255
0.06027337 -0.01412682 0.3563029 255 0 255
0.06019945 -0.0111348 0.349911 255 0 255
0.06077435 -0.007672574 0.3425129 255 0 255
0.06299643 -0.006669821 0.3403652 255 0 255
0.06467275 -0.006553509 0.3401126 255 0 255
0.06599624 -0.00559659 0.3380648 255 0 255
0.06810599 -0.004571911 0.3358698 255 0 255
0.06954868 -0.004022646 0.3346923 255 0 255
0.07016397 -0.003538642 0.3336565 255 0 255
0.07398701 -0.002764404 0.3319909 255 0 255
0.0747894 -0.002688681 0.3318266 255 0 255
0.07639215 -0.0025332 0.3314894 255 0 255
0.07988907 -0.001299449 0.3288417 255 0 255
0.08172272 -0.001536981 0.3293432 255 0 255
0.08729635 -0.002207353 0.3307562 255 0 255
0.08889113 -0.002010112 0.3303287 255 0 255
0.09730625 -0.00266405 0.3316938 255 0 255
0.09843352 -0.002950658 0.3323018 255 0 255
0.1015184 -0.00339608 0.3332411 255 0 255
0.1051019 -0.003298072 0.3330164 255 0 255
0.1062655 -0.003567057 0.3335863 255 0 255
0.106361 -0.002644819 0.3316145 255 0 255
0.06295262 -0.02989564 0.3875117 255 0 255
0.06136286 -0.01834018 0.3630792 255 0 255
0.06121744 -0.009711835 0.3448324 255 0 255
0.06383371 -0.007375011 0.3398817 255 0 255
0.06483913 -0.00773761 0.3406451 255 0 255
0.06847879 -0.006159601 0.3372943 255 0 255
0.06993695 -0.005605133 0.3361159 255 0 255
0.07055999 -0.005116733 0.3350803 255 0 255
0.07178096 -0.004137856 0.3330048 255 0 255
0.07523166 -0.004257744 0.3332437 255 0 255
0.07581539 -0.00376297 0.3321945 255 0 255
0.07934273 -0.002524866 0.3295591 255 0 255
0.0801363 -0.002439952 0.3293757 255 0 255
0.08197758 -0.002679678 0.3298739 255 0 255
0.08277266 -0.002590359 0.329681 255 0 255
0.08837554 -0.003257637 0.3310638 255 0 255
0.09347222 -0.003044666 0.3305849 255 0 255
0.09427126 -0.002936041 0.3303504 255 0 255
0.09538268 -0.003232499 0.3309714 255 0 255
0.09618358 -0.003120693 0.33073 255 0 255
0.0973043 -0.003412872 0.3313417 255 0 255
0.09956532 -0.003989972 0.3325495 255 0 255
0.1003735 -0.003871119 0.332293 255 0 255
0.1034781 -0.004310423 0.3332035 255 0 255
0.1046365 -0.004586451 0.3337804 255 0 255
0.1090608 -0.004334154 0.3332174 255 0 255
0.07486016 -0.07539434 0.4802865 255 0 255
0.06333502 -0.02864786 0.3824652 255 0 255
0.06204325 -0.02132711 0.367144 255 0 255
0.06122123 -0.0131052 0.349934 255 0 255
0.06146777 -0.008731653 0.3407766 255 0 255
0.06231106 -0.008676417 0.3406574 255 0 255
0.06299406 -0.008194032 0.3396446 255 0 255
0.06567906 -0.008441313 0.3401505 255 0 255
0.06634441 -0.007954418 0.339128 255 0 255
0.06718061 -0.007891004 0.3389913 255 0 255
0.06783317 -0.007402203 0.3379647 255 0 255
0.06993549 -0.00635423 0.3357599 255 0 255
0.07117317 -0.005369233 0.3336909 255 0 255
0.07237741 -0.004381521 0.331616 255 0 255
0.07420205 -0.004654183 0.332177 255 0 255
0.07798893 -0.003838847 0.3304475 255 0 255
0.07854672 -0.003337236 0.3293935 255 0 255
0.08013458 -0.003168269 0.3290297 255 0 255
0.08171939 -0.002993948 0.3286545 255 0 255
0.08489433 -0.003969716 0.3306777 255 0 255
0.0864941 -0.003779396 0.3302682 255 0 255
0.08757199 -0.004096582 0.3309253 255 0 255
0.0888874 -0.00348383 0.3296323 255 0 255
0.09236816 -0.003482444 0.329604 255 0 255
0.09618137 -0.003864917 0.3303765 255 0 255
0.09842931 -0.004453236 0.3315918 255 0 255
0.09923472 -0.004335949 0.3313395 255 0 255
0.1034757 -0.005069759 0.3328429 255 0 255
0.104634 -0.005348913 0.3334184 255 0 255
0.1090583 -0.005098242 0.3328546 255 0 255
0.07361382 -0.06757528 0.460733 255 0 255
0.06395024 -0.02822443 0.3792174 255 0 255
0.06262141 -0.01029907 0.3420698 255 0 255
0.0633122 -0.009812451 0.3410576 255 0 255
0.06415834 -0.009753951 0.3409319 255 0 255
0.06584904 -0.009632646 0.3406713 255 0 255
0.06651824 -0.009141741 0.33965 255 0 255
0.06884982 -0.008518646 0.3383448 255 0 255
0.0703234 -0.007955038 0.3371674 255 0 255
0.07258594 -0.005539467 0.3321446 255 0 255
0.07441828 -0.005814505 0.3327026 255 0 255
0.07545012 -0.006161528 0.3334151 255 0 255
0.07798707 -0.00456998 0.3300965 255 0 255
0.07854484 -0.004064636 0.3290443 255 0 255
0.08197378 -0.004140892 0.3291762 255 0 255
0.08276883 -0.004051058 0.3289835 255 0 255
0.08888515 -0.00421859 0.3292797 255 0 255
0.09395719 -0.00400344 0.3287871 255 0 255
0.09697878 -0.004493907 0.3297762 255 0 255
0.0981022 -0.004790545 0.3303808 255 0 255
0.1011756 -0.005255568 0.3313153 255 0 255
0.1023211 -0.005542856 0.3319 255 0 255
0.1069669 -0.006666756 0.3341847 255 0 255
0.1077861 -0.006534674 0.3339017 255 0 255
0.108604 -0.006401211 0.3336157 255 0 255
0.1097864 -0.006671763 0.3341646 255 0 255
0.07312903 -0.06265291 0.4474972 255 0 255
0.06298993 -0.01724873 0.3543783 255 0 255
0.06298445 -0.01459077 0.3489236 255 0 255
0.06669194 -0.01033467 0.3401656 255 0 255
0.07137222 -0.007277621 0.3338574 255 0 255
0.07544815 -0.0069027 0.3330557 255 0 255
0.07741885 -0.005808259 0.3307919 255 0 255
0.07933699 -0.004706288 0.3285122 255 0 255
0.08276658 -0.004779293 0.3286304 255 0 255
0.08808585 -0.005052312 0.3291388 255 0 255
0.08888267 -0.004951901 0.3289242 255 0 255
0.08967865 -0.004850128 0.3287067 255 0 255
0.09076818 -0.005166432 0.3293452 255 0 255
0.09617617 -0.005349086 0.3296607 255 0 255
0.096976 -0.005234962 0.329417 255 0 255
0.09922928 -0.005832097 0.3306181 255 0 255
0.1031268 -0.006171565 0.3312689 255 0 255
0.1042813 -0.006457535 0.3318426 255 0 255
0.1066094 -0.007021785 0.3329735 255 0 255
0.1077829 -0.007300055 0.3335308 255 0 255
0.1089626 -0.007575715 0.3340825 255 0 255
0.1101486 -0.007848743 0.3346286 255 0 255
0.06372845 -0.02025148 0.3584137 255 0 255
0.06533574 -0.01209433 0.3418266 255 0 255
0.0675341 -0.0110334 0.3396541 255 0 255
0.06903322 -0.01046576 0.3384886 255 0 255
0.07137025 -0.008018453 0.3334946 255 0 255
0.07218671 -0.007946008 0.3333402 255 0 255
0.07279228 -0.00743991 0.332306 255 0 255
0.07603347 -0.007132323 0.3316506 255 0 255
0.07878151 -0.005944379 0.3292079 255 0 255
0.08222549 -0.00602401 0.3293338 255 0 255
0.0830243 -0.005933206 0.3291404 255 0 255
0.08488733 -0.006173803 0.3296092 255 0 255
0.0896759 -0.00558173 0.3283485 255 0 255
0.09617313 -0.006088991 0.3292985 255 0 255
