ply
format ascii 1.0
Comment Generated by Floating Hands
element vertex 1127
Comment Left: (0.0, 0.0, 0.0)
Comment Right: (0.1, 0.0, 0.3)
Comment Time: 2023-05-01 09:21:42,090
property double x
property double y
property double z
property uchar red
property uchar green
property uchar blue
end_header
0.03647327 0.07709572 0.3734643 255 0 255
0.0379997 0.07728837 0.3722064 255 0 255
0.04117918 0.07767142 0.370643 255 0 255
0.04451289 0.07805951 0.3700144 255 0 255
0.05697778 0.07977428 0.3640819 255 0 255
-0.01492804 0.07184515 0.4045381 255 0 255
-0.01153786 0.07222907 0.395734 255 0 255
-0.01050405 0.07232675 0.3937876 255 0 255
-0.008481977 0.07252371 0.3898821 255 0 255
-0.004730694 0.07280347 0.3860185 255 0 255
-0.001965004 0.07307994 0.3810837 255 0 255
0.004146179 0.07346934 0.3791098 255 0 255
0.008457116 0.07376423 0.3780288 255 0 255
0.01518303 0.07432026 0.3747332 255 0 255
0.01609889 0.07436013 0.3756789 255 0 255
0.01773596 0.07451591 0.3745675 255 0 255
0.02020285 0.07474368 0.3733763 255 0 255
0.0210487 0.07481378 0.3733051 255 0 255
0.02611706 0.07525606 0.3728098 255 0 255
0.02768545 0.07543148 0.3716259 255 0 255
0.02852436 0.07551052 0.371526 255 0 255
0.03020093 0.07567161 0.3713164 255 0 255
0.03103858 0.07575373 0.3712068 255 0 255
0.03285356 0.07590345 0.3719676 255 0 255
0.03369366 0.07598901 0.3718478 255 0 255
0.03537237 0.07616318 0.3715984 255 0 255
0.03704905 0.07634148 0.371336 255 0 255
0.04188328 0.07691389 0.3694882 255 0 255
0.0497668 0.07780001 0.3699323 255 0 255
0.05522553 0.07844213 0.3707139 255 0 255
0.05703685 0.07892616 0.3640647 255 0 255
0.05575189 0.07930528 0.3499148 255 0 255
-0.01496444 0.07080999 0.4055037 255 0 255
-0.01374566 0.07098503 0.4015773 255 0 255
-0.01145384 0.07130028 0.3947057 255 0 255
-0.00845159 0.07158387 0.3898527 255 0 255
0.003290706 0.07262018 0.3760906 255 0 255
0.004990357 0.07275267 0.3750754 255 0 255
0.006674397 0.07288843 0.3740475 255 0 255
0.008342721 0.07302741 0.3730068 255 0 255
0.009188014 0.07308286 0.3729813 255 0 255
0.01176872 0.07322586 0.3738837 255 0 255
0.01431387 0.07340861 0.373758 255 0 255
0.01777705 0.07363927 0.374542 255 0 255
0.02024496 0.07387158 0.3733511 255 0 255
0.02278283 0.07408556 0.373128 255 0 255
0.02447313 0.07423342 0.3729631 255 0 255
0.02531776 0.07430888 0.3728757 255 0 255
0.02844813 0.07466783 0.3705094 255 0 255
0.04110427 0.07595643 0.3696167 255 0 255
0.04276635 0.07614876 0.3693107 255 0 255
0.04608314 0.07654562 0.3686599 255 0 255
0.04877695 0.07684065 0.3691151 255 0 255
-0.01136975 0.0703797 0.393674 255 0 255
-0.009378276 0.07056827 0.3907757 255 0 255
-0.008335643 0.07072138 0.3878229 255 0 255
-0.0009757312 0.07146609 0.3770413 255 0 255
0.0007559002 0.07163038 0.3750598 255 0 255
0.002460254 0.07176093 0.3740645 255 0 255
0.004137946 0.07193068 0.3720568 255 0 255
0.007453486 0.07220731 0.3700024 255 0 255
0.009121954 0.07231597 0.3699553 255 0 255
0.009955988 0.07237185 0.369927 255 0 255
0.01166948 0.07245308 0.3708592 255 0 255
0.02188842 0.0731718 0.3721818 255 0 255
0.03531835 0.07445173 0.3705595 255 0 255
0.03782358 0.07472105 0.3701634 255 0 255
0.04180479 0.07521137 0.3684561 255 0 255
0.04263213 0.0753079 0.3683023 255 0 255
0.0434589 0.07540544 0.3681452 255 0 255
0.04573331 0.07572277 0.3666757 255 0 255
0.05297387 0.07651594 0.3681521 255 0 255
-0.008304916 0.06979004 0.3877864 255 0 255
-0.00182067 0.07049382 0.3779924 255 0 255
0.005819533 0.07124428 0.370004 255 0 255
0.009954603 0.07155212 0.368896 255 0 255
0.01332922 0.07174844 0.3697497 255 0 255
0.01427789 0.07173615 0.3717008 255 0 255
0.0251926 0.07263322 0.3708284 255 0 255
0.02758494 0.07289667 0.3695576 255 0 255
0.029123 0.07308652 0.3683653 255 0 255
0.03008109 0.0731367 0.3692516 255 0 255
0.03536771 0.07358821 0.370529 255 0 255
0.03620371 0.07367723 0.3704003 255 0 255
0.0385402 0.07397699 0.3690095 255 0 255
0.03937025 0.0740697 0.3688685 255 0 255
0.0439488 0.0746944 0.3659945 255 0 255
0.04558484 0.07489334 0.3656676 255 0 255
0.04906638 0.07528273 0.3659519 255 0 255
0.05623906 0.07593975 0.370432 255 0 255
0.05682703 0.07607207 0.3692537 255 0 255
0.05911123 0.07676122 0.3614151 255 0 255
0.06018139 0.07686535 0.3621572 255 0 255
-0.005437566 0.06916111 0.3838573 255 0 255
-0.003589826 0.06938093 0.3809131 255 0 255
-0.001787983 0.06960297 0.3779543 255 0 255
0.01768214 0.07112957 0.3714547 255 0 255
0.02450274 0.07165875 0.3718738 255 0 255
0.02751146 0.07207461 0.3685308 255 0 255
0.02916911 0.07223336 0.3683311 255 0 255
0.03290508 0.07246337 0.3708615 255 0 255
0.03708938 0.07290462 0.3702346 255 0 255
0.03859096 0.07311878 0.368976 255 0 255
0.03942138 0.07321177 0.3688351 255 0 255
0.04090066 0.07343 0.3675606 255 0 255
0.04154191 0.07355432 0.3664283 255 0 255
0.04543594 0.07407201 0.3646565 255 0 255
0.05474188 0.07501796 0.3676944 255 0 255
0.05581095 0.07511041 0.3684607 255 0 255
0.05688665 0.07520491 0.3692219 255 0 255
0.05854804 0.07543909 0.3687953 255 0 255
0.05970309 0.07588736 0.3633124 255 0 255
-0.01634511 0.06561854 0.4282576 255 0 255
-0.01417733 0.06657667 0.4103847 255 0 255
-0.007184308 0.06816771 0.3837489 255 0 255
-0.005344086 0.0683463 0.3818178 255 0 255
-0.0008655131 0.06885471 0.375929 255 0 255
0.0008637052 0.06909151 0.37295 255 0 255
0.001710927 0.06923477 0.3709562 255 0 255
0.002550693 0.06928189 0.3709567 255 0 255
0.003382588 0.06937802 0.3699552 255 0 255
0.004218463 0.06942705 0.3699494 255 0 255
0.0116447 0.07000595 0.3677579 255 0 255
0.01252198 0.07001964 0.3687183 255 0 255
0.01335274 0.07007981 0.3686776 255 0 255
0.01424123 0.07009643 0.3696311 255 0 255
0.01674329 0.07028716 0.3694798 255 0 255
0.01848727 0.07037637 0.3703592 255 0 255
0.02016079 0.07051346 0.3702291 255 0 255
0.02589692 0.07106625 0.36868 255 0 255
0.03087205 0.07154382 0.3680814 255 0 255
0.03364573 0.07172292 0.3697164 255 0 255
0.03546671 0.07186211 0.3704576 255 0 255
0.03995012 0.07251541 0.3666869 255 0 255
0.04140984 0.07273797 0.3654097 255 0 255
0.04385941 0.07302922 0.3649459 255 0 255
0.04447568 0.07315914 0.3638055 255 0 255
0.0463034 0.07332962 0.3644538 255 0 255
0.04711675 0.07343177 0.3642834 255 0 255
0.04814354 0.07350601 0.3650863 255 0 255
0.05562585 0.07427202 0.367456 255 0 255
0.05917922 0.0747148 0.3675766 255 0 255
0.05974174 0.07485658 0.3663917 255 0 255
0.0602439 0.07554347 0.3558775 255 0 255
-0.01439031 0.06533438 0.4143187 255 0 255
-0.01257717 0.06614076 0.4004251 255 0 255
-0.002607936 0.06772554 0.3788489 255 0 255
0.004241379 0.06862085 0.3689077 255 0 255
0.005906004 0.06872179 0.3688868 255 0 255
0.006738201 0.06877381 0.3688715 255 0 255
0.01256048 0.06916713 0.3686761 255 0 255
0.01754443 0.06954475 0.3683849 255 0 255
0.02011817 0.06970108 0.3691918 255 0 255
0.02095107 0.06977108 0.3691223 255 0 255
0.02178367 0.06984212 0.3690497 255 0 255
0.02427954 0.07006141 0.3688127 255 0 255
0.02582997 0.07025687 0.367646 255 0 255
0.03271725 0.07081857 0.3688048 255 0 255
0.0336944 0.07086375 0.3696755 255 0 255
0.03452871 0.07095109 0.3695541 255 0 255
0.03786096 0.0713108 0.3690362 255 0 255
0.04290416 0.07212263 0.3640837 255 0 255
0.04594356 0.07255421 0.3624594 255 0 255
0.04938614 0.07293449 0.3627405 255 0 255
0.05099984 0.07314755 0.3623735 255 0 255
0.05203875 0.07322525 0.3631572 255 0 255
0.05495151 0.07349936 0.3645096 255 0 255
0.05939446 0.07498559 0.3498616 255 0 255
-0.03055602 0.06224586 0.44088 255 0 255
-0.0325752 0.05981894 0.4818282 255 0 255
-0.01920447 0.06076762 0.4729664 255 0 255
-0.01265997 0.06504114 0.4023641 255 0 255
-0.01013849 0.06581841 0.3905073 255 0 255
-0.006196436 0.0664361 0.3826888 255 0 255
-0.005249176 0.06659169 0.3807241 255 0 255
-0.003423317 0.06684657 0.3777813 255 0 255
0.0009381039 0.06746452 0.3708619 255 0 255
0.003451606 0.06766245 0.3698655 255 0 255
0.005108946 0.06781738 0.3688526 255 0 255
0.00840782 0.06808247 0.3677875 255 0 255
0.01259917 0.06831494 0.3686304 255 0 255
0.0184931 0.06870931 0.3692758 255 0 255
0.02339123 0.06918257 0.3678562 255 0 255
0.02587471 0.06940765 0.3676016 255 0 255
0.03110131 0.06979422 0.3689862 255 0 255
0.03193357 0.06987828 0.368875 255 0 255
0.03359675 0.07004953 0.368643 255 0 255
0.03457786 0.07009251 0.3695099 255 0 255
0.04438194 0.07151882 0.3627453 255 0 255
0.0510556 0.07231079 0.3623321 255 0 255
0.05290424 0.07249483 0.3629237 255 0 255
0.05371262 0.07260574 0.3627284 255 0 255
0.05961627 0.07338105 0.362237 255 0 255
0.06069266 0.0734717 0.3629779 255 0 255
-0.02707217 0.05975047 0.4642436 255 0 255
-0.01005711 0.06493935 0.3894548 255 0 255
-0.007050802 0.06548751 0.3826007 255 0 255
-0.004258158 0.06591554 0.3777052 255 0 255
0.0009752194 0.06666341 0.3698134 255 0 255
0.002644928 0.06681684 0.3688199 255 0 255
0.005144408 0.06696424 0.3688031 255 0 255
0.00597745 0.06701549 0.3687911 255 0 255
0.01088767 0.06746003 0.3666581 255 0 255
0.015071 0.06770439 0.3674541 255 0 255
0.02415899 0.06845994 0.3667334 255 0 255
0.02840085 0.06879393 0.3672708 255 0 255
0.03267086 0.0691575 0.3677245 255 0 255
0.03928008 0.06987455 0.3666997 255 0 255
0.04010387 0.06996886 0.3665574 255 0 255
0.04074617 0.07010894 0.3654294 255 0 255
0.04443464 0.07068375 0.3627 255 0 255
0.04503928 0.0708259 0.3615596 255 0 255
0.04927383 0.07129958 0.3616799 255 0 255
0.05191779 0.07158305 0.3620994 255 0 255
0.05832123 0.07226905 0.363591 255 0 255
0.05913268 0.07238749 0.3633751 255 0 255
0.06156188 0.07274897 0.3627084 255 0 255
-0.03138145 0.06126456 0.4205388 255 0 255
-0.02987213 0.06155506 0.4167037 255 0 255
-0.02622591 0.05728941 0.4832709 255 0 255
-0.02583092 0.05658212 0.4943183 255 0 255
-0.01717835 0.06024162 0.4429415 255 0 255
-0.01428939 0.06222403 0.4141341 255 0 255
-0.01248032 0.06319672 0.4002507 255 0 255
-0.01002508 0.06400202 0.3893956 255 0 255
-0.007947256 0.06447398 0.3835025 255 0 255
-0.005123559 0.06492004 0.3786196 255 0 255
-0.004146583 0.06522278 0.3746569 255 0 255
-0.003267608 0.065329 0.3736829 255 0 255
-0.001532607 0.06554359 0.3717245 255 0 255
0.000171665 0.06576089 0.3697528 255 0 255
0.001009158 0.06580611 0.3697599 255 0 255
0.001845874 0.06591659 0.368766 255 0 255
0.01010058 0.06655894 0.3666366 255 0 255
0.01092565 0.06661607 0.366606 255 0 255
0.01175058 0.06667427 0.3665723 255 0 255
0.01751984 0.06711061 0.3662482 255 0 255
0.02573973 0.06782205 0.3655184 255 0 255
0.03009984 0.06810844 0.3670155 255 0 255
0.03243294 0.06841267 0.3656971 255 0 255
0.04509212 0.06999539 0.3615113 255 0 255
0.04750248 0.07030127 0.3610085 255 0 255
0.04932867 0.07046676 0.3616318 255 0 255
0.05174 0.07078931 0.3610801 255 0 255
0.05919231 0.07154292 0.3633274 255 0 255
0.06135581 0.07171027 0.3648099 255 0 255
0.06189751 0.0718694 0.3636218 255 0 255
0.06270956 0.07199287 0.3633923 255 0 255
-0.03213613 0.06032674 0.4183564 255 0 255
-0.0268054 0.06119039 0.4079503 255 0 255
-0.02166936 0.06068017 0.4174952 255 0 255
-0.02018261 0.06023653 0.4246317 255 0 255
-0.01858677 0.05980145 0.4317613 255 0 255
-0.01261826 0.06200373 0.4031724 255 0 255
-0.008896931 0.06338323 0.3853929 255 0 255
-0.007873371 0.06363106 0.3824447 255 0 255
-0.005060769 0.06409662 0.3775628 255 0 255
-0.001484722 0.06474742 0.3706694 255 0 255
0.00271426 0.06511094 0.3687102 255 0 255
0.007661285 0.06554963 0.366654 255 0 255
0.01256316 0.0659551 0.3654836 255 0 255
0.01420516 0.06607639 0.3654009 255 0 255
0.01502588 0.0661386 0.3653549 255 0 255
0.01584641 0.06620185 0.3653058 255 0 255
0.01748673 0.06633146 0.3651981 255 0 255
0.02003113 0.06647144 0.3660075 255 0 255
0.0233207 0.06675683 0.3657159 255 0 255
0.04353419 0.06896576 0.3617791 255 0 255
0.04413963 0.06911528 0.3606424 255 0 255
0.04654164 0.06941763 0.3601516 255 0 255
0.047341 0.06952043 0.3599818 255 0 255
0.04813971 0.06962422 0.359809 255 0 255
0.05420158 0.07029051 0.3604496 255 0 255
-0.02764939 0.06023252 0.4067731 255 0 255
-0.02644498 0.06040321 0.4049045 255 0 255
-0.02449326 0.06044299 0.405118 255 0 255
-0.01960753 0.06056446 0.4055871 255 0 255
-0.01434169 0.06000268 0.4159814 255 0 255
-0.008773873 0.06261119 0.3833351 255 0 255
-0.006840356 0.06298225 0.3794285 255 0 255
-0.004997986 0.06328146 0.3765031 255 0 255
0.008492369 0.06483029 0.365577 255 0 255
0.01670739 0.06542795 0.3651955 255 0 255
0.02080689 0.06576582 0.3648877 255 0 255
0.0265335 0.06628243 0.3643256 255 0 255
0.02747071 0.06629737 0.3652236 255 0 255
0.0314275 0.06676555 0.3637223 255 0 255
0.03826761 0.06735177 0.364711 255 0 255
0.04638313 0.0686451 0.3591212 255 0 255
0.04819369 0.06879956 0.3597547 255 0 255
0.04899204 0.06890471 0.3595788 255 0 255
0.04978969 0.06901086 0.3593999 255 0 255
0.05241651 0.06928612 0.3598147 255 0 255
0.057172 0.06971002 0.3617192 255 0 255
0.05904714 0.06990033 0.3622584 255 0 255
-0.03426895 0.05810185 0.4189153 255 0 255
-0.03069482 0.05909372 0.4073232 255 0 255
-0.02946465 0.0592689 0.4054695 255 0 255
-0.02739239 0.05938151 0.404716 255 0 255
-0.02203372 0.05988355 0.4002796 255 0 255
0.001117687 0.06338888 0.3675849 255 0 255
0.001948551 0.06343506 0.367589 255 0 255
0.002774305 0.06355809 0.3665929 255 0 255
0.003601273 0.06360618 0.3665907 255 0 255
0.007735269 0.06386243 0.3665328 255 0 255
0.00938825 0.06397229 0.3664876 255 0 255
0.01017469 0.06410243 0.3654638 255 0 255
0.01258968 0.06435024 0.3643676 255 0 255
0.01497999 0.06460578 0.3632445 255 0 255
0.02075953 0.06499866 0.3638333 255 0 255
0.02401994 0.06528709 0.3635325 255 0 255
0.0280877 0.06567089 0.3630868 255 0 255
0.03310322 0.06610127 0.3634365 255 0 255
0.03959766 0.06682166 0.3624087 255 0 255
0.04040705 0.06691635 0.3622662 255 0 255
0.04404359 0.06752135 0.3595515 255 0 255
0.04802808 0.06803095 0.358723 255 0 255
0.04882299 0.06813592 0.3585481 255 0 255
0.04961717 0.06824187 0.3583702 255 0 255
0.0580365 0.06899132 0.3614511 255 0 255
0.06099407 0.06925429 0.3627235 255 0 255
-0.03898543 0.05541134 0.4372823 255 0 255
-0.02498476 0.05875187 0.400894 255 0 255
-0.02381755 0.05894013 0.3990151 255 0 255
-0.02162337 0.05923542 0.3962336 255 0 255
-0.02058871 0.05934265 0.3953319 255 0 255
-0.01768853 0.05950349 0.3945879 255 0 255
-0.01617453 0.05914494 0.3997055 255 0 255
-0.01075636 0.06030346 0.3880772 255 0 255
-0.004842916 0.06175756 0.3733786 255 0 255
-0.00393742 0.06196021 0.3714129 255 0 255
-0.002208431 0.06220451 0.3694635 255 0 255
-0.001369522 0.06224691 0.3694804 255 0 255
0.007772588 0.06301937 0.3664671 255 0 255
0.01181029 0.06345666 0.3643393 255 0 255
0.01339158 0.06365269 0.363268 255 0 255
0.01501995 0.06377586 0.3631804 255 0 255
0.01671838 0.06382797 0.364075 255 0 255
0.02080213 0.06416609 0.3637693 255 0 255
0.02800864 0.06491065 0.3620339 255 0 255
0.03543228 0.06559815 0.3620267 255 0 255
0.03866359 0.06596183 0.3615031 255 0 255
0.04108133 0.06624538 0.361078 255 0 255
0.04249682 0.06650247 0.3598001 255 0 255
0.05205093 0.06774746 0.3577577 255 0 255
0.05703126 0.06809185 0.3606358 255 0 255
0.06158872 0.06858692 0.3614779 255 0 255
-0.0378275 0.05498301 0.4292985 255 0 255
-0.03274539 0.0569509 0.4078829 255 0 255
-0.02337747 0.0583129 0.3949699 255 0 255
-0.02243821 0.05833381 0.3950673 255 0 255
-0.01656861 0.05874686 0.3925971 255 0 255
-0.01422741 0.05822959 0.3997605 255 0 255
-0.01061817 0.05954499 0.3860101 255 0 255
-0.007413811 0.06068646 0.3742017 255 0 255
-0.005630959 0.06093255 0.3722806 255 0 255
-0.004750964 0.06105673 0.3713147 255 0 255
-0.003878638 0.06118163 0.3703454 255 0 255
-0.00217473 0.06134869 0.3693928 255 0 255
0.0003555018 0.06164809 0.3674414 255 0 255
0.003672535 0.06191923 0.3664555 255 0 255
0.005327768 0.06201905 0.3664419 255 0 255
0.006134397 0.06215329 0.3654341 255 0 255
0.006982733 0.06212308 0.3664159 255 0 255
0.01021106 0.0625069 0.3643343 255 0 255
0.01337534 0.06290323 0.3622053 255 0 255
0.01418609 0.06296416 0.3621633 255 0 255
0.02329271 0.06354985 0.3634816 255 0 255
0.02562414 0.06385067 0.3622426 255 0 255
0.03034422 0.0644004 0.360677 255 0 255
0.0361268 0.06493005 0.3608506 255 0 255
0.03709847 0.06495032 0.3617055 255 0 255
0.0379064 0.06504206 0.3615731 255 0 255
0.03952057 0.06522854 0.3612992 255 0 255
0.04094639 0.06548688 0.3600326 255 0 255
0.04394668 0.06594452 0.3584486 255 0 255
0.04474173 0.06604454 0.35829 255 0 255
0.04949836 0.06666595 0.3572742 255 0 255
0.0505202 0.06671114 0.3580651 255 0 255
0.05210631 0.06692944 0.3576944 255 0 255
0.05473014 0.06720521 0.3580816 255 0 255
-0.04017506 0.05303705 0.4379109 255 0 255
-0.0341191 0.0556451 0.4106153 255 0 255
-0.02099421 0.05785182 0.3901205 255 0 255
-0.01806338 0.058107 0.3883909 255 0 255
-0.01706963 0.05822463 0.3874756 255 0 255
-0.01148935 0.05858773 0.3858773 255 0 255
-0.006448861 0.06002736 0.372172 255 0 255
-0.00556489 0.06015461 0.3712099 255 0 255
-0.004717801 0.06019321 0.3712398 255 0 255
-0.0004516253 0.06066804 0.3683537 255 0 255
0.004523144 0.06121301 0.3653816 255 0 255
0.01746816 0.06239363 0.3618942 255 0 255
0.02485774 0.06294805 0.3622582 255 0 255
0.03280278 0.06383073 0.3602794 255 0 255
0.04240604 0.06493009 0.358689 255 0 255
0.04399865 0.06512763 0.3583812 255 0 255
0.04955254 0.06585123 0.3572075 255 0 255
0.05216169 0.06611183 0.3576277 255 0 255
0.06035579 0.06690811 0.3596496 255 0 255
0.06279596 0.06697785 0.3620779 255 0 255
0.06388941 0.06704595 0.3628041 255 0 255
-0.02372686 0.05684765 0.3897479 255 0 255
-0.02158977 0.05717476 0.3869707 255 0 255
-0.01514467 0.05744486 0.3865416 255 0 255
-0.01416919 0.05756941 0.385615 255 0 255
-0.01117558 0.05813756 0.3808236 255 0 255
-0.00820722 0.05889991 0.3740059 255 0 255
-0.00726713 0.05912355 0.3720566 255 0 255
-0.003761197 0.05964945 0.3682024 255 0 255
-0.002089108 0.05973116 0.3682459 255 0 255
0.000431018 0.06004625 0.3662959 255 0 255
0.002087875 0.06013793 0.3663077 255 0 255
0.004559532 0.06037461 0.3653061 255 0 255
0.009468099 0.06078281 0.364215 255 0 255
0.01420586 0.06140179 0.3610248 255 0 255
0.01507702 0.06137618 0.3619742 255 0 255
0.0215584 0.06191223 0.3615037 255 0 255
0.02548585 0.06236444 0.3601198 255 0 255
0.02628924 0.06244097 0.3600323 255 0 255
0.02721382 0.06243594 0.3609307 255 0 255
0.03190183 0.06300554 0.3593337 255 0 255
0.03606114 0.06336151 0.3597266 255 0 255
0.0368626 0.06345186 0.3595988 255 0 255
0.04226325 0.06418764 0.35764 255 0 255
0.04722956 0.06471976 0.3576585 255 0 255
0.04960673 0.06503694 0.3571376 255 0 255
0.05062971 0.065075 0.357928 255 0 255
0.05828039 0.0659658 0.358089 255 0 255
-0.03895809 0.05156183 0.4298214 255 0 255
-0.02892348 0.05532612 0.394046 255 0 255
-0.02657592 0.05575477 0.390328 255 0 255
-0.01571925 0.05688646 0.3824145 255 0 255
-0.0120285 0.05720266 0.3806829 255 0 255
-0.01097495 0.05753039 0.377757 255 0 255
-0.004563899 0.05875938 0.3680954 255 0 255
-0.002870049 0.05893602 0.3671502 255 0 255
0.002946434 0.05943874 0.3652341 255 0 255
0.01511747 0.06055183 0.3618972 255 0 255
0.01755086 0.0607455 0.3617441 255 0 255
0.01836152 0.06081218 0.3616869 255 0 255
0.02241074 0.06116121 0.3613548 255 0 255
0.02553035 0.06154644 0.3600442 255 0 255
0.02941173 0.06202585 0.3585888 255 0 255
0.03034676 0.06202244 0.3594734 255 0 255
0.03514763 0.06253562 0.3587928 255 0 255
0.03754148 0.06280615 0.3584113 255 0 255
0.04152036 0.06327755 0.3577147 255 0 255
0.04310787 0.06347327 0.3574148 255 0 255
0.04548449 0.06377456 0.3569421 255 0 255
0.04706571 0.06398053 0.3566118 255 0 255
0.05940302 0.06519556 0.3587634 255 0 255
0.06235548 0.06543051 0.3600177 255 0 255
-0.03321353 0.05318466 0.4044085 255 0 255
-0.02403983 0.05546515 0.384519 255 0 255
-0.0202423 0.05575019 0.3829197 255 0 255
-0.01356475 0.05654754 0.3774965 255 0 255
-0.01169728 0.05681321 0.3756289 255 0 255
-0.005399577 0.05776927 0.3689761 255 0 255
-0.004530379 0.05790897 0.3680115 255 0 255
-0.001170173 0.05817351 0.367104 255 0 255
0.001332081 0.05850716 0.3651462 255 0 255
0.002157325 0.05855352 0.3651506 255 0 255
0.007874178 0.05910417 0.3631046 255 0 255
0.01028393 0.05936789 0.3620399 255 0 255
0.01186063 0.05958031 0.3609838 255 0 255
0.01509389 0.05982335 0.3608237 255 0 255
0.02235536 0.06043146 0.3602845 255 0 255
0.02305799 0.06059646 0.3592189 255 0 255
0.02557497 0.06072887 0.3599654 255 0 255
0.03091249 0.06146633 0.3573173 255 0 255
0.03439678 0.06163252 0.3588359 255 0 255
0.03519606 0.06172086 0.3587149 255 0 255
0.03918469 0.06217819 0.3580644 255 0 255
0.04236564 0.0625626 0.3574892 255 0 255
0.04395254 0.06276096 0.3571834 255 0 255
0.04790866 0.06327483 0.3563658 255 0 255
0.04869786 0.06338069 0.3561932 255 0 255
0.05208779 0.06373792 0.3564402 255 0 255
-0.03860898 0.04956523 0.4276284 255 0 255
-0.03571067 0.05098087 0.4149907 255 0 255
-0.03006369 0.05317546 0.3956994 255 0 255
-0.02861676 0.05362014 0.3918778 255 0 255
-0.02744287 0.05384956 0.3900222 255 0 255
-0.02616645 0.05418793 0.387174 255 0 255
-0.02390132 0.05465149 0.3834353 255 0 255
-0.01886414 0.05539586 0.3779607 255 0 255
-0.01702781 0.05555012 0.3771285 255 0 255
-0.01326374 0.05608459 0.3734366 255 0 255
-0.01234149 0.05622043 0.3725041 255 0 255
-0.009723703 0.0564207 0.3716702 255 0 255
-0.0036596 0.05709846 0.3679509 255 0 255
-0.0003018677 0.05737144 0.3670313 255 0 255
0.003824141 0.05801852 0.3630753 255 0 255
0.01276159 0.05871918 0.3618587 255 0 255
0.01594262 0.05906731 0.3606931 255 0 255
0.0199798 0.05940083 0.3604091 255 0 255
0.02400993 0.05976053 0.3600488 255 0 255
0.03189806 0.06065028 0.358114 255 0 255
0.03364488 0.06073035 0.3588726 255 0 255
0.03746821 0.06126764 0.3572719 255 0 255
0.04082697 0.06155591 0.3577024 255 0 255
0.0471718 0.06235995 0.3564557 255 0 255
0.05056125 0.06270534 0.3567287 255 0 255
0.05135243 0.06281511 0.3565463 255 0 255
0.0521429 0.0629259 0.3563608 255 0 255
0.05293262 0.06303771 0.3561722 255 0 255
0.05977045 0.06381863 0.3564723 255 0 255
-0.04752509 0.04150924 0.488465 255 0 255
-0.03124667 0.05197209 0.3974376 255 0 255
-0.02602036 0.05336704 0.3860868 255 0 255
-0.01971079 0.05448061 0.3777805 255 0 255
-0.01865334 0.0547251 0.3758855 255 0 255
-0.01494989 0.0551558 0.3732138 255 0 255
-0.009639414 0.0556652 0.3705851 255 0 255
-0.007094205 0.05576866 0.3707141 255 0 255
-0.005332101 0.05606179 0.3687972 255 0 255
-0.00364979 0.05614009 0.368854 255 0 255
-0.002767127 0.05639841 0.3668899 255 0 255
0.0087345 0.0576074 0.3619185 255 0 255
0.01027907 0.05792959 0.3598818 255 0 255
0.01112996 0.05788193 0.3608462 255 0 255
0.01355764 0.05806038 0.3607403 255 0 255
0.01511065 0.05828797 0.3596618 255 0 255
0.01759994 0.05837895 0.3605026 255 0 255
0.01921521 0.05851375 0.3603861 255 0 255
0.02782479 0.05952603 0.3575527 255 0 255
0.03007318 0.05986508 0.3562714 255 0 255
0.03289196 0.05982918 0.3589028 255 0 255
0.03655443 0.06046021 0.3563362 255 0 255
0.03734516 0.06055133 0.3562075 255 0 255
0.03928481 0.06055266 0.3578999 255 0 255
0.04484938 0.06124018 0.3568628 255 0 255
0.04722485 0.06155032 0.3563728 255 0 255
0.05140721 0.0620032 0.3564635 255 0 255
0.05876698 0.06296068 0.3556452 255 0 255
-0.03635262 0.04830736 0.4196768 255 0 255
-0.02830936 0.05194772 0.3896979 255 0 255
-0.0259914 0.05243868 0.385983 255 0 255
-0.02065549 0.05345149 0.3785819 255 0 255
-0.01958668 0.05370298 0.3766921 255 0 255
-0.0166362 0.05423191 0.3729743 255 0 255
-0.01484402 0.05439741 0.372126 255 0 255
-0.01045511 0.0547717 0.37044 255 0 255
-0.007020517 0.05502119 0.369626 255 0 255
-0.005265824 0.05532198 0.3677098 255 0 255
-0.00442823 0.05536049 0.3677396 255 0 255
0.001440938 0.05610754 0.3638855 255 0 255
0.003886987 0.05647214 0.3619023 255 0 255
0.01027636 0.05722289 0.3587992 255 0 255
0.01588764 0.05764373 0.3585336 255 0 255
0.02388398 0.05833397 0.3578969 255 0 255
0.0254796 0.05848458 0.3577333 255 0 255
0.02707375 0.05863934 0.3575575 255 0 255
0.03264058 0.05921373 0.3568474 255 0 255
0.03343407 0.05929993 0.3567339 255 0 255
0.03739421 0.05974649 0.356121 255 0 255
0.03915478 0.05983647 0.3568338 255 0 255
0.04074058 0.06002734 0.3565542 255 0 255
0.04370217 0.06051461 0.354984 255 0 255
0.04448799 0.06061526 0.3548283 255 0 255
0.0486331 0.06104377 0.3549751 255 0 255
0.05489802 0.061931 0.353495 255 0 255
0.05882464 0.06214849 0.3555598 255 0 255
0.06225617 0.06255874 0.3556422 255 0 255
-0.03982735 0.04424061 0.4441236 255 0 255
-0.02971921 0.05051254 0.3934059 255 0 255
-0.02270295 0.05215845 0.381254 255 0 255
-0.02052752 0.05267449 0.3774903 255 0 255
-0.01841258 0.05319382 0.3737072 255 0 255
-0.01566804 0.0535028 0.3719566 255 0 255
-0.01036715 0.05402907 0.3693496 255 0 255
-0.009522248 0.05406125 0.3693989 255 0 255
-0.008677179 0.05409458 0.369445 255 0 255
-0.003555685 0.05455162 0.3676691 255 0 255
-0.001863017 0.05475072 0.3667201 255 0 255
0.006368145 0.05579937 0.3617851 255 0 255
0.01191989 0.05652688 0.3586463 255 0 255
0.01358114 0.0565346 0.3595657 255 0 255
0.01432571 0.0567077 0.3585327 255 0 255
0.0208237 0.05712729 0.3590863 255 0 255
0.0240355 0.0574181 0.3587942 255 0 255
0.02483764 0.05749346 0.3587136 255 0 255
0.02858162 0.05809642 0.3562933 255 0 255
0.04947244 0.06034722 0.354712 255 0 255
0.05104218 0.06056555 0.3543542 255 0 255
0.05392054 0.06110482 0.3526391 255 0 255
0.05469756 0.06121908 0.3524446 255 0 255
0.05834007 0.0615116 0.353554 255 0 255
0.05939541 0.06154529 0.3543002 255 0 255
0.06231517 0.06174468 0.3555537 255 0 255
-0.02246191 0.05149777 0.379172 255 0 255
-0.02020405 0.05215252 0.3744211 255 0 255
-0.01924435 0.05229614 0.3735197 255 0 255
-0.0182921 0.05244073 0.3726143 255 0 255
-0.01734729 0.05258625 0.3717049 255 0 255
-0.01555843 0.0527573 0.3708638 255 0 255
-0.0129357 0.05296031 0.3700709 255 0 255
-0.005165234 0.05374634 0.3665196 255 0 255
0.0006952604 0.05451773 0.3626914 255 0 255
0.001514387 0.05456308 0.3626991 255 0 255
0.01190985 0.05583262 0.357559 255 0 255
0.0127619 0.05577572 0.3585162 255 0 255
0.01845396 0.05610709 0.3591782 255 0 255
0.02237405 0.05657052 0.3578628 255 0 255
0.02796145 0.05710414 0.3572806 255 0 255
0.03007334 0.05756529 0.3550169 255 0 255
0.03416534 0.05788312 0.3554523 255 0 255
0.03495463 0.05797147 0.3553335 255 0 255
0.03792988 0.05843931 0.3538496 255 0 255
0.03889341 0.05842875 0.3546946 255 0 255
0.04046512 0.05861891 0.354418 255 0 255
0.042419 0.05911448 0.3520316 255 0 255
0.04438415 0.05911234 0.3536744 255 0 255
0.04516614 0.05921414 0.3535167 255 0 255
0.04851368 0.05953369 0.3538252 255 0 255
0.05062129 0.05995528 0.3523294 255 0 255
0.05241873 0.06008111 0.3529281 255 0 255
0.05397562 0.06030726 0.3525484 255 0 255
0.05475293 0.06042187 0.352354 255 0 255
0.05917786 0.06082896 0.3532517 255 0 255
-0.03535107 0.04499487 0.420424 255 0 255
-0.03231934 0.04692311 0.4058244 255 0 255
-0.02717474 0.04925967 0.3884917 255 0 255
-0.02487839 0.04979974 0.3847729 255 0 255
-0.02017373 0.05127287 0.3743125 255 0 255
-0.01629675 0.05199571 0.3696965 255 0 255
-0.0119918 0.05225572 0.3690342 255 0 255
-0.01030119 0.05231691 0.3691424 255 0 255
-0.008562699 0.0525083 0.368247 255 0 255
-0.006839124 0.05270355 0.3673382 255 0 255
-0.003461182 0.05298081 0.3664727 255 0 255
0.0007314194 0.05369031 0.3625901 255 0 255
0.008821175 0.05455763 0.3595531 255 0 255
0.01039333 0.05479049 0.3585128 255 0 255
0.01119637 0.05484785 0.3584841 255 0 255
0.01194942 0.05502648 0.3574609 255 0 255
0.01514371 0.05526974 0.3573046 255 0 255
0.02010582 0.05543215 0.3589582 255 0 255
0.0208177 0.05561932 0.3579041 255 0 255
0.02161786 0.0556905 0.3578361 255 0 255
0.03876207 0.05773729 0.3536215 255 0 255
0.04032672 0.05792706 0.3533465 255 0 255
0.04246944 0.05832461 0.3519375 255 0 255
0.04422813 0.05841951 0.352607 255 0 255
0.04521791 0.05841741 0.353422 255 0 255
0.04621466 0.05841732 0.3542326 255 0 255
0.06214639 0.06021075 0.3544132 255 0 255
-0.03078403 0.04645286 0.4018965 255 0 255
-0.02361292 0.04928824 0.3818037 255 0 255
-0.02240099 0.04969976 0.3789462 255 0 255
-0.01814066 0.05082868 0.3714083 255 0 255
-0.01105481 0.05156044 0.3679914 255 0 255
-0.007643302 0.05182091 0.3671912 255 0 255
-0.005064228 0.05218838 0.365318 255 0 255
-0.0008837703 0.05264756 0.3634524 255 0 255
-6.014221E-05 0.05269117 0.3634664 255 0 255
0.01123601 0.05403817 0.3583823 255 0 255
0.01364508 0.05421717 0.3582784 255 0 255
0.01773347 0.05441485 0.3590341 255 0 255
0.02023773 0.05449941 0.3598454 255 0 255
0.0217579 0.05476272 0.3587233 255 0 255
0.02474803 0.05529784 0.3564468 255 0 255
0.03863029 0.05705404 0.3525462 255 0 255
0.04018787 0.05724345 0.3522728 255 0 255
0.04077325 0.05744967 0.3511565 255 0 255
0.04329609 0.05763458 0.3516903 255 0 255
0.05228212 0.05858895 0.3517727 255 0 255
0.05305772 0.05870164 0.3515855 255 0 255
0.05357944 0.05891715 0.3504332 255 0 255
0.05460668 0.05893012 0.351202 255 0 255
0.05692428 0.05928048 0.3506047 255 0 255
0.0619181 0.05949859 0.3533621 255 0 255
-0.02118095 0.04922557 0.3759663 255 0 255
-0.01887155 0.05007567 0.3702257 255 0 255
-0.01361708 0.05048871 0.3686922 255 0 255
-0.01277165 0.05051652 0.3687543 255 0 255
-0.01012477 0.05087449 0.3669427 255 0 255
-0.009286304 0.05090658 0.3669918 255 0 255
-0.007608964 0.05097416 0.3670803 255 0 255
-0.005895828 0.05117927 0.3661658 255 0 255
-0.004225292 0.05125549 0.366229 255 0 255
-0.003366305 0.05142778 0.3652649 255 0 255
-0.001687273 0.05164245 0.3643179 255 0 255
0.001624538 0.05208266 0.3623857 255 0 255
0.002440987 0.05226046 0.3613991 255 0 255
0.006475205 0.05276917 0.3593945 255 0 255
0.01522577 0.05366021 0.3570995 255 0 255
0.01602445 0.05372399 0.357053 255 0 255
0.01769849 0.0537289 0.3579401 255 0 255
0.01930191 0.05386452 0.3578255 255 0 255
0.02797134 0.05480784 0.3559953 255 0 255
0.03164203 0.0554603 0.3535286 255 0 255
0.03711915 0.05607799 0.3527069 255 0 255
0.03867946 0.0562638 0.3524455 255 0 255
0.04082297 0.05666413 0.3510565 255 0 255
0.04412267 0.05694665 0.3514372 255 0 255
0.04588804 0.05704009 0.3520927 255 0 255
0.05311223 0.0579091 0.3514855 255 0 255
0.05671165 0.05859298 0.3495476 255 0 255
-0.03289682 0.04209654 0.4183232 255 0 255
-0.03011612 0.04406297 0.4047053 255 0 255
-0.02444717 0.04745273 0.3814574 255 0 255
-0.01780963 0.0495122 0.3682182 255 0 255
-0.01687956 0.04967307 0.3673096 255 0 255
-0.01603862 0.04969625 0.3673841 255 0 255
-0.01527523 0.04958203 0.3684428 255 0 255
-0.01092966 0.0499971 0.3667763 255 0 255
-0.01009107 0.05002809 0.3668285 255 0 255
-0.009252314 0.05006026 0.3668775 255 0 255
-0.006696169 0.05030058 0.366016 255 0 255
-0.003307034 0.05072612 0.3641616 255 0 255
2.884723E-05 0.05130209 0.361265 255 0 255
0.0008453354 0.05134653 0.3612759 255 0 255
0.002478272 0.0514387 0.3612887 255 0 255
0.00409958 0.05166974 0.3602983 255 0 255
0.005685824 0.0520382 0.358305 255 0 255
0.01526702 0.0528562 0.3569921 255 0 255
0.01686472 0.05298515 0.3568963 255 0 255
0.019968 0.05338459 0.355681 255 0 255
0.02234786 0.05359775 0.3554796 255 0 255
0.02314053 0.05367092 0.3554066 255 0 255
0.02722274 0.05392703 0.3559806 255 0 255
0.02867946 0.05421255 0.3548112 255 0 255
0.03154167 0.05479138 0.3524424 255 0 255
0.03466014 0.0551374 0.3519932 255 0 255
0.03699386 0.05540777 0.3516254 255 0 255
0.03777072 0.05549998 0.3514968 255 0 255
0.03990882 0.05590096 0.3501188 255 0 255
0.04048662 0.05611455 0.3490051 255 0 255
0.05830176 0.05804544 0.3490349 255 0 255
0.05934776 0.05806103 0.3497794 255 0 255
-0.03107516 0.04191284 0.4124199 255 0 255
-0.02464068 0.0462575 0.383297 255 0 255
-0.01362121 0.04863832 0.3694451 255 0 255
-0.005790479 0.04963629 0.364946 255 0 255
-0.002404062 0.05021347 0.3620897 255 0 255
0.001698937 0.05070983 0.3601799 255 0 255
0.00493465 0.05104059 0.3591908 255 0 255
0.008942962 0.05144156 0.3581339 255 0 255
0.009747443 0.05149735 0.3581116 255 0 255
0.0105518 0.05155424 0.3580861 255 0 255
0.01913125 0.05264995 0.354645 255 0 255
0.0199215 0.05271871 0.3545843 255 0 255
0.02307967 0.05300439 0.3543115 255 0 255
0.02635298 0.05317715 0.3549753 255 0 255
0.02793499 0.05333551 0.3547964 255 0 255
0.0287254 0.05341625 0.3547024 255 0 255
0.02951541 0.05349807 0.3546055 255 0 255
0.03095071 0.05379223 0.3534214 255 0 255
0.03781945 0.05471434 0.3513902 255 0 255
0.03918642 0.05502493 0.3501496 255 0 255
0.04910057 0.05588412 0.3512152 255 0 255
0.05297093 0.05643943 0.3503147 255 0 255
0.05759055 0.05713985 0.3491367 255 0 255
0.06151719 0.05730321 0.3511472 255 0 255
-0.02108606 0.04656983 0.3755956 255 0 255
-0.01877727 0.04749039 0.3698651 255 0 255
-0.01698649 0.04768052 0.3690404 255 0 255
-0.01443778 0.04775425 0.3692566 255 0 255
-0.01358773 0.04778117 0.3693223 255 0 255
-0.004861028 0.04912589 0.3628815 255 0 255
-0.004063459 0.04901983 0.3639003 255 0 255
0.0009230321 0.04984747 0.3600555 255 0 255
0.002549382 0.04993957 0.3600684 255 0 255
0.003354487 0.05012982 0.3590805 255 0 255
0.004151794 0.05032069 0.3580896 255 0 255
0.006543896 0.05061383 0.3570783 255 0 255
0.008947201 0.05077435 0.3570297 255 0 255
0.01214991 0.05100348 0.3569229 255 0 255
0.01295021 0.05106343 0.3568887 255 0 255
0.01369175 0.05126356 0.3558629 255 0 255
0.01442534 0.05146422 0.3548344 255 0 255
0.01521731 0.05152677 0.3547916 255 0 255
0.01759191 0.05172094 0.3546453 255 0 255
0.01838298 0.05178775 0.3545905 255 0 255
0.02391262 0.0522853 0.354124 255 0 255
0.02548965 0.05243697 0.3539639 255 0 255
0.02706523 0.05259287 0.353792 255 0 255
0.03085363 0.05313231 0.3523293 255 0 255
0.03709082 0.05383656 0.3514087 255 0 255
0.03942139 0.05411785 0.3510149 255 0 255
0.04288434 0.05485538 0.3483579 255 0 255
0.04364952 0.0549554 0.3482076 255 0 255
0.04616149 0.05513963 0.3487069 255 0 255
0.0507043 0.05531505 0.3507546 255 0 255
0.05277465 0.05576998 0.3492448 255 0 255
0.05431059 0.05599888 0.348866 255 0 255
0.0550774 0.05611489 0.3486722 255 0 255
0.05633947 0.05646479 0.3473196 255 0 255
0.05737319 0.05646905 0.3480732 255 0 255
0.05918017 0.0565972 0.3486124 255 0 255
-0.0248005 0.04412404 0.3849944 255 0 255
-0.01979127 0.04630823 0.3716206 255 0 255
-0.01525443 0.0468719 0.3690614 255 0 255
-0.01348436 0.0470746 0.3682099 255 0 255
-0.009988308 0.04749233 0.3664656 255 0 255
-0.009098496 0.04767393 0.3655272 255 0 255
-0.007384095 0.04789063 0.3646278 255 0 255
0.0009602329 0.04903105 0.3599359 255 0 255
0.004189782 0.04951251 0.3579713 255 0 255
0.005800881 0.04961268 0.35796 255 0 255
0.006582527 0.04980988 0.3569608 255 0 255
0.0144037 0.05081214 0.3537308 255 0 255
0.02306231 0.05155726 0.3530999 255 0 255
0.02855286 0.052098 0.3525119 255 0 255
0.03075618 0.05248066 0.3512353 255 0 255
0.03756003 0.05340714 0.3492172 255 0 255
0.03986677 0.05368953 0.3488188 255 0 255
0.04951113 0.05466423 0.3488913 255 0 255
0.05742853 0.05568836 0.3479624 255 0 255
0.05819241 0.05580881 0.347757 255 0 255
0.05923624 0.05581339 0.3485013 255 0 255
-0.01785952 0.04579102 0.3696898 255 0 255
-0.01522093 0.04601587 0.3689318 255 0 255
-0.0006408904 0.04797567 0.3607761 255 0 255
0.00018391 0.04817059 0.3598019 255 0 255
0.001810787 0.0484117 0.3588325 255 0 255
0.003422059 0.04865634 0.3578509 255 0 255
0.005839621 0.04880529 0.3578386 255 0 255
0.006645354 0.0488571 0.3578286 255 0 255
0.008224797 0.04911293 0.3568109 255 0 255
0.0144447 0.05002183 0.3536125 255 0 255
0.01523332 0.05008442 0.35357 255 0 255
0.02074724 0.05055239 0.3531896 255 0 255
0.02232021 0.05069567 0.3530543 255 0 255
0.02938171 0.0513928 0.3522992 255 0 255
0.0301644 0.05147551 0.3522005 255 0 255
0.03546336 0.05222056 0.3504507 255 0 255
0.03623848 0.05231129 0.350329 255 0 255
0.0383781 0.05272423 0.3489725 255 0 255
0.0399159 0.05291407 0.3487042 255 0 255
0.05518656 0.05455198 0.3484468 255 0 255
0.05824794 0.05502902 0.3476432 255 0 255
0.06082389 0.05527813 0.3479598 255 0 255
-0.02078741 0.04423682 0.3732292 255 0 255
-0.0197261 0.04457321 0.371354 255 0 255
-0.01518714 0.04516044 0.3687989 255 0 255
-0.01334691 0.04552889 0.3669636 255 0 255
-0.01243813 0.04571449 0.3660404 255 0 255
-0.01070089 0.04593093 0.3651688 255 0 255
-0.008145813 0.04618459 0.3643293 255 0 255
-0.007271014 0.04637577 0.3633852 255 0 255
-0.001421513 0.04711366 0.360632 255 0 255
0.001849315 0.04744572 0.359695 255 0 255
0.002658655 0.04764713 0.3587121 255 0 255
0.004266358 0.04789783 0.3577252 255 0 255
0.005072476 0.04794757 0.3577211 255 0 255
0.007462422 0.04825648 0.3567031 255 0 255
0.01062588 0.0486305 0.3556336 255 0 255
0.01137592 0.04884012 0.3546184 255 0 255
0.01520779 0.04944501 0.3524622 255 0 255
0.0159926 0.0495085 0.3524171 255 0 255
0.01677717 0.04957308 0.3523689 255 0 255
0.02079051 0.04976403 0.3530687 255 0 255
0.02157741 0.04983531 0.3530026 255 0 255
0.02382661 0.05020198 0.3518035 255 0 255
0.02851165 0.05066885 0.3512941 255 0 255
0.02929115 0.05075036 0.3511989 255 0 255
0.03162712 0.05100118 0.3508958 255 0 255
0.03240488 0.0510869 0.3507889 255 0 255
0.03611532 0.05167104 0.3492351 255 0 255
0.03842678 0.05194878 0.3488547 255 0 255
0.05167134 0.05356906 0.3471653 255 0 255
0.05421475 0.05378243 0.3475654 255 0 255
0.06088034 0.05449617 0.3478427 255 0 255
-0.019693 0.04370663 0.3712156 255 0 255
-0.01600378 0.04428097 0.3685903 255 0 255
-0.01507614 0.04446758 0.3676787 255 0 255
-0.007235248 0.04554475 0.363253 255 0 255
-0.006367962 0.0457407 0.362306 255 0 255
0.0002588618 0.04654044 0.3595464 255 0 255
0.001886504 0.04678976 0.3585785 255 0 255
0.003498494 0.04704259 0.3575983 255 0 255
0.006675284 0.04755862 0.3556018 255 0 255
0.01062242 0.04798865 0.3545206 255 0 255
0.0121585 0.04826061 0.3534757 255 0 255
0.01446387 0.04859728 0.3523804 255 0 255
0.01681904 0.04878828 0.3522452 255 0 255
0.01847073 0.04876819 0.353125 255 0 255
0.0246528 0.04949419 0.3516028 255 0 255
0.02777722 0.04980628 0.3512636 255 0 255
0.03322942 0.05039315 0.3505568 255 0 255
0.03384649 0.05062625 0.3494677 255 0 255
0.03461923 0.05071491 0.3493527 255 0 255
0.0361633 0.05089538 0.3491139 255 0 255
0.03770528 0.05108004 0.3488633 255 0 255
0.03847548 0.05117391 0.3487337 255 0 255
0.05147664 0.05292894 0.3460859 255 0 255
0.05552942 0.05337121 0.3461028 255 0 255
0.05628814 0.05348947 0.3459055 255 0 255
0.05960022 0.05384507 0.3460375 255 0 255
-0.01682045 0.04340327 0.3683751 255 0 255
-0.01504186 0.04361733 0.3675397 255 0 255
-0.01146732 0.04422346 0.3648428 255 0 255
-0.008857998 0.04464683 0.3630294 255 0 255
-0.004620089 0.04531645 0.3602683 255 0 255
0.001924666 0.04597967 0.3584467 255 0 255
0.01764592 0.04807003 0.3520673 255 0 255
0.02302632 0.04871628 0.3506462 255 0 255
0.02536145 0.04894186 0.3504152 255 0 255
0.02782276 0.04902475 0.3511377 255 0 255
0.02938317 0.04918759 0.3509506 255 0 255
0.03016275 0.04927059 0.3508526 255 0 255
0.03312027 0.04976255 0.3494552 255 0 255
0.03389375 0.04985041 0.3493432 255 0 255
0.04006345 0.05059106 0.3483419 255 0 255
0.04083221 0.05068833 0.3482037 255 0 255
0.05710064 0.052838 0.3455833 255 0 255
0.05813606 0.05282591 0.3463317 255 0 255
0.06070369 0.05306499 0.3466508 255 0 255
-0.03589226 0.02228779 0.4831385 255 0 255
-0.0209867 0.04110452 0.3757409 255 0 255
-0.01772533 0.04235726 0.3691348 255 0 255
-0.01678629 0.04254971 0.368232 255 0 255
-0.01500727 0.04276769 0.3673972 255 0 255
-0.009704928 0.04361586 0.3638261 255 0 255
-0.008871581 0.04364808 0.363875 255 0 255
0.0003411657 0.04507957 0.3582922 255 0 255
0.00672919 0.04612868 0.3543535 255 0 255
0.01303025 0.04674311 0.3531834 255 0 255
0.01382033 0.04680417 0.3531471 255 0 255
0.01454652 0.04702846 0.3521231 255 0 255
0.0169032 0.04722041 0.3519882 255 0 255
0.01768834 0.04728655 0.3519374 255 0 255
0.02004216 0.0474914 0.3517672 255 0 255
0.02696158 0.04832026 0.3501182 255 0 255
0.03020909 0.0484903 0.350724 255 0 255
0.03176746 0.04865995 0.3505194 255 0 255
0.05715515 0.05206781 0.3454582 255 0 255
-0.01987922 0.04058824 0.3737202 255 0 255
-0.01882151 0.04095694 0.3718467 255 0 255
-0.01777902 0.04132646 0.3699685 255 0 255
-0.01405188 0.04211804 0.3663382 255 0 255
-0.007126369 0.04305536 0.3628367 255 0 255
0.0003792556 0.04427053 0.3581539 255 0 255
0.001190478 0.04431539 0.3581652 255 0 255
0.002000144 0.0445316 0.3571881 255 0 255
0.004395509 0.04501471 0.3552239 255 0 255
0.005177775 0.04523379 0.3542347 255 0 255
0.007535045 0.04555737 0.3532204 255 0 255
0.008326353 0.04561096 0.3532048 255 0 255
0.01228103 0.04589529 0.3530827 255 0 255
0.01458805 0.04624493 0.3519899 255 0 255
0.01930086 0.04663954 0.351694 255 0 255
0.02311428 0.04716023 0.3503856 255 0 255
0.0238935 0.04723476 0.3503116 255 0 255
0.02545087 0.04738703 0.350155 255 0 255
0.03166522 0.04803867 0.3494117 255 0 255
0.03321454 0.04821217 0.3491967 255 0 255
-0.03212346 0.02361017 0.4613139 255 0 255
-0.01493719 0.04107038 0.3671025 255 0 255
-0.01401656 0.04127363 0.3661899 255 0 255
-0.007089542 0.04222682 0.3626914 255 0 255
-0.005395228 0.04247522 0.3617834 255 0 255
-0.002871444 0.04294278 0.3599052 255 0 255
-0.00203451 0.04315882 0.3589445 255 0 255
0.006012586 0.04449219 0.3540896 255 0 255
0.007574721 0.04476932 0.3530828 255 0 255
0.009949037 0.04493377 0.3530274 255 0 255
0.01769389 0.04589001 0.3506858 255 0 255
0.01925657 0.04602556 0.3505761 255 0 255
0.0240486 0.04629206 0.3511567 255 0 255
0.02782982 0.04684754 0.3497637 255 0 255
-0.02620473 0.03060461 0.4172269 255 0 255
-0.01990461 0.03865572 0.3743874 255 0 255
-0.01762128 0.03978883 0.3686832 255 0 255
-0.01222657 0.04066593 0.3651847 255 0 255
-0.01132467 0.04087602 0.364262 255 0 255
-0.002812073 0.0423062 0.3587754 255 0 255
-0.001181008 0.04238875 0.3588196 255 0 255
0.002079574 0.04274553 0.3578876 255 0 255
0.005256182 0.04364986 0.3539547 255 0 255
0.008406366 0.04403578 0.3529266 255 0 255
0.01388487 0.04461745 0.3517529 255 0 255
0.02017238 0.04514623 0.3513595 255 0 255
0.02252588 0.04536239 0.3511634 255 0 255
0.02330975 0.04543662 0.3510922 255 0 255
0.0240933 0.04551191 0.3510181 255 0 255
0.02631934 0.04591276 0.3498 255 0 255
-0.01128829 0.04004082 0.3641085 255 0 255
-0.01039387 0.04025572 0.3631829 255 0 255
0.003732846 0.04221596 0.3567643 255 0 255
0.004513229 0.04262784 0.3547969 255 0 255
0.006091848 0.04290977 0.3538035 255 0 255
0.009201328 0.04348385 0.3517815 255 0 255
0.01319619 0.04359606 0.3526285 255 0 255
0.01464908 0.04407572 0.3505895 255 0 255
0.02021603 0.04436576 0.3512174 255 0 255
0.02257022 0.04458248 0.3510216 255 0 255
0.02480654 0.04498209 0.3498212 255 0 255
0.02648742 0.04496539 0.3506365 255 0 255
0.02714313 0.04521718 0.3495738 255 0 255
-0.03126889 0.01901259 0.465656 255 0 255
-0.02049921 0.03557215 0.3809013 255 0 255
-0.0175503 0.03807995 0.3683654 255 0 255
-0.0139088 0.03874446 0.365725 255 0 255
-0.01125162 0.03920631 0.3639518 255 0 255
-0.0002783698 0.04099669 0.3575544 255 0 255
0.001346085 0.04108598 0.3575805 255 0 255
0.002156018 0.04131814 0.3566063 255 0 255
0.002964319 0.04136539 0.3566118 255 0 255
0.00613178 0.04211956 0.3536557 255 0 255
0.006902421 0.04235604 0.3526637 255 0 255
0.008453557 0.04264694 0.3516537 255 0 255
0.01086322 0.04263202 0.3525723 255 0 255
0.01165498 0.04269053 0.3525452 255 0 255
0.01318113 0.04299296 0.3515004 255 0 255
0.01860422 0.04362637 0.3502078 255 0 255
0.02329152 0.04405556 0.3498274 255 0 255
0.02718873 0.04444297 0.3494301 255 0 255
-0.02112694 0.03331309 0.3875629 255 0 255
-0.01760158 0.03703316 0.3691787 255 0 255
-0.01387228 0.03790281 0.3655635 255 0 255
-0.01295884 0.03812262 0.3646502 255 0 255
-0.01121466 0.0383725 0.3637919 255 0 255
-0.00943312 0.03881885 0.3619401 255 0 255
-0.004358649 0.03960448 0.3592441 255 0 255
-0.001051854 0.04014779 0.3573825 255 0 255
0.0005730467 0.04023499 0.3574147 255 0 255
0.001385515 0.04028029 0.3574263 255 0 255
0.003812603 0.04061228 0.356461 255 0 255
0.006942587 0.04157047 0.3525137 255 0 255
0.007705361 0.04181153 0.3515196 255 0 255
0.017159 0.04253158 0.3511434 255 0 255
0.01864746 0.04285072 0.3500602 255 0 255
0.01942961 0.04291971 0.3500042 255 0 255
-0.02804608 0.02031063 0.4467769 255 0 255
-0.01383547 0.03706186 0.3653986 255 0 255
-0.01201596 0.03751028 0.3635699 255 0 255
-0.01028276 0.03776606 0.3627053 255 0 255
-0.009395728 0.03799361 0.3617785 255 0 255
-0.006861173 0.03829002 0.3609363 255 0 255
-0.006033388 0.03832579 0.3609758 255 0 255
-0.005172987 0.03855808 0.3600321 255 0 255
-0.0002002341 0.03938563 0.3572428 255 0 255
0.002235222 0.03971539 0.3562965 255 0 255
0.007009036 0.04059348 0.3533416 255 0 255
0.007775762 0.04083877 0.3523483 255 0 255
0.01168872 0.04131203 0.3512622 255 0 255
0.01477529 0.04174628 0.3501455 255 0 255
0.01790815 0.04200763 0.3499626 255 0 255
0.02416133 0.0425828 0.3494564 255 0 255
0.02650101 0.04281648 0.3492185 255 0 255
-0.01564827 0.03576929 0.3670425 255 0 255
-0.0146443 0.03619582 0.3651617 255 0 255
-0.00935806 0.03716905 0.3616136 255 0 255
-0.007650844 0.03743485 0.3607296 255 0 255
-0.005958713 0.03770471 0.3598326 255 0 255
-0.004281742 0.03797858 0.3589226 255 0 255
-0.001803307 0.03829743 0.3580237 255 0 255
0.0006570602 0.03882334 0.3561167 255 0 255
0.003882493 0.03920824 0.3551647 255 0 255
0.004687551 0.03925785 0.3551643 255 0 255
0.009364313 0.04035986 0.3511788 255 0 255
0.01015314 0.04041627 0.3511578 255 0 255
0.01094184 0.04047381 0.3511339 255 0 255
0.01173041 0.04053243 0.3511071 255 0 255
0.01251882 0.04059216 0.3510773 255 0 255
0.01330704 0.04065303 0.3510447 255 0 255
0.01403367 0.04090837 0.3500298 255 0 255
0.01481763 0.04097112 0.3499914 255 0 255
0.02342552 0.04173385 0.3493765 255 0 255
-0.02107155 0.02829049 0.3978175 255 0 255
-0.01844559 0.03221049 0.3793885 255 0 255
-0.0168788 0.03387371 0.37167 255 0 255
-0.008536114 0.03617396 0.3624724 255 0 255
-0.005992214 0.03648229 0.3616231 255 0 255
-0.005095681 0.03692571 0.3597026 255 0 255
-0.00427112 0.03696377 0.3597359 255 0 255
-0.002580936 0.03744845 0.3578352 255 0 255
-0.001763963 0.03748963 0.3578591 255 0 255
-0.0009469343 0.03753195 0.35788 255 0 255
0.006315982 0.03876529 0.3540132 255 0 255
0.01177223 0.03975353 0.3509489 255 0 255
0.01256086 0.03981341 0.3509192 255 0 255
-0.01184008 0.03522347 0.3620844 255 0 255
-0.01011375 0.03549079 0.3612219 255 0 255
-0.006785472 0.03562332 0.3614121 255 0 255
0.006334227 0.03817856 0.3528704 255 0 255
0.01023609 0.03885861 0.3508381 255 0 255
-0.02018143 0.02594974 0.3994498 255 0 255
-0.009294737 0.03448816 0.3620755 255 0 255
-0.008458585 0.03452091 0.3621249 255 0 255
-0.001668455 0.03608628 0.3565429 255 0 255
0.005577484 0.03734074 0.3527102 255 0 255
0.008733451 0.03776136 0.35169 255 0 255
0.009526956 0.03781731 0.3516721 255 0 255
-0.02160407 0.02129099 0.4157697 255 0 255
-0.01799849 0.02803081 0.3857103 255 0 255
-0.01098695 0.03338499 0.3627634 255 0 255
-0.009306892 0.03344724 0.362872 255 0 255
-0.003303523 0.03477466 0.3582717 255 0 255
0.00323171 0.03619405 0.3535184 255 0 255
0.004033797 0.03624266 0.3535212 255 0 255
0.004820447 0.03650458 0.3525439 255 0 255
0.006393315 0.03681871 0.3515575 255 0 255
-0.0137492 0.03159188 0.3662861 255 0 255
-0.01094803 0.03255641 0.3625806 255 0 255
-0.010053 0.03280646 0.3616624 255 0 255
-0.003263504 0.03396583 0.3580934 255 0 255
-0.001588536 0.03448354 0.3561932 255 0 255
0.005659731 0.03577054 0.3523681 255 0 255
0.006434528 0.03603794 0.3513858 255 0 255
0.01036175 0.03652747 0.3503356 255 0 255
-0.007417464 0.03252694 0.3596779 255 0 255
-0.006588193 0.03256191 0.3597207 255 0 255
0.005701122 0.03498653 0.3521925 255 0 255
-0.01593195 0.02555076 0.3842807 255 0 255
-0.01288093 0.029706 0.3669415 255 0 255
-0.006548157 0.03174669 0.3595343 255 0 255
-0.002341339 0.0326168 0.3567808 255 0 255
-0.001523051 0.03265841 0.356805 255 0 255
0.0009392458 0.03324006 0.3549106 255 0 255
0.008138339 0.03436324 0.3519869 255 0 255
0.008901149 0.0346412 0.3509977 255 0 255
0.0111892 0.03525704 0.3489878 255 0 255
-0.01758694 0.01930714 0.406377 255 0 255
-0.01191858 0.02912075 0.3658372 255 0 255
-0.01088773 0.02984427 0.3629839 255 0 255
-0.009988704 0.03010611 0.3620687 255 0 255
-0.007337577 0.03089721 0.3593016 255 0 255
-0.004786502 0.03146616 0.3574759 255 0 255
0.0009804151 0.03244549 0.3547257 255 0 255
0.003396024 0.033043 0.3528054 255 0 255
0.005017973 0.03291475 0.353782 255 0 255
0.006607319 0.03324614 0.3527995 255 0 255
