ply
format ascii 1.0
Comment Generated by Floating Hands
element vertex 1122
Comment Left: (0.0, 0.0, 0.0)
Comment Right: (0.1, 0.0, 0.4)
Comment Time: 2023-05-01 09:21:41,254
property double x
property double y
property double z
property uchar red
property uchar green
property uchar blue
end_header
0.05754517 0.07303655 0.3490558 255 0 255
0.0684263 0.07300225 0.3593237 255 0 255
0.06924481 0.07305819 0.3591616 255 0 255
0.03610703 0.07081966 0.3621441 255 0 255
0.03760594 0.07102131 0.3590724 255 0 255
0.04096593 0.07167778 0.348861 255 0 255
0.04321618 0.07180145 0.3476857 255 0 255
0.04708301 0.07193381 0.3473275 255 0 255
0.04962983 0.07191613 0.349061 255 0 255
0.05131074 0.07192821 0.3498687 255 0 255
0.05662963 0.07224366 0.3481427 255 0 255
0.05740535 0.0722849 0.3480258 255 0 255
0.05911649 0.07231818 0.3487688 255 0 255
0.06179445 0.07235131 0.3503481 255 0 255
0.07089964 0.07232457 0.3587829 255 0 255
0.03471645 0.0695169 0.3691443 255 0 255
0.03611067 0.06996907 0.3620941 255 0 255
0.03684152 0.07010562 0.3600615 255 0 255
0.03825645 0.07038084 0.3559891 255 0 255
0.04097186 0.07087918 0.3488143 255 0 255
0.04244868 0.07098337 0.3477021 255 0 255
0.05041934 0.07114747 0.3489243 255 0 255
0.0511986 0.07118108 0.3488312 255 0 255
0.05275601 0.07125126 0.3486361 255 0 255
0.05494728 0.07142077 0.3473329 255 0 255
0.0557204 0.07146004 0.3472226 255 0 255
0.05896961 0.07157069 0.3477371 255 0 255
0.06068726 0.07160471 0.3484668 255 0 255
0.06391914 0.07147277 0.3529717 255 0 255
0.06508207 0.07141414 0.3547899 255 0 255
0.06625965 0.0713575 0.3566023 255 0 255
0.06745186 0.07130287 0.3584087 255 0 255
0.06846329 0.07130411 0.3592298 255 0 255
0.03468138 0.06870321 0.368092 255 0 255
0.03616013 0.06905455 0.3630378 255 0 255
0.04323011 0.07021298 0.3475897 255 0 255
0.04710045 0.07034642 0.3472319 255 0 255
0.0503105 0.07040855 0.3478836 255 0 255
0.05327701 0.07061008 0.3465064 255 0 255
0.05650604 0.07070448 0.3470601 255 0 255
0.05898369 0.07077149 0.3476878 255 0 255
0.05975874 0.07081596 0.3475621 255 0 255
0.06278666 0.07071912 0.3510976 255 0 255
0.03888921 0.068951 0.3528481 255 0 255
0.04865598 0.06961362 0.3470156 255 0 255
0.0509738 0.06971139 0.3467481 255 0 255
0.05328847 0.06981793 0.3464542 255 0 255
0.05482963 0.06989378 0.3462435 255 0 255
0.06071685 0.06999942 0.3483647 255 0 255
0.07173545 0.07014316 0.3543822 255 0 255
-0.001771524 0.06695272 0.3713954 255 0 255
0.03621342 0.067275 0.3639168 255 0 255
0.03680388 0.06765188 0.358897 255 0 255
0.03962488 0.06822862 0.3517463 255 0 255
0.04034767 0.06832075 0.3506993 255 0 255
0.04098965 0.06848521 0.3486552 255 0 255
0.04324398 0.06862579 0.3474812 255 0 255
0.05098416 0.06891916 0.3466927 255 0 255
0.05252833 0.06898952 0.3464997 255 0 255
0.05329985 0.06902611 0.3463988 255 0 255
0.0597873 0.06921887 0.347454 255 0 255
0.06593525 0.06897918 0.3544782 255 0 255
0.06731323 0.06883524 0.3572639 255 0 255
0.03626305 0.06634173 0.3648489 255 0 255
0.03833265 0.06700169 0.3567581 255 0 255
0.04035329 0.06751541 0.3506394 255 0 255
0.04177572 0.06771012 0.3485388 255 0 255
0.04255569 0.06773334 0.3484788 255 0 255
0.05485372 0.06831108 0.3461297 255 0 255
0.05731811 0.06836091 0.3467775 255 0 255
0.05996668 0.06834932 0.348379 255 0 255
0.06187068 0.06830062 0.3500826 255 0 255
0.06265672 0.06834928 0.3499462 255 0 255
0.06380316 0.0682578 0.3517689 255 0 255
0.06915697 0.06803852 0.3578622 255 0 255
0.07078888 0.06815564 0.3575309 255 0 255
0.07170279 0.06881431 0.350196 255 0 255
-0.001049546 0.06505968 0.372352 255 0 255
0.03546512 0.06538528 0.3658132 255 0 255
0.04092852 0.0669703 0.3475391 255 0 255
0.05255025 0.06740659 0.3463794 255 0 255
0.06092965 0.06751887 0.3491704 255 0 255
0.06479624 0.06741833 0.352542 255 0 255
0.06578059 0.06739692 0.353374 255 0 255
0.06677201 0.06737707 0.3542014 255 0 255
0.03631662 0.06453671 0.3657056 255 0 255
0.03964084 0.06580159 0.3515558 255 0 255
0.04171138 0.06619991 0.3474171 255 0 255
0.04326471 0.06624752 0.3472948 255 0 255
0.05734404 0.06677271 0.3466508 255 0 255
0.07082628 0.06647097 0.3573974 255 0 255
0.07206408 0.06637899 0.3591762 255 0 255
0.03903701 0.06471065 0.3545175 255 0 255
0.04249469 0.06543109 0.347289 255 0 255
0.05797329 0.06610622 0.3454799 255 0 255
0.05890473 0.0660668 0.346342 255 0 255
0.06156913 0.06604005 0.3479218 255 0 255
0.06366949 0.06589153 0.3505893 255 0 255
0.06562515 0.06583185 0.3522579 255 0 255
0.07144968 0.06577026 0.3561814 255 0 255
0.07269116 0.06567202 0.3579556 255 0 255
0.07175019 0.06705018 0.3428518 255 0 255
0.03958618 0.06427692 0.3504191 255 0 255
0.04172381 0.06461584 0.347277 255 0 255
0.06643799 0.06506716 0.3520344 255 0 255
0.07146828 0.06493307 0.3561067 255 0 255
0.07100823 0.06620375 0.3429526 255 0 255
0.04102511 0.06370656 0.3482517 255 0 255
0.05722826 0.06448501 0.3454534 255 0 255
0.05799923 0.06452846 0.3453352 255 0 255
0.06467525 0.06423089 0.3512767 255 0 255
0.07191725 0.06506992 0.3467635 255 0 255
0.03713174 0.06120053 0.3643529 255 0 255
0.06432133 0.06360414 0.3492407 255 0 255
0.06806344 0.06354332 0.3515689 255 0 255
0.07048421 0.06329093 0.3551428 255 0 255
0.07274804 0.06313895 0.3577196 255 0 255
0.07327245 0.06372313 0.3525094 255 0 255
0.04096379 0.06221983 0.3471001 255 0 255
0.06050636 0.0629909 0.3457866 255 0 255
0.07255142 0.06239102 0.3566625 255 0 255
0.03893936 0.06083036 0.3521295 255 0 255
0.06035045 0.06230272 0.3447229 255 0 255
0.06513882 0.06204552 0.3489289 255 0 255
0.0674965 0.06175161 0.3525314 255 0 255
0.07154123 0.0615886 0.3557749 255 0 255
0.04026541 0.06050655 0.3479737 255 0 255
0.06731641 0.06103612 0.3514667 255 0 255
0.0737747 0.06104856 0.3541886 255 0 255
0.06191803 0.06082782 0.3442849 255 0 255
0.06286883 0.06076846 0.3451267 255 0 255
0.06401176 0.0606011 0.3469409 255 0 255
0.07298459 0.06015358 0.354272 255 0 255
0.03735443 0.05836413 0.35194 255 0 255
0.03962344 0.05866081 0.3498211 255 0 255
0.04020721 0.05903891 0.3467984 255 0 255
0.06306436 0.05986585 0.3460108 255 0 255
0.06402646 0.05980453 0.3468472 255 0 255
0.06518459 0.05963165 0.3486548 255 0 255
0.06635746 0.05946085 0.3504565 255 0 255
0.06734847 0.05940475 0.3512784 255 0 255
0.07176176 0.05948197 0.3524088 255 0 255
0.03908293 0.05734776 0.3537333 255 0 255
0.06289723 0.05919102 0.344938 255 0 255
0.06996439 0.05865138 0.3516739 255 0 255
0.07383 0.05856031 0.3538969 255 0 255
-0.0008034552 0.04784326 0.4211431 255 0 255
0.03902639 0.05665886 0.35264 255 0 255
0.03969965 0.05693341 0.3506115 255 0 255
0.06502546 0.05814569 0.3474816 255 0 255
0.07384838 0.05869057 0.3466688 255 0 255
0.06999762 0.0570165 0.3514654 255 0 255
0.07224557 0.05677296 0.3540373 255 0 255
0.07327583 0.05671542 0.354831 255 0 255
0.07431304 0.05665956 0.3556201 255 0 255
0.03897496 0.05517135 0.3514359 255 0 255
0.06467631 0.05680599 0.3453243 255 0 255
0.06583945 0.05660403 0.3471245 255 0 255
0.06682046 0.05653238 0.3479467 255 0 255
0.06880359 0.05639392 0.3495778 255 0 255
0.07537547 0.05576666 0.3562925 255 0 255
0.07818992 0.05528098 0.3607374 255 0 255
0.03965015 0.0546631 0.349299 255 0 255
0.04101646 0.05512298 0.3462307 255 0 255
0.07227986 0.05511775 0.353813 255 0 255
0.0747961 0.05472987 0.3573259 255 0 255
0.04102229 0.05433686 0.3461185 255 0 255
0.0647049 0.05522651 0.3451035 255 0 255
0.06567566 0.05514563 0.3459299 255 0 255
0.06665352 0.05506634 0.3467519 255 0 255
0.07459018 0.05402191 0.3562413 255 0 255
0.07916865 0.0530358 0.36435 255 0 255
0.06569011 0.05435299 0.3458143 255 0 255
0.06666829 0.05427003 0.3466358 255 0 255
0.07086398 0.05381587 0.3508444 255 0 255
0.005215198 0.04621673 0.3880127 255 0 255
0.06866124 0.05330591 0.3481452 255 0 255
0.07417738 0.05263097 0.3540657 255 0 255
0.06867645 0.05250339 0.3480217 255 0 255
0.07089603 0.05218791 0.3505974 255 0 255
0.07663646 0.05201272 0.3533872 255 0 255
0.06749703 0.05194329 0.3461162 255 0 255
0.07048664 0.05167538 0.348538 255 0 255
0.065166 0.05165489 0.3424145 255 0 255
0.06970711 0.05080744 0.3485712 255 0 255
0.07050215 0.05087063 0.3484077 255 0 255
0.07172955 0.05062719 0.3501693 255 0 255
0.07377988 0.05045382 0.351749 255 0 255
0.07481545 0.05036976 0.3525318 255 0 255
0.07051751 0.05006643 0.3482741 255 0 255
0.07196187 0.04965783 0.350998 255 0 255
0.07798133 0.04929489 0.3547134 255 0 255
0.07053275 0.04926288 0.3481374 255 0 255
0.07197758 0.0488429 0.3508594 255 0 255
0.07278328 0.0489097 0.3506876 255 0 255
0.07735955 0.04949281 0.3486367 255 0 255
0.003541762 0.03263012 0.431391 255 0 255
0.07614073 0.04764685 0.3538478 255 0 255
0.07672334 0.04788345 0.3527026 255 0 255
0.07705803 0.04828395 0.3505991 255 0 255
0.07688998 0.04901034 0.3465839 255 0 255
0.06658426 0.04809103 0.3446284 255 0 255
0.06976669 0.04759356 0.3480177 255 0 255
0.07362024 0.04735064 0.3502263 255 0 255
0.07707497 0.04746795 0.3504538 255 0 255
0.07670758 0.04895036 0.3424333 255 0 255
0.06542671 0.04759504 0.3427024 255 0 255
0.06957203 0.04696545 0.3469091 255 0 255
0.07283019 0.04646951 0.3502527 255 0 255
0.07709172 0.04665265 0.3503053 255 0 255
0.07850291 0.04755994 0.3459129 255 0 255
0.06543977 0.04681608 0.342557 255 0 255
0.06958637 0.04616806 0.3467604 255 0 255
0.07468522 0.0456203 0.3507068 255 0 255
0.07572585 0.04551606 0.3514821 255 0 255
0.07677337 0.04541365 0.3522525 255 0 255
0.07888906 0.04521429 0.3537791 255 0 255
0.07995716 0.04511739 0.354535 255 0 255
0.06545269 0.04603774 0.3424085 255 0 255
0.06740779 0.0457919 0.3440369 255 0 255
0.07470091 0.04480555 0.3505516 255 0 255
0.01159036 0.04050907 0.362061 255 0 255
0.0664398 0.04513269 0.3430726 255 0 255
0.06721944 0.04519288 0.3429223 255 0 255
0.06820405 0.04506857 0.34373 255 0 255
0.07287566 0.04403536 0.3497888 255 0 255
0.07494499 0.04380782 0.3513492 255 0 255
0.06605682 0.04473217 0.3409941 255 0 255
0.07392199 0.0431071 0.3504097 255 0 255
0.07518905 0.04280312 0.3521421 255 0 255
0.07942708 0.04235697 0.3551994 255 0 255
0.08099907 0.04187858 0.3578532 255 0 255
0.004274532 0.02050321 0.4505624 255 0 255
0.06901356 0.04356429 0.3432582 255 0 255
0.07393697 0.04229422 0.3502447 255 0 255
0.07520437 0.04198279 0.3519757 255 0 255
0.07919967 0.04171239 0.3540792 255 0 255
0.01313319 0.04020986 0.3508522 255 0 255
0.06902695 0.04278186 0.3430961 255 0 255
0.07862975 0.04061031 0.3550531 255 0 255
0.08028942 0.0407681 0.3546591 255 0 255
0.08212455 0.04007652 0.358251 255 0 255
0.009367911 0.03021633 0.3935554 255 0 255
0.06904022 0.04200012 0.3429309 255 0 255
0.07147398 0.04133053 0.3464305 255 0 255
0.0737414 0.04086999 0.3489515 255 0 255
0.07605193 0.04041809 0.3514505 255 0 255
0.0800579 0.04013256 0.3535349 255 0 255
0.06905332 0.04121912 0.3427626 255 0 255
0.07272699 0.04019609 0.347998 255 0 255
0.0737558 0.04006317 0.3487777 255 0 255
0.07712041 0.0394732 0.3520392 255 0 255
0.07818075 0.03934802 0.3527991 255 0 255
0.07924795 0.03922473 0.3535542 255 0 255
0.08172379 0.03946723 0.3529525 255 0 255
0.06709437 0.04072978 0.3409877 255 0 255
0.07457713 0.03932906 0.3484239 255 0 255
0.07561628 0.03919587 0.3491944 255 0 255
0.07771534 0.0389351 0.3507211 255 0 255
0.08154445 0.04023192 0.3457535 255 0 255
0.005873149 0.01582069 0.4435084 255 0 255
0.07275479 0.03859184 0.3476425 255 0 255
0.07355893 0.03866258 0.3474695 255 0 255
0.07459142 0.03852399 0.3482438 255 0 255
0.07960942 0.03806771 0.3510986 255 0 255
0.06909179 0.03888055 0.3422394 255 0 255
0.07276841 0.03779086 0.3474599 255 0 255
0.06910433 0.03810252 0.3420587 255 0 255
0.07154135 0.03735884 0.3455419 255 0 255
0.07278192 0.03699068 0.3472743 255 0 255
0.07670628 0.03663037 0.3494057 255 0 255
0.06812619 0.03748428 0.3410787 255 0 255
0.07382537 0.03604053 0.3478613 255 0 255
0.07965499 0.03561553 0.3505301 255 0 255
0.08205939 0.03512169 0.352955 255 0 255
0.009583258 0.02057318 0.4036973 255 0 255
0.07012677 0.03638807 0.3424794 255 0 255
0.0713494 0.03600235 0.3442153 255 0 255
0.07361331 0.03546447 0.3467208 255 0 255
0.08016658 0.03435202 0.352219 255 0 255
0.08099309 0.03443454 0.352019 255 0 255
0.08342308 0.03393499 0.3544286 255 0 255
0.01310611 0.02962804 0.3628143 255 0 255
0.06696367 0.03633903 0.3389534 255 0 255
0.06914104 0.0357732 0.3414986 255 0 255
0.07259969 0.03482517 0.3457507 255 0 255
0.07570096 0.0343561 0.3480617 255 0 255
0.08126028 0.03338503 0.3527586 255 0 255
0.08208995 0.03346941 0.3525547 255 0 255
0.08190113 0.03522459 0.3455735 255 0 255
0.006990289 0.00855059 0.4428733 255 0 255
0.0669751 0.03557517 0.3387632 255 0 255
0.07571445 0.03355234 0.3478617 255 0 255
0.08102272 0.03279097 0.3516139 255 0 255
0.01221596 0.02421154 0.3768909 255 0 255
0.06817334 0.03439761 0.3403169 255 0 255
0.07387801 0.03283701 0.347071 255 0 255
0.07596108 0.03251271 0.3486018 255 0 255
0.07783092 0.03243203 0.3491722 255 0 255
0.08103726 0.0319705 0.3514065 255 0 255
0.08268891 0.03214085 0.3509977 255 0 255
0.08245827 0.0331625 0.3470455 255 0 255
0.06699755 0.03404984 0.3383738 255 0 255
0.07038937 0.03303386 0.3426446 255 0 255
0.07285941 0.03220678 0.346094 255 0 255
0.07597429 0.03170689 0.3483945 255 0 255
0.08515539 0.03078647 0.3531682 255 0 255
0.07040115 0.03225417 0.3424407 255 0 255
0.07390331 0.03124037 0.3466569 255 0 255
0.07019847 0.03172516 0.3412894 255 0 255
0.07142285 0.03129534 0.3430142 255 0 255
0.07787119 0.03000747 0.3485385 255 0 255
0.08082703 0.02976059 0.349829 255 0 255
0.08247211 0.02993186 0.3494228 255 0 255
0.0838471 0.03117444 0.3450669 255 0 255
0.07042426 0.0306974 0.3420236 255 0 255
0.07121634 0.03076709 0.3418607 255 0 255
0.07370205 0.02989982 0.3452893 255 0 255
0.07682828 0.02937286 0.3475701 255 0 255
0.08192027 0.02878326 0.3503419 255 0 255
0.01131952 0.01086886 0.4074867 255 0 255
0.06626534 0.0309456 0.3377065 255 0 255
0.06822904 0.03055802 0.3392962 255 0 255
0.07348811 0.02936468 0.3441325 255 0 255
0.07684092 0.02857088 0.3473503 255 0 255
0.07789709 0.0283956 0.3481002 255 0 255
0.07978117 0.02830504 0.3486508 255 0 255
0.08574998 0.02697252 0.3541425 255 0 255
0.08523397 0.02832382 0.3492786 255 0 255
0.008940117 -0.001798037 0.4485257 255 0 255
0.06944308 0.02933661 0.3408122 255 0 255
0.07225299 0.02902523 0.3422053 255 0 255
0.07349988 0.02857792 0.3439134 255 0 255
0.07557028 0.02820995 0.3454365 255 0 255
0.07661592 0.02802883 0.346191 255 0 255
0.07954524 0.02775513 0.3474924 255 0 255
0.08576423 0.02613993 0.3539109 255 0 255
0.01746524 0.0274523 0.3417431 255 0 255
0.06628581 0.02943005 0.3372809 255 0 255
0.06746748 0.02896239 0.3390184 255 0 255
0.07226435 0.02824666 0.3419852 255 0 255
0.07534855 0.0276802 0.3442763 255 0 255
0.07743948 0.0273122 0.3457804 255 0 255
0.08382913 0.02538531 0.3531754 255 0 255
0.01520053 0.01806476 0.3712254 255 0 255
0.06826075 0.02826477 0.3386475 255 0 255
0.07126125 0.02766518 0.3409901 255 0 255
0.07850768 0.02633252 0.3462962 255 0 255
0.08606019 0.02421438 0.3543645 255 0 255
0.06947508 0.02702418 0.3401482 255 0 255
0.07228657 0.02669233 0.3415357 255 0 255
0.0735342 0.02622323 0.3432375 255 0 255
0.08090592 0.02489613 0.3484648 255 0 255
0.08580561 0.02364806 0.3531963 255 0 255
0.08776719 0.02357155 0.3536787 255 0 255
0.01607577 0.01600361 0.3717034 255 0 255
0.06631553 0.02716352 0.3366203 255 0 255
0.06729479 0.02695109 0.3374123 255 0 255
0.07795856 0.02438244 0.3469485 255 0 255
0.08444571 0.02326863 0.3513164 255 0 255
0.08528243 0.02336103 0.3511025 255 0 255
0.08722815 0.02418478 0.3485994 255 0 255
0.01751261 0.01887778 0.3590432 255 0 255
0.06829115 0.02597977 0.3379717 255 0 255
0.07562855 0.0242552 0.3442845 255 0 255
0.08175472 0.02336968 0.3477837 255 0 255
0.08283873 0.02318284 0.3485052 255 0 255
0.08585934 0.02290897 0.3497175 255 0 255
0.08669066 0.02300376 0.3494985 255 0 255
0.08780084 0.02282659 0.3501969 255 0 255
0.01877619 0.02126611 0.3483128 255 0 255
0.06633464 0.02565713 0.3361649 255 0 255
0.06731424 0.02543763 0.3369548 255 0 255
0.07798184 0.02278401 0.3464658 255 0 255
0.08011758 0.02239072 0.3479372 255 0 255
0.08311184 0.02209525 0.3491836 255 0 255
0.08394206 0.02218613 0.3489749 255 0 255
0.08552837 0.02514786 0.3396217 255 0 255
0.01849306 0.018095 0.3557004 255 0 255
0.0655669 0.02484117 0.3360768 255 0 255
0.0665434 0.02461665 0.3368692 255 0 255
0.07357758 0.02309706 0.342293 255 0 255
0.08012929 0.02158611 0.347689 255 0 255
0.01963865 0.01997884 0.3468939 255 0 255
0.06952538 0.02318902 0.3389809 255 0 255
0.07233923 0.02282325 0.3403583 255 0 255
0.07542727 0.02218338 0.3426278 255 0 255
0.07647058 0.02197404 0.343375 255 0 255
0.08121932 0.02058207 0.3481639 255 0 255
0.08204764 0.0206706 0.3479625 255 0 255
0.08287512 0.02076039 0.3477581 255 0 255
0.08672889 0.02056255 0.3487459 255 0 255
0.01281271 -0.02073793 0.4712405 255 0 255
0.01941918 0.01705804 0.3533067 255 0 255
0.02065814 0.0213231 0.3400044 255 0 255
0.0799026 0.02027146 0.3462595 255 0 255
0.08563697 0.01994384 0.3477893 255 0 255
0.01671923 0.0002003188 0.4024425 255 0 255
0.06637125 0.02265585 0.3352187 255 0 255
0.0673515 0.02242227 0.3360042 255 0 255
0.07625373 0.02070192 0.341949 255 0 255
0.07859979 0.01997905 0.3443499 255 0 255
0.08699554 0.02059337 0.3432143 255 0 255
0.07861043 0.01918949 0.3440925 255 0 255
0.07967493 0.01897584 0.3448222 255 0 255
0.08074629 0.01876428 0.3455471 255 0 255
0.08522907 0.02255208 0.3345327 255 0 255
0.01355783 -0.02995078 0.4861555 255 0 255
0.01847751 0.005140739 0.380957 255 0 255
0.02033337 0.01525523 0.3506408 255 0 255
0.07943588 0.01848648 0.3436408 255 0 255
0.08374773 0.0176374 0.3465104 255 0 255
0.07318421 0.01905522 0.3389365 255 0 255
0.07863113 0.01761358 0.3435684 255 0 255
0.0796959 0.01739307 0.3442959 255 0 255
0.08076761 0.01717464 0.3450186 255 0 255
0.08402362 0.016532 0.3471573 255 0 255
0.08789951 0.01631089 0.3481172 255 0 255
0.02127754 0.01494672 0.3463387 255 0 255
0.07217411 0.0185262 0.3379216 255 0 255
0.07653194 0.01728126 0.3418348 255 0 255
0.08052438 0.01669102 0.3438331 255 0 255
0.08159923 0.01647087 0.3445507 255 0 255
0.08403441 0.01572862 0.3468848 255 0 255
0.0851335 0.01551528 0.3475868 255 0 255
0.08651196 0.01499669 0.3491953 255 0 255
0.08874516 0.0156019 0.3476178 255 0 255
0.08837017 0.01794282 0.3408125 255 0 255
0.02109086 0.01154356 0.3536254 255 0 255
0.06796794 0.01906203 0.3336743 255 0 255
0.07117057 0.01800714 0.3369016 255 0 255
0.07445979 0.0169719 0.340084 255 0 255
0.0767798 0.01618804 0.3424861 255 0 255
0.08135204 0.01599191 0.3433644 255 0 255
0.08625018 0.01449508 0.3480058 255 0 255
0.08904032 0.01448409 0.3482477 255 0 255
0.08983926 0.01561709 0.3450707 255 0 255
0.08889098 0.01757082 0.3394132 255 0 255
0.02308197 0.0163587 0.3373388 255 0 255
0.07343841 0.01644246 0.3390684 255 0 255
0.07446892 0.01620148 0.3398158 255 0 255
0.07678923 0.01540708 0.3422142 255 0 255
0.07760232 0.01549072 0.3420303 255 0 255
0.07972588 0.01502713 0.343483 255 0 255
0.08379019 0.0144409 0.3454195 255 0 255
0.08488575 0.01422035 0.34612 255 0 255
0.06876064 0.01764842 0.3330027 255 0 255
0.07096869 0.01681955 0.3354516 255 0 255
0.07551553 0.0151898 0.3402862 255 0 255
0.07761167 0.01471114 0.3417554 255 0 255
0.08055404 0.01432927 0.3430112 255 0 255
0.02180281 0.00639933 0.3603107 255 0 255
0.06799235 0.01683837 0.3328901 255 0 255
0.07097702 0.01606902 0.3351837 255 0 255
0.07198606 0.01581645 0.3359393 255 0 255
0.07633074 0.01450027 0.3398317 255 0 255
0.0786794 0.01369302 0.342204 255 0 255
0.08081722 0.01322002 0.3436424 255 0 255
0.08163887 0.01331053 0.343444 255 0 255
0.08573566 0.01271915 0.34534 255 0 255
0.08795344 0.01227466 0.3467132 255 0 255
0.08962199 0.0124796 0.3462612 255 0 255
0.08980909 0.01428625 0.3412949 255 0 255
0.06644551 0.0159623 0.3329174 255 0 255
0.06820782 0.01576678 0.3335428 255 0 255
0.07098522 0.01531959 0.3349127 255 0 255
0.07199436 0.01506359 0.3356672 255 0 255
0.07529854 0.01397761 0.3388178 255 0 255
0.08057277 0.01276042 0.3424478 255 0 255
0.08657449 0.01202068 0.3448358 255 0 255
0.08768305 0.01179575 0.3455197 255 0 255
0.09011482 0.01317907 0.3419107 255 0 255
0.06645308 0.0152239 0.3326471 255 0 255
0.06723077 0.01529201 0.3325013 255 0 255
0.06821555 0.01502514 0.3332713 255 0 255
0.06899592 0.01509604 0.3331191 255 0 255
0.07279181 0.01438876 0.3352261 255 0 255
0.07587116 0.01362734 0.3374474 255 0 255
0.07820503 0.01279756 0.3398156 255 0 255
0.07951307 0.01222039 0.3414462 255 0 255
0.08964218 0.01087455 0.3456778 255 0 255
0.08989148 0.01163375 0.3436499 255 0 255
0.09236231 0.01195393 0.3429469 255 0 255
0.01998357 -0.02863923 0.4464971 255 0 255
0.06999874 0.01408892 0.3336056 255 0 255
0.07611802 0.01252984 0.3380765 255 0 255
0.07821361 0.01202647 0.3395301 255 0 255
0.08248743 0.011045 0.3423802 255 0 255
0.08659358 0.01043077 0.3442506 255 0 255
0.08910218 0.009638099 0.3465081 255 0 255
0.09072578 0.01094637 0.3431251 255 0 255
0.09095057 0.01171287 0.3411003 255 0 255
0.09176575 0.01182023 0.3408653 255 0 255
0.08920284 0.01554491 0.3308029 255 0 255
0.02548209 0.01189374 0.335737 255 0 255
0.06823056 0.0135452 0.3327196 255 0 255
0.06922264 0.01327337 0.3334827 255 0 255
0.07224142 0.01246967 0.3357457 255 0 255
0.07405823 0.01228516 0.3363208 255 0 255
0.07508874 0.01202491 0.3370579 255 0 255
0.08141743 0.01050712 0.3413825 255 0 255
0.0830512 0.01069339 0.3409795 255 0 255
0.0844052 0.0101142 0.3425778 255 0 255
0.0907865 0.009045681 0.3457479 255 0 255
0.0913268 0.009487061 0.3446186 255 0 255
0.09238186 0.01037082 0.3423574 255 0 255
0.08859784 0.01546614 0.3287408 255 0 255
0.02547452 0.01008142 0.3382575 255 0 255
0.06803004 0.01315406 0.3315248 255 0 255
0.07383514 0.01187494 0.3351244 255 0 255
0.07509665 0.01126636 0.33677 255 0 255
0.07589561 0.01134892 0.3365932 255 0 255
0.08116816 0.01007035 0.3401834 255 0 255
0.08414476 0.009669703 0.3413792 255 0 255
0.08633493 0.009185527 0.3427542 255 0 255
0.09156838 0.009472067 0.3422949 255 0 255
0.09269458 0.009244583 0.3429495 255 0 255
0.02317611 -0.01196233 0.3929746 255 0 255
0.02454908 0.003554738 0.3528843 255 0 255
0.07384273 0.0111246 0.3348362 255 0 255
0.0748696 0.01085716 0.3355716 255 0 255
0.07614207 0.010244 0.3372091 255 0 255
0.07718668 0.009981089 0.3379344 255 0 255
0.07904652 0.009808176 0.3384669 255 0 255
0.08415326 0.008889284 0.3410797 255 0 255
0.08662044 0.008054946 0.3433495 255 0 255
0.08801021 0.007470322 0.3449237 255 0 255
0.0899678 0.007336933 0.3453676 255 0 255
0.0244058 -0.004179103 0.370262 255 0 255
0.06804411 0.01168825 0.3309585 255 0 255
0.07081145 0.01120011 0.3323159 255 0 255
0.0748771 0.0101046 0.3352792 255 0 255
0.08199811 0.008616465 0.3393873 255 0 255
0.08281092 0.008710645 0.3391856 255 0 255
0.09026486 0.006191846 0.3459502 255 0 255
0.09331945 0.006974143 0.3441159 255 0 255
0.09323123 0.008116264 0.3412102 255 0 255
0.09125369 0.01131274 0.332989 255 0 255
0.06727348 0.01088646 0.330819 255 0 255
0.07160108 0.01053864 0.3318648 255 0 255
0.07695937 0.008811035 0.3364356 255 0 255
0.07776088 0.008897323 0.3362523 255 0 255
0.07881182 0.00863108 0.3369674 255 0 255
0.07986968 0.008366951 0.3376778 255 0 255
0.08774646 0.006229024 0.3434084 255 0 255
0.08998506 0.005739399 0.3447436 255 0 255
0.09082227 0.005846863 0.344513 255 0 255
0.09332814 0.006177307 0.3438029 255 0 255
0.09250598 0.009174642 0.3362336 255 0 255
0.02366539 -0.04199851 0.4596104 255 0 255
0.02531729 -0.01001817 0.3797866 255 0 255
0.02788259 0.0082165 0.3343008 255 0 255
0.06670222 0.009724247 0.3315839 255 0 255
0.06748416 0.009794149 0.3314381 255 0 255
0.06904622 0.009937748 0.3311378 255 0 255
0.07082527 0.009725713 0.3317327 255 0 255
0.07592567 0.008327551 0.3354123 255 0 255
0.08201365 0.007075132 0.338778 255 0 255
0.08858605 0.005542905 0.3428719 255 0 255
0.09280193 0.004918518 0.3446133 255 0 255
0.09469141 0.00595932 0.3421147 255 0 255
0.0263063 -0.004544828 0.363666 255 0 255
0.02714748 0.00259435 0.3460563 255 0 255
0.06417064 0.009155599 0.3307984 255 0 255
0.06670868 0.008991378 0.331289 255 0 255
0.06905279 0.009205511 0.3308432 255 0 255
0.07083198 0.0089903 0.3314369 255 0 255
0.0850039 0.005878557 0.3396414 255 0 255
0.08748163 0.005007248 0.3418863 255 0 255
0.08859394 0.004754236 0.3425548 255 0 255
0.02631591 -0.01373573 0.3836772 255 0 255
0.0279645 0.003336248 0.3420339 255 0 255
0.06436545 0.008056263 0.3314112 255 0 255
0.06593238 0.008190625 0.3311341 255 0 255
0.0708385 0.008256088 0.3311381 255 0 255
0.0726306 0.008044259 0.331716 255 0 255
0.07443538 0.007839043 0.3322793 255 0 255
0.07883351 0.006354764 0.3360518 255 0 255
0.07989158 0.006080586 0.3367582 255 0 255
0.08365348 0.00573073 0.3377513 255 0 255
0.08803233 0.004688011 0.3404581 255 0 255
0.09371734 0.002247611 0.3466205 255 0 255
0.02802612 -0.0001079908 0.3481855 255 0 255
0.06183987 0.007507786 0.3305945 255 0 255
0.06280229 0.00719548 0.3313759 255 0 255
0.06593853 0.007459953 0.3308333 255 0 255
0.07342233 0.007388268 0.331246 255 0 255
0.07546853 0.006813348 0.3326995 255 0 255
0.07754257 0.006246808 0.3341346 255 0 255
0.07884032 0.005598465 0.3357406 255 0 255
0.07964429 0.005688816 0.3355511 255 0 255
0.0817735 0.005139491 0.3369487 255 0 255
0.08693478 0.00416969 0.3394698 255 0 255
0.08775498 0.004273295 0.339251 255 0 255
0.0891512 0.003650853 0.3408006 255 0 255
0.09573067 0.0013112 0.3466792 255 0 255
0.05949796 0.006600079 0.3306585 255 0 255
0.06359311 0.00652966 0.3309406 255 0 255
0.06456617 0.006217421 0.3317128 255 0 255
0.0684988 0.006566572 0.330996 255 0 255
0.07185734 0.006494089 0.3312712 255 0 255
0.0744483 0.006361742 0.3316679 255 0 255
0.07990515 0.004562637 0.3361301 255 0 255
0.08366743 0.0042006 0.3371182 255 0 255
0.09086125 0.00187724 0.3428986 255 0 255
0.09565613 0.001714447 0.3434592 255 0 255
0.02827298 -0.01299466 0.3742276 255 0 255
0.05966898 0.00549059 0.3312615 255 0 255
0.06850476 0.005835376 0.3306883 255 0 255
0.07186342 0.005760189 0.3309624 255 0 255
0.07343477 0.005920163 0.3306316 255 0 255
0.07860298 0.004465174 0.3342169 255 0 255
0.08046062 0.004272773 0.3347279 255 0 255
0.08805361 0.00235528 0.3394877 255 0 255
0.09482322 0.0008017675 0.3433718 255 0 255
0.09504092 0.001654564 0.3413721 255 0 255
0.09587251 0.001772103 0.3411241 255 0 255
0.02869631 -0.03395947 0.4207295 255 0 255
0.02911633 -0.009548001 0.3637296 255 0 255
0.03108372 0.003864278 0.3324428 255 0 255
0.06063089 0.004435075 0.3317381 255 0 255
0.0614213 0.004496336 0.3316149 255 0 255
0.0639743 0.004302387 0.3321321 255 0 255
0.06555811 0.004437105 0.3318587 255 0 255
0.06634913 0.00450642 0.3317177 255 0 255
0.0671396 0.004577009 0.3315738 255 0 255
0.06792944 0.004648894 0.3314271 255 0 255
0.07186937 0.005027539 0.3306506 255 0 255
0.07548723 0.00459294 0.3317651 255 0 255
0.08072498 0.003142687 0.3352971 255 0 255
0.08179318 0.002859198 0.3359893 255 0 255
0.08834496 0.001205414 0.3400404 255 0 255
0.09171151 0.0004097167 0.3419984 255 0 255
0.09338161 0.0006359149 0.341524 255 0 255
0.02951105 -0.02310795 0.3927287 255 0 255
0.02993684 -0.007607995 0.3569304 255 0 255
0.06080572 0.003314134 0.3323287 255 0 255
0.06416479 0.003179837 0.332719 255 0 255
0.0647721 0.003635793 0.3316813 255 0 255
0.07367782 0.004072384 0.3308993 255 0 255
0.07652687 0.003557668 0.3321621 255 0 255
0.07966969 0.002677539 0.3342771 255 0 255
0.08234284 0.002578782 0.3345783 255 0 255
0.09422177 -3.485933E-05 0.3409443 255 0 255
0.09588601 0.0002002094 0.340452 255 0 255
0.09639785 0.0006936347 0.3393304 255 0 255
0.03045852 -0.02125525 0.3858855 255 0 255
0.030762 -0.006817094 0.3528953 255 0 255
0.03194272 0.001622632 0.3336284 255 0 255
0.05653241 0.003081674 0.3307726 255 0 255
0.05905942 0.002855689 0.3313439 255 0 255
0.05985086 0.002914724 0.3312266 255 0 255
0.06160551 0.002643077 0.3318862 255 0 255
0.0649664 0.002511449 0.3322632 255 0 255
0.06814496 0.002794261 0.3316913 255 0 255
0.07052249 0.003019999 0.3312324 255 0 255
0.07131375 0.003097849 0.3310737 255 0 255
0.07782001 0.002132553 0.3334374 255 0 255
0.08668657 0.0006939072 0.3369486 255 0 255
0.09172428 -0.001162728 0.3413186 255 0 255
0.09506071 -0.0007022429 0.3403589 255 0 255
0.09623814 0.003285574 0.3312974 255 0 255
0.03211571 -0.0015345 0.3387919 255 0 255
0.05324333 0.002549037 0.3299513 255 0 255
0.05574827 0.002302577 0.330559 255 0 255
0.05763413 0.001614105 0.3321537 255 0 255
0.06018709 0.0013909 0.3327112 255 0 255
0.06098586 0.001452005 0.33259 255 0 255
0.06516059 0.001381259 0.332839 255 0 255
0.06775752 0.001198168 0.3333092 255 0 255
0.07289968 0.002525263 0.3304259 255 0 255
0.07678102 0.001689097 0.332404 255 0 255
0.07782559 0.001387352 0.3331098 255 0 255
0.07942682 0.001569005 0.3327371 255 0 255
0.08423638 0.0008850837 0.3343962 255 0 255
0.08641133 0.0003158871 0.3357343 255 0 255
0.08779372 -0.0003508474 0.3372735 255 0 255
0.09537807 -0.001867083 0.3408851 255 0 255
0.09672903 -0.001245937 0.3395173 255 0 255
0.09788124 -0.00150465 0.3401306 255 0 255
0.09657408 0.002157005 0.3318327 255 0 255
0.03245715 -0.007180055 0.3494093 255 0 255
0.05431149 0.001071195 0.3313437 255 0 255
0.0592315 0.0009984435 0.3316019 255 0 255
0.06258707 0.0008445355 0.3320127 255 0 255
0.06776282 0.0004586121 0.3329806 255 0 255
0.07132447 0.001633918 0.3304267 255 0 255
0.07211505 0.001713507 0.3302653 255 0 255
0.07598773 0.0008611705 0.3322531 255 0 255
0.07702926 0.0005543531 0.3329613 255 0 255
0.08023167 0.0009187241 0.3322162 255 0 255
0.08424193 0.0001324373 0.3340619 255 0 255
0.08532605 -0.0001565678 0.3347319 255 0 255
0.08641686 -0.0004432847 0.3353971 255 0 255
0.08779936 -0.001116807 0.3369333 255 0 255
0.09310241 -0.002114272 0.3392825 255 0 255
0.09445829 0.005847698 0.3215254 255 0 255
0.03317484 -0.005901725 0.3444762 255 0 255
0.03432096 -0.0001103035 0.3316752 255 0 255
0.05431656 0.0003443826 0.3310171 255 0 255
0.05511072 0.0003960883 0.3309171 255 0 255
0.05669777 0.0005034347 0.3307086 255 0 255
0.06019746 -7.605514E-05 0.3320557 255 0 255
0.06276939 -0.0002917508 0.3325812 255 0 255
0.06517101 -9.062372E-05 0.3321814 255 0 255
0.06776799 -0.000279596 0.3326491 255 0 255
0.06937038 -0.0001302887 0.3323494 255 0 255
0.07017063 -5.364398E-05 0.3321952 255 0 255
0.07519354 3.538046E-05 0.3320962 255 0 255
0.07783622 -9.90839E-05 0.3324459 255 0 255
0.079183 0.0004800167 0.3311915 255 0 255
0.08023687 0.0001769597 0.3318832 255 0 255
0.0839737 -0.0002247299 0.3328472 255 0 255
0.08533132 -0.0009111286 0.3343932 255 0 255
0.0861411 -0.0008079329 0.3341814 255 0 255
0.08862412 -0.001774017 0.3363693 255 0 255
0.08973512 -0.002056957 0.337018 255 0 255
0.09114902 -0.002728679 0.338533 255 0 255
0.09227707 -0.003006331 0.3391705 255 0 255
0.09310792 -0.002891439 0.3389336 255 0 255
0.09570076 -0.003824698 0.3410518 255 0 255
0.03460539 -0.003737689 0.3377098 255 0 255
0.03521058 -0.001645203 0.3331359 255 0 255
0.05432155 -0.0003811083 0.3306878 255 0 255
0.05511572 -0.0003292374 0.3305878 255 0 255
0.06020246 -0.0008075387 0.3317237 255 0 255
0.06100122 -0.0007459166 0.3316027 255 0 255
0.06517601 -0.0008245536 0.3318482 255 0 255
0.06697088 -0.001089368 0.33246 255 0 255
0.06958366 -0.001271591 0.3329055 255 0 255
0.07155437 -0.0002284661 0.3306562 255 0 255
0.07679653 -0.0005286117 0.3314081 255 0 255
0.07944243 -0.000657052 0.3317375 255 0 255
0.08752493 -0.00224839 0.335371 255 0 255
0.08974025 -0.002823072 0.3366705 255 0 255
0.09311309 -0.003667203 0.3385818 255 0 255
0.09938294 -0.004508425 0.3405417 255 0 255
0.09956142 -0.00360168 0.3385599 255 0 255
0.0962456 0.003381713 0.3232081 255 0 255
0.0568576 -0.001358491 0.3309457 255 0 255
0.06020738 -0.001537692 0.3313887 255 0 255
0.06117558 -0.001887652 0.3321632 255 0 255
0.06197772 -0.001824181 0.3320388 255 0 255
0.06697577 -0.0018251 0.3321225 255 0 255
0.06777788 -0.001752005 0.3319772 255 0 255
0.07337494 -0.001203158 0.3308794 255 0 255
0.07600271 -0.001353273 0.3312482 255 0 255
0.07680135 -0.00126517 0.3310704 255 0 255
0.07784603 -0.001580115 0.3317704 255 0 255
0.07944722 -0.001396394 0.3313986 255 0 255
0.0813074 -0.001609906 0.3318923 255 0 255
0.08425704 -0.002117347 0.3330412 255 0 255
0.08752978 -0.003006656 0.3350233 255 0 255
0.09056649 -0.003476578 0.3360925 255 0 255
0.09168702 -0.003761681 0.3367293 255 0 255
0.09686532 -0.005668829 0.3409497 255 0 255
0.09971437 -0.005688652 0.3410405 255 0 255
0.09919975 -0.001770879 0.3325398 255 0 255
0.03699648 -0.04280356 0.4176721 255 0 255
0.0369853 -0.004326828 0.3351135 255 0 255
0.05261141 -0.0015104 0.3293124 255 0 255
0.05433131 -0.00182807 0.3300205 255 0 255
0.05957466 -0.002743065 0.3320639 255 0 255
0.0621559 -0.0029712 0.3325926 255 0 255
0.06296138 -0.002905919 0.3324648 255 0 255
0.06376632 -0.002839315 0.332334 255 0 255
0.06698051 -0.00255948 0.3317822 255 0 255
0.06959326 -0.002747522 0.332225 255 0 255
0.07120081 -0.00259083 0.3319129 255 0 255
0.07600734 -0.002088693 0.3309074 255 0 255
0.081312 -0.002350861 0.331549 255 0 255
0.08184771 -0.001847953 0.3304777 255 0 255
0.08615558 -0.00306245 0.3331478 255 0 255
0.08753442 -0.003763527 0.3346727 255 0 255
0.08916465 -0.003546622 0.3342313 255 0 255
0.09771191 -0.006331162 0.3403328 255 0 255
0.09864424 -0.0008191198 0.3285168 255 0 255
0.03724959 -0.007190539 0.339286 255 0 255
0.0383838 -0.003317003 0.3310767 255 0 255
0.03912019 -0.002866511 0.3301311 255 0 255
0.05447435 -0.002970634 0.330579 255 0 255
0.0552724 -0.002918071 0.3304788 255 0 255
0.06537921 -0.003435467 0.3317204 255 0 255
0.06798779 -0.003635161 0.3321807 255 0 255
0.07061412 -0.003820618 0.3326106 255 0 255
0.07441239 -0.002995934 0.3309102 255 0 255
0.07999726 -0.002366403 0.3296471 255 0 255
0.08105423 -0.002680768 0.330329 255 0 255
0.08291885 -0.002894016 0.3308065 255 0 255
0.0850728 -0.003507768 0.3321386 255 0 255
0.08725379 -0.004112199 0.3334511 255 0 255
0.0412967 -0.06374427 0.4562943 255 0 255
0.03792886 -0.01351785 0.3506545 255 0 255
0.03998872 -0.003986392 0.330647 255 0 255
0.04064525 -0.003101825 0.328797 255 0 255
0.0414368 -0.003072288 0.3287464 255 0 255
0.0446007 -0.002940968 0.3285158 255 0 255
0.04539106 -0.002904837 0.328451 255 0 255
0.05024569 -0.003086167 0.3289002 255 0 255
0.0530123 -0.004220878 0.3313239 255 0 255
0.05381505 -0.00417057 0.331229 255 0 255
0.05636689 -0.004435783 0.3318209 255 0 255
0.06055272 -0.004565406 0.3321487 255 0 255
0.06557269 -0.004588259 0.3322614 255 0 255
0.06637979 -0.004516895 0.3321215 255 0 255
0.06718631 -0.004444181 0.3319787 255 0 255
0.06819284 -0.004789862 0.3327182 255 0 255
0.06900203 -0.004714067 0.3325689 255 0 255
0.0714258 -0.004478598 0.3321036 255 0 255
0.07223242 -0.004397417 0.3319426 255 0 255
0.07303836 -0.004314884 0.3317788 255 0 255
0.08132055 -0.003828566 0.3308536 255 0 255
0.08292295 -0.003631634 0.3304576 255 0 255
0.09079964 -0.0048313 0.3330691 255 0 255
0.09221939 -0.005532802 0.3345605 255 0 255
0.1001321 -0.002973806 0.3292587 255 0 255
0.09813704 0.0003624239 0.3222172 255 0 255
0.04327719 -0.07054513 0.4673668 255 0 255
0.04159275 -0.004648723 0.3302032 255 0 255
0.04302414 -0.00372263 0.3282957 255 0 255
0.04390227 -0.004120009 0.3291348 255 0 255
0.04469681 -0.004084921 0.3290727 255 0 255
0.05048786 -0.004660843 0.3303486 255 0 255
0.05128777 -0.004614654 0.3302628 255 0 255
0.05314752 -0.005375669 0.3318707 255 0 255
0.05489868 -0.005701142 0.3325704 255 0 255
0.05666381 -0.006020152 0.3332565 255 0 255
0.05747658 -0.005963531 0.3331487 255 0 255
0.05991206 -0.005785473 0.3328078 255 0 255
0.06072291 -0.00572339 0.3326883 255 0 255
0.06251653 -0.00602078 0.3333288 255 0 255
0.06332975 -0.005954305 0.3331999 255 0 255
0.06396118 -0.00546151 0.3321814 255 0 255
0.06638414 -0.005250861 0.3317707 255 0 255
0.07083502 -0.005717009 0.3327909 255 0 255
0.07304254 -0.005050622 0.3314272 255 0 255
0.07465231 -0.004881019 0.3310911 255 0 255
0.08132448 -0.00456533 0.3305016 255 0 255
0.08212609 -0.004467252 0.3303052 255 0 255
0.08588671 -0.004890039 0.3312219 255 0 255
0.09191928 -0.005879679 0.3333389 255 0 255
0.0964482 -0.007043133 0.3358028 255 0 255
0.09759676 -0.007327748 0.3364057 255 0 255
0.09910005 -0.002502941 0.3263633 255 0 255
0.04122791 -0.008008781 0.3352919 255 0 255
0.04408182 -0.00570444 0.3305822 255 0 255
0.04911355 -0.006337711 0.3319515 255 0 255
0.049922 -0.006293654 0.3318709 255 0 255
0.05422762 -0.006917021 0.3332075 255 0 255
0.05585523 -0.006810278 0.3330066 255 0 255
0.06089301 -0.006887019 0.3332215 255 0 255
0.06333411 -0.00669115 0.3328441 255 0 255
0.06414675 -0.006623144 0.3327125 255 0 255
0.06921501 -0.006612762 0.3327428 255 0 255
0.0700274 -0.006534822 0.33259 255 0 255
0.07083914 -0.006455522 0.3324344 255 0 255
0.07224066 -0.005867943 0.3312363 255 0 255
0.07304655 -0.005784926 0.3310727 255 0 255
0.07946814 -0.005072182 0.3296599 255 0 255
0.08373049 -0.005001569 0.3295491 255 0 255
0.08560907 -0.005213235 0.3300004 255 0 255
0.08859528 -0.005724887 0.3310784 255 0 255
0.09417416 -0.00722575 0.3342147 255 0 255
0.09645167 -0.007808828 0.3354332 255 0 255
0.04749362 -0.07293769 0.4659538 255 0 255
0.04750052 -0.007149462 0.3317493 255 0 255
0.04922923 -0.00750209 0.3324893 255 0 255
0.05097232 -0.007848407 0.3332162 255 0 255
0.05260302 -0.007752332 0.3330387 255 0 255
0.05681905 -0.007922861 0.3334327 255 0 255
0.05845179 -0.007807029 0.3332134 255 0 255
0.05926745 -0.00774704 0.3330994 255 0 255
0.06008265 -0.007685704 0.3329825 255 0 255
0.06496299 -0.007288759 0.3322195 255 0 255
0.06577446 -0.007217823 0.3320822 255 0 255
0.06658537 -0.007145523 0.3319419 255 0 255
0.07246453 -0.007029443 0.3317551 255 0 255
0.0748916 -0.006774471 0.3312537 255 0 255
0.07762388 -0.005564455 0.3288031 255 0 255
0.08561245 -0.005949231 0.3296415 255 0 255
0.09081028 -0.00708101 0.3319833 255 0 255
0.09304841 -0.007685266 0.3332297 255 0 255
0.09499757 -0.007863133 0.3336029 255 0 255
0.0969578 -0.008033211 0.3339597 255 0 255
0.0981053 -0.008322674 0.3345565 255 0 255
0.1012486 -0.008762719 0.3354695 255 0 255
0.1015226 -0.006848562 0.3315573 255 0 255
0.05131532 -0.08073258 0.4785974 255 0 255
0.0471845 -0.04618834 0.408774 255 0 255
0.04748943 -0.01144414 0.3385994 255 0 255
0.05298754 -0.009803442 0.3353456 255 0 255
0.05423669 -0.008383068 0.3324889 255 0 255
0.05518904 -0.008768837 0.3332779 255 0 255
0.05779014 -0.009038781 0.3338487 255 0 255
0.05861015 -0.008979743 0.3337371 255 0 255
0.06106729 -0.008794275 0.3333849 255 0 255
0.06188533 -0.008729701 0.3332616 255 0 255
0.06252937 -0.008227551 0.3322524 255 0 255
0.0651522 -0.008457551 0.3327392 255 0 255
0.06577846 -0.007951212 0.3317209 255 0 255
0.06678227 -0.008313198 0.3324605 255 0 255
0.06759643 -0.008238966 0.3323167 255 0 255
0.07350181 -0.008112265 0.3321028 255 0 255
0.07408692 -0.007595558 0.3310619 255 0 255
0.08053278 -0.006864493 0.3296211 255 0 255
0.0815973 -0.007194133 0.3302934 255 0 255
0.08347701 -0.007420283 0.3307601 255 0 255
0.08750586 -0.0068938 0.3297126 255 0 255
0.09581965 -0.008496969 0.3329854 255 0 255
0.09728346 -0.009210951 0.3344347 255 0 255
0.1022156 -0.008432558 0.3328696 255 0 255
0.04872905 -0.03145313 0.3767526 255 0 255
0.04836962 -0.02473427 0.3633102 255 0 255
0.04865407 -0.02157705 0.3569985 255 0 255
0.05299209 -0.01054511 0.3349765 255 0 255
0.05381856 -0.01049402 0.3348823 255 0 255
0.05876845 -0.01015801 0.3342545 255 0 255
0.05959184 -0.01009713 0.3341396 255 0 255
0.06253338 -0.008960253 0.3318879 255 0 255
0.06434027 -0.009263488 0.3325081 255 0 255
0.06515611 -0.009193173 0.3323732 255 0 255
0.06697907 -0.009486464 0.3329727 255 0 255
0.07106282 -0.009098589 0.3322218 255 0 255
0.07409038 -0.00832881 0.3306971 255 0 255
0.07489865 -0.008241985 0.3305272 255 0 255
0.08053593 -0.007595765 0.3292574 255 0 255
0.08133817 -0.007498005 0.3290645 255 0 255
0.08509409 -0.007950659 0.3299833 255 0 255
0.0919318 -0.008883161 0.3318673 255 0 255
0.1026873 -0.008638197 0.3313825 255 0 255
0.09968002 -0.002945638 0.3199637 255 0 255
0.0511303 -0.01729307 0.3464881 255 0 255
0.05166439 -0.01590291 0.3437396 255 0 255
0.05217459 -0.01451264 0.3409903 255 0 255
0.05437998 -0.01028933 0.3326435 255 0 255
0.05533618 -0.01068158 0.3334287 255 0 255
0.05629979 -0.0110719 0.33421 255 0 255
0.05892671 -0.01134184 0.3347654 255 0 255
0.06698279 -0.01022371 0.3326022 255 0 255
0.06861805 -0.01007231 0.3323109 255 0 255
0.07166492 -0.009313556 0.3308211 255 0 255
0.07247519 -0.009230608 0.3306601 255 0 255
0.08107881 -0.007793417 0.3278361 255 0 255
0.08889976 -0.009114598 0.3304677 255 0 255
0.09111882 -0.009746565 0.3317229 255 0 255
0.0992668 -0.01090055 0.3340088 255 0 255
0.1004271 -0.01119423 0.3345905 255 0 255
0.1024253 -0.01135095 0.3348981 255 0 255
0.1032558 -0.0112152 0.3346266 255 0 255
0.05303382 -0.01522594 0.3405117 255 0 255
0.05421927 -0.01332201 0.3367862 255 0 255
0.05561735 -0.01231489 0.334821 255 0 255
0.05644638 -0.01225902 0.3347175 255 0 255
0.05727495 -0.01220174 0.3346111 255 0 255
0.05810313 -0.01214304 0.3345017 255 0 255
0.06042282 -0.01151088 0.3332763 255 0 255
0.06271464 -0.01086793 0.3320278 255 0 255
0.0653488 -0.01110571 0.3325084 255 0 255
0.06698634 -0.01095947 0.3322289 255 0 255
0.06780426 -0.01088426 0.3320848 255 0 255
0.07004576 -0.01020672 0.3307632 255 0 255
0.07328793 -0.009876832 0.3301255 255 0 255
0.07409679 -0.009790901 0.3299589 255 0 255
0.07651913 -0.009524836 0.3294414 255 0 255
0.08028312 -0.008615865 0.3276602 255 0 255
0.08321556 -0.009191477 0.3287927 255 0 255
0.08509935 -0.009419947 0.3292416 255 0 255
0.08670978 -0.009206251 0.3288206 255 0 255
0.09000828 -0.01017461 0.330721 255 0 255
0.09582665 -0.01075526 0.3318511 255 0 255
0.09696752 -0.01105979 0.332447 255 0 255
0.09811489 -0.01136175 0.3330376 255 0 255
0.1036028 -0.01240683 0.3350745 255 0 255
0.1043165 -0.009869193 0.3300749 255 0 255
0.1022467 -0.006344876 0.3231451 255 0 255
0.05673531 -0.01390415 0.3360989 255 0 255
0.05976192 -0.01276085 0.3338951 255 0 255
0.06042668 -0.01224667 0.3328992 255 0 255
0.06598223 -0.01131892 0.3311204 255 0 255
0.07004896 -0.01093667 0.3303892 255 0 255
0.07167126 -0.01077407 0.3300764 255 0 255
0.07329093 -0.01060588 0.329752 255 0 255
0.07409972 -0.01051972 0.3295854 255 0 255
0.07652191 -0.01025295 0.3290684 255 0 255
0.07732787 -0.01016128 0.3288903 255 0 255
0.08108392 -0.009241133 0.327098 255 0 255
0.08482408 -0.009713231 0.3280118 255 0 255
0.08751582 -0.009828868 0.3282309 255 0 255
0.09193845 -0.01112006 0.3307326 255 0 255
0.09893999 -0.01198867 0.3323948 255 0 255
0.1004305 -0.01271999 0.3338127 255 0 255
0.1033282 -0.008346451 0.3252644 255 0 255
0.05501192 -0.01755617 0.3412967 255 0 255
0.05546925 -0.01613125 0.3385572 255 0 255
0.05617967 -0.01561892 0.3375754 255 0 255
0.0575757 -0.01459154 0.3356058 255 0 255
0.06043044 -0.01298092 0.3325193 255 0 255
0.06761396 -0.01189926 0.3304594 255 0 255
0.07005201 -0.0116651 0.3300123 255 0 255
0.07167421 -0.01150206 0.3296997 255 0 255
0.0735177 -0.01178234 0.3302406 255 0 255
0.07571789 -0.0110701 0.3288676 255 0 255
0.08214971 -0.01030702 0.3273859 255 0 255
0.08402354 -0.01054552 0.3278404 255 0 255
0.08562789 -0.01033446 0.3274277 255 0 255
0.08861332 -0.01088851 0.3284846 255 0 255
0.09163608 -0.01142377 0.3295029 255 0 255
0.09469558 -0.01193986 0.3304821 255 0 255
0.09582987 -0.01225316 0.33108 255 0 255
0.05717072 -0.01677208 0.3379545 255 0 255
0.05772599 -0.01579456 0.3360935 255 0 255
0.05856568 -0.01573455 0.3359827 255 0 255
0.0597695 -0.01423513 0.3331286 255 0 255
0.06059603 -0.01417168 0.3330106 255 0 255
0.06389705 -0.01390374 0.3325092 255 0 255
0.06680319 -0.01270231 0.3302224 255 0 255
0.06843027 -0.01254998 0.3299333 255 0 255
0.07086626 -0.012311 0.3294778 255 0 255
0.07537637 -0.01278787 0.3303841 255 0 255
0.07813784 -0.01151891 0.3279551 255 0 255
0.07894215 -0.01142397 0.3277714 255 0 255
0.08241783 -0.01147779 0.3278619 255 0 255
0.09082603 -0.01227829 0.3293468 255 0 255
0.09356915 -0.01236444 0.3294922 255 0 255
0.09469686 -0.01268338 0.3300937 255 0 255
0.09697179 -0.01331357 0.3312812 255 0 255
0.1024306 -0.01440707 0.3333251 255 0 255
0.1036061 -0.01470576 0.3338854 255 0 255
0.1057449 -0.01384958 0.3322237 255 0 255
0.1062105 -0.01327325 0.3311148 255 0 255
0.05645831 -0.02418616 0.3501331 255 0 255
0.05802257 -0.01746563 0.3374488 255 0 255
0.06142555 -0.01484131 0.3325022 255 0 255
0.06307593 -0.01470697 0.3322516 255 0 255
0.07108134 -0.01349321 0.3299591 255 0 255
0.07189584 -0.01341014 0.3298008 255 0 255
0.0781399 -0.01224199 0.3275737 255 0 255
0.08161465 -0.01230424 0.3276753 255 0 255
0.08322372 -0.01210038 0.3272806 255 0 255
0.08671705 -0.01212444 0.3273036 255 0 255
0.09163866 -0.01289741 0.3287295 255 0 255
0.09927343 -0.01468773 0.3320499 255 0 255
0.1015999 -0.01530326 0.3331919 255 0 255
0.1036066 -0.01546887 0.333483 255 0 255
0.1049184 -0.01475008 0.3321033 255 0 255
0.05602019 -0.0202584 0.3408613 255 0 255
0.05689365 -0.01734333 0.3354113 255 0 255
0.06025086 -0.01709906 0.3349633 255 0 255
0.06225431 -0.01550761 0.3319882 255 0 255
0.06472729 -0.01529913 0.3315995 255 0 255
0.07047731 -0.014763 0.3305897 255 0 255
0.07129627 -0.01468076 0.3304338 255 0 255
0.07211456 -0.01459707 0.3302749 255 0 255
0.07619577 -0.01415751 0.3294367 255 0 255
0.08000415 -0.01322699 0.3276728 255 0 255
0.08242117 -0.0129267 0.327094 255 0 255
0.08322522 -0.0128238 0.3268954 255 0 255
0.08402846 -0.01271953 0.3266938 255 0 255
0.08752189 -0.01273982 0.3267031 255 0 255
0.09022766 -0.01285009 0.3268848 255 0 255
0.09665038 -0.01436194 0.3296546 255 0 255
0.1000998 -0.01530804 0.3313901 255 0 255
0.1012624 -0.01561815 0.3319579 255 0 255
0.1032615 -0.01578767 0.33225 255 0 255
0.05777474 -0.02713723 0.3517883 255 0 255
0.06259706 -0.01717439 0.3333299 255 0 255
0.06618675 -0.01541717 0.3300688 255 0 255
0.06762539 -0.01480032 0.3289219 255 0 255
0.07677237 -0.01433175 0.3280148 255 0 255
0.07839054 -0.01414364 0.3276552 255 0 255
0.08081207 -0.01385094 0.3270943 255 0 255
0.08242251 -0.01364884 0.3267058 255 0 255
0.08375591 -0.01298438 0.3254595 255 0 255
0.0864341 -0.01311911 0.3256844 255 0 255
0.08723386 -0.01300901 0.3254716 255 0 255
0.09214268 -0.01379354 0.3268757 255 0 255
0.09325986 -0.01412485 0.3274784 255 0 255
0.09551389 -0.01477983 0.3286686 255 0 255
0.1000998 -0.01605877 0.3309865 255 0 255
0.1020898 -0.0162357 0.3312867 255 0 255
0.1040903 -0.01640438 0.3315701 255 0 255
0.1049181 -0.0162632 0.3312939 255 0 255
0.1065703 -0.01597648 0.3307324 255 0 255
0.05876575 -0.02207922 0.340584 255 0 255
0.05978278 -0.02248931 0.3413384 255 0 255
0.06034449 -0.02147994 0.3394853 255 0 255
0.06700744 -0.01606719 0.3295348 255 0 255
0.0694579 -0.01583303 0.329096 255 0 255
0.07456934 -0.01579214 0.328995 255 0 255
0.07619944 -0.01561112 0.3286515 255 0 255
0.0775834 -0.01496052 0.3274446 255 0 255
0.07919993 -0.01476909 0.3270795 255 0 255
0.08107188 -0.01503417 0.3275512 255 0 255
0.08161889 -0.01447144 0.3265103 255 0 255
0.08295757 -0.01380532 0.3252709 255 0 255
0.08614968 -0.01337968 0.3244525 255 0 255
0.08803334 -0.0136161 0.3248658 255 0 255
0.09469914 -0.01564169 0.3285111 255 0 255
0.09665068 -0.01584342 0.3288544 255 0 255
0.1020894 -0.01698748 0.3308787 255 0 255
0.1045648 -0.01656908 0.3300632 255 0 255
0.1053877 -0.01642671 0.3297855 255 0 255
0.05935505 -0.02474852 0.3436334 255 0 255
0.06038759 -0.02516075 0.3443839 255 0 255
0.0609648 -0.02414319 0.3425326 255 0 255
0.06152589 -0.02312527 0.3406804 255 0 255
0.06190887 -0.02163173 0.3379624 255 0 255
0.06243386 -0.02061352 0.3361089 255 0 255
0.0642674 -0.01850579 0.3322695 255 0 255
0.06619193 -0.01686605 0.3292788 255 0 255
0.06782723 -0.0167138 0.3289952 255 0 255
0.06864396 -0.01663553 0.328849 255 0 255
0.07048418 -0.01694588 0.3294051 255 0 255
0.07538639 -0.01642704 0.3284277 255 0 255
0.07620099 -0.01633558 0.3282546 255 0 255
0.08000819 -0.01539108 0.3264983 255 0 255
0.08081444 -0.01529159 0.3263087 255 0 255
0.08375761 -0.01441605 0.3246789 255 0 255
0.086946 -0.01398374 0.3238496 255 0 255
0.09103256 -0.01490721 0.3254786 255 0 255
0.09438364 -0.01591963 0.3272768 255 0 255
0.1020887 -0.01773765 0.3304678 255 0 255
