ply
format ascii 1.0
Comment Generated by Floating Hands
element vertex 1119
Comment Left: (0.0, 0.0, 0.0)
Comment Right: (0.1, 0.0, 0.4)
Comment Time: 2023-05-01 09:21:41,729
property double x
property double y
property double z
property uchar red
property uchar green
property uchar blue
end_header
0.01775237 0.0589032 0.3867126 255 0 255
0.03977012 0.05939381 0.3924759 255 0 255
0.04261706 0.05959631 0.3921788 255 0 255
-0.03992312 0.05722378 0.3875583 255 0 255
-0.03038795 0.05701707 0.3884751 255 0 255
-0.02555935 0.05636208 0.3943469 255 0 255
-0.01654127 0.05656932 0.3926181 255 0 255
0.003169445 0.05805634 0.3813677 255 0 255
0.004984564 0.0580931 0.3814501 255 0 255
0.01043292 0.05823141 0.3816153 255 0 255
0.01498571 0.05806657 0.3846424 255 0 255
0.01776107 0.05806668 0.3856216 255 0 255
0.02826503 0.05793023 0.3912555 255 0 255
0.03306807 0.05809895 0.3919531 255 0 255
0.04360008 0.05870307 0.391975 255 0 255
0.04454819 0.05877444 0.3918652 255 0 255
0.05273331 0.05900953 0.3947915 255 0 255
-0.05395589 0.0556371 0.3952609 255 0 255
-0.04085309 0.05629665 0.3872447 255 0 255
-0.02851027 0.05600664 0.3887061 255 0 255
0.001317543 0.0569936 0.3821652 255 0 255
0.003187249 0.05713525 0.3812689 255 0 255
0.007727933 0.05723611 0.3814495 255 0 255
0.009544997 0.05728467 0.3814978 255 0 255
0.01135049 0.05722939 0.3825264 255 0 255
0.01408808 0.05710214 0.3845409 255 0 255
0.01686084 0.0570949 0.3855304 255 0 255
0.01869011 0.0572756 0.3845157 255 0 255
0.02340641 0.05715901 0.3873844 255 0 255
0.02531541 0.05714351 0.3883076 255 0 255
0.0281777 0.05718353 0.3891684 255 0 255
0.0486511 0.05791041 0.3932596 255 0 255
-0.05501835 0.05419433 0.3989797 255 0 255
-0.03464622 0.05545786 0.3854166 255 0 255
-0.01934469 0.05384545 0.3990522 255 0 255
-0.01414795 0.05507035 0.3886889 255 0 255
0.02622778 0.05635488 0.3871703 255 0 255
0.02914496 0.05628534 0.3890127 255 0 255
0.05345357 0.05734697 0.3924748 255 0 255
0.05552199 0.05741599 0.3931587 255 0 255
0.05664603 0.05740222 0.3939844 255 0 255
0.05899427 0.05668346 0.4016622 255 0 255
-0.05203243 0.05351947 0.3955429 255 0 255
-0.04646741 0.0541212 0.3897809 255 0 255
-0.0417808 0.05440788 0.3868114 255 0 255
-0.03783819 0.05437237 0.3866692 255 0 255
-0.02982581 0.05448066 0.3852215 255 0 255
-0.01531372 0.05388429 0.3904377 255 0 255
-0.005188815 0.05483367 0.3834884 255 0 255
0.01690876 0.05522478 0.3853196 255 0 255
0.02911199 0.05544975 0.3879128 255 0 255
0.03004685 0.0555022 0.3878583 255 0 255
0.03105139 0.05544311 0.3887915 255 0 255
0.03582919 0.0556193 0.3894371 255 0 255
0.05254015 0.05629629 0.3925087 255 0 255
0.05522903 0.05665695 0.3910886 255 0 255
0.05781803 0.05641294 0.3946952 255 0 255
-0.02220308 0.05274796 0.3913962 255 0 255
-0.02153953 0.0524913 0.3934994 255 0 255
-0.01989346 0.0522243 0.395735 255 0 255
-0.01770305 0.05244865 0.3940231 255 0 255
-0.0151811 0.0530434 0.389337 255 0 255
-0.009862016 0.05376195 0.3839391 255 0 255
-0.005091734 0.05402388 0.3823878 255 0 255
0.001479269 0.05446412 0.3798631 255 0 255
0.002383959 0.0544796 0.3799129 255 0 255
0.0290789 0.0546225 0.3868101 255 0 255
0.03381478 0.0547807 0.3874941 255 0 255
0.05638596 0.05567338 0.3918026 255 0 255
-0.05182821 0.0510934 0.398426 255 0 255
-0.04984983 0.05152947 0.3948339 255 0 255
-0.04814679 0.0518463 0.3921921 255 0 255
-0.0429383 0.05240049 0.3873247 255 0 255
-0.03876123 0.05248909 0.386233 255 0 255
-0.02253897 0.05229475 0.3872113 255 0 255
-0.003171922 0.05323822 0.3814293 255 0 255
-0.001282426 0.05338417 0.3805706 255 0 255
0.04946776 0.05434894 0.39072 255 0 255
0.05436004 0.05464732 0.3910097 255 0 255
0.05685353 0.05513576 0.3885943 255 0 255
-0.04293549 0.0514347 0.3872004 255 0 255
-0.03054525 0.05178863 0.3837225 255 0 255
-0.02852339 0.05186672 0.3830837 255 0 255
-0.01824387 0.0508913 0.3907029 255 0 255
-0.0159736 0.05126354 0.387996 255 0 255
-0.0107544 0.05189303 0.3836081 255 0 255
0.0006105044 0.05262005 0.3795806 255 0 255
0.01329929 0.05305718 0.3790236 255 0 255
0.015109 0.05299249 0.380023 255 0 255
0.03200693 0.05278085 0.3873936 255 0 255
0.0329421 0.05283748 0.3873287 255 0 255
0.04157023 0.0531587 0.3885591 255 0 255
0.04652786 0.05327757 0.3899871 255 0 255
0.05629533 0.05386107 0.3905875 255 0 255
-0.06850971 0.04122856 0.4563202 255 0 255
-0.02298882 0.05080471 0.3838828 255 0 255
-0.005958695 0.05123859 0.3819552 255 0 255
0.02148045 0.05233875 0.3798231 255 0 255
0.03203753 0.05183869 0.3872711 255 0 255
0.0368995 0.05188103 0.388887 255 0 255
0.05034235 0.05263602 0.3893643 255 0 255
0.06012124 0.05326682 0.3898168 255 0 255
-0.02832925 0.0501239 0.3818567 255 0 255
-0.02190404 0.04998563 0.3829176 255 0 255
-0.01545195 0.0499077 0.3838097 255 0 255
-0.01164649 0.05002773 0.383259 255 0 255
-0.007865685 0.05016746 0.3826496 255 0 255
0.01695887 0.05137024 0.3787839 255 0 255
0.01876549 0.05144307 0.3787645 255 0 255
0.02999588 0.05118461 0.3842968 255 0 255
0.03598976 0.05087014 0.3888395 255 0 255
0.05226661 0.05184747 0.3889664 255 0 255
0.05542672 0.05185349 0.3904893 255 0 255
-0.03087659 0.04940722 0.3802474 255 0 255
-0.02905473 0.04935413 0.3805868 255 0 255
-0.02723023 0.04930597 0.3809126 255 0 255
-0.002051154 0.04984369 0.3790293 255 0 255
0.005237109 0.05010438 0.3784525 255 0 255
0.03979101 0.05018002 0.3883699 255 0 255
0.04273091 0.05025337 0.3890628 255 0 255
-0.0498003 0.04468444 0.4063965 255 0 255
-0.04243702 0.04725021 0.3888091 255 0 255
-0.0385198 0.04784478 0.3846134 255 0 255
-0.02995747 0.04844999 0.3802845 255 0 255
-0.02704696 0.04851992 0.3798041 255 0 255
-0.02431608 0.04845683 0.3802653 255 0 255
-0.01869976 0.04850896 0.380116 255 0 255
-0.01231408 0.04845676 0.3809256 255 0 255
-0.009671474 0.04830749 0.3822056 255 0 255
-0.007740483 0.04845625 0.3814014 255 0 255
-0.003011954 0.04877665 0.3798181 255 0 255
-0.0001595514 0.04909917 0.3780344 255 0 255
0.007968362 0.04926093 0.3784207 255 0 255
0.009775988 0.04931013 0.3784693 255 0 255
0.0224668 0.04964707 0.3794192 255 0 255
0.02705735 0.04973509 0.3802318 255 0 255
0.04182115 0.04923293 0.3890292 255 0 255
0.04828414 0.04988847 0.3872669 255 0 255
0.0596848 0.05078746 0.3865034 255 0 255
-0.03758427 0.04685611 0.3846721 255 0 255
-0.03644629 0.0469676 0.3839018 255 0 255
-0.03085979 0.04754797 0.3799751 255 0 255
-0.02414303 0.04767919 0.3791524 255 0 255
0.01792101 0.04883117 0.3773981 255 0 255
0.03072771 0.04902825 0.3798954 255 0 255
0.03488429 0.04839544 0.3855537 255 0 255
0.03777754 0.04843978 0.3863039 255 0 255
0.05521019 0.04925215 0.3881313 255 0 255
0.05972549 0.04984298 0.3863666 255 0 255
-0.02993919 0.04659176 0.3800049 255 0 255
-0.02034862 0.04684293 0.3785996 255 0 255
-0.01593797 0.04663378 0.3802065 255 0 255
-0.01502506 0.04662622 0.3803222 255 0 255
0.02252082 0.04782777 0.3791487 255 0 255
0.03957475 0.04777909 0.385005 255 0 255
0.04166312 0.0476249 0.3867829 255 0 255
0.04248306 0.04784014 0.3857005 255 0 255
0.06163537 0.04909012 0.3858862 255 0 255
-0.03509472 0.04534904 0.3818682 255 0 255
-0.02701613 0.04574415 0.3793812 255 0 255
-0.01852146 0.04589911 0.3787172 255 0 255
-0.01409666 0.045698 0.3802906 255 0 255
-0.007504671 0.04600191 0.3790145 255 0 255
-0.003790007 0.04618016 0.3783465 255 0 255
0.01525883 0.04723286 0.3751596 255 0 255
0.0243206 0.04716118 0.3779611 255 0 255
0.0252247 0.04720717 0.3779262 255 0 255
0.04228225 0.04720128 0.3835927 255 0 255
0.0471813 0.04727447 0.3850062 255 0 255
0.05434587 0.04726649 0.3879919 255 0 255
-0.04459122 0.04111378 0.4018894 255 0 255
-0.03529023 0.04425154 0.3826834 255 0 255
-0.02609411 0.04479751 0.3793901 255 0 255
-0.0174644 0.04513145 0.377718 255 0 255
-0.008396205 0.04508601 0.3787808 255 0 255
-0.0009857445 0.04545983 0.3774172 255 0 255
0.00541822 0.0458899 0.3757932 255 0 255
0.02525289 0.04630342 0.3777828 255 0 255
0.02977221 0.04655239 0.377558 255 0 255
0.0316536 0.04650494 0.3784294 255 0 255
0.03564138 0.04611858 0.3820957 255 0 255
0.04046321 0.04613469 0.3836399 255 0 255
0.04908026 0.04649751 0.3846145 255 0 255
0.06540947 0.04609958 0.3939571 255 0 255
-0.04358189 0.04004794 0.401944 255 0 255
-0.03082116 0.04383729 0.3793869 255 0 255
-0.02699358 0.04389695 0.3790811 255 0 255
-0.01563921 0.04419991 0.3778077 255 0 255
0.01083882 0.04529688 0.374826 255 0 255
0.02253032 0.04542665 0.3767437 255 0 255
0.02523315 0.04556125 0.37665 255 0 255
0.03358076 0.04555386 0.3791384 255 0 255
0.03549184 0.04551461 0.3799798 255 0 255
0.04432957 0.04533467 0.3840683 255 0 255
0.04725391 0.04540633 0.3847079 255 0 255
0.05097842 0.04572724 0.3842053 255 0 255
0.05425948 0.04552354 0.3867153 255 0 255
0.05613821 0.04570119 0.3864184 255 0 255
0.05913525 0.0458265 0.3869179 255 0 255
-0.03302703 0.04263702 0.3808101 255 0 255
-0.02301563 0.04322645 0.3775877 255 0 255
-0.01730038 0.04347566 0.3764382 255 0 255
-0.01278781 0.0434371 0.3770096 255 0 255
-0.0109798 0.04343032 0.3772146 255 0 255
-0.009170248 0.0434285 0.3774061 255 0 255
0.00181994 0.0438581 0.3763028 255 0 255
0.01087661 0.04457191 0.3736908 255 0 255
0.01799852 0.04482595 0.3737242 255 0 255
0.01890951 0.04469703 0.3746993 255 0 255
0.03543285 0.04476455 0.3788455 255 0 255
0.03735116 0.04472721 0.3796721 255 0 255
0.04331268 0.0444916 0.3830402 255 0 255
0.06258166 0.0447107 0.3891623 255 0 255
-0.04687195 0.03455761 0.4210451 255 0 255
-0.02407012 0.04215907 0.378256 255 0 255
-0.01638348 0.04255816 0.3764029 255 0 255
-0.00724884 0.0426965 0.3764473 255 0 255
-0.001761171 0.04290777 0.3759158 255 0 255
-0.0008609861 0.04291853 0.375979 255 0 255
0.0126748 0.04356945 0.3745522 255 0 255
0.01356926 0.04359961 0.3745615 255 0 255
0.01625264 0.04369737 0.3745691 255 0 255
0.02251227 0.04396803 0.3744702 255 0 255
0.0403442 0.04368368 0.3812176 255 0 255
0.04625992 0.04362636 0.3835339 255 0 255
0.05417251 0.04379885 0.3854262 255 0 255
0.05921624 0.04393676 0.3866017 255 0 255
-0.03359462 0.04024762 0.3833787 255 0 255
-0.02769107 0.04133116 0.3774749 255 0 255
-0.01982727 0.04187644 0.3747653 255 0 255
-0.009936417 0.04179069 0.3760172 255 0 255
-0.00822872 0.04161473 0.3771808 255 0 255
0.0009610385 0.04204446 0.375937 255 0 255
0.006437654 0.04250119 0.3742374 255 0 255
0.02437244 0.04299395 0.3752402 255 0 255
0.03449875 0.04305929 0.3776233 255 0 255
0.0472253 0.04277589 0.3832562 255 0 255
0.06133028 0.04302443 0.3870732 255 0 255
-0.02986209 0.04010916 0.3789121 255 0 255
-0.0181563 0.0407677 0.3758341 255 0 255
-0.00811425 0.04088881 0.3760386 255 0 255
0.001039224 0.04132596 0.3747933 255 0 255
0.016304 0.04191699 0.3742534 255 0 255
0.01809392 0.04198863 0.374242 255 0 255
0.03173138 0.04215699 0.376676 255 0 255
0.03938408 0.04195383 0.3800054 255 0 255
0.06211953 0.04234211 0.3857662 255 0 255
-0.0163355 0.03984049 0.3759125 255 0 255
-0.01452859 0.03982336 0.3761445 255 0 255
-0.0007343332 0.04040685 0.3745129 255 0 255
0.01009871 0.04118133 0.3720587 255 0 255
0.03176231 0.04125843 0.3765117 255 0 255
0.04136704 0.04100223 0.3806329 255 0 255
0.04517691 0.04111774 0.3811989 255 0 255
0.05412351 0.04116037 0.3839554 255 0 255
0.05505686 0.04124923 0.3838104 255 0 255
0.0580339 0.04135315 0.3843231 255 0 255
-0.0236905 0.03886799 0.3756487 255 0 255
-0.008076381 0.03908615 0.3757027 255 0 255
-0.0006486836 0.03970151 0.3733648 255 0 255
0.001139016 0.03972661 0.3734803 255 0 255
0.006473194 0.0396442 0.3747284 255 0 255
0.01456308 0.04025868 0.372939 255 0 255
0.02625493 0.04041252 0.3746784 255 0 255
0.03945142 0.0401294 0.3796686 255 0 255
0.05089639 0.04049948 0.3812793 255 0 255
0.05696115 0.04050023 0.3833369 255 0 255
-0.05722319 0.01620991 0.4850595 255 0 255
-0.02474398 0.03779058 0.3762928 255 0 255
-0.01720509 0.03804298 0.3754468 255 0 255
-0.01155609 0.03838241 0.3741726 255 0 255
-0.009759451 0.0383777 0.3743694 255 0 255
0.007454555 0.03915614 0.3726278 255 0 255
0.008371491 0.0393702 0.3716758 255 0 255
0.01458678 0.03956491 0.3717877 255 0 255
0.02628424 0.03952223 0.3745081 255 0 255
0.03453846 0.03963884 0.3759781 255 0 255
0.03744901 0.03945545 0.3777089 255 0 255
0.04223784 0.03942709 0.3792148 255 0 255
0.05386962 0.03965739 0.3816658 255 0 255
0.05682342 0.03974883 0.3821924 255 0 255
0.05886396 0.03975827 0.3828461 255 0 255
0.06091727 0.03977441 0.3834833 255 0 255
-0.0322316 0.0348939 0.3857376 255 0 255
-0.03036284 0.03583701 0.3810979 255 0 255
-0.01705356 0.03733584 0.3742977 255 0 255
-0.0006058523 0.037925 0.3730197 255 0 255
0.001182877 0.03795016 0.3731352 255 0 255
0.01107317 0.03876122 0.3705904 255 0 255
0.04607254 0.03862818 0.37959 255 0 255
0.05081703 0.03884494 0.379955 255 0 255
0.06095786 0.03884278 0.3833027 255 0 255
0.07115009 0.03836683 0.3893093 255 0 255
-0.0209308 0.03609434 0.3755386 255 0 255
-0.01421222 0.03660908 0.3734968 255 0 255
-0.008821575 0.03658691 0.3741072 255 0 255
-0.0005840524 0.03703789 0.3728419 255 0 255
0.001205211 0.03706304 0.3729575 255 0 255
0.004826874 0.03732756 0.3721696 255 0 255
0.005755479 0.03754603 0.3712297 255 0 255
0.0066434 0.03756656 0.3712656 255 0 255
0.01198249 0.03791402 0.3704314 255 0 255
0.01908072 0.03798376 0.3714211 255 0 255
0.02539494 0.03789147 0.3732148 255 0 255
0.02993801 0.0379497 0.3739744 255 0 255
0.03550716 0.03790926 0.3755537 255 0 255
0.04013667 0.03804272 0.3761214 255 0 255
0.04414121 0.03775488 0.3786534 255 0 255
0.0517749 0.03801515 0.3796416 255 0 255
0.05285698 0.03791354 0.380475 255 0 255
0.05579897 0.03799364 0.3810135 255 0 255
0.0609984 0.03791198 0.3831183 255 0 255
0.06306569 0.03792842 0.3837376 255 0 255
0.06934193 0.03801923 0.3854932 255 0 255
-0.02958651 0.03374362 0.3818521 255 0 255
-0.02594276 0.03468017 0.3775212 255 0 255
-0.005283257 0.03549965 0.3752399 255 0 255
0.02363277 0.03691445 0.3730989 255 0 255
0.03093985 0.03691869 0.3747173 255 0 255
0.03372964 0.03689347 0.3755111 255 0 255
0.03463477 0.03695369 0.3754432 255 0 255
0.0489015 0.03704368 0.3788714 255 0 255
0.05491148 0.03698289 0.3809741 255 0 255
0.05879828 0.03716464 0.3813304 255 0 255
-0.02846172 0.03298875 0.3808616 255 0 255
-0.01417506 0.03482241 0.3731271 255 0 255
-0.004276745 0.03481571 0.3741547 255 0 255
0.002198402 0.03551284 0.3716675 255 0 255
0.004026539 0.03575245 0.3707855 255 0 255
0.004914687 0.03577056 0.370828 255 0 255
0.01026325 0.03611175 0.3700356 255 0 255
0.01557986 0.03608513 0.3710811 255 0 255
0.01913559 0.03622983 0.3710598 255 0 255
0.0245123 0.03628037 0.3719068 255 0 255
0.03908113 0.03658097 0.3738942 255 0 255
0.04213737 0.036191 0.3765392 255 0 255
0.07625653 0.03329132 0.4007091 255 0 255
-0.03117955 0.02998477 0.3901051 255 0 255
-0.002378722 0.03414975 0.3731334 255 0 255
0.000438263 0.03460434 0.3713715 255 0 255
0.005827063 0.03491307 0.3706808 255 0 255
0.01117362 0.03526578 0.3698696 255 0 255
0.04114542 0.03542398 0.3754725 255 0 255
0.0489748 0.0352255 0.3784914 255 0 255
0.05608946 0.0350383 0.3814085 255 0 255
0.05980577 0.03541816 0.380785 255 0 255
0.06830648 0.03527543 0.3841522 255 0 255
0.07465488 0.03362445 0.3938278 255 0 255
-0.02497773 0.03191433 0.3770897 255 0 255
-0.01413658 0.03303896 0.3727433 255 0 255
-0.007934294 0.03280109 0.374416 255 0 255
-0.001457285 0.03327145 0.3730073 255 0 255
0.005851354 0.03403701 0.370491 255 0 255
0.01209382 0.03463579 0.3687201 255 0 255
0.01652298 0.03436809 0.3707054 255 0 255
0.02367829 0.03447732 0.3715609 255 0 255
0.02546337 0.03457046 0.3714974 255 0 255
0.0280783 0.03493018 0.3704016 255 0 255
0.02896614 0.03498215 0.3703552 255 0 255
0.03914803 0.03480604 0.3735153 255 0 255
0.04402696 0.03454115 0.3759547 255 0 255
0.04977925 0.03460442 0.3772047 255 0 255
0.06582658 0.03471336 0.3814624 255 0 255
-0.01964482 0.03199942 0.3727809 255 0 255
-0.01164084 0.0316928 0.3748054 255 0 255
-0.01062641 0.03190861 0.3739365 255 0 255
0.004986909 0.03314229 0.3702584 255 0 255
0.01123794 0.03374059 0.3685126 255 0 255
0.01300158 0.0337979 0.3685416 255 0 255
0.01388343 0.03382844 0.3685512 255 0 255
0.027278 0.0337917 0.3712276 255 0 255
0.03181383 0.03384625 0.3719518 255 0 255
0.04784185 0.03374596 0.3762829 255 0 255
0.06154307 0.0339809 0.379095 255 0 255
0.06493612 0.03368216 0.3814434 255 0 255
0.06888399 0.03391476 0.3816434 255 0 255
0.07004495 0.03382701 0.3823984 255 0 255
0.08206061 0.0275662 0.4138526 255 0 255
0.0005080125 0.03196657 0.3707886 255 0 255
0.002292759 0.03199434 0.3708974 255 0 255
0.01479503 0.03277302 0.3693381 255 0 255
0.01835753 0.03269308 0.3703061 255 0 255
0.03372053 0.03286711 0.3726038 255 0 255
0.03461903 0.03292771 0.3725368 255 0 255
0.03831448 0.03296724 0.3732064 255 0 255
0.03932379 0.0328193 0.3740929 255 0 255
0.04318681 0.03267416 0.3756596 255 0 255
0.05384253 0.0327237 0.378204 255 0 255
0.06870174 0.03319173 0.3804842 255 0 255
0.07967386 0.02852374 0.4041304 255 0 255
-0.02095461 0.0295515 0.3751282 255 0 255
-0.01794377 0.02995883 0.3735964 255 0 255
-0.01600323 0.03016176 0.3728767 255 0 255
-0.01317725 0.03036284 0.3722517 255 0 255
0.01393589 0.03187183 0.3691328 255 0 255
0.01836689 0.03204479 0.3691321 255 0 255
0.02372432 0.03207069 0.3699968 255 0 255
0.05792402 0.03176045 0.3793308 255 0 255
0.07013027 0.03196719 0.3819806 255 0 255
-0.0141777 0.02925162 0.3728994 255 0 255
-0.0131563 0.02947487 0.3720441 255 0 255
-0.005860429 0.02969389 0.3718362 255 0 255
-0.00316327 0.02971086 0.3720658 255 0 255
-0.00136379 0.02972862 0.3722022 255 0 255
0.001448497 0.03022556 0.3704388 255 0 255
0.007758821 0.0308138 0.3687933 255 0 255
0.01484943 0.03103562 0.3689369 255 0 255
0.0318312 0.03143635 0.370379 255 0 255
0.03369968 0.03132886 0.3712271 255 0 255
0.04131722 0.0309609 0.3744737 255 0 255
0.05068625 0.03130161 0.3753014 255 0 255
0.05234411 0.0316923 0.3740768 255 0 255
0.06464062 0.03133812 0.3789059 255 0 255
0.06556562 0.03144442 0.3787246 255 0 255
0.06670709 0.03133963 0.3794926 255 0 255
-0.04754946 0.001065693 0.4836324 255 0 255
-0.008631067 0.0285706 0.3723339 255 0 255
-0.0003760619 0.02909016 0.3710854 255 0 255
0.003259448 0.02938018 0.3703331 255 0 255
0.00778459 0.02994589 0.3685873 255 0 255
0.01576355 0.03020173 0.3687344 255 0 255
0.0166502 0.03023651 0.3687343 255 0 255
0.0184044 0.03054184 0.3677519 255 0 255
0.02200359 0.03024048 0.3696374 255 0 255
0.04511368 0.03014296 0.3748299 255 0 255
0.04981158 0.0303217 0.3752161 255 0 255
0.05947315 0.03056831 0.3766743 255 0 255
0.06952863 0.03075549 0.3786996 255 0 255
0.07114156 0.03119799 0.3773497 255 0 255
-0.005727521 0.02816607 0.3704454 255 0 255
0.02022521 0.02952231 0.3684925 255 0 255
0.02381342 0.02946009 0.3693783 255 0 255
0.02648297 0.02960341 0.3692796 255 0 255
0.03376433 0.02957728 0.370809 255 0 255
0.04307761 0.0295573 0.3728916 255 0 255
0.06042979 0.02976405 0.3762959 255 0 255
-0.0299456 0.01806301 0.4052478 255 0 255
-0.02649875 0.02165895 0.3910622 255 0 255
-0.01890838 0.02615522 0.3735702 255 0 255
-0.01501673 0.02659051 0.3721391 255 0 255
-0.001223813 0.02732264 0.370594 255 0 255
-0.0003269707 0.02733344 0.370657 255 0 255
0.001522689 0.02760073 0.3698044 255 0 255
0.01139636 0.02855497 0.3672929 255 0 255
0.01316255 0.02861311 0.3673224 255 0 255
0.01581945 0.02846972 0.3683127 255 0 255
0.02202765 0.02874114 0.3682442 255 0 255
0.03558773 0.0288265 0.3704588 255 0 255
0.03658033 0.02865511 0.3713529 255 0 255
0.07373501 0.02995072 0.3753412 255 0 255
-0.0248698 0.02165004 0.3871497 255 0 255
-0.02023118 0.02453864 0.3760896 255 0 255
-0.01797754 0.02524553 0.3734742 255 0 255
-0.009668621 0.02542314 0.3735143 255 0 255
0.002441681 0.02674223 0.3696389 255 0 255
0.004273186 0.02702084 0.3687663 255 0 255
0.01319003 0.02775205 0.3671073 255 0 255
0.01760668 0.02792006 0.367124 255 0 255
0.01848992 0.0279575 0.3671175 255 0 255
0.02298299 0.02767864 0.3689751 255 0 255
0.04508762 0.02770581 0.3732135 255 0 255
0.04704156 0.02762784 0.3739561 255 0 255
-0.01809286 0.02410143 0.374205 255 0 255
-0.01600535 0.02457594 0.3725333 255 0 255
-0.003942924 0.02529525 0.3709079 255 0 255
0.0006206193 0.02559248 0.3702746 255 0 255
0.01942555 0.02688954 0.3678584 255 0 255
0.02573571 0.0267068 0.3696348 255 0 255
0.02931135 0.02691322 0.3694701 255 0 255
0.03654908 0.02714518 0.3699475 255 0 255
0.03764772 0.02672565 0.371801 255 0 255
0.04318244 0.02690824 0.3722324 255 0 255
0.04589331 0.02713837 0.3719205 255 0 255
0.05524873 0.02751795 0.372575 255 0 255
0.05633338 0.02737543 0.3733848 255 0 255
0.0632976 0.0273684 0.3751201 255 0 255
0.07222996 0.02767758 0.3762514 255 0 255
0.006142354 0.02557639 0.3674371 255 0 255
0.009691393 0.02566817 0.367562 255 0 255
0.01766413 0.02620151 0.3666841 255 0 255
0.03202302 0.02621338 0.3690882 255 0 255
0.03768146 0.02584708 0.3715747 255 0 255
0.04502554 0.02617965 0.3718013 255 0 255
0.04984275 0.02609981 0.3731481 255 0 255
0.05289561 0.02587835 0.374676 255 0 255
0.07227191 0.02677095 0.3760192 255 0 255
0.07510605 0.02608515 0.3793615 255 0 255
-0.007775399 0.02275155 0.3730087 255 0 255
-0.004875924 0.02327531 0.3713361 255 0 255
0.01415755 0.02520562 0.3664517 255 0 255
0.01592537 0.02527205 0.3664619 255 0 255
0.01769311 0.02534363 0.3664591 255 0 255
0.0239647 0.02512706 0.3682791 255 0 255
0.02574649 0.02522262 0.3682171 255 0 255
0.02937477 0.02517681 0.3690189 255 0 255
0.04415696 0.02522275 0.3716751 255 0 255
0.05640947 0.02559831 0.3729247 255 0 255
0.06062638 0.0252631 0.3751597 255 0 255
0.06266402 0.02522758 0.3757761 255 0 255
0.07139299 0.02574741 0.3759879 255 0 255
-0.02090962 0.01777413 0.3867394 255 0 255
-0.0001997642 0.02295785 0.3695258 255 0 255
0.00348745 0.02353592 0.3678168 255 0 255
0.005308591 0.02383242 0.3669412 255 0 255
0.006195942 0.02385221 0.3669807 255 0 255
0.01772224 0.02448669 0.3662307 255 0 255
0.04213908 0.02469766 0.369719 255 0 255
0.05264148 0.02459046 0.372297 255 0 255
0.05917216 0.02500207 0.3722323 255 0 255
0.06616181 0.02499896 0.3738835 255 0 255
0.07027888 0.0249662 0.3750074 255 0 255
-0.01977942 0.01707566 0.385664 255 0 255
-0.008734399 0.02071043 0.3733988 255 0 255
-0.006813648 0.02097735 0.3726183 255 0 255
0.01509883 0.02352476 0.365998 255 0 255
0.02669964 0.02354651 0.367718 255 0 255
0.03588111 0.02334327 0.3700636 255 0 255
0.05267864 0.02370705 0.3720587 255 0 255
0.0535862 0.02379728 0.3719239 255 0 255
0.07239723 0.02405709 0.3753008 255 0 255
-0.007699852 0.02008936 0.3722864 255 0 255
0.0007513291 0.02122653 0.3691092 255 0 255
0.002599348 0.02152332 0.3682571 255 0 255
0.007999137 0.02190757 0.3675431 255 0 255
0.02673106 0.02268507 0.3674813 255 0 255
0.02851285 0.02278925 0.3673999 255 0 255
0.03691344 0.02227562 0.3707117 255 0 255
0.03781722 0.02234255 0.3706352 255 0 255
0.04233054 0.02269702 0.3702031 255 0 255
0.04893017 0.0227336 0.3713675 255 0 255
0.05453064 0.02300696 0.3715442 255 0 255
0.05834123 0.02313376 0.3719072 255 0 255
0.0678423 0.02368341 0.3720841 255 0 255
0.07127945 0.02328328 0.3743193 255 0 255
-0.002888702 0.02004301 0.369566 255 0 255
0.005351397 0.02098125 0.3671927 255 0 255
0.01781064 0.02192168 0.3655253 255 0 255
0.0497193 0.02220097 0.3700492 255 0 255
0.05349191 0.02229348 0.3704862 255 0 255
0.05456813 0.02212611 0.3712992 255 0 255
0.05638092 0.02231424 0.3710131 255 0 255
0.06019497 0.02244986 0.3713474 255 0 255
0.07641484 0.02249488 0.3748872 255 0 255
0.08432617 0.02018622 0.3848902 255 0 255
-0.01802792 0.01367061 0.3870392 255 0 255
-0.01048775 0.01804679 0.3724596 255 0 255
0.00894769 0.02020778 0.3670876 255 0 255
0.01163614 0.02056283 0.3661963 255 0 255
0.02314725 0.02131743 0.3651983 255 0 255
0.03132416 0.02096592 0.3677299 255 0 255
0.03213896 0.02129513 0.366715 255 0 255
0.03969261 0.02073487 0.3699823 255 0 255
0.04330222 0.02102803 0.3696172 255 0 255
0.04795032 0.02115892 0.370039 255 0 255
0.04885326 0.0212425 0.3699224 255 0 255
0.05155894 0.02150124 0.3695523 255 0 255
0.05369816 0.02115399 0.3711885 255 0 255
0.05732432 0.02153132 0.3706169 255 0 255
0.0856133 0.01913163 0.3853 255 0 255
-0.01484313 0.0155031 0.3774917 255 0 255
0.01966443 0.020017 0.3659834 255 0 255
0.02052466 0.02033543 0.3650104 255 0 255
0.03225116 0.02016312 0.3674268 255 0 255
0.04165169 0.01973645 0.3705114 255 0 255
0.04784048 0.0205551 0.3688366 255 0 255
0.05572705 0.02019536 0.3716051 255 0 255
0.05936433 0.02058613 0.3710046 255 0 255
0.06228947 0.02063011 0.3714619 255 0 255
0.06319898 0.02073562 0.3712925 255 0 255
0.07207815 0.02097005 0.3724227 255 0 255
0.07415386 0.02095472 0.3729417 255 0 255
-0.01517875 0.01374286 0.3800795 255 0 255
-0.0001005461 0.01745569 0.3690124 255 0 255
0.01614815 0.01872887 0.3667108 255 0 255
0.02497782 0.01970956 0.3646509 255 0 255
0.03885806 0.01892315 0.3695612 255 0 255
0.04156798 0.01913827 0.3693028 255 0 255
0.04259314 0.01893763 0.3701636 255 0 255
0.0469766 0.01960451 0.3686964 255 0 255
0.05073063 0.01967015 0.369175 255 0 255
0.05360336 0.01966769 0.3697332 255 0 255
0.06031053 0.01980742 0.3705902 255 0 255
0.0689116 0.02025243 0.3708867 255 0 255
0.07511067 0.02018481 0.3724691 255 0 255
0.0760253 0.02031012 0.3722527 255 0 255
0.08655103 0.01945742 0.3775261 255 0 255
0.0143933 0.01751679 0.3674038 255 0 255
0.01529035 0.01755042 0.367411 255 0 255
0.01707143 0.01790732 0.366457 255 0 255
0.03127093 0.01894908 0.3650642 255 0 255
0.03490774 0.01890982 0.3657804 255 0 255
0.05562521 0.01870771 0.3701434 255 0 255
0.06034894 0.01892873 0.3703308 255 0 255
-0.01288781 0.01276557 0.3769088 255 0 255
-0.01162337 0.01363466 0.3741653 255 0 255
-0.007726816 0.01420964 0.3726522 255 0 255
0.005416214 0.01610204 0.3678485 255 0 255
0.006316653 0.01612239 0.3678887 255 0 255
0.008144184 0.01645784 0.3670028 255 0 255
0.009041065 0.01648216 0.3670329 255 0 255
0.01442228 0.01694604 0.3661879 255 0 255
0.02242343 0.01758459 0.3651775 255 0 255
0.02508933 0.01772476 0.3651011 255 0 255
0.0330771 0.01821691 0.3646958 255 0 255
0.03881981 0.01746942 0.3680905 255 0 255
0.04163792 0.01740195 0.3687856 255 0 255
0.04421429 0.0179122 0.3675473 255 0 255
0.05277289 0.01783082 0.3693474 255 0 255
0.05675092 0.01765157 0.3706806 255 0 255
0.06491762 0.01858098 0.3692268 255 0 255
0.06582151 0.01869098 0.3690485 255 0 255
0.07262054 0.01896043 0.3695689 255 0 255
0.08579788 0.01933831 0.3712127 255 0 255
-0.04398641 -0.01970264 0.4763942 255 0 255
-0.04426738 -0.02268451 0.4860358 255 0 255
-0.01170453 0.0124454 0.3748414 255 0 255
-0.002945071 0.0139347 0.3708851 255 0 255
0.006345937 0.0152586 0.3676251 255 0 255
0.009967709 0.01564795 0.3667975 255 0 255
0.01535131 0.0158305 0.36689 255 0 255
0.01624862 0.01586566 0.3668939 255 0 255
0.01891933 0.01627197 0.3659301 255 0 255
0.02245485 0.01673348 0.3649181 255 0 255
0.02423254 0.01682586 0.3648705 255 0 255
0.02512116 0.01687403 0.3648418 255 0 255
0.03795373 0.01653675 0.3679066 255 0 255
0.04528218 0.0168435 0.3681318 255 0 255
0.05461897 0.01714476 0.3688124 255 0 255
0.05678875 0.01677394 0.3704138 255 0 255
0.05971054 0.01679299 0.3709003 255 0 255
0.06133329 0.01727821 0.3696402 255 0 255
0.06224015 0.01738313 0.3694755 255 0 255
0.06495661 0.01770601 0.3689611 255 0 255
0.07563263 0.01817982 0.3695993 255 0 255
-0.04815179 -0.007172688 0.4315009 255 0 255
-0.04561831 -0.006974627 0.43104 255 0 255
-0.03554729 -0.01276127 0.4502811 255 0 255
-0.004907017 0.01244606 0.3723626 255 0 255
0.006341524 0.01409747 0.3683119 255 0 255
0.01268969 0.0148746 0.3665929 255 0 255
0.01448305 0.01523563 0.3656625 255 0 255
0.02070802 0.01579621 0.3646897 255 0 255
0.02520186 0.01572916 0.3655333 255 0 255
0.02966271 0.01599188 0.3653405 255 0 255
0.0360899 0.01583154 0.3668363 255 0 255
0.04531779 0.01597892 0.367865 255 0 255
0.05682652 0.0158974 0.3701436 255 0 255
0.0595556 0.01619675 0.3696898 255 0 255
0.06680306 0.01705477 0.3683325 255 0 255
0.07360659 0.0173245 0.3688252 255 0 255
0.07476589 0.01717284 0.3695423 255 0 255
0.08614115 0.01633139 0.374589 255 0 255
-0.05978635 -0.01082939 0.4383271 255 0 255
-0.04440029 -0.006303142 0.425086 255 0 255
-0.01082154 0.01034621 0.3753329 255 0 255
-0.003956152 0.01156731 0.3721633 255 0 255
0.001742119 0.01253792 0.3697083 255 0 255
0.002654109 0.01255311 0.3697624 255 0 255
0.005428884 0.01290926 0.3689524 255 0 255
0.00820721 0.0135793 0.3671584 255 0 255
0.01000972 0.01362978 0.3672158 255 0 255
0.01361552 0.0137471 0.3672913 255 0 255
0.01451537 0.01408098 0.3663484 255 0 255
0.03147871 0.01525499 0.3649738 255 0 255
0.03513394 0.0152044 0.3656855 255 0 255
0.05001049 0.01524223 0.3679778 255 0 255
0.07805935 0.01611949 0.3704618 255 0 255
0.08740929 0.01529651 0.3749659 255 0 255
0.08834036 0.01544284 0.3747056 255 0 255
-0.03437123 -0.006203695 0.4217273 255 0 255
-0.02537417 -0.01503575 0.4499969 255 0 255
-0.001943645 0.01131254 0.3701303 255 0 255
0.02080039 0.01379529 0.3651062 255 0 255
0.02972856 0.01428969 0.3648034 255 0 255
0.03795315 0.01425173 0.3661487 255 0 255
0.05004689 0.01437732 0.3677035 255 0 255
0.05762673 0.01453818 0.3685067 255 0 255
0.06374225 0.01555456 0.3664505 255 0 255
0.07096753 0.01520593 0.3688826 255 0 255
0.07718692 0.0151036 0.3704039 255 0 255
0.08838374 0.014535 0.3744187 255 0 255
0.09054713 0.01553232 0.3717982 255 0 255
0.09178218 0.01540976 0.3724351 255 0 255
-0.04981985 -0.007955221 0.422262 255 0 255
-0.04507598 -0.007856207 0.4222862 255 0 255
-0.04167102 -0.007994096 0.4229559 255 0 255
-0.03624738 -0.006607554 0.4191166 255 0 255
-0.0224904 -0.009096672 0.4279315 255 0 255
-0.01245602 0.006382993 0.381265 255 0 255
0.0008895848 0.01078144 0.3690924 255 0 255
0.02083227 0.01294459 0.364832 255 0 255
0.02169238 0.01329534 0.3638655 255 0 255
0.02624495 0.01291951 0.3656404 255 0 255
0.02708457 0.01327734 0.3646548 255 0 255
0.03259792 0.01300634 0.3662737 255 0 255
0.03989349 0.013235 0.3666604 255 0 255
0.05082759 0.0139 0.3663619 255 0 255
0.05947612 0.01387084 0.3679235 255 0 255
0.06895763 0.01438224 0.3680615 255 0 255
0.07191468 0.01445081 0.3684022 255 0 255
-0.07618394 -0.02337263 0.4634455 255 0 255
-0.05729214 -0.009618967 0.4231073 255 0 255
-0.04484263 -0.008643183 0.4209979 255 0 255
-0.04125905 -0.008468778 0.4207345 255 0 255
-0.02220833 -0.00673778 0.4170701 255 0 255
0.004610719 0.01028923 0.3680696 255 0 255
0.009156888 0.01039993 0.3682564 255 0 255
0.01006642 0.01042623 0.3682839 255 0 255
0.01551276 0.0112377 0.3664788 255 0 255
0.02358643 0.01191923 0.365448 255 0 255
0.02717459 0.0121189 0.3653268 255 0 255
0.02986378 0.01228296 0.3652015 255 0 255
0.03173235 0.01209066 0.3660497 255 0 255
0.04287624 0.01199055 0.368004 255 0 255
0.0446899 0.01214741 0.367809 255 0 255
0.06471639 0.0139386 0.3657198 255 0 255
0.07310895 0.01340763 0.3688392 255 0 255
-0.07116213 -0.01872083 0.445673 255 0 255
-0.05588515 -0.01048183 0.4220913 255 0 255
-0.05202226 -0.01004132 0.4210348 255 0 255
-0.04348226 -0.00946894 0.4199336 255 0 255
-0.02399326 -0.006818184 0.413601 255 0 255
-0.01570535 -0.002128246 0.4003202 255 0 255
-0.001003493 0.008384376 0.3702873 255 0 255
0.02631076 0.0112155 0.3650803 255 0 255
0.03356488 0.01135883 0.3656537 255 0 255
0.03616426 0.01186369 0.3645134 255 0 255
0.04472568 0.01128457 0.3675239 255 0 255
0.0454962 0.01167292 0.3664798 255 0 255
0.05538915 0.01264719 0.3651406 255 0 255
0.06115943 0.01264646 0.3661063 255 0 255
0.06790099 0.01282071 0.3667521 255 0 255
0.07795603 0.01287632 0.3684019 255 0 255
0.08306435 0.01297212 0.3690735 255 0 255
0.08576795 0.01238909 0.371318 255 0 255
0.0879105 0.01239299 0.3717179 255 0 255
-0.0522141 -0.01145792 0.4215869 255 0 255
-0.04682703 -0.01040841 0.4188785 255 0 255
-0.02895825 -0.009069277 0.4163459 255 0 255
-0.02162985 -0.007583083 0.4126055 255 0 255
-0.01810342 -0.006976436 0.4111395 255 0 255
-0.01623031 -0.004734002 0.4046865 255 0 255
-0.00947341 0.003611574 0.3806591 255 0 255
0.003673336 0.007900805 0.3693379 255 0 255
0.006457633 0.008280504 0.3685247 255 0 255
0.007400188 0.008623664 0.3676156 255 0 255
0.01102572 0.008406145 0.3686793 255 0 255
0.02279204 0.009851769 0.3658501 255 0 255
0.03278071 0.01012823 0.3663716 255 0 255
0.03449805 0.01056947 0.3653063 255 0 255
0.03719346 0.0107681 0.365102 255 0 255
0.04101528 0.01042605 0.3666686 255 0 255
0.04191947 0.01050112 0.36658 255 0 255
0.04928865 0.01084136 0.3666908 255 0 255
0.05183569 0.01141772 0.3653872 255 0 255
0.05740415 0.01168129 0.3655019 255 0 255
0.06209717 0.0118918 0.3656559 255 0 255
0.07294048 0.01195444 0.3673362 255 0 255
0.07384658 0.01207902 0.3671306 255 0 255
0.07475177 0.01220495 0.3669217 255 0 255
0.07655955 0.01246099 0.3664937 255 0 255
0.08522242 0.01208022 0.3691997 255 0 255
0.08918014 0.01237514 0.3690821 255 0 255
-0.01480842 -0.004779904 0.4016446 255 0 255
-0.003929198 0.00563512 0.3723098 255 0 255
-8.270131E-05 0.006322077 0.370705 255 0 255
0.0008414051 0.00633471 0.3707667 255 0 255
0.007373547 0.007112388 0.3692133 255 0 255
0.008291137 0.007136258 0.3692477 255 0 255
0.01470877 0.008313695 0.3665566 255 0 255
0.02467397 0.008772344 0.3664586 255 0 255
0.03913218 0.009739427 0.3656026 255 0 255
0.04003329 0.0098116 0.3655211 255 0 255
0.05725469 0.01113426 0.3642792 255 0 255
0.06572814 0.01147186 0.364682 255 0 255
0.06662459 0.01158511 0.3645031 255 0 255
0.07182857 0.01126333 0.3663225 255 0 255
0.08166844 0.01166321 0.3668962 255 0 255
-0.04965671 -0.01344909 0.4204157 255 0 255
-0.04450869 -0.01268184 0.4185979 255 0 255
-0.04338156 -0.01273015 0.4188235 255 0 255
-0.04112464 -0.01282145 0.4192624 255 0 255
-0.01876691 -0.008059825 0.4074837 255 0 255
-0.01757194 -0.007741214 0.4066779 255 0 255
-0.004988892 0.004087939 0.3738081 255 0 255
0.003691352 0.005833905 0.3696864 255 0 255
0.005570426 0.006200443 0.3688353 255 0 255
0.009261894 0.006621344 0.3680354 255 0 255
0.01474105 0.007456972 0.3662617 255 0 255
0.01834767 0.007931266 0.3653275 255 0 255
0.02923273 0.00818151 0.3659877 255 0 255
0.03293059 0.008095258 0.36673 255 0 255
0.03646138 0.008677473 0.3655339 255 0 255
0.0410859 0.008712046 0.3660831 255 0 255
0.04211086 0.008467387 0.3669343 255 0 255
0.04560353 0.009103294 0.3656079 255 0 255
0.05207214 0.009392985 0.3657385 255 0 255
0.05370531 0.009894628 0.3645447 255 0 255
0.05460279 0.009989453 0.3644101 255 0 255
0.0718677 0.01039742 0.3660254 255 0 255
0.08530513 0.01031294 0.3685982 255 0 255
-0.05880299 -0.0174537 0.427619 255 0 255
-0.02965828 -0.01157345 0.4132107 255 0 255
-0.0271534 -0.01095996 0.4116861 255 0 255
-0.0248157 -0.01067132 0.4110737 255 0 255
-0.0132719 -0.005457582 0.3973171 255 0 255
-0.006063395 0.002528517 0.3752929 255 0 255
-0.003942635 0.00353661 0.3726375 255 0 255
0.008380118 0.005732738 0.3677033 255 0 255
0.01295057 0.005873281 0.3678252 255 0 255
0.01749263 0.006710346 0.3659765 255 0 255
0.01839893 0.006749428 0.3659743 255 0 255
0.03840559 0.007638164 0.3660305 255 0 255
0.04563935 0.008249152 0.3653106 255 0 255
0.04744348 0.008415805 0.3650976 255 0 255
0.05120558 0.008445483 0.3655658 255 0 255
0.05643288 0.009332005 0.3638349 255 0 255
0.0658043 0.009759395 0.3640905 255 0 255
0.06670094 0.009873282 0.3639119 255 0 255
0.08265505 0.01005723 0.3660571 255 0 255
0.08626788 0.01062822 0.365075 255 0 255
-0.07354933 -0.0263051 0.4477978 255 0 255
-0.06159237 -0.01910103 0.4284725 255 0 255
-0.05948486 -0.01957855 0.4299572 255 0 255
-0.04556572 -0.01479752 0.4176073 255 0 255
-0.04105439 -0.01498862 0.4185009 255 0 255
-0.02354881 -0.01139815 0.4099264 255 0 255
-0.02232476 -0.01107942 0.409143 255 0 255
-0.0102049 -0.003082521 0.3878194 255 0 255
-0.002975592 0.002658904 0.3724009 255 0 255
-0.001104359 0.002677273 0.3725429 255 0 255
0.0007678552 0.002701496 0.3726713 255 0 255
0.02205692 0.006066307 0.3656311 255 0 255
0.03209186 0.006320945 0.3661848 255 0 255
0.0375347 0.006713302 0.3658041 255 0 255
0.03945557 0.006526817 0.3665889 255 0 255
0.04218211 0.006751246 0.3663329 255 0 255
0.05467619 0.00828723 0.3638141 255 0 255
0.05646973 0.008482042 0.3635354 255 0 255
0.06584227 0.00890498 0.3637897 255 0 255
0.08032428 0.009526784 0.3644033 255 0 255
0.08630846 0.009759447 0.3647697 255 0 255
0.08900756 0.01020352 0.3639986 255 0 255
-0.03933332 -0.01509775 0.4155592 255 0 255
-0.03434256 -0.014235 0.4135863 255 0 255
-0.03163488 -0.01328298 0.4111797 255 0 255
-0.02912495 -0.01266223 0.4096773 255 0 255
-0.006333285 -0.0006228224 0.3784027 255 0 255
0.001789073 0.002172338 0.3714754 255 0 255
0.008395783 0.003331004 0.3689715 255 0 255
0.03767126 0.00552701 0.3664367 255 0 255
0.04040031 0.005743599 0.366201 255 0 255
0.04947034 0.006556868 0.3651995 255 0 255
0.05829776 0.007834195 0.362941 255 0 255
0.06318543 0.007716608 0.3640009 255 0 255
0.06408442 0.007826976 0.3638324 255 0 255
0.06856821 0.008399542 0.3629404 255 0 255
0.07149427 0.008442166 0.3632818 255 0 255
0.07856266 0.008393425 0.3645492 255 0 255
0.08544708 0.00874632 0.3647111 255 0 255
0.09058022 0.00887548 0.3652217 255 0 255
-0.08515417 -0.04360057 0.4866537 255 0 255
-0.06156102 -0.0249085 0.437326 255 0 255
-0.05964264 -0.02396174 0.4348826 255 0 255
-0.04662021 -0.01690436 0.4165959 255 0 255
-0.03929719 -0.0161665 0.4151719 255 0 255
-0.03799672 -0.01586553 0.4144567 255 0 255
-0.01441936 -0.009090437 0.3980123 255 0 255
0.004701374 0.002032376 0.3694369 255 0 255
0.007506758 0.002439751 0.3686228 255 0 255
0.01304933 0.003291464 0.3669019 255 0 255
0.01396386 0.003324036 0.3669164 255 0 255
0.01762194 0.003468612 0.3669412 255 0 255
0.02393633 0.004457245 0.364978 255 0 255
0.03216118 0.004613163 0.3655708 255 0 255
0.05510112 0.005930657 0.3650598 255 0 255
0.06322305 0.006863776 0.3636929 255 0 255
0.06591801 0.007199937 0.3631779 255 0 255
0.07653251 0.007583873 0.3637673 255 0 255
-0.06515992 -0.02943139 0.4456795 255 0 255
-0.03907581 -0.01688772 0.4138604 255 0 255
-0.03046145 -0.01540647 0.4105951 255 0 255
-0.02657107 -0.01409837 0.4074015 255 0 255
0.00841342 0.0009046639 0.3702155 255 0 255
0.01491185 0.002500104 0.3666131 255 0 255
0.01674106 0.002572556 0.3666256 255 0 255
0.03128761 0.003700191 0.3653104 255 0 255
0.04878666 0.004427556 0.3656242 255 0 255
0.05225502 0.005124505 0.3642151 255 0 255
0.05315795 0.005218225 0.364087 255 0 255
0.05586323 0.00550781 0.3636832 255 0 255
0.05676379 0.005607141 0.3635419 255 0 255
0.06035976 0.006018426 0.3629441 255 0 255
0.06326059 0.006012233 0.3633816 255 0 255
0.07019088 0.007264227 0.3610293 255 0 255
0.07541053 0.006917963 0.3627577 255 0 255
0.08552728 0.007014354 0.3640828 255 0 255
-0.07927145 -0.0445733 0.4813335 255 0 255
-0.04449415 -0.01951022 0.4171794 255 0 255
-0.03645265 -0.01733121 0.4120343 255 0 255
-0.02033033 -0.01311935 0.402215 255 0 255
-0.0190181 -0.01243105 0.4004961 255 0 255
0.02677685 0.002565103 0.3652034 255 0 255
0.0285957 0.002674522 0.3651299 255 0 255
0.02943829 0.003077715 0.3641525 255 0 255
0.04232508 0.00333397 0.3650896 255 0 255
0.05770067 0.004859518 0.3630833 255 0 255
0.06239813 0.005052097 0.3632317 255 0 255
0.07022872 0.006420142 0.360717 255 0 255
0.07544913 0.006064658 0.3624421 255 0 255
0.07634556 0.006195141 0.3622295 255 0 255
0.08706371 0.006764614 0.3623641 255 0 255
0.08795989 0.006913648 0.3621088 255 0 255
-0.0618978 -0.04148549 0.4704848 255 0 255
-0.0303869 -0.01749366 0.4098154 255 0 255
-0.01640268 -0.01203368 0.3966709 255 0 255
-0.007277998 -0.00886237 0.3891707 255 0 255
0.01957616 0.0006284525 0.3669164 255 0 255
0.03044857 0.001939906 0.3647243 255 0 255
0.04326932 0.002561478 0.3646789 255 0 255
0.04417734 0.002641555 0.3645841 255 0 255
0.05773756 0.004012479 0.3627658 255 0 255
0.07026643 0.005577304 0.3604014 255 0 255
0.08321662 0.005647897 0.3621306 255 0 255
-0.03398802 -0.01915277 0.410709 255 0 255
-0.01065942 -0.01125105 0.3922324 255 0 255
-0.007324751 -0.01017156 0.3897391 255 0 255
-0.00237956 -0.005482488 0.3779739 255 0 255
0.0122447 -0.001236508 0.3684075 255 0 255
0.01686624 -0.0007061785 0.3675307 255 0 255
0.02507339 0.0004066973 0.3655554 255 0 255
0.03329173 0.0009230744 0.3651798 255 0 255
0.05055674 0.002393934 0.3635062 255 0 255
0.05489572 0.003210581 0.3619455 255 0 255
0.06226533 0.003695548 0.361675 255 0 255
0.06517066 0.003690436 0.3620884 255 0 255
0.07437113 0.004566244 0.3611031 255 0 255
0.08474864 0.005409203 0.3604261 255 0 255
0.08563943 0.005555001 0.3601799 255 0 255
0.08861999 0.005675608 0.3603136 255 0 255
-0.05136918 -0.03533874 0.4478481 255 0 255
-0.02920865 -0.01960343 0.409194 255 0 255
-0.01184752 -0.01293726 0.3936092 255 0 255
-0.000349621 -0.006003103 0.3768355 255 0 255
0.001681811 -0.005250785 0.3750994 255 0 255
0.007536253 -0.00368419 0.3716616 255 0 255
0.01037856 -0.003243596 0.3708258 255 0 255
0.02693603 -0.0003399618 0.3651679 255 0 255
0.05149737 0.001639322 0.3630601 255 0 255
0.0531354 0.002176115 0.3618864 255 0 255
0.05601023 0.002120062 0.3624057 255 0 255
0.06140548 0.002743663 0.3615119 255 0 255
0.06409405 0.003074488 0.3610207 255 0 255
0.06700303 0.003076064 0.361412 255 0 255
0.07351466 0.003591962 0.3609833 255 0 255
0.07530273 0.003849718 0.3605707 255 0 255
-0.03280311 -0.02127888 0.4100873 255 0 255
-0.0305856 -0.02134282 0.4104507 255 0 255
-0.02932278 -0.02100681 0.4097082 255 0 255
-0.01398694 -0.01426322 0.3939314 255 0 255
-0.01181023 -0.01390668 0.3932319 255 0 255
-0.01058561 -0.01317678 0.3914872 255 0 255
-0.007168767 -0.01170933 0.3880755 255 0 255
-0.002509843 -0.008388762 0.3800589 255 0 255
0.008489741 -0.004901919 0.3722863 255 0 255
0.01229819 -0.003692413 0.3696019 255 0 255
0.02514316 -0.001295161 0.3648974 255 0 255
0.0270264 -0.001551727 0.365768 255 0 255
0.02794406 -0.001496714 0.3657329 255 0 255
0.02886151 -0.001440268 0.3656944 255 0 255
0.03069576 -0.001323003 0.3656075 255 0 255
0.03444819 -0.001430741 0.3663229 255 0 255
0.03812487 -0.001154448 0.3660549 255 0 255
0.04350324 -0.0003399213 0.3646271 255 0 255
0.05514547 0.001177177 0.3622153 255 0 255
0.05874759 0.00158267 0.3616462 255 0 255
0.06054482 0.001793928 0.361342 255 0 255
0.06144244 0.001901669 0.3611849 255 0 255
0.08304135 0.003423112 0.3602537 255 0 255
-0.02913041 -0.02167794 0.4083818 255 0 255
-0.02361715 -0.01882247 0.4016869 255 0 255
-0.01741693 -0.01631653 0.3959471 255 0 255
-0.007214177 -0.01302508 0.3886285 255 0 255
0.01137555 -0.005328721 0.3710973 255 0 255
0.0288969 -0.002292313 0.3653592 255 0 255
0.04445155 -0.001107937 0.3641983 255 0 255
0.05082336 -0.0004987885 0.3634417 255 0 255
0.06127526 0.001413059 0.3599412 255 0 255
0.07448476 0.002031939 0.3601197 255 0 255
0.08278763 0.002915461 0.3590271 255 0 255
0.08456492 0.003203928 0.3585477 255 0 255
-0.01401717 -0.01657796 0.3940842 255 0 255
0.01045321 -0.006605128 0.3716516 255 0 255
0.01887136 -0.004428418 0.3671163 255 0 255
0.04095125 -0.002637653 0.3651442 255 0 255
0.05070227 -0.0009840225 0.362186 255 0 255
0.05882107 -9.897826E-05 0.3609815 255 0 255
0.06151614 0.0002217113 0.360521 255 0 255
0.07045338 0.001382873 0.3587733 255 0 255
0.07337356 0.001409701 0.3590874 255 0 255
0.07426435 0.00153836 0.3588841 255 0 255
0.08104448 0.001789438 0.3591587 255 0 255
-0.008242614 -0.0152995 0.3886979 255 0 255
-0.00713895 -0.01491983 0.3878696 255 0 255
0.0085501 -0.008289285 0.3730896 255 0 255
0.02353992 -0.005058752 0.3667119 255 0 255
0.03002059 -0.004677949 0.3664887 255 0 255
0.03649033 -0.004224762 0.3661013 255 0 255
0.05345021 -0.001542242 0.361476 255 0 255
0.05795802 -0.001042083 0.360791 255 0 255
0.06313418 -3.640215E-05 0.3589517 255 0 255
0.06960014 0.0004251985 0.3586271 255 0 255
0.07137994 0.0006722192 0.3582453 255 0 255
0.07634658 0.0006125242 0.3590294 255 0 255
0.08404912 0.001030132 0.3590073 255 0 255
0.08613587 0.0009792643 0.3594081 255 0 255
-0.03409807 -0.03155082 0.4231808 255 0 255
-0.02665858 -0.02445083 0.4065562 255 0 255
-0.02242498 -0.02185532 0.400623 255 0 255
-0.008290374 -0.01662889 0.3892321 255 0 255
0.00469307 -0.01002518 0.3744129 255 0 255
0.006616498 -0.009981524 0.3745032 255 0 255
0.01896288 -0.00652102 0.3673474 255 0 255
0.0328311 -0.005347144 0.3659948 255 0 255
0.03744975 -0.005007866 0.365685 255 0 255
0.04364809 -0.003728718 0.3632711 255 0 255
0.04547212 -0.0035635 0.3630787 255 0 255
0.04986998 -0.002756498 0.3616231 255 0 255
0.05258333 -0.002477208 0.3612617 255 0 255
0.07549112 -0.0003588671 0.358899 255 0 255
0.08676006 0.000631788 0.3579296 255 0 255
-0.01737904 -0.02061395 0.3952773 255 0 255
-0.001596079 -0.0144656 0.381983 255 0 255
0.009577049 -0.01002634 0.3723997 255 0 255
0.01808462 -0.007803176 0.3679194 255 0 255
0.01899879 -0.007379741 0.3669938 255 0 255
0.01992959 -0.007336808 0.3669888 255 0 255
0.02179097 -0.00724647 0.3669687 255 0 255
0.03194275 -0.006263906 0.3656953 255 0 255
0.04289461 -0.005028179 0.3639339 255 0 255
0.07145381 -0.000992727 0.3575645 255 0 255
0.07259344 -0.001226798 0.3582675 255 0 255
0.08590789 -0.0003584473 0.3578326 255 0 255
0.01248403 -0.01042893 0.3711886 255 0 255
0.01627782 -0.009901023 0.3703213 255 0 255
0.02275771 -0.008055895 0.3665967 255 0 255
0.0245741 -0.007572054 0.3656344 255 0 255
0.03012905 -0.007238813 0.3654341 255 0 255
0.03105416 -0.007178074 0.365389 255 0 255
0.03197904 -0.007115823 0.3653406 255 0 255
0.03475215 -0.006920152 0.3651753 255 0 255
0.05249003 -0.003776969 0.3596566 255 0 255
0.05986654 -0.003339222 0.3594626 255 0 255
0.06703476 -0.002434843 0.3581472 255 0 255
0.06971063 -0.002072086 0.3576002 255 0 255
0.08002127 -0.001351128 0.3571238 255 0 255
-0.02174278 -0.02643724 0.4031648 255 0 255
-0.006044344 -0.019078 0.3873142 255 0 255
-0.002647248 -0.01709788 0.3829746 255 0 255
0.01250744 -0.01208386 0.3726617 255 0 255
0.02461031 -0.00842361 0.3652758 255 0 255
0.039512 -0.007797044 0.3653927 255 0 255
0.04466932 -0.006173162 0.362125 255 0 255
0.08896569 -0.001936164 0.3572574 255 0 255
-0.02530618 -0.03493134 0.4198602 255 0 255
-0.0224715 -0.02981736 0.4081925 255 0 255
-0.009427032 -0.02160886 0.3902872 255 0 255
-0.004908962 -0.01961932 0.386084 255 0 255
-0.003750979 -0.01882149 0.384335 255 0 255
0.001657065 -0.01599502 0.3782699 255 0 255
0.009669309 -0.01305552 0.3722087 255 0 255
0.01729825 -0.01160137 0.3695898 255 0 255
0.02099808 -0.0102516 0.3668188 255 0 255
0.02927643 -0.008998433 0.3647559 255 0 255
0.03105466 -0.008487979 0.3637514 255 0 255
0.03398508 -0.009074722 0.3654319 255 0 255
0.03686424 -0.009256425 0.3661627 255 0 255
0.04652897 -0.006842558 0.3615696 255 0 255
0.05198722 -0.006297755 0.3608958 255 0 255
0.05615706 -0.00504349 0.3584299 255 0 255
0.05974199 -0.004625467 0.3578541 255 0 255
0.06242386 -0.0042968 0.3573881 255 0 255
0.06687952 -0.003720299 0.3565465 255 0 255
0.07002366 -0.004102609 0.3577955 255 0 255
0.07920595 -0.003155522 0.3566431 255 0 255
0.0898938 -0.002618749 0.3566425 255 0 255
-0.002634928 -0.01934353 0.3830984 255 0 255
0.005704094 -0.01602579 0.3762609 255 0 255
0.01828213 -0.01242794 0.3692183 255 0 255
0.04224306 -0.008874227 0.3635058 255 0 255
0.04316404 -0.008793566 0.3634176 255 0 255
0.04944773 -0.00780037 0.3617973 255 0 255
0.05202369 -0.007133732 0.3605362 255 0 255
0.0597782 -0.005451931 0.3574986 255 0 255
0.06513568 -0.004779944 0.3565382 255 0 255
0.06691577 -0.004544442 0.3561922 255 0 255
-0.004829421 -0.02149191 0.3852734 255 0 255
-0.003741309 -0.02108203 0.3844434 255 0 255
0.0005887342 -0.01902447 0.3801671 255 0 255
0.009744381 -0.01481183 0.3714484 255 0 255
0.01358079 -0.01428545 0.3706299 255 0 255
0.01548461 -0.01381298 0.3697416 255 0 255
0.03405863 -0.01077491 0.3646962 255 0 255
0.03507505 -0.01110321 0.3655518 255 0 255
0.0388 -0.01081631 0.3652836 255 0 255
0.04948431 -0.008639185 0.3614324 255 0 255
0.05641161 -0.007084325 0.3586185 255 0 255
0.05712656 -0.006594285 0.3575759 255 0 255
0.06517185 -0.005603261 0.3561803 255 0 255
0.06985654 -0.005382 0.3561849 255 0 255
0.07749789 -0.005091898 0.3563612 255 0 255
0.07927931 -0.004815012 0.3559259 255 0 255
0.08016866 -0.00467441 0.3557035 255 0 255
-0.009571555 -0.02568746 0.3917708 255 0 255
-0.002686058 -0.02200316 0.384113 255 0 255
0.00976432 -0.01609272 0.3719773 255 0 255
0.01265777 -0.01559574 0.3711416 255 0 255
0.02211002 -0.01357521 0.3675206 255 0 255
0.0351121 -0.01195449 0.3651775 255 0 255
