ply
format ascii 1.0
Comment Generated by Floating Hands
element vertex 1124
Comment Left: (0.0, 0.0, 0.0)
Comment Right: (0.1, -0.1, 0.4)
Comment Time: 2023-05-01 09:21:44,254
property double x
property double y
property double z
property uchar red
property uchar green
property uchar blue
end_header
0.09085996 0.02501263 0.4083463 255 0 255
0.09192605 0.0251785 0.4080391 255 0 255
0.1016655 0.02478227 0.4121869 255 0 255
0.1066729 0.02506533 0.4125938 255 0 255
0.1077557 0.02525374 0.4122273 255 0 255
0.1124355 0.02579925 0.4116251 255 0 255
0.1164166 0.02595151 0.4122491 255 0 255
0.1208127 0.02590659 0.4137163 255 0 255
0.1233782 0.02610754 0.4137663 255 0 255
0.1263516 0.0261017 0.4146845 255 0 255
0.08287553 0.02106496 0.4162346 255 0 255
0.08370471 0.02146276 0.4150261 255 0 255
0.08721972 0.02281861 0.4110986 255 0 255
0.09199163 0.02411343 0.4077473 255 0 255
0.09549829 0.02438634 0.4077213 255 0 255
0.09859639 0.02403358 0.4098202 255 0 255
0.1028151 0.02387565 0.4115414 255 0 255
0.1056575 0.02378383 0.4126565 255 0 255
0.1078249 0.02416006 0.411928 255 0 255
0.1146617 0.02509845 0.410545 255 0 255
0.1171901 0.0252756 0.4106465 255 0 255
0.1190309 0.02503342 0.4120343 255 0 255
0.1208846 0.02479545 0.4134125 255 0 255
0.02276175 -0.001417011 0.4786257 255 0 255
0.02426624 0.0043656 0.4583209 255 0 255
0.02809519 0.004625416 0.4581393 255 0 255
0.02959152 0.003917659 0.4609527 255 0 255
0.03607596 0.0003269021 0.4750245 255 0 255
0.08270257 0.01654843 0.4279515 255 0 255
0.08267351 0.02022034 0.4149994 255 0 255
0.08431541 0.02102346 0.4125844 255 0 255
0.08699856 0.02198802 0.409873 255 0 255
0.08885395 0.02255397 0.4083602 255 0 255
0.09418547 0.023387 0.4068254 255 0 255
0.09556401 0.02331987 0.4074247 255 0 255
0.09866299 0.0229567 0.4095207 255 0 255
0.1000636 0.02289809 0.4100999 255 0 255
0.1050416 0.02315774 0.4105322 255 0 255
0.1122106 0.02383913 0.4101187 255 0 255
0.1132859 0.0240356 0.409732 255 0 255
0.1143597 0.02423349 0.4093414 255 0 255
0.1250072 0.02387049 0.4136136 255 0 255
0.01892428 0.004713608 0.4514182 255 0 255
0.02148408 0.01091111 0.4301534 255 0 255
0.0225892 0.0112577 0.429146 255 0 255
0.02393403 0.01052315 0.4319775 255 0 255
0.02510449 0.01060263 0.431922 255 0 255
0.02751823 0.01049661 0.4327579 255 0 255
0.03865876 0.003359963 0.4599722 255 0 255
0.04460613 -0.004705422 0.4894323 255 0 255
0.08489716 0.01198892 0.4400497 255 0 255
0.0843797 0.01994661 0.4122801 255 0 255
0.08598629 0.02075931 0.4098589 255 0 255
0.09135626 0.02157577 0.4083798 255 0 255
0.09349532 0.02191237 0.4077599 255 0 255
0.0945629 0.02208279 0.4074439 255 0 255
0.09765438 0.02170458 0.4095484 255 0 255
0.09905294 0.0216406 0.410132 255 0 255
0.10295 0.02170336 0.4109327 255 0 255
0.1036915 0.0221255 0.4096711 255 0 255
0.1072621 0.02244855 0.4095031 255 0 255
0.1112021 0.0225543 0.4101937 255 0 255
0.1122791 0.02274978 0.4098113 255 0 255
0.1133546 0.02294675 0.4094248 255 0 255
0.1225042 0.02255803 0.4132641 255 0 255
0.1261682 0.02297155 0.4128648 255 0 255
0.1264467 0.02364005 0.4106538 255 0 255
0.01624714 -0.005826759 0.482852 255 0 255
0.01977419 0.01301713 0.4183526 255 0 255
0.02078193 0.01363806 0.4163922 255 0 255
0.03432103 0.01071128 0.4290825 255 0 255
0.04780203 -0.003273576 0.48004 255 0 255
0.08471407 0.01106125 0.4387769 255 0 255
0.08306965 0.01779857 0.4153116 255 0 255
0.08525111 0.01928127 0.4107632 255 0 255
0.08604991 0.01969191 0.4095528 255 0 255
0.08957008 0.01992957 0.4096006 255 0 255
0.09142046 0.02051019 0.4080742 255 0 255
0.1005237 0.02049786 0.4103992 255 0 255
0.1030166 0.02061908 0.4106219 255 0 255
0.1062532 0.02117712 0.4095563 255 0 255
0.0144752 -0.00246666 0.4661721 255 0 255
0.01501688 0.004607867 0.4421667 255 0 255
0.0184331 0.01354787 0.4123211 255 0 255
0.02267949 0.01438616 0.4102376 255 0 255
0.02850807 0.01338592 0.4147276 255 0 255
0.02961045 0.0134685 0.4146547 255 0 255
0.03890264 0.01024942 0.4273998 255 0 255
0.04052539 0.009253155 0.4311073 255 0 255
0.04486359 0.005087928 0.4461304 255 0 255
0.08528781 0.009366035 0.4402988 255 0 255
0.08275065 0.01459638 0.4220488 255 0 255
0.08369065 0.01738261 0.4128639 255 0 255
0.08450685 0.01779663 0.4116588 255 0 255
0.08531436 0.01821102 0.4104517 255 0 255
0.08639605 0.01837127 0.4101672 255 0 255
0.09208778 0.01894272 0.4096037 255 0 255
0.09500458 0.01970543 0.4077457 255 0 255
0.1002614 0.01966501 0.4091733 255 0 255
0.1066662 0.01985124 0.4101474 255 0 255
0.1088241 0.02023272 0.4094144 255 0 255
0.1138588 0.02053259 0.4096955 255 0 255
0.1237339 0.0205512 0.4121994 255 0 255
0.1248218 0.02076559 0.4117708 255 0 255
0.01299256 -0.0009572807 0.4562278 255 0 255
0.01633907 0.01208196 0.4130276 255 0 255
0.02260851 0.01390729 0.4080145 255 0 255
0.03580727 0.01117134 0.419643 255 0 255
0.03850805 0.01024818 0.4232553 255 0 255
0.08459791 0.008969969 0.4371553 255 0 255
0.0829678 0.01201674 0.4266418 255 0 255
0.08229443 0.0140075 0.4198614 255 0 255
0.08456977 0.01672355 0.4113418 255 0 255
0.08537714 0.01714203 0.4101359 255 0 255
0.08645892 0.01730263 0.4098516 255 0 255
0.08969697 0.01779319 0.4089742 255 0 255
0.09107209 0.01770373 0.4095932 255 0 255
0.09215144 0.01787218 0.4092875 255 0 255
0.09430621 0.01821348 0.408664 255 0 255
0.09569489 0.01813276 0.4092614 255 0 255
0.09677272 0.01830764 0.4089384 255 0 255
0.09849071 0.01797935 0.4104373 255 0 255
0.09957325 0.01815833 0.4101039 255 0 255
0.1150037 0.01964436 0.4089829 255 0 255
0.1234086 0.01968279 0.4109855 255 0 255
0.1255755 0.02011267 0.4101274 255 0 255
0.01425968 0.01032722 0.414669 255 0 255
0.01522462 0.01153975 0.4108209 255 0 255
0.02045309 0.01301747 0.4068377 255 0 255
0.02158515 0.01280162 0.4077513 255 0 255
0.0226621 0.01287342 0.4077043 255 0 255
0.02618949 0.01195835 0.4113621 255 0 255
0.03676879 0.01074735 0.4173129 255 0 255
0.03811163 0.01027844 0.4191155 255 0 255
0.04744631 0.005568914 0.4364612 255 0 255
0.08970162 0.0009654277 0.460354 255 0 255
0.08441231 0.008065188 0.4358742 255 0 255
0.08268678 0.01385697 0.4164765 255 0 255
0.08543948 0.01607429 0.409816 255 0 255
0.0886815 0.01656158 0.4089511 255 0 255
0.09005445 0.01646672 0.4095742 255 0 255
0.09113514 0.01663409 0.4092727 255 0 255
0.09221461 0.01680294 0.4089672 255 0 255
0.09575856 0.01706097 0.4089403 255 0 255
0.1021309 0.01718939 0.4100107 255 0 255
0.1050296 0.01799929 0.4080538 255 0 255
0.1064506 0.01793586 0.4085997 255 0 255
0.1143615 0.01810882 0.4099446 255 0 255
0.1161466 0.01875985 0.4082623 255 0 255
0.1172213 0.01896375 0.4078629 255 0 255
0.124163 0.01903713 0.4093442 255 0 255
0.01064375 -0.004995431 0.4602824 255 0 255
0.01138835 0.003247753 0.4335048 255 0 255
0.01224292 0.007395716 0.4201106 255 0 255
0.01317994 0.00949813 0.413406 255 0 255
0.01524244 0.01078678 0.4095472 255 0 255
0.017328 0.01149643 0.4075851 255 0 255
0.02379237 0.01191419 0.4073392 255 0 255
0.02501051 0.01141123 0.4091937 255 0 255
0.03549759 0.01015348 0.4151805 255 0 255
0.03794125 0.009769082 0.4168836 255 0 255
0.04166169 0.009209068 0.4194015 255 0 255
0.04613448 0.007252134 0.4266199 255 0 255
0.05377069 -0.000318956 0.4527314 255 0 255
0.08216064 0.01207169 0.4182687 255 0 255
0.08359057 0.01319337 0.4149462 255 0 255
0.08415056 0.01388767 0.4128209 255 0 255
0.08497025 0.01431449 0.4116186 255 0 255
0.08578118 0.01474168 0.4104142 255 0 255
0.0876641 0.01533199 0.4089195 255 0 255
0.0901169 0.015398 0.4092493 255 0 255
0.09474239 0.01581628 0.4089336 255 0 255
0.09829757 0.01608353 0.4088763 255 0 255
0.1004542 0.01644343 0.4082083 255 0 255
0.1018628 0.01636769 0.4087754 255 0 255
0.106168 0.01711333 0.4073699 255 0 255
0.1072406 0.01730338 0.4070084 255 0 255
0.1086664 0.01724091 0.4075428 255 0 255
0.1126129 0.01732221 0.40821 255 0 255
0.1169071 0.01812831 0.406643 255 0 255
0.1212844 0.01800684 0.4080847 255 0 255
0.01026036 0.002053671 0.4331585 255 0 255
0.02397991 0.01029707 0.4089285 255 0 255
0.02739022 0.009943691 0.4106566 255 0 255
0.02848165 0.0100242 0.4105888 255 0 255
0.02957271 0.01010623 0.4105168 255 0 255
0.03075404 0.009898568 0.4113932 255 0 255
0.03555385 0.009089195 0.414852 255 0 255
0.04159361 0.008414889 0.4181183 255 0 255
0.04734891 0.00624977 0.42614 255 0 255
0.08302455 0.007377378 0.4295937 255 0 255
0.08584275 0.01367285 0.4100846 255 0 255
0.08988372 0.01459828 0.4080031 255 0 255
0.09836061 0.01501145 0.4085459 255 0 255
0.09943972 0.01519107 0.4082141 255 0 255
0.1083758 0.01642301 0.4063127 255 0 255
0.1169724 0.01704865 0.4063106 255 0 255
0.1228212 0.01687979 0.4082152 255 0 255
0.1257789 0.01681274 0.4091261 255 0 255
0.01018848 0.00331988 0.4251733 255 0 255
0.01419795 0.009245872 0.4070134 255 0 255
0.01738972 0.00973294 0.4059909 255 0 255
0.02192293 0.00881589 0.4096554 255 0 255
0.03199799 0.008641029 0.4119357 255 0 255
0.03429591 0.008523053 0.4127126 255 0 255
0.0366078 0.008412453 0.4134719 255 0 255
0.03916996 0.007723863 0.4161111 255 0 255
0.04986567 0.005073971 0.4264515 255 0 255
0.08232809 0.007069199 0.4264571 255 0 255
0.08344557 0.01130051 0.41335 255 0 255
0.08670581 0.01304105 0.4085469 255 0 255
0.08778678 0.01320453 0.408259 255 0 255
0.08886652 0.01336951 0.407967 255 0 255
0.08994498 0.01353596 0.407671 255 0 255
0.09842312 0.0139407 0.4082113 255 0 255
0.09917691 0.01438726 0.4069724 255 0 255
0.1113021 0.01522159 0.4070257 255 0 255
0.1138183 0.01536068 0.4071542 255 0 255
0.1181067 0.01617651 0.4055724 255 0 255
0.1236777 0.01528135 0.4096403 255 0 255
0.009312356 -0.003304666 0.4419715 255 0 255
0.01425016 0.008216934 0.4066869 255 0 255
0.01529289 0.008580814 0.4057155 255 0 255
0.01861193 0.008170088 0.4075392 255 0 255
0.01979736 0.007634846 0.4094082 255 0 255
0.02094268 0.007403382 0.4103207 255 0 255
0.02331971 0.006645831 0.4130843 255 0 255
0.02976869 0.007719256 0.4108092 255 0 255
0.03655288 0.007651849 0.4121879 255 0 255
0.03910802 0.006951569 0.4148244 255 0 255
0.08771121 -0.003125876 0.4553708 255 0 255
0.08188376 0.006503572 0.4242485 255 0 255
0.08350661 0.01022219 0.4130082 255 0 255
0.085154 0.01109983 0.4106135 255 0 255
0.09000576 0.01247497 0.4073347 255 0 255
0.09323379 0.01298425 0.4064229 255 0 255
0.1110029 0.01440964 0.4057913 255 0 255
0.1149568 0.01448454 0.4064235 255 0 255
0.1204038 0.0145317 0.4074795 255 0 255
0.0112081 0.004864648 0.4130498 255 0 255
0.01322333 0.007129373 0.4063714 255 0 255
0.01433451 0.006882919 0.4073078 255 0 255
0.02105197 0.006055932 0.4109362 255 0 255
0.0244786 0.005667653 0.4126933 255 0 255
0.02661167 0.006126789 0.4116268 255 0 255
0.03805261 0.005791519 0.4145887 255 0 255
0.04301687 0.00499002 0.4179195 255 0 255
0.04427613 0.004795303 0.4187397 255 0 255
0.04695839 0.004114754 0.4213088 255 0 255
0.05114166 0.002965811 0.4255913 255 0 255
0.08580888 -0.002080656 0.4475634 255 0 255
0.08180442 0.006966618 0.4190034 255 0 255
0.08273043 0.008702986 0.4138548 255 0 255
0.08439514 0.009587925 0.4114671 255 0 255
0.08630542 0.01019336 0.4099885 255 0 255
0.08790749 0.01108245 0.4075817 255 0 255
0.09144291 0.01130578 0.4076071 255 0 255
0.09252281 0.01147652 0.4073023 255 0 255
0.09822443 0.01207785 0.4066233 255 0 255
0.1007038 0.01216648 0.4068626 255 0 255
0.1067681 0.01256018 0.4069203 255 0 255
0.1125025 0.01327074 0.4059606 255 0 255
0.11502 0.013408 0.406078 255 0 255
0.1160931 0.01361219 0.4056849 255 0 255
0.1282775 0.01296886 0.41028 255 0 255
0.01030438 0.000956342 0.4212622 255 0 255
0.01327523 0.006103121 0.4060369 255 0 255
0.01539678 0.00653447 0.4050528 255 0 255
0.01763477 0.006042607 0.4069028 255 0 255
0.02578081 0.004077178 0.4141916 255 0 255
0.02776575 0.005158334 0.4112208 255 0 255
0.03005219 0.005016152 0.4120281 255 0 255
0.03235288 0.00488138 0.4128179 255 0 255
0.03456444 0.005059269 0.4126435 255 0 255
0.04057646 0.004316695 0.4159154 255 0 255
0.04307374 0.003913263 0.4175684 255 0 255
0.0443333 0.003714939 0.4183876 255 0 255
0.04687399 0.003325277 0.4200104 255 0 255
0.05683912 0.0005405205 0.4302216 255 0 255
0.08194535 0.007177548 0.4146922 255 0 255
0.08418182 0.008802354 0.4101996 255 0 255
0.08875484 0.01047258 0.4060318 255 0 255
0.09120325 0.01052608 0.40635 255 0 255
0.1007648 0.01110066 0.4065156 255 0 255
0.1060963 0.01102329 0.4078274 255 0 255
0.1082586 0.01140904 0.407105 255 0 255
0.1179901 0.01220855 0.406708 255 0 255
0.1246646 0.01146531 0.4103442 255 0 255
0.1279358 0.01212789 0.4090462 255 0 255
0.01896299 0.00382843 0.4103261 255 0 255
0.02016558 0.003271834 0.4121873 255 0 255
0.0247908 0.002629608 0.4148464 255 0 255
0.02687151 0.003409284 0.4128339 255 0 255
0.02900327 0.003882409 0.4117537 255 0 255
0.03694052 0.003881443 0.4130494 255 0 255
0.03804872 0.003976253 0.4129476 255 0 255
0.05772901 0.0001419553 0.4277992 255 0 255
0.07197641 -0.01693321 0.4815078 255 0 255
0.08664005 -0.007021955 0.4544415 255 0 255
0.08192385 0.001819689 0.4271112 255 0 255
0.08174317 0.006386611 0.4134149 255 0 255
0.0831475 0.007575926 0.4101208 255 0 255
0.08694503 0.008800968 0.4071752 255 0 255
0.08959265 0.009872556 0.4044784 255 0 255
0.09448739 0.009986713 0.4050786 255 0 255
0.1050742 0.009758492 0.4078281 255 0 255
0.1075881 0.009864711 0.4080096 255 0 255
0.1083201 0.01033617 0.4067512 255 0 255
0.1104764 0.01072876 0.406013 255 0 255
0.1115522 0.01092731 0.4056377 255 0 255
0.1158398 0.01173626 0.4040965 255 0 255
0.117671 0.01139971 0.4054683 255 0 255
0.1247287 0.01036535 0.4099816 255 0 255
0.1284071 0.01076333 0.409558 255 0 255
0.01355194 0.002147553 0.4110419 255 0 255
0.01572069 0.002589095 0.4100596 255 0 255
0.01685998 0.002336114 0.4109837 255 0 255
0.01916169 0.001836211 0.4128191 255 0 255
0.02155052 0.001028352 0.4155841 255 0 255
0.02273209 0.0007859006 0.4164864 255 0 255
0.02379271 0.001176954 0.4154908 255 0 255
0.02803363 0.002436876 0.4124168 255 0 255
0.03356824 0.002863126 0.4120323 255 0 255
0.03821912 0.002608693 0.4135374 255 0 255
0.04444677 0.001558535 0.4176705 255 0 255
0.05314402 0.0008005337 0.4213679 255 0 255
0.05976138 -0.0001117557 0.4251946 255 0 255
0.08902016 -0.01290385 0.4681662 255 0 255
0.08205573 -0.000955865 0.431608 255 0 255
0.08402622 0.006964306 0.4085754 255 0 255
0.08750723 0.008491789 0.4047104 255 0 255
0.093165 0.009046588 0.4041308 255 0 255
0.09700874 0.008999483 0.4049948 255 0 255
0.1012153 0.008688922 0.4067092 255 0 255
0.1051349 0.008685732 0.4074695 255 0 255
0.1181146 0.01004982 0.4059915 255 0 255
0.1199628 0.009711479 0.4073502 255 0 255
0.1229125 0.009593447 0.4082822 255 0 255
0.1276563 0.0102024 0.4074454 255 0 255
0.01190686 -0.006742954 0.4334222 255 0 255
0.01490553 -0.0007638718 0.4163506 255 0 255
0.01599498 -0.000378513 0.4153845 255 0 255
0.01711731 -0.0003129321 0.4153606 255 0 255
0.01936138 -0.0001769816 0.4153004 255 0 255
0.02284707 -0.0006004615 0.4170702 255 0 255
0.02608825 0.0002690645 0.4150204 255 0 255
0.03030277 0.001551354 0.4119187 255 0 255
0.03362262 0.001812085 0.4116758 255 0 255
0.04086722 0.0008017289 0.4157853 255 0 255
0.04803383 0.0004945288 0.4178445 255 0 255
0.04931514 0.000294099 0.4186405 255 0 255
0.05287708 0.0003291036 0.4191243 255 0 255
0.06479106 -0.005274025 0.4374955 255 0 255
0.08477738 -0.00876291 0.4511185 255 0 255
0.08212377 0.003935296 0.4136076 255 0 255
0.08270236 0.004691372 0.411506 255 0 255
0.08597922 0.006525189 0.4067475 255 0 255
0.08922327 0.007022066 0.405886 255 0 255
0.09245609 0.00753247 0.4049883 255 0 255
0.09491656 0.007589087 0.4052742 255 0 255
0.100193 0.00743908 0.4066843 255 0 255
0.1023553 0.007809805 0.4060084 255 0 255
0.1120374 0.008506575 0.4058062 255 0 255
0.1149341 0.00835005 0.406812 255 0 255
0.1167185 0.009042857 0.4051436 255 0 255
0.1270377 0.008613149 0.4083835 255 0 255
0.1281264 0.008837125 0.4079472 255 0 255
0.01196855 -0.03042614 0.4982576 255 0 255
0.0125835 -0.01732159 0.4604446 255 0 255
0.01336405 -0.01041648 0.4405869 255 0 255
0.01970889 -0.003183564 0.4206041 255 0 255
0.02080147 -0.002787753 0.4196224 255 0 255
0.02188592 -0.00239084 0.4186368 255 0 255
0.03367678 0.000762451 0.4113153 255 0 255
0.03478266 0.0008525813 0.4112262 255 0 255
0.03610379 0.000304563 0.4130156 255 0 255
0.0445592 -0.0005920755 0.4169365 255 0 255
0.04582701 -0.0008023632 0.4177456 255 0 255
0.0468159 -0.0003769322 0.4166744 255 0 255
0.04922099 -0.0004713278 0.4173324 255 0 255
0.05050579 -0.0006733392 0.4181225 255 0 255
0.05293414 -0.0007554283 0.4187518 255 0 255
0.05520491 -0.0005155625 0.418428 255 0 255
0.05933329 -0.00139435 0.42164 255 0 255
0.06390406 -0.004876181 0.4324416 255 0 255
0.08787662 -0.01768072 0.4733907 255 0 255
0.0810065 -0.005098194 0.4359545 255 0 255
0.08085184 -4.549257E-05 0.4213692 255 0 255
0.08097666 0.001328011 0.417434 255 0 255
0.08249404 0.003923041 0.4102233 255 0 255
0.08495299 0.005308227 0.4066646 255 0 255
0.08820082 0.005801607 0.4058157 255 0 255
0.09083641 0.006901871 0.4031175 255 0 255
0.09358909 0.006654104 0.4043202 255 0 255
0.09819929 0.007070184 0.4039513 255 0 255
0.09992515 0.006667169 0.4054205 255 0 255
0.1024144 0.00674644 0.4056435 255 0 255
0.1052546 0.00654458 0.4067397 255 0 255
0.1077695 0.006642428 0.4069184 255 0 255
0.10958 0.007323154 0.4052977 255 0 255
0.1110178 0.007235164 0.4058149 255 0 255
0.1120974 0.00743577 0.4054389 255 0 255
0.1131755 0.007637865 0.4050589 255 0 255
0.1146234 0.007557176 0.4055587 255 0 255
0.1167789 0.007970295 0.4047757 255 0 255
0.1193139 0.008107951 0.4048551 255 0 255
0.1207791 0.008039721 0.4053252 255 0 255
0.1222499 0.007974461 0.4057885 255 0 255
0.01600569 -0.02664593 0.4835881 255 0 255
0.02035331 -0.008200558 0.4315488 255 0 255
0.02326052 -0.004372496 0.4210466 255 0 255
0.02835635 -0.001364741 0.4132186 255 0 255
0.03383095 -0.000609935 0.4118912 255 0 255
0.03504492 -0.0008432925 0.4127422 255 0 255
0.03615825 -0.0007508359 0.4126484 255 0 255
0.05299095 -0.00183845 0.418375 255 0 255
0.05639612 -0.001475662 0.4178833 255 0 255
0.05770797 -0.001668348 0.4186426 255 0 255
0.08346421 -0.02330256 0.484469 255 0 255
0.08026025 -0.001927139 0.4230798 255 0 255
0.08065988 -0.0008446418 0.4200666 255 0 255
0.08310929 0.003628359 0.4077572 255 0 255
0.09718353 0.005837505 0.4039098 255 0 255
0.1067429 0.005376284 0.4069058 255 0 255
0.112521 0.006077088 0.4059527 255 0 255
0.1182965 0.006822678 0.4048849 255 0 255
0.1208394 0.006962839 0.4049512 255 0 255
0.1241841 0.006546055 0.4067418 255 0 255
0.1256699 0.006484353 0.4071888 255 0 255
0.02159384 -0.01728428 0.4537633 255 0 255
0.02540589 -0.004310214 0.4177364 255 0 255
0.03306402 -0.00273417 0.4144253 255 0 255
0.04354119 -0.00284217 0.4163102 255 0 255
0.0460784 -0.003278594 0.4179278 255 0 255
0.04707091 -0.00284505 0.4168588 255 0 255
0.05175179 -0.002715292 0.4172163 255 0 255
0.05288445 -0.0025978 0.4170614 255 0 255
0.0739372 -0.0104167 0.4423976 255 0 255
0.07584554 -0.007429191 0.4343012 255 0 255
0.07685493 -0.005232853 0.4282879 255 0 255
0.07957612 -0.002104465 0.4199362 255 0 255
0.08643267 0.0030606 0.4065586 255 0 255
0.09077122 0.003732678 0.4053995 255 0 255
0.09508952 0.004429138 0.4041758 255 0 255
0.100041 0.004550532 0.4046801 255 0 255
0.1014503 0.004436729 0.4052408 255 0 255
0.1089718 0.004698557 0.4058064 255 0 255
0.1100546 0.004897058 0.4054389 255 0 255
0.1143979 0.004624713 0.4069601 255 0 255
0.1158572 0.004539758 0.4074538 255 0 255
0.1165715 0.005039547 0.4061807 255 0 255
0.121679 0.005311395 0.4063222 255 0 255
0.1242444 0.005460797 0.4063602 255 0 255
0.1283109 0.005559777 0.4068094 255 0 255
0.02666989 -0.005636069 0.418236 255 0 255
0.02974947 -0.004054958 0.4142805 255 0 255
0.03311824 -0.003794308 0.414047 255 0 255
0.04840548 -0.0041351 0.4172716 255 0 255
0.05067428 -0.003907817 0.4169829 255 0 255
0.05423941 -0.003880213 0.4174491 255 0 255
0.06199035 -0.004742459 0.4210393 255 0 255
0.06448709 -0.004796355 0.4215766 255 0 255
0.0660428 -0.005302412 0.4232256 255 0 255
0.07551836 -0.00445812 0.4223692 255 0 255
0.07667305 -0.004305028 0.4221272 255 0 255
0.07782666 -0.004150272 0.421881 255 0 255
0.08124263 -0.0005266329 0.4123659 255 0 255
0.08757553 0.002173395 0.4058995 255 0 255
0.0897449 0.00251016 0.4053202 255 0 255
0.09160808 0.003160676 0.4038222 255 0 255
0.1065135 0.003537652 0.4052594 255 0 255
0.1101128 0.00382981 0.4050587 255 0 255
0.1130029 0.003638982 0.4060771 255 0 255
0.1155444 0.00375504 0.406189 255 0 255
0.1177147 0.004173882 0.4054018 255 0 255
0.1187975 0.004385593 0.4050022 255 0 255
0.1247015 0.004086896 0.4068448 255 0 255
0.128371 0.004470393 0.4064215 255 0 255
0.0278645 -0.00662828 0.417786 255 0 255
0.03110472 -0.00570101 0.4156994 255 0 255
0.0355209 -0.005005898 0.4144247 255 0 255
0.03765833 -0.004482409 0.4132954 255 0 255
0.04001891 -0.004621203 0.4140211 255 0 255
0.04239312 -0.004752163 0.4147286 255 0 255
0.04604957 -0.005099741 0.416222 255 0 255
0.04732552 -0.005321885 0.4170211 255 0 255
0.05218218 -0.005526544 0.4183048 255 0 255
0.05805634 -0.005244796 0.4184113 255 0 255
0.0618569 -0.005511337 0.4197179 255 0 255
0.0735045 -0.00442994 0.4185322 255 0 255
0.07464489 -0.004280208 0.4182978 255 0 255
0.07919594 -0.003665093 0.4173178 255 0 255
0.07982688 -0.002869867 0.4152348 255 0 255
0.0812993 -0.001598723 0.4119788 255 0 255
0.08791772 0.0008082992 0.4064252 255 0 255
0.08871676 0.001289934 0.4052324 255 0 255
0.08980083 0.001459431 0.4049409 255 0 255
0.09767371 0.00238056 0.4036833 255 0 255
0.1001547 0.002439837 0.4039232 255 0 255
0.1054871 0.002280112 0.4052295 255 0 255
0.1101703 0.002764079 0.4046742 255 0 255
0.1134256 0.002266619 0.4065718 255 0 255
0.1192389 0.003015556 0.4054898 255 0 255
0.1199369 0.003526003 0.4042115 255 0 255
0.1221874 0.002855418 0.4064198 255 0 255
0.1247607 0.003001094 0.4064532 255 0 255
0.02839542 -0.01528715 0.4380729 255 0 255
0.02938408 -0.008979435 0.4210743 255 0 255
0.03124804 -0.0071056 0.4162462 255 0 255
0.03342016 -0.006588634 0.4151492 255 0 255
0.03670021 -0.005972593 0.4139422 255 0 255
0.03771226 -0.005539056 0.412909 255 0 255
0.04119641 -0.005580961 0.4135221 255 0 255
0.04370602 -0.006048083 0.4151521 255 0 255
0.04497171 -0.006278139 0.4159596 255 0 255
0.04980279 -0.006505628 0.4172783 255 0 255
0.05207821 -0.006273626 0.4169805 255 0 255
0.05548605 -0.005913411 0.4165023 255 0 255
0.06400601 -0.006004066 0.4180093 255 0 255
0.07056964 -0.006615477 0.4206502 255 0 255
0.08109559 -0.002347987 0.4106769 255 0 255
0.08277708 -0.001386702 0.4083299 255 0 255
0.08360466 -0.0009053847 0.407153 255 0 255
0.09418005 0.001105041 0.4033517 255 0 255
0.1066275 0.001412328 0.4044879 255 0 255
0.1077098 0.001608419 0.4041303 255 0 255
0.1091444 0.001500076 0.4046525 255 0 255
0.1105848 0.001394621 0.4051681 255 0 255
0.1134832 0.001192456 0.4061796 255 0 255
0.114941 0.001095788 0.4066753 255 0 255
0.1288978 0.002001103 0.4064964 255 0 255
0.03110586 -0.02885281 0.4713342 255 0 255
0.04149977 -0.007320796 0.414994 255 0 255
0.04871916 -0.007695137 0.4170226 255 0 255
0.05685117 -0.007200439 0.4168623 255 0 255
0.05930876 -0.007282429 0.4174374 255 0 255
0.06386337 -0.006755473 0.4166861 255 0 255
0.07133408 -0.006906648 0.4181858 255 0 255
0.07225095 -0.006429953 0.4170433 255 0 255
0.07429184 -0.005803338 0.4156654 255 0 255
0.07566073 -0.00598056 0.416343 255 0 255
0.08055374 -0.004222678 0.4123614 255 0 255
0.0855674 -0.001308985 0.4053107 255 0 255
0.08991124 -0.00063741 0.4041699 255 0 255
0.09778477 0.0002816776 0.4029118 255 0 255
0.1020081 -0.0001050613 0.4045954 255 0 255
0.1059428 -0.0001545756 0.4053354 255 0 255
0.1135401 0.0001198563 0.4057831 255 0 255
0.1229976 0.001215493 0.4043424 255 0 255
0.1278635 0.0006843731 0.4065305 255 0 255
0.03355016 -0.03456454 0.4829234 255 0 255
0.03391761 -0.01009972 0.4180896 255 0 255
0.03496207 -0.00966093 0.4170693 255 0 255
0.03702608 -0.008780293 0.4150178 255 0 255
0.04030174 -0.008141541 0.4137763 255 0 255
0.04394726 -0.008521189 0.4152887 255 0 255
0.04734574 -0.008196602 0.4149017 255 0 255
0.05316104 -0.007963526 0.4150992 255 0 255
0.06371997 -0.007497933 0.4153616 255 0 255
0.06888805 -0.007950189 0.4172991 255 0 255
0.06981048 -0.007472332 0.4161657 255 0 255
0.0741141 -0.006551509 0.414347 255 0 255
0.07547934 -0.006732598 0.415024 255 0 255
0.07661006 -0.006579782 0.4147831 255 0 255
0.0777397 -0.006425362 0.4145381 255 0 255
0.08670959 -0.002190559 0.4046395 255 0 255
0.0910486 -0.001511415 0.4034832 255 0 255
0.09321054 -0.001162553 0.4028809 255 0 255
0.09459906 -0.001306822 0.4034687 255 0 255
0.0953673 -0.0008074968 0.4022624 255 0 255
0.09891687 -0.0005819173 0.4021955 255 0 255
0.1045702 -0.001096013 0.404402 255 0 255
0.1059985 -0.001217391 0.4049377 255 0 255
0.1172358 -0.0006331028 0.4050956 255 0 255
0.1194104 -0.0002059024 0.4042991 255 0 255
0.1230543 0.0001411589 0.4039405 255 0 255
0.124934 -0.000246828 0.405253 255 0 255
0.1264247 -0.0003263519 0.4056919 255 0 255
0.03465517 -0.01362702 0.4242027 255 0 255
0.03552385 -0.01248204 0.4213193 255 0 255
0.04413418 -0.009934545 0.4158128 255 0 255
0.04640829 -0.009718772 0.4155582 255 0 255
0.04853148 -0.009150536 0.4143605 255 0 255
0.05094906 -0.009267433 0.4149989 255 0 255
0.06490752 -0.008435951 0.414757 255 0 255
0.06624606 -0.008637879 0.415473 255 0 255
0.06780194 -0.009176177 0.4171003 255 0 255
0.0689435 -0.009034025 0.4168882 255 0 255
0.07008407 -0.008890215 0.4166718 255 0 255
0.0712237 -0.008744761 0.4164512 255 0 255
0.07842565 -0.006679216 0.4120621 255 0 255
0.08040757 -0.006030972 0.4106473 255 0 255
0.08210551 -0.005046831 0.408314 255 0 255
0.08567569 -0.003402395 0.4045221 255 0 255
0.08785013 -0.00306833 0.4039603 255 0 255
0.0889355 -0.002898976 0.4036734 255 0 255
0.09001967 -0.00272806 0.4033825 255 0 255
0.09465323 -0.002353509 0.4030721 255 0 255
0.09649765 -0.001669987 0.4015523 255 0 255
0.09789362 -0.001811006 0.4021237 255 0 255
0.09897105 -0.001627077 0.4017995 255 0 255
0.1092792 -0.002836559 0.4064662 255 0 255
0.1129231 -0.002542331 0.406233 255 0 255
0.1151106 -0.002126634 0.4054695 255 0 255
0.1216342 -0.0008421045 0.4030814 255 0 255
0.03654081 -0.02615931 0.4536385 255 0 255
0.03617755 -0.0200368 0.4377325 255 0 255
0.03872006 -0.01221934 0.4178233 255 0 255
0.0407727 -0.01131427 0.4157532 255 0 255
0.04191175 -0.01121204 0.4156406 255 0 255
0.04432121 -0.01135361 0.4163298 255 0 255
0.04660316 -0.01113678 0.4160745 255 0 255
0.04759844 -0.010676 0.415015 255 0 255
0.0521366 -0.0102174 0.4144393 255 0 255
0.05326945 -0.01009864 0.4142849 255 0 255
0.05456974 -0.01032573 0.4150488 255 0 255
0.06630071 -0.009713263 0.4150604 255 0 255
0.06764626 -0.009916055 0.4157696 255 0 255
0.07219125 -0.009338464 0.4148991 255 0 255
0.08046193 -0.007095472 0.4102391 255 0 255
0.08131511 -0.006599679 0.4090751 255 0 255
0.08272686 -0.00527185 0.4058369 255 0 255
0.08464017 -0.004611738 0.4043964 255 0 255
0.09007309 -0.003771009 0.4029826 255 0 255
0.09967435 -0.003322152 0.4031753 255 0 255
0.1007579 -0.003134996 0.402845 255 0 255
0.1039288 -0.00372742 0.4048255 255 0 255
0.1096852 -0.004227291 0.4069359 255 0 255
0.1144386 -0.003725022 0.4063174 255 0 255
0.1155352 -0.00351523 0.4059325 255 0 255
0.1202187 -0.001814562 0.4022137 255 0 255
0.1212981 -0.00159682 0.401807 255 0 255
0.04106939 -0.01309259 0.4171923 255 0 255
0.04679812 -0.01256051 0.4165838 255 0 255
0.05462366 -0.01139431 0.414634 255 0 255
0.0568935 -0.01114734 0.4143034 255 0 255
0.0661479 -0.01044029 0.4137289 255 0 255
0.06748977 -0.01064695 0.4144374 255 0 255
0.07540621 -0.009620584 0.4128761 255 0 255
0.07853428 -0.008815046 0.4112381 255 0 255
0.07965415 -0.00865753 0.4109868 255 0 255
0.08025885 -0.007818218 0.408922 255 0 255
0.08469313 -0.005654812 0.4039916 255 0 255
0.08795654 -0.005154029 0.4031559 255 0 255
0.08904191 -0.00498399 0.4028693 255 0 255
0.09475994 -0.00444214 0.4022667 255 0 255
0.1011401 -0.004512529 0.4033235 255 0 255
0.1039828 -0.004786255 0.4044149 255 0 255
0.1082917 -0.005175086 0.4060038 255 0 255
0.1177785 -0.004162859 0.404735 255 0 255
0.1184897 -0.003628736 0.4034701 255 0 255
0.1217439 -0.002976511 0.4022589 255 0 255
0.1232205 -0.003072158 0.4027095 255 0 255
0.1247026 -0.003164735 0.4031533 255 0 255
0.04320963 -0.0372899 0.4755581 255 0 255
0.04099117 -0.0212085 0.4345776 255 0 255
0.04354587 -0.01431567 0.4174648 255 0 255
0.04469556 -0.01420875 0.4173428 255 0 255
0.04884108 -0.0126937 0.4140456 255 0 255
0.05126706 -0.01281981 0.4146792 255 0 255
0.0524045 -0.01270193 0.4145287 255 0 255
0.05808086 -0.01208768 0.413713 255 0 255
0.06620165 -0.0115087 0.4133093 255 0 255
0.07184669 -0.01079314 0.4122401 255 0 255
0.0729728 -0.01064513 0.4120138 255 0 255
0.07522199 -0.01034417 0.4115486 255 0 255
0.07945438 -0.009378393 0.4096645 255 0 255
0.08583461 -0.006530578 0.4033084 255 0 255
0.09264566 -0.005840204 0.402469 255 0 255
0.09869582 -0.005605358 0.4026832 255 0 255
0.1026116 -0.00570484 0.4034588 255 0 255
0.1097939 -0.006368734 0.4061006 255 0 255
0.1163658 -0.005122876 0.4038386 255 0 255
0.1174556 -0.004909698 0.4034473 255 0 255
0.1247568 -0.004235635 0.4027333 255 0 255
0.1266472 -0.004646458 0.4040273 255 0 255
0.1300562 -0.005137524 0.4057303 255 0 255
0.04424128 -0.03253442 0.4600101 255 0 255
0.04288292 -0.02031888 0.4292782 255 0 255
0.04501646 -0.01600675 0.4187611 255 0 255
0.04904343 -0.01411666 0.4145443 255 0 255
0.05359449 -0.01364783 0.4139506 255 0 255
0.06058736 -0.01325094 0.41385 255 0 255
0.06851581 -0.01229365 0.4124706 255 0 255
0.06986386 -0.01250283 0.4131666 255 0 255
0.07302606 -0.01171032 0.4115907 255 0 255
0.07391674 -0.01120983 0.4104536 255 0 255
0.07639826 -0.01125557 0.4108871 255 0 255
0.08288494 -0.008408971 0.4046053 255 0 255
0.08452121 -0.007391505 0.4022727 255 0 255
0.08863651 -0.00791885 0.4041235 255 0 255
0.09797985 -0.007174782 0.4034754 255 0 255
0.09906984 -0.006988924 0.4031526 255 0 255
0.1019039 -0.00728437 0.4042597 255 0 255
0.1044256 -0.007233604 0.4044613 255 0 255
0.1069564 -0.007173844 0.4046418 255 0 255
0.1124032 -0.007357668 0.4058123 255 0 255
0.1146012 -0.006940064 0.4050561 255 0 255
0.122243 -0.005428402 0.4022806 255 0 255
0.1233279 -0.005206118 0.4018677 255 0 255
0.1281981 -0.005814086 0.4040265 255 0 255
0.04764352 -0.03989936 0.475075 255 0 255
0.04477024 -0.02316248 0.4333189 255 0 255
0.04469205 -0.01939036 0.423979 255 0 255
0.0515305 -0.015313 0.4147465 255 0 255
0.0559187 -0.01446673 0.4132014 255 0 255
0.06404351 -0.01391611 0.4128557 255 0 255
0.06517619 -0.01377911 0.4126588 255 0 255
0.06630793 -0.01364047 0.4124576 255 0 255
0.07195284 -0.01292237 0.4113895 255 0 255
0.0730789 -0.01277382 0.4111634 255 0 255
0.07645104 -0.01231825 0.4104602 255 0 255
0.08731004 -0.008786933 0.4030944 255 0 255
0.08978124 -0.008790941 0.4034159 255 0 255
0.09584784 -0.008591161 0.4036875 255 0 255
0.09866806 -0.008906404 0.4048232 255 0 255
0.1022855 -0.008678609 0.4047173 255 0 255
0.1048148 -0.008629289 0.4049154 255 0 255
0.1059126 -0.008432463 0.4045678 255 0 255
0.1139186 -0.008551857 0.4058774 255 0 255
0.1168456 -0.007583474 0.4038551 255 0 255
0.1237764 -0.006597472 0.4022988 255 0 255
0.04604729 -0.02418677 0.4327321 255 0 255
0.04669426 -0.01916118 0.4205196 255 0 255
0.05710577 -0.01540327 0.4126028 255 0 255
0.05823949 -0.01527651 0.4124316 255 0 255
0.06163591 -0.01488621 0.411893 255 0 255
0.06276641 -0.01475277 0.4117051 255 0 255
0.06502479 -0.01448093 0.4113168 255 0 255
0.06840572 -0.01406071 0.4107034 255 0 255
0.07065497 -0.01377231 0.4102736 255 0 255
0.07378685 -0.01296954 0.4086942 255 0 255
0.08298797 -0.01049215 0.4037637 255 0 255
0.08736122 -0.009826368 0.4026722 255 0 255
0.1023374 -0.009735183 0.4042882 255 0 255
0.1096007 -0.009229219 0.4039436 255 0 255
0.1110517 -0.009363297 0.4044499 255 0 255
0.1132454 -0.008948495 0.4037052 255 0 255
0.1168979 -0.00864915 0.4034225 255 0 255
0.1179912 -0.008433815 0.4030305 255 0 255
0.1238286 -0.007663795 0.401866 255 0 255
0.1249154 -0.007438183 0.4014481 255 0 255
0.1289862 -0.00740666 0.4018723 255 0 255
0.05322058 -0.05009453 0.4930397 255 0 255
0.0498006 -0.0187903 0.4169136 255 0 255
0.05408304 -0.01757338 0.4144842 255 0 255
0.0552268 -0.01745062 0.4143245 255 0 255
0.06301486 -0.01617773 0.4121795 255 0 255
0.07093031 -0.01519222 0.4107439 255 0 255
0.07295221 -0.01453374 0.4093932 255 0 255
0.07631268 -0.01407804 0.4086931 255 0 255
0.08163047 -0.01292808 0.4065474 255 0 255
0.0827392 -0.01276523 0.4062861 255 0 255
0.08357748 -0.01224425 0.4051261 255 0 255
0.0912708 -0.0110518 0.4031608 255 0 255
0.1034857 -0.0105963 0.403517 255 0 255
0.106016 -0.01054864 0.4037036 255 0 255
0.11366 -0.01035084 0.4041366 255 0 255
0.1195158 -0.009616904 0.4030587 255 0 255
0.1227916 -0.008952926 0.4018425 255 0 255
0.1238802 -0.008728392 0.4014289 255 0 255
0.04913661 -0.0211055 0.4193527 255 0 255
0.0510077 -0.01974708 0.4163235 255 0 255
0.05200358 -0.01925418 0.4152617 255 0 255
0.05510965 -0.01814322 0.4129693 255 0 255
0.05624875 -0.01801898 0.4128061 255 0 255
0.06379928 -0.01636335 0.4097315 255 0 255
0.07412475 -0.01543791 0.4087258 255 0 255
0.08555511 -0.01259656 0.4032599 255 0 255
0.09271511 -0.01227228 0.4033164 255 0 255
0.09411523 -0.01244766 0.4038987 255 0 255
0.10387 -0.01199866 0.4039553 255 0 255
0.1089546 -0.01189706 0.4043005 255 0 255
0.1162762 -0.01133271 0.4037954 255 0 255
0.1173747 -0.01111732 0.4034066 255 0 255
0.1180937 -0.01055904 0.402153 255 0 255
0.1195669 -0.01068172 0.4026166 255 0 255
0.12245 -0.009677934 0.4005458 255 0 255
0.1261028 -0.009336423 0.4001488 255 0 255
0.05169912 -0.0357096 0.4511793 255 0 255
0.05221373 -0.02070002 0.4157251 255 0 255
0.06651585 -0.01788329 0.4107041 255 0 255
0.07864975 -0.01587088 0.4073263 255 0 255
0.08173191 -0.01502392 0.4056717 255 0 255
0.08478094 -0.01416548 0.4039857 255 0 255
0.08670149 -0.01346634 0.4025482 255 0 255
0.09077871 -0.01241529 0.4005211 255 0 255
0.09416541 -0.01349458 0.403459 255 0 255
0.1002918 -0.01327894 0.4036388 255 0 255
0.1024898 -0.01289462 0.402976 255 0 255
0.1053569 -0.01320892 0.4040425 255 0 255
0.1067995 -0.01336167 0.404566 255 0 255
0.1108103 -0.01345206 0.4052299 255 0 255
0.1280506 -0.01084387 0.4009748 255 0 255
0.05766766 -0.02039031 0.4126516 255 0 255
0.0586276 -0.01988296 0.4115721 255 0 255
0.05957897 -0.01937475 0.4104897 255 0 255
0.06390115 -0.01846423 0.4088437 255 0 255
0.06882732 -0.01865491 0.4098416 255 0 255
0.06995612 -0.01851003 0.4096285 255 0 255
0.07733621 -0.01670776 0.4062303 255 0 255
0.07956125 -0.01639175 0.4057372 255 0 255
0.08178189 -0.01606918 0.4052277 255 0 255
0.08893996 -0.01415966 0.4015452 255 0 255
0.09703442 -0.01489486 0.4041559 255 0 255
0.09813818 -0.014708 0.403839 255 0 255
0.110508 -0.01416362 0.4039113 255 0 255
0.1116107 -0.01395616 0.4035446 255 0 255
0.1181936 -0.01267722 0.4012588 255 0 255
0.119667 -0.01280607 0.4017199 255 0 255
0.05281277 -0.03361938 0.4398303 255 0 255
0.05363256 -0.02310154 0.4155683 255 0 255
0.05462247 -0.02259429 0.4145034 255 0 255
0.05675061 -0.02196048 0.4132712 255 0 255
0.05886016 -0.02132153 0.4120244 255 0 255
0.06000067 -0.0211912 0.4118483 255 0 255
0.06208599 -0.0205442 0.4105794 255 0 255
0.06887782 -0.01970891 0.4093888 255 0 255
0.07539625 -0.01843767 0.4071535 255 0 255
0.07738596 -0.01775246 0.4057817 255 0 255
0.08209383 -0.01748472 0.4056699 255 0 255
0.08320623 -0.0173201 0.4054083 255 0 255
0.08625878 -0.01644655 0.4037122 255 0 255
0.08818014 -0.01573507 0.4022692 255 0 255
0.0892778 -0.01556174 0.401985 255 0 255
0.09346431 -0.01613041 0.4037504 255 0 255
0.09487234 -0.01631422 0.4043266 255 0 255
0.09850285 -0.01612103 0.404265 255 0 255
0.1018169 -0.01554758 0.4032867 255 0 255
0.11166 -0.01501533 0.40309 255 0 255
0.1131211 -0.01516133 0.403582 255 0 255
0.1189995 -0.01443754 0.4025177 255 0 255
0.121581 -0.01434485 0.4025716 255 0 255
0.1219012 -0.01342062 0.4004602 255 0 255
0.05352658 -0.03309891 0.4355383 255 0 255
0.05776967 -0.02250814 0.4117369 255 0 255
0.05986574 -0.02186309 0.4104852 255 0 255
0.06440379 -0.02132572 0.4097418 255 0 255
0.06687655 -0.02142972 0.4102451 255 0 255
0.06779823 -0.02090481 0.4091407 255 0 255
0.07544585 -0.01948471 0.4066989 255 0 255
0.07768256 -0.01917318 0.4062211 255 0 255
0.07991504 -0.01885495 0.4057268 255 0 255
0.08102962 -0.01869333 0.4054735 255 0 255
0.08436657 -0.01819851 0.4046891 255 0 255
0.08851407 -0.01714344 0.4027026 255 0 255
0.09100857 -0.01716419 0.4030097 255 0 255
0.1010854 -0.01715673 0.4040339 255 0 255
0.103298 -0.01676738 0.4033676 255 0 255
0.107631 -0.01725875 0.4049386 255 0 255
0.1102003 -0.01721011 0.405089 255 0 255
0.1201468 -0.01527801 0.4016596 255 0 255
0.1216297 -0.01540912 0.40211 255 0 255
0.05436139 -0.03294133 0.4321604 255 0 255
0.05702659 -0.02447286 0.4132487 255 0 255
0.06599642 -0.02301217 0.4108822 255 0 255
0.06692653 -0.0224842 0.4097823 255 0 255
0.06988564 -0.02128088 0.4073621 255 0 255
0.07213239 -0.02098557 0.4069257 255 0 255
0.08107843 -0.01973714 0.4050155 255 0 255
0.08774148 -0.0187307 0.4034106 255 0 255
0.09275321 -0.01877436 0.4040164 255 0 255
0.09386209 -0.01859299 0.4037163 255 0 255
0.09638409 -0.01859725 0.4039794 255 0 255
0.09891579 -0.01859239 0.4042219 255 0 255
0.105119 -0.01835615 0.404303 255 0 255
0.1065672 -0.01852243 0.4048241 255 0 255
0.1091358 -0.01848047 0.4049828 255 0 255
0.1102488 -0.01827359 0.4046225 255 0 255
0.1110073 -0.01770101 0.4033962 255 0 255
0.1172653 -0.01735813 0.4032302 255 0 255
0.1198536 -0.01727715 0.4032983 255 0 255
0.0552505 -0.02986377 0.4222979 255 0 255
0.0582268 -0.02540622 0.412609 255 0 255
0.05919353 -0.02488276 0.4115349 255 0 255
0.06033775 -0.02475138 0.4113585 255 0 255
0.0637654 -0.02434687 0.4108041 255 0 255
0.06510777 -0.02459963 0.4115089 255 0 255
0.06604627 -0.02406858 0.4104135 255 0 255
0.07015547 -0.02271421 0.4077932 255 0 255
0.07802784 -0.02164571 0.4061892 255 0 255
0.08276597 -0.02138072 0.4060676 255 0 255
0.08500442 -0.02104567 0.4055374 255 0 255
0.08612189 -0.02087562 0.4052662 255 0 255
0.09198439 -0.0203783 0.4047266 255 0 255
0.100393 -0.01982585 0.404304 255 0 255
0.1091839 -0.01954253 0.404512 255 0 255
0.1114081 -0.01912626 0.4037878 255 0 255
0.112518 -0.01891566 0.4034194 255 0 255
0.1136262 -0.01870339 0.4030471 255 0 255
0.1176846 -0.01878461 0.4036133 255 0 255
0.1199013 -0.01834223 0.4028263 255 0 255
0.1295163 -0.01721958 0.4011947 255 0 255
0.1306154 -0.01698116 0.4007593 255 0 255
0.05865655 -0.04600414 0.4555402 255 0 255
0.05747636 -0.02738992 0.4141039 255 0 255
0.06153087 -0.02567372 0.4107047 255 0 255
0.06907578 -0.02390679 0.4075365 255 0 255
0.07020427 -0.02376069 0.407324 255 0 255
0.07719863 -0.02323733 0.4068506 255 0 255
0.0794481 -0.02291857 0.4063621 255 0 255
0.08505245 -0.02209202 0.4050685 255 0 255
0.08616983 -0.02192163 0.4047974 255 0 255
0.08728605 -0.02174959 0.4045222 255 0 255
0.09203208 -0.02142622 0.4042569 255 0 255
0.09314588 -0.02124517 0.4039602 255 0 255
0.09455935 -0.02144284 0.404534 255 0 255
0.09536953 -0.0208781 0.4033546 255 0 255
0.09678792 -0.02107118 0.403918 255 0 255
0.09790021 -0.02088281 0.4036039 255 0 255
0.1004404 -0.02087827 0.4038324 255 0 255
0.1018759 -0.0210608 0.404373 255 0 255
0.1063241 -0.02026544 0.4030172 255 0 255
0.1088854 -0.02023022 0.4031757 255 0 255
0.1114554 -0.02018563 0.4033132 255 0 255
0.1136733 -0.01976183 0.4025729 255 0 255
0.1210541 -0.01918128 0.4019505 255 0 255
0.05763678 -0.03769078 0.4339208 255 0 255
0.05984034 -0.028194 0.4132779 255 0 255
0.06520673 -0.02671449 0.4105558 255 0 255
0.06635045 -0.02657354 0.410358 255 0 255
0.07047379 -0.02520101 0.4077421 255 0 255
0.07475665 -0.02420274 0.40596 255 0 255
0.08398143 -0.02330547 0.4048622 255 0 255
0.08621725 -0.02296581 0.4043244 255 0 255
0.08844829 -0.02261936 0.4037703 255 0 255
0.089562 -0.02244362 0.4034871 255 0 255
0.09207925 -0.02247225 0.4037832 255 0 255
0.09683493 -0.02211929 0.4034433 255 0 255
0.108932 -0.02128501 0.4026981 255 0 255
0.1162994 -0.02075884 0.4021904 255 0 255
0.1225908 -0.02038393 0.4019127 255 0 255
0.126301 -0.0200586 0.4015154 255 0 255
0.1300173 -0.01971373 0.4010727 255 0 255
0.1311199 -0.01947348 0.4006364 255 0 255
0.06335431 -0.0288515 0.4122448 255 0 255
0.0654576 -0.02817079 0.4109661 255 0 255
0.06639924 -0.02762789 0.4098752 255 0 255
0.06712253 -0.02668342 0.4078897 255 0 255
0.07841943 -0.02516949 0.4056564 255 0 255
0.07954349 -0.02500867 0.4054103 255 0 255
0.08066647 -0.02484613 0.4051601 255 0 255
0.08204788 -0.02507588 0.4057875 255 0 255
0.08402856 -0.02434839 0.4043848 255 0 255
0.08989486 -0.0238748 0.4038857 255 0 255
0.091301 -0.02408576 0.4044719 255 0 255
0.09241967 -0.02390511 0.4041786 255 0 255
0.09546287 -0.02296615 0.402404 255 0 255
0.1053072 -0.0225699 0.402405 255 0 255
0.1078676 -0.02254409 0.4025705 255 0 255
0.111548 -0.02229861 0.4023514 255 0 255
0.1193087 -0.02212343 0.4026279 255 0 255
0.1204196 -0.02189925 0.4022317 255 0 255
0.121912 -0.02204575 0.4026767 255 0 255
0.1230232 -0.02181746 0.4022709 255 0 255
0.1274508 -0.02088763 0.4006065 255 0 255
0.1300626 -0.0207797 0.4005852 255 0 255
0.05971966 -0.03847672 0.4298399 255 0 255
0.06146811 -0.03099832 0.4139108 255 0 255
0.06244002 -0.03045543 0.412834 255 0 255
0.06780014 -0.0289415 0.4100768 255 0 255
0.06987274 -0.02824569 0.4087705 255 0 255
0.07215139 -0.02794722 0.4083377 255 0 255
0.08235461 -0.02651859 0.4061842 255 0 255
0.08770536 -0.02527005 0.4039671 255 0 255
0.08994119 -0.02491775 0.4034034 255 0 255
0.09134739 -0.02513188 0.4039881 255 0 255
0.09581397 -0.02439769 0.4027911 255 0 255
0.1029871 -0.02537756 0.4055187 255 0 255
0.1041123 -0.02517809 0.4051832 255 0 255
0.1071402 -0.0241849 0.403293 255 0 255
0.1108324 -0.02394531 0.4030828 255 0 255
0.1130603 -0.02352086 0.4023496 255 0 255
0.1189781 -0.02280754 0.4012908 255 0 255
0.1263914 -0.02218466 0.4005378 255 0 255
0.1274956 -0.0219492 0.4001158 255 0 255
0.128598 -0.02171205 0.3996896 255 0 255
0.06108595 -0.0338433 0.4171636 255 0 255
0.06170412 -0.03247477 0.414305 255 0 255
0.06364655 -0.03137967 0.4121508 255 0 255
0.07447344 -0.02869059 0.4073981 255 0 255
0.0835294 -0.02739769 0.4054351 255 0 255
0.08886979 -0.0261361 0.4032007 255 0 255
0.09362897 -0.0258117 0.4029103 255 0 255
0.09585941 -0.0254405 0.4023039 255 0 255
0.10495 -0.02564529 0.4034901 255 0 255
0.1071853 -0.02523829 0.4028009 255 0 255
0.1105273 -0.02461508 0.4017362 255 0 255
0.1116382 -0.02440395 0.4013731 255 0 255
0.1131051 -0.02457563 0.4018569 255 0 255
0.1182862 -0.02446783 0.402034 255 0 255
0.1205093 -0.02401929 0.4012466 255 0 255
0.1220017 -0.02417184 0.4016888 255 0 255
0.1260376 -0.02286851 0.3992061 255 0 255
0.1301513 -0.0229058 0.3995975 255 0 255
0.0695979 -0.06444112 0.4796857 255 0 255
0.0683163 -0.03186994 0.4108613 255 0 255
0.06946939 -0.03172315 0.4106535 255 0 255
0.07589306 -0.02998943 0.4075549 255 0 255
0.07703151 -0.02983134 0.4073192 255 0 255
0.07816886 -0.02967149 0.4070794 255 0 255
0.08779687 -0.02735151 0.4029895 255 0 255
0.09031894 -0.02739837 0.4032968 255 0 255
0.09143858 -0.02721838 0.4030082 255 0 255
0.0928512 -0.02743593 0.4035838 255 0 255
0.09620988 -0.02687875 0.4026779 255 0 255
0.1053265 -0.02709034 0.4038511 255 0 255
0.1072299 -0.02628972 0.4023047 255 0 255
0.1094591 -0.02587513 0.4015994 255 0 255
0.1120363 -0.02584238 0.4017283 255 0 255
0.1172163 -0.02574801 0.401922 255 0 255
0.1187027 -0.02591087 0.4023791 255 0 255
0.1297856 -0.02358848 0.3982665 255 0 255
0.06771958 -0.05413588 0.4545981 255 0 255
0.06485024 -0.04436232 0.4339342 255 0 255
0.06392283 -0.03655677 0.4175515 255 0 255
0.07910262 -0.03014742 0.4054583 255 0 255
0.08614508 -0.02954947 0.4047856 255 0 255
0.09177399 -0.02866209 0.4033797 255 0 255
0.0954382 -0.02851053 0.4033514 255 0 255
0.09799013 -0.02853222 0.403596 255 0 255
0.1087322 -0.02752662 0.4023066 255 0 255
0.1098497 -0.02731733 0.4019508 255 0 255
0.1109657 -0.02710635 0.4015911 255 0 255
0.1124342 -0.02728583 0.4020761 255 0 255
0.1135507 -0.02707075 0.4017069 255 0 255
0.1161444 -0.02702547 0.4018013 255 0 255
0.1213562 -0.02690561 0.4019252 255 0 255
0.1224724 -0.02667636 0.4015231 255 0 255
0.1231996 -0.02605987 0.4002795 255 0 255
0.1246996 -0.02621278 0.4007066 255 0 255
0.1280274 -0.02550462 0.3994508 255 0 255
0.1302371 -0.02502407 0.398593 255 0 255
0.06593633 -0.03917753 0.4203843 255 0 255
0.07369447 -0.03463142 0.4116352 255 0 255
0.08559681 -0.03158652 0.4062947 255 0 255
0.09803424 -0.02957933 0.4030916 255 0 255
0.1042913 -0.02939874 0.4031811 255 0 255
0.1079962 -0.02918358 0.4030039 255 0 255
0.1124774 -0.02833861 0.4015691 255 0 255
0.1169182 -0.02886737 0.4029804 255 0 255
0.1184099 -0.0290373 0.4034376 255 0 255
0.1195347 -0.02881198 0.4030469 255 0 255
0.121399 -0.02796569 0.4014147 255 0 255
0.1247421 -0.0272714 0.4001969 255 0 255
0.1269621 -0.02680005 0.3993644 255 0 255
0.1317938 -0.02622044 0.3984758 255 0 255
0.07764556 -0.07241892 0.4866576 255 0 255
0.07111228 -0.03783777 0.4152964 255 0 255
0.07229103 -0.03768498 0.4150799 255 0 255
0.07928739 -0.0344776 0.4090682 255 0 255
0.08736265 -0.03145983 0.4035035 255 0 255
0.09073933 -0.03092542 0.402661 255 0 255
0.09327888 -0.03097026 0.402942 255 0 255
0.1009564 -0.03104813 0.4036615 255 0 255
0.1043346 -0.03044892 0.4026701 255 0 255
0.1057899 -0.03064902 0.4031841 255 0 255
0.1069153 -0.03044339 0.4028401 255 0 255
0.1110514 -0.02920385 0.4005759 255 0 255
0.11252 -0.02938941 0.401058 255 0 255
0.1173263 -0.03032423 0.4033068 255 0 255
0.1188218 -0.03049643 0.4037612 255 0 255
0.1199501 -0.03026994 0.4033696 255 0 255
0.1210767 -0.03004172 0.4029737 255 0 255
0.1258946 -0.0280927 0.399269 255 0 255
0.1274021 -0.02824586 0.399681 255 0 255
0.1292163 -0.02737651 0.3980024 255 0 255
0.1318349 -0.02727752 0.3979618 255 0 255
0.07320994 -0.0540239 0.4455801 255 0 255
0.07180365 -0.04018809 0.4174059 255 0 255
0.07255676 -0.03918449 0.4154301 255 0 255
0.07401381 -0.03717782 0.411474 255 0 255
0.08481289 -0.03427284 0.4064048 255 0 255
0.08595452 -0.03409962 0.406138 255 0 255
0.08709496 -0.03392469 0.405867 255 0 255
0.09050906 -0.03338918 0.405029 255 0 255
0.09812094 -0.03166752 0.4020706 255 0 255
0.106165 -0.03210704 0.4035185 255 0 255
0.1103249 -0.03086578 0.4012675 255 0 255
0.1252162 -0.02977782 0.399996 255 0 255
0.1278416 -0.02969656 0.3999901 255 0 255
0.1296627 -0.02882117 0.3983109 255 0 255
0.07424668 -0.04871823 0.4320132 255 0 255
0.07545397 -0.03850893 0.4115945 255 0 255
0.0874112 -0.03539301 0.4062123 255 0 255
0.08997563 -0.03545511 0.40652 255 0 255
0.09140351 -0.03569196 0.4070975 255 0 255
0.1065397 -0.03356995 0.4038453 255 0 255
0.1177757 -0.03284874 0.4030982 255 0 255
0.1222844 -0.03193561 0.4015251 255 0 255
0.1263708 -0.03059674 0.3990572 255 0 255
0.1278819 -0.03075502 0.399465 255 0 255
0.1297027 -0.02987518 0.3977879 255 0 255
0.1312193 -0.03002593 0.3981791 255 0 255
0.1323282 -0.02977945 0.3977421 255 0 255
0.07505734 -0.04608199 0.4239836 255 0 255
0.07516748 -0.04376538 0.4193823 255 0 255
0.07736886 -0.0407005 0.4134462 255 0 255
0.07806982 -0.0396794 0.411465 255 0 255
0.07923815 -0.03951538 0.4112239 255 0 255
0.08248322 -0.03858565 0.4096067 255 0 255
0.08454125 -0.03781679 0.4082213 255 0 255
0.08543044 -0.03721797 0.4070908 255 0 255
0.09429283 -0.03534795 0.4039692 255 0 255
0.09542806 -0.03515937 0.4036684 255 0 255
0.09738809 -0.0343585 0.4021993 255 0 255
0.09851555 -0.03416526 0.4018871 255 0 255
0.09995554 -0.03438736 0.4024237 255 0 255
0.1036619 -0.03420499 0.4022963 255 0 255
0.1051187 -0.03441607 0.4028099 255 0 255
0.107714 -0.03441586 0.4029713 255 0 255
0.1107549 -0.03336983 0.4010666 255 0 255
0.1129988 -0.0329391 0.4003403 255 0 255
0.1245133 -0.03108359 0.3972887 255 0 255
0.1323673 -0.03083386 0.3972139 255 0 255
0.07882941 -0.04204048 0.4135353 255 0 255
0.08573893 -0.03869789 0.4074223 255 0 255
0.08946954 -0.03859167 0.4074639 255 0 255
0.09062231 -0.03840981 0.4071814 255 0 255
0.09407312 -0.03785345 0.4063084 255 0 255
0.09492556 -0.03724069 0.4051527 255 0 255
0.0977363 -0.03582114 0.4025258 255 0 255
0.1025738 -0.03545279 0.4020977 255 0 255
0.103703 -0.03525085 0.401767 255 0 255
