ply
format ascii 1.0
Comment Generated by Floating Hands
element vertex 1137
Comment Left: (0.0, 0.0, 0.0)
Comment Right: (0.1, 0.0, 0.4)
Comment Time: 2023-05-01 09:21:44,174
property double x
property double y
property double z
property uchar red
property uchar green
property uchar blue
end_header
0.1083627 0.07199071 0.4175276 255 0 255
0.1097801 0.07209311 0.4180726 255 0 255
0.1112032 0.07219789 0.4186106 255 0 255
0.1258225 0.07299718 0.4268149 255 0 255
0.0929353 0.0618326 0.4793357 255 0 255
0.08091694 0.06858544 0.4114542 255 0 255
0.08195889 0.0687238 0.4111725 255 0 255
0.08244725 0.06903265 0.408972 255 0 255
0.08319948 0.06925648 0.4077281 255 0 255
0.0886224 0.06988821 0.4071864 255 0 255
0.1010517 0.07009012 0.4168229 255 0 255
0.1041811 0.07018957 0.4189172 255 0 255
0.1055906 0.07028141 0.4194836 255 0 255
0.1066631 0.07045056 0.4191069 255 0 255
0.1112951 0.07106669 0.4184895 255 0 255
0.1148638 0.07152694 0.4182075 255 0 255
0.1240468 0.07176249 0.4253009 255 0 255
0.09428251 0.0600238 0.4840038 255 0 255
0.08121259 0.06591416 0.4246594 255 0 255
0.08074798 0.06709883 0.4144911 255 0 255
0.08870307 0.06881995 0.4070673 255 0 255
0.09075225 0.06911524 0.4064405 255 0 255
0.1042698 0.06906378 0.4187919 255 0 255
0.1067527 0.06932184 0.4189814 255 0 255
0.1099619 0.06983799 0.4178266 255 0 255
0.1113863 0.06993606 0.418364 255 0 255
0.112455 0.07011236 0.4179653 255 0 255
0.1135222 0.07028989 0.4175623 255 0 255
0.1222811 0.07054645 0.4237736 255 0 255
0.1245308 0.07052235 0.426091 255 0 255
0.08426547 0.06311739 0.4402052 255 0 255
0.08081771 0.06549259 0.4184834 255 0 255
0.08614507 0.06764166 0.4056502 255 0 255
0.08980887 0.06789975 0.4066325 255 0 255
0.1068418 0.06819373 0.4188514 255 0 255
0.1079134 0.06836504 0.4184707 255 0 255
0.1136135 0.06916087 0.4174325 255 0 255
0.1272182 0.06966597 0.4259694 255 0 255
0.08485914 0.06172712 0.4419861 255 0 255
0.08063935 0.06501646 0.4132752 255 0 255
0.08115178 0.06535033 0.4110795 255 0 255
0.08219472 0.06548972 0.410798 255 0 255
0.08622368 0.06658154 0.4055233 255 0 255
0.08856367 0.06677838 0.4058666 255 0 255
0.1030402 0.06673467 0.417956 255 0 255
0.1147705 0.06821219 0.4168914 255 0 255
0.08545343 0.06032195 0.4437605 255 0 255
0.08122925 0.0642731 0.4109461 255 0 255
0.08199888 0.06451355 0.4097081 255 0 255
0.08275987 0.06475417 0.4084681 255 0 255
0.08600955 0.06562012 0.4044409 255 0 255
0.08761907 0.06556923 0.4060413 255 0 255
0.1080907 0.06611164 0.4181975 255 0 255
0.10881 0.06637427 0.4168809 255 0 255
0.1098755 0.06654841 0.4164934 255 0 255
0.1144914 0.06717103 0.4158275 255 0 255
0.1155527 0.06735192 0.4154179 255 0 255
0.0863796 0.06446308 0.4052569 255 0 255
0.09107301 0.06485121 0.405922 255 0 255
0.0995043 0.06509943 0.4105229 255 0 255
0.102546 0.06468602 0.4157991 255 0 255
0.1074503 0.06471898 0.4193687 255 0 255
0.1085265 0.06489231 0.418987 255 0 255
0.1099637 0.06542747 0.4163508 255 0 255
0.1127855 0.06604923 0.4142378 255 0 255
0.1142112 0.06613819 0.41476 255 0 255
0.1163254 0.06650092 0.41394 255 0 255
0.08239045 0.05993968 0.4268385 255 0 255
0.08645693 0.06340478 0.4051174 255 0 255
0.09653132 0.06399353 0.4082468 255 0 255
0.1089851 0.06413208 0.416591 255 0 255
0.1164147 0.06538367 0.4137935 255 0 255
0.1182317 0.06538358 0.4152174 255 0 255
0.08672908 0.05624718 0.4471229 255 0 255
0.0817299 0.06093244 0.4114763 255 0 255
0.08505742 0.06183729 0.4074674 255 0 255
0.09061459 0.06293798 0.4037468 255 0 255
0.09225515 0.0628747 0.4053185 255 0 255
0.1090719 0.063012 0.4164393 255 0 255
0.1165035 0.06426705 0.4136426 255 0 255
0.1183214 0.06425983 0.4150656 255 0 255
0.1273031 0.06389629 0.4243125 255 0 255
0.08332836 0.05730927 0.4293997 255 0 255
0.08207696 0.0585152 0.4204949 255 0 255
0.08180597 0.05985391 0.4113252 255 0 255
0.08257944 0.06011173 0.4100885 255 0 255
0.08661024 0.06129006 0.4048258 255 0 255
0.09233355 0.06181191 0.40517 255 0 255
0.1017965 0.06167561 0.4125384 255 0 255
0.1059488 0.06137189 0.4174196 255 0 255
0.1087876 0.0615076 0.4185287 255 0 255
0.127397 0.06272967 0.4241504 255 0 255
0.08397746 0.05906135 0.4106017 255 0 255
0.08549605 0.05958849 0.4081158 255 0 255
0.08697994 0.06011631 0.4056224 255 0 255
0.09445765 0.06105854 0.404368 255 0 255
0.09917098 0.06097138 0.40805 255 0 255
0.1015445 0.06068891 0.4114448 255 0 255
0.1056917 0.06036186 0.4163255 255 0 255
0.1085243 0.06048966 0.4174362 255 0 255
0.1092437 0.06077389 0.4161227 255 0 255
0.1099541 0.06105815 0.4148078 255 0 255
0.1117123 0.06152025 0.4130988 255 0 255
0.1211024 0.06179135 0.4179937 255 0 255
0.0842678 0.05463535 0.431936 255 0 255
0.08377423 0.05810828 0.40949 255 0 255
0.08557188 0.05852048 0.4079577 255 0 255
0.0867618 0.05917802 0.4045175 255 0 255
0.08808239 0.05920437 0.4051639 255 0 255
0.09217636 0.05980687 0.4039178 255 0 255
0.09690446 0.06019601 0.4044843 255 0 255
0.1012914 0.05971055 0.4103481 255 0 255
0.1036906 0.05941847 0.4137278 255 0 255
0.1107407 0.06023309 0.4133276 255 0 255
0.1157086 0.06073691 0.413575 255 0 255
0.124911 0.06061966 0.4206111 255 0 255
0.1275828 0.06039859 0.4238122 255 0 255
0.08232153 0.05583715 0.4158984 255 0 255
0.08335625 0.05663746 0.4115173 255 0 255
0.08384935 0.05703641 0.4093269 255 0 255
0.08786005 0.05827048 0.4040566 255 0 255
0.08990265 0.058569 0.4034438 255 0 255
0.0922531 0.05874998 0.4037572 255 0 255
0.0942929 0.05905924 0.4031108 255 0 255
0.09563482 0.05909499 0.40372 255 0 255
0.1083442 0.05836242 0.416171 255 0 255
0.1087064 0.05877062 0.4139318 255 0 255
0.1094095 0.0590623 0.4126209 255 0 255
0.1223551 0.05971216 0.4172222 255 0 255
0.1250014 0.05946992 0.4204372 255 0 255
0.09202938 0.0476107 0.464405 255 0 255
0.08317799 0.05366684 0.4226921 255 0 255
0.08239701 0.05474177 0.4157273 255 0 255
0.08468397 0.05624084 0.4079206 255 0 255
0.087935 0.05721659 0.403892 255 0 255
0.08895715 0.05736561 0.4035877 255 0 255
0.1007818 0.05777901 0.4081451 255 0 255
0.1028375 0.05757822 0.4105901 255 0 255
0.1049137 0.0573822 0.4130234 255 0 255
0.1116018 0.05831383 0.4116715 255 0 255
0.1140765 0.05855823 0.4117985 255 0 255
0.1202093 0.05872715 0.4147326 255 0 255
0.09134506 0.04673604 0.461329 255 0 255
0.08476616 0.05102445 0.4323485 255 0 255
0.08298983 0.05268184 0.4215576 255 0 255
0.08247203 0.05364715 0.4155517 255 0 255
0.08522213 0.05558852 0.4055611 255 0 255
0.08625197 0.05573483 0.4052675 255 0 255
0.08903188 0.05631282 0.4034191 255 0 255
0.09209169 0.05676838 0.4024828 255 0 255
0.09310903 0.05692267 0.4021629 255 0 255
0.1049952 0.05628036 0.4128473 255 0 255
0.1131062 0.05727028 0.4120223 255 0 255
0.09040126 0.04602725 0.4572958 255 0 255
0.08275088 0.05381984 0.408146 255 0 255
0.08603442 0.05481497 0.4041471 255 0 255
0.09350174 0.05573883 0.4029294 255 0 255
0.09586528 0.05592078 0.4032121 255 0 255
0.1006039 0.05575066 0.4068626 255 0 255
0.1121332 0.05598341 0.4122373 255 0 255
0.1131895 0.05616494 0.4118413 255 0 255
0.1152973 0.05653182 0.4110371 255 0 255
0.1240863 0.05638685 0.417155 255 0 255
0.08945487 0.04535016 0.4532628 255 0 255
0.08413827 0.04914064 0.4290998 255 0 255
0.08205403 0.05246761 0.4091974 255 0 255
0.08254718 0.05289756 0.4070162 255 0 255
0.08479306 0.05375757 0.4033151 255 0 255
0.08581593 0.05390354 0.4030239 255 0 255
0.08683755 0.05405073 0.4027287 255 0 255
0.087858 0.05419917 0.4024296 255 0 255
0.09192729 0.05480507 0.4011943 255 0 255
0.09325914 0.05482242 0.4018139 255 0 255
0.1065623 0.05411972 0.4130416 255 0 255
0.1079738 0.05416293 0.4135945 255 0 255
0.1107956 0.05482762 0.4115205 255 0 255
0.115004 0.05555575 0.4099343 255 0 255
0.1193053 0.05573837 0.4114422 255 0 255
0.1260454 0.05520261 0.4183411 255 0 255
0.08337663 0.05212741 0.4056021 255 0 255
0.09736708 0.05382944 0.4034528 255 0 255
0.09872372 0.05385288 0.4040467 255 0 255
0.1045487 0.05325328 0.4104348 255 0 255
0.1101792 0.05341286 0.4126413 255 0 255
0.1126154 0.05422178 0.4096268 255 0 255
0.1208347 0.05469231 0.41174 255 0 255
0.1234701 0.05437352 0.4149505 255 0 255
0.08523045 0.04547149 0.4366136 255 0 255
0.08116458 0.0494363 0.413181 255 0 255
0.08142009 0.05003573 0.4100518 255 0 255
0.08316751 0.05122187 0.4044678 255 0 255
0.09105855 0.05256067 0.4011443 255 0 255
0.09576565 0.05289703 0.401732 255 0 255
0.1039393 0.05244367 0.4083858 255 0 255
0.1077836 0.05209088 0.4122837 255 0 255
0.1088432 0.05226817 0.4119057 255 0 255
0.1099012 0.05244672 0.4115237 255 0 255
0.1105953 0.0527642 0.4102157 255 0 255
0.0835197 0.05001655 0.405225 255 0 255
0.08500813 0.05061527 0.4027603 255 0 255
0.0887915 0.0513619 0.4006321 255 0 255
0.09214731 0.05167077 0.4006414 255 0 255
0.0944979 0.05183537 0.4009359 255 0 255
0.09956458 0.05204057 0.4023942 255 0 255
0.1057576 0.05124542 0.4096801 255 0 255
0.1075114 0.05113348 0.4111603 255 0 255
0.1127042 0.0526341 0.406089 255 0 255
0.1183908 0.05282531 0.4081237 255 0 255
0.08357429 0.04424731 0.4295166 255 0 255
0.08208033 0.04600336 0.4197176 255 0 255
0.08359055 0.04896232 0.4050303 255 0 255
0.08507895 0.04956942 0.4025671 255 0 255
0.08754644 0.05032602 0.3998003 255 0 255
0.08855909 0.05047608 0.3994999 255 0 255
0.1082908 0.05036154 0.4096587 255 0 255
0.1127834 0.05155235 0.4058898 255 0 255
0.1209542 0.05197436 0.4079893 255 0 255
0.0831314 0.04342952 0.4273964 255 0 255
0.08189034 0.04505891 0.4185573 255 0 255
0.08290378 0.04760149 0.4060593 255 0 255
0.083661 0.04790896 0.4048313 255 0 255
0.08588042 0.04883244 0.4011363 255 0 255
0.09127507 0.04942997 0.4005663 255 0 255
0.09869027 0.04976443 0.4023428 255 0 255
0.1014182 0.04979035 0.4035091 255 0 255
0.104867 0.04952306 0.4064994 255 0 255
0.1066113 0.04939495 0.4079809 255 0 255
0.1156961 0.05054874 0.406715 255 0 255
0.1192046 0.05097179 0.4063897 255 0 255
0.1224796 0.05092984 0.4082609 255 0 255
0.08521926 0.04748024 0.4021683 255 0 255
0.08798766 0.04809146 0.4003447 255 0 255
0.09236307 0.04854374 0.4000513 255 0 255
0.09369785 0.04854057 0.4006673 255 0 255
0.09605904 0.04870035 0.4009491 255 0 255
0.102866 0.04874218 0.4038775 255 0 255
0.1133146 0.04924047 0.4063934 255 0 255
0.08301979 0.04132511 0.4260018 255 0 255
0.08204476 0.04451593 0.4099886 255 0 255
0.08775661 0.0472198 0.3992011 255 0 255
0.09039875 0.0471922 0.4004705 255 0 255
0.09344974 0.0476604 0.3995285 255 0 255
0.1084948 0.0477429 0.4058917 255 0 255
0.1109394 0.04794637 0.4060468 255 0 255
0.1148111 0.04818898 0.4066957 255 0 255
0.1187121 0.04845096 0.4072917 255 0 255
0.1211963 0.04868668 0.4073575 255 0 255
0.08453023 0.03827386 0.4355542 255 0 255
0.08184197 0.04192523 0.4169562 255 0 255
0.08262165 0.04393985 0.4076039 255 0 255
0.09046882 0.04615163 0.4002612 255 0 255
0.09722214 0.04676972 0.4002009 255 0 255
0.1106481 0.04702693 0.4049142 255 0 255
0.112056 0.04704993 0.4054421 255 0 255
0.1134695 0.04707552 0.4059635 255 0 255
0.0816488 0.04100741 0.4157832 255 0 255
0.0849731 0.04385181 0.4037091 255 0 255
0.08571652 0.04417692 0.4024798 255 0 255
0.08645122 0.0445022 0.4012487 255 0 255
0.09696221 0.04589461 0.3990584 255 0 255
0.09966705 0.04588622 0.4002372 255 0 255
0.1044685 0.04555878 0.4038013 255 0 255
0.1065335 0.04590868 0.4030718 255 0 255
0.1079245 0.04592071 0.4036192 255 0 255
0.1131708 0.04615668 0.4048295 255 0 255
0.1149658 0.04601926 0.406256 255 0 255
0.1170498 0.04639743 0.4054466 255 0 255
0.1199142 0.04646281 0.4064322 255 0 255
0.08314081 0.0370403 0.4293758 255 0 255
0.09939962 0.04501161 0.3990933 255 0 255
0.1122076 0.04489522 0.4049964 255 0 255
0.1210355 0.04556933 0.4057833 255 0 255
0.08126245 0.04009157 0.4093747 255 0 255
0.08255181 0.04094218 0.4059938 255 0 255
0.08731331 0.04275631 0.3995778 255 0 255
0.08904456 0.04324298 0.3980453 255 0 255
0.09372955 0.04350817 0.3986681 255 0 255
0.0947447 0.04366834 0.3983468 255 0 255
0.09710279 0.04381512 0.398619 255 0 255
0.1011717 0.04378604 0.4003736 255 0 255
0.1028865 0.04360643 0.4018672 255 0 255
0.1129459 0.04417462 0.4034645 255 0 255
0.1143592 0.04419163 0.4039798 255 0 255
0.1153951 0.04437974 0.4035802 255 0 255
0.1182429 0.04442552 0.4045797 255 0 255
0.0932222 0.02498286 0.475928 255 0 255
0.08467719 0.03267154 0.438638 255 0 255
0.08106377 0.03830552 0.4122475 255 0 255
0.08133025 0.03902399 0.4091421 255 0 255
0.08234341 0.04007629 0.4048217 255 0 255
0.08665486 0.04138405 0.4005828 255 0 255
0.08779562 0.04224593 0.3971858 255 0 255
0.09852304 0.04276126 0.3989837 255 0 255
0.09954042 0.04292808 0.3986445 255 0 255
0.1012426 0.04273761 0.4001456 255 0 255
0.1033048 0.04237218 0.4025585 255 0 255
0.1077838 0.04289879 0.4020219 255 0 255
0.1088131 0.04307833 0.4016476 255 0 255
0.1130201 0.04310389 0.4032319 255 0 255
0.1144339 0.04311762 0.4037466 255 0 255
0.1197513 0.0433691 0.4048341 255 0 255
0.0808669 0.0374221 0.4110637 255 0 255
0.09089062 0.041683 0.3960516 255 0 255
0.09221492 0.04165241 0.3966713 255 0 255
0.09386651 0.04143757 0.3982133 255 0 255
0.09488204 0.04159853 0.3978922 255 0 255
0.1033761 0.04131382 0.402324 255 0 255
0.1044079 0.04148801 0.401967 255 0 255
0.1102825 0.04202108 0.401947 255 0 255
0.112058 0.0418483 0.4033851 255 0 255
0.08064862 0.03560527 0.4139217 255 0 255
0.08066918 0.03654729 0.4098774 255 0 255
0.08351839 0.03812336 0.4040737 255 0 255
0.08502322 0.03881348 0.401632 255 0 255
0.08619805 0.03969893 0.3982475 255 0 255
0.08762569 0.04038946 0.3957936 255 0 255
0.1030995 0.04044264 0.4011662 255 0 255
0.1055092 0.04060698 0.4013676 255 0 255
0.1075657 0.0409628 0.4006341 255 0 255
0.1145816 0.04097259 0.4032673 255 0 255
0.1195072 0.0413833 0.4034495 255 0 255
0.08210495 0.03137297 0.4274363 255 0 255
0.08073572 0.03547851 0.4096313 255 0 255
0.08462528 0.03722414 0.4035511 255 0 255
0.08900509 0.03932626 0.3961931 255 0 255
0.09534267 0.03933887 0.3983468 255 0 255
0.1017958 0.03940745 0.4003563 255 0 255
0.1045491 0.03937509 0.4014857 255 0 255
0.1069674 0.03954105 0.4016747 255 0 255
0.1132395 0.03989765 0.4025088 255 0 255
0.117114 0.04010022 0.4031227 255 0 255
0.1206186 0.04050352 0.4027846 255 0 255
0.08529176 0.02654212 0.4435131 255 0 255
0.08115853 0.03106744 0.4233913 255 0 255
0.08021666 0.03287661 0.4155712 255 0 255
0.0799979 0.03405832 0.4105898 255 0 255
0.08027095 0.0348235 0.4074974 255 0 255
0.08704679 0.03799742 0.396546 255 0 255
0.09039106 0.03825964 0.396581 255 0 255
0.09675755 0.0382708 0.398702 255 0 255
0.09913445 0.03840837 0.3989574 255 0 255
0.1004966 0.03838249 0.3995373 255 0 255
0.1046189 0.03832013 0.4012387 255 0 255
0.1060048 0.03830446 0.4017929 255 0 255
0.1070378 0.03848326 0.4014271 255 0 255
0.1080693 0.03866335 0.4010574 255 0 255
0.1090993 0.03884477 0.4006837 255 0 255
0.1157637 0.03902217 0.4023722 255 0 255
0.1178324 0.0394073 0.4015625 255 0 255
0.1225331 0.03925932 0.4039052 255 0 255
0.07953987 0.03340887 0.4084506 255 0 255
0.08007051 0.03397451 0.4063037 255 0 255
0.08812398 0.03712863 0.3960081 255 0 255
0.09146898 0.03739262 0.3960299 255 0 255
0.09547649 0.03726929 0.3978578 255 0 255
0.1033077 0.03728775 0.4004277 255 0 255
0.1046881 0.0372662 0.4009877 255 0 255
0.108502 0.03741201 0.4017171 255 0 255
0.1144176 0.03795433 0.4016122 255 0 255
0.08053136 0.02947326 0.4200237 255 0 255
0.07983306 0.03112734 0.4131628 255 0 255
0.08091885 0.03327963 0.4048417 255 0 255
0.08273755 0.0337869 0.4033605 255 0 255
0.09420027 0.03627801 0.3970048 255 0 255
0.09960637 0.03612502 0.3993765 255 0 255
0.1089346 0.03615421 0.4023707 255 0 255
0.1177194 0.03669099 0.4032582 255 0 255
0.1212371 0.03708974 0.4029145 255 0 255
0.09221421 0.01573388 0.4731151 255 0 255
0.0830002 0.02514064 0.4332118 255 0 255
0.08008875 0.0288046 0.4178664 255 0 255
0.07940681 0.03150377 0.4069906 255 0 255
0.08071297 0.03244774 0.4036444 255 0 255
0.08534846 0.03362305 0.4003938 255 0 255
0.08681773 0.0343555 0.3979548 255 0 255
0.08753927 0.03472199 0.3967326 255 0 255
0.09058554 0.03518907 0.3958359 255 0 255
0.09222863 0.0349263 0.3973802 255 0 255
0.09324776 0.03508707 0.3970675 255 0 255
0.09797847 0.03532809 0.3976171 255 0 255
0.1017236 0.03542611 0.398434 255 0 255
0.1044727 0.03536589 0.3995597 255 0 255
0.106568 0.03493207 0.4019369 255 0 255
0.1104086 0.03507472 0.4026411 255 0 255
0.1114486 0.0352608 0.4022599 255 0 255
0.1235587 0.03562973 0.4049091 255 0 255
0.08258766 0.03191859 0.4019052 255 0 255
0.08437926 0.03243688 0.4004165 255 0 255
0.08541217 0.03258809 0.4001338 255 0 255
0.08760268 0.03369941 0.3964759 255 0 255
0.08861948 0.03385417 0.396181 255 0 255
0.09433034 0.0342213 0.3964929 255 0 255
0.09735296 0.03391442 0.3986079 255 0 255
0.09837809 0.03408264 0.3982763 255 0 255
0.1031622 0.03435102 0.3987382 255 0 255
0.1048925 0.0341107 0.4002094 255 0 255
0.111147 0.03440232 0.4010875 255 0 255
0.1192955 0.03454117 0.4032135 255 0 255
0.123631 0.03454465 0.4046373 255 0 255
0.07996503 0.02683541 0.4163702 255 0 255
0.08188457 0.03050753 0.4028469 255 0 255
0.08265069 0.03087984 0.4016399 255 0 255
0.08340811 0.03125244 0.400431 255 0 255
0.08547541 0.03155416 0.3998699 255 0 255
0.08898694 0.03261319 0.3968472 255 0 255
0.09071277 0.03314721 0.395319 255 0 255
0.09337652 0.03303167 0.3965473 255 0 255
0.09573812 0.03314245 0.3968307 255 0 255
0.09844348 0.03304581 0.3980117 255 0 255
0.1008314 0.0331732 0.3982522 255 0 255
0.1032286 0.03330842 0.3984722 255 0 255
0.1101789 0.03315733 0.4011971 255 0 255
0.1108444 0.03355238 0.3999127 255 0 255
0.1129055 0.03392782 0.3991444 255 0 255
0.08220068 0.02259026 0.4285648 255 0 255
0.08002993 0.02574286 0.4160865 255 0 255
0.08299149 0.0296147 0.4023037 255 0 255
0.08347061 0.03021888 0.4001628 255 0 255
0.08772814 0.03165743 0.3959503 255 0 255
0.09478161 0.03194821 0.396885 255 0 255
0.09850834 0.03201008 0.3977431 255 0 255
0.1064143 0.03197695 0.4002192 255 0 255
0.1074482 0.03215844 0.3998542 255 0 255
0.1102467 0.03209932 0.400923 255 0 255
0.113352 0.03266391 0.3997727 255 0 255
0.1176116 0.03261338 0.4012781 255 0 255
0.1237736 0.03237789 0.4040808 255 0 255
0.09500664 0.00811122 0.4811552 255 0 255
0.08150568 0.02781251 0.4044388 255 0 255
0.08277544 0.02880564 0.4010971 255 0 255
0.0880912 0.03041013 0.3966074 255 0 255
0.09484515 0.03091987 0.3966139 255 0 255
0.1023325 0.03105037 0.3982773 255 0 255
0.105767 0.03136372 0.398126 255 0 255
0.1158682 0.03177908 0.399606 255 0 255
0.1195051 0.03132151 0.4023796 255 0 255
0.1234397 0.03150619 0.4029059 255 0 255
0.08334289 0.01935498 0.4317094 255 0 255
0.08067012 0.02308488 0.41738 255 0 255
0.08021916 0.02466154 0.4114976 255 0 255
0.08462892 0.02830637 0.3993356 255 0 255
0.08566237 0.02845893 0.3990534 255 0 255
0.09191364 0.03025268 0.3942075 255 0 255
0.100338 0.02966175 0.3986855 255 0 255
0.1013683 0.02983553 0.3983442 255 0 255
0.1120773 0.03058291 0.3986992 255 0 255
0.1134864 0.03055418 0.3992127 255 0 255
0.1191801 0.03046642 0.4011995 255 0 255
0.02413395 0.01180514 0.4414682 255 0 255
0.02509533 0.0129301 0.4375612 255 0 255
0.08084245 0.02533016 0.4050726 255 0 255
0.08289839 0.02673592 0.4005379 255 0 255
0.08393808 0.0268867 0.4002626 255 0 255
0.0874896 0.02797537 0.3972723 255 0 255
0.09127423 0.02884274 0.3951577 255 0 255
0.09599161 0.02903287 0.3957386 255 0 255
0.09767407 0.02873926 0.3972436 255 0 255
0.1004019 0.02862228 0.3984027 255 0 255
0.1014323 0.0287965 0.3980615 255 0 255
0.1028075 0.02874388 0.3986264 255 0 255
0.1052222 0.02887343 0.3988294 255 0 255
0.1121432 0.02953303 0.3984138 255 0 255
0.116389 0.02944525 0.3999317 255 0 255
0.1210831 0.02916327 0.4022799 255 0 255
0.1231732 0.02957123 0.4014376 255 0 255
0.01741551 0.006456912 0.4548572 255 0 255
0.02592832 0.01802498 0.4150009 255 0 255
0.02725373 0.01730853 0.4178239 255 0 255
0.03119749 0.0157053 0.4243379 255 0 255
0.03450981 0.01298535 0.4347346 255 0 255
0.0361812 0.01176401 0.4394416 255 0 255
0.08475097 0.02624781 0.3987707 255 0 255
0.0857847 0.02640111 0.3984888 255 0 255
0.09164837 0.02758667 0.3957957 255 0 255
0.09876263 0.02787828 0.3966277 255 0 255
0.1182728 0.02813589 0.4010241 255 0 255
0.1232411 0.02850051 0.4011422 255 0 255
0.01611227 0.01579289 0.4169948 255 0 255
0.01703088 0.01720927 0.4121603 255 0 255
0.02085676 0.02017052 0.4024079 255 0 255
0.0263434 0.01971827 0.4050348 255 0 255
0.03408998 0.01646244 0.4180193 255 0 255
0.04150326 0.009930204 0.4425227 255 0 255
0.045889 0.002882112 0.4682467 255 0 255
0.09183457 0.006222411 0.466576 255 0 255
0.08329032 0.01614866 0.4298186 255 0 255
0.08014599 0.02169331 0.4096749 255 0 255
0.08016918 0.02283645 0.4056832 255 0 255
0.08761101 0.02592875 0.3967021 255 0 255
0.08863747 0.02608589 0.3964096 255 0 255
0.0906866 0.02640423 0.3958131 255 0 255
0.09375084 0.02689182 0.3948894 255 0 255
0.09916046 0.02661069 0.3972502 255 0 255
0.1001887 0.02678376 0.3969144 255 0 255
0.1029346 0.0266627 0.398047 255 0 255
0.103966 0.0268411 0.397697 255 0 255
0.1060246 0.02720201 0.3969854 255 0 255
0.1074132 0.02715144 0.3975265 255 0 255
0.1108689 0.02747792 0.397313 255 0 255
0.1179485 0.02729939 0.3998339 255 0 255
0.1229032 0.02765585 0.3999563 255 0 255
0.01177556 -0.006518413 0.4897988 255 0 255
0.0138843 0.01514692 0.4148037 255 0 255
0.01661446 0.01944705 0.4003294 255 0 255
0.02057924 0.02079498 0.3963559 255 0 255
0.02722478 0.01958252 0.401801 255 0 255
0.03672605 0.01753857 0.4107267 255 0 255
0.04217482 0.01298564 0.4276115 255 0 255
0.08310294 0.01525669 0.4285583 255 0 255
0.08126791 0.02308939 0.4011357 255 0 255
0.09247413 0.02595256 0.3939942 255 0 255
0.09650474 0.0257201 0.39579 255 0 255
0.0978605 0.02564778 0.3963762 255 0 255
0.1043795 0.02556403 0.3983069 255 0 255
0.1064456 0.02592709 0.397593 255 0 255
0.1088712 0.02605951 0.3977638 255 0 255
0.1113054 0.02620004 0.3979138 255 0 255
0.1123376 0.02639041 0.3975327 255 0 255
0.1141281 0.02611534 0.3989378 255 0 255
0.1225642 0.02681975 0.3987684 255 0 255
0.01271352 0.01541891 0.4097078 255 0 255
0.02365174 0.0202826 0.3949723 255 0 255
0.0260007 0.01932113 0.398695 255 0 255
0.02841128 0.01836967 0.4023986 255 0 255
0.03399123 0.01795259 0.4048749 255 0 255
0.08973768 0.00596099 0.457433 255 0 255
0.08002528 0.02099185 0.4041501 255 0 255
0.08132735 0.02205537 0.4008365 255 0 255
0.0838955 0.02301577 0.3981709 255 0 255
0.08640788 0.02398187 0.3954823 255 0 255
0.0904969 0.02461373 0.39431 255 0 255
0.1016829 0.02465209 0.39689 255 0 255
0.1075393 0.02507112 0.3969297 255 0 255
0.1138121 0.02530039 0.3977398 255 0 255
0.1166509 0.02521881 0.3987379 255 0 255
0.1195124 0.02514829 0.3997091 255 0 255
0.1215922 0.02555478 0.3988819 255 0 255
0.009768181 0.00797761 0.4305101 255 0 255
0.01157974 0.01573353 0.4046145 255 0 255
0.017458 0.01946753 0.3930053 255 0 255
0.01847683 0.01952886 0.3929751 255 0 255
0.02255022 0.01978811 0.3928163 255 0 255
0.0248693 0.0188067 0.3965439 255 0 255
0.02605198 0.01831969 0.3984007 255 0 255
0.03489756 0.01756578 0.4025718 255 0 255
0.03735357 0.01691146 0.4052413 255 0 255
0.08706359 0.007584756 0.4468088 255 0 255
0.08008472 0.01994718 0.4038433 255 0 255
0.08087609 0.0203554 0.4026527 255 0 255
0.09259326 0.02392416 0.3934033 255 0 255
0.09527541 0.02375331 0.3946027 255 0 255
0.1114319 0.02411008 0.3973054 255 0 255
0.1124642 0.02430138 0.3969246 255 0 255
0.1212548 0.02473247 0.3976872 255 0 255
0.007697656 -0.008206064 0.4799662 255 0 255
0.01245805 0.01763056 0.3947236 255 0 255
0.01444932 0.01831378 0.3927816 255 0 255
0.01546871 0.018371 0.3927628 255 0 255
0.02722271 0.01711055 0.3989964 255 0 255
0.03062667 0.01649579 0.4016519 255 0 255
0.03273616 0.01665921 0.4014909 255 0 255
0.03379033 0.01674304 0.4014046 255 0 255
0.03740733 0.01588197 0.4049343 255 0 255
0.03978715 0.01550594 0.4066278 255 0 255
0.08007939 0.01649327 0.4114812 255 0 255
0.08199013 0.01946628 0.4020772 255 0 255
0.0906147 0.02258623 0.3937105 255 0 255
0.09566013 0.02247998 0.3952101 255 0 255
0.1007739 0.02241037 0.39662 255 0 255
0.1018049 0.02258711 0.3962797 255 0 255
0.1028345 0.02276523 0.3959354 255 0 255
0.1086927 0.02318196 0.3959503 255 0 255
0.1114942 0.02306695 0.396995 255 0 255
0.1163903 0.02335606 0.397227 255 0 255
0.1227587 0.02364455 0.3978379 255 0 255
0.01048391 0.01595945 0.3963506 255 0 255
0.01350643 0.01699113 0.3934578 255 0 255
0.019594 0.01763707 0.392354 255 0 255
0.02061268 0.01770127 0.3923162 255 0 255
0.03154407 0.01613439 0.3993594 255 0 255
0.03384277 0.01572956 0.401098 255 0 255
0.03617115 0.01533295 0.4028182 255 0 255
0.04890591 0.009997332 0.4226541 255 0 255
0.08369976 0.008929632 0.4330601 255 0 255
0.0851063 0.02010049 0.3969791 255 0 255
0.08555716 0.02078249 0.3948587 255 0 255
0.09067284 0.0215743 0.3934048 255 0 255
0.09707393 0.02137085 0.3954889 255 0 255
0.09843471 0.02128587 0.3960701 255 0 255
0.106334 0.02202666 0.3954674 255 0 255
0.1143811 0.02191453 0.3976971 255 0 255
0.01148706 0.01619814 0.3922207 255 0 255
0.01250701 0.01625118 0.3922132 255 0 255
0.01760497 0.01653733 0.3921189 255 0 255
0.02620485 0.01532269 0.397494 255 0 255
0.03264267 0.01521147 0.3989693 255 0 255
0.04502097 0.01210938 0.4112141 255 0 255
0.08799971 0.001595571 0.4534299 255 0 255
0.08288416 0.0178136 0.4002538 255 0 255
0.08590637 0.01950299 0.3954667 255 0 255
0.08868776 0.02024206 0.3936879 255 0 255
0.08940277 0.02066687 0.3924792 255 0 255
0.09410712 0.02079397 0.3930867 255 0 255
0.0957779 0.02043815 0.3945889 255 0 255
0.09986101 0.02017334 0.3963293 255 0 255
0.1008936 0.02034955 0.3959932 255 0 255
0.1033025 0.02044816 0.3962105 255 0 255
0.1130271 0.02092462 0.3968725 255 0 255
0.1150947 0.02131559 0.3960974 255 0 255
0.1214445 0.02157438 0.3967344 255 0 255
0.1232917 0.02128717 0.3980764 255 0 255
0.01153525 0.01522377 0.3919176 255 0 255
0.01765369 0.01556302 0.3918157 255 0 255
0.02076686 0.01545567 0.3926673 255 0 255
0.02287563 0.01529347 0.3935333 255 0 255
0.02737595 0.01410615 0.3980745 255 0 255
0.02850398 0.01388815 0.3989607 255 0 255
0.08004221 0.01480663 0.4056087 255 0 255
0.08058376 0.01550641 0.4034992 255 0 255
0.08189122 0.01663028 0.4002017 255 0 255
0.08772148 0.0190728 0.3936645 255 0 255
0.09551007 0.01968453 0.3933649 255 0 255
0.09821914 0.01949746 0.3945318 255 0 255
0.1009526 0.01932102 0.3956737 255 0 255
0.1047459 0.01933729 0.3964401 255 0 255
0.1092411 0.01982128 0.3958941 255 0 255
0.1130879 0.0198821 0.3965488 255 0 255
0.1151557 0.02027402 0.395774 255 0 255
0.1172172 0.02067155 0.3949836 255 0 255
0.1204706 0.02031847 0.3968217 255 0 255
0.006526056 0.001293864 0.4316213 255 0 255
0.01566317 0.01447121 0.3915578 255 0 255
0.02519273 0.01355659 0.3959763 255 0 255
0.02847129 0.01318333 0.3976935 255 0 255
0.02951557 0.01326089 0.3976237 255 0 255
0.03644014 0.01198243 0.4028165 255 0 255
0.03762018 0.01177668 0.4036659 255 0 255
0.03987943 0.01166621 0.4044028 255 0 255
0.04228297 0.01126903 0.406069 255 0 255
0.04608523 0.01039682 0.4094772 255 0 255
0.04871915 0.00973031 0.4120377 255 0 255
0.04997567 0.009546911 0.4128375 255 0 255
0.05155528 0.008783049 0.4155192 255 0 255
0.05315757 0.008023071 0.4181935 255 0 255
0.05561138 0.005814178 0.4255723 255 0 255
0.06016254 0.0001313457 0.4442396 255 0 255
0.08167481 0.01587735 0.3989559 255 0 255
0.08631224 0.01719994 0.3957479 255 0 255
0.08951605 0.01865597 0.3918499 255 0 255
0.1027318 0.01794034 0.3968108 255 0 255
0.1079038 0.01885992 0.395041 255 0 255
0.1089338 0.01904802 0.3946754 255 0 255
0.1131481 0.01884088 0.396221 255 0 255
0.1205319 0.01926918 0.3964915 255 0 255
0.006576427 0.001390283 0.4274526 255 0 255
0.0076276 0.008486982 0.4055711 255 0 255
0.01163135 0.01327879 0.3912998 255 0 255
0.01681248 0.0129492 0.3931277 255 0 255
0.02329551 0.01181919 0.3976651 255 0 255
0.02434135 0.0118896 0.3976147 255 0 255
0.02643225 0.01203478 0.3975023 255 0 255
0.02965409 0.01196209 0.3982542 255 0 255
0.03767281 0.01075359 0.4033387 255 0 255
0.03874132 0.01084508 0.4032353 255 0 255
0.03993242 0.01063964 0.4040744 255 0 255
0.04233653 0.01023524 0.4057383 255 0 255
0.04723184 0.009452822 0.4090075 255 0 255
0.04847367 0.009262824 0.4098123 255 0 255
0.07893808 0.009990222 0.4131047 255 0 255
0.07902649 0.01127581 0.4091507 255 0 255
0.07934166 0.01227557 0.4061232 255 0 255
0.07963289 0.01327361 0.4030972 255 0 255
0.08043222 0.01370578 0.4019163 255 0 255
0.08173115 0.01485216 0.3986283 255 0 255
0.09223535 0.01742851 0.3927486 255 0 255
0.1031352 0.01663785 0.39738 255 0 255
0.1066101 0.01692098 0.397222 255 0 255
0.1103918 0.01794276 0.3948673 255 0 255
0.1173375 0.01859428 0.3943253 255 0 255
0.1187622 0.01853601 0.394805 255 0 255
0.1205925 0.0182212 0.3961571 255 0 255
0.122032 0.01816935 0.3966219 255 0 255
0.005291564 -0.02056767 0.4907658 255 0 255
0.006632334 -3.280794E-05 0.4280425 255 0 255
0.01583347 0.01191197 0.3928334 255 0 255
0.02347443 0.0102092 0.3992412 255 0 255
0.02655877 0.01073245 0.3981283 255 0 255
0.04605129 0.008601817 0.4078595 255 0 255
0.0507172 0.008429726 0.4091817 255 0 255
0.0534019 0.007758932 0.4116953 255 0 255
0.07849444 0.00948826 0.4109071 255 0 255
0.07882927 0.01050061 0.4078831 255 0 255
0.08406861 0.01513931 0.3947363 255 0 255
0.08510067 0.01529443 0.3944605 255 0 255
0.08745778 0.0153276 0.39481 255 0 255
0.09095626 0.0165336 0.3918163 255 0 255
0.0936326 0.01630821 0.3930215 255 0 255
0.1018093 0.01569538 0.396489 255 0 255
0.1056267 0.01569725 0.3972423 255 0 255
0.1149493 0.01742311 0.3938958 255 0 255
0.1159774 0.01762192 0.3935045 255 0 255
0.1173967 0.01755765 0.39399 255 0 255
0.007761455 0.004552333 0.4105984 255 0 255
0.01279793 0.01076631 0.3925581 255 0 255
0.01599312 0.009998771 0.3953604 255 0 255
0.02158644 0.008135862 0.4018478 255 0 255
0.0266091 0.009733605 0.3978001 255 0 255
0.04473807 0.008066085 0.4057624 255 0 255
0.04704653 0.007967979 0.406442 255 0 255
0.05329076 0.007001209 0.4104085 255 0 255
0.05473118 0.006513405 0.4121246 255 0 255
0.05836842 0.004345139 0.4192854 255 0 255
0.08195958 -0.0002312989 0.4372086 255 0 255
0.07819367 0.007393932 0.4135776 255 0 255
0.07804956 0.009002554 0.4087103 255 0 255
0.07863121 0.009734194 0.4066138 255 0 255
0.08106466 0.01236539 0.3991424 255 0 255
0.0926623 0.01513001 0.3929974 255 0 255
0.09471305 0.01546604 0.3923783 255 0 255
0.1067264 0.01484712 0.3965462 255 0 255
0.1077669 0.01503508 0.3961863 255 0 255
0.1108794 0.0156075 0.395083 255 0 255
0.124005 0.01575067 0.3972684 255 0 255
0.007858542 0.0009659732 0.4178359 255 0 255
0.01607929 0.008696204 0.39598 255 0 255
0.01834677 0.007556179 0.3997213 255 0 255
0.02067653 0.006425842 0.4034453 255 0 255
0.03199789 0.008814951 0.3980635 255 0 255
0.03304919 0.00889781 0.3979816 255 0 255
0.03410009 0.008982122 0.3978958 255 0 255
0.03631257 0.008844526 0.3986565 255 0 255
0.03759774 0.008312969 0.4004458 255 0 255
0.04479118 0.007032904 0.4054185 255 0 255
0.04724704 0.006623914 0.407037 255 0 255
0.08104719 -0.001859784 0.4380042 255 0 255
0.07760346 0.008533095 0.4065141 255 0 255
0.07873444 0.01000912 0.4023294 255 0 255
0.08111981 0.01134019 0.3988014 255 0 255
0.08727115 0.01359146 0.3932307 255 0 255
0.09406304 0.01400266 0.3932578 255 0 255
0.09509155 0.01417238 0.3929453 255 0 255
0.1019233 0.01363553 0.3958087 255 0 255
0.1029623 0.01381691 0.3954671 255 0 255
0.1053888 0.0139046 0.3956651 255 0 255
0.1084993 0.01446782 0.3945896 255 0 255
0.1236566 0.01496574 0.3960459 255 0 255
0.00800572 -0.005248454 0.4326251 255 0 255
0.009006805 0.001227787 0.4136937 255 0 255
0.01307341 0.006574847 0.3985336 255 0 255
0.0140997 0.006951214 0.397575 255 0 255
0.01965263 0.00534052 0.4031374 255 0 255
0.02580545 0.007031301 0.3990813 255 0 255
0.02678603 0.007422768 0.3980773 255 0 255
0.03099662 0.00773393 0.3978043 255 0 255
0.03309974 0.007898357 0.3976445 255 0 255
0.03647559 0.007527282 0.3992609 255 0 255
0.0389499 0.006766661 0.4018865 255 0 255
0.04014202 0.006546771 0.4027209 255 0 255
0.04592524 0.006103477 0.4049417 255 0 255
0.04838821 0.005691119 0.4065488 255 0 255
0.05181059 0.005708942 0.4070482 255 0 255
0.05415866 0.005626818 0.4076708 255 0 255
0.05907876 0.005178547 0.409794 255 0 255
0.06131903 0.003461748 0.4152086 255 0 255
0.06457446 0.0002204597 0.4252714 255 0 255
0.08370561 -0.009994046 0.4584776 255 0 255
0.07743929 0.004787816 0.4140258 255 0 255
0.07823259 0.008227853 0.4040702 255 0 255
0.08348092 0.01166266 0.394914 255 0 255
0.08451807 0.01181795 0.3946414 255 0 255
0.08526448 0.0122682 0.3934539 255 0 255
0.09009921 0.01336077 0.3911132 255 0 255
0.09143256 0.01323483 0.3917204 255 0 255
0.09650087 0.01304486 0.3931885 255 0 255
0.09922802 0.01282086 0.394338 255 0 255
0.1026727 0.01307379 0.3942268 255 0 255
0.1037066 0.01325637 0.3938827 255 0 255
0.1241231 0.01364447 0.3965643 255 0 255
0.01129717 0.0002775628 0.4133361 255 0 255
0.01453533 0.001746975 0.4095285 255 0 255
0.01674134 0.00186933 0.4094919 255 0 255
0.02190959 0.004135356 0.4036591 255 0 255
0.02286531 0.004848888 0.4017257 255 0 255
0.02486696 0.00563465 0.3997379 255 0 255
0.03325061 0.006581237 0.3982458 255 0 255
0.04489661 0.004970717 0.4047184 255 0 255
0.04583431 0.005388503 0.4036516 255 0 255
0.04813861 0.005282781 0.4043202 255 0 255
0.05061513 0.004870893 0.4059069 255 0 255
0.05328707 0.004155292 0.4084082 255 0 255
0.05438326 0.004270374 0.4082487 255 0 255
0.05803237 0.004002263 0.4096109 255 0 255
0.05931967 0.003813464 0.4103658 255 0 255
0.06776734 -0.001862637 0.4282018 255 0 255
0.07759396 -0.002993743 0.4330952 255 0 255
0.0763782 0.003558878 0.4139017 255 0 255
0.07828765 0.007185704 0.4037143 255 0 255
0.08531819 0.01126217 0.3931104 255 0 255
0.08634923 0.01142006 0.3928313 255 0 255
0.09148647 0.01223091 0.3913777 255 0 255
0.09417229 0.01198025 0.3925719 255 0 255
0.09997907 0.01226826 0.3927634 255 0 255
0.1010084 0.01244713 0.3924296 255 0 255
0.1023822 0.0123394 0.3929849 255 0 255
0.1047945 0.01241882 0.3931861 255 0 255
0.1065396 0.01203266 0.3946128 255 0 255
0.1231358 0.01238055 0.3966262 255 0 255
0.01095168 -0.0175778 0.461138 255 0 255
0.01194623 -0.01160707 0.4441376 255 0 255
0.0193637 -0.001657019 0.4166307 255 0 255
0.02039849 -0.0009357434 0.4147092 255 0 255
0.02125665 0.0007645109 0.4099527 255 0 255
0.02291567 0.003836603 0.4013754 255 0 255
0.03022253 0.005011284 0.3990761 255 0 255
0.03234231 0.005174299 0.3989231 255 0 255
0.03330093 0.005580792 0.3978996 255 0 255
0.0378675 0.004964977 0.4003514 255 0 255
0.04494892 0.003941771 0.4043622 255 0 255
0.04603025 0.004044427 0.4042336 255 0 255
0.05066808 0.003835306 0.4055485 255 0 255
0.06028772 0.003195304 0.4088885 255 0 255
0.06900726 0.0008564162 0.4169763 255 0 255
0.07352822 -0.0002708679 0.4209314 255 0 255
0.07376128 0.00111337 0.4170062 255 0 255
0.07834225 0.006144997 0.4033543 255 0 255
0.07970191 0.007361091 0.4000999 255 0 255
0.08151013 0.009335698 0.394753 255 0 255
0.08669623 0.01011544 0.3933915 255 0 255
0.08743241 0.01057542 0.3922011 255 0 255
0.08948861 0.01089906 0.3916237 255 0 255
0.09051485 0.011063 0.3913294 255 0 255
0.1111745 0.01042654 0.3967086 255 0 255
0.1132673 0.01082022 0.3959547 255 0 255
0.1163945 0.01142156 0.3947945 255 0 255
0.1242386 0.011544 0.3958434 255 0 255
0.01856636 -0.02774819 0.4870572 255 0 255
0.01908493 -0.01972926 0.4644001 255 0 255
0.02079967 -0.004309276 0.4209351 255 0 255
0.02152337 -0.001599186 0.4133566 255 0 255
0.02410158 0.002567557 0.4019156 255 0 255
0.02831391 0.003195165 0.4007442 255 0 255
0.03027268 0.004008291 0.3987245 255 0 255
0.03451092 0.004340634 0.3984029 255 0 255
0.06729986 0.000578497 0.4140319 255 0 255
0.06932554 0.001167689 0.4126829 255 0 255
0.07088489 0.0006786127 0.4143112 255 0 255
0.07200803 0.0008202969 0.4140875 255 0 255
0.0726718 0.001589843 0.4120164 255 0 255
0.07331923 0.00235897 0.4099442 255 0 255
0.07418717 0.002815508 0.4087912 255 0 255
0.07504641 0.003272567 0.4076357 255 0 255
0.07565244 0.004041279 0.4055595 255 0 255
0.07649045 0.00449882 0.4044001 255 0 255
0.07949197 0.006642011 0.3988259 255 0 255
0.08106466 0.007560708 0.3964847 255 0 255
0.08288128 0.008174569 0.3950456 255 0 255
0.09427951 0.009963397 0.3918701 255 0 255
0.09699102 0.009710259 0.3930353 255 0 255
0.09802452 0.009885622 0.3927134 255 0 255
0.1014594 0.01012439 0.3926162 255 0 255
0.1139875 0.01027094 0.39433 255 0 255
0.1174895 0.01058886 0.3940373 255 0 255
0.02238442 -0.00766008 0.4270991 255 0 255
0.03032265 0.003006716 0.398369 255 0 255
0.03466605 0.003009544 0.3989857 255 0 255
0.03572856 0.003096792 0.3988951 255 0 255
0.03690346 0.002856315 0.3997383 255 0 255
0.03796897 0.002946885 0.3996395 255 0 255
0.03915469 0.002710446 0.4004737 255 0 255
0.04599001 0.002317511 0.4025751 255 0 255
0.04706692 0.002421616 0.4024431 255 0 255
0.04953052 0.001983891 0.4040324 255 0 255
0.05093278 0.001443623 0.4057516 255 0 255
0.05218631 0.001230945 0.4065331 255 0 255
0.0578278 0.001492459 0.4066478 255 0 255
0.059108 0.001292331 0.4074004 255 0 255
0.06129999 0.001541435 0.4070358 255 0 255
0.06279182 0.00102707 0.4086998 255 0 255
0.06409591 0.0008362135 0.4094315 255 0 255
0.06693467 0.0001426672 0.4118026 255 0 255
0.0726743 0.002246353 0.4068089 255 0 255
0.07376761 0.002389511 0.4065785 255 0 255
0.07461902 0.002849506 0.4054261 255 0 255
0.07819398 0.004381194 0.4017075 255 0 255
0.08033553 0.006082697 0.397295 255 0 255
0.08321282 0.006854437 0.3955962 255 0 255
0.08397608 0.007320111 0.3944181 255 0 255
0.09092931 0.008756123 0.3915246 255 0 255
0.09298568 0.009090975 0.3909227 255 0 255
0.09568528 0.008825916 0.3920978 255 0 255
0.0980778 0.00887316 0.3923544 255 0 255
0.1015129 0.009109464 0.3922564 255 0 255
0.1028912 0.00899268 0.3928071 255 0 255
0.1150813 0.00943926 0.3935791 255 0 255
0.1175447 0.009554289 0.3936707 255 0 255
0.1204141 0.009388738 0.3946118 255 0 255
0.1239425 0.009736364 0.3942398 255 0 255
0.02519828 -0.02597162 0.4746323 255 0 255
0.02492693 -0.003158456 0.4115255 255 0 255
0.02956857 0.0009218095 0.4008949 255 0 255
0.03801938 0.001940017 0.3992777 255 0 255
0.04052337 0.001130241 0.4018736 255 0 255
0.04726655 0.001071287 0.4030087 255 0 255
0.05098501 0.0004087175 0.4053798 255 0 255
0.05333191 0.0003063959 0.4060053 255 0 255
0.0569658 4.328478E-06 0.4073731 255 0 255
0.0580638 0.0001252313 0.4072011 255 0 255
0.06025745 0.0003717017 0.4068448 255 0 255
0.06264658 0.0003000305 0.4073971 255 0 255
0.06944213 0.00077618 0.4070987 255 0 255
0.07031268 0.001236001 0.4059608 255 0 255
0.07117458 0.001696395 0.4048203 255 0 255
0.07824707 0.003348546 0.4013366 255 0 255
0.0787985 0.004131781 0.399261 255 0 255
0.08535606 0.006156739 0.3946886 255 0 255
0.0957378 0.007817754 0.3917358 255 0 255
0.101909 0.007792735 0.3927816 255 0 255
0.1032911 0.007673352 0.39333 255 0 255
0.1064274 0.007141684 0.395293 255 0 255
0.1078312 0.007031329 0.395821 255 0 255
0.1109709 0.007612913 0.3947253 255 0 255
0.1219124 0.008267811 0.3946982 255 0 255
0.03263966 0.0008336809 0.3984294 255 0 255
0.04177887 -0.0001248608 0.4023254 255 0 255
0.04501494 0.0001745852 0.4019654 255 0 255
0.05447656 -0.0006147151 0.4054695 255 0 255
0.05665933 -0.0003788362 0.4051401 255 0 255
0.05793302 -0.0005883602 0.4058955 255 0 255
0.06011895 -0.0003423298 0.4055406 255 0 255
0.07507797 0.001874106 0.4016905 255 0 255
0.07615294 0.002020358 0.4014515 255 0 255
0.07722685 0.002168124 0.4012085 255 0 255
0.0871997 0.005782673 0.3928598 255 0 255
0.08793897 0.006259294 0.3916741 255 0 255
0.09134256 0.00644031 0.3916989 255 0 255
0.1050829 0.006229071 0.3943859 255 0 255
0.1096563 0.005584896 0.3968478 255 0 255
0.1124408 0.006477858 0.3948554 255 0 255
0.115573 0.007080484 0.3937092 255 0 255
0.02830346 -0.004683468 0.4096473 255 0 255
0.02900585 -0.002889289 0.4049025 255 0 255
0.02992638 -0.002123883 0.4029627 255 0 255
0.03171926 -0.000591947 0.3990744 255 0 255
0.03471017 0.0003444121 0.3969576 255 0 255
0.03716723 -0.0005005529 0.399574 255 0 255
0.03954829 -0.0009958155 0.4012376 255 0 255
0.0407498 -0.001240086 0.4020623 255 0 255
0.0452065 -0.001181206 0.4025211 255 0 255
0.06126292 -0.001254517 0.4049751 255 0 255
0.06255294 -0.001459086 0.4057097 255 0 255
0.06604304 -0.001397456 0.4060412 255 0 255
0.06735281 -0.00159306 0.4067555 255 0 255
0.06801417 -0.0007981575 0.4047085 255 0 255
0.07321473 0.0002282225 0.4026915 255 0 255
0.07809523 0.001611986 0.399672 255 0 255
0.08725092 0.004778181 0.3924901 255 0 255
0.09139383 0.005437219 0.3913297 255 0 255
0.09448779 0.005946811 0.390419 255 0 255
0.09584131 0.005805825 0.391 255 0 255
0.09960259 0.005710995 0.3918172 255 0 255
0.1013165 0.005269125 0.3932622 255 0 255
0.1037433 0.005327202 0.3934706 255 0 255
0.1142036 0.006150298 0.3928422 255 0 255
0.1245155 0.006318533 0.3939691 255 0 255
0.03133766 -0.03158357 0.4785752 255 0 255
0.03049333 -0.005218894 0.4081885 255 0 255
0.03984134 -0.002695846 0.4027225 255 0 255
0.04105091 -0.002942989 0.403545 255 0 255
0.05113986 -0.002686938 0.4042396 255 0 255
0.0533192 -0.002460443 0.4039358 255 0 255
0.05803691 -0.002663068 0.4051268 255 0 255
0.06349583 -0.002034293 0.4042102 255 0 255
0.06806623 -0.001836372 0.4043216 255 0 255
0.07087185 -0.0007574339 0.4018427 255 0 255
0.07195085 -0.0006167407 0.4016199 255 0 255
0.07625692 -3.860757E-05 0.4006888 255 0 255
0.0805425 0.002023412 0.3958098 255 0 255
0.08159582 0.002177123 0.3955509 255 0 255
0.08446533 0.002971224 0.3938482 255 0 255
0.0886379 0.003616407 0.3927307 255 0 255
0.09382599 0.004455993 0.3912468 255 0 255
0.09589226 0.004802074 0.3906261 255 0 255
0.101708 0.003937585 0.3937698 255 0 255
0.1041425 0.003994196 0.3939747 255 0 255
0.1079903 0.003939422 0.3946836 255 0 255
0.1104508 0.004018209 0.3948357 255 0 255
0.1135924 0.004614742 0.3937141 255 0 255
0.1146365 0.004816541 0.3933324 255 0 255
0.1173677 0.005735957 0.3912955 255 0 255
0.1212694 0.005755268 0.3918237 255 0 255
0.1249785 0.004976513 0.3944429 255 0 255
0.03287682 -0.02674441 0.4620628 255 0 255
0.03210337 -0.007921882 0.4123858 255 0 255
0.03257138 -0.005390599 0.4057808 255 0 255
0.03347442 -0.004606789 0.4038357 255 0 255
0.04544876 -0.003565091 0.4026843 255 0 255
0.04994347 -0.003483148 0.4030713 255 0 255
0.05119089 -0.003715738 0.4038514 255 0 255
0.06136616 -0.003324866 0.4041987 255 0 255
0.06245716 -0.003197325 0.4040114 255 0 255
0.06811792 -0.002873031 0.4039305 255 0 255
0.07115345 -0.002121192 0.4023683 255 0 255
0.07523325 -0.001212888 0.4005401 255 0 255
0.07630826 -0.001065776 0.4003014 255 0 255
0.07900511 4.67299E-05 0.397748 255 0 255
0.08164643 0.00116637 0.3951697 255 0 255
0.08214634 0.001979499 0.3931008 255 0 255
0.08423206 0.002292741 0.3925676 255 0 255
0.08735193 0.002773674 0.3917388 255 0 255
0.08972844 0.002776941 0.392063 255 0 255
0.09076735 0.002943753 0.3917702 255 0 255
0.09387644 0.003452978 0.3908686 255 0 255
0.1052392 0.003160911 0.3932433 255 0 255
0.1080422 0.002911834 0.3942964 255 0 255
0.1217241 0.004419499 0.3922986 255 0 255
0.03691608 -0.03922053 0.4913197 255 0 255
0.03375393 -0.01065529 0.4165582 255 0 255
0.03668618 -0.005011495 0.4022501 255 0 255
0.03777188 -0.004920143 0.4021538 255 0 255
0.04006363 -0.005083423 0.4028778 255 0 255
0.04766931 -0.0043758 0.4020332 255 0 255
0.05559753 -0.004282358 0.4028362 255 0 255
0.05904481 -0.00426449 0.4032467 255 0 255
0.06032545 -0.004483881 0.4039875 255 0 255
0.06141726 -0.004357705 0.4038044 255 0 255
0.06250826 -0.004229953 0.4036172 255 0 255
0.06468767 -0.003969752 0.4032308 255 0 255
0.07905564 -0.0009707068 0.3973597 255 0 255
0.07985383 -0.0004841596 0.3962024 255 0 255
0.0850353 0.001781657 0.3910145 255 0 255
0.08607148 0.001941719 0.3907394 255 0 255
0.0871065 0.002103245 0.3904604 255 0 255
0.08977841 0.001774002 0.3916803 255 0 255
0.0908173 0.001941153 0.3913877 255 0 255
0.09185492 0.002109801 0.3910912 255 0 255
0.09320537 0.001953365 0.3916823 255 0 255
0.09938467 0.001859036 0.3927745 255 0 255
0.1021504 0.001579397 0.3938812 255 0 255
0.1056415 0.001821164 0.3937343 255 0 255
0.1123426 0.001524073 0.3954325 255 0 255
0.03758679 -0.02599158 0.4533225 255 0 255
0.03681897 -0.01003021 0.4121636 255 0 255
0.04023564 -0.00645755 0.4034109 255 0 255
0.04241927 -0.006262249 0.403189 255 0 255
0.04801799 -0.006098204 0.4034878 255 0 255
0.05347139 -0.005541143 0.4027596 255 0 255
0.05564794 -0.00530731 0.4024402 255 0 255
0.05673511 -0.005188042 0.4022745 255 0 255
0.06037619 -0.005515348 0.4035891 255 0 255
0.06561543 -0.004522726 0.401719 255 0 255
0.06669912 -0.004388987 0.4015166 255 0 255
0.07017145 -0.004321395 0.4017967 255 0 255
0.07318163 -0.003553898 0.4002178 255 0 255
0.07533467 -0.003263159 0.3997529 255 0 255
0.08096191 -0.001342437 0.3955562 255 0 255
0.08461522 -4.266927E-05 0.3926981 255 0 255
0.08878776 0.000606559 0.3915823 255 0 255
0.08982785 0.0007725933 0.3912937 255 0 255
0.09117347 0.0006087068 0.3918934 255 0 255
0.09190436 0.001109096 0.3907049 255 0 255
0.1014881 4.900572E-05 0.3947053 255 0 255
0.1025412 0.0002343765 0.3943699 255 0 255
0.1060435 0.0004757686 0.3942184 255 0 255
0.1095549 0.0007347142 0.3940242 255 0 255
0.1123938 0.0004901232 0.3950336 255 0 255
0.1183052 0.002038226 0.3918548 255 0 255
0.1222297 0.002044798 0.3923681 255 0 255
0.04150377 -0.007740092 0.4038279 255 0 255
0.04682993 -0.006873804 0.4022977 255 0 255
0.04791863 -0.006767355 0.4021647 255 0 255
0.0591456 -0.006318949 0.4024484 255 0 255
0.06674924 -0.005413837 0.401116 255 0 255
0.06999475 -0.005002519 0.4004849 255 0 255
0.07702597 -0.003302397 0.397064 255 0 255
0.08074229 -0.00201165 0.3942608 255 0 255
0.08646107 -0.0003845143 0.390862 255 0 255
0.09843955 -0.0003460657 0.3923125 255 0 255
0.1039872 -0.0009283902 0.3945113 255 0 255
0.1071448 -0.0003555218 0.3934665 255 0 255
0.1197925 0.0009037876 0.3919176 255 0 255
0.1208357 0.001116375 0.3915143 255 0 255
0.1251861 0.0008155938 0.3928474 255 0 255
0.04131385 -0.01139293 0.410002 255 0 255
0.0457903 -0.007998296 0.4020235 255 0 255
0.05340209 -0.00722991 0.4010367 255 0 255
0.05683488 -0.007232794 0.4014707 255 0 255
0.0611758 -0.00673849 0.4007684 255 0 255
0.06334142 -0.006481925 0.4003933 255 0 255
0.06896356 -0.00616395 0.400295 255 0 255
0.07196853 -0.005393254 0.3987332 255 0 255
0.07868133 -0.003322525 0.3943684 255 0 255
0.08261962 -0.002361158 0.3924458 255 0 255
0.08992528 -0.001225561 0.3905087 255 0 255
0.09744254 -0.001535938 0.3922333 255 0 255
0.1001999 -0.00184346 0.3933529 255 0 255
0.1026407 -0.001806813 0.3935681 255 0 255
0.1071943 -0.001377272 0.3930629 255 0 255
0.1139229 -0.001697231 0.3947158 255 0 255
0.1202382 -0.0004460879 0.3923717 255 0 255
0.1227334 -0.0003378829 0.3924158 255 0 255
0.1233736 0.0001998184 0.3911464 255 0 255
0.1252362 -0.000220654 0.3924384 255 0 255
0.04611048 -0.03496122 0.4661297 255 0 255
0.04335035 -0.01150991 0.4075108 255 0 255
0.0440621 -0.01031461 0.4046268 255 0 255
0.04502615 -0.009847638 0.4035834 255 0 255
0.05597425 -0.008732497 0.4021442 255 0 255
0.06468026 -0.007726105 0.4007033 255 0 255
0.07225268 -0.0067629 0.3992323 255 0 255
0.08684944 -0.002719001 0.3909633 255 0 255
0.0881879 -0.002898999 0.3915739 255 0 255
0.08923292 -0.00273284 0.3912886 255 0 255
0.09193382 -0.003080464 0.3924822 255 0 255
0.09298263 -0.002908527 0.392183 255 0 255
0.09403019 -0.002735105 0.39188 255 0 255
0.09716501 -0.002205819 0.3909476 255 0 255
0.1040859 -0.002972769 0.3936991 255 0 255
0.107599 -0.002731178 0.3935283 255 0 255
0.1143465 -0.003059824 0.39517 255 0 255
0.1175224 -0.002437502 0.3940123 255 0 255
0.1196316 -0.002015023 0.3932207 255 0 255
0.1227828 -0.001369916 0.3920036 255 0 255
0.0493087 -0.0100779 0.4017244 255 0 255
0.05039998 -0.009967425 0.4015831 255 0 255
0.06019007 -0.008901478 0.4001306 255 0 255
0.07014271 -0.008065184 0.3992603 255 0 255
0.07314043 -0.007281483 0.3976909 255 0 255
0.07397067 -0.006780817 0.3965591 255 0 255
0.07610618 -0.006486865 0.3960906 255 0 255
0.08009885 -0.005528133 0.3942089 255 0 255
0.08509333 -0.004388869 0.3920022 255 0 255
0.08643048 -0.004575752 0.3926203 255 0 255
0.09303059 -0.003913786 0.3917767 255 0 255
0.0940781 -0.003739991 0.3914737 255 0 255
0.1196804 -0.003046884 0.3928038 255 0 255
0.1213829 -0.002288548 0.3911412 255 0 255
0.1228316 -0.002400317 0.3915873 255 0 255
