ply
format ascii 1.0
Comment Generated by Floating Hands
element vertex 1127
Comment Left: (0.0, 0.0, 0.0)
Comment Right: (0.1, 0.0, 0.3)
Comment Time: 2023-05-01 09:21:43,024
property double x
property double y
property double z
property uchar red
property uchar green
property uchar blue
end_header
-0.01959357 0.1109339 0.3966792 255 0 255
-0.01595992 0.1112026 0.3978413 255 0 255
-0.01226528 0.1113531 0.3979563 255 0 255
-0.01043876 0.1115704 0.3989824 255 0 255
-0.008569314 0.1115199 0.398013 255 0 255
0.02937638 0.1119035 0.3781729 255 0 255
0.02976432 0.1115407 0.3750977 255 0 255
0.03351835 0.1098022 0.3582944 255 0 255
-0.04156153 0.109494 0.3945655 255 0 255
-0.02500959 0.1096549 0.3954558 255 0 255
0.02857555 0.1109147 0.3784419 255 0 255
0.04637846 0.1092451 0.3450735 255 0 255
-0.04230013 0.1091382 0.3995976 255 0 255
-0.03854864 0.1082909 0.3931206 255 0 255
-0.03182366 0.1090286 0.398938 255 0 255
-0.02224961 0.10876 0.3957822 255 0 255
-0.01587672 0.1091101 0.3971122 255 0 255
-0.01127035 0.1093007 0.3972469 255 0 255
0.03155186 0.1092937 0.370019 255 0 255
0.03203267 0.1090934 0.3679159 255 0 255
0.03458181 0.10837 0.3593386 255 0 255
0.03536027 0.1084551 0.3591743 255 0 255
0.0357487 0.1082516 0.3570666 255 0 255
0.039492 0.1081914 0.3521465 255 0 255
-0.04595994 0.1103041 0.4172399 255 0 255
-0.04136693 0.1081468 0.3998604 255 0 255
-0.03790439 0.1075716 0.3953331 255 0 255
-0.03181444 0.1080373 0.3990628 255 0 255
-0.02902733 0.1080971 0.399342 255 0 255
-0.0258984 0.1076795 0.3956326 255 0 255
0.0006223692 0.1083064 0.3923408 255 0 255
0.0028038 0.1065641 0.3773701 255 0 255
0.02967621 0.1093182 0.3795245 255 0 255
0.03289439 0.1083109 0.3678773 255 0 255
0.03379431 0.1079249 0.3636644 255 0 255
0.04231804 0.107602 0.3505408 255 0 255
0.04678061 0.1081703 0.3493259 255 0 255
0.04748058 0.1079199 0.3460351 255 0 255
-0.06713121 0.1100373 0.419325 255 0 255
-0.0334333 0.1067769 0.3970062 255 0 255
-0.02790114 0.1068925 0.3975713 255 0 255
-0.02050764 0.1071048 0.3981223 255 0 255
-0.005690083 0.1078487 0.3995208 255 0 255
0.03311852 0.107579 0.3689652 255 0 255
0.03357991 0.1073948 0.3668572 255 0 255
0.03884649 0.106486 0.3525429 255 0 255
-0.06722581 0.1063438 0.394869 255 0 255
-0.01669102 0.1060226 0.3964433 255 0 255
-0.01025495 0.1062898 0.3966326 255 0 255
-0.005657887 0.1066285 0.3976528 255 0 255
-0.003816135 0.1066073 0.3966453 255 0 255
0.03186895 0.1067991 0.3713355 255 0 255
0.03425814 0.1064872 0.365831 255 0 255
0.04418067 0.1060005 0.3482363 255 0 255
0.04615467 0.1064702 0.3497459 255 0 255
0.04859219 0.1065819 0.346981 255 0 255
-0.06564295 0.104274 0.3851242 255 0 255
-0.0594673 0.1049872 0.3948246 255 0 255
-0.06048433 0.1059545 0.4037655 255 0 255
-0.06448258 0.1101534 0.4425561 255 0 255
-0.06378085 0.1103618 0.4447285 255 0 255
-0.03445588 0.104903 0.3981138 255 0 255
-0.02317709 0.1049401 0.3971805 255 0 255
-0.02225496 0.1049681 0.3972438 255 0 255
-0.02047203 0.1051378 0.3983516 255 0 255
-0.01861876 0.1052014 0.3984534 255 0 255
-0.011175 0.1053855 0.3977222 255 0 255
-0.009326734 0.1054695 0.3977513 255 0 255
-0.005629834 0.10565 0.3977661 255 0 255
-0.0009922499 0.1060129 0.3986965 255 0 255
0.005278203 0.1017685 0.3576835 255 0 255
0.0378565 0.1049526 0.3550362 255 0 255
0.04275976 0.1050183 0.3487295 255 0 255
0.04838651 0.1056515 0.3461261 255 0 255
-0.05744297 0.1047904 0.4035186 255 0 255
-0.05284114 0.1053807 0.4105119 255 0 255
-0.05332525 0.1074696 0.4306335 255 0 255
-0.02693747 0.1039642 0.3979894 255 0 255
-0.02323401 0.1040664 0.3982801 255 0 255
-0.01767162 0.1042512 0.3986077 255 0 255
-0.01022572 0.104448 0.3978475 255 0 255
-0.006526367 0.1046247 0.3978772 255 0 255
0.002688198 0.1050282 0.3967043 255 0 255
0.006736374 0.1023512 0.3696352 255 0 255
0.02980224 0.1050321 0.3739436 255 0 255
0.04429361 0.1044114 0.3484306 255 0 255
0.04676005 0.1048323 0.348775 255 0 255
0.05044955 0.1053328 0.3476876 255 0 255
-0.06074309 0.1009982 0.3732447 255 0 255
-0.05549427 0.1023664 0.3898015 255 0 255
-0.03280482 0.103162 0.4005149 255 0 255
-0.0195073 0.1032016 0.3986178 255 0 255
-0.01857931 0.103234 0.3986671 255 0 255
-0.01667588 0.103199 0.3977611 255 0 255
-0.01297614 0.1033469 0.3978922 255 0 255
-0.009274842 0.1035115 0.3979655 255 0 255
-0.004651467 0.1035303 0.3959868 255 0 255
-0.003733525 0.1035789 0.3959781 255 0 255
-0.0009629499 0.1038368 0.3969245 255 0 255
0.03441351 0.1039123 0.3661332 255 0 255
0.03484812 0.1037598 0.3640206 255 0 255
0.04361077 0.1035219 0.3487213 255 0 255
0.04950407 0.1043043 0.3470503 255 0 255
-0.03501881 0.1024248 0.4033676 255 0 255
-0.02334643 0.1022948 0.4004702 255 0 255
-0.02234177 0.1022251 0.3995418 255 0 255
-0.01391351 0.1024283 0.39896 255 0 255
-0.01205443 0.1025069 0.3990115 255 0 255
-3.003295E-05 0.1028134 0.3960082 255 0 255
0.0009128969 0.1029698 0.396976 255 0 255
0.007311841 0.1032733 0.3956944 255 0 255
0.0470995 0.1030862 0.3468307 255 0 255
0.04809414 0.1033104 0.3475753 255 0 255
-0.05492367 0.09979387 0.3829868 255 0 255
-0.04828918 0.1024236 0.4136493 255 0 255
-0.04422036 0.1030066 0.4203279 255 0 255
-0.04028389 0.1017252 0.4068068 255 0 255
-0.03926888 0.1023983 0.4139742 255 0 255
-0.03753839 0.1026119 0.4161988 255 0 255
-0.03280734 0.1020278 0.4097234 255 0 255
-0.03046842 0.1016942 0.405959 255 0 255
-0.01853858 0.1012664 0.3988649 255 0 255
-0.01485908 0.1015023 0.4000207 255 0 255
-0.01202954 0.1015235 0.3991089 255 0 255
-0.01107513 0.1014685 0.3981341 255 0 255
0.004635289 0.1022231 0.3969308 255 0 255
0.03827612 0.1017986 0.3563747 255 0 255
0.04298181 0.1018373 0.3490909 255 0 255
0.04372275 0.1019319 0.3488956 255 0 255
0.04789037 0.1023957 0.3467043 255 0 255
0.04888862 0.1026178 0.3474455 255 0 255
-0.08052601 0.102813 0.4176727 255 0 255
-0.07117041 0.09998038 0.3882378 255 0 255
-0.064932 0.09839354 0.3724028 255 0 255
-0.06168607 0.09805424 0.3701831 255 0 255
-0.06086467 0.09803319 0.3703975 255 0 255
-0.06004246 0.0980131 0.3706088 255 0 255
-0.05945978 0.09808351 0.3717834 255 0 255
-0.05803712 0.09813747 0.3731601 255 0 255
-0.04682099 0.1005699 0.4049033 255 0 255
-0.04618636 0.1007501 0.4070256 255 0 255
-0.03770921 0.1002787 0.4022209 255 0 255
-0.03862366 0.1023539 0.4251948 255 0 255
-0.02740653 0.1005664 0.4043351 255 0 255
-0.02526381 0.1003469 0.4015139 255 0 255
-0.02424731 0.1002833 0.4005929 255 0 255
-0.01383065 0.1003696 0.3981554 255 0 255
-0.01010201 0.1004388 0.3972484 255 0 255
0.006373252 0.1010819 0.3939492 255 0 255
0.009827442 0.1010407 0.390743 255 0 255
0.0377642 0.1009978 0.3576045 255 0 255
0.04155239 0.1008547 0.3495545 255 0 255
0.04648147 0.1014083 0.3472078 255 0 255
-0.09759876 0.1067749 0.4729853 255 0 255
-0.0769916 0.1005944 0.4053141 255 0 255
-0.0698371 0.0985769 0.3835277 255 0 255
-0.03972188 0.09933789 0.4030456 255 0 255
-0.02783022 0.09998718 0.4093879 255 0 255
-0.02141823 0.09937675 0.4008757 255 0 255
-0.01855067 0.09938529 0.4000416 255 0 255
-0.01102348 0.0995096 0.3983164 255 0 255
-0.001785902 0.09970753 0.395334 255 0 255
-0.0008694578 0.0997595 0.3953149 255 0 255
0.008232821 0.1002438 0.3939324 255 0 255
0.009143846 0.1003069 0.3938741 255 0 255
0.01174818 0.09925576 0.3797058 255 0 255
0.0288066 0.09935877 0.3614978 255 0 255
0.03744475 0.1002945 0.359804 255 0 255
0.03859099 0.1002629 0.3575111 255 0 255
0.04383472 0.1003417 0.3490569 255 0 255
0.04580374 0.1005202 0.3474927 255 0 255
0.04727353 0.1007173 0.3470779 255 0 255
0.05296279 0.1016674 0.3474359 255 0 255
-0.05947699 0.09628803 0.371938 255 0 255
-0.05599266 0.09644912 0.3758498 255 0 255
-0.04693481 0.09812562 0.4000071 255 0 255
-0.03687242 0.09836417 0.4035053 255 0 255
-0.02997491 0.09999721 0.4222921 255 0 255
-0.01385234 0.09857722 0.4003212 255 0 255
0.01303476 0.09886659 0.3846794 255 0 255
0.0133326 0.09745863 0.3676554 255 0 255
0.03590778 0.09959675 0.3642873 255 0 255
0.03807526 0.09944931 0.3587359 255 0 255
0.04084173 0.09939149 0.3529851 255 0 255
0.04953176 0.1002306 0.3465097 255 0 255
-0.07401585 0.09764459 0.394939 255 0 255
-0.06279338 0.09547477 0.3711542 255 0 255
-0.04427843 0.09721036 0.4015312 255 0 255
-0.04333752 0.09721512 0.4016774 255 0 255
-0.04254388 0.09729774 0.4028059 255 0 255
-0.03723129 0.1011499 0.4517189 255 0 255
-0.02990365 0.0997984 0.4333946 255 0 255
-0.01961572 0.09761259 0.4031443 255 0 255
-0.01480247 0.09763074 0.4013674 255 0 255
-0.007237178 0.09756406 0.3965356 255 0 255
-0.004472342 0.09770544 0.3965322 255 0 255
-0.00263956 0.09772324 0.3955154 255 0 255
9.163964E-05 0.09779742 0.3944619 255 0 255
0.04468871 0.09884818 0.3490072 255 0 255
0.04959106 0.09944192 0.3465827 255 0 255
-0.05172966 0.0954924 0.3901599 255 0 255
-0.05102029 0.09555908 0.3913146 255 0 255
-0.04642786 0.09590818 0.3972144 255 0 255
-0.01774889 0.09675512 0.4043159 255 0 255
-0.009994524 0.09653692 0.3975805 255 0 255
-0.003526123 0.09670629 0.3956042 255 0 255
0.008292423 0.09728006 0.3931817 255 0 255
0.0305285 0.09701294 0.361439 255 0 255
0.03681302 0.09798668 0.364269 255 0 255
0.04095069 0.09777485 0.3531278 255 0 255
-0.07513645 0.09592819 0.398924 255 0 255
-0.05685121 0.09373307 0.3758623 255 0 255
-0.05452475 0.0940242 0.3815001 255 0 255
-0.05312515 0.09440728 0.3879137 255 0 255
-0.04164262 0.09486876 0.3970373 255 0 255
-0.03303719 0.09826572 0.4442962 255 0 255
-0.02070333 0.09579206 0.4062296 255 0 255
-0.01974417 0.09582468 0.4062845 255 0 255
-0.005334199 0.09578834 0.3976846 255 0 255
-0.00257577 0.09578973 0.3956655 255 0 255
0.003817254 0.0960963 0.394487 255 0 255
0.005645693 0.09621444 0.3944031 255 0 255
0.01814073 0.0957031 0.3733947 255 0 255
0.01924662 0.09544095 0.3682483 255 0 255
0.04228812 0.09706227 0.3518518 255 0 255
0.04430094 0.0972565 0.3503056 255 0 255
0.04897558 0.09776177 0.3469361 255 0 255
-0.06473583 0.09289887 0.3718633 255 0 255
-0.05312571 0.09345239 0.387979 255 0 255
-0.03682823 0.09433166 0.4038088 255 0 255
-0.02308116 0.0951828 0.4131477 255 0 255
-0.01091288 0.09467985 0.3997007 255 0 255
0.001082073 0.09489397 0.3936582 255 0 255
0.00472734 0.0951215 0.3935198 255 0 255
0.007407286 0.0952308 0.3923827 255 0 255
0.008313844 0.09529319 0.3923289 255 0 255
0.009220212 0.09535667 0.3922715 255 0 255
0.01564381 0.09590501 0.3927642 255 0 255
0.04257493 0.09634828 0.3528835 255 0 255
0.05269821 0.09749716 0.3458838 255 0 255
-0.08364015 0.09584042 0.4288125 255 0 255
-0.06417396 0.09203491 0.3731111 255 0 255
-0.05312579 0.09249755 0.3880405 255 0 255
-0.05172782 0.09260327 0.3903578 255 0 255
-0.04865702 0.09276626 0.3939855 255 0 255
-0.03884804 0.09292383 0.3975672 255 0 255
-0.03378017 0.09381384 0.411267 255 0 255
-0.03290742 0.09389374 0.4123651 255 0 255
-0.02440757 0.09442412 0.4181256 255 0 255
-0.02326524 0.09433001 0.4162035 255 0 255
-0.02200807 0.09411154 0.4122846 255 0 255
-0.0207809 0.09389324 0.4083601 255 0 255
-0.01677015 0.09384221 0.4055685 255 0 255
-0.01581285 0.09387922 0.4056085 255 0 255
0.01029394 0.09460683 0.3942672 255 0 255
0.01959456 0.09488662 0.3864146 255 0 255
0.02252687 0.09482639 0.3810396 255 0 255
0.04101768 0.09550943 0.3564142 255 0 255
0.04286226 0.09562645 0.3539123 255 0 255
-0.06904484 0.09188394 0.3842531 255 0 255
-0.06580427 0.0913308 0.3758275 255 0 255
-0.05878577 0.09109405 0.3766072 255 0 255
-0.05047976 0.09179885 0.3937069 255 0 255
-0.04450458 0.09161761 0.3917227 255 0 255
-0.04284837 0.09167966 0.3930007 255 0 255
-0.02387928 0.09295605 0.4112217 255 0 255
-0.02069695 0.09281457 0.4074272 255 0 255
0.00484236 0.0932698 0.3946439 255 0 255
0.006625022 0.09332679 0.3935566 255 0 255
0.01300208 0.0937826 0.3931293 255 0 255
0.02074295 0.09416937 0.3883582 255 0 255
0.02252602 0.09432548 0.388144 255 0 255
0.03535541 0.0946209 0.3689309 255 0 255
0.03761194 0.09481968 0.3674565 255 0 255
0.04017049 0.09473954 0.3597527 255 0 255
0.04268575 0.09473298 0.353 255 0 255
-0.04956303 0.09081912 0.3939328 255 0 255
-0.04540344 0.09065306 0.3916263 255 0 255
-0.03709853 0.09102949 0.3989216 255 0 255
-0.03629057 0.09109469 0.4000313 255 0 255
-0.02935087 0.09155378 0.4068206 255 0 255
-0.01384379 0.09194133 0.4057996 255 0 255
0.002159582 0.09219296 0.3958085 255 0 255
0.008487622 0.09249473 0.3935103 255 0 255
0.009459804 0.09261996 0.3944491 255 0 255
0.01668449 0.09311096 0.3928659 255 0 255
0.01749939 0.09312113 0.3917831 255 0 255
0.02486176 0.09343042 0.3848867 255 0 255
0.035224 0.09368227 0.3680064 255 0 255
0.03723621 0.09401143 0.3696376 255 0 255
0.03888514 0.09399801 0.3652139 255 0 255
-0.07422589 0.09111062 0.4067608 255 0 255
-0.06937736 0.09032629 0.3925545 255 0 255
-0.06616984 0.08984749 0.3841083 255 0 255
-0.05516443 0.08951893 0.3847096 255 0 255
-0.05242667 0.0896733 0.3893626 255 0 255
-0.050473 0.08984868 0.3938133 255 0 255
-0.02827813 0.0905105 0.4059695 255 0 255
-0.02361899 0.09074106 0.4083491 255 0 255
-0.005178034 0.09096663 0.3989922 255 0 255
-0.003326496 0.09095903 0.396983 255 0 255
0.0003527875 0.09111541 0.3959176 255 0 255
0.005879564 0.09146297 0.39571 255 0 255
0.007720506 0.09158742 0.3956122 255 0 255
0.01048033 0.09178221 0.3954388 255 0 255
0.01844996 0.09224471 0.3917454 255 0 255
0.04279654 0.09311787 0.3531034 255 0 255
0.04705591 0.09350945 0.3478516 255 0 255
0.04753231 0.09353323 0.3466818 255 0 255
0.0497321 0.09384234 0.3460435 255 0 255
-0.06491571 0.08894148 0.386549 255 0 255
-0.0594964 0.08848964 0.3796642 255 0 255
-0.05582901 0.08854452 0.3835871 255 0 255
-0.04937297 0.08882392 0.3930492 255 0 255
-0.04341774 0.08868357 0.3910369 255 0 255
-0.03959312 0.08893421 0.3966659 255 0 255
-0.006083526 0.08998857 0.4000419 255 0 255
0.008680796 0.09068643 0.3956087 255 0 255
0.02223015 0.09166153 0.3923837 255 0 255
0.03342675 0.09148318 0.3623766 255 0 255
0.03811363 0.09253313 0.3736559 255 0 255
0.04039286 0.0924164 0.3639844 255 0 255
0.04232175 0.09228317 0.3543089 255 0 255
0.04285194 0.09231038 0.3531502 255 0 255
-0.0657436 0.08825482 0.3935994 255 0 255
-0.05119034 0.08786376 0.3927487 255 0 255
-0.05027946 0.08785776 0.3929224 255 0 255
-0.04936792 0.08785288 0.3930925 255 0 255
-0.02727845 0.08851013 0.4061513 255 0 255
-0.02454433 0.08867265 0.4083765 255 0 255
-0.0166416 0.08880337 0.4058433 255 0 255
-0.002310489 0.08916098 0.3990656 255 0 255
-0.001376273 0.08921385 0.3990506 255 0 255
0.01049831 0.08980389 0.39454 255 0 255
0.01564531 0.09001858 0.3901199 255 0 255
0.01744473 0.09016447 0.3899475 255 0 255
0.02318675 0.09078845 0.3923211 255 0 255
0.03257102 0.09034412 0.3575123 255 0 255
0.03966002 0.09162682 0.3682904 255 0 255
0.04117434 0.09150581 0.3597691 255 0 255
0.04342962 0.09153443 0.3520336 255 0 255
0.04370317 0.09149857 0.3499041 255 0 255
-0.06090105 0.08686475 0.3855725 255 0 255
-0.05190431 0.08686316 0.3916304 255 0 255
-0.04899998 0.08680792 0.3911666 255 0 255
-0.04097892 0.08685008 0.3935168 255 0 255
-0.03943006 0.08693758 0.395761 255 0 255
-0.03435658 0.08715404 0.4004475 255 0 255
-0.03164013 0.08724099 0.4017567 255 0 255
-0.03069477 0.08725978 0.401855 255 0 255
-0.02812912 0.0874366 0.4051135 255 0 255
-0.01396967 0.08818962 0.4129865 255 0 255
-0.01188858 0.08811438 0.4090474 255 0 255
0.001489321 0.08844411 0.4000256 255 0 255
0.002427524 0.08850174 0.3999961 255 0 255
0.003331131 0.08851719 0.3989645 255 0 255
0.004265251 0.0885768 0.3989279 255 0 255
0.007017001 0.08871798 0.3977987 255 0 255
0.007893196 0.08873718 0.3967502 255 0 255
0.01047488 0.08879808 0.3935861 255 0 255
0.01939141 0.08942039 0.3907976 255 0 255
0.02442583 0.08974825 0.3871797 255 0 255
0.03051046 0.08951487 0.3640283 255 0 255
0.03543513 0.0902333 0.3681931 255 0 255
0.03700779 0.09055318 0.3719532 255 0 255
0.03971547 0.09076216 0.3683325 255 0 255
-0.05400795 0.08582553 0.3881798 255 0 255
-0.05261085 0.08587187 0.3905058 255 0 255
-0.04989926 0.08585004 0.3910331 255 0 255
-0.04413407 0.08577044 0.3900214 255 0 255
-0.03941794 0.08596189 0.3957973 255 0 255
-0.03690408 0.08605671 0.3981542 255 0 255
-0.03151671 0.08621154 0.4008003 255 0 255
-0.01952793 0.08671781 0.4067794 255 0 255
-0.01183221 0.08705918 0.408088 255 0 255
0.0006105651 0.08744436 0.4010896 255 0 255
0.04150376 0.08989839 0.3608217 255 0 255
0.04217503 0.08986615 0.3565599 255 0 255
0.0430181 0.08988849 0.3532707 255 0 255
-0.0627365 0.08510628 0.3893072 255 0 255
-0.0533099 0.08488992 0.389375 255 0 255
-0.05189536 0.08493014 0.3916974 255 0 255
-0.04989349 0.08488739 0.3910646 255 0 255
-0.03608182 0.08511408 0.3992976 255 0 255
-0.03526587 0.08515634 0.4004055 255 0 255
-0.03160476 0.08524932 0.4018277 255 0 255
-0.03065827 0.0852681 0.4019261 255 0 255
-0.003102113 0.0863431 0.40419 255 0 255
0.004380872 0.08665789 0.4000011 255 0 255
0.01568955 0.08714943 0.3892413 255 0 255
0.01649551 0.08718261 0.3881624 255 0 255
0.0446174 0.08921342 0.3498201 255 0 255
-0.06291458 0.0840858 0.386202 255 0 255
-0.05098151 0.08395628 0.3919017 255 0 255
-0.04879986 0.08389447 0.3902781 255 0 255
-0.04277499 0.08393911 0.3933335 255 0 255
-0.04031634 0.08400376 0.3957262 255 0 255
-0.01749563 0.08473732 0.4059465 255 0 255
-0.006924212 0.08528847 0.4092278 255 0 255
0.003550119 0.08567931 0.402067 255 0 255
0.01228373 0.0859975 0.3915665 255 0 255
0.01752973 0.08635716 0.3891015 255 0 255
0.02608615 0.0870379 0.3850665 255 0 255
0.03946467 0.08816443 0.3705692 255 0 255
0.03988188 0.08816886 0.3684377 255 0 255
0.04240444 0.08832593 0.3607025 255 0 255
-0.06671602 0.08325488 0.3862814 255 0 255
-0.06084262 0.08300176 0.381588 255 0 255
-0.06020536 0.08300314 0.3827713 255 0 255
-0.04500818 0.08290472 0.3899543 255 0 255
-0.04291877 0.08299305 0.3943455 255 0 255
-0.04030359 0.08302847 0.3957509 255 0 255
-0.03779339 0.08309553 0.3981186 255 0 255
-0.03523365 0.08317329 0.4004601 255 0 255
-0.02390235 0.08341814 0.401572 255 0 255
-0.02112664 0.08352783 0.402766 255 0 255
-0.02017582 0.08355928 0.4028244 255 0 255
-0.01454176 0.08381929 0.405096 255 0 255
-0.01074703 0.08403404 0.4072049 255 0 255
-0.0001237878 0.08456385 0.4062031 255 0 255
0.007839043 0.08474789 0.3928913 255 0 255
0.01051051 0.0849143 0.3917241 255 0 255
0.01406036 0.08515897 0.3904532 255 0 255
0.01504798 0.0852612 0.3913721 255 0 255
0.02674342 0.08612697 0.382991 255 0 255
0.02775903 0.08624817 0.3838541 255 0 255
0.02936514 0.08638569 0.3826022 255 0 255
0.03111036 0.08656339 0.382326 255 0 255
0.04072503 0.08732739 0.3642026 255 0 255
0.04341875 0.08751414 0.3543326 255 0 255
-0.09053213 0.08383735 0.4575281 255 0 255
-0.07711042 0.08293153 0.4135249 255 0 255
-0.06980876 0.08244953 0.3906465 255 0 255
-0.04860399 0.08196035 0.3893386 255 0 255
-0.0421387 0.08204275 0.3954966 255 0 255
-0.03333095 0.08221123 0.4007031 255 0 255
-0.03154895 0.08226274 0.4019046 255 0 255
-0.02474662 0.08238176 0.4005246 255 0 255
-0.0238038 0.08240841 0.400597 255 0 255
-0.02286075 0.08243616 0.4006659 255 0 255
-0.02009019 0.08254518 0.4018487 255 0 255
-0.0154316 0.08275822 0.4040831 255 0 255
-0.00880782 0.08315576 0.4092608 255 0 255
-0.00392407 0.08342699 0.4102786 255 0 255
-0.002944515 0.0834806 0.4102709 255 0 255
-0.001977401 0.08351336 0.4092597 255 0 255
0.008792455 0.08385985 0.3928616 255 0 255
0.01410398 0.0842157 0.3904769 255 0 255
0.01599939 0.08438703 0.3913151 255 0 255
0.02087859 0.08470058 0.3857896 255 0 255
0.02276814 0.08488908 0.3865722 255 0 255
0.02605182 0.08515767 0.3841285 255 0 255
0.02854262 0.08538268 0.3827596 255 0 255
0.03028987 0.08555881 0.3824904 255 0 255
0.03464838 0.08601746 0.3817579 255 0 255
0.03652534 0.0861595 0.3773477 255 0 255
0.03914311 0.08639837 0.3727538 255 0 255
0.04115084 0.08649784 0.3620954 255 0 255
0.04317054 0.08668849 0.3564886 255 0 255
-0.06718359 0.08132746 0.3810152 255 0 255
-0.05561639 0.08116258 0.3961292 255 0 255
-0.05448968 0.08113779 0.3953405 255 0 255
-0.04606094 0.08100934 0.3908222 255 0 255
-0.03614281 0.08117791 0.4003825 255 0 255
-0.02464466 0.08138022 0.3995458 255 0 255
-0.02175776 0.08144867 0.398754 255 0 255
-0.01536196 0.08174382 0.4031028 255 0 255
-0.003878088 0.08244077 0.4122982 255 0 255
-2.824582E-05 0.08257183 0.4072466 255 0 255
0.00710737 0.08282078 0.3949805 255 0 255
0.0122651 0.08311044 0.3896431 255 0 255
0.02081415 0.08374967 0.3848163 255 0 255
0.02670545 0.0842669 0.3820457 255 0 255
0.03105836 0.08470397 0.3813845 255 0 255
-0.06230792 0.08021575 0.3730139 255 0 255
-0.05488319 0.08017501 0.3973126 255 0 255
-0.04605087 0.08005091 0.3908348 255 0 255
-0.03150991 0.08027241 0.401936 255 0 255
-0.01897738 0.08057369 0.3999393 255 0 255
-0.01437954 0.08078764 0.4031541 255 0 255
-0.006774377 0.08119002 0.4073148 255 0 255
0.03181937 0.08385801 0.3802727 255 0 255
0.0342411 0.08410826 0.3788428 255 0 255
0.04147835 0.08485157 0.3631092 255 0 255
0.04305023 0.08501686 0.3555545 255 0 255
-0.06508578 0.07940308 0.3733162 255 0 255
-0.05978723 0.0792452 0.3736627 255 0 255
-0.05776917 0.07920051 0.3803174 255 0 255
-0.04487322 0.07911196 0.3950961 255 0 255
-0.04240169 0.07912899 0.3975126 255 0 255
-0.03880217 0.07915953 0.3990439 255 0 255
-0.01522248 0.07973941 0.4011299 255 0 255
-0.003814762 0.08036261 0.4103262 255 0 255
-0.002779593 0.08047643 0.4163182 255 0 255
0.0008965547 0.08055773 0.4022539 255 0 255
0.02505868 0.08227465 0.3823162 255 0 255
0.0263903 0.08238351 0.3791051 255 0 255
0.03084856 0.08283921 0.3794406 255 0 255
0.03954046 0.08377732 0.3696961 255 0 255
0.04098023 0.08394905 0.3683659 255 0 255
0.04211305 0.08407982 0.3619658 255 0 255
-0.07843879 0.07874472 0.4069621 255 0 255
-0.05668446 0.07824657 0.383645 255 0 255
-0.0535796 0.07818042 0.4006433 255 0 255
-0.05113351 0.07816095 0.398058 255 0 255
-0.03716309 0.07819531 0.4012829 255 0 255
-0.01974662 0.07857006 0.3979053 255 0 255
-0.01428297 0.07879514 0.4021724 255 0 255
-0.001827308 0.07944475 0.4093155 255 0 255
0.001772826 0.07959881 0.398238 255 0 255
0.002644118 0.07964257 0.3962105 255 0 255
0.006211748 0.07986063 0.3930646 255 0 255
0.008898959 0.0800433 0.3919189 255 0 255
0.01337394 0.0803732 0.390607 255 0 255
0.02007103 0.08090742 0.3849533 255 0 255
0.02917312 0.08175874 0.3797222 255 0 255
0.03400363 0.08226641 0.3768971 255 0 255
0.03588911 0.08247557 0.3775714 255 0 255
0.03759968 0.08266947 0.3772475 255 0 255
0.04206551 0.08323982 0.3578955 255 0 255
0.04246433 0.08330835 0.3526623 255 0 255
0.04275284 0.08335393 0.3505336 255 0 255
-0.05894158 0.07742341 0.3738747 255 0 255
-0.05711615 0.07733152 0.3814969 255 0 255
-0.04848654 0.07715403 0.3995553 255 0 255
-0.03144861 0.07728826 0.4019536 255 0 255
-0.02840731 0.07735191 0.4002479 255 0 255
-0.02549111 0.07742332 0.3995021 255 0 255
-0.01971999 0.07759557 0.3979079 255 0 255
-0.01691389 0.07769553 0.398059 255 0 255
-0.003762499 0.07831342 0.4063377 255 0 255
0.003538926 0.07873013 0.3941838 255 0 255
0.0359436 0.08157884 0.3775781 255 0 255
-0.06788545 0.07678182 0.3735769 255 0 255
-0.05870214 0.07652938 0.3729002 255 0 255
-0.04838014 0.07612406 0.4046439 255 0 255
-0.04406838 0.07618425 0.3962373 255 0 255
-0.03902398 0.07618725 0.4010301 255 0 255
-0.0313223 0.07630019 0.4009571 255 0 255
-0.0008915144 0.07747874 0.4023053 255 0 255
0.004458872 0.0778341 0.3931496 255 0 255
0.01680733 0.07876915 0.3873126 255 0 255
0.02093734 0.07913834 0.3838675 255 0 255
0.02245871 0.07928579 0.381675 255 0 255
0.02567559 0.0796003 0.3792424 255 0 255
0.02912499 0.07994413 0.378742 255 0 255
0.02998607 0.08003274 0.3786086 255 0 255
0.03393741 0.08046836 0.3759216 255 0 255
0.0349643 0.08057441 0.3767537 255 0 255
0.04135873 0.08137615 0.3693651 255 0 255
-0.06733927 0.07589326 0.3716467 255 0 255
-0.06403856 0.07582816 0.3694516 255 0 255
-0.05666258 0.07549559 0.3795373 255 0 255
-0.05384787 0.07528377 0.3924181 255 0 255
-0.05259186 0.07523131 0.3957277 255 0 255
-0.01411872 0.07584178 0.4001706 255 0 255
0.009873596 0.07727039 0.3908668 255 0 255
0.01161959 0.07740786 0.3897478 255 0 255
0.02917597 0.07904568 0.3787408 255 0 255
0.03159709 0.07930896 0.3773439 255 0 255
0.03330877 0.07949324 0.3770552 255 0 255
0.03672511 0.07987438 0.3764379 255 0 255
0.04058894 0.08040825 0.369543 255 0 255
0.04138277 0.08056222 0.3652778 255 0 255
-0.0609677 0.07482123 0.3712859 255 0 255
-0.05600848 0.07454436 0.3806983 255 0 255
-0.05109248 0.07420523 0.3980386 255 0 255
-0.04992412 0.0741347 0.4023198 255 0 255
-0.02345737 0.0745424 0.398637 255 0 255
-0.01125177 0.07498259 0.4002497 255 0 255
0.01075784 0.07640121 0.3898033 255 0 255
0.01256739 0.07653881 0.3896754 255 0 255
0.02255435 0.07746948 0.3816676 255 0 255
0.0333618 0.07860026 0.3770508 255 0 255
0.03725599 0.07906991 0.3743073 255 0 255
-0.06984381 0.07403291 0.3771463 255 0 255
-0.05929259 0.07388282 0.3716931 255 0 255
-0.05555924 0.0735679 0.3828305 255 0 255
-0.05218773 0.07330784 0.3937401 255 0 255
-0.04721102 0.07310253 0.4037892 255 0 255
-0.0457638 0.07304649 0.4070661 255 0 255
-0.04381736 0.07305149 0.4073702 255 0 255
-0.04254992 0.07309318 0.4055386 255 0 255
-0.03924139 0.07316929 0.4029806 255 0 255
-0.01213666 0.07397533 0.3992119 255 0 255
-0.006499353 0.07419991 0.4023114 255 0 255
-0.003631795 0.07433783 0.4033126 255 0 255
-0.00268408 0.07440489 0.4023058 255 0 255
0.004537825 0.0749914 0.3921285 255 0 255
0.006414835 0.07510323 0.3930475 255 0 255
0.009958547 0.07538525 0.3908493 255 0 255
0.0194191 0.07622526 0.3850377 255 0 255
0.02019675 0.07631017 0.3839485 255 0 255
0.0209664 0.07639547 0.3828567 255 0 255
0.02682738 0.07698388 0.3800973 255 0 255
0.03255844 0.07761428 0.3771887 255 0 255
0.03880443 0.07838246 0.3729874 255 0 255
0.04128456 0.07917847 0.3499292 255 0 255
-0.05791974 0.07281867 0.3771486 255 0 255
-0.05013039 0.07222217 0.3981797 255 0 255
-0.04527392 0.07209404 0.4040857 255 0 255
-0.02434555 0.07256067 0.3985343 255 0 255
-0.01770656 0.07279228 0.3979673 255 0 255
-0.01304692 0.07295769 0.3991662 255 0 255
0.008180715 0.07431091 0.3909421 255 0 255
0.009091112 0.07437641 0.3908903 255 0 255
0.01857825 0.07522764 0.3851162 255 0 255
0.02265036 0.07565404 0.3816456 255 0 255
0.02831849 0.07627005 0.3778562 255 0 255
0.03909983 0.07760765 0.3698675 255 0 255
0.03952064 0.07770926 0.3677386 255 0 255
0.04039058 0.07810383 0.3562962 255 0 255
-0.05550582 0.07158457 0.3868915 255 0 255
-0.05143118 0.07132859 0.39486 255 0 255
-0.04266139 0.07104132 0.4064863 255 0 255
-0.02740871 0.07143334 0.4012614 255 0 255
-0.0243974 0.07155796 0.3995099 255 0 255
-0.01767712 0.07181927 0.3979467 255 0 255
-0.01112868 0.0720638 0.3992009 255 0 255
-0.009275541 0.07210495 0.4012408 255 0 255
-0.002649164 0.07251665 0.398271 255 0 255
0.009133513 0.0734343 0.3908721 255 0 255
0.02357326 0.07482868 0.3815219 255 0 255
0.02592224 0.0751053 0.3791986 255 0 255
0.0316432 0.07574556 0.3763176 255 0 255
-0.07761952 0.07048031 0.4039692 255 0 255
-0.05813712 0.07096726 0.3780759 255 0 255
-0.05501345 0.0705623 0.3890131 255 0 255
-0.04069787 0.0700371 0.4067405 255 0 255
-0.03901309 0.06999312 0.4089884 255 0 255
-0.03618549 0.06999782 0.410355 255 0 255
-0.02948044 0.07034156 0.4030463 255 0 255
-0.02842829 0.07039253 0.4021434 255 0 255
-0.02437086 0.07057706 0.3994849 255 0 255
-0.01759631 0.07087515 0.396924 255 0 255
-0.01479021 0.07098271 0.3970543 255 0 255
-0.01389024 0.07099289 0.3980896 255 0 255
-0.001700091 0.07164998 0.3962382 255 0 255
0.006490161 0.072275 0.3919933 255 0 255
0.008208429 0.07244942 0.3899037 255 0 255
0.01093019 0.07264949 0.3897388 255 0 255
0.01609417 0.07314053 0.3863283 255 0 255
0.02110881 0.07366028 0.3828068 255 0 255
0.03860833 0.07603542 0.3628135 255 0 255
-0.06084589 0.07024445 0.3743022 255 0 255
-0.05287004 0.06946644 0.3924818 255 0 255
-0.0487962 0.06932263 0.3963043 255 0 255
-0.04675824 0.06934938 0.3956474 255 0 255
-0.03886103 0.06900353 0.4079668 255 0 255
-0.03179159 0.06917031 0.4067971 255 0 255
-0.003520896 0.07055138 0.3972271 255 0 255
-0.00259482 0.07063349 0.3962212 255 0 255
0.009218808 0.07155087 0.3908244 255 0 255
0.01524554 0.07214241 0.3863818 255 0 255
0.02354545 0.07303628 0.3804864 255 0 255
0.030892 0.07387687 0.3764148 255 0 255
0.03510574 0.07451879 0.37062 255 0 255
0.03912545 0.07559635 0.3534919 255 0 255
-0.05984989 0.06918264 0.3776032 255 0 255
-0.05921999 0.06912255 0.3787828 255 0 255
-0.05357806 0.06854972 0.3912844 255 0 255
-0.04091938 0.06819143 0.4015913 255 0 255
-0.03405117 0.06800961 0.4095283 255 0 255
-0.02768835 0.06831686 0.4051549 255 0 255
-0.02550708 0.06847804 0.4023347 255 0 255
-0.01476644 0.06901024 0.3979931 255 0 255
-0.009154806 0.06918876 0.4001572 255 0 255
0.003747807 0.07026183 0.3900532 255 0 255
0.01268067 0.07097352 0.3875638 255 0 255
0.01350045 0.07107348 0.3864993 255 0 255
0.0234686 0.0721589 0.3794676 255 0 255
0.02579735 0.07245907 0.3771486 255 0 255
0.02651565 0.07256813 0.3760405 255 0 255
-0.05498237 0.06769888 0.3889137 255 0 255
-0.05119215 0.06747076 0.3937516 255 0 255
-0.04621988 0.06752639 0.3926224 255 0 255
-0.0423588 0.06731456 0.3983072 255 0 255
-0.03673494 0.06702839 0.4071545 255 0 255
-0.03501232 0.0669707 0.409376 255 0 255
-0.02669284 0.06733676 0.4052031 255 0 255
-0.02056324 0.06770965 0.4006541 255 0 255
-0.01760698 0.06788959 0.3988238 255 0 255
-0.0119389 0.06811817 0.3990552 255 0 255
0.001110088 0.06907634 0.3920987 255 0 255
0.02897674 0.07197171 0.3746496 255 0 255
0.03083577 0.07212593 0.3753724 255 0 255
0.0316883 0.07221779 0.375235 255 0 255
0.03254028 0.07231072 0.3750942 255 0 255
-0.06030937 0.06726519 0.3794695 255 0 255
-0.04896494 0.06657772 0.392092 255 0 255
-0.04804518 0.06657176 0.3922587 255 0 255
-0.04312907 0.06637543 0.3971336 255 0 255
-0.0290672 0.06605844 0.4099594 255 0 255
-0.005283546 0.0675916 0.396125 255 0 255
0.004780266 0.06840698 0.3909471 255 0 255
0.009226203 0.06880463 0.38873 255 0 255
0.01796842 0.06963264 0.3850468 255 0 255
0.0342511 0.07184996 0.3697024 255 0 255
0.03497967 0.07217377 0.3644881 255 0 255
0.03732608 0.07304476 0.3517911 255 0 255
-0.0559161 0.06602348 0.3845372 255 0 255
-0.04676338 0.06570539 0.39041 255 0 255
-0.03811963 0.06517805 0.4028533 255 0 255
-0.03288275 0.06500647 0.4085174 255 0 255
-0.02913236 0.06498579 0.4109074 255 0 255
0.007510602 0.06769828 0.3897857 255 0 255
0.0242238 0.06962206 0.3772742 255 0 255
-0.03713515 0.06418938 0.4029293 255 0 255
-0.03520953 0.06421296 0.4031698 255 0 255
-0.03264135 0.0640958 0.4064814 255 0 255
-0.02811152 0.06398223 0.4109483 255 0 255
-0.01666006 0.06489485 0.4007351 255 0 255
-0.01281382 0.06510083 0.3998931 255 0 255
-0.009012458 0.06527405 0.3999909 255 0 255
-0.008050166 0.06537115 0.3990077 255 0 255
-0.002437941 0.06597061 0.3930321 255 0 255
0.003032676 0.0664042 0.3909256 255 0 255
0.01457659 0.06745077 0.3862771 255 0 255
0.02427258 0.06873295 0.3772334 255 0 255
0.02500018 0.06885729 0.3761317 255 0 255
0.02585747 0.06894234 0.3760175 255 0 255
0.0281281 0.06928089 0.3736789 255 0 255
0.03721903 0.07148904 0.350747 255 0 255
-0.06288774 0.06387383 0.3899983 255 0 255
-0.05331516 0.06379946 0.3900824 255 0 255
-0.05259639 0.06372906 0.3912448 255 0 255
-0.04928707 0.0638742 0.3888328 255 0 255
-0.04655775 0.06385569 0.389327 255 0 255
-0.04564676 0.06385195 0.3894849 255 0 255
-0.04338232 0.0636727 0.3928951 255 0 255
-0.03944505 0.06339853 0.3985326 255 0 255
-0.03314549 0.06330112 0.4023502 255 0 255
-0.03229228 0.06325927 0.4034498 255 0 255
-0.031431 0.06321879 0.4045466 255 0 255
-0.01671997 0.06380009 0.402678 255 0 255
-0.01185581 0.06410884 0.4008697 255 0 255
-0.009927128 0.06425103 0.3999206 255 0 255
-0.00331597 0.06491527 0.3939873 255 0 255
0.01019702 0.06612578 0.387547 255 0 255
0.01889754 0.06700234 0.3838374 255 0 255
0.02358558 0.06771608 0.378288 255 0 255
0.0337519 0.06912868 0.3707169 255 0 255
0.03727013 0.07069978 0.350709 255 0 255
-0.0605904 0.06298546 0.3884348 255 0 255
-0.05744307 0.06331226 0.3830143 255 0 255
-0.05545327 0.06333689 0.3824342 255 0 255
-0.05498868 0.06319648 0.3845771 255 0 255
-0.05238659 0.06283043 0.3902099 255 0 255
-0.04181166 0.0625895 0.3951011 255 0 255
-0.01877231 0.06255826 0.4055111 255 0 255
0.0003422159 0.06440649 0.3898964 255 0 255
0.002167162 0.0645204 0.3898534 255 0 255
0.004030178 0.06458322 0.3907943 255 0 255
0.02289022 0.06669159 0.3793361 255 0 255
0.02437036 0.0669558 0.377141 255 0 255
0.02837816 0.06748341 0.3745762 255 0 255
0.0368132 0.06951973 0.3558735 255 0 255
-0.06355731 0.06118027 0.4010008 255 0 255
-0.05107325 0.06199494 0.3883717 255 0 255
-0.04907135 0.06204234 0.3877377 255 0 255
-0.0483451 0.06196859 0.3888867 255 0 255
-0.04164148 0.06168636 0.3940545 255 0 255
-0.04100252 0.06155717 0.3961682 255 0 255
-0.03477885 0.06141722 0.4000251 255 0 255
-0.02731753 0.06142842 0.4028204 255 0 255
-0.02643804 0.06138663 0.4039 255 0 255
-0.01585932 0.061602 0.4065948 255 0 255
-0.01480444 0.06176875 0.4046424 255 0 255
-0.008887805 0.06240457 0.3988277 255 0 255
-0.001428785 0.06329943 0.3908673 255 0 255
0.003155193 0.06358309 0.3907686 255 0 255
0.01111845 0.06439789 0.3863878 255 0 255
0.01454383 0.06479602 0.3841358 255 0 255
0.01721398 0.06502036 0.383905 255 0 255
0.0213105 0.06557785 0.380477 255 0 255
-0.0440883 0.06085937 0.3915824 255 0 255
-0.03178364 0.06054562 0.3992987 255 0 255
-0.008850978 0.06143185 0.3987651 255 0 255
0.005899891 0.06289139 0.389611 255 0 255
0.008520529 0.06321062 0.3874867 255 0 255
0.02446846 0.06518009 0.3770345 255 0 255
0.02747938 0.06569143 0.373607 255 0 255
0.0328981 0.06648887 0.3697293 255 0 255
0.03671328 0.06795072 0.354801 255 0 255
-0.05669825 0.06011213 0.3880937 255 0 255
-0.05046765 0.0603209 0.3853061 255 0 255
-0.0481307 0.06014604 0.3877765 255 0 255
-0.04110462 0.0595374 0.3970227 255 0 255
-0.03758876 0.05941471 0.3995295 255 0 255
-0.02890091 0.05961948 0.399527 255 0 255
-0.02604174 0.05968557 0.3997911 255 0 255
-0.02508805 0.05971012 0.3998719 255 0 255
-0.01877943 0.05941052 0.4073082 255 0 255
-0.01285162 0.05971413 0.406576 255 0 255
0.01113724 0.06261881 0.3852724 255 0 255
0.02822926 0.06496368 0.37244 255 0 255
0.03496817 0.06639148 0.3622163 255 0 255
-0.04865326 0.05936616 0.3855792 255 0 255
-0.04773265 0.05896142 0.3908146 255 0 255
-0.04122769 0.05848313 0.397937 255 0 255
-0.03960763 0.05833713 0.4001847 255 0 255
-0.01781178 0.05836181 0.4082842 255 0 255
-0.003139291 0.06030051 0.3916879 255 0 255
-0.001294839 0.06040685 0.3916731 255 0 255
0.01041721 0.06149315 0.3872545 255 0 255
0.01207818 0.06177099 0.3851471 255 0 255
0.01289675 0.06191081 0.3840891 255 0 255
0.01548308 0.06219774 0.3828857 255 0 255
0.0163705 0.06227277 0.3828093 255 0 255
0.01725758 0.06234896 0.3827295 255 0 255
0.01903071 0.06250478 0.3825599 255 0 255
0.02283766 0.06323774 0.3771259 255 0 255
0.02601603 0.06370479 0.3747121 255 0 255
0.02997143 0.06427414 0.3721258 255 0 255
0.03544164 0.06577036 0.3600487 255 0 255
0.03623788 0.06619011 0.3558274 255 0 255
-0.08112878 0.05090953 0.4754046 255 0 255
-0.060258 0.05760015 0.3953197 255 0 255
-0.0509303 0.05972838 0.3698115 255 0 255
-0.04279323 0.05766271 0.3956039 255 0 255
-0.02486719 0.05791151 0.3977377 255 0 255
-0.02311755 0.05780224 0.3998756 255 0 255
-0.01375818 0.05766512 0.4063917 255 0 255
-0.005874526 0.05905044 0.393606 255 0 255
-0.00217758 0.05940996 0.3916106 255 0 255
0.00949396 0.06057337 0.3862432 255 0 255
0.01122612 0.06078383 0.3851382 255 0 255
0.02214081 0.06219921 0.3781515 255 0 255
0.02886717 0.06344496 0.3702186 255 0 255
0.03238762 0.06374855 0.3706742 255 0 255
0.03645958 0.06565902 0.3526816 255 0 255
-0.03846824 0.05645506 0.3991723 255 0 255
-0.02673098 0.05689225 0.3974947 255 0 255
-0.0230136 0.05690741 0.3988025 255 0 255
-0.01568245 0.05658217 0.40623 255 0 255
-0.007719212 0.05783924 0.3955024 255 0 255
-0.00677384 0.05796893 0.3945179 255 0 255
-0.003069731 0.05849586 0.3905442 255 0 255
-0.002150501 0.05854842 0.3905386 255 0 255
0.005156499 0.05909137 0.3893732 255 0 255
0.006882641 0.05937605 0.3873053 255 0 255
0.0146869 0.06030688 0.382819 255 0 255
0.01646361 0.06045659 0.38267 255 0 255
0.02553025 0.06171945 0.3766682 255 0 255
0.02611534 0.06194881 0.3745788 255 0 255
0.03376452 0.06320989 0.3683595 255 0 255
-0.05211303 0.05856471 0.3632892 255 0 255
-0.04883956 0.05887404 0.3599199 255 0 255
-0.0326 0.05562947 0.3988133 255 0 255
-0.02575357 0.05594401 0.3974959 255 0 255
-0.01746044 0.05576859 0.4030647 255 0 255
-0.01455282 0.05588162 0.4032011 255 0 255
-0.0002717667 0.05771911 0.3904385 255 0 255
0.001566946 0.05783289 0.3904032 255 0 255
0.004284361 0.05809601 0.3893285 255 0 255
0.007832485 0.05851602 0.3871849 255 0 255
0.01303249 0.05917308 0.3838729 255 0 255
0.01464679 0.05947895 0.3817507 255 0 255
0.03165013 0.06192647 0.3706743 255 0 255
0.03521033 0.06343831 0.3579014 255 0 255
0.03615249 0.06420416 0.3506036 255 0 255
-0.06511953 0.05389523 0.4031277 255 0 255
-0.04920741 0.05824103 0.3577282 255 0 255
-0.04761739 0.0582124 0.3580618 255 0 255
-0.04641424 0.05800079 0.3603362 255 0 255
-0.03855123 0.05439597 0.3999868 255 0 255
-0.03341065 0.05473004 0.3976271 255 0 255
-0.02961141 0.05479492 0.3980429 255 0 255
-0.0266707 0.05495005 0.3973255 255 0 255
-0.02009053 0.05504594 0.3988319 255 0 255
-0.01641066 0.05490642 0.4020313 255 0 255
-0.00208383 0.05676131 0.3893815 255 0 255
0.02077039 0.05920159 0.3801048 255 0 255
0.02463219 0.05994193 0.3756422 255 0 255
0.0306966 0.06104584 0.3697509 255 0 255
0.03506817 0.06269644 0.3568539 255 0 255
-0.04719765 0.05758071 0.356035 255 0 255
-0.04559286 0.0571553 0.3604155 255 0 255
-0.0448968 0.0566485 0.3656131 255 0 255
-0.01719453 0.05417185 0.3989084 255 0 255
-0.002960453 0.05577523 0.389301 255 0 255
0.001621609 0.05605068 0.3892397 255 0 255
0.02233518 0.05863897 0.3778515 255 0 255
0.02990831 0.06009413 0.3698039 255 0 255
0.03511908 0.06188602 0.3567818 255 0 255
-0.04833894 0.05699374 0.3536793 255 0 255
-0.04639296 0.05674955 0.3561155 255 0 255
-0.04441098 0.05558308 0.3676387 255 0 255
-0.0275575 0.05298791 0.3970534 255 0 255
-0.02566042 0.05303287 0.397225 255 0 255
-0.01715931 0.05319824 0.3988143 255 0 255
-0.01529032 0.0531719 0.3999018 255 0 255
-0.0123543 0.05348982 0.3980261 255 0 255
-0.005674013 0.05459337 0.3902018 255 0 255
-0.003837713 0.0547906 0.3892133 255 0 255
0.01316941 0.05643938 0.3836242 255 0 255
0.01478481 0.0567699 0.3815046 255 0 255
0.01655686 0.05692049 0.3813567 255 0 255
0.02399722 0.05800718 0.3765745 255 0 255
0.02473102 0.05818065 0.37548 255 0 255
0.02559334 0.05826741 0.37537 255 0 255
0.02645517 0.05835529 0.3752567 255 0 255
-0.05810354 0.05399362 0.3738186 255 0 255
-0.05450195 0.0552271 0.3624061 255 0 255
-0.04295849 0.05163147 0.3970352 255 0 255
-0.02942323 0.0519787 0.3967694 255 0 255
-0.02176169 0.05227312 0.3964354 255 0 255
-0.01032709 0.05301719 0.3940081 255 0 255
-0.007487482 0.05345927 0.391082 255 0 255
0.0007631815 0.05422861 0.3880819 255 0 255
0.002589365 0.05434488 0.3880405 255 0 255
0.01059659 0.05521948 0.3847049 255 0 255
0.01394418 0.0557941 0.3814842 255 0 255
0.01837529 0.05617448 0.3811066 255 0 255
0.02330453 0.05694588 0.3775793 255 0 255
0.02564318 0.05738767 0.3752837 255 0 255
0.02916933 0.0582845 0.3697663 255 0 255
0.02985011 0.05846478 0.3686565 255 0 255
0.03068634 0.05855721 0.3685272 255 0 255
0.03319168 0.0588411 0.3681203 255 0 255
0.03431108 0.05929367 0.364895 255 0 255
0.03522089 0.06026645 0.356628 255 0 255
0.03635398 0.06106002 0.3503185 255 0 255
-0.04275148 0.05208239 0.3838771 255 0 255
-0.04198362 0.05065672 0.3970777 255 0 255
-0.03967869 0.05022995 0.4014311 255 0 255
-0.009334761 0.05221521 0.3929375 255 0 255
-0.007458547 0.05241285 0.3919783 255 0 255
0.0008047023 0.05330095 0.3879856 255 0 255
0.001718256 0.05335863 0.3879667 255 0 255
0.002631645 0.05341747 0.3879444 255 0 255
0.004458091 0.05353888 0.3878893 255 0 255
0.01070945 0.05420415 0.3856031 255 0 255
0.01665092 0.05511761 0.381175 255 0 255
0.01743858 0.05529358 0.380106 255 0 255
0.01930863 0.05535347 0.3809286 255 0 255
0.02409604 0.05623947 0.3763973 255 0 255
0.02669656 0.05650231 0.3760663 255 0 255
0.03341892 0.05789706 0.3690141 255 0 255
0.03604261 0.06000334 0.3523416 255 0 255
-0.04594656 0.05452338 0.3539082 255 0 255
-0.04334188 0.05310563 0.3665377 255 0 255
-0.04033709 0.04946033 0.3992184 255 0 255
-0.03315417 0.04997739 0.396147 255 0 255
0.02101334 0.05471797 0.3796634 255 0 255
0.03413026 0.05723233 0.3678021 255 0 255
0.03459803 0.05751827 0.3656999 255 0 255
0.03532273 0.05864866 0.3564613 255 0 255
0.03589101 0.05930216 0.3512834 255 0 255
-0.05782513 0.05142682 0.3725571 255 0 255
-0.04863049 0.0540074 0.3512214 255 0 255
-0.0478571 0.05399117 0.3513877 255 0 255
-0.04407122 0.05285122 0.3612566 255 0 255
-0.04249297 0.051651 0.3716249 255 0 255
-0.04166523 0.04964525 0.3888636 255 0 255
-0.04119013 0.04929374 0.3919503 255 0 255
-0.04002864 0.04871229 0.3971406 255 0 255
-0.03526201 0.04875072 0.3977798 255 0 255
-0.02828722 0.04920998 0.3955585 255 0 255
-0.01786794 0.0495056 0.3963633 255 0 255
-0.01021275 0.05016138 0.3936986 255 0 255
-0.008310611 0.05047931 0.3917544 255 0 255
-2.605328E-05 0.0513905 0.3877975 255 0 255
0.002716796 0.05156424 0.3877411 255 0 255
0.02182516 0.0540107 0.378482 255 0 255
0.03573892 0.0586092 0.3502228 255 0 255
-0.04669461 0.05291951 0.3535613 255 0 255
-0.04491418 0.0525194 0.356953 255 0 255
-0.04430429 0.052388 0.3580807 255 0 255
-0.02533323 0.04843248 0.3947186 255 0 255
-0.02438997 0.04845669 0.3947986 255 0 255
-0.01494443 0.0487694 0.3954038 255 0 255
-0.01111233 0.04916743 0.3935614 255 0 255
-0.00455418 0.04996431 0.3897012 255 0 255
0.02511317 0.05367878 0.3759985 255 0 255
0.02584329 0.05387367 0.3749037 255 0 255
0.02742453 0.0541588 0.373691 255 0 255
0.03599158 0.05772615 0.3511084 255 0 255
-0.06011135 0.04840586 0.381991 255 0 255
-0.05533747 0.0504947 0.3657851 255 0 255
-0.04782354 0.05239141 0.3511957 255 0 255
-0.04667682 0.05211179 0.3534628 255 0 255
-0.04054528 0.04788624 0.387798 255 0 255
-0.03847409 0.04726999 0.393112 255 0 255
-0.03753583 0.04727615 0.3932413 255 0 255
-0.02926784 0.04713999 0.3962218 255 0 255
-0.02831771 0.04715919 0.3963167 255 0 255
-0.02443529 0.04737349 0.3956717 255 0 255
-0.008219406 0.04871609 0.390539 255 0 255
-0.005436933 0.04898034 0.3895836 255 0 255
0.01089208 0.05053665 0.3851878 255 0 255
0.01871863 0.05156179 0.3815965 255 0 255
0.02038885 0.05183807 0.3804347 255 0 255
0.02116018 0.05203383 0.3793558 255 0 255
0.02818475 0.05348648 0.3724864 255 0 255
0.03380416 0.05436691 0.3696109 255 0 255
0.03428728 0.05467765 0.3675122 255 0 255
0.03546982 0.05673809 0.3521395 255 0 255
0.03583897 0.05704188 0.3500425 255 0 255
-0.0531425 0.05038128 0.3600722 255 0 255
-0.04978762 0.05136937 0.3526946 255 0 255
-0.04607255 0.05116214 0.3544921 255 0 255
-0.04382849 0.05047323 0.3599764 255 0 255
-0.04337617 0.0502066 0.362076 255 0 255
-0.04242564 0.04902501 0.3713051 255 0 255
-0.04222513 0.0485039 0.3753611 255 0 255
-0.03945687 0.04707974 0.3868361 255 0 255
-0.03145263 0.04575267 0.3988584 255 0 255
-0.03049126 0.04576946 0.3989616 255 0 255
-0.01291273 0.04718465 0.3932648 255 0 255
-0.007252642 0.04782478 0.3904383 255 0 255
0.01267254 0.04988497 0.3839698 255 0 255
0.01528711 0.0502279 0.3827831 255 0 255
0.01707957 0.05038252 0.382635 255 0 255
0.02434435 0.05182897 0.3758931 255 0 255
0.03047673 0.05312226 0.3700453 255 0 255
0.03216785 0.05331304 0.3697823 255 0 255
-0.05143294 0.05005265 0.3562813 255 0 255
-0.03914179 0.04641267 0.384754 255 0 255
-0.03668356 0.04616008 0.387104 255 0 255
-0.03615315 0.04576783 0.390175 255 0 255
-0.01193536 0.04627607 0.3931765 255 0 255
-0.005356158 0.04711371 0.3893481 255 0 255
-0.00442924 0.04703489 0.3903452 255 0 255
0.008264956 0.04849922 0.3851056 255 0 255
0.01181737 0.04890191 0.3839129 255 0 255
0.01792392 0.04967799 0.3814534 255 0 255
0.02757651 0.05154191 0.3733713 255 0 255
0.03205068 0.05256939 0.3686953 255 0 255
0.03557027 0.05515669 0.3519446 255 0 255
-0.04521552 0.0489694 0.3584783 255 0 255
-0.04415117 0.04853827 0.3617046 255 0 255
-0.04092843 0.04548483 0.3843564 255 0 255
-0.01863549 0.0446624 0.3957078 255 0 255
-0.009045059 0.04572525 0.3911495 255 0 255
-0.006239745 0.04613231 0.3892157 255 0 255
-0.004387996 0.04609863 0.3902215 255 0 255
0.006495615 0.04745221 0.3850662 255 0 255
0.01276594 0.04806417 0.3837344 255 0 255
0.01886449 0.04885723 0.3812534 255 0 255
0.01975631 0.04893885 0.3811681 255 0 255
0.02282673 0.04977218 0.3768546 255 0 255
0.02762726 0.05067071 0.3732578 255 0 255
0.02888488 0.05121742 0.3700754 255 0 255
0.0321024 0.05171527 0.3685844 255 0 255
0.03464379 0.05382455 0.3550555 255 0 255
-0.03545234 0.04458344 0.3850107 255 0 255
-0.03479161 0.04430981 0.3870934 255 0 255
-0.01574598 0.04380672 0.3957327 255 0 255
-0.01475545 0.04398298 0.3947882 255 0 255
0.00381603 0.0463482 0.3850378 255 0 255
0.0110076 0.04701045 0.3837257 255 0 255
0.01363406 0.04736004 0.382561 255 0 255
0.01802077 0.04787626 0.3812138 255 0 255
0.02767806 0.04980006 0.3731408 255 0 255
0.02838803 0.05001712 0.3720416 255 0 255
0.03046884 0.05067024 0.3687314 255 0 255
0.03215412 0.05086169 0.3684701 255 0 255
0.03348279 0.05130133 0.3662428 255 0 255
-0.04698104 0.04719931 0.3588995 255 0 255
-0.03339147 0.04281913 0.3911204 255 0 255
-0.02449685 0.04213693 0.397992 255 0 255
-0.00153361 0.04452757 0.3889692 255 0 255
0.01015061 0.04603075 0.3836509 255 0 255
0.01806935 0.04697631 0.3810886 255 0 255
0.02454419 0.0483104 0.3754267 255 0 255
0.02614518 0.04861866 0.3742291 255 0 255
-0.04481277 0.04543249 0.3652362 255 0 255
-0.04097845 0.04345886 0.3789386 255 0 255
-0.03728397 0.04361227 0.3784963 255 0 255
-0.0356434 0.04347314 0.3797237 255 0 255
-0.02612648 0.04156261 0.3947288 255 0 255
-0.02260753 0.04107175 0.3989901 255 0 255
-0.01471703 0.04192609 0.395504 255 0 255
0.003903914 0.04452002 0.3847784 255 0 255
0.01290698 0.04533745 0.3833543 255 0 255
0.02057179 0.04659662 0.3787361 255 0 255
0.02633498 0.04761101 0.3750857 255 0 255
0.02919188 0.04851151 0.3706986 255 0 255
0.03340887 0.04974201 0.3650309 255 0 255
0.03519063 0.05177452 0.3526353 255 0 255
-0.03711612 0.04286584 0.3773834 255 0 255
-0.03497929 0.04227111 0.3816677 255 0 255
-0.03432835 0.04197378 0.3837456 255 0 255
-0.02855046 0.04115229 0.3903779 255 0 255
-0.02771036 0.0410188 0.3914551 255 0 255
-0.002373513 0.04261343 0.3887019 255 0 255
-0.001463487 0.04281573 0.3877085 255 0 255
0.002098052 0.04363287 0.3837011 255 0 255
0.003038691 0.04354581 0.3846683 255 0 255
0.007529736 0.04400891 0.3835218 255 0 255
0.009338857 0.04414424 0.3834349 255 0 255
0.01295423 0.04442978 0.3832205 255 0 255
0.01895547 0.04540052 0.3797616 255 0 255
0.02226964 0.04601547 0.3774371 255 0 255
0.02551536 0.0466437 0.3750665 255 0 255
0.02869199 0.04728467 0.3726511 255 0 255
0.03346051 0.04890231 0.3649083 255 0 255
0.03524078 0.05098258 0.3525198 255 0 255
-0.05184319 0.04289104 0.369612 255 0 255
-0.04253705 0.04181605 0.3774022 255 0 255
-0.03545323 0.04182391 0.3784711 255 0 255
-0.02494296 0.03998134 0.3925543 255 0 255
-0.02400029 0.04000547 0.3926343 255 0 255
-0.02225378 0.03974668 0.3947545 255 0 255
-0.01871898 0.03909281 0.3999453 255 0 255
-0.01663622 0.03962717 0.397095 255 0 255
-0.01456069 0.04031963 0.3932406 255 0 255
-0.006027167 0.04178469 0.3865674 255 0 255
0.0003762617 0.04230582 0.3855719 255 0 255
0.004902053 0.0427568 0.3844764 255 0 255
0.005811464 0.04282052 0.3844447 255 0 255
0.006720737 0.04288552 0.3844097 255 0 255
0.01119378 0.04337713 0.3831969 255 0 255
0.03302989 0.04768943 0.3668687 255 0 255
0.03603386 0.05092677 0.3482269 255 0 255
-0.04787933 0.0430892 0.3632326 255 0 255
-0.04359582 0.04157147 0.3730713 255 0 255
-0.03691948 0.04123769 0.3761277 255 0 255
-0.03106569 0.03954127 0.3878225 255 0 255
-0.02736267 0.03960769 0.3882131 255 0 255
-0.02388676 0.03921599 0.391501 255 0 255
-0.02126513 0.03881807 0.3946741 255 0 255
-0.01555126 0.03901628 0.3950199 255 0 255
-0.008756701 0.04056676 0.3873622 255 0 255
-0.0069044 0.04081594 0.3864105 255 0 255
-0.005985851 0.0408638 0.3864233 255 0 255
