ply
format ascii 1.0
Comment Generated by Floating Hands
element vertex 1112
Comment Left: (0.0, 0.0, 0.0)
Comment Right: (0.0, -0.1, 0.4)
Comment Time: 2023-05-01 08:47:13,509
property double x
property double y
property double z
property uchar red
property uchar green
property uchar blue
end_header
-0.02087649 -0.07410777 0.3733195 255 0 255
-0.008146722 -0.07724094 0.3818997 255 0 255
0.0186937 -0.07734023 0.3807695 255 0 255
-0.07737261 -0.06430112 0.3481637 255 0 255
-0.07555238 -0.06419989 0.3475461 255 0 255
-0.06850644 -0.06531786 0.3497392 255 0 255
-0.04099484 -0.07530442 0.3761045 255 0 255
-0.03452905 -0.07494999 0.3743085 255 0 255
-0.02455439 -0.0745997 0.3722452 255 0 255
-0.02278325 -0.07431634 0.3712243 255 0 255
-0.019081 -0.07499096 0.3729368 255 0 255
-0.01610508 -0.07626925 0.3765518 255 0 255
-0.008259608 -0.07782846 0.3806583 255 0 255
0.006503774 -0.08101882 0.3893503 255 0 255
0.01738166 -0.07348367 0.3661842 255 0 255
-0.07659553 -0.0651635 0.3480697 255 0 255
-0.07498742 -0.06535818 0.3483764 255 0 255
-0.06934021 -0.06599854 0.3493573 255 0 255
-0.06674041 -0.06594723 0.3487972 255 0 255
-0.06463806 -0.06680385 0.3510216 255 0 255
-0.0624848 -0.06765319 0.3532257 255 0 255
-0.06180377 -0.06803755 0.3542692 255 0 255
-0.06028079 -0.06849487 0.3554089 255 0 255
-0.05366968 -0.07190742 0.3646584 255 0 255
-0.05122958 -0.07271741 0.3667524 255 0 255
-0.05043365 -0.07308976 0.3677601 255 0 255
-0.04695955 -0.07362674 0.3689236 255 0 255
-0.04613489 -0.07399365 0.3699169 255 0 255
-0.03733975 -0.07633911 0.375894 255 0 255
-0.03180832 -0.07527281 0.3721188 255 0 255
-0.02728673 -0.0753993 0.3720437 255 0 255
-0.0218626 -0.07550289 0.3718459 255 0 255
-0.01506629 -0.07778796 0.3780847 255 0 255
-0.01320691 -0.07779039 0.3779429 255 0 255
-0.01033249 -0.07810137 0.3786488 255 0 255
-0.009308837 -0.07841442 0.3795059 255 0 255
0.001076977 -0.08081914 0.3859656 255 0 255
0.004107087 -0.081063 0.3865088 255 0 255
0.006337349 -0.08164071 0.3881001 255 0 255
0.007309579 -0.08160943 0.3879531 255 0 255
0.01506563 -0.08130225 0.3866506 255 0 255
0.01680552 -0.08089384 0.3853609 255 0 255
0.01892753 -0.08111067 0.3859155 255 0 255
0.0196871 -0.08074367 0.3847962 255 0 255
-0.07098185 -0.06658696 0.3488357 255 0 255
-0.06400235 -0.06796553 0.3518116 255 0 255
-0.06099864 -0.06889588 0.3541071 255 0 255
-0.04436857 -0.07493935 0.3697161 255 0 255
-0.03092618 -0.07583533 0.370875 255 0 255
-0.03002562 -0.07586217 0.3708631 255 0 255
-0.02730748 -0.07625562 0.3717549 255 0 255
-0.02192269 -0.07603798 0.3706108 255 0 255
-0.0209346 -0.07669465 0.3724578 255 0 255
-0.01810057 -0.07736753 0.3741941 255 0 255
-0.01712583 -0.07769641 0.3750805 255 0 255
-0.007356634 -0.07961349 0.3799621 255 0 255
-0.006314338 -0.07992561 0.3808058 255 0 255
-0.002070752 -0.08115766 0.384138 255 0 255
0.004089746 -0.08198983 0.3861952 255 0 255
-0.08009034 -0.06658554 0.3478326 255 0 255
-0.07928515 -0.06669 0.3479996 255 0 255
-0.07057311 -0.068064 0.3505737 255 0 255
-0.06957361 -0.06784082 0.3497738 255 0 255
-0.06335862 -0.0691335 0.3525938 255 0 255
-0.05949517 -0.07014208 0.3549722 255 0 255
-0.0571105 -0.07067066 0.3561792 255 0 255
-0.05491727 -0.07182716 0.359244 255 0 255
-0.0493508 -0.07385524 0.3644231 255 0 255
-0.04605007 -0.07503732 0.3674566 255 0 255
-0.03546981 -0.07685336 0.3715411 255 0 255
-0.03366081 -0.07692084 0.3715465 255 0 255
-0.02824579 -0.07676268 0.3705391 255 0 255
-0.02004719 -0.07756557 0.3721158 255 0 255
-0.01045779 -0.07955111 0.3771037 255 0 255
-0.009437927 -0.07987183 0.3779584 255 0 255
-0.007375665 -0.08050852 0.3796557 255 0 255
-0.006333302 -0.08082448 0.3804981 255 0 255
-0.002089416 -0.08207173 0.383825 255 0 255
-0.001009928 -0.08237933 0.3846458 255 0 255
0.0009106493 -0.08233829 0.3844011 255 0 255
0.00407178 -0.0829154 0.3858781 255 0 255
0.01282093 -0.0845935 0.3902491 255 0 255
0.01380535 -0.08455206 0.3900782 255 0 255
0.01929695 -0.08362382 0.3871289 255 0 255
-0.07304508 -0.06855809 0.3498949 255 0 255
-0.06338356 -0.06991044 0.3523265 255 0 255
-0.06104786 -0.07046007 0.353572 255 0 255
-0.05784959 -0.0710701 0.3548821 255 0 255
-0.04252405 -0.07606894 0.3673198 255 0 255
-0.04163608 -0.07611457 0.3673496 255 0 255
-0.039937 -0.07685582 0.3692879 255 0 255
-0.03724789 -0.07697643 0.3693394 255 0 255
-0.03276429 -0.0771483 0.3693605 255 0 255
-0.02738311 -0.07730636 0.3692791 255 0 255
-0.02379645 -0.07738252 0.3691603 255 0 255
-0.02011569 -0.07809472 0.3708755 255 0 255
-0.01825262 -0.07844228 0.3717124 255 0 255
-0.002227102 -0.08265502 0.3825717 255 0 255
0.002948714 -0.0835368 0.3847587 255 0 255
0.01164886 -0.08525206 0.3891581 255 0 255
0.01557022 -0.08508373 0.3884704 255 0 255
0.01673728 -0.08536482 0.3892157 255 0 255
0.02230129 -0.08304108 0.3823231 255 0 255
-0.0757229 -0.06935348 0.3501123 255 0 255
-0.06752684 -0.07027547 0.3514826 255 0 255
-0.06037924 -0.07163911 0.3543332 255 0 255
-0.05643665 -0.07264443 0.3566526 255 0 255
-0.05485696 -0.07310405 0.357749 255 0 255
-0.05096807 -0.07472587 0.3618529 255 0 255
-0.04502397 -0.07576828 0.3640935 255 0 255
-0.04244674 -0.07624286 0.3651429 255 0 255
-0.04072883 -0.07666298 0.3661413 255 0 255
-0.03367265 -0.07762883 0.368124 255 0 255
-0.03277961 -0.07766034 0.3681217 255 0 255
-0.0300959 -0.07807865 0.3690385 255 0 255
-0.02108459 -0.07860403 0.3696823 255 0 255
0.005000157 -0.08473485 0.3850939 255 0 255
0.006115345 -0.08503796 0.3858825 255 0 255
0.01750913 -0.08593155 0.3877742 255 0 255
0.01966302 -0.08616152 0.3883175 255 0 255
0.02259976 -0.08599823 0.3877202 255 0 255
0.0227156 -0.08462277 0.3838369 255 0 255
-0.07596026 -0.07044317 0.3507649 255 0 255
-0.06937622 -0.07119781 0.3518889 255 0 255
-0.06872636 -0.07161015 0.3529455 255 0 255
-0.0652432 -0.07162568 0.3524942 255 0 255
-0.0644151 -0.07170718 0.3526063 255 0 255
-0.05573049 -0.07383385 0.35739 255 0 255
-0.05243132 -0.07442245 0.3586201 255 0 255
-0.04925993 -0.07565525 0.3616827 255 0 255
-0.04592378 -0.07653854 0.3637609 255 0 255
-0.03901827 -0.07791229 0.366832 255 0 255
-0.03368436 -0.07813222 0.3668846 255 0 255
-0.03280253 -0.07849963 0.3678241 255 0 255
-0.03101617 -0.07855865 0.3678096 255 0 255
-0.02383959 -0.07907315 0.368564 255 0 255
-0.02294289 -0.07908884 0.3685261 255 0 255
-0.01537062 -0.08118507 0.3737403 255 0 255
-0.01043169 -0.08253165 0.3771133 255 0 255
-0.004286083 -0.08416315 0.3812179 255 0 255
0.001812223 -0.08506168 0.3833087 255 0 255
0.004980466 -0.08565652 0.384766 255 0 255
-0.07844666 -0.07090897 0.3500192 255 0 255
-0.07619807 -0.07153898 0.3514118 255 0 255
-0.06391729 -0.07322468 0.3543006 255 0 255
-0.05564221 -0.07429516 0.3561696 255 0 255
-0.05160216 -0.07528353 0.3583992 255 0 255
-0.05006535 -0.07607333 0.3603969 255 0 255
-0.04928474 -0.07646692 0.361392 255 0 255
-0.04675352 -0.07696917 0.3624831 255 0 255
-0.04419664 -0.07746004 0.3635471 255 0 255
-0.03459698 -0.07893316 0.3665845 255 0 255
-0.03369627 -0.07862698 0.3656446 255 0 255
-0.02386181 -0.07991663 0.3682609 255 0 255
-0.02104076 -0.08098204 0.3709545 255 0 255
-0.01637472 -0.08170685 0.3725561 255 0 255
-0.01447346 -0.08205459 0.3733598 255 0 255
-0.01347975 -0.08239672 0.3742248 255 0 255
-0.01155253 -0.08273539 0.3750065 255 0 255
-0.008397665 -0.08408418 0.3784897 255 0 255
-0.004307188 -0.08506445 0.3808934 255 0 255
-0.001212304 -0.08569719 0.3824205 255 0 255
0.008981461 -0.08678964 0.3847698 255 0 255
-0.0737488 -0.07261017 0.351577 255 0 255
-0.06059268 -0.07432052 0.3544261 255 0 255
-0.05962072 -0.07405969 0.3535882 255 0 255
-0.05878541 -0.07413266 0.3536794 255 0 255
-0.05566753 -0.07508515 0.3558833 255 0 255
-0.05238344 -0.0756821 0.3571084 255 0 255
-0.04677843 -0.07778407 0.3621874 255 0 255
-0.04416263 -0.07793844 0.3623115 255 0 255
-0.04323551 -0.07764593 0.3614082 255 0 255
-0.04241778 -0.07803419 0.3623785 255 0 255
-0.0220115 -0.08147818 0.369751 255 0 255
-0.02106339 -0.0818358 0.3706439 255 0 255
-0.01257941 -0.08326598 0.3738324 255 0 255
-0.007380534 -0.08530924 0.3790053 255 0 255
-0.006334011 -0.0856441 0.3798403 255 0 255
-0.005386378 -0.08563283 0.3797385 255 0 255
0.00177051 -0.08688592 0.3826478 255 0 255
0.002867921 -0.08720559 0.3834454 255 0 255
0.01220728 -0.08828564 0.3857983 255 0 255
-0.07768276 -0.07255162 0.3496195 255 0 255
-0.07083283 -0.07443076 0.3536931 255 0 255
-0.0639699 -0.07479014 0.3537304 255 0 255
-0.05977982 -0.07517888 0.3542334 255 0 255
-0.05495787 -0.07628205 0.3566042 255 0 255
-0.05410852 -0.07634797 0.3566782 255 0 255
-0.03374391 -0.08028425 0.3650387 255 0 255
-0.0301972 -0.08075079 0.3659465 255 0 255
-0.01727608 -0.08377162 0.3729229 255 0 255
-0.009473572 -0.08551802 0.3769969 255 0 255
0.0007883217 -0.08781859 0.3824398 255 0 255
0.00395096 -0.08844105 0.3839 255 0 255
0.008778928 -0.08828696 0.3831691 255 0 255
0.01315997 -0.08917353 0.3852864 255 0 255
0.01431326 -0.08947703 0.3860347 255 0 255
0.01528941 -0.08943266 0.3858581 255 0 255
0.02982823 -0.09001148 0.3866541 255 0 255
0.0300819 -0.08891411 0.3836981 255 0 255
-0.07596093 -0.07065061 0.3419994 255 0 255
-0.07234091 -0.07468714 0.35221 255 0 255
-0.0708603 -0.07521266 0.3534033 255 0 255
-0.06634075 -0.07498053 0.3521771 255 0 255
-0.05656389 -0.07659282 0.3552217 255 0 255
-0.05413434 -0.07713977 0.356384 255 0 255
-0.05328454 -0.07720458 0.3564548 255 0 255
-0.05082361 -0.07773683 0.3575828 255 0 255
-0.04154753 -0.07936002 0.360869 255 0 255
-0.04067841 -0.07940457 0.3608944 255 0 255
-0.03897512 -0.07983881 0.361872 255 0 255
-0.03376829 -0.08111103 0.3647308 255 0 255
-0.02015418 -0.08390335 0.3708989 255 0 255
-0.01919061 -0.08426582 0.3717815 255 0 255
-0.01827452 -0.08427485 0.3717259 255 0 255
-0.01552738 -0.08429287 0.3715396 255 0 255
-0.01454122 -0.08464792 0.3724041 255 0 255
-0.007425926 -0.08708991 0.3783448 255 0 255
-0.006379351 -0.08743235 0.379177 255 0 255
-0.005431483 -0.08742122 0.379075 255 0 255
0.001726363 -0.08870474 0.3819727 255 0 255
0.01526811 -0.09036378 0.3855101 255 0 255
0.02095255 -0.09151184 0.3882342 255 0 255
0.02214715 -0.09180518 0.3889475 255 0 255
0.02313751 -0.09174827 0.3887425 255 0 255
0.02555347 -0.09232488 0.3901452 255 0 255
-0.07300439 -0.07502719 0.3508594 255 0 255
-0.06303702 -0.07608697 0.3523275 255 0 255
-0.06220316 -0.07616635 0.3524303 255 0 255
-0.03725296 -0.08073191 0.3615945 255 0 255
-0.0355251 -0.08115975 0.3625458 255 0 255
-0.03466305 -0.08154872 0.3634844 255 0 255
-0.03378124 -0.08158243 0.3634847 255 0 255
-0.029356 -0.08243851 0.3653083 255 0 255
-0.02395522 -0.08327794 0.3670157 255 0 255
-0.02208218 -0.08402026 0.3688035 255 0 255
-0.01750038 -0.08442876 0.3694779 255 0 255
-0.009610539 -0.08692517 0.375405 255 0 255
-0.005560953 -0.0879578 0.3778095 255 0 255
0.007770177 -0.09015224 0.3826342 255 0 255
0.008895599 -0.0904725 0.3834022 255 0 255
0.01116797 -0.09110729 0.3849242 255 0 255
0.01311637 -0.091027 0.3845897 255 0 255
0.01719685 -0.09119976 0.3847948 255 0 255
0.0181711 -0.09115044 0.3846076 255 0 255
0.02706962 -0.09245161 0.3875282 255 0 255
0.02874671 -0.09343836 0.3900287 255 0 255
0.02997771 -0.09372102 0.3907066 255 0 255
-0.07306058 -0.07432813 0.3467538 255 0 255
-0.06924092 -0.07695736 0.3530731 255 0 255
-0.06222998 -0.07694188 0.3521355 255 0 255
-0.05087561 -0.07932619 0.3569814 255 0 255
-0.0460092 -0.08108516 0.3610167 255 0 255
-0.04159826 -0.08097668 0.3602567 255 0 255
-0.03902553 -0.0814641 0.3612562 255 0 255
-0.03380628 -0.08240299 0.3631718 255 0 255
-0.03116062 -0.08321223 0.3650206 255 0 255
-0.02308232 -0.08413165 0.3666578 255 0 255
-0.01939217 -0.08490164 0.3683356 255 0 255
-0.01065466 -0.08744603 0.3742284 255 0 255
-0.009634522 -0.0878009 0.3750705 255 0 255
-0.006528982 -0.08885584 0.3775722 255 0 255
0.00359983 -0.09046833 0.3810174 255 0 255
0.008872522 -0.09138972 0.3830514 255 0 255
0.01097652 -0.09167425 0.383652 255 0 255
0.01291739 -0.09159428 0.3833188 255 0 255
0.02529109 -0.09387874 0.3885098 255 0 255
-0.06507197 -0.07817494 0.3533669 255 0 255
-0.06407785 -0.07790664 0.3525531 255 0 255
-0.0559125 -0.0793723 0.355333 255 0 255
-0.05517343 -0.07979643 0.3563376 255 0 255
-0.05175697 -0.08005734 0.3566145 255 0 255
-0.04075477 -0.08182833 0.3599708 255 0 255
-0.03905128 -0.08227485 0.3609436 255 0 255
-0.03645369 -0.08275463 0.3619136 255 0 255
-0.03471377 -0.08318816 0.3628556 255 0 255
-0.02940605 -0.08409486 0.3646728 255 0 255
-0.02490211 -0.08493266 0.3664088 255 0 255
-0.01559964 -0.086863 0.3705581 255 0 255
-0.01461349 -0.08722942 0.3714183 255 0 255
-0.01361973 -0.0875943 0.3722745 255 0 255
-0.01261836 -0.08795767 0.3731269 255 0 255
-0.01169176 -0.08795637 0.3730472 255 0 255
-0.008631359 -0.08903231 0.3755691 255 0 255
-0.001592981 -0.09039683 0.3785353 255 0 255
0.004680174 -0.09170787 0.38145 255 0 255
0.01175159 -0.09219342 0.3822148 255 0 255
0.0140435 -0.0928322 0.3837062 255 0 255
0.03045755 -0.09485636 0.3879275 255 0 255
-0.07097206 -0.07832811 0.3522132 255 0 255
-0.06778852 -0.07904815 0.3536372 255 0 255
-0.05920358 -0.07951187 0.3537658 255 0 255
-0.05690688 -0.08044709 0.3558732 255 0 255
-0.0509288 -0.08091057 0.3563675 255 0 255
-0.04758124 -0.08150595 0.3575117 255 0 255
-0.04599508 -0.08233935 0.3594604 255 0 255
-0.03995105 -0.08304158 0.360609 255 0 255
-0.03738555 -0.08389427 0.3625175 255 0 255
-0.03562171 -0.0839702 0.3625332 255 0 255
-0.03032177 -0.08489389 0.3643662 255 0 255
-0.02402991 -0.0857854 0.3660475 255 0 255
-0.01954355 -0.08585476 0.3658224 255 0 255
-0.01859199 -0.08623081 0.3666965 255 0 255
-0.0006676012 -0.09126992 0.3780667 255 0 255
0.003410306 -0.09191027 0.3793941 255 0 255
0.004510725 -0.09224898 0.3801757 255 0 255
0.006580681 -0.0925553 0.3808071 255 0 255
0.01596447 -0.09366375 0.3829899 255 0 255
0.01790668 -0.09356701 0.3826206 255 0 255
0.02403688 -0.09547248 0.3870776 255 0 255
0.02677571 -0.09492408 0.3855262 255 0 255
0.0301967 -0.09544563 0.3866535 255 0 255
0.03388887 -0.09479222 0.3847975 255 0 255
0.03402379 -0.09212004 0.378027 255 0 255
-0.06274898 -0.0803405 0.3539976 255 0 255
-0.05766479 -0.08080134 0.3545557 255 0 255
-0.05437416 -0.08144347 0.3557924 255 0 255
-0.05276443 -0.08193884 0.3568565 255 0 255
-0.04760808 -0.08230091 0.3571982 255 0 255
-0.03476598 -0.08482245 0.362214 255 0 255
-0.02856763 -0.08577178 0.3640052 255 0 255
-0.02046598 -0.08667765 0.3655443 255 0 255
-0.0195689 -0.08668865 0.3654928 255 0 255
-0.005659729 -0.09149793 0.3764329 255 0 255
-0.00271125 -0.09182641 0.3770287 255 0 255
-0.00164313 -0.09217932 0.377834 255 0 255
-0.0008181165 -0.09179056 0.3767938 255 0 255
0.006555673 -0.09346083 0.3804486 255 0 255
0.01691153 -0.09453644 0.3824425 255 0 255
0.02002479 -0.09475084 0.3827806 255 0 255
0.02141092 -0.09543007 0.3843971 255 0 255
0.02478337 -0.09598786 0.3855877 255 0 255
0.03091923 -0.09595544 0.3851453 255 0 255
0.03214752 -0.09624742 0.3858069 255 0 255
0.03484569 -0.09565616 0.3841771 255 0 255
-0.06292293 -0.08148528 0.3546064 255 0 255
-0.05610907 -0.08209357 0.3553283 255 0 255
-0.04598176 -0.08357385 0.3578973 255 0 255
-0.04355406 -0.0848392 0.3607899 255 0 255
-0.0427287 -0.08525895 0.3617485 255 0 255
-0.04000447 -0.08465619 0.3599681 255 0 255
-0.03743899 -0.08552469 0.3618701 255 0 255
-0.03655697 -0.08556382 0.3618794 255 0 255
-0.03569515 -0.08597349 0.3628135 255 0 255
-0.0267946 -0.08701643 0.3645553 255 0 255
-0.002737185 -0.09271181 0.3766744 255 0 255
0.0002311524 -0.09302933 0.3772354 255 0 255
0.001180582 -0.09300734 0.3771088 255 0 255
0.00957811 -0.09463607 0.3805421 255 0 255
0.02236535 -0.09630316 0.383822 255 0 255
0.02454015 -0.09655486 0.3843093 255 0 255
-0.05772049 -0.08236641 0.3539282 255 0 255
-0.05196104 -0.08358619 0.356286 255 0 255
-0.04687383 -0.0843157 0.3575328 255 0 255
-0.04600923 -0.08437032 0.3575758 255 0 255
-0.04445872 -0.08559629 0.3604295 255 0 255
-0.04275639 -0.08607086 0.3614207 255 0 255
-0.0321773 -0.08692788 0.3624758 255 0 255
-0.03129095 -0.08695842 0.3624659 255 0 255
-0.02682139 -0.08784279 0.3642213 255 0 255
-0.02145822 -0.08795083 0.3639989 255 0 255
-0.01492723 -0.08951919 0.3672873 255 0 255
-0.007894919 -0.09214599 0.3731622 255 0 255
-0.006860164 -0.09251479 0.3739852 255 0 255
-0.005817916 -0.09288195 0.3748041 255 0 255
-0.004877578 -0.09286986 0.3746992 255 0 255
0.002103335 -0.09387164 0.3766196 255 0 255
0.0166694 -0.09599751 0.3807959 255 0 255
0.02647561 -0.09736111 0.3835003 255 0 255
-0.06671654 -0.07958581 0.3459905 255 0 255
-0.06042764 -0.08329198 0.3542644 255 0 255
-0.05628014 -0.08403784 0.3556118 255 0 255
-0.05370653 -0.08424504 0.3558322 255 0 255
-0.05208438 -0.08475091 0.3568859 255 0 255
-0.05044534 -0.08525215 0.3579285 255 0 255
-0.03749391 -0.08714981 0.3612101 255 0 255
-0.0277428 -0.08864433 0.3639101 255 0 255
-0.02054508 -0.08917078 0.3645363 255 0 255
-0.003964568 -0.09373133 0.3742329 255 0 255
0.001939901 -0.09437741 0.3753421 255 0 255
0.01162466 -0.09675072 0.3803898 255 0 255
0.01276704 -0.09708939 0.3811305 255 0 255
0.01857677 -0.09680976 0.3800474 255 0 255
0.02071407 -0.09708106 0.3805614 255 0 255
0.02189255 -0.09740266 0.3812629 255 0 255
0.03084361 -0.09877096 0.3840043 255 0 255
0.03330689 -0.09937405 0.3853134 255 0 255
0.03922611 -0.09888929 0.3837867 255 0 255
-0.06429401 -0.08059386 0.3460157 255 0 255
-0.06300905 -0.08383241 0.3536497 255 0 255
-0.05973534 -0.08452727 0.3549508 255 0 255
-0.05297572 -0.08547764 0.3564947 255 0 255
-0.05211289 -0.08554294 0.3565591 255 0 255
-0.05047384 -0.0860483 0.3575999 255 0 255
-0.04779433 -0.08584762 0.3568349 255 0 255
-0.04451512 -0.08720791 0.3597678 255 0 255
-0.04281278 -0.08769064 0.3607555 255 0 255
-0.04012761 -0.08745017 0.3599063 255 0 255
-0.03840405 -0.0879191 0.3608632 255 0 255
-0.03755047 -0.08834291 0.3617988 255 0 255
-0.03579872 -0.08880416 0.3627371 255 0 255
-0.03134789 -0.08935819 0.363642 255 0 255
-0.02775569 -0.08985198 0.3644929 255 0 255
-0.02052607 -0.0903839 0.3651156 255 0 255
-0.01770647 -0.09118395 0.3667921 255 0 255
-0.01008587 -0.09273715 0.3698781 255 0 255
-0.008046889 -0.09349468 0.3715311 255 0 255
0.008373024 -0.09700253 0.3786778 255 0 255
0.01738845 -0.09738906 0.3789561 255 0 255
0.02884723 -0.09984659 0.3840797 255 0 255
0.03204513 -0.1000126 0.3842725 255 0 255
0.05115241 -0.1099829 0.4069889 255 0 255
0.04704614 -0.07564488 0.3252116 255 0 255
-0.05903519 -0.08576827 0.3556287 255 0 255
-0.05559127 -0.0860626 0.3559536 255 0 255
-0.04797464 -0.08740667 0.3583451 255 0 255
-0.04616155 -0.08713581 0.3575135 255 0 255
-0.0410339 -0.08820938 0.3595489 255 0 255
-0.04015602 -0.08825508 0.3595702 255 0 255
-0.03843248 -0.08872806 0.3605253 255 0 255
-0.03317405 -0.09050232 0.3642381 255 0 255
-0.01960245 -0.09161466 0.3656364 255 0 255
-0.01773438 -0.09202215 0.3664416 255 0 255
-0.0141009 -0.09204154 0.3661731 255 0 255
-0.01120737 -0.09281714 0.3677726 255 0 255
-0.01020316 -0.09320208 0.3686039 255 0 255
-0.008074865 -0.09435569 0.3711709 255 0 255
-0.00402012 -0.09547723 0.3735064 255 0 255
-0.002020231 -0.09583376 0.3741933 255 0 255
0.01060166 -0.09860217 0.3797996 255 0 255
0.01156928 -0.09856321 0.3796352 255 0 255
0.01446815 -0.09843633 0.3791216 255 0 255
0.01736087 -0.09829448 0.378577 255 0 255
0.01832365 -0.09824386 0.3783886 255 0 255
0.02835305 -0.1000139 0.3819012 255 0 255
0.04854353 -0.1076136 0.3986333 255 0 255
0.05407446 -0.1103289 0.4047315 255 0 255
-0.06189543 -0.08233994 0.3456945 255 0 255
-0.06150482 -0.08593633 0.3541075 255 0 255
-0.0574625 -0.08708982 0.3563808 255 0 255
-0.05659736 -0.08716331 0.3564607 255 0 255
-0.05303365 -0.08705713 0.3558321 255 0 255
-0.04887593 -0.08814545 0.3579592 255 0 255
-0.03585611 -0.09043637 0.3620515 255 0 255
-0.03230463 -0.09135876 0.3638832 255 0 255
-0.0296027 -0.09184045 0.3647629 255 0 255
-0.02691424 -0.09152601 0.3637731 255 0 255
-0.02332163 -0.09160691 0.3636357 255 0 255
-0.02144173 -0.09242218 0.3653859 255 0 255
-0.01963084 -0.09244753 0.3652843 255 0 255
0.02953958 -0.101257 0.3821728 255 0 255
0.05076846 -0.1071682 0.3946669 255 0 255
0.05314358 -0.1073367 0.394918 255 0 255
0.05263492 -0.1053259 0.3902421 255 0 255
-0.0612568 -0.08594629 0.3519503 255 0 255
-0.05934859 -0.08811449 0.3567886 255 0 255
-0.05860347 -0.08857863 0.3577887 255 0 255
-0.03411765 -0.09171829 0.3626244 255 0 255
-0.02421834 -0.0928079 0.3642411 255 0 255
-0.001259515 -0.09716757 0.3724211 255 0 255
-0.000192565 -0.09754314 0.3732088 255 0 255
0.00701395 -0.09893699 0.3758812 255 0 255
0.008127511 -0.09929805 0.3766345 255 0 255
0.01134004 -0.09997556 0.3779637 255 0 255
0.01326577 -0.09989295 0.3776259 255 0 255
0.02731716 -0.1019299 0.3813386 255 0 255
0.02927371 -0.1017938 0.3808863 255 0 255
0.03418441 -0.1030578 0.3834841 255 0 255
0.04080268 -0.1020843 0.3807882 255 0 255
-0.0605915 -0.08477301 0.3470642 255 0 255
-0.06011556 -0.08843721 0.3554467 255 0 255
-0.05851042 -0.08898332 0.3565336 255 0 255
-0.05503318 -0.08927792 0.3568473 255 0 255
-0.05416298 -0.08934786 0.356918 255 0 255
-0.04893512 -0.08973642 0.3572768 255 0 255
-0.04463184 -0.0904147 0.3584067 255 0 255
-0.03943908 -0.09149964 0.3603953 255 0 255
-0.03056662 -0.09306391 0.3631537 255 0 255
-0.02876961 -0.09312036 0.3631166 255 0 255
-0.02424776 -0.09363358 0.3638845 255 0 255
-0.02334571 -0.09365188 0.363845 255 0 255
-0.02145824 -0.09448231 0.3655882 255 0 255
-0.008258908 -0.09653048 0.3691587 255 0 255
0.0005877485 -0.09799442 0.3717989 255 0 255
0.01323603 -0.1007902 0.377238 255 0 255
0.02133129 -0.1011844 0.3775388 255 0 255
0.03266867 -0.1032847 0.3815539 255 0 255
0.03514299 -0.1039151 0.3828301 255 0 255
0.03613044 -0.1038347 0.3825776 255 0 255
-0.05909032 -0.08120625 0.3367363 255 0 255
-0.05691856 -0.09031942 0.3572634 255 0 255
-0.05322266 -0.08981226 0.3557276 255 0 255
-0.04729274 -0.09104612 0.3579397 255 0 255
-0.04460113 -0.09081402 0.3571436 255 0 255
-0.03507191 -0.0933133 0.3619173 255 0 255
-0.03149522 -0.09385268 0.3628099 255 0 255
-0.02879955 -0.0939402 0.3627588 255 0 255
-0.02700255 -0.09399085 0.3627088 255 0 255
-0.02334167 -0.09487898 0.3643999 255 0 255
-0.01870637 -0.09575426 0.3659801 255 0 255
-0.01773586 -0.09616655 0.366834 255 0 255
-0.003197975 -0.09893641 0.3719011 255 0 255
0.001631385 -0.0992404 0.3721971 255 0 255
0.01110865 -0.1013672 0.3762844 255 0 255
0.01896705 -0.1013979 0.3757514 255 0 255
0.03288627 -0.1046087 0.3820323 255 0 255
0.03387195 -0.1045319 0.3817878 255 0 255
0.03511241 -0.1048494 0.3824216 255 0 255
0.03986916 -0.1057012 0.3840244 255 0 255
-0.04644638 -0.09189953 0.3576315 255 0 255
-0.04038562 -0.09306595 0.3596705 255 0 255
-0.0288299 -0.09475859 0.3623978 255 0 255
-0.02793135 -0.09478485 0.3623743 255 0 255
-0.02056352 -0.09656514 0.3657215 255 0 255
-0.007292995 -0.0986305 0.3692228 255 0 255
0.004570344 -0.100436 0.3723082 255 0 255
0.006612258 -0.1007805 0.3729196 255 0 255
0.007558601 -0.1007474 0.3727692 255 0 255
0.01073587 -0.101448 0.3740945 255 0 255
0.01491156 -0.1020865 0.3752047 255 0 255
0.02106058 -0.1025853 0.3758552 255 0 255
0.02676787 -0.103888 0.3783579 255 0 255
0.04310095 -0.1067705 0.3836617 255 0 255
0.04480053 -0.1061837 0.3822249 255 0 255
0.04578971 -0.1060863 0.3819377 255 0 255
0.05027457 -0.1077594 0.3853882 255 0 255
0.0513426 -0.106362 0.3821781 255 0 255
-0.05890314 -0.08430721 0.3398167 255 0 255
-0.05621886 -0.09238061 0.357547 255 0 255
-0.04654592 -0.09309993 0.3581889 255 0 255
-0.04223739 -0.09417991 0.3601798 255 0 255
-0.0395676 -0.09432288 0.3602426 255 0 255
-0.03246104 -0.09586304 0.3630086 255 0 255
-0.03065589 -0.09592701 0.3629837 255 0 255
-0.02794822 -0.09601132 0.3629223 255 0 255
-0.02433867 -0.09610191 0.3627955 255 0 255
-0.0187145 -0.09783176 0.3661509 255 0 255
-0.01774024 -0.09825154 0.3670012 255 0 255
-0.01290792 -0.09950662 0.3693772 255 0 255
-0.002080467 -0.101468 0.3728273 255 0 255
-0.0003146389 -0.1010204 0.3716816 255 0 255
0.003594882 -0.1013347 0.3720593 255 0 255
0.01488003 -0.1029753 0.374808 255 0 255
0.01698701 -0.103287 0.3753369 255 0 255
0.02102906 -0.1034812 0.3754553 255 0 255
0.02316561 -0.1037706 0.3759355 255 0 255
0.03827552 -0.106868 0.3817019 255 0 255
0.04674573 -0.1069276 0.3812272 255 0 255
-0.04664606 -0.09430601 0.3587399 255 0 255
-0.04493711 -0.09482773 0.3597263 255 0 255
-0.0378479 -0.09562826 0.3608164 255 0 255
-0.03610249 -0.09653393 0.3626518 255 0 255
-0.03339505 -0.09664682 0.3626478 255 0 255
-0.03068727 -0.09674568 0.3626149 255 0 255
-0.0224908 -0.09778505 0.3641627 255 0 255
-0.01679006 -0.09951221 0.3674679 255 0 255
-0.0120084 -0.1003568 0.3689131 255 0 255
-0.001992752 -0.1027504 0.3733381 255 0 255
0.003706257 -0.1026169 0.3725668 255 0 255
0.01695476 -0.1041778 0.3749351 255 0 255
0.02409569 -0.1046072 0.3753209 255 0 255
0.0308274 -0.1058358 0.3775112 255 0 255
0.03352409 -0.1069073 0.3796674 255 0 255
0.03501587 -0.1076425 0.3811746 255 0 255
0.03725313 -0.1078853 0.3815415 255 0 255
-0.05305843 -0.09548422 0.3598253 255 0 255
-0.0520748 -0.0951416 0.3589804 255 0 255
-0.04674679 -0.09551772 0.3592847 255 0 255
-0.04324343 -0.09615144 0.3603332 255 0 255
-0.03966808 -0.09634782 0.3604228 255 0 255
-0.03611257 -0.0969347 0.361371 255 0 255
-0.03431548 -0.09701159 0.3613712 255 0 255
-0.02620623 -0.09769727 0.3621236 255 0 255
-0.01196024 -0.1016229 0.3694318 255 0 255
-0.01094069 -0.102039 0.3702519 255 0 255
-0.01000197 -0.102036 0.3701636 255 0 255
-0.002025635 -0.1036213 0.3729413 255 0 255
0.001775762 -0.1035392 0.3724405 255 0 255
0.003673577 -0.1034881 0.3721699 255 0 255
0.007303992 -0.10295 0.370693 255 0 255
0.03919718 -0.108645 0.380593 255 0 255
0.04300151 -0.1095992 0.3823856 255 0 255
0.0434256 -0.108689 0.3803701 255 0 255
0.0525829 -0.1081693 0.3785607 255 0 255
0.04903714 -0.1024042 0.3662641 255 0 255
0.05638973 -0.1050627 0.371522 255 0 255
-0.05408208 -0.09663083 0.360296 255 0 255
-0.05328429 -0.09711551 0.3612663 255 0 255
-0.05050202 -0.09690343 0.3605383 255 0 255
-0.04952519 -0.0965523 0.3596848 255 0 255
-0.04774073 -0.09667569 0.3597801 255 0 255
-0.02064531 -0.1003075 0.3651229 255 0 255
-0.0128522 -0.1028942 0.3700255 255 0 255
-0.0108895 -0.1033143 0.3707619 255 0 255
-0.006820675 -0.1045556 0.3730916 255 0 255
-0.005867577 -0.1045459 0.3729883 255 0 255
-0.00491485 -0.1045346 0.3728816 255 0 255
0.002830772 -0.1048043 0.3728033 255 0 255
0.01155808 -0.1049253 0.372335 255 0 255
0.01364183 -0.105259 0.3728842 255 0 255
0.02787029 -0.1061357 0.3736283 255 0 255
0.03051653 -0.1072392 0.3758015 255 0 255
0.03443733 -0.1086681 0.3785779 255 0 255
0.03541742 -0.1085877 0.3783275 255 0 255
0.03764113 -0.1088346 0.3786873 255 0 255
0.0388923 -0.1091613 0.3792954 255 0 255
0.04831315 -0.1091246 0.3784946 255 0 255
0.04960213 -0.1094291 0.3790538 255 0 255
0.04771226 -0.101659 0.3624401 255 0 255
0.04898335 -0.09838629 0.3552906 255 0 255
0.05191395 -0.1007078 0.3600782 255 0 255
-0.05241838 -0.09799343 0.3609532 255 0 255
-0.04866567 -0.09741746 0.3593612 255 0 255
-0.04605332 -0.09801629 0.3603947 255 0 255
-0.04066856 -0.09833359 0.3605664 255 0 255
-0.03169385 -0.1004301 0.364222 255 0 255
-0.03077935 -0.1004625 0.3642073 255 0 255
-0.0289504 -0.1005224 0.3641683 255 0 255
-0.02712157 -0.100576 0.3641164 255 0 255
-0.02155507 -0.101547 0.365692 255 0 255
-0.006754923 -0.1058474 0.3735882 255 0 255
-0.003884964 -0.1058136 0.3732666 255 0 255
-0.00114205 -0.1053404 0.3720175 255 0 255
0.009453385 -0.1054559 0.3713641 255 0 255
0.01057222 -0.1058405 0.3720931 255 0 255
0.01247534 -0.1057589 0.3717594 255 0 255
0.01360777 -0.1061378 0.3724755 255 0 255
0.01570424 -0.1064676 0.3730068 255 0 255
0.01877206 -0.1067376 0.3733306 255 0 255
0.02546077 -0.1063236 0.3718989 255 0 255
0.02664499 -0.106677 0.3725586 255 0 255
0.03194435 -0.1089046 0.3768933 255 0 255
0.03662412 -0.1098393 0.3785174 255 0 255
0.03885708 -0.1100852 0.3788656 255 0 255
0.04532811 -0.110358 0.3789401 255 0 255
0.05761699 -0.107173 0.3711961 255 0 255
-0.05424888 -0.09865947 0.3604469 255 0 255
-0.05254469 -0.09922216 0.3614765 255 0 255
-0.05173085 -0.09971254 0.3624379 255 0 255
-0.04885336 -0.09906408 0.3607912 255 0 255
-0.04608633 -0.09882174 0.3600166 255 0 255
-0.04078552 -0.09999024 0.3619961 255 0 255
-0.03803721 -0.09970419 0.3611346 255 0 255
-0.03354578 -0.1007569 0.3629508 255 0 255
-0.03081279 -0.1012857 0.3638208 255 0 255
-0.02806935 -0.1013738 0.3637572 255 0 255
-0.006690018 -0.1071448 0.3740781 255 0 255
0.004666762 -0.1064913 0.3717107 255 0 255
0.006723814 -0.1068571 0.3723096 255 0 255
0.007678135 -0.1068239 0.3721579 255 0 255
0.009585015 -0.1067524 0.3718444 255 0 255
0.01244072 -0.1066325 0.3713489 255 0 255
0.01357303 -0.107015 0.3720634 255 0 255
0.02351896 -0.1073344 0.3719095 255 0 255
0.0244729 -0.1072718 0.3716982 255 0 255
0.03044653 -0.1090438 0.3749579 255 0 255
0.03166154 -0.1093913 0.3755941 255 0 255
0.03263219 -0.1093151 0.3753537 255 0 255
0.03882105 -0.1110073 0.3784324 255 0 255
0.04007852 -0.1113385 0.3790317 255 0 255
0.04205013 -0.1111559 0.3784869 255 0 255
0.0508257 -0.1116022 0.3787324 255 0 255
0.05304803 -0.1063755 0.3675082 255 0 255
0.05492129 -0.1061441 0.3668732 255 0 255
-0.05455029 -0.0968465 0.3546 255 0 255
-0.03904141 -0.1013265 0.3625452 255 0 255
-0.02900856 -0.1025987 0.3642942 255 0 255
-0.0262535 -0.102678 0.3642105 255 0 255
-0.01583875 -0.1050032 0.3681524 255 0 255
-0.008648612 -0.1080299 0.3738632 255 0 255
-0.00662595 -0.1084477 0.3745613 255 0 255
-0.005661032 -0.1084381 0.3744565 255 0 255
0.006688444 -0.107729 0.3718958 255 0 255
0.02800086 -0.1092345 0.3732459 255 0 255
0.03576446 -0.1104029 0.37505 255 0 255
0.03851429 -0.1115042 0.3771307 255 0 255
0.05462507 -0.1079859 0.3684572 255 0 255
0.05409542 -0.1048417 0.3619187 255 0 255
0.05042589 -0.09703419 0.3458711 255 0 255
0.05019099 -0.09568036 0.3430568 255 0 255
0.04597949 -0.08885378 0.3291059 255 0 255
-0.05370854 -0.09770022 0.3542919 255 0 255
-0.05332031 -0.09991167 0.3588472 255 0 255
-0.05279908 -0.1016961 0.3625034 255 0 255
-0.03455351 -0.1032196 0.3639795 255 0 255
-0.02718936 -0.1039119 0.3647472 255 0 255
-0.01971751 -0.1049374 0.3662033 255 0 255
-0.0137858 -0.1071626 0.3702936 255 0 255
-0.007627465 -0.1093284 0.3742442 255 0 255
-0.004732723 -0.1093001 0.3739298 255 0 255
0.002829503 -0.108715 0.3720518 255 0 255
0.003786055 -0.1086886 0.3719136 255 0 255
0.007764915 -0.109 0.3722139 255 0 255
0.01124461 -0.1079832 0.3698021 255 0 255
0.01219199 -0.1079417 0.3696342 255 0 255
0.03013045 -0.1104123 0.3732305 255 0 255
0.04071282 -0.1126674 0.3770197 255 0 255
0.04679421 -0.113887 0.379043 255 0 255
0.04877477 -0.1136803 0.37845 255 0 255
0.05007081 -0.1139975 0.3790006 255 0 255
0.05305962 -0.1122892 0.3752119 255 0 255
0.05338177 -0.1113329 0.3732027 255 0 255
0.05564613 -0.1115215 0.3734078 255 0 255
0.05382604 -0.1066696 0.3634988 255 0 255
0.05427759 -0.10476 0.3595038 255 0 255
-0.05232188 -0.09244046 0.3413645 255 0 255
-0.04658362 -0.1038333 0.3642544 255 0 255
-0.04017397 -0.1046499 0.3653444 255 0 255
-0.03552541 -0.1044378 0.3644836 255 0 255
-0.03458828 -0.1040408 0.363582 255 0 255
-0.03366992 -0.1040789 0.3635767 255 0 255
-0.0327585 -0.1045525 0.3644675 255 0 255
-0.02999133 -0.1046527 0.3644221 255 0 255
-0.02722434 -0.1047382 0.3643473 255 0 255
-0.01272285 -0.1088958 0.3715922 255 0 255
-0.004876646 -0.109733 0.3726156 255 0 255
0.001835847 -0.1096081 0.3717663 255 0 255
0.005660955 -0.1094993 0.3712065 255 0 255
0.01120818 -0.1088482 0.3693832 255 0 255
0.01404841 -0.1087187 0.3688696 255 0 255
0.01518284 -0.1091083 0.3695716 255 0 255
0.01747278 -0.1098811 0.370961 255 0 255
0.03568948 -0.1122104 0.3741793 255 0 255
0.04675523 -0.1148171 0.3785927 255 0 255
-0.05054456 -0.1057088 0.3663613 255 0 255
-0.03557967 -0.105701 0.3649791 255 0 255
-0.03463848 -0.1053009 0.3640791 255 0 255
-0.0263375 -0.1055883 0.3639126 255 0 255
-0.01676224 -0.1084065 0.3687877 255 0 255
-0.006835438 -0.1106195 0.3724044 255 0 255
0.007690823 -0.1107426 0.3713661 255 0 255
0.02527974 -0.1107262 0.3697884 255 0 255
0.0264633 -0.1110971 0.3704397 255 0 255
0.02861187 -0.1113955 0.3708595 255 0 255
0.03662139 -0.1130277 0.3734837 255 0 255
0.04231239 -0.1138797 0.3747242 255 0 255
-0.05123719 -0.1100567 0.3731066 255 0 255
-0.04711887 -0.1085597 0.3697146 255 0 255
-0.04617076 -0.1086212 0.3697525 255 0 255
-0.0404004 -0.10807 0.3681176 255 0 255
-0.03854826 -0.1086103 0.3690388 255 0 255
-0.03754864 -0.10777 0.3672545 255 0 255
-0.03377435 -0.1070491 0.3654598 255 0 255
-0.03005341 -0.1071885 0.3654046 255 0 255
-0.02257708 -0.1078338 0.366031 255 0 255
-0.01184197 -0.1106122 0.370666 255 0 255
-0.003991371 -0.1114513 0.3716539 255 0 255
-0.001953596 -0.1118665 0.3723086 255 0 255
0.005735764 -0.1116761 0.3712384 255 0 255
0.008448951 -0.111132 0.3699002 255 0 255
0.01720063 -0.1111845 0.3692281 255 0 255
0.01930604 -0.1115209 0.3697193 255 0 255
0.03534963 -0.1135727 0.3724348 255 0 255
0.04324799 -0.1146933 0.3739967 255 0 255
0.04865532 -0.1164642 0.3770891 255 0 255
0.0532386 -0.1168925 0.3775496 255 0 255
0.05752588 -0.1182684 0.3799456 255 0 255
0.05381851 -0.1069182 0.3574056 255 0 255
-0.04150718 -0.1101928 0.3703653 255 0 255
-0.03864738 -0.1103437 0.3704083 255 0 255
-0.02636929 -0.1081302 0.3648836 255 0 255
-0.02164049 -0.1091334 0.3664598 255 0 255
5.941435E-05 -0.1131449 0.3725138 255 0 255
0.0221248 -0.1122189 0.3686847 255 0 255
0.0397239 -0.1150019 0.3726615 255 0 255
0.04604185 -0.1167194 0.3755232 255 0 255
0.04990925 -0.1177191 0.3771723 255 0 255
0.05027887 -0.1167364 0.3751781 255 0 255
0.05795567 -0.1129628 0.3669611 255 0 255
-0.04699783 -0.1156826 0.3796101 255 0 255
-0.04495176 -0.1153588 0.3787865 255 0 255
-0.03775884 -0.1116865 0.3708826 255 0 255
-0.03199456 -0.1096781 0.3663951 255 0 255
-0.03105675 -0.1092613 0.365487 255 0 255
-0.02732032 -0.1093829 0.3653912 255 0 255
-0.02352114 -0.1103828 0.3670252 255 0 255
-0.01970833 -0.1109044 0.3677127 255 0 255
-0.01279824 -0.1127725 0.3707817 255 0 255
0.0001462261 -0.1144658 0.3729593 255 0 255
0.01105608 -0.1122916 0.3676746 255 0 255
0.0180735 -0.1128646 0.3681709 255 0 255
0.01902373 -0.1128107 0.3679782 255 0 255
0.02092186 -0.1126978 0.3675828 255 0 255
0.02516249 -0.1133473 0.3684816 255 0 255
0.02849361 -0.1140371 0.3695425 255 0 255
0.03404334 -0.1149956 0.3709328 255 0 255
0.04826834 -0.1178697 0.3753195 255 0 255
0.05777599 -0.119157 0.3769976 255 0 255
0.05903073 -0.1166003 0.3718286 255 0 255
0.05930558 -0.1156023 0.3698306 255 0 255
0.05956427 -0.1146045 0.3678343 255 0 255
-0.04179876 -0.1141454 0.3739638 255 0 255
-0.03988839 -0.1147041 0.3748866 255 0 255
-0.03787943 -0.1138953 0.3731239 255 0 255
-0.03490874 -0.1122119 0.3695631 255 0 255
-0.03015602 -0.1105774 0.3659374 255 0 255
-0.01276236 -0.114084 0.3712336 255 0 255
-0.009701096 -0.114996 0.3727416 255 0 255
0.007692249 -0.1146621 0.3705066 255 0 255
0.01688649 -0.1133269 0.3670518 255 0 255
0.01877992 -0.1132212 0.3666714 255 0 255
0.02204487 -0.1139543 0.3678069 255 0 255
0.03592875 -0.1157171 0.3699799 255 0 255
0.04061076 -0.116706 0.3714838 255 0 255
0.05148987 -0.1189051 0.3747824 255 0 255
0.05377971 -0.1191211 0.3749928 255 0 255
0.06070867 -0.1143717 0.365046 255 0 255
-0.03018628 -0.1123244 0.3672887 255 0 255
-0.02445648 -0.1134095 0.3688778 255 0 255
-0.01472865 -0.1149326 0.3709522 255 0 255
-0.01265253 -0.1158607 0.3725632 255 0 255
-0.008409441 -0.1176961 0.375736 255 0 255
0.001164958 -0.1166426 0.37282 255 0 255
0.003941347 -0.1161092 0.3715313 255 0 255
0.01341117 -0.1152911 0.3690735 255 0 255
0.01436881 -0.1152456 0.3688968 255 0 255
0.01968486 -0.1140239 0.3660357 255 0 255
0.02412764 -0.1151506 0.367808 255 0 255
0.03562159 -0.1161502 0.368674 255 0 255
0.03932153 -0.1172421 0.3704451 255 0 255
0.05211272 -0.1192642 0.3731635 255 0 255
0.05341389 -0.1195964 0.373685 255 0 255
0.0570218 -0.1201319 0.3743826 255 0 255
0.06149572 -0.1176017 0.3690481 255 0 255
-0.03806909 -0.1174486 0.3757899 255 0 255
-0.0340686 -0.1153212 0.3713494 255 0 255
-0.01867566 -0.1152864 0.369901 255 0 255
-0.0136641 -0.1167194 0.3721981 255 0 255
-0.01148678 -0.1181147 0.3746793 255 0 255
-0.00934989 -0.1190396 0.3762605 255 0 255
-0.002545716 -0.1185135 0.3746278 255 0 255
-0.001562948 -0.1184974 0.3745068 255 0 255
0.00293187 -0.1170024 0.3712222 255 0 255
0.008411057 -0.1158939 0.3685864 255 0 255
0.01604871 -0.1155524 0.3672194 255 0 255
0.01964356 -0.1148803 0.365592 255 0 255
0.02174724 -0.1152234 0.3660537 255 0 255
0.04371911 -0.1186606 0.3705764 255 0 255
0.04722889 -0.1192602 0.371393 255 0 255
0.05304754 -0.1200628 0.3723772 255 0 255
0.06251489 -0.1198451 0.3710446 255 0 255
-0.04162033 -0.1246513 0.3876965 255 0 255
-0.03722065 -0.1202205 0.3788815 255 0 255
-0.03415719 -0.1180308 0.3744457 255 0 255
-0.03316769 -0.1176063 0.3735504 255 0 255
-0.0283383 -0.1154532 0.3690249 255 0 255
-0.02348882 -0.1165152 0.3706094 255 0 255
-0.02252381 -0.1165361 0.3705622 255 0 255
-0.01958267 -0.1170549 0.3712835 255 0 255
-0.01764617 -0.1170812 0.3711581 255 0 255
-0.01356413 -0.1185133 0.373511 255 0 255
-0.01251087 -0.1189838 0.3743097 255 0 255
-0.009219472 -0.1208514 0.3775613 255 0 255
-0.005232778 -0.1208263 0.377148 255 0 255
-0.002474193 -0.1198553 0.3750471 255 0 255
0.0003589225 -0.1193353 0.3737963 255 0 255
0.001210919 -0.1188476 0.3727897 255 0 255
0.00579269 -0.1177831 0.3703392 255 0 255
0.006759168 -0.1177514 0.3701889 255 0 255
0.009490646 -0.1171807 0.368848 255 0 255
0.01600665 -0.1164105 0.3667704 255 0 255
0.01960154 -0.1157348 0.365145 255 0 255
0.02287059 -0.1164828 0.3662583 255 0 255
0.03431528 -0.1175323 0.3671615 255 0 255
0.03553504 -0.1179079 0.3677592 255 0 255
0.05332283 -0.1214265 0.3727328 255 0 255
0.05757952 -0.1214006 0.3722662 255 0 255
0.06246852 -0.1207609 0.370566 255 0 255
-0.03634238 -0.1230183 0.3819514 255 0 255
-0.02930665 -0.1181408 0.3721389 255 0 255
-0.02739053 -0.1172637 0.3703155 255 0 255
-0.02638682 -0.1182308 0.3720472 255 0 255
-0.02245982 -0.118796 0.3727591 255 0 255
-0.01757816 -0.118876 0.3724684 255 0 255
-0.01556432 -0.119366 0.3732084 255 0 255
-0.002403605 -0.1212022 0.3754592 255 0 255
0.008647637 -0.1185463 0.3694223 255 0 255
0.01424237 -0.1178306 0.3675445 255 0 255
0.01711081 -0.1176836 0.3669946 255 0 255
0.02282746 -0.1173425 0.3658044 255 0 255
0.03401051 -0.1179423 0.3658535 255 0 255
0.03891301 -0.1194448 0.3682088 255 0 255
0.04430353 -0.1198884 0.368516 255 0 255
0.04811109 -0.1209543 0.3701512 255 0 255
0.05425804 -0.1222219 0.3719334 255 0 255
0.05655047 -0.1224382 0.3721131 255 0 255
0.06206685 -0.1212225 0.3692654 255 0 255
0.0649722 -0.1208178 0.3682086 255 0 255
-0.03331828 -0.123098 0.3796921 255 0 255
-0.01336775 -0.1221374 0.3761047 255 0 255
-0.002333933 -0.1225541 0.3758642 255 0 255
0.003078013 -0.1205382 0.3715951 255 0 255
0.01228322 -0.118778 0.3674369 255 0 255
0.01324139 -0.1187342 0.3672637 255 0 255
0.01515571 -0.1186415 0.3669072 255 0 255
0.0170672 -0.1185416 0.3665372 255 0 255
0.02278362 -0.1182003 0.3653473 255 0 255
0.03110572 -0.1190487 0.3661195 255 0 255
0.04648689 -0.1210332 0.3683019 255 0 255
0.05519105 -0.1230133 0.3711273 255 0 255
0.06007489 -0.1223922 0.369469 255 0 255
0.06237298 -0.1225867 0.3695983 255 0 255
0.06573832 -0.1175431 0.3598129 255 0 255
-0.03438266 -0.1244135 0.3801072 255 0 255
-0.02932641 -0.1241318 0.3791389 255 0 255
-0.02336732 -0.1228738 0.3762803 255 0 255
-0.02237095 -0.1228958 0.3762313 255 0 255
-0.007635687 -0.1273102 0.3830465 255 0 255
-0.001149849 -0.1243721 0.3770101 255 0 255
0.001467331 -0.1228824 0.3740096 255 0 255
0.006933805 -0.1212881 0.3705433 255 0 255
0.01048877 -0.120192 0.3681761 255 0 255
0.01721789 -0.119872 0.3669351 255 0 255
0.02062644 -0.1187038 0.3644413 255 0 255
0.02771732 -0.1191949 0.3646531 255 0 255
0.03106028 -0.1199145 0.3656539 255 0 255
0.03201451 -0.1198365 0.3654145 255 0 255
0.03418029 -0.1201449 0.3657695 255 0 255
0.04006235 -0.1215808 0.3678385 255 0 255
0.04577067 -0.1224913 0.3689477 255 0 255
0.05645347 -0.1242626 0.371137 255 0 255
0.06739091 -0.1217531 0.3653454 255 0 255
-0.02626972 -0.1270276 0.3820725 255 0 255
-0.02424798 -0.1266025 0.3811128 255 0 255
-0.02126492 -0.12571 0.3792097 255 0 255
-0.01282701 -0.128213 0.3830254 255 0 255
-0.009494009 -0.1296623 0.3853729 255 0 255
-0.003361529 -0.1291447 0.3838545 255 0 255
0.001808214 -0.125198 0.3761374 255 0 255
0.007862409 -0.1221192 0.3699187 255 0 255
0.008835307 -0.1220838 0.3697604 255 0 255
0.01813119 -0.120677 0.3662786 255 0 255
0.02364369 -0.1198472 0.3642131 255 0 255
0.02648815 -0.1196473 0.3635634 255 0 255
0.03508888 -0.1209283 0.3650485 255 0 255
0.03877356 -0.1220817 0.3667908 255 0 255
-0.02826761 -0.1322063 0.3895306 255 0 255
-0.02620375 -0.1308213 0.3868337 255 0 255
-0.01901015 -0.129534 0.3838504 255 0 255
-0.01688648 -0.1300476 0.384589 255 0 255
-0.01140213 -0.1320252 0.3876745 255 0 255
-0.002156753 -0.1310105 0.3849714 255 0 255
0.001890467 -0.1265649 0.3765189 255 0 255
0.00448043 -0.125039 0.3735014 255 0 255
0.006165351 -0.1240136 0.371478 255 0 255
0.01153319 -0.1223477 0.3679329 255 0 255
0.01424754 -0.1217336 0.3665521 255 0 255
0.01924524 -0.1219591 0.3664687 255 0 255
0.02738834 -0.1204291 0.3628734 255 0 255
0.03096715 -0.1216405 0.3647126 255 0 255
0.03408651 -0.1218772 0.3648248 255 0 255
0.03626297 -0.1221837 0.3651589 255 0 255
0.06694119 -0.1168295 0.3521521 255 0 255
0.06312943 -0.1101112 0.3403203 255 0 255
-0.02097499 -0.1323489 0.3869606 255 0 255
-0.002303773 -0.1363263 0.3923873 255 0 255
0.00556831 -0.1263717 0.373732 255 0 255
0.00808183 -0.1248156 0.3706889 255 0 255
0.01051988 -0.1232457 0.3676263 255 0 255
0.0124533 -0.1231628 0.3672873 255 0 255
0.02828681 -0.1212072 0.362177 255 0 255
0.03187354 -0.1224224 0.3639978 255 0 255
0.04280885 -0.1239279 0.3655718 255 0 255
0.04377041 -0.1238282 0.3652907 255 0 255
-0.02693285 -0.1468239 0.4111328 255 0 255
-0.02360361 -0.1439801 0.4057703 255 0 255
-0.02149735 -0.1415811 0.4013079 255 0 255
-0.02053071 -0.139642 0.3977665 255 0 255
-0.01496476 -0.140218 0.3982859 255 0 255
-0.01076634 -0.1387766 0.3953313 255 0 255
-0.008177202 -0.1412357 0.3994716 255 0 255
-0.006726165 -0.1431988 0.4028337 255 0 255
2.45569E-05 -0.1382241 0.3933333 255 0 255
0.002692531 -0.1317664 0.3815698 255 0 255
0.005085541 -0.1292375 0.3768315 255 0 255
0.006662319 -0.1277073 0.3739509 255 0 255
0.01047304 -0.1241014 0.3671486 255 0 255
0.01240632 -0.1240185 0.3668096 255 0 255
0.03468131 -0.1230349 0.3627817 255 0 255
0.03712215 -0.123827 0.3639397 255 0 255
0.03807776 -0.1237373 0.3636786 255 0 255
0.04817182 -0.125242 0.3652897 255 0 255
0.0513773 -0.1253847 0.3651979 255 0 255
0.06590515 -0.1138979 0.3430192 255 0 255
0.06187341 -0.1071094 0.3313123 255 0 255
-0.01678116 -0.1455993 0.4057072 255 0 255
-0.001472455 -0.1481117 0.4087184 255 0 255
-0.000353058 -0.1426485 0.3989659 255 0 255
0.007056158 -0.1300653 0.3760278 255 0 255
0.02411843 -0.1247142 0.3648556 255 0 255
0.02558081 -0.123602 0.3627377 255 0 255
0.03558191 -0.1238053 0.3620475 255 0 255
0.03680152 -0.1242038 0.3626229 255 0 255
0.03775329 -0.1241143 0.362363 255 0 255
0.04117377 -0.1248039 0.363217 255 0 255
0.04241831 -0.1251905 0.3637674 255 0 255
0.06339392 -0.1283579 0.3670668 255 0 255
0.06825667 -0.127652 0.3652629 255 0 255
0.06875931 -0.1169066 0.3461211 255 0 255
0.0100612 -0.1278309 0.3697586 255 0 255
0.01087748 -0.1272954 0.3687395 255 0 255
0.01265929 -0.1267156 0.3675458 255 0 255
0.01520483 -0.1255862 0.3653106 255 0 255
0.02118339 -0.1257561 0.3649965 255 0 255
0.02310795 -0.1256332 0.364582 255 0 255
0.02696017 -0.1233259 0.3601357 255 0 255
0.02790153 -0.123254 0.3599104 255 0 255
0.03267876 -0.1249109 0.3623091 255 0 255
0.06699578 -0.1297957 0.3670795 255 0 255
0.07013582 -0.1282563 0.3640072 255 0 255
0.07477952 -0.1285889 0.3640501 255 0 255
0.07454459 -0.1270121 0.3613007 255 0 255
0.07237496 -0.1219785 0.3526899 255 0 255
0.06925706 -0.1149307 0.3406408 255 0 255
0.008115851 -0.1323024 0.3757125 255 0 255
0.01033692 -0.1296938 0.3709648 255 0 255
0.01746881 -0.1273317 0.3661408 255 0 255
0.01940723 -0.1272227 0.3657517 255 0 255
0.02571006 -0.1257921 0.3626084 255 0 255
0.03167509 -0.1258436 0.3620627 255 0 255
0.06124846 -0.1288449 0.3639863 255 0 255
0.06425834 -0.1300204 0.3656866 255 0 255
0.06851963 -0.12993 0.3650312 255 0 255
0.07046129 -0.1296327 0.3642837 255 0 255
0.07472237 -0.1294922 0.363533 255 0 255
0.07129559 -0.1181053 0.3440554 255 0 255
0.007468521 -0.1382896 0.3840307 255 0 255
0.01127703 -0.1305225 0.3702937 255 0 255
0.02052959 -0.1285211 0.3658984 255 0 255
0.03691756 -0.1272658 0.3619774 255 0 255
0.03759909 -0.1266799 0.3608924 255 0 255
0.04226135 -0.1277853 0.3622803 255 0 255
0.04380419 -0.1286729 0.3636385 255 0 255
0.04603091 -0.1289589 0.3638815 255 0 255
0.05019991 -0.1290125 0.3635015 255 0 255
0.05567555 -0.1294001 0.3635421 255 0 255
0.07564288 -0.1264011 0.3559806 255 0 255
0.07542014 -0.1236928 0.351316 255 0 255
0.02047803 -0.1293771 0.3653986 255 0 255
0.02144898 -0.1293178 0.3651949 255 0 255
0.02870764 -0.1277734 0.3617819 255 0 255
0.03207295 -0.1285447 0.362732 255 0 255
0.05590966 -0.1291709 0.3610974 255 0 255
0.06511723 -0.1316719 0.3642899 255 0 255
0.06802956 -0.13124 0.3631993 255 0 255
0.06958213 -0.1304572 0.3616687 255 0 255
0.07753958 -0.1258232 0.3527324 255 0 255
0.07633765 -0.1232647 0.3484864 255 0 255
0.07381345 -0.1192781 0.3419515 255 0 255
0.01531017 -0.132585 0.3694119 255 0 255
0.01887542 -0.1313609 0.3669694 255 0 255
0.04244119 -0.1300061 0.3620884 255 0 255
0.05393653 -0.1302874 0.36123 255 0 255
0.06107726 -0.1315003 0.3624382 255 0 255
0.06603049 -0.1324221 0.363405 255 0 255
0.07630937 -0.1330015 0.3631228 255 0 255
0.0782501 -0.1326728 0.3623203 255 0 255
0.01561936 -0.1344755 0.3705761 255 0 255
0.01901891 -0.1327313 0.3672954 255 0 255
0.02196822 -0.1325566 0.3666874 255 0 255
0.02349855 -0.1314098 0.3646004 255 0 255
0.02835053 -0.1310656 0.3634939 255 0 255
0.03414264 -0.1305919 0.3620551 255 0 255
0.04142335 -0.1309654 0.3618545 255 0 255
0.04971666 -0.1311254 0.3611572 255 0 255
0.05579524 -0.1309097 0.36007 255 0 255
0.06791028 -0.1330216 0.362147 255 0 255
0.06925528 -0.1333664 0.3625611 255 0 255
0.0766469 -0.1343922 0.3633636 255 0 255
0.01674833 -0.135812 0.370703 255 0 255
0.01994863 -0.133535 0.3665803 255 0 255
0.02755835 -0.1325039 0.3640375 255 0 255
0.03337844 -0.1320389 0.3626136 255 0 255
0.03888617 -0.1309986 0.3602537 255 0 255
0.04869767 -0.1321022 0.3609424 255 0 255
0.05125513 -0.1328834 0.3619395 255 0 255
0.05929628 -0.132393 0.3601459 255 0 255
0.06651036 -0.1335585 0.3611975 255 0 255
0.06784921 -0.1339093 0.3616158 255 0 255
0.07618508 -0.1348021 0.3620503 255 0 255
0.07755864 -0.1351303 0.362423 255 0 255
0.08129914 -0.1356059 0.3627354 255 0 255
0.08209894 -0.1326387 0.3576599 255 0 255
0.01403338 -0.1410288 0.3776076 255 0 255
0.01825996 -0.1381883 0.3724854 255 0 255
0.02206653 -0.1347922 0.3664827 255 0 255
0.03787197 -0.1319414 0.3600047 255 0 255
0.0438154 -0.1335012 0.3618834 255 0 255
0.04515025 -0.1322723 0.3596956 255 0 255
0.04863925 -0.1329642 0.3604215 255 0 255
0.05119601 -0.1337519 0.3614149 255 0 255
0.06548192 -0.1345852 0.3610263 255 0 255
0.06681828 -0.1349416 0.3614475 255 0 255
0.07106907 -0.1348417 0.3607395 255 0 255
0.07749466 -0.1360305 0.3618798 255 0 255
0.08341447 -0.1338421 0.3574637 255 0 255
0.01586911 -0.1413097 0.375856 255 0 255
0.02022668 -0.1389576 0.37155 255 0 255
0.02063767 -0.137335 0.3688569 255 0 255
0.03519712 -0.1335743 0.3610767 255 0 255
0.03616151 -0.1334865 0.3608211 255 0 255
0.03904847 -0.1332119 0.3600342 255 0 255
0.04635156 -0.1335321 0.3596886 255 0 255
0.05016876 -0.134734 0.3611949 255 0 255
0.07332788 -0.1359162 0.360207 255 0 255
0.08231678 -0.1274368 0.3450312 255 0 255
0.07869001 -0.1212032 0.3352403 255 0 255
0.02754938 -0.1377473 0.3668111 255 0 255
0.03054466 -0.1353576 0.3625995 255 0 255
0.03443098 -0.1350306 0.3616204 255 0 255
0.04398824 -0.1357378 0.3616355 255 0 255
0.04629187 -0.1343869 0.359163 255 0 255
