ply
format ascii 1.0
Comment Generated by Floating Hands
element vertex 443
Comment Left: (0.0, 0.0, 0.0)
Comment Right: (0.1, 0.0, 0.5)
Comment Time: 2023-05-01 08:47:12,883
property double x
property double y
property double z
property uchar red
property uchar green
property uchar blue
end_header
0.02262402 0.04429445 0.4460874 255 0 255
0.0153274 0.03212446 0.3569362 255 0 255
0.04791938 0.05037612 0.464647 255 0 255
0.0206741 0.03423004 0.3750681 255 0 255
0.05170868 0.05110822 0.4771323 255 0 255
0.02605513 0.04164415 0.440498 255 0 255
0.03046468 0.03860039 0.4084003 255 0 255
0.04056359 0.04856141 0.4941701 255 0 255
0.01914144 0.03528294 0.4036049 255 0 255
0.01267826 0.02834637 0.3498836 255 0 255
0.04582963 0.04563382 0.4607532 255 0 255
0.04079455 0.04605931 0.4840636 255 0 255
0.01447792 0.0287302 0.3587705 255 0 255
0.03551601 0.03937541 0.4289199 255 0 255
0.04325164 0.04390548 0.4732831 255 0 255
0.03916475 0.04130029 0.4538417 255 0 255
0.04001307 0.04129678 0.4525581 255 0 255
0.04518766 0.04350497 0.4665143 255 0 255
0.03155109 0.02071958 0.4652912 255 0 255
0.03164666 0.01925088 0.4602129 255 0 255
0.02734206 0.01669139 0.4377047 255 0 255
0.02014322 0.01364681 0.4045821 255 0 255
0.04082073 0.01845748 0.4806843 255 0 255
0.007164787 0.009622531 0.3502416 255 0 255
0.02897101 0.0143551 0.430191 255 0 255
0.04262546 0.01724059 0.4771761 255 0 255
0.008964881 0.009048643 0.3508356 255 0 255
0.02774812 0.01278518 0.4171305 255 0 255
0.04225929 0.01562267 0.4659531 255 0 255
0.01423068 0.009114593 0.3639278 255 0 255
0.03197664 0.01234751 0.4242975 255 0 255
0.04581396 0.01483326 0.4691603 255 0 255
0.05446175 0.01634841 0.4947257 255 0 255
0.01806925 0.008821017 0.3711846 255 0 255
0.03632452 0.01186656 0.4314125 255 0 255
0.0519505 0.01445111 0.4809561 255 0 255
0.02371284 0.008742695 0.3841453 255 0 255
0.04477421 0.01195477 0.4518813 255 0 255
0.01668998 0.00679792 0.3570831 255 0 255
0.1300086 0.01849901 0.4823316 255 0 255
0.1336903 0.01927845 0.4803026 255 0 255
0.1378354 0.02013068 0.4791005 255 0 255
0.1260174 0.01624689 0.4834211 255 0 255
0.1272526 0.01650019 0.4827662 255 0 255
0.1284852 0.01675523 0.4821064 255 0 255
0.1297152 0.01701177 0.4814417 255 0 255
0.1314142 0.01732092 0.4816524 255 0 255
0.1326421 0.01758138 0.4809761 255 0 255
0.133389 0.01779103 0.4794183 255 0 255
0.1355716 0.01816023 0.4804835 255 0 255
0.1367947 0.01842615 0.4797907 255 0 255
0.1375268 0.01863916 0.478222 255 0 255
0.1232567 0.01426617 0.4838116 255 0 255
0.1244944 0.01451623 0.4831683 255 0 255
0.1252707 0.01472354 0.4816328 255 0 255
0.1265 0.01497617 0.4809814 255 0 255
0.1277265 0.01523034 0.4803253 255 0 255
0.1289505 0.01548615 0.4796642 255 0 255
0.1306441 0.01579063 0.4798785 255 0 255
0.1318661 0.01605034 0.4792059 255 0 255
0.1326066 0.01626306 0.4776519 255 0 255
0.1347843 0.01662375 0.4787208 255 0 255
0.1364869 0.01693886 0.4789046 255 0 255
0.1367272 0.01710502 0.4764669 255 0 255
0.1217343 0.01254701 0.4835381 255 0 255
0.1225193 0.01275631 0.4820106 255 0 255
0.123751 0.01300566 0.4813708 255 0 255
0.1245208 0.01321611 0.4798389 255 0 255
0.1262067 0.01350909 0.4800767 255 0 255
0.1269646 0.01372134 0.4785386 255 0 255
0.128652 0.01401891 0.4787632 255 0 255
0.1303434 0.01431947 0.4789793 255 0 255
0.1320388 0.01462302 0.4791869 255 0 255
0.1327795 0.01484028 0.477633 255 0 255
0.1344762 0.01514843 0.4778273 255 0 255
0.1356908 0.01541357 0.4771401 255 0 255
0.1364135 0.01563348 0.4755772 255 0 255
0.1218997 0.01111897 0.4835131 255 0 255
0.1217788 0.01126235 0.4802042 255 0 255
0.1230044 0.0115109 0.479568 255 0 255
0.123308 0.01168791 0.4771523 255 0 255
0.1245218 0.01193829 0.47651 255 0 255
0.1261996 0.0122282 0.4767466 255 0 255
0.1274116 0.01248243 0.4760928 255 0 255
0.1295673 0.01281698 0.4771945 255 0 255
0.1307807 0.0130758 0.4765274 255 0 255
0.1315117 0.01329546 0.4749791 255 0 255
0.1331996 0.01359827 0.4751789 255 0 255
0.134405 0.01386184 0.4744975 255 0 255
0.1356077 0.01412707 0.4738112 255 0 255
0.1220637 0.009691263 0.4834826 255 0 255
0.1219421 0.009846913 0.4801739 255 0 255
0.1231685 0.01009603 0.4795377 255 0 255
0.123932 0.01031414 0.4780095 255 0 255
0.1246863 0.0105324 0.47648 255 0 255
0.1258983 0.01078499 0.4758329 255 0 255
0.1275779 0.01107391 0.4760628 255 0 255
0.1297352 0.01140134 0.4771643 255 0 255
0.1309493 0.01166081 0.4764974 255 0 255
0.1316806 0.01188497 0.4749492 255 0 255
0.1333696 0.01218453 0.475149 255 0 255
0.1350625 0.01248716 0.4753402 255 0 255
0.135779 0.01271466 0.4737813 255 0 255
0.1205369 0.007989272 0.483184 255 0 255
0.1213252 0.00821041 0.4816617 255 0 255
0.1221042 0.008431814 0.4801381 255 0 255
0.1233312 0.008681589 0.4795019 255 0 255
0.1236343 0.008875332 0.4770867 255 0 255
0.1248495 0.009126932 0.4764444 255 0 255
0.1255947 0.009349904 0.4749138 255 0 255
0.1268014 0.009603977 0.4742637 255 0 255
0.1284796 0.009891219 0.4744888 255 0 255
0.1296844 0.01014919 0.4738274 255 0 255
0.1308866 0.01040876 0.4731612 255 0 255
0.1325701 0.01070365 0.4733646 255 0 255
0.1342576 0.01100159 0.4735595 255 0 255
0.1354583 0.01126739 0.4728752 255 0 255
0.1211448 0.006587768 0.4840361 255 0 255
0.1219367 0.006814035 0.4825122 255 0 255
0.1222649 0.007017114 0.4800965 255 0 255
0.1234926 0.007267437 0.4794604 255 0 255
0.1242566 0.007494475 0.4779325 255 0 255
0.1250114 0.00772178 0.4764032 255 0 255
0.1257568 0.00794925 0.4748728 255 0 255
0.1269641 0.008203926 0.4742228 255 0 255
0.1281689 0.008460212 0.473568 255 0 255
0.129371 0.008718099 0.4729085 255 0 255
0.1305705 0.008977538 0.4722441 255 0 255
0.1322519 0.009268492 0.4724493 255 0 255
0.1339372 0.009562514 0.4726461 255 0 255
0.1351353 0.009828188 0.4719637 255 0 255
0.1217522 0.005178855 0.4848824 255 0 255
0.1229992 0.005429277 0.4842491 255 0 255
0.123334 0.005642043 0.4818302 255 0 255
0.1241109 0.005874029 0.480302 255 0 255
0.1244169 0.006085234 0.4778856 255 0 255
0.1251719 0.006317008 0.4763566 255 0 255
0.124981 0.006504104 0.4730597 255 0 255
0.1257107 0.006734833 0.4715319 255 0 255
0.127381 0.007013492 0.4717622 255 0 255
0.1285771 0.007270547 0.4711064 255 0 255
0.1297706 0.007529203 0.4704458 255 0 255
0.1314465 0.007815478 0.4706546 255 0 255
0.1331262 0.008104786 0.470855 255 0 255
0.1343184 0.008369667 0.4701765 255 0 255
0.1202154 0.003485089 0.484562 255 0 255
0.1214622 0.003733761 0.4839354 255 0 255
0.1227065 0.003984123 0.4833038 255 0 255
0.1234929 0.004220325 0.4817772 255 0 255
0.12427 0.00445682 0.4802492 255 0 255
0.1250378 0.004693566 0.4787199 255 0 255
0.1257964 0.004930503 0.4771893 255 0 255
0.1256082 0.005130553 0.4738911 255 0 255
0.1263414 0.005366509 0.4723616 255 0 255
0.1275408 0.005622614 0.4717106 255 0 255
0.1287376 0.005880316 0.4710547 255 0 255
0.1294497 0.006118174 0.4695184 255 0 255
0.1306378 0.006378346 0.468855 255 0 255
0.1323121 0.006662962 0.469059 255 0 255
0.1334983 0.006927019 0.4683843 255 0 255
0.1233161 0.002569523 0.4841368 255 0 255
0.1236505 0.002799053 0.4817186 255 0 255
0.1244279 0.003040017 0.4801909 255 0 255
0.1247335 0.003267987 0.4777752 255 0 255
0.1254889 0.003508709 0.4762465 255 0 255
0.1262349 0.003749665 0.4747166 255 0 255
0.1269718 0.003990822 0.4731856 255 0 255
0.1281751 0.004248248 0.4725327 255 0 255
0.1288967 0.004490466 0.4709977 255 0 255
0.1296089 0.004732847 0.4694614 255 0 255
0.1303119 0.004975371 0.4679243 255 0 255
0.1314948 0.005237003 0.4672581 255 0 255
0.1321825 0.005480498 0.4657171 255 0 255
0.1242629 0.001386221 0.4825443 255 0 255
0.1250439 0.00163236 0.481015 255 0 255
0.1253527 0.001869373 0.478598 255 0 255
0.1261116 0.002115314 0.4770678 255 0 255
0.1263917 0.002350652 0.4746535 255 0 255
0.1271287 0.002596294 0.4731227 255 0 255
0.1283327 0.002854352 0.4724699 255 0 255
0.1290544 0.003101052 0.470935 255 0 255
0.1297669 0.003347932 0.4693991 255 0 255
0.1299838 0.003580568 0.4669884 255 0 255
0.1311639 0.003842118 0.4663242 255 0 255
0.1323415 0.004105256 0.4656553 255 0 255
0.1236277 -0.000288424 0.4840021 255 0 255
0.1244183 -3.805251E-05 0.4824744 255 0 255
0.1247395 0.0002077787 0.4800573 255 0 255
0.1250447 0.0004524624 0.4776424 255 0 255
0.1258006 0.0007021704 0.4761143 255 0 255
0.126547 0.0009520904 0.4745848 255 0 255
0.1268108 0.00119459 0.4721735 255 0 255
0.1280121 0.001452563 0.4715225 255 0 255
0.1282507 0.001693955 0.4691125 255 0 255
0.1294401 0.001953694 0.4684559 255 0 255
0.1296534 0.002193906 0.4660475 255 0 255
0.1308309 0.002455389 0.4653852 255 0 255
0.1320056 0.002718433 0.4647182 255 0 255
0.1225313 -0.001970133 0.4845593 255 0 255
0.123328 -0.001716248 0.483035 255 0 255
0.1236584 -0.001462302 0.4806198 255 0 255
0.124433 -0.001208579 0.4790944 255 0 255
0.1247346 -0.0009562764 0.4766818 255 0 255
0.1254873 -0.0007027625 0.4751556 255 0 255
0.1267011 -0.0004459906 0.4745107 255 0 255
0.1274385 -0.0001913637 0.4729804 255 0 255
0.1281666 6.345106E-05 0.4714489 255 0 255
0.1288854 0.0003184347 0.4699164 255 0 255
0.1295948 0.0005735669 0.4683827 255 0 255
0.1298079 0.0008221632 0.4659749 255 0 255
0.1304955 0.001076853 0.4644412 255 0 255
0.1316676 0.001339788 0.4637762 255 0 255
0.123026 -0.003135788 0.4820627 255 0 255
0.1233528 -0.002874223 0.4796498 255 0 255
0.1241243 -0.002616722 0.4781264 255 0 255
0.1244223 -0.002356728 0.4757161 255 0 255
0.1256393 -0.002100935 0.4750759 255 0 255
0.1268537 -0.001843591 0.474431 255 0 255
0.1280656 -0.001584601 0.4737814 255 0 255
0.1283196 -0.00132519 0.4713698 255 0 255
0.1290386 -0.001065679 0.4698375 255 0 255
0.1297483 -0.0008060579 0.4683042 255 0 255
0.1304487 -0.0005462824 0.4667699 255 0 255
0.1306489 -0.0002899338 0.4643635 255 0 255
0.1323158 -2.203682E-05 0.4645678 255 0 255
0.1223826 -0.004817416 0.4834981 255 0 255
0.1227219 -0.004547068 0.4810854 255 0 255
0.1230451 -0.004277857 0.4786747 255 0 255
0.1238135 -0.004016607 0.4771533 255 0 255
0.1245724 -0.003755054 0.4756307 255 0 255
0.1253221 -0.003493301 0.4741069 255 0 255
0.1260625 -0.003231347 0.4725819 255 0 255
0.1267936 -0.00296917 0.4710557 255 0 255
0.1275153 -0.002706828 0.4695285 255 0 255
0.1282278 -0.002444322 0.4680002 255 0 255
0.1294157 -0.00218343 0.4673456 255 0 255
0.1306009 -0.001920936 0.4666862 255 0 255
0.1308009 -0.001656233 0.4642803 255 0 255
0.1319742 -0.001391974 0.4636154 255 0 255
0.1220799 -0.006228129 0.4825134 255 0 255
0.1224157 -0.005950107 0.4801029 255 0 255
0.1231935 -0.005684635 0.4785832 255 0 255
0.1235004 -0.005408198 0.4761752 255 0 255
0.1247212 -0.00515287 0.47554 255 0 255
0.1259394 -0.004895871 0.4748999 255 0 255
0.1257399 -0.004611663 0.47161 255 0 255
0.1269429 -0.004353507 0.4709659 255 0 255
0.1271864 -0.004079564 0.4685608 255 0 255
0.127414 -0.003806948 0.4661584 255 0 255
0.1290809 -0.003552535 0.4663819 255 0 255
0.129775 -0.003285229 0.4648519 255 0 255
0.1304597 -0.003017837 0.463321 255 0 255
0.1316303 -0.002753703 0.4626581 255 0 255
0.1226787 -0.007663817 0.4833076 255 0 255
0.1234729 -0.007392721 0.4817861 255 0 255
0.1237991 -0.00710616 0.4793748 255 0 255
0.1236473 -0.006806019 0.4760789 255 0 255
0.125334 -0.006563992 0.4763286 255 0 255
0.1265562 -0.006305729 0.4756869 255 0 255
0.1263594 -0.006008499 0.4723961 255 0 255
0.1275664 -0.005749051 0.4717502 255 0 255
0.1273342 -0.005455074 0.4684661 255 0 255
0.1275615 -0.005174068 0.4660643 255 0 255
0.1282584 -0.00490389 0.4645393 255 0 255
0.1294348 -0.004642363 0.4638857 255 0 255
0.1301164 -0.004371195 0.462357 255 0 255
0.1312843 -0.004107156 0.461696 255 0 255
0.1240748 -0.008830491 0.4825727 255 0 255
0.1244042 -0.008534805 0.4801603 255 0 255
0.1242551 -0.008221798 0.4768635 255 0 255
0.126412 -0.00800005 0.4779961 255 0 255
0.1267033 -0.007705701 0.475585 255 0 255
0.1269785 -0.007412537 0.4731761 255 0 255
0.1272376 -0.007120642 0.4707699 255 0 255
0.1274806 -0.006830025 0.468366 255 0 255
0.1272251 -0.006526561 0.4650891 255 0 255
0.1279188 -0.006252653 0.4635662 255 0 255
0.1290925 -0.005991238 0.4629145 255 0 255
0.1297709 -0.005716278 0.4613881 255 0 255
0.131432 -0.005463515 0.4615974 255 0 255
0.1250088 -0.009970655 0.4809397 255 0 255
0.1248625 -0.009644763 0.4776421 255 0 255
0.1260919 -0.009386185 0.4770034 255 0 255
0.1263795 -0.009084225 0.4745948 255 0 255
0.1261781 -0.008763292 0.4713076 255 0 255
0.1264303 -0.008464517 0.4689055 255 0 255
0.1261867 -0.008148296 0.4656287 255 0 255
0.1264035 -0.007852788 0.4632336 255 0 255
0.127577 -0.007593133 0.4625884 255 0 255
0.1282582 -0.007315322 0.4610669 255 0 255
0.1294232 -0.007053153 0.4604144 255 0 255
0.1305856 -0.006789371 0.4597574 255 0 255
0.1256128 -0.01141366 0.4817128 255 0 255
0.1250061 -0.01104867 0.4775286 255 0 255
0.126236 -0.01078949 0.4768901 255 0 255
0.1265235 -0.01047918 0.4744821 255 0 255
0.1267948 -0.01017009 0.4720764 255 0 255
0.1270501 -0.009862219 0.4696732 255 0 255
0.1272894 -0.009555661 0.4672726 255 0 255
0.1275126 -0.009250329 0.4648745 255 0 255
0.1286934 -0.008988542 0.4642258 255 0 255
0.1293814 -0.008704752 0.4627009 255 0 255
0.1300602 -0.008420898 0.4611752 255 0 255
0.1312265 -0.008155696 0.4605163 255 0 255
0.1266764 -0.01289449 0.4833671 255 0 255
0.1256119 -0.012482 0.4782952 255 0 255
0.1263789 -0.0121922 0.4767712 255 0 255
0.1266661 -0.01187353 0.4743639 255 0 255
0.1269372 -0.0115561 0.471959 255 0 255
0.1276694 -0.01126705 0.4704349 255 0 255
0.1279118 -0.01095137 0.4680332 255 0 255
0.1281382 -0.01063702 0.465634 255 0 255
0.1283485 -0.01032396 0.4632376 255 0 255
0.1290334 -0.01003646 0.461715 255 0 255
0.129709 -0.00974887 0.4601915 255 0 255
0.1308725 -0.009483797 0.4595347 255 0 255
0.1262172 -0.01392242 0.4790556 255 0 255
0.126053 -0.01356107 0.4757634 255 0 255
0.1263366 -0.01323479 0.4733586 255 0 255
0.1270783 -0.01294148 0.4718361 255 0 255
0.1278107 -0.01264796 0.4703124 255 0 255
0.1280529 -0.01232397 0.4679115 255 0 255
0.128279 -0.01200125 0.4655131 255 0 255
0.1289767 -0.01170868 0.46399 255 0 255
0.129665 -0.01141597 0.462466 255 0 255
0.1298499 -0.0110958 0.4600722 255 0 255
0.1310139 -0.01083011 0.4594153 255 0 255
0.128215 -0.01548322 0.4824643 255 0 255
0.1271283 -0.0150327 0.4774 255 0 255
0.1274185 -0.01469665 0.4749924 255 0 255
0.1281671 -0.01439741 0.4734668 255 0 255
0.1289064 -0.01409794 0.47194 255 0 255
0.1286738 -0.01373 0.4686603 255 0 255
0.1293876 -0.01343162 0.467135 255 0 255
0.1300922 -0.01313305 0.4656086 255 0 255
0.1302961 -0.01280246 0.4632109 255 0 255
0.130484 -0.01247325 0.4608161 255 0 255
0.1316519 -0.0122062 0.4601575 255 0 255
0.1277356 -0.0164782 0.4781469 255 0 255
0.128029 -0.0161331 0.4757384 255 0 255
0.1287812 -0.01582867 0.4742115 255 0 255
0.1290457 -0.01548527 0.471806 255 0 255
0.1292941 -0.01514313 0.4694029 255 0 255
0.1300115 -0.01483956 0.4678763 255 0 255
0.1302312 -0.01449927 0.4654766 255 0 255
0.1299432 -0.01412465 0.4622098 255 0 255
0.1306226 -0.01382281 0.4606858 255 0 255
0.1312927 -0.01352088 0.4591609 255 0 255
0.1288108 -0.01797555 0.4797699 255 0 255
0.1291108 -0.01762063 0.4773587 255 0 255
0.1293946 -0.01726695 0.4749499 255 0 255
0.1291837 -0.01687193 0.4716665 255 0 255
0.1289499 -0.01647965 0.4683892 255 0 255
0.129664 -0.0161723 0.4668647 255 0 255
0.1289027 -0.01574381 0.4627248 255 0 255
0.1290961 -0.01539886 0.4603344 255 0 255
0.1302644 -0.01513289 0.4596824 255 0 255
0.1309313 -0.01482721 0.4581599 255 0 255
0.130665 -0.01917075 0.4798521 255 0 255
0.1300074 -0.01871225 0.4756821 255 0 255
0.1297993 -0.01830431 0.4723981 255 0 255
0.1295682 -0.0178991 0.4691203 255 0 255
0.1302859 -0.01758657 0.4675945 255 0 255
0.1300161 -0.01718545 0.4643256 255 0 255
0.1302159 -0.01683066 0.4619324 255 0 255
0.1308956 -0.01651988 0.4604093 255 0 255
0.1320651 -0.0162509 0.459751 255 0 255
0.1315717 -0.02026654 0.4781638 255 0 255
0.1308937 -0.01979392 0.4739996 255 0 255
0.130186 -0.01932556 0.4698452 255 0 255
0.1309073 -0.01900777 0.4683181 255 0 255
0.1306401 -0.01859379 0.4650486 255 0 255
0.1308431 -0.01822989 0.4626544 255 0 255
0.1315263 -0.0179139 0.4611301 255 0 255
0.1322001 -0.01759778 0.4596049 255 0 255
0.132184 -0.02173347 0.4788824 255 0 255
0.1310287 -0.02119002 0.4738426 255 0 255
0.1303201 -0.02070561 0.4696899 255 0 255
0.1305549 -0.02033074 0.4672912 255 0 255
0.1302839 -0.01990534 0.4640251 255 0 255
0.1309764 -0.01958502 0.462502 255 0 255
0.1316598 -0.01926453 0.4609782 255 0 255
0.1318338 -0.01889435 0.4585888 255 0 255
0.133563 -0.02287508 0.4780564 255 0 255
0.1323868 -0.02231375 0.4730231 255 0 255
0.1316611 -0.02181466 0.4688748 255 0 255
0.1309059 -0.0213199 0.4647366 255 0 255
0.1316021 -0.02099432 0.4632123 255 0 255
0.1322888 -0.0206686 0.4616871 255 0 255
0.1329663 -0.02034276 0.4601611 255 0 255
0.1334873 -0.0238298 0.4746012 255 0 255
0.1327674 -0.02331317 0.4704513 255 0 255
0.132018 -0.02280092 0.4663112 255 0 255
0.131733 -0.02235181 0.4630489 255 0 255
0.1324199 -0.02202161 0.4615242 255 0 255
0.1325969 -0.02163406 0.459135 255 0 255
0.1345879 -0.02536034 0.4761719 255 0 255
0.1338738 -0.02482623 0.4720204 255 0 255
0.1326392 -0.02423313 0.4670098 255 0 255
0.132357 -0.02377112 0.4637471 255 0 255
0.132052 -0.02331205 0.4604909 255 0 255
0.1322253 -0.02291694 0.4581045 255 0 255
0.1359562 -0.02648975 0.4753225 255 0 255
0.1342424 -0.02580657 0.4694388 255 0 255
0.1329802 -0.02519729 0.464439 255 0 255
0.132678 -0.02472531 0.4611825 255 0 255
0.1328545 -0.02432115 0.4587954 255 0 255
0.1375517 -0.02811135 0.4777454 255 0 255
0.1353546 -0.02733121 0.4709915 255 0 255
0.1336029 -0.02663034 0.4651247 255 0 255
0.132805 -0.02607596 0.4610038 255 0 255
0.133483 -0.02573221 0.45948 255 0 255
0.1354828 -0.02872058 0.470802 255 0 255
0.1342248 -0.02807019 0.4658039 255 0 255
0.1334294 -0.02749911 0.4616834 255 0 255
0.1336087 -0.02707759 0.4592966 255 0 255
0.1365943 -0.03026646 0.4723408 255 0 255
0.1358376 -0.02967266 0.4682067 255 0 255
0.1350513 -0.02908327 0.4640827 255 0 255
0.1352405 -0.02865114 0.4616916 255 0 255
0.1367204 -0.03166177 0.4721394 255 0 255
0.1359627 -0.03105203 0.4680077 255 0 255
0.135675 -0.03052769 0.4647486 255 0 255
0.1363701 -0.0301666 0.4632174 255 0 255
0.139043 -0.03394754 0.4786744 255 0 255
0.1329002 -0.0323656 0.465007 255 0 255
0.1336042 -0.03200278 0.463484 255 0 255
0.1342987 -0.03163976 0.46196 255 0 255
0.1359902 -0.03144452 0.4621553 255 0 255
0.1236457 -0.03201589 0.4483624 255 0 255
0.1292537 -0.03255703 0.4555077 255 0 255
0.1319187 -0.03255089 0.4574467 255 0 255
0.1356082 -0.03271396 0.4610891 255 0 255
0.1015391 -0.02907754 0.4092579 255 0 255
0.1174388 -0.0316441 0.434597 255 0 255
0.1265311 -0.03286867 0.4477693 255 0 255
0.1316974 -0.03333364 0.4540062 255 0 255
0.09167799 -0.0278318 0.3895729 255 0 255
0.11212 -0.03137022 0.4226168 255 0 255
0.1227381 -0.0329374 0.4383447 255 0 255
0.08265427 -0.02664996 0.3717084 255 0 255
0.1046847 -0.03061755 0.407262 255 0 255
0.07196656 -0.02503571 0.3513659 255 0 255
