ply
format ascii 1.0
Comment Generated by Floating Hands
element vertex 1114
Comment Left: (0.0, 0.0, 0.0)
Comment Right: (0.0, -0.1, 0.4)
Comment Time: 2023-05-01 08:47:13,386
property double x
property double y
property double z
property uchar red
property uchar green
property uchar blue
end_header
-0.02779005 -0.05448962 0.4155191 255 0 255
-0.02042823 -0.05486282 0.417193 255 0 255
0.020536 -0.05496893 0.4200504 255 0 255
0.03175415 -0.0547659 0.420662 255 0 255
0.03566787 -0.05505841 0.4227561 255 0 255
0.04285548 -0.05503475 0.4239523 255 0 255
0.05782083 -0.0549518 0.4267373 255 0 255
-0.08375207 -0.05325199 0.4122016 255 0 255
-0.07117581 -0.05541144 0.4200387 255 0 255
-0.06366305 -0.05566129 0.4198939 255 0 255
-0.03928744 -0.05636921 0.4202869 255 0 255
-0.03193471 -0.05549095 0.4153934 255 0 255
-0.02985922 -0.05550744 0.4153613 255 0 255
-0.002237528 -0.05633514 0.4193959 255 0 255
0.00707151 -0.05576851 0.417176 255 0 255
0.008273436 -0.05591406 0.4179865 255 0 255
0.01911116 -0.05572104 0.4181144 255 0 255
0.02455815 -0.05556214 0.4180231 255 0 255
0.03307894 -0.05594981 0.4211458 255 0 255
0.04967439 -0.05653398 0.4269342 255 0 255
0.05105085 -0.05660617 0.4275571 255 0 255
0.05243344 -0.05667595 0.4281738 255 0 255
-0.09545474 -0.05358081 0.411715 255 0 255
-0.0923763 -0.05389148 0.4123641 255 0 255
-0.08581401 -0.05408779 0.4116342 255 0 255
-0.08273815 -0.05435416 0.4121761 255 0 255
-0.08016345 -0.05518643 0.4155832 255 0 255
-0.06261273 -0.05676004 0.4197868 255 0 255
-0.05407821 -0.05696062 0.4194888 255 0 255
-0.05302291 -0.05700326 0.419556 255 0 255
-0.05085103 -0.05688423 0.4187006 255 0 255
-0.04245793 -0.05734261 0.4200135 255 0 255
-0.03089245 -0.05652665 0.4151704 255 0 255
-0.01838366 -0.05671711 0.4156792 255 0 255
-0.01734359 -0.0567061 0.4156151 255 0 255
-0.01294647 -0.05724923 0.4182496 255 0 255
-0.0107586 -0.05741041 0.4190531 255 0 255
-0.005602299 -0.05708309 0.4175796 255 0 255
0.008290887 -0.05696751 0.4177697 255 0 255
0.01143333 -0.05681056 0.4172714 255 0 255
0.01561348 -0.05657931 0.4165531 255 0 255
0.01789106 -0.05665082 0.4171324 255 0 255
0.02227518 -0.05657651 0.4172775 255 0 255
0.02562908 -0.05655161 0.417581 255 0 255
0.02945786 -0.05689863 0.4197521 255 0 255
0.0480486 -0.05738683 0.4251344 255 0 255
0.05187026 -0.0574279 0.4260678 255 0 255
0.05494526 -0.05775594 0.428219 255 0 255
0.06264171 -0.05843299 0.4330022 255 0 255
-0.09658235 -0.05361753 0.4072447 255 0 255
-0.09094043 -0.0546237 0.41045 255 0 255
-0.08685108 -0.05500863 0.4112401 255 0 255
-0.08190002 -0.05565117 0.4131068 255 0 255
-0.07896896 -0.0560984 0.4145706 255 0 255
-0.07673641 -0.05605972 0.4139169 255 0 255
-0.07183442 -0.05682785 0.4165719 255 0 255
-0.06987431 -0.05716553 0.4178039 255 0 255
-0.0688244 -0.05723231 0.4179291 255 0 255
-0.06765129 -0.0570971 0.4170785 255 0 255
-0.06555684 -0.05722224 0.4173086 255 0 255
-0.05733051 -0.05806439 0.420026 255 0 255
-0.04655232 -0.05765568 0.4167282 255 0 255
-0.04550686 -0.05768715 0.4167675 255 0 255
-0.03400192 -0.05772454 0.4159678 255 0 255
-0.02986761 -0.05735512 0.4139606 255 0 255
-0.02249458 -0.05798179 0.4166605 255 0 255
-0.02144943 -0.05797714 0.4166115 255 0 255
-0.01622687 -0.05793026 0.4163086 255 0 255
-0.009694275 -0.05843603 0.4187422 255 0 255
-0.008736335 -0.0582078 0.4176718 255 0 255
0.0008205687 -0.05812754 0.4176067 255 0 255
0.007104934 -0.0578667 0.4167402 255 0 255
0.03053767 -0.05789116 0.4192852 255 0 255
0.03524994 -0.05793825 0.4201821 255 0 255
0.04536249 -0.05832646 0.4236241 255 0 255
0.0488651 -0.058196 0.4236531 255 0 255
0.05328393 -0.05862202 0.4264421 255 0 255
-0.09605058 -0.05511516 0.409169 255 0 255
-0.08891134 -0.05583017 0.4106431 255 0 255
-0.0860323 -0.05631209 0.412179 255 0 255
-0.07378656 -0.05750957 0.4151125 255 0 255
-0.0572512 -0.0588998 0.4188325 255 0 255
-0.04027699 -0.05885155 0.4166891 255 0 255
-0.03923051 -0.05887383 0.4167052 255 0 255
-0.0235341 -0.05901862 0.4164864 255 0 255
-0.01524681 -0.05874218 0.4150411 255 0 255
-0.01300741 -0.05912701 0.4168353 255 0 255
-0.00863025 -0.05945929 0.418423 255 0 255
-0.0002154862 -0.05921302 0.4175141 255 0 255
0.006074336 -0.05896182 0.4166703 255 0 255
0.008323716 -0.0590716 0.417324 255 0 255
0.01356113 -0.05880211 0.4164737 255 0 255
0.01650672 -0.05841693 0.4149567 255 0 255
0.0221098 -0.05849206 0.4158704 255 0 255
0.04376601 -0.05913874 0.4217999 255 0 255
0.05548006 -0.05950577 0.42554 255 0 255
0.05827323 -0.05964834 0.4267211 255 0 255
0.06283575 -0.06003537 0.42937 255 0 255
-0.09323024 -0.05663926 0.4105657 255 0 255
-0.08295567 -0.05759833 0.4125064 255 0 255
-0.07067268 -0.05874851 0.415301 255 0 255
-0.06976093 -0.05902459 0.4163983 255 0 255
-0.06430065 -0.05892752 0.4150384 255 0 255
-0.05303284 -0.06012036 0.4189006 255 0 255
-0.044426 -0.05956359 0.4153883 255 0 255
-0.02148579 -0.05983137 0.4151926 255 0 255
-0.01412262 -0.05996943 0.4157163 255 0 255
-0.004519036 -0.06018334 0.4168011 255 0 255
-0.003585903 -0.05994026 0.4157154 255 0 255
-0.002423273 -0.06011899 0.4165669 255 0 255
0.02047458 -0.05899398 0.4129787 255 0 255
0.03610495 -0.05980467 0.4185055 255 0 255
0.04805088 -0.05980778 0.4203648 255 0 255
0.05582012 -0.06082369 0.4262239 255 0 255
0.06640046 -0.06169071 0.432075 255 0 255
0.07397182 -0.06286836 0.438795 255 0 255
-0.0881165 -0.05815163 0.411365 255 0 255
-0.0810775 -0.05899554 0.4135916 255 0 255
-0.08004066 -0.05908036 0.4137575 255 0 255
-0.0727656 -0.05962968 0.4148119 255 0 255
-0.05928025 -0.06065689 0.4172438 255 0 255
-0.0529686 -0.06094284 0.4176998 255 0 255
-0.03504111 -0.06100772 0.4162831 255 0 255
-0.03295826 -0.06060258 0.4143202 255 0 255
-0.03087942 -0.06062408 0.4142946 255 0 255
-0.02669324 -0.06086492 0.4151735 255 0 255
-0.02561717 -0.06108376 0.4161153 255 0 255
-0.02453342 -0.06130104 0.417053 255 0 255
-0.02352405 -0.06108323 0.4160358 255 0 255
-0.01523164 -0.06080123 0.4145907 255 0 255
-0.01299081 -0.0612019 0.4163811 255 0 255
0.007149862 -0.06100696 0.4160559 255 0 255
0.02028931 -0.05982434 0.4117908 255 0 255
0.02255792 -0.05989546 0.412329 255 0 255
0.02380428 -0.0600335 0.4130681 255 0 255
0.03482332 -0.06076305 0.4175802 255 0 255
0.03718308 -0.06078722 0.4180009 255 0 255
0.04460585 -0.06101778 0.4200844 255 0 255
0.04566758 -0.0609124 0.4197886 255 0 255
0.04701516 -0.06100969 0.4204248 255 0 255
0.0518637 -0.06096935 0.421046 255 0 255
0.07085677 -0.06228473 0.4302862 255 0 255
-0.09610009 -0.05813235 0.4085205 255 0 255
-0.08298153 -0.05962792 0.4120634 255 0 255
-0.08022218 -0.06031199 0.4144951 255 0 255
-0.0727758 -0.06065177 0.4145858 255 0 255
-0.07187229 -0.06093889 0.4156878 255 0 255
-0.06128889 -0.0613616 0.4158611 255 0 255
-0.05928658 -0.06168732 0.4170148 255 0 255
-0.04870591 -0.06191587 0.4167218 255 0 255
-0.04335325 -0.06142002 0.4139917 255 0 255
-0.04023498 -0.06149786 0.4140617 255 0 255
-0.03191711 -0.06163588 0.4140804 255 0 255
-0.02985536 -0.06143407 0.4130718 255 0 255
-0.02568002 -0.06167309 0.4139345 255 0 255
-0.01847025 -0.06142425 0.4126175 255 0 255
-0.0141079 -0.06203446 0.4152559 255 0 255
-0.01201931 -0.06199931 0.4150919 255 0 255
-0.008697754 -0.06237454 0.4167588 255 0 255
-0.006597237 -0.06232316 0.416555 255 0 255
0.008052401 -0.06178508 0.4146985 255 0 255
0.02133634 -0.06079204 0.4113494 255 0 255
0.04704123 -0.06210173 0.4201761 255 0 255
0.06486097 -0.06224509 0.4238262 255 0 255
-0.08317572 -0.06085632 0.4127955 255 0 255
-0.07815024 -0.06150123 0.4145863 255 0 255
-0.07278629 -0.06167284 0.4143557 255 0 255
-0.06965827 -0.06188667 0.4147491 255 0 255
-0.06454642 -0.06243124 0.4162971 255 0 255
-0.06338924 -0.06227118 0.4154322 255 0 255
-0.0529096 -0.06278408 0.4162635 255 0 255
-0.05185997 -0.06282656 0.4163254 255 0 255
-0.04543422 -0.06237812 0.4136947 255 0 255
-0.04335537 -0.0624384 0.4137601 255 0 255
-0.0391787 -0.06231608 0.4128708 255 0 255
-0.03711629 -0.0625812 0.413865 255 0 255
-0.03503612 -0.06261614 0.4138695 255 0 255
-0.03295596 -0.06264473 0.4138587 255 0 255
-0.03191591 -0.06265665 0.4138476 255 0 255
-0.004600233 -0.06308153 0.4151288 255 0 255
-0.001466072 -0.0629835 0.4147724 255 0 255
0.01430994 -0.06249905 0.4134335 255 0 255
0.02362568 -0.061903 0.4116383 255 0 255
0.03051194 -0.06208378 0.4131116 255 0 255
0.03566613 -0.06259681 0.4158866 255 0 255
0.04331601 -0.0630848 0.4189391 255 0 255
0.04543443 -0.06287578 0.4183536 255 0 255
0.0502536 -0.06285981 0.4189976 255 0 255
0.06280548 -0.06288283 0.4211743 255 0 255
-0.09042431 -0.06120288 0.411245 255 0 255
-0.08507144 -0.0614709 0.4112481 255 0 255
-0.08250712 -0.06240004 0.4146551 255 0 255
-0.04970763 -0.06370745 0.415228 255 0 255
-0.04125256 -0.06328267 0.412601 255 0 255
-0.01305043 -0.06407895 0.4146992 255 0 255
-0.007830212 -0.0639722 0.4142406 255 0 255
0.001674191 -0.0639061 0.4141393 255 0 255
0.01743768 -0.06335341 0.4126253 255 0 255
0.02034007 -0.06293176 0.4110735 255 0 255
0.02157783 -0.0630851 0.4118197 255 0 255
0.03647772 -0.06335022 0.4144319 255 0 255
0.03778192 -0.06347494 0.4151067 255 0 255
0.03882778 -0.06337935 0.4148363 255 0 255
0.04680323 -0.06406693 0.4187328 255 0 255
0.05300997 -0.0641463 0.4199593 255 0 255
0.0695812 -0.0633743 0.4195885 255 0 255
-0.09422409 -0.06037733 0.4042602 255 0 255
-0.0918543 -0.06135012 0.4077448 255 0 255
-0.08527449 -0.06270323 0.4119695 255 0 255
-0.07309283 -0.06416331 0.4158108 255 0 255
-0.06901468 -0.06467707 0.4172959 255 0 255
-0.06795831 -0.06474503 0.4174165 255 0 255
-0.06151095 -0.06489016 0.4170903 255 0 255
-0.05502024 -0.06474489 0.4156504 255 0 255
-0.04866537 -0.06476795 0.4150374 255 0 255
-0.04548202 -0.06464169 0.4141921 255 0 255
-0.0298514 -0.06448298 0.4123634 255 0 255
-0.02879331 -0.06472255 0.4133132 255 0 255
-0.007823065 -0.06500178 0.4139958 255 0 255
-0.005737065 -0.06494805 0.4137855 255 0 255
0.004810737 -0.06481354 0.4134674 255 0 255
0.03054962 -0.06418175 0.4126135 255 0 255
0.0375414 -0.06431587 0.4139124 255 0 255
0.04653906 -0.06493236 0.4175402 255 0 255
0.05834821 -0.06463157 0.4180252 255 0 255
0.06995167 -0.06391982 0.4171172 255 0 255
-0.09201089 -0.06135292 0.4035009 255 0 255
-0.0886077 -0.06242992 0.4071585 255 0 255
-0.08651659 -0.06384677 0.4125004 255 0 255
-0.07686924 -0.06586998 0.4189824 255 0 255
-0.07127158 -0.0657964 0.4177616 255 0 255
-0.06915195 -0.06593841 0.418015 255 0 255
-0.06596889 -0.0661392 0.4183661 255 0 255
-0.04872307 -0.06602387 0.4157633 255 0 255
-0.04657501 -0.06586148 0.4148808 255 0 255
-0.04235322 -0.0657509 0.4140396 255 0 255
-0.03399713 -0.06568625 0.4131441 255 0 255
-0.02674078 -0.06551554 0.4120397 255 0 255
-0.02570423 -0.06551843 0.4120055 255 0 255
-0.02363151 -0.06551948 0.4119259 255 0 255
-0.02155945 -0.06551418 0.4118312 255 0 255
-0.01527607 -0.06569581 0.4124253 255 0 255
-0.01207844 -0.06588267 0.413154 255 0 255
-0.01103733 -0.06586317 0.4130663 255 0 255
-0.001562037 -0.06585043 0.4130699 255 0 255
0.01105955 -0.06555041 0.4122627 255 0 255
0.01623973 -0.06525967 0.4113631 255 0 255
0.02389037 -0.06524504 0.4118429 255 0 255
0.02722157 -0.0652452 0.4121203 255 0 255
0.03860377 -0.06527862 0.4133849 255 0 255
0.04360338 -0.06555314 0.4150695 255 0 255
0.05002769 -0.06590257 0.4172855 255 0 255
-0.08717707 -0.06430726 0.4101603 255 0 255
-0.07719014 -0.06737318 0.4206519 255 0 255
-0.06941651 -0.06744061 0.4196921 255 0 255
-0.06609406 -0.06740885 0.4190801 255 0 255
-0.04872839 -0.06704826 0.4155137 255 0 255
-0.04131201 -0.06679646 0.4138138 255 0 255
-0.03816338 -0.06662928 0.4128885 255 0 255
-0.01103231 -0.06688657 0.4128147 255 0 255
-0.008950581 -0.06684297 0.4126277 255 0 255
0.0006580352 -0.06704373 0.4135228 255 0 255
0.01107082 -0.06658241 0.4120079 255 0 255
0.01436301 -0.06664844 0.4124342 255 0 255
0.01747911 -0.06646364 0.4118694 255 0 255
0.02597625 -0.06613321 0.4111434 255 0 255
0.04334382 -0.066393 0.413872 255 0 255
0.06543127 -0.06567036 0.4140739 255 0 255
0.06753952 -0.06619004 0.4164293 255 0 255
0.07289065 -0.06706766 0.4207097 255 0 255
0.07526844 -0.06537941 0.4145922 255 0 255
-0.08557811 -0.06746859 0.4180993 255 0 255
-0.07967084 -0.06872015 0.4219997 255 0 255
-0.07183337 -0.0688112 0.4211049 255 0 255
-0.06173658 -0.06845479 0.4182723 255 0 255
-0.06067244 -0.06851255 0.4183656 255 0 255
-0.05845506 -0.06838275 0.417574 255 0 255
-0.05188882 -0.06794953 0.4150992 255 0 255
-0.04553648 -0.06793667 0.4144169 255 0 255
-0.04448787 -0.06796911 0.4144512 255 0 255
-0.03712483 -0.06766456 0.4126437 255 0 255
-0.03504179 -0.06770162 0.4126471 255 0 255
-0.02668124 -0.06802911 0.4134778 255 0 255
-0.01519659 -0.06797643 0.412888 255 0 255
-0.001424312 -0.06814735 0.413522 255 0 255
0.006614327 -0.06733522 0.4104845 255 0 255
0.02039721 -0.06706071 0.410061 255 0 255
0.02142836 -0.06699128 0.4098545 255 0 255
0.02828977 -0.06724983 0.4113684 255 0 255
0.02932614 -0.06716833 0.4111331 255 0 255
0.03396153 -0.06729554 0.4120327 255 0 255
0.04412463 -0.06711988 0.4123828 255 0 255
0.04545245 -0.0672451 0.4130189 255 0 255
0.05471172 -0.06701987 0.4132882 255 0 255
0.05575536 -0.06689766 0.412956 255 0 255
0.05921032 -0.06674731 0.4128524 255 0 255
0.06267475 -0.06657947 0.4127071 255 0 255
0.07311897 -0.06596995 0.4120181 255 0 255
0.07263714 -0.06494045 0.4080243 255 0 255
0.06770942 -0.06070352 0.3911023 255 0 255
-0.07955343 -0.07129476 0.4276431 255 0 255
-0.07719558 -0.07122576 0.4269963 255 0 255
-0.07580196 -0.07082745 0.4252267 255 0 255
-0.07456577 -0.07066709 0.4244111 255 0 255
-0.06623031 -0.06972494 0.4195272 255 0 255
-0.05855177 -0.06965788 0.4182804 255 0 255
-0.05642048 -0.06976251 0.4184395 255 0 255
-0.05308418 -0.06941686 0.4167149 255 0 255
-0.0519604 -0.06921615 0.4158092 255 0 255
-0.04979235 -0.06905445 0.4149526 255 0 255
-0.04449291 -0.06898858 0.4141939 255 0 255
-0.04242414 -0.06929554 0.4152193 255 0 255
-0.03924664 -0.06912766 0.414307 255 0 255
-0.03818339 -0.06890377 0.4133492 255 0 255
-0.02981793 -0.06902836 0.4133008 255 0 255
-0.02150584 -0.06880199 0.4120405 255 0 255
-0.0193683 -0.06903847 0.4128969 255 0 255
-0.0183243 -0.06903061 0.4128356 255 0 255
-0.017216 -0.0692684 0.4137373 255 0 255
-0.01623708 -0.06900999 0.4127015 255 0 255
-0.01415094 -0.0689829 0.4125521 255 0 255
-0.01093605 -0.06917714 0.4132647 255 0 255
-0.00989054 -0.06915624 0.4131726 255 0 255
0.005438879 -0.06815899 0.4094184 255 0 255
0.007656214 -0.06830924 0.4100677 255 0 255
0.01834426 -0.06822443 0.4101996 255 0 255
0.01937735 -0.06815817 0.4100006 255 0 255
0.0204096 -0.06809029 0.4097978 255 0 255
0.02578157 -0.06796746 0.4096724 255 0 255
0.03037662 -0.06812558 0.4106277 255 0 255
0.03372768 -0.06810471 0.4108259 255 0 255
0.04046967 -0.06801329 0.4111034 255 0 255
0.05159373 -0.06844875 0.4139864 255 0 255
0.05545612 -0.06773774 0.4117627 255 0 255
-0.0793893 -0.07391617 0.4332732 255 0 255
-0.07811134 -0.07375913 0.4324723 255 0 255
-0.07390438 -0.07253937 0.4271598 255 0 255
-0.06635672 -0.07101013 0.4202243 255 0 255
-0.05520992 -0.07034981 0.4163173 255 0 255
-0.05415103 -0.07039794 0.4163865 255 0 255
-0.0519678 -0.07024021 0.415547 255 0 255
-0.04348243 -0.07028841 0.4149304 255 0 255
-0.0287523 -0.07030562 0.4139833 255 0 255
-0.02560372 -0.07032137 0.41389 255 0 255
-0.01407224 -0.07025374 0.4132539 255 0 255
-0.007796519 -0.07013391 0.4127122 255 0 255
-0.002577594 -0.06998938 0.412156 255 0 255
0.0004173111 -0.06963363 0.4108172 255 0 255
0.01076116 -0.06917625 0.409312 255 0 255
0.01590852 -0.06888723 0.4084181 255 0 255
0.03814463 -0.06901823 0.4104448 255 0 255
0.05579861 -0.06903911 0.4124017 255 0 255
0.06306893 -0.06813464 0.4099705 255 0 255
0.06410177 -0.06799886 0.409608 255 0 255
0.06791521 -0.06804143 0.4103047 255 0 255
0.07497077 -0.06844475 0.4128484 255 0 255
-0.0787591 -0.07791191 0.4438334 255 0 255
-0.05415938 -0.07142406 0.4161195 255 0 255
-0.04770103 -0.07117312 0.4145203 255 0 255
-0.04559489 -0.07124469 0.4145999 255 0 255
-0.03820532 -0.07118908 0.4137902 255 0 255
-0.02451811 -0.07159957 0.4145502 255 0 255
-0.02346479 -0.07160012 0.4145074 255 0 255
-0.009792146 -0.07145785 0.4136021 255 0 255
-0.00465955 -0.07107545 0.412121 255 0 255
-0.003500615 -0.07129889 0.4129662 255 0 255
0.001460223 -0.07061503 0.4104154 255 0 255
0.009737648 -0.07024926 0.4092107 255 0 255
0.02022789 -0.06989656 0.4083131 255 0 255
0.03892668 -0.0697217 0.4089655 255 0 255
0.05071309 -0.06986793 0.4106609 255 0 255
0.05341445 -0.07011244 0.4118601 255 0 255
0.05790367 -0.06985744 0.4114428 255 0 255
0.0620565 -0.06933636 0.410046 255 0 255
0.07955894 -0.06913713 0.4118009 255 0 255
-0.07176378 -0.07718688 0.4356312 255 0 255
-0.04770817 -0.07219225 0.4142505 255 0 255
-0.0456015 -0.07226435 0.4143298 255 0 255
-0.04454793 -0.07229793 0.4143636 255 0 255
-0.04352757 -0.07258763 0.4153593 255 0 255
-0.02659778 -0.07287599 0.4153176 255 0 255
-0.005700213 -0.07212649 0.4119595 255 0 255
-0.004655879 -0.07209772 0.4118481 255 0 255
0.006336436 -0.0709049 0.4075097 255 0 255
0.05176861 -0.07080837 0.4100593 255 0 255
0.06070103 -0.07029545 0.4092044 255 0 255
0.06173367 -0.07016295 0.4088508 255 0 255
0.06276486 -0.0700288 0.4084934 255 0 255
0.06344345 -0.06965408 0.4072269 255 0 255
0.07284369 -0.07007345 0.409979 255 0 255
-0.04564979 -0.07354415 0.41502 255 0 255
-0.03930136 -0.0737231 0.4151655 255 0 255
-0.03506339 -0.07328475 0.4132554 255 0 255
-0.0329562 -0.07358006 0.4142073 255 0 255
-0.02554218 -0.07390636 0.415005 255 0 255
-0.01595911 -0.0741318 0.4154752 255 0 255
-0.01383954 -0.07410528 0.415323 255 0 255
-0.01057451 -0.07431526 0.4160268 255 0 255
-0.00748872 -0.07398589 0.4147739 255 0 255
-0.006535208 -0.07369831 0.4137094 255 0 255
-0.004318539 -0.07390381 0.4144474 255 0 255
0.01715638 -0.07213895 0.4083561 255 0 255
0.02435701 -0.07165287 0.4069153 255 0 255
0.04101684 -0.07160139 0.4078507 255 0 255
0.05013465 -0.07148498 0.4082501 255 0 255
0.05489155 -0.07150332 0.4087966 255 0 255
0.05592407 -0.07137973 0.4084643 255 0 255
0.07286637 -0.07115142 0.4096838 255 0 255
-0.06400656 -0.07746293 0.4271097 255 0 255
-0.06012797 -0.07607225 0.4216356 255 0 255
-0.04888326 -0.07471727 0.4155795 255 0 255
-0.03401553 -0.07458428 0.4139364 255 0 255
-0.02020285 -0.07519475 0.4154506 255 0 255
-0.009511146 -0.07532923 0.4156483 255 0 255
-0.007487056 -0.07501706 0.4144901 255 0 255
-0.005480201 -0.0746986 0.4133181 255 0 255
-0.000221548 -0.07453787 0.4127181 255 0 255
0.00369107 -0.07385077 0.4102618 255 0 255
0.009923591 -0.07356592 0.4093313 255 0 255
0.01079041 -0.0732496 0.4082133 255 0 255
0.01697136 -0.07289744 0.4071285 255 0 255
0.02641672 -0.07251919 0.4061879 255 0 255
0.02869811 -0.07261793 0.4066646 255 0 255
0.04543192 -0.0724742 0.4073368 255 0 255
0.05594151 -0.07243361 0.4081719 255 0 255
0.07741395 -0.07185052 0.4086582 255 0 255
-0.06695927 -0.08298218 0.4429962 255 0 255
-0.05905317 -0.07717626 0.421432 255 0 255
-0.05001034 -0.07596716 0.4162082 255 0 255
-0.04354859 -0.0756525 0.4145211 255 0 255
-0.04143141 -0.07571314 0.4145691 255 0 255
-0.03933158 -0.07603665 0.4155646 255 0 255
-0.03824109 -0.07552201 0.4136494 255 0 255
-0.03082827 -0.0761865 0.4155409 255 0 255
-0.02870265 -0.07620724 0.4154963 255 0 255
-0.02761459 -0.07648529 0.4164308 255 0 255
-0.02548169 -0.07649605 0.4163629 255 0 255
-0.02121761 -0.07649741 0.4161804 255 0 255
-0.01368731 -0.07670524 0.4166721 255 0 255
-0.005263555 -0.07626367 0.4149452 255 0 255
-0.001023483 -0.07613774 0.4144692 255 0 255
0.008011511 -0.0749542 0.4103216 255 0 255
0.01407177 -0.07436258 0.4083498 255 0 255
0.01903322 -0.07378235 0.4064522 255 0 255
0.02540128 -0.07361552 0.4061265 255 0 255
0.02997274 -0.07381964 0.4070758 255 0 255
0.03612969 -0.07328627 0.4055724 255 0 255
0.03715217 -0.07319167 0.4053088 255 0 255
0.04384008 -0.07310551 0.4054937 255 0 255
0.05191197 -0.0730888 0.4061172 255 0 255
0.05801998 -0.07323326 0.4071996 255 0 255
0.06007634 -0.07297365 0.4065089 255 0 255
0.06315017 -0.07257187 0.4054449 255 0 255
-0.06611019 -0.08499169 0.4456609 255 0 255
-0.0500767 -0.07726442 0.41688 255 0 255
-0.04682237 -0.0771125 0.4160555 255 0 255
-0.0446151 -0.07663868 0.4142041 255 0 255
-0.03720238 -0.07683515 0.4143308 255 0 255
-0.03188673 -0.07747297 0.4162294 255 0 255
-0.02327053 -0.07807889 0.4179094 255 0 255
-0.01575666 -0.07804091 0.4174917 255 0 255
0.007127047 -0.07629604 0.4111388 255 0 255
0.01511157 -0.07532088 0.4078768 255 0 255
0.01820955 -0.07513171 0.407304 255 0 255
0.03614056 -0.07431038 0.4052802 255 0 255
0.03818501 -0.0741193 0.4047493 255 0 255
0.04050187 -0.07418438 0.4051278 255 0 255
0.06214407 -0.07375753 0.4055029 255 0 255
0.06316746 -0.07362171 0.4051445 255 0 255
0.06489952 -0.07399134 0.406582 255 0 255
0.07832558 -0.07294243 0.4045635 255 0 255
-0.052355 -0.07875372 0.4183943 255 0 255
-0.05121699 -0.07852394 0.4174924 255 0 255
-0.04901681 -0.07833431 0.4166355 255 0 255
-0.04683147 -0.07813731 0.4157623 255 0 255
-0.04462364 -0.07765649 0.4139129 255 0 255
-0.03402719 -0.07846934 0.4159564 255 0 255
-0.03295412 -0.07876358 0.4169081 255 0 255
-0.02323336 -0.07939381 0.4185714 255 0 255
-0.01254169 -0.07903771 0.4169556 255 0 255
-0.00923556 -0.07925842 0.4176393 255 0 255
-0.007086794 -0.07921205 0.4174373 255 0 255
-0.002080063 -0.07823645 0.4140036 255 0 255
0.03819554 -0.07514196 0.4044531 255 0 255
0.04386467 -0.07516567 0.4049011 255 0 255
0.05942775 -0.07455505 0.4040962 255 0 255
0.07284138 -0.07453714 0.4053964 255 0 255
0.08038294 -0.07368065 0.4034158 255 0 255
0.08467654 -0.07392397 0.4047537 255 0 255
-0.02650328 -0.08014169 0.4174309 255 0 255
-0.009236868 -0.08029975 0.4173352 255 0 255
-0.006117244 -0.07994705 0.416072 255 0 255
-0.003978305 -0.0798908 0.4158474 255 0 255
0.00818002 -0.07829524 0.4103855 255 0 255
0.009388587 -0.07852364 0.4111699 255 0 255
0.0284979 -0.07642587 0.4045599 255 0 255
0.03078519 -0.0765319 0.4050154 255 0 255
0.03180982 -0.07644546 0.4047713 255 0 255
0.03283343 -0.07635738 0.4045235 255 0 255
0.03766657 -0.07562143 0.4023048 255 0 255
0.04489848 -0.07608668 0.4043071 255 0 255
0.05297838 -0.07608742 0.4048918 255 0 255
0.05400237 -0.07596575 0.4045669 255 0 255
0.05502501 -0.07584242 0.4042384 255 0 255
0.05706617 -0.07559078 0.4035702 255 0 255
0.06903581 -0.07552934 0.4044689 255 0 255
0.08141864 -0.07457686 0.402678 255 0 255
-0.0591973 -0.08535622 0.4336926 255 0 255
-0.05518624 -0.08326497 0.4262728 255 0 255
-0.04930317 -0.08180403 0.4208229 255 0 255
-0.0415666 -0.08092245 0.4172281 255 0 255
-0.0393979 -0.08069455 0.4163017 255 0 255
-0.03832628 -0.08072024 0.4163118 255 0 255
-0.02863827 -0.0814454 0.4181449 255 0 255
-0.01677377 -0.08144695 0.4176122 255 0 255
-0.01569642 -0.08143678 0.4175403 255 0 255
-0.006014796 -0.08126824 0.4167179 255 0 255
-0.0007733479 -0.08083063 0.4151738 255 0 255
0.009228893 -0.07926701 0.4099198 255 0 255
0.01905611 -0.07783163 0.4052738 255 0 255
0.01987876 -0.07748375 0.4041344 255 0 255
0.03054963 -0.07727201 0.4037828 255 0 255
0.03259071 -0.07709795 0.4032928 255 0 255
0.03841595 -0.076262 0.400812 255 0 255
0.06114578 -0.07610292 0.4018803 255 0 255
0.06692886 -0.07593761 0.4018565 255 0 255
0.06794178 -0.07579328 0.4014811 255 0 255
0.07007378 -0.07643411 0.4037712 255 0 255
0.07569956 -0.07686762 0.4057377 255 0 255
-0.02651512 -0.08220862 0.4168156 255 0 255
-0.0199594 -0.08279382 0.4184488 255 0 255
-0.01563192 -0.08276393 0.4181834 255 0 255
-0.01238919 -0.08272339 0.4179433 255 0 255
-0.01022897 -0.08268774 0.4177636 255 0 255
-0.005050111 -0.08199181 0.415343 255 0 255
-0.003868947 -0.08225119 0.4161797 255 0 255
0.007598632 -0.08124659 0.4127695 255 0 255
0.01700282 -0.07897177 0.4053612 255 0 255
0.03157727 -0.078198 0.403234 255 0 255
0.04100257 -0.07762461 0.4017981 255 0 255
0.05134685 -0.07773286 0.4027721 255 0 255
0.05370412 -0.07776496 0.4030376 255 0 255
0.07110966 -0.07733535 0.4030659 255 0 255
0.08022409 -0.07754999 0.4046398 255 0 255
0.08026231 -0.07061884 0.3825604 255 0 255
-0.04746253 -0.08601067 0.4269719 255 0 255
-0.04292894 -0.08557567 0.4251904 255 0 255
-0.03954168 -0.08479132 0.4223768 255 0 255
-0.02649263 -0.08353303 0.4174577 255 0 255
-0.01991209 -0.08412676 0.419087 255 0 255
-0.00915256 -0.0837086 0.4173505 255 0 255
0.00122924 -0.08253637 0.4133353 255 0 255
0.01513004 -0.08039302 0.4063693 255 0 255
0.0207007 -0.07913676 0.4023845 255 0 255
0.02171895 -0.07906602 0.4021771 255 0 255
0.03260356 -0.07912082 0.4026775 255 0 255
0.03464147 -0.07893974 0.4021727 255 0 255
0.03667521 -0.07875205 0.4016531 255 0 255
0.03742105 -0.07837342 0.400467 255 0 255
0.04738351 -0.07827281 0.4006572 255 0 255
0.04971536 -0.07832208 0.4009542 255 0 255
0.05542296 -0.07827093 0.4011602 255 0 255
0.05913949 -0.07843553 0.4019477 255 0 255
0.06722978 -0.07733098 0.3990693 255 0 255
0.07558431 -0.07803563 0.4020395 255 0 255
-0.04923462 -0.09086932 0.4390065 255 0 255
-0.03628322 -0.08739825 0.4268473 255 0 255
-0.01223717 -0.08539686 0.4192083 255 0 255
-0.01106456 -0.08567634 0.4200711 255 0 255
-0.001488397 -0.08485409 0.4171968 255 0 255
0.0005449763 -0.08448867 0.4159909 255 0 255
0.003353732 -0.08348636 0.4127385 255 0 255
0.008500487 -0.08296396 0.411033 255 0 255
0.01988875 -0.0804964 0.4032129 255 0 255
0.03438903 -0.07966191 0.4009367 255 0 255
0.03514099 -0.07928234 0.3997582 255 0 255
0.04910238 -0.07877711 0.3988219 255 0 255
0.06184397 -0.07878815 0.3996806 255 0 255
0.07621972 -0.07865684 0.4004277 255 0 255
-0.04753199 -0.09655335 0.4530444 255 0 255
-0.04096931 -0.09105469 0.4350659 255 0 255
-0.03746378 -0.08994148 0.4312814 255 0 255
-0.02405199 -0.0880133 0.4243625 255 0 255
-0.01442077 -0.08647096 0.4190465 255 0 255
-0.006702309 -0.08664124 0.4193465 255 0 255
-0.002457115 -0.08622888 0.4179405 255 0 255
0.004556968 -0.08477076 0.4132146 255 0 255
0.01989059 -0.08149811 0.402898 255 0 255
0.02172422 -0.08106294 0.4015534 255 0 255
0.02703596 -0.08097718 0.4013888 255 0 255
0.02906935 -0.08081346 0.4009244 255 0 255
0.04276394 -0.08016476 0.3993754 255 0 255
0.04578711 -0.07984042 0.3985026 255 0 255
0.0467924 -0.07972903 0.3982044 255 0 255
0.06185426 -0.07981416 0.3993568 255 0 255
0.08584248 -0.07775433 0.3949826 255 0 255
-0.03765827 -0.09649093 0.4480875 255 0 255
-0.00879832 -0.0880395 0.4201675 255 0 255
0.01236965 -0.08419757 0.407833 255 0 255
0.01654592 -0.08395935 0.4071004 255 0 255
0.02500096 -0.08213441 0.4015195 255 0 255
0.04248122 -0.08087872 0.3981422 255 0 255
0.04710228 -0.08102407 0.398791 255 0 255
0.05245187 -0.08072725 0.3981416 255 0 255
0.05378304 -0.08089236 0.39872 255 0 255
0.06388012 -0.08056222 0.3983124 255 0 255
0.06689379 -0.08013479 0.3972101 255 0 255
0.07987299 -0.07981719 0.3972368 255 0 255
0.0857195 -0.07951079 0.3968144 255 0 255
0.09034412 -0.07762193 0.3915439 255 0 255
-0.03531825 -0.10661 0.4753127 255 0 255
-0.03281721 -0.09835239 0.4496025 255 0 255
-0.03165525 -0.09652538 0.4438781 255 0 255
-0.01303908 -0.08977611 0.4220921 255 0 255
-0.01082901 -0.08974436 0.4219157 255 0 255
0.005764397 -0.08709251 0.4133462 255 0 255
0.02009658 -0.0838003 0.4031874 255 0 255
0.0364288 -0.08248299 0.3994589 255 0 255
0.04147926 -0.08198407 0.3981009 255 0 255
0.04981411 -0.08139256 0.3966421 255 0 255
0.05346403 -0.08161496 0.3974922 255 0 255
0.05680964 -0.08152718 0.3973993 255 0 255
0.05881592 -0.08126626 0.3967195 255 0 255
0.0672733 -0.08144214 0.3977628 255 0 255
0.08188671 -0.08051853 0.396053 255 0 255
0.08937773 -0.07883487 0.3916661 255 0 255
-0.02466263 -0.09617554 0.4385768 255 0 255
-0.01835159 -0.09212672 0.4259131 255 0 255
-0.01289398 -0.09145573 0.4236419 255 0 255
-0.005212498 -0.09100207 0.4220046 255 0 255
-0.00212456 -0.09029284 0.419762 255 0 255
0.00789957 -0.08803067 0.4126975 255 0 255
0.02680976 -0.08366872 0.3994965 255 0 255
0.03313332 -0.08346047 0.3989834 255 0 255
0.048121 -0.08292363 0.3978319 255 0 255
0.08617211 -0.0818754 0.396993 255 0 255
-0.02224183 -0.09793232 0.44001 255 0 255
-0.0213276 -0.09604142 0.4342687 255 0 255
-0.005011866 -0.09269125 0.4235413 255 0 255
0.006977015 -0.08942188 0.4134518 255 0 255
0.01739214 -0.08662352 0.404983 255 0 255
0.03086079 -0.08432677 0.3982274 255 0 255
0.04479956 -0.08396367 0.3974895 255 0 255
0.04812501 -0.08392823 0.3974981 255 0 255
0.04913239 -0.08381239 0.3971916 255 0 255
0.08475243 -0.08281188 0.3962264 255 0 255
0.08775403 -0.08227935 0.3948976 255 0 255
0.08831225 -0.08181699 0.393594 255 0 255
-0.02084658 -0.1006532 0.4443136 255 0 255
-0.01139665 -0.09515955 0.4275704 255 0 255
0.00178982 -0.09388231 0.4233707 255 0 255
0.01549597 -0.08807074 0.405956 255 0 255
0.01738968 -0.08763001 0.4046451 255 0 255
0.018428 -0.08756462 0.4044494 255 0 255
0.02029771 -0.08711488 0.4031196 255 0 255
0.022743 -0.08595988 0.3997156 255 0 255
0.024778 -0.0858093 0.3992823 255 0 255
0.02579415 -0.08573147 0.3990601 255 0 255
0.02680938 -0.08565198 0.3988342 255 0 255
0.03388928 -0.08504891 0.3971512 255 0 255
0.04148781 -0.08497848 0.3971063 255 0 255
0.05014197 -0.08469776 0.3965438 255 0 255
0.05114698 -0.08457839 0.3962301 255 0 255
0.05680846 -0.08352674 0.393381 255 0 255
0.06183431 -0.0838903 0.3946657 255 0 255
0.06655499 -0.08391865 0.3949809 255 0 255
0.08533631 -0.08338794 0.3945798 255 0 255
0.09769272 -0.07916899 0.383424 255 0 255
-0.01491288 -0.1014514 0.4426432 255 0 255
-0.01398853 -0.1001504 0.4387865 255 0 255
0.008348893 -0.0920791 0.4144658 255 0 255
0.018425 -0.08856971 0.4041075 255 0 255
0.03288054 -0.0861291 0.3970657 255 0 255
0.05114977 -0.08557972 0.3958887 255 0 255
0.054824 -0.08477962 0.3937058 255 0 255
0.06581985 -0.08433134 0.392877 255 0 255
0.07729045 -0.08397943 0.392473 255 0 255
0.08833128 -0.08388404 0.3928924 255 0 255
0.09264934 -0.08419181 0.3940638 255 0 255
-0.01095266 -0.1041848 0.4467087 255 0 255
0.003856987 -0.1045143 0.4471534 255 0 255
0.02624544 -0.08834886 0.4002222 255 0 255
0.03085886 -0.08729451 0.3972169 255 0 255
0.03690835 -0.08674124 0.395698 255 0 255
0.0381862 -0.08695883 0.3963408 255 0 255
0.05449317 -0.08546615 0.3924712 255 0 255
0.06212166 -0.08515209 0.3918554 255 0 255
0.06508367 -0.08472782 0.3907743 255 0 255
0.06644195 -0.08488639 0.3912834 255 0 255
0.06978162 -0.08474229 0.3910277 255 0 255
0.07549885 -0.08456102 0.3907998 255 0 255
0.09709754 -0.08475056 0.3926496 255 0 255
0.09769636 -0.08042033 0.380589 255 0 255
0.03085661 -0.08828103 0.3968724 255 0 255
0.03414463 -0.0883324 0.3970406 255 0 255
0.03818515 -0.08794825 0.3959952 255 0 255
0.04019885 -0.08774608 0.3954507 255 0 255
0.04220805 -0.08753723 0.3948916 255 0 255
0.053502 -0.08658221 0.3924505 255 0 255
0.06077847 -0.08597694 0.3909782 255 0 255
0.07870223 -0.08614627 0.3922157 255 0 255
0.08549263 -0.08571197 0.3913646 255 0 255
0.09420107 -0.08559748 0.3915608 255 0 255
0.09916471 -0.08305789 0.3848619 255 0 255
0.01351858 -0.1037546 0.4374029 255 0 255
0.01349788 -0.09663114 0.4173465 255 0 255
0.01795122 -0.09263078 0.4060271 255 0 255
0.01880502 -0.09223522 0.4049056 255 0 255
0.01965034 -0.09183845 0.4037819 255 0 255
0.02851993 -0.09050027 0.3999808 255 0 255
0.04421166 -0.08830879 0.3939689 255 0 255
0.04720999 -0.08797242 0.3930818 255 0 255
0.05250823 -0.08769562 0.3924222 255 0 255
0.05350251 -0.08757137 0.3921002 255 0 255
0.05416214 -0.08712912 0.3908865 255 0 255
0.0229784 -0.09296054 0.4037191 255 0 255
0.02380512 -0.09255414 0.4025849 255 0 255
0.03918824 -0.08982235 0.395022 255 0 255
0.05218176 -0.08836267 0.3911789 255 0 255
0.05416191 -0.08811297 0.390534 255 0 255
0.06570159 -0.08724978 0.3884783 255 0 255
0.06940576 -0.08743031 0.3890962 255 0 255
0.07470438 -0.08695976 0.3880079 255 0 255
0.08309392 -0.08780191 0.3906558 255 0 255
0.0880215 -0.08690805 0.3884581 255 0 255
0.09717744 -0.08707697 0.3893947 255 0 255
0.1000919 -0.08727064 0.3900822 255 0 255
0.09965964 -0.0853847 0.3849627 255 0 255
0.09324744 -0.07638263 0.3603062 255 0 255
0.01918568 -0.09492102 0.4060233 255 0 255
0.02088392 -0.09411018 0.4037759 255 0 255
0.02192852 -0.09403887 0.4035674 255 0 255
0.05284154 -0.08889712 0.3896151 255 0 255
0.05712137 -0.08870776 0.3891837 255 0 255
0.06042509 -0.08862581 0.3890357 255 0 255
0.06435052 -0.08806358 0.3876133 255 0 255
0.09439486 -0.07867425 0.3636913 255 0 255
0.03918052 -0.09179103 0.3943042 255 0 255
0.03990662 -0.09135511 0.3931302 255 0 255
0.04620471 -0.09103808 0.3923108 255 0 255
0.04919706 -0.09069008 0.3914026 255 0 255
0.0590869 -0.08942087 0.3881435 255 0 255
0.06434996 -0.08904592 0.3872524 255 0 255
0.07155825 -0.08831463 0.3854897 255 0 255
0.08519062 -0.08867597 0.3869175 255 0 255
0.09906844 -0.08389311 0.3748886 255 0 255
0.09841242 -0.08199229 0.3698451 255 0 255
0.01956308 -0.09763055 0.4071146 255 0 255
0.02421677 -0.09623982 0.4033139 255 0 255
0.02667008 -0.09497784 0.3999057 255 0 255
0.03181987 -0.09455394 0.3987227 255 0 255
0.04550026 -0.09246707 0.3931352 255 0 255
0.0657003 -0.090207 0.3873921 255 0 255
0.06961149 -0.08960716 0.3858944 255 0 255
0.0705854 -0.08945304 0.3855112 255 0 255
0.08519165 -0.08968066 0.3865439 255 0 255
0.0929566 -0.08819186 0.3829293 255 0 255
0.101051 -0.08608598 0.3777817 255 0 255
0.02147305 -0.09815934 0.4054064 255 0 255
0.02337334 -0.09766628 0.4040674 255 0 255
0.0258529 -0.09639661 0.4006697 255 0 255
0.03283988 -0.09545657 0.3981023 255 0 255
0.03688231 -0.09361234 0.3932078 255 0 255
0.04218769 -0.09344049 0.3927387 255 0 255
0.0580983 -0.09151117 0.3877543 255 0 255
0.06630053 -0.09071355 0.3857877 255 0 255
0.06727559 -0.09056473 0.3854165 255 0 255
0.08722583 -0.08950329 0.3831635 255 0 255
0.09295766 -0.08919208 0.3825529 255 0 255
0.09967124 -0.08862107 0.381333 255 0 255
0.09841449 -0.07884934 0.3560933 255 0 255
0.02895205 -0.0971467 0.3996015 255 0 255
0.02974721 -0.09671301 0.3984576 255 0 255
0.0348836 -0.0962621 0.3972194 255 0 255
0.04218131 -0.09441929 0.3923667 255 0 255
0.04649319 -0.09431894 0.3920958 255 0 255
0.07957913 -0.09109195 0.3841199 255 0 255
0.08915284 -0.09012564 0.3818888 255 0 255
0.09822827 -0.09034566 0.3827443 255 0 255
0.1025387 -0.08900176 0.3794657 255 0 255
0.1034902 -0.08879081 0.3789637 255 0 255
0.1038718 -0.0874393 0.3755307 255 0 255
0.02349582 -0.1037255 0.4137593 255 0 255
0.02377795 -0.1003864 0.4051207 255 0 255
0.02709897 -0.09865882 0.400591 255 0 255
0.02790773 -0.09822398 0.3994534 255 0 255
0.03513319 -0.09760191 0.3977395 255 0 255
0.04246237 -0.09574394 0.3928831 255 0 255
0.04880205 -0.09541149 0.3920007 255 0 255
0.05348069 -0.09445523 0.389543 255 0 255
0.06067554 -0.09271143 0.3851033 255 0 255
0.06456845 -0.09214179 0.3836792 255 0 255
0.07597541 -0.09109785 0.3811733 255 0 255
0.082482 -0.09155808 0.3824729 255 0 255
0.08344702 -0.09138111 0.3820436 255 0 255
0.09345192 -0.09067318 0.3804973 255 0 255
0.02789763 -0.09921619 0.3990676 255 0 255
0.03075795 -0.09860441 0.3974527 255 0 255
0.03538188 -0.09894748 0.3982529 255 0 255
0.03841104 -0.09714114 0.3936086 255 0 255
0.0404349 -0.0969357 0.3930626 255 0 255
0.05080208 -0.09615291 0.3909983 255 0 255
0.05871441 -0.09395506 0.3854173 255 0 255
0.06261944 -0.09339785 0.3840214 255 0 255
0.0769309 -0.09190296 0.3803893 255 0 255
0.08161515 -0.09188165 0.3804109 255 0 255
0.08773591 -0.09196624 0.3807403 255 0 255
0.09014936 -0.09107707 0.3785594 255 0 255
0.09393645 -0.09114575 0.3788211 255 0 255
0.1020427 -0.09068399 0.3778823 255 0 255
0.02915712 -0.1004828 0.3993474 255 0 255
0.03355459 -0.1004872 0.3992714 255 0 255
0.03969111 -0.09837355 0.3938451 255 0 255
0.04172054 -0.09816362 0.3932899 255 0 255
0.04707694 -0.09796145 0.3927236 255 0 255
0.05968599 -0.09478542 0.3846929 255 0 255
0.06881537 -0.09381801 0.382299 255 0 255
0.09344639 -0.09265494 0.379721 255 0 255
0.1071846 -0.09006729 0.3736448 255 0 255
0.1089991 -0.08653595 0.36499 255 0 255
0.05478521 -0.09760816 0.38894 255 0 255
0.0586996 -0.09588826 0.384652 255 0 255
0.07322305 -0.09365269 0.3791334 255 0 255
0.08117356 -0.09349374 0.3788022 255 0 255
0.08256347 -0.09365473 0.3792129 255 0 255
0.08587354 -0.09344963 0.3787451 255 0 255
0.09439945 -0.09344655 0.3788588 255 0 255
0.09917887 -0.09329621 0.3785733 255 0 255
0.03224571 -0.1022032 0.3978282 255 0 255
0.04198406 -0.1004849 0.3933937 255 0 255
0.08116703 -0.09446269 0.378412 255 0 255
0.08255703 -0.09462696 0.3788214 255 0 255
0.08446848 -0.09426785 0.3779598 255 0 255
0.09773614 -0.09416246 0.3778476 255 0 255
0.0996407 -0.09375107 0.3768765 255 0 255
0.1123522 -0.09123296 0.3710159 255 0 255
0.04356568 -0.1020884 0.3944807 255 0 255
0.04976083 -0.1001864 0.3897444 255 0 255
0.05509852 -0.09991953 0.3890215 255 0 255
0.05576231 -0.09942859 0.3878207 255 0 255
0.05641726 -0.09893687 0.3866187 255 0 255
0.06975967 -0.09655892 0.3807532 255 0 255
0.07320766 -0.09557179 0.3783563 255 0 255
0.09916758 -0.09527896 0.3777703 255 0 255
0.1096612 -0.09377885 0.3743079 255 0 255
0.0550872 -0.1008963 0.3886195 255 0 255
0.06452238 -0.09792326 0.3813641 255 0 255
0.07606167 -0.09603393 0.3767664 255 0 255
0.1005768 -0.09551357 0.3755789 255 0 255
0.04018488 -0.1040084 0.3936273 255 0 255
0.04690632 -0.1040917 0.3936645 255 0 255
0.05306922 -0.1021294 0.3888643 255 0 255
0.05507494 -0.1018715 0.3882138 255 0 255
0.05901037 -0.1001012 0.383939 255 0 255
0.06510428 -0.09837174 0.3797487 255 0 255
0.07167023 -0.09816466 0.3791885 255 0 255
0.0820962 -0.0971828 0.3767955 255 0 255
0.1029597 -0.0964109 0.3749776 255 0 255
0.106811 -0.09643196 0.3750464 255 0 255
0.1111102 -0.09586643 0.3737465 255 0 255
0.06194197 -0.1006408 0.3824908 255 0 255
0.06389743 -0.1003509 0.3817775 255 0 255
0.06449933 -0.09983797 0.3805631 255 0 255
0.06837162 -0.09923308 0.3790865 255 0 255
0.07069407 -0.09928239 0.3791716 255 0 255
0.08869204 -0.09774518 0.3754136 255 0 255
0.09342013 -0.09766742 0.3752126 255 0 255
0.09674838 -0.09830717 0.3766964 255 0 255
0.09962625 -0.09858608 0.3773415 255 0 255
0.02647092 -0.09097282 0.358207 255 0 255
0.04061775 -0.1050985 0.39076 255 0 255
0.04963475 -0.1053271 0.3910435 255 0 255
0.05134827 -0.104704 0.3895473 255 0 255
0.05834774 -0.102533 0.3843275 255 0 255
0.06130751 -0.102114 0.3832907 255 0 255
0.06388433 -0.1013098 0.3813699 255 0 255
0.06739312 -0.100341 0.3790551 255 0 255
0.06932329 -0.1000312 0.3783032 255 0 255
0.07412107 -0.09922693 0.3763634 255 0 255
0.07561164 -0.09853148 0.3747298 255 0 255
0.07750553 -0.09819245 0.3739195 255 0 255
0.09199117 -0.09848429 0.3744525 255 0 255
0.09961537 -0.09957372 0.3769216 255 0 255
0.1005741 -0.09936359 0.3764317 255 0 255
0.1058418 -0.09863119 0.3747222 255 0 255
0.03038724 -0.09471501 0.3644447 255 0 255
0.05133287 -0.1056787 0.3891285 255 0 255
0.06641192 -0.1014462 0.3790164 255 0 255
0.07410787 -0.1001775 0.3759549 255 0 255
0.0853622 -0.09987966 0.3750995 255 0 255
0.08866833 -0.09967504 0.3745886 255 0 255
0.09672531 -0.1002681 0.3758582 255 0 255
0.1038754 -0.09914137 0.3732229 255 0 255
0.02961682 -0.09315082 0.3585565 255 0 255
0.05093335 -0.1075445 0.3907558 255 0 255
0.05895438 -0.1039379 0.3822991 255 0 255
0.06091904 -0.1036569 0.3816074 255 0 255
0.06677794 -0.1027725 0.3794485 255 0 255
0.06736469 -0.1022445 0.3782327 255 0 255
0.07450355 -0.1014967 0.3763764 255 0 255
0.08117738 -0.1002907 0.3735085 255 0 255
0.08819868 -0.1002759 0.3733576 255 0 255
0.09959011 -0.1015439 0.3760705 255 0 255
0.1034133 -0.1006897 0.3740916 255 0 255
0.1137546 -0.09819884 0.3683684 255 0 255
0.04580136 -0.1091217 0.3918511 255 0 255
0.05161718 -0.1080106 0.3891452 255 0 255
0.06773343 -0.1035718 0.3786584 255 0 255
0.07160293 -0.1029397 0.3771365 255 0 255
0.0744883 -0.1024476 0.375959 255 0 255
0.08583666 -0.1012448 0.3730091 255 0 255
0.08678326 -0.1010572 0.3725692 255 0 255
0.0891306 -0.1010414 0.3724892 255 0 255
0.09955953 -0.101598 0.3735578 255 0 255
0.07062137 -0.1040507 0.3771006 255 0 255
0.07198535 -0.1042691 0.37755 255 0 255
0.07295246 -0.1041058 0.3771596 255 0 255
0.1009479 -0.1017851 0.3713537 255 0 255
0.1037695 -0.1011361 0.3698614 255 0 255
0.02645282 -0.08741177 0.3393011 255 0 255
0.04751035 -0.1104445 0.3895148 255 0 255
0.05393207 -0.1100935 0.3884983 255 0 255
0.05494731 -0.1099627 0.3881718 255 0 255
0.06059554 -0.1074372 0.3823866 255 0 255
0.06417388 -0.1064666 0.3801212 255 0 255
0.0848557 -0.1033351 0.3725967 255 0 255
0.08815183 -0.1031425 0.3720863 255 0 255
0.1004372 -0.1023884 0.370131 255 0 255
0.1085232 -0.1019279 0.3689455 255 0 255
0.05456233 -0.1118611 0.3897741 255 0 255
0.05993672 -0.1089295 0.3831491 255 0 255
0.06670886 -0.1065748 0.3777535 255 0 255
0.09379547 -0.103858 0.3709792 255 0 255
0.09992553 -0.1029828 0.3689079 255 0 255
0.1017952 -0.1025533 0.3679245 255 0 255
0.05351714 -0.1129699 0.3896518 255 0 255
0.05794437 -0.1115017 0.3862868 255 0 255
0.06253323 -0.1090604 0.3808135 255 0 255
0.09472094 -0.1046104 0.3700743 255 0 255
0.1098306 -0.1030405 0.36625 255 0 255
0.03655881 -0.09869094 0.3571609 255 0 255
0.05722845 -0.1143562 0.3899196 255 0 255
0.0732787 -0.1082952 0.3762591 255 0 255
0.1060804 -0.1049156 0.3678739 255 0 255
0.1103359 -0.1043694 0.3665738 255 0 255
0.05514611 -0.1156068 0.3901271 255 0 255
0.05891945 -0.1146551 0.3879331 255 0 255
0.06061289 -0.1139673 0.3863952 255 0 255
0.07091868 -0.1091747 0.3757673 255 0 255
0.07478476 -0.1085125 0.3742015 255 0 255
0.08105192 -0.1068959 0.3705185 255 0 255
0.08199887 -0.1067145 0.3700963 255 0 255
0.09941919 -0.1064403 0.3688555 255 0 255
0.05854508 -0.1165899 0.3895096 255 0 255
0.06093638 -0.1153475 0.3867814 255 0 255
0.06255377 -0.1132811 0.3823555 255 0 255
0.06517711 -0.1124272 0.380438 255 0 255
0.07806483 -0.1093358 0.3733637 255 0 255
0.08991715 -0.1084703 0.3710452 255 0 255
0.1040841 -0.1063052 0.3659333 255 0 255
0.1073894 -0.1060061 0.3651783 255 0 255
0.1083177 -0.1057768 0.364662 255 0 255
0.05444778 -0.1167348 0.3874995 255 0 255
0.06452615 -0.1139419 0.3811821 255 0 255
0.08282937 -0.1093794 0.3708234 255 0 255
0.08422315 -0.1095905 0.3712001 255 0 255
0.0908458 -0.1092226 0.3701393 255 0 255
0.1055033 -0.1074141 0.3657468 255 0 255
0.1115984 -0.1064065 0.3633994 255 0 255
0.05214993 -0.1147735 0.3810964 255 0 255
0.05511674 -0.1171526 0.3858583 255 0 255
0.06225491 -0.1175627 0.3863391 255 0 255
0.06809614 -0.1138694 0.3784178 255 0 255
0.06929246 -0.1127318 0.3760096 255 0 255
0.08228505 -0.1109042 0.3716031 255 0 255
0.08559776 -0.1107447 0.3711153 255 0 255
0.08750768 -0.1103621 0.3702354 255 0 255
0.09032833 -0.110765 0.3709324 255 0 255
0.1124974 -0.1071221 0.3624102 255 0 255
0.04952801 -0.1123388 0.373867 255 0 255
0.06828929 -0.1138335 0.375929 255 0 255
0.07606406 -0.1125091 0.3728179 255 0 255
0.07937584 -0.1123899 0.3724042 255 0 255
0.0974349 -0.1106776 0.3679972 255 0 255
0.1063862 -0.1090908 0.3643186 255 0 255
0.1067991 -0.1084755 0.3630429 255 0 255
0.05676167 -0.118382 0.3834131 255 0 255
0.06388234 -0.1187885 0.3838419 255 0 255
0.07548021 -0.1140325 0.3735724 255 0 255
0.08605323 -0.1120353 0.3689602 255 0 255
0.09123144 -0.1124635 0.3695518 255 0 255
0.1007325 -0.1113787 0.3668561 255 0 255
0.0614966 -0.1210482 0.3860982 255 0 255
0.06252228 -0.1209016 0.3857449 255 0 255
0.06421153 -0.1201783 0.3841957 255 0 255
0.06450627 -0.1191786 0.3821721 255 0 255
0.07974468 -0.1146839 0.3722841 255 0 255
0.101198 -0.1127271 0.3671592 255 0 255
0.1080687 -0.1095086 0.3603274 255 0 255
0.06453955 -0.1215732 0.3845424 255 0 255
0.0713313 -0.1175968 0.3762312 255 0 255
0.08304419 -0.1154912 0.371352 255 0 255
0.09688327 -0.1141364 0.3678457 255 0 255
0.108564 -0.1108404 0.3606141 255 0 255
0.06108981 -0.1225551 0.3842915 255 0 255
0.06211183 -0.1224086 0.3839397 255 0 255
0.06450888 -0.1225416 0.3840535 255 0 255
0.07718811 -0.1175199 0.3733776 255 0 255
0.07816343 -0.1173432 0.3729694 255 0 255
0.07968596 -0.1165638 0.3713401 255 0 255
0.09541756 -0.1159148 0.3690934 255 0 255
0.09637601 -0.1157047 0.3686205 255 0 255
0.06615341 -0.1227664 0.3820061 255 0 255
0.06881654 -0.1218602 0.380067 255 0 255
0.06944328 -0.1212674 0.3788697 255 0 255
0.07323907 -0.1191512 0.3744955 255 0 255
0.08438521 -0.117606 0.3707643 255 0 255
0.1001585 -0.1157939 0.3662128 255 0 255
0.1104781 -0.1132819 0.3606433 255 0 255
0.110873 -0.1126427 0.3593698 255 0 255
0.05491255 -0.1194742 0.3740257 255 0 255
0.0589488 -0.1218395 0.3783345 255 0 255
0.06979025 -0.1226551 0.3791963 255 0 255
0.07102464 -0.1214589 0.3768007 255 0 255
0.07261736 -0.1206929 0.3752132 255 0 255
0.08058964 -0.1182542 0.3699652 255 0 255
0.08769517 -0.1183922 0.3697581 255 0 255
0.09250014 -0.1173903 0.3674979 255 0 255
0.1057861 -0.1153935 0.3627404 255 0 255
0.1085881 -0.1146964 0.361202 255 0 255
0.06608738 -0.1246854 0.3810142 255 0 255
0.07668009 -0.1199058 0.3711261 255 0 255
0.07765177 -0.1197288 0.3707199 255 0 255
0.08195123 -0.1194326 0.3698551 255 0 255
0.08335122 -0.1196749 0.3702229 255 0 255
0.0900439 -0.1193622 0.369159 255 0 255
0.09484744 -0.1183368 0.3668574 255 0 255
0.1000921 -0.1176834 0.3652371 255 0 255
0.07761771 -0.1206608 0.3702315 255 0 255
0.07955599 -0.1203009 0.3694092 255 0 255
0.08094862 -0.120552 0.3697869 255 0 255
0.08288363 -0.1201799 0.368941 255 0 255
0.08762715 -0.120273 0.3687774 255 0 255
0.09336203 -0.1201194 0.3680714 255 0 255
0.09910657 -0.1188441 0.3652293 255 0 255
0.1071666 -0.1174574 0.3620026 255 0 255
0.108104 -0.1172233 0.3614885 255 0 255
0.06730147 -0.1253872 0.3776384 255 0 255
0.07408884 -0.1252872 0.3769562 255 0 255
0.07784575 -0.1230881 0.3725399 255 0 255
0.09190045 -0.1208385 0.3672586 255 0 255
0.09620711 -0.1204313 0.3661679 255 0 255
0.1023607 -0.1184749 0.3620142 255 0 255
0.1071303 -0.1183978 0.3615057 255 0 255
0.1085843 -0.1185805 0.3617394 255 0 255
0.06726521 -0.1263323 0.3771335 255 0 255
0.07382828 -0.1273025 0.3784526 255 0 255
0.07804875 -0.1255367 0.374839 255 0 255
0.08075143 -0.1234819 0.3707979 255 0 255
0.08614468 -0.1219052 0.367441 255 0 255
0.0999837 -0.1205029 0.3637466 255 0 255
0.1028229 -0.1198331 0.3622714 255 0 255
0.07252893 -0.1295001 0.3803317 255 0 255
0.07841858 -0.1269315 0.3751245 255 0 255
0.07958404 -0.1256757 0.37271 255 0 255
0.07248971 -0.1304611 0.379809 255 0 255
0.08053303 -0.1264334 0.3717819 255 0 255
0.09848378 -0.1243381 0.3664649 255 0 255
0.0989667 -0.1236833 0.3652216 255 0 255
0.09944066 -0.1230281 0.3639784 255 0 255
0.1103426 -0.1209199 0.3591824 255 0 255
0.1112768 -0.1206778 0.3586574 255 0 255
0.07180523 -0.1320474 0.3804744 255 0 255
0.07590053 -0.1313611 0.3788948 255 0 255
0.08091126 -0.1278246 0.3720544 255 0 255
0.08627777 -0.1273225 0.3706942 255 0 255
0.08735806 -0.1260328 0.3682572 255 0 255
0.08975342 -0.1260793 0.36814 255 0 255
0.09358925 -0.1263515 0.3683105 255 0 255
0.09988502 -0.1244021 0.3642219 255 0 255
0.1032029 -0.1230662 0.3615006 255 0 255
0.07727503 -0.1326034 0.3787545 255 0 255
0.08228135 -0.1290331 0.3718972 255 0 255
0.1046086 -0.1242064 0.3612314 255 0 255
0.1055556 -0.1239744 0.360727 255 0 255
0.1065004 -0.1237405 0.3602192 255 0 255
0.1121249 -0.122299 0.3571021 255 0 255
0.07925434 -0.130532 0.3726275 255 0 255
0.1124782 -0.1225482 0.3553254 255 0 255
0.06676514 -0.1288191 0.3684936 255 0 255
0.08303817 -0.1318373 0.3724027 255 0 255
0.08403663 -0.131646 0.3719741 255 0 255
0.0959066 -0.1280831 0.3645705 255 0 255
0.09879602 -0.1274288 0.3631395 255 0 255
0.102159 -0.1272046 0.3624255 255 0 255
0.1069208 -0.1260453 0.3599133 255 0 255
0.07548435 -0.1363037 0.3787307 255 0 255
0.09146 -0.1305292 0.3671206 255 0 255
0.09243826 -0.1303212 0.3666626 255 0 255
0.0992316 -0.1288126 0.3633609 255 0 255
0.1030696 -0.1279095 0.3613994 255 0 255
0.1049763 -0.1274467 0.3603985 255 0 255
0.1082492 -0.1260548 0.3576234 255 0 255
0.1110578 -0.1253274 0.3560624 255 0 255
0.08680043 -0.1340743 0.3715742 255 0 255
0.09034348 -0.1328028 0.3690204 255 0 255
0.1039769 -0.1286095 0.360367 255 0 255
0.1063843 -0.1285924 0.3600963 255 0 255
0.1095544 -0.12605 0.355329 255 0 255
0.08440393 -0.1376886 0.375863 255 0 255
0.08602078 -0.1368265 0.374219 255 0 255
0.0942402 -0.1329065 0.3666394 255 0 255
0.1005834 -0.1309101 0.3625481 255 0 255
0.102018 -0.1299985 0.3608232 255 0 255
