ply
format ascii 1.0
Comment Generated by Floating Hands
element vertex 1110
Comment Left: (-0.4, -0.3, 0.5)
Comment Right: (0.0, 0.0, 0.4)
Comment Time: 2023-05-01 08:47:12,014
property double x
property double y
property double z
property uchar red
property uchar green
property uchar blue
end_header
0.0004404414 -0.02268114 0.3851395 255 0 255
0.007042938 -0.02330847 0.389512 255 0 255
0.009815659 -0.02347758 0.3901959 255 0 255
0.01070385 -0.02350698 0.3900866 255 0 255
0.01720586 -0.02382674 0.3912006 255 0 255
-0.02627376 -0.0228716 0.4017253 255 0 255
-0.01965405 -0.02265011 0.3908614 255 0 255
-0.01612015 -0.02263833 0.3868571 255 0 255
-0.008413458 -0.02287871 0.3826462 255 0 255
-0.007554671 -0.02293124 0.3826054 255 0 255
-0.0006137226 -0.02338416 0.3831575 255 0 255
0.01156142 -0.0244572 0.3899069 255 0 255
0.01822255 -0.02485526 0.3919806 255 0 255
0.01880795 -0.02471608 0.3898701 255 0 255
0.02297176 -0.02547355 0.3982758 255 0 255
-0.0332683 -0.02490864 0.4243304 255 0 255
-0.02245271 -0.02363689 0.3947591 255 0 255
-0.01616351 -0.02353612 0.386791 255 0 255
-0.01444119 -0.02351191 0.3847698 255 0 255
-0.01274959 -0.02348062 0.3827361 255 0 255
-0.004157431 -0.02401368 0.3823438 255 0 255
-0.003298839 -0.02406032 0.3822868 255 0 255
0.01804298 -0.02570651 0.3909235 255 0 255
-0.02648523 -0.02500808 0.4045727 255 0 255
-0.01107115 -0.02447958 0.3826145 255 0 255
-0.008491745 -0.02464543 0.382511 255 0 255
0.001121762 -0.02532845 0.3838692 255 0 255
0.004778001 -0.02565018 0.3855245 255 0 255
-0.02162646 -0.02548568 0.3936278 255 0 255
-0.02071068 -0.02547839 0.392639 255 0 255
-0.01021933 -0.02550386 0.3835064 255 0 255
-0.008531609 -0.0255281 0.3824382 255 0 255
-0.005951801 -0.02568348 0.3823054 255 0 255
-0.004292033 -0.02569395 0.3812063 255 0 255
-0.0007959767 -0.02596128 0.3819527 255 0 255
0.006593832 -0.02670907 0.3862542 255 0 255
0.01045682 -0.02710252 0.3888087 255 0 255
0.01605265 -0.02743398 0.390055 255 0 255
0.0167961 -0.0273644 0.3889366 255 0 255
0.0212242 -0.02744902 0.3882221 255 0 255
-0.01283344 -0.02630336 0.384511 255 0 255
-0.011965 -0.02636315 0.3844858 255 0 255
-0.007667546 -0.02655357 0.3833158 255 0 255
-0.006803352 -0.02660575 0.3832712 255 0 255
-0.003411051 -0.02671095 0.3820667 255 0 255
0.0001048984 -0.02697884 0.382798 255 0 255
0.00269227 -0.02709844 0.3825673 255 0 255
0.005480299 -0.02739286 0.3842884 255 0 255
0.006454383 -0.02752 0.3851845 255 0 255
0.007326657 -0.02755286 0.385087 255 0 255
0.01118571 -0.0279533 0.3876273 255 0 255
0.01396636 -0.02812457 0.3882575 255 0 255
-0.03120568 -0.02884338 0.4191137 255 0 255
-0.02679202 -0.0282534 0.4083104 255 0 255
-0.01810161 -0.02726035 0.389494 255 0 255
-0.0137455 -0.02713093 0.3844531 255 0 255
0.001707924 -0.0278508 0.3815746 255 0 255
0.01468005 -0.02896567 0.3870613 255 0 255
-0.02474874 -0.02885049 0.4022967 255 0 255
-0.02180942 -0.02843907 0.3953728 255 0 255
-0.01726149 -0.02814121 0.3884079 255 0 255
-0.01638198 -0.02811342 0.3874031 255 0 255
-0.01551015 -0.02808376 0.3863952 255 0 255
-0.01292026 -0.02808044 0.3843477 255 0 255
-0.008574526 -0.02836877 0.3841879 255 0 255
-0.0009075535 -0.02861023 0.3817109 255 0 255
0.001757251 -0.02883386 0.3824815 255 0 255
-0.004388742 -0.0293099 0.381873 255 0 255
-0.0009457547 -0.02949225 0.3816235 255 0 255
0.008095815 -0.03028233 0.3847268 255 0 255
0.009961342 -0.03044781 0.3855019 255 0 255
0.01196854 -0.03071447 0.3872482 255 0 255
0.01271977 -0.03063451 0.3861436 255 0 255
0.01461587 -0.03078832 0.3868814 255 0 255
0.01844857 -0.03108164 0.3883109 255 0 255
-0.02812603 -0.03159671 0.4129693 255 0 255
-0.02288906 -0.03052158 0.3981624 255 0 255
-0.02194722 -0.03049905 0.3971786 255 0 255
-0.01915366 -0.03021524 0.3922166 255 0 255
-0.01126888 -0.02997529 0.3841158 255 0 255
-0.007832753 -0.030094 0.3829743 255 0 255
-0.003567624 -0.03023848 0.3817248 255 0 255
-0.0009844656 -0.03037375 0.3815325 255 0 255
0.003409762 -0.03068278 0.3821375 255 0 255
0.00513609 -0.03075464 0.3819603 255 0 255
0.01092683 -0.03148801 0.3862827 255 0 255
0.01180666 -0.03151515 0.3861674 255 0 255
-0.02712716 -0.03247745 0.4109073 255 0 255
-0.01651758 -0.03091546 0.3881239 255 0 255
-0.01478256 -0.03072488 0.3851124 255 0 255
-0.01218349 -0.03080298 0.3840508 255 0 255
0.005099429 -0.03164032 0.3818648 255 0 255
0.01999871 -0.03283686 0.3868443 255 0 255
-0.03134426 -0.03584873 0.4355284 255 0 255
-0.02840929 -0.03401799 0.4167311 255 0 255
-0.02514565 -0.03331857 0.4078671 255 0 255
-0.02206969 -0.03247902 0.3979725 255 0 255
0.00333435 -0.0324532 0.3819435 255 0 255
0.007875919 -0.03285846 0.3834491 255 0 255
-0.02316144 -0.03390156 0.4028229 255 0 255
-0.01140296 -0.03263504 0.3838232 255 0 255
-0.01056296 -0.03257669 0.3827981 255 0 255
0.001566131 -0.03326012 0.3820061 255 0 255
0.01434169 -0.03430545 0.3854963 255 0 255
0.01624635 -0.03447049 0.3862175 255 0 255
0.0239982 -0.03508137 0.3889463 255 0 255
-0.02429506 -0.03535741 0.4076613 255 0 255
-0.01754915 -0.03402269 0.3917992 255 0 255
-0.01319163 -0.03339939 0.3837741 255 0 255
-0.001071127 -0.03401773 0.3821239 255 0 255
0.002391713 -0.03418323 0.3818198 255 0 255
0.01518628 -0.03523207 0.3852587 255 0 255
0.02111628 -0.03584329 0.3883305 255 0 255
0.02200794 -0.03585662 0.3881764 255 0 255
-0.02801718 -0.03845356 0.4273216 255 0 255
-0.009820141 -0.03427195 0.381559 255 0 255
-0.006364775 -0.03448761 0.3813845 255 0 255
-0.02686361 -0.03898522 0.4222589 255 0 255
-0.01675066 -0.03579555 0.3905712 255 0 255
-0.007272765 -0.03531291 0.381322 255 0 255
0.003085055 -0.03585543 0.3805271 255 0 255
0.003946795 -0.0358924 0.38044 255 0 255
0.007725025 -0.03642592 0.3830142 255 0 255
0.01983311 -0.03739941 0.3862924 255 0 255
0.02071845 -0.03741401 0.3861428 255 0 255
0.02354767 -0.03758417 0.386649 255 0 255
0.0262068 -0.03760822 0.3861486 255 0 255
0.02778109 -0.03748316 0.384827 255 0 255
0.02954069 -0.03748725 0.3844653 255 0 255
-0.02738501 -0.04167236 0.4350123 255 0 255
-0.02350158 -0.03836811 0.4073105 255 0 255
-0.01862295 -0.03721354 0.3954284 255 0 255
-0.01590166 -0.03677445 0.3904396 255 0 255
-0.0107459 -0.03610018 0.3823608 255 0 255
-0.00206428 -0.03661927 0.3818559 255 0 255
0.002182254 -0.03669531 0.3804956 255 0 255
0.008558065 -0.03734746 0.3827922 255 0 255
0.02228128 -0.03821183 0.384737 255 0 255
0.02440144 -0.03850826 0.3863636 255 0 255
0.02510435 -0.03837798 0.3852235 255 0 255
-0.02358317 -0.03947445 0.408172 255 0 255
-0.02251339 -0.038896 0.4032275 255 0 255
-0.01960365 -0.03820096 0.3962995 255 0 255
-0.01594553 -0.03781874 0.3913089 255 0 255
-0.008269332 -0.03687484 0.3801457 255 0 255
-0.007362806 -0.03706571 0.3810898 255 0 255
0.003003687 -0.03761125 0.3802928 255 0 255
0.003866175 -0.03764842 0.3802055 255 0 255
0.006666259 -0.03803321 0.381893 255 0 255
0.01126058 -0.0384643 0.3833198 255 0 255
0.01213547 -0.03849044 0.3832017 255 0 255
0.01300996 -0.03851524 0.3830803 255 0 255
0.01768241 -0.03890341 0.3843808 255 0 255
-0.01966644 -0.03926986 0.3971621 255 0 255
-0.01510321 -0.0386609 0.3901756 255 0 255
-0.01337541 -0.03823483 0.3861707 255 0 255
-0.01081027 -0.03799868 0.3831111 255 0 255
-0.006592572 -0.03785228 0.379931 255 0 255
0.0003721876 -0.03836875 0.3804133 255 0 255
0.00131967 -0.03855326 0.3813216 255 0 255
0.01109545 -0.03921266 0.3822132 255 0 255
0.01749271 -0.03965928 0.3832766 255 0 255
0.02503711 -0.04019778 0.3849701 255 0 255
0.02807468 -0.04050623 0.3863912 255 0 255
0.03073933 -0.04051025 0.3858385 255 0 255
-0.01515449 -0.03956939 0.3900469 255 0 255
-0.003993604 -0.03901946 0.3806289 255 0 255
0.003973972 -0.03969767 0.3819261 255 0 255
0.02715108 -0.04141899 0.3864356 255 0 255
0.03053738 -0.03946703 0.3725851 255 0 255
0.00218867 -0.04050441 0.3819691 255 0 255
0.007413552 -0.04071953 0.3814103 255 0 255
0.01014377 -0.04096225 0.382068 255 0 255
0.01829472 -0.04146992 0.3828719 255 0 255
0.02021093 -0.04165402 0.3835533 255 0 255
0.02869767 -0.04218769 0.384972 255 0 255
0.03046736 -0.04218893 0.3846016 255 0 255
-0.01349069 -0.04121504 0.3877567 255 0 255
-0.01086807 -0.04109899 0.3856885 255 0 255
-0.009133385 -0.04106414 0.3846233 255 0 255
-0.008292382 -0.04096798 0.3835925 255 0 255
-0.003283069 -0.04066219 0.3793206 255 0 255
0.0004004535 -0.04130491 0.3819961 255 0 255
0.001356113 -0.04150187 0.3829018 255 0 255
0.003016779 -0.04142645 0.3817503 255 0 255
0.007482203 -0.04175916 0.3822577 255 0 255
0.00835615 -0.04179068 0.3821527 255 0 255
0.01097587 -0.04187735 0.3818184 255 0 255
0.01272046 -0.04192854 0.3815794 255 0 255
0.01722714 -0.042191 0.3819011 255 0 255
0.02088515 -0.04240934 0.3822905 255 0 255
-0.01710707 -0.04276773 0.3936238 255 0 255
-0.01530143 -0.04244535 0.3906273 255 0 255
-0.01354219 -0.04211412 0.3876182 255 0 255
-0.005863261 -0.04154207 0.3803478 255 0 255
0.007329713 -0.04248563 0.3811385 255 0 255
0.01006166 -0.04273662 0.3817946 255 0 255
0.01093489 -0.04276427 0.3816799 255 0 255
0.01268019 -0.04281557 0.3814407 255 0 255
0.022598 -0.043327 0.3818374 255 0 255
0.03019332 -0.04384931 0.3833529 255 0 255
0.0316682 -0.04172498 0.3698819 255 0 255
-0.02096987 -0.04495459 0.4033794 255 0 255
-0.01443543 -0.04358161 0.3914496 255 0 255
-0.0006384163 -0.04286225 0.3808106 255 0 255
0.002055867 -0.04315091 0.3815578 255 0 255
0.006415866 -0.04333484 0.381099 255 0 255
0.02256065 -0.04422154 0.3816933 255 0 255
0.03279536 -0.04407848 0.3785847 255 0 255
-0.02107092 -0.04639401 0.4061856 255 0 255
-0.01814211 -0.04502 0.3963019 255 0 255
-0.01721401 -0.04493225 0.3953034 255 0 255
-0.00509164 -0.04333745 0.3800115 255 0 255
-0.001625566 -0.04352799 0.3797561 255 0 255
0.01521482 -0.04465501 0.3807697 255 0 255
0.01608626 -0.04467483 0.3806355 255 0 255
0.02164711 -0.0451048 0.3817038 255 0 255
-0.01544482 -0.04550459 0.3921579 255 0 255
-0.009296668 -0.04478109 0.3850391 255 0 255
-0.0008806787 -0.04427404 0.3785559 255 0 255
0.003616813 -0.0448185 0.3801115 255 0 255
0.005354178 -0.04489081 0.3799252 255 0 255
0.01356549 -0.04566918 0.381855 255 0 255
0.01969135 -0.04579936 0.3808882 255 0 255
0.0233595 -0.04601781 0.3812334 255 0 255
0.02441678 -0.04619924 0.3820365 255 0 255
0.028123 -0.04639115 0.3823077 255 0 255
0.03251315 -0.04638355 0.381364 255 0 255
-0.02018002 -0.04773913 0.401917 255 0 255
-0.008539959 -0.04538366 0.3828748 255 0 255
-0.005132964 -0.04525266 0.3807005 255 0 255
-0.002586421 -0.04522514 0.37953 255 0 255
-0.001719501 -0.04527108 0.3794612 255 0 255
0.02525646 -0.04710221 0.3817126 255 0 255
0.02876385 -0.04711503 0.3810059 255 0 255
0.0351041 -0.04726262 0.3806024 255 0 255
-0.01646139 -0.04761103 0.3938312 255 0 255
-0.01287055 -0.04701358 0.388814 255 0 255
-0.006878542 -0.04619871 0.3816402 255 0 255
-0.00605391 -0.04607496 0.380604 255 0 255
-0.001767216 -0.04614154 0.3793086 255 0 255
0.004297259 -0.04642705 0.3787368 255 0 255
0.006132896 -0.04667627 0.3795227 255 0 255
0.009605221 -0.04680042 0.3790983 255 0 255
0.0204845 -0.0475889 0.3804263 255 0 255
0.02697309 -0.04800691 0.3812068 255 0 255
0.0346984 -0.04651026 0.3714289 255 0 255
-0.002682974 -0.04696511 0.3792216 255 0 255
-0.001815415 -0.04701128 0.3791526 255 0 255
0.02605633 -0.04889788 0.3812196 255 0 255
0.03350093 -0.04926106 0.3816434 255 0 255
-0.01843693 -0.05002846 0.3974612 255 0 255
-0.01749846 -0.04974198 0.3954819 255 0 255
-0.01033017 -0.04864131 0.3864177 255 0 255
-0.006103695 -0.04800475 0.3812696 255 0 255
0.00593638 -0.04823736 0.3782278 255 0 255
0.01298521 -0.04865281 0.3783035 255 0 255
0.02911588 -0.04942086 0.3784128 255 0 255
0.03324342 -0.04997364 0.3805187 255 0 255
-0.018504 -0.05133246 0.3992529 255 0 255
-0.01301556 -0.04990578 0.3893026 255 0 255
-0.008668805 -0.04927875 0.3842014 255 0 255
-0.005332627 -0.04874361 0.3800684 255 0 255
-0.0009716232 -0.04898341 0.3797372 255 0 255
-9.998337E-05 -0.04902737 0.3796613 255 0 255
0.02193401 -0.05007748 0.3786563 255 0 255
0.03298559 -0.05067768 0.3793921 255 0 255
0.03518577 -0.05104786 0.3808958 255 0 255
0.03606499 -0.05103789 0.3806866 255 0 255
0.0359116 -0.04947152 0.3726443 255 0 255
-0.0157522 -0.05174231 0.395098 255 0 255
-0.01218597 -0.05068475 0.3881167 255 0 255
-0.004510886 -0.04966525 0.379842 255 0 255
-0.0001492628 -0.04989899 0.3794942 255 0 255
0.01202914 -0.05037532 0.3780945 255 0 255
0.02189208 -0.05095841 0.3784861 255 0 255
0.03164127 -0.05118204 0.377504 255 0 255
-0.01865561 -0.05456125 0.4057603 255 0 255
-0.01581097 -0.05266834 0.394918 255 0 255
-0.0009980234 -0.05092314 0.3803774 255 0 255
0.01098816 -0.05102229 0.3770723 255 0 255
0.02184957 -0.05183853 0.3783124 255 0 255
0.02532616 -0.05186731 0.3776518 255 0 255
0.02638655 -0.0520719 0.3784392 255 0 255
0.03138642 -0.05186512 0.3763734 255 0 255
0.03355829 -0.05225366 0.3778874 255 0 255
-0.01227557 -0.05268172 0.3887426 255 0 255
-0.003679252 -0.05165534 0.3804129 255 0 255
-0.0002493291 -0.05163989 0.3791499 255 0 255
0.001410411 -0.05152253 0.3780124 255 0 255
0.009331424 -0.05203829 0.3781012 255 0 255
0.01339534 -0.05175758 0.3755586 255 0 255
0.01729273 -0.05244691 0.3779227 255 0 255
0.0200642 -0.05269529 0.3784465 255 0 255
0.02267675 -0.05272712 0.3779749 255 0 255
0.03438838 -0.0531319 0.3775046 255 0 255
0.03675435 -0.05289334 0.3759257 255 0 255
-0.007105154 -0.05293076 0.3834045 255 0 255
-0.006265161 -0.05278165 0.382372 255 0 255
0.003096736 -0.05246722 0.3776617 255 0 255
0.01015326 -0.05293676 0.3778086 255 0 255
0.01076824 -0.05254868 0.3757509 255 0 255
0.02871111 -0.053632 0.3765819 255 0 255
0.0297845 -0.05383883 0.3773518 255 0 255
0.03065338 -0.05383572 0.3771619 255 0 255
0.03412193 -0.05380945 0.3763705 255 0 255
0.03608609 -0.05399638 0.3769054 255 0 255
-0.009728484 -0.0542608 0.3862995 255 0 255
-0.002906498 -0.05344864 0.3799872 255 0 255
0.001394205 -0.05346262 0.3786299 255 0 255
0.01072117 -0.05341053 0.375571 255 0 255
0.01416346 -0.05350364 0.3750722 255 0 255
0.01704825 -0.05398325 0.3765953 255 0 255
0.03343794 -0.05491178 0.3773393 255 0 255
0.03604621 -0.05488145 0.3767191 255 0 255
0.03658302 -0.05162525 0.3614622 255 0 255
-0.0169625 -0.05816542 0.4029838 255 0 255
-0.008022298 -0.0550614 0.3850395 255 0 255
-0.007124328 -0.05511837 0.3849874 255 0 255
-0.006275501 -0.05496234 0.383956 255 0 255
0.009934419 -0.05445992 0.3764733 255 0 255
0.02063271 -0.05512431 0.3767793 255 0 255
0.02341528 -0.05536821 0.3772593 255 0 255
0.02970022 -0.05560102 0.3769781 255 0 255
0.03872667 -0.05505811 0.3728256 255 0 255
0.001291311 -0.05519751 0.3782582 255 0 255
0.002164305 -0.05523819 0.3781721 255 0 255
0.007396493 -0.05545357 0.3775887 255 0 255
0.01680227 -0.05550086 0.3752578 255 0 255
0.02145526 -0.05600711 0.3764327 255 0 255
0.03573073 -0.05642915 0.3753893 255 0 255
0.03635794 -0.05619633 0.3742309 255 0 255
-0.01612117 -0.06015342 0.4025483 255 0 255
-0.01429154 -0.05856709 0.3946873 255 0 255
-0.00723665 -0.05689523 0.3846006 255 0 255
0.008969919 -0.05615877 0.3762095 255 0 255
0.01156873 -0.05623963 0.375857 255 0 255
0.01230035 -0.05604074 0.3747676 255 0 255
0.01761816 -0.05638041 0.3749237 255 0 255
0.01934236 -0.05640833 0.3746287 255 0 255
0.02210101 -0.0566638 0.375121 255 0 255
0.02574332 -0.05691083 0.3754081 255 0 255
0.0389963 -0.05633507 0.3703352 255 0 255
-0.01168855 -0.05836761 0.38853 255 0 255
-0.008111265 -0.05817025 0.3864024 255 0 255
-0.002242278 -0.05697605 0.379158 255 0 255
-0.0004858506 -0.05706783 0.3790073 255 0 255
0.00284219 -0.056784 0.3767274 255 0 255
0.00371134 -0.05682196 0.3766352 255 0 255
0.02636826 -0.05755576 0.3740815 255 0 255
0.03109469 -0.05800216 0.3750588 255 0 255
0.03217797 -0.0582239 0.3758122 255 0 255
-0.01440215 -0.06063902 0.3952451 255 0 255
-0.007350858 -0.05866857 0.3841999 255 0 255
-0.003111917 -0.05802375 0.3800019 255 0 255
-0.002229266 -0.05807203 0.379931 255 0 255
0.01146981 -0.05796362 0.3754651 255 0 255
0.01306418 -0.05777999 0.3742508 255 0 255
0.02373593 -0.0584105 0.3743979 255 0 255
0.03083627 -0.05864381 0.3739085 255 0 255
0.03537044 -0.05883106 0.3738478 255 0 255
0.03733396 -0.05903486 0.3743646 255 0 255
-0.01357232 -0.06094979 0.3920797 255 0 255
-0.01268254 -0.06056028 0.3900993 255 0 255
-0.01086482 -0.06046221 0.3890491 255 0 255
-0.009977992 -0.06029572 0.3880328 255 0 255
-0.00487816 -0.05902473 0.3809031 255 0 255
-0.003991012 -0.05907615 0.3808383 255 0 255
-0.0005942941 -0.05880312 0.3786071 255 0 255
0.002736825 -0.05850476 0.3763302 255 0 255
0.03079153 -0.05951239 0.3737047 255 0 255
0.04186357 -0.06005135 0.3739709 255 0 255
0.04299076 -0.06026286 0.3746713 255 0 255
-0.004879553 -0.06013322 0.381667 255 0 255
0.002593037 -0.05912685 0.3751592 255 0 255
0.01062699 -0.05989659 0.3761439 255 0 255
0.01223528 -0.05970857 0.3749358 255 0 255
0.01828912 -0.05984081 0.3739789 255 0 255
0.01898819 -0.05961502 0.3728725 255 0 255
0.02156232 -0.05964659 0.3724078 255 0 255
0.02709223 -0.06015123 0.373295 255 0 255
0.02967339 -0.06014544 0.3727413 255 0 255
0.04527244 -0.06082823 0.3728003 255 0 255
-0.01006688 -0.06233072 0.3885755 255 0 255
0.002719556 -0.06046273 0.376886 255 0 255
0.004467441 -0.06053837 0.376697 255 0 255
0.01144623 -0.06078526 0.3758138 255 0 255
0.01564728 -0.06065157 0.3742 255 0 255
0.01910303 -0.06071337 0.3736214 255 0 255
0.03048664 -0.06100366 0.3723408 255 0 255
0.03242433 -0.06123308 0.3728941 255 0 255
0.03942677 -0.0621115 0.3751723 255 0 255
0.04029758 -0.06209235 0.3749453 255 0 255
-0.0032115 -0.06198746 0.3811078 255 0 255
0.01286277 -0.06120247 0.3734301 255 0 255
0.01372516 -0.06122412 0.3733002 255 0 255
0.01630969 -0.06128074 0.3728916 255 0 255
0.02164063 -0.06160347 0.3729429 255 0 255
0.03044018 -0.0618657 0.3721279 255 0 255
0.03215726 -0.06185191 0.3717367 255 0 255
0.03387149 -0.06183252 0.3713331 255 0 255
0.03691722 -0.06228627 0.372582 255 0 255
0.04025276 -0.06297293 0.3747274 255 0 255
0.041123 -0.06295226 0.3744973 255 0 255
-0.01110994 -0.0640681 0.3881753 255 0 255
-0.005742761 -0.06369103 0.3849576 255 0 255
0.002609689 -0.06218394 0.3764601 255 0 255
0.004455953 -0.06250872 0.3772345 255 0 255
0.006106277 -0.06233037 0.3760689 255 0 255
0.009477098 -0.06220476 0.374666 255 0 255
0.01294722 -0.06230589 0.3741753 255 0 255
0.01381373 -0.06232769 0.3740447 255 0 255
0.02245278 -0.0624687 0.372566 255 0 255
0.02331381 -0.06247512 0.3724009 255 0 255
0.03296842 -0.06270387 0.3713201 255 0 255
-0.01197701 -0.06614334 0.3928307 255 0 255
-0.001544082 -0.0638333 0.3805213 255 0 255
0.006156474 -0.06344281 0.3768125 255 0 255
0.01041629 -0.06334179 0.3752898 255 0 255
0.01462778 -0.0632044 0.3736932 255 0 255
0.01824759 -0.06352652 0.3740805 255 0 255
0.02412495 -0.0633366 0.3720143 255 0 255
0.02498506 -0.06334021 0.3718428 255 0 255
0.02584455 -0.06334239 0.3716683 255 0 255
0.02670341 -0.06334318 0.3714907 255 0 255
0.03013245 -0.06333226 0.3707488 255 0 255
-0.003201064 -0.06537253 0.3833391 255 0 255
0.00267607 -0.06441351 0.3779459 255 0 255
0.006101008 -0.06430525 0.3765899 255 0 255
0.008616934 -0.06414407 0.3753019 255 0 255
0.01030769 -0.06505872 0.3748427 255 0 255
0.02746323 -0.06505254 0.3708629 255 0 255
0.0373498 -0.0654757 0.3705367 255 0 255
0.04215408 -0.06589539 0.3712638 255 0 255
0.04387544 -0.06584366 0.3707855 255 0 255
0.05135366 -0.06773706 0.3766386 255 0 255
-0.009418128 -0.06856781 0.3900478 255 0 255
-0.004226348 -0.06708589 0.3829434 255 0 255
-0.002482696 -0.06692586 0.3818376 255 0 255
0.00510995 -0.06599218 0.376238 255 0 255
0.00763266 -0.06582824 0.3749608 255 0 255
0.008506332 -0.06585881 0.3748484 255 0 255
0.01199733 -0.06596696 0.3743672 255 0 255
0.01461134 -0.06603315 0.3739731 255 0 255
0.0154818 -0.06605239 0.3738354 255 0 255
0.02035441 -0.06560589 0.3710454 255 0 255
0.02225007 -0.06588895 0.371673 255 0 255
0.02397348 -0.06590033 0.3713393 255 0 255
0.02655413 -0.06590677 0.3708154 255 0 255
0.0308424 -0.06588914 0.3698798 255 0 255
0.03730189 -0.06633633 0.3703059 255 0 255
0.03815987 -0.06631847 0.370086 255 0 255
0.04038162 -0.06680937 0.3714967 255 0 255
0.04150261 -0.06705235 0.3721944 255 0 255
0.04726175 -0.06659019 0.3695588 255 0 255
4.225868E-06 -0.06741197 0.3794407 255 0 255
0.004173612 -0.06681506 0.3761057 255 0 255
0.01019695 -0.06677174 0.3743823 255 0 255
0.01181104 -0.06655405 0.3731811 255 0 255
0.01267917 -0.06657747 0.3730534 255 0 255
0.02373662 -0.06648301 0.3701628 255 0 255
0.02459384 -0.06648654 0.369992 255 0 255
0.02801652 -0.06648654 0.3692778 255 0 255
0.04522371 -0.06725149 0.368903 255 0 255
-0.01030329 -0.0719232 0.3953817 255 0 255
-0.006929693 -0.06948829 0.3855411 255 0 255
-0.00344448 -0.0688991 0.3823942 255 0 255
0.006752579 -0.06777883 0.3755596 255 0 255
0.008393614 -0.06756961 0.3743816 255 0 255
0.00926738 -0.0675989 0.3742659 255 0 255
0.01188643 -0.06767822 0.3739 255 0 255
0.01349184 -0.06745091 0.3726882 255 0 255
0.02349961 -0.06705709 0.3689851 255 0 255
0.02691035 -0.06706265 0.3682863 255 0 255
0.02881991 -0.0673307 0.3688575 255 0 255
0.03696172 -0.06778128 0.3689036 255 0 255
0.04946287 -0.06879541 0.3704019 255 0 255
-0.005211614 -0.07021842 0.3842074 255 0 255
-0.003506548 -0.06977816 0.3821493 255 0 255
0.005815838 -0.06860256 0.375427 255 0 255
0.01847404 -0.06812665 0.3706519 255 0 255
0.02983401 -0.06844988 0.3693679 255 0 255
0.03998118 -0.06913048 0.3698513 255 0 255
0.0436847 -0.06930815 0.369834 255 0 255
-0.007893811 -0.07176036 0.3870206 255 0 255
-0.0060915 -0.07160135 0.3859408 255 0 255
-0.001758766 -0.07075668 0.3817507 255 0 255
0.004977096 -0.06970304 0.376243 255 0 255
0.008278774 -0.06927635 0.3739015 255 0 255
0.01177335 -0.06938542 0.3734194 255 0 255
0.01841948 -0.06897242 0.3704117 255 0 255
0.02357862 -0.06902344 0.3694515 255 0 255
0.02680667 -0.06874755 0.3678107 255 0 255
0.02871666 -0.06902307 0.3683796 255 0 255
0.02978207 -0.0692993 0.3691262 255 0 255
0.03468056 -0.06895765 0.3669886 255 0 255
0.0355296 -0.06894258 0.3667776 255 0 255
0.04191148 -0.0702244 0.3700662 255 0 255
0.04504009 -0.0707033 0.3711852 255 0 255
-0.0009162774 -0.07168205 0.3814187 255 0 255
-1.141617E-05 -0.07172874 0.3813353 255 0 255
0.001630789 -0.07125279 0.3792472 255 0 255
0.0150593 -0.07003914 0.3716938 255 0 255
0.01991785 -0.06955491 0.368917 255 0 255
0.02504845 -0.06958862 0.3679237 255 0 255
0.02780912 -0.06987137 0.3683222 255 0 255
0.0327023 -0.06954297 0.366226 255 0 255
0.05069438 -0.07015859 0.3652116 255 0 255
0.04725884 -0.06616314 0.3522127 255 0 255
-0.008842287 -0.07433873 0.3894337 255 0 255
-0.001816879 -0.07279541 0.3821997 255 0 255
0.0009100371 -0.07293645 0.381948 255 0 255
0.005054928 -0.07199401 0.3776514 255 0 255
0.006837657 -0.07206443 0.3774381 255 0 255
0.007507712 -0.0715227 0.3754237 255 0 255
0.008390462 -0.07155396 0.37531 255 0 255
0.009154662 -0.07129613 0.3742427 255 0 255
0.01441754 -0.07144377 0.3734776 255 0 255
0.02328635 -0.07042303 0.3680214 255 0 255
0.02432861 -0.07071542 0.3687899 255 0 255
0.02775573 -0.07071499 0.3680751 255 0 255
0.03031926 -0.07069962 0.3675066 255 0 255
0.03265042 -0.07038257 0.36598 255 0 255
0.03542732 -0.07063004 0.3662864 255 0 255
0.03651745 -0.07090188 0.3669989 255 0 255
0.03761441 -0.0711721 0.3677063 255 0 255
0.03846914 -0.07115243 0.3674842 255 0 255
0.04695223 -0.07266706 0.3710934 255 0 255
0.05042457 -0.07252383 0.3700488 255 0 255
-0.008011679 -0.07501757 0.388154 255 0 255
0.002490427 -0.07332198 0.3795976 255 0 255
0.005783177 -0.07260369 0.3763391 255 0 255
0.009095361 -0.07214967 0.3739898 255 0 255
0.009851892 -0.07188643 0.3729215 255 0 255
0.0158128 -0.07175079 0.3710547 255 0 255
0.01652714 -0.07147497 0.369967 255 0 255
0.01738999 -0.07148996 0.3698208 255 0 255
0.02474884 -0.0709747 0.3664919 255 0 255
0.02920122 -0.07125604 0.366516 255 0 255
0.0509419 -0.0730647 0.368611 255 0 255
-0.0009645451 -0.07489379 0.3825494 255 0 255
0.001692007 -0.07473784 0.381334 255 0 255
0.007497119 -0.07353093 0.3758619 255 0 255
0.0164699 -0.07231653 0.3697139 255 0 255
0.01733292 -0.07233154 0.3695677 255 0 255
0.01819547 -0.07234511 0.3694184 255 0 255
0.01905751 -0.07235724 0.3692659 255 0 255
0.02078 -0.07237716 0.3689518 255 0 255
0.02469409 -0.07180874 0.3662407 255 0 255
0.04456306 -0.07388143 0.3692422 255 0 255
-0.007039484 -0.07805726 0.3913701 255 0 255
-0.006231184 -0.0772308 0.3884439 255 0 255
-0.005344271 -0.07699301 0.3874238 255 0 255
0.00909256 -0.07415248 0.3744213 255 0 255
0.01073226 -0.0739089 0.3732316 255 0 255
0.02633816 -0.07264139 0.3656318 255 0 255
0.0297293 -0.0726235 0.3648865 255 0 255
0.04139179 -0.07422774 0.3678673 255 0 255
0.04337739 -0.07447339 0.3683071 255 0 255
0.04451008 -0.07474326 0.3689783 255 0 255
0.04882082 -0.07550675 0.3706994 255 0 255
0.05260401 -0.07564706 0.3705313 255 0 255
0.05311206 -0.07436977 0.366359 255 0 255
-0.007954059 -0.08780127 0.4198183 255 0 255
-0.005412023 -0.07789046 0.3871471 255 0 255
-0.0018758 -0.07720532 0.3839945 255 0 255
0.0007323175 -0.07674734 0.3818379 255 0 255
0.009793214 -0.07473229 0.3730918 255 0 255
0.01997193 -0.07435174 0.3695319 255 0 255
0.02458283 -0.07347359 0.3657286 255 0 255
0.03436458 -0.07400763 0.3654761 255 0 255
0.03825729 -0.07454385 0.3664535 255 0 255
0.0393639 -0.07482567 0.3671472 255 0 255
0.042461 -0.0753581 0.3682818 255 0 255
0.04559564 -0.07587575 0.3693758 255 0 255
0.05285194 -0.07682321 0.3711642 255 0 255
0.05336879 -0.07553025 0.3669943 255 0 255
0.05391531 -0.07518352 0.365813 255 0 255
-0.006321491 -0.0793348 0.3888368 255 0 255
-0.003670085 -0.07859442 0.3857735 255 0 255
-0.002802261 -0.07834362 0.3847469 255 0 255
0.002493348 -0.07771368 0.3813774 255 0 255
0.003316647 -0.07744997 0.3803316 255 0 255
0.009852721 -0.07588811 0.3737698 255 0 255
0.01557861 -0.07512543 0.3700181 255 0 255
0.01888412 -0.0748755 0.3684866 255 0 255
0.02060776 -0.07489549 0.3681722 255 0 255
0.0228237 -0.07429904 0.3658099 255 0 255
0.02707562 -0.07430161 0.3649314 255 0 255
0.02792412 -0.07429777 0.3647465 255 0 255
0.02983259 -0.0745935 0.3652948 255 0 255
0.03322961 -0.07455206 0.364497 255 0 255
0.03710285 -0.07510183 0.36549 255 0 255
0.05397356 -0.07442465 0.3604882 255 0 255
-0.00456028 -0.08004576 0.3874637 255 0 255
-0.0003129857 -0.0784565 0.3813729 255 0 255
0.0006784322 -0.0788115 0.3822329 255 0 255
0.004971847 -0.07809293 0.3789037 255 0 255
0.02141041 -0.07574052 0.367744 255 0 255
0.02294865 -0.07544025 0.3664784 255 0 255
0.02786772 -0.07512738 0.3644823 255 0 255
0.03814733 -0.07623293 0.3659185 255 0 255
0.03925385 -0.0765221 0.3666099 255 0 255
0.04011196 -0.0764989 0.3663806 255 0 255
0.05274327 -0.0785767 0.3706082 255 0 255
0.05604693 -0.0764441 0.363519 255 0 255
-0.001154879 -0.0799083 0.3830712 255 0 255
0.001448104 -0.07942385 0.3809119 255 0 255
0.00818585 -0.0781593 0.3753487 255 0 255
0.009848341 -0.07790477 0.3741671 255 0 255
0.02781074 -0.07595585 0.364215 255 0 255
0.0311995 -0.0759258 0.3634449 255 0 255
0.03980118 -0.0770309 0.3651926 255 0 255
0.04488245 -0.0778343 0.3667324 255 0 255
0.04602067 -0.0781155 0.3673905 255 0 255
0.05298799 -0.07976434 0.3712263 255 0 255
-0.002945049 -0.08131917 0.384839 255 0 255
0.001381302 -0.08029877 0.3806268 255 0 255
0.006441768 -0.07926779 0.3762389 255 0 255
0.01626565 -0.07766137 0.3690624 255 0 255
0.0212919 -0.0774116 0.3672015 255 0 255
0.02690409 -0.0767871 0.3641293 255 0 255
0.02860152 -0.07677782 0.3637564 255 0 255
0.03029627 -0.07676273 0.3633713 255 0 255
0.03306117 -0.07704788 0.363691 255 0 255
0.04797573 -0.07921851 0.3675033 255 0 255
-0.003014358 -0.08220724 0.3845459 255 0 255
0.001394641 -0.08149252 0.3812822 255 0 255
0.004775241 -0.08069637 0.3780549 255 0 255
0.006376625 -0.08012711 0.375955 255 0 255
0.009840718 -0.07993175 0.3745463 255 0 255
0.01299717 -0.07906721 0.3712166 255 0 255
0.01548239 -0.07880443 0.3698645 255 0 255
0.01896965 -0.07886267 0.3692671 255 0 255
0.02344254 -0.07761451 0.3645648 255 0 255
0.02429424 -0.0776164 0.364392 255 0 255
0.03108509 -0.07757902 0.3629004 255 0 255
0.03193089 -0.07756777 0.3627003 255 0 255
0.04363808 -0.07924739 0.3655098 255 0 255
0.05052595 -0.08096159 0.3693955 255 0 255
0.05607495 -0.08101137 0.3686157 255 0 255
0.05640803 -0.07862458 0.3615024 255 0 255
-0.003023348 -0.0834168 0.3851939 255 0 255
-0.002153377 -0.08314639 0.3841696 255 0 255
0.01890789 -0.07970278 0.3689854 255 0 255
0.0197786 -0.07971364 0.3688282 255 0 255
0.03102694 -0.0784039 0.3626234 255 0 255
0.03937617 -0.07922637 0.3634455 255 0 255
0.04671404 -0.0806451 0.3662852 255 0 255
0.04786152 -0.08093368 0.3669301 255 0 255
0.04930373 -0.08154479 0.3684706 255 0 255
0.05837171 -0.07968189 0.3615187 255 0 255
-0.002094635 -0.08468542 0.3857555 255 0 255
0.001418088 -0.08389868 0.3825754 255 0 255
0.004832973 -0.08308235 0.3793517 255 0 255
0.008149312 -0.08223735 0.3760864 255 0 255
0.01813209 -0.0808593 0.3697852 255 0 255
0.01900735 -0.08087172 0.3696304 255 0 255
0.02128318 -0.08023969 0.3672915 255 0 255
0.04239786 -0.08063949 0.3642739 255 0 255
0.0504095 -0.08269616 0.3688083 255 0 255
0.05451808 -0.08317584 0.3694929 255 0 255
0.05746874 -0.08335388 0.3695156 255 0 255
0.05824985 -0.08226837 0.3662564 255 0 255
-0.0003605654 -0.08534773 0.3843372 255 0 255
0.0004979568 -0.08506478 0.3833063 255 0 255
0.003759825 -0.08358173 0.3782186 255 0 255
0.006487699 -0.08369447 0.3778957 255 0 255
0.01806877 -0.08170074 0.3694957 255 0 255
0.02601284 -0.08042157 0.364119 255 0 255
0.03175509 -0.08003877 0.3618597 255 0 255
0.03260069 -0.08002589 0.3616565 255 0 255
0.03367629 -0.08034515 0.3623644 255 0 255
0.03452423 -0.08032925 0.3621542 255 0 255
0.04036758 -0.08120169 0.363551 255 0 255
0.04148252 -0.08150794 0.3642227 255 0 255
0.04889827 -0.0829379 0.3669808 255 0 255
0.05035017 -0.08356159 0.3685097 255 0 255
0.05152087 -0.08385157 0.3691348 255 0 255
0.05445895 -0.08404812 0.3691918 255 0 255
0.05772755 -0.08455966 0.3701022 255 0 255
0.0567711 -0.07653949 0.3474279 255 0 255
0.002121068 -0.08536926 0.3809322 255 0 255
0.00722162 -0.08425853 0.3765445 255 0 255
0.008126178 -0.08429141 0.3764276 255 0 255
0.01212263 -0.0830853 0.3720641 255 0 255
0.01552084 -0.08283178 0.3705788 255 0 255
0.03724996 -0.08143429 0.3621266 255 0 255
0.05204041 -0.08434094 0.3676626 255 0 255
0.05998532 -0.08493944 0.3680086 255 0 255
0.06005639 -0.08315826 0.362988 255 0 255
0.05610428 -0.07594452 0.3433565 255 0 255
0.01142131 -0.0845876 0.3737603 255 0 255
0.01471562 -0.08399665 0.371354 255 0 255
0.01809748 -0.08372106 0.3698338 255 0 255
0.03248065 -0.08166718 0.3610803 255 0 255
0.04964743 -0.08461056 0.3661133 255 0 255
0.05197993 -0.08520359 0.3673574 255 0 255
0.05315593 -0.08549722 0.3679713 255 0 255
-0.001308893 -0.08898032 0.386301 255 0 255
-0.0004331546 -0.08868901 0.3852757 255 0 255
0.003643325 -0.08651683 0.3782406 255 0 255
0.01301034 -0.08514409 0.3722593 255 0 255
0.01390073 -0.08516594 0.3721215 255 0 255
0.02276256 -0.08357966 0.3657891 255 0 255
0.02733292 -0.08254199 0.3619611 255 0 255
0.05427692 -0.08665733 0.3682686 255 0 255
-0.0005770646 -0.08923398 0.3840186 255 0 255
0.006212317 -0.08714921 0.3766709 255 0 255
0.01620499 -0.08537307 0.3695313 255 0 255
0.01939709 -0.084729 0.3670696 255 0 255
0.02269842 -0.08440877 0.3654892 255 0 255
0.02490895 -0.08371668 0.3631286 255 0 255
0.02576437 -0.08371548 0.3629488 255 0 255
0.02661918 -0.0837128 0.362766 255 0 255
0.02896912 -0.08334707 0.361286 255 0 255
0.03489222 -0.08325539 0.3598637 255 0 255
0.03706768 -0.08391196 0.36124 255 0 255
0.0401256 -0.08453631 0.3623649 255 0 255
0.04380914 -0.0847666 0.3623068 255 0 255
0.05009911 -0.0859298 0.3643387 255 0 255
0.05273084 -0.08687983 0.36646 255 0 255
0.06101131 -0.08783858 0.3676449 255 0 255
-0.0005095233 -0.09081812 0.3855638 255 0 255
0.0003629471 -0.09051781 0.384538 255 0 255
0.002001534 -0.08956131 0.3815456 255 0 255
0.003592126 -0.08859617 0.3785447 255 0 255
0.004510258 -0.08863608 0.3784392 255 0 255
0.006142178 -0.08800966 0.3763563 255 0 255
0.009660224 -0.08778841 0.3749503 255 0 255
0.0154013 -0.08654681 0.3702953 255 0 255
0.01949546 -0.08591288 0.3676866 255 0 255
0.02741 -0.08452895 0.3622796 255 0 255
0.02826364 -0.08452325 0.3620907 255 0 255
0.02996886 -0.08450731 0.3617037 255 0 255
0.03082045 -0.08449709 0.3615057 255 0 255
0.04177147 -0.08531121 0.3615886 255 0 255
0.05862422 -0.08923086 0.3691176 255 0 255
0.06323495 -0.08631392 0.3605199 255 0 255
0.009590402 -0.08864412 0.3746335 255 0 255
0.01037365 -0.08831754 0.3735797 255 0 255
0.0113983 -0.08869961 0.3743764 255 0 255
0.01230164 -0.08872499 0.3742431 255 0 255
0.01871303 -0.08709184 0.3684565 255 0 255
0.02274751 -0.08641936 0.3657968 255 0 255
0.02990534 -0.08532627 0.3614 255 0 255
0.03075707 -0.08531601 0.361202 255 0 255
0.0371873 -0.085913 0.3615353 255 0 255
0.03804062 -0.08589051 0.3613111 255 0 255
0.04059554 -0.08581393 0.3606202 255 0 255
0.04426482 -0.08604509 0.3605506 255 0 255
0.05527651 -0.08955865 0.3679131 255 0 255
0.05824048 -0.08975359 0.367913 255 0 255
-0.001809872 -0.09677088 0.3962627 255 0 255
0.01287015 -0.0888852 0.3719385 255 0 255
0.0218115 -0.08724353 0.3656558 255 0 255
0.03069307 -0.08613367 0.3608951 255 0 255
0.04138252 -0.08660949 0.3600744 255 0 255
0.04223173 -0.08657932 0.3598351 255 0 255
0.04308007 -0.08654761 0.3595927 255 0 255
0.04674774 -0.08787477 0.3624083 255 0 255
0.0578565 -0.0902676 0.3667078 255 0 255
0.05873581 -0.09021184 0.3664084 255 0 255
0.0002862686 -0.09389872 0.3854022 255 0 255
0.00530928 -0.09163131 0.3782858 255 0 255
0.007747846 -0.09065168 0.3751602 255 0 255
0.01785249 -0.08911397 0.3689005 255 0 255
0.02191926 -0.08843473 0.3662568 255 0 255
0.02348389 -0.08807936 0.3649988 255 0 255
0.02435265 -0.08808112 0.3648228 255 0 255
0.02892377 -0.08696922 0.3609782 255 0 255
0.0334086 -0.08727305 0.3608761 255 0 255
0.03426149 -0.08725656 0.360665 255 0 255
0.04782905 -0.08903451 0.3627189 255 0 255
0.04869172 -0.0889942 0.3624558 255 0 255
0.06668113 -0.08971621 0.3611906 255 0 255
0.06863108 -0.090712 0.3634422 255 0 255
0.01541391 -0.09063751 0.370868 255 0 255
0.02272541 -0.08926963 0.3657674 255 0 255
0.03419647 -0.08807506 0.3603505 255 0 255
0.03955302 -0.08831 0.3599155 255 0 255
0.04322274 -0.08855718 0.359855 255 0 255
0.05180993 -0.09043112 0.3630888 255 0 255
0.05471724 -0.09064882 0.3631244 255 0 255
0.06489372 -0.09265359 0.3664849 255 0 255
0.0002791217 -0.09641537 0.3865696 255 0 255
0.00273251 -0.09471429 0.3816403 255 0 255
0.007006032 -0.093435 0.3773892 255 0 255
0.008736492 -0.093132 0.3762246 255 0 255
0.009537427 -0.09279303 0.3751772 255 0 255
0.01033017 -0.09245221 0.3741276 255 0 255
0.01368966 -0.09181135 0.3717467 255 0 255
0.01713054 -0.09151428 0.3702407 255 0 255
0.02662389 -0.08935764 0.3627306 255 0 255
0.02900099 -0.08896904 0.3612537 255 0 255
0.03753558 -0.08881057 0.3591582 255 0 255
0.03838475 -0.08878632 0.3589321 255 0 255
0.04033912 -0.08910297 0.3593632 255 0 255
0.04118958 -0.08907402 0.3591269 255 0 255
0.04315773 -0.08938082 0.3595347 255 0 255
0.04856134 -0.09067094 0.3618073 255 0 255
0.05702195 -0.09212436 0.3639633 255 0 255
0.05909152 -0.09237747 0.3642381 255 0 255
0.06482734 -0.09352531 0.3661456 255 0 255
0.008774566 -0.0943651 0.376808 255 0 255
0.009695303 -0.09439602 0.376682 255 0 255
0.01220076 -0.09373169 0.3744466 255 0 255
0.02117927 -0.09166349 0.3672817 255 0 255
0.02188797 -0.09129544 0.3662018 255 0 255
0.02414956 -0.09055626 0.3638612 255 0 255
0.03043086 -0.08939132 0.3596362 255 0 255
0.03637667 -0.08927514 0.3581655 255 0 255
0.04763201 -0.09154795 0.3617411 255 0 255
0.04964935 -0.09183697 0.3620932 255 0 255
0.05371704 -0.09239378 0.3627463 255 0 255
0.0572737 -0.09334822 0.3644999 255 0 255
0.001006217 -0.09787869 0.3848429 255 0 255
0.007993726 -0.09594811 0.3784287 255 0 255
0.0163874 -0.09393655 0.3715561 255 0 255
0.01698831 -0.09319694 0.369576 255 0 255
0.02181817 -0.09212516 0.3658721 255 0 255
0.02339266 -0.0917551 0.3646183 255 0 255
0.02735085 -0.09099178 0.3618953 255 0 255
0.02907455 -0.0909782 0.3615109 255 0 255
0.02972337 -0.09059105 0.3604129 255 0 255
0.03291682 -0.09016164 0.3587015 255 0 255
0.03399755 -0.09052271 0.359388 255 0 255
0.03461514 -0.09012678 0.3582782 255 0 255
0.04020688 -0.09073959 0.3587157 255 0 255
0.04415049 -0.09136667 0.3595234 255 0 255
0.04728054 -0.09200708 0.3605269 255 0 255
0.06224928 -0.09465153 0.3643681 255 0 255
0.06662663 -0.09431048 0.3627571 255 0 255
0.06713949 -0.09386633 0.3615691 255 0 255
0.06751685 -0.09141763 0.3554475 255 0 255
0.004655211 -0.09856671 0.3831455 255 0 255
0.007918134 -0.09681608 0.3780801 255 0 255
0.01541281 -0.09476534 0.3713656 255 0 255
0.01616873 -0.09440164 0.3703032 255 0 255
0.02103822 -0.09332886 0.3666161 255 0 255
0.03369908 -0.09095453 0.3581657 255 0 255
0.03624341 -0.09089516 0.3575174 255 0 255
0.0373361 -0.09125331 0.3581865 255 0 255
0.0483604 -0.09317581 0.3608103 255 0 255
0.04922269 -0.09313329 0.3605444 255 0 255
0.05563169 -0.09435704 0.3623683 255 0 255
0.05681959 -0.09468032 0.3629457 255 0 255
0.05801381 -0.0950015 0.3635175 255 0 255
-0.0003209304 -0.09845919 0.3814586 255 0 255
0.003801001 -0.1001755 0.3847351 255 0 255
0.005622217 -0.09987506 0.3835919 255 0 255
0.006477029 -0.09953022 0.3825569 255 0 255
0.008992465 -0.09848389 0.3794374 255 0 255
0.0312988 -0.09219373 0.3593546 255 0 255
0.04487021 -0.09297576 0.3586074 255 0 255
0.05675057 -0.09552948 0.3626 255 0 255
0.06807867 -0.0967114 0.3634371 255 0 255
0.003808474 -0.1014524 0.3852877 255 0 255
0.006398576 -0.1004133 0.3821942 255 0 255
0.01135829 -0.09828187 0.3759436 255 0 255
0.01540708 -0.09684275 0.371586 255 0 255
0.02001146 -0.09498069 0.3661036 255 0 255
0.0231813 -0.09422497 0.3636141 255 0 255
0.02627971 -0.09344403 0.3610876 255 0 255
0.03208483 -0.09299055 0.3588163 255 0 255
0.03293926 -0.09297517 0.3586083 255 0 255
0.03379293 -0.09295823 0.3583972 255 0 255
0.03464584 -0.09293975 0.3581832 255 0 255
0.03889853 -0.09282415 0.3570679 255 0 255
0.04282233 -0.09347888 0.3578855 255 0 255
0.04593545 -0.09414553 0.3588951 255 0 255
0.04879438 -0.09440952 0.3589887 255 0 255
0.05431222 -0.09571473 0.3610964 255 0 255
0.06571345 -0.098176 0.3649305 255 0 255
0.06939846 -0.09704021 0.3615549 255 0 255
0.07027042 -0.0969613 0.361213 255 0 255
0.007900335 -0.1001938 0.3788425 255 0 255
0.01035748 -0.09911401 0.3757197 255 0 255
0.01128181 -0.09914207 0.3755863 255 0 255
0.01208013 -0.09877657 0.3745383 255 0 255
0.02170535 -0.09582289 0.3654245 255 0 255
0.02328963 -0.09543823 0.364175 255 0 255
0.02416696 -0.09543988 0.3639972 255 0 255
0.02793491 -0.09424641 0.3603712 255 0 255
0.05835516 -0.09710822 0.361303 255 0 255
0.06042732 -0.09737408 0.3615549 255 0 255
0.06652779 -0.09897094 0.3642406 255 0 255
0.07118836 -0.09688826 0.3584763 255 0 255
0.004700095 -0.1036724 0.3853467 255 0 255
0.008759294 -0.1010966 0.3783523 255 0 255
0.01692024 -0.09817116 0.3696696 255 0 255
0.02409453 -0.09626258 0.3636515 255 0 255
0.02565633 -0.09586475 0.3623888 255 0 255
0.02958719 -0.09504101 0.3596396 255 0 255
0.03388301 -0.09497093 0.3586103 255 0 255
0.04637017 -0.09535525 0.3570757 255 0 255
0.0574121 -0.0980113 0.3612471 255 0 255
0.05981056 -0.09867539 0.3623648 255 0 255
0.06769405 -0.1001518 0.364395 255 0 255
0.06998659 -0.09953213 0.3625295 255 0 255
0.005491041 -0.1042086 0.38394 255 0 255
0.007109933 -0.1030908 0.3809657 255 0 255
0.008789822 -0.1023631 0.3788944 255 0 255
0.0178984 -0.09942488 0.3700608 255 0 255
0.01864706 -0.09903816 0.3689975 255 0 255
0.02799471 -0.09626829 0.3605796 255 0 255
0.03317967 -0.09619765 0.3593665 255 0 255
0.03381196 -0.09578085 0.358266 255 0 255
0.03466898 -0.09576207 0.3580511 255 0 255
0.03638066 -0.09571984 0.3576121 255 0 255
0.03723529 -0.09569637 0.3573882 255 0 255
0.03833752 -0.09607036 0.3580438 255 0 255
0.04486692 -0.09664644 0.3581135 255 0 255
0.04629973 -0.09617105 0.3567288 255 0 255
0.06426705 -0.1004472 0.3633114 255 0 255
0.06939393 -0.1008656 0.3633501 255 0 255
0.07315053 -0.09880549 0.3578972 255 0 255
-0.0001509027 -0.09609997 0.3639159 255 0 255
0.02236725 -0.09830248 0.3642009 255 0 255
0.02324929 -0.09830568 0.3640254 255 0 255
0.02657695 -0.09789893 0.3623987 255 0 255
0.02792213 -0.09708075 0.3602306 255 0 255
0.0402346 -0.09722927 0.3581089 255 0 255
0.04280891 -0.09713425 0.3573856 255 0 255
0.0482226 -0.09730244 0.3567265 255 0 255
0.07197022 -0.1014878 0.3619408 255 0 255
0.07056448 -0.09340741 0.3436469 255 0 255
0.06936402 -0.09135898 0.3391618 255 0 255
0.00472142 -0.1075615 0.3869292 255 0 255
0.01062818 -0.1045702 0.3787891 255 0 255
0.01544736 -0.1022776 0.3725044 255 0 255
0.02978997 -0.09828141 0.3603754 255 0 255
0.05278048 -0.09954537 0.3587395 255 0 255
0.06377716 -0.1017617 0.36172 255 0 255
0.07463939 -0.1012082 0.3584741 255 0 255
0.07287643 -0.09657626 0.3482713 255 0 255
0.06929779 -0.09213374 0.3388251 255 0 255
0.007068018 -0.1065357 0.3816401 255 0 255
0.01366291 -0.1034955 0.3733296 255 0 255
0.01691003 -0.1023407 0.3700239 255 0 255
0.03209901 -0.09864568 0.35852 255 0 255
0.03616448 -0.09814031 0.3565609 255 0 255
0.03922917 -0.09888387 0.357634 255 0 255
0.04578627 -0.09946694 0.3576642 255 0 255
0.07256238 -0.1040154 0.3628621 255 0 255
0.0752229 -0.1037543 0.3617884 255 0 255
0.07572152 -0.1032632 0.3605931 255 0 255
0.0137148 -0.1047605 0.3738531 255 0 255
0.01620801 -0.1039928 0.3716036 255 0 255
0.02722858 -0.1003446 0.3611333 255 0 255
0.03804734 -0.09930848 0.3566299 255 0 255
0.04087467 -0.09963552 0.3568013 255 0 255
0.04398687 -0.10036 0.3578092 255 0 255
0.04771908 -0.1006139 0.3576474 255 0 255
0.05467393 -0.1015053 0.3582965 255 0 255
0.055226 -0.1010395 0.3571502 255 0 255
0.05998857 -0.102438 0.3593661 255 0 255
0.06961543 -0.1038287 0.3606623 255 0 255
0.00892458 -0.1087806 0.3815072 255 0 255
0.01376547 -0.1060311 0.3743702 255 0 255
0.02038768 -0.1040697 0.3686256 255 0 255
0.03130312 -0.100692 0.3588895 255 0 255
0.0321704 -0.1006776 0.3586819 255 0 255
0.03994109 -0.1004752 0.3566765 255 0 255
0.0476443 -0.101433 0.3572803 255 0 255
0.05255744 -0.1020266 0.3576385 255 0 255
0.05546592 -0.1022783 0.3576345 255 0 255
0.06078549 -0.1032118 0.3586806 255 0 255
0.06199416 -0.1035574 0.3592145 255 0 255
0.06741917 -0.1044305 0.3601182 255 0 255
0.07078535 -0.1050116 0.3607704 255 0 255
0.07342854 -0.1047563 0.3597155 255 0 255
0.07683636 -0.1053007 0.3602858 255 0 255
0.07020987 -0.09296371 0.3343214 255 0 255
0.02268202 -0.1040838 0.3659453 255 0 255
0.02639402 -0.1023972 0.3614769 255 0 255
0.02707662 -0.1019707 0.3604007 255 0 255
0.03296144 -0.1014699 0.3581051 255 0 255
0.03382731 -0.1014521 0.3578914 255 0 255
0.03814482 -0.1013393 0.3567775 255 0 255
0.05131543 -0.1024832 0.3566876 255 0 255
0.05452266 -0.1031614 0.3575501 255 0 255
0.06400869 -0.1046739 0.3590392 255 0 255
0.07070754 -0.105868 0.3603824 255 0 255
0.07159001 -0.1057843 0.3600339 255 0 255
0.07247118 -0.105699 0.3596824 255 0 255
0.07510646 -0.1054328 0.3586093 255 0 255
0.06925668 -0.09199665 0.3303801 255 0 255
0.006347469 -0.1125459 0.3855877 255 0 255
0.009827827 -0.110996 0.3814742 255 0 255
0.0119842 -0.1085395 0.375673 255 0 255
0.0153257 -0.1073576 0.3723987 255 0 255
0.01703153 -0.1069681 0.3711942 255 0 255
0.03484721 -0.1026641 0.358181 255 0 255
0.04004415 -0.1025131 0.3568111 255 0 255
0.04634798 -0.1026863 0.3559369 255 0 255
0.04720852 -0.102644 0.3556757 255 0 255
0.05444593 -0.1039871 0.3571721 255 0 255
0.07667955 -0.1070232 0.3595014 255 0 255
0.06994204 -0.09264636 0.3297023 255 0 255
0.008884307 -0.1122704 0.3820977 255 0 255
0.0128408 -0.1094243 0.3751334 255 0 255
0.02324501 -0.1053143 0.3641193 255 0 255
0.02503135 -0.1053157 0.3637544 255 0 255
0.02592359 -0.1053139 0.3635672 255 0 255
0.02907856 -0.1044331 0.3610268 255 0 255
0.03674406 -0.1038568 0.3582345 255 0 255
0.03910332 -0.1033507 0.3566733 255 0 255
0.04540977 -0.1035382 0.35582 255 0 255
0.04655129 -0.1039237 0.356422 255 0 255
0.05232783 -0.1044939 0.3565091 255 0 255
0.06472792 -0.1062833 0.3579412 255 0 255
0.06682995 -0.1065542 0.3581184 255 0 255
0.06930356 -0.1072377 0.3591098 255 0 255
0.009766779 -0.1131861 0.3815528 255 0 255
0.01123114 -0.1115226 0.3776984 255 0 255
0.01840404 -0.107821 0.3683096 255 0 255
0.01931655 -0.1078326 0.3681448 255 0 255
0.02261606 -0.1069977 0.3656833 255 0 255
0.03230172 -0.1047661 0.3589486 255 0 255
0.03404984 -0.1047316 0.3585207 255 0 255
0.03492275 -0.1047118 0.3583022 255 0 255
0.03840636 -0.1046165 0.3573974 255 0 255
0.0545999 -0.1060621 0.3572557 255 0 255
0.05840281 -0.1062523 0.3569161 255 0 255
0.06289611 -0.1072659 0.3581945 255 0 255
0.07186057 -0.107834 0.3576735 255 0 255
0.07892632 -0.1052074 0.3507654 255 0 255
0.07771215 -0.1030113 0.3463432 255 0 255
0.07562858 -0.09998134 0.3403192 255 0 255
0.007851643 -0.1187364 0.3913771 255 0 255
0.01185471 -0.1115469 0.3753642 255 0 255
0.01455121 -0.1111839 0.3740342 255 0 255
0.01847488 -0.1090913 0.368803 255 0 255
0.03200465 -0.1051401 0.3576934 255 0 255
0.03309747 -0.105559 0.3583543 255 0 255
0.03832792 -0.1054255 0.3570157 255 0 255
0.04006484 -0.1053679 0.3565451 255 0 255
0.040932 -0.1053366 0.3563052 255 0 255
0.05745169 -0.1071419 0.3568273 255 0 255
0.06281587 -0.1081032 0.3577994 255 0 255
0.06491505 -0.1083877 0.3579887 255 0 255
0.06878138 -0.1085049 0.3574854 255 0 255
0.07053356 -0.1083388 0.3567982 255 0 255
0.08027198 -0.1105744 0.3596236 255 0 255
0.07719452 -0.1015099 0.3411933 255 0 255
0.007959702 -0.11619 0.3836617 255 0 255
0.01606165 -0.1111997 0.3715439 255 0 255
0.02097585 -0.1095186 0.3670148 255 0 255
0.02407742 -0.1082167 0.3636574 255 0 255
0.02657496 -0.1077717 0.3622158 255 0 255
0.027466 -0.1077665 0.3620224 255 0 255
0.02815761 -0.1073204 0.3609498 255 0 255
0.03039237 -0.1064117 0.3585973 255 0 255
0.0491972 -0.1066608 0.3553295 255 0 255
0.06658901 -0.1090742 0.3569294 255 0 255
0.08155959 -0.1108052 0.3576335 255 0 255
0.01545624 -0.1133538 0.3739506 255 0 255
0.02984778 -0.1081153 0.3601575 255 0 255
0.05697061 -0.1083542 0.3551967 255 0 255
0.05903288 -0.1086655 0.3554307 255 0 255
0.07211731 -0.1098453 0.3552944 255 0 255
0.08195008 -0.1111277 0.3560273 255 0 255
0.08162718 -0.1087683 0.3512336 255 0 255
0.07784948 -0.1029882 0.3400666 255 0 255
0.01537016 -0.1142083 0.3735352 255 0 255
0.01745567 -0.1120292 0.3686423 255 0 255
0.01914147 -0.1116081 0.3674317 255 0 255
0.0257066 -0.1098545 0.3624913 255 0 255
0.03745915 -0.1083149 0.3569451 255 0 255
0.04382339 -0.1085377 0.3561147 255 0 255
0.04469464 -0.1084993 0.3558607 255 0 255
0.04758471 -0.1088178 0.355931 255 0 255
0.04874703 -0.1078387 0.3536968 255 0 255
0.06015139 -0.1098625 0.355558 255 0 255
0.06223244 -0.110165 0.3557631 255 0 255
0.06642431 -0.1107459 0.3561206 255 0 255
0.07028732 -0.1108567 0.3555861 255 0 255
0.07290608 -0.1105928 0.3545335 255 0 255
0.07834384 -0.1123914 0.3571385 255 0 255
0.08233177 -0.1114402 0.3544216 255 0 255
0.08114617 -0.1081989 0.3480436 255 0 255
0.0192122 -0.1128896 0.3679029 255 0 255
0.02180326 -0.1124646 0.3665075 255 0 255
0.02632943 -0.1102185 0.3610262 255 0 255
0.03825143 -0.1090943 0.3563176 255 0 255
0.04374183 -0.1093467 0.3557175 255 0 255
0.0509818 -0.1094382 0.354445 255 0 255
0.05301927 -0.1097784 0.354725 255 0 255
0.05562241 -0.1096065 0.353856 255 0 255
0.06881089 -0.1123023 0.3566838 255 0 255
0.0728225 -0.1114281 0.3541234 255 0 255
0.07407457 -0.111776 0.3545797 255 0 255
0.08275012 -0.1088012 0.3468672 255 0 255
0.07665149 -0.1007735 0.3318477 255 0 255
0.02891777 -0.1110098 0.3600341 255 0 255
0.02980685 -0.1109995 0.3598314 255 0 255
0.03356855 -0.1095636 0.356183 255 0 255
0.03904226 -0.1098702 0.3556841 255 0 255
0.03991427 -0.10984 0.3554464 255 0 255
0.0436596 -0.1101541 0.3553171 255 0 255
0.05759234 -0.110744 0.3536924 255 0 255
0.06381132 -0.1116717 0.3543066 255 0 255
0.06836639 -0.1126953 0.3554482 255 0 255
0.06924339 -0.112612 0.3551067 255 0 255
0.07360838 -0.1121698 0.3533535 255 0 255
0.08298247 -0.1140116 0.3551848 255 0 255
0.01217184 -0.1198605 0.3790358 255 0 255
0.01605052 -0.1167805 0.3721127 255 0 255
0.02582718 -0.113216 0.3630175 255 0 255
