ply
format ascii 1.0
Comment Generated by Floating Hands
element vertex 1109
Comment Left: (0.0, 0.0, 0.0)
Comment Right: (0.1, 0.0, 0.5)
Comment Time: 2023-05-01 08:47:12,558
property double x
property double y
property double z
property uchar red
property uchar green
property uchar blue
end_header
0.04218864 0.04033757 0.4768568 255 0 255
0.03456159 0.03396334 0.4256103 255 0 255
-0.04327345 0.03795217 0.4926589 255 0 255
-0.0419721 0.03781195 0.4917062 255 0 255
-0.02063365 0.03683938 0.4846753 255 0 255
-0.01219068 0.03642944 0.4802688 255 0 255
-0.01089848 0.03656153 0.481178 255 0 255
0.005911137 0.03655509 0.4765714 255 0 255
0.008458278 0.03674622 0.4772469 255 0 255
0.01372992 0.0372664 0.4795178 255 0 255
0.02399165 0.03802245 0.4808552 255 0 255
0.02821154 0.03855884 0.4830995 255 0 255
0.03210402 0.03886768 0.4833402 255 0 255
0.03949824 0.03928152 0.4817393 255 0 255
0.04173251 0.03930742 0.4801997 255 0 255
-0.04324383 0.03660274 0.4928176 255 0 255
-0.04191463 0.03635221 0.4908712 255 0 255
-0.03804825 0.03583873 0.4869865 255 0 255
-0.03429458 0.03590841 0.4880236 255 0 255
-0.02805545 0.03552323 0.485018 255 0 255
-0.007392125 0.03496089 0.4780817 255 0 255
-0.00356275 0.03525284 0.4797456 255 0 255
0.00244264 0.03527334 0.4781342 255 0 255
0.003659895 0.03530453 0.4779956 255 0 255
0.01230064 0.03567783 0.4778759 255 0 255
0.03218662 0.03752578 0.483489 255 0 255
0.02695967 0.02538105 0.3703705 255 0 255
-0.03676264 0.03449574 0.4871556 255 0 255
-0.03550902 0.03448082 0.4871701 255 0 255
-0.03425542 0.03446741 0.4871795 255 0 255
-0.03050161 0.03432626 0.4861847 255 0 255
-0.02428022 0.03419355 0.485092 255 0 255
0.009541349 0.03395613 0.4754019 255 0 255
0.01358387 0.03441343 0.4778401 255 0 255
0.01844288 0.03459805 0.4770837 255 0 255
0.02119467 0.03492385 0.4786372 255 0 255
0.03065196 0.03589217 0.481932 255 0 255
0.0318824 0.03595591 0.4816833 255 0 255
0.02379579 0.02276691 0.3558952 255 0 255
-0.0405863 0.03364715 0.4912044 255 0 255
-0.03800048 0.03329134 0.4882752 255 0 255
-0.03296635 0.0330221 0.4863337 255 0 255
-0.02921466 0.03299458 0.4863177 255 0 255
0.01094669 0.03280775 0.4763559 255 0 255
0.01972663 0.03334083 0.4770181 255 0 255
0.02735496 0.03388774 0.4776666 255 0 255
0.03502398 0.03508458 0.4842289 255 0 255
0.03605901 0.03504286 0.4829908 255 0 255
0.03997451 0.03536845 0.4831377 255 0 255
0.04390175 0.03570843 0.4832362 255 0 255
0.04421759 0.03533944 0.4790689 255 0 255
0.04322339 0.03295428 0.4547203 255 0 255
0.04286302 0.03235393 0.44865 255 0 255
-0.03800063 0.03216441 0.4904041 255 0 255
-0.02917792 0.03167028 0.4864554 255 0 255
-0.02419954 0.03155177 0.4853705 255 0 255
-0.01925395 0.03145671 0.4842089 255 0 255
-0.01552795 0.03147698 0.4840328 255 0 255
-0.001043831 0.03127963 0.4789332 255 0 255
0.00129411 0.03123208 0.4776897 255 0 255
0.02603528 0.03240917 0.4770496 255 0 255
0.03347049 0.03345881 0.4826734 255 0 255
0.04230748 0.03406614 0.4817263 255 0 255
0.04407567 0.0338982 0.4782325 255 0 255
0.04493299 0.03201528 0.4564687 255 0 255
-0.0379701 0.03082559 0.4905391 255 0 255
-0.03415104 0.03038721 0.4866005 255 0 255
-0.02788974 0.03033937 0.4865723 255 0 255
-0.02665614 0.03023655 0.4855569 255 0 255
-0.02538591 0.03033057 0.4865268 255 0 255
0.0001323492 0.02990477 0.477945 255 0 255
0.004885322 0.02992688 0.4764112 255 0 255
0.006097332 0.02996061 0.4762634 255 0 255
0.009598852 0.029971 0.4748055 255 0 255
0.0144175 0.03013671 0.474113 255 0 255
0.01728155 0.03052828 0.4766881 255 0 255
0.01970566 0.03062617 0.4762914 255 0 255
0.03827059 0.03229481 0.4807619 255 0 255
0.0455964 0.03142567 0.463632 255 0 255
0.04601248 0.03119169 0.460437 255 0 255
0.02327217 0.01952442 0.3480546 255 0 255
-0.03664863 0.0292814 0.4886965 255 0 255
-0.03161596 0.02894581 0.4857355 255 0 255
-0.0303666 0.0289361 0.4857298 255 0 255
-0.02414742 0.02881597 0.4846327 255 0 255
-0.02041349 0.02881781 0.4845137 255 0 255
-0.01916928 0.02882138 0.4844643 255 0 255
-0.01430725 0.02866274 0.4822306 255 0 255
-0.006079589 0.02829863 0.4766576 255 0 255
0.002407174 0.02847375 0.4758233 255 0 255
0.008452646 0.02864168 0.4750862 255 0 255
0.009659878 0.02867954 0.4749248 255 0 255
0.01073175 0.02862343 0.4737723 255 0 255
0.0119339 0.02866404 0.4736019 255 0 255
0.02219642 0.0294266 0.4759949 255 0 255
0.02461547 0.02953604 0.4755603 255 0 255
0.02861041 0.02990608 0.4768282 255 0 255
0.03283861 0.03038942 0.4790203 255 0 255
0.04393691 0.03156061 0.4826486 255 0 255
0.04644588 0.03130027 0.4769047 255 0 255
-0.03925608 0.02852726 0.4947523 255 0 255
-0.03792607 0.0282378 0.4917887 255 0 255
-0.03661861 0.02795019 0.4888199 255 0 255
-0.03534923 0.02784423 0.4878376 255 0 255
-0.02660125 0.0275052 0.4848085 255 0 255
-0.02535524 0.02750122 0.4847832 255 0 255
-0.02408324 0.02758847 0.4857486 255 0 255
-0.02286373 0.02749774 0.4847181 255 0 255
-0.01668729 0.02742511 0.4834758 255 0 255
-0.00960537 0.02704425 0.4780538 255 0 255
-0.00838568 0.02706061 0.4779626 255 0 255
0.004651742 0.02706343 0.4736791 255 0 255
0.009589022 0.02729667 0.4740517 255 0 255
0.01199562 0.02737645 0.4737154 255 0 255
0.01439939 0.02746189 0.4733604 255 0 255
0.01968059 0.02792713 0.4755423 255 0 255
0.02728653 0.02844159 0.476199 255 0 255
0.03657754 0.02927076 0.4783512 255 0 255
0.03800859 0.02943664 0.4790529 255 0 255
0.04079517 0.02558483 0.4270589 255 0 255
-0.03280156 0.02640302 0.486971 255 0 255
-0.02781247 0.0261939 0.4849444 255 0 255
-0.02407202 0.02618153 0.4848681 255 0 255
-0.02161298 0.02609495 0.4837973 255 0 255
-0.02037065 0.02609676 0.4837527 255 0 255
-0.01193708 0.0258071 0.4793281 255 0 255
-0.01071209 0.02582053 0.4792458 255 0 255
-0.006063884 0.02563035 0.4758911 255 0 255
-0.002336133 0.02578253 0.4765539 255 0 255
0.008315621 0.02588409 0.4733335 255 0 255
0.01177905 0.02591369 0.4718508 255 0 255
0.02095664 0.02667875 0.4754458 255 0 255
0.02717511 0.02704508 0.4753286 255 0 255
0.03523029 0.02778829 0.477752 255 0 255
0.04053106 0.0282573 0.4786046 255 0 255
0.02984932 0.01975522 0.376468 255 0 255
0.02845509 0.01883765 0.3654631 255 0 255
-0.03789912 0.02571603 0.4940147 255 0 255
-0.02654925 0.02478961 0.4840374 255 0 255
-0.02278794 0.02486295 0.4849426 255 0 255
-0.02033152 0.02478301 0.4838617 255 0 255
-0.01541403 0.0247226 0.482639 255 0 255
-0.007228867 0.02432417 0.4760965 255 0 255
-0.004803329 0.02436363 0.475891 255 0 255
-0.00228555 0.02449118 0.4766589 255 0 255
0.001252271 0.02448748 0.4752951 255 0 255
0.003558076 0.02446429 0.4740337 255 0 255
0.01183886 0.024634 0.4719534 255 0 255
0.01572623 0.02493162 0.4733868 255 0 255
0.0258563 0.02559819 0.4746811 255 0 255
0.03589656 0.02627878 0.4746684 255 0 255
0.04327912 0.02717214 0.4791013 255 0 255
0.04548675 0.02724301 0.4775357 255 0 255
0.04670579 0.02696316 0.4720903 255 0 255
0.03603818 0.02113136 0.4017197 255 0 255
0.02854811 0.018173 0.3686379 255 0 255
-0.03788626 0.02444323 0.4951206 255 0 255
-0.03528284 0.0240957 0.4911647 255 0 255
-0.03273979 0.02375507 0.4871885 255 0 255
-0.02898187 0.02364568 0.4861725 255 0 255
-0.02524745 0.02354995 0.485113 255 0 255
-0.02025527 0.02354704 0.4849616 255 0 255
-0.01542525 0.02333448 0.4817463 255 0 255
-0.01301566 0.02327587 0.4806091 255 0 255
-0.01184905 0.02320973 0.4795363 255 0 255
-0.004755227 0.02307634 0.4759909 255 0 255
-0.00354231 0.02309819 0.4758809 255 0 255
-0.001117935 0.02314618 0.475647 255 0 255
0.001409897 0.02327854 0.4763855 255 0 255
0.003724616 0.02325952 0.4751227 255 0 255
0.01309513 0.02339606 0.4718765 255 0 255
0.02592525 0.02429901 0.4747789 255 0 255
0.02935196 0.02439672 0.4731002 255 0 255
0.03903473 0.02536431 0.4771433 255 0 255
0.04047047 0.02552175 0.4778353 255 0 255
0.04486389 0.02566426 0.4747291 255 0 255
0.04917975 0.02582617 0.4715623 255 0 255
0.03893904 0.02079247 0.4082358 255 0 255
0.0408464 0.02094649 0.4076735 255 0 255
0.04179837 0.02102519 0.4073867 255 0 255
-0.03656014 0.0229955 0.4942455 255 0 255
-0.03397802 0.02266685 0.4902779 255 0 255
-0.03144462 0.0225667 0.4892822 255 0 255
-0.03018753 0.02248203 0.4882784 255 0 255
-0.02769622 0.02231747 0.4862564 255 0 255
-0.004707814 0.02178912 0.4760855 255 0 255
0.001355846 0.02191239 0.4754883 255 0 255
0.004870809 0.02192885 0.4740834 255 0 255
0.008229852 0.02188252 0.4716502 255 0 255
0.0208229 0.02262711 0.4737738 255 0 255
0.02923093 0.02302379 0.4722137 255 0 255
0.0328204 0.02321541 0.4714752 255 0 255
0.03846063 0.02380821 0.4743174 255 0 255
0.04423865 0.0241094 0.4719155 255 0 255
0.0473288 0.02419261 0.4690708 255 0 255
0.0465789 0.02281076 0.4475977 255 0 255
0.04100518 0.02057868 0.419142 255 0 255
0.03583309 0.01856873 0.3936642 255 0 255
0.03478646 0.01751505 0.3773221 255 0 255
-0.03017202 0.02101392 0.4863789 255 0 255
-0.02398216 0.02077279 0.4832811 255 0 255
-0.02270947 0.02084082 0.4842428 255 0 255
-0.01663064 0.02064485 0.4810035 255 0 255
-0.01053548 0.02062537 0.4796411 255 0 255
-0.001019032 0.02057128 0.4758304 255 0 255
0.0002960511 0.0206679 0.4766984 255 0 255
0.001406535 0.02062485 0.4755772 255 0 255
0.01560797 0.02092456 0.4716927 255 0 255
0.02055537 0.02119035 0.4718941 255 0 255
0.02791309 0.02159796 0.4715577 255 0 255
0.03528154 0.02205978 0.4710458 255 0 255
0.04288857 0.02265244 0.4713271 255 0 255
0.03216451 0.01569126 0.3656902 255 0 255
-0.03520574 0.02014348 0.4924534 255 0 255
-0.01659203 0.01934262 0.4810903 255 0 255
-0.01295143 0.0193022 0.4798879 255 0 255
-0.006967388 0.01924192 0.4774606 255 0 255
0.008339025 0.01933102 0.4718198 255 0 255
0.01432181 0.01953226 0.4709717 255 0 255
0.01566711 0.01964481 0.4717745 255 0 255
0.01806112 0.01973861 0.4713925 255 0 255
0.019257 0.01978768 0.4711946 255 0 255
0.02318606 0.02008141 0.4725379 255 0 255
0.03374574 0.02055947 0.4694351 255 0 255
0.03654786 0.02083908 0.4708617 255 0 255
0.05001407 0.02156826 0.4644332 255 0 255
0.04188729 0.01750402 0.4003306 255 0 255
-0.03262383 0.01839732 0.486562 255 0 255
-0.02273223 0.01802847 0.4814211 255 0 255
-0.0214617 0.0180897 0.4823783 255 0 255
-0.02026031 0.0180288 0.4813357 255 0 255
-0.01419885 0.01793188 0.4790458 255 0 255
-0.009366183 0.01791801 0.4777289 255 0 255
-0.002327707 0.01784707 0.4741261 255 0 255
0.002499613 0.01795315 0.4736218 255 0 255
0.007068312 0.01795624 0.4710627 255 0 255
0.01065312 0.01806793 0.4705828 255 0 255
0.01542332 0.01823706 0.4698784 255 0 255
0.01661405 0.01828298 0.4696907 255 0 255
0.01915541 0.01844356 0.4702863 255 0 255
0.0203475 0.01849395 0.4700843 255 0 255
0.02409593 0.01871892 0.4704325 255 0 255
0.03500444 0.01934484 0.4692518 255 0 255
0.04138844 0.01984313 0.4698312 255 0 255
0.04376583 0.01999903 0.4692504 255 0 255
0.04757027 0.02031309 0.4693112 255 0 255
0.04906251 0.0200113 0.4606527 255 0 255
0.04786069 0.01946521 0.4516718 255 0 255
-0.03385964 0.01720815 0.4886354 255 0 255
-0.03009093 0.01699504 0.4856337 255 0 255
-0.0239629 0.01667142 0.4805359 255 0 255
-0.021462 0.01672631 0.4814577 255 0 255
-0.01903103 0.01667145 0.4803651 255 0 255
-0.01661615 0.01662257 0.479254 255 0 255
-0.01293271 0.0166472 0.4790481 255 0 255
-0.004612568 0.01658185 0.4754184 255 0 255
-0.003490672 0.01654491 0.4743141 255 0 255
0.002548614 0.0166736 0.4736948 255 0 255
0.006995053 0.01662538 0.4701444 255 0 255
0.008187661 0.01666105 0.4699894 255 0 255
0.009379628 0.01669813 0.4698298 255 0 255
0.01309529 0.0168779 0.4703113 255 0 255
0.01548049 0.01696539 0.4699496 255 0 255
0.02672917 0.01761536 0.4710372 255 0 255
0.04715409 0.01888945 0.4674477 255 0 255
0.04951375 0.0190597 0.4668227 255 0 255
0.03896075 0.0151589 0.4003352 255 0 255
0.0294108 0.01215571 0.3510701 255 0 255
-0.03383654 0.01593477 0.4897086 255 0 255
-0.03256876 0.01581177 0.487714 255 0 255
-0.02263524 0.01547962 0.4825681 255 0 255
-0.02015261 0.01547936 0.4824819 255 0 255
-0.01283283 0.01540676 0.4801151 255 0 255
-0.006917791 0.01531472 0.4766892 255 0 255
-0.000928601 0.01536718 0.4751422 255 0 255
0.002596886 0.01539413 0.4737627 255 0 255
0.004892698 0.01540079 0.4724905 255 0 255
0.008368239 0.01544871 0.4710462 255 0 255
0.009432043 0.01543048 0.4698963 255 0 255
0.01807953 0.01584351 0.4706212 255 0 255
0.02285243 0.0160483 0.4698029 255 0 255
0.02541502 0.01621678 0.470348 255 0 255
0.02937626 0.01651072 0.4716154 255 0 255
0.0398933 0.01706764 0.4683053 255 0 255
0.0411677 0.01436208 0.4007806 255 0 255
-0.02387257 0.01412705 0.4816726 255 0 255
-0.02263397 0.01412447 0.4816367 255 0 255
-0.02011883 0.01417381 0.4825485 255 0 255
-0.01414238 0.01399892 0.4782602 255 0 255
-0.003311038 0.01403691 0.4754405 255 0 255
0.003966305 0.01419567 0.4746796 255 0 255
0.01186869 0.01424144 0.4696244 255 0 255
0.01306017 0.01428288 0.4694508 255 0 255
0.01425091 0.01432582 0.4692726 255 0 255
0.02529571 0.0148842 0.4694267 255 0 255
0.02667096 0.01499559 0.4701825 255 0 255
0.031437 0.01524215 0.4692322 255 0 255
0.03360677 0.01531949 0.4677527 255 0 255
0.04848957 0.01640403 0.467261 255 0 255
0.04992554 0.0165481 0.4679111 255 0 255
0.05080955 0.01622944 0.4573143 255 0 255
-0.0325165 0.01316456 0.4878468 255 0 255
-0.0226025 0.01282335 0.4816982 255 0 255
-0.02012434 0.01282245 0.4816118 255 0 255
-0.01892801 0.01277835 0.4805633 255 0 255
0.000375425 0.0128264 0.4751392 255 0 255
0.00607172 0.01283565 0.4714718 255 0 255
0.008211119 0.01281094 0.4691838 255 0 255
0.01296908 0.01296755 0.4685186 255 0 255
0.01549562 0.0131027 0.4691458 255 0 255
0.02931219 0.01388705 0.4707518 255 0 255
0.03289579 0.01407939 0.4700158 255 0 255
0.04738296 0.01503437 0.4676256 255 0 255
0.05015014 0.01513104 0.4637873 255 0 255
0.0500044 0.0149474 0.4586495 255 0 255
0.03870795 0.01181227 0.3922663 255 0 255
0.03460698 0.01058448 0.3642421 255 0 255
-0.03376091 0.01194089 0.4899015 255 0 255
-0.02505202 0.01152961 0.4818221 255 0 255
-0.01885242 0.01152279 0.4816172 255 0 255
-0.01406994 0.01141865 0.478375 255 0 255
-0.01039055 0.01145085 0.4781398 255 0 255
-0.008015994 0.0114376 0.4769633 255 0 255
0.009451618 0.01158449 0.4690757 255 0 255
0.01064218 0.01162291 0.4689115 255 0 255
0.01960901 0.01211106 0.471577 255 0 255
0.02523524 0.01228869 0.4685502 255 0 255
0.02761014 0.0124057 0.4680958 255 0 255
0.02879619 0.01246637 0.4678619 255 0 255
0.03275688 0.01275038 0.469088 255 0 255
0.04460473 0.01348603 0.4663435 255 0 255
0.04982316 0.01392111 0.4670489 255 0 255
-0.0213357 0.01018187 0.4807658 255 0 255
-0.020099 0.01018189 0.4807201 255 0 255
-0.01280715 0.01013779 0.4783509 255 0 255
-0.007977093 0.01015109 0.4770122 255 0 255
-0.001049508 0.01011892 0.4723821 255 0 255
0.002561304 0.01019927 0.4719972 255 0 255
0.01695002 0.01065422 0.4700419 255 0 255
0.01950157 0.01079131 0.4706373 255 0 255
0.02069824 0.01084195 0.4704346 255 0 255
0.02410496 0.01096143 0.4688158 255 0 255
0.04703375 0.01237395 0.4657836 255 0 255
0.05195554 0.01242976 0.4520009 255 0 255
0.04998113 0.01189505 0.4369654 255 0 255
-0.03118685 0.009112065 0.4860044 255 0 255
-0.02494763 0.008996602 0.483918 255 0 255
-0.01764026 0.00885506 0.4796612 255 0 255
-0.004536614 0.008815581 0.4737639 255 0 255
-0.002212697 0.008824265 0.4725439 255 0 255
0.001294756 0.008865242 0.4711788 255 0 255
0.005969354 0.008951578 0.4696288 255 0 255
0.015655 0.009300884 0.4692835 255 0 255
0.01819853 0.009430659 0.4698898 255 0 255
0.02058665 0.009530204 0.4694901 255 0 255
0.02177948 0.009582186 0.4692833 255 0 255
0.02535293 0.009747019 0.4686356 255 0 255
0.03247525 0.0101165 0.4672166 255 0 255
0.03645442 0.01039961 0.4683968 255 0 255
0.04332796 0.0108108 0.4657511 255 0 255
0.05101859 0.01131814 0.4616685 255 0 255
0.05312757 0.01137549 0.4558801 255 0 255
-0.01514132 0.007571935 0.4795763 255 0 255
-0.009125222 0.007563651 0.4771875 255 0 255
-0.007901358 0.007578526 0.4770948 255 0 255
-0.005539409 0.007582513 0.4758995 255 0 255
-0.004408902 0.007571522 0.4747975 255 0 255
0.002538329 0.007626505 0.4710833 255 0 255
0.007209629 0.007722563 0.4695147 255 0 255
0.009463531 0.007763409 0.4682091 255 0 255
0.01436418 0.00795738 0.4685144 255 0 255
0.01570657 0.008033879 0.4693193 255 0 255
0.01705575 0.008112149 0.4701187 255 0 255
0.02183492 0.008311373 0.4693188 255 0 255
0.02878459 0.008620672 0.4670009 255 0 255
0.0374882 0.009158067 0.4671885 255 0 255
0.03985496 0.009305474 0.4666407 255 0 255
0.04457504 0.009618103 0.4654905 255 0 255
0.04692809 0.009783274 0.4648882 255 0 255
0.0504485 0.01004208 0.4639508 255 0 255
0.05463535 0.01019952 0.452368 255 0 255
0.04885287 0.009109066 0.4144217 255 0 255
-0.01881198 0.006266095 0.4797915 255 0 255
-0.01757729 0.006268703 0.479736 255 0 255
-0.01629233 0.006298927 0.4806742 255 0 255
-0.01505436 0.006304637 0.4806091 255 0 255
-0.0091624 0.006251388 0.4762242 255 0 255
-0.00437009 0.006293137 0.4748305 255 0 255
-0.003246998 0.006287415 0.4737243 255 0 255
-0.002035918 0.006309632 0.4736092 255 0 255
0.009510394 0.006504465 0.4682402 255 0 255
0.0157574 0.006767002 0.4693502 255 0 255
0.02188951 0.007040669 0.4693492 255 0 255
0.03969354 0.008000235 0.4656965 255 0 255
0.04934778 0.008682235 0.4642962 255 0 255
0.05026047 0.008735893 0.4630142 255 0 255
0.05838057 0.009295247 0.4523241 255 0 255
-0.01027935 0.004978661 0.4773381 255 0 255
-0.007905534 0.004984256 0.4761602 255 0 255
-0.004331956 0.005014966 0.4748586 255 0 255
-0.0008850564 0.00503627 0.4725222 255 0 255
0.007173671 0.005173626 0.468581 255 0 255
0.01088467 0.005307632 0.4690925 255 0 255
0.01684536 0.005521955 0.4682006 255 0 255
0.0255233 0.0059355 0.4687259 255 0 255
0.03008642 0.00615059 0.4668171 255 0 255
0.03204347 0.006226472 0.4643701 255 0 255
0.03342694 0.006319786 0.4650972 255 0 255
0.03975817 0.006731062 0.4657204 255 0 255
0.05560475 0.007865912 0.4594694 255 0 255
0.05591239 0.007865866 0.4562521 255 0 255
-0.03106377 0.003961788 0.4921408 255 0 255
-0.0273292 0.003798493 0.4851022 255 0 255
-0.0223994 0.003719163 0.4819836 255 0 255
-0.0211905 0.003698759 0.4809425 255 0 255
-0.01147208 0.003681586 0.4774453 255 0 255
-0.007947448 0.003684232 0.4751868 255 0 255
-0.00186144 0.003779796 0.4746547 255 0 255
0.001569312 0.003817651 0.4722915 255 0 255
0.002664616 0.003826794 0.4711644 255 0 255
0.008410092 0.00395034 0.4684474 255 0 255
0.009601917 0.003987109 0.4682877 255 0 255
0.01466077 0.004189283 0.4695806 255 0 255
0.01792542 0.004286286 0.4670423 255 0 255
0.02796211 0.004783163 0.4682905 255 0 255
0.030926 0.004903734 0.4646354 255 0 255
0.0318971 0.004946103 0.463411 255 0 255
0.03841677 0.005363666 0.4650407 255 0 255
0.04053966 0.005489677 0.4635141 255 0 255
0.04638651 0.005889994 0.4620549 255 0 255
0.04923103 0.00611256 0.4633719 255 0 255
0.05104243 0.006236824 0.4608068 255 0 255
0.05856076 0.006843124 0.4565374 255 0 255
0.05947601 0.006892156 0.4436775 255 0 255
0.059647 0.00690297 0.4404692 255 0 255
-0.03102632 0.002666404 0.4951621 255 0 255
-0.01260505 0.0024007 0.478541 255 0 255
-0.009058413 0.002406588 0.4762947 255 0 255
-0.006694088 0.002422679 0.4751078 255 0 255
0.0004014281 0.002521031 0.4724378 255 0 255
0.002816812 0.00257553 0.4721752 255 0 255
0.01083844 0.002766986 0.4681396 255 0 255
0.01813559 0.003044501 0.4680447 255 0 255
0.02051592 0.003143805 0.4676464 255 0 255
0.02425958 0.003321261 0.4679985 255 0 255
0.02645219 0.003418179 0.4665712 255 0 255
0.03825472 0.004078947 0.4640803 255 0 255
0.04037137 0.004208716 0.4625553 255 0 255
0.05919199 0.005643398 0.4542866 255 0 255
0.0613777 0.005846933 0.4494019 255 0 255
-0.02604465 0.001157358 0.4841157 255 0 255
-0.01368932 0.001123987 0.480626 255 0 255
-0.005440367 0.001162691 0.4750189 255 0 255
-0.001785782 0.001224124 0.474685 255 0 255
0.0005441654 0.001261981 0.4734446 255 0 255
0.001648743 0.001277638 0.4723209 255 0 255
0.01088304 0.001508822 0.4681508 255 0 255
0.01699248 0.00173502 0.4682477 255 0 255
0.02650609 0.002156484 0.466581 255 0 255
0.02868137 0.002262719 0.4651382 255 0 255
0.03201199 0.002439173 0.4634348 255 0 255
0.03691872 0.002729668 0.4633836 255 0 255
0.03809139 0.002802385 0.4631149 255 0 255
0.04601877 0.003335206 0.4601406 255 0 255
0.04859476 0.00352333 0.4604952 255 0 255
0.05038609 0.003662536 0.4579356 255 0 255
0.05153732 0.003752497 0.4576153 255 0 255
0.05268727 0.003843844 0.4572906 255 0 255
0.05980675 0.004460396 0.4520307 255 0 255
0.06145199 0.004621988 0.4494091 255 0 255
0.06226159 0.004703926 0.4480954 255 0 255
0.06337464 0.004809374 0.4477294 255 0 255
-0.03097826 -2.69311E-05 0.4961898 255 0 255
-0.02481529 -0.000169416 0.4820985 255 0 255
-0.0211466 -0.0001948447 0.4799875 255 0 255
-0.01990786 -0.000196058 0.4799409 255 0 255
-0.01490042 -0.0001790658 0.4807054 255 0 255
-0.01248054 -0.0001704753 0.4795616 255 0 255
-0.008992434 -0.0001555768 0.4763163 255 0 255
-0.001748992 -5.334236E-05 0.4746925 255 0 255
0.00410452 6.532992E-05 0.4720558 255 0 255
0.01331141 0.0003319134 0.4678143 255 0 255
0.03069135 0.00111038 0.4627053 255 0 255
0.03206816 0.001186055 0.4634392 255 0 255
0.04327271 0.001892984 0.4587981 255 0 255
0.05505301 0.002784873 0.4566308 255 0 255
0.05848902 0.00307728 0.4556034 255 0 255
0.06100805 0.00332961 0.4516766 255 0 255
0.06295279 0.003520271 0.4499995 255 0 255
0.06438614 0.003645443 0.4505809 255 0 255
0.06742781 0.003954454 0.4485001 255 0 255
-0.03096297 -0.0013827 0.4951957 255 0 255
-0.0297381 -0.001416143 0.4871867 255 0 255
-0.02351625 -0.001472101 0.4830702 255 0 255
-0.01735645 -0.001483394 0.4808363 255 0 255
-0.00415168 -0.00137275 0.4749228 255 0 255
-0.002932078 -0.001352451 0.4748112 255 0 255
0.01216328 -0.0009671088 0.4679891 255 0 255
0.01439807 -0.0008872102 0.4666483 255 0 255
0.03308825 -7.132735E-06 0.462211 255 0 255
0.03404452 5.366583E-05 0.4609804 255 0 255
0.05369683 0.00143264 0.4560014 255 0 255
0.05512175 0.001538964 0.4566287 255 0 255
0.05855983 0.00183202 0.4556012 255 0 255
0.06024875 0.002007826 0.4529854 255 0 255
0.06312444 0.002243392 0.4541697 255 0 255
0.064262 0.002349931 0.4538008 255 0 255
0.06847396 0.002774892 0.4513357 255 0 255
-0.02109677 -0.002777258 0.4799914 255 0 255
-0.01985663 -0.002778779 0.4799445 255 0 255
-0.0186167 -0.002778716 0.4798928 255 0 255
-0.0160864 -0.002775695 0.4807741 255 0 255
-0.0136007 -0.002764494 0.4806372 255 0 255
-0.01001487 -0.002732613 0.4784014 255 0 255
-0.005509303 -0.00266538 0.4730347 255 0 255
-0.004206931 -0.002648181 0.4739245 255 0 255
-0.002897395 -0.002629346 0.4748088 255 0 255
0.003196832 -0.002504786 0.4741808 255 0 255
0.005391555 -0.002442581 0.4719114 255 0 255
0.008753349 -0.002339704 0.469471 255 0 255
0.01547683 -0.002096801 0.4654738 255 0 255
0.02155944 -0.001852964 0.465482 255 0 255
0.02291906 -0.00179845 0.4662567 255 0 255
0.02410536 -0.001743561 0.466042 255 0 255
0.03314327 -0.001255723 0.4622056 255 0 255
0.04154995 -0.0007430842 0.4613069 255 0 255
0.04570803 -0.0004301482 0.4582002 255 0 255
0.05577011 0.0003732716 0.4543659 255 0 255
0.06061777 0.0007807203 0.4539325 255 0 255
0.06742091 0.001423754 0.4517132 255 0 255
0.07025391 0.001816707 0.445435 255 0 255
-0.03092916 -0.004075152 0.4941912 255 0 255
-0.01730352 -0.004074101 0.4808292 255 0 255
-0.01600833 -0.00407677 0.4817665 255 0 255
-0.008824404 -0.004002483 0.4773081 255 0 255
-0.006445957 -0.003967364 0.4761193 255 0 255
-0.00530583 -0.003944779 0.4750202 255 0 255
0.006762841 -0.003683835 0.4727475 255 0 255
0.01119259 -0.003525722 0.4691364 255 0 255
0.02059098 -0.003160802 0.4666632 255 0 255
0.02160703 -0.003105986 0.4654725 255 0 255
0.02534055 -0.002943975 0.4658129 255 0 255
0.02987708 -0.002701171 0.4639101 255 0 255
0.0390424 -0.002148049 0.4608811 255 0 255
0.04044061 -0.002071963 0.4615775 255 0 255
0.05697728 -0.00076652 0.4540136 255 0 255
0.0618259 -0.000355925 0.4535614 255 0 255
-0.02585122 -0.005412534 0.4881141 255 0 255
-0.01598205 -0.005375791 0.481755 255 0 255
-0.0123011 -0.005347739 0.4805434 255 0 255
-0.007641393 -0.005262889 0.4762053 255 0 255
-0.005273912 -0.005220955 0.475008 255 0 255
-0.0002873121 -0.005146553 0.475546 255 0 255
0.004373543 -0.005020021 0.4730267 255 0 255
0.005467956 -0.004980349 0.47189 255 0 255
0.00909579 -0.004878551 0.4714319 255 0 255
0.01030381 -0.004841513 0.4712699 255 0 255
0.01467871 -0.004654568 0.4676103 255 0 255
0.01587194 -0.004610232 0.4674271 255 0 255
0.01825612 -0.004516963 0.4670471 255 0 255
0.01928185 -0.004460859 0.465864 255 0 255
0.02657538 -0.004142423 0.4655742 255 0 255
0.04608089 -0.002917978 0.4591409 255 0 255
0.06045798 -0.001701267 0.4529492 255 0 255
0.06447853 -0.001380736 0.4537639 255 0 255
0.0667532 -0.001161767 0.4530128 255 0 255
0.07090284 -0.000413165 0.4399107 255 0 255
0.07060472 -0.0003204392 0.4357593 255 0 255
-0.02455725 -0.006742347 0.4880692 255 0 255
-0.01600783 -0.006660819 0.48074 255 0 255
0.008053143 -0.006195019 0.4725626 255 0 255
0.01141274 -0.006059319 0.4700945 255 0 255
0.01830026 -0.00577352 0.467028 255 0 255
0.02562178 -0.005467086 0.4667614 255 0 255
0.03659573 -0.004781801 0.4604092 255 0 255
0.04820116 -0.003986985 0.4575434 255 0 255
0.05909323 -0.003036777 0.4523257 255 0 255
0.06731891 -0.002291616 0.4507141 255 0 255
-0.02829331 -0.008119848 0.4931199 255 0 255
-0.02100456 -0.007938535 0.4799378 255 0 255
-0.01851903 -0.007941201 0.4798383 255 0 255
-0.01473717 -0.007950947 0.4806518 255 0 255
-0.01230949 -0.007920017 0.4795067 255 0 255
-0.01106846 -0.007911002 0.4794262 255 0 255
-0.003899006 -0.007771271 0.4758567 255 0 255
-0.0004220273 -0.007672263 0.4735159 255 0 255
0.004445939 -0.007564477 0.4729855 255 0 255
0.00809099 -0.007467187 0.4725391 255 0 255
0.01251375 -0.007267566 0.4689104 255 0 255
0.0242968 -0.006769386 0.4659736 255 0 255
0.03022834 -0.006470683 0.46483 255 0 255
0.03259438 -0.006340466 0.4643411 255 0 255
0.03898051 -0.005877774 0.4598461 255 0 255
0.04014459 -0.005801942 0.4595705 255 0 255
0.04387413 -0.005576072 0.4596869 255 0 255
0.04594797 -0.005400017 0.4581262 255 0 255
0.04915326 -0.005131358 0.4562416 255 0 255
0.06059264 -0.00417257 0.4529008 255 0 255
0.0625576 -0.003957217 0.4512284 255 0 255
0.0656257 -0.003627932 0.4491704 255 0 255
0.06977238 -0.003172576 0.4466919 255 0 255
0.07088457 -0.003056221 0.4462986 255 0 255
-0.02826186 -0.009481252 0.4940932 255 0 255
-0.02699805 -0.009450652 0.492074 255 0 255
-0.0171099 -0.009295065 0.4827508 255 0 255
-0.01222027 -0.009232067 0.4804775 255 0 255
-0.0086337 -0.009157412 0.4782267 255 0 255
0.002046788 -0.008893166 0.473232 255 0 255
0.0114912 -0.008587499 0.4700423 255 0 255
0.01495329 -0.00844312 0.4685274 255 0 255
0.01735052 -0.008352528 0.4681547 255 0 255
0.03027747 -0.007726023 0.4648002 255 0 255
0.03996597 -0.007028888 0.4585679 255 0 255
0.04112587 -0.006951632 0.4582887 255 0 255
0.05352945 -0.005990082 0.4539661 255 0 255
0.06793789 -0.004630297 0.4483798 255 0 255
0.07249132 -0.004027347 0.4435889 255 0 255
0.07399152 -0.003774934 0.4409043 255 0 255
0.07509384 -0.003379672 0.4340681 255 0 255
-0.02333658 -0.01060964 0.4839587 255 0 255
-0.02092587 -0.01054274 0.4808795 255 0 255
-0.01963769 -0.01057082 0.4818305 255 0 255
-0.01838603 -0.0105717 0.4817778 255 0 255
-0.009773351 -0.01048139 0.4792814 255 0 255
-0.006213865 -0.01038978 0.4770042 255 0 255
-0.003928239 -0.01030421 0.4748009 255 0 255
0.0009663244 -0.01021549 0.4743237 255 0 255
0.01259179 -0.009787103 0.4688483 255 0 255
0.01945574 -0.009469047 0.465758 255 0 255
0.03012609 -0.008959537 0.4637857 255 0 255
0.03769507 -0.008417246 0.4590781 255 0 255
0.04233937 -0.008110734 0.4579699 255 0 255
0.0490084 -0.007588133 0.4552105 255 0 255
0.05530358 -0.006999175 0.4513472 255 0 255
0.05643586 -0.006901571 0.4510097 255 0 255
0.06463729 -0.006189501 0.4494757 255 0 255
0.0687982 -0.005729715 0.447013 255 0 255
0.076959 -0.004748146 0.4419134 255 0 255
0.07733207 -0.004605883 0.4396279 255 0 255
-0.03212397 -0.01214844 0.4950551 255 0 255
-0.03082623 -0.01213712 0.49405 255 0 255
-0.02579685 -0.0119561 0.4859841 255 0 255
-0.0233461 -0.01188436 0.4829231 255 0 255
-0.02208937 -0.01189029 0.4828843 255 0 255
-0.003809171 -0.01160799 0.4757589 255 0 255
-0.0002254687 -0.01151483 0.4744121 255 0 255
0.002003193 -0.0114065 0.4721675 255 0 255
0.004549062 -0.01137862 0.4728861 255 0 255
0.006859458 -0.01128702 0.4716006 255 0 255
0.01623272 -0.0109174 0.4682708 255 0 255
0.0172739 -0.01084392 0.467095 255 0 255
0.02761487 -0.01030855 0.4632352 255 0 255
0.03212127 -0.01002982 0.4613023 255 0 255
0.07263289 -0.006450799 0.4435116 255 0 255
0.07631642 -0.005933993 0.4400046 255 0 255
0.07704368 -0.005796213 0.4386545 255 0 255
0.07776216 -0.005657849 0.4373031 255 0 255
-0.02697977 -0.01339004 0.4899644 255 0 255
-0.0195157 -0.01323116 0.4837493 255 0 255
-0.01825506 -0.01323233 0.483696 255 0 255
-0.008478615 -0.0130491 0.4791111 255 0 255
0.004581982 -0.01264923 0.4728429 255 0 255
0.01491994 -0.01218919 0.4674233 255 0 255
0.04287139 -0.01042475 0.454689 255 0 255
0.0454169 -0.01028644 0.4550723 255 0 255
0.05000404 -0.009938362 0.453848 255 0 255
0.05229017 -0.009755249 0.4532097 255 0 255
0.05542431 -0.009445796 0.4512615 255 0 255
0.07049195 -0.007899885 0.4442603 255 0 255
0.07159781 -0.007781707 0.4438652 255 0 255
0.07270215 -0.007662013 0.4434659 255 0 255
0.07711523 -0.006994103 0.4386091 255 0 255
-0.03339675 -0.01474569 0.4929677 255 0 255
-0.02824888 -0.01470359 0.4899374 255 0 255
-0.02698079 -0.01467932 0.4889179 255 0 255
-0.01945546 -0.01457263 0.4847006 255 0 255
-0.008677474 -0.01422633 0.4760739 255 0 255
-0.004897033 -0.01421913 0.4767725 255 0 255
-0.002522602 -0.01414425 0.4755556 255 0 255
-6.376103E-05 -0.01410016 0.4753156 255 0 255
0.002174718 -0.01397607 0.4730703 255 0 255
0.004497374 -0.01388285 0.4718023 255 0 255
0.01390616 -0.01352229 0.4685427 255 0 255
0.02888528 -0.01273986 0.4629098 255 0 255
0.03645817 -0.01217137 0.4582361 255 0 255
0.03947321 -0.01188517 0.4554832 255 0 255
0.04636364 -0.01140011 0.4537569 255 0 255
0.053211 -0.01086051 0.4518738 255 0 255
0.05491208 -0.01061372 0.4492956 255 0 255
0.05603887 -0.01051612 0.4489601 255 0 255
0.06083633 -0.01013653 0.4485276 255 0 255
0.06755593 -0.009481526 0.4463151 255 0 255
0.06867068 -0.009367117 0.4459314 255 0 255
0.07754745 -0.008211281 0.439491 255 0 255
0.07868806 -0.007181329 0.4239671 255 0 255
-0.01821454 -0.01584011 0.4835963 255 0 255
-0.01700087 -0.01579849 0.48254 255 0 255
-0.006105863 -0.01551672 0.4768239 255 0 255
-0.004870415 -0.01550037 0.4767197 255 0 255
0.004645654 -0.01518931 0.4727417 255 0 255
0.01259521 -0.01478195 0.4676759 255 0 255
0.01484305 -0.01465821 0.4663339 255 0 255
0.01739027 -0.01460728 0.4669492 255 0 255
0.02217321 -0.01440744 0.4661499 255 0 255
0.03088197 -0.01378385 0.4604212 255 0 255
0.03417787 -0.01354593 0.4586997 255 0 255
0.04527068 -0.01270876 0.4540012 255 0 255
0.04931323 -0.01229466 0.4508543 255 0 255
0.0529894 -0.01205127 0.4508592 255 0 255
0.06140588 -0.01118935 0.4462125 255 0 255
0.06570384 -0.01095047 0.447962 255 0 255
0.07062498 -0.01032233 0.4441548 255 0 255
0.07578976 -0.009689074 0.441202 255 0 255
-0.03337235 -0.01741922 0.4928578 255 0 255
-0.02693275 -0.01736861 0.4898069 255 0 255
-0.01693287 -0.01714335 0.4834803 255 0 255
-0.01452049 -0.0170475 0.4813542 255 0 255
-0.009791217 -0.0168365 0.4770507 255 0 255
0.002234409 -0.01651511 0.4729595 255 0 255
0.004559416 -0.01641416 0.4716915 255 0 255
0.005654947 -0.01633916 0.4705553 255 0 255
0.006991513 -0.01635152 0.471398 255 0 255
0.0150302 -0.01595144 0.4672634 255 0 255
0.03189022 -0.01491438 0.459141 255 0 255
0.03516984 -0.01466847 0.4574094 255 0 255
0.03633031 -0.01459703 0.4571491 255 0 255
0.03748974 -0.01452409 0.4568845 255 0 255
0.0600442 -0.01246967 0.4455571 255 0 255
0.06847 -0.0117666 0.4448727 255 0 255
0.07035303 -0.01150254 0.4431539 255 0 255
0.07587791 -0.01068412 0.4379279 255 0 255
0.07986248 -0.01035413 0.4385283 255 0 255
0.08203235 -0.0100894 0.4376636 255 0 255
0.08235486 -0.009903976 0.4353757 255 0 255
0.08230375 -0.009094668 0.4234852 255 0 255
-0.0359876 -0.01885527 0.4957789 255 0 255
-0.03467137 -0.01883071 0.4947888 255 0 255
-0.02563102 -0.01870594 0.4897183 255 0 255
-0.02308585 -0.01867554 0.4886542 255 0 255
-0.01211829 -0.0182328 0.4791484 255 0 255
-0.009768497 -0.01811642 0.4769883 255 0 255
-0.001209671 -0.01795418 0.475264 255 0 255
0.001146388 -0.01785848 0.4740209 255 0 255
0.005685407 -0.01760023 0.4704925 255 0 255
0.007022687 -0.01761659 0.4713349 255 0 255
0.0161099 -0.01711288 0.4660293 255 0 255
0.02744597 -0.01644565 0.4610052 255 0 255
0.0331019 -0.0160799 0.4588297 255 0 255
0.03637641 -0.01582531 0.4570856 255 0 255
0.04282947 -0.01527876 0.4534945 255 0 255
0.05168857 -0.01454146 0.4500991 255 0 255
0.05675106 -0.01398059 0.446532 255 0 255
0.06090882 -0.01353189 0.444188 255 0 255
0.07152148 -0.01258986 0.4426955 255 0 255
0.08302239 -0.01070833 0.4307417 255 0 255
-0.03466122 -0.02017389 0.4947204 255 0 255
-0.03205264 -0.02005878 0.4917269 255 0 255
-0.02307011 -0.01999695 0.4885858 255 0 255
-0.01938188 -0.01979974 0.4844598 255 0 255
-0.01820294 -0.01969502 0.4824105 255 0 255
-0.00967519 -0.01944913 0.4779169 255 0 255
-0.008507919 -0.01938471 0.4768305 255 0 255
-0.006114768 -0.0193043 0.4756405 255 0 255
4.840142E-05 -0.01920778 0.4750733 255 0 255
0.004618539 -0.01894367 0.4715607 255 0 255
0.01749968 -0.01836691 0.4667592 255 0 255
0.01853558 -0.0182682 0.4655806 255 0 255
0.02413489 -0.01790646 0.4625853 255 0 255
0.02612035 -0.01769191 0.4601829 255 0 255
0.03080754 -0.01744488 0.459253 255 0 255
0.03314545 -0.017312 0.4587614 255 0 255
0.0469362 -0.0160702 0.4503143 255 0 255
0.04920374 -0.01589365 0.4497009 255 0 255
0.05568622 -0.01528477 0.4468014 255 0 255
0.05621935 -0.01510028 0.4445537 255 0 255
0.06034997 -0.01464945 0.4422189 255 0 255
0.06286935 -0.01447688 0.4424518 255 0 255
0.0679344 -0.01410952 0.4428527 255 0 255
0.08179434 -0.01245306 0.4366043 255 0 255
0.08356854 -0.01214907 0.4348031 255 0 255
0.08571263 -0.01187296 0.4339111 255 0 255
0.08489953 -0.01114244 0.4233892 255 0 255
-0.03728099 -0.02152205 0.4956233 255 0 255
-0.02687365 -0.02140013 0.4906005 255 0 255
-0.02433944 -0.02130888 0.4885477 255 0 255
-0.01571712 -0.0209348 0.4812188 255 0 255
-0.01451701 -0.02087461 0.480154 255 0 255
-0.008335584 -0.02077813 0.478749 255 0 255
-0.002390459 -0.02052685 0.4752412 255 0 255
0.0001766596 -0.0205403 0.4759935 255 0 255
0.005865225 -0.02017737 0.4713431 255 0 255
0.02298914 -0.01920177 0.4627263 255 0 255
0.02517052 -0.01903595 0.4613128 255 0 255
0.02634897 -0.01897786 0.4610907 255 0 255
0.03508415 -0.01830012 0.4562305 255 0 255
0.04698586 -0.01728032 0.4502416 255 0 255
0.04925456 -0.01710344 0.449628 255 0 255
0.06733412 -0.0152255 0.4408935 255 0 255
0.06843213 -0.01511013 0.4405116 255 0 255
0.07498771 -0.01438658 0.4381331 255 0 255
0.07571552 -0.01422098 0.4367898 255 0 255
0.07932585 -0.01387443 0.4364644 255 0 255
0.0857822 -0.01306174 0.4338377 255 0 255
0.08375475 -0.011741 0.41512 255 0 255
-0.03595133 -0.0228338 0.4945595 255 0 255
-0.03203169 -0.02272089 0.491575 255 0 255
-0.0281541 -0.02271345 0.4905427 255 0 255
-0.02558938 -0.02267933 0.4894976 255 0 255
-0.01812441 -0.02235146 0.483257 255 0 255
-0.009561535 -0.02207569 0.4787621 255 0 255
-0.00590329 -0.02197655 0.4774797 255 0 255
-0.002271722 -0.02186283 0.4761571 255 0 255
0.002564616 -0.02170893 0.4746623 255 0 255
0.005893605 -0.02144099 0.4712653 255 0 255
0.009015935 -0.02110014 0.4668458 255 0 255
0.01980103 -0.02071518 0.4652323 255 0 255
0.02099562 -0.0206644 0.4650304 255 0 255
0.02971818 -0.01997232 0.4593415 255 0 255
0.0470346 -0.01848996 0.450164 255 0 255
0.05744001 -0.01739227 0.4440641 255 0 255
0.0601532 -0.01698319 0.4411193 255 0 255
0.0662931 -0.01653326 0.4411935 255 0 255
0.06925103 -0.01614018 0.4391078 255 0 255
0.07360927 -0.01565824 0.4375273 255 0 255
0.0866337 -0.01432959 0.4355983 255 0 255
0.0879899 -0.01396655 0.4328512 255 0 255
-0.02559815 -0.02393766 0.488416 255 0 255
-0.02305579 -0.0238929 0.487352 255 0 255
-0.01933332 -0.02371498 0.4842251 255 0 255
-0.01684279 -0.02365295 0.4831147 255 0 255
-0.01562974 -0.02358684 0.4820544 255 0 255
-0.01442468 -0.023519 0.4809898 255 0 255
-0.01316765 -0.02351472 0.4809169 255 0 255
0.001464129 -0.02307407 0.4757036 255 0 255
0.007014996 -0.02260799 0.4700428 255 0 255
0.007971577 -0.02244635 0.46791 255 0 255
0.0256173 -0.02163062 0.463114 255 0 255
0.02878164 -0.0213274 0.4604724 255 0 255
0.04047959 -0.02025372 0.4527893 255 0 255
0.04277212 -0.0200941 0.4522254 255 0 255
0.0439167 -0.02001196 0.4519369 255 0 255
0.05219176 -0.01913228 0.446598 255 0 255
0.05941073 -0.01832806 0.4423388 255 0 255
0.06051642 -0.01822305 0.4419874 255 0 255
0.07114817 -0.01704098 0.4373064 255 0 255
0.08698922 -0.01529653 0.4332247 255 0 255
0.09004664 -0.01409455 0.4231592 255 0 255
0.09107683 -0.0139468 0.4226913 255 0 255
-0.01927768 -0.02508813 0.4851334 255 0 255
-0.01070313 -0.02472519 0.479673 255 0 255
-0.008047099 -0.02484326 0.4814839 255 0 255
-0.0008881253 -0.02446742 0.4768597 255 0 255
0.00035368 -0.024445 0.4767357 255 0 255
0.001595012 -0.02442092 0.4766071 255 0 255
0.003962372 -0.02429931 0.4753447 255 0 255
0.008257407 -0.02383321 0.4698015 255 0 255
0.01627701 -0.02335215 0.4656408 255 0 255
0.02464736 -0.02299631 0.4642265 255 0 255
0.04028459 -0.02140447 0.4517334 255 0 255
0.04686835 -0.02084667 0.4490315 255 0 255
0.04773653 -0.0206979 0.4477653 255 0 255
0.05477299 -0.02019912 0.446815 255 0 255
0.0564311 -0.01988355 0.4442355 255 0 255
0.05835612 -0.01962227 0.4425997 255 0 255
0.05946376 -0.01951853 0.4422524 255 0 255
0.06026097 -0.0193563 0.4409517 255 0 255
0.07011923 -0.01834459 0.4376118 255 0 255
0.07877723 -0.01734342 0.4343618 255 0 255
0.08237804 -0.01699236 0.4339984 255 0 255
0.08452289 -0.01671733 0.4331174 255 0 255
0.08919388 -0.01619557 0.4322208 255 0 255
0.09240573 -0.01523108 0.4253256 255 0 255
0.09386855 -0.0151232 0.4257537 255 0 255
-0.03592034 -0.02678366 0.4932938 255 0 255
-0.03330527 -0.02676057 0.4923072 255 0 255
-0.02813539 -0.02661968 0.4892779 255 0 255
-0.02431306 -0.02651331 0.4872048 255 0 255
-0.02178015 -0.02645788 0.4861315 255 0 255
-0.01307262 -0.02617305 0.4817308 255 0 255
-0.01187471 -0.02609423 0.4806574 255 0 255
-0.008027473 -0.02614001 0.4813898 255 0 255
0.002860597 -0.02567683 0.47638 255 0 255
0.005224158 -0.02554815 0.4751088 255 0 255
0.007444866 -0.02534108 0.4728312 255 0 255
0.008413772 -0.02516336 0.4706979 255 0 255
0.009632577 -0.02512824 0.470539 255 0 255
0.01420485 -0.02482846 0.4678848 255 0 255
0.0187048 -0.02450481 0.4651667 255 0 255
0.02144035 -0.0245457 0.4667324 255 0 255
0.02486494 -0.02431243 0.4651143 255 0 255
0.03292552 -0.02332857 0.4563982 255 0 255
0.03711567 -0.02290887 0.4534246 255 0 255
0.03984953 -0.02248011 0.4497045 255 0 255
0.04236826 -0.02238769 0.4501128 255 0 255
0.06141515 -0.02043547 0.4405065 255 0 255
0.06361435 -0.02021766 0.4397849 255 0 255
0.06942503 -0.01970475 0.4388477 255 0 255
0.07017658 -0.01952806 0.4375207 255 0 255
0.07091936 -0.01935067 0.4361922 255 0 255
0.07273135 -0.01905025 0.4344648 255 0 255
0.07345139 -0.0188704 0.4331306 255 0 255
0.07452262 -0.01874546 0.4327264 255 0 255
0.07883891 -0.01852448 0.4342705 255 0 255
0.08526564 -0.01770895 0.4316607 255 0 255
0.08672635 -0.01761887 0.4321285 255 0 255
0.08779311 -0.01747581 0.4316737 255 0 255
0.09057273 -0.01698841 0.4293741 255 0 255
-0.03991945 -0.0283359 0.497129 255 0 255
-0.02048811 -0.02777467 0.4859869 255 0 255
-0.01669934 -0.0277065 0.4848258 255 0 255
-0.005570054 -0.02733288 0.4800979 255 0 255
0.0005025162 -0.02708416 0.4775351 255 0 255
0.00299469 -0.02703443 0.477272 255 0 255
0.00856956 -0.0265009 0.4715888 255 0 255
0.01529053 -0.02596391 0.4666208 255 0 255
0.01769747 -0.02587314 0.4662468 255 0 255
0.0216443 -0.02587377 0.4676167 255 0 255
0.02591057 -0.02543062 0.4638155 255 0 255
0.03104431 -0.02482852 0.458743 255 0 255
0.03296379 -0.02454981 0.4563017 255 0 255
0.03600308 -0.02419496 0.4535911 255 0 255
0.03898793 -0.02382884 0.4508514 255 0 255
0.0486886 -0.02293963 0.4463105 255 0 255
0.05317792 -0.02256748 0.4450433 255 0 255
0.06036491 -0.02172741 0.4407656 255 0 255
0.07028446 -0.02040721 0.4342242 255 0 255
0.07745452 -0.01977741 0.4336672 255 0 255
0.0802935 -0.0193239 0.4314731 255 0 255
0.08242259 -0.0190532 0.4306089 255 0 255
0.08892365 -0.01851249 0.4311186 255 0 255
0.08958088 -0.01831252 0.4297436 255 0 255
-0.03592736 -0.02961523 0.4950825 255 0 255
-0.02043859 -0.02916569 0.4868786 255 0 255
-0.01915482 -0.02917054 0.486828 255 0 255
-0.01037887 -0.02891316 0.4833557 255 0 255
-0.001781107 -0.02857276 0.4796601 255 0 255
0.004263993 -0.0282916 0.4770291 255 0 255
0.006754056 -0.02823185 0.4767377 255 0 255
0.01592823 -0.02752976 0.4704592 255 0 255
0.01804724 -0.02728009 0.4681123 255 0 255
0.0228846 -0.0270777 0.4673045 255 0 255
0.02475055 -0.02673302 0.463933 255 0 255
0.02675768 -0.02646147 0.4615306 255 0 255
0.03108084 -0.02605725 0.4586412 255 0 255
0.03204529 -0.02591446 0.4574223 255 0 255
0.03510787 -0.02555502 0.454721 255 0 255
0.0390282 -0.02503307 0.4507511 255 0 255
0.04309162 -0.02456601 0.4476989 255 0 255
0.04707702 -0.02407854 0.4445936 255 0 255
0.053225 -0.02376163 0.4449429 255 0 255
0.05405718 -0.0235937 0.4436603 255 0 255
0.05739722 -0.02329425 0.442656 255 0 255
0.05820564 -0.02312183 0.4413621 255 0 255
0.06818108 -0.02181524 0.4348969 255 0 255
0.07673211 -0.02051246 0.4285153 255 0 255
0.08421458 -0.01988731 0.4287109 255 0 255
0.09093408 -0.01907889 0.4268909 255 0 255
0.09344916 -0.0188332 0.4268518 255 0 255
0.0965869 -0.01836886 0.4254 255 0 255
-0.03197128 -0.03111645 0.4959755 255 0 255
-0.00292633 -0.02996789 0.4806589 255 0 255
0.003261142 -0.02977149 0.4790392 255 0 255
0.009008726 -0.02928177 0.4743418 255 0 255
0.02170783 -0.02838716 0.4674049 255 0 255
0.02579159 -0.02783829 0.4626261 255 0 255
0.02994153 -0.02735024 0.4587743 255 0 255
0.03536593 -0.02685077 0.4555873 255 0 255
0.04224727 -0.02592104 0.4488453 255 0 255
0.04513637 -0.02551574 0.4460484 255 0 255
0.0598456 -0.02395087 0.4386649 255 0 255
0.06248796 -0.02348308 0.4357068 255 0 255
0.06681693 -0.0230323 0.4342334 255 0 255
0.07147168 -0.02262605 0.433629 255 0 255
0.07254767 -0.02250319 0.4332328 255 0 255
0.08033315 -0.02133707 0.4280733 255 0 255
0.08678558 -0.02083221 0.4286278 255 0 255
0.08784154 -0.02068794 0.4281735 255 0 255
0.1000522 -0.01939057 0.4269986 255 0 255
0.0919759 -0.01751985 0.4031723 255 0 255
-0.03726107 -0.03244701 0.4968352 255 0 255
-0.02678921 -0.03200562 0.4898231 255 0 255
-0.02549194 -0.03201968 0.4897962 255 0 255
-0.01021061 -0.03169557 0.4851184 255 0 255
-0.003907077 -0.0315459 0.4836325 255 0 255
-0.0003853783 -0.03122315 0.4803063 255 0 255
0.0009773021 -0.03128924 0.4811711 255 0 255
0.003393467 -0.031151 0.4799142 255 0 255
0.007921975 -0.03067915 0.4753725 255 0 255
0.00916284 -0.03064523 0.4752154 255 0 255
0.01259985 -0.03035845 0.4727438 255 0 255
0.01506034 -0.03027597 0.4723899 255 0 255
0.01751796 -0.03018676 0.4720175 255 0 255
0.02052834 -0.02969451 0.4674961 255 0 255
0.0239771 -0.02944911 0.4658892 255 0 255
0.02582402 -0.02907812 0.462514 255 0 255
0.02879934 -0.02864123 0.4588984 255 0 255
0.0370435 -0.02767391 0.4520415 255 0 255
0.04577988 -0.02645804 0.4437192 255 0 255
0.05024102 -0.02609964 0.4424976 255 0 255
0.05357382 -0.02581465 0.4415373 255 0 255
0.0557892 -0.02561704 0.4408763 255 0 255
0.05799924 -0.02541326 0.4401985 255 0 255
0.05989393 -0.0251267 0.4385563 255 0 255
0.06253753 -0.02465028 0.4355989 255 0 255
0.06619763 -0.02405031 0.4322471 255 0 255
0.07472886 -0.023081 0.4291257 255 0 255
0.08394267 -0.02215085 0.4275813 255 0 255
0.0853921 -0.02207692 0.4280536 255 0 255
0.08644678 -0.02193427 0.4276049 255 0 255
0.09653118 -0.02098838 0.4274771 255 0 255
0.1001199 -0.02057011 0.4268883 255 0 255
0.09607971 -0.01913197 0.4110959 255 0 255
0.08892543 -0.01792096 0.3945878 255 0 255
-0.0280236 -0.03368291 0.4937071 255 0 255
-0.02544021 -0.03352814 0.4916664 255 0 255
-0.02155743 -0.03346776 0.4905602 255 0 255
-0.01381014 -0.03339159 0.4892129 255 0 255
-0.01257452 -0.03329535 0.4881433 255 0 255
-0.004996243 -0.03305267 0.4856041 255 0 255
-0.0001681187 -0.03270237 0.4821678 255 0 255
0.004674067 -0.03241808 0.4796535 255 0 255
0.005814652 -0.03229687 0.4785198 255 0 255
0.01646924 -0.03159431 0.4730709 255 0 255
0.02176817 -0.03089824 0.4671735 255 0 255
0.02980755 -0.0297163 0.4575715 255 0 255
0.03215127 -0.02958524 0.4570889 255 0 255
0.04805468 -0.02746331 0.4430038 255 0 255
0.05056071 -0.02736429 0.4433417 255 0 255
0.0527923 -0.02717483 0.4427036 255 0 255
0.05994131 -0.02630192 0.4384433 255 0 255
0.06072465 -0.02611454 0.4371449 255 0 255
0.06873392 -0.02505135 0.4323154 255 0 255
0.07122824 -0.02488703 0.432474 255 0 255
0.0761577 -0.02383094 0.4263423 255 0 255
0.08188932 -0.02358907 0.4283431 255 0 255
0.08255664 -0.02337948 0.4269896 255 0 255
0.09112377 -0.02257927 0.4265643 255 0 255
0.09764843 -0.02200616 0.4268715 255 0 255
0.09849074 -0.02027521 0.4131662 255 0 255
0.08853717 -0.01835747 0.3891272 255 0 255
-0.0214813 -0.03498816 0.492423 255 0 255
-0.01750866 -0.03510186 0.4932614 255 0 255
-0.01483091 -0.03520101 0.4941263 255 0 255
-0.00984065 -0.0347972 0.4898367 255 0 255
-0.007242333 -0.03477823 0.4896505 255 0 255
-0.002414986 -0.03433288 0.4852549 255 0 255
-0.001323474 -0.03412097 0.4831548 255 0 255
0.003546 -0.03383555 0.4806575 255 0 255
0.01293235 -0.03309072 0.4744717 255 0 255
0.02075372 -0.03229872 0.4682364 255 0 255
0.02385871 -0.03185699 0.4646692 255 0 255
0.0441299 -0.02917024 0.4460003 255 0 255
0.07092961 -0.02597062 0.4314238 255 0 255
0.07342616 -0.02580275 0.431563 255 0 255
0.07377461 -0.02551832 0.4293017 255 0 255
0.07483651 -0.02539132 0.4288974 255 0 255
0.0797389 -0.02465752 0.4258949 255 0 255
0.08117356 -0.02459792 0.4263873 255 0 255
0.08327241 -0.02432153 0.4255187 255 0 255
0.08576469 -0.02411324 0.4255475 255 0 255
0.101013 -0.02239589 0.4229628 255 0 255
-0.008310843 -0.03641834 0.4925899 255 0 255
-0.004545614 -0.03618078 0.4903027 255 0 255
-0.003330737 -0.03606463 0.489201 255 0 255
-0.002215223 -0.0358463 0.4871044 255 0 255
-0.001115535 -0.0356265 0.4850042 255 0 255
0.001447121 -0.03558334 0.4847527 255 0 255
0.002621098 -0.03545893 0.4836304 255 0 255
0.003786888 -0.03533293 0.4825042 255 0 255
0.006211809 -0.0351761 0.481228 255 0 255
0.01309767 -0.03446775 0.475327 255 0 255
0.02303624 -0.03335352 0.4667134 255 0 255
0.02388782 -0.03310299 0.464542 255 0 255
0.0275222 -0.03228576 0.4577909 255 0 255
0.03200816 -0.03193314 0.4558698 255 0 255
0.03622352 -0.03146118 0.4529153 255 0 255
0.04467757 -0.03054552 0.4478025 255 0 255
0.04867493 -0.03000859 0.444681 255 0 255
0.05036687 -0.02964103 0.4421445 255 0 255
0.05287761 -0.0295423 0.4424627 255 0 255
0.06127488 -0.02817065 0.4346623 255 0 255
0.06741889 -0.02740509 0.4315224 255 0 255
0.06849069 -0.02728682 0.4311422 255 0 255
0.07418775 -0.02675588 0.4301096 255 0 255
0.07836362 -0.02585987 0.4252756 255 0 255
0.08188961 -0.0255331 0.4249167 255 0 255
0.08646523 -0.02504634 0.4240651 255 0 255
0.09481617 -0.02452453 0.425803 255 0 255
0.09629337 -0.02444163 0.4262195 255 0 255
0.1010776 -0.02356111 0.4228401 255 0 255
0.1014426 -0.02264187 0.415983 255 0 255
-0.002615365 -0.03822764 0.4969877 255 0 255
0.005307312 -0.03681768 0.4842015 255 0 255
0.01451054 -0.03581109 0.4759994 255 0 255
0.01885464 -0.03522015 0.4713171 255 0 255
0.02202446 -0.03476214 0.4677696 255 0 255
0.02306416 -0.03460678 0.4665805 255 0 255
0.02493507 -0.03419047 0.4632151 255 0 255
0.03320827 -0.03308233 0.4554928 255 0 255
0.04063753 -0.03226612 0.4507421 255 0 255
0.04471518 -0.0317415 0.4476742 255 0 255
0.04646226 -0.03137476 0.4451602 255 0 255
0.04871431 -0.03119607 0.4445534 255 0 255
0.05374595 -0.030533 0.441057 255 0 255
0.06208315 -0.02913072 0.4332371 255 0 255
0.06498527 -0.02870317 0.4312065 255 0 255
0.07174664 -0.02807755 0.4298522 255 0 255
0.07494011 -0.02769927 0.4286512 255 0 255
0.07563271 -0.02748412 0.4273173 255 0 255
