ply
format ascii 1.0
Comment Generated by Floating Hands
element vertex 1133
Comment Left: (0.0, 0.0, 0.0)
Comment Right: (0.1, 0.0, 0.5)
Comment Time: 2023-05-01 08:47:13,091
property double x
property double y
property double z
property uchar red
property uchar green
property uchar blue
end_header
0.09586901 0.004919612 0.4876799 255 0 255
0.09713138 0.005126798 0.4871524 255 0 255
0.09839161 0.005335565 0.48662 255 0 255
0.09964968 0.00554595 0.4860826 255 0 255
0.1009056 0.005757945 0.4855404 255 0 255
0.1021593 0.005971647 0.4849933 255 0 255
0.1034107 0.006186857 0.4844414 255 0 255
0.1042542 0.006382541 0.4829707 255 0 255
0.1054978 0.006600424 0.4824106 255 0 255
0.106739 0.006819899 0.4818456 255 0 255
0.1075619 0.007017962 0.4803667 255 0 255
0.1083756 0.007216395 0.4788862 255 0 255
0.1100261 0.007463717 0.4792157 255 0 255
0.1108283 0.00766407 0.4777288 255 0 255
0.1120511 0.007890323 0.4771429 255 0 255
0.1132716 0.00811816 0.4765522 255 0 255
0.1144897 0.008347534 0.4759567 255 0 255
0.1157055 0.008578537 0.4753565 255 0 255
0.1169188 0.008811177 0.4747514 255 0 255
0.1185766 0.009074075 0.4750358 255 0 255
0.1193381 0.00928106 0.4735271 255 0 255
0.1209978 0.009548511 0.4737985 255 0 255
0.1231188 0.009849635 0.4749505 255 0 255
0.1247903 0.01012356 0.4752036 255 0 255
0.1255384 0.01033624 0.4736775 255 0 255
0.1272115 0.01061473 0.4739175 255 0 255
0.1284183 0.01086271 0.4732673 255 0 255
0.128675 0.01104387 0.4708524 255 0 255
0.130347 0.01132851 0.4710745 255 0 255
0.1310622 0.01154496 0.4695354 255 0 255
0.1322519 0.01179786 0.46887 255 0 255
0.1329519 0.01201532 0.4673271 255 0 255
0.1336427 0.012233 0.4657832 255 0 255
0.1333368 0.01237391 0.4625008 255 0 255
0.09512313 0.003314619 0.489093 255 0 255
0.0960101 0.00350801 0.4876448 255 0 255
0.09688793 0.003701919 0.4861945 255 0 255
0.09775665 0.003896287 0.4847423 255 0 255
0.09900837 0.004105976 0.484208 255 0 255
0.100258 0.004317276 0.4836688 255 0 255
0.1015054 0.004530257 0.4831247 255 0 255
0.1027506 0.004744816 0.4825758 255 0 255
0.1039936 0.004960955 0.482022 255 0 255
0.1048248 0.005160835 0.4805513 255 0 255
0.1064729 0.005398126 0.4809 255 0 255
0.1072926 0.005600021 0.4794228 255 0 255
0.1081031 0.005802245 0.477944 255 0 255
0.1093278 0.006025164 0.4773693 255 0 255
0.1105503 0.006249711 0.4767898 255 0 255
0.1113401 0.006454202 0.4753032 255 0 255
0.1125544 0.006681331 0.4747158 255 0 255
0.1137664 0.006909972 0.4741237 255 0 255
0.114976 0.007140255 0.4735268 255 0 255
0.1166271 0.007396299 0.4738209 255 0 255
0.1187299 0.007680114 0.4750009 255 0 255
0.1199424 0.007917143 0.4743847 255 0 255
0.1216066 0.008181882 0.4746543 255 0 255
0.1237324 0.008476494 0.4758044 255 0 255
0.1254084 0.008747852 0.4760556 255 0 255
0.1261602 0.008965658 0.474528 255 0 255
0.1273702 0.009212628 0.4738826 255 0 255
0.1281068 0.009431598 0.4723507 255 0 255
0.1283599 0.009620459 0.4699378 255 0 255
0.1295522 0.009870121 0.4692836 255 0 255
0.1312227 0.01015307 0.4695009 255 0 255
0.1333814 0.01047143 0.4705841 255 0 255
0.1336007 0.01066171 0.4681652 255 0 255
0.1347858 0.01091841 0.4674902 255 0 255
0.1354741 0.01114213 0.4659418 255 0 255
0.09564132 0.001907715 0.4899777 255 0 255
0.09653211 0.002106047 0.4885281 255 0 255
0.09702813 0.0022951 0.4861539 255 0 255
0.09789715 0.002493814 0.4847018 255 0 255
0.09875692 0.002693023 0.4832478 255 0 255
0.1000037 0.002904245 0.4827101 255 0 255
0.1008488 0.003104864 0.481251 255 0 255
0.1020877 0.003318747 0.4807051 255 0 255
0.1033244 0.003534195 0.4801545 255 0 255
0.1045589 0.003751241 0.4795989 255 0 255
0.1057912 0.003969915 0.4790387 255 0 255
0.1070212 0.004190227 0.4784736 255 0 255
0.1082489 0.004412036 0.4779037 255 0 255
0.1094743 0.00463554 0.477329 255 0 255
0.1102702 0.004843495 0.4758456 255 0 255
0.1114875 0.00506957 0.475263 255 0 255
0.1127025 0.005297159 0.4746757 255 0 255
0.1134776 0.00550735 0.4731846 255 0 255
0.1146845 0.005737509 0.4725894 255 0 255
0.1163333 0.00598958 0.4728851 255 0 255
0.1179865 0.006244541 0.4731727 255 0 255
0.119644 0.006502458 0.4734521 255 0 255
0.1217604 0.006785541 0.4746138 255 0 255
0.1234299 0.007049988 0.4748751 255 0 255
0.1251035 0.007317311 0.475128 255 0 255
0.1258522 0.007538934 0.4736023 255 0 255
0.1265916 0.007760813 0.4720753 255 0 255
0.1268504 0.007957152 0.4696656 255 0 255
0.1275679 0.008178712 0.4681382 255 0 255
0.1287542 0.008427615 0.4674877 255 0 255
0.1304192 0.008705887 0.4677086 255 0 255
0.1330574 0.009044225 0.4696696 255 0 255
0.1337612 0.009271446 0.4681252 255 0 255
0.1354381 0.009558758 0.4683208 255 0 255
0.1356353 0.009757006 0.4659021 255 0 255
0.09450441 0.0002821745 0.4904518 255 0 255
0.09540114 0.0004837948 0.4890058 255 0 255
0.09590622 0.0006806676 0.4866338 255 0 255
0.09639511 0.0008768488 0.4842627 255 0 255
0.09764686 0.00108525 0.4837348 255 0 255
0.09850354 0.001288276 0.4822824 255 0 255
0.09974749 0.001499335 0.4817462 255 0 255
0.1009893 0.001712093 0.4812052 255 0 255
0.1022289 0.001926402 0.4806593 255 0 255
0.1030594 0.002132924 0.4791953 255 0 255
0.1042911 0.002349854 0.4786413 255 0 255
0.1055206 0.00256841 0.4780826 255 0 255
0.1059131 0.002765918 0.4757018 255 0 255
0.1075519 0.002998388 0.4760438 255 0 255
0.1087711 0.003221139 0.4754724 255 0 255
0.1095603 0.003432277 0.4739923 255 0 255
0.1107715 0.003657556 0.4734131 255 0 255
0.1124148 0.003898916 0.4737296 255 0 255
0.1131868 0.004112902 0.4722403 255 0 255
0.1143908 0.004342954 0.4716468 255 0 255
0.1164821 0.004607465 0.4728397 255 0 255
0.1181364 0.004859107 0.4731271 255 0 255
0.1193434 0.005095912 0.4725144 255 0 255
0.1214579 0.005371159 0.4736776 255 0 255
0.1226668 0.005612503 0.4730519 255 0 255
0.1243348 0.005875197 0.4733082 255 0 255
0.1246119 0.006079441 0.4709012 255 0 255
0.1258099 0.006324899 0.470263 255 0 255
0.1260618 0.006528231 0.4678572 255 0 255
0.1262977 0.006730306 0.465454 255 0 255
0.1279531 0.007000997 0.4656868 255 0 255
0.1300943 0.007298555 0.4667873 255 0 255
0.1327312 0.007625179 0.4687499 255 0 255
0.1339202 0.007881556 0.4680797 255 0 255
0.1360899 0.00819173 0.4691456 255 0 255
0.1362902 0.008399079 0.4667253 255 0 255
0.09464131 -0.001137054 0.4903997 255 0 255
0.09553834 -0.0009309966 0.4889538 255 0 255
0.09642622 -0.0007244648 0.4875059 255 0 255
0.09691855 -0.0005194184 0.4851337 255 0 255
0.0977846 -0.0003125028 0.4836833 255 0 255
0.09864151 -0.0001051125 0.4822311 255 0 255
0.09988617 0.0001064609 0.4816949 255 0 255
0.1007282 0.0003152706 0.4802375 255 0 255
0.101965 0.0005295342 0.4796932 255 0 255
0.1027923 0.000739834 0.4782309 255 0 255
0.1040212 0.0009566479 0.4776785 255 0 255
0.1048336 0.001168292 0.4762113 255 0 255
0.1060545 0.001387733 0.475651 255 0 255
0.1072732 0.001608756 0.4750859 255 0 255
0.1089143 0.001840034 0.4754215 255 0 255
0.1097038 0.002055621 0.4739416 255 0 255
0.1109156 0.002281444 0.4733623 255 0 255
0.112125 0.002508852 0.4727783 255 0 255
0.1128937 0.002726652 0.4712909 255 0 255
0.1145369 0.002968474 0.4715962 255 0 255
0.1161844 0.003213185 0.4718934 255 0 255
0.1173878 0.003447646 0.4712888 255 0 255
0.1185887 0.003683664 0.4706795 255 0 255
0.1202425 0.003935849 0.4709557 255 0 255
0.1214419 0.004175719 0.4703353 255 0 255
0.1231009 0.004433094 0.4705968 255 0 255
0.1238332 0.004660266 0.4690803 255 0 255
0.1250251 0.00490492 0.4684458 255 0 255
0.1252701 0.005115217 0.4660439 255 0 255
0.1259747 0.005342982 0.4645241 255 0 255
0.1276277 0.005609654 0.4647587 255 0 255
0.1297671 0.005899371 0.4658608 255 0 255
0.1324027 0.006214295 0.4678248 255 0 255
0.1340778 0.006492105 0.4680287 255 0 255
0.135757 0.006772927 0.4682242 255 0 255
0.1364491 0.007010891 0.4666745 255 0 255
0.09440079 -0.002552214 0.4894155 255 0 255
0.09529462 -0.002342388 0.4879712 255 0 255
0.09617929 -0.002132026 0.4865249 255 0 255
0.09705479 -0.001921183 0.4850766 255 0 255
0.09753083 -0.001708523 0.4827058 255 0 255
0.09877831 -0.001498089 0.4821744 255 0 255
0.09962634 -0.001285881 0.4807205 255 0 255
0.100866 -0.001072802 0.480181 255 0 255
0.1016992 -0.0008591349 0.478722 255 0 255
0.1029309 -0.0006434644 0.4781744 255 0 255
0.1041605 -0.0004260767 0.4776221 255 0 255
0.1045585 -0.0002129091 0.4752451 255 0 255
0.1053585 2.929952E-06 0.473778 255 0 255
0.1069925 0.0002273404 0.4741229 255 0 255
0.1082061 0.0004498377 0.4735548 255 0 255
0.1085605 0.0006631544 0.4711748 255 0 255
0.1101945 0.0008936536 0.4715024 255 0 255
0.1118331 0.001127007 0.4718219 255 0 255
0.1117212 0.001333867 0.4685392 255 0 255
0.1133551 0.001570395 0.4688494 255 0 255
0.115439 0.001818466 0.4700467 255 0 255
0.1161872 0.002042781 0.4685521 255 0 255
0.1173786 0.002277408 0.467948 255 0 255
0.1194791 0.002534882 0.4691193 255 0 255
0.1202133 0.002762661 0.4676142 255 0 255
0.1218632 0.003014713 0.4678809 255 0 255
0.1230515 0.003257016 0.4672546 255 0 255
0.1237681 0.003487466 0.4657407 255 0 255
0.1244754 0.003718112 0.4642258 255 0 255
0.1261254 0.003978543 0.4644685 255 0 255
0.1273003 0.004226435 0.4638255 255 0 255
0.1299204 0.004524533 0.4658048 255 0 255
0.1320719 0.004811557 0.4668946 255 0 255
0.1337449 0.005085397 0.4671003 255 0 255
0.1354217 0.005362273 0.4672975 255 0 255
0.1366067 0.005623127 0.4666181 255 0 255
0.09234972 -0.004384702 0.4913051 255 0 255
0.09325862 -0.004172157 0.4898666 255 0 255
0.09415835 -0.003959065 0.488426 255 0 255
0.09504892 -0.003745427 0.4869833 255 0 255
0.09631401 -0.003537692 0.4864621 255 0 255
0.09680263 -0.003316649 0.484092 255 0 255
0.09766578 -0.003101534 0.4826435 255 0 255
0.09891392 -0.002890647 0.4821121 255 0 255
0.0997622 -0.002674056 0.4806584 255 0 255
0.1006013 -0.002457034 0.4792029 255 0 255
0.101836 -0.002242404 0.4786601 255 0 255
0.1026602 -0.002023964 0.4771997 255 0 255
0.103887 -0.001806722 0.4766489 255 0 255
0.1046964 -0.001586876 0.4751836 255 0 255
0.1054967 -0.001366673 0.4737167 255 0 255
0.1071318 -0.001145624 0.4740615 255 0 255
0.108346 -0.0009225997 0.4734933 255 0 255
0.1087002 -0.0007009815 0.4711137 255 0 255
0.1103353 -0.000473859 0.4714411 255 0 255
0.1115392 -0.0002466715 0.4708605 255 0 255
0.1118624 -2.478349E-05 0.4684784 255 0 255
0.1130547 0.0002042878 0.4678917 255 0 255
0.1146907 0.0004397074 0.4681954 255 0 255
0.1154324 0.0006672015 0.4667044 255 0 255
0.1166176 0.0009009694 0.4661038 255 0 255
0.1182566 0.001143166 0.4663884 255 0 255
0.1189808 0.001373362 0.4648887 255 0 255
0.1210846 0.001628186 0.4660469 255 0 255
0.1227331 0.001878492 0.4663088 255 0 255
0.1229769 0.002103247 0.4639141 255 0 255
0.1236777 0.002336982 0.462403 255 0 255
0.125322 0.002592716 0.4626493 255 0 255
0.1264908 0.002839821 0.4620099 255 0 255
0.1281401 0.0031008 0.4622414 255 0 255
0.1302798 0.003377852 0.4633383 255 0 255
0.1324302 0.003659355 0.4644231 255 0 255
0.1336053 0.003916359 0.463756 255 0 255
0.1352739 0.004190136 0.4639522 255 0 255
0.09248168 -0.005803567 0.4912364 255 0 255
0.09339089 -0.005586614 0.489798 255 0 255
0.09391402 -0.005357619 0.4874314 255 0 255
0.09480131 -0.005140237 0.4859903 255 0 255
0.09606354 -0.004932639 0.4854706 255 0 255
0.09654858 -0.004703856 0.4831024 255 0 255
0.09779949 -0.004494152 0.4825758 255 0 255
0.09865373 -0.004274201 0.4811256 255 0 255
0.09989684 -0.004061764 0.4805909 255 0 255
0.1007363 -0.003840359 0.4791356 255 0 255
0.1019715 -0.00362529 0.4785928 255 0 255
0.1027961 -0.003402426 0.4771325 255 0 255
0.1040234 -0.003184687 0.4765818 255 0 255
0.1048331 -0.002960441 0.4751167 255 0 255
0.1056336 -0.002735815 0.47365 255 0 255
0.1072697 -0.002518176 0.4739946 255 0 255
0.1076329 -0.002288529 0.4716168 255 0 255
0.1084094 -0.002062293 0.4701441 255 0 255
0.1100421 -0.001839164 0.470473 255 0 255
0.110807 -0.001611005 0.4689941 255 0 255
0.1106836 -0.001381647 0.4657176 255 0 255
0.1123093 -0.001153779 0.4660325 255 0 255
0.1134931 -0.000923919 0.4654446 255 0 255
0.1142247 -0.0006939982 0.4639589 255 0 255
0.1158537 -0.0004594296 0.4642549 255 0 255
0.1170303 -0.0002248395 0.4636532 255 0 255
0.1182045 1.133925E-05 0.4630468 255 0 255
0.1198397 0.0002533516 0.4633221 255 0 255
0.1214791 0.0004983356 0.4635892 255 0 255
0.1217126 0.0007293149 0.4612003 255 0 255
0.1228769 0.00097176 0.4605756 255 0 255
0.1245156 0.001222825 0.4608253 255 0 255
0.1251982 0.001461369 0.4593125 255 0 255
0.1263551 0.001708505 0.4586741 255 0 255
0.128483 0.001975571 0.4597781 255 0 255
0.1306216 0.002247029 0.4608701 255 0 255
0.1322774 0.0025124 0.4610802 255 0 255
0.1339371 0.002780773 0.461282 255 0 255
0.09224226 -0.007205361 0.4902332 255 0 255
0.0931482 -0.006984636 0.4887964 255 0 255
0.09442233 -0.006778783 0.4882836 255 0 255
0.0953135 -0.006556386 0.4868413 255 0 255
0.09657986 -0.006347798 0.48632 255 0 255
0.09706833 -0.006110131 0.4839507 255 0 255
0.09793205 -0.005886299 0.4825026 255 0 255
0.09878652 -0.005661954 0.4810526 255 0 255
0.09963189 -0.005437177 0.4796008 255 0 255
0.1004681 -0.005211954 0.4781472 255 0 255
0.1017004 -0.004997014 0.477606 255 0 255
0.1029307 -0.004780417 0.47706 255 0 255
0.1041587 -0.004562192 0.4765092 255 0 255
0.1045528 -0.004324751 0.474135 255 0 255
0.1057694 -0.004104528 0.4735779 255 0 255
0.1069837 -0.003882703 0.4730161 255 0 255
0.1077696 -0.003652333 0.471545 255 0 255
0.1085462 -0.003421685 0.4700725 255 0 255
0.1101799 -0.003201881 0.4704012 255 0 255
0.1105085 -0.002964318 0.4680229 255 0 255
0.1108211 -0.002727735 0.4656466 255 0 255
0.1120045 -0.002499563 0.465065 255 0 255
0.1131854 -0.002269812 0.4644789 255 0 255
0.1139139 -0.002036129 0.4629952 255 0 255
0.1155403 -0.001805577 0.4632927 255 0 255
0.1171713 -0.001572074 0.4635822 255 0 255
0.1178857 -0.001334989 0.4620882 255 0 255
0.1195185 -0.001096988 0.4623651 255 0 255
0.1211556 -0.0008560473 0.4626338 255 0 255
0.1213855 -0.0006173956 0.4602471 255 0 255
0.1220732 -0.0003775214 0.4587437 255 0 255
0.1237063 -0.0001311412 0.4589969 255 0 255
0.1248629 0.0001143453 0.4583649 255 0 255
0.126017 0.0003613551 0.4577284 255 0 255
0.1276558 0.0006152651 0.4579606 255 0 255
0.1297892 0.0008781956 0.459056 255 0 255
0.1309456 0.00113211 0.4584002 255 0 255
0.1330936 0.00140255 0.4594752 255 0 255
0.09237147 -0.008619319 0.4901534 255 0 255
0.09327777 -0.008394239 0.4887169 255 0 255
0.09417486 -0.008168615 0.4872783 255 0 255
0.095444 -0.007961195 0.486762 255 0 255
0.09632626 -0.007733962 0.4853179 255 0 255
0.09719941 -0.007506192 0.4838719 255 0 255
0.09767157 -0.007260961 0.4815041 255 0 255
0.09852287 -0.007032838 0.4800558 255 0 255
0.09936491 -0.0068043 0.4786057 255 0 255
0.1001979 -0.006575283 0.4771539 255 0 255
0.1014274 -0.00636046 0.4766142 255 0 255
0.1026548 -0.006144022 0.4760698 255 0 255
0.10388 -0.0059259 0.4755206 255 0 255
0.1046867 -0.005693451 0.4740575 255 0 255
0.1054842 -0.00546066 0.4725929 255 0 255
0.1066957 -0.005238961 0.4720327 255 0 255
0.1070517 -0.004993968 0.4696591 255 0 255
0.1078217 -0.004760177 0.4681901 255 0 255
0.109016 -0.004535577 0.4676208 255 0 255
0.1097711 -0.004300502 0.4661473 255 0 255
0.1100767 -0.004056918 0.4637749 255 0 255
0.1112538 -0.003829533 0.4631967 255 0 255
0.1124286 -0.003600571 0.462614 255 0 255
0.113601 -0.003370001 0.4620266 255 0 255
0.1152251 -0.003143453 0.4623257 255 0 255
0.1168536 -0.002913926 0.4626167 255 0 255
0.1180256 -0.002677304 0.4620122 255 0 255
0.1191953 -0.002439107 0.4614031 255 0 255
0.12083 -0.002202133 0.4616734 255 0 255
0.1210563 -0.001955831 0.4592891 255 0 255
0.1217409 -0.001712222 0.4577877 255 0 255
0.1228939 -0.001469145 0.457164 255 0 255
0.1240444 -0.001224516 0.4565358 255 0 255
0.1247082 -0.0009790082 0.4550281 255 0 255
0.1268256 -0.0007290794 0.4561388 255 0 255
0.1289538 -0.0004747119 0.4572374 255 0 255
0.1305984 -0.0002187358 0.4574548 255 0 255
0.1327446 4.385954E-05 0.4585313 255 0 255
0.09249957 -0.01003279 0.4900681 255 0 255
0.0934061 -0.009803393 0.4886319 255 0 255
0.09505956 -0.009619847 0.4890445 255 0 255
0.09557326 -0.009365497 0.4866771 255 0 255
0.09645587 -0.009133895 0.4852333 255 0 255
0.09732924 -0.008901757 0.4837875 255 0 255
0.09819348 -0.008669133 0.4823398 255 0 255
0.09825719 -0.008395443 0.479054 255 0 255
0.09909607 -0.008163112 0.4776056 255 0 255
0.09992575 -0.007930328 0.4761556 255 0 255
0.1011525 -0.007715638 0.4756175 255 0 255
0.1019673 -0.007481409 0.4741625 255 0 255
0.1031861 -0.007264075 0.4736165 255 0 255
0.1039861 -0.007028487 0.4721569 255 0 255
0.105197 -0.006808508 0.4716029 255 0 255
0.1064057 -0.006586937 0.4710444 255 0 255
0.1067581 -0.006334292 0.4686729 255 0 255
0.1079553 -0.006110826 0.4681082 255 0 255
0.1091502 -0.005885654 0.467539 255 0 255
0.1099055 -0.005646181 0.4660658 255 0 255
0.1102109 -0.005394327 0.4636939 255 0 255
0.1118328 -0.005177808 0.4640115 255 0 255
0.112564 -0.004936836 0.462533 255 0 255
0.113737 -0.004705766 0.4619457 255 0 255
0.1158165 -0.00449194 0.4631353 255 0 255
0.1169916 -0.004256338 0.4625354 255 0 255
0.117703 -0.004011074 0.4610437 255 0 255
0.1193345 -0.003780386 0.4613219 255 0 255
0.1205022 -0.003540022 0.4607083 255 0 255
0.1202536 -0.003280119 0.4574443 255 0 255
0.1214063 -0.003038738 0.4568269 255 0 255
0.1225566 -0.00279576 0.4562051 255 0 255
0.123223 -0.002547371 0.4547023 255 0 255
0.1238802 -0.00229888 0.4531986 255 0 255
0.1259924 -0.002057502 0.4543125 255 0 255
0.127624 -0.001810013 0.4545436 255 0 255
0.1292597 -0.0015595 0.4547665 255 0 255
0.1313974 -0.001306136 0.4558482 255 0 255
0.09299774 -0.01147407 0.4909054 255 0 255
0.09428298 -0.01126743 0.4903946 255 0 255
0.09518772 -0.01103194 0.4889536 255 0 255
0.09608331 -0.01079585 0.4875106 255 0 255
0.0969697 -0.01055928 0.4860656 255 0 255
0.09706892 -0.01027137 0.4827768 255 0 255
0.09792988 -0.01003502 0.4813309 255 0 255
0.09798962 -0.009749708 0.4780472 255 0 255
0.09882522 -0.009513611 0.4766007 255 0 255
0.09965169 -0.009277035 0.4751524 255 0 255
0.101282 -0.009084864 0.4755292 255 0 255
0.1016871 -0.008824509 0.4731627 255 0 255
0.1033165 -0.00862843 0.4735285 255 0 255
0.1041168 -0.008388415 0.4720691 255 0 255
0.1044874 -0.008128193 0.469701 255 0 255
0.1056897 -0.007907381 0.4691457 255 0 255
0.1064624 -0.007666348 0.4676819 255 0 255
0.107226 -0.007424977 0.4662166 255 0 255
0.1084146 -0.007200656 0.4656506 255 0 255
0.1091633 -0.006958079 0.4641811 255 0 255
0.1094616 -0.00669919 0.4618129 255 0 255
0.1110776 -0.006487388 0.4621338 255 0 255
0.1122501 -0.006257976 0.4615528 255 0 255
0.112969 -0.006013015 0.4600751 255 0 255
0.115043 -0.005807812 0.4612677 255 0 255
0.1162119 -0.005572989 0.4606713 255 0 255
0.1164552 -0.005312737 0.4582964 255 0 255
0.1176124 -0.005076149 0.4576944 255 0 255
0.1187673 -0.004837998 0.4570879 255 0 255
0.1189763 -0.004578552 0.4547136 255 0 255
0.1201195 -0.00433871 0.4541017 255 0 255
0.1217388 -0.00410567 0.4543634 255 0 255
0.1228805 -0.003862014 0.4537407 255 0 255
0.1240196 -0.003616771 0.4531136 255 0 255
0.1261332 -0.003382526 0.4542271 255 0 255
0.1282576 -0.003143819 0.4553287 255 0 255
0.1298975 -0.002895845 0.4555495 255 0 255
0.1310431 -0.002640693 0.4548951 255 0 255
0.09312377 -0.01289042 0.4908087 255 0 255
0.09403448 -0.0126517 0.4893715 255 0 255
0.09531469 -0.01244349 0.4888573 255 0 255
0.09621055 -0.01220305 0.4874145 255 0 255
0.09671143 -0.0119322 0.4850477 255 0 255
0.09719602 -0.01166201 0.4826818 255 0 255
0.09805723 -0.01142125 0.4812361 255 0 255
0.09851292 -0.01115188 0.478871 255 0 255
0.09935226 -0.01091079 0.4774232 255 0 255
0.1001825 -0.01066925 0.4759737 255 0 255
0.1014104 -0.01045361 0.4754355 255 0 255
0.1018153 -0.01018494 0.4730696 255 0 255
0.1030319 -0.009967221 0.4725251 255 0 255
0.1038289 -0.009723488 0.4710676 255 0 255
0.1046167 -0.009479379 0.4696086 255 0 255
0.104971 -0.009211757 0.4672428 255 0 255
0.1061648 -0.008990102 0.466686 255 0 255
0.1073563 -0.00876686 0.4661247 255 0 255
0.1081109 -0.008520782 0.4646584 255 0 255
0.1092944 -0.008294966 0.4640895 255 0 255
0.1104756 -0.008067558 0.4635161 255 0 255
0.1112095 -0.007819353 0.4620426 255 0 255
0.1123827 -0.007589432 0.4614617 255 0 255
0.1135535 -0.007357912 0.4608761 255 0 255
0.1151771 -0.007141986 0.4611763 255 0 255
0.115888 -0.006890109 0.4596915 255 0 255
0.1165896 -0.006638088 0.4582056 255 0 255
0.1177475 -0.00640087 0.4576037 255 0 255
0.1179654 -0.006133328 0.4552308 255 0 255
0.1186396 -0.00588073 0.453742 255 0 255
0.11978 -0.005640972 0.453132 255 0 255
0.120918 -0.005399682 0.4525175 255 0 255
0.1225358 -0.005168433 0.4527746 255 0 255
0.1241577 -0.004934156 0.4530235 255 0 255
0.1257838 -0.004696894 0.4532643 255 0 255
0.1274141 -0.004456631 0.4534968 255 0 255
0.1290484 -0.004213335 0.4537212 255 0 255
0.1301879 -0.003959008 0.4530706 255 0 255
0.09324863 -0.01430619 0.4907065 255 0 255
0.0941596 -0.01406315 0.4892696 255 0 255
0.09506136 -0.01381948 0.4878306 255 0 255
0.09595396 -0.01357528 0.4863896 255 0 255
0.09606504 -0.01326293 0.483103 255 0 255
0.09654249 -0.01298567 0.4807406 255 0 255
0.09779016 -0.01277435 0.480217 255 0 255
0.09863896 -0.01252932 0.4787713 255 0 255
0.09987883 -0.01231528 0.4782397 255 0 255
0.1011165 -0.01209955 0.4777033 255 0 255
0.1019448 -0.01185196 0.4762493 255 0 255
0.1023532 -0.01157441 0.4738824 255 0 255
0.1031595 -0.01132667 0.4724268 255 0 255
0.1039568 -0.01107853 0.4709695 255 0 255
0.1043236 -0.01080232 0.4686042 255 0 255
0.105099 -0.01055409 0.4671456 255 0 255
0.1062934 -0.01033194 0.4665889 255 0 255
0.1070539 -0.01008243 0.4651259 255 0 255
0.1082403 -0.009857668 0.4645616 255 0 255
0.1089858 -0.009606918 0.4630943 255 0 255
0.1101642 -0.009379636 0.4625225 255 0 255
0.1108949 -0.009127682 0.4610511 255 0 255
0.1120652 -0.008897883 0.4604718 255 0 255
0.1132332 -0.008666491 0.4598881 255 0 255
0.1143988 -0.008433556 0.4592998 255 0 255
0.115562 -0.008198995 0.458707 255 0 255
0.1157981 -0.007923476 0.4563367 255 0 255
0.1169497 -0.007687134 0.4557383 255 0 255
0.1176298 -0.007430969 0.4542526 255 0 255
0.1183008 -0.007174614 0.452766 255 0 255
0.1194384 -0.00693499 0.4521577 255 0 255
0.1205737 -0.006693826 0.4515451 255 0 255
0.122189 -0.006466573 0.4518037 255 0 255
0.1238086 -0.006236311 0.4520543 255 0 255
0.1254323 -0.006003029 0.4522967 255 0 255
0.1270602 -0.005766746 0.452531 255 0 255
0.1281962 -0.005514859 0.4518887 255 0 255
0.1293297 -0.005261434 0.451242 255 0 255
0.09428351 -0.015474 0.4891622 255 0 255
0.09518562 -0.01522599 0.4877235 255 0 255
0.0956955 -0.01493916 0.4853598 255 0 255
0.0961891 -0.01465292 0.482997 255 0 255
0.0966665 -0.01436736 0.4806353 255 0 255
0.09791474 -0.0141556 0.4801117 255 0 255
0.09876379 -0.01390623 0.4786663 255 0 255
0.1000043 -0.01369165 0.4781347 255 0 255
0.1012426 -0.01347548 0.4775983 255 0 255
0.1020711 -0.01322352 0.4761446 255 0 255
0.1024793 -0.01293769 0.4737784 255 0 255
0.103286 -0.01268553 0.472323 255 0 255
0.1040834 -0.01243299 0.4708661 255 0 255
0.1044501 -0.01214854 0.4685014 255 0 255
0.1052257 -0.0118959 0.4670431 255 0 255
0.1068491 -0.01170348 0.4673894 255 0 255
0.1071814 -0.01141929 0.4650238 255 0 255
0.1083683 -0.01119404 0.4644594 255 0 255
0.1091141 -0.01093888 0.4629925 255 0 255
0.1102931 -0.01071108 0.4624208 255 0 255
0.1114697 -0.01048165 0.4618444 255 0 255
0.1121948 -0.01022434 0.4603705 255 0 255
0.1129108 -0.009966786 0.4588954 255 0 255
0.1145295 -0.009758933 0.4591985 255 0 255
0.115234 -0.009499561 0.4577178 255 0 255
0.1150037 -0.009192865 0.4544638 255 0 255
0.1161491 -0.008957384 0.453869 255 0 255
0.1168227 -0.008698147 0.4523872 255 0 255
0.1179599 -0.008460229 0.4517853 255 0 255
0.1186185 -0.008199986 0.4502999 255 0 255
0.1202272 -0.007979729 0.4505682 255 0 255
0.1213571 -0.007737135 0.449953 255 0 255
0.1239436 -0.007548752 0.4519541 255 0 255
0.1245889 -0.007283043 0.4504529 255 0 255
0.1257181 -0.007034323 0.4498207 255 0 255
0.1268447 -0.006784081 0.4491842 255 0 255
0.1279688 -0.006532236 0.4485432 255 0 255
0.09440626 -0.0168843 0.4890492 255 0 255
0.09568837 -0.01667472 0.4885349 255 0 255
0.09620176 -0.01637903 0.4861704 255 0 255
0.09631195 -0.01604232 0.4828857 255 0 255
0.09678926 -0.01574855 0.4805245 255 0 255
0.09803817 -0.01553628 0.480001 255 0 255
0.09888747 -0.01528253 0.4785559 255 0 255
0.1001285 -0.01506753 0.4780243 255 0 255
0.1013674 -0.01485083 0.477488 255 0 255
0.1026041 -0.01463248 0.4769468 255 0 255
0.1026043 -0.01430039 0.473669 255 0 255
0.1034111 -0.01404384 0.472214 255 0 255
0.1042088 -0.01378689 0.4707574 255 0 255
0.1045754 -0.01349418 0.4683934 255 0 255
0.1049258 -0.01320237 0.466031 255 0 255
0.1065467 -0.01301397 0.4663787 255 0 255
0.1068753 -0.01272213 0.4640153 255 0 255
0.1080594 -0.01249704 0.4634527 255 0 255
0.108802 -0.01223809 0.4619878 255 0 255
0.1099781 -0.01201043 0.4614177 255 0 255
0.1107057 -0.01175029 0.4599486 255 0 255
0.1118737 -0.0115201 0.4593712 255 0 255
0.1125865 -0.0112588 0.4578982 255 0 255
0.1137464 -0.01102612 0.4573134 255 0 255
0.1149039 -0.01079183 0.4567241 255 0 255
0.1151328 -0.01050112 0.4543587 255 0 255
0.1158122 -0.01023833 0.4528799 255 0 255
0.1164825 -0.009975352 0.4514001 255 0 255
0.1180903 -0.009762906 0.4516806 255 0 255
0.118749 -0.009498239 0.4501956 255 0 255
0.1203586 -0.009281245 0.4504637 255 0 255
0.1214891 -0.009038108 0.4498486 255 0 255
0.1235906 -0.008838245 0.4509756 255 0 255
0.1237427 -0.00854708 0.4486051 255 0 255
0.1248658 -0.008299211 0.4479767 255 0 255
0.126483 -0.008070089 0.4482117 255 0 255
0.1271043 -0.007798872 0.4467069 255 0 255
0.09619069 -0.01813065 0.4893402 255 0 255
0.09632385 -0.01778001 0.4860526 255 0 255
0.09643363 -0.01743118 0.4827689 255 0 255
0.09730156 -0.01717403 0.4813278 255 0 255
0.09894889 -0.017005 0.4817207 255 0 255
0.09940766 -0.01670196 0.4793566 255 0 255
0.1006529 -0.01648586 0.4788235 255 0 255
0.1018959 -0.01626806 0.4782856 255 0 255
0.1023201 -0.01596487 0.4759192 255 0 255
0.102728 -0.0156625 0.4735543 255 0 255
0.1035351 -0.01540158 0.4720996 255 0 255
0.104333 -0.01514026 0.4706433 255 0 255
0.1042771 -0.01479988 0.4673744 255 0 255
0.1050497 -0.01453912 0.4659184 255 0 255
0.1062423 -0.01431608 0.4653634 255 0 255
0.107 -0.01405401 0.463903 255 0 255
0.1077485 -0.01379166 0.4624414 255 0 255
0.1084878 -0.01352898 0.4609784 255 0 255
0.109661 -0.01330145 0.4604101 255 0 255
0.1103854 -0.01303758 0.4589431 255 0 255
0.1115506 -0.01280753 0.4583674 255 0 255
0.1122601 -0.01254248 0.4568964 255 0 255
0.1134171 -0.01230992 0.4563134 255 0 255
0.1141117 -0.01204377 0.4548386 255 0 255
0.1147971 -0.01177744 0.4533629 255 0 255
0.1159403 -0.01154155 0.45277 255 0 255
0.1166107 -0.01127418 0.4512906 255 0 255
0.1182194 -0.011065 0.4515709 255 0 255
0.1193553 -0.01082441 0.4509647 255 0 255
0.1204888 -0.01058221 0.450354 255 0 255
0.1211361 -0.01031142 0.4488642 255 0 255
0.1227484 -0.01009314 0.4491195 255 0 255
0.1228936 -0.009795086 0.4467535 255 0 255
0.1235167 -0.009523284 0.4452597 255 0 255
0.1251249 -0.009299616 0.4455 255 0 255
0.1262368 -0.009049536 0.4448668 255 0 255
0.09759669 -0.01933041 0.4886953 255 0 255
0.09771674 -0.01896761 0.4854082 255 0 255
0.09820444 -0.01865546 0.4830439 255 0 255
0.09907053 -0.01839231 0.4815985 255 0 255
0.09952921 -0.01808097 0.479235 255 0 255
0.100775 -0.0178644 0.4787019 255 0 255
0.1020186 -0.01764612 0.4781641 255 0 255
0.1028513 -0.01738043 0.47671 255 0 255
0.1032627 -0.01706912 0.4743442 255 0 255
0.1040735 -0.0168032 0.4728883 255 0 255
0.1048751 -0.01653685 0.4714309 255 0 255
0.1052449 -0.01622691 0.4690666 255 0 255
0.1055985 -0.0159179 0.4667042 255 0 255
0.1063656 -0.01565176 0.4652455 255 0 255
0.1071234 -0.0153853 0.4637855 255 0 255
0.1083086 -0.01515913 0.463223 255 0 255
0.1086117 -0.01485146 0.4608617 255 0 255
0.1097854 -0.01462339 0.4602934 255 0 255
0.1109568 -0.01439375 0.4597206 255 0 255
0.1116757 -0.01412455 0.4582511 255 0 255
0.1123854 -0.01385507 0.4567806 255 0 255
0.1130859 -0.01358543 0.4553089 255 0 255
0.1142377 -0.01335142 0.4547232 255 0 255
0.1149233 -0.01308066 0.4532479 255 0 255
0.116067 -0.0128442 0.452655 255 0 255
0.1167376 -0.0125724 0.4511761 255 0 255
0.1188212 -0.01239958 0.4523359 255 0 255
0.1194837 -0.01212535 0.4508499 255 0 255
0.1206177 -0.01188259 0.4502393 255 0 255
0.1217493 -0.01163825 0.4496244 255 0 255
0.1233659 -0.01142247 0.4498775 255 0 255
0.1235142 -0.01111542 0.4475104 255 0 255
0.1241408 -0.01083844 0.4460152 255 0 255
0.1252557 -0.01058928 0.4453863 255 0 255
0.1263681 -0.01033861 0.4447532 255 0 255
0.09822489 -0.02042021 0.4861996 255 0 255
0.0987161 -0.02009923 0.4838347 255 0 255
0.09958592 -0.01983107 0.482388 255 0 255
0.1000481 -0.01951085 0.4800238 255 0 255
0.1004939 -0.01919142 0.4776608 255 0 255
0.1017346 -0.01897332 0.4771245 255 0 255
0.1025641 -0.01870384 0.4756723 255 0 255
0.1033843 -0.01843394 0.4742185 255 0 255
0.1041954 -0.01816359 0.4727629 255 0 255
0.1045777 -0.01784512 0.4703994 255 0 255
0.1053668 -0.01757465 0.4689424 255 0 255
0.1057203 -0.01725738 0.4665807 255 0 255
0.1060576 -0.01694102 0.4642208 255 0 255
0.1068123 -0.01667082 0.4627628 255 0 255
0.1079945 -0.01644484 0.462202 255 0 255
0.1087343 -0.01617337 0.4607398 255 0 255
0.1099086 -0.01594477 0.4601715 255 0 255
0.1110805 -0.01571456 0.4595987 255 0 255
0.1117996 -0.01544095 0.4581297 255 0 255
0.1129635 -0.01520824 0.4575496 255 0 255
0.1132101 -0.01489303 0.4551884 255 0 255
0.1143625 -0.01465846 0.4546027 255 0 255
0.1150482 -0.01438329 0.4531278 255 0 255
0.1161925 -0.01414627 0.452535 255 0 255
0.1168633 -0.01387002 0.4510564 255 0 255
0.1189482 -0.01370437 0.4522156 255 0 255
0.1196108 -0.0134257 0.45073 255 0 255
0.1207453 -0.01318233 0.4501195 255 0 255
0.1218775 -0.01293739 0.4495046 255 0 255
0.1230071 -0.01269092 0.4488853 255 0 255
0.1231518 -0.01237626 0.4465207 255 0 255
0.1242697 -0.0121281 0.4458964 255 0 255
0.1248873 -0.01184659 0.4444009 255 0 255
0.1259969 -0.01159609 0.4437697 255 0 255
0.0995089 -0.02199438 0.4888244 255 0 255
0.0996189 -0.02160672 0.4855376 255 0 255
0.09970546 -0.02122097 0.4822546 255 0 255
0.09976871 -0.02083713 0.4789758 255 0 255
0.1006133 -0.02056482 0.4775289 255 0 255
0.1014487 -0.02029205 0.4760804 255 0 255
0.1022749 -0.02001883 0.4746301 255 0 255
0.1035047 -0.01979806 0.4740874 255 0 255
0.1038996 -0.01947109 0.4717246 255 0 255
0.1046982 -0.01919664 0.4702695 255 0 255
0.1050642 -0.0188708 0.4679084 255 0 255
0.1058408 -0.01859622 0.466452 255 0 255
0.1057478 -0.01822189 0.4631915 255 0 255
0.1069329 -0.017997 0.4626352 255 0 255
0.1081157 -0.01777048 0.4620745 255 0 255
0.1088556 -0.01749461 0.4606127 255 0 255
0.1100305 -0.01726551 0.4600445 255 0 255
0.1112029 -0.01703477 0.4594718 255 0 255
0.1119222 -0.01675674 0.4580031 255 0 255
0.1130866 -0.01652349 0.4574231 255 0 255
0.1133331 -0.01619999 0.4550626 255 0 255
0.114486 -0.01596486 0.454477 255 0 255
0.1151719 -0.0156853 0.4530025 255 0 255
0.1163167 -0.01544768 0.4524098 255 0 255
0.1169876 -0.01516703 0.4509317 255 0 255
0.118599 -0.01496776 0.451211 255 0 255
0.1192583 -0.01468536 0.4497277 255 0 255
0.1203901 -0.01444216 0.449119 255 0 255
0.1215193 -0.01419739 0.448506 255 0 255
0.1226462 -0.01395105 0.4478886 255 0 255
0.1227873 -0.01362883 0.4455267 255 0 255
0.1243973 -0.01341725 0.4457725 255 0 255
0.125015 -0.01313125 0.4442775 255 0 255
0.1261252 -0.01288011 0.4436463 255 0 255
0.1013059 -0.02325013 0.4890692 255 0 255
0.100615 -0.02273001 0.4839486 255 0 255
0.1010841 -0.0223921 0.4815831 255 0 255
0.1015368 -0.02205491 0.4792186 255 0 255
0.1023794 -0.02177651 0.4777673 255 0 255
0.1028032 -0.02144024 0.475404 255 0 255
0.1040371 -0.02121835 0.4748598 255 0 255
0.1044354 -0.02088251 0.4724963 255 0 255
0.1052376 -0.02060298 0.47104 255 0 255
0.105607 -0.02026825 0.4686782 255 0 255
0.1063873 -0.01998864 0.4672205 255 0 255
0.1067279 -0.01965513 0.4648606 255 0 255
0.1079204 -0.01942839 0.4643012 255 0 255
0.1086732 -0.01914777 0.4628395 255 0 255
0.1098577 -0.01891841 0.4622725 255 0 255
0.1105956 -0.01863652 0.4608067 255 0 255
0.1117721 -0.01840457 0.4602323 255 0 255
0.1120436 -0.01807191 0.4578714 255 0 255
0.1132086 -0.0178381 0.4572914 255 0 255
0.1134548 -0.01750636 0.4549318 255 0 255
0.1141467 -0.01722325 0.4534605 255 0 255
0.1148293 -0.0169399 0.4519881 255 0 255
0.1159712 -0.01670247 0.4513972 255 0 255
0.1166389 -0.01641813 0.4499214 255 0 255
0.1182478 -0.01622283 0.4502021 255 0 255
0.1189039 -0.01593672 0.4487211 255 0 255
0.1200328 -0.01569366 0.4481143 255 0 255
0.1206739 -0.01540659 0.4466298 255 0 255
0.1222832 -0.01520282 0.4468876 255 0 255
0.1229127 -0.01491405 0.4453981 255 0 255
0.1245237 -0.01470569 0.4456435 255 0 255
0.1246429 -0.0143758 0.4432832 255 0 255
0.1257502 -0.01412478 0.442654 255 0 255
0.1015247 -0.02425392 0.4856357 255 0 255
0.1012018 -0.02378016 0.4814388 255 0 255
0.1016544 -0.02343471 0.4790751 255 0 255
0.1024973 -0.02315196 0.4776243 255 0 255
0.1029209 -0.02280742 0.4752618 255 0 255
0.1041554 -0.02258505 0.4747176 255 0 255
0.1049706 -0.02230097 0.4732619 255 0 255
0.1057765 -0.02201646 0.4718045 255 0 255
0.1061493 -0.02167281 0.4694419 255 0 255
0.1069333 -0.02138815 0.4679831 255 0 255
0.1072772 -0.02104569 0.4656224 255 0 255
0.1084737 -0.02081781 0.4650614 255 0 255
0.1092301 -0.02053213 0.4635985 255 0 255
0.1104187 -0.02030158 0.46303 255 0 255
0.1111601 -0.02001462 0.4615629 255 0 255
0.1118924 -0.01972737 0.4600946 255 0 255
0.1121637 -0.01938645 0.4577346 255 0 255
0.1133292 -0.01915208 0.4571547 255 0 255
0.1135752 -0.01881205 0.4547959 255 0 255
0.1142673 -0.01852453 0.453325 255 0 255
0.1149501 -0.01823676 0.4518531 255 0 255
0.1160925 -0.01799879 0.4512623 255 0 255
0.1167604 -0.01770999 0.4497869 255 0 255
0.1183701 -0.01751801 0.4500673 255 0 255
0.1190264 -0.01722749 0.4485867 255 0 255
0.1196735 -0.01693681 0.4471052 255 0 255
0.1207971 -0.0166923 0.446496 255 0 255
0.1219182 -0.01644628 0.4458824 255 0 255
0.1225445 -0.01615379 0.4443952 255 0 255
0.1236573 -0.01590533 0.4437748 255 0 255
0.1242686 -0.01561198 0.4422845 255 0 255
0.1248707 -0.0153186 0.4407938 255 0 255
0.1029174 -0.02543574 0.4849456 255 0 255
0.1029807 -0.02501316 0.4816642 255 0 255
0.1038344 -0.02472417 0.4802093 255 0 255
0.1038581 -0.0243043 0.4769335 255 0 255
0.1046863 -0.02401565 0.4754782 255 0 255
0.1050878 -0.02366259 0.4731148 255 0 255
0.1054731 -0.02331045 0.470753 255 0 255
0.1058423 -0.02295916 0.4683929 255 0 255
0.106623 -0.02267078 0.4669361 255 0 255
0.1065319 -0.0222594 0.4636778 255 0 255
0.1081569 -0.02209298 0.4640186 255 0 255
0.1093483 -0.02186356 0.4634547 255 0 255
0.1105374 -0.02163249 0.4628861 255 0 255
0.1108338 -0.0212825 0.460526 255 0 255
0.1120114 -0.02104949 0.4599518 255 0 255
0.1118305 -0.020643 0.4567025 255 0 255
0.1125376 -0.02035221 0.4552358 255 0 255
0.1132356 -0.0200612 0.4537681 255 0 255
0.1139243 -0.01976995 0.4522994 255 0 255
0.1146039 -0.01947851 0.4508298 255 0 255
0.1162125 -0.01929446 0.4511223 255 0 255
0.1168805 -0.01900125 0.4496473 255 0 255
0.1175394 -0.01870787 0.4481716 255 0 255
0.1186683 -0.01846598 0.4475711 255 0 255
0.1193122 -0.01817158 0.446092 255 0 255
0.1204329 -0.01792726 0.4454847 255 0 255
0.1210618 -0.01763193 0.4440023 255 0 255
0.1216815 -0.01733655 0.4425193 255 0 255
0.1227882 -0.01708896 0.4419027 255 0 255
0.1233929 -0.01679269 0.4404167 255 0 255
0.1239885 -0.01649635 0.4389302 255 0 255
0.1043078 -0.02661418 0.4842453 255 0 255
0.104358 -0.02617957 0.480965 255 0 255
0.1043847 -0.02574695 0.4776889 255 0 255
0.1052166 -0.02545329 0.4762326 255 0 255
0.1056216 -0.02509133 0.4738685 255 0 255
0.1060102 -0.02473029 0.4715061 255 0 255
0.105958 -0.0243036 0.4682423 255 0 255
0.1071671 -0.02407669 0.4676874 255 0 255
0.1075107 -0.02371772 0.4653285 255 0 255
0.1082733 -0.02342425 0.4638695 255 0 255
0.1094652 -0.02319432 0.4633056 255 0 255
0.1102127 -0.02289953 0.4618424 255 0 255
0.1105055 -0.02254196 0.4594848 255 0 255
0.1116802 -0.0223091 0.4589123 255 0 255
0.1119477 -0.02195231 0.4565558 255 0 255
0.1121992 -0.02159665 0.4542016 255 0 255
0.1133531 -0.02136171 0.4536224 255 0 255
0.1145047 -0.02112509 0.4530388 255 0 255
0.1147218 -0.02077019 0.4506851 255 0 255
0.1158618 -0.02053181 0.4500961 255 0 255
0.1169994 -0.02029181 0.4495027 255 0 255
0.1176584 -0.01999401 0.4480274 255 0 255
0.1183082 -0.01969609 0.4465514 255 0 255
0.1194319 -0.01945275 0.4459485 255 0 255
0.1200667 -0.01915382 0.4444692 255 0 255
0.1206924 -0.01885481 0.4429891 255 0 255
0.1213089 -0.01855574 0.4415085 255 0 255
0.1224126 -0.01830833 0.4408938 255 0 255
0.1230142 -0.01800836 0.4394102 255 0 255
0.1241097 -0.01775859 0.4387888 255 0 255
0.1073258 -0.02808346 0.4871757 255 0 255
0.1069658 -0.02756132 0.4829816 255 0 255
0.1074045 -0.02718714 0.4806093 255 0 255
0.1078268 -0.02681378 0.4782384 255 0 255
0.1073898 -0.02629916 0.474061 255 0 255
0.1069226 -0.02578805 0.4698915 255 0 255
0.1077107 -0.02548963 0.4684325 255 0 255
0.1080576 -0.02512171 0.4660729 255 0 255
0.1083884 -0.02475484 0.4637152 255 0 255
0.1095808 -0.02452437 0.4631514 255 0 255
0.1103285 -0.02422519 0.4616886 255 0 255
0.1101754 -0.02379297 0.4584394 255 0 255
0.1108978 -0.02349459 0.4569776 255 0 255
0.1111583 -0.02313092 0.4546254 255 0 255
0.1118588 -0.02283272 0.4531632 255 0 255
0.1130098 -0.02259788 0.4525858 255 0 255
0.1141585 -0.02236145 0.452004 255 0 255
0.1148384 -0.02206121 0.4505354 255 0 255
0.1159789 -0.02182222 0.4499464 255 0 255
0.1171171 -0.02158164 0.4493531 255 0 255
0.1172996 -0.02121943 0.4470013 255 0 255
0.1184261 -0.02097711 0.4464028 255 0 255
0.1190669 -0.02067463 0.4449265 255 0 255
0.1201852 -0.02042987 0.4443211 255 0 255
0.1203209 -0.02006936 0.4419719 255 0 255
0.1209342 -0.01976658 0.4404936 255 0 255
0.1220352 -0.01951933 0.4398809 255 0 255
0.1231336 -0.01927053 0.4392639 255 0 255
0.1242296 -0.01902018 0.4386426 255 0 255
0.1074928 -0.02903741 0.4837222 255 0 255
0.1079349 -0.02865431 0.4813493 255 0 255
0.1075239 -0.02812095 0.4771676 255 0 255
0.1075045 -0.02766589 0.4738971 255 0 255
0.1070365 -0.02713879 0.4697295 255 0 255
0.1078249 -0.02683594 0.468271 255 0 255
0.1081716 -0.02645981 0.4659124 255 0 255
0.108938 -0.02615691 0.4644528 255 0 255
0.1101344 -0.02592528 0.4638874 255 0 255
0.1108858 -0.02562104 0.4624236 255 0 255
0.1107356 -0.02517602 0.4591741 255 0 255
0.1114616 -0.02487254 0.4577112 255 0 255
0.1117254 -0.02449995 0.4553583 255 0 255
0.1119731 -0.0241285 0.4530077 255 0 255
0.1131246 -0.02389311 0.4524304 255 0 255
0.1147371 -0.02372288 0.4527323 255 0 255
0.1154205 -0.0234175 0.4512624 255 0 255
0.1156246 -0.02304665 0.4489115 255 0 255
0.1167598 -0.02280621 0.4483201 255 0 255
0.1169388 -0.02243645 0.445971 255 0 255
0.1180624 -0.02219432 0.4453745 255 0 255
0.1191836 -0.02195058 0.4447735 255 0 255
0.1198154 -0.02164356 0.443297 255 0 255
0.1204379 -0.02133643 0.4418199 255 0 255
0.1205575 -0.02096906 0.4394747 255 0 255
0.1216556 -0.02072197 0.4388639 255 0 255
0.1227512 -0.02047332 0.4382488 255 0 255
0.1238443 -0.02022314 0.4376296 255 0 255
0.1097102 -0.03036863 0.4848016 255 0 255
0.1088938 -0.02973727 0.4797108 255 0 255
0.1080402 -0.02911063 0.474631 255 0 255
0.1080006 -0.028645 0.4713653 255 0 255
0.1083669 -0.02825902 0.4690043 255 0 255
0.108717 -0.02787396 0.466645 255 0 255
0.109487 -0.02756601 0.4651843 255 0 255
0.1106875 -0.02733314 0.4646173 255 0 255
0.1109994 -0.02694907 0.462259 255 0 255
0.1108487 -0.02649194 0.459011 255 0 255
0.1115749 -0.0261841 0.4575486 255 0 255
0.1118385 -0.02580325 0.4551968 255 0 255
0.1120861 -0.02542356 0.4528472 255 0 255
0.113238 -0.02518762 0.4522699 255 0 255
0.115315 -0.02509128 0.4534546 255 0 255
0.1155349 -0.02471092 0.4511021 255 0 255
0.1162094 -0.02440098 0.449632 255 0 255
0.1173485 -0.02415927 0.4490388 255 0 255
0.1175306 -0.02378053 0.446689 255 0 255
0.1176967 -0.02340308 0.444342 255 0 255
0.1188151 -0.02315949 0.4437429 255 0 255
0.1194436 -0.02284881 0.4422688 255 0 255
0.1200629 -0.02253802 0.4407941 255 0 255
0.120673 -0.02222715 0.4393188 255 0 255
0.1217716 -0.0219795 0.4387081 255 0 255
0.1228676 -0.02173027 0.4380932 255 0 255
0.1239612 -0.02147945 0.437474 255 0 255
0.1102644 -0.03137599 0.4822458 255 0 255
0.1094202 -0.03072755 0.4771638 255 0 255
0.1093906 -0.03024784 0.4738948 255 0 255
0.1093378 -0.02977031 0.4706306 255 0 255
0.1096948 -0.02937569 0.4682692 255 0 255
0.1100355 -0.02898205 0.4659097 255 0 255
0.1108 -0.0286687 0.4644465 255 0 255
0.1111118 -0.02827639 0.4620892 255 0 255
0.1109606 -0.02780715 0.4588428 255 0 255
0.1112367 -0.02741764 0.4564914 255 0 255
0.1119504 -0.0271058 0.4550301 255 0 255
0.1126549 -0.02679372 0.4535678 255 0 255
0.1138108 -0.02655658 0.4529889 255 0 255
0.1154284 -0.0263922 0.4532882 255 0 255
0.1156481 -0.02600359 0.4509368 255 0 255
0.1163227 -0.02568922 0.4494672 255 0 255
0.116988 -0.02537469 0.4479966 255 0 255
0.1176442 -0.02505997 0.4465253 255 0 255
0.1178101 -0.02467426 0.4441794 255 0 255
0.1189289 -0.02443013 0.4435804 255 0 255
0.1200453 -0.02418438 0.4429771 255 0 255
0.120177 -0.0237998 0.4406328 255 0 255
0.1207873 -0.02348453 0.4391581 255 0 255
0.1218862 -0.02323627 0.4385474 255 0 255
0.1229827 -0.02298647 0.4379326 255 0 255
0.1235722 -0.0226695 0.4364525 255 0 255
0.1108008 -0.03236688 0.4796882 255 0 255
0.1099287 -0.0317014 0.474615 255 0 255
0.1103087 -0.03129628 0.4722497 255 0 255
0.1102393 -0.0308076 0.4689889 255 0 255
0.1105833 -0.03040502 0.4666288 255 0 255
0.1109112 -0.03000346 0.4642706 255 0 255
0.1116666 -0.02968537 0.4628067 255 0 255
0.1115184 -0.02920337 0.4595602 255 0 255
0.1117978 -0.0288049 0.4572082 255 0 255
0.1125151 -0.028488 0.4557458 255 0 255
0.1127657 -0.02809111 0.4533967 255 0 255
0.1139221 -0.02785341 0.4528179 255 0 255
0.1150761 -0.02761405 0.4522345 255 0 255
0.1152922 -0.02721792 0.449886 255 0 255
0.1159635 -0.02689984 0.4484186 255 0 255
0.1166256 -0.02658165 0.4469505 255 0 255
0.1172785 -0.02626325 0.4454815 255 0 255
0.1179222 -0.02594473 0.4440118 255 0 255
0.1185567 -0.02562606 0.4425414 255 0 255
0.1196702 -0.02538048 0.44194 255 0 255
0.1202898 -0.02506088 0.4404665 255 0 255
0.1209002 -0.02474119 0.4389924 255 0 255
0.1219996 -0.02449235 0.4383818 255 0 255
0.1230966 -0.02424192 0.437767 255 0 255
0.1236862 -0.02392053 0.4362876 255 0 255
0.1109126 -0.0337575 0.4794994 255 0 255
0.1096129 -0.0329825 0.4735289 255 0 255
0.1099893 -0.03256978 0.4711663 255 0 255
0.1099159 -0.03206965 0.4679087 255 0 255
0.1102564 -0.03165953 0.4655513 255 0 255
0.1110212 -0.03133741 0.4640893 255 0 255
0.1117767 -0.03101495 0.4626261 255 0 255
0.1120756 -0.03060649 0.4602714 255 0 255
0.1128092 -0.0302841 0.4588073 255 0 255
0.1130792 -0.02987711 0.4564553 255 0 255
0.113333 -0.02947132 0.4541056 255 0 255
0.1140321 -0.0291495 0.4526418 255 0 255
0.1151865 -0.02890961 0.4520586 255 0 255
0.1154025 -0.02850518 0.4497111 255 0 255
0.1160739 -0.02818275 0.4482443 255 0 255
0.1167362 -0.02786011 0.4467768 255 0 255
0.1173891 -0.02753735 0.4453084 255 0 255
0.1175513 -0.02713589 0.4429665 255 0 255
0.1186677 -0.02689133 0.4423695 255 0 255
0.1197816 -0.0266452 0.4417682 255 0 255
0.1204013 -0.02632117 0.4402952 255 0 255
0.1210118 -0.02599704 0.4388218 255 0 255
0.1221117 -0.02574763 0.4382113 255 0 255
0.1232091 -0.02549663 0.4375966 255 0 255
0.1232936 -0.02509759 0.4352579 255 0 255
0.1127169 -0.03552411 0.4829092 255 0 255
0.1114298 -0.03472278 0.4769357 255 0 255
0.1109593 -0.03411344 0.4727722 255 0 255
0.1108924 -0.03359986 0.469513 255 0 255
0.1108023 -0.03308859 0.4662589 255 0 255
0.1111299 -0.03267055 0.463903 255 0 255
0.1118856 -0.03234369 0.4624403 255 0 255
0.1121843 -0.03192705 0.4600867 255 0 255
0.1129181 -0.03160025 0.4586233 255 0 255
0.1131879 -0.03118505 0.4562725 255 0 255
0.1138997 -0.03085839 0.4548085 255 0 255
0.1146023 -0.03053148 0.4533435 255 0 255
0.1152958 -0.03020433 0.4518774 255 0 255
0.11598 -0.02987696 0.4504105 255 0 255
0.1166549 -0.02954941 0.4489427 255 0 255
0.1173207 -0.02922165 0.4474739 255 0 255
0.1179772 -0.02889371 0.4460045 255 0 255
0.1181425 -0.02848331 0.4436619 255 0 255
0.1187773 -0.02815587 0.4421927 255 0 255
0.1198917 -0.02790911 0.4415915 255 0 255
0.1205115 -0.02758069 0.4401192 255 0 255
0.1211222 -0.02725216 0.4386463 255 0 255
0.1222225 -0.02700214 0.4380359 255 0 255
0.1228182 -0.0266727 0.43656 255 0 255
0.1234047 -0.02634326 0.4350838 255 0 255
0.1128207 -0.03639571 0.4794339 255 0 255
0.1119292 -0.03567164 0.4743705 255 0 255
0.1114346 -0.03504856 0.4702142 255 0 255
0.1109099 -0.03442915 0.4660662 255 0 255
0.1112373 -0.03400286 0.4637114 255 0 255
0.1119933 -0.03367162 0.4622493 255 0 255
0.1127399 -0.03334009 0.4607861 255 0 255
0.1134772 -0.03300823 0.4593216 255 0 255
0.1137504 -0.03258409 0.4569702 255 0 255
0.1144658 -0.03225233 0.4555051 255 0 255
0.1147101 -0.0318298 0.4531568 255 0 255
0.1154037 -0.03149824 0.4516914 255 0 255
0.1156193 -0.03107741 0.4493462 255 0 255
0.1162909 -0.03074616 0.4478807 255 0 255
0.1169534 -0.03041472 0.4464144 255 0 255
0.1176067 -0.03008316 0.4449473 255 0 255
0.1177685 -0.02966526 0.4426078 255 0 255
0.1184 -0.0293341 0.441141 255 0 255
0.1200006 -0.02917226 0.4414098 255 0 255
0.1206205 -0.02883939 0.4399381 255 0 255
0.1212312 -0.02850648 0.4384659 255 0 255
0.122332 -0.02825589 0.4378556 255 0 255
0.1229278 -0.02792205 0.4363805 255 0 255
0.1230085 -0.0275073 0.434046 255 0 255
0.1154947 -0.03839464 0.4846181 255 0 255
0.11333 -0.03734501 0.476858 255 0 255
0.1128452 -0.03670398 0.4726992 255 0 255
0.1118922 -0.03596732 0.4676551 255 0 255
0.1122265 -0.03553145 0.4652983 255 0 255
0.1125445 -0.03509658 0.4629434 255 0 255
0.1128464 -0.03466278 0.4605906 255 0 255
0.1135839 -0.03432651 0.4591267 255 0 255
0.1138569 -0.03389416 0.4567765 255 0 255
0.1145725 -0.03355803 0.4553121 255 0 255
0.1148166 -0.03312726 0.4529649 255 0 255
0.1150446 -0.03269768 0.4506202 255 0 255
0.1152566 -0.03226928 0.448278 255 0 255
0.115925 -0.0319344 0.4468149 255 0 255
0.1165842 -0.03159933 0.445351 255 0 255
0.1172343 -0.03126409 0.4438864 255 0 255
0.1173924 -0.03083871 0.4415499 255 0 255
0.1185067 -0.03059318 0.4409549 255 0 255
0.1201081 -0.03043456 0.4412232 255 0 255
0.1207281 -0.03009732 0.4397522 255 0 255
0.121339 -0.02975998 0.4382806 255 0 255
0.1224402 -0.02950881 0.4376705 255 0 255
0.1230361 -0.02917057 0.4361959 255 0 255
0.1231165 -0.02874757 0.4338627 255 0 255
0.1160254 -0.03935392 0.4820251 255 0 255
0.1142564 -0.0383816 0.4751754 255 0 255
0.1133128 -0.03762312 0.4701295 255 0 255
0.1132156 -0.03707456 0.4668777 255 0 255
0.1135404 -0.03663013 0.4645207 255 0 255
0.1138491 -0.03618667 0.4621658 255 0 255
0.1141415 -0.03574432 0.459813 255 0 255
0.1144177 -0.03530304 0.4574623 255 0 255
0.1146779 -0.03486288 0.455114 255 0 255
0.1149218 -0.03442389 0.4527681 255 0 255
0.1156157 -0.03408357 0.451304 255 0 255
0.1158309 -0.0336463 0.4489613 255 0 255
0.1165029 -0.03330624 0.4474972 255 0 255
0.1171656 -0.03296607 0.4460322 255 0 255
0.1178191 -0.03262569 0.4445664 255 0 255
0.1184635 -0.03228517 0.4430999 255 0 255
0.1190986 -0.03194452 0.4416327 255 0 255
0.1207041 -0.03178836 0.4418986 255 0 255
0.1208345 -0.03135439 0.4395614 255 0 255
0.121942 -0.03110347 0.4389537 255 0 255
0.1225471 -0.03076091 0.4374804 255 0 255
0.1231431 -0.03041825 0.4360065 255 0 255
0.1237299 -0.03007556 0.4345323 255 0 255
0.1178436 -0.04061951 0.4821123 255 0 255
0.115611 -0.03951504 0.4743795 255 0 255
0.1155308 -0.03895096 0.4711214 255 0 255
0.1149818 -0.03828366 0.4669795 255 0 255
0.1148517 -0.03772506 0.4637335 255 0 255
0.1151509 -0.03727308 0.4613786 255 0 255
0.114978 -0.03671871 0.4581419 255 0 255
0.1152413 -0.03626963 0.4557931 255 0 255
0.1154886 -0.03582171 0.4534467 255 0 255
0.1157198 -0.03537496 0.4511028 255 0 255
0.1154651 -0.03482886 0.4478843 255 0 255
0.1166069 -0.03458506 0.4472979 255 0 255
0.1177463 -0.03433957 0.4467072 255 0 255
0.1184033 -0.03399406 0.4452403 255 0 255
0.1190512 -0.03364842 0.4437727 255 0 255
0.1201766 -0.03339952 0.4431725 255 0 255
0.1212995 -0.03314899 0.442568 255 0 255
0.121433 -0.03270603 0.4402301 255 0 255
0.1225443 -0.03245376 0.4396207 255 0 255
0.1231529 -0.03210601 0.4381463 255 0 255
0.1232488 -0.03166509 0.4358123 255 0 255
0.1238357 -0.03131802 0.4343387 255 0 255
