ply
format ascii 1.0
Comment Generated by Floating Hands
element vertex 1139
Comment Left: (0.0, 0.0, 0.0)
Comment Right: (0.1, -0.1, 0.4)
Comment Time: 2023-05-01 08:47:14,309
property double x
property double y
property double z
property uchar red
property uchar green
property uchar blue
end_header
0.02985407 -0.07927811 0.4252885 255 0 255
0.03387979 -0.078402 0.4225151 255 0 255
0.03631373 -0.07850704 0.422978 255 0 255
0.03829395 -0.07805376 0.4215556 255 0 255
0.07830462 -0.07103842 0.4013649 255 0 255
0.07958876 -0.06862617 0.3935868 255 0 255
0.08529973 -0.06608471 0.3859331 255 0 255
0.08859267 -0.06583579 0.3855228 255 0 255
0.09848079 -0.06565718 0.3862139 255 0 255
0.1085321 -0.06736422 0.3930997 255 0 255
0.1178968 -0.06710946 0.3936244 255 0 255
0.1208894 -0.06714704 0.39419 255 0 255
0.126979 -0.06787577 0.3974445 255 0 255
0.03499832 -0.07940625 0.4219542 255 0 255
0.04270672 -0.0787671 0.4202046 255 0 255
0.07853527 -0.07397042 0.407162 255 0 255
0.07857254 -0.0714158 0.3988813 255 0 255
0.07940944 -0.07032628 0.3954379 255 0 255
0.07961077 -0.06965198 0.3932769 255 0 255
0.08117681 -0.06908067 0.3915946 255 0 255
0.08313283 -0.06876279 0.3907784 255 0 255
0.0914686 -0.06632929 0.383907 255 0 255
0.09381466 -0.06622874 0.3838709 255 0 255
0.1061402 -0.06789127 0.3907509 255 0 255
0.1095432 -0.06822696 0.3922708 255 0 255
0.126434 -0.06804921 0.3940813 255 0 255
0.02423162 -0.08362218 0.4315036 255 0 255
0.02783615 -0.08190645 0.425991 255 0 255
0.02876054 -0.08154605 0.4248414 255 0 255
0.0387865 -0.08079534 0.4227584 255 0 255
0.04100364 -0.08060969 0.4222509 255 0 255
0.07982336 -0.07162245 0.3960027 255 0 255
0.08002833 -0.07093983 0.3938426 255 0 255
0.08061761 -0.07052062 0.3925627 255 0 255
0.08330053 -0.06910039 0.3883087 255 0 255
0.1120224 -0.06912813 0.3917556 255 0 255
0.1144803 -0.06895871 0.3915442 255 0 255
0.1179545 -0.06926604 0.3929667 255 0 255
0.1229678 -0.06957828 0.3946202 255 0 255
0.1215152 -0.06560474 0.3820328 255 0 255
0.02314542 -0.0869069 0.4381344 255 0 255
0.02388373 -0.08415768 0.4292794 255 0 255
0.02559857 -0.08314878 0.426064 255 0 255
0.0285729 -0.08235063 0.4235675 255 0 255
0.02968696 -0.08227438 0.423353 255 0 255
0.03059433 -0.08190784 0.4221994 255 0 255
0.04232047 -0.07913303 0.4137221 255 0 255
0.04083504 -0.07495774 0.4002669 255 0 255
0.07827321 -0.07681285 0.4086692 255 0 255
0.07810402 -0.07488582 0.4025619 255 0 255
0.07984307 -0.07265731 0.3956814 255 0 255
0.08536547 -0.06909582 0.3850104 255 0 255
0.08727298 -0.06876346 0.3841642 255 0 255
0.09151356 -0.06833937 0.3832864 255 0 255
0.09246102 -0.06816434 0.3828425 255 0 255
0.09621404 -0.068142 0.3831897 255 0 255
0.1086112 -0.07054984 0.3921222 255 0 255
0.111556 -0.06994168 0.3905908 255 0 255
0.1130289 -0.06998473 0.3909053 255 0 255
0.1145065 -0.07002475 0.3912126 255 0 255
0.1159887 -0.07006177 0.3915125 255 0 255
0.123988 -0.07044464 0.393721 255 0 255
0.1237757 -0.06831652 0.3871392 255 0 255
0.1215427 -0.06664795 0.381708 255 0 255
0.02542099 -0.08395118 0.4247839 255 0 255
0.04110545 -0.07750273 0.4048198 255 0 255
0.07774349 -0.07566932 0.4013454 255 0 255
0.0783847 -0.07524328 0.4000691 255 0 255
0.08006669 -0.07299277 0.3932011 255 0 255
0.08180841 -0.07170998 0.3893667 255 0 255
0.08278251 -0.07155005 0.3889585 255 0 255
0.08388871 -0.07069117 0.3863952 255 0 255
0.08633983 -0.06993138 0.3842739 255 0 255
0.09014142 -0.06925357 0.3825539 255 0 255
0.09764713 -0.06922761 0.3832575 255 0 255
0.1081531 -0.07135371 0.3909501 255 0 255
0.1096188 -0.07140761 0.3912816 255 0 255
0.1115803 -0.07099982 0.3902573 255 0 255
0.1130534 -0.07104619 0.3905707 255 0 255
0.03240261 -0.08332454 0.4192064 255 0 255
0.03371925 -0.08353749 0.4199084 255 0 255
0.0361477 -0.08366185 0.4203667 255 0 255
0.03969335 -0.08368638 0.4205546 255 0 255
0.04209138 -0.08096321 0.4121302 255 0 255
0.04189521 -0.07814138 0.4033133 255 0 255
0.04424506 -0.07950028 0.4076492 255 0 255
0.07864814 -0.07558458 0.397579 255 0 255
0.07965767 -0.07542975 0.3971823 255 0 255
0.08008408 -0.07401735 0.3928745 255 0 255
0.08582906 -0.07136685 0.38524 255 0 255
0.08635838 -0.07093112 0.383955 255 0 255
0.09344743 -0.06999172 0.3817598 255 0 255
0.1023924 -0.07143473 0.3870526 255 0 255
0.109156 -0.07220677 0.3901086 255 0 255
0.1245589 -0.07287062 0.3938474 255 0 255
0.1243566 -0.07069311 0.3872747 255 0 255
0.1205277 -0.06823464 0.3794287 255 0 255
0.03041507 -0.08485836 0.4202375 255 0 255
0.03748971 -0.08495396 0.4207034 255 0 255
0.04214869 -0.08073798 0.4078455 255 0 255
0.04346542 -0.07965537 0.4045589 255 0 255
0.07765274 -0.07677702 0.3976365 255 0 255
0.07928409 -0.07618911 0.3959694 255 0 255
0.08732908 -0.07176184 0.3832077 255 0 255
0.0896705 -0.07169268 0.3832041 255 0 255
0.09392004 -0.07126016 0.3822861 255 0 255
0.1140897 -0.07368512 0.3915468 255 0 255
0.1195711 -0.07433692 0.3940723 255 0 255
0.1249898 -0.07274408 0.3899258 255 0 255
0.1227915 -0.07100142 0.3845003 255 0 255
0.02373391 -0.0882728 0.4269345 255 0 255
0.0254422 -0.08721959 0.4237345 255 0 255
0.0317371 -0.08615947 0.4205951 255 0 255
0.03263172 -0.08577532 0.4194404 255 0 255
0.03505897 -0.08591088 0.4199049 255 0 255
0.03616438 -0.08582456 0.4196668 255 0 255
0.04236202 -0.08337275 0.4123671 255 0 255
0.04292473 -0.08267566 0.4102643 255 0 255
0.07950654 -0.08401012 0.4160403 255 0 255
0.0772844 -0.08127727 0.4076783 255 0 255
0.07685263 -0.07998139 0.4037534 255 0 255
0.0771404 -0.0792587 0.4015995 255 0 255
0.07703312 -0.07825175 0.3985668 255 0 255
0.0791233 -0.07621886 0.3926078 255 0 255
0.08088178 -0.07490312 0.3887911 255 0 255
0.08185808 -0.07474396 0.3883866 255 0 255
0.08339054 -0.07414195 0.386701 255 0 255
0.09534299 -0.07235409 0.3823522 255 0 255
0.1043476 -0.07383991 0.3875741 255 0 255
0.1062758 -0.07417844 0.3887565 255 0 255
0.1077339 -0.07424603 0.3890935 255 0 255
0.1155957 -0.07480177 0.3914971 255 0 255
0.1226093 -0.07549795 0.3942572 255 0 255
0.1255991 -0.0748198 0.3925733 255 0 255
0.1238729 -0.07256686 0.3857721 255 0 255
0.0254474 -0.08830623 0.4233763 255 0 255
0.0372758 -0.08681577 0.4190686 255 0 255
0.04034292 -0.08623654 0.4173964 255 0 255
0.04119525 -0.08583759 0.4162184 255 0 255
0.04666053 -0.08402687 0.4109367 255 0 255
0.07677845 -0.08002159 0.4003704 255 0 255
0.07892288 -0.07796831 0.3944141 255 0 255
0.08130018 -0.07619664 0.389326 255 0 255
0.08437275 -0.07498298 0.3859544 255 0 255
0.0897027 -0.0736915 0.3825454 255 0 255
0.09300362 -0.07344268 0.3820741 255 0 255
0.09581707 -0.0736338 0.3828644 255 0 255
0.1005438 -0.07417198 0.3848386 255 0 255
0.1101943 -0.07515656 0.3885669 255 0 255
0.1256649 -0.07665806 0.3944038 255 0 255
0.02451206 -0.08977342 0.4241453 255 0 255
0.02638272 -0.08900819 0.4218798 255 0 255
0.02932653 -0.0881623 0.4193906 255 0 255
0.03022711 -0.08777385 0.4182455 255 0 255
0.03595196 -0.08767204 0.4180267 255 0 255
0.03705285 -0.08758427 0.4177853 255 0 255
0.03815273 -0.08749475 0.41754 255 0 255
0.04120192 -0.08690779 0.4158606 255 0 255
0.04478423 -0.08559314 0.4120481 255 0 255
0.0773105 -0.07959501 0.3957297 255 0 255
0.07893537 -0.07899562 0.3940694 255 0 255
0.08033127 -0.07736675 0.3893888 255 0 255
0.08396743 -0.07570004 0.3847558 255 0 255
0.08737446 -0.07474876 0.3822171 255 0 255
0.0911127 -0.07479656 0.3826248 255 0 255
0.09346912 -0.07472308 0.3825857 255 0 255
0.09913138 -0.07510464 0.3841275 255 0 255
0.1043817 -0.07591102 0.3868824 255 0 255
0.1087468 -0.0761358 0.3878922 255 0 255
0.1190123 -0.07156669 0.3756565 255 0 255
0.03002521 -0.08852797 0.4169573 255 0 255
0.03133314 -0.08876399 0.4176632 255 0 255
0.03222049 -0.08836915 0.4165137 255 0 255
0.03949367 -0.08878855 0.4178474 255 0 255
0.04035497 -0.0883831 0.4166741 255 0 255
0.04120756 -0.08797657 0.4154986 255 0 255
0.04339061 -0.08778261 0.4149738 255 0 255
0.04613008 -0.08685861 0.41233 255 0 255
0.07651714 -0.08285903 0.4018089 255 0 255
0.07855678 -0.07972727 0.3928483 255 0 255
0.07994207 -0.07808453 0.3881772 255 0 255
0.08397966 -0.07669792 0.3844165 255 0 255
0.08505154 -0.07578983 0.381867 255 0 255
0.09252713 -0.07590427 0.3826913 255 0 255
0.0939335 -0.07600955 0.3830909 255 0 255
0.1010425 -0.0764927 0.3849866 255 0 255
0.1063258 -0.07730414 0.387706 255 0 255
0.1087625 -0.07717926 0.3875371 255 0 255
0.1126757 -0.07711206 0.3876554 255 0 255
0.1146509 -0.07744991 0.3887787 255 0 255
0.1242054 -0.07956842 0.3956054 255 0 255
0.1252149 -0.07934035 0.3950424 255 0 255
0.1212815 -0.07440475 0.3806804 255 0 255
0.02711716 -0.09045561 0.4190834 255 0 255
0.03222392 -0.08943295 0.4161491 255 0 255
0.03332035 -0.08935092 0.4159213 255 0 255
0.03816214 -0.08963855 0.4168095 255 0 255
0.04364758 -0.08916468 0.4155228 255 0 255
0.04557453 -0.08864885 0.4140671 255 0 255
0.04639889 -0.088232 0.4128786 255 0 255
0.04612424 -0.08520409 0.404124 255 0 255
0.07659422 -0.08496531 0.4044709 255 0 255
0.07917127 -0.08029453 0.3912314 255 0 255
0.07976675 -0.0798405 0.3899652 255 0 255
0.08399069 -0.07769447 0.3840735 255 0 255
0.0893017 -0.07639049 0.3806791 255 0 255
0.09069423 -0.07650548 0.3810927 255 0 255
0.09394591 -0.07701454 0.3827448 255 0 255
0.09723246 -0.07750942 0.3843631 255 0 255
0.110242 -0.07829688 0.3874981 255 0 255
0.1112193 -0.0780902 0.3869868 255 0 255
0.1151655 -0.07878283 0.3892357 255 0 255
0.125719 -0.07993057 0.3932897 255 0 255
0.1256741 -0.07915483 0.3911065 255 0 255
0.1207677 -0.07517067 0.3795194 255 0 255
0.02751458 -0.1028927 0.4513063 255 0 255
0.02545893 -0.09263833 0.4219018 255 0 255
0.0263904 -0.09224399 0.4207714 255 0 255
0.04339954 -0.08991564 0.4142375 255 0 255
0.04613985 -0.08897638 0.4115987 255 0 255
0.04615008 -0.0876037 0.4076807 255 0 255
0.07644443 -0.08389664 0.3980663 255 0 255
0.07695752 -0.08237837 0.3937952 255 0 255
0.08303579 -0.0788536 0.3841384 255 0 255
0.08645486 -0.07789344 0.381617 255 0 255
0.1039476 -0.07872099 0.3849838 255 0 255
0.1087899 -0.07926203 0.386815 255 0 255
0.112218 -0.07969946 0.3882687 255 0 255
0.1201847 -0.08108825 0.3926985 255 0 255
0.122205 -0.08142388 0.3937784 255 0 255
0.1252465 -0.0815259 0.3942845 255 0 255
0.1256893 -0.08023497 0.3907295 255 0 255
0.1185269 -0.07433596 0.373807 255 0 255
0.02543331 -0.09575196 0.4272842 255 0 255
0.02583284 -0.0943722 0.4233754 255 0 255
0.02803035 -0.09219322 0.4172035 255 0 255
0.03574043 -0.09162941 0.4156308 255 0 255
0.03793474 -0.09145257 0.4151456 255 0 255
0.03879362 -0.0910379 0.413981 255 0 255
0.04340247 -0.09097995 0.4138632 255 0 255
0.04474863 -0.09120215 0.4145064 255 0 255
0.08077165 -0.08170352 0.3888566 255 0 255
0.08192576 -0.08077639 0.3863233 255 0 255
0.08689351 -0.07918154 0.3821201 255 0 255
0.09628797 -0.07972145 0.3841121 255 0 255
0.1107563 -0.08067063 0.3875893 255 0 255
0.1237369 -0.08256378 0.3936512 255 0 255
0.03294039 -0.1155625 0.4792001 255 0 255
0.0254591 -0.09479544 0.4211396 255 0 255
0.02620033 -0.09406298 0.4190875 255 0 255
0.0322285 -0.09261548 0.4150308 255 0 255
0.03661011 -0.09227694 0.4140954 255 0 255
0.04315237 -0.0917168 0.4125737 255 0 255
0.04667241 -0.09173816 0.4126679 255 0 255
0.04800615 -0.0891512 0.4054783 255 0 255
0.07596461 -0.08457401 0.3934566 255 0 255
0.07759032 -0.08395755 0.3918121 255 0 255
0.08249674 -0.08130892 0.3847 255 0 255
0.08733103 -0.08047563 0.3826168 255 0 255
0.08829267 -0.08030429 0.3821897 255 0 255
0.09346347 -0.08050104 0.3829744 255 0 255
0.1029979 -0.08096717 0.3847402 255 0 255
0.1222299 -0.0835906 0.3930087 255 0 255
0.1266388 -0.0813608 0.3872252 255 0 255
0.1264526 -0.07977031 0.3828961 255 0 255
0.02579694 -0.09862041 0.4283465 255 0 255
0.02711862 -0.09472544 0.4175744 255 0 255
0.08937746 -0.1050706 0.4467093 255 0 255
0.07374851 -0.08777159 0.3989743 255 0 255
0.07659394 -0.08512691 0.3918336 255 0 255
0.07920055 -0.08434813 0.3897934 255 0 255
0.07979648 -0.08387836 0.3885326 255 0 255
0.08136613 -0.08324791 0.3868693 255 0 255
0.08402301 -0.08166702 0.3826637 255 0 255
0.1020623 -0.08139404 0.3827109 255 0 255
0.1030262 -0.08119883 0.3822302 255 0 255
0.1063951 -0.08169168 0.3837313 255 0 255
0.1187128 -0.08424599 0.3912753 255 0 255
0.1261925 -0.08294742 0.3882067 255 0 255
0.0259773 -0.1000634 0.4288673 255 0 255
0.02731105 -0.09612703 0.4181078 255 0 255
0.03528996 -0.09414268 0.4126545 255 0 255
0.03855806 -0.09387647 0.4119258 255 0 255
0.04398422 -0.09339791 0.4106325 255 0 255
0.04910785 -0.09254455 0.4083387 255 0 255
0.07432656 -0.08723219 0.3943489 255 0 255
0.07621519 -0.08582356 0.3905954 255 0 255
0.07821001 -0.0855148 0.3898183 255 0 255
0.07881125 -0.08504214 0.3885611 255 0 255
0.07980099 -0.08488429 0.388165 255 0 255
0.08250778 -0.08329806 0.3839771 255 0 255
0.08347831 -0.08313403 0.3835677 255 0 255
0.09865175 -0.08347942 0.3850624 255 0 255
0.1010655 -0.08340125 0.3849541 255 0 255
0.1015719 -0.08290493 0.383647 255 0 255
0.1147295 -0.0845672 0.3886926 255 0 255
0.1162201 -0.08464763 0.3889796 255 0 255
0.1192151 -0.08479905 0.3895319 255 0 255
0.1222285 -0.08493781 0.3900548 255 0 255
0.1232253 -0.0847102 0.3895003 255 0 255
0.1236998 -0.08418955 0.3881393 255 0 255
0.1263567 -0.08106456 0.3799786 255 0 255
0.02730816 -0.09719287 0.4177149 255 0 255
0.03441798 -0.09561869 0.4134161 255 0 255
0.03746799 -0.09501801 0.4117849 255 0 255
0.04990135 -0.09314746 0.4067631 255 0 255
0.07534324 -0.08810245 0.3935916 255 0 255
0.07559736 -0.08730663 0.3914729 255 0 255
0.07621808 -0.08683265 0.3902223 255 0 255
0.0772164 -0.08667886 0.3898356 255 0 255
0.08153919 -0.08445323 0.3840159 255 0 255
0.08389758 -0.08444219 0.3840536 255 0 255
0.0858409 -0.08410759 0.3832213 255 0 255
0.08917607 -0.08390668 0.3827916 255 0 255
0.1039902 -0.08383498 0.3831349 255 0 255
0.1068912 -0.08404213 0.3837997 255 0 255
0.1127576 -0.08523343 0.3871929 255 0 255
0.1152326 -0.08592176 0.3891169 255 0 255
0.1167267 -0.08600469 0.389401 255 0 255
0.1237496 -0.08607589 0.3899076 255 0 255
0.1273137 -0.08649607 0.3911832 255 0 255
0.1303171 -0.08578254 0.3894534 255 0 255
0.02749869 -0.09860244 0.418236 255 0 255
0.02821944 -0.09783815 0.4161901 255 0 255
0.03043582 -0.09768549 0.4157589 255 0 255
0.03441496 -0.09667194 0.4130229 255 0 255
0.03988207 -0.09622654 0.4118038 255 0 255
0.04206173 -0.09603601 0.4112886 255 0 255
0.04640798 -0.09563386 0.4102109 255 0 255
0.05045732 -0.09486542 0.4081718 255 0 255
0.07101147 -0.09277976 0.4028071 255 0 255
0.07478768 -0.09072989 0.3974476 255 0 255
0.08154166 -0.08544449 0.3836449 255 0 255
0.08778039 -0.08475997 0.3820031 255 0 255
0.09670427 -0.08589015 0.3852305 255 0 255
0.1107956 -0.0858797 0.3856835 255 0 255
0.1152381 -0.08697802 0.3887213 255 0 255
0.1262733 -0.08698225 0.3891814 255 0 255
0.1313204 -0.08662148 0.3884649 255 0 255
0.1296133 -0.08490884 0.3839348 255 0 255
0.02992981 -0.09986721 0.4183225 255 0 255
0.03660103 -0.09755075 0.41215 255 0 255
0.03878713 -0.09737077 0.4116584 255 0 255
0.04640519 -0.09668516 0.4098137 255 0 255
0.0499281 -0.09670722 0.4098629 255 0 255
0.07881746 -0.0880519 0.387435 255 0 255
0.08039489 -0.08740742 0.3857834 255 0 255
0.08918133 -0.08589859 0.3820417 255 0 255
0.1005627 -0.08696768 0.3851115 255 0 255
0.1020536 -0.0862648 0.3833324 255 0 255
0.1093296 -0.08681601 0.384982 255 0 255
0.1177359 -0.088736 0.3902234 255 0 255
0.1227602 -0.08844791 0.3896565 255 0 255
0.1242388 -0.08768458 0.3877423 255 0 255
0.02808415 -0.1039823 0.4258785 255 0 255
0.03550165 -0.09868816 0.4119887 255 0 255
0.03659629 -0.09860083 0.4117488 255 0 255
0.04748533 -0.09762981 0.4091332 255 0 255
0.04883916 -0.09786937 0.4097483 255 0 255
0.0479898 -0.08858922 0.3856655 255 0 255
0.07203148 -0.09704402 0.4076262 255 0 255
0.07311434 -0.09458286 0.4012702 255 0 255
0.07470189 -0.09164034 0.3936822 255 0 255
0.07496888 -0.09082184 0.3915716 255 0 255
0.07721852 -0.08969659 0.3886935 255 0 255
0.07881723 -0.08905219 0.3870521 255 0 255
0.08292757 -0.08758675 0.3833366 255 0 255
0.08821277 -0.0870667 0.3820909 255 0 255
0.08918214 -0.08689234 0.3816611 255 0 255
0.1049513 -0.08751712 0.3836215 255 0 255
0.117239 -0.08948909 0.3890072 255 0 255
0.1232768 -0.08982465 0.3900481 255 0 255
0.1242808 -0.08959377 0.3894905 255 0 255
0.03194639 -0.1014895 0.4161474 255 0 255
0.03284669 -0.1010531 0.4150099 255 0 255
0.03373842 -0.1006155 0.4138701 255 0 255
0.03462146 -0.1001767 0.412728 255 0 255
0.03659057 -0.09964931 0.4113435 255 0 255
0.044225 -0.09898794 0.4095539 255 0 255
0.04748056 -0.09867788 0.408728 255 0 255
0.04992 -0.09881199 0.4090536 255 0 255
0.05193026 -0.09557343 0.4007305 255 0 255
0.06585915 -0.09929858 0.4102431 255 0 255
0.07020887 -0.09874181 0.4088214 255 0 255
0.07380117 -0.09513969 0.3996215 255 0 255
0.07743383 -0.08987358 0.3861998 255 0 255
0.07842202 -0.08971675 0.385809 255 0 255
0.08529317 -0.08857348 0.3829744 255 0 255
0.08778252 -0.08773109 0.3808652 255 0 255
0.09866569 -0.0885543 0.3831405 255 0 255
0.1103135 -0.08867057 0.3836804 255 0 255
0.1142536 -0.08950762 0.3858928 255 0 255
0.1172405 -0.09054752 0.3885971 255 0 255
0.1192462 -0.09095286 0.3896725 255 0 255
0.1258047 -0.09074111 0.3893104 255 0 255
0.03123595 -0.1033491 0.4177763 255 0 255
0.03351397 -0.1013114 0.4125502 255 0 255
0.03571421 -0.1011414 0.4120805 255 0 255
0.03962187 -0.1000668 0.4092881 255 0 255
0.04421894 -0.1000346 0.4091446 255 0 255
0.04556493 -0.1002878 0.4097714 255 0 255
0.04639063 -0.09982952 0.4085979 255 0 255
0.05072018 -0.09939811 0.4074578 255 0 255
0.05259162 -0.09881961 0.4059732 255 0 255
0.0526807 -0.09612767 0.3991435 255 0 255
0.05382651 -0.09099116 0.3861137 255 0 255
0.06124344 -0.09667289 0.4004779 255 0 255
0.06902619 -0.1011346 0.4117537 255 0 255
0.06945433 -0.1003001 0.4096402 255 0 255
0.06991911 -0.09828619 0.4045424 255 0 255
0.07367697 -0.09382609 0.3932671 255 0 255
0.07458844 -0.09250138 0.3899231 255 0 255
0.07999022 -0.09005465 0.383776 255 0 255
0.08056537 -0.08955718 0.3825257 255 0 255
0.08194809 -0.08973029 0.3829728 255 0 255
0.08487221 -0.08923165 0.3817414 255 0 255
0.09243511 -0.08951017 0.3825241 255 0 255
0.09572533 -0.09013059 0.384126 255 0 255
0.09964058 -0.08937284 0.3822771 255 0 255
0.1010797 -0.08950442 0.3826295 255 0 255
0.1020552 -0.08930857 0.3821532 255 0 255
0.1103133 -0.08969962 0.3832772 255 0 255
0.1177402 -0.09192214 0.3889888 255 0 255
0.1217703 -0.09274022 0.3911195 255 0 255
0.1242449 -0.09087401 0.3865064 255 0 255
0.1236672 -0.08970337 0.3835676 255 0 255
0.12254 -0.0882243 0.3798459 255 0 255
0.03053546 -0.1119973 0.4364483 255 0 255
0.03076254 -0.107842 0.4259847 255 0 255
0.03852643 -0.1012007 0.4091271 255 0 255
0.04287232 -0.1008203 0.4081002 255 0 255
0.05326203 -0.0978526 0.4005171 255 0 255
0.05892145 -0.09642025 0.3968763 255 0 255
0.06155789 -0.09805354 0.4009504 255 0 255
0.0683583 -0.101513 0.4095744 255 0 255
0.06978381 -0.1017222 0.4100907 255 0 255
0.07841575 -0.09170245 0.3850271 255 0 255
0.08096649 -0.090881 0.382985 255 0 255
0.08333298 -0.09089147 0.383021 255 0 255
0.08486906 -0.09021834 0.3813507 255 0 255
0.09243241 -0.09050972 0.3821282 255 0 255
0.09527534 -0.0908083 0.3828957 255 0 255
0.09813897 -0.09109498 0.383636 255 0 255
0.1068841 -0.09102516 0.383563 255 0 255
0.1093309 -0.09093671 0.3833764 255 0 255
0.1252843 -0.09256744 0.3876729 255 0 255
0.1250002 -0.08910662 0.3791096 255 0 255
0.03121831 -0.1054819 0.4169285 255 0 255
0.0354726 -0.1028724 0.4103438 255 0 255
0.0463758 -0.1019177 0.4077674 255 0 255
0.04854327 -0.1017052 0.4072052 255 0 255
0.0517856 -0.1013732 0.4063326 255 0 255
0.05430683 -0.09875618 0.399805 255 0 255
0.05505632 -0.09827957 0.3986136 255 0 255
0.05683756 -0.09768076 0.3971079 255 0 255
0.05756438 -0.09720115 0.3959109 255 0 255
0.07132127 -0.1005996 0.4042102 255 0 255
0.07204565 -0.0989005 0.4000001 255 0 255
0.07301 -0.09635437 0.3936957 255 0 255
0.0732989 -0.09550646 0.3915974 255 0 255
0.07357153 -0.09465902 0.3895009 255 0 255
0.08096185 -0.09186716 0.3825901 255 0 255
0.08194011 -0.09170369 0.3821869 255 0 255
0.08291669 -0.09153859 0.3817802 255 0 255
0.09286886 -0.09184478 0.3825606 255 0 255
0.09384739 -0.09166181 0.3821144 255 0 255
0.09813529 -0.09210625 0.3832309 255 0 255
0.09911684 -0.09191463 0.3827655 255 0 255
0.1000964 -0.09172139 0.3822965 255 0 255
0.1054218 -0.09192264 0.3828314 255 0 255
0.1073599 -0.09237799 0.3839668 255 0 255
0.123591 -0.09092785 0.3805986 255 0 255
0.1238141 -0.08864003 0.3750036 255 0 255
0.03100226 -0.1061755 0.4155926 255 0 255
0.03259895 -0.1049052 0.4124275 255 0 255
0.03546291 -0.1039144 0.4099226 255 0 255
0.04636686 -0.1029593 0.4073462 255 0 255
0.04961653 -0.1026377 0.406497 255 0 255
0.05974374 -0.1007297 0.4016564 255 0 255
0.0638922 -0.1014179 0.40329 255 0 255
0.07024249 -0.1017978 0.4041489 255 0 255
0.07269792 -0.09822635 0.3953813 255 0 255
0.07336767 -0.0977238 0.3941461 255 0 255
0.07366034 -0.09686787 0.3920494 255 0 255
0.0749479 -0.09586074 0.3895766 255 0 255
0.07939175 -0.09352256 0.3838362 255 0 255
0.08193439 -0.09268808 0.3817884 255 0 255
0.08291104 -0.09252271 0.3813818 255 0 255
0.08388598 -0.09235571 0.3809716 255 0 255
0.08527815 -0.0925317 0.3813981 255 0 255
0.09813035 -0.09311591 0.3828221 255 0 255
0.1029822 -0.09300882 0.3825743 255 0 255
0.1073554 -0.09340336 0.3835516 255 0 255
0.1137474 -0.0942158 0.3855604 255 0 255
0.1257546 -0.09413709 0.3854629 255 0 255
0.1260621 -0.09181629 0.3798417 255 0 255
0.1324017 -0.094777 0.3870811 255 0 255
0.0319006 -0.1067807 0.4140324 255 0 255
0.03545227 -0.1049547 0.4094974 255 0 255
0.03934603 -0.1038518 0.40672 255 0 255
0.04042945 -0.1037578 0.4064661 255 0 255
0.04259309 -0.1035644 0.4059467 255 0 255
0.04609364 -0.1036301 0.4060297 255 0 255
0.05068767 -0.1035666 0.4057811 255 0 255
0.05176739 -0.103454 0.4054864 255 0 255
0.05607378 -0.1029856 0.4042688 255 0 255
0.05791444 -0.1023761 0.4027571 255 0 255
0.05898145 -0.1022514 0.4024365 255 0 255
0.06004714 -0.1021249 0.4021121 255 0 255
0.07061336 -0.101986 0.4016202 255 0 255
0.07097658 -0.1011224 0.3995231 255 0 255
0.07196838 -0.09853348 0.3932403 255 0 255
0.07657516 -0.09620079 0.3875461 255 0 255
0.07857909 -0.09588639 0.3867677 255 0 255
0.07879127 -0.09502182 0.3846751 255 0 255
0.0797819 -0.09486157 0.3842798 255 0 255
0.08624661 -0.0933462 0.380576 255 0 255
0.08862134 -0.09334529 0.3805622 255 0 255
0.1092996 -0.09489157 0.3842517 255 0 255
0.1107756 -0.09501623 0.3845532 255 0 255
0.1142346 -0.09558973 0.3859381 255 0 255
0.1222594 -0.09645921 0.3880502 255 0 255
0.1271244 -0.09350374 0.3809787 255 0 255
0.03300298 -0.1077526 0.4133698 255 0 255
0.03389921 -0.1072928 0.4122379 255 0 255
0.03676468 -0.1062816 0.4097262 255 0 255
0.03848674 -0.1053504 0.4074401 255 0 255
0.04150061 -0.1046932 0.4057821 255 0 255
0.04258198 -0.1045956 0.4055205 255 0 255
0.04716338 -0.1045596 0.4053239 255 0 255
0.05958851 -0.1040206 0.4037635 255 0 255
0.06312401 -0.1039994 0.4036455 255 0 255
0.06494099 -0.1033655 0.4020915 255 0 255
0.06600726 -0.1032291 0.4017456 255 0 255
0.0670721 -0.1030909 0.4013959 255 0 255
0.06953958 -0.1031729 0.4015513 255 0 255
0.0702578 -0.1026658 0.4003237 255 0 255
0.07164481 -0.1004167 0.394911 255 0 255
0.07262181 -0.09903747 0.3915917 255 0 255
0.08017081 -0.09620626 0.3847166 255 0 255
0.08076257 -0.09568868 0.3834718 255 0 255
0.08174995 -0.09552491 0.3830694 255 0 255
0.08330789 -0.09483932 0.381414 255 0 255
0.08428656 -0.0946712 0.3810025 255 0 255
0.0952526 -0.09481733 0.3812636 255 0 255
0.09713296 -0.09532133 0.3824545 255 0 255
0.1010012 -0.09543135 0.382695 255 0 255
0.1063551 -0.09565528 0.3832045 255 0 255
0.1122492 -0.09617308 0.3844191 255 0 255
0.1137348 -0.0962946 0.3847048 255 0 255
0.1177193 -0.09719966 0.3868517 255 0 255
0.03076018 -0.1089647 0.4133814 255 0 255
0.03320342 -0.1091846 0.4138304 255 0 255
0.03388637 -0.1083405 0.4118002 255 0 255
0.04173641 -0.1061004 0.4062441 255 0 255
0.0449888 -0.105801 0.4054447 255 0 255
0.04958409 -0.1057518 0.4052097 255 0 255
0.05174496 -0.105528 0.4046243 255 0 255
0.05664646 -0.1058045 0.405165 255 0 255
0.05880729 -0.1055575 0.4045287 255 0 255
0.0598857 -0.1054312 0.4042048 255 0 255
0.06096277 -0.1053032 0.403877 255 0 255
0.06778611 -0.1036211 0.3997423 255 0 255
0.07130352 -0.1023135 0.3965731 255 0 255
0.07631028 -0.09907298 0.3888041 255 0 255
0.0773221 -0.09891674 0.3884178 255 0 255
0.08016127 -0.09719747 0.3843021 255 0 255
0.08115398 -0.09703451 0.383902 255 0 255
0.08272628 -0.09634633 0.3822509 255 0 255
0.08665212 -0.09566703 0.3805923 255 0 255
0.09044449 -0.09584593 0.3809701 255 0 255
0.09284072 -0.09583539 0.3809184 255 0 255
0.09712415 -0.09632646 0.3820342 255 0 255
0.0985623 -0.09648408 0.3823924 255 0 255
0.1033723 -0.09728539 0.3842405 255 0 255
0.1058291 -0.09722619 0.38408 255 0 255
0.02807317 -0.1050119 0.4012408 255 0 255
0.0336554 -0.1090027 0.4104611 255 0 255
0.04147531 -0.1067504 0.404918 255 0 255
0.04255678 -0.1066527 0.4046563 255 0 255
0.04363713 -0.1065532 0.4043908 255 0 255
0.05281084 -0.1064478 0.4038888 255 0 255
0.05446767 -0.1070859 0.4053456 255 0 255
0.06598412 -0.1053038 0.4008737 255 0 255
0.06671437 -0.1047935 0.3996581 255 0 255
0.06849028 -0.1041413 0.3980866 255 0 255
0.06919754 -0.103628 0.396866 255 0 255
0.06989591 -0.1031141 0.3956441 255 0 255
0.07058534 -0.1025994 0.394421 255 0 255
0.07126591 -0.102084 0.3931969 255 0 255
0.07193754 -0.1015679 0.3919716 255 0 255
0.09327085 -0.09718417 0.3813231 255 0 255
0.09568103 -0.09716598 0.3812463 255 0 255
0.09809786 -0.0971384 0.3811488 255 0 255
0.1072875 -0.09839159 0.3839628 255 0 255
0.114702 -0.0990557 0.3854319 255 0 255
0.1257962 -0.1001885 0.3879706 255 0 255
0.03253473 -0.1101259 0.4102467 255 0 255
0.04362309 -0.1075792 0.4039528 255 0 255
0.04820425 -0.1075458 0.4037353 255 0 255
0.05063842 -0.1077082 0.4040409 255 0 255
0.05524418 -0.107626 0.4037164 255 0 255
0.05632288 -0.1075054 0.4034052 255 0 255
0.07489821 -0.1008596 0.3874865 255 0 255
0.07590804 -0.1007052 0.3871053 255 0 255
0.08252703 -0.09921157 0.3834971 255 0 255
0.09227514 -0.09836347 0.3813415 255 0 255
0.09808657 -0.09813992 0.3807211 255 0 255
0.1166841 -0.10057 0.3860541 255 0 255
0.1227332 -0.1019623 0.3891885 255 0 255
0.1242626 -0.1020725 0.3894229 255 0 255
0.1268183 -0.1019402 0.3890845 255 0 255
0.1324251 -0.1010566 0.386978 255 0 255
0.02910908 -0.106936 0.4001693 255 0 255
0.03757429 -0.1099536 0.4068278 255 0 255
0.03951992 -0.1093802 0.405439 255 0 255
0.04144603 -0.1088007 0.404038 255 0 255
0.04468738 -0.108502 0.4032415 255 0 255
0.05306805 -0.1088963 0.4038806 255 0 255
0.06702153 -0.1072329 0.3996364 255 0 255
0.06846311 -0.1061937 0.3972055 255 0 255
0.06986912 -0.1051514 0.3947695 255 0 255
0.07293846 -0.103433 0.3907361 255 0 255
0.07461647 -0.1027552 0.3891342 255 0 255
0.07728551 -0.1019157 0.3871368 255 0 255
0.08111855 -0.09999761 0.3826364 255 0 255
0.09170931 -0.09990371 0.3821772 255 0 255
0.1067389 -0.1010024 0.3843845 255 0 255
0.1102149 -0.1007271 0.3836872 255 0 255
0.1126693 -0.1015727 0.3855775 255 0 255
0.1191759 -0.1024415 0.3874481 255 0 255
0.1237331 -0.1037253 0.3903061 255 0 255
0.1266968 -0.1002199 0.3822401 255 0 255
0.03888759 -0.1112857 0.4070195 255 0 255
0.04493052 -0.1099156 0.4036788 255 0 255
0.0460126 -0.109812 0.4034046 255 0 255
0.04709354 -0.1097065 0.4031265 255 0 255
0.04952632 -0.1098799 0.4034379 255 0 255
0.0552135 -0.1096929 0.4028198 255 0 255
0.05814128 -0.1089386 0.4010045 255 0 255
0.05952075 -0.1091987 0.4015525 255 0 255
0.06059426 -0.1090706 0.401226 255 0 255
0.06380649 -0.1086755 0.4002236 255 0 255
0.06700602 -0.108264 0.3991867 255 0 255
0.06878981 -0.107599 0.3976177 255 0 255
0.06915534 -0.1066927 0.3955433 255 0 255
0.07089682 -0.1060216 0.3939631 255 0 255
0.07193813 -0.1058739 0.3935961 255 0 255
0.07358144 -0.1039082 0.3890743 255 0 255
0.07460181 -0.1037557 0.3886978 255 0 255
0.07688852 -0.1025362 0.3858583 255 0 255
0.08050855 -0.1015194 0.3834452 255 0 255
0.08150502 -0.1013549 0.383044 255 0 255
0.0848959 -0.1012223 0.3826514 255 0 255
0.08688079 -0.1008768 0.3818139 255 0 255
0.1086755 -0.102537 0.3850482 255 0 255
0.1136608 -0.1023923 0.3846076 255 0 255
0.1156494 -0.1028828 0.3856757 255 0 255
0.1237189 -0.1047964 0.389839 255 0 255
0.1247454 -0.10456 0.3892815 255 0 255
0.1257696 -0.1043217 0.3887204 255 0 255
0.1261564 -0.1009198 0.3810076 255 0 255
0.1313853 -0.1034505 0.3866332 255 0 255
0.02656502 -0.1041411 0.3885828 255 0 255
0.03887017 -0.1123173 0.406565 255 0 255
0.04141279 -0.1108441 0.4031425 255 0 255
0.04274586 -0.1111418 0.4037642 255 0 255
0.04599554 -0.1108362 0.4029533 255 0 255
0.04923496 -0.1105142 0.4021076 255 0 255
0.0559783 -0.1102118 0.4011834 255 0 255
0.06698942 -0.1092934 0.3987331 255 0 255
0.07290769 -0.1054403 0.3898562 255 0 255
0.07485459 -0.103839 0.3861871 255 0 255
0.07849506 -0.1028302 0.383802 255 0 255
0.08329295 -0.1029265 0.3838725 255 0 255
0.08628893 -0.1024133 0.3826281 255 0 255
0.1052391 -0.1028939 0.3831734 255 0 255
0.109665 -0.1033552 0.3840917 255 0 255
0.1191218 -0.1054917 0.388644 255 0 255
0.120145 -0.1052624 0.3881034 255 0 255
0.1252393 -0.1059838 0.3895945 255 0 255
0.1278087 -0.1058564 0.3892451 255 0 255
0.1261413 -0.1019617 0.3805486 255 0 255
0.04188986 -0.112662 0.4044542 255 0 255
0.04272772 -0.1121643 0.403309 255 0 255
0.05193443 -0.1121047 0.4028172 255 0 255
0.06769723 -0.1097905 0.3970658 255 0 255
0.07051893 -0.1089701 0.3951345 255 0 255
0.0728906 -0.1064414 0.3894105 255 0 255
0.07419764 -0.1053669 0.3869688 255 0 255
0.07685615 -0.1045164 0.3849812 255 0 255
0.08127034 -0.104252 0.3842425 255 0 255
0.09551453 -0.1030756 0.3811586 255 0 255
0.1022143 -0.1045216 0.3841689 255 0 255
0.1046864 -0.1044853 0.3840119 255 0 255
0.1096482 -0.1043831 0.3836341 255 0 255
0.1116153 -0.1048982 0.3847213 255 0 255
0.1206272 -0.1066809 0.3884204 255 0 255
0.1267509 -0.1081297 0.3914645 255 0 255
0.1277492 -0.1050184 0.3845212 255 0 255
0.1271136 -0.1027596 0.37952 255 0 255
0.1339138 -0.1054373 0.3852803 255 0 255
0.03688459 -0.1170745 0.4116964 255 0 255
0.03777862 -0.1165801 0.410565 255 0 255
0.04919789 -0.1125568 0.4011936 255 0 255
0.05378995 -0.1125002 0.4008824 255 0 255
0.05808765 -0.1120137 0.3996354 255 0 255
0.06416725 -0.1108348 0.3967913 255 0 255
0.07119765 -0.1094496 0.3934609 255 0 255
0.07188615 -0.1089104 0.3922441 255 0 255
0.07417959 -0.1063586 0.3865227 255 0 255
0.07481982 -0.1058166 0.3853021 255 0 255
0.08608021 -0.1053299 0.3838157 255 0 255
0.08708441 -0.1051554 0.3833946 255 0 255
0.0959402 -0.104449 0.3815236 255 0 255
0.0973821 -0.1046329 0.3818791 255 0 255
0.1021962 -0.1055392 0.3837113 255 0 255
0.1042037 -0.105134 0.3827493 255 0 255
0.1052044 -0.1049287 0.3822629 255 0 255
0.10815 -0.1052523 0.3828765 255 0 255
0.1206086 -0.1077402 0.387944 255 0 255
0.1207375 -0.09951217 0.3698224 255 0 255
0.03640221 -0.1194368 0.4141187 255 0 255
0.03731269 -0.1189395 0.4129896 255 0 255
0.0386433 -0.117125 0.4089585 255 0 255
0.03952002 -0.1166245 0.4078242 255 0 255
0.04100364 -0.1152128 0.4046687 255 0 255
0.04537392 -0.1148131 0.4036035 255 0 255
0.05025534 -0.1134641 0.4004412 255 0 255
0.06096146 -0.1122513 0.3973353 255 0 255
0.0641474 -0.1118519 0.3963292 255 0 255
0.06520654 -0.1117151 0.3959863 255 0 255
0.06626426 -0.1115765 0.3956395 255 0 255
0.06908321 -0.1107544 0.3937257 255 0 255
0.07082514 -0.1100674 0.3921525 255 0 255
0.07387874 -0.1082861 0.3881339 255 0 255
0.07517563 -0.1071941 0.3856944 255 0 255
0.07618931 -0.1070379 0.3853125 255 0 255
0.07961015 -0.1069478 0.3849794 255 0 255
0.08022784 -0.1063956 0.3837481 255 0 255
0.08464746 -0.1061116 0.3829537 255 0 255
0.09880994 -0.1058194 0.3817708 255 0 255
0.1046489 -0.1065244 0.3830903 255 0 255
0.1155466 -0.1080052 0.3859187 255 0 255
0.1267239 -0.1093139 0.3883679 255 0 255
0.128269 -0.1094345 0.3885753 255 0 255
0.1216652 -0.1002711 0.3688255 255 0 255
0.03842083 -0.1199023 0.4122586 255 0 255
0.04316965 -0.1160409 0.4036737 255 0 255
0.0442617 -0.11594 0.4034055 255 0 255
0.04509377 -0.115428 0.4022584 255 0 255
0.04807801 -0.1147016 0.4005496 255 0 255
0.05051206 -0.1148881 0.4008445 255 0 255
0.05590019 -0.1143021 0.3993342 255 0 255
0.05697401 -0.1141793 0.3990206 255 0 255
0.06518556 -0.1127302 0.3955203 255 0 255
0.07283249 -0.1094339 0.3880508 255 0 255
0.08121312 -0.1072174 0.3828952 255 0 255
0.08462717 -0.1071011 0.3824996 255 0 255
0.09346897 -0.10644 0.3807002 255 0 255
0.0973425 -0.1066361 0.3809645 255 0 255
0.1006955 -0.1073886 0.3824544 255 0 255
0.1026137 -0.1079492 0.3835885 255 0 255
0.1055572 -0.1082989 0.3842247 255 0 255
0.1075776 -0.1078811 0.3832388 255 0 255
0.1170349 -0.1091959 0.3856998 255 0 255
0.1230994 -0.1107318 0.3887774 255 0 255
0.1236257 -0.1101244 0.3874436 255 0 255
0.1272151 -0.1107502 0.3886535 255 0 255
0.1175206 -0.09931302 0.3643201 255 0 255
0.03862607 -0.1213689 0.4126517 255 0 255
0.04423939 -0.1169623 0.4029314 255 0 255
0.05401564 -0.1159699 0.400343 255 0 255
0.05480286 -0.115441 0.3991719 255 0 255
0.05587799 -0.11532 0.3988622 255 0 255
0.05878751 -0.1145384 0.3970505 255 0 255
0.0672775 -0.1134639 0.3943535 255 0 255
0.07317458 -0.1108279 0.3884312 255 0 255
0.07411855 -0.1093232 0.385162 255 0 255
0.08802583 -0.1079561 0.3816037 255 0 255
0.09102251 -0.1074145 0.3803091 255 0 255
0.09201777 -0.1072305 0.3798704 255 0 255
0.09301121 -0.1070448 0.3794282 255 0 255
0.09732079 -0.107635 0.3805015 255 0 255
0.1025916 -0.1089649 0.3831178 255 0 255
0.1235788 -0.1121698 0.389064 255 0 255
0.1246146 -0.1119311 0.3885077 255 0 255
0.1261573 -0.1120631 0.3887235 255 0 255
0.1120301 -0.09564955 0.3541878 255 0 255
0.04312406 -0.1180838 0.4027216 255 0 255
0.05262559 -0.1166939 0.3993038 255 0 255
0.05370322 -0.1165765 0.3990017 255 0 255
0.05692852 -0.1162132 0.3980728 255 0 255
0.06089515 -0.1152928 0.395925 255 0 255
0.06408107 -0.1148921 0.3949195 255 0 255
0.06514024 -0.1147549 0.3945768 255 0 255
0.06619799 -0.1146159 0.3942303 255 0 255
0.06901723 -0.1137816 0.3923222 255 0 255
0.0724807 -0.1123792 0.389177 255 0 255
0.0772599 -0.1112001 0.3864434 255 0 255
0.07790094 -0.110639 0.3852212 255 0 255
0.08317508 -0.108849 0.3811681 255 0 255
0.08842126 -0.1093395 0.3819589 255 0 255
0.09000263 -0.108585 0.3802816 255 0 255
0.09242752 -0.1086103 0.38022 255 0 255
0.09386063 -0.1088151 0.3805866 255 0 255
0.1011041 -0.1097926 0.3823178 255 0 255
0.1059758 -0.1107272 0.3840708 255 0 255
0.1084746 -0.110691 0.3838758 255 0 255
0.1105007 -0.1102617 0.3828692 255 0 255
0.1145015 -0.110366 0.382902 255 0 255
0.1169883 -0.1112818 0.3847285 255 0 255
0.1250958 -0.113373 0.3887854 255 0 255
0.126642 -0.1135073 0.3889979 255 0 255
0.129734 -0.1117731 0.3851736 255 0 255
0.0394603 -0.1273692 0.4198121 255 0 255
0.04225375 -0.1196225 0.4033768 255 0 255
0.04502403 -0.1184785 0.4008296 255 0 255
0.04584762 -0.1179546 0.3996857 255 0 255
0.05071991 -0.1183557 0.4002812 255 0 255
0.05425683 -0.1184244 0.4002456 255 0 255
0.05690416 -0.1172273 0.3975932 255 0 255
0.05828072 -0.1175175 0.3981334 255 0 255
0.06011767 -0.116847 0.39663 255 0 255
0.06257232 -0.1169975 0.3968218 255 0 255
0.06405677 -0.1159018 0.394442 255 0 255
0.07108775 -0.1144932 0.3911226 255 0 255
0.08739115 -0.1105082 0.3819163 255 0 255
0.09383645 -0.1098077 0.3801174 255 0 255
0.09816681 -0.1104133 0.381172 255 0 255
0.1015332 -0.111193 0.3826415 255 0 255
0.1030007 -0.1113815 0.3829638 255 0 255
0.1271249 -0.1149566 0.3892649 255 0 255
0.1216893 -0.1052125 0.3690514 255 0 255
0.04060199 -0.1283567 0.4190396 255 0 255
0.04061078 -0.1261321 0.4144063 255 0 255
0.04272248 -0.1214919 0.4046314 255 0 255
0.04357616 -0.1209675 0.4034943 255 0 255
0.04716955 -0.1192808 0.3997918 255 0 255
0.050972 -0.1197936 0.4006589 255 0 255
0.052861 -0.1191417 0.3992013 255 0 255
0.05825519 -0.1185331 0.3976483 255 0 255
0.06286571 -0.1184295 0.397188 255 0 255
0.06686689 -0.1160772 0.3920764 255 0 255
0.06931262 -0.1162038 0.3922101 255 0 255
0.07210743 -0.1153466 0.390276 255 0 255
0.07279119 -0.1147837 0.3890672 255 0 255
0.0738295 -0.1146308 0.3886936 255 0 255
0.07478889 -0.1130908 0.3854347 255 0 255
0.08676884 -0.1120768 0.3826838 255 0 255
0.09037862 -0.1109564 0.3801569 255 0 255
0.1103866 -0.1133056 0.3839797 255 0 255
0.1114055 -0.1130879 0.3834714 255 0 255
0.1139222 -0.1130356 0.3832274 255 0 255
0.1234602 -0.1163693 0.3896609 255 0 255
0.1255096 -0.116899 0.3906543 255 0 255
0.1266011 -0.1146349 0.3858785 255 0 255
0.1301761 -0.1132631 0.382828 255 0 255
0.04632067 -0.1208249 0.4004484 255 0 255
0.04767528 -0.1211443 0.4010332 255 0 255
0.04876653 -0.1210353 0.4007487 255 0 255
0.05637114 -0.1202191 0.3986481 255 0 255
0.05961111 -0.1198411 0.3976901 255 0 255
0.06433117 -0.1183349 0.3943225 255 0 255
0.06506395 -0.1177779 0.3931329 255 0 255
0.06578787 -0.11722 0.3919419 255 0 255
0.06684039 -0.1170792 0.3915932 255 0 255
0.07033783 -0.1170621 0.3913641 255 0 255
0.07208087 -0.1163476 0.3897932 255 0 255
0.0734396 -0.1152138 0.3873782 255 0 255
0.07744382 -0.1131898 0.382979 255 0 255
0.07884333 -0.1134391 0.3834152 255 0 255
0.08126652 -0.1135192 0.3834449 255 0 255
0.08267923 -0.1137602 0.3838631 255 0 255
0.08369755 -0.1135897 0.3834543 255 0 255
0.08918126 -0.113116 0.3821691 255 0 255
0.09077718 -0.1123466 0.3804915 255 0 255
0.09178142 -0.112162 0.3800538 255 0 255
0.09755149 -0.1130086 0.3814756 255 0 255
0.09900703 -0.1132124 0.381814 255 0 255
0.1093375 -0.1145494 0.3839889 255 0 255
0.1163753 -0.1150151 0.3845504 255 0 255
0.1188751 -0.1159583 0.3863552 255 0 255
0.1213932 -0.116895 0.3881456 255 0 255
0.1281082 -0.1148155 0.3834685 255 0 255
0.1280839 -0.1138001 0.3813733 255 0 255
0.04402349 -0.1238718 0.4042376 255 0 255
0.04655538 -0.1222677 0.4008188 255 0 255
0.04791369 -0.1225903 0.401401 255 0 255
0.05119515 -0.1222562 0.4005327 255 0 255
0.05228655 -0.122141 0.4002355 255 0 255
0.05927579 -0.1204311 0.3963444 255 0 255
0.06503629 -0.1187817 0.392644 255 0 255
0.07031006 -0.1180652 0.3908756 255 0 255
0.07341202 -0.1162055 0.3868952 255 0 255
0.0761321 -0.1153205 0.3849281 255 0 255
0.08123893 -0.1145057 0.3829646 255 0 255
0.08265148 -0.11475 0.3833812 255 0 255
0.09016473 -0.1139259 0.3812543 255 0 255
0.09651218 -0.1142038 0.3814469 255 0 255
0.09796595 -0.1144133 0.381789 255 0 255
0.1029186 -0.1144166 0.3815011 255 0 255
0.1113483 -0.1151403 0.3824776 255 0 255
0.1234005 -0.1185012 0.3886289 255 0 255
0.04301903 -0.1363914 0.4270389 255 0 255
0.04305775 -0.1295512 0.413202 255 0 255
0.04323472 -0.1277091 0.4094659 255 0 255
0.04449593 -0.1257664 0.4054632 255 0 255
0.05552442 -0.1228012 0.3988203 255 0 255
0.05601846 -0.1218181 0.396802 255 0 255
0.05709595 -0.1216943 0.3964877 255 0 255
0.06353279 -0.1209115 0.3945219 255 0 255
0.078151 -0.1159853 0.3836692 255 0 255
0.08546413 -0.1162242 0.383706 255 0 255
0.09648255 -0.1152027 0.3809561 255 0 255
0.09894881 -0.1152179 0.3808334 255 0 255
0.1028885 -0.1154244 0.3810059 255 0 255
0.1043606 -0.1156225 0.3813153 255 0 255
0.1092777 -0.1165994 0.3829867 255 0 255
0.1117954 -0.1165642 0.3827568 255 0 255
0.1197968 -0.1188478 0.386881 255 0 255
0.1274774 -0.1206578 0.3900635 255 0 255
0.1254514 -0.114962 0.3786409 255 0 255
0.04643632 -0.1261501 0.403539 255 0 255
0.05086404 -0.125711 0.402393 255 0 255
0.05598867 -0.1228263 0.3963013 255 0 255
0.06636876 -0.1210727 0.3921482 255 0 255
0.06919936 -0.1202128 0.3902482 255 0 255
0.0709493 -0.1194899 0.3886892 255 0 255
0.07512003 -0.118877 0.3871984 255 0 255
0.08171698 -0.1183235 0.385671 255 0 255
0.08480953 -0.11781 0.3844437 255 0 255
0.09399217 -0.1161716 0.3805648 255 0 255
0.1037706 -0.1172472 0.3820876 255 0 255
0.1067336 -0.1176436 0.3826896 255 0 255
0.1107409 -0.1178089 0.3827578 255 0 255
0.1295488 -0.1212333 0.3883883 255 0 255
0.1264563 -0.1167817 0.3796467 255 0 255
0.1232891 -0.1133843 0.3730293 255 0 255
0.1200655 -0.1099984 0.3664386 255 0 255
0.04504506 -0.1310212 0.4107421 255 0 255
0.04862151 -0.1269588 0.4024601 255 0 255
0.04972782 -0.1268479 0.4021717 255 0 255
0.05110616 -0.1271748 0.402735 255 0 255
0.05703526 -0.1237083 0.3954827 255 0 255
0.06739748 -0.1219317 0.3912953 255 0 255
0.06987169 -0.1206323 0.3885546 255 0 255
0.07368549 -0.1195976 0.3862515 255 0 255
0.07612748 -0.1197118 0.386319 255 0 255
0.08065118 -0.1194863 0.3855741 255 0 255
0.0816854 -0.1193186 0.3851725 255 0 255
0.08232566 -0.1187253 0.3839507 255 0 255
0.08642413 -0.1180312 0.3822986 255 0 255
0.08744442 -0.1178531 0.3818765 255 0 255
0.09193235 -0.117541 0.380955 255 0 255
0.09729739 -0.1180254 0.3815566 255 0 255
0.1052166 -0.1184611 0.3818843 255 0 255
0.1067004 -0.1186608 0.3821802 255 0 255
0.1092123 -0.1186415 0.3819691 255 0 255
0.121758 -0.1215199 0.3868321 255 0 255
0.1279533 -0.1221545 0.3876631 255 0 255
0.1285011 -0.1204565 0.3842415 255 0 255
0.1248218 -0.1155833 0.3747894 255 0 255
0.04535065 -0.1371838 0.4202364 255 0 255
0.04532441 -0.13485 0.4156511 255 0 255
0.04599817 -0.1338547 0.4136524 255 0 255
0.04665545 -0.1328586 0.4116533 255 0 255
0.04766287 -0.1304202 0.4067963 255 0 255
0.04852882 -0.1298671 0.4056542 255 0 255
0.05520864 -0.1272867 0.4001537 255 0 255
0.06161406 -0.124635 0.3945219 255 0 255
0.06803918 -0.1238019 0.3924591 255 0 255
0.07018761 -0.122058 0.3888838 255 0 255
0.07123777 -0.1219085 0.3885192 255 0 255
0.08165262 -0.1203118 0.3846701 255 0 255
0.0853693 -0.1191962 0.382217 255 0 255
0.08884382 -0.1190848 0.381757 255 0 255
0.09522211 -0.1194146 0.3819617 255 0 255
0.09814137 -0.1198632 0.382641 255 0 255
0.1061023 -0.1203025 0.3829431 255 0 255
0.1090886 -0.1207021 0.3835179 255 0 255
0.1116206 -0.1206767 0.3832862 255 0 255
0.1161552 -0.1212332 0.3840576 255 0 255
0.1258133 -0.123715 0.3882553 255 0 255
0.127371 -0.1238733 0.3884542 255 0 255
0.1269046 -0.1192522 0.3793614 255 0 255
0.1247271 -0.1155535 0.3722149 255 0 255
0.122537 -0.1129135 0.3671607 255 0 255
0.04768832 -0.1380617 0.4191207 255 0 255
0.04891824 -0.1336988 0.4105456 255 0 255
0.05047011 -0.1302314 0.4036918 255 0 255
0.05707574 -0.1276152 0.3981593 255 0 255
0.06512523 -0.1256722 0.3938308 255 0 255
0.06727146 -0.1253894 0.3931334 255 0 255
0.06979115 -0.1240751 0.3903979 255 0 255
0.07434531 -0.1224414 0.3868963 255 0 255
0.07680161 -0.1225596 0.3869554 255 0 255
0.07784598 -0.1223982 0.3865674 255 0 255
0.08031091 -0.1225024 0.3865974 255 0 255
0.08676372 -0.1204344 0.3821022 255 0 255
0.09168991 -0.1205582 0.3819892 255 0 255
0.09459163 -0.1210296 0.3826997 255 0 255
0.0960504 -0.1212606 0.3830448 255 0 255
0.1014916 -0.1217314 0.3835667 255 0 255
0.1025233 -0.1215266 0.3830907 255 0 255
0.1040059 -0.1217396 0.3833978 255 0 255
0.1095192 -0.122142 0.3837759 255 0 255
0.113568 -0.1223092 0.3838003 255 0 255
0.1221787 -0.1240357 0.3865294 255 0 255
0.125775 -0.1247796 0.3877124 255 0 255
0.1283864 -0.1246915 0.3873409 255 0 255
0.1257936 -0.1184211 0.3752619 255 0 255
0.04888336 -0.1414101 0.4228457 255 0 255
0.05209763 -0.1320462 0.4045663 255 0 255
0.05294363 -0.1314796 0.4034159 255 0 255
0.06325679 -0.1273987 0.3948311 255 0 255
0.06690358 -0.1259522 0.3917823 255 0 255
0.07431053 -0.123432 0.3863857 255 0 255
0.07781091 -0.1233917 0.3860552 255 0 255
0.0792309 -0.1236648 0.3864803 255 0 255
0.08610556 -0.1220324 0.3828193 255 0 255
0.08713467 -0.1218542 0.3823983 255 0 255
0.1033847 -0.1233866 0.3841424 255 0 255
0.1079827 -0.1229631 0.3829691 255 0 255
0.1135299 -0.1233398 0.3832697 255 0 255
0.1150446 -0.1235308 0.383522 255 0 255
0.1185758 -0.1243181 0.3847727 255 0 255
0.128902 -0.1240234 0.3833846 255 0 255
0.1289017 -0.1229535 0.3813076 255 0 255
0.05032221 -0.1452475 0.4274036 255 0 255
0.05233443 -0.1335333 0.4048764 255 0 255
0.05318432 -0.1329627 0.4037269 255 0 255
0.05707876 -0.1315719 0.4007964 255 0 255
0.06720062 -0.1273991 0.3920921 255 0 255
0.06900041 -0.1266627 0.3905518 255 0 255
0.06972045 -0.1260699 0.3893645 255 0 255
0.07463709 -0.1248628 0.3866915 255 0 255
0.08232339 -0.1241558 0.384762 255 0 255
0.08647149 -0.123458 0.3831094 255 0 255
0.09100849 -0.1231638 0.3821971 255 0 255
0.09683903 -0.1241269 0.3835925 255 0 255
0.09978574 -0.1245892 0.3842494 255 0 255
0.1043828 -0.1241953 0.3831309 255 0 255
0.1088701 -0.1248313 0.3839954 255 0 255
0.1205586 -0.1259606 0.3852232 255 0 255
0.1225931 -0.1265569 0.3862039 255 0 255
0.1293564 -0.1265673 0.3856684 255 0 255
0.05151252 -0.1486647 0.4310819 255 0 255
0.05250819 -0.1480919 0.4299286 255 0 255
0.05216124 -0.1384599 0.4117133 255 0 255
0.05397651 -0.1353641 0.4057215 255 0 255
0.05815022 -0.1324698 0.3999395 255 0 255
0.06501765 -0.1286844 0.3922626 255 0 255
0.06683073 -0.1279508 0.3907371 255 0 255
0.07706276 -0.1259792 0.3862232 255 0 255
0.08058209 -0.1259289 0.3858567 255 0 255
0.0839677 -0.1243617 0.3826164 255 0 255
0.08808716 -0.1236506 0.3809409 255 0 255
0.09055319 -0.1237207 0.3808784 255 0 255
0.1037552 -0.1258498 0.3838637 255 0 255
0.1052478 -0.1260701 0.3841609 255 0 255
0.108248 -0.1265008 0.3847345 255 0 255
0.1133604 -0.1264708 0.3842542 255 0 255
0.1144034 -0.1262443 0.3837358 255 0 255
0.1205167 -0.1270062 0.3846749 255 0 255
0.1236013 -0.1273663 0.3851008 255 0 255
0.0535729 -0.1442522 0.4199255 255 0 255
0.05476688 -0.1377842 0.407701 255 0 255
0.05951809 -0.133821 0.3999123 255 0 255
0.06081644 -0.1321875 0.3967479 255 0 255
0.06269224 -0.1314633 0.3952473 255 0 255
0.06712527 -0.1294005 0.3910356 255 0 255
0.0703328 -0.1289603 0.3899622 255 0 255
0.07351254 -0.1269973 0.3860242 255 0 255
0.07634058 -0.1275797 0.3868984 255 0 255
0.08158961 -0.1267539 0.3849286 255 0 255
0.0826344 -0.1265831 0.3845235 255 0 255
0.08575858 -0.1260593 0.3832861 255 0 255
0.09195937 -0.1249614 0.3807122 255 0 255
0.1062478 -0.1268773 0.3831318 255 0 255
0.1097133 -0.1277402 0.3844658 255 0 255
0.1158819 -0.1274741 0.3834339 255 0 255
0.1235575 -0.1284159 0.3845454 255 0 255
0.1246055 -0.128171 0.3839905 255 0 255
0.1271642 -0.12919 0.385692 255 0 255
0.05552416 -0.1466215 0.4215671 255 0 255
0.05583152 -0.1406865 0.4105075 255 0 255
0.05615065 -0.1391736 0.4076697 255 0 255
0.05757951 -0.1375362 0.4045171 255 0 255
0.06108343 -0.1336601 0.3970392 255 0 255
0.06296673 -0.1329313 0.3955383 255 0 255
0.06374184 -0.1323352 0.3943689 255 0 255
0.06418675 -0.1312798 0.3923694 255 0 255
0.06634264 -0.1309985 0.3916781 255 0 255
0.06994957 -0.129502 0.3886074 255 0 255
0.0706646 -0.128897 0.3874234 255 0 255
0.08088332 -0.1283645 0.3856075 255 0 255
0.08154934 -0.1277455 0.3843982 255 0 255
0.09047288 -0.1256949 0.3798278 255 0 255
0.09671762 -0.1271398 0.3819967 255 0 255
0.1071162 -0.1287669 0.3841402 255 0 255
0.1086219 -0.128986 0.3844185 255 0 255
0.112229 -0.128757 0.3836724 255 0 255
0.1142204 -0.1293965 0.3846933 255 0 255
0.1235123 -0.1294632 0.3839861 255 0 255
0.1276644 -0.1295707 0.3838104 255 0 255
0.06093124 -0.1381877 0.4029811 255 0 255
0.06145458 -0.1371264 0.4009832 255 0 255
0.06165523 -0.1356011 0.3981543 255 0 255
0.06355349 -0.1348668 0.3966509 255 0 255
0.06737779 -0.1318539 0.3907872 255 0 255
0.06918494 -0.1311014 0.3892526 255 0 255
0.07025248 -0.1309524 0.3888912 255 0 255
0.07556705 -0.1301789 0.387028 255 0 255
0.07948273 -0.1306008 0.3874831 255 0 255
0.08189178 -0.1291877 0.3846689 255 0 255
0.08542638 -0.1291174 0.3842396 255 0 255
0.0898167 -0.1273122 0.3805227 255 0 255
0.09271624 -0.1278307 0.3812309 255 0 255
0.09417401 -0.1280851 0.381575 255 0 255
0.1010999 -0.1288664 0.3824124 255 0 255
0.1187679 -0.1310382 0.3848425 255 0 255
0.121363 -0.1309939 0.3845204 255 0 255
0.1270712 -0.1313014 0.3845595 255 0 255
0.1271045 -0.1257758 0.374281 255 0 255
0.05979411 -0.1433655 0.4100707 255 0 255
0.06302968 -0.1369513 0.3980923 255 0 255
0.06397689 -0.1348116 0.3941038 255 0 255
0.06474697 -0.1342068 0.3929357 255 0 255
0.07199014 -0.1311801 0.3868014 255 0 255
0.07731383 -0.1319284 0.3877233 255 0 255
0.08261649 -0.1310909 0.3857349 255 0 255
0.08511684 -0.1311974 0.3857135 255 0 255
0.08851795 -0.1295702 0.3824316 255 0 255
0.09309236 -0.1292724 0.3814791 255 0 255
0.09413002 -0.1290802 0.3810332 255 0 255
0.1000125 -0.1300783 0.3823347 255 0 255
0.1105035 -0.1316976 0.384346 255 0 255
0.1126066 -0.1312499 0.3833262 255 0 255
