ply
format ascii 1.0
Comment Generated by Floating Hands
element vertex 1129
Comment Left: (0.0, 0.0, 0.0)
Comment Right: (0.0, -0.1, 0.4)
Comment Time: 2023-05-01 08:47:10,574
property double x
property double y
property double z
property uchar red
property uchar green
property uchar blue
end_header
-0.01429708 -0.02353722 0.4542485 255 0 255
-0.009927664 -0.0217202 0.4230981 255 0 255
0.001422166 -0.0216696 0.4182684 255 0 255
0.0231384 -0.02191778 0.4204324 255 0 255
0.02453985 -0.02202756 0.4222161 255 0 255
0.04383954 -0.02250199 0.4335581 255 0 255
-0.007854478 -0.02280072 0.4219098 255 0 255
-0.006853344 -0.02275588 0.4208484 255 0 255
-0.00164255 -0.0227823 0.4194673 255 0 255
0.001517269 -0.02282163 0.4191885 255 0 255
0.005725061 -0.02285369 0.4187614 255 0 255
0.006775958 -0.02285804 0.4186448 255 0 255
0.01891701 -0.02308489 0.4210443 255 0 255
0.02209396 -0.02304048 0.4205335 255 0 255
0.02811079 -0.02321004 0.423525 255 0 255
0.03554616 -0.02337288 0.4271399 255 0 255
0.04363361 -0.02360763 0.4325033 255 0 255
0.04473711 -0.02356237 0.4322438 255 0 255
0.04988402 -0.02356398 0.4340645 255 0 255
-0.01336786 -0.02551012 0.4470641 255 0 255
-0.01172948 -0.02443051 0.4310246 255 0 255
-0.002696767 -0.02385236 0.4194753 255 0 255
-0.001561244 -0.02394118 0.4203841 255 0 255
-0.0005032629 -0.02395598 0.4202947 255 0 255
0.003524559 -0.02385472 0.4179127 255 0 255
0.008062354 -0.02409431 0.420427 255 0 255
0.01495725 -0.02437312 0.4235646 255 0 255
0.02900736 -0.02423292 0.4222614 255 0 255
0.03664789 -0.0244782 0.4268256 255 0 255
0.03946588 -0.02461717 0.4292755 255 0 255
0.0449926 -0.02480097 0.4331257 255 0 255
0.04904212 -0.02486577 0.4352211 255 0 255
0.05194085 -0.02423104 0.4282963 255 0 255
-0.01244668 -0.02628183 0.4409526 255 0 255
-0.01072883 -0.02543682 0.4288978 255 0 255
0.004783662 -0.02509844 0.4197054 255 0 255
0.00818201 -0.02526611 0.421334 255 0 255
0.01603531 -0.02547717 0.4233277 255 0 255
0.01695941 -0.02539163 0.4221857 255 0 255
0.01909027 -0.02536961 0.4218634 255 0 255
0.02706825 -0.02547443 0.4235517 255 0 255
0.03281347 -0.0254913 0.4244801 255 0 255
0.03537497 -0.02557756 0.4259896 255 0 255
0.03817724 -0.02573209 0.4284505 255 0 255
0.04478129 -0.02589775 0.4320632 255 0 255
0.05015267 -0.02487655 0.4214621 255 0 255
0.01175389 -0.0266079 0.4238211 255 0 255
0.0128268 -0.02660521 0.4236813 255 0 255
0.01510953 -0.02667611 0.4243768 255 0 255
0.01604232 -0.02658811 0.4232379 255 0 255
0.02122819 -0.02644899 0.4214351 255 0 255
0.02262212 -0.02659382 0.4232258 255 0 255
0.02369272 -0.02657604 0.4230453 255 0 255
0.02690028 -0.02651363 0.4224798 255 0 255
0.02903492 -0.02646453 0.4220827 255 0 255
-0.001484016 -0.0272932 0.4211192 255 0 255
0.003829033 -0.02735493 0.4206285 255 0 255
0.0072356 -0.02754361 0.4222666 255 0 255
0.01068399 -0.02771899 0.4238634 255 0 255
0.01175797 -0.02771793 0.4237275 255 0 255
0.01296226 -0.02780007 0.4245754 255 0 255
0.02779577 -0.02752072 0.4212082 255 0 255
0.03412124 -0.02779761 0.4250467 255 0 255
0.04017019 -0.02786469 0.4268023 255 0 255
0.04948202 -0.02811562 0.4317489 255 0 255
0.05033445 -0.02798052 0.430503 255 0 255
-0.008671172 -0.02867438 0.4265181 255 0 255
0.00734854 -0.02873343 0.4231597 255 0 255
0.04570827 -0.02926347 0.4305266 255 0 255
0.0470494 -0.02930121 0.431226 255 0 255
0.04839696 -0.02933702 0.4319195 255 0 255
-0.007766686 -0.02953517 0.4233724 255 0 255
-0.001490385 -0.02947676 0.4209253 255 0 255
-0.000426053 -0.02949242 0.4208348 255 0 255
0.0006379138 -0.02950655 0.4207404 255 0 255
0.007348944 -0.02983794 0.4230585 255 0 255
0.01068863 -0.02993714 0.4236637 255 0 255
0.01634289 -0.03010287 0.4249139 255 0 255
0.03227014 -0.02972308 0.4211557 255 0 255
0.05070938 -0.02998793 0.4271125 255 0 255
-0.009838348 -0.0329373 0.448305 255 0 255
-0.009219779 -0.03191737 0.4373094 255 0 255
-0.007658096 -0.03082459 0.4252565 255 0 255
-0.005691414 -0.03058539 0.4221376 255 0 255
0.00627495 -0.03093649 0.4230726 255 0 255
0.008537246 -0.03104227 0.4238178 255 0 255
0.01634651 -0.03121947 0.4248061 255 0 255
0.02281919 -0.03114587 0.423801 255 0 255
0.03631887 -0.03111878 0.4242755 255 0 255
0.03912918 -0.0313293 0.4267209 255 0 255
0.04152942 -0.03134264 0.4272009 255 0 255
-0.004558637 -0.03180112 0.4229477 255 0 255
0.001880125 -0.0319022 0.4224114 255 0 255
0.01069 -0.03215301 0.4234467 255 0 255
0.01649164 -0.032436 0.4256788 255 0 255
0.01851037 -0.03231724 0.4243749 255 0 255
0.02282497 -0.03226231 0.4236882 255 0 255
-0.00557505 -0.03297973 0.4239033 255 0 255
-0.002417441 -0.03293836 0.4226725 255 0 255
0.001875702 -0.03300031 0.4222984 255 0 255
0.004120301 -0.03312653 0.4230768 255 0 255
0.0217517 -0.03339414 0.423749 255 0 255
0.0226646 -0.03327396 0.4225904 255 0 255
0.04822285 -0.03390764 0.4304829 255 0 255
0.0494218 -0.03339658 0.4260754 255 0 255
-0.007106104 -0.03521408 0.4348437 255 0 255
-0.003425902 -0.03412366 0.4236307 255 0 255
-0.002347459 -0.03414321 0.4235468 255 0 255
0.0008859059 -0.03419265 0.4232709 255 0 255
0.001963 -0.03420606 0.4231708 255 0 255
0.005295974 -0.03434541 0.4238353 255 0 255
0.01189209 -0.03447442 0.4240619 255 0 255
0.01445626 -0.03479424 0.4267303 255 0 255
0.02083356 -0.03463194 0.4247831 255 0 255
0.02191669 -0.03461749 0.4246086 255 0 255
0.02714144 -0.03441424 0.4226977 255 0 255
0.03124128 -0.03420281 0.4209068 255 0 255
0.03357988 -0.03424909 0.4214495 255 0 255
0.04859732 -0.03470168 0.4271883 255 0 255
0.006479055 -0.03557034 0.4245836 255 0 255
0.01554663 -0.03591107 0.4264538 255 0 255
0.01866653 -0.03577437 0.4249944 255 0 255
0.02283699 -0.03560799 0.423324 255 0 255
0.02391545 -0.03559058 0.4231419 255 0 255
0.02929683 -0.0354802 0.4221713 255 0 255
0.03144398 -0.0354252 0.4217549 255 0 255
0.03486565 -0.03544217 0.4220725 255 0 255
0.0413543 -0.03580572 0.4257372 255 0 255
0.04886011 -0.0359612 0.4280187 255 0 255
0.04945239 -0.03568938 0.4258164 255 0 255
0.05060602 -0.03465153 0.4172914 255 0 255
-0.005758783 -0.03798761 0.4384829 255 0 255
-0.002132869 -0.0366905 0.4262703 255 0 255
0.001049372 -0.03662538 0.4250013 255 0 255
0.005493999 -0.03678754 0.4255608 255 0 255
0.008756556 -0.03680569 0.4251958 255 0 255
0.01201484 -0.03680977 0.4247944 255 0 255
0.01336167 -0.03704065 0.4266216 255 0 255
0.02283923 -0.03672196 0.4231939 255 0 255
0.03056835 -0.03668319 0.4228089 255 0 255
0.03359495 -0.03647827 0.4211915 255 0 255
0.04997062 -0.03706118 0.4276022 255 0 255
-0.003771033 -0.03871632 0.4342284 255 0 255
-0.0008895416 -0.0380596 0.4280285 255 0 255
0.001129868 -0.03785257 0.4258587 255 0 255
0.02005986 -0.03823803 0.4265247 255 0 255
0.02300589 -0.03795516 0.4240385 255 0 255
0.02392 -0.03781793 0.4228773 255 0 255
0.02823044 -0.03773306 0.4221078 255 0 255
-0.003366948 -0.04059878 0.4400285 255 0 255
0.0001994978 -0.039195 0.4277974 255 0 255
0.001209524 -0.0390869 0.4267108 255 0 255
0.003301641 -0.03898977 0.4255152 255 0 255
0.01226126 -0.03928236 0.426492 255 0 255
0.02500012 -0.03891177 0.422552 255 0 255
0.02715631 -0.03886944 0.4221671 255 0 255
0.03165528 -0.03888918 0.4223221 255 0 255
0.04332599 -0.03900732 0.4238485 255 0 255
0.04755298 -0.0393496 0.4269079 255 0 255
0.05143652 -0.0378125 0.4156386 255 0 255
0.006777806 -0.04038471 0.4270044 255 0 255
0.03381395 -0.03994401 0.4217431 255 0 255
0.0396316 -0.04001573 0.42252 255 0 255
0.04310058 -0.04001325 0.422737 255 0 255
-0.001252709 -0.04270766 0.4375783 255 0 255
0.002561624 -0.04172351 0.4292831 255 0 255
0.003571908 -0.04160472 0.4281891 255 0 255
0.01127822 -0.04165128 0.427325 255 0 255
0.02607968 -0.04111487 0.4220707 255 0 255
0.03811943 -0.0409179 0.4206765 255 0 255
0.03941502 -0.0410088 0.4214033 255 0 255
0.04049113 -0.0409677 0.421159 255 0 255
0.05359893 -0.04105229 0.4229845 255 0 255
0.05413898 -0.04073533 0.4207794 255 0 255
0.007083687 -0.04302683 0.4296616 255 0 255
0.01040954 -0.04304248 0.4292759 255 0 255
0.02223966 -0.04270411 0.4255904 255 0 255
0.02625562 -0.04236097 0.4228937 255 0 255
0.02823635 -0.04218028 0.4215252 255 0 255
0.02931394 -0.04215527 0.4213224 255 0 255
0.04157197 -0.0420437 0.4207565 255 0 255
0.006067556 -0.04428588 0.43061 255 0 255
0.0170415 -0.04415912 0.4282356 255 0 255
0.01910045 -0.04400251 0.4269296 255 0 255
0.02223611 -0.04382559 0.425433 255 0 255
0.02823557 -0.04329025 0.4213688 255 0 255
0.04902214 -0.04341897 0.422855 255 0 255
0.05036232 -0.04350093 0.4235318 255 0 255
0.006367666 -0.04584785 0.4334009 255 0 255
0.01592897 -0.04529315 0.4282308 255 0 255
0.01799388 -0.04513603 0.4269328 255 0 255
0.01909465 -0.04512693 0.4267676 255 0 255
0.02425056 -0.04477021 0.4239303 255 0 255
0.02625132 -0.04458791 0.4225759 255 0 255
0.03254309 -0.04429022 0.4203722 255 0 255
0.03726854 -0.04444001 0.4214049 255 0 255
0.04552773 -0.04456458 0.4225457 255 0 255
0.05255733 -0.04390346 0.4186841 255 0 255
0.005001702 -0.05019704 0.45524 255 0 255
0.005828043 -0.04786437 0.4392553 255 0 255
0.02949838 -0.04563009 0.4218112 255 0 255
0.0428928 -0.04549618 0.4209763 255 0 255
0.0479482 -0.04573637 0.4227954 255 0 255
0.04878166 -0.04553866 0.4215623 255 0 255
0.05120284 -0.04557219 0.4219544 255 0 255
0.00870689 -0.04829888 0.4337939 255 0 255
0.02002773 -0.04721138 0.4252847 255 0 255
0.03146352 -0.04653632 0.4202524 255 0 255
0.03361665 -0.04647537 0.419818 255 0 255
0.03597737 -0.04655823 0.4203337 255 0 255
0.03813116 -0.04648421 0.4198658 255 0 255
0.04289502 -0.04661563 0.420804 255 0 255
0.04903866 -0.04681423 0.4223446 255 0 255
0.05337335 -0.0465853 0.4211989 255 0 255
0.05445417 -0.04652399 0.4209024 255 0 255
0.05608388 -0.04675566 0.4225022 255 0 255
0.00820839 -0.05036828 0.4396355 255 0 255
0.01590227 -0.04867265 0.4277181 255 0 255
0.02641481 -0.04807763 0.423039 255 0 255
0.03146041 -0.04764335 0.4200785 255 0 255
0.0379121 -0.04744125 0.4187272 255 0 255
0.04662232 -0.04789644 0.4217573 255 0 255
0.04770647 -0.04784503 0.4214858 255 0 255
0.0536461 -0.0478668 0.4219712 255 0 255
0.05578267 -0.04707319 0.4172729 255 0 255
0.01491798 -0.04996081 0.4286705 255 0 255
0.01796022 -0.04962548 0.4262419 255 0 255
0.0234664 -0.04956521 0.425373 255 0 255
0.03597365 -0.04877935 0.4199798 255 0 255
0.04904456 -0.04907376 0.4219826 255 0 255
0.0121797 -0.05190659 0.4338195 255 0 255
0.01318635 -0.05174448 0.4326964 255 0 255
0.02565653 -0.05065042 0.4248126 255 0 255
0.02675475 -0.05063025 0.4246185 255 0 255
0.03252967 -0.04982532 0.4195027 255 0 255
0.04746071 -0.04993476 0.4201614 255 0 255
0.03661574 -0.05062949 0.4174515 255 0 255
0.04613397 -0.05094157 0.4192863 255 0 255
0.04721189 -0.05089038 0.4190164 255 0 255
0.0555171 -0.05025925 0.4157682 255 0 255
0.0202864 -0.05313616 0.4263155 255 0 255
0.02139275 -0.0531243 0.4261408 255 0 255
0.02233721 -0.05293986 0.42499 255 0 255
0.02765561 -0.05267706 0.4230695 255 0 255
0.037682 -0.0516917 0.4170262 255 0 255
0.04111933 -0.05173825 0.4172569 255 0 255
0.04349787 -0.05181692 0.4177069 255 0 255
0.04588753 -0.05188839 0.4181375 255 0 255
0.04721089 -0.05200556 0.4188223 255 0 255
0.05121971 -0.05234488 0.4208415 255 0 255
0.05256882 -0.05245392 0.4215025 255 0 255
0.01361363 -0.05918882 0.454874 255 0 255
0.01737583 -0.05480827 0.4295409 255 0 255
0.01820438 -0.05445152 0.4274292 255 0 255
0.02342727 -0.05404284 0.4246107 255 0 255
0.02637475 -0.05363859 0.4221019 255 0 255
0.02908159 -0.05304604 0.4185985 255 0 255
0.03231107 -0.05296251 0.4179655 255 0 255
0.03574399 -0.05303795 0.4182588 255 0 255
0.04696007 -0.05294771 0.4176708 255 0 255
0.05360489 -0.04864651 0.3943787 255 0 255
0.02727515 -0.05454829 0.420737 255 0 255
0.03142241 -0.05426805 0.4189462 255 0 255
0.03337814 -0.05402949 0.4175478 255 0 255
0.03659878 -0.05392643 0.416867 255 0 255
0.04194847 -0.05372201 0.4156533 255 0 255
0.04803139 -0.05400441 0.4171958 255 0 255
0.05607859 -0.05393738 0.4170623 255 0 255
0.05686885 -0.0536968 0.4158122 255 0 255
0.01786116 -0.06621869 0.478664 255 0 255
0.02119689 -0.05630459 0.4245646 255 0 255
0.02213886 -0.05610874 0.4234162 255 0 255
0.02617595 -0.05567453 0.4207298 255 0 255
0.03744497 -0.05480483 0.4154698 255 0 255
0.05742599 -0.0530042 0.4062102 255 0 255
0.0166212 -0.05876727 0.4319957 255 0 255
0.01732933 -0.05820244 0.4289171 255 0 255
0.02524691 -0.05698441 0.4216816 255 0 255
0.02707165 -0.05657093 0.419359 255 0 255
0.03032088 -0.05649717 0.4187468 255 0 255
0.04324164 -0.05605386 0.4159408 255 0 255
0.05500109 -0.056233 0.4169446 255 0 255
0.05714954 -0.05610144 0.4163348 255 0 255
0.01862971 -0.06620083 0.4641981 255 0 255
0.02320905 -0.05831593 0.4228114 255 0 255
0.02832699 -0.05783711 0.4199115 255 0 255
0.03528871 -0.05706216 0.4155165 255 0 255
0.04883578 -0.0570854 0.4153388 255 0 255
0.05150146 -0.05734529 0.416667 255 0 255
0.05929145 -0.05707688 0.4154924 255 0 255
0.05868692 -0.05383164 0.3992434 255 0 255
0.01893319 -0.06610626 0.4569767 255 0 255
0.02130766 -0.0598418 0.4248906 255 0 255
0.02302875 -0.05923139 0.4216266 255 0 255
0.03137872 -0.05866687 0.4181064 255 0 255
0.03420673 -0.05818695 0.4155278 255 0 255
0.04725357 -0.05785904 0.4134998 255 0 255
0.05337416 -0.05814291 0.4149192 255 0 255
0.05957865 -0.05837877 0.4162093 255 0 255
0.05753173 -0.05349256 0.3921914 255 0 255
0.01959613 -0.06654967 0.4526752 255 0 255
0.02503042 -0.06010404 0.4200649 255 0 255
0.03156093 -0.05996166 0.4188465 255 0 255
0.03633719 -0.0592065 0.4148515 255 0 255
0.0374071 -0.05916898 0.4146171 255 0 255
0.04061133 -0.05904649 0.4138903 255 0 255
0.0530972 -0.05905318 0.413753 255 0 255
0.05443811 -0.05918427 0.4143986 255 0 255
0.0584987 -0.05956487 0.4162992 255 0 255
0.05957482 -0.05949434 0.4159831 255 0 255
0.05969018 -0.05585686 0.3985055 255 0 255
0.02484163 -0.06100228 0.4188758 255 0 255
0.02592847 -0.06098285 0.4186832 255 0 255
0.03331193 -0.06059897 0.4162662 255 0 255
0.03438865 -0.06056629 0.4160427 255 0 255
0.0395331 -0.06017763 0.4139127 255 0 255
0.04461613 -0.05974909 0.4116935 255 0 255
0.04804561 -0.0597913 0.4118333 255 0 255
0.04936499 -0.0599343 0.4125009 255 0 255
0.05281923 -0.0599547 0.4125841 255 0 255
0.05443171 -0.06028769 0.4141707 255 0 255
0.02007733 -0.06465 0.4313243 255 0 255
0.0248244 -0.06209746 0.4186473 255 0 255
0.02591161 -0.0620781 0.4184547 255 0 255
0.02699806 -0.06205703 0.4182581 255 0 255
0.02808379 -0.06203431 0.4180576 255 0 255
0.03437474 -0.06165785 0.4158143 255 0 255
0.03738251 -0.06134535 0.4141656 255 0 255
0.03952106 -0.06126528 0.4136848 255 0 255
0.04354576 -0.0608817 0.4117271 255 0 255
0.04803649 -0.06087863 0.4116049 255 0 255
0.04909629 -0.06082285 0.4113274 255 0 255
0.05281151 -0.06104949 0.4123537 255 0 255
0.03456665 -0.06295715 0.4165375 255 0 255
0.03843892 -0.06239285 0.4136951 255 0 255
0.03950809 -0.06235198 0.4134526 255 0 255
0.04777028 -0.06175831 0.4104279 255 0 255
0.06033918 -0.06255828 0.414025 255 0 255
0.02587518 -0.06426555 0.417985 255 0 255
0.02932203 -0.06441069 0.4183417 255 0 255
0.04139702 -0.06313924 0.4117703 255 0 255
0.04352178 -0.0630461 0.4112597 255 0 255
0.05385663 -0.06317303 0.4115852 255 0 255
0.05761271 -0.06339147 0.4125465 255 0 255
0.02712298 -0.06555397 0.4185064 255 0 255
0.02821361 -0.06553127 0.4183049 255 0 255
0.0345341 -0.06514302 0.416058 255 0 255
0.03733859 -0.06460246 0.4134571 255 0 255
0.04456961 -0.06407766 0.4107586 255 0 255
0.06370715 -0.06006138 0.3929799 255 0 255
0.02837737 -0.06684726 0.4190164 255 0 255
0.03254985 -0.06651871 0.4172123 255 0 255
0.0345164 -0.06623439 0.415812 255 0 255
0.03538747 -0.06597976 0.4146309 255 0 255
0.0383932 -0.06564686 0.4129738 255 0 255
0.06322042 -0.06543473 0.4113763 255 0 255
0.06402792 -0.061306 0.393666 255 0 255
0.02541283 -0.06845803 0.4212781 255 0 255
0.02634135 -0.06821373 0.420124 255 0 255
0.03054457 -0.06789465 0.4183481 255 0 255
0.0366605 -0.0672541 0.4151004 255 0 255
0.04241567 -0.06633253 0.410785 255 0 255
0.04535302 -0.06596246 0.4090583 255 0 255
0.06214446 -0.06661258 0.4114518 255 0 255
0.02573373 -0.07002001 0.4229372 255 0 255
0.02649465 -0.06954304 0.420825 255 0 255
0.03052356 -0.0689915 0.4180921 255 0 255
0.03468472 -0.06864195 0.4162589 255 0 255
0.04049887 -0.06772736 0.4119825 255 0 255
0.0508761 -0.0669825 0.4083643 255 0 255
0.05220187 -0.06714656 0.4090117 255 0 255
0.06076824 -0.06756444 0.4105908 255 0 255
0.06426483 -0.0675547 0.4105297 255 0 255
0.06607536 -0.0671687 0.4089282 255 0 255
0.06699041 -0.06461347 0.3983528 255 0 255
0.02512319 -0.07349231 0.4326421 255 0 255
0.03069266 -0.07031956 0.4187857 255 0 255
0.03575047 -0.06969938 0.4157697 255 0 255
0.03792036 -0.06962512 0.4152985 255 0 255
0.04070979 -0.06903881 0.4126709 255 0 255
0.04556906 -0.06833874 0.409492 255 0 255
0.04637757 -0.06805611 0.4082828 255 0 255
0.04743328 -0.06800195 0.4080108 255 0 255
0.05059395 -0.06782939 0.4071715 255 0 255
0.05833347 -0.0685778 0.4100375 255 0 255
0.0663249 -0.0644587 0.3931762 255 0 255
0.02673688 -0.07700658 0.441942 255 0 255
0.02773093 -0.07196392 0.4210524 255 0 255
0.03464272 -0.07082485 0.4157356 255 0 255
0.03876221 -0.07044113 0.4138466 255 0 255
0.04448954 -0.06946509 0.4094967 255 0 255
0.0495252 -0.06895979 0.4071951 255 0 255
0.0503109 -0.06866751 0.4059763 255 0 255
0.05562438 -0.06934288 0.4085311 255 0 255
0.05696862 -0.06950631 0.4091548 255 0 255
0.05908922 -0.0693639 0.408529 255 0 255
0.06405676 -0.0687481 0.405975 255 0 255
0.06752085 -0.06872621 0.4058715 255 0 255
0.06758819 -0.06795251 0.4027712 255 0 255
0.06377321 -0.06158931 0.377311 255 0 255
0.03064592 -0.07251544 0.4182509 255 0 255
0.03264246 -0.07221828 0.4168657 255 0 255
0.03373492 -0.07218707 0.4166431 255 0 255
0.04950791 -0.0700299 0.406931 255 0 255
0.05907428 -0.0704486 0.4082608 255 0 255
0.06119055 -0.07029913 0.4076194 255 0 255
0.02744796 -0.07541412 0.4254755 255 0 255
0.03459701 -0.07300326 0.4151956 255 0 255
0.03655681 -0.07268933 0.4137858 255 0 255
0.03849777 -0.07236902 0.4123634 255 0 255
0.04576132 -0.07180298 0.4096357 255 0 255
0.04843514 -0.07115664 0.4069428 255 0 255
0.04948965 -0.07109889 0.4066628 255 0 255
0.05319558 -0.07139598 0.4076623 255 0 255
0.05982033 -0.07121944 0.4067452 255 0 255
0.06117518 -0.07138246 0.407347 255 0 255
0.06929991 -0.069681 0.4006205 255 0 255
0.02794628 -0.07727961 0.4280495 255 0 255
0.02801161 -0.07577097 0.4221304 255 0 255
0.03457276 -0.07409073 0.4149193 255 0 255
0.05317711 -0.07247126 0.4073879 255 0 255
0.05691871 -0.07275766 0.4083381 255 0 255
0.02946617 -0.07736047 0.4235388 255 0 255
0.0309501 -0.07630347 0.419315 255 0 255
0.03296414 -0.0759946 0.4179292 255 0 255
0.03584521 -0.07539341 0.4153539 255 0 255
0.03780846 -0.07506821 0.413937 255 0 255
0.04106112 -0.07494369 0.4131997 255 0 255
0.0486543 -0.07354006 0.4073274 255 0 255
0.04971321 -0.07348201 0.4070465 255 0 255
0.05077101 -0.07342222 0.4067616 255 0 255
0.05527285 -0.0734134 0.4065108 255 0 255
0.06504666 -0.07297968 0.4045439 255 0 255
0.06818729 -0.0727218 0.4035105 255 0 255
0.07094266 -0.06973911 0.3922875 255 0 255
0.07008949 -0.06761435 0.3843393 255 0 255
0.0292076 -0.07977644 0.4282051 255 0 255
0.03092243 -0.07740383 0.4190266 255 0 255
0.03383651 -0.07680485 0.4164716 255 0 255
0.0388687 -0.07611357 0.4134103 255 0 255
0.04103681 -0.07602877 0.4129146 255 0 255
0.0467627 -0.0749736 0.4085308 255 0 255
0.05871088 -0.07452549 0.406224 255 0 255
0.06397951 -0.07413788 0.404597 255 0 255
0.06712507 -0.07388467 0.4035749 255 0 255
0.06954566 -0.07395487 0.4037853 255 0 255
0.07197489 -0.07151268 0.3947267 255 0 255
0.07192767 -0.07067876 0.3916521 255 0 255
0.06982818 -0.06695793 0.3779604 255 0 255
0.03538182 -0.0918256 0.4680022 255 0 255
0.03667045 -0.07727533 0.4136012 255 0 255
0.04806015 -0.07624743 0.4089022 255 0 255
0.05126129 -0.07607155 0.408053 255 0 255
0.05205571 -0.07575372 0.4068339 255 0 255
0.05338985 -0.07594564 0.4074674 255 0 255
0.05628844 -0.07548901 0.4056363 255 0 255
0.06110311 -0.0757042 0.4062161 255 0 255
0.06185664 -0.07537281 0.4049714 255 0 255
0.06847997 -0.0751224 0.4038496 255 0 255
0.07367478 -0.07296001 0.3958844 255 0 255
0.07433503 -0.07261114 0.394612 255 0 255
0.03124762 -0.08173068 0.4262235 255 0 255
0.03255419 -0.08036133 0.4210552 255 0 255
0.03347437 -0.08006869 0.4198872 255 0 255
0.03576468 -0.07865666 0.4144842 255 0 255
0.03751285 -0.07805792 0.4121297 255 0 255
0.04696662 -0.07737739 0.408886 255 0 255
0.04803612 -0.07732216 0.4086106 255 0 255
0.05309309 -0.0767607 0.4062496 255 0 255
0.06741123 -0.07628731 0.4039061 255 0 255
0.07089131 -0.07627163 0.4037535 255 0 255
0.0726478 -0.07582775 0.4021203 255 0 255
0.04479859 -0.07855627 0.4091296 255 0 255
0.05306955 -0.07783006 0.4059547 255 0 255
0.06211907 -0.07777973 0.4052994 255 0 255
0.03379074 -0.08777162 0.4388238 255 0 255
0.03452731 -0.08224439 0.4190492 255 0 255
0.04070153 -0.08008774 0.4107975 255 0 255
0.04534898 -0.07904015 0.4067002 255 0 255
0.04879519 -0.07914313 0.4068077 255 0 255
0.05410464 -0.0788326 0.4053582 255 0 255
0.07085174 -0.0784278 0.4031528 255 0 255
0.0770329 -0.07606675 0.39478 255 0 255
0.03420432 -0.08614948 0.4286072 255 0 255
0.03417197 -0.08447412 0.4227293 255 0 255
0.03469716 -0.08362015 0.4196779 255 0 255
0.03540376 -0.08303887 0.4175666 255 0 255
0.03588496 -0.08218254 0.4145158 255 0 255
0.03676829 -0.08187239 0.4133419 255 0 255
0.0378599 -0.08183421 0.4131028 255 0 255
0.04090083 -0.08143591 0.4114273 255 0 255
0.04198488 -0.08139077 0.4111733 255 0 255
0.04983294 -0.08015164 0.4062226 255 0 255
0.06176907 -0.07965954 0.4037788 255 0 255
0.06387553 -0.079498 0.4031163 255 0 255
0.0649268 -0.07941461 0.4027794 255 0 255
0.06629559 -0.07959697 0.4033479 255 0 255
0.06734788 -0.07950979 0.4030021 255 0 255
0.07397736 -0.0792153 0.4017482 255 0 255
0.03475115 -0.08812181 0.431103 255 0 255
0.03506722 -0.08527994 0.4212393 255 0 255
0.04109899 -0.0827904 0.4120508 255 0 255
0.04340178 -0.08154368 0.4075514 255 0 255
0.04529329 -0.08116599 0.4060928 255 0 255
0.04874092 -0.08127628 0.4061979 255 0 255
0.06038901 -0.08053362 0.4028819 255 0 255
0.07290777 -0.08038788 0.4018075 255 0 255
0.07604688 -0.08008809 0.4006867 255 0 255
0.07576495 -0.07401511 0.380199 255 0 255
0.03932913 -0.08451778 0.414102 255 0 255
0.03997851 -0.08391416 0.4119868 255 0 255
0.04277216 -0.08321745 0.4093608 255 0 255
0.04790107 -0.08267736 0.4070911 255 0 255
0.0596063 -0.08195045 0.4038053 255 0 255
0.06036325 -0.08159727 0.4025706 255 0 255
0.06351523 -0.08135763 0.401586 255 0 255
0.07650986 -0.07398817 0.3764966 255 0 255
0.04297642 -0.08457278 0.4099731 255 0 255
0.06138863 -0.08258136 0.4019308 255 0 255
0.07009241 -0.08216983 0.4001003 255 0 255
0.07251953 -0.0822563 0.4002756 255 0 255
0.07394101 -0.0724139 0.3678985 255 0 255
0.0364985 -0.08915174 0.4218922 255 0 255
0.03679644 -0.08796037 0.4179154 255 0 255
0.03770044 -0.08763442 0.4167415 255 0 255
0.05078182 -0.08434665 0.404684 255 0 255
0.05925487 -0.08379725 0.4022564 255 0 255
0.06346207 -0.08348025 0.4009512 255 0 255
0.06451068 -0.0833966 0.4006154 255 0 255
0.07215349 -0.08304255 0.3990567 255 0 255
0.07458263 -0.0831247 0.3992132 255 0 255
0.08051053 -0.08315385 0.3990713 255 0 255
0.08109711 -0.08181988 0.3947321 255 0 255
0.04806261 -0.08616576 0.4070527 255 0 255
0.06448276 -0.08445578 0.4002919 255 0 255
0.06625427 -0.08399682 0.3987066 255 0 255
0.07316868 -0.08400616 0.3983648 255 0 255
0.03938901 -0.09067293 0.4186186 255 0 255
0.04637065 -0.08793256 0.4091189 255 0 255
0.05284484 -0.08633945 0.4034493 255 0 255
0.05679511 -0.08577158 0.4013236 255 0 255
0.05995013 -0.08554711 0.4003765 255 0 255
0.07071974 -0.08497296 0.3978705 255 0 255
0.07175923 -0.08487667 0.3975084 255 0 255
0.07557222 -0.08515154 0.3981816 255 0 255
0.08207241 -0.08381722 0.3936822 255 0 255
0.08195251 -0.0828496 0.3906395 255 0 255
0.03956737 -0.0920765 0.4192027 255 0 255
0.04666926 -0.08805592 0.4057451 255 0 255
0.05174945 -0.0874617 0.4034118 255 0 255
0.05570921 -0.08689655 0.4013014 255 0 255
0.05676353 -0.08682516 0.4009933 255 0 255
0.06547166 -0.0864843 0.3992933 255 0 255
0.06931696 -0.08583058 0.3970011 255 0 255
0.07139034 -0.0856401 0.3962831 255 0 255
0.07762527 -0.08600362 0.3970847 255 0 255
0.08255307 -0.08348781 0.3890322 255 0 255
0.07347455 -0.0729018 0.3565288 255 0 255
0.04111139 -0.0921877 0.4155671 255 0 255
0.04460517 -0.09078703 0.4108261 255 0 255
0.04770646 -0.08906064 0.4051328 255 0 255
0.05171559 -0.08851817 0.4030764 255 0 255
0.06439259 -0.08762527 0.3992973 255 0 255
0.06720762 -0.08706496 0.3973697 255 0 255
0.08033758 -0.08644211 0.3946923 255 0 255
0.08342316 -0.08609804 0.3934904 255 0 255
0.08198146 -0.08155746 0.3796326 255 0 255
0.04430552 -0.1048267 0.4505549 255 0 255
0.0470983 -0.09078757 0.4069052 255 0 255
0.04874204 -0.09006207 0.4045126 255 0 255
0.05564251 -0.08899985 0.4006287 255 0 255
0.06821687 -0.08802337 0.3966818 255 0 255
0.07860567 -0.08801515 0.3960179 255 0 255
0.08490066 -0.08561561 0.388427 255 0 255
0.04302924 -0.09397091 0.4134211 255 0 255
0.04476791 -0.09325204 0.4110491 255 0 255
0.04788751 -0.09148698 0.405364 255 0 255
0.05377064 -0.09049562 0.4018016 255 0 255
0.0629668 -0.08951012 0.3980499 255 0 255
0.06714375 -0.08916268 0.396689 255 0 255
0.07510266 -0.08909049 0.3959361 255 0 255
0.07961239 -0.08896251 0.3952813 255 0 255
0.08502767 -0.08766761 0.3911137 255 0 255
0.08526374 -0.08695041 0.3889584 255 0 255
0.07808127 -0.07674914 0.3588449 255 0 255
0.0423307 -0.09735105 0.4200366 255 0 255
0.05507576 -0.091791 0.4020603 255 0 255
0.05978535 -0.09079972 0.3986847 255 0 255
0.06606779 -0.09029914 0.3966885 255 0 255
0.06848018 -0.09042595 0.3968859 255 0 255
0.07160616 -0.09013984 0.395811 255 0 255
0.07436816 -0.08953179 0.3938175 255 0 255
0.08645584 -0.08714113 0.3860482 255 0 255
0.04274525 -0.09746193 0.4166419 255 0 255
0.04340909 -0.09677867 0.4145393 255 0 255
0.04516446 -0.09604403 0.4121685 255 0 255
0.04578703 -0.09535682 0.410063 255 0 255
0.05129992 -0.09374227 0.4047172 255 0 255
0.0523763 -0.09367851 0.4044239 255 0 255
0.0534515 -0.09361289 0.4041267 255 0 255
0.08779308 -0.09012346 0.391318 255 0 255
0.08903374 -0.08926061 0.3887387 255 0 255
0.08737408 -0.08627423 0.3801322 255 0 255
0.04382763 -0.09851339 0.4160067 255 0 255
0.04512271 -0.0971275 0.4118017 255 0 255
0.04574578 -0.09643279 0.4096988 255 0 255
0.04827741 -0.09530424 0.4061273 255 0 255
0.05421057 -0.09428649 0.4025598 255 0 255
0.06119979 -0.09209615 0.3955346 255 0 255
0.06224047 -0.09201393 0.3952062 255 0 255
0.06567585 -0.09207267 0.3950912 255 0 255
0.06808138 -0.09220695 0.3952886 255 0 255
0.07568678 -0.09182727 0.3936188 255 0 255
0.04467426 -0.09923594 0.4144471 255 0 255
0.04680206 -0.09745364 0.4090565 255 0 255
0.04765011 -0.0970735 0.4078663 255 0 255
0.04957713 -0.09663303 0.4063904 255 0 255
0.05937537 -0.09361274 0.3967231 255 0 255
0.06324271 -0.0929654 0.3945183 255 0 255
0.0718408 -0.09359885 0.3956297 255 0 255
0.07977782 -0.0924346 0.3917151 255 0 255
0.08935775 -0.0898429 0.3837325 255 0 255
0.05279202 -0.09751055 0.4051458 255 0 255
0.05440593 -0.09672233 0.4027354 255 0 255
0.05598488 -0.09592866 0.4003183 255 0 255
0.06424302 -0.09391335 0.3938227 255 0 255
0.07493007 -0.09434117 0.3941529 255 0 255
0.07974216 -0.09347707 0.3913519 255 0 255
0.08179644 -0.09324716 0.3905577 255 0 255
0.0866675 -0.09339833 0.3906541 255 0 255
0.0903541 -0.09257028 0.3880928 255 0 255
0.08821716 -0.08658547 0.3714299 255 0 255
0.04573451 -0.1065113 0.4279443 255 0 255
0.04856026 -0.1005387 0.4107587 255 0 255
0.05109992 -0.0993643 0.4071721 255 0 255
0.05274941 -0.09857412 0.4047717 255 0 255
0.05929626 -0.09568775 0.3959971 255 0 255
0.06556212 -0.09518495 0.3940084 255 0 255
0.07904087 -0.09495348 0.3922496 255 0 255
0.06688637 -0.09645973 0.3941814 255 0 255
0.0731188 -0.09587808 0.3920289 255 0 255
0.07450284 -0.09610296 0.3925345 255 0 255
0.07518478 -0.09566975 0.3912818 255 0 255
0.07796753 -0.09610818 0.3922664 255 0 255
0.08032336 -0.09511729 0.3893497 255 0 255
0.09349553 -0.09347088 0.3838996 255 0 255
0.09322785 -0.09237348 0.3809112 255 0 255
0.04612604 -0.1077275 0.4241144 255 0 255
0.04896631 -0.1033781 0.4117993 255 0 255
0.05236819 -0.1017774 0.407016 255 0 255
0.05720888 -0.09933338 0.3997859 255 0 255
0.05904669 -0.0988446 0.398257 255 0 255
0.07030379 -0.09754638 0.393629 255 0 255
0.07514514 -0.09670486 0.3909081 255 0 255
0.08028462 -0.09615135 0.3889761 255 0 255
0.08195 -0.09558867 0.3873129 255 0 255
0.09361483 -0.09371604 0.3813892 255 0 255
0.09172828 -0.09053503 0.3729052 255 0 255
0.04698637 -0.1066904 0.4176915 255 0 255
0.05666218 -0.1011365 0.401508 255 0 255
0.06036137 -0.1001495 0.3984464 255 0 255
0.06575923 -0.09862213 0.393775 255 0 255
0.06751796 -0.09810084 0.3921976 255 0 255
0.07028732 -0.09747614 0.3902524 255 0 255
0.07855793 -0.09774517 0.3902515 255 0 255
0.08612649 -0.09724625 0.3882938 255 0 255
0.08856756 -0.09732207 0.3883093 255 0 255
0.09360515 -0.09124255 0.3716659 255 0 255
0.09506658 -0.09063158 0.369939 255 0 255
0.04788441 -0.1091863 0.4209125 255 0 255
0.05337142 -0.1038505 0.4059328 255 0 255
0.05689901 -0.1025347 0.4020142 255 0 255
0.0576921 -0.1021158 0.4008054 255 0 255
0.05954597 -0.1016182 0.3992749 255 0 255
0.06884412 -0.09937709 0.3923449 255 0 255
0.06988409 -0.09928054 0.3919881 255 0 255
0.07609379 -0.09866303 0.3897697 255 0 255
0.09320985 -0.09735981 0.3849046 255 0 255
0.09538447 -0.09627691 0.3818777 255 0 255
0.09694593 -0.09565902 0.3801322 255 0 255
0.09662651 -0.09452722 0.377163 255 0 255
0.04931704 -0.10733 0.4124059 255 0 255
0.05138789 -0.1053966 0.4070275 255 0 255
0.05713449 -0.1039387 0.4025135 255 0 255
0.05843009 -0.1027434 0.3992035 255 0 255
0.06027065 -0.1022389 0.3976701 255 0 255
0.07054038 -0.09986943 0.3903662 255 0 255
0.07260618 -0.0996676 0.3896368 255 0 255
0.09174496 -0.09819569 0.3841103 255 0 255
0.09316935 -0.09839364 0.3845174 255 0 255
0.09418026 -0.09825415 0.3840737 255 0 255
0.09518943 -0.09811287 0.3836264 255 0 255
0.049419 -0.1120772 0.4215957 255 0 255
0.05354127 -0.1063358 0.4060283 255 0 255
0.05546489 -0.1058455 0.4045229 255 0 255
0.06458012 -0.1018077 0.3929592 255 0 255
0.06738612 -0.101185 0.3910443 255 0 255
0.06842409 -0.1010903 0.3906925 255 0 255
0.07187176 -0.1011425 0.3904882 255 0 255
0.08189268 -0.1008429 0.3887672 255 0 255
0.08395035 -0.1006017 0.3879562 255 0 255
0.08741813 -0.1005678 0.3875658 255 0 255
0.09048818 -0.1001745 0.3862846 255 0 255
0.09658147 -0.09933838 0.3836242 255 0 255
0.05471051 -0.1251469 0.4515657 255 0 255
0.05731917 -0.106408 0.4026009 255 0 255
0.05783487 -0.1056215 0.4005044 255 0 255
0.05940426 -0.1047564 0.3980883 255 0 255
0.06837814 -0.102115 0.3903003 255 0 255
0.07699223 -0.1016393 0.3882191 255 0 255
0.07802094 -0.1015276 0.3878329 255 0 255
0.08595753 -0.1013857 0.386735 255 0 255
0.08800238 -0.1011294 0.385895 255 0 255
0.08942284 -0.1013428 0.3863186 255 0 255
0.1010056 -0.1001156 0.3822144 255 0 255
0.1000217 -0.09578658 0.3712309 255 0 255
0.04974302 -0.1131783 0.4177437 255 0 255
0.05175431 -0.1093208 0.4075951 255 0 255
0.05286429 -0.1092563 0.4072974 255 0 255
0.05673616 -0.1082589 0.4042859 255 0 255
0.06042384 -0.1057195 0.3973609 255 0 255
0.06970244 -0.1033967 0.3904217 255 0 255
0.07177938 -0.1031967 0.3896973 255 0 255
0.07453099 -0.1025295 0.3877168 255 0 255
0.08105242 -0.1022059 0.3862557 255 0 255
0.09060492 -0.1014137 0.383364 255 0 255
0.09548363 -0.1015482 0.3832803 255 0 255
0.09879206 -0.1022895 0.3848777 255 0 255
0.1012713 -0.09863701 0.3754358 255 0 255
0.1014599 -0.09529303 0.3669786 255 0 255
0.05034507 -0.1134972 0.4152243 255 0 255
0.05475775 -0.1098285 0.4053799 255 0 255
0.05558634 -0.1093944 0.4041812 255 0 255
0.05721722 -0.108522 0.4017785 255 0 255
0.06114072 -0.1063169 0.3957433 255 0 255
0.06757144 -0.1046145 0.3907298 255 0 255
0.07242262 -0.1037605 0.3880608 255 0 255
0.07448375 -0.1035499 0.3873171 255 0 255
0.07895553 -0.1034622 0.3866452 255 0 255
0.08649657 -0.1029655 0.3846649 255 0 255
0.09299532 -0.102513 0.3829297 255 0 255
0.09543845 -0.1025786 0.3828763 255 0 255
0.09831769 -0.1029826 0.3836359 255 0 255
0.1016783 -0.09999132 0.3758636 255 0 255
0.09861147 -0.0958988 0.3658879 255 0 255
0.04865661 -0.1139163 0.4132855 255 0 255
0.04979422 -0.1138583 0.4129978 255 0 255
0.0621526 -0.107269 0.395003 255 0 255
0.0660717 -0.1065521 0.392769 255 0 255
0.06680126 -0.1060958 0.3915473 255 0 255
0.06993921 -0.1058078 0.390485 255 0 255
0.07237397 -0.1047798 0.3876571 255 0 255
0.0874678 -0.1038599 0.3838391 255 0 255
0.1017507 -0.1039129 0.3826544 255 0 255
0.1028819 -0.102902 0.3800529 255 0 255
0.102984 -0.1020474 0.3779294 255 0 255
0.1013116 -0.09895175 0.3704164 255 0 255
0.04751243 -0.1115943 0.4045121 255 0 255
0.04911685 -0.112281 0.406016 255 0 255
0.05124516 -0.1137094 0.4092969 255 0 255
0.05629943 -0.1110738 0.4021392 255 0 255
0.06133806 -0.1087558 0.395799 255 0 255
0.06496658 -0.1076726 0.3927009 255 0 255
0.07885845 -0.105504 0.3858318 255 0 255
0.08090928 -0.1052696 0.3850418 255 0 255
0.09720641 -0.1052003 0.3832696 255 0 255
0.1027239 -0.09927502 0.3682572 255 0 255
0.05118834 -0.1147866 0.4088613 255 0 255
0.05679945 -0.1128777 0.4034819 255 0 255
0.09469956 -0.1061641 0.3829234 255 0 255
0.09613825 -0.1063794 0.3833062 255 0 255
0.1006393 -0.106139 0.3822904 255 0 255
0.102668 -0.1058278 0.3813446 255 0 255
0.1031653 -0.09974642 0.3665698 255 0 255
0.03653823 -0.09698477 0.3644305 255 0 255
0.0567431 -0.1139381 0.4030482 255 0 255
0.0586589 -0.1134094 0.4015307 255 0 255
0.06026224 -0.112497 0.3991233 255 0 255
0.06442759 -0.1105677 0.3939509 255 0 255
0.07116536 -0.1091519 0.3897444 255 0 255
0.07978331 -0.1074224 0.3846098 255 0 255
0.08183149 -0.1071835 0.3838129 255 0 255
0.08361599 -0.1077981 0.3851046 255 0 255
0.08669316 -0.1074176 0.3838623 255 0 255
0.08771554 -0.107287 0.3834409 255 0 255
0.09363001 -0.1073346 0.3829485 255 0 255
0.09464921 -0.1071919 0.3825024 255 0 255
0.09914009 -0.106964 0.3815081 255 0 255
0.1063405 -0.1040974 0.3739431 255 0 255
0.1063887 -0.1032185 0.3718335 255 0 255
0.05778679 -0.1149221 0.4022941 255 0 255
0.05969676 -0.114386 0.4007715 255 0 255
0.0604981 -0.113925 0.3995674 255 0 255
0.06284927 -0.1125339 0.3959457 255 0 255
0.06829112 -0.1108503 0.391264 255 0 255
0.07006419 -0.1102765 0.3896833 255 0 255
0.07387907 -0.1082522 0.3844033 255 0 255
0.08522839 -0.108196 0.3830139 255 0 255
0.08624896 -0.1080675 0.3825977 255 0 255
0.0886845 -0.1081747 0.3825935 255 0 255
0.09112764 -0.1082725 0.3825687 255 0 255
0.0995205 -0.1083577 0.3819068 255 0 255
0.1070588 -0.1076058 0.3793736 255 0 255
0.1067546 -0.1054688 0.3743338 255 0 255
0.1063397 -0.1042221 0.3714177 255 0 255
0.04440586 -0.1079499 0.3844817 255 0 255
0.05378087 -0.1186509 0.4087009 255 0 255
0.0682357 -0.1118765 0.3908347 255 0 255
0.07280307 -0.1106105 0.3872982 255 0 255
0.07349451 -0.1101248 0.3860686 255 0 255
0.0741771 -0.1096381 0.384838 255 0 255
0.07725981 -0.1093048 0.3836961 255 0 255
0.08761054 -0.1093261 0.382592 255 0 255
0.09802049 -0.1091705 0.3811141 255 0 255
0.1023781 -0.1098143 0.3821775 255 0 255
0.03622659 -0.09643098 0.3557519 255 0 255
0.05933762 -0.1177341 0.4028393 255 0 255
0.0667029 -0.1138622 0.3928351 255 0 255
0.06776727 -0.1137677 0.3924837 255 0 255
0.07066406 -0.111834 0.3876019 255 0 255
0.07170649 -0.1117314 0.387237 255 0 255
0.07653788 -0.110808 0.3845056 255 0 255
0.09796666 -0.1101958 0.3806803 255 0 255
0.1023241 -0.1108495 0.3817394 255 0 255
0.1080407 -0.1085953 0.3759013 255 0 255
0.1022135 -0.09703299 0.3496396 255 0 255
0.05261258 -0.1192288 0.4042612 255 0 255
0.06229702 -0.1181589 0.4005246 255 0 255
0.06328186 -0.1164239 0.3963702 255 0 255
0.0651324 -0.1158561 0.39482 255 0 255
0.06877229 -0.1147012 0.3916885 255 0 255
0.07056148 -0.1141142 0.3901077 255 0 255
0.07198992 -0.1131335 0.3876602 255 0 255
0.07648182 -0.1118182 0.3840738 255 0 255
0.07751174 -0.1117045 0.3836883 255 0 255
0.08301884 -0.1114903 0.3825482 255 0 255
0.08852202 -0.1112248 0.3813031 255 0 255
0.08954147 -0.1110895 0.3808749 255 0 255
0.09300276 -0.1110508 0.3803969 255 0 255
0.105775 -0.1117728 0.3806664 255 0 255
0.1083661 -0.1108991 0.378379 255 0 255
0.1089125 -0.1103575 0.377075 255 0 255
0.1056004 -0.1005123 0.3547824 255 0 255
0.05498842 -0.1222054 0.4078953 255 0 255
0.05838745 -0.1203264 0.4031262 255 0 255
0.0606093 -0.1201688 0.4024756 255 0 255
0.06352431 -0.117858 0.396789 255 0 255
0.06583346 -0.1164071 0.3931624 255 0 255
0.069775 -0.1156307 0.3908857 255 0 255
0.07193188 -0.1141502 0.3872211 255 0 255
0.07539307 -0.1129388 0.3840199 255 0 255
0.07606618 -0.1124377 0.3827895 255 0 255
0.08193618 -0.112625 0.3825164 255 0 255
0.08948505 -0.1121024 0.3804372 255 0 255
0.09294641 -0.1120666 0.379958 255 0 255
0.09828261 -0.1126213 0.3806213 255 0 255
0.1013361 -0.1121574 0.3792209 255 0 255
0.1027917 -0.1123769 0.3795607 255 0 255
0.1057186 -0.112807 0.3802194 255 0 255
0.1133372 -0.1110551 0.3754043 255 0 255
0.1133762 -0.1101318 0.3732984 255 0 255
0.06136433 -0.1207482 0.4008124 255 0 255
0.07004361 -0.1170525 0.3912954 255 0 255
0.0767246 -0.1142261 0.3840456 255 0 255
0.07739648 -0.1137193 0.3828132 255 0 255
0.08225472 -0.1140248 0.3829158 255 0 255
0.1128252 -0.1070616 0.3636948 255 0 255
0.05652698 -0.1250908 0.4083906 255 0 255
0.05880209 -0.124942 0.4077509 255 0 255
0.06370243 -0.1203409 0.3967405 255 0 255
0.06417937 -0.1194496 0.3946718 255 0 255
0.07424814 -0.1163624 0.3864378 255 0 255
0.07769891 -0.1151199 0.3832142 255 0 255
0.08219533 -0.1150359 0.3824698 255 0 255
0.09324283 -0.1144821 0.3798921 255 0 255
0.097312 -0.113892 0.3780892 255 0 255
0.1032466 -0.1138808 0.3773729 255 0 255
0.107638 -0.1145351 0.3783312 255 0 255
0.1101286 -0.1145742 0.3781346 255 0 255
0.1121558 -0.1142228 0.37712 255 0 255
0.1141748 -0.1138638 0.3760909 255 0 255
0.05987123 -0.1259426 0.4069448 255 0 255
0.07024802 -0.1195094 0.3912393 255 0 255
0.07727678 -0.115727 0.3819231 255 0 255
0.08316461 -0.1159202 0.3816139 255 0 255
0.09581438 -0.114664 0.3772765 255 0 255
0.09984777 -0.1140521 0.3754377 255 0 255
0.1027423 -0.1145111 0.3761116 255 0 255
0.1075778 -0.1155632 0.3778729 255 0 255
0.0569876 -0.1263501 0.4053675 255 0 255
0.05839247 -0.1266857 0.405917 255 0 255
0.06496823 -0.1227413 0.3963268 255 0 255
0.06985633 -0.1201309 0.3899238 255 0 255
0.07377774 -0.117985 0.3846835 255 0 255
0.09067077 -0.1163954 0.3790404 255 0 255
0.09270919 -0.1161116 0.3781641 255 0 255
0.09515989 -0.1162157 0.3780905 255 0 255
0.100791 -0.1149006 0.3745159 255 0 255
0.1085317 -0.1164184 0.3769143 255 0 255
0.1110217 -0.1164588 0.3767063 255 0 255
0.1139141 -0.1073571 0.3564414 255 0 255
0.06255449 -0.1270207 0.4032445 255 0 255
0.06537551 -0.1228675 0.3937918 255 0 255
0.07124889 -0.1201292 0.3870308 255 0 255
0.07475675 -0.1188822 0.3838485 255 0 255
0.07647952 -0.1182494 0.3822434 255 0 255
0.08163463 -0.1176534 0.3802752 255 0 255
0.08330256 -0.1169977 0.3786319 255 0 255
0.08776776 -0.1168751 0.3777943 255 0 255
0.1129827 -0.1171283 0.3752182 255 0 255
0.1149981 -0.1167632 0.3741831 255 0 255
0.0588042 -0.1296608 0.4066712 255 0 255
0.07677263 -0.1196612 0.3826223 255 0 255
0.07951342 -0.1188982 0.3806135 255 0 255
0.08464509 -0.1182723 0.3785917 255 0 255
0.08872088 -0.1177372 0.3769094 255 0 255
0.09217162 -0.1177195 0.3764273 255 0 255
0.105572 -0.117048 0.3732851 255 0 255
0.1074894 -0.1176716 0.3743874 255 0 255
0.1109711 -0.1175433 0.3736787 255 0 255
0.1164215 -0.117993 0.3739733 255 0 255
0.1168354 -0.1115975 0.3601876 255 0 255
0.06070831 -0.1319198 0.4084357 255 0 255
0.06412568 -0.1299025 0.4036402 255 0 255
0.06517903 -0.1280459 0.3995194 255 0 255
0.07566779 -0.1207784 0.3825407 255 0 255
0.08215355 -0.119115 0.378119 255 0 255
0.08662178 -0.1190058 0.3772948 255 0 255
0.08763998 -0.1188708 0.3768726 255 0 255
0.1034988 -0.118388 0.3737855 255 0 255
0.1198335 -0.1198213 0.3747725 255 0 255
0.1169092 -0.1090733 0.3522755 255 0 255
0.06319539 -0.1350432 0.4118964 255 0 255
0.0637918 -0.1323283 0.4060559 255 0 255
0.06671397 -0.1280695 0.3966195 255 0 255
0.06991844 -0.1246297 0.3888867 255 0 255
0.07281563 -0.1225305 0.384042 255 0 255
0.08041199 -0.1207721 0.3792856 255 0 255
0.08246653 -0.1205228 0.3784809 255 0 255
0.08960572 -0.1195896 0.3755512 255 0 255
0.0954979 -0.119684 0.3749696 255 0 255
0.1029862 -0.1189879 0.3725167 255 0 255
0.1069011 -0.1192925 0.3726506 255 0 255
0.1113083 -0.1199743 0.3735192 255 0 255
0.1142712 -0.120413 0.374063 255 0 255
0.118752 -0.1210469 0.3748252 255 0 255
0.1222843 -0.1208585 0.373977 255 0 255
0.06227508 -0.1348572 0.4088004 255 0 255
0.06343131 -0.1347732 0.4084601 255 0 255
0.06930484 -0.1279722 0.3933574 255 0 255
0.07198464 -0.1254405 0.3876719 255 0 255
0.07728603 -0.1235067 0.3828824 255 0 255
0.07968261 -0.1223088 0.3800414 255 0 255
0.08071596 -0.1221864 0.3796431 255 0 255
0.1014724 -0.1197423 0.3717223 255 0 255
0.1053752 -0.1200616 0.3718724 255 0 255
0.1093026 -0.1203566 0.3719702 255 0 255
0.110773 -0.1205845 0.372253 255 0 255
0.1132539 -0.1206268 0.3720154 255 0 255
0.06638001 -0.1315377 0.3985278 255 0 255
0.08373804 -0.1228033 0.3779504 255 0 255
0.08437952 -0.1222517 0.3767168 255 0 255
0.09983391 -0.1214726 0.3729846 255 0 255
0.1018475 -0.1211498 0.3720426 255 0 255
0.1067657 -0.1213023 0.3716945 255 0 255
0.1097693 -0.120777 0.3702025 255 0 255
0.1112375 -0.1210061 0.3704803 255 0 255
0.1141886 -0.1214548 0.3710146 255 0 255
0.1206407 -0.1227175 0.3727688 255 0 255
0.1236645 -0.1221184 0.3711277 255 0 255
0.1225086 -0.1172991 0.3613096 255 0 255
0.1236924 -0.114489 0.3553426 255 0 255
0.07363173 -0.1268246 0.3851132 255 0 255
0.09122925 -0.1232637 0.375318 255 0 255
0.09326495 -0.1229724 0.3744363 255 0 255
0.09588025 -0.1221016 0.3722846 255 0 255
0.1022208 -0.1225624 0.3723557 255 0 255
0.1061441 -0.1228904 0.3724898 255 0 255
0.1087006 -0.1219553 0.3702199 255 0 255
0.1146389 -0.1218685 0.3692318 255 0 255
0.1195866 -0.1229284 0.3707343 255 0 255
0.1225878 -0.1233456 0.3711833 255 0 255
0.1245973 -0.1229395 0.370079 255 0 255
0.1249576 -0.1192893 0.3625471 255 0 255
0.06765253 -0.1339791 0.3980012 255 0 255
0.06814703 -0.1330099 0.3959537 255 0 255
0.07061333 -0.1299956 0.3894533 255 0 255
0.07390057 -0.1282661 0.3854558 255 0 255
0.07743076 -0.1269456 0.3822592 255 0 255
0.07847996 -0.1268272 0.381868 255 0 255
0.08487297 -0.1236698 0.3745264 255 0 255
0.08549719 -0.1231086 0.3732952 255 0 255
0.08791733 -0.1232626 0.3732659 255 0 255
0.08973494 -0.1239746 0.3744588 255 0 255
0.1021501 -0.1235602 0.3718693 255 0 255
0.1096291 -0.1227769 0.3692324 255 0 255
0.1175334 -0.1233174 0.3692349 255 0 255
0.06683647 -0.1374199 0.4024207 255 0 255
0.06869282 -0.134932 0.3971256 255 0 255
0.0752342 -0.1296009 0.3854108 255 0 255
0.0811753 -0.1270276 0.3793579 255 0 255
0.08390705 -0.1262111 0.3773168 255 0 255
0.0848017 -0.1246522 0.3740427 255 0 255
0.08926047 -0.1245338 0.3731638 255 0 255
0.09027378 -0.1243915 0.3727317 255 0 255
0.09430967 -0.123803 0.3709677 255 0 255
0.09573857 -0.1240773 0.3713167 255 0 255
0.09818081 -0.1241916 0.371199 255 0 255
0.1055478 -0.1244744 0.3707217 255 0 255
0.1065531 -0.1243022 0.370232 255 0 255
0.125461 -0.1258066 0.3705957 255 0 255
0.06739133 -0.1412448 0.4073172 255 0 255
0.07099154 -0.1343493 0.3929941 255 0 255
0.07253121 -0.1332554 0.3905802 255 0 255
0.07587659 -0.1300583 0.3836961 255 0 255
0.07797445 -0.1283903 0.3800538 255 0 255
0.07969468 -0.12771 0.3784423 255 0 255
0.08383382 -0.1272026 0.3768239 255 0 255
0.08676066 -0.1253622 0.372719 255 0 255
0.08777384 -0.125224 0.3722956 255 0 255
0.09121288 -0.1252298 0.3718077 255 0 255
0.09767672 -0.1247508 0.3699142 255 0 255
0.1020048 -0.1255499 0.3708852 255 0 255
0.1134237 -0.1250635 0.3682692 255 0 255
0.1188761 -0.1255563 0.3684709 255 0 255
0.1213717 -0.1255765 0.3681539 255 0 255
0.1268887 -0.125999 0.3682083 255 0 255
0.06877109 -0.142683 0.4072558 255 0 255
0.07720903 -0.1299454 0.3807679 255 0 255
0.08310399 -0.1287618 0.3775525 255 0 255
0.08375945 -0.128192 0.3763273 255 0 255
0.08911416 -0.1264978 0.3721829 255 0 255
0.0911392 -0.1262103 0.3713156 255 0 255
0.09256222 -0.1264984 0.3716768 255 0 255
0.09315724 -0.1259149 0.3704341 255 0 255
0.09559206 -0.1260451 0.3703341 255 0 255
0.1083269 -0.1269722 0.3703029 255 0 255
0.1113461 -0.1264322 0.3687926 255 0 255
0.1163102 -0.1265306 0.3682624 255 0 255
0.1232966 -0.1272237 0.3686155 255 0 255
0.07346506 -0.1351997 0.3891698 255 0 255
0.07388071 -0.134194 0.3871336 255 0 255
0.07428004 -0.1331877 0.3850988 255 0 255
0.07643303 -0.1315047 0.3814737 255 0 255
0.0809512 -0.1300084 0.3778619 255 0 255
0.08903927 -0.1274768 0.3716869 255 0 255
0.09106434 -0.1271888 0.3708199 255 0 255
0.1028622 -0.1273649 0.3694092 255 0 255
0.1307224 -0.1271727 0.3649 255 0 255
0.1269991 -0.1194243 0.3502565 255 0 255
0.1235709 -0.1158999 0.3438523 255 0 255
0.07328151 -0.1376869 0.3915097 255 0 255
0.07404996 -0.1371258 0.3903026 255 0 255
0.07741004 -0.1323845 0.380575 255 0 255
0.07810492 -0.1318158 0.3793642 255 0 255
0.08019879 -0.131571 0.3785718 255 0 255
0.08332761 -0.1311887 0.3773561 255 0 255
0.0839873 -0.1306111 0.3761333 255 0 255
0.09644713 -0.1278493 0.3688823 255 0 255
0.09745167 -0.1276918 0.3684245 255 0 255
0.1027852 -0.1283524 0.3689043 255 0 255
0.1092563 -0.1277419 0.3667415 255 0 255
0.12364 -0.1286194 0.3662796 255 0 255
0.130691 -0.1292493 0.366442 255 0 255
0.1320079 -0.1262597 0.3604317 255 0 255
0.131791 -0.1241383 0.3563403 255 0 255
0.07626102 -0.1349745 0.3832969 255 0 255
0.08803689 -0.1310534 0.3739439 255 0 255
0.08968901 -0.1303224 0.3722829 255 0 255
0.09233336 -0.1294375 0.3701738 255 0 255
0.09536333 -0.1289817 0.3688324 255 0 255
0.09737423 -0.1286681 0.3679205 255 0 255
0.1047167 -0.1289972 0.3674319 255 0 255
0.1190725 -0.1289452 0.3651345 255 0 255
0.1235598 -0.1296263 0.3657601 255 0 255
0.1310865 -0.1296221 0.364599 255 0 255
0.1320812 -0.1293998 0.3640182 255 0 255
0.1340634 -0.1289493 0.3628462 255 0 255
0.1349553 -0.127649 0.3602033 255 0 255
0.1353877 -0.1269983 0.3588827 255 0 255
0.07006659 -0.1439502 0.3989326 255 0 255
0.07388661 -0.1391792 0.3892372 255 0 255
0.07579731 -0.1370087 0.3847995 255 0 255
0.0804058 -0.1340063 0.3783569 255 0 255
0.08961009 -0.1313023 0.3717723 255 0 255
0.09063074 -0.1311574 0.3713379 255 0 255
0.1051845 -0.1293646 0.3656596 255 0 255
0.1264924 -0.1310743 0.3656146 255 0 255
0.1359541 -0.1295012 0.3611344 255 0 255
0.0719213 -0.151711 0.4107587 255 0 255
0.07322754 -0.1427335 0.3935757 255 0 255
0.07401688 -0.1421618 0.3923718 255 0 255
0.07489866 -0.1400909 0.3883173 255 0 255
0.09156952 -0.1319879 0.3703859 255 0 255
0.09965608 -0.1307401 0.3667565 255 0 255
0.1046497 -0.1298963 0.3643744 255 0 255
0.1284078 -0.1316523 0.3639522 255 0 255
0.1242996 -0.1176772 0.3381234 255 0 255
0.07153568 -0.1449187 0.3954237 255 0 255
0.07438093 -0.1421549 0.3897979 255 0 255
0.07991431 -0.1370345 0.3793299 255 0 255
0.08882342 -0.1338569 0.3719661 255 0 255
0.09087363 -0.1335672 0.3710984 255 0 255
0.09470162 -0.1314461 0.366513 255 0 255
0.09713475 -0.1315847 0.3663868 255 0 255
0.1040241 -0.13149 0.3651136 255 0 255
0.1128714 -0.1320128 0.3646834 255 0 255
0.1143482 -0.132267 0.3649247 255 0 255
0.1228088 -0.1321951 0.3634347 255 0 255
0.1338819 -0.1330713 0.3633009 255 0 255
0.1332314 -0.1265211 0.3510984 255 0 255
0.0747286 -0.1421309 0.3872289 255 0 255
0.07983058 -0.1380279 0.3787976 255 0 255
0.08120794 -0.1368446 0.3763799 255 0 255
0.0920117 -0.1333278 0.3681183 255 0 255
0.09905606 -0.1322289 0.3649438 255 0 255
0.1010521 -0.1318972 0.3640054 255 0 255
0.1069305 -0.1319353 0.3631279 255 0 255
0.107923 -0.1317555 0.3626328 255 0 255
0.1123126 -0.1325489 0.363399 255 0 255
0.1137856 -0.1328069 0.3636404 255 0 255
0.116261 -0.1328665 0.3633499 255 0 255
0.1257013 -0.132557 0.361238 255 0 255
0.1277211 -0.1332218 0.3621466 255 0 255
0.07328968 -0.1463166 0.3927282 255 0 255
0.07580324 -0.1415031 0.3834662 255 0 255
0.08388006 -0.1369681 0.3738197 255 0 255
0.08865685 -0.1358095 0.3709151 255 0 255
0.1034071 -0.1329779 0.3632999 255 0 255
