ply
format ascii 1.0
Comment Generated by Floating Hands
element vertex 1103
Comment Left: (0.0, 0.0, 0.0)
Comment Right: (0.0, 0.0, 0.4)
Comment Time: 2023-05-01 08:47:10,619
property double x
property double y
property double z
property uchar red
property uchar green
property uchar blue
end_header
0.04811184 0.01752786 0.4092189 255 0 255
-0.07885768 0.02162957 0.4628768 255 0 255
-0.05890841 0.01817682 0.4376072 255 0 255
-0.05671117 0.01803182 0.4378601 255 0 255
-0.050276 0.01778168 0.4405033 255 0 255
-0.04447383 0.01718612 0.436954 255 0 255
-0.01124242 0.01515097 0.4232745 255 0 255
-0.01031404 0.01499832 0.4212263 255 0 255
-0.00728145 0.01490297 0.4200391 255 0 255
0.003099103 0.0149768 0.4201351 255 0 255
0.01422229 0.01553761 0.424762 255 0 255
0.0230884 0.01595779 0.4263587 255 0 255
0.02555031 0.01616721 0.4279389 255 0 255
0.02660769 0.01620191 0.4277405 255 0 255
0.02785144 0.01631047 0.4285177 255 0 255
0.03975 0.01719023 0.4320918 255 0 255
0.04122544 0.0162648 0.4153071 255 0 255
0.03903783 0.01534349 0.4024852 255 0 255
0.03825171 0.01487026 0.3954766 255 0 255
-0.06355757 0.01747942 0.4391164 255 0 255
-0.05550989 0.01673268 0.437075 255 0 255
-0.04171121 0.01522466 0.427219 255 0 255
-0.006221227 0.01380549 0.4200406 255 0 255
0.005308354 0.01396275 0.4209708 255 0 255
0.006340819 0.01397276 0.4208504 255 0 255
0.01949423 0.01453343 0.4240196 255 0 255
0.03148111 0.01541906 0.4299105 255 0 255
0.04026168 0.01616078 0.4341079 255 0 255
0.04288438 0.01640777 0.4355341 255 0 255
-0.07585687 0.01861543 0.4595399 255 0 255
-0.07153676 0.01748018 0.447106 255 0 255
-0.05759417 0.01565463 0.4359229 255 0 255
-0.05018581 0.01538289 0.4396775 255 0 255
-0.00326759 0.01257843 0.4178804 255 0 255
0.001110924 0.01277228 0.4204873 255 0 255
0.016105 0.01321036 0.4226148 255 0 255
0.01714363 0.01323364 0.4224529 255 0 255
0.0313389 0.01420042 0.429 255 0 255
0.04359295 0.01444586 0.4200128 255 0 255
0.04012075 0.01329123 0.4023586 255 0 255
-0.06467341 0.01523921 0.4391302 255 0 255
-0.06111426 0.01486529 0.4375875 255 0 255
-0.03967382 0.01302353 0.4294795 255 0 255
-0.007192424 0.01162775 0.4202462 255 0 255
-0.00221389 0.01149351 0.4178567 255 0 255
-0.001010512 0.01161167 0.4197535 255 0 255
1.85057E-05 0.0116136 0.4196575 255 0 255
0.0139259 0.01199486 0.4220015 255 0 255
0.02763762 0.01275202 0.4267593 255 0 255
0.03306454 0.01327566 0.4317741 255 0 255
0.03971239 0.01361983 0.4313217 255 0 255
0.04953967 0.01362542 0.4174441 255 0 255
-0.07260852 0.01554341 0.4541743 255 0 255
-0.06716932 0.01437492 0.4408686 255 0 255
-0.06578584 0.01416252 0.439051 255 0 255
-0.04899404 0.01293704 0.4389253 255 0 255
-0.04561282 0.01269695 0.4381839 255 0 255
-0.04328994 0.01246668 0.4363388 255 0 255
-0.04202692 0.01223762 0.4334157 255 0 255
-0.04083884 0.01206917 0.431484 255 0 255
-0.03728187 0.01146114 0.4236642 255 0 255
-0.01584776 0.01002513 0.4097671 255 0 255
-0.009168008 0.01060726 0.421436 255 0 255
0.01811447 0.01097525 0.4214213 255 0 255
0.01947332 0.01111251 0.4232222 255 0 255
0.02663361 0.01157837 0.4270196 255 0 255
0.03633826 0.01224905 0.4311385 255 0 255
0.03740907 0.01229681 0.4308988 255 0 255
0.03244165 0.008166846 0.3445273 255 0 255
-0.07130861 0.0141671 0.4534434 255 0 255
-0.0657936 0.01300257 0.4391218 255 0 255
-0.06210024 0.01257872 0.4366001 255 0 255
-0.0553103 0.01201172 0.435389 255 0 255
-0.0533145 0.01198593 0.4375997 255 0 255
-0.01757687 0.007867482 0.3878993 255 0 255
-0.01306298 0.009816585 0.4267001 255 0 255
-0.006104224 0.009438419 0.4202902 255 0 255
-0.00419956 0.009328218 0.4181422 255 0 255
0.001015011 0.009380912 0.4186777 255 0 255
0.02298995 0.01018492 0.4247059 255 0 255
0.03424925 0.01099624 0.4316594 255 0 255
0.0366091 0.01114121 0.4321675 255 0 255
0.03983178 0.01128925 0.4314332 255 0 255
0.04090404 0.01134136 0.4311801 255 0 255
0.04155084 0.01040888 0.407346 255 0 255
-0.06333124 0.0115653 0.4375112 255 0 255
-0.05331542 0.01083383 0.4376628 255 0 255
-0.04560471 0.01038777 0.4383118 255 0 255
-0.04087812 0.009863135 0.4326046 255 0 255
-0.00814338 0.00836099 0.4204831 255 0 255
0.007562131 0.008478516 0.4210196 255 0 255
0.03430374 0.009834836 0.4317088 255 0 255
-0.05980008 0.01007213 0.4360078 255 0 255
-0.05859207 0.009945614 0.4351459 255 0 255
-0.05331693 0.009681822 0.4377212 255 0 255
-0.04773227 0.009306932 0.4372091 255 0 255
-0.01639986 0.007380707 0.4209382 255 0 255
-0.008117982 0.007269813 0.4205306 255 0 255
-0.003034278 0.007200986 0.4191511 255 0 255
0.002105217 0.007208274 0.4186699 255 0 255
0.005411322 0.007314421 0.4203191 255 0 255
0.01408989 0.00755752 0.4222082 255 0 255
0.01616839 0.007599486 0.4218961 255 0 255
0.02448601 0.008053837 0.4265774 255 0 255
0.02783909 0.008201741 0.4269644 255 0 255
0.03522144 0.008673253 0.4305452 255 0 255
0.03972188 0.008912994 0.4305532 255 0 255
0.04245596 0.008980103 0.4278425 255 0 255
0.04351554 0.009035958 0.4275795 255 0 255
-0.06444814 0.009343781 0.4374793 255 0 255
-0.05422504 0.008510482 0.4356772 255 0 255
-0.04321088 0.007835388 0.4355755 255 0 255
-0.01004899 0.00627689 0.422695 255 0 255
8.038163E-05 0.006113335 0.4189161 255 0 255
0.00452079 0.006248793 0.4214706 255 0 255
0.008668488 0.006289099 0.4209773 255 0 255
0.01204654 0.006411898 0.4225453 255 0 255
0.01860362 0.006616968 0.4235812 255 0 255
0.0278872 0.00706446 0.4270045 255 0 255
0.03440992 0.007512428 0.4317939 255 0 255
-0.06930494 0.009198024 0.4560183 255 0 255
-0.0663716 0.008538911 0.4433174 255 0 255
-0.06472063 0.008278633 0.4395114 255 0 255
-0.06348304 0.008151233 0.4386697 255 0 255
-0.0508568 0.007121113 0.4350433 255 0 255
-0.04320764 0.006692616 0.4356223 255 0 255
-0.01306603 0.005289633 0.4248921 255 0 255
-0.01112355 0.005155582 0.4217942 255 0 255
-0.004089791 0.004993622 0.4183199 255 0 255
0.006511138 0.005130773 0.4202765 255 0 255
0.008703056 0.005188491 0.4210141 255 0 255
0.01416695 0.005339484 0.4222853 255 0 255
0.01535561 0.005395162 0.4231194 255 0 255
0.01759823 0.00547543 0.4237848 255 0 255
0.02918526 0.006001374 0.4278136 255 0 255
0.03812423 0.00656662 0.4330711 255 0 255
0.03898286 0.006578417 0.4318507 255 0 255
0.04220802 0.006735479 0.4310899 255 0 255
-0.05195092 0.006048098 0.4349875 255 0 255
-0.05077222 0.005944562 0.4340913 255 0 255
-0.01838101 0.005633596 0.4671115 255 0 255
-0.008046117 0.003997232 0.4206472 255 0 255
0.00229895 0.003974796 0.4197759 255 0 255
0.003331312 0.003979918 0.419667 255 0 255
0.00990292 0.004132417 0.4219041 255 0 255
0.01198266 0.004163145 0.4216241 255 0 255
0.01302166 0.004180525 0.4214782 255 0 255
0.02216271 0.004528402 0.4250918 255 0 255
0.02636517 0.00465696 0.424328 255 0 255
0.03451234 0.005190553 0.4318607 255 0 255
0.03881424 0.005379789 0.430907 255 0 255
0.04033927 0.005498829 0.4326053 255 0 255
0.04344736 0.005543443 0.4267124 255 0 255
-0.05994385 0.005525051 0.437192 255 0 255
-0.04851667 0.004646104 0.4333189 255 0 255
-0.01871486 0.00394703 0.4521588 255 0 255
-0.01501695 0.003195272 0.4280446 255 0 255
-0.00808873 0.002879684 0.41968 255 0 255
-0.004990975 0.002858472 0.4194605 255 0 255
0.00439339 0.002894424 0.4195827 255 0 255
0.008644286 0.002960538 0.420083 255 0 255
0.02131794 0.003402778 0.4262856 255 0 255
0.02535932 0.003497906 0.4245517 255 0 255
0.03160318 0.003827673 0.4284224 255 0 255
0.0380108 0.004199551 0.4321531 255 0 255
0.04422537 0.004487787 0.4296477 255 0 255
0.04462393 0.004386183 0.4223276 255 0 255
-0.0484395 0.003485521 0.4323563 255 0 255
-0.03868344 0.002969977 0.4329751 255 0 255
-0.03647615 0.002845352 0.4320677 255 0 255
0.002355981 0.001791322 0.4198291 255 0 255
0.01087789 0.001915125 0.4208269 255 0 255
0.02119129 0.002250188 0.4253227 255 0 255
0.02540204 0.002373198 0.4245739 255 0 255
0.02645282 0.002407387 0.4243766 255 0 255
0.0356892 0.002914602 0.4316768 255 0 255
0.03806185 0.003035178 0.4321748 255 0 255
0.04260603 0.003268941 0.4321392 255 0 255
0.04363636 0.003196169 0.4226147 255 0 255
0.04443047 0.003226884 0.4213794 255 0 255
-0.05286753 0.002649576 0.4329979 255 0 255
-0.04836287 0.002333062 0.4313888 255 0 255
-0.04423301 0.002158552 0.4346968 255 0 255
-0.04199206 0.002021276 0.4338325 255 0 255
-0.04090319 0.00196636 0.433893 255 0 255
-0.03976552 0.001890537 0.4329507 255 0 255
-0.02981932 0.001224547 0.4212715 255 0 255
-0.01702124 0.001061814 0.4311673 255 0 255
-0.009080405 0.0007171489 0.4197929 255 0 255
0.00767199 0.0007567252 0.4202556 255 0 255
0.009872223 0.0008006016 0.4209839 255 0 255
0.01091054 0.0008149986 0.420846 255 0 255
0.01312627 0.0008673145 0.4215482 255 0 255
0.03531434 0.00171133 0.42974 255 0 255
0.03941457 0.00194264 0.4329208 255 0 255
0.04180874 0.002069099 0.4333878 255 0 255
-0.05277879 0.001497774 0.4320282 255 0 255
-0.05160546 0.001407655 0.4311342 255 0 255
-0.05052588 0.001339946 0.4312315 255 0 255
-0.04728523 0.001145342 0.4314982 255 0 255
-0.04308054 0.0009438241 0.4337917 255 0 255
-0.01805716 -2.726382E-05 0.4322174 255 0 255
-0.01311056 -0.0002835402 0.4220311 255 0 255
-0.01009603 -0.0003570865 0.419872 255 0 255
-0.008091056 -0.0003939819 0.4187468 255 0 255
-0.004999056 -0.0004163883 0.4185269 255 0 255
0.009903442 -0.0002993029 0.4209989 255 0 255
0.01778749 -0.0001073891 0.4238999 255 0 255
0.01899688 -6.735752E-05 0.4247188 255 0 255
0.02548485 0.000124327 0.4246052 255 0 255
0.02902531 0.0002645862 0.4259625 255 0 255
0.03047646 0.0003370324 0.427712 255 0 255
0.04472251 0.001009017 0.4265192 255 0 255
-0.06342984 0.001287631 0.4469594 255 0 255
-0.05656078 0.0006780411 0.4366908 255 0 255
-0.05061704 0.0002330879 0.4322481 255 0 255
-0.04410686 -0.0001465158 0.4327447 255 0 255
-0.02984807 -0.0009078655 0.4243079 255 0 255
-0.02563554 -0.00106512 0.4233383 255 0 255
-0.02233993 -0.001013707 0.435317 255 0 255
-0.01914999 -0.001145645 0.4312603 255 0 255
-0.01809804 -0.001182345 0.4302335 255 0 255
-0.01111383 -0.001429447 0.4199432 255 0 255
0.0213064 -0.001122565 0.4253646 255 0 255
0.02800904 -0.000904734 0.4261784 255 0 255
0.03158407 -0.0007627009 0.4275039 255 0 255
-0.04953735 -0.0009611257 0.432357 255 0 255
-0.04398089 -0.001298083 0.4307638 255 0 255
-0.03537747 -0.001713285 0.4321876 255 0 255
-0.03315779 -0.0018244 0.4302532 255 0 255
-0.03203729 -0.001886613 0.4282799 255 0 255
-0.02129781 -0.00221817 0.4313137 255 0 255
0.0001956782 -0.002592214 0.4181009 255 0 255
0.005797401 -0.002541411 0.4215297 255 0 255
0.01455559 -0.002410805 0.4234072 255 0 255
0.01922815 -0.002299361 0.4257211 255 0 255
0.03933825 -0.001570536 0.4319699 255 0 255
0.048002 -0.001103904 0.425703 255 0 255
-0.05657808 -0.001611518 0.4367208 255 0 255
-0.03858323 -0.002696865 0.4310694 255 0 255
-0.02453498 -0.003255638 0.4303538 255 0 255
-0.02024602 -0.003380972 0.4293013 255 0 255
-0.01809973 -0.00343288 0.4292505 255 0 255
-0.009067682 -0.003628051 0.4188387 255 0 255
-0.002873756 -0.003671408 0.4183844 255 0 255
-0.0008117997 -0.003674937 0.4182015 255 0 255
0.005823764 -0.003640283 0.4215323 255 0 255
0.0122109 -0.003564515 0.4217277 255 0 255
0.02121127 -0.003374002 0.4243847 255 0 255
0.02560245 -0.003247368 0.424619 255 0 255
0.03549789 -0.00289585 0.4297638 255 0 255
-0.05790916 -0.002665342 0.4385973 255 0 255
-0.05548425 -0.002832352 0.4368444 255 0 255
-0.03312478 -0.004065447 0.4292661 255 0 255
-0.01707714 -0.004575325 0.4272215 255 0 255
-0.009112742 -0.004708196 0.4178408 255 0 255
-0.006983835 -0.004729214 0.4187029 255 0 255
-0.003885493 -0.004749263 0.4184694 255 0 255
0.005964277 -0.004739791 0.4225239 255 0 255
0.01237785 -0.004668176 0.4227155 255 0 255
0.03920745 -0.003898939 0.4309883 255 0 255
0.04410504 -0.003634199 0.4277583 255 0 255
0.04615422 -0.003563385 0.4313672 255 0 255
-0.04963732 -0.004341045 0.4333741 255 0 255
-0.04500191 -0.004598947 0.4297124 255 0 255
-0.02667358 -0.005425124 0.429357 255 0 255
-0.02451921 -0.005498643 0.4303547 255 0 255
-0.02024546 -0.00561389 0.4283011 255 0 255
-0.01308094 -0.00574113 0.4210581 255 0 255
-0.0110498 -0.005768263 0.419954 255 0 255
-0.008000543 -0.005800627 0.4187688 255 0 255
0.0003583429 -0.005843644 0.4190932 255 0 255
0.004829537 -0.005844286 0.4216434 255 0 255
0.01359643 -0.005762624 0.4235509 255 0 255
0.01464806 -0.005744246 0.4233987 255 0 255
0.02338832 -0.005554267 0.4240061 255 0 255
0.02444137 -0.005523039 0.4238166 255 0 255
0.02567646 -0.005493945 0.4246063 255 0 255
0.03450859 -0.005243159 0.4299805 255 0 255
0.03709126 -0.005155917 0.4314655 255 0 255
0.03925227 -0.005057709 0.4309781 255 0 255
-0.05570726 -0.005125117 0.4388362 255 0 255
-0.05182608 -0.005332 0.4331826 255 0 255
-0.04615477 -0.005656664 0.4306321 255 0 255
-0.03530351 -0.006208426 0.4301973 255 0 255
-0.0298656 -0.006411596 0.4273247 255 0 255
-0.02774334 -0.006504375 0.4293464 255 0 255
-0.02666792 -0.006541745 0.4293512 255 0 255
-0.007984558 -0.006881166 0.4187604 255 0 255
-0.003848095 -0.006911804 0.4184558 255 0 255
-0.0007492334 -0.006920276 0.4181861 255 0 255
0.003699739 -0.006938904 0.4207541 255 0 255
0.01723848 -0.006838938 0.426035 255 0 255
-0.0583097 -0.006279871 0.4526361 255 0 255
-0.04399726 -0.006899517 0.4307706 255 0 255
-0.03957114 -0.007111169 0.4290147 255 0 255
-0.03523658 -0.00730657 0.4281895 255 0 255
-0.02986239 -0.007519226 0.427315 255 0 255
-0.02773889 -0.007620454 0.4293362 255 0 255
-0.02022767 -0.007841623 0.428283 255 0 255
0.006847751 -0.008012068 0.4203835 255 0 255
0.01023001 -0.008004378 0.4219745 255 0 255
0.01365274 -0.007983458 0.4235237 255 0 255
0.01711538 -0.00794903 0.4250305 255 0 255
0.02451037 -0.00776053 0.4237867 255 0 255
0.03289564 -0.007555912 0.4272399 255 0 255
0.03587931 -0.007509411 0.4306927 255 0 255
0.04149868 -0.007270158 0.4304399 255 0 255
0.04541579 -0.006838907 0.4191564 255 0 255
-0.05202479 -0.007611417 0.4351571 255 0 255
-0.04957671 -0.007719169 0.4323575 255 0 255
-0.04848792 -0.007787005 0.4324452 255 0 255
-0.04178081 -0.008124666 0.4298889 255 0 255
-0.03957381 -0.00822386 0.429002 255 0 255
-0.03306631 -0.008496474 0.4272387 255 0 255
-0.03199753 -0.008541272 0.4272634 255 0 255
-0.03092868 -0.008584668 0.4272842 255 0 255
-0.02772851 -0.008721166 0.4283218 255 0 255
-0.01914734 -0.008982747 0.4282433 255 0 255
-0.01294997 -0.009036136 0.4230196 255 0 255
0.001555344 -0.009115392 0.4199443 255 0 255
0.01262562 -0.009110183 0.4236523 255 0 255
0.01714431 -0.00906712 0.4250099 255 0 255
0.03462883 -0.008694327 0.4299246 255 0 255
-0.05788126 -0.008871406 0.4596934 255 0 255
-0.04950229 -0.008829151 0.4313454 255 0 255
-0.03734246 -0.009407903 0.4270816 255 0 255
-0.01298567 -0.0101104 0.4220002 255 0 255
-0.005794977 -0.01016079 0.4195614 255 0 255
-0.0006007525 -0.0101839 0.4191279 255 0 255
0.002615287 -0.01020181 0.419815 255 0 255
0.01265112 -0.01021979 0.423628 255 0 255
0.01370575 -0.01020309 0.4234792 255 0 255
0.02263618 -0.01007754 0.4251001 255 0 255
0.03063472 -0.00989536 0.4266494 255 0 255
0.0331767 -0.009850602 0.4281683 255 0 255
0.03987071 -0.00972558 0.4328408 255 0 255
-0.05380581 -0.009938516 0.4419885 255 0 255
-0.04850433 -0.01003769 0.432409 255 0 255
-0.03304077 -0.01068632 0.4261989 255 0 255
0.009253088 -0.01132113 0.4220388 255 0 255
0.01841704 -0.01130399 0.4257767 255 0 255
0.02194193 -0.01127527 0.4272236 255 0 255
0.02834371 -0.01108203 0.4260588 255 0 255
0.03707758 -0.01092364 0.4303719 255 0 255
0.04474216 -0.01071646 0.4337158 255 0 255
-0.04960388 -0.01109357 0.4322971 255 0 255
-0.0451724 -0.01133619 0.4316232 255 0 255
-0.0406625 -0.01150362 0.4288844 255 0 255
-0.03624119 -0.01164277 0.4260754 255 0 255
-0.02877473 -0.01196101 0.4262447 255 0 255
-0.02450732 -0.01211099 0.4262524 255 0 255
-0.01502708 -0.01227929 0.4230366 255 0 255
0.00275669 -0.01240746 0.4207509 255 0 255
0.01375553 -0.01242144 0.4234173 255 0 255
0.01601496 -0.01241225 0.4240956 255 0 255
0.01950817 -0.01240112 0.425572 255 0 255
0.03324859 -0.0121333 0.4281004 255 0 255
0.04454475 -0.01186396 0.432707 255 0 255
-0.06006707 -0.01353639 0.4935577 255 0 255
-0.04735624 -0.01232707 0.4314409 255 0 255
-0.04180193 -0.01258517 0.4297952 255 0 255
-0.03954166 -0.01264207 0.4279088 255 0 255
-0.0384227 -0.01266772 0.4269589 255 0 255
-0.03517754 -0.01279317 0.426081 255 0 255
-0.02982726 -0.0129913 0.4252017 255 0 255
-0.02344577 -0.01321695 0.4252123 255 0 255
-0.02131883 -0.01328061 0.4251835 255 0 255
-0.01919222 -0.01333848 0.4251387 255 0 255
-0.01096452 -0.01335003 0.4198085 255 0 255
-0.006865488 -0.01336868 0.4185497 255 0 255
-0.004712857 -0.01341845 0.4193921 255 0 255
-0.002546227 -0.01346266 0.4202177 255 0 255
0.008491507 -0.01359822 0.4240856 255 0 255
0.02609137 -0.01337907 0.4254061 255 0 255
0.02715463 -0.01334482 0.4252064 255 0 255
0.0345662 -0.01326098 0.42881 255 0 255
-0.05289517 -0.01356264 0.4439935 255 0 255
-0.04613419 -0.01345056 0.4294914 255 0 255
-0.04397192 -0.01357789 0.4296343 255 0 255
-0.04067419 -0.01372511 0.4288197 255 0 255
-0.03735667 -0.01382451 0.4269685 255 0 255
-0.03089187 -0.01404599 0.4251502 255 0 255
-0.02981357 -0.01405441 0.4241667 255 0 255
-0.01399957 -0.01445032 0.4219229 255 0 255
-0.0130421 -0.01439731 0.4198782 255 0 255
-0.01095511 -0.01443178 0.4197707 255 0 255
-0.004622531 -0.01453779 0.4203497 255 0 255
0.004161602 -0.01469759 0.4235442 255 0 255
0.008511457 -0.01470612 0.4240445 255 0 255
0.01274502 -0.01465481 0.4234873 255 0 255
0.01956104 -0.01464243 0.4254906 255 0 255
0.02399101 -0.01456775 0.42575 255 0 255
0.02737233 -0.01450465 0.4261442 255 0 255
0.04134617 -0.01436579 0.433402 255 0 255
0.04714292 -0.01392354 0.4288927 255 0 255
0.04774532 -0.01360597 0.4225367 255 0 255
0.04801164 -0.01344695 0.4193615 255 0 255
-0.0513362 -0.01463518 0.439075 255 0 255
-0.04862311 -0.01456944 0.4332792 255 0 255
-0.04068093 -0.01483522 0.4287807 255 0 255
-0.02769957 -0.01526818 0.4251449 255 0 255
-0.01711782 -0.01551121 0.4230008 255 0 255
-0.005656602 -0.0156159 0.4203865 255 0 255
-0.004532833 -0.0156647 0.4213029 255 0 255
-0.0001505651 -0.01576456 0.4229325 255 0 255
0.007350815 -0.01578219 0.4231364 255 0 255
0.008530617 -0.01581364 0.423999 255 0 255
0.01942498 -0.01572257 0.4244573 255 0 255
0.02277935 -0.01568209 0.4249058 255 0 255
0.02846918 -0.01559703 0.4258911 255 0 255
0.03099921 -0.01559859 0.4274281 255 0 255
0.03314314 -0.0155161 0.4269875 255 0 255
0.03830549 -0.0154849 0.4299555 255 0 255
0.04286327 -0.01531282 0.4299183 255 0 255
-0.04176745 -0.01588601 0.4286809 255 0 255
-0.03956009 -0.01596156 0.4277918 255 0 255
-0.03302608 -0.01614819 0.4250233 255 0 255
-0.01711302 -0.01660291 0.4229548 255 0 255
-0.01605612 -0.01662724 0.4229181 255 0 255
-0.00119362 -0.01686026 0.422981 255 0 255
-4.39229E-05 -0.01690754 0.4238788 255 0 255
0.001016294 -0.0169087 0.4237777 255 0 255
0.005364911 -0.0169435 0.4243259 255 0 255
0.02868975 -0.01676784 0.4268187 255 0 255
0.02995588 -0.01677337 0.4275889 255 0 255
0.03102972 -0.01673431 0.4273746 255 0 255
0.04181707 -0.01652282 0.4301219 255 0 255
0.04398247 -0.01641175 0.4295994 255 0 255
-0.04630779 -0.01687345 0.4313565 255 0 255
-0.03956742 -0.01706723 0.4277441 255 0 255
-0.0351944 -0.01719156 0.4259148 255 0 255
-0.02663027 -0.0174082 0.4230564 255 0 255
0.003150196 -0.01800895 0.4235101 255 0 255
0.004209708 -0.01800587 0.4233969 255 0 255
0.01294556 -0.01802548 0.4243256 255 0 255
0.02531851 -0.0179552 0.4263835 255 0 255
0.03728953 -0.01783606 0.4300832 255 0 255
-0.04771188 -0.01811316 0.4352114 255 0 255
-0.04646252 -0.01808714 0.4332973 255 0 255
-0.04070457 -0.01816303 0.4286375 255 0 255
-0.03738034 -0.01823457 0.4267856 255 0 255
-0.02878023 -0.01856829 0.4259894 255 0 255
-0.02771006 -0.01860951 0.4259964 255 0 255
-0.02025987 -0.01875369 0.4239356 255 0 255
-0.01186811 -0.01884193 0.4216279 255 0 255
-0.008771504 -0.01883733 0.4204492 255 0 255
0.02072337 -0.0190951 0.4250999 255 0 255
0.0334421 -0.01897234 0.42779 255 0 255
0.03710359 -0.01893669 0.4290447 255 0 255
0.03862778 -0.0189878 0.4307511 255 0 255
0.04211979 -0.0188814 0.4309687 255 0 255
0.04429499 -0.01876963 0.4304441 255 0 255
0.04895692 -0.01806468 0.4220257 255 0 255
-0.04185091 -0.0192637 0.4295221 255 0 255
-0.03742883 -0.01938903 0.4277267 255 0 255
-0.03092465 -0.01958065 0.4259058 255 0 255
-0.02985402 -0.01962508 0.4259208 255 0 255
-0.02878334 -0.01966802 0.4259317 255 0 255
-0.0234561 -0.01969529 0.4229302 255 0 255
-0.01816129 -0.01984919 0.4228244 255 0 255
-0.01186265 -0.01992939 0.4215686 255 0 255
-0.006596199 -0.02000256 0.4212446 255 0 255
-0.003358128 -0.02008547 0.4219977 255 0 255
0.0009579105 -0.02015692 0.422612 255 0 255
0.00753676 -0.02024844 0.4239038 255 0 255
0.01298291 -0.02024622 0.4242029 255 0 255
0.01967834 -0.02023878 0.4252109 255 0 255
0.03111577 -0.02013899 0.4271875 255 0 255
0.03605218 -0.02012998 0.4292141 255 0 255
0.04457017 -0.01998033 0.4313439 255 0 255
0.04994615 -0.01994554 0.4341031 255 0 255
-0.04663053 -0.02044976 0.4351714 255 0 255
-0.04545529 -0.02046215 0.4342493 255 0 255
-0.04422329 -0.0204169 0.432326 255 0 255
-0.037478 -0.02055082 0.428663 255 0 255
-0.03635861 -0.02054787 0.4277048 255 0 255
-0.03307153 -0.02058554 0.4258023 255 0 255
-0.03094754 -0.02073738 0.4268422 255 0 255
-0.02985827 -0.02072408 0.4258588 255 0 255
-0.02238493 -0.02087702 0.4238529 255 0 255
-0.02027841 -0.02088136 0.4228161 255 0 255
-0.01713228 -0.02090585 0.4217305 255 0 255
-0.01498255 -0.02101429 0.4226496 255 0 255
-0.008695642 -0.02106517 0.4213221 255 0 255
0.01193562 -0.02137057 0.4242817 255 0 255
0.01542094 -0.02144246 0.4258047 255 0 255
0.02324682 -0.02139584 0.4265687 255 0 255
0.02414342 -0.02130662 0.425397 255 0 255
0.02772368 -0.02132662 0.4267683 255 0 255
0.02860588 -0.02123175 0.4255826 255 0 255
0.0373827 -0.02128663 0.4298784 255 0 255
0.04218603 -0.02119682 0.4308259 255 0 255
0.05060752 -0.02065662 0.4276642 255 0 255
0.05167918 -0.02030037 0.4232309 255 0 255
-0.04835673 -0.0219843 0.4429906 255 0 255
-0.04423521 -0.021539 0.4322603 255 0 255
-0.03970018 -0.02160612 0.4295034 255 0 255
-0.02557822 -0.02186213 0.4238146 255 0 255
-0.0181867 -0.02196475 0.4216967 255 0 255
-0.01501951 -0.02204042 0.4215847 255 0 255
-0.009861634 -0.02200898 0.4193265 255 0 255
-0.00875245 -0.02208806 0.4202578 255 0 255
0.009692011 -0.02244005 0.4235013 255 0 255
0.0107546 -0.02242851 0.4233631 255 0 255
0.01666018 -0.02260463 0.4265586 255 0 255
0.03352638 -0.02238615 0.4275751 255 0 255
0.04221769 -0.02235383 0.4307477 255 0 255
0.04790822 -0.02212221 0.4303697 255 0 255
0.0509066 -0.02186858 0.4285485 255 0 255
-0.03641269 -0.02282177 0.4285662 255 0 255
-0.03095898 -0.02294127 0.4267052 255 0 255
-0.02558055 -0.02301995 0.4247417 255 0 255
-0.01501767 -0.02312592 0.4215131 255 0 255
-0.01084986 -0.02313906 0.4203116 255 0 255
-0.008684992 -0.02323885 0.4211813 255 0 255
-0.007630378 -0.02325252 0.4211121 255 0 255
-0.005447941 -0.02334375 0.4219568 255 0 255
-0.002276119 -0.0233672 0.4217008 255 0 255
0.01438359 -0.02369417 0.4258105 255 0 255
0.02097309 -0.02363386 0.4257986 255 0 255
0.0288463 -0.02354936 0.4264077 255 0 255
0.03099411 -0.02347296 0.4259832 255 0 255
0.04333878 -0.02345502 0.4304044 255 0 255
0.05120487 -0.02308789 0.4294277 255 0 255
-0.04432502 -0.02384917 0.4331113 255 0 255
-0.04086104 -0.02383616 0.4303037 255 0 255
-0.03972132 -0.0238279 0.4293588 255 0 255
-0.03530463 -0.02391385 0.4275292 255 0 255
-0.01396006 -0.02423361 0.4213916 255 0 255
-0.01290377 -0.02425485 0.4213422 255 0 255
-0.0107918 -0.02429283 0.4212313 255 0 255
0.001095549 -0.02461353 0.4233162 255 0 255
0.01547206 -0.02479295 0.425573 255 0 255
0.02348303 -0.02484244 0.4273151 255 0 255
0.02563983 -0.02478117 0.4269307 255 0 255
0.05150235 -0.02431469 0.430302 255 0 255
0.05752175 -0.0244312 0.4348452 255 0 255
-0.04323652 -0.02503926 0.4330964 255 0 255
-0.04092583 -0.02502188 0.4312207 255 0 255
-0.02991016 -0.02526292 0.4275622 255 0 255
-0.02236835 -0.02539338 0.4255539 255 0 255
-0.02131158 -0.0253521 0.4245387 255 0 255
-0.01607317 -0.0252711 0.4213987 255 0 255
-0.01073442 -0.02545406 0.4221461 255 0 255
-0.00967442 -0.02547107 0.4220844 255 0 255
-0.002176474 -0.02562495 0.4225343 255 0 255
0.001200893 -0.02578863 0.4242254 255 0 255
0.004620573 -0.02593884 0.4258761 255 0 255
0.008914976 -0.02591454 0.4253742 255 0 255
0.01640966 -0.02581399 0.4243412 255 0 255
0.04557828 -0.02565085 0.4296914 255 0 255
0.04966567 -0.02532948 0.4276112 255 0 255
-0.04682 -0.02753062 0.4527768 255 0 255
-0.04099132 -0.02621489 0.4321328 255 0 255
-0.02774787 -0.02637731 0.4264971 255 0 255
-0.02666734 -0.02634067 0.4255021 255 0 255
-0.02452455 -0.02634056 0.4244968 255 0 255
-0.01818959 -0.02630127 0.4213862 255 0 255
-0.008611768 -0.02657567 0.4219331 255 0 255
-0.007551756 -0.02658987 0.4218632 255 0 255
0.002478757 -0.02705222 0.4260143 255 0 255
0.01094004 -0.0269243 0.4240215 255 0 255
0.0164247 -0.02692538 0.4242511 255 0 255
0.01764783 -0.02698479 0.4250721 255 0 255
0.01887792 -0.02704255 0.425888 255 0 255
0.0211932 -0.02707348 0.426521 255 0 255
0.02334752 -0.02701866 0.4261537 255 0 255
0.02460069 -0.02706815 0.426945 255 0 255
0.02657349 -0.02692498 0.4255725 255 0 255
0.03992126 -0.02700591 0.4299291 255 0 255
0.04256818 -0.02705388 0.4313597 255 0 255
0.0439013 -0.02707496 0.4320662 255 0 255
0.04585252 -0.02688203 0.4305616 255 0 255
0.04969719 -0.02647999 0.4275148 255 0 255
0.05481126 -0.02605929 0.4250738 255 0 255
-0.04111036 -0.02749503 0.4340352 255 0 255
-0.02883302 -0.02743424 0.4264028 255 0 255
-0.02667665 -0.0275196 0.4264103 255 0 255
-0.02024845 -0.02757321 0.4243431 255 0 255
-0.01497761 -0.02754644 0.4221796 255 0 255
-0.01275976 -0.02775904 0.4240741 255 0 255
-0.005428855 -0.02770286 0.4216214 255 0 255
0.00356241 -0.02816138 0.4258099 255 0 255
0.005713605 -0.02815572 0.4255746 255 0 255
0.006788498 -0.02815059 0.4254509 255 0 255
0.01095158 -0.02803089 0.4239281 255 0 255
0.03472898 -0.02802212 0.4269003 255 0 255
0.03602358 -0.02805853 0.427641 255 0 255
0.04612593 -0.02812061 0.4314267 255 0 255
0.05080901 -0.02756369 0.4271253 255 0 255
0.05108752 -0.02725875 0.4239514 255 0 255
0.05188448 -0.0271113 0.4226983 255 0 255
0.05400936 -0.02696986 0.422101 255 0 255
-0.0426867 -0.02922737 0.4418451 255 0 255
-0.03426341 -0.02837745 0.4272172 255 0 255
-0.03209896 -0.02847892 0.4272651 255 0 255
-0.03101661 -0.02852735 0.4272829 255 0 255
-0.01604163 -0.02860824 0.4221286 255 0 255
-0.01383018 -0.02883192 0.4240305 255 0 255
-0.005425863 -0.02879133 0.4215269 255 0 255
-0.004443624 -0.02871333 0.4204518 255 0 255
0.02445886 -0.02923449 0.4257672 255 0 255
0.03130522 -0.02919715 0.426495 255 0 255
0.03843404 -0.02918643 0.4280303 255 0 255
0.04700233 -0.02913733 0.4300804 255 0 255
0.05110265 -0.02879622 0.4279809 255 0 255
-0.03892116 -0.02987325 0.4339425 255 0 255
-0.03659001 -0.02972487 0.4310384 255 0 255
-0.02453789 -0.02970911 0.4252149 255 0 255
-0.02025721 -0.02975998 0.4241524 255 0 255
-0.004362951 -0.02988945 0.421346 255 0 255
0.01311074 -0.03021595 0.4234371 255 0 255
0.01417914 -0.0302004 0.4232856 255 0 255
0.03112483 -0.03023672 0.4254131 255 0 255
0.03240445 -0.03028637 0.426169 255 0 255
0.03976884 -0.03036675 0.4286458 255 0 255
0.0481226 -0.03023212 0.4296917 255 0 255
-0.03667827 -0.03102574 0.4329265 255 0 255
-0.0343463 -0.03076554 0.4290104 255 0 255
-0.03212 -0.03068252 0.4270671 255 0 255
-0.02454048 -0.03089893 0.4261089 255 0 255
-0.02131801 -0.03091395 0.4250688 255 0 255
-0.006483537 -0.0309547 0.4214034 255 0 255
0.008839675 -0.03136761 0.4238971 255 0 255
0.0131209 -0.03132102 0.4233305 255 0 255
0.0243133 -0.0313828 0.4245734 255 0 255
0.02682964 -0.03150875 0.4261387 255 0 255
0.02918068 -0.03153304 0.4267056 255 0 255
0.04596065 -0.03151141 0.4301302 255 0 255
0.05142372 -0.03119211 0.4287163 255 0 255
0.05305852 -0.03087207 0.4262058 255 0 255
0.05493756 -0.03063787 0.4246435 255 0 255
-0.04430318 -0.03763705 0.4922814 255 0 255
-0.03326743 -0.03192646 0.4289301 255 0 255
-0.03106601 -0.03193 0.427974 255 0 255
-0.02999283 -0.03207536 0.4289825 255 0 255
-0.02453901 -0.03219423 0.427993 255 0 255
-0.009611989 -0.03209573 0.4225012 255 0 255
-0.008545377 -0.03211237 0.4224344 255 0 255
-0.006412949 -0.03214109 0.4222889 255 0 255
-0.003134669 -0.0322727 0.4230323 255 0 255
0.007895062 -0.03257946 0.4249062 255 0 255
0.009918628 -0.03246251 0.423651 255 0 255
0.01633666 -0.03237477 0.4227524 255 0 255
0.02076904 -0.03238488 0.4230547 255 0 255
0.04549469 -0.03247498 0.4280817 255 0 255
0.05349827 -0.03086233 0.4156246 255 0 255
0.05453763 -0.03078885 0.4153221 255 0 255
-0.03461211 -0.03378647 0.4367499 255 0 255
-0.02346795 -0.03323685 0.4268757 255 0 255
-0.01696249 -0.03343673 0.4267233 255 0 255
-0.01587861 -0.0334646 0.4266838 255 0 255
-0.01487374 -0.03328459 0.4246524 255 0 255
-0.01169773 -0.03325043 0.423505 255 0 255
-0.0009060801 -0.03348482 0.4237242 255 0 255
0.01005351 -0.03366999 0.4245224 255 0 255
0.01971118 -0.03351774 0.4231147 255 0 255
0.03677521 -0.03349405 0.4249031 255 0 255
0.04357596 -0.03383894 0.4294587 255 0 255
0.04954967 -0.03373469 0.4300124 255 0 255
0.05550378 -0.03265368 0.422185 255 0 255
-0.03123783 -0.03497922 0.4357032 255 0 255
-0.007348644 -0.03452168 0.4241201 255 0 255
0.002312471 -0.03459252 0.4232959 255 0 255
0.00348892 -0.03470057 0.4241729 255 0 255
0.01742445 -0.03456247 0.4223531 255 0 255
0.03355662 -0.03475768 0.4254754 255 0 255
0.03442499 -0.03460818 0.4242756 255 0 255
0.03701281 -0.03472682 0.4257488 255 0 255
0.04662945 -0.03470858 0.427559 255 0 255
0.04931726 -0.03478961 0.4289228 255 0 255
0.05041032 -0.03472391 0.4286357 255 0 255
0.0539542 -0.03461967 0.4287069 255 0 255
0.05477111 -0.03444514 0.4274465 255 0 255
-0.03430527 -0.03937723 0.4663475 255 0 255
-0.01046857 -0.0357889 0.4261866 255 0 255
-0.00280639 -0.03600076 0.4266434 255 0 255
0.02328982 -0.03587581 0.4242845 255 0 255
0.05095481 -0.03609177 0.4304219 255 0 255
0.05205474 -0.0360239 0.4301287 255 0 255
-0.03193417 -0.04131326 0.4712173 255 0 255
-0.02913228 -0.03847955 0.4454108 255 0 255
-0.02021892 -0.0367637 0.4274504 255 0 255
-0.01803999 -0.03682882 0.4273905 255 0 255
0.00467792 -0.03701812 0.4247943 255 0 255
0.006836169 -0.03701115 0.4245489 255 0 255
0.009116585 -0.03711366 0.4252731 255 0 255
0.0132989 -0.03695291 0.4237166 255 0 255
0.01866875 -0.03686157 0.4229128 255 0 255
0.02330038 -0.03699014 0.4241541 255 0 255
0.02760335 -0.03686329 0.4233699 255 0 255
0.03966361 -0.03711414 0.4269345 255 0 255
0.0501328 -0.03743022 0.431533 255 0 255
0.05647386 -0.03741146 0.4329059 255 0 255
0.05702616 -0.03711637 0.430684 255 0 255
0.0578452 -0.03693023 0.4294152 255 0 255
0.05657021 -0.03454763 0.4100935 255 0 255
-0.02456614 -0.03830716 0.4323581 255 0 255
-0.01909058 -0.03813861 0.4292785 255 0 255
-0.01692709 -0.03808279 0.4282171 255 0 255
-0.01369025 -0.03804594 0.4270917 255 0 255
-0.01146122 -0.03821177 0.4279743 255 0 255
-0.01036861 -0.03823283 0.4279135 255 0 255
0.01330419 -0.0380582 0.4235837 255 0 255
0.01775797 -0.03810772 0.423929 255 0 255
0.02761499 -0.03797702 0.4232348 255 0 255
0.02868927 -0.03794144 0.4230286 255 0 255
0.03360203 -0.03813624 0.4250773 255 0 255
0.05677139 -0.03817008 0.4295865 255 0 255
-0.01910023 -0.03925042 0.4291438 255 0 255
-0.01802987 -0.03916038 0.4281191 255 0 255
-0.01587726 -0.03909761 0.4270503 255 0 255
-0.01256085 -0.03929829 0.4278959 255 0 255
-0.003821336 -0.03943663 0.4273273 255 0 255
0.007073111 -0.03946716 0.4262514 255 0 255
0.02099489 -0.03914779 0.4232703 255 0 255
0.02331893 -0.03921675 0.4238803 255 0 255
0.04586601 -0.03946922 0.4282411 255 0 255
-0.02338051 -0.04210145 0.443975 255 0 255
-0.01585074 -0.04032816 0.4279031 255 0 255
-0.005939135 -0.04064844 0.4283431 255 0 255
0.003913481 -0.04071303 0.4274617 255 0 255
0.01684233 -0.04047155 0.4247947 255 0 255
0.02548279 -0.04026894 0.4233523 255 0 255
0.02871088 -0.04016689 0.4227453 255 0 255
0.03948435 -0.04039895 0.4255385 255 0 255
0.0513005 -0.04085385 0.4308 255 0 255
0.05240618 -0.04078537 0.4305054 255 0 255
0.05599169 -0.04069202 0.4305505 255 0 255
0.0581997 -0.04053985 0.4299223 255 0 255
0.05982166 -0.04013946 0.4273793 255 0 255
0.05973706 -0.03957599 0.4232607 255 0 255
-0.02318675 -0.0465114 0.4686127 255 0 255
-0.02114348 -0.04283074 0.4398201 255 0 255
-0.01905024 -0.04186252 0.431835 255 0 255
-0.01692369 -0.04153614 0.4287916 255 0 255
-0.01582492 -0.04156588 0.4287506 255 0 255
-0.002574076 -0.04192894 0.4289284 255 0 255
0.009497782 -0.04193927 0.4276665 255 0 255
0.01684661 -0.04158285 0.4246477 255 0 255
0.02208445 -0.04133768 0.422799 255 0 255
0.03106983 -0.04133236 0.4231433 255 0 255
0.05850461 -0.04183034 0.4307157 255 0 255
0.05961092 -0.0417514 0.4303943 255 0 255
0.06013483 -0.04142134 0.4281714 255 0 255
0.06191164 -0.04055184 0.4224504 255 0 255
0.06344012 -0.04013336 0.4198926 255 0 255
0.06588296 -0.040079 0.4201503 255 0 255
-0.02091671 -0.04599072 0.45453 255 0 255
-0.01469695 -0.04283902 0.4295474 255 0 255
-0.01023233 -0.04307149 0.4303143 255 0 255
-0.002497199 -0.04318069 0.4297656 255 0 255
-0.001393407 -0.04318981 0.4296708 255 0 255
-0.0003794385 -0.04306201 0.4285851 255 0 255
0.007306234 -0.04306946 0.4277812 255 0 255
0.009622138 -0.04319244 0.4284979 255 0 255
0.01685008 -0.04269344 0.4244963 255 0 255
0.03559981 -0.04240878 0.4230565 255 0 255
0.06253781 -0.04194778 0.4241808 255 0 255
0.06331416 -0.04173439 0.4229009 255 0 255
0.06369209 -0.04032843 0.4134108 255 0 255
0.003216695 -0.04460917 0.4310651 255 0 255
0.006320241 -0.04432932 0.4287365 255 0 255
0.02192505 -0.04341228 0.4215164 255 0 255
0.02317175 -0.04352329 0.422306 255 0 255
0.02784914 -0.04367328 0.4234667 255 0 255
0.03929626 -0.04365378 0.4241063 255 0 255
0.04193033 -0.04381993 0.4255276 255 0 255
0.04325714 -0.04389997 0.4262295 255 0 255
0.06127432 -0.04365922 0.4275161 255 0 255
0.06642815 -0.04309388 0.4248768 255 0 255
-0.007975062 -0.04549043 0.4308524 255 0 255
0.001083665 -0.04587218 0.4321094 255 0 255
0.003313551 -0.04587979 0.4318883 255 0 255
0.01059213 -0.0452823 0.4270591 255 0 255
0.01373747 -0.04510446 0.4256365 255 0 255
0.02443036 -0.04474192 0.4229297 255 0 255
0.02766632 -0.04464481 0.4223335 255 0 255
0.02981969 -0.04457209 0.4219161 255 0 255
0.03799966 -0.04468888 0.4232235 255 0 255
0.04326974 -0.04503659 0.4260634 255 0 255
0.04763001 -0.04479607 0.4249803 255 0 255
0.05032557 -0.04494309 0.4263253 255 0 255
0.0555168 -0.04507424 0.4279914 255 0 255
0.05633627 -0.04486173 0.4267309 255 0 255
0.05799711 -0.0450592 0.428316 255 0 255
0.0593845 -0.04511717 0.4289447 255 0 255
0.06129428 -0.04481785 0.4273455 255 0 255
0.06598151 -0.044608 0.4269358 255 0 255
-0.009036765 -0.04673883 0.4317469 255 0 255
0.007415818 -0.04656507 0.4282833 255 0 255
0.01168635 -0.0463881 0.4267507 255 0 255
0.02135679 -0.04607958 0.4243004 255 0 255
0.027861 -0.04589932 0.4231394 255 0 255
0.03541281 -0.04561584 0.4216027 255 0 255
0.04630477 -0.0458512 0.4241288 255 0 255
0.04764348 -0.04593163 0.4248095 255 0 255
0.05143314 -0.04601831 0.4258623 255 0 255
0.05940251 -0.0462792 0.4287691 255 0 255
0.06810657 -0.04443194 0.4187874 255 0 255
-0.01303783 -0.04942038 0.4426867 255 0 255
-0.006618845 -0.04835285 0.4343908 255 0 255
0.004522971 -0.0482928 0.4324175 255 0 255
0.01291575 -0.04764253 0.427413 255 0 255
0.02569966 -0.0470777 0.4233725 255 0 255
0.0278656 -0.0470112 0.4229693 255 0 255
0.03434388 -0.046773 0.4216636 255 0 255
0.03649632 -0.04668068 0.4211964 255 0 255
0.04149417 -0.04692021 0.4230967 255 0 255
0.04874422 -0.04700207 0.4243535 255 0 255
0.05009245 -0.0470824 0.4250225 255 0 255
-0.004154786 -0.04998423 0.4370063 255 0 255
-0.0009138361 -0.04971015 0.4347562 255 0 255
0.001343498 -0.04972536 0.4345488 255 0 255
0.01809543 -0.04837028 0.4244839 255 0 255
0.02588409 -0.0483426 0.4241695 255 0 255
0.02895156 -0.04808665 0.4225871 255 0 255
0.05747939 -0.04823396 0.4258833 255 0 255
0.07060746 -0.04664795 0.4186451 255 0 255
-0.009369839 -0.05246147 0.4460836 255 0 255
0.006861146 -0.05071552 0.4327949 255 0 255
0.009978858 -0.05038351 0.4304321 255 0 255
0.01510944 -0.04985066 0.4267509 255 0 255
0.01918359 -0.04945924 0.4241344 255 0 255
0.02027213 -0.04943658 0.4239587 255 0 255
0.02895483 -0.0491969 0.4224083 255 0 255
0.04717062 -0.04902436 0.4223613 255 0 255
0.05229652 -0.04921928 0.4240732 255 0 255
0.05447212 -0.04907491 0.4234728 255 0 255
0.0561178 -0.04930609 0.4250621 255 0 255
0.06746819 -0.04930678 0.4267939 255 0 255
0.06902347 -0.04881897 0.4242101 255 0 255
0.07021571 -0.04817803 0.4206871 255 0 255
0.070017 -0.04694085 0.4134416 255 0 255
0.000554073 -0.0526473 0.4382189 255 0 255
0.003785572 -0.05233819 0.4359208 255 0 255
0.005839611 -0.05201509 0.4337166 255 0 255
0.008979456 -0.05168059 0.4313649 255 0 255
0.0191821 -0.05056842 0.4239522 255 0 255
0.03414814 -0.04994315 0.4201619 255 0 255
0.04344249 -0.0500132 0.4210741 255 0 255
0.05339665 -0.05028368 0.4235858 255 0 255
0.05613048 -0.05044948 0.4248714 255 0 255
-0.004619165 -0.0580445 0.4641638 255 0 255
-0.001421911 -0.05444683 0.4421597 255 0 255
0.01442015 -0.05259705 0.4294656 255 0 255
0.01538869 -0.05241609 0.4283315 255 0 255
0.01917977 -0.05167677 0.4237656 255 0 255
0.05204935 -0.05132868 0.4227409 255 0 255
0.06328648 -0.05142257 0.4246204 255 0 255
0.0657805 -0.05140405 0.424876 255 0 255
0.07123569 -0.05093054 0.4230947 255 0 255
0.07199071 -0.05067426 0.421796 255 0 255
0.01020811 -0.05410594 0.4318206 255 0 255
0.02806462 -0.05272765 0.4230215 255 0 255
0.03822182 -0.051793 0.4178756 255 0 255
0.05667896 -0.05232766 0.4222749 255 0 255
0.05942971 -0.05249697 0.423527 255 0 255
0.06720238 -0.05262675 0.4252615 255 0 255
0.07320881 -0.04997527 0.4117656 255 0 255
0.004072408 -0.05838518 0.4501472 255 0 255
0.004764122 -0.05751749 0.4451282 255 0 255
0.007278745 -0.05594993 0.4359398 255 0 255
0.01933119 -0.05406486 0.4243516 255 0 255
0.02261141 -0.05399236 0.4238093 255 0 255
0.02697496 -0.05387256 0.4230299 255 0 255
0.0300426 -0.05359247 0.4214382 255 0 255
0.03092463 -0.05338086 0.4202577 255 0 255
0.04453991 -0.05329987 0.4202264 255 0 255
0.04777077 -0.05311293 0.4194057 255 0 255
0.05396212 -0.05327479 0.4207971 255 0 255
0.07526613 -0.05265841 0.4202631 255 0 255
0.01031541 -0.05654972 0.4323945 255 0 255
0.01662712 -0.05594399 0.4285498 255 0 255
0.0258828 -0.05501489 0.4230301 255 0 255
0.02895788 -0.05473575 0.4214501 255 0 255
0.03200276 -0.05444257 0.4198386 255 0 255
0.04166855 -0.05400495 0.4176854 255 0 255
0.0515364 -0.05437046 0.4202412 255 0 255
0.0550508 -0.05432448 0.4202873 255 0 255
0.05669779 -0.05459242 0.4218655 255 0 255
0.05807098 -0.05468572 0.4224932 255 0 255
0.06800876 -0.05467254 0.4235563 255 0 255
0.07336527 -0.05478606 0.4248911 255 0 255
0.009472739 -0.06844356 0.4906707 255 0 255
0.008862867 -0.05897032 0.4392963 255 0 255
0.02569792 -0.05594272 0.4218587 255 0 255
0.02876276 -0.05566011 0.4202813 255 0 255
0.04512702 -0.05510857 0.4176436 255 0 255
0.05996026 -0.05548228 0.4206985 255 0 255
0.07430044 -0.05319905 0.4107783 255 0 255
0.01141618 -0.06850833 0.4832882 255 0 255
0.01000722 -0.06012745 0.4389395 255 0 255
0.01947261 -0.05757671 0.4247083 255 0 255
0.02442814 -0.05689236 0.4208801 255 0 255
0.02659553 -0.05682974 0.4204847 255 0 255
0.03480098 -0.05614537 0.4168259 255 0 255
0.03693639 -0.05605031 0.4163544 255 0 255
0.03906805 -0.0559487 0.4158672 255 0 255
0.04036732 -0.05607839 0.4165724 255 0 255
0.04594695 -0.05596837 0.4162119 255 0 255
0.05343043 -0.05628438 0.4182803 255 0 255
0.05478451 -0.05639011 0.4189207 255 0 255
0.06321266 -0.05635529 0.4194909 255 0 255
0.06816163 -0.05634341 0.4199737 255 0 255
0.07599612 -0.05643995 0.4214647 255 0 255
0.01962372 -0.058877 0.4254636 255 0 255
0.02568878 -0.05815019 0.4214375 255 0 255
0.03179305 -0.05755546 0.4182533 255 0 255
0.03286806 -0.05751351 0.4180304 255 0 255
0.05315902 -0.0572139 0.4171203 255 0 255
0.06291471 -0.05730153 0.4183363 255 0 255
0.07566559 -0.05741096 0.4203175 255 0 255
0.01977391 -0.06018408 0.4262131 255 0 255
0.03091395 -0.05888254 0.419217 255 0 255
0.03178953 -0.05865006 0.4180374 255 0 255
0.03671062 -0.05804129 0.4149718 255 0 255
0.04381458 -0.0582876 0.416319 255 0 255
0.06538589 -0.05843084 0.418365 255 0 255
0.07502897 -0.05623021 0.4088313 255 0 255
0.07499485 -0.05557797 0.4057012 255 0 255
0.01369994 -0.06397898 0.439758 255 0 255
0.01687748 -0.06195009 0.4294101 255 0 255
0.02181392 -0.06105711 0.4246606 255 0 255
0.02291671 -0.06103136 0.424474 255 0 255
0.04701844 -0.05919848 0.4152841 255 0 255
0.06077131 -0.05972069 0.4185478 255 0 255
0.06292788 -0.05954757 0.4178846 255 0 255
0.06400417 -0.05945852 0.4175471 255 0 255
0.07002196 -0.05936353 0.4176517 255 0 255
0.0710973 -0.05926371 0.417288 255 0 255
0.07284275 -0.0595365 0.4187668 255 0 255
0.03157537 -0.06063665 0.4166345 255 0 255
0.03776876 -0.06016202 0.4142886 255 0 255
0.04808468 -0.06022893 0.4147791 255 0 255
0.05910481 -0.06053749 0.4167704 255 0 255
0.06077556 -0.06084253 0.4183156 255 0 255
0.07077294 -0.0602003 0.4161303 255 0 255
0.07359166 -0.0603772 0.4172358 255 0 255
0.03350169 -0.06143587 0.4150022 255 0 255
0.04012565 -0.06134325 0.4145181 255 0 255
0.04225529 -0.06123124 0.4140068 255 0 255
0.04914956 -0.06125659 0.4142658 255 0 255
0.05715879 -0.06113655 0.4140479 255 0 255
0.07609519 -0.06148844 0.4171567 255 0 255
0.07717124 -0.06137887 0.4167706 255 0 255
0.07785995 -0.05969373 0.4092026 255 0 255
0.07707888 -0.05862049 0.4042556 255 0 255
0.07736604 -0.05812416 0.4020473 255 0 255
0.01700409 -0.06722572 0.4375778 255 0 255
0.0181144 -0.06552 0.4295036 255 0 255
0.02509324 -0.06430778 0.4233923 255 0 255
0.02872371 -0.06334274 0.4187363 255 0 255
0.06018322 -0.06267916 0.4159729 255 0 255
0.07682818 -0.0623143 0.4156106 255 0 255
0.07921864 -0.06017877 0.4063582 255 0 255
0.07839108 -0.05908755 0.4014243 255 0 255
0.01800115 -0.06815556 0.436191 255 0 255
0.02710069 -0.06514153 0.4217899 255 0 255
0.02890749 -0.06464815 0.4194568 255 0 255
0.02979819 -0.06439928 0.4182865 255 0 255
0.04011638 -0.06351552 0.4140489 255 0 255
0.04331153 -0.06334473 0.4132757 255 0 255
0.05686909 -0.06313068 0.4126365 255 0 255
0.06308932 -0.06332311 0.4138069 255 0 255
0.02125867 -0.07604661 0.4660431 255 0 255
0.02114022 -0.06727973 0.4265513 255 0 255
0.02192519 -0.06682285 0.4244422 255 0 255
0.02599204 -0.06627801 0.4217482 255 0 255
0.03987556 -0.0643863 0.4128598 255 0 255
0.04093818 -0.06433118 0.4126068 255 0 255
0.04199977 -0.06427438 0.41235 255 0 255
0.04675103 -0.06445579 0.4131691 255 0 255
0.05311792 -0.064037 0.4114418 255 0 255
0.05523095 -0.06388398 0.410835 255 0 255
0.05928785 -0.06427108 0.4126889 255 0 255
0.06864424 -0.06488629 0.4158751 255 0 255
0.06971923 -0.06478751 0.4155166 255 0 255
0.07853685 -0.05999589 0.3956406 255 0 255
0.0198158 -0.06976375 0.4324363 255 0 255
0.03086149 -0.06654464 0.4175822 255 0 255
0.05763289 -0.06502414 0.4108974 255 0 255
0.07827098 -0.06505326 0.4122519 255 0 255
0.03193341 -0.06759466 0.4171114 255 0 255
0.03388486 -0.06728594 0.4157073 255 0 255
0.04410792 -0.06631382 0.4113318 255 0 255
0.05255121 -0.06577127 0.4090752 255 0 255
0.05388535 -0.06591448 0.4097094 255 0 255
0.06384214 -0.06633008 0.4117908 255 0 255
0.06692676 -0.06679036 0.4138717 255 0 255
0.06832129 -0.06690882 0.4144404 255 0 255
0.07046384 -0.06670955 0.4137217 255 0 255
0.02520837 -0.0700698 0.4231037 255 0 255
0.02905481 -0.06925479 0.4194153 255 0 255
0.03014746 -0.06921749 0.4192013 255 0 255
0.03794894 -0.06795369 0.4135568 255 0 255
0.04647602 -0.06748969 0.4114779 255 0 255
0.05226642 -0.0666253 0.4078884 255 0 255
0.06079432 -0.06694647 0.4094241 255 0 255
0.06458469 -0.06711642 0.4102687 255 0 255
0.06767093 -0.06758414 0.4123379 255 0 255
0.02611976 -0.07091514 0.4216848 255 0 255
0.03211346 -0.07000307 0.4175493 255 0 255
0.03472377 -0.0691803 0.4140148 255 0 255
0.04221149 -0.06881556 0.4122908 255 0 255
0.04752979 -0.06850405 0.4109427 255 0 255
0.0507078 -0.06829679 0.4100874 255 0 255
0.06184439 -0.06794443 0.4088343 255 0 255
0.07579712 -0.06840418 0.4113274 255 0 255
0.02849895 -0.07218637 0.4219607 255 0 255
0.03031651 -0.0716432 0.419628 255 0 255
0.04006629 -0.07000762 0.4125412 255 0 255
0.04514297 -0.06948069 0.4102927 255 0 255
0.05568439 -0.06876605 0.4073939 255 0 255
0.05942878 -0.06897598 0.4083003 255 0 255
0.06394399 -0.06884747 0.4078992 255 0 255
0.06879959 -0.0689152 0.408343 255 0 255
0.07298014 -0.06928182 0.4099904 255 0 255
0.0807258 -0.06871716 0.4081918 255 0 255
0.08248284 -0.06612073 0.3980815 255 0 255
0.07675807 -0.06093068 0.3772423 255 0 255
0.02848309 -0.07329164 0.421689 255 0 255
0.03684359 -0.07124241 0.4130147 255 0 255
0.04593514 -0.07025519 0.4088178 255 0 255
0.07613 -0.06926133 0.4054796 255 0 255
0.07447613 -0.0600181 0.3695024 255 0 255
0.0306781 -0.07432222 0.420984 255 0 255
0.03336589 -0.07347257 0.4174671 255 0 255
0.04908616 -0.07112274 0.4077115 255 0 255
0.05223767 -0.07090595 0.406839 255 0 255
0.05328588 -0.07083033 0.4065405 255 0 255
0.05746667 -0.0705108 0.4053085 255 0 255
0.06016199 -0.07081289 0.4065143 255 0 255
0.06570879 -0.07058971 0.4057556 255 0 255
0.06675287 -0.07049277 0.405408 255 0 255
0.08377236 -0.0697479 0.4033208 255 0 255
0.03376561 -0.07505579 0.419083 255 0 255
0.03895863 -0.07329293 0.4119818 255 0 255
0.04085939 -0.07293881 0.4105372 255 0 255
0.04591307 -0.0723922 0.4082771 255 0 255
0.07055101 -0.07174175 0.4058872 255 0 255
0.07576681 -0.07120132 0.4040225 255 0 255
0.0291076 -0.08067644 0.4364786 255 0 255
0.03103566 -0.07702722 0.4223154 255 0 255
0.03529929 -0.07531471 0.415499 255 0 255
0.04190988 -0.07395246 0.4100026 255 0 255
0.04403594 -0.07383274 0.4094764 255 0 255
0.04695615 -0.07339335 0.407725 255 0 255
0.05849219 -0.07255884 0.4044414 255 0 255
0.0650463 -0.07225889 0.4033712 255 0 255
0.06745161 -0.0723053 0.403589 255 0 255
0.07228966 -0.07237336 0.403964 255 0 255
0.07332948 -0.07226546 0.4035924 255 0 255
0.08519132 -0.07203376 0.4032355 255 0 255
0.02954163 -0.07922623 0.4262515 255 0 255
0.0328347 -0.07754701 0.4196848 255 0 255
0.04059212 -0.07482745 0.4090406 255 0 255
0.04799783 -0.07439152 0.4071649 255 0 255
0.05818002 -0.07337538 0.40324 255 0 255
0.06191742 -0.0736062 0.4041021 255 0 255
0.07400792 -0.07299007 0.4020289 255 0 255
0.08732069 -0.07141232 0.396826 255 0 255
0.03121662 -0.08267051 0.4344808 255 0 255
0.0363505 -0.07743644 0.4146872 255 0 255
0.04400684 -0.07597079 0.4089093 255 0 255
0.04506893 -0.07590821 0.4086403 255 0 255
0.05219316 -0.0751686 0.4057239 255 0 255
0.06606705 -0.07429522 0.402458 255 0 255
0.07261536 -0.07392479 0.4012114 255 0 255
0.07746302 -0.07396843 0.4014941 255 0 255
0.080272 -0.0742222 0.4024999 255 0 255
0.08130898 -0.07410102 0.4020992 255 0 255
0.08700292 -0.07456892 0.404011 255 0 255
0.08607338 -0.0702915 0.3886375 255 0 255
0.04055948 -0.07695585 0.4084676 255 0 255
0.07122707 -0.07484864 0.4003856 255 0 255
0.07812034 -0.07467651 0.3999149 255 0 255
0.08195872 -0.07481123 0.4005081 255 0 255
0.03675039 -0.08012983 0.4159744 255 0 255
0.03739831 -0.07955145 0.4138544 255 0 255
0.03910625 -0.07891937 0.4114864 255 0 255
0.04184555 -0.07822427 0.4088523 255 0 255
0.04315593 -0.07842814 0.4095238 255 0 255
0.0492765 -0.07777315 0.4069421 255 0 255
0.05349844 -0.0774772 0.4057662 255 0 255
0.05502038 -0.07679867 0.403314 255 0 255
0.05844684 -0.07680915 0.4032933 255 0 255
0.06881395 -0.07586545 0.3999103 255 0 255
0.07121759 -0.07591121 0.4000914 255 0 255
0.07708274 -0.0758623 0.4000077 255 0 255
0.08157201 -0.07563554 0.3993196 255 0 255
0.08816601 -0.07146602 0.3850447 255 0 255
0.04210676 -0.0998294 0.481435 255 0 255
0.03517328 -0.08211794 0.4189645 255 0 255
0.0433833 -0.07976376 0.4101569 255 0 255
0.04420551 -0.07943558 0.4089588 255 0 255
0.04952838 -0.07910307 0.4075701 255 0 255
0.05634333 -0.07803713 0.4036276 255 0 255
0.06291402 -0.07777293 0.4025995 255 0 255
0.08701654 -0.07110693 0.3799709 255 0 255
0.04343956 -0.1011283 0.4807873 255 0 255
0.03578452 -0.08403327 0.4214695 255 0 255
