ply
format ascii 1.0
Comment Generated by Floating Hands
element vertex 1110
property double x
property double y
property double z
property uchar red
property uchar green
property uchar blue
end_header
-0.08528717 -0.04553313 0.3670469 255 0 255
-0.07393209 -0.00490219 0.2295868 255 0 255
-0.07327405 -0.005690063 0.2319301 255 0 255
-0.07175286 -0.005312593 0.2304538 255 0 255
-0.0706806 -0.005835643 0.2319051 255 0 255
-0.0692251 -0.006741766 0.2345185 255 0 255
-0.07034022 -0.008171484 0.2392487 255 0 255
-0.08087058 -0.01866503 0.2744021 255 0 255
-0.08138247 -0.01986089 0.2783087 255 0 255
-0.07552869 -0.01789257 0.2711486 255 0 255
-0.0715801 -0.01563139 0.2633278 255 0 255
-0.0680315 -0.01362495 0.2563859 255 0 255
-0.06586952 -0.0126754 0.2530406 255 0 255
-0.06209124 -0.01038353 0.2451541 255 0 255
-0.06000328 -0.009419658 0.2417788 255 0 255
-0.05591161 -0.007474788 0.2349926 255 0 255
-0.05485096 -0.007301563 0.2343132 255 0 255
-0.05659255 -0.009552511 0.2418323 255 0 255
-0.06011692 -0.01342954 0.2548421 255 0 255
-0.06626823 -0.019752 0.2761028 255 0 255
-0.07374877 -0.02744738 0.301984 255 0 255
-0.08191129 -0.03597866 0.3306693 255 0 255
-0.08867589 -0.04344615 0.3557491 255 0 255
-0.09350885 -0.04929972 0.3753739 255 0 255
-0.095906 -0.0529862 0.3876864 255 0 255
-0.09483001 -0.05340361 0.3889816 255 0 255
-0.07455326 -0.0048743 0.2270248 255 0 255
-0.07546642 -0.006047194 0.2308224 255 0 255
-0.07360183 -0.006070036 0.2305342 255 0 255
-0.07105979 -0.006872507 0.2325649 255 0 255
-0.06993875 -0.00674127 0.2319609 255 0 255
-0.06958187 -0.007133394 0.233126 255 0 255
-0.07109434 -0.008844126 0.2387336 255 0 255
-0.07330685 -0.01108917 0.2461342 255 0 255
-0.0758295 -0.01360698 0.2544443 255 0 255
-0.08514964 -0.02281226 0.2848667 255 0 255
-0.07813928 -0.02003052 0.27507 255 0 255
-0.07482789 -0.01828323 0.2690788 255 0 255
-0.0708866 -0.01598744 0.2612653 255 0 255
-0.06801727 -0.0144902 0.2561343 255 0 255
-0.06585505 -0.01352588 0.2527932 255 0 255
-0.06063908 -0.01076476 0.243357 255 0 255
-0.05857176 -0.009781295 0.2399764 255 0 255
-0.05748617 -0.009609636 0.2393084 255 0 255
-0.0582923 -0.01107301 0.2440912 255 0 255
-0.06593085 -0.01948538 0.2719119 255 0 255
-0.0729202 -0.02672625 0.2959057 255 0 255
-0.08091663 -0.0350866 0.323607 255 0 255
-0.07495963 -0.005895809 0.227675 255 0 255
-0.07586876 -0.007084621 0.2314694 255 0 255
-0.07513329 -0.00722759 0.2317673 255 0 255
-0.07256943 -0.008046675 0.2338159 255 0 255
-0.07146129 -0.008580625 0.2352718 255 0 255
-0.07446467 -0.01205301 0.2464841 255 0 255
-0.08208058 -0.01904107 0.2693193 255 0 255
-0.08593503 -0.02268907 0.2812271 255 0 255
-0.08454134 -0.02422212 0.2858022 255 0 255
-0.08148547 -0.02273968 0.2807544 255 0 255
-0.07708437 -0.02015969 0.2720982 255 0 255
-0.06733071 -0.0148067 0.2540768 255 0 255
-0.06451087 -0.01327802 0.2489328 255 0 255
-0.06173351 -0.01174134 0.243772 255 0 255
-0.05997394 -0.01102265 0.2413088 255 0 255
-0.05855661 -0.01057496 0.2397419 255 0 255
-0.05937745 -0.01205728 0.2445171 255 0 255
-0.06204579 -0.01520285 0.2547499 255 0 255
-0.07511668 -0.02873715 0.2989502 255 0 255
-0.09576427 -0.05141255 0.3729263 255 0 255
-0.09709098 -0.05407559 0.3815318 255 0 255
-0.09726287 -0.05717307 0.3914519 255 0 255
-0.07536551 -0.006923649 0.2283199 255 0 255
-0.07708526 -0.008659223 0.233859 255 0 255
-0.07755021 -0.009602918 0.2367868 255 0 255
-0.07599141 -0.009214892 0.2353371 255 0 255
-0.07563583 -0.009624748 0.2365136 255 0 255
-0.07369915 -0.008961587 0.2341723 255 0 255
-0.07295153 -0.009099043 0.2344629 255 0 255
-0.07336567 -0.01071876 0.2394544 255 0 255
-0.07487082 -0.012478 0.2450537 255 0 255
-0.07896007 -0.01614188 0.2568702 255 0 255
-0.08407094 -0.0206354 0.2713809 255 0 255
-0.08832961 -0.02460108 0.284153 255 0 255
-0.09148648 -0.02874384 0.2973158 255 0 255
-0.08941218 -0.02808135 0.2949919 255 0 255
-0.08452661 -0.02521452 0.2855052 255 0 255
-0.07205322 -0.01790973 0.2613509 255 0 255
-0.06848051 -0.01581973 0.2544464 255 0 255
-0.06597224 -0.01455188 0.2502203 255 0 255
-0.06316685 -0.01299893 0.2450782 255 0 255
-0.06106125 -0.01199504 0.2417242 255 0 255
-0.0602837 -0.01210147 0.2419727 255 0 255
-0.0622206 -0.01538891 0.2524269 255 0 255
-0.08276339 -0.03680623 0.3213709 255 0 255
-0.09015237 -0.04483156 0.3471866 255 0 255
-0.09898669 -0.05585853 0.3825625 255 0 255
-0.0976426 -0.05601229 0.3829476 255 0 255
-0.0974507 -0.05729708 0.3869865 255 0 255
-0.07667197 -0.009178392 0.2327477 255 0 255
-0.07558437 -0.009737025 0.2342216 255 0 255
-0.07523182 -0.01015025 0.2353954 255 0 255
-0.07411239 -0.01070269 0.2368639 255 0 255
-0.07528291 -0.01220627 0.2415614 255 0 255
-0.07902957 -0.0163246 0.2545244 255 0 255
-0.0845801 -0.02114418 0.2698811 255 0 255
-0.09384 -0.02973423 0.297169 255 0 255
-0.0953896 -0.03183805 0.3037543 255 0 255
-0.09363794 -0.0314509 0.3023413 255 0 255
-0.08975437 -0.02939107 0.2955703 255 0 255
-0.08344975 -0.0253698 0.2825258 255 0 255
-0.0783027 -0.02216673 0.2721229 255 0 255
-0.07066599 -0.01767604 0.2574952 255 0 255
-0.06562133 -0.01510968 0.2490663 255 0 255
-0.06170312 -0.01336174 0.2432829 255 0 255
-0.06189267 -0.0143178 0.2462411 255 0 255
-0.06366581 -0.01669131 0.2537217 255 0 255
-0.08476674 -0.03865017 0.323419 255 0 255
-0.09224559 -0.04677247 0.349179 255 0 255
-0.09830597 -0.05377478 0.3713596 255 0 255
-0.1002974 -0.05707682 0.3817544 255 0 255
-0.1019109 -0.06009877 0.391257 255 0 255
-0.09906931 -0.05882272 0.3870906 255 0 255
-0.07658656 -0.009270402 0.2304642 255 0 255
-0.07788734 -0.01078042 0.2351221 255 0 255
-0.07874797 -0.01202197 0.2389187 255 0 255
-0.07597733 -0.01079904 0.2348541 255 0 255
-0.07522412 -0.01094205 0.2351522 255 0 255
-0.07446978 -0.01108324 0.2354477 255 0 255
-0.07758989 -0.01468254 0.2465907 255 0 255
-0.08061406 -0.01760096 0.2557079 255 0 255
-0.08508141 -0.02164251 0.2683799 255 0 255
-0.09169956 -0.02737196 0.2863902 255 0 255
-0.09971652 -0.03525774 0.3110333 255 0 255
-0.09938482 -0.03599478 0.3131916 255 0 255
-0.08166511 -0.02493663 0.277766 255 0 255
-0.07688651 -0.02196912 0.2682635 255 0 255
-0.07287927 -0.0195541 0.2605191 255 0 255
-0.06927884 -0.01741116 0.2536452 255 0 255
-0.06213989 -0.01377488 0.2418814 255 0 255
-0.06382534 -0.0168569 0.2513961 255 0 255
-0.06782404 -0.02127274 0.2651915 255 0 255
-0.07457042 -0.0282887 0.2871506 255 0 255
-0.1077887 -0.06731431 0.4090245 255 0 255
-0.07828762 -0.01185037 0.2357455 255 0 255
-0.07954787 -0.01338504 0.2404107 255 0 255
-0.07676993 -0.01214525 0.2363545 255 0 255
-0.07640588 -0.01256852 0.2375299 255 0 255
-0.07642668 -0.01327057 0.2395815 255 0 255
-0.08143985 -0.01832452 0.255118 255 0 255
-0.09188894 -0.0276419 0.2839579 255 0 255
-0.0984414 -0.03345732 0.3019687 255 0 255
-0.1026457 -0.03862933 0.3177728 255 0 255
-0.1000974 -0.03767322 0.3146186 255 0 255
-0.09432768 -0.03414595 0.3034584 255 0 255
-0.08686316 -0.02917382 0.2878153 255 0 255
-0.0791731 -0.02389267 0.271233 255 0 255
-0.07147767 -0.01928983 0.2566708 255 0 255
-0.06605927 -0.01637094 0.2473867 255 0 255
-0.06458309 -0.01591041 0.2458589 255 0 255
-0.06803016 -0.02147157 0.262835 255 0 255
-0.07358551 -0.02740399 0.281134 255 0 255
-0.08248619 -0.03655742 0.3094023 255 0 255
-0.1075144 -0.06388526 0.3936963 255 0 255
-0.1077521 -0.06879837 0.4085599 255 0 255
-0.0782162 -0.01193658 0.2334505 255 0 255
-0.07909457 -0.0132068 0.2372328 255 0 255
-0.07994352 -0.01448072 0.2410241 255 0 255
-0.07639721 -0.01336907 0.237277 255 0 255
-0.07720359 -0.01464483 0.2410759 255 0 255
-0.1048056 -0.03938866 0.3166193 255 0 255
-0.103365 -0.04033426 0.3191836 255 0 255
-0.09898674 -0.03792488 0.3116087 255 0 255
-0.0928671 -0.03405929 0.299573 255 0 255
-0.08541752 -0.02901823 0.2839458 255 0 255
-0.07615483 -0.0232222 0.2659054 255 0 255
-0.06684774 -0.01707943 0.2468563 255 0 255
-0.06570433 -0.01690662 0.2462301 255 0 255
-0.0645671 -0.01673085 0.2455988 255 0 255
-0.06343608 -0.01655211 0.2449625 255 0 255
-0.07320661 -0.02706406 0.2769366 255 0 255
-0.1005446 -0.0557975 0.3644288 255 0 255
-0.1102386 -0.06797718 0.4013854 255 0 255
-0.0782723 -0.01344092 0.2352399 255 0 255
-0.07791688 -0.01387456 0.2364148 255 0 255
-0.07718113 -0.01474044 0.2387655 255 0 255
-0.07955185 -0.01717942 0.2460571 255 0 255
-0.1008436 -0.03551589 0.3014032 255 0 255
-0.1062546 -0.04061576 0.3167336 255 0 255
-0.1092915 -0.04399503 0.3268231 255 0 255
-0.08996314 -0.03277207 0.2921504 255 0 255
-0.07179247 -0.02131917 0.2570079 255 0 255
-0.06580371 -0.01702015 0.2439153 255 0 255
-0.06287307 -0.01606906 0.2408642 255 0 255
-0.06441506 -0.01825802 0.2473866 255 0 255
-0.06820294 -0.02253286 0.260199 255 0 255
-0.08606132 -0.04096012 0.3155765 255 0 255
-0.09735196 -0.0527542 0.3510153 255 0 255
-0.1097731 -0.06745569 0.3950749 255 0 255
-0.07573703 -0.0117875 0.2277509 255 0 255
-0.07541414 -0.01222073 0.2289141 255 0 255
-0.07508299 -0.01265355 0.2300778 255 0 255
-0.07717147 -0.01554592 0.2385039 255 0 255
-0.08150617 -0.01946672 0.2501483 255 0 255
-0.08886244 -0.0257312 0.2688168 255 0 255
-0.106945 -0.04125915 0.3150821 255 0 255
-0.1122749 -0.04751411 0.3334765 255 0 255
-0.1011216 -0.04083525 0.313159 255 0 255
-0.07771014 -0.02549193 0.2667899 255 0 255
-0.07542185 -0.02443998 0.2635426 255 0 255
-0.06900528 -0.01980192 0.2496095 255 0 255
-0.06304615 -0.0154431 0.2365252 255 0 255
-0.0618503 -0.01596872 0.2379247 255 0 255
-0.06472953 -0.01938411 0.2480117 255 0 255
-0.07015311 -0.02521655 0.2652851 255 0 255
-0.07933158 -0.03468366 0.2933585 255 0 255
-0.08828264 -0.04417945 0.3214999 255 0 255
-0.1023821 -0.06467303 0.3818979 255 0 255
-0.07408653 -0.01138735 0.2240432 255 0 255
-0.07377733 -0.01182174 0.2251993 255 0 255
-0.07345989 -0.01225577 0.2263559 255 0 255
-0.07393423 -0.01327488 0.2292499 255 0 255
-0.07636844 -0.01576336 0.2364994 255 0 255
-0.08846043 -0.02636687 0.2676377 255 0 255
-0.1084575 -0.04356654 0.3182135 255 0 255
-0.1134155 -0.04850908 0.3326524 255 0 255
-0.09018894 -0.03404926 0.2893675 255 0 255
-0.07698627 -0.02580182 0.2647176 255 0 255
-0.07400528 -0.02413134 0.2596987 255 0 255
-0.06691136 -0.01882802 0.2440036 255 0 255
-0.06165993 -0.01501564 0.2327091 255 0 255
-0.06124791 -0.01543062 0.2338493 255 0 255
-0.06317528 -0.01797021 0.241232 255 0 255
-0.07407049 -0.02977149 0.2757182 255 0 255
-0.09114381 -0.0480605 0.3291948 255 0 255
-0.09697665 -0.05494871 0.3492968 255 0 255
-0.09763129 -0.05694923 0.3550648 255 0 255
-0.08870135 -0.0508086 0.3368977 255 0 255
-0.07407814 -0.01213387 0.2237943 255 0 255
-0.07376853 -0.01257225 0.2249491 255 0 255
-0.07345071 -0.01301026 0.2261042 255 0 255
-0.07556514 -0.01596477 0.2344966 255 0 255
-0.07991196 -0.01997942 0.2461033 255 0 255
-0.09526753 -0.03343797 0.2851258 255 0 255
-0.1050009 -0.0420053 0.3099668 255 0 255
-0.1111253 -0.0479027 0.3270002 255 0 255
-0.07892109 -0.02747605 0.2667597 255 0 255
-0.06224848 -0.01712171 0.2362595 255 0 255
-0.06483452 -0.02030749 0.2454169 255 0 255
-0.07634537 -0.0328722 0.2816533 255 0 255
-0.0841509 -0.04134422 0.3060954 255 0 255
-0.09441036 -0.05371352 0.3417094 255 0 255
-0.09227265 -0.05293971 0.3393835 255 0 255
-0.08643878 -0.04843043 0.3262639 255 0 255
-0.08010153 -0.04328185 0.3113081 255 0 255
-0.07267839 -0.03686816 0.2927087 255 0 255
-0.07375932 -0.01332156 0.2246959 255 0 255
-0.07555432 -0.01675178 0.2342305 255 0 255
-0.07911445 -0.02021169 0.2440832 255 0 255
-0.08454133 -0.02519488 0.2583145 255 0 255
-0.09062423 -0.03080266 0.2743298 255 0 255
-0.1050499 -0.04420968 0.312616 255 0 255
-0.1024685 -0.04318114 0.3095134 255 0 255
-0.093601 -0.03695498 0.2914901 255 0 255
-0.08286946 -0.0299355 0.2711 255 0 255
-0.07341788 -0.02452334 0.2552778 255 0 255
-0.06767518 -0.02033269 0.2431853 255 0 255
-0.06272497 -0.01674314 0.232827 255 0 255
-0.0626555 -0.01747779 0.2348538 255 0 255
-0.06816864 -0.02423569 0.2540328 255 0 255
-0.07960238 -0.03695949 0.290242 255 0 255
-0.08962625 -0.05022209 0.3278716 255 0 255
-0.07897845 -0.04202789 0.3043389 255 0 255
-0.0715066 -0.03554546 0.2857844 255 0 255
-0.07323918 -0.01302002 0.2215668 255 0 255
-0.07415661 -0.01437203 0.2253018 255 0 255
-0.08180348 -0.02394003 0.2519286 255 0 255
-0.08790985 -0.02960971 0.2679114 255 0 255
-0.09235816 -0.03407235 0.2804534 255 0 255
-0.09232765 -0.03595224 0.2855315 255 0 255
-0.08318665 -0.02932337 0.2666236 255 0 255
-0.07411358 -0.02342289 0.2497038 255 0 255
-0.07184625 -0.02231627 0.246478 255 0 255
-0.06996355 -0.02151437 0.24412 255 0 255
-0.06270875 -0.01751092 0.2325633 255 0 255
-0.06435078 -0.01982144 0.2390158 255 0 255
-0.07791546 -0.03529906 0.2824674 255 0 255
-0.08384074 -0.04206656 0.3014729 255 0 255
-0.08753444 -0.04805549 0.3181945 255 0 255
-0.08230938 -0.04407949 0.3069165 255 0 255
-0.07561222 -0.0384995 0.291131 255 0 255
-0.06842689 -0.03226347 0.2735101 255 0 255
-0.05802293 -0.02250073 0.2459734 255 0 255
-0.0748713 -0.01497689 0.2247488 255 0 255
-0.07543727 -0.01680019 0.2296422 255 0 255
-0.07751872 -0.02062819 0.2400485 255 0 255
-0.07984419 -0.02325127 0.2472923 255 0 255
-0.08288246 -0.02650317 0.2562931 255 0 255
-0.08584799 -0.02976612 0.2653182 255 0 255
-0.08218982 -0.02852316 0.2616143 255 0 255
-0.07537412 -0.02367288 0.2479449 255 0 255
-0.07082108 -0.02144041 0.2415188 255 0 255
-0.07002779 -0.02157193 0.2417992 255 0 255
-0.06816293 -0.02075632 0.2394386 255 0 255
-0.06525908 -0.01898839 0.2344259 255 0 255
-0.06741416 -0.02347007 0.2466993 255 0 255
-0.07818111 -0.03549394 0.280046 255 0 255
-0.0838578 -0.04201062 0.2981126 255 0 255
-0.08905956 -0.04822637 0.3153337 255 0 255
-0.08958378 -0.04997946 0.3201316 255 0 255
-0.07245514 -0.03628671 0.2818455 255 0 255
0.02708429 -0.01935363 0.2436564 255 0 255
0.03041305 -0.01694911 0.2377707 255 0 255
-0.07901798 -0.01958814 0.2350911 255 0 255
-0.07865243 -0.02005122 0.236259 255 0 255
-0.07789636 -0.02097584 0.2385955 255 0 255
-0.07907633 -0.02268711 0.243224 255 0 255
-0.07983039 -0.02409006 0.2469973 255 0 255
-0.08094013 -0.0258101 0.2516465 255 0 255
-0.08124907 -0.02690579 0.2545683 255 0 255
-0.07617736 -0.02436708 0.2473518 255 0 255
-0.07201791 -0.02166269 0.2397931 255 0 255
-0.07086252 -0.0214808 0.2392029 255 0 255
-0.06743293 -0.02091641 0.2374015 255 0 255
-0.06482773 -0.02020499 0.2352945 255 0 255
-0.06647977 -0.02256784 0.2417275 255 0 255
-0.07081787 -0.02750472 0.2552395 255 0 255
-0.07741599 -0.03470701 0.274975 255 0 255
-0.08813994 -0.04724017 0.309274 255 0 255
-0.09132602 -0.05159418 0.3211586 255 0 255
-0.07528748 -0.03907114 0.2865612 255 0 255
0.02585573 -0.01824903 0.2377771 255 0 255
0.02723065 -0.0204521 0.2443254 255 0 255
0.0276667 -0.01905249 0.2405196 255 0 255
0.02971812 -0.02049525 0.2451299 255 0 255
0.0306195 -0.02072231 0.2460191 255 0 255
0.03163367 -0.02127161 0.2478451 255 0 255
0.03246212 -0.01879535 0.2411535 255 0 255
-0.07731241 -0.01834944 0.2293599 255 0 255
-0.08026449 -0.02288735 0.2414471 255 0 255
-0.0802602 -0.02367224 0.2434832 255 0 255
-0.08102555 -0.0250901 0.2472496 255 0 255
-0.07981611 -0.02492749 0.2466991 255 0 255
-0.07741491 -0.02459233 0.2455817 255 0 255
-0.07584495 -0.0241011 0.2441459 255 0 255
-0.07088909 -0.02150516 0.2368919 255 0 255
-0.07011166 -0.02163865 0.237172 255 0 255
-0.06933314 -0.02177024 0.2374495 255 0 255
-0.06783296 -0.02125631 0.2359733 255 0 255
-0.06598948 -0.02041572 0.2336127 255 0 255
-0.06522575 -0.02053875 0.2338763 255 0 255
-0.06655751 -0.02260131 0.2394134 255 0 255
-0.07661454 -0.03388432 0.2699226 255 0 255
-0.08855522 -0.05124464 0.3166712 255 0 255
0.02711757 -0.02056393 0.2421697 255 0 255
0.02869639 -0.02037882 0.2420828 255 0 255
0.02958346 -0.02061317 0.2429744 255 0 255
0.03137954 -0.02107367 0.2447482 255 0 255
0.03228851 -0.02129975 0.2456304 255 0 255
0.03354186 -0.02010775 0.2426968 255 0 255
-0.07894209 -0.02038293 0.2325045 255 0 255
-0.08143464 -0.02307254 0.2396653 255 0 255
-0.0822565 -0.02450085 0.2434133 255 0 255
-0.08262287 -0.02641108 0.248352 255 0 255
-0.07859748 -0.02559429 0.2458427 255 0 255
-0.0731819 -0.02266682 0.2377747 255 0 255
-0.07087329 -0.0222953 0.2366067 255 0 255
-0.07046293 -0.02275332 0.2377583 255 0 255
-0.0689528 -0.02223608 0.236291 255 0 255
-0.06745601 -0.02171453 0.2348161 255 0 255
-0.06668577 -0.02184084 0.2350845 255 0 255
-0.0696834 -0.02634198 0.2470279 255 0 255
-0.07543112 -0.03269829 0.26401 255 0 255
-0.09317678 -0.05319839 0.3187454 255 0 255
-0.09537108 -0.05666097 0.3279457 255 0 255
-0.09225128 -0.0548432 0.3230029 255 0 255
0.02442847 -0.01991383 0.2373094 255 0 255
0.02535862 -0.02050059 0.2391533 255 0 255
0.02622074 -0.02074879 0.2400555 255 0 255
0.02709025 -0.02099435 0.2409547 255 0 255
0.02875673 -0.0211437 0.2418062 255 0 255
0.03053951 -0.02161687 0.2435838 255 0 255
0.03213164 -0.02141524 0.243475 255 0 255
-0.08221173 -0.02372378 0.2390518 255 0 255
-0.08663063 -0.02967189 0.2545876 255 0 255
-0.07127564 -0.02183217 0.2331519 255 0 255
-0.07118096 -0.02420196 0.2392092 255 0 255
-0.0696634 -0.02367892 0.2377471 255 0 255
-0.06851931 -0.02348067 0.2371501 255 0 255
-0.06845081 -0.02426855 0.2391706 255 0 255
-0.07083689 -0.0273691 0.2473214 255 0 255
-0.08059404 -0.03856726 0.2768502 255 0 255
-0.08682975 -0.04568515 0.2956264 255 0 255
-0.09189627 -0.05182617 0.3118091 255 0 255
-0.0941526 -0.05531932 0.3209794 255 0 255
-0.09236205 -0.05481676 0.3195776 255 0 255
-0.0889478 -0.05263849 0.3137484 255 0 255
-0.0820225 -0.04676879 0.2981646 255 0 255
0.02392896 -0.02176232 0.2398801 255 0 255
0.02471272 -0.02167846 0.2398488 255 0 255
0.0254962 -0.0215928 0.2398149 255 0 255
0.0262794 -0.02150537 0.2397784 255 0 255
0.02706232 -0.02141615 0.2397394 255 0 255
0.027936 -0.02166309 0.2406345 255 0 255
0.02872212 -0.02156985 0.2405901 255 0 255
0.02960669 -0.02181186 0.2414794 255 0 255
0.03139774 -0.02228767 0.2432486 255 0 255
0.03197351 -0.02151469 0.2413219 255 0 255
0.03343165 -0.02097304 0.2402689 255 0 255
0.03474739 -0.02009281 0.2382724 255 0 255
-0.08630029 -0.02776846 0.2472799 255 0 255
-0.08913399 -0.03085403 0.2552987 255 0 255
-0.0884361 -0.03381754 0.2626662 255 0 255
-0.08171453 -0.02906997 0.2500901 255 0 255
-0.0701258 -0.02161913 0.2302696 255 0 255
-0.07079649 -0.02466913 0.2380447 255 0 255
-0.0719967 -0.02839839 0.2476041 255 0 255
-0.07646216 -0.03354176 0.2609996 255 0 255
-0.08116675 -0.03903505 0.2753047 255 0 255
-0.09364204 -0.05342625 0.3128007 255 0 255
-0.09626581 -0.05729089 0.3228302 255 0 255
-0.09001608 -0.05357935 0.3129921 255 0 255
0.02313385 -0.02225598 0.2386921 255 0 255
0.02398654 -0.02251798 0.2395999 255 0 255
0.02477065 -0.02243401 0.2395687 255 0 255
0.02563432 -0.0226912 0.2404708 255 0 255
0.02633803 -0.02226071 0.2394984 255 0 255
0.0271213 -0.02217139 0.2394594 255 0 255
0.02790424 -0.02208031 0.2394179 255 0 255
0.02956824 -0.02223346 0.2402619 255 0 255
0.03124624 -0.02237762 0.2410946 255 0 255
0.03203516 -0.02227664 0.2410396 255 0 255
0.03493535 -0.02118034 0.2389275 255 0 255
-0.09284773 -0.03384709 0.2605859 255 0 255
-0.093591 -0.03533783 0.2643512 255 0 255
-0.09511042 -0.03748927 0.2698332 255 0 255
-0.0961863 -0.03931762 0.2744735 255 0 255
-0.09643332 -0.04049068 0.2774108 255 0 255
-0.09038053 -0.03637501 0.2666197 255 0 255
-0.0743128 -0.02443211 0.2354504 255 0 255
-0.06973197 -0.02204956 0.2291199 255 0 255
-0.07010368 -0.02318543 0.2319904 255 0 255
-0.07077892 -0.02546291 0.2377473 255 0 255
-0.1026613 -0.06488799 0.3390768 255 0 255
-0.09097934 -0.05569854 0.3152207 255 0 255
0.02156744 -0.02281654 0.2375242 255 0 255
0.02247442 -0.02343519 0.2393713 255 0 255
0.02411652 -0.02361989 0.2402516 255 0 255
0.02490482 -0.02353542 0.2402203 255 0 255
0.0263966 -0.02301486 0.2392154 255 0 255
0.02796352 -0.02283422 0.239135 255 0 255
0.02952918 -0.02264644 0.2390442 255 0 255
0.03041469 -0.02289381 0.2399283 255 0 255
0.03120049 -0.02279499 0.2398763 255 0 255
0.03198595 -0.02269439 0.2398216 255 0 255
0.03277102 -0.02259198 0.2397643 255 0 255
0.03421767 -0.02204037 0.23871 255 0 255
0.03577736 -0.02182415 0.238578 255 0 255
0.0364228 -0.0213735 0.2375772 255 0 255
0.03719774 -0.02126151 0.2375051 255 0 255
-0.103903 -0.04367847 0.2831946 255 0 255
-0.1027491 -0.04473874 0.2856818 255 0 255
-0.1015604 -0.04579493 0.2881672 255 0 255
-0.08440171 -0.0331133 0.2554589 255 0 255
-0.07660722 -0.02723314 0.2403103 255 0 255
-0.07237396 -0.02435371 0.2328599 255 0 255
-0.07083551 -0.02463062 0.2334259 255 0 255
-0.07149512 -0.02693303 0.2391794 255 0 255
-0.0728812 -0.02910534 0.2446666 255 0 255
-0.09158169 -0.04998654 0.2977989 255 0 255
-0.1105682 -0.07120326 0.351802 255 0 255
-0.1147713 -0.07688629 0.3662218 255 0 255
-0.1104048 -0.07399581 0.3587712 255 0 255
-0.1007518 -0.06558714 0.3372568 255 0 255
0.02174572 -0.02426733 0.2391085 255 0 255
0.02259628 -0.02454052 0.2400189 255 0 255
0.02345429 -0.02481112 0.2409264 255 0 255
0.02575134 -0.02420582 0.239899 255 0 255
0.02645516 -0.02376775 0.2389295 255 0 255
0.02715101 -0.02332876 0.2379579 255 0 255
0.02880611 -0.02349379 0.2388052 255 0 255
0.03037179 -0.02330223 0.2387094 255 0 255
0.03271763 -0.02300148 0.2385464 255 0 255
0.03338004 -0.02255202 0.237556 255 0 255
0.03415701 -0.02244693 0.2374943 255 0 255
0.03506003 -0.02268468 0.2383601 255 0 255
0.03583999 -0.02257555 0.2382929 255 0 255
0.03661953 -0.02246461 0.2382231 255 0 255
0.03753654 -0.02269486 0.2390799 255 0 255
0.03831901 -0.02257984 0.2390045 255 0 255
0.03924651 -0.02280486 0.2398551 255 0 255
-0.1231537 -0.06039081 0.322697 255 0 255
-0.1216009 -0.06028927 0.3223059 255 0 255
-0.1192476 -0.05951186 0.3202055 255 0 255
-0.07194082 -0.0264302 0.2357151 255 0 255
-0.07189999 -0.02725172 0.2377252 255 0 255
-0.08283705 -0.04037432 0.2706614 255 0 255
-0.0911691 -0.04947967 0.2935689 255 0 255
-0.1270342 -0.09068494 0.3971641 255 0 255
0.0219251 -0.02573164 0.2406841 255 0 255
0.02271866 -0.025652 0.2406606 255 0 255
0.023512 -0.02557054 0.2406344 255 0 255
0.02798971 -0.02398567 0.2376293 255 0 255
0.02876956 -0.02389288 0.2375855 255 0 255
0.03121463 -0.02395474 0.2383692 255 0 255
0.03188551 -0.02350402 0.2373849 255 0 255
0.03266359 -0.02340236 0.2373283 255 0 255
0.03332221 -0.02294962 0.2363398 255 0 255
0.03409569 -0.02284492 0.2362784 255 0 255
0.03486876 -0.02273847 0.2362145 255 0 255
0.03760007 -0.0234484 0.2387906 255 0 255
0.0418027 -0.02538732 0.2449576 255 0 255
0.04276749 -0.02560455 0.2457949 255 0 255
0.04570767 -0.028085 0.2530085 255 0 255
0.04671645 -0.02828925 0.2538323 255 0 255
0.0482497 -0.02951415 0.2574245 255 0 255
0.04928385 -0.02971013 0.2582395 255 0 255
0.04816397 -0.02582308 0.2479743 255 0 255
-0.1350193 -0.07135662 0.3468146 255 0 255
-0.1288923 -0.06880888 0.34016 255 0 255
-0.1125985 -0.05736192 0.3112657 255 0 255
-0.1024798 -0.0497194 0.2920425 255 0 255
-0.07767896 -0.03071249 0.2442775 255 0 255
-0.07497055 -0.02914074 0.2402822 255 0 255
-0.07454179 -0.02962949 0.2414363 255 0 255
-0.0755868 -0.03149941 0.2460392 255 0 255
-0.07989685 -0.03648851 0.2584235 255 0 255
-0.085921 -0.04322648 0.2751648 255 0 255
-0.1064541 -0.06546317 0.3304645 255 0 255
-0.1200759 -0.08029352 0.3673469 255 0 255
-0.1426012 -0.106245 0.4318284 255 0 255
0.02113007 -0.02620778 0.2394788 255 0 255
0.02204382 -0.0268497 0.2413201 255 0 255
0.02284158 -0.02676958 0.2412965 255 0 255
0.02363912 -0.02668766 0.2412703 255 0 255
0.02436312 -0.02624535 0.2403108 255 0 255
0.02515629 -0.02616016 0.2402795 255 0 255
0.02586821 -0.02571546 0.2393153 255 0 255
0.02657214 -0.02526983 0.2383488 255 0 255
0.02735679 -0.02518008 0.23831 255 0 255
0.02882873 -0.02463927 0.2372953 255 0 255
0.03038808 -0.02444817 0.2372002 255 0 255
0.03194603 -0.02424994 0.2370949 255 0 255
0.03260888 -0.02379466 0.2361102 255 0 255
0.03403366 -0.0232343 0.2350624 255 0 255
0.03570328 -0.02337179 0.2358598 255 0 255
0.03661052 -0.02361253 0.2367175 255 0 255
0.03937546 -0.02431739 0.239271 255 0 255
0.04046139 -0.0248951 0.2410407 255 0 255
0.04156209 -0.02546863 0.2428062 255 0 255
0.04267751 -0.02603797 0.2445674 255 0 255
0.0461119 -0.02772025 0.2498245 255 0 255
0.04745881 -0.02861722 0.2524903 255 0 255
0.0490045 -0.02985273 0.2560727 255 0 255
0.04997465 -0.02818649 0.2521639 255 0 255
-0.1248404 -0.06661399 0.3311892 255 0 255
-0.1074326 -0.05399453 0.299762 255 0 255
-0.1008898 -0.04936663 0.2882281 255 0 255
-0.08810033 -0.04004614 0.2650363 255 0 255
-0.0821275 -0.03655434 0.2562706 255 0 255
-0.08556911 -0.04175242 0.2689545 255 0 255
-0.09198102 -0.04890773 0.286526 255 0 255
-0.1217304 -0.08175631 0.3672338 255 0 255
0.0221631 -0.02797382 0.2419502 255 0 255
0.02369707 -0.02744821 0.2409709 255 0 255
0.0244947 -0.02736434 0.2409421 255 0 255
0.02521462 -0.02691687 0.2399817 255 0 255
0.0267157 -0.02637992 0.2389827 255 0 255
0.02741554 -0.02592913 0.2380153 255 0 255
0.02820021 -0.02583747 0.237974 255 0 255
0.03044787 -0.02519309 0.2369072 255 0 255
0.03200646 -0.02499462 0.236802 255 0 255
0.03409449 -0.02397122 0.2347726 255 0 255
0.03731035 -0.02388984 0.2354285 255 0 255
0.03822499 -0.02412943 0.236279 255 0 255
0.0391468 -0.0243661 0.2371263 255 0 255
0.04022608 -0.02495212 0.2388939 255 0 255
0.04116599 -0.02518233 0.2397341 255 0 255
0.04502161 -0.02795396 0.2477662 255 0 255
0.04601271 -0.02816829 0.2485897 255 0 255
0.04718397 -0.02872807 0.2503307 255 0 255
0.04854678 -0.02963132 0.2529877 255 0 255
0.04838637 -0.0258742 0.2435698 255 0 255
-0.1251357 -0.06560357 0.3255515 255 0 255
-0.1190955 -0.06169148 0.3158673 255 0 255
-0.1119309 -0.05671937 0.303604 255 0 255
-0.1028761 -0.04998654 0.2870522 255 0 255
-0.09514895 -0.04426708 0.2729915 255 0 255
-0.09185312 -0.04235755 0.2682456 255 0 255
-0.09054057 -0.04218451 0.2677439 255 0 255
-0.08884906 -0.04165778 0.2663823 255 0 255
-0.09544559 -0.05096174 0.2888467 255 0 255
-0.1029534 -0.05925268 0.3089757 255 0 255
-0.1113937 -0.0686301 0.3317426 255 0 255
-0.1421968 -0.105362 0.4208333 255 0 255
-0.1500439 -0.1152354 0.4447688 255 0 255
0.02028796 -0.02668587 0.2361159 255 0 255
0.02130124 -0.02808088 0.2398109 255 0 255
0.02222061 -0.02873694 0.2416463 255 0 255
0.02308904 -0.02902295 0.2425507 255 0 255
0.02382499 -0.02857376 0.2415964 255 0 255
0.02462678 -0.0284894 0.2415676 255 0 255
0.0260665 -0.02758507 0.2396471 255 0 255
0.02756351 -0.02704105 0.2386447 255 0 255
0.02825926 -0.02658514 0.2376764 255 0 255
0.02904391 -0.02649159 0.2376327 255 0 255
0.03061226 -0.02629906 0.2375374 255 0 255
0.03206686 -0.02573803 0.2365062 255 0 255
0.03569525 -0.02449249 0.2343507 255 0 255
0.03723355 -0.02427097 0.2342112 255 0 255
0.038145 -0.02451463 0.2350608 255 0 255
0.03891683 -0.02439891 0.2349843 255 0 255
0.03983879 -0.02463732 0.2358277 255 0 255
0.0407679 -0.0248728 0.2366677 255 0 255
0.04313364 -0.02639714 0.2411006 255 0 255
0.04426135 -0.02697524 0.2428496 255 0 255
0.04673423 -0.02847072 0.247254 255 0 255
0.04808696 -0.02938665 0.2499082 255 0 255
-0.1066758 -0.05108558 0.2871479 255 0 255
-0.08524217 -0.03642479 0.2513976 255 0 255
-0.08430702 -0.03746035 0.2537526 255 0 255
-0.08421143 -0.03833068 0.2557826 255 0 255
-0.09341028 -0.04894798 0.2812318 255 0 255
-0.1312625 -0.09242877 0.3855288 255 0 255
-0.1334004 -0.0962531 0.3946488 255 0 255
-0.1372245 -0.1018828 0.4081101 255 0 255
-0.1437252 -0.1104061 0.4285271 255 0 255
0.02395341 -0.02970531 0.242216 255 0 255
0.02920048 -0.02760476 0.2382573 255 0 255
0.02988791 -0.02714238 0.2372859 255 0 255
0.03067223 -0.02704509 0.2372371 255 0 255
0.03145618 -0.02694603 0.2371857 255 0 255
0.03498645 -0.02533488 0.2341211 255 0 255
0.03652624 -0.02511662 0.2339869 255 0 255
0.03975138 -0.02501846 0.2346089 255 0 255
0.0417689 -0.02585296 0.2372036 255 0 255
0.04530202 -0.02796885 0.2433635 255 0 255
0.04780262 -0.02947398 0.247752 255 0 255
0.04898984 -0.03004159 0.2494801 255 0 255
0.05037682 -0.03095859 0.25212 255 0 255
0.05273079 -0.03363592 0.2593355 255 0 255
0.05975166 -0.04088802 0.2790838 255 0 255
-0.08572232 -0.03588154 0.2478533 255 0 255
-0.08008313 -0.03266399 0.2400375 255 0 255
-0.08156934 -0.03582903 0.2474526 255 0 255
-0.0826521 -0.03777394 0.2520235 255 0 255
-0.0867456 -0.04258696 0.2634249 255 0 255
-0.09527294 -0.05171818 0.2851035 255 0 255
-0.1177051 -0.07582908 0.3423505 255 0 255
-0.1232065 -0.08420577 0.3621281 255 0 255
-0.1236789 -0.08623928 0.3668911 255 0 255
-0.1230462 -0.08718848 0.3690778 255 0 255
0.02246127 -0.03100802 0.2428798 255 0 255
0.02327194 -0.03092639 0.242856 255 0 255
0.02554596 -0.02992477 0.2409197 255 0 255
0.02626577 -0.02946418 0.2399613 255 0 255
0.03004887 -0.02825735 0.237906 255 0 255
0.03083737 -0.02815947 0.237857 255 0 255
0.03151642 -0.02769065 0.2368825 255 0 255
0.03285037 -0.02675057 0.2349273 255 0 255
0.03427652 -0.02617454 0.233886 255 0 255
0.03658775 -0.02584936 0.2336887 255 0 255
0.03735732 -0.02573745 0.2336178 255 0 255
0.03812641 -0.02562374 0.2335445 255 0 255
0.03966323 -0.02539105 0.2333902 255 0 255
0.0404309 -0.02527206 0.2333093 255 0 255
0.04372986 -0.02706919 0.2385574 255 0 255
0.04733897 -0.02918649 0.2446824 255 0 255
0.04833406 -0.02940491 0.2454932 255 0 255
0.0527128 -0.03253438 0.2543031 255 0 255
0.05474664 -0.03451268 0.2596637 255 0 255
0.05669947 -0.03454283 0.260318 255 0 255
-0.08738437 -0.03638184 0.2468412 255 0 255
-0.0832967 -0.03370155 0.2404439 255 0 255
-0.08087436 -0.03243705 0.2373928 255 0 255
-0.07887813 -0.0315229 0.235172 255 0 255
-0.07999666 -0.0352265 0.2437148 255 0 255
-0.08224649 -0.03826952 0.2508218 255 0 255
-0.08748478 -0.04421337 0.2647555 255 0 255
-0.1136804 -0.07175968 0.3294475 255 0 255
-0.1134081 -0.07864466 0.345307 255 0 255
0.02153029 -0.03071908 0.2398137 255 0 255
0.02258238 -0.03215251 0.2434875 255 0 255
0.02421191 -0.03198642 0.2434372 255 0 255
0.0256833 -0.03105998 0.2415302 255 0 255
0.02640699 -0.03059522 0.2405731 255 0 255
0.02720898 -0.03050502 0.2405365 255 0 255
0.02801063 -0.03041298 0.2404973 255 0 255
0.0295152 -0.02984915 0.239489 255 0 255
0.03031205 -0.02975203 0.2394421 255 0 255
0.03100302 -0.02927982 0.238471 255 0 255
0.03168595 -0.02880676 0.2374978 255 0 255
0.03236083 -0.02833285 0.2365225 255 0 255
0.03368637 -0.02738266 0.2345659 255 0 255
0.03510818 -0.02679963 0.2335215 255 0 255
0.04142052 -0.0262475 0.2338423 255 0 255
0.04572149 -0.02828574 0.2398887 255 0 255
0.04669501 -0.02851333 0.2407038 255 0 255
0.05060568 -0.03097985 0.2476935 255 0 255
0.05383673 -0.03355443 0.2547584 255 0 255
0.05589869 -0.03554743 0.2601035 255 0 255
0.05431675 -0.02950514 0.2452704 255 0 255
0.05704387 -0.03255549 0.2533323 255 0 255
-0.08368047 -0.03398817 0.2389449 255 0 255
-0.07766329 -0.03122707 0.2323159 255 0 255
-0.07727862 -0.03174365 0.2334609 255 0 255
-0.08337828 -0.04021408 0.2530124 255 0 255
-0.09012721 -0.04767793 0.2703242 255 0 255
-0.1016344 -0.05992108 0.298747 255 0 255
-0.1170116 -0.07623562 0.3366268 255 0 255
-0.1246694 -0.08526311 0.3575486 255 0 255
-0.1119509 -0.07840437 0.3413577 255 0 255
-0.1082465 -0.07601808 0.3357623 255 0 255
0.02158713 -0.03147334 0.2394993 255 0 255
0.02434194 -0.03313591 0.2440388 255 0 255
0.02516049 -0.03304955 0.2440096 255 0 255
0.02654873 -0.03173223 0.2411789 255 0 255
0.02735488 -0.03164151 0.2411423 255 0 255
0.02807033 -0.03117015 0.2401819 255 0 255
0.02957523 -0.03060246 0.2391751 255 0 255
0.0303724 -0.03050522 0.2391284 255 0 255
0.03253474 -0.02945066 0.2371332 255 0 255
0.03308807 -0.02859627 0.2352378 255 0 255
0.03374679 -0.02811702 0.2342601 255 0 255
0.04132449 -0.0266111 0.2326218 255 0 255
0.04413757 -0.02733948 0.2350996 255 0 255
0.04526415 -0.02794298 0.2368324 255 0 255
0.04640543 -0.02854209 0.2385607 255 0 255
0.04737897 -0.02877132 0.2393717 255 0 255
0.04991691 -0.03031268 0.2437182 255 0 255
0.0527258 -0.03219579 0.2489542 255 0 255
0.0543922 -0.03188637 0.2487087 255 0 255
0.05480655 -0.03100752 0.2467638 255 0 255
0.05407256 -0.0267385 0.2365182 255 0 255
-0.0824338 -0.0337071 0.2360945 255 0 255
-0.07960692 -0.03205299 0.232219 255 0 255
-0.08566198 -0.04328248 0.2577308 255 0 255
-0.09352925 -0.05192818 0.2775643 255 0 255
-0.1053776 -0.06466491 0.3067985 255 0 255
-0.1214914 -0.08493205 0.3532035 255 0 255
-0.1158448 -0.08069367 0.3434045 255 0 255
-0.1142326 -0.08053498 0.3429844 255 0 255
0.02140477 -0.03068348 0.2354992 255 0 255
0.02440109 -0.03390677 0.243714 255 0 255
0.02522001 -0.03382031 0.2436848 255 0 255
0.02669101 -0.03287517 0.2417788 255 0 255
0.02822065 -0.03230837 0.240783 255 0 255
0.03053495 -0.03163808 0.2397306 255 0 255
0.03122983 -0.03115787 0.2387624 255 0 255
0.03259538 -0.03019488 0.2368198 255 0 255
0.03445783 -0.02836631 0.2329734 255 0 255
0.03522958 -0.02825929 0.2329103 255 0 255
0.04292215 -0.02709127 0.2321417 255 0 255
0.04385994 -0.02733574 0.2329637 255 0 255
0.04593557 -0.02818527 0.235509 255 0 255
0.04708099 -0.02878899 0.2372313 255 0 255
0.0506049 -0.03057314 0.2423706 255 0 255
0.05425958 -0.03231579 0.2474667 255 0 255
0.05508826 -0.03215869 0.2473405 255 0 255
0.05547935 -0.02681441 0.2350428 255 0 255
-0.08080543 -0.0339334 0.2343991 255 0 255
-0.0784224 -0.03351719 0.2333394 255 0 255
-0.07881977 -0.03478191 0.2361659 255 0 255
-0.08036865 -0.03715944 0.2415255 255 0 255
-0.08420017 -0.04176857 0.2519618 255 0 255
-0.09140214 -0.04973609 0.2700341 255 0 255
-0.1011159 -0.06033545 0.2940851 255 0 255
-0.1232935 -0.08500028 0.350041 255 0 255
-0.1257069 -0.08897234 0.3590058 255 0 255
-0.1165342 -0.08267699 0.3445862 255 0 255
-0.1141966 -0.08176426 0.3424614 255 0 255
0.02343736 -0.03359523 0.2406557 255 0 255
0.02683379 -0.034024 0.2423725 255 0 255
0.02828053 -0.03306646 0.2404601 255 0 255
0.02979383 -0.03249011 0.2394562 255 0 255
0.03139676 -0.03229241 0.2393599 255 0 255
0.03320868 -0.03006859 0.2346143 255 0 255
0.03386741 -0.02958184 0.2336398 255 0 255
0.04451875 -0.02756234 0.231649 255 0 255
0.04659859 -0.02841814 0.2341843 255 0 255
0.04774816 -0.02902643 0.2359007 255 0 255
0.04891237 -0.02963021 0.2376124 255 0 255
0.05128444 -0.03082408 0.2410216 255 0 255
0.05249226 -0.0314141 0.2427191 255 0 255
0.05371459 -0.03199941 0.2444116 255 0 255
0.0547418 -0.0322121 0.2451933 255 0 255
0.05620253 -0.03315572 0.2477818 255 0 255
0.05681675 -0.03262743 0.2467449 255 0 255
0.05543453 -0.02880791 0.2375691 255 0 255
0.05487484 -0.02646109 0.2320172 255 0 255
-0.08648784 -0.03899866 0.2437554 255 0 255
-0.08119962 -0.03599781 0.2368822 255 0 255
-0.08156367 -0.03818537 0.2417026 255 0 255
-0.100212 -0.05929572 0.2890373 255 0 255
-0.112123 -0.07226539 0.3181457 255 0 255
-0.1230331 -0.08452503 0.345648 255 0 255
-0.1244713 -0.09225313 0.3627859 255 0 255
0.02329107 -0.033176 0.2375773 255 0 255
0.02541468 -0.03574906 0.2439433 255 0 255
0.02697711 -0.03517868 0.2429601 255 0 255
0.02770836 -0.03469625 0.2420065 255 0 255
0.02843162 -0.03421281 0.2410506 255 0 255
0.02914682 -0.03372837 0.2400924 255 0 255
0.02995296 -0.03363174 0.2400481 255 0 255
0.03075877 -0.03353322 0.2400011 255 0 255
0.03145752 -0.03304506 0.2390359 255 0 255
0.03271643 -0.0316793 0.2361841 255 0 255
0.03392762 -0.03031225 0.2333254 255 0 255
0.04534867 -0.02815658 0.2312418 255 0 255
0.04629742 -0.02840065 0.2320519 255 0 255
0.04744033 -0.02901728 0.2337662 255 0 255
0.04859786 -0.02962941 0.235476 255 0 255
0.05296132 -0.03128781 0.2404577 255 0 255
0.05563459 -0.03283459 0.2447304 255 0 255
-0.08720881 -0.04242211 0.2490652 255 0 255
-0.1023728 -0.0612458 0.2907374 255 0 255
-0.134679 -0.0975526 0.371293 255 0 255
-0.1388959 -0.1035147 0.3844831 255 0 255
-0.1378278 -0.1041544 0.3858448 255 0 255
-0.1330909 -0.1009721 0.378718 255 0 255
-0.1276927 -0.09700973 0.369864 255 0 255
0.02421728 -0.03423405 0.238143 255 0 255
0.02629778 -0.03643021 0.2435761 255 0 255
0.02712093 -0.03633923 0.2435416 255 0 255
0.02849167 -0.03497177 0.2407201 255 0 255
0.02930231 -0.0348764 0.2406782 255 0 255
0.03001332 -0.03438687 0.2397193 255 0 255
0.03151822 -0.03379631 0.2387088 255 0 255
0.0322089 -0.03330354 0.2377432 255 0 255
0.03332898 -0.03153561 0.2339793 255 0 255
0.04636214 -0.02912724 0.2317361 255 0 255
0.04731854 -0.02937161 0.2325413 255 0 255
0.04828192 -0.02961289 0.2333429 255 0 255
0.05141663 -0.0306941 0.2366301 255 0 255
0.05506448 -0.03249051 0.2416853 255 0 255
0.05734698 -0.03329132 0.2441293 255 0 255
-0.09939693 -0.05367742 0.2716619 255 0 255
-0.09683175 -0.05235907 0.2687019 255 0 255
-0.0958869 -0.05255019 0.2690681 255 0 255
-0.1016508 -0.05920095 0.2836515 255 0 255
-0.1112026 -0.06968165 0.3066567 255 0 255
-0.1205586 -0.08019743 0.3297317 255 0 255
-0.1312542 -0.09227648 0.3562377 255 0 255
-0.1386817 -0.1013315 0.3760874 255 0 255
-0.1444343 -0.1088799 0.3926207 255 0 255
-0.1459432 -0.1122234 0.3999096 255 0 255
-0.1444362 -0.1124947 0.4004482 255 0 255
-0.1425612 -0.1123768 0.4001348 255 0 255
0.02619723 -0.03640253 0.2414101 255 0 255
0.02718118 -0.03710781 0.2432033 255 0 255
0.02800433 -0.03701484 0.2431662 255 0 255
0.0332702 -0.03187361 0.2327458 255 0 255
0.04815611 -0.02996278 0.2321172 255 0 255
0.05107862 -0.03067978 0.2344977 255 0 255
0.05206668 -0.03091234 0.2352839 255 0 255
0.05470657 -0.03250137 0.2395473 255 0 255
0.05719741 -0.03369185 0.2428887 255 0 255
0.05869008 -0.03465543 0.2454506 255 0 255
0.05859846 -0.0329883 0.2417185 255 0 255
0.05870913 -0.03169954 0.2388864 255 0 255
-0.1322252 -0.08412074 0.3355538 255 0 255
-0.1205123 -0.07584117 0.3173855 255 0 255
-0.1408904 -0.09998136 0.3697307 255 0 255
-0.1500246 -0.1124725 0.3967725 255 0 255
-0.1530899 -0.1173921 0.4074075 255 0 255
-0.1568196 -0.1230983 0.4197526 255 0 255
-0.1570887 -0.1253293 0.4245429 255 0 255
-0.1584273 -0.1287282 0.4318737 255 0 255
0.02601499 -0.03595727 0.2383353 255 0 255
0.02715698 -0.03747363 0.2419499 255 0 255
0.02961484 -0.03718994 0.2418315 255 0 255
0.03104433 -0.0361931 0.2399171 255 0 255
0.03174696 -0.03569329 0.2389567 255 0 255
0.0323301 -0.03479446 0.2370836 255 0 255
0.03332987 -0.03260013 0.2324227 255 0 255
0.04783763 -0.02991843 0.2299894 255 0 255
0.04879782 -0.03016537 0.2307861 255 0 255
0.04976499 -0.03040914 0.2315792 255 0 255
0.05073911 -0.03064974 0.2323687 255 0 255
0.05172019 -0.03088711 0.2331545 255 0 255
0.05434712 -0.03249652 0.2374125 255 0 255
0.05557872 -0.0331026 0.2390839 255 0 255
0.05682473 -0.03370383 0.2407504 255 0 255
0.05831113 -0.0346794 0.2433089 255 0 255
0.0597147 -0.03396723 0.2421345 255 0 255
0.059579 -0.03229034 0.2384106 255 0 255
-0.1500048 -0.1036909 0.3744664 255 0 255
-0.1566332 -0.1116948 0.3916269 255 0 255
-0.1568286 -0.115389 0.3994332 255 0 255
-0.1553503 -0.1175365 0.4039197 255 0 255
-0.1572721 -0.1213337 0.4120254 255 0 255
-0.1602671 -0.1263092 0.4226663 255 0 255
-0.1626335 -0.132775 0.4364552 255 0 255
-0.166501 -0.1389563 0.4496907 255 0 255
0.02566941 -0.03467825 0.2334461 255 0 255
0.02704751 -0.03742589 0.2397863 255 0 255
0.02812529 -0.03854752 0.2424806 255 0 255
0.02894873 -0.0384524 0.242441 255 0 255
0.02977184 -0.03835535 0.2423988 255 0 255
0.0312091 -0.03735016 0.2404874 255 0 255
0.03284207 -0.03423062 0.2339693 255 0 255
0.03338945 -0.03332531 0.2320967 255 0 255
0.04963086 -0.0307466 0.2303539 255 0 255
0.05060178 -0.03099125 0.2311424 255 0 255
0.05137224 -0.0308462 0.2310287 255 0 255
0.05256447 -0.03147092 0.2327086 255 0 255
0.05499239 -0.03270612 0.2360539 255 0 255
0.05622798 -0.03331653 0.237719 255 0 255
0.05899988 -0.03059933 0.2325711 255 0 255
0.08227912 -0.02245756 0.222267 255 0 255
-0.142268 -0.09769016 0.3581164 255 0 255
-0.1565922 -0.1131467 0.3909688 255 0 255
-0.1610825 -0.1192972 0.4039961 255 0 255
-0.15718 -0.1172609 0.3995933 255 0 255
-0.1560802 -0.1198173 0.4049098 255 0 255
-0.1605991 -0.1282746 0.4227903 255 0 255
-0.1614643 -0.1332166 0.4331982 255 0 255
0.02668197 -0.03613672 0.2349 255 0 255
0.02800802 -0.0384955 0.2403161 255 0 255
0.02983285 -0.0391193 0.2420516 255 0 255
0.03065592 -0.03902024 0.2420067 255 0 255
0.0312701 -0.03810672 0.2401436 255 0 255
0.03233898 -0.03587453 0.235505 255 0 255
0.03344896 -0.03404912 0.231768 255 0 255
0.05340844 -0.03205111 0.2322575 255 0 255
0.05585195 -0.03329353 0.235589 255 0 255
0.05709533 -0.03390745 0.2372472 255 0 255
0.05985941 -0.03550535 0.241441 255 0 255
0.06091157 -0.0357196 0.2421909 255 0 255
0.06124522 -0.03478065 0.2402624 255 0 255
-0.1206829 -0.07681085 0.3108135 255 0 255
-0.1264329 -0.08371305 0.3253025 255 0 255
-0.1527986 -0.1144065 0.3897829 255 0 255
-0.1556474 -0.1209224 0.4033892 255 0 255
-0.1597902 -0.1290528 0.4203985 255 0 255
-0.1611907 -0.1325351 0.427678 255 0 255
0.02771138 -0.03760435 0.2363413 255 0 255
0.02989378 -0.03988181 0.2417014 255 0 255
0.03071715 -0.03978263 0.2416566 255 0 255
0.03350838 -0.03477155 0.2314363 255 0 255
0.05425209 -0.03262768 0.2318012 255 0 255
0.05547442 -0.03325489 0.2334626 255 0 255
0.05671117 -0.03387722 0.235119 255 0 255
0.05796228 -0.03449466 0.2367702 255 0 255
0.0605076 -0.03571461 0.2400571 255 0 255
0.06040554 -0.03266866 0.2335422 255 0 255
0.08097575 -0.02430016 0.2220567 255 0 255
0.0831586 -0.02457818 0.2233493 255 0 255
-0.1198338 -0.07713383 0.3086528 255 0 255
-0.1284235 -0.08686309 0.3288816 255 0 255
-0.144466 -0.104154 0.3648629 255 0 255
-0.1543318 -0.1174377 0.3924299 255 0 255
-0.1540108 -0.1189291 0.3954838 255 0 255
0.02723362 -0.03585267 0.2305661 255 0 255
0.02976038 -0.03981417 0.2395384 255 0 255
0.03209837 -0.0391004 0.2384934 255 0 255
0.03268419 -0.03817193 0.2366334 255 0 255
0.03313772 -0.03683165 0.233868 255 0 255
0.05191615 -0.03207245 0.2281333 255 0 255
0.05387969 -0.03256505 0.2296804 255 0 255
0.05632547 -0.03383136 0.2329943 255 0 255
0.05906373 -0.03546997 0.2371773 255 0 255
0.06100775 -0.03284683 0.2321702 255 0 255
0.08067482 -0.02558016 0.2228055 255 0 255
0.08176482 -0.02572601 0.2234552 255 0 255
0.08359897 -0.02564694 0.2238815 255 0 255
-0.1472345 -0.1082906 0.3700057 255 0 255
-0.1557779 -0.1185886 0.3911821 255 0 255
-0.1566515 -0.1212964 0.396712 255 0 255
-0.1609703 -0.1295446 0.4136133 255 0 255
0.0282557 -0.03731622 0.2319996 255 0 255
0.02962575 -0.03973078 0.2373791 255 0 255
0.0307381 -0.04088555 0.2400444 255 0 255
0.03274465 -0.03891319 0.2362859 255 0 255
0.03319759 -0.03756215 0.2335256 255 0 255
0.03440621 -0.03610695 0.230707 255 0 255
0.0527439 -0.03263661 0.2276829 255 0 255
0.05372591 -0.03288534 0.2284537 255 0 255
0.05593828 -0.0337699 0.2308733 255 0 255
0.05717612 -0.03440413 0.2325207 255 0 255
0.05993394 -0.03605238 0.2366874 255 0 255
0.06251752 -0.03728422 0.2399446 255 0 255
0.08219755 -0.02679967 0.2239846 255 0 255
-0.1489946 -0.1097631 0.369641 255 0 255
-0.1588266 -0.1213446 0.3932145 255 0 255
-0.1636844 -0.128116 0.4069747 255 0 255
-0.1648789 -0.1312645 0.413347 255 0 255
-0.1660205 -0.1344192 0.4197332 255 0 255
0.02929457 -0.03878874 0.2334205 255 0 255
0.03140795 -0.04069791 0.2378377 255 0 255
0.03221983 -0.04059597 0.2377885 255 0 255
0.0345904 -0.03724305 0.2312667 255 0 255
0.03511613 -0.03630035 0.2294074 255 0 255
0.05379173 -0.03359917 0.2281162 255 0 255
0.05478121 -0.03384794 0.2288817 255 0 255
0.05577756 -0.03409338 0.2296435 255 0 255
0.05701255 -0.03473522 0.2312884 255 0 255
0.05826193 -0.03537213 0.2329282 255 0 255
0.05952564 -0.03600405 0.2345628 255 0 255
0.06104675 -0.03702832 0.2370771 255 0 255
0.06209598 -0.03725275 0.2378163 255 0 255
0.06315193 -0.03747367 0.2385516 255 0 255
0.06370577 -0.03690117 0.2375171 255 0 255
0.06190754 -0.03142985 0.22575 255 0 255
0.07935389 -0.02741709 0.2225603 255 0 255
0.08079055 -0.02794527 0.2240742 255 0 255
0.0818865 -0.02809815 0.2247224 255 0 255
0.08263072 -0.02787888 0.2245079 255 0 255
0.08338564 -0.02670289 0.2223597 255 0 255
-0.153209 -0.1136649 0.3741692 255 0 255
-0.1578545 -0.1200547 0.3870187 255 0 255
-0.1651977 -0.1293103 0.4056512 255 0 255
-0.1699957 -0.1361499 0.4194064 255 0 255
0.03004461 -0.03899644 0.2321295 255 0 255
0.03286537 -0.04039139 0.2355821 255 0 255
0.03343442 -0.03944131 0.2337309 255 0 255
0.03465003 -0.03796328 0.2309221 255 0 255
0.03517544 -0.03701336 0.2290663 255 0 255
0.05439833 -0.03375407 0.226767 255 0 255
0.05538768 -0.03400435 0.2275285 255 0 255
0.05638389 -0.0342513 0.2282863 255 0 255
0.06014376 -0.03617458 0.2331863 255 0 255
0.06354889 -0.03451684 0.2306908 255 0 255
0.08231621 -0.0291843 0.2252405 255 0 255
0.08306431 -0.02896364 0.2250252 255 0 255
0.0834494 -0.02837057 0.223952 255 0 255
-0.165001 -0.126898 0.397177 255 0 255
-0.1751104 -0.143059 0.429317 255 0 255
0.03089251 -0.03962209 0.2317348 255 0 255
0.03201138 -0.04080424 0.2343796 255 0 255
0.03281185 -0.04070163 0.2343287 255 0 255
0.03349432 -0.040171 0.2333782 255 0 255
0.03483494 -0.0391072 0.2314711 255 0 255
0.03536386 -0.03814951 0.2296185 255 0 255
0.05846444 -0.03545555 0.2294429 255 0 255
0.05972542 -0.03610005 0.2310691 255 0 255
0.06075318 -0.03633589 0.2318093 255 0 255
0.0667906 -0.03727851 0.2352906 255 0 255
0.06539705 -0.0339113 0.2281219 255 0 255
0.07841972 -0.02865479 0.2212326 255 0 255
0.08089149 -0.03033635 0.2253193 255 0 255
0.0819933 -0.03049627 0.225966 255 0 255
0.08274634 -0.03027599 0.2257524 255 0 255
-0.1698495 -0.1333224 0.4062324 255 0 255
-0.1715129 -0.1369582 0.4133759 255 0 255
0.03264363 -0.04057314 0.2321802 255 0 255
0.03343626 -0.04046953 0.2321273 255 0 255
0.03464342 -0.03897082 0.2293298 255 0 255
0.05681124 -0.03469926 0.2257021 255 0 255
0.0578109 -0.03494842 0.2264511 255 0 255
0.06007848 -0.03584364 0.2288168 255 0 255
0.06110227 -0.03608172 0.2295536 255 0 255
0.06368832 -0.03735667 0.2327694 255 0 255
0.06633118 -0.0386107 0.2359634 255 0 255
0.06794422 -0.03963181 0.2384268 255 0 255
0.06817821 -0.03724928 0.2337263 255 0 255
0.06840664 -0.03626154 0.2318142 255 0 255
0.08061782 -0.03066906 0.2241159 255 0 255
0.08136487 -0.03045238 0.2239071 255 0 255
0.08246618 -0.03061366 0.2245498 255 0 255
0.08321469 -0.03039235 0.2243349 255 0 255
0.08359953 -0.02979169 0.2232656 255 0 255
-0.1706155 -0.1356706 0.4071119 255 0 255
-0.1734832 -0.1405853 0.4166871 255 0 255
-0.1770709 -0.1463468 0.4279194 255 0 255
0.0324742 -0.04042906 0.2300359 255 0 255
0.03482844 -0.04011534 0.2298714 255 0 255
0.03535282 -0.03914383 0.2280262 255 0 255
0.05964978 -0.03573951 0.2267091 255 0 255
0.06297992 -0.03686619 0.2297825 255 0 255
0.06586906 -0.03854519 0.2338481 255 0 255
0.06720509 -0.03917271 0.235435 255 0 255
0.06828077 -0.03939016 0.2361439 255 0 255
0.07016985 -0.03941119 0.2366785 255 0 255
0.06954732 -0.03720657 0.232156 255 0 255
0.06801832 -0.03380592 0.2250317 255 0 255
0.07959843 -0.03120761 0.2231184 255 0 255
0.08403707 -0.03088111 0.2237684 255 0 255
-0.1705645 -0.1371912 0.406356 255 0 255
-0.1778172 -0.1487928 0.4287495 255 0 255
0.03398075 -0.04050015 0.2286813 255 0 255
0.0625291 -0.03676489 0.2276766 255 0 255
0.06807835 -0.03973075 0.2349014 255 0 255
0.06915743 -0.03994863 0.2356053 255 0 255
0.07052539 -0.04056922 0.2371741 255 0 255
0.06943041 -0.0351323 0.2262471 255 0 255
0.07885395 -0.03312015 0.224883 255 0 255
0.07994974 -0.03329799 0.2255357 255 0 255
0.08070663 -0.03308216 0.2253301 255 0 255
0.08186483 -0.03225734 0.2240598 255 0 255
0.08411167 -0.03159149 0.2234164 255 0 255
-0.1745893 -0.1429336 0.4136893 255 0 255
0.03469387 -0.04066437 0.2273779 255 0 255
0.05928547 -0.0363202 0.2242539 255 0 255
0.06029586 -0.03657134 0.2249887 255 0 255
0.06233685 -0.03706323 0.2264467 255 0 255
0.06363135 -0.03771815 0.2280409 255 0 255
0.06626289 -0.03901219 0.2312128 255 0 255
0.06732471 -0.03923959 0.2319217 255 0 255
0.06839312 -0.03946335 0.2326264 255 0 255
0.06975077 -0.04009329 0.2341942 255 0 255
0.07076748 -0.0388885 0.2321186 255 0 255
0.07096944 -0.03787891 0.2302145 255 0 255
0.07675295 -0.0334577 0.2232112 255 0 255
0.07884015 -0.03483556 0.2264361 255 0 255
0.08036491 -0.03440659 0.226031 255 0 255
0.08078022 -0.03379609 0.2249726 255 0 255
0.08271776 -0.03174642 0.2215825 255 0 255
-0.1794258 -0.1495932 0.4225975 255 0 255
-0.1838248 -0.1563472 0.4353817 255 0 255
0.06010917 -0.03685311 0.2237613 255 0 255
0.06112308 -0.03710488 0.2244913 255 0 255
