ply
format ascii 1.0
Comment Generated by Floating Hands
element vertex 1098
property double x
property double y
property double z
property uchar red
property uchar green
property uchar blue
end_header
-0.007732017 -0.02331348 0.2579158 255 0 255
-0.006750795 -0.02014954 0.2484419 255 0 255
0.04530199 -0.007740244 0.2333284 255 0 255
-0.08568086 -0.02172568 0.2391649 255 0 255
-0.08350404 -0.02306481 0.2429765 255 0 255
-0.08268458 -0.02316506 0.2432628 255 0 255
-0.08070426 -0.02305044 0.2429384 255 0 255
-0.07774504 -0.0237249 0.244924 255 0 255
-0.07640644 -0.02420713 0.2463523 255 0 255
-0.07080761 -0.0240461 0.2460851 255 0 255
-0.06885771 -0.02387001 0.2456668 255 0 255
-0.01060564 -0.02846616 0.2698475 255 0 255
-0.008582422 -0.02518199 0.2604461 255 0 255
-0.007642988 -0.02385451 0.2566879 255 0 255
0.01738415 -0.01327233 0.2336805 255 0 255
0.02003948 -0.01377924 0.236369 255 0 255
0.04415902 -0.008144461 0.2313625 255 0 255
0.04515195 -0.008228399 0.2321546 255 0 255
-0.0863744 -0.02317888 0.240644 255 0 255
-0.08628171 -0.02390737 0.2426996 255 0 255
-0.08428789 -0.02380808 0.2424052 255 0 255
-0.08264914 -0.02401108 0.2429803 255 0 255
-0.07522182 -0.02482588 0.2454352 255 0 255
-0.07272775 -0.02506155 0.246205 255 0 255
-0.01618786 -0.03073498 0.2720334 255 0 255
-0.01335988 -0.03021882 0.27128 255 0 255
-0.007597734 -0.0253363 0.2583046 255 0 255
0.02941741 -0.01284087 0.2352552 255 0 255
0.04302759 -0.008527983 0.2293927 255 0 255
-0.08788501 -0.02453444 0.2418141 255 0 255
-0.08624731 -0.02475484 0.2424129 255 0 255
-0.08063138 -0.02473462 0.2423723 255 0 255
-0.07601168 -0.02558978 0.244887 255 0 255
-0.01782132 -0.02599936 0.2545094 255 0 255
-0.01678029 -0.03009262 0.2669325 255 0 255
-0.01527101 -0.03222843 0.2736864 255 0 255
-0.01425081 -0.03151707 0.2718602 255 0 255
-0.01238924 -0.03137866 0.2719803 255 0 255
0.02048523 -0.01396579 0.2320271 255 0 255
0.04311745 -0.009269506 0.2291492 255 0 255
0.04386199 -0.009086528 0.2290138 255 0 255
-0.08748443 -0.02506336 0.2406494 255 0 255
-0.08421701 -0.02549521 0.2418308 255 0 255
-0.08339732 -0.0255982 0.2421195 255 0 255
-0.0810722 -0.02515826 0.2409211 255 0 255
-0.07648146 -0.02602758 0.2434417 255 0 255
-0.0751413 -0.02651788 0.2448593 255 0 255
-0.01866577 -0.02300853 0.2427639 255 0 255
-0.01829013 -0.02978945 0.2627097 255 0 255
-0.01686249 -0.03196532 0.2694604 255 0 255
-0.01510484 -0.03249352 0.2714863 255 0 255
-0.01401121 -0.0311228 0.2677733 255 0 255
-0.008585729 -0.03198614 0.2718752 255 0 255
-0.007585335 -0.03028504 0.2671887 255 0 255
0.01935578 -0.02047159 0.2480493 255 0 255
0.04320731 -0.01000992 0.2289028 255 0 255
0.04395216 -0.009826638 0.2287675 255 0 255
-0.08945086 -0.02599495 0.2406221 255 0 255
-0.08590883 -0.02537336 0.238907 255 0 255
-0.08464416 -0.02590975 0.2403699 255 0 255
-0.07940152 -0.02618383 0.241185 255 0 255
-0.07612219 -0.02654137 0.2422605 255 0 255
-0.07426852 -0.02744304 0.2448256 255 0 255
-0.07343585 -0.02752218 0.245082 255 0 255
-0.07147039 -0.02734623 0.2446902 255 0 255
-0.06702318 -0.02736046 0.2449972 255 0 255
-0.01881254 -0.0339768 0.2718252 255 0 255
-0.01480719 -0.03175172 0.2664592 255 0 255
0.02038244 -0.02145816 0.2486639 255 0 255
0.02828418 -0.01572767 0.2355999 255 0 255
-0.08341204 -0.01940387 0.2203511 255 0 255
-0.08668227 -0.02609499 0.238318 255 0 255
-0.08344025 -0.02652502 0.2394883 255 0 255
-0.07984318 -0.02659544 0.2397339 255 0 255
-0.07936278 -0.02701782 0.2408919 255 0 255
-0.07172423 -0.02851791 0.2452905 255 0 255
-0.0206071 -0.03499758 0.2713431 255 0 255
-0.01796741 -0.03583459 0.274407 255 0 255
-0.01681441 -0.03443617 0.2707183 255 0 255
-0.01290579 -0.03250891 0.2662736 255 0 255
-0.01202513 -0.03277292 0.2672736 255 0 255
-0.01110823 -0.03270149 0.2673284 255 0 255
-0.0102406 -0.03329284 0.2692658 255 0 255
-0.008442261 -0.03413357 0.2721907 255 0 255
0.02092064 -0.02353293 0.2521519 255 0 255
0.02900347 -0.01771905 0.2390907 255 0 255
0.04437344 -0.01159261 0.2291927 255 0 255
-0.08760414 -0.02374034 0.2295873 255 0 255
-0.08782437 -0.02714008 0.2385929 255 0 255
-0.08583753 -0.02703623 0.2383188 255 0 255
-0.08143014 -0.02722945 0.2388828 255 0 255
-0.07932345 -0.02785046 0.2405955 255 0 255
-0.07553269 -0.02862844 0.2428209 255 0 255
-0.07470481 -0.02871163 0.2430814 255 0 255
-0.02383036 -0.02161564 0.2300277 255 0 255
-0.0225604 -0.02257487 0.2330117 255 0 255
-0.02177936 -0.02254098 0.2330971 255 0 255
-0.02148918 -0.02454454 0.2388013 255 0 255
-0.02125623 -0.03494133 0.2681206 255 0 255
-0.02079803 -0.03726421 0.2747752 255 0 255
-0.01694253 -0.03669515 0.2741572 255 0 255
-0.01091762 -0.03224653 0.2632491 255 0 255
-0.0100156 -0.03217412 0.2633002 255 0 255
0.02134857 -0.02531677 0.2546855 255 0 255
0.02161456 -0.02121333 0.2432845 255 0 255
0.02180338 -0.01948766 0.2385248 255 0 255
0.02246318 -0.0169986 0.2318245 255 0 255
0.02322959 -0.01686203 0.2317608 255 0 255
0.02504877 -0.01721151 0.2335026 255 0 255
-0.08057894 -0.02815495 0.2388641 255 0 255
-0.07631784 -0.02937908 0.2422564 255 0 255
-0.07247172 -0.03012508 0.2444371 255 0 255
-0.07025053 -0.03068608 0.2460765 255 0 255
-0.0677207 -0.03088984 0.2467997 255 0 255
-0.06386378 -0.02828408 0.2400677 255 0 255
-0.02258878 -0.02367876 0.2336743 255 0 255
-0.02197427 -0.02433226 0.2356305 255 0 255
-0.02111208 -0.03549598 0.2668628 255 0 255
-0.02065512 -0.03784508 0.2735077 255 0 255
-0.01989479 -0.03881862 0.2764048 255 0 255
-0.01911125 -0.03978859 0.2793007 255 0 255
-0.01814045 -0.03972853 0.2793812 255 0 255
-0.01342964 -0.0323029 0.2599481 255 0 255
-0.00616446 -0.02630487 0.2452855 255 0 255
0.02265062 -0.0269764 0.2571503 255 0 255
0.02708909 -0.02035636 0.2406589 255 0 255
-0.0840061 -0.0207874 0.2172406 255 0 255
-0.09018228 -0.02845069 0.2370733 255 0 255
-0.08819041 -0.02835401 0.2368211 255 0 255
-0.08701345 -0.02813458 0.2362556 255 0 255
-0.08019912 -0.02864232 0.2376855 255 0 255
-0.07842313 -0.02960495 0.2402657 255 0 255
-0.07104634 -0.03145738 0.2455224 255 0 255
-0.02217173 -0.02305058 0.2296644 255 0 255
-0.02201203 -0.02888641 0.245712 255 0 255
-0.02171798 -0.03127623 0.2523402 255 0 255
-0.01865873 -0.04447351 0.2893445 255 0 255
-0.01260419 -0.03447792 0.2634479 255 0 255
-0.01179159 -0.03544195 0.2663203 255 0 255
-0.009931547 -0.03495287 0.2654886 255 0 255
-0.006050086 -0.02539567 0.2402979 255 0 255
0.02356765 -0.03010384 0.2634127 255 0 255
0.0235413 -0.02283747 0.2435372 255 0 255
0.02395832 -0.02172346 0.2406618 255 0 255
-0.08905204 -0.0258916 0.2281108 255 0 255
-0.09014639 -0.02927974 0.2367671 255 0 255
-0.07934829 -0.02955967 0.2376577 255 0 255
-0.0212981 -0.02688759 0.2379521 255 0 255
-0.02071242 -0.03171755 0.251186 255 0 255
-0.01971432 -0.03547769 0.2616265 255 0 255
-0.01700838 -0.04154595 0.278774 255 0 255
-0.01468139 -0.03827522 0.2704933 255 0 255
-0.009829314 -0.03548848 0.264228 255 0 255
0.02382578 -0.02884749 0.2574164 255 0 255
0.02381839 -0.02639864 0.2508004 255 0 255
0.02526144 -0.0233392 0.2431176 255 0 255
0.02664295 -0.02449404 0.2467869 255 0 255
-0.08973016 -0.02976696 0.2355974 255 0 255
-0.08774417 -0.02966298 0.2353449 255 0 255
-0.07882771 -0.03082081 0.238501 255 0 255
-0.07669499 -0.03144251 0.2401873 255 0 255
-0.07567509 -0.0323131 0.2424795 255 0 255
-0.07515262 -0.03274655 0.243625 255 0 255
-0.07377927 -0.03325969 0.2450285 255 0 255
-0.07209126 -0.03341562 0.2455371 255 0 255
-0.06397012 -0.03219348 0.2429772 255 0 255
-0.01830798 -0.03382089 0.2548507 255 0 255
-0.01354919 -0.03805586 0.2674182 255 0 255
0.01942847 -0.03007968 0.2564415 255 0 255
0.02384631 -0.03782907 0.2788 255 0 255
0.02453984 -0.02887913 0.2551726 255 0 255
0.02610812 -0.02185934 0.2370856 255 0 255
-0.08893412 -0.02990142 0.2335685 255 0 255
-0.08775882 -0.02967574 0.233012 255 0 255
-0.08653246 -0.0302523 0.2344718 255 0 255
-0.08572956 -0.03036529 0.2347677 255 0 255
-0.08456398 -0.0301296 0.2341955 255 0 255
-0.08135101 -0.03055181 0.2353378 255 0 255
-0.08054502 -0.03065241 0.235617 255 0 255
-0.07488288 -0.03437369 0.2453356 255 0 255
-0.07178262 -0.03504214 0.2472452 255 0 255
-0.01532421 -0.03907723 0.2669509 255 0 255
-0.009467438 -0.03405004 0.2551618 255 0 255
-0.007443671 -0.02752907 0.2384213 255 0 255
-0.09167904 -0.0306919 0.2331842 255 0 255
-0.08772131 -0.03048629 0.2327017 255 0 255
-0.08729612 -0.03095179 0.2338615 255 0 255
-0.08649401 -0.03106699 0.2341599 255 0 255
-0.0845249 -0.03094116 0.2338848 255 0 255
-0.08372296 -0.03104993 0.2341742 255 0 255
-0.08050402 -0.03146514 0.2353058 255 0 255
-0.08003617 -0.03191713 0.236454 255 0 255
-0.07874312 -0.03246368 0.2378758 255 0 255
-0.07621338 -0.03469218 0.2436055 255 0 255
-0.07568237 -0.03513408 0.2447505 255 0 255
-0.07373984 -0.03609433 0.2472979 255 0 255
-0.07116211 -0.03747141 0.2509729 255 0 255
-0.06997279 -0.03832978 0.2532488 255 0 255
-0.01553276 -0.03534377 0.2544322 255 0 255
-0.00919017 -0.03166587 0.2464427 255 0 255
-0.09280939 -0.02924638 0.2273618 255 0 255
-0.08412406 -0.03139734 0.2327083 255 0 255
-0.08368291 -0.03186031 0.2338603 255 0 255
-0.07594579 -0.03633671 0.245304 255 0 255
-0.07227024 -0.03862258 0.2512746 255 0 255
-0.07047463 -0.03992578 0.2546915 255 0 255
-0.05982539 -0.03150047 0.2344226 255 0 255
-0.05545893 -0.02644803 0.2220916 255 0 255
-0.01358001 -0.03497472 0.2514486 255 0 255
-0.09519812 -0.03214709 0.2321188 255 0 255
-0.09041791 -0.03209356 0.23201 255 0 255
-0.08923719 -0.03186278 0.2314652 255 0 255
-0.08726905 -0.03174761 0.2312158 255 0 255
-0.08567883 -0.03197898 0.2318094 255 0 255
-0.08372299 -0.03184483 0.2315315 255 0 255
-0.08328488 -0.03231123 0.2326806 255 0 255
-0.0794739 -0.03400478 0.2369644 255 0 255
-0.07898819 -0.03446226 0.2381093 255 0 255
-0.07780186 -0.03619006 0.2424176 255 0 255
-0.07727903 -0.0366431 0.2435626 255 0 255
-0.07455654 -0.04006328 0.2521895 255 0 255
-0.07035173 -0.04197066 0.2572631 255 0 255
-0.06972001 -0.04240474 0.2584003 255 0 255
-0.06775249 -0.04099974 0.25508 255 0 255
-0.01516084 -0.02935178 0.2342172 255 0 255
-0.09636683 -0.03317895 0.2323111 255 0 255
-0.09637278 -0.034026 0.2343257 255 0 255
-0.09435458 -0.03394206 0.2341335 255 0 255
-0.08722991 -0.03255029 0.2308975 255 0 255
-0.0816415 -0.03332724 0.2329298 255 0 255
-0.07827047 -0.03656732 0.2409426 255 0 255
-0.07775541 -0.03702546 0.2420865 255 0 255
-0.07657986 -0.04232566 0.2551039 255 0 255
-0.07598025 -0.04277677 0.2562523 255 0 255
-0.07293753 -0.04382559 0.2590674 255 0 255
-0.07020282 -0.04403586 0.2598258 255 0 255
-0.05892205 -0.03312825 0.2340111 255 0 255
0.04353475 -0.01898658 0.2258479 255 0 255
-0.09431605 -0.03476342 0.2338041 255 0 255
-0.08995473 -0.03334926 0.2305163 255 0 255
-0.08559839 -0.03358399 0.2311694 255 0 255
-0.08443653 -0.03333283 0.2306051 255 0 255
-0.08320218 -0.03391772 0.2320401 255 0 255
-0.08067665 -0.03506937 0.2348948 255 0 255
-0.07972071 -0.03600408 0.2371813 255 0 255
-0.07889862 -0.03610113 0.2374559 255 0 255
-0.07827783 -0.04183456 0.2513056 255 0 255
-0.07802592 -0.04386693 0.256236 255 0 255
-0.07122169 -0.04642908 0.2630168 255 0 255
-0.06976283 -0.04574639 0.2614909 255 0 255
-0.0975128 -0.03589499 0.2341697 255 0 255
-0.09589273 -0.03531149 0.232821 255 0 255
-0.09189581 -0.03426165 0.2304143 255 0 255
-0.08677487 -0.033785 0.2294002 255 0 255
-0.08359975 -0.03424082 0.2305707 255 0 255
-0.08190571 -0.03530181 0.2331434 255 0 255
-0.07979073 -0.04579217 0.2582267 255 0 255
-0.07076441 -0.04816118 0.2646735 255 0 255
0.01514647 -0.02763805 0.2320556 255 0 255
0.03168026 -0.02853596 0.240169 255 0 255
0.04371328 -0.02043511 0.2252761 255 0 255
-0.09909675 -0.03643258 0.2331598 255 0 255
-0.09706689 -0.03635489 0.232994 255 0 255
-0.08948977 -0.03458477 0.2290161 255 0 255
-0.08631275 -0.03506758 0.230222 255 0 255
-0.08471722 -0.03529701 0.2308097 255 0 255
-0.08391775 -0.03540875 0.2310997 255 0 255
-0.08347379 -0.03589111 0.2322439 255 0 255
-0.08045138 -0.03753716 0.2362384 255 0 255
-0.07857302 -0.0406541 0.243681 255 0 255
-0.07898616 -0.04225619 0.2474342 255 0 255
-0.07994057 -0.05074686 0.267455 255 0 255
-0.0742107 -0.05122649 0.2690908 255 0 255
-0.07229269 -0.0513677 0.2696117 255 0 255
-0.06857128 -0.04882134 0.2639084 255 0 255
-0.06045844 -0.03936349 0.2421572 255 0 255
0.01453108 -0.0288702 0.232711 255 0 255
-0.0959664 -0.03206016 0.2210209 255 0 255
-0.09941358 -0.03586155 0.2296467 255 0 255
-0.09340753 -0.03560459 0.2291179 255 0 255
-0.08985201 -0.0348836 0.2275351 255 0 255
-0.08669269 -0.03537316 0.2287451 255 0 255
-0.08510598 -0.03560605 0.229335 255 0 255
-0.08307377 -0.03631672 0.2310561 255 0 255
-0.08122639 -0.03824922 0.2356213 255 0 255
-0.07942189 -0.03930748 0.2381802 255 0 255
-0.08213887 -0.04940275 0.2615619 255 0 255
-0.08268976 -0.05264823 0.2691188 255 0 255
-0.08202583 -0.05312295 0.270283 255 0 255
-0.06189955 -0.04250226 0.2471452 255 0 255
0.01479453 -0.03036032 0.2342526 255 0 255
-0.09576759 -0.03687663 0.2298075 255 0 255
-0.09217626 -0.03616492 0.2282612 255 0 255
-0.08627637 -0.03578784 0.2275659 255 0 255
-0.08426782 -0.03651221 0.2292937 255 0 255
-0.080205 -0.04002872 0.2375596 255 0 255
-0.0791963 -0.04099133 0.2398377 255 0 255
-0.07943282 -0.04348627 0.245579 255 0 255
-0.0779585 -0.0556585 0.2739286 255 0 255
-0.0772503 -0.05612593 0.2750832 255 0 255
-0.07527288 -0.05627717 0.2756264 255 0 255
-0.07454672 -0.05673851 0.2767757 255 0 255
-0.07303107 -0.05602909 0.2752735 255 0 255
-0.06827185 -0.05186923 0.2660503 255 0 255
-0.05974854 -0.04144036 0.2425763 255 0 255
0.03363535 -0.03447894 0.2483884 255 0 255
0.03276541 -0.03070164 0.2391306 255 0 255
-0.09964669 -0.03606299 0.2258101 255 0 255
-0.1014055 -0.03844705 0.2311012 255 0 255
-0.1010182 -0.03897182 0.2322727 255 0 255
-0.09532093 -0.03730693 0.2286329 255 0 255
-0.08623397 -0.03657471 0.2272322 255 0 255
-0.08501995 -0.03718948 0.2286672 255 0 255
-0.0837869 -0.03779835 0.2300975 255 0 255
-0.08207604 -0.0388926 0.2326609 255 0 255
-0.08015704 -0.04084707 0.2372126 255 0 255
-0.08034012 -0.04549821 0.2478131 255 0 255
-0.0800091 -0.05809839 0.2767484 255 0 255
-0.07755538 -0.05912423 0.2793442 255 0 255
-0.07654706 -0.05920025 0.2796192 255 0 255
-0.07606537 -0.06005974 0.2816528 255 0 255
-0.05395306 -0.03564722 0.2275601 255 0 255
0.01578934 -0.03527172 0.2419138 255 0 255
-0.09728383 -0.0382024 0.2284622 255 0 255
-0.08776792 -0.03711882 0.226299 255 0 255
-0.08698004 -0.03724045 0.2265985 255 0 255
-0.08294007 -0.03870267 0.2300444 255 0 255
-0.08202977 -0.03969411 0.2323173 255 0 255
-0.08659375 -0.05802394 0.2734016 255 0 255
-0.08381397 -0.05998494 0.2780803 255 0 255
-0.07835289 -0.06295031 0.2853496 255 0 255
0.0331767 -0.02735783 0.2272563 255 0 255
0.03584894 -0.02597424 0.2250508 255 0 255
0.03963653 -0.02511862 0.2245182 255 0 255
-0.09887329 -0.03962075 0.2294324 255 0 255
-0.09126126 -0.03777931 0.2255711 255 0 255
-0.08772503 -0.03790223 0.2259595 255 0 255
-0.08369671 -0.03938406 0.229414 255 0 255
-0.07972564 -0.04208582 0.2356526 255 0 255
-0.0840885 -0.05323998 0.2602928 255 0 255
-0.08658388 -0.05769454 0.2700876 255 0 255
-0.07988758 -0.06634918 0.2901774 255 0 255
-0.07961877 -0.06762724 0.2930955 255 0 255
-0.06137609 -0.04836122 0.2514563 255 0 255
-0.05763873 -0.04358859 0.2410611 255 0 255
0.03440939 -0.0286588 0.2286746 255 0 255
0.03786806 -0.02708371 0.2263549 255 0 255
0.04137095 -0.02710195 0.2277215 255 0 255
-0.09588919 -0.03356519 0.2142998 255 0 255
-0.1011754 -0.03905554 0.226074 255 0 255
-0.09004007 -0.03830572 0.2247041 255 0 255
-0.08568219 -0.03943682 0.2273496 255 0 255
-0.0840098 -0.04056837 0.2299139 255 0 255
-0.08274774 -0.04118448 0.2313365 255 0 255
-0.08030105 -0.04587778 0.2418477 255 0 255
-0.08560684 -0.05614385 0.2642002 255 0 255
-0.08689837 -0.06334691 0.2800936 255 0 255
-0.07305571 -0.06361772 0.2820587 255 0 255
-0.06660509 -0.05645441 0.2667198 255 0 255
-0.05510056 -0.04160557 0.2347243 255 0 255
0.03032523 -0.03147853 0.2316116 255 0 255
0.03334851 -0.02881016 0.2266329 255 0 255
0.03449643 -0.0293912 0.2283586 255 0 255
0.03739372 -0.02834776 0.2270544 255 0 255
0.04154984 -0.02655979 0.2245778 255 0 255
-0.09917326 -0.04069751 0.2275628 255 0 255
-0.09234557 -0.03868816 0.2234242 255 0 255
-0.08484083 -0.0403386 0.2272952 255 0 255
-0.08386675 -0.04226856 0.231543 255 0 255
-0.08305165 -0.04237949 0.231831 255 0 255
-0.08508547 -0.06493255 0.2811317 255 0 255
-0.0841736 -0.06673992 0.2852028 255 0 255
-0.08403104 -0.06976095 0.2918895 255 0 255
-0.07273436 -0.06419151 0.2807468 255 0 255
-0.06727134 -0.05859783 0.2689523 255 0 255
0.01105062 -0.03425869 0.2297059 255 0 255
0.02834935 -0.0313867 0.2287098 255 0 255
0.03516664 -0.02958138 0.2270375 255 0 255
-0.1014514 -0.04010455 0.2242065 255 0 255
-0.09666625 -0.0400814 0.2242583 255 0 255
-0.09427195 -0.03958296 0.2232649 255 0 255
-0.09308355 -0.03932881 0.22276 255 0 255
-0.09190101 -0.03907143 0.2222498 255 0 255
-0.09034298 -0.03933753 0.2228724 255 0 255
-0.08721234 -0.03984594 0.2240879 255 0 255
-0.08479457 -0.04112213 0.2269446 255 0 255
-0.08435933 -0.04163767 0.2280768 255 0 255
-0.08391567 -0.04215223 0.229209 255 0 255
-0.08300316 -0.04317829 0.2314736 255 0 255
-0.0807405 -0.04481369 0.2351518 255 0 255
-0.08886743 -0.06817243 0.2852537 255 0 255
-0.08553039 -0.06978925 0.2890881 255 0 255
-0.08531216 -0.07110953 0.2919951 255 0 255
-0.08478629 -0.07547612 0.3016044 255 0 255
-0.08340472 -0.0751504 0.3010356 255 0 255
-0.0676917 -0.06034888 0.270294 255 0 255
-0.0568453 -0.04647658 0.2410722 255 0 255
-0.1018436 -0.04128692 0.2246607 255 0 255
-0.1014819 -0.04183627 0.2258188 255 0 255
-0.09620776 -0.04047159 0.2230842 255 0 255
-0.09542344 -0.0406158 0.2234108 255 0 255
-0.09344575 -0.04050124 0.223233 255 0 255
-0.08716724 -0.04061982 0.223738 255 0 255
-0.08474773 -0.04190413 0.226591 255 0 255
-0.08283219 -0.04489663 0.233089 255 0 255
-0.08209534 -0.05082717 0.2458465 255 0 255
-0.09255394 -0.06968059 0.2855531 255 0 255
-0.08652162 -0.07071383 0.2883208 255 0 255
-0.08444328 -0.07264352 0.2927 255 0 255
-0.08309214 -0.07405885 0.2959062 255 0 255
-0.06568425 -0.05967429 0.2666072 255 0 255
-0.09396058 -0.03255628 0.2047267 255 0 255
-0.09694804 -0.04110522 0.2223989 255 0 255
-0.09377698 -0.04073904 0.2217372 255 0 255
-0.09063718 -0.04034723 0.221036 255 0 255
-0.08946621 -0.04007692 0.2205181 255 0 255
-0.08512823 -0.04216054 0.2251059 255 0 255
-0.08381919 -0.04372996 0.2284919 255 0 255
-0.08226088 -0.05075065 0.2434703 255 0 255
-0.08977721 -0.07008136 0.2840223 255 0 255
-0.08873133 -0.07018567 0.2843389 255 0 255
-0.08634398 -0.06997076 0.2841008 255 0 255
-0.07139442 -0.06021382 0.2647091 255 0 255
-0.06706791 -0.06137225 0.2676992 255 0 255
-0.061821 -0.05560689 0.2559076 255 0 255
0.003477225 -0.03870811 0.2314901 255 0 255
0.004281941 -0.03861387 0.2314979 255 0 255
-0.09059267 -0.04111318 0.2206824 255 0 255
-0.08669551 -0.0417548 0.222199 255 0 255
-0.08550082 -0.04240688 0.2236214 255 0 255
-0.08320494 -0.04597785 0.2312238 255 0 255
-0.08293492 -0.04785029 0.2351671 255 0 255
-0.08720913 -0.06053553 0.2615126 255 0 255
-0.09189823 -0.0695046 0.2800312 255 0 255
-0.09086672 -0.06961578 0.2803541 255 0 255
-0.08983398 -0.06972435 0.2806737 255 0 255
-0.08361235 -0.07032174 0.2825229 255 0 255
-0.08042203 -0.06881808 0.2796572 255 0 255
-0.07857458 -0.06763971 0.277348 255 0 255
-0.07620987 -0.06561471 0.2732973 255 0 255
-0.07441271 -0.0644272 0.2709674 255 0 255
-0.06838749 -0.0595734 0.2613128 255 0 255
-0.06456888 -0.05806388 0.2585448 255 0 255
-0.1040849 -0.04317402 0.2225168 255 0 255
-0.09963404 -0.04260965 0.2214851 255 0 255
-0.09764327 -0.04251112 0.2213464 255 0 255
-0.09644179 -0.04225533 0.2208646 255 0 255
-0.09566136 -0.04240178 0.2211917 255 0 255
-0.08503266 -0.04370933 0.2243872 255 0 255
-0.08315392 -0.04677394 0.2308524 255 0 255
-0.08302598 -0.04771754 0.2328194 255 0 255
-0.08739696 -0.07050277 0.2799851 255 0 255
-0.0866591 -0.07102594 0.2811508 255 0 255
-0.08297371 -0.07046683 0.28034 255 0 255
-0.08007507 -0.0693722 0.2783387 255 0 255
-0.07055724 -0.06253299 0.2649846 255 0 255
-0.05964723 -0.05041724 0.2407071 255 0 255
0.005334448 -0.04083743 0.2326343 255 0 255
-0.0968705 -0.03502869 0.2043669 255 0 255
-0.09089907 -0.04305279 0.2207862 255 0 255
-0.08816526 -0.04303307 0.2208829 255 0 255
-0.08455445 -0.04501686 0.2251466 255 0 255
-0.08462447 -0.05527456 0.2462257 255 0 255
-0.08933476 -0.0639445 0.2637328 255 0 255
-0.08467706 -0.07083504 0.2784219 255 0 255
-0.08261922 -0.07102275 0.2790184 255 0 255
-0.08158862 -0.07111277 0.2793118 255 0 255
-0.06080447 -0.05026045 0.2381562 255 0 255
-0.001172046 -0.04018787 0.2276407 255 0 255
-0.1007413 -0.03841086 0.2092475 255 0 255
-0.105327 -0.04596737 0.2241687 255 0 255
-0.09670998 -0.04323678 0.2189973 255 0 255
-0.08889837 -0.04366608 0.2202172 255 0 255
-0.08572824 -0.04513166 0.2233631 255 0 255
-0.08397649 -0.04728879 0.2278544 255 0 255
-0.0837501 -0.04920749 0.2317721 255 0 255
-0.08688834 -0.05910677 0.2517132 255 0 255
-0.08958037 -0.06390306 0.2612909 255 0 255
-0.09215266 -0.07010325 0.2737518 255 0 255
-0.08622368 -0.07257307 0.2793613 255 0 255
-0.07473436 -0.06810485 0.2713667 255 0 255
-0.06630388 -0.05743563 0.2502956 255 0 255
-0.06083395 -0.0497066 0.2349607 255 0 255
-0.001656903 -0.0495654 0.24534 255 0 255
0.002896239 -0.06584656 0.2806904 255 0 255
0.004508248 -0.04072805 0.22831 255 0 255
-0.09786519 -0.04426486 0.2191044 255 0 255
-0.09469575 -0.0438808 0.2184732 255 0 255
-0.08518294 -0.0474129 0.2260641 255 0 255
-0.08473662 -0.04795601 0.2271866 255 0 255
-0.08511809 -0.05407647 0.239492 255 0 255
-0.0921392 -0.06825446 0.2675827 255 0 255
-0.09342024 -0.07138117 0.2738039 255 0 255
-0.09272607 -0.07192972 0.2749752 255 0 255
-0.0885218 -0.07378163 0.2791191 255 0 255
-0.07965095 -0.07367432 0.2798128 255 0 255
-0.1039078 -0.04631224 0.2210159 255 0 255
-0.09816848 -0.0444606 0.2175969 255 0 255
-0.0854056 -0.04959503 0.2284638 255 0 255
-0.08825856 -0.06019664 0.2494177 255 0 255
-0.09186749 -0.07486946 0.2785292 255 0 255
-0.09009718 -0.07552805 0.2800197 255 0 255
-0.08905381 -0.07563607 0.2803378 255 0 255
-0.08725757 -0.07628089 0.2818144 255 0 255
-0.08620688 -0.07638144 0.2821238 255 0 255
-0.08381895 -0.07613707 0.2818792 255 0 255
-0.06983526 -0.06208042 0.2550024 255 0 255
-0.06213051 -0.05072501 0.2328997 255 0 255
-0.001461865 -0.09701613 0.3390374 255 0 255
-0.1105506 -0.04871458 0.223555 255 0 255
-0.1092904 -0.04848098 0.2231408 255 0 255
-0.09812254 -0.04522156 0.2172237 255 0 255
-0.09070915 -0.04610276 0.2193123 255 0 255
-0.08678484 -0.04675551 0.2208319 255 0 255
-0.08637112 -0.0473099 0.2219499 255 0 255
-0.08560262 -0.05179812 0.2308551 255 0 255
-0.08910779 -0.06094734 0.2486819 255 0 255
-0.0919193 -0.06585172 0.2581699 255 0 255
-0.09431419 -0.07032856 0.2668466 255 0 255
-0.09314902 -0.076175 0.2785619 255 0 255
-0.09106772 -0.0764047 0.2792141 255 0 255
-0.06343247 -0.05233005 0.2340073 255 0 255
-0.005211985 -0.1029486 0.3472825 255 0 255
-0.001909965 -0.1598788 0.4641491 255 0 255
0.0005353743 -0.07994211 0.3017182 255 0 255
-0.1133776 -0.04937106 0.2228052 255 0 255
-0.1078751 -0.0480222 0.2203903 255 0 255
-0.1049424 -0.04711378 0.2187494 255 0 255
-0.09884937 -0.04582527 0.2165132 255 0 255
-0.09218711 -0.04558895 0.2163818 255 0 255
-0.08673435 -0.04751542 0.2204554 255 0 255
-0.08632012 -0.04807357 0.2215715 255 0 255
-0.09722617 -0.07666779 0.2767312 255 0 255
-0.09443623 -0.07748149 0.2785819 255 0 255
-0.09234932 -0.0777178 0.2792427 255 0 255
-0.09130397 -0.07783204 0.2795683 255 0 255
-0.08951055 -0.07849538 0.281054 255 0 255
-0.007989115 -0.07066708 0.278435 255 0 255
-0.007921572 -0.1128306 0.3635741 255 0 255
-0.0002130004 -0.05885228 0.256378 255 0 255
-0.116151 -0.05267821 0.2270703 255 0 255
-0.1056788 -0.047715 0.2180062 255 0 255
-0.1039977 -0.04704119 0.2167885 255 0 255
-0.1027748 -0.04678589 0.2163508 255 0 255
-0.09213879 -0.04633807 0.2160069 255 0 255
-0.09176973 -0.04690992 0.2171266 255 0 255
-0.09021459 -0.04718498 0.2177481 255 0 255
-0.08658664 -0.05027136 0.2239434 255 0 255
-0.09300099 -0.0665284 0.2549635 255 0 255
-0.09615646 -0.07195318 0.265243 255 0 255
-0.08973716 -0.07993244 0.2814012 255 0 255
-0.08791554 -0.08059151 0.2828787 255 0 255
-0.08714213 -0.08114134 0.2840371 255 0 255
-0.08331193 -0.07864987 0.2795645 255 0 255
-0.01009536 -0.07490721 0.2841007 255 0 255
-0.1129469 -0.05157781 0.2231627 255 0 255
-0.110287 -0.05007287 0.2204277 255 0 255
-0.108572 -0.04940733 0.2192384 255 0 255
-0.1064137 -0.0483118 0.2172579 255 0 255
-0.09755304 -0.04706407 0.2152918 255 0 255
-0.09245102 -0.04650931 0.214512 255 0 255
-0.0917203 -0.04766122 0.216747 255 0 255
-0.09016459 -0.04793684 0.2173682 255 0 255
-0.08899245 -0.04864237 0.2187904 255 0 255
-0.08738692 -0.04990986 0.2213233 255 0 255
-0.0870988 -0.05393915 0.2290659 255 0 255
-0.09774444 -0.07952172 0.2774085 255 0 255
-0.09132663 -0.08171321 0.2822587 255 0 255
-0.08901183 -0.08338998 0.2857484 255 0 255
-0.08628264 -0.08269276 0.2846875 255 0 255
-0.009703688 -0.0695219 0.2711418 255 0 255
-0.005044694 -0.1647317 0.4606237 255 0 255
-0.1076061 -0.04933159 0.2172835 255 0 255
-0.1042278 -0.04796864 0.2148783 255 0 255
-0.1005796 -0.04717954 0.213565 255 0 255
-0.09750473 -0.04781512 0.2149087 255 0 255
-0.09163411 -0.0473933 0.2144468 255 0 255
-0.09089274 -0.04855 0.2166762 255 0 255
-0.08894102 -0.04939663 0.2184056 255 0 255
-0.08740586 -0.05517539 0.2294808 255 0 255
-0.08872712 -0.0579746 0.2347001 255 0 255
-0.0976718 -0.0805061 0.2769063 255 0 255
-0.09549335 -0.08223801 0.2804246 255 0 255
-0.09155466 -0.08316288 0.2825884 255 0 255
-0.0809063 -0.07696547 0.2718136 255 0 255
-0.07238461 -0.06475848 0.2492662 255 0 255
-0.006271255 -0.05287711 0.2370281 255 0 255
-0.005542234 -0.06372183 0.2584448 255 0 255
-0.004633939 -0.07727543 0.2852121 255 0 255
-0.1088035 -0.0503522 0.2172974 255 0 255
-0.1005318 -0.0479277 0.2131798 255 0 255
-0.0985621 -0.047814 0.2130679 255 0 255
-0.09702849 -0.04812694 0.2137316 255 0 255
-0.09625968 -0.04828039 0.2140599 255 0 255
-0.09353231 -0.04828834 0.2142332 255 0 255
-0.08966753 -0.04899206 0.2157954 255 0 255
-0.08765803 -0.05187886 0.2213541 255 0 255
-0.08771184 -0.05641682 0.2298892 255 0 255
-0.1031386 -0.08275195 0.2782908 255 0 255
-0.09315935 -0.08495831 0.2834172 255 0 255
-0.09090337 -0.08860658 0.2905939 255 0 255
-0.111262 -0.05161937 0.217697 255 0 255
-0.1078305 -0.05025723 0.2153489 255 0 255
-0.0969791 -0.04887126 0.2133445 255 0 255
-0.09001092 -0.05018268 0.2162112 255 0 255
-0.08883639 -0.05090022 0.2176272 255 0 255
-0.08754945 -0.05367016 0.2228792 255 0 255
-0.08968582 -0.06095869 0.2363073 255 0 255
-0.1006195 -0.08356973 0.2776677 255 0 255
-0.09713151 -0.0835123 0.2778877 255 0 255
-0.09477658 -0.08676064 0.2842272 255 0 255
-0.09400314 -0.08733932 0.2853958 255 0 255
-0.09352448 -0.08837598 0.2873979 255 0 255
-0.06389071 -0.0511328 0.2203675 255 0 255
-0.1073197 -0.05058372 0.2141764 255 0 255
-0.09692911 -0.04961396 0.2129546 255 0 255
-0.09420092 -0.04962359 0.2131391 255 0 255
-0.09343122 -0.04977094 0.2134584 255 0 255
-0.08758859 -0.0523654 0.2186434 255 0 255
-0.08759614 -0.05800361 0.2290598 255 0 255
-0.0966656 -0.07346533 0.2569169 255 0 255
-0.1016105 -0.08138501 0.2711631 255 0 255
-0.1004902 -0.08607333 0.279971 255 0 255
-0.09496034 -0.09171066 0.2910269 255 0 255
-0.07031613 -0.06109908 0.2365189 255 0 255
-0.1092882 -0.05141575 0.2138122 255 0 255
-0.1019157 -0.04982985 0.211322 255 0 255
-0.1003843 -0.05016226 0.2120067 255 0 255
-0.09917929 -0.04987978 0.2115643 255 0 255
-0.09414972 -0.05036212 0.2127476 255 0 255
-0.09106224 -0.05094063 0.2140098 255 0 255
-0.08912438 -0.05180789 0.2157317 255 0 255
-0.08749372 -0.05416023 0.220156 255 0 255
-0.08691313 -0.05683252 0.2250968 255 0 255
-0.09554461 -0.07298794 0.2539915 255 0 255
-0.1003342 -0.08859617 0.2822633 255 0 255
-0.0955596 -0.09566423 0.2958086 255 0 255
-0.09442221 -0.0957811 0.2961491 255 0 255
-0.1087701 -0.05173297 0.2126411 255 0 255
-0.1075309 -0.05147393 0.2122401 255 0 255
-0.1062973 -0.05121122 0.2118335 255 0 255
-0.1038466 -0.0506748 0.2110034 255 0 255
-0.1003338 -0.05090379 0.2116099 255 0 255
-0.09682717 -0.05109438 0.2121661 255 0 255
-0.0940979 -0.051099 0.2123533 255 0 255
-0.09255617 -0.05139286 0.2129888 255 0 255
-0.08693964 -0.05655714 0.2227674 255 0 255
-0.0871164 -0.05912072 0.2274088 255 0 255
-0.08807062 -0.06156147 0.2317624 255 0 255
-0.09442455 -0.07248793 0.2510737 255 0 255
-0.1036592 -0.09273101 0.2871067 255 0 255
-0.09825967 -0.09540819 0.2925499 255 0 255
-0.09667033 -0.09859843 0.2985663 255 0 255
-0.09404165 -0.096362 0.294755 255 0 255
-0.1045611 -0.05124199 0.2102509 255 0 255
-0.1006058 -0.05102682 0.2100952 255 0 255
-0.09907766 -0.051355 0.2107712 255 0 255
-0.09831153 -0.05151604 0.2111057 255 0 255
-0.09173017 -0.05227283 0.2129053 255 0 255
-0.08679643 -0.05838082 0.2242642 255 0 255
-0.09930911 -0.08146107 0.2647423 255 0 255
-0.1066947 -0.0964319 0.2910835 255 0 255
-0.1065666 -0.09798877 0.2939118 255 0 255
-0.1001099 -0.1013078 0.3005959 255 0 255
-0.1069653 -0.05252478 0.2106633 255 0 255
-0.1057351 -0.05225516 0.2102583 255 0 255
-0.1045104 -0.05198187 0.2098476 255 0 255
-0.1032913 -0.05170494 0.2094314 255 0 255
-0.1025283 -0.05187721 0.2097791 255 0 255
-0.09672268 -0.05256808 0.2113663 255 0 255
-0.08736662 -0.05536184 0.217032 255 0 255
-0.08645488 -0.05761935 0.2211334 255 0 255
-0.1044 -0.09103607 0.279196 255 0 255
-0.1076182 -0.09889521 0.2929581 255 0 255
-0.1073139 -0.102033 0.2986144 255 0 255
-0.1076819 -0.05308584 0.2098921 255 0 255
-0.1064496 -0.05281608 0.2094928 255 0 255
-0.1052229 -0.05254262 0.2090877 255 0 255
-0.104459 -0.05272006 0.2094415 255 0 255
-0.1024766 -0.05261269 0.2093744 255 0 255
-0.09777407 -0.05252517 0.2095257 255 0 255
-0.09666952 -0.05330241 0.2109621 255 0 255
-0.09512692 -0.0536116 0.2116139 255 0 255
-0.09044643 -0.05341644 0.2116241 255 0 255
-0.08676423 -0.05885042 0.2215166 255 0 255
-0.09950775 -0.08380788 0.2645257 255 0 255
-0.1056907 -0.09393484 0.2818884 255 0 255
-0.1098799 -0.1032829 0.2980683 255 0 255
-0.1012127 -0.05305703 0.2085446 255 0 255
-0.0954909 -0.05481106 0.211986 255 0 255
-0.08842769 -0.05718999 0.216702 255 0 255
-0.08661689 -0.06069007 0.2229929 255 0 255
-0.1069786 -0.09685855 0.2845619 255 0 255
-0.111292 -0.1046805 0.2978911 255 0 255
-0.112472 -0.1081958 0.3039589 255 0 255
-0.09415887 -0.09013613 0.2740476 255 0 255
-0.103135 -0.05390527 0.2082096 255 0 255
-0.0957901 -0.05492215 0.2104721 255 0 255
-0.0954357 -0.05554594 0.211574 255 0 255
-0.09033573 -0.05487059 0.2108125 255 0 255
-0.0883939 -0.05684773 0.2143987 255 0 255
-0.08757242 -0.05806806 0.2165867 255 0 255
-0.08627675 -0.05989192 0.2198707 255 0 255
-0.08811472 -0.06602941 0.2303685 255 0 255
-0.09078446 -0.07096441 0.2386994 255 0 255
-0.09512632 -0.07831444 0.2510729 255 0 255
-0.1137203 -0.1112271 0.3065789 255 0 255
-0.1070573 -0.05484494 0.2078936 255 0 255
-0.1038441 -0.05445964 0.2074475 255 0 255
-0.09990028 -0.05421425 0.2073001 255 0 255
-0.0991392 -0.05438016 0.2076368 255 0 255
-0.09837671 -0.05454408 0.2079711 255 0 255
-0.09537986 -0.0562791 0.2111592 255 0 255
-0.0941881 -0.05595857 0.2107052 255 0 255
-0.0934128 -0.05610896 0.2110246 255 0 255
-0.09027948 -0.05559511 0.2104025 255 0 255
-0.08792888 -0.05819771 0.2150741 255 0 255
-0.08840652 -0.0673084 0.2307178 255 0 255
-0.1048064 -0.09437323 0.2758071 255 0 255
-0.1018139 -0.05506783 0.2069676 255 0 255
-0.09908468 -0.05510302 0.2072241 255 0 255
-0.09602578 -0.0557477 0.2085467 255 0 255
-0.09139802 -0.05665379 0.2104601 255 0 255
-0.08745378 -0.05955238 0.2157428 255 0 255
-0.08725621 -0.06285408 0.221395 255 0 255
-0.08812491 -0.06651551 0.227566 255 0 255
-0.1081757 -0.100243 0.2832588 255 0 255
-0.116287 -0.1136043 0.3053088 255 0 255
-0.1025201 -0.0556179 0.2062059 255 0 255
-0.09366089 -0.05693316 0.2090972 255 0 255
-0.08756043 -0.0641033 0.2217483 255 0 255
-0.09839306 -0.08586455 0.257549 255 0 255
-0.1032247 -0.05616353 0.2054396 255 0 255
-0.102465 -0.05633932 0.2057866 255 0 255
-0.1004959 -0.05620778 0.2057158 255 0 255
-0.09821051 -0.05670838 0.2067241 255 0 255
-0.08972878 -0.05838721 0.210241 255 0 255
-0.08728112 -0.06214395 0.2167605 255 0 255
-0.08786348 -0.06535738 0.2220948 255 0 255
-0.08835349 -0.06857603 0.2274508 255 0 255
-0.08998592 -0.07216206 0.2333112 255 0 255
-0.1004399 -0.05692478 0.2052953 255 0 255
-0.09619557 -0.05726635 0.2061996 255 0 255
-0.09082132 -0.05833184 0.208426 255 0 255
-0.08888657 -0.06037116 0.2119852 255 0 255
-0.08848234 -0.06100135 0.2130695 255 0 255
-0.08805465 -0.06773997 0.224316 255 0 255
-0.09962234 -0.05780953 0.2052099 255 0 255
-0.09809649 -0.05814249 0.2058789 255 0 255
-0.09733153 -0.05830593 0.20621 255 0 255
-0.09076229 -0.05904739 0.2080023 255 0 255
-0.08882581 -0.0610978 0.2115549 255 0 255
-0.08800794 -0.06236459 0.2137196 255 0 255
-0.08913787 -0.07277504 0.2307805 255 0 255
-0.09785548 -0.08972857 0.257884 255 0 255
-0.1026009 -0.05783164 0.2034186 255 0 255
-0.09531568 -0.05885048 0.2056768 255 0 255
-0.08992939 -0.05990582 0.2078843 255 0 255
-0.08876449 -0.06182269 0.2111218 255 0 255
-0.08719803 -0.0682767 0.2218286 255 0 255
-0.08835912 -0.0725648 0.2287288 255 0 255
-0.1049772 -0.05915597 0.2037782 255 0 255
-0.1005801 -0.05840344 0.2029288 255 0 255
-0.09644783 -0.0598956 0.2056818 255 0 255
-0.09330785 -0.05937673 0.2051287 255 0 255
-0.09100951 -0.05982781 0.2060698 255 0 255
-0.08909979 -0.06190398 0.2096085 255 0 255
-0.08831539 -0.06204405 0.2099124 255 0 255
-0.08791329 -0.06268441 0.2109889 255 0 255
-0.08740154 -0.06560887 0.2157785 255 0 255
-0.08732728 -0.06675179 0.2176393 255 0 255
-0.1024856 -0.05925126 0.2025595 255 0 255
-0.1012772 -0.05893593 0.2021591 255 0 255
-0.09900738 -0.05945116 0.2031734 255 0 255
-0.09324814 -0.0600825 0.2046995 255 0 255
-0.08825317 -0.06276198 0.2094758 255 0 255
-0.08785057 -0.06340593 0.2105501 255 0 255
-0.08733672 -0.06634779 0.2153291 255 0 255
-0.08790094 -0.06966504 0.2206047 255 0 255
-0.08801494 -0.07247769 0.2251196 255 0 255
-0.1004632 -0.0598142 0.2020674 255 0 255
-0.09752466 -0.06165396 0.205238 255 0 255
-0.09242256 -0.06093945 0.2045833 255 0 255
-0.09165603 -0.06109039 0.2048967 255 0 255
-0.08819034 -0.06347813 0.2090364 255 0 255
-0.0872791 -0.0750557 0.2275988 255 0 255
-0.1011594 -0.06034245 0.2012927 255 0 255
-0.0976922 -0.06052624 0.2018919 255 0 255
-0.09703437 -0.06186159 0.2040481 255 0 255
-0.09354194 -0.06199481 0.2045891 255 0 255
-0.09159467 -0.06179314 0.2044617 255 0 255
-0.08749677 -0.06949828 0.2170443 255 0 255
-0.08878477 -0.07674163 0.228368 255 0 255
-0.08790725 -0.07687385 0.2286758 255 0 255
-0.0954366 -0.06289171 0.2042603 255 0 255
-0.09001807 -0.06396224 0.2064715 255 0 255
-0.08794048 -0.07362265 0.2218288 255 0 255
-0.09757086 -0.06192156 0.2010172 255 0 255
-0.09495263 -0.06308497 0.2030677 255 0 255
-0.09073247 -0.06452175 0.2057178 255 0 255
-0.08956795 -0.06533056 0.2070933 255 0 255
-0.08835791 -0.06731141 0.2102967 255 0 255
-0.08744273 -0.06980536 0.214272 255 0 255
-0.08762696 -0.07268313 0.2187282 255 0 255
-0.1026391 -0.06327599 0.2010972 255 0 255
-0.1006678 -0.06312306 0.2010484 255 0 255
-0.09946413 -0.06278734 0.2006493 255 0 255
-0.09412294 -0.06394336 0.2029445 255 0 255
-0.08910779 -0.06670342 0.2077084 255 0 255
-0.08787087 -0.06869244 0.2109062 255 0 255
-0.08715531 -0.07698985 0.2237906 255 0 255
-0.1053179 -0.06393462 0.2003267 255 0 255
-0.09820397 -0.06314077 0.199801 255 0 255
-0.09559256 -0.06432059 0.2018534 255 0 255
-0.09100317 -0.06645072 0.2055735 255 0 255
-0.08822481 -0.06874725 0.2093804 255 0 255
-0.08818135 -0.06993894 0.2112064 255 0 255
-0.08812213 -0.07113101 0.2130354 255 0 255
-0.08743453 -0.07828811 0.2240695 255 0 255
-0.1013028 -0.06434156 0.1998101 255 0 255
-0.1009882 -0.0650339 0.2008825 255 0 255
-0.09857981 -0.06434883 0.2000896 255 0 255
-0.09781907 -0.0645187 0.2004216 255 0 255
-0.09629358 -0.06485227 0.2010788 255 0 255
-0.09476276 -0.06517763 0.2017268 255 0 255
-0.08815735 -0.06946231 0.2089181 255 0 255
-0.08811311 -0.07066078 0.2107397 255 0 255
-0.0876792 -0.07132978 0.2118031 255 0 255
-0.087607 -0.07252832 0.2136294 255 0 255
-0.08837342 -0.07772221 0.221425 255 0 255
-0.1036674 -0.06570803 0.2001204 255 0 255
-0.09732061 -0.06469019 0.1992356 255 0 255
-0.09511872 -0.06639565 0.2020151 255 0 255
-0.09434756 -0.06655626 0.202337 255 0 255
-0.09087139 -0.06785673 0.2046608 255 0 255
-0.09048428 -0.06853475 0.2057209 255 0 255
-0.08766706 -0.07084823 0.2095125 255 0 255
-0.1036031 -0.06640646 0.1996613 255 0 255
-0.1008599 -0.06642821 0.1999699 255 0 255
-0.09428195 -0.06725175 0.2018797 255 0 255
-0.09273542 -0.06756734 0.202516 255 0 255
-0.09002195 -0.068706 0.2045095 255 0 255
-0.08843498 -0.07020961 0.2069286 255 0 255
-0.08802072 -0.07088674 0.2079854 255 0 255
-0.08759794 -0.07156298 0.2090425 255 0 255
-0.08799576 -0.07748801 0.2178397 255 0 255
-0.08786716 -0.07870188 0.2196683 255 0 255
-0.1011107 -0.06641959 0.1984441 255 0 255
-0.09643267 -0.06623133 0.1986566 255 0 255
-0.09266883 -0.06826154 0.2020556 255 0 255
-0.08995438 -0.06940455 0.2040462 255 0 255
-0.08702555 -0.07417283 0.2114364 255 0 255
-0.08683617 -0.07660996 0.2150682 255 0 255
-0.08643319 -0.08026673 0.2205368 255 0 255
-0.1042362 -0.06761157 0.1983855 255 0 255
-0.0995224 -0.0674627 0.1986603 255 0 255
-0.09712636 -0.06674716 0.1978717 255 0 255
-0.09636714 -0.06691542 0.1981991 255 0 255
-0.09337592 -0.06879647 0.201276 255 0 255
-0.09260166 -0.06895381 0.2015926 255 0 255
-0.09027118 -0.06941335 0.2025285 255 0 255
-0.08949282 -0.07078831 0.2046324 255 0 255
-0.08600688 -0.080475 0.2192713 255 0 255
-0.08549659 -0.08115319 0.2203318 255 0 255
-0.08241271 -0.07921787 0.2178661 255 0 255
-0.1006625 -0.06850542 0.1985808 255 0 255
-0.09630097 -0.06759762 0.1977389 255 0 255
-0.09138244 -0.07049385 0.2024921 255 0 255
-0.09060061 -0.07064592 0.202803 255 0 255
-0.09021157 -0.07133795 0.2038538 255 0 255
-0.08942357 -0.07148648 0.2041614 255 0 255
-0.08781135 -0.07300887 0.2065657 255 0 255
-0.08542016 -0.08190598 0.2198239 255 0 255
-0.08115175 -0.07952958 0.21689 255 0 255
-0.08853953 -0.07356856 0.2057839 255 0 255
-0.08731569 -0.0744025 0.2071348 255 0 255
-0.08688247 -0.07509183 0.2081829 255 0 255
-0.08208166 -0.08193 0.2186734 255 0 255
-0.07950249 -0.08228952 0.2195259 255 0 255
-0.102056 -0.06951866 0.1969585 255 0 255
-0.09616678 -0.06895629 0.1968109 255 0 255
-0.09540574 -0.0691234 0.1971353 255 0 255
-0.08522043 -0.0803607 0.2144343 255 0 255
-0.08320045 -0.08310598 0.2186323 255 0 255
-0.1032038 -0.07055675 0.1968508 255 0 255
-0.09969306 -0.07074349 0.1975059 255 0 255
-0.09652773 -0.07017697 0.1970639 255 0 255
-0.09310187 -0.07154522 0.1993982 255 0 255
-0.09039394 -0.07397162 0.2031609 255 0 255
-0.08877844 -0.07552268 0.2055588 255 0 255
-0.08398257 -0.08372207 0.2178249 255 0 255
-0.08193383 -0.08827844 0.2245868 255 0 255
-0.103135 -0.07124165 0.1963732 255 0 255
-0.09416007 -0.07135393 0.1975608 255 0 255
-0.09339122 -0.0715162 0.1978795 255 0 255
-0.08991911 -0.07537067 0.2037203 255 0 255
-0.08658738 -0.07846921 0.2085007 255 0 255
-0.09409007 -0.07203057 0.1970848 255 0 255
-0.09140953 -0.07322403 0.1990719 255 0 255
-0.09064487 -0.07464616 0.2011506 255 0 255
-0.08985736 -0.07479823 0.2014596 255 0 255
-0.08687935 -0.07974073 0.2087426 255 0 255
-0.08547526 -0.08184519 0.2118682 255 0 255
-0.08314224 -0.08406955 0.2152873 255 0 255
-0.08055836 -0.08935666 0.2230468 255 0 255
-0.07998393 -0.09004435 0.2240894 255 0 255
-0.07971255 -0.0913014 0.2258914 255 0 255
-0.07603841 -0.0862741 0.2193262 255 0 255
-0.04377878 -0.100983 0.2448054 255 0 255
-0.1054428 -0.07331894 0.1961126 255 0 255
-0.1002506 -0.07260764 0.1957316 255 0 255
-0.09828045 -0.07241172 0.1956924 255 0 255
-0.0975144 -0.07258583 0.1960235 255 0 255
-0.08978476 -0.07548435 0.2009728 255 0 255
-0.0857535 -0.08313308 0.2120996 255 0 255
-0.07900599 -0.09092115 0.2238318 255 0 255
-0.07356754 -0.0842467 0.2152719 255 0 255
-0.1009453 -0.07310291 0.1949084 255 0 255
-0.09787463 -0.07381642 0.1962516 255 0 255
-0.09400572 -0.07466085 0.1978793 255 0 255
-0.0893107 -0.07688388 0.2015177 255 0 255
-0.08805707 -0.0790253 0.2046234 255 0 255
-0.08626636 -0.08186821 0.208769 255 0 255
-0.0861564 -0.08314661 0.210545 255 0 255
-0.08531985 -0.08328383 0.2108431 255 0 255
-0.08399113 -0.08412337 0.2121749 255 0 255
-0.08127543 -0.08578216 0.2148237 255 0 255
-0.08074913 -0.08647983 0.2158573 255 0 255
-0.08021428 -0.08717625 0.2168908 255 0 255
-0.07911891 -0.08856525 0.2189574 255 0 255
-0.07887305 -0.08983441 0.2207443 255 0 255
-0.05398715 -0.1248603 0.2729586 255 0 255
-0.04013376 -0.0861164 0.2212652 255 0 255
-0.03765283 -0.08674711 0.2225344 255 0 255
-0.03691501 -0.0873452 0.2234837 255 0 255
-0.03184128 -0.08029804 0.2144935 255 0 255
-0.09780268 -0.07449219 0.1957642 255 0 255
-0.08963779 -0.07685062 0.1999913 255 0 255
-0.08923644 -0.07756943 0.2010233 255 0 255
-0.08673247 -0.08057982 0.2054561 255 0 255
-0.08171321 -0.085807 0.2132679 255 0 255
-0.07980739 -0.08733188 0.2156132 255 0 255
-0.07926723 -0.0880299 0.2166429 255 0 255
-0.1032328 -0.07519358 0.1946424 255 0 255
-0.1020145 -0.07482366 0.1942905 255 0 255
-0.09773013 -0.07516596 0.1952743 255 0 255
-0.09230249 -0.07633753 0.1975338 255 0 255
-0.08995677 -0.07680777 0.1984678 255 0 255
-0.08836743 -0.07840253 0.200831 255 0 255
-0.08795223 -0.07912245 0.2018598 255 0 255
-0.08620638 -0.08199364 0.2059791 255 0 255
-0.08432411 -0.08484956 0.2101023 255 0 255
-0.0834849 -0.08498281 0.2103951 255 0 255
-0.08298813 -0.08569247 0.2114251 255 0 255
-0.08163272 -0.0865286 0.2127429 255 0 255
-0.07807814 -0.09016075 0.2181644 255 0 255
-0.07751182 -0.09085817 0.2191911 255 0 255
-0.07663044 -0.0909703 0.2194657 255 0 255
-0.07605074 -0.09166443 0.2204907 255 0 255
-0.07132266 -0.08602522 0.2134775 255 0 255
-0.03955015 -0.08935249 0.2227532 255 0 255
-0.03319817 -0.08881003 0.2230239 255 0 255
-0.1031597 -0.07586961 0.1941469 255 0 255
-0.09765696 -0.07583769 0.1947818 255 0 255
-0.0973121 -0.07657782 0.1958166 255 0 255
-0.0945629 -0.07652111 0.1960858 255 0 255
-0.09378603 -0.07668666 0.196406 255 0 255
-0.09106361 -0.0778997 0.1983813 255 0 255
-0.08711644 -0.07865632 0.1999092 255 0 255
-0.08669955 -0.07937749 0.2009332 255 0 255
-0.08556141 -0.08470852 0.2082551 255 0 255
-0.0788701 -0.09078071 0.2173456 255 0 255
-0.04179376 -0.088824 0.220157 255 0 255
-0.04091522 -0.08884529 0.2203235 255 0 255
-0.04003609 -0.08886426 0.2204873 255 0 255
-0.03708198 -0.09130925 0.2242718 255 0 255
-0.0342586 -0.09072703 0.223933 255 0 255
-0.02667873 -0.0739632 0.2024026 255 0 255
-0.103086 -0.07654357 0.1936488 255 0 255
-0.1018681 -0.07616814 0.1933009 255 0 255
-0.09603855 -0.07685396 0.1949428 255 0 255
-0.0921537 -0.07768318 0.196543 255 0 255
-0.086661 -0.07875445 0.1986868 255 0 255
-0.08662319 -0.08005773 0.2004302 255 0 255
-0.08613156 -0.08208498 0.2032004 255 0 255
-0.08332442 -0.08640556 0.2093472 255 0 255
-0.08282667 -0.08712197 0.2103722 255 0 255
-0.08095033 -0.08867772 0.2127085 255 0 255
-0.07901928 -0.09021927 0.2150369 255 0 255
-0.07646143 -0.09244834 0.2183771 255 0 255
-0.07232437 -0.09356823 0.2204624 255 0 255
-0.06425965 -0.14456 0.2901165 255 0 255
-0.04363605 -0.09009033 0.2200679 255 0 255
-0.0418727 -0.09014018 0.2204102 255 0 255
-0.04026409 -0.09078171 0.2215256 255 0 255
-0.0387871 -0.09201534 0.2234184 255 0 255
-0.03519876 -0.09205081 0.224037 255 0 255
-0.03113014 -0.08964397 0.2214514 255 0 255
-0.1054637 -0.07796024 0.1938236 255 0 255
-0.1034624 -0.07778192 0.193838 255 0 255
-0.1022412 -0.0774046 0.1934937 255 0 255
-0.09441366 -0.07786092 0.1950911 255 0 255
-0.09207845 -0.07835294 0.1960437 255 0 255
-0.08551171 -0.08480892 0.2054567 255 0 255
-0.08540124 -0.08611924 0.2072076 255 0 255
-0.0798017 -0.09082399 0.2142151 255 0 255
-0.07893555 -0.09094469 0.214496 255 0 255
-0.07782566 -0.09236372 0.2165351 255 0 255
-0.07520523 -0.09459093 0.2198632 255 0 255
-0.07460694 -0.09529222 0.22088 255 0 255
-0.07370968 -0.09539686 0.2211471 255 0 255
-0.07252474 -0.09490363 0.2206611 255 0 255
-0.04443056 -0.09077809 0.2193589 255 0 255
-0.04266816 -0.09083273 0.2197062 255 0 255
-0.03928927 -0.09151846 0.2211515 255 0 255
-0.03408228 -0.09217598 0.2228572 255 0 255
-0.02504918 -0.07581905 0.2024758 255 0 255
-0.09392326 -0.07795011 0.193887 255 0 255
-0.09314962 -0.07811577 0.1942052 255 0 255
-0.09200256 -0.07902066 0.1955419 255 0 255
-0.09122144 -0.0791807 0.1958546 255 0 255
-0.08965538 -0.07949432 0.1964732 255 0 255
-0.08808427 -0.07979936 0.1970825 255 0 255
-0.08646876 -0.08141202 0.1994164 255 0 255
-0.08604193 -0.08214244 0.2004333 255 0 255
-0.08552705 -0.08418816 0.2031907 255 0 255
-0.08400139 -0.08768546 0.2079964 255 0 255
-0.08130513 -0.0893934 0.2106155 255 0 255
-0.07541597 -0.09592836 0.2200515 255 0 255
-0.07481346 -0.0966334 0.221067 255 0 255
-0.06897265 -0.09224452 0.2161208 255 0 255
-0.0425813 -0.09154692 0.2191693 255 0 255
-0.04113668 -0.09280676 0.2210627 255 0 255
-0.1057692 -0.07987958 0.1934884 255 0 255
-0.1037611 -0.07969825 0.1935096 255 0 255
-0.1001052 -0.0785409 0.1924774 255 0 255
-0.0993338 -0.07872339 0.1928141 255 0 255
-0.09623443 -0.07943191 0.1941384 255 0 255
-0.09192612 -0.07968634 0.1950375 255 0 255
-0.08879355 -0.08031471 0.1962737 255 0 255
-0.08589517 -0.08414266 0.2016536 255 0 255
-0.08544721 -0.08487528 0.2026699 255 0 255
-0.08377053 -0.08971086 0.2092085 255 0 255
-0.08070076 -0.09082658 0.211093 255 0 255
-0.07984406 -0.09095134 0.2113761 255 0 255
-0.07821481 -0.09310573 0.2144203 255 0 255
-0.07501869 -0.0979785 0.2212463 255 0 255
-0.06253143 -0.08289082 0.2033183 255 0 255
-0.04354718 -0.09284247 0.2192311 255 0 255
-0.04177547 -0.09289309 0.2195745 255 0 255
-0.03911365 -0.09295157 0.2200697 255 0 255
-0.0347994 -0.093613 0.2216229 255 0 255
-0.03009523 -0.09238427 0.2207645 255 0 255
-0.09771024 -0.07974651 0.1929732 255 0 255
-0.09340788 -0.08002234 0.1938991 255 0 255
-0.09262911 -0.08018722 0.194216 255 0 255
-0.08988887 -0.08008145 0.1944472 255 0 255
-0.08792967 -0.08113144 0.1960689 255 0 255
-0.08752379 -0.08187167 0.1970809 255 0 255
-0.08625513 -0.08408746 0.2001192 255 0 255
-0.08266441 -0.09187943 0.2107024 255 0 255
-0.07694479 -0.09334345 0.2134095 255 0 255
-0.07344591 -0.09762096 0.2194612 255 0 255
-0.07254726 -0.09772384 0.2197251 255 0 255
-0.07136581 -0.09721911 0.2192419 255 0 255
-0.06792553 -0.09377567 0.2152746 255 0 255
-0.04152416 -0.09299284 0.2182567 255 0 255
-0.04064122 -0.09301466 0.2184236 255 0 255
-0.03975772 -0.09303416 0.218588 255 0 255
-0.03166291 -0.09249114 0.2191679 255 0 255
-0.02911728 -0.0930866 0.2203539 255 0 255
-0.02368371 -0.08626295 0.2123449 255 0 255
-0.1016068 -0.08084154 0.1924902 255 0 255
-0.09685724 -0.0805857 0.1927925 255 0 255
-0.08824937 -0.08105008 0.1945494 255 0 255
-0.08665255 -0.08268657 0.1968673 255 0 255
-0.08580463 -0.08416824 0.1988854 255 0 255
-0.060744 -0.0843819 0.2027465 255 0 255
-0.05257857 -0.08065095 0.199157 255 0 255
-0.05083735 -0.09519807 0.2181869 255 0 255
-0.0439073 -0.09300486 0.216427 255 0 255
-0.04231861 -0.0936763 0.217542 255 0 255
-0.04143615 -0.09370054 0.2177114 255 0 255
-0.03599032 -0.09318023 0.2178986 255 0 255
-0.03422529 -0.0931937 0.2181968 255 0 255
-0.03245843 -0.0931979 0.2184846 255 0 255
-0.03080609 -0.09380964 0.2195402 255 0 255
-0.02834759 -0.09501795 0.2214984 255 0 255
-0.02744983 -0.09500479 0.2216268 255 0 255
-0.02157713 -0.0844278 0.2089113 255 0 255
-0.0979829 -0.08165612 0.1926379 255 0 255
-0.09247348 -0.08150762 0.1931949 255 0 255
-0.08815743 -0.083051 0.1957502 255 0 255
-0.0861531 -0.08409557 0.1973576 255 0 255
-0.07861149 -0.09126402 0.2075576 255 0 255
-0.07691635 -0.0915048 0.208108 255 0 255
-0.07614999 -0.09355966 0.2108406 255 0 255
-0.07563809 -0.09621992 0.2143101 255 0 255
