ply
format ascii 1.0
Comment Generated by Floating Hands
element vertex 1108
property double x
property double y
property double z
property uchar red
property uchar green
property uchar blue
end_header
0.06107206 -0.03693252 0.2917761 255 0 255
0.06168801 -0.03169368 0.2781934 255 0 255
0.05944875 -0.02744673 0.2660745 255 0 255
0.02073934 -0.02601166 0.2457664 255 0 255
0.03032116 -0.0388402 0.2828201 255 0 255
0.03263544 -0.03956062 0.2854744 255 0 255
0.03459775 -0.03925835 0.2853139 255 0 255
0.03584953 -0.03977385 0.2870936 255 0 255
0.04055046 -0.04079104 0.2913723 255 0 255
0.04472876 -0.04042652 0.2918649 255 0 255
0.04607377 -0.04090488 0.2936046 255 0 255
0.05495048 -0.03884617 0.2914588 255 0 255
0.05695198 -0.03843661 0.2911514 255 0 255
0.0609314 -0.02874155 0.2674156 255 0 255
0.01838764 -0.02390238 0.2371406 255 0 255
0.04179946 -0.04192523 0.2918347 255 0 255
0.04328378 -0.04275645 0.2945133 255 0 255
0.04446482 -0.04291298 0.2953293 255 0 255
0.04770109 -0.04269614 0.2958976 255 0 255
0.05404403 -0.04002011 0.2912444 255 0 255
0.05604804 -0.03961449 0.2909442 255 0 255
0.05794647 -0.02321764 0.2493741 255 0 255
0.02095723 -0.03118543 0.2545395 255 0 255
0.023137 -0.03595072 0.2675527 255 0 255
0.0273079 -0.04369456 0.2888921 255 0 255
0.02873155 -0.04494307 0.29256 255 0 255
0.03029502 -0.0465314 0.2971545 255 0 255
0.03144248 -0.04672857 0.2980173 255 0 255
0.03247983 -0.04657705 0.297945 255 0 255
0.03430309 -0.0455786 0.295929 255 0 255
0.03520343 -0.03962174 0.2807989 255 0 255
0.04504643 -0.04491154 0.2977371 255 0 255
0.05213145 -0.04138817 0.2911639 255 0 255
0.05313594 -0.04119079 0.2910224 255 0 255
0.05413959 -0.04099109 0.2908775 255 0 255
0.05714554 -0.04037825 0.2904227 255 0 255
0.06436682 -0.03919083 0.2901604 255 0 255
0.06560875 -0.03626535 0.2832063 255 0 255
0.06265958 -0.02975947 0.2654926 255 0 255
0.01855859 -0.02904655 0.2459146 255 0 255
0.03126149 -0.05032219 0.3042158 255 0 255
0.03432138 -0.04070108 0.2805265 255 0 255
0.04567204 -0.04469999 0.2944635 255 0 255
0.05002788 -0.0424093 0.2901425 255 0 255
0.05403385 -0.04162604 0.289586 255 0 255
0.05503331 -0.04142451 0.2894386 255 0 255
0.05724228 -0.04134662 0.2900527 255 0 255
0.05824295 -0.04113739 0.2898946 255 0 255
0.06068933 -0.0413715 0.2914028 255 0 255
0.06192242 -0.04148268 0.2921499 255 0 255
0.06695739 -0.03882759 0.2874092 255 0 255
0.06692978 -0.03730456 0.2835714 255 0 255
0.0592444 -0.02379626 0.2466074 255 0 255
0.05469173 -0.01720816 0.2282622 255 0 255
0.01651731 -0.02789065 0.2400868 255 0 255
0.02215631 -0.04079134 0.2744049 255 0 255
0.02437674 -0.04565715 0.2873801 255 0 255
0.03348159 -0.05103092 0.3036757 255 0 255
0.03467174 -0.04232684 0.2820213 255 0 255
0.04060389 -0.04396333 0.2880475 255 0 255
0.04323909 -0.04500451 0.291537 255 0 255
0.04576496 -0.04568133 0.2940829 255 0 255
0.05112453 -0.04318192 0.2896346 255 0 255
0.06755845 -0.04044209 0.2888611 255 0 255
0.06804544 -0.03955559 0.2868484 255 0 255
-0.0395125 -0.03056997 0.2343676 255 0 255
0.01772187 -0.03408525 0.2537215 255 0 255
0.02389674 -0.04854119 0.2916944 255 0 255
0.02873521 -0.054598 0.3082495 255 0 255
0.03112151 -0.05501332 0.3099799 255 0 255
0.03286257 -0.04990936 0.2977147 255 0 255
0.03353822 -0.04868716 0.2948594 255 0 255
0.03488991 -0.04361172 0.282581 255 0 255
0.03573105 -0.04310333 0.2815716 255 0 255
0.04137832 -0.04404812 0.2857227 255 0 255
0.04385031 -0.04474995 0.2882776 255 0 255
0.04820575 -0.04471723 0.2896482 255 0 255
0.05202673 -0.04360681 0.2882011 255 0 255
0.05722236 -0.04293901 0.2883848 255 0 255
0.05843711 -0.04306849 0.2891434 255 0 255
0.0596585 -0.04319407 0.2898973 255 0 255
0.06234946 -0.04376964 0.2923053 255 0 255
0.06336229 -0.04354727 0.2921318 255 0 255
0.06538504 -0.04309554 0.2917745 255 0 255
0.06615161 -0.04253337 0.2906797 255 0 255
0.06890956 -0.04150374 0.2892015 255 0 255
0.06765046 -0.03554593 0.2740967 255 0 255
-0.03927757 -0.02941632 0.2293788 255 0 255
0.02145932 -0.04757727 0.2858266 255 0 255
0.02538563 -0.05533593 0.3061435 255 0 255
0.03099031 -0.04817109 0.2899861 255 0 255
0.03235829 -0.04910221 0.2926926 255 0 255
0.03301423 -0.04787167 0.2898432 255 0 255
0.0352427 -0.04525981 0.2840583 255 0 255
0.03595383 -0.0443894 0.282126 255 0 255
0.04460501 -0.04482478 0.2859434 255 0 255
0.0461135 -0.04569909 0.2885895 255 0 255
0.05049577 -0.04564846 0.2899278 255 0 255
0.05953505 -0.04381905 0.2886012 255 0 255
0.0685137 -0.04337479 0.2908283 255 0 255
0.06952094 -0.04313806 0.2906347 255 0 255
0.07040775 -0.03976505 0.2827913 255 0 255
0.06168673 -0.0264431 0.2471398 255 0 255
-0.03731643 -0.02946241 0.2275685 255 0 255
0.0144895 -0.03158174 0.2420224 255 0 255
0.01634065 -0.03703924 0.2558974 255 0 255
0.01867101 -0.04432968 0.2743978 255 0 255
0.02793537 -0.06172949 0.319564 255 0 255
0.03176649 -0.05131732 0.2951442 255 0 255
0.03603927 -0.04532057 0.2817515 255 0 255
0.03785049 -0.04464334 0.2806527 255 0 255
0.0385252 -0.04376423 0.2787169 255 0 255
0.04045566 -0.04343671 0.2785228 255 0 255
0.04603276 -0.04630221 0.2872859 255 0 255
0.04738474 -0.04682732 0.2890038 255 0 255
0.05641551 -0.0450643 0.287774 255 0 255
0.05841328 -0.04464711 0.2874641 255 0 255
0.05963241 -0.04478006 0.2882164 255 0 255
0.06810254 -0.04526043 0.2924444 255 0 255
0.07242346 -0.04463599 0.2925632 255 0 255
0.07040098 -0.03913302 0.2786019 255 0 255
0.06533322 -0.03157195 0.2585501 255 0 255
0.05926844 -0.02305369 0.2358253 255 0 255
-0.0372515 -0.03176226 0.2310307 255 0 255
0.01779479 -0.04534291 0.274058 255 0 255
0.0224689 -0.05853853 0.3072883 255 0 255
0.02715504 -0.06407021 0.321949 255 0 255
0.03343784 -0.04744268 0.2834578 255 0 255
0.03429557 -0.0469248 0.2824585 255 0 255
0.03598638 -0.04588583 0.2804522 255 0 255
0.03831109 -0.04395745 0.2765037 255 0 255
0.03911568 -0.04343415 0.2754896 255 0 255
0.04022702 -0.04363202 0.2763115 255 0 255
0.04730061 -0.04742919 0.287697 255 0 255
0.06241873 -0.04634697 0.2902251 255 0 255
0.06412855 -0.04716284 0.2927792 255 0 255
0.0679205 -0.04750422 0.2949566 255 0 255
0.07305373 -0.04629494 0.2939732 255 0 255
0.06268574 -0.02783676 0.2463208 255 0 255
-0.03665519 -0.03134619 0.228011 255 0 255
-0.03715294 -0.03408941 0.2344812 255 0 255
0.01304026 -0.03368985 0.2423459 255 0 255
0.01960897 -0.05567792 0.2967725 255 0 255
0.02677704 -0.0683094 0.3289321 255 0 255
0.02849312 -0.06538136 0.3223711 255 0 255
0.03314283 -0.06086771 0.3128378 255 0 255
0.03309805 -0.05349733 0.2951905 255 0 255
0.03496045 -0.04659707 0.2792349 255 0 255
0.03935471 -0.0447046 0.2760353 255 0 255
0.04721578 -0.0480221 0.2863894 255 0 255
0.05140209 -0.04762341 0.2867952 255 0 255
0.06274762 -0.04766529 0.2907366 255 0 255
0.06596199 -0.04895989 0.294921 255 0 255
0.07033279 -0.04836021 0.2950735 255 0 255
0.07239325 -0.04787155 0.2946758 255 0 255
0.07357924 -0.04473386 0.2877522 255 0 255
-0.03595823 -0.03409349 0.2325022 255 0 255
-0.03551437 -0.03490185 0.2344519 255 0 255
0.01255393 -0.03646821 0.2466466 255 0 255
0.01897265 -0.05869601 0.3009967 255 0 255
0.02458359 -0.07009936 0.3294763 255 0 255
0.02687334 -0.06942368 0.3284672 255 0 255
0.03079726 -0.0657824 0.3208808 255 0 255
0.03386316 -0.05005917 0.2845211 255 0 255
0.03737478 -0.04556352 0.2749259 255 0 255
0.03944006 -0.04561174 0.2756579 255 0 255
0.04216615 -0.04711892 0.280039 255 0 255
0.04713023 -0.04860609 0.285081 255 0 255
0.05011675 -0.04804302 0.2847071 255 0 255
0.05892169 -0.04786675 0.2871987 255 0 255
0.06014677 -0.04800871 0.2879464 255 0 255
0.06432959 -0.0491174 0.2919739 255 0 255
0.06935198 -0.05123209 0.2986628 255 0 255
0.07094198 -0.05004717 0.2964691 255 0 255
0.07431846 -0.04965051 0.296764 255 0 255
0.0730316 -0.04338504 0.2817585 255 0 255
0.05878724 -0.02219335 0.2273953 255 0 255
-0.03503054 -0.03286895 0.2276759 255 0 255
-0.0345022 -0.03528887 0.2333679 255 0 255
-0.03254889 -0.03254036 0.2271824 255 0 255
0.02570419 -0.070302 0.3271234 255 0 255
0.02654191 -0.06862187 0.3233987 255 0 255
0.02779556 -0.06885457 0.3242699 255 0 255
0.03504167 -0.0729995 0.3359123 255 0 255
0.03421272 -0.0620488 0.310049 255 0 255
0.03351581 -0.05621501 0.2962045 255 0 255
0.03389243 -0.04783428 0.2767108 255 0 255
0.03540574 -0.04640319 0.2738012 255 0 255
0.03856608 -0.04667959 0.275371 255 0 255
0.03983483 -0.0472623 0.277107 255 0 255
0.04668882 -0.04844423 0.2819469 255 0 255
0.04767402 -0.04826069 0.2818272 255 0 255
0.04983122 -0.04825306 0.282489 255 0 255
0.05377361 -0.04747484 0.2819494 255 0 255
0.05637508 -0.04815736 0.2843839 255 0 255
0.05758378 -0.04831117 0.28514 255 0 255
0.06024425 -0.04896645 0.2875448 255 0 255
0.06443002 -0.05009203 0.2915655 255 0 255
0.06640393 -0.05128778 0.2950032 255 0 255
0.07259903 -0.05149928 0.2976553 255 0 255
0.07495293 -0.05134706 0.2981446 255 0 255
0.01276318 -0.04516816 0.2625309 255 0 255
0.02173993 -0.07586558 0.3359825 255 0 255
0.02508816 -0.07387962 0.332204 255 0 255
0.02579999 -0.07140889 0.3266512 255 0 255
0.02914782 -0.07535323 0.3366567 255 0 255
0.03929641 -0.09946547 0.3952064 255 0 255
0.03950134 -0.09465644 0.3841176 255 0 255
0.03579789 -0.07644075 0.3409288 255 0 255
0.03360524 -0.05720041 0.2957847 255 0 255
0.03390669 -0.05155636 0.28281 255 0 255
0.03410811 -0.04912306 0.2772393 255 0 255
0.04660118 -0.04900321 0.2806402 255 0 255
0.04874951 -0.04900531 0.2813088 255 0 255
0.04954428 -0.048447 0.2802732 255 0 255
0.05052381 -0.04825704 0.2801444 255 0 255
0.05583377 -0.04800396 0.2812648 255 0 255
0.06034166 -0.04992246 0.2871394 255 0 255
0.06875306 -0.05383388 0.2989097 255 0 255
0.07054466 -0.05466633 0.3014226 255 0 255
0.07375025 -0.05224816 0.2970297 255 0 255
0.07557002 -0.05138774 0.2957174 255 0 255
0.07365116 -0.04431391 0.2789753 255 0 255
-0.03298103 -0.03724024 0.2338914 255 0 255
0.00874025 -0.03286284 0.2309761 255 0 255
0.01215905 -0.04809006 0.2667587 255 0 255
0.01921631 -0.07610466 0.3327864 255 0 255
0.02465226 -0.07867626 0.3400104 255 0 255
0.02828383 -0.07782496 0.3389641 255 0 255
0.03349653 -0.05417958 0.2861406 255 0 255
0.03585258 -0.04896132 0.2748601 255 0 255
0.03807107 -0.04940879 0.2765139 255 0 255
0.04767324 -0.04974554 0.2801235 255 0 255
0.04944558 -0.04899836 0.2789679 255 0 255
0.05293551 -0.04748578 0.2766243 255 0 255
0.05410951 -0.04765847 0.2773898 255 0 255
0.05712637 -0.04909684 0.2816208 255 0 255
0.06212799 -0.05175583 0.2892747 255 0 255
0.06360731 -0.05226276 0.2909101 255 0 255
0.066847 -0.05362275 0.2950637 255 0 255
0.07114308 -0.05640212 0.3027874 255 0 255
0.07277799 -0.05518301 0.3005959 255 0 255
0.07490116 -0.05467699 0.3001888 255 0 255
0.0727348 -0.04252709 0.272128 255 0 255
0.06326701 -0.02836964 0.2369957 255 0 255
-0.03010595 -0.03477492 0.2266199 255 0 255
0.008054315 -0.03406826 0.2315729 255 0 255
0.01798966 -0.07657252 0.3304799 255 0 255
0.02134608 -0.08225165 0.3441777 255 0 255
0.02365378 -0.08077285 0.3413719 255 0 255
0.02551949 -0.0773148 0.3339739 255 0 255
0.03305707 -0.05683263 0.2894536 255 0 255
0.03733149 -0.05086214 0.2771182 255 0 255
0.04614751 -0.05179423 0.2817731 255 0 255
0.0475811 -0.05029074 0.2788148 255 0 255
0.04915611 -0.04916383 0.2767557 255 0 255
0.05282156 -0.04802296 0.2753244 255 0 255
0.05517012 -0.04837263 0.2768497 255 0 255
0.05820664 -0.04981969 0.281064 255 0 255
0.059864 -0.05071883 0.2836127 255 0 255
0.06177094 -0.05198008 0.2870554 255 0 255
0.06694937 -0.05460943 0.2946363 255 0 255
0.0689616 -0.05583689 0.298047 255 0 255
0.07339276 -0.05691972 0.3019514 255 0 255
0.0773955 -0.05723231 0.3040144 255 0 255
0.07766592 -0.05588903 0.3011183 255 0 255
0.07736713 -0.05383115 0.2964379 255 0 255
0.07730649 -0.052138 0.2926536 255 0 255
0.07089742 -0.03963422 0.2626386 255 0 255
0.06597298 -0.03231758 0.2446649 255 0 255
-0.03240641 -0.03751916 0.2305322 255 0 255
0.008772491 -0.04205215 0.2477111 255 0 255
0.01708848 -0.07942761 0.3336577 255 0 255
0.02590573 -0.08657023 0.3517921 255 0 255
0.03560534 -0.05247726 0.2777949 255 0 255
0.0368652 -0.05309929 0.2795333 255 0 255
0.05078757 -0.04893675 0.2742914 255 0 255
0.05270685 -0.04855125 0.2740241 255 0 255
-0.03141329 -0.03786469 0.2294346 255 0 255
0.007553006 -0.03764021 0.2354848 255 0 255
0.009354181 -0.04853817 0.2601371 255 0 255
0.0163032 -0.08352616 0.3395529 255 0 255
0.02903286 -0.1038644 0.3877516 255 0 255
0.03350304 -0.06326251 0.2986892 255 0 255
0.03347618 -0.05953959 0.2904262 255 0 255
0.03388236 -0.05740636 0.2858041 255 0 255
0.03450868 -0.05606632 0.2830006 255 0 255
0.04143282 -0.05744136 0.2879336 255 0 255
0.04548209 -0.05924698 0.293065 255 0 255
0.04703011 -0.05520022 0.2845733 255 0 255
0.06469477 -0.05456341 0.2885692 255 0 255
0.06898659 -0.05056424 0.2812215 255 0 255
0.06997386 -0.05032678 0.2810313 255 0 255
0.06342474 -0.02935929 0.2331671 255 0 255
-0.03073204 -0.03903487 0.2301251 255 0 255
-0.02958304 -0.04031378 0.2330666 255 0 255
0.01912217 -0.08604782 0.3426519 255 0 255
0.02899545 -0.1126965 0.4035823 255 0 255
0.03384351 -0.05795115 0.2844714 255 0 255
0.03472508 -0.05739757 0.283489 255 0 255
0.03559842 -0.05684279 0.282504 255 0 255
0.03802744 -0.05771291 0.2850611 255 0 255
0.04372869 -0.05843655 0.2882096 255 0 255
0.05192785 -0.05054536 0.2733564 255 0 255
0.05459122 -0.04957211 0.272044 255 0 255
0.05598018 -0.05013649 0.2736964 255 0 255
0.05902618 -0.05162964 0.2778814 255 0 255
0.06384819 -0.05401053 0.2845595 255 0 255
0.06611653 -0.05219703 0.2813541 255 0 255
0.07949826 -0.05591615 0.2937986 255 0 255
0.07597643 -0.04978424 0.2794065 255 0 255
-0.02881117 -0.03895736 0.2282468 255 0 255
0.02078867 -0.089132 0.3466491 255 0 255
0.02349149 -0.09802502 0.3666337 255 0 255
0.05085786 -0.05124559 0.272182 255 0 255
0.05181508 -0.05105386 0.2720511 255 0 255
0.05256483 -0.05047157 0.2710189 255 0 255
0.05468188 -0.0504652 0.2716395 255 0 255
0.05585386 -0.05065043 0.2723924 255 0 255
0.06177444 -0.05326593 0.2798308 255 0 255
0.06347243 -0.05419112 0.2823455 255 0 255
0.06742219 -0.05677938 0.2891375 255 0 255
0.07411341 -0.05121483 0.2794025 255 0 255
0.07293655 -0.04664212 0.269263 255 0 255
0.06635556 -0.0368013 0.2460955 255 0 255
0.06133838 -0.02921769 0.2282619 255 0 255
0.009527504 -0.05064759 0.2580774 255 0 255
0.01827114 -0.09017989 0.3452297 255 0 255
0.02017902 -0.09460919 0.3552024 255 0 255
0.04595112 -0.05740396 0.281608 255 0 255
0.04960532 -0.05370007 0.2747206 255 0 255
0.05477249 -0.05135652 0.2712314 255 0 255
0.05853652 -0.05229817 0.2743667 255 0 255
0.0652907 -0.05605444 0.2844207 255 0 255
0.06703338 -0.05697495 0.2869164 255 0 255
0.006053796 -0.03865995 0.2295725 255 0 255
0.02749263 -0.1358438 0.4416127 255 0 255
0.04063936 -0.04804373 0.257899 255 0 255
0.04732046 -0.05636034 0.2773558 255 0 255
0.04928859 -0.05598725 0.2771175 255 0 255
0.05253665 -0.05185133 0.2693069 255 0 255
0.05443311 -0.05145856 0.2690324 255 0 255
0.05982665 -0.05338011 0.2746857 255 0 255
0.06295388 -0.0548933 0.2788159 255 0 255
0.06466505 -0.05583408 0.2813161 255 0 255
0.005393787 -0.04073149 0.2319341 255 0 255
0.008939818 -0.04425352 0.2401077 255 0 255
0.04614289 -0.05444323 0.2706527 255 0 255
0.04784043 -0.05587614 0.2741231 255 0 255
0.04978482 -0.05550227 0.2738816 255 0 255
0.05452288 -0.05233935 0.2686206 255 0 255
0.05781559 -0.05252239 0.2699668 255 0 255
0.06307007 -0.0540247 0.2746663 255 0 255
0.06305926 -0.05223961 0.270949 255 0 255
-0.08236082 -0.03688928 0.2132072 255 0 255
0.004673337 -0.04196385 0.2324741 255 0 255
0.006390533 -0.04353799 0.236112 255 0 255
0.04681813 -0.05433365 0.268331 255 0 255
0.04929596 -0.05518436 0.2707762 255 0 255
0.0511521 -0.05259646 0.265935 255 0 255
0.05324044 -0.05261325 0.2665617 255 0 255
0.05439692 -0.05281755 0.2673149 255 0 255
-0.08798485 -0.03793752 0.213494 255 0 255
-0.08818725 -0.03988619 0.2173489 255 0 255
-0.08743383 -0.04004104 0.2176585 255 0 255
-0.08667915 -0.040194 0.2179657 255 0 255
-0.07680754 -0.03911021 0.2159447 255 0 255
0.006426272 -0.04385452 0.2348511 255 0 255
0.007953727 -0.04240697 0.2321638 255 0 255
0.008913978 -0.04405514 0.2357731 255 0 255
0.02210063 -0.1350301 0.4268384 255 0 255
0.04375029 -0.04823236 0.2527345 255 0 255
0.04690842 -0.05297925 0.2633346 255 0 255
0.05123981 -0.05346408 0.2655207 255 0 255
0.05427018 -0.05328699 0.266009 255 0 255
0.05521047 -0.05308796 0.2658689 255 0 255
0.05754335 -0.05348706 0.2673534 255 0 255
-0.09177123 -0.0388356 0.2134843 255 0 255
-0.09059998 -0.04211726 0.2199054 255 0 255
-0.08875106 -0.04399206 0.2235998 255 0 255
-0.07661048 -0.04469839 0.2252508 255 0 255
-0.07265747 -0.04530225 0.2265942 255 0 255
0.0518491 -0.05331926 0.2631964 255 0 255
0.05277992 -0.05312669 0.2630642 255 0 255
0.05623938 -0.05375459 0.2653072 255 0 255
0.0592888 -0.05354037 0.2657439 255 0 255
0.05372097 -0.03926055 0.2352727 255 0 255
-0.09493306 -0.04344518 0.2206399 255 0 255
-0.09424657 -0.0446132 0.2229054 255 0 255
-0.08995903 -0.04700658 0.2275994 255 0 255
-0.08795633 -0.04689583 0.227415 255 0 255
-0.08713391 -0.04804131 0.2296692 255 0 255
-0.08238018 -0.04692388 0.2275918 255 0 255
-0.08077676 -0.04719778 0.2281742 255 0 255
-0.07559182 -0.04754136 0.229027 255 0 255
-0.07478518 -0.04766262 0.2292981 255 0 255
-0.06799673 -0.04574763 0.225818 255 0 255
0.002423942 -0.0434815 0.2295523 255 0 255
0.003246483 -0.04429957 0.2313693 255 0 255
0.004035884 -0.04379241 0.2304917 255 0 255
0.00477723 -0.04240328 0.227816 255 0 255
0.005567112 -0.04233436 0.2278304 255 0 255
0.006384803 -0.04270317 0.2287401 255 0 255
0.05888296 -0.05175921 0.2598747 255 0 255
-0.09688616 -0.04427 0.2203877 255 0 255
-0.09507348 -0.04621433 0.2241262 255 0 255
-0.09312027 -0.04713825 0.2259215 255 0 255
-0.09070166 -0.04662207 0.2249564 255 0 255
-0.09031735 -0.04720356 0.2260844 255 0 255
-0.08872137 -0.04751709 0.2267172 255 0 255
-0.08309539 -0.04855049 0.2288526 255 0 255
-0.08228672 -0.04869 0.2291476 255 0 255
-0.0786827 -0.0487961 0.2294738 255 0 255
-0.07555344 -0.04830978 0.228645 255 0 255
-0.0738005 -0.04953781 0.2311214 255 0 255
-0.07298294 -0.04965432 0.231387 255 0 255
-0.06310049 -0.04329779 0.2194262 255 0 255
0.001705424 -0.04604803 0.2327509 255 0 255
0.003332913 -0.04591945 0.2327989 255 0 255
0.011139 -0.06883907 0.2803776 255 0 255
0.0182827 -0.1305763 0.4058332 255 0 255
0.05781439 -0.05610538 0.2660782 255 0 255
0.05355521 -0.04176217 0.236439 255 0 255
-0.10024 -0.04370517 0.2174974 255 0 255
-0.09947716 -0.0438902 0.2178456 255 0 255
-0.09705192 -0.04705811 0.2238632 255 0 255
-0.09472662 -0.04859207 0.2268073 255 0 255
-0.09069066 -0.04840182 0.2265043 255 0 255
-0.08667172 -0.04917543 0.2280736 255 0 255
-0.08547767 -0.04889404 0.2275638 255 0 255
-0.0846724 -0.04903993 0.2278662 255 0 255
-0.08305819 -0.0493256 0.2284635 255 0 255
-0.08143912 -0.04960312 0.2290506 255 0 255
-0.07900163 -0.05000403 0.2299121 255 0 255
-0.07539277 -0.05007274 0.2301937 255 0 255
-0.07409575 -0.05075063 0.2315664 255 0 255
-0.0719523 -0.05153606 0.2331963 255 0 255
-0.0714445 -0.05208802 0.2342951 255 0 255
0.0009503331 -0.04594802 0.2305675 255 0 255
0.007560704 -0.04763902 0.2351885 255 0 255
0.02122518 -0.1604854 0.4623637 255 0 255
0.04851732 -0.0547626 0.258772 255 0 255
0.05024496 -0.05626464 0.2621876 255 0 255
0.05534541 -0.05613252 0.2632924 255 0 255
-0.1000431 -0.04608372 0.220169 255 0 255
-0.09971683 -0.04668771 0.2213048 255 0 255
-0.09859578 -0.04747284 0.2227874 255 0 255
-0.09780795 -0.0476523 0.223131 255 0 255
-0.09629436 -0.04902826 0.2257412 255 0 255
-0.09145539 -0.04901494 0.2257906 255 0 255
-0.08784981 -0.04921587 0.2262504 255 0 255
-0.08704805 -0.04936816 0.2265601 255 0 255
-0.08058918 -0.05051308 0.2289477 255 0 255
-0.07896245 -0.05077888 0.2295193 255 0 255
-0.07535265 -0.05084514 0.2298021 255 0 255
-0.07323309 -0.0516445 0.2314393 255 0 255
-0.07241021 -0.05175996 0.2317034 255 0 255
-0.07140215 -0.0528723 0.2338974 255 0 255
-0.06858942 -0.05275154 0.2338252 255 0 255
-0.06531189 -0.04928924 0.2273437 255 0 255
0.003430544 -0.04648741 0.2302755 255 0 255
0.00804986 -0.05423221 0.246415 255 0 255
0.0143341 -0.1043658 0.3463938 255 0 255
0.05033144 -0.05711669 0.2617595 255 0 255
-0.1024813 -0.04731257 0.2206397 255 0 255
-0.1021576 -0.04792437 0.2217784 255 0 255
-0.09979577 -0.04848461 0.2228356 255 0 255
-0.09777439 -0.04842196 0.2227372 255 0 255
-0.09625966 -0.04980581 0.2253433 255 0 255
-0.09545892 -0.04997899 0.2256798 255 0 255
-0.09507867 -0.05057997 0.226812 255 0 255
-0.09385321 -0.05031925 0.2263452 255 0 255
-0.08941334 -0.04967462 0.2252295 255 0 255
-0.08901437 -0.05026546 0.226351 255 0 255
-0.08217256 -0.05101121 0.2279707 255 0 255
-0.0772908 -0.05181017 0.2296845 255 0 255
-0.07483449 -0.05218191 0.230507 255 0 255
-0.07302354 -0.05342772 0.232972 255 0 255
-0.06649122 -0.05183828 0.230317 255 0 255
-0.06084526 -0.04474351 0.2171082 255 0 255
-0.004524548 -0.0468597 0.2277853 255 0 255
-0.003682505 -0.04589758 0.2260528 255 0 255
0.003451697 -0.0458484 0.2272341 255 0 255
0.004229214 -0.04532781 0.2263635 255 0 255
0.006892734 -0.0496573 0.2353142 255 0 255
0.0484878 -0.05600855 0.257045 255 0 255
0.05041789 -0.05796697 0.261328 255 0 255
0.05502062 -0.05889632 0.2643229 255 0 255
-0.09738629 -0.04979822 0.2234717 255 0 255
-0.08413035 -0.05194 0.2277946 255 0 255
-0.08051025 -0.05205671 0.2281536 255 0 255
-0.07923928 -0.05276892 0.2295457 255 0 255
-0.07806677 -0.05245391 0.2290062 255 0 255
-0.07677791 -0.05315552 0.2303869 255 0 255
-0.07546986 -0.05385107 0.2317622 255 0 255
-0.07247257 -0.05477335 0.2336642 255 0 255
-0.004742741 -0.0526523 0.2371709 255 0 255
0.003471181 -0.04518684 0.2242007 255 0 255
0.006076359 -0.04956225 0.2331401 255 0 255
0.007221878 -0.05451776 0.2429303 255 0 255
0.04022056 -0.04055334 0.2233061 255 0 255
0.04697635 -0.05337901 0.249585 255 0 255
0.05185246 -0.05948771 0.2625247 255 0 255
0.05300418 -0.05972435 0.2632734 255 0 255
-0.1001738 -0.05045556 0.2228205 255 0 255
-0.09893671 -0.05020774 0.2223834 255 0 255
-0.09655602 -0.0507455 0.2234097 255 0 255
-0.09575964 -0.05092066 0.2237468 255 0 255
-0.09500591 -0.05213817 0.226003 255 0 255
-0.09419829 -0.05230869 0.2263356 255 0 255
-0.09257893 -0.05264344 0.2269931 255 0 255
-0.08853102 -0.05240453 0.2266684 255 0 255
-0.08490213 -0.05256599 0.2270912 255 0 255
-0.08365337 -0.05330094 0.2285028 255 0 255
-0.08283609 -0.0534431 0.2287996 255 0 255
-0.08001665 -0.05340893 0.2288567 255 0 255
-0.0795549 -0.05399099 0.2299615 255 0 255
-0.07625506 -0.05450565 0.2310823 255 0 255
-0.07293729 -0.054987 0.232162 255 0 255
-0.07242871 -0.05555584 0.2332557 255 0 255
-0.07159179 -0.05566939 0.2335178 255 0 255
-0.06991479 -0.05589017 0.2340339 255 0 255
-0.006694803 -0.04702817 0.2242377 255 0 255
-0.006201524 -0.0511745 0.2322513 255 0 255
-0.004904637 -0.05759068 0.2447436 255 0 255
0.005273904 -0.04944848 0.2309678 255 0 255
0.007823923 -0.06358601 0.2584941 255 0 255
0.05152483 -0.05947192 0.2603302 255 0 255
0.05425116 -0.06081677 0.2635733 255 0 255
0.0549793 -0.06018461 0.2625625 255 0 255
0.05569905 -0.05955181 0.2615498 255 0 255
0.05388939 -0.05226884 0.2472949 255 0 255
-0.1005846 -0.05166089 0.223197 255 0 255
-0.09934394 -0.05141082 0.222763 255 0 255
-0.09810888 -0.05115706 0.2223235 255 0 255
-0.09651981 -0.0515142 0.2230048 255 0 255
-0.09051194 -0.05330428 0.2264305 255 0 255
-0.08888854 -0.05362162 0.2270646 255 0 255
-0.08807491 -0.05377718 0.2273779 255 0 255
-0.08480757 -0.05437862 0.2286056 255 0 255
-0.0811566 -0.05449571 0.2289775 255 0 255
-0.07621221 -0.05528175 0.2306734 255 0 255
-0.07538417 -0.05540546 0.230947 255 0 255
-0.07405547 -0.05610279 0.2323127 255 0 255
-0.07238434 -0.05633663 0.2328443 255 0 255
-0.07122746 -0.05599272 0.2322765 255 0 255
-0.07070889 -0.05656209 0.2333655 255 0 255
-0.06924513 -0.05575431 0.2319583 255 0 255
-0.005489224 -0.05467722 0.2372145 255 0 255
0.004522008 -0.05024653 0.2305675 255 0 255
-0.102478 -0.05142837 0.2209465 255 0 255
-0.1016876 -0.05161941 0.2213021 255 0 255
-0.1013453 -0.05224557 0.2224342 255 0 255
-0.1005485 -0.05243331 0.2227864 255 0 255
-0.09727846 -0.05210331 0.2222578 255 0 255
-0.09531257 -0.05307355 0.2240576 255 0 255
-0.09454016 -0.05430496 0.2263067 255 0 255
-0.09250378 -0.0552546 0.2280893 255 0 255
-0.09127966 -0.05497167 0.227616 255 0 255
-0.08924513 -0.05484382 0.2274543 255 0 255
-0.08640334 -0.05485657 0.2275849 255 0 255
-0.08111479 -0.0552685 0.2285664 255 0 255
-0.07651045 -0.05651412 0.2310821 255 0 255
-0.07567843 -0.05663864 0.2313568 255 0 255
-0.06509579 -0.05303406 0.2253892 255 0 255
-0.005855686 -0.04933997 0.2253084 255 0 255
-0.005285592 -0.05307277 0.232408 255 0 255
-0.004604349 -0.05585657 0.237746 255 0 255
-0.003774189 -0.05627794 0.2386761 255 0 255
-0.001888548 -0.04957632 0.226417 255 0 255
0.003740293 -0.05010309 0.2283955 255 0 255
0.01116378 -0.09601334 0.3159308 255 0 255
-0.1024422 -0.05219464 0.2205354 255 0 255
-0.1016515 -0.05238602 0.2208907 255 0 255
-0.1000659 -0.05276264 0.2215941 255 0 255
-0.09644546 -0.0530465 0.2221862 255 0 255
-0.09527439 -0.0538429 0.2236446 255 0 255
-0.0945157 -0.05614875 0.227805 255 0 255
-0.09164278 -0.05620035 0.2279947 255 0 255
-0.08877937 -0.05622869 0.2281529 255 0 255
-0.08592592 -0.05623401 0.2282799 255 0 255
-0.08510306 -0.05638251 0.2285841 255 0 255
-0.08390461 -0.05607285 0.2280782 255 0 255
-0.07930872 -0.05736299 0.2306412 255 0 255
-0.07729743 -0.05716335 0.2303881 255 0 255
-0.0764663 -0.0572902 0.2306653 255 0 255
-0.07513471 -0.05800017 0.2320332 255 0 255
-0.07429654 -0.05812129 0.2323038 255 0 255
-0.005000844 -0.05000552 0.2249792 255 0 255
0.002143725 -0.04811126 0.2226766 255 0 255
0.01456383 -0.1228343 0.3638626 255 0 255
-0.1016147 -0.05315091 0.2204764 255 0 255
-0.09843659 -0.05389727 0.2218724 255 0 255
-0.0968389 -0.05425804 0.2225555 255 0 255
-0.09488921 -0.05738279 0.2281714 255 0 255
-0.09240799 -0.05788812 0.2291613 255 0 255
-0.08791498 -0.05716173 0.2280446 255 0 255
-0.08423639 -0.0573042 0.2284654 255 0 255
-0.08258393 -0.05759124 0.2290605 255 0 255
-0.08092663 -0.05786983 0.2296454 255 0 255
-0.07843183 -0.05827192 0.2305034 255 0 255
-0.0764216 -0.05806458 0.2302455 255 0 255
-0.07425088 -0.0588998 0.2318817 255 0 255
-0.07257076 -0.05913616 0.2324148 255 0 255
-0.07141001 -0.05878314 0.2318534 255 0 255
-0.06611869 -0.05488859 0.2251746 255 0 255
-0.06318087 -0.05170079 0.2196153 255 0 255
-0.00252058 -0.04961506 0.222977 255 0 255
0.001448031 -0.05268228 0.2293047 255 0 255
0.00418672 -0.06153386 0.2460896 255 0 255
-0.1023684 -0.05372193 0.2197042 255 0 255
-0.1012337 -0.05455139 0.2211851 255 0 255
-0.09642661 -0.05565302 0.2232572 255 0 255
-0.09604472 -0.05628227 0.224378 255 0 255
-0.08373766 -0.05868613 0.2291458 255 0 255
-0.082075 -0.05897076 0.2297381 255 0 255
-0.07992403 -0.05984832 0.2314186 255 0 255
-0.07824215 -0.06011289 0.2319875 255 0 255
-0.07621827 -0.05990011 0.2317297 255 0 255
-0.07369115 -0.06026652 0.2325443 255 0 255
-0.06989372 -0.05872596 0.2300418 255 0 255
-0.0657654 -0.05515963 0.2239419 255 0 255
-0.06192063 -0.05052741 0.2159142 255 0 255
0.0006942776 -0.06163558 0.2437872 255 0 255
0.001619758 -0.06685442 0.2534686 255 0 255
0.00573146 -0.0766206 0.2720088 255 0 255
-0.1031204 -0.05428841 0.2189271 255 0 255
-0.1023305 -0.05448296 0.2192843 255 0 255
-0.09967392 -0.05678404 0.223362 255 0 255
-0.09681423 -0.05687574 0.2236145 255 0 255
-0.09520972 -0.06049787 0.2300071 255 0 255
-0.08656002 -0.05948289 0.2286094 255 0 255
-0.08406361 -0.05992853 0.2295206 255 0 255
-0.08239315 -0.06021496 0.2301151 255 0 255
-0.08191527 -0.06082374 0.2312156 255 0 255
-0.07735307 -0.06102307 0.2318366 255 0 255
-0.07481745 -0.06139825 0.2326622 255 0 255
-0.07364396 -0.06104518 0.2321142 255 0 255
-0.06776865 -0.05769804 0.2265821 255 0 255
-0.06157287 -0.05075542 0.2147001 255 0 255
-0.0008157872 -0.05042289 0.221415 255 0 255
-0.0001028767 -0.06005613 0.2389472 255 0 255
0.004167001 -0.09265465 0.2986029 255 0 255
0.005359429 -0.09449476 0.3021375 255 0 255
0.006305518 -0.08957377 0.2934104 255 0 255
-0.1035413 -0.05549879 0.2192694 255 0 255
-0.1024048 -0.05634145 0.2207523 255 0 255
-0.1004416 -0.05736817 0.2225831 255 0 255
-0.09882413 -0.05774001 0.2232791 255 0 255
-0.09720089 -0.05810341 0.223965 255 0 255
-0.09681107 -0.05874163 0.2250845 255 0 255
-0.09641276 -0.0593793 0.2262045 255 0 255
-0.09180401 -0.06196203 0.2308856 255 0 255
-0.08933847 -0.0613518 0.2299404 255 0 255
-0.08355007 -0.06132114 0.2301884 255 0 255
-0.08271033 -0.06146418 0.2304855 255 0 255
-0.08186936 -0.06160509 0.23078 255 0 255
-0.0788379 -0.06262175 0.2327422 255 0 255
-0.07764673 -0.06227743 0.2322136 255 0 255
-0.07679872 -0.06240544 0.2324924 255 0 255
-0.07392208 -0.06229931 0.2324972 255 0 255
-0.06061802 -0.05001458 0.2118411 255 0 255
-0.0001395961 -0.07593862 0.2655857 255 0 255
0.0008988605 -0.1202333 0.3450793 255 0 255
0.002369562 -0.1342645 0.3704551 255 0 255
0.007277443 -0.1119307 0.3313137 255 0 255
-0.09921737 -0.05897034 0.2236203 255 0 255
-0.09590749 -0.06411663 0.2325991 255 0 255
-0.08555374 -0.06228003 0.2299464 255 0 255
-0.08302651 -0.06271837 0.230849 255 0 255
-0.0813356 -0.06299983 0.2314377 255 0 255
-0.07675076 -0.06318659 0.2320529 255 0 255
-0.001524789 -0.05382417 0.2240883 255 0 255
0.001098366 -0.1744346 0.4385063 255 0 255
0.009584046 -0.1659105 0.4248396 255 0 255
-0.1040343 -0.05859157 0.2210582 255 0 255
-0.1020562 -0.05963769 0.2228992 255 0 255
-0.1012422 -0.05982913 0.2232536 255 0 255
-0.1004266 -0.06001844 0.2236054 255 0 255
-0.09879107 -0.06039064 0.2243015 255 0 255
-0.09797116 -0.06057354 0.2246458 255 0 255
-0.09675222 -0.06251331 0.2280018 255 0 255
-0.0904111 -0.06433914 0.2314276 255 0 255
-0.08794732 -0.06370656 0.2304761 255 0 255
-0.08455513 -0.0643103 0.231705 255 0 255
-0.08370395 -0.0644558 0.2320056 255 0 255
-0.08114304 -0.06487919 0.2328918 255 0 255
-0.07908589 -0.06466926 0.2326632 255 0 255
-0.07789095 -0.06431924 0.2321393 255 0 255
-0.07349917 -0.06337049 0.2308059 255 0 255
-0.06907365 -0.06080718 0.2267008 255 0 255
-0.102827 -0.06021543 0.2221007 255 0 255
-0.1000007 -0.0614457 0.2242823 255 0 255
-0.09960895 -0.06210008 0.2254021 255 0 255
-0.09795301 -0.06246756 0.2260936 255 0 255
-0.09754273 -0.06311863 0.2272116 255 0 255
-0.09784346 -0.06808403 0.2355962 255 0 255
-0.09522015 -0.06860817 0.2366177 255 0 255
-0.09066495 -0.06672306 0.2336641 255 0 255
-0.08732539 -0.06623697 0.2330286 255 0 255
-0.08646552 -0.06638902 0.2333382 255 0 255
-0.08560441 -0.0665389 0.2336453 255 0 255
-0.08352 -0.06634971 0.233452 255 0 255
-0.08144534 -0.06614926 0.233243 255 0 255
-0.07903686 -0.06545298 0.2322141 255 0 255
-0.07784192 -0.06509984 0.231692 255 0 255
-0.07665322 -0.06474341 0.2311649 255 0 255
-0.07429452 -0.06402073 0.2300955 255 0 255
-0.07163958 -0.06279723 0.2281948 255 0 255
-0.1056731 -0.06085411 0.2213292 255 0 255
-0.105316 -0.06152134 0.2224537 255 0 255
-0.1028602 -0.06211568 0.2235398 255 0 255
-0.1003908 -0.06269062 0.2246031 255 0 255
-0.09833693 -0.06484867 0.2283078 255 0 255
-0.09832657 -0.06597896 0.2302026 255 0 255
-0.09830048 -0.06711008 0.2321005 255 0 255
-0.09803838 -0.07164185 0.2397228 255 0 255
-0.09507599 -0.07055293 0.2380526 255 0 255
-0.09089339 -0.06912772 0.235891 255 0 255
-0.08752413 -0.06863374 0.2352601 255 0 255
-0.08665182 -0.06878578 0.2355708 255 0 255
-0.08331829 -0.06825604 0.2348896 255 0 255
-0.08053561 -0.06707521 0.2330784 255 0 255
-0.07660359 -0.06551907 0.2307163 255 0 255
-0.07275 -0.06393004 0.2283019 255 0 255
-0.07159013 -0.06355701 0.2277555 255 0 255
-0.002585617 -0.07205058 0.250513 255 0 255
-0.001900329 -0.1692711 0.4184118 255 0 255
-0.1032605 -0.06336188 0.2238498 255 0 255
-0.1028759 -0.06402929 0.2249714 255 0 255
-0.1020455 -0.06422294 0.2253287 255 0 255
-0.09911158 -0.06772899 0.2312868 255 0 255
-0.09907771 -0.06886866 0.2331835 255 0 255
-0.09977289 -0.07211069 0.2385421 255 0 255
-0.09147258 -0.07203878 0.2388971 255 0 255
-0.09058078 -0.07219955 0.2392209 255 0 255
-0.08645098 -0.07071454 0.2369992 255 0 255
-0.08521061 -0.07037464 0.2365115 255 0 255
-0.08117913 -0.06884331 0.2342179 255 0 255
-0.07928042 -0.06750625 0.2321073 255 0 255
-0.07621757 -0.06580034 0.229462 255 0 255
-0.07237528 -0.06419695 0.2270513 255 0 255
-0.067848 -0.05997406 0.2202937 255 0 255
-0.06484899 -0.05661332 0.2148709 255 0 255
-0.1069612 -0.06380633 0.2226893 255 0 255
-0.1057647 -0.06468713 0.2241829 255 0 255
-0.1049351 -0.06488851 0.2245491 255 0 255
-0.1037118 -0.06576045 0.2260352 255 0 255
-0.1024684 -0.06662696 0.2275171 255 0 255
-0.100354 -0.06767628 0.2293474 255 0 255
-0.1003403 -0.06882355 0.231238 255 0 255
-0.1006131 -0.07275318 0.2377033 255 0 255
-0.09822562 -0.07493234 0.241437 255 0 255
-0.09692827 -0.07462271 0.2410009 255 0 255
-0.08339737 -0.07146922 0.2366427 255 0 255
-0.07957254 -0.06878247 0.2324456 255 0 255
-0.07769149 -0.06743054 0.230332 255 0 255
-0.07381576 -0.06582644 0.2279486 255 0 255
-0.07200049 -0.06445533 0.2258018 255 0 255
-0.003645171 -0.0818677 0.2632872 255 0 255
-0.1082902 -0.06600661 0.2244834 255 0 255
-0.1049866 -0.06798203 0.2278476 255 0 255
-0.1045748 -0.06866039 0.2289728 255 0 255
-0.1032959 -0.06953382 0.2304607 255 0 255
-0.1014516 -0.07339065 0.236859 255 0 255
-0.09698011 -0.07825679 0.2450977 255 0 255
-0.08815329 -0.07480175 0.2399971 255 0 255
-0.0716256 -0.06470518 0.2245534 255 0 255
-0.06458136 -0.05640538 0.211388 255 0 255
-0.06136068 -0.05520297 0.2096609 255 0 255
-0.004159152 -0.1006689 0.2928234 255 0 255
-0.004313453 -0.1513323 0.3778876 255 0 255
-0.1105329 -0.06918088 0.2277621 255 0 255
-0.1071173 -0.07001785 0.2292736 255 0 255
-0.1062734 -0.07138916 0.2315315 255 0 255
-0.1049654 -0.07227314 0.2330289 255 0 255
-0.1040123 -0.0748058 0.2371818 255 0 255
-0.1017356 -0.07586773 0.2390332 255 0 255
-0.1012386 -0.07654481 0.2401614 255 0 255
-0.09877373 -0.07875101 0.2438969 255 0 255
-0.09009349 -0.0769593 0.2415503 255 0 255
-0.08452724 -0.07342697 0.2361764 255 0 255
-0.08259176 -0.07207164 0.2341022 255 0 255
-0.005077097 -0.0584279 0.2201601 255 0 255
-0.004800831 -0.1243491 0.3299223 255 0 255
-0.004638908 -0.1706937 0.4070865 255 0 255
-0.1038178 -0.07798414 0.2404743 255 0 255
-0.1029068 -0.078176 0.2408373 255 0 255
-0.09895448 -0.08126547 0.2460645 255 0 255
-0.09576739 -0.08129277 0.2463214 255 0 255
-0.09205282 -0.07912795 0.2430781 255 0 255
-0.09040306 -0.07828765 0.241835 255 0 255
-0.08840584 -0.07694068 0.2397976 255 0 255
-0.08607224 -0.07508525 0.2369624 255 0 255
-0.0841201 -0.07372553 0.234903 255 0 255
-0.07838868 -0.06961118 0.2286638 255 0 255
-0.06781362 -0.06173958 0.2167192 255 0 255
-0.1127842 -0.0755776 0.234293 255 0 255
-0.110972 -0.07838899 0.2388564 255 0 255
-0.1086705 -0.0795055 0.2407629 255 0 255
-0.104998 -0.08030749 0.2422591 255 0 255
-0.1027484 -0.08019722 0.2422224 255 0 255
-0.1018269 -0.08038613 0.2425824 255 0 255
-0.1013009 -0.08107094 0.2437104 255 0 255
-0.09872716 -0.08329899 0.2474453 255 0 255
-0.08835059 -0.07775953 0.239298 255 0 255
-0.08566082 -0.07538546 0.2356852 255 0 255
-0.07197183 -0.0663056 0.2221475 255 0 255
-0.006101143 -0.06560349 0.2286385 255 0 255
-0.005317632 -0.1501102 0.3669209 255 0 255
-0.1158733 -0.07742486 0.235229 255 0 255
-0.1140787 -0.07907177 0.2379171 255 0 255
-0.1140585 -0.08027338 0.2398115 255 0 255
-0.1140226 -0.08147597 0.2417092 255 0 255
-0.1084557 -0.08274397 0.2440382 255 0 255
-0.1075223 -0.08294674 0.2444164 255 0 255
-0.1048358 -0.08234622 0.2436351 255 0 255
-0.102435 -0.08342224 0.2454959 255 0 255
-0.101889 -0.08411188 0.2466258 255 0 255
-0.1003849 -0.08498429 0.2481122 255 0 255
-0.09810332 -0.08483943 0.2480412 255 0 255
-0.09434547 -0.08265629 0.2448402 255 0 255
-0.08793447 -0.07806797 0.2380131 255 0 255
-0.08489263 -0.07516804 0.2336256 255 0 255
-0.08224655 -0.07276797 0.2300048 255 0 255
-0.07878897 -0.07049698 0.2266539 255 0 255
-0.07523746 -0.06935848 0.2251207 255 0 255
-0.06753843 -0.06150586 0.2132161 255 0 255
-0.06344123 -0.05760588 0.2073298 255 0 255
-0.006288558 -0.1409345 0.3490588 255 0 255
-0.1162867 -0.07995723 0.2373422 255 0 255
-0.1147871 -0.08453211 0.2445781 255 0 255
-0.1111125 -0.08418323 0.2442534 255 0 255
-0.1097533 -0.08389332 0.2438832 255 0 255
-0.107466 -0.08380251 0.2438852 255 0 255
-0.09804477 -0.08569871 0.2475077 255 0 255
-0.0918832 -0.0816261 0.2415405 255 0 255
-0.007694562 -0.06765628 0.2284754 255 0 255
-0.007801459 -0.09833635 0.2777337 255 0 255
-0.007595254 -0.115246 0.3049241 255 0 255
-0.1162253 -0.08201446 0.2387034 255 0 255
-0.116202 -0.08323322 0.2405935 255 0 255
-0.1161629 -0.08445293 0.2424868 255 0 255
-0.1105393 -0.08575505 0.2448566 255 0 255
-0.1095963 -0.08596339 0.2452416 255 0 255
-0.1054048 -0.08626521 0.2459906 255 0 255
-0.1044575 -0.08646037 0.2463598 255 0 255
-0.1010383 -0.08772644 0.2485763 255 0 255
-0.09385827 -0.08382805 0.2430154 255 0 255
-0.08264492 -0.07365643 0.2279631 255 0 255
-0.07646736 -0.07007828 0.2228523 255 0 255
-0.07495693 -0.06917237 0.2215558 255 0 255
-0.07212402 -0.06618542 0.2171052 255 0 255
-0.06768281 -0.06059106 0.2086983 255 0 255
-0.008764813 -0.06203754 0.2177656 255 0 255
-0.008602913 -0.07001783 0.2304927 255 0 255
-0.008670313 -0.08279779 0.2508272 255 0 255
-0.009138272 -0.1046433 0.2855349 255 0 255
-0.009315576 -0.1270041 0.3211073 255 0 255
-0.007038013 -0.1705066 0.3907122 255 0 255
-0.11617 -0.08285869 0.2381703 255 0 255
-0.1164897 -0.08704054 0.2445825 255 0 255
-0.112697 -0.08792003 0.2461792 255 0 255
-0.1066988 -0.08743538 0.2458347 255 0 255
-0.1023242 -0.08891705 0.2484371 255 0 255
-0.1009782 -0.08859046 0.2480304 255 0 255
-0.08648574 -0.07723328 0.2315288 255 0 255
-0.07877761 -0.07159198 0.2233858 255 0 255
-0.06906765 -0.06220066 0.2095904 255 0 255
-0.009591018 -0.08418693 0.2510862 255 0 255
-0.01069997 -0.1313762 0.3253893 255 0 255
-0.01079789 -0.1560156 0.3642587 255 0 255
-0.009899451 -0.1677487 0.3829099 255 0 255
-0.006876054 -0.1707916 0.388168 255 0 255
-0.1164912 -0.08667117 0.2421415 255 0 255
-0.1154856 -0.08813053 0.2444341 255 0 255
-0.1127328 -0.08755565 0.2437366 255 0 255
-0.111789 -0.08777053 0.2441282 255 0 255
-0.1108436 -0.08798292 0.244517 255 0 255
-0.1070458 -0.08880745 0.2460432 255 0 255
-0.0999584 -0.08963636 0.2478367 255 0 255
-0.09786513 -0.08826335 0.2458873 255 0 255
-0.09467024 -0.08532708 0.2416208 255 0 255
-0.08730767 -0.07786258 0.2307183 255 0 255
-0.08461418 -0.07541421 0.2271653 255 0 255
-0.07837489 -0.0718157 0.222132 255 0 255
-0.07615958 -0.06985648 0.2192969 255 0 255
-0.07397266 -0.06789036 0.2164496 255 0 255
-0.01270865 -0.1659933 0.3768059 255 0 255
-0.1165163 -0.08256914 0.2340843 255 0 255
-0.1145566 -0.08797599 0.2423936 255 0 255
-0.1131845 -0.08768612 0.2420466 255 0 255
-0.1113053 -0.08811752 0.2428292 255 0 255
-0.1103633 -0.08832949 0.2432163 255 0 255
-0.1060317 -0.08986834 0.2458642 255 0 255
-0.1012405 -0.09083182 0.2476912 255 0 255
-0.09989671 -0.09049621 0.2472839 255 0 255
-0.08070139 -0.07332797 0.2226328 255 0 255
-0.07762401 -0.07150427 0.2201039 255 0 255
-0.01097749 -0.06415917 0.2162665 255 0 255
-0.01081835 -0.07066774 0.2263807 255 0 255
-0.01339806 -0.180351 0.3960918 255 0 255
-0.1112454 -0.08897079 0.2422761 255 0 255
-0.1088271 -0.09011772 0.2441772 255 0 255
-0.105015 -0.09092515 0.2456784 255 0 255
-0.1007937 -0.09116901 0.2463727 255 0 255
-0.09623335 -0.08786308 0.2417379 255 0 255
-0.08881046 -0.08031962 0.230928 255 0 255
-0.08220465 -0.07498489 0.2233981 255 0 255
-0.07910088 -0.07315806 0.2208924 255 0 255
-0.0772214 -0.07170774 0.2188548 255 0 255
-0.07080171 -0.06454106 0.2085427 255 0 255
-0.01171305 -0.07250707 0.2275122 255 0 255
-0.01241063 -0.09929051 0.2685825 255 0 255
-0.0133972 -0.1238955 0.3062642 255 0 255
-0.01423718 -0.1512206 0.3481496 255 0 255
-0.1154913 -0.0832001 0.2315507 255 0 255
-0.1149381 -0.08894587 0.2401453 255 0 255
-0.1059082 -0.09158352 0.2447473 255 0 255
-0.1043906 -0.0925023 0.2462402 255 0 255
-0.1007308 -0.09202398 0.2458136 255 0 255
-0.09504101 -0.08711218 0.2389099 255 0 255
-0.06870844 -0.06201812 0.2034532 255 0 255
-0.01286427 -0.07656233 0.231956 255 0 255
-0.01527651 -0.1491673 0.3422577 255 0 255
-0.1154101 -0.08779014 0.2365879 255 0 255
-0.1139415 -0.09001611 0.2399843 255 0 255
-0.1106007 -0.09140579 0.2422885 255 0 255
-0.1096528 -0.0916172 0.2426734 255 0 255
-0.1067996 -0.09223632 0.2438106 255 0 255
-0.08684622 -0.07922469 0.2260904 255 0 255
-0.08330098 -0.07686796 0.222883 255 0 255
-0.01366598 -0.07013261 0.2205244 255 0 255
-0.01753296 -0.1614815 0.3579878 255 0 255
-0.1162858 -0.08586435 0.2319213 255 0 255
-0.1162391 -0.08966378 0.2374922 255 0 255
-0.1143787 -0.09011654 0.2382923 255 0 255
-0.1129421 -0.09108234 0.2398167 255 0 255
-0.1124294 -0.09182465 0.2409455 255 0 255
-0.1095901 -0.09246755 0.2421077 255 0 255
-0.1067363 -0.09308777 0.2432442 255 0 255
-0.1057819 -0.09328948 0.2436173 255 0 255
-0.1038684 -0.09368527 0.2443548 255 0 255
-0.1015614 -0.09353868 0.2443281 255 0 255
-0.09660244 -0.08964311 0.2389963 255 0 255
-0.08877189 -0.08143458 0.2275457 255 0 255
-0.08604958 -0.07891773 0.2240629 255 0 255
-0.01628778 -0.1015049 0.2656426 255 0 255
-0.01982713 -0.1905995 0.3986002 255 0 255
-0.01877677 -0.1983387 0.4103436 255 0 255
-0.1175911 -0.08824292 0.2335411 255 0 255
-0.1166575 -0.08974987 0.2358 255 0 255
-0.1133098 -0.09245183 0.2399846 255 0 255
-0.1099426 -0.09384504 0.2422783 255 0 255
-0.1066723 -0.0939369 0.2426746 255 0 255
-0.1038038 -0.09453549 0.2437844 255 0 255
-0.1024538 -0.09419517 0.2433994 255 0 255
-0.09222116 -0.08580519 0.2319933 255 0 255
-0.01609369 -0.06652571 0.2118461 255 0 255
-0.01534115 -0.07267623 0.2210803 255 0 255
-0.01758617 -0.1052109 0.2690807 255 0 255
-0.02137226 -0.2116262 0.4265922 255 0 255
-0.1179697 -0.0908742 0.2355542 255 0 255
-0.1170434 -0.09110761 0.2359607 255 0 255
-0.1165595 -0.09186446 0.2370896 255 0 255
-0.1075607 -0.09457877 0.2417262 255 0 255
-0.1046964 -0.09518602 0.2428439 255 0 255
-0.102779 -0.09557819 0.2435747 255 0 255
-0.09215945 -0.08659707 0.2314575 255 0 255
-0.08556343 -0.07988563 0.2222903 255 0 255
-0.08434211 -0.07949906 0.2218373 255 0 255
-0.07181161 -0.06591772 0.2032226 255 0 255
-0.01673624 -0.06663044 0.2104908 255 0 255
-0.01595258 -0.07225667 0.2188789 255 0 255
-0.02466368 -0.1794856 0.375554 255 0 255
-0.02567627 -0.2217274 0.437614 255 0 255
-0.1179228 -0.09041808 0.23314 255 0 255
-0.1169805 -0.09194111 0.2353922 255 0 255
-0.1131821 -0.0941378 0.2388393 255 0 255
-0.1122384 -0.0943583 0.2392316 255 0 255
-0.1107651 -0.09532674 0.2407412 255 0 255
-0.1098129 -0.09554043 0.2411264 255 0 255
-0.1084473 -0.09521499 0.2407723 255 0 255
-0.1074955 -0.09542284 0.2411503 255 0 255
-0.1055871 -0.09583095 0.2418978 255 0 255
-0.1036725 -0.09622891 0.2426338 255 0 255
-0.09887427 -0.09409367 0.2399782 255 0 255
-0.0703583 -0.0643867 0.1997327 255 0 255
-0.027688 -0.2091901 0.4156952 255 0 255
-0.02739609 -0.223335 0.4363874 255 0 255
-0.1149999 -0.09452796 0.2374693 255 0 255
-0.1135467 -0.095513 0.2389888 255 0 255
-0.1078375 -0.09680517 0.2413069 255 0 255
-0.1068803 -0.0970116 0.2416832 255 0 255
-0.08048232 -0.07674319 0.2150894 255 0 255
-0.0222134 -0.129051 0.2972962 255 0 255
-0.02886503 -0.2226485 0.4318754 255 0 255
-0.109549 -0.09852421 0.2418075 255 0 255
-0.1068132 -0.09785452 0.2410983 255 0 255
-0.1058542 -0.09805878 0.2414715 255 0 255
-0.1048938 -0.0982605 0.2418418 255 0 255
-0.09912414 -0.09629688 0.2395782 255 0 255
-0.0877251 -0.08417044 0.223432 255 0 255
-0.0842799 -0.0804702 0.2185033 255 0 255
-0.08270567 -0.07952046 0.2173026 255 0 255
-0.07674263 -0.07317637 0.2088598 255 0 255
-0.07241277 -0.06777184 0.2015975 255 0 255
-0.01844162 -0.08123454 0.2270465 255 0 255
-0.02917862 -0.2121581 0.413505 255 0 255
-0.1177145 -0.09419253 0.2332623 255 0 255
-0.1172343 -0.09496523 0.2343825 255 0 255
-0.1153046 -0.09673854 0.2370254 255 0 255
-0.1143601 -0.09696612 0.237424 255 0 255
-0.1114023 -0.09893995 0.2404439 255 0 255
-0.1075532 -0.09979039 0.2419757 255 0 255
-0.1065869 -0.09999657 0.2423514 255 0 255
-0.105619 -0.1002001 0.2427242 255 0 255
-0.1036785 -0.1005996 0.2434612 255 0 255
-0.09228115 -0.09029616 0.2300272 255 0 255
-0.08385194 -0.08064816 0.2172441 255 0 255
-0.07784282 -0.07428012 0.2088503 255 0 255
-0.07418934 -0.06996712 0.2031266 255 0 255
-0.07024063 -0.06508414 0.1966289 255 0 255
-0.02378405 -0.1264585 0.289154 255 0 255
-0.1166787 -0.09656797 0.2349172 255 0 255
-0.1137754 -0.09857176 0.2379507 255 0 255
-0.110078 -0.1026259 0.2439179 255 0 255
-0.1022505 -0.101087 0.2424907 255 0 255
-0.09296533 -0.09219361 0.2309568 255 0 255
-0.08908436 -0.08790759 0.2253435 255 0 255
-0.08489326 -0.08305013 0.2189626 255 0 255
-0.08258513 -0.08097207 0.2162824 255 0 255
-0.07448988 -0.07119235 0.203405 255 0 255
-0.03059841 -0.214524 0.4104759 255 0 255
-0.1175824 -0.09583751 0.2320972 255 0 255
-0.1171013 -0.09661726 0.2332124 255 0 255
-0.1166114 -0.09739631 0.234328 255 0 255
-0.1161127 -0.0981746 0.2354438 255 0 255
-0.1125181 -0.1022757 0.241419 255 0 255
-0.1084466 -0.1044574 0.2448044 255 0 255
-0.09796908 -0.09895647 0.2381813 255 0 255
-0.09402216 -0.09466125 0.2326135 255 0 255
-0.08629949 -0.08603018 0.2214067 255 0 255
-0.07119027 -0.06804773 0.1979681 255 0 255
-0.0201776 -0.07931618 0.2195787 255 0 255
-0.02577061 -0.127246 0.2859071 255 0 255
-0.03444775 -0.2195471 0.4139236 255 0 255
-0.1151011 -0.09923534 0.2352494 255 0 255
-0.1123041 -0.1044526 0.2426454 255 0 255
-0.110972 -0.1073302 0.2467128 255 0 255
-0.09865488 -0.1009011 0.2390642 255 0 255
-0.09043701 -0.09168649 0.2272074 255 0 255
-0.08318856 -0.08354549 0.2167327 255 0 255
-0.07043074 -0.06755627 0.1960177 255 0 255
-0.1183732 -0.09723377 0.2305127 255 0 255
-0.1169653 -0.09825971 0.2320297 255 0 255
-0.1135679 -0.101073 0.2361566 255 0 255
-0.1124822 -0.1071995 0.2445827 255 0 255
-0.1088979 -0.1086219 0.2468584 255 0 255
-0.1075033 -0.1082686 0.2465117 255 0 255
-0.1039614 -0.1064215 0.2443399 255 0 255
-0.07502969 -0.07432476 0.2034568 255 0 255
-0.02422276 -0.07239997 0.2066296 255 0 255
-0.02667035 -0.121482 0.273844 255 0 255
-0.03655701 -0.2142395 0.4001964 255 0 255
-0.1183046 -0.09804745 0.2299194 255 0 255
-0.1145268 -0.1003318 0.233341 255 0 255
-0.1133934 -0.1032441 0.2373709 255 0 255
-0.1120318 -0.110748 0.2476223 255 0 255
-0.1082123 -0.1102605 0.2473352 255 0 255
-0.09141295 -0.09493656 0.2282895 255 0 255
-0.0886704 -0.09225469 0.2249382 255 0 255
-0.08523798 -0.08842093 0.2200987 255 0 255
-0.0760368 -0.07670961 0.2051867 255 0 255
-0.07172602 -0.07111667 0.1980573 255 0 255
-0.02730881 -0.07298583 0.2056843 255 0 255
-0.02706144 -0.0753788 0.2089795 255 0 255
-0.02304839 -0.08435641 0.2217446 255 0 255
-0.02446254 -0.0974323 0.239404 255 0 255
-0.1177577 -0.09965411 0.2304293 255 0 255
-0.1172715 -0.1004488 0.2315359 255 0 255
-0.1133213 -0.104077 0.2367584 255 0 255
-0.1130644 -0.1067769 0.240395 255 0 255
-0.1119559 -0.1116174 0.2469829 255 0 255
-0.1095382 -0.111482 0.2470395 255 0 255
-0.108528 -0.1116935 0.247423 255 0 255
-0.09598725 -0.1012623 0.2346934 255 0 255
-0.08517241 -0.08916011 0.219555 255 0 255
-0.08179188 -0.08529302 0.2147109 255 0 255
-0.07166869 -0.0717599 0.1975842 255 0 255
-0.02767063 -0.07901663 0.2124537 255 0 255
-0.02471264 -0.07666761 0.2096539 255 0 255
-0.03727438 -0.1908036 0.3624901 255 0 255
-0.1185841 -0.1015835 0.2312229 255 0 255
-0.1176455 -0.101824 0.2316306 255 0 255
-0.1147352 -0.1038865 0.234644 255 0 255
-0.1124242 -0.1084108 0.2408747 255 0 255
-0.1124827 -0.1116946 0.2452312 255 0 255
-0.1102511 -0.1134886 0.2478379 255 0 255
-0.1078268 -0.11334 0.2478843 255 0 255
-0.1060418 -0.1124005 0.2468152 255 0 255
-0.1038894 -0.1108812 0.2450126 255 0 255
-0.1006272 -0.1076306 0.2410197 255 0 255
-0.09312183 -0.09936727 0.2307903 255 0 255
-0.08546823 -0.09047465 0.2197401 255 0 255
-0.03795381 -0.07321255 0.2019968 255 0 255
-0.02884146 -0.08146536 0.214195 255 0 255
-0.02730476 -0.08209971 0.2152418 255 0 255
