ply
format ascii 1.0
Comment Generated by Floating Hands
element vertex 1099
property double x
property double y
property double z
property uchar red
property uchar green
property uchar blue
end_header
0.004284285 -0.006650698 0.2683274 255 0 255
0.006039455 -0.006446421 0.2683059 255 0 255
0.009142591 -0.004409809 0.2614253 255 0 255
0.01407655 -0.003273087 0.2592817 255 0 255
0.01491707 -0.003153579 0.2592382 255 0 255
-0.0009773063 -0.006920279 0.2632461 255 0 255
-6.763959E-05 -0.007546255 0.2661681 255 0 255
0.0008646328 -0.008167981 0.2690874 255 0 255
0.007668202 -0.006191411 0.2641712 255 0 255
0.01676819 -0.003994178 0.2599042 255 0 255
0.01865443 -0.004195294 0.2617344 255 0 255
0.02518653 -0.002652636 0.2592521 255 0 255
0.02453288 0.001397292 0.2426728 255 0 255
0.008497065 -0.006485972 0.2619937 255 0 255
0.01149614 -0.004628674 0.2560665 255 0 255
0.01415076 -0.004752691 0.2578934 255 0 255
0.01591449 -0.004745017 0.258773 255 0 255
0.01684772 -0.004853684 0.2596923 255 0 255
0.01769191 -0.004727688 0.2596402 255 0 255
0.0228673 -0.004160811 0.2602335 255 0 255
0.02371023 -0.0007948761 0.2474575 255 0 255
0.009970155 -0.005933477 0.2568824 255 0 255
0.0168346 -0.005476011 0.2585096 255 0 255
0.0186163 -0.005457884 0.2593702 255 0 255
0.02070014 -0.004129769 0.2553244 255 0 255
0.02128241 -0.001773966 0.2465027 255 0 255
0.02198099 0.0001051619 0.2396109 255 0 255
0.01323288 -0.005845761 0.2546009 255 0 255
0.01773572 -0.002683866 0.2415099 255 0 255
-0.02763935 -0.0538974 0.2658184 255 0 255
-0.01557486 -0.0480896 0.2551172 255 0 255
-0.013133 -0.04185601 0.2415801 255 0 255
-0.02711351 -0.03911204 0.2306291 255 0 255
-0.02628577 -0.05762388 0.2719848 255 0 255
-0.01533582 -0.0554719 0.2693729 255 0 255
-0.01216692 -0.05199686 0.2622976 255 0 255
-0.01104978 -0.04946598 0.2568935 255 0 255
-0.02738642 -0.04111537 0.2329954 255 0 255
-0.01374468 -0.06081616 0.2791105 255 0 255
-0.0116691 -0.05985177 0.2774288 255 0 255
-0.009376594 -0.0543231 0.2657238 255 0 255
-0.0305585 -0.06166432 0.2751954 255 0 255
-0.02986105 -0.06290437 0.2780232 255 0 255
-0.02802803 -0.06368912 0.2800689 255 0 255
-0.02718747 -0.06449892 0.2819909 255 0 255
-0.02505759 -0.06400391 0.2813129 255 0 255
-0.00947308 -0.05854488 0.2725894 255 0 255
-0.02955024 -0.05495209 0.2584671 255 0 255
-0.02701825 -0.06502338 0.2806523 255 0 255
-0.02433447 -0.06703206 0.2854954 255 0 255
-0.02365434 -0.0691103 0.2901146 255 0 255
-0.02053138 -0.06938534 0.2913223 255 0 255
-0.01491352 -0.0661263 0.2854256 255 0 255
-0.02988807 -0.06136614 0.2698523 255 0 255
-0.02599875 -0.06636025 0.2812263 255 0 255
-0.02074528 -0.07250573 0.2953748 255 0 255
-0.01523541 -0.07134766 0.2940162 255 0 255
-0.02876647 -0.05407071 0.2522927 255 0 255
-0.02813907 -0.0635144 0.2723579 255 0 255
-0.02520758 -0.06899519 0.2844864 255 0 255
-0.01640105 -0.07412589 0.2970744 255 0 255
-0.0113307 -0.08062765 0.311905 255 0 255
-0.007598401 -0.04533662 0.2379554 255 0 255
-0.02014926 -0.07965841 0.3053161 255 0 255
-0.02440039 -0.04863552 0.2375421 255 0 255
-0.01596046 -0.08524264 0.3150701 255 0 255
0.005418064 -0.04869284 0.2439327 255 0 255
-0.022892 -0.07880487 0.2977403 255 0 255
-0.01605854 -0.08852001 0.3190335 255 0 255
-0.01500511 -0.09020529 0.3227096 255 0 255
0.006867167 -0.05414642 0.2534586 255 0 255
0.007020662 -0.04053885 0.2255533 255 0 255
-0.02003941 -0.05003369 0.2372601 255 0 255
-0.02193641 -0.07402139 0.28564 255 0 255
-0.02135086 -0.0854952 0.3090696 255 0 255
-0.01568172 -0.08650135 0.312234 255 0 255
-0.01458301 -0.08731473 0.3141105 255 0 255
0.00587367 -0.05332822 0.2494555 255 0 255
0.007320765 -0.05846482 0.260243 255 0 255
-0.03734789 -0.04338383 0.2190967 255 0 255
-0.0191236 -0.05076836 0.2369653 255 0 255
-0.02039367 -0.06510206 0.2655618 255 0 255
-0.01904006 -0.08732235 0.3105365 255 0 255
0.008447958 -0.06008739 0.2616186 255 0 255
-0.01800787 -0.04474492 0.2232479 255 0 255
-0.01967384 -0.08482638 0.3027852 255 0 255
-0.008978644 -0.05275175 0.240978 255 0 255
-0.03710691 -0.04664125 0.2220207 255 0 255
-0.01448567 -0.0674649 0.2669677 255 0 255
-0.01108802 -0.06046523 0.2538274 255 0 255
0.00786587 -0.06370009 0.2643299 255 0 255
-0.0165424 -0.05432815 0.2387065 255 0 255
-0.01235899 -0.05546019 0.2417268 255 0 255
0.009176632 -0.06670664 0.268349 255 0 255
-0.0355657 -0.04623004 0.2179375 255 0 255
-0.01171969 -0.0493194 0.2280296 255 0 255
-0.01137832 -0.05572775 0.2405007 255 0 255
-0.01033147 -0.05290325 0.2352408 255 0 255
0.01008411 -0.06611387 0.2652264 255 0 255
-0.01000919 -0.05160924 0.2291514 255 0 255
0.004534856 -0.0475191 0.22443 255 0 255
0.004691578 -0.04916178 0.2258219 255 0 255
0.01104056 -0.07428538 0.2744717 255 0 255
0.008405656 -0.06888264 0.2616298 255 0 255
0.01119378 -0.07565973 0.2748699 255 0 255
0.01180855 -0.06515349 0.25545 255 0 255
0.02089597 -0.04482426 0.2197918 255 0 255
0.03130155 -0.04392124 0.2207774 255 0 255
-0.009539555 -0.04949958 0.2200785 255 0 255
-0.04252775 -0.05759835 0.2276929 255 0 255
-0.04070538 -0.05960087 0.2315946 255 0 255
-0.03757247 -0.05526258 0.2241642 255 0 255
-0.02844816 -0.05140562 0.2185503 255 0 255
0.009188969 -0.07629355 0.2712461 255 0 255
-0.04949256 -0.06105173 0.2311898 255 0 255
-0.04685273 -0.06314357 0.2353086 255 0 255
-0.04028064 -0.06184207 0.2339018 255 0 255
-0.02874584 -0.0535729 0.2207564 255 0 255
0.003658708 -0.05603757 0.2312612 255 0 255
0.01073206 -0.08089196 0.2777732 255 0 255
-0.05325901 -0.06262035 0.2316989 255 0 255
-0.05176244 -0.06320285 0.2329293 255 0 255
-0.04596072 -0.06643716 0.2394799 255 0 255
-0.04346631 -0.0670019 0.2408433 255 0 255
-0.03611661 -0.05772211 0.2253571 255 0 255
-0.02696916 -0.05377132 0.2197257 255 0 255
0.001702111 -0.05065498 0.2194472 255 0 255
0.004584669 -0.06837976 0.251843 255 0 255
0.01088536 -0.08229312 0.2781382 255 0 255
-0.05342072 -0.06590313 0.2356735 255 0 255
-0.05052224 -0.06755772 0.2389764 255 0 255
-0.04571476 -0.06923698 0.2426089 255 0 255
-0.04463649 -0.06876623 0.2419308 255 0 255
-0.0428344 -0.06880873 0.2422667 255 0 255
-0.04023581 -0.06636328 0.2383224 255 0 255
-0.03857718 -0.06389714 0.2342048 255 0 255
-0.03139905 -0.05351313 0.2169103 255 0 255
-0.0296989 -0.05301506 0.216294 255 0 255
-0.02578141 -0.05297592 0.216855 255 0 255
-0.002877456 -0.06012346 0.2337165 255 0 255
0.0006613075 -0.06273969 0.2390789 255 0 255
0.001779035 -0.0675347 0.2478294 255 0 255
0.006791196 -0.08369298 0.2775842 255 0 255
0.01009025 -0.08479337 0.2802369 255 0 255
0.0126386 -0.07957338 0.2715117 255 0 255
0.01218889 -0.05651591 0.2304635 255 0 255
-0.05684407 -0.06647861 0.2344211 255 0 255
-0.04491224 -0.0705645 0.2431754 255 0 255
-0.03433618 -0.05919634 0.2248092 255 0 255
-0.02907764 -0.06516282 0.2361168 255 0 255
-0.02503513 -0.05415341 0.2174283 255 0 255
-0.002605762 -0.0806075 0.2680853 255 0 255
0.003252282 -0.0963563 0.2969946 255 0 255
0.01152787 -0.08803848 0.2840718 255 0 255
-0.0570411 -0.06981314 0.23836 255 0 255
-0.05236669 -0.06955997 0.2385325 255 0 255
-0.05078328 -0.07014435 0.2397582 255 0 255
-0.04737716 -0.0707861 0.2413412 255 0 255
-0.04483909 -0.07136995 0.242715 255 0 255
-0.04409992 -0.07189511 0.2437335 255 0 255
-0.03655845 -0.06494545 0.232776 255 0 255
-0.03498217 -0.0624379 0.228656 255 0 255
-0.03372193 -0.06093367 0.2262333 255 0 255
-0.03248445 -0.05942726 0.2238043 255 0 255
-0.03140095 -0.05842162 0.2222235 255 0 255
-0.03071437 -0.05892244 0.2232027 255 0 255
-0.02611221 -0.06037543 0.2264729 255 0 255
-0.02447963 -0.05633906 0.2197112 255 0 255
-0.01409726 -0.0564533 0.2217058 255 0 255
-0.002315758 -0.1003694 0.3005596 255 0 255
0.002738533 -0.1098484 0.3181036 255 0 255
0.003876924 -0.1077468 0.3146663 255 0 255
-0.05916603 -0.06942684 0.2355988 255 0 255
-0.05229624 -0.07035227 0.2380753 255 0 255
-0.05160844 -0.07089963 0.2391075 255 0 255
-0.04910979 -0.07152003 0.2405148 255 0 255
-0.04839627 -0.07205933 0.2415408 255 0 255
-0.04658216 -0.07212097 0.2419017 255 0 255
-0.04419531 -0.07320795 0.2441137 255 0 255
-0.04311221 -0.07272281 0.2434365 255 0 255
-0.04112532 -0.07225125 0.2429171 255 0 255
-0.03576712 -0.06621803 0.2333309 255 0 255
-0.03462294 -0.06520998 0.2317691 255 0 255
-0.0316616 -0.06369152 0.229612 255 0 255
-0.01536391 -0.06224317 0.2298464 255 0 255
-0.01554847 -0.07278378 0.2480303 255 0 255
-0.01190146 -0.06104853 0.2284071 255 0 255
-0.009023443 -0.05385067 0.2164952 255 0 255
-0.004473277 -0.08905699 0.2782294 255 0 255
0.001960752 -0.1210289 0.3347687 255 0 255
0.007574191 -0.09240618 0.2864184 255 0 255
0.008670393 -0.09228477 0.2864341 255 0 255
-0.0584494 -0.07077954 0.2361853 255 0 255
-0.04760088 -0.07340137 0.242097 255 0 255
-0.03998504 -0.07255758 0.241763 255 0 255
-0.03640575 -0.0695276 0.2371307 255 0 255
-0.03422894 -0.06800559 0.2348658 255 0 255
-0.01637797 -0.05798282 0.2206653 255 0 255
-0.01658863 -0.06708568 0.2362155 255 0 255
-0.01718531 -0.08125586 0.2603759 255 0 255
-0.01741698 -0.09389028 0.2819723 255 0 255
-0.01231299 -0.08198878 0.2625104 255 0 255
-0.007455308 -0.08619156 0.2706133 255 0 255
-0.004435176 -0.1056132 0.3044625 255 0 255
0.0009720296 -0.1298402 0.3470196 255 0 255
0.006448 -0.1081229 0.3109029 255 0 255
-0.05504549 -0.0722992 0.2373871 255 0 255
-0.05436644 -0.07285997 0.2384218 255 0 255
-0.04915648 -0.07362537 0.24042 255 0 255
-0.04438305 -0.07584824 0.2448529 255 0 255
-0.04329238 -0.07535666 0.244181 255 0 255
-0.03900131 -0.07336592 0.2414509 255 0 255
-0.03455772 -0.07031126 0.2369591 255 0 255
-0.03321028 -0.0841395 0.2605922 255 0 255
-0.01844196 -0.0567394 0.2165816 255 0 255
-0.01865129 -0.07099883 0.2407377 255 0 255
-0.01115592 -0.1015716 0.2939731 255 0 255
-0.009972892 -0.1004745 0.2923294 255 0 255
-0.00875392 -0.09784921 0.2880991 255 0 255
-0.004345512 -0.1127323 0.3141989 255 0 255
0.005974685 -0.1198981 0.3283765 255 0 255
0.009727225 -0.09155252 0.2810197 255 0 255
-0.06160186 -0.07158264 0.2335581 255 0 255
-0.05089448 -0.07434662 0.23957 255 0 255
-0.05018451 -0.07490084 0.2405946 255 0 255
-0.0469009 -0.0760664 0.2430055 255 0 255
-0.04430686 -0.07665963 0.244372 255 0 255
-0.03301126 -0.08448968 0.2592301 255 0 255
-0.03390542 -0.09840102 0.2824488 255 0 255
-0.02623705 -0.09154323 0.2721905 255 0 255
-0.02336505 -0.07965197 0.2526875 255 0 255
-0.0202335 -0.1036036 0.2934979 255 0 255
-0.01971333 -0.10972 0.3038756 255 0 255
-0.01772873 -0.1142195 0.3117952 255 0 255
-0.01443951 -0.1022659 0.2922778 255 0 255
0.004132743 -0.1355247 0.3517357 255 0 255
0.00684447 -0.1127593 0.3139722 255 0 255
0.008432025 -0.08906185 0.2744288 255 0 255
-0.0630347 -0.07170538 0.231821 255 0 255
-0.06114164 -0.07346115 0.2349559 255 0 255
-0.05422229 -0.07444425 0.2374781 255 0 255
-0.03914728 -0.07599319 0.2421881 255 0 255
-0.03488394 -0.07029727 0.2333672 255 0 255
-0.03287227 -0.06926049 0.2319538 255 0 255
-0.03186396 -0.07237317 0.2372895 255 0 255
-0.01986839 -0.0695226 0.2345094 255 0 255
-0.02026559 -0.09583814 0.2782924 255 0 255
-0.009638873 -0.07567295 0.2465675 255 0 255
-0.001405261 -0.1331453 0.3439359 255 0 255
0.005029282 -0.1243114 0.3304482 255 0 255
0.005698817 -0.1134373 0.3124501 255 0 255
0.006848512 -0.0824313 0.2609877 255 0 255
0.01168096 -0.07310564 0.2464227 255 0 255
-0.06018188 -0.07431206 0.2347033 255 0 255
-0.0584012 -0.07443783 0.2351376 255 0 255
-0.05461242 -0.07414147 0.2351477 255 0 255
-0.05023087 -0.07701778 0.2404666 255 0 255
-0.04858885 -0.0776124 0.2416734 255 0 255
-0.03610813 -0.07262283 0.2352881 255 0 255
-0.03340123 -0.06896812 0.22968 255 0 255
-0.0313643 -0.07523387 0.2403291 255 0 255
-0.0314777 -0.07993276 0.2480611 255 0 255
-0.0228364 -0.07298363 0.2380023 255 0 255
-0.0183498 -0.07281767 0.2384884 255 0 255
-0.01681397 -0.1080059 0.2968824 255 0 255
-0.008112241 -0.0898369 0.2684282 255 0 255
-0.00270959 -0.125649 0.3286139 255 0 255
-0.001381561 -0.1270874 0.3312417 255 0 255
0.008523148 -0.07896015 0.2536432 255 0 255
0.01170353 -0.07339081 0.2450865 255 0 255
0.0119215 -0.0619391 0.2262203 255 0 255
0.01197909 -0.05673607 0.2176412 255 0 255
-0.05178037 -0.07720892 0.238768 255 0 255
-0.05106947 -0.0777759 0.2397892 255 0 255
-0.04627793 -0.08008366 0.2442254 255 0 255
-0.03110472 -0.0676064 0.2261275 255 0 255
-0.03050019 -0.06865554 0.2279368 255 0 255
-0.02986208 -0.0927917 0.2675036 255 0 255
-0.009713802 -0.06425747 0.2242373 255 0 255
-0.008264204 -0.06989302 0.2337287 255 0 255
-0.007281542 -0.1036983 0.2892736 255 0 255
0.002446251 -0.09295689 0.2735071 255 0 255
0.006134985 -0.07328071 0.2420025 255 0 255
0.01222424 -0.06419551 0.2283502 255 0 255
0.01228993 -0.05895733 0.2197915 255 0 255
-0.06156936 -0.07521503 0.2324878 255 0 255
-0.05579992 -0.07670188 0.2356313 255 0 255
-0.05468458 -0.07622771 0.2350155 255 0 255
-0.04183878 -0.08206168 0.2462546 255 0 255
-0.03003902 -0.07150611 0.2309689 255 0 255
-0.03047845 -0.08208205 0.2480372 255 0 255
-0.02908986 -0.0899766 0.2610574 255 0 255
-0.02518944 -0.0788132 0.243594 255 0 255
-0.01433118 -0.06209439 0.2183035 255 0 255
-0.01335453 -0.06992014 0.2311736 255 0 255
-0.01025393 -0.06133759 0.2177915 255 0 255
-0.008029878 -0.0664359 0.2264659 255 0 255
-0.00486209 -0.09661857 0.2760401 255 0 255
0.005961482 -0.0709383 0.2364075 255 0 255
-0.06679014 -0.07553017 0.2306147 255 0 255
-0.06263328 -0.07644752 0.2325928 255 0 255
-0.05752075 -0.07737136 0.2347268 255 0 255
-0.054828 -0.07753823 0.2353514 255 0 255
-0.05111605 -0.07989727 0.2396317 255 0 255
-0.04380846 -0.08337263 0.2462422 255 0 255
-0.04096602 -0.08342463 0.2467464 255 0 255
-0.02975065 -0.06746228 0.2228415 255 0 255
-0.0222162 -0.06733434 0.223846 255 0 255
-0.02023691 -0.05985491 0.2121495 255 0 255
-0.01242799 -0.06004658 0.2137853 255 0 255
-0.01159963 -0.0594711 0.2130045 255 0 255
-0.007212808 -0.07080046 0.2320131 255 0 255
0.01237102 -0.07888245 0.2487424 255 0 255
0.01267655 -0.07407934 0.2410802 255 0 255
0.01283674 -0.06876308 0.2325646 255 0 255
-0.06787203 -0.07674714 0.2306933 255 0 255
-0.06663741 -0.07797576 0.2327853 255 0 255
-0.04517443 -0.08577476 0.2480408 255 0 255
-0.03812673 -0.08104502 0.2415678 255 0 255
-0.005428426 -0.07460268 0.2367351 255 0 255
-0.004526366 -0.07346869 0.2350908 255 0 255
0.001520061 -0.06921069 0.2294211 255 0 255
0.005202176 -0.07202086 0.2346027 255 0 255
0.009849758 -0.08213475 0.2516284 255 0 255
0.01202542 -0.08400214 0.2550322 255 0 255
-0.06780071 -0.07752045 0.2302053 255 0 255
-0.04831987 -0.08759442 0.2486223 255 0 255
-0.04542546 -0.08767745 0.2491721 255 0 255
-0.04429702 -0.08716074 0.2485233 255 0 255
-0.04333424 -0.08718098 0.248697 255 0 255
-0.02900094 -0.06996813 0.2237321 255 0 255
-0.004423581 -0.06994507 0.2278556 255 0 255
-0.001073385 -0.06645101 0.2229453 255 0 255
0.0005936954 -0.06629586 0.2230095 255 0 255
0.003387525 -0.07083166 0.2307041 255 0 255
-0.06711481 -0.07891385 0.2307563 255 0 255
-0.06152703 -0.07884265 0.2313529 255 0 255
-0.05819522 -0.07964683 0.2330395 255 0 255
-0.05640122 -0.07976589 0.2334636 255 0 255
-0.05108205 -0.08281818 0.238948 255 0 255
-0.04259671 -0.08911006 0.2499935 255 0 255
-0.04035923 -0.08805257 0.2486752 255 0 255
-0.03110807 -0.07287007 0.2263477 255 0 255
-0.02989056 -0.07123689 0.2239823 255 0 255
-0.02852903 -0.07285255 0.2267235 255 0 255
-0.02820725 -0.07555764 0.2310073 255 0 255
-0.0249607 -0.07712214 0.2339756 255 0 255
-0.005968526 -0.06595688 0.2197143 255 0 255
-0.005152501 -0.06643207 0.2206052 255 0 255
0.00155593 -0.06799234 0.2242776 255 0 255
0.01123634 -0.08577782 0.2539822 255 0 255
-0.06765657 -0.07906104 0.2292204 255 0 255
-0.06411729 -0.0793903 0.2301724 255 0 255
-0.05835139 -0.08096433 0.2333496 255 0 255
-0.05100399 -0.08361048 0.2384395 255 0 255
-0.04592241 -0.09151619 0.2513998 255 0 255
-0.03945259 -0.08943302 0.249134 255 0 255
-0.03657015 -0.08562161 0.243664 255 0 255
-0.03471143 -0.08179934 0.2380229 255 0 255
0.01346232 -0.08036803 0.2441849 255 0 255
-0.07110868 -0.07946175 0.2277294 255 0 255
-0.05488324 -0.08251839 0.2344962 255 0 255
-0.05256536 -0.08376367 0.2367228 255 0 255
-0.03230605 -0.08037816 0.2344955 255 0 255
-0.03092875 -0.07817531 0.2313224 255 0 255
-0.02347042 -0.07586775 0.2289558 255 0 255
0.0007187893 -0.06569491 0.2174577 255 0 255
0.001662729 -0.06832717 0.2216846 255 0 255
0.002645755 -0.0709535 0.2259101 255 0 255
0.004502806 -0.07294146 0.2293157 255 0 255
0.01259604 -0.08892054 0.2554464 255 0 255
0.01362538 -0.08169144 0.2445173 255 0 255
0.01356455 -0.07459629 0.2335857 255 0 255
-0.06282919 -0.0804535 0.2286083 255 0 255
-0.06194463 -0.08052784 0.2288357 255 0 255
-0.058632 -0.08135162 0.2305207 255 0 255
-0.05639718 -0.08263429 0.2327672 255 0 255
-0.04624752 -0.09484629 0.2527634 255 0 255
-0.03007742 -0.07947285 0.231787 255 0 255
-0.02740118 -0.07944153 0.2321599 255 0 255
-0.02260086 -0.07713421 0.2294094 255 0 255
-0.001690749 -0.06441588 0.2135648 255 0 255
0.0007284293 -0.06474106 0.2144992 255 0 255
0.002635905 -0.07003469 0.2229295 255 0 255
0.008972351 -0.08250999 0.2431505 255 0 255
0.01388189 -0.0769603 0.2356153 255 0 255
-0.06892262 -0.0806287 0.2264414 255 0 255
-0.0680443 -0.08071922 0.2266873 255 0 255
-0.06628484 -0.08089342 0.2271712 255 0 255
-0.06452163 -0.08105845 0.2276444 255 0 255
-0.05261169 -0.08588514 0.236502 255 0 255
-0.05208844 -0.08704039 0.2383159 255 0 255
-0.04432913 -0.09629028 0.2533857 255 0 255
-0.04118459 -0.09578311 0.2530884 255 0 255
-0.0333658 -0.08746678 0.2417151 255 0 255
-0.03207004 -0.08579392 0.2393875 255 0 255
-0.03068307 -0.08356251 0.2362306 255 0 255
-0.0286395 -0.082431 0.2348401 255 0 255
-0.02762884 -0.08186194 0.2341391 255 0 255
-0.01867373 -0.0683474 0.2151399 255 0 255
-0.004807862 -0.06480006 0.2121267 255 0 255
0.009224173 -0.08493057 0.245144 255 0 255
-0.1454957 -0.2009859 0.3943233 255 0 255
-0.06506558 -0.08118209 0.2261152 255 0 255
-0.06444716 -0.08181689 0.2271404 255 0 255
-0.06179512 -0.08204784 0.22783 255 0 255
-0.05624329 -0.08417615 0.2317472 255 0 255
-0.05324695 -0.08606277 0.2349765 255 0 255
-0.05129432 -0.09126598 0.2430257 255 0 255
-0.05066877 -0.09525401 0.2490771 255 0 255
-0.04607425 -0.09652933 0.2516502 255 0 255
-0.004737879 -0.06601933 0.2125178 255 0 255
-0.002287643 -0.06969955 0.2184724 255 0 255
9.633729E-05 -0.06671278 0.2144153 255 0 255
0.003463156 -0.06859996 0.2178555 255 0 255
0.0142407 -0.06284894 0.2112426 255 0 255
-0.07081547 -0.08250709 0.2257143 255 0 255
-0.05796951 -0.08482256 0.2308079 255 0 255
-0.05076633 -0.09664685 0.249327 255 0 255
-0.04780238 -0.09674937 0.2499067 255 0 255
-0.04415365 -0.09797569 0.2522613 255 0 255
-0.04230241 -0.09857406 0.2534247 255 0 255
-0.04115326 -0.09802532 0.252782 255 0 255
-0.03637095 -0.0946782 0.2485353 255 0 255
-0.02705082 -0.08617744 0.237352 255 0 255
-0.0237551 -0.09562244 0.2519206 255 0 255
-0.01119898 -0.06936369 0.2149359 255 0 255
-0.007821661 -0.06580146 0.2102111 255 0 255
-0.003044565 -0.06934319 0.2163101 255 0 255
0.00340048 -0.06706647 0.2140719 255 0 255
0.006290048 -0.07233946 0.2224419 255 0 255
0.01094008 -0.09191796 0.2524197 255 0 255
0.01446647 -0.07525019 0.2282918 255 0 255
-0.07754492 -0.08541211 0.2275007 255 0 255
-0.07337682 -0.08296114 0.2244318 255 0 255
-0.06754703 -0.08242744 0.2243854 255 0 255
-0.06667102 -0.08251589 0.2246273 255 0 255
-0.06579409 -0.08260202 0.2248664 255 0 255
-0.06315778 -0.08284678 0.2255682 255 0 255
-0.05945614 -0.0848949 0.2290626 255 0 255
-0.05699013 -0.08564996 0.2305042 255 0 255
-0.04905463 -0.09868062 0.2507662 255 0 255
-0.04589939 -0.09820326 0.2505239 255 0 255
-0.04306563 -0.09883415 0.2518708 255 0 255
-0.04120864 -0.09943092 0.2530265 255 0 255
-0.03641217 -0.09606469 0.2487953 255 0 255
-0.03228869 -0.09039934 0.2410835 255 0 255
-0.01115849 -0.07060461 0.2153039 255 0 255
-0.01027764 -0.06942921 0.2137186 255 0 255
-0.003788484 -0.06728545 0.2116688 255 0 255
0.0001693015 -0.06581753 0.2101986 255 0 255
0.002543647 -0.06558617 0.2102806 255 0 255
0.006134243 -0.0702588 0.2178209 255 0 255
0.01517467 -0.08659198 0.2435741 255 0 255
0.01488152 -0.07818289 0.2311221 255 0 255
-0.08551195 -0.09169361 0.2339824 255 0 255
-0.07592936 -0.08339112 0.2231236 255 0 255
-0.07213145 -0.083258 0.2234027 255 0 255
-0.0686253 -0.08364619 0.2244105 255 0 255
-0.06747212 -0.08317567 0.2238754 255 0 255
-0.06396192 -0.08351649 0.2248264 255 0 255
-0.06308208 -0.08359596 0.2250575 255 0 255
-0.05691184 -0.08641338 0.2299839 255 0 255
-0.05532293 -0.08709726 0.2311977 255 0 255
-0.05289717 -0.09070921 0.2367962 255 0 255
-0.05176645 -0.0988372 0.2488018 255 0 255
-0.05095821 -0.09944513 0.249804 255 0 255
-0.04581137 -0.09903678 0.2499559 255 0 255
-0.04497594 -0.09963012 0.2509444 255 0 255
-0.03363192 -0.09346956 0.2436582 255 0 255
-0.01861773 -0.08012373 0.2265262 255 0 255
-0.009310928 -0.06835212 0.2108525 255 0 255
-0.006897192 -0.06762539 0.2101992 255 0 255
-0.005312723 -0.0680733 0.2111258 255 0 255
0.009032497 -0.08249135 0.2347544 255 0 255
0.01498594 -0.07324804 0.2223385 255 0 255
0.01474409 -0.0664782 0.2123986 255 0 255
-0.08294882 -0.08497785 0.2229435 255 0 255
-0.07001996 -0.08364162 0.2226221 255 0 255
-0.06827213 -0.0838307 0.2231183 255 0 255
-0.0638859 -0.08426338 0.2243129 255 0 255
-0.06300593 -0.08434305 0.2245439 255 0 255
-0.05615096 -0.08780421 0.2304631 255 0 255
-0.05454836 -0.08848761 0.2316716 255 0 255
-0.05301662 -0.09206464 0.2370529 255 0 255
-0.04788163 -0.1003834 0.2498144 255 0 255
-0.03537526 -0.09827897 0.2486355 255 0 255
-0.0337856 -0.09541456 0.2447306 255 0 255
-0.03223444 -0.09254777 0.2408168 255 0 255
-0.02550269 -0.08617958 0.2326401 255 0 255
-0.02459272 -0.08615991 0.2327555 255 0 255
-0.02219673 -0.09577873 0.2470799 255 0 255
-0.009157323 -0.06730415 0.2079342 255 0 255
0.006100382 -0.06937274 0.2135873 255 0 255
0.01246648 -0.09649347 0.2540608 255 0 255
-0.07839802 -0.08454479 0.2212715 255 0 255
-0.0772115 -0.08409886 0.2207826 255 0 255
-0.07342891 -0.08397854 0.2210834 255 0 255
-0.07168876 -0.08418638 0.2216003 255 0 255
-0.05418156 -0.09102759 0.2337214 255 0 255
-0.05337657 -0.09691647 0.2422719 255 0 255
-0.04511507 -0.1024478 0.2513987 255 0 255
-0.04309972 -0.1024896 0.2517572 255 0 255
-0.04049017 -0.1042603 0.2546891 255 0 255
-0.0356571 -0.1008266 0.2504916 255 0 255
-0.00750762 -0.06784923 0.2075997 255 0 255
0.005233807 -0.06842946 0.2106414 255 0 255
0.01579494 -0.09862953 0.255962 255 0 255
-0.09781647 -0.1063314 0.2480788 255 0 255
-0.06487376 -0.08624118 0.2238208 255 0 255
-0.06373253 -0.08575093 0.2232774 255 0 255
-0.06310651 -0.08640423 0.224287 255 0 255
-0.05780426 -0.08920369 0.2289774 255 0 255
-0.05451662 -0.09295455 0.2347605 255 0 255
-0.0529041 -0.09950165 0.2442918 255 0 255
-0.02515198 -0.08652503 0.2299739 255 0 255
-0.02343117 -0.0870624 0.2310111 255 0 255
0.003600567 -0.06754366 0.2076842 255 0 255
0.01502532 -0.1007245 0.2570252 255 0 255
0.01589349 -0.09946118 0.2553817 255 0 255
-0.08923803 -0.09490059 0.2312896 255 0 255
-0.08238944 -0.08667357 0.2206082 255 0 255
-0.07153706 -0.08566613 0.2205614 255 0 255
-0.06919882 -0.0865358 0.2220857 255 0 255
-0.06061325 -0.0879534 0.2252212 255 0 255
-0.05862949 -0.08989622 0.2282263 255 0 255
-0.0541701 -0.09847733 0.2409353 255 0 255
-0.05359787 -0.09968752 0.2427221 255 0 255
-0.04843787 -0.102258 0.2470888 255 0 255
-0.04626465 -0.1052566 0.2516369 255 0 255
-0.03335789 -0.1018921 0.2488272 255 0 255
-0.01992286 -0.08944093 0.2333393 255 0 255
0.005659495 -0.0731779 0.2146326 255 0 255
0.01793379 -0.06695344 0.2080438 255 0 255
-0.08677839 -0.09170997 0.2254847 255 0 255
-0.08231315 -0.08742037 0.2200774 255 0 255
-0.07320151 -0.0861937 0.2195219 255 0 255
-0.07203639 -0.08572409 0.2190183 255 0 255
-0.06621355 -0.08697499 0.221523 255 0 255
-0.06357728 -0.08722997 0.2222303 255 0 255
-0.06295032 -0.08789 0.2232352 255 0 255
-0.06142497 -0.08862484 0.2244667 255 0 255
-0.0601193 -0.0899326 0.2264696 255 0 255
-0.05877973 -0.09123334 0.2284693 255 0 255
-0.05559691 -0.09800636 0.2383733 255 0 255
-0.04649594 -0.1072644 0.252631 255 0 255
-0.04563086 -0.107875 0.253613 255 0 255
-0.04237109 -0.111463 0.25912 255 0 255
-0.04145642 -0.112061 0.2600945 255 0 255
-0.03802967 -0.1109115 0.2590026 255 0 255
-0.0367332 -0.1097422 0.2575622 255 0 255
-0.02913639 -0.0962464 0.2398245 255 0 255
-0.02235674 -0.08852638 0.2300675 255 0 255
-0.02167672 -0.0902543 0.232597 255 0 255
-0.004935584 -0.071357 0.2088327 255 0 255
-0.002521785 -0.07232483 0.2105971 255 0 255
-0.0001889917 -0.06921685 0.2066361 255 0 255
0.0006215327 -0.06972234 0.2074838 255 0 255
0.01105458 -0.09243103 0.2411404 255 0 255
0.01616782 -0.1016899 0.2550274 255 0 255
0.01855287 -0.07043821 0.2116658 255 0 255
-0.07369149 -0.08624204 0.2179757 255 0 255
-0.06963804 -0.08733772 0.2200164 255 0 255
-0.06816475 -0.08810946 0.2212772 255 0 255
-0.06375604 -0.08854879 0.2224736 255 0 255
-0.06093836 -0.09060996 0.2257084 255 0 255
-0.0582421 -0.09322591 0.2297019 255 0 255
-0.05459605 -0.1018379 0.2421472 255 0 255
-0.04942817 -0.1044511 0.246514 255 0 255
-0.03107148 -0.1029256 0.2471445 255 0 255
-0.02656503 -0.09346902 0.2347034 255 0 255
-0.02326321 -0.08987961 0.2302318 255 0 255
-0.005660078 -0.07206824 0.2083163 255 0 255
-0.00406032 -0.07252993 0.2092258 255 0 255
-0.001625894 -0.07349624 0.2109795 255 0 255
-0.0008138283 -0.07342492 0.2110179 255 0 255
0.003073835 -0.07013375 0.2071058 255 0 255
0.0159573 -0.1002147 0.2511792 255 0 255
0.01876425 -0.06754896 0.2062911 255 0 255
-0.169319 -0.2147503 0.3801226 255 0 255
-0.07101507 -0.08728771 0.2182225 255 0 255
-0.0680863 -0.08884585 0.2207449 255 0 255
-0.06632535 -0.08902892 0.2212311 255 0 255
-0.06482118 -0.08978803 0.2224746 255 0 255
-0.05999336 -0.09385094 0.228711 255 0 255
-0.05096179 -0.1040111 0.243953 255 0 255
-0.04767979 -0.1065216 0.2478842 255 0 255
-0.04564073 -0.1143182 0.2589153 255 0 255
-0.04073992 -0.1161716 0.2621998 255 0 255
-0.02879169 -0.1025291 0.2452312 255 0 255
-0.007924653 -0.0711201 0.2052579 255 0 255
-0.004801805 -0.07500703 0.2111346 255 0 255
-0.003985646 -0.07494363 0.2111832 255 0 255
0.008412306 -0.08430994 0.2262097 255 0 255
0.01099062 -0.09165351 0.2367826 255 0 255
0.01520117 -0.1023151 0.2522175 255 0 255
0.01632084 -0.07741396 0.2180948 255 0 255
0.01860311 -0.07117765 0.2099104 255 0 255
0.01929347 -0.07048156 0.2090759 255 0 255
-0.08194971 -0.08777857 0.215949 255 0 255
-0.07816975 -0.08770306 0.2163282 255 0 255
-0.07644066 -0.0879411 0.216874 255 0 255
-0.07353727 -0.08769709 0.2169197 255 0 255
-0.06773205 -0.08899313 0.2194484 255 0 255
-0.06192039 -0.09261747 0.2251683 255 0 255
-0.05991293 -0.09704275 0.231473 255 0 255
-0.0588582 -0.1019743 0.2383402 255 0 255
-0.05303728 -0.1053265 0.2437383 255 0 255
-0.04859354 -0.1073123 0.2470913 255 0 255
-0.04584904 -0.1163732 0.2598631 255 0 255
-0.03969662 -0.1176497 0.2625273 255 0 255
-0.02218228 -0.09133702 0.2292667 255 0 255
-0.01917878 -0.08887396 0.2263731 255 0 255
-0.01346284 -0.07326075 0.2059375 255 0 255
-0.007988905 -0.07589998 0.2104347 255 0 255
0.0002506053 -0.07760951 0.2141413 255 0 255
0.001832304 -0.07568899 0.211782 255 0 255
0.00417443 -0.07368123 0.2094345 255 0 255
0.01703721 -0.09401803 0.2394698 255 0 255
0.01666109 -0.07450096 0.2127285 255 0 255
-0.1328131 -0.1572596 0.3014441 255 0 255
-0.08067784 -0.08805429 0.2149572 255 0 255
-0.0763628 -0.08866787 0.2163399 255 0 255
-0.07432409 -0.08831066 0.2161248 255 0 255
-0.06208327 -0.09395654 0.2253872 255 0 255
-0.06165839 -0.09521919 0.2271513 255 0 255
-0.06047425 -0.1020411 0.2365334 255 0 255
-0.05995723 -0.1032982 0.238305 255 0 255
-0.04708287 -0.1142029 0.2549118 255 0 255
-0.04605554 -0.1184383 0.2607984 255 0 255
-0.04433876 -0.1202727 0.263538 255 0 255
-0.04175217 -0.1185079 0.2615347 255 0 255
-0.02209703 -0.09207457 0.2287249 255 0 255
-0.01187409 -0.0750144 0.2072153 255 0 255
-0.009652983 -0.07904367 0.2130387 255 0 255
-0.008868007 -0.08018199 0.21471 255 0 255
-0.00634875 -0.08001182 0.2148908 255 0 255
0.001993999 -0.07812283 0.2137155 255 0 255
0.003373523 -0.07323533 0.2073201 255 0 255
0.01692221 -0.1001746 0.2461776 255 0 255
0.01683982 -0.07574558 0.2130496 255 0 255
-0.1420787 -0.170889 0.316155 255 0 255
-0.08891737 -0.09320647 0.2192693 255 0 255
-0.07628447 -0.08939245 0.2158031 255 0 255
-0.06729884 -0.08985557 0.2176176 255 0 255
-0.06265838 -0.09402917 0.2238394 255 0 255
-0.05857081 -0.1060175 0.2404793 255 0 255
-0.05261227 -0.1093924 0.2458597 255 0 255
-0.04824021 -0.1119893 0.2499824 255 0 255
-0.03291272 -0.1187855 0.2614128 255 0 255
-0.02426319 -0.09586085 0.2319313 255 0 255
-0.01577471 -0.08421616 0.2176067 255 0 255
-0.01373179 -0.07994038 0.2121817 255 0 255
-0.01116789 -0.07861222 0.2108062 255 0 255
-0.005421477 -0.08002871 0.2136441 255 0 255
-0.004585449 -0.07996578 0.2136965 255 0 255
0.0004909177 -0.08132797 0.2163684 255 0 255
0.002074083 -0.07879109 0.2132208 255 0 255
0.005225648 -0.07608084 0.210106 255 0 255
0.006231632 -0.07836086 0.2133427 255 0 255
0.007423402 -0.08241036 0.218991 255 0 255
0.01280446 -0.09911264 0.2423706 255 0 255
0.01743776 -0.07453411 0.2101294 255 0 255
0.02068379 -0.07404309 0.2100412 255 0 255
0.02149439 -0.0739152 0.2100129 255 0 255
-0.0870738 -0.09102606 0.2150614 255 0 255
-0.07729684 -0.08869393 0.2132368 255 0 255
-0.07707106 -0.08999625 0.2149924 255 0 255
-0.06721916 -0.09057696 0.2170787 255 0 255
-0.0657391 -0.09135713 0.2183161 255 0 255
-0.06173133 -0.09732343 0.2267953 255 0 255
-0.06221729 -0.1034727 0.2349014 255 0 255
-0.05633832 -0.1094057 0.2436254 255 0 255
-0.04615982 -0.1213902 0.261066 255 0 255
-0.04399331 -0.1214312 0.261443 255 0 255
-0.04047465 -0.1202627 0.2604132 255 0 255
-0.0395248 -0.120875 0.2613721 255 0 255
-0.03627552 -0.1208815 0.2618725 255 0 255
-0.03530411 -0.1214825 0.2628215 255 0 255
-0.02200337 -0.09414702 0.228426 255 0 255
-0.01574764 -0.08550839 0.217888 255 0 255
-0.01369929 -0.0812102 0.2124801 255 0 255
-0.01187516 -0.07871576 0.2094438 255 0 255
-0.007943381 -0.08388051 0.2169658 255 0 255
-0.004508526 -0.08123572 0.2139964 255 0 255
-0.001979681 -0.08163206 0.2149399 255 0 255
0.002154267 -0.07945734 0.2127234 255 0 255
0.004408555 -0.07562858 0.2079931 255 0 255
0.01782609 -0.07695062 0.2120496 255 0 255
0.01843653 -0.07565372 0.210427 255 0 255
-0.08908783 -0.09204768 0.2146265 255 0 255
-0.08507979 -0.09013234 0.2126266 255 0 255
-0.08063536 -0.08890424 0.2115898 255 0 255
-0.07753731 -0.09000128 0.2134381 255 0 255
-0.06289176 -0.09422544 0.2209804 255 0 255
-0.0616467 -0.09807546 0.2262289 255 0 255
-0.06155684 -0.1080233 0.2393601 255 0 255
-0.04605903 -0.1222643 0.2604077 255 0 255
-0.04389229 -0.1223056 0.2607846 255 0 255
-0.0426684 -0.1217144 0.2601863 255 0 255
-0.03942367 -0.1217465 0.2607158 255 0 255
-0.038341 -0.1217516 0.2608858 255 0 255
-0.03725777 -0.1217538 0.2610525 255 0 255
-0.03400512 -0.1217435 0.2615334 255 0 255
-0.02590798 -0.1034496 0.2385865 255 0 255
-0.01571962 -0.08680479 0.2181618 255 0 255
-0.01097731 -0.07932643 0.2090216 255 0 255
-0.009494311 -0.08285902 0.2139325 255 0 255
-0.007843357 -0.08395994 0.2156546 255 0 255
-0.00273744 -0.08297873 0.2151853 255 0 255
0.00444627 -0.07567453 0.206708 255 0 255
0.006151033 -0.07669844 0.2083476 255 0 255
0.007224088 -0.07959791 0.2123631 255 0 255
0.01285793 -0.09947472 0.2396059 255 0 255
0.0181975 -0.1024129 0.2444015 255 0 255
0.01933272 -0.07618387 0.2099153 255 0 255
0.02072553 -0.07475442 0.2082678 255 0 255
-0.08671518 -0.09056314 0.2114839 255 0 255
-0.08022334 -0.08901986 0.210319 255 0 255
-0.06765321 -0.09131569 0.2149999 255 0 255
-0.06130886 -0.1057175 0.2347108 255 0 255
-0.06146568 -0.1088235 0.2387524 255 0 255
-0.0575625 -0.1121882 0.2437123 255 0 255
-0.05594166 -0.1135189 0.2456876 255 0 255
-0.05428684 -0.1148405 0.2476573 255 0 255
-0.05344672 -0.1154979 0.24864 255 0 255
-0.04978469 -0.1211888 0.2566295 255 0 255
-0.04516868 -0.1243789 0.2614925 255 0 255
-0.03292199 -0.1232144 0.2618123 255 0 255
-0.01869108 -0.09186708 0.2228928 255 0 255
-0.01667531 -0.08936092 0.2199207 255 0 255
-0.01183196 -0.08185082 0.2108318 255 0 255
-0.006910074 -0.0845808 0.2152009 255 0 255
-0.003502316 -0.08432814 0.2154202 255 0 255
-0.002655934 -0.08365384 0.2146729 255 0 255
-0.0001119624 -0.0834358 0.2148021 255 0 255
0.0007146598 -0.08275442 0.2140435 255 0 255
0.007041552 -0.07725416 0.2078739 255 0 255
0.01267863 -0.09784509 0.2358332 255 0 255
-0.09855825 -0.1042819 0.2261883 255 0 255
-0.08907069 -0.09216727 0.2117672 255 0 255
-0.08014459 -0.08972497 0.2097792 255 0 255
-0.07565511 -0.09166776 0.2128917 255 0 255
-0.06399497 -0.09430148 0.2178979 255 0 255
-0.06232551 -0.09698149 0.2216066 255 0 255
-0.06137406 -0.1096213 0.2381417 255 0 255
-0.0604858 -0.1128119 0.2424098 255 0 255
-0.05990547 -0.1140998 0.2441646 255 0 255
-0.05475868 -0.1175042 0.2493273 255 0 255
-0.05390652 -0.1181653 0.2503099 255 0 255
-0.05322737 -0.1194366 0.2520603 255 0 255
-0.05109271 -0.1232377 0.2573113 255 0 255
-0.04975075 -0.1263736 0.261584 255 0 255
-0.01765203 -0.09193232 0.2216574 255 0 255
-0.01664864 -0.090672 0.2201744 255 0 255
-0.006842063 -0.08586745 0.2154753 255 0 255
-0.004272389 -0.08507088 0.2148518 255 0 255
-0.001736077 -0.08364785 0.2134101 255 0 255
0.00706749 -0.07729407 0.2065861 255 0 255
0.02249883 -0.07578284 0.2072305 255 0 255
-0.08091334 -0.09029619 0.2089549 255 0 255
-0.08006532 -0.09042788 0.2092368 255 0 255
-0.07324107 -0.091399 0.2114017 255 0 255
-0.07122883 -0.09101276 0.2111793 255 0 255
-0.06514817 -0.09362515 0.215375 255 0 255
-0.06115144 -0.09970576 0.2237582 255 0 255
-0.06090168 -0.1066663 0.2327535 255 0 255
-0.06023443 -0.1161452 0.2450543 255 0 255
-0.05436372 -0.1208488 0.2519622 255 0 255
-0.05206701 -0.1240608 0.2564373 255 0 255
-0.0434718 -0.129247 0.264396 255 0 255
-0.03877272 -0.1280522 0.2635603 255 0 255
-0.03742775 -0.1268207 0.2621747 255 0 255
-0.03434203 -0.1280448 0.2642215 255 0 255
-0.0266862 -0.1131695 0.2461985 255 0 255
-0.01852118 -0.09328668 0.2218017 255 0 255
-0.01552478 -0.08948764 0.2173659 255 0 255
-0.01174671 -0.0844004 0.2113931 255 0 255
-0.01000904 -0.08307728 0.2099599 255 0 255
-0.00673325 -0.0853181 0.2133733 255 0 255
0.001773765 -0.08523306 0.2146351 255 0 255
0.008183281 -0.08026825 0.2092783 255 0 255
0.01882527 -0.1004095 0.2370456 255 0 255
0.01804669 -0.07897433 0.209258 255 0 255
0.02194022 -0.0734373 0.2027775 255 0 255
-0.08976957 -0.09344926 0.2103452 255 0 255
-0.07828586 -0.09138557 0.2092475 255 0 255
-0.06319813 -0.09643699 0.2177647 255 0 255
-0.06106539 -0.1004454 0.2231826 255 0 255
-0.06056152 -0.1182004 0.2459313 255 0 255
-0.05393357 -0.1242144 0.2545778 255 0 255
-0.04923485 -0.1312563 0.2642723 255 0 255
-0.04015369 -0.1307863 0.2650254 255 0 255
-0.03767951 -0.1295542 0.2638217 255 0 255
-0.03656809 -0.1295539 0.2639892 255 0 255
-0.0268517 -0.1158345 0.2479114 255 0 255
-0.02058114 -0.09714893 0.2249596 255 0 255
-0.01953276 -0.09588156 0.2234994 255 0 255
-0.006651638 -0.08598722 0.2128529 255 0 255
-0.004109319 -0.08703274 0.2145969 255 0 255
0.0001893874 -0.08729011 0.215617 255 0 255
0.002647664 -0.08459692 0.2125667 255 0 255
0.01089359 -0.08985826 0.2206516 255 0 255
0.015935 -0.1083627 0.2451721 255 0 255
0.01943001 -0.0775691 0.206346 255 0 255
-0.08329108 -0.09128455 0.2070031 255 0 255
-0.08244633 -0.09142361 0.207292 255 0 255
-0.07277715 -0.09219062 0.2095743 255 0 255
-0.07192287 -0.09230163 0.2098321 255 0 255
-0.06705194 -0.09353396 0.2120655 255 0 255
-0.06049415 -0.107593 0.2307938 255 0 255
-0.04155506 -0.133533 0.2664656 255 0 255
-0.03691988 -0.1329265 0.2663936 255 0 255
-0.01745674 -0.09466461 0.2207963 255 0 255
-0.01077785 -0.08629914 0.2112153 255 0 255
-0.004864024 -0.0852945 0.2108736 255 0 255
0.001178242 -0.08912099 0.2166994 255 0 255
0.003573571 -0.08517674 0.2120769 255 0 255
0.008111556 -0.07911272 0.2051143 255 0 255
0.01595559 -0.1085405 0.2437658 255 0 255
0.01957394 -0.1055712 0.2405945 255 0 255
0.02363835 -0.08191908 0.2112531 255 0 255
-0.08766147 -0.09321509 0.2074024 255 0 255
-0.08440437 -0.09244524 0.2068756 255 0 255
-0.08202291 -0.09151085 0.2060262 255 0 255
-0.07610296 -0.09241778 0.207969 255 0 255
-0.07069177 -0.09249058 0.2088062 255 0 255
-0.06841394 -0.09341884 0.2102878 255 0 255
-0.06637652 -0.09494694 0.2124911 255 0 255
-0.06288733 -0.0998152 0.2190974 255 0 255
-0.06053613 -0.1172869 0.2413912 255 0 255
-0.06033896 -0.1262122 0.2526416 255 0 255
-0.05516792 -0.1271202 0.2545362 255 0 255
-0.05427069 -0.1277933 0.2555142 255 0 255
-0.05109052 -0.132337 0.2616979 255 0 255
-0.03805738 -0.1344424 0.2662911 255 0 255
-0.03692628 -0.1344422 0.2664614 255 0 255
-0.03455636 -0.1338066 0.2660196 255 0 255
-0.02940487 -0.1293703 0.2612165 255 0 255
-0.0250467 -0.1130535 0.2413353 255 0 255
-0.02047743 -0.09921164 0.2246046 255 0 255
0.008132002 -0.07912956 0.2038285 255 0 255
0.02156831 -0.0804119 0.207654 255 0 255
-0.08516924 -0.09299625 0.2060263 255 0 255
-0.06446131 -0.09778839 0.2148586 255 0 255
-0.06034951 -0.1065493 0.2263646 255 0 255
-0.06008627 -0.1084977 0.2288318 255 0 255
-0.0600212 -0.1110708 0.2320497 255 0 255
-0.05632907 -0.1285505 0.2543893 255 0 255
-0.05434711 -0.1292786 0.2555879 255 0 255
-0.05192761 -0.1325497 0.2600259 255 0 255
-0.04856145 -0.1370861 0.2661859 255 0 255
-0.04345968 -0.1346589 0.2639151 255 0 255
-0.04020987 -0.1353233 0.2652312 255 0 255
-0.03907976 -0.1353291 0.2654082 255 0 255
-0.03670431 -0.1347025 0.2649833 255 0 255
-0.02324222 -0.1081557 0.2338705 255 0 255
-0.01940585 -0.09927242 0.2233618 255 0 255
-0.003860842 -0.08592121 0.2091019 255 0 255
-0.001268614 -0.09008548 0.2147151 255 0 255
0.003050964 -0.08969109 0.21491 255 0 255
0.005751064 -0.07940742 0.2024945 255 0 255
0.00815173 -0.07913825 0.2025451 255 0 255
-0.07899897 -0.09267688 0.2050546 255 0 255
-0.07138012 -0.09375986 0.2074493 255 0 255
-0.06796689 -0.0941816 0.2084491 255 0 255
-0.06620997 -0.09634575 0.2113714 255 0 255
-0.06560732 -0.09706416 0.2123446 255 0 255
-0.06022038 -0.1098841 0.228967 255 0 255
-0.05749613 -0.1299807 0.2542298 255 0 255
-0.05120541 -0.1353558 0.2618081 255 0 255
-0.04943313 -0.1373193 0.2645015 255 0 255
-0.04574344 -0.1361358 0.2635839 255 0 255
-0.03280473 -0.1330388 0.2616897 255 0 255
-0.02928281 -0.1317304 0.2606028 255 0 255
-0.02534612 -0.1184144 0.2447031 255 0 255
-0.02044155 -0.1019091 0.2250007 255 0 255
-0.0193842 -0.1006168 0.2235614 255 0 255
-0.01743278 -0.09928927 0.222216 255 0 255
-0.01336472 -0.0928256 0.2148334 255 0 255
-0.01237689 -0.09089094 0.2125887 255 0 255
-0.007943217 -0.08623838 0.2075121 255 0 255
-0.007110685 -0.08618397 0.2075747 255 0 255
-0.006278069 -0.08612739 0.2076348 255 0 255
-0.0003044666 -0.09131021 0.2149981 255 0 255
0.002271346 -0.09044677 0.2143361 255 0 255
0.004584911 -0.08581913 0.208969 255 0 255
0.005876764 -0.08065401 0.2027742 255 0 255
0.008289295 -0.08038328 0.2028253 255 0 255
0.01969745 -0.1135742 0.2457951 255 0 255
0.02005295 -0.1091094 0.2403211 255 0 255
0.01930139 -0.08712197 0.2129581 255 0 255
0.01960217 -0.08391791 0.2090379 255 0 255
0.02466442 -0.08755301 0.2143711 255 0 255
0.02805897 -0.09903503 0.2291515 255 0 255
-0.1551509 -0.1944015 0.3177022 255 0 255
-0.09144516 -0.09729234 0.2075909 255 0 255
-0.08346048 -0.09329363 0.2037916 255 0 255
-0.07891726 -0.09336036 0.2045009 255 0 255
-0.07554155 -0.0938655 0.2055892 255 0 255
-0.06045849 -0.1203321 0.2401964 255 0 255
-0.06104184 -0.131919 0.2543352 255 0 255
-0.05013728 -0.1369058 0.2620608 255 0 255
-0.03936962 -0.1339165 0.2599923 255 0 255
-0.01537434 -0.0980207 0.2195164 255 0 255
-0.008694998 -0.08693705 0.2069234 255 0 255
-0.003699861 -0.08595981 0.2065008 255 0 255
0.0006072611 -0.09064783 0.2129407 255 0 255
0.002327316 -0.09048831 0.213016 255 0 255
0.003219425 -0.0910334 0.2138271 255 0 255
0.02193385 -0.08294623 0.2068914 255 0 255
-0.0944678 -0.1015207 0.2108651 255 0 255
-0.08625162 -0.09415404 0.203052 255 0 255
-0.08505519 -0.09368575 0.2026486 255 0 255
-0.08337824 -0.09397663 0.2032339 255 0 255
-0.07514364 -0.09392334 0.2043174 255 0 255
-0.07261147 -0.09427724 0.2051036 255 0 255
-0.06808278 -0.09618075 0.2080591 255 0 255
-0.06570464 -0.09909072 0.2119378 255 0 255
-0.06446449 -0.1005365 0.2138744 255 0 255
-0.05399573 -0.1357126 0.2582301 255 0 255
-0.02170118 -0.1078382 0.2290895 255 0 255
-0.01224839 -0.09286093 0.2122743 255 0 255
-0.01128225 -0.09090674 0.2100402 255 0 255
-0.00361801 -0.08723485 0.2067506 255 0 255
-0.001080942 -0.08893143 0.2092158 255 0 255
0.00330381 -0.09170128 0.2132817 255 0 255
0.005451361 -0.08513661 0.2056152 255 0 255
0.00758669 -0.08109266 0.201022 255 0 255
0.01046174 -0.08520185 0.2064891 255 0 255
0.0169433 -0.108547 0.2359866 255 0 255
0.01957661 -0.08906592 0.2126589 255 0 255
-0.08580925 -0.09421682 0.2017926 255 0 255
-0.08176572 -0.09355421 0.2015575 255 0 255
-0.07842232 -0.09409548 0.2026783 255 0 255
-0.07590296 -0.09447749 0.2034934 255 0 255
-0.07138233 -0.09443904 0.204086 255 0 255
-0.07083518 -0.09517974 0.2050573 255 0 255
-0.06857251 -0.09613124 0.2065272 255 0 255
-0.06561897 -0.09978835 0.2113635 255 0 255
-0.05721367 -0.1364288 0.2568434 255 0 255
-0.04401064 -0.1375153 0.2601109 255 0 255
-0.04275488 -0.1368919 0.2595444 255 0 255
-0.04150632 -0.1362654 0.2589734 255 0 255
-0.03693237 -0.1356539 0.2589189 255 0 255
-0.03459978 -0.1350097 0.2584904 255 0 255
-0.01421034 -0.09809061 0.2169315 255 0 255
-0.01223993 -0.0948065 0.2132612 255 0 255
-0.01037736 -0.09215637 0.2103417 255 0 255
-0.006896215 -0.08939296 0.2075358 255 0 255
0.00566626 -0.08767104 0.2074107 255 0 255
0.007180293 -0.08559284 0.205135 255 0 255
0.01518392 -0.1025086 0.2268604 255 0 255
0.01944746 -0.1121728 0.2392262 255 0 255
-0.0869244 -0.09536525 0.2016255 255 0 255
-0.08572613 -0.09489449 0.2012303 255 0 255
-0.0813387 -0.09360129 0.2002993 255 0 255
-0.07750068 -0.09489905 0.2023931 255 0 255
-0.07075173 -0.09585548 0.2044965 255 0 255
-0.06760897 -0.09891939 0.2086147 255 0 255
-0.06403273 -0.101305 0.2119863 255 0 255
-0.06365728 -0.1026691 0.2136745 255 0 255
-0.05951207 -0.1378194 0.2564035 255 0 255
-0.05710578 -0.1372929 0.2561261 255 0 255
-0.05488938 -0.1373969 0.2565773 255 0 255
-0.05028494 -0.1369258 0.2566929 255 0 255
-0.04933487 -0.1376052 0.2576485 255 0 255
-0.02996079 -0.1351822 0.2576398 255 0 255
-0.02575351 -0.1280357 0.2497017 255 0 255
-0.02376965 -0.1202819 0.2406992 255 0 255
-0.01730772 -0.1046791 0.22296 255 0 255
-0.01416882 -0.09941896 0.2171272 255 0 255
-0.01029395 -0.09281455 0.2097954 255 0 255
-0.006814229 -0.09003895 0.2069996 255 0 255
-0.005121106 -0.08864097 0.205583 255 0 255
-0.004290316 -0.08922022 0.2064064 255 0 255
-0.001770288 -0.08966239 0.2073268 255 0 255
-0.0009296492 -0.08959192 0.2073725 255 0 255
-3.615366E-05 -0.09143551 0.2097234 255 0 255
0.003439561 -0.09239316 0.2114131 255 0 255
0.004187678 -0.0903969 0.2091344 255 0 255
0.00710225 -0.08432008 0.2022983 255 0 255
0.007857495 -0.0835938 0.2015452 255 0 255
0.0200427 -0.08711945 0.2076985 255 0 255
-0.09383062 -0.1030518 0.2083907 255 0 255
-0.08841051 -0.09713786 0.2021361 255 0 255
-0.08600114 -0.09619595 0.2013578 255 0 255
-0.07959364 -0.09454376 0.2003029 255 0 255
-0.06282936 -0.1087601 0.2195993 255 0 255
-0.06285874 -0.1114112 0.2227465 255 0 255
-0.06262165 -0.1134201 0.2251691 255 0 255
-0.05588958 -0.1382077 0.2556326 255 0 255
-0.0525613 -0.1383509 0.2562945 255 0 255
-0.04811303 -0.1385002 0.2571313 255 0 255
-0.04267203 -0.1392676 0.258854 255 0 255
-0.04142025 -0.1386354 0.2582885 255 0 255
-0.02994469 -0.136681 0.2576839 255 0 255
-0.02588998 -0.1307956 0.2512912 255 0 255
-0.02047129 -0.1100118 0.2273739 255 0 255
-0.01721743 -0.1053893 0.2223656 255 0 255
-0.01618652 -0.1040603 0.2209405 255 0 255
-0.0140815 -0.1001051 0.216553 255 0 255
-0.01310494 -0.09877133 0.2151143 255 0 255
-0.01113238 -0.0948084 0.2106981 255 0 255
-0.008434404 -0.09143545 0.2070958 255 0 255
-0.002534949 -0.08973154 0.2059739 255 0 255
0.006468566 -0.08630864 0.2032938 255 0 255
0.007128651 -0.08430363 0.2010101 255 0 255
0.01167859 -0.08827848 0.2064514 255 0 255
0.0246946 -0.08898471 0.2093414 255 0 255
-0.0929959 -0.1025095 0.2064227 255 0 255
-0.08953872 -0.09828739 0.2019409 255 0 255
-0.0851999 -0.09561395 0.1994081 255 0 255
-0.08200201 -0.09479292 0.1988957 255 0 255
-0.08151617 -0.09556565 0.199875 255 0 255
-0.07617187 -0.09573304 0.2008355 255 0 255
-0.07396683 -0.0967385 0.2023365 255 0 255
-0.0722772 -0.09697392 0.2028567 255 0 255
-0.06917331 -0.09805688 0.2045802 255 0 255
-0.06535924 -0.1018672 0.2096242 255 0 255
-0.06373484 -0.1047152 0.2132184 255 0 255
-0.06273792 -0.1094846 0.2189882 255 0 255
-0.06299681 -0.1154565 0.2259941 255 0 255
-0.06221372 -0.124817 0.2371501 255 0 255
-0.06302746 -0.140642 0.2557003 255 0 255
-0.05245233 -0.1392097 0.25557 255 0 255
-0.04592149 -0.1400668 0.2575507 255 0 255
-0.04256229 -0.1401304 0.2581262 255 0 255
-0.03560594 -0.1388761 0.2576854 255 0 255
-0.02753024 -0.1368447 0.2565007 255 0 255
-0.02602386 -0.1335708 0.2528623 255 0 255
-0.02051412 -0.1120403 0.2282732 255 0 255
-0.01712692 -0.1060971 0.2217686 255 0 255
-0.009295382 -0.09472284 0.2095285 255 0 255
-0.005800066 -0.09062022 0.205218 255 0 255
9.410003E-05 -0.09144882 0.2071006 255 0 255
0.02015427 -0.1105049 0.2327118 255 0 255
0.02482913 -0.09418754 0.2141812 255 0 255
-0.1825687 -0.2450404 0.3587641 255 0 255
-0.09290729 -0.1032115 0.2058261 255 0 255
-0.08945265 -0.09896912 0.2013616 255 0 255
-0.08630919 -0.09676126 0.1992303 255 0 255
-0.08511551 -0.09628178 0.1988405 255 0 255
-0.06707451 -0.1003275 0.2061706 255 0 255
-0.06362469 -0.1154738 0.224395 255 0 255
-0.06451091 -0.1394073 0.2522756 255 0 255
-0.06444654 -0.1427338 0.2561788 255 0 255
-0.06140253 -0.1402733 0.2537468 255 0 255
-0.05234294 -0.1400656 0.2548422 255 0 255
-0.03908741 -0.1410274 0.2579406 255 0 255
-0.03336575 -0.1403758 0.2580339 255 0 255
-0.01920513 -0.1101315 0.2247404 255 0 255
-0.01714787 -0.1081074 0.2226803 255 0 255
-0.01309179 -0.1027317 0.2169976 255 0 255
-0.003207665 -0.09107222 0.2048437 255 0 255
0.003658221 -0.09371498 0.2089909 255 0 255
0.0044374 -0.09233782 0.2074974 255 0 255
0.008153847 -0.08608747 0.2007481 255 0 255
0.01079865 -0.0877267 0.2030763 255 0 255
0.01457244 -0.09766964 0.2153058 255 0 255
0.02244416 -0.09132028 0.209092 255 0 255
0.02565634 -0.0940775 0.2128219 255 0 255
-0.08862886 -0.09838279 0.1994178 255 0 255
-0.08266222 -0.09597218 0.1974804 255 0 255
-0.07734658 -0.09616153 0.1984672 255 0 255
-0.07126073 -0.09842321 0.2019737 255 0 255
-0.05998863 -0.1405402 0.2525239 255 0 255
-0.05630174 -0.1394108 0.2517572 255 0 255
-0.04613694 -0.1437514 0.2583072 255 0 255
-0.03007137 -0.1425087 0.2592639 255 0 255
-0.02780996 -0.1424706 0.2595591 255 0 255
-0.02086332 -0.1187489 0.2330404 255 0 255
-0.01716706 -0.1101272 0.2235791 255 0 255
-0.007341601 -0.09330986 0.205523 255 0 255
-0.0006150745 -0.09150198 0.2044448 255 0 255
0.000260004 -0.09273089 0.2060062 255 0 255
0.00676108 -0.08882722 0.2024635 255 0 255
0.008921089 -0.08531636 0.198715 255 0 255
0.01995539 -0.1094127 0.2284105 255 0 255
0.02228623 -0.09069003 0.2070178 255 0 255
-0.112287 -0.1340468 0.2356748 255 0 255
-0.09697843 -0.1101475 0.2103849 255 0 255
-0.08140282 -0.09613448 0.1965121 255 0 255
-0.07171985 -0.09832574 0.2004437 255 0 255
-0.06439786 -0.1283345 0.236082 255 0 255
-0.06470488 -0.1323467 0.2406592 255 0 255
-0.05858183 -0.1407951 0.2512977 255 0 255
-0.05637604 -0.1409121 0.251759 255 0 255
-0.05134036 -0.1431279 0.2550592 255 0 255
-0.0494135 -0.1445216 0.2569515 255 0 255
-0.04136848 -0.1440354 0.2575889 255 0 255
-0.02926139 -0.1466451 0.2624068 255 0 255
-0.01495548 -0.1074728 0.2194014 255 0 255
0.001187668 -0.0932931 0.2054964 255 0 255
0.004643513 -0.09427255 0.2071508 255 0 255
0.01000425 -0.08777479 0.2004774 255 0 255
0.01843642 -0.105751 0.2224874 255 0 255
0.02560548 -0.09873863 0.2155048 255 0 255
-0.08414539 -0.09699 0.1957628 255 0 255
