ply
format ascii 1.0
Comment Generated by Floating Hands
element vertex 1137
property double x
property double y
property double z
property uchar red
property uchar green
property uchar blue
end_header
0.1093268 -0.0414239 0.3222282 255 0 255
0.1107911 -0.04149488 0.3228352 255 0 255
0.1122615 -0.04156179 0.3234363 255 0 255
0.1167084 -0.04173767 0.3252039 255 0 255
0.1323003 -0.0385512 0.3215773 255 0 255
0.1354204 -0.03739369 0.3195526 255 0 255
0.1369469 -0.03738843 0.3200482 255 0 255
0.0661587 -0.05737465 0.3517591 255 0 255
0.07007887 -0.05413863 0.3436837 255 0 255
0.07110924 -0.050863 0.3349869 255 0 255
0.06978198 -0.04576416 0.3208898 255 0 255
0.06886218 -0.04166497 0.3095886 255 0 255
0.06642553 -0.03494402 0.2908773 255 0 255
0.06128928 -0.02364316 0.2592085 255 0 255
0.09803253 -0.04363549 0.3215765 255 0 255
0.1146826 -0.04224229 0.3223957 255 0 255
0.1176516 -0.04235663 0.3235579 255 0 255
0.1200953 -0.04332245 0.3268244 255 0 255
0.1315683 -0.04030708 0.3224147 255 0 255
0.1351349 -0.03827015 0.3182502 255 0 255
0.1362872 -0.03797688 0.3178647 255 0 255
0.1374378 -0.03768099 0.3174752 255 0 255
0.05711893 -0.01226446 0.2252013 255 0 255
0.1044952 -0.04434366 0.3216322 255 0 255
0.1062714 -0.04326079 0.3192547 255 0 255
0.1077214 -0.04334721 0.319872 255 0 255
0.1088861 -0.04311554 0.3195798 255 0 255
0.1144496 -0.04309589 0.3210712 255 0 255
0.1275762 -0.04589321 0.3321734 255 0 255
0.1288124 -0.04293196 0.32486 255 0 255
0.1332663 -0.04031237 0.3194695 255 0 255
0.1352163 -0.03943414 0.3178271 255 0 255
0.06454767 -0.0590025 0.3481926 255 0 255
0.06756506 -0.06294807 0.3591967 255 0 255
0.06977877 -0.0616336 0.3560954 255 0 255
0.07063399 -0.06046534 0.3531485 255 0 255
0.07130608 -0.05895818 0.3492727 255 0 255
0.07322388 -0.05729704 0.3452254 255 0 255
0.07420406 -0.05394842 0.3365431 255 0 255
0.07490897 -0.05278084 0.3335901 255 0 255
0.07540786 -0.05127779 0.3297121 255 0 255
0.06741415 -0.02892908 0.2690402 255 0 255
0.09267079 -0.04062399 0.3054988 255 0 255
0.09713217 -0.04464009 0.3170899 255 0 255
0.1072153 -0.04386045 0.3176406 255 0 255
0.1098248 -0.04371362 0.3179578 255 0 255
0.1109836 -0.04347713 0.3176589 255 0 255
0.1171728 -0.04407069 0.3209066 255 0 255
0.122079 -0.04605322 0.327411 255 0 255
0.1321845 -0.0417665 0.3194142 255 0 255
0.1383528 -0.04060192 0.3183804 255 0 255
0.07311389 -0.05818795 0.3438382 255 0 255
0.07532278 -0.05464796 0.3349914 255 0 255
0.07619392 -0.0538078 0.3329635 255 0 255
0.07611781 -0.05127222 0.3263229 255 0 255
0.07638443 -0.04722835 0.3158172 255 0 255
0.07635476 -0.04504255 0.3101083 255 0 255
0.07486848 -0.04050283 0.2979647 255 0 255
0.07348777 -0.03631118 0.2867531 255 0 255
0.1049079 -0.04697608 0.3216785 255 0 255
0.1064083 -0.04555274 0.3184026 255 0 255
0.108442 -0.04477048 0.3169239 255 0 255
0.1113527 -0.04494041 0.3181305 255 0 255
0.1196864 -0.04624066 0.3237263 255 0 255
0.1218337 -0.04692636 0.3260741 255 0 255
0.1246511 -0.04823324 0.3301957 255 0 255
0.1314536 -0.04352459 0.320233 255 0 255
0.1334262 -0.04264399 0.3186056 255 0 255
0.134222 -0.04204869 0.3173479 255 0 255
0.1353774 -0.04175648 0.3169671 255 0 255
0.06839909 -0.06725543 0.3628589 255 0 255
0.0712598 -0.06110523 0.347407 255 0 255
0.07625075 -0.05499288 0.3325136 255 0 255
0.07898098 -0.0505719 0.3216394 255 0 255
0.07080835 -0.01651196 0.2323638 255 0 255
0.099068 -0.04922396 0.3225893 255 0 255
0.1027635 -0.05044478 0.3265909 255 0 255
0.1215874 -0.04779033 0.3247353 255 0 255
0.1268149 -0.04857055 0.3281542 255 0 255
0.1291907 -0.04525749 0.3205224 255 0 255
0.1381397 -0.0426272 0.3166322 255 0 255
0.06095466 -0.05651656 0.3302563 255 0 255
0.07025313 -0.06615008 0.3564944 255 0 255
0.07131599 -0.06234506 0.3469305 255 0 255
0.07454832 -0.0578861 0.3361012 255 0 255
0.07857295 -0.0555004 0.3307661 255 0 255
0.08404918 -0.05360172 0.3270151 255 0 255
0.08525573 -0.0534214 0.3268041 255 0 255
0.09123909 -0.04339816 0.3026887 255 0 255
0.09641886 -0.04857562 0.3169627 255 0 255
0.1047654 -0.04895241 0.3198974 255 0 255
0.1077078 -0.0476073 0.317246 255 0 255
0.1152858 -0.0468227 0.3172316 255 0 255
0.116762 -0.04689703 0.3178081 255 0 255
0.127087 -0.04853008 0.3246851 255 0 255
0.130901 -0.04522829 0.317586 255 0 255
0.07000506 -0.06671663 0.3541532 255 0 255
0.07057191 -0.0618161 0.3418405 255 0 255
0.08087745 -0.0559888 0.3290034 255 0 255
0.08410806 -0.05476627 0.3265627 255 0 255
0.0864002 -0.05214635 0.3204447 255 0 255
0.1039294 -0.05065976 0.32063 255 0 255
0.1063257 -0.04864288 0.3161922 255 0 255
0.1135783 -0.04755558 0.3153144 255 0 255
0.1189522 -0.04877103 0.319713 255 0 255
0.1242287 -0.05117818 0.3270445 255 0 255
0.1266353 -0.05063279 0.3263506 255 0 255
0.1281701 -0.0478684 0.3199845 255 0 255
0.1289968 -0.04726865 0.3187447 255 0 255
0.1306232 -0.04606639 0.3162598 255 0 255
0.1359844 -0.04554046 0.3165172 255 0 255
0.06712046 -0.06756036 0.3521234 255 0 255
0.06933047 -0.06956483 0.3575003 255 0 255
0.08195087 -0.05663417 0.327429 255 0 255
0.08437644 -0.05627929 0.3270184 255 0 255
0.09764121 -0.0541347 0.3244719 255 0 255
0.1022852 -0.05486 0.3273026 255 0 255
0.103354 -0.05271223 0.3222532 255 0 255
0.1055106 -0.05034226 0.3169266 255 0 255
0.1078422 -0.04988344 0.3163584 255 0 255
0.1148043 -0.0484443 0.3145599 255 0 255
0.1187057 -0.04959613 0.3183717 255 0 255
0.1214869 -0.05098618 0.3224827 255 0 255
0.1270441 -0.05214627 0.3267703 255 0 255
0.05583676 -0.04319818 0.2863733 255 0 255
0.06369597 -0.0601188 0.329527 255 0 255
0.08059518 -0.05761707 0.3262515 255 0 255
0.09071203 -0.05685874 0.3263669 255 0 255
0.09525974 -0.05961304 0.3340569 255 0 255
0.09699957 -0.05620014 0.3260705 255 0 255
0.1037867 -0.05261377 0.3188246 255 0 255
0.111646 -0.04905628 0.3120522 255 0 255
0.1160293 -0.04932764 0.3137975 255 0 255
0.1184582 -0.05041202 0.3170287 255 0 255
0.1237258 -0.05288572 0.3243397 255 0 255
0.1319341 -0.04808034 0.3149883 255 0 255
0.0553298 -0.04005282 0.2757435 255 0 255
0.06757461 -0.06429811 0.3370332 255 0 255
0.06930456 -0.0652472 0.3396321 255 0 255
0.08145806 -0.05788563 0.3237642 255 0 255
0.08266082 -0.05771063 0.3235631 255 0 255
0.08407276 -0.05789063 0.324268 255 0 255
0.08527734 -0.05770965 0.3240582 255 0 255
0.1000046 -0.06356229 0.3412096 255 0 255
0.1009442 -0.05707673 0.3257314 255 0 255
0.1018899 -0.05650861 0.3245662 255 0 255
0.103214 -0.0546733 0.3204333 255 0 255
0.1047511 -0.05318462 0.3171941 255 0 255
0.1088468 -0.05157462 0.3142708 255 0 255
0.1114092 -0.04983615 0.3107128 255 0 255
0.1182098 -0.05121872 0.3156841 255 0 255
0.1294289 -0.05234752 0.3212393 255 0 255
0.1366305 -0.0480549 0.3130253 255 0 255
0.07107722 -0.06431533 0.3342389 255 0 255
0.07481508 -0.06112755 0.3271575 255 0 255
0.07548435 -0.05987168 0.3242408 255 0 255
0.0763173 -0.05898076 0.3222356 255 0 255
0.07851992 -0.0582876 0.3209532 255 0 255
0.08729877 -0.05777271 0.3213452 255 0 255
0.09014497 -0.05811051 0.3227109 255 0 255
0.09883825 -0.05902928 0.3266765 255 0 255
0.1010084 -0.05824369 0.3252571 255 0 255
0.1048157 -0.05432079 0.3167326 255 0 255
0.1077513 -0.05293569 0.3141014 255 0 255
0.1155364 -0.05090224 0.3111158 255 0 255
0.1176414 -0.05167494 0.3134537 255 0 255
0.1304673 -0.05160978 0.3165424 255 0 255
0.06611499 -0.05984728 0.3194318 255 0 255
0.07311451 -0.0640825 0.3306756 255 0 255
0.07399989 -0.06318569 0.3286785 255 0 255
0.08855163 -0.05872719 0.3206549 255 0 255
0.09404236 -0.05902696 0.322439 255 0 255
0.09524292 -0.05882322 0.322197 255 0 255
0.09864917 -0.05984037 0.3252967 255 0 255
0.09960535 -0.05926833 0.3241412 255 0 255
0.1288879 -0.0540035 0.3185374 255 0 255
0.1309988 -0.05180122 0.3139631 255 0 255
0.1364092 -0.05000614 0.3112297 255 0 255
0.137935 -0.05003733 0.3117107 255 0 255
0.07052445 -0.06518817 0.329607 255 0 255
0.07438237 -0.0623281 0.3234663 255 0 255
0.08459218 -0.05969005 0.3190184 255 0 255
0.08838397 -0.0595016 0.3192776 255 0 255
0.1034061 -0.05811043 0.3190205 255 0 255
0.1084563 -0.05424267 0.3111081 255 0 255
0.1096096 -0.054007 0.3108181 255 0 255
0.1113029 -0.05282448 0.3084562 255 0 255
0.1150399 -0.05244023 0.3084282 255 0 255
0.1289611 -0.0551602 0.3180577 255 0 255
0.1302624 -0.05356824 0.3147231 255 0 255
0.06611684 -0.05892799 0.3110481 255 0 255
0.06958682 -0.06408606 0.32365 255 0 255
0.0713066 -0.06507092 0.3262203 255 0 255
0.07672019 -0.06036142 0.3160933 255 0 255
0.09177318 -0.05968711 0.3172204 255 0 255
0.1001583 -0.06027609 0.3202292 255 0 255
0.1028154 -0.06020015 0.3205946 255 0 255
0.1037407 -0.05961414 0.3194324 255 0 255
0.1064953 -0.05618023 0.3120963 255 0 255
0.125482 -0.05715044 0.318623 255 0 255
0.1270057 -0.05722247 0.3191515 255 0 255
0.1369337 -0.05261287 0.3111483 255 0 255
0.07559104 -0.06164084 0.3157978 255 0 255
0.07893444 -0.06076966 0.3143411 255 0 255
0.08031322 -0.06097725 0.3150533 255 0 255
0.08169869 -0.06118109 0.3157604 255 0 255
0.08287977 -0.06100536 0.31556 255 0 255
0.09041256 -0.06063952 0.316072 255 0 255
0.09825347 -0.06053105 0.3173193 255 0 255
0.1096857 -0.05455495 0.3060523 255 0 255
0.1137163 -0.05454606 0.306921 255 0 255
0.114856 -0.05429812 0.3066142 255 0 255
0.1212124 -0.05672485 0.313556 255 0 255
0.1300546 -0.05550425 0.3128916 255 0 255
0.1323792 -0.05492921 0.3121659 255 0 255
0.1331751 -0.05429248 0.3109321 255 0 255
0.1343296 -0.05399926 0.3105607 255 0 255
0.1377826 -0.0531037 0.3094232 255 0 255
0.066548 -0.05904573 0.3054239 255 0 255
0.07368238 -0.066685 0.32399 255 0 255
0.07435983 -0.06537522 0.3210998 255 0 255
0.08346982 -0.06080792 0.3121745 255 0 255
0.08463793 -0.06062829 0.3119685 255 0 255
0.08602758 -0.06082373 0.3126573 255 0 255
0.09093841 -0.06044114 0.3126722 255 0 255
0.0941939 -0.05946995 0.311075 255 0 255
0.09831394 -0.06166295 0.3168327 255 0 255
0.1038664 -0.0618986 0.318456 255 0 255
0.1051331 -0.05997141 0.3143577 255 0 255
0.1163802 -0.05550706 0.3067081 255 0 255
0.1199707 -0.05642601 0.3095723 255 0 255
0.1224482 -0.05759003 0.3127394 255 0 255
0.1252885 -0.05910052 0.3167667 255 0 255
0.1271483 -0.05953471 0.3181653 255 0 255
0.1288317 -0.05826479 0.3157221 255 0 255
0.12966 -0.05762839 0.3144979 255 0 255
0.1304793 -0.05699112 0.313272 255 0 255
0.132091 -0.05571387 0.3108151 255 0 255
0.1328834 -0.05507401 0.3095843 255 0 255
0.1336669 -0.05443334 0.3083519 255 0 255
0.05042353 -0.02401085 0.2207866 255 0 255
0.07844058 -0.06183634 0.3106767 255 0 255
0.08214321 -0.06170679 0.3109968 255 0 255
0.08425454 -0.06096895 0.3096923 255 0 255
0.0907574 -0.06117236 0.3112952 255 0 255
0.09357931 -0.061532 0.3126176 255 0 255
0.09400255 -0.06019852 0.3097024 255 0 255
0.1000819 -0.06332818 0.3178664 255 0 255
0.102068 -0.06423225 0.3202728 255 0 255
0.1035391 -0.06438255 0.3208941 255 0 255
0.1069732 -0.05818398 0.3077293 255 0 255
0.1083752 -0.05661242 0.3045157 255 0 255
0.1095102 -0.05637642 0.3042275 255 0 255
0.1161253 -0.05624599 0.305355 255 0 255
0.1218536 -0.05799839 0.3105058 255 0 255
0.07135211 -0.06638988 0.3168314 255 0 255
0.0773266 -0.06309877 0.3103797 255 0 255
0.07829251 -0.06254461 0.3092949 255 0 255
0.08177348 -0.06203293 0.3087181 255 0 255
0.08271648 -0.06147107 0.3076212 255 0 255
0.09314539 -0.06188074 0.3103469 255 0 255
0.09405994 -0.06129834 0.3092191 255 0 255
0.09791955 -0.0631624 0.3140682 255 0 255
0.1087354 -0.05807152 0.3049176 255 0 255
0.1152283 -0.05624311 0.3022536 255 0 255
0.1166794 -0.05635672 0.3028155 255 0 255
0.1212577 -0.05839046 0.308274 255 0 255
0.1234156 -0.05921304 0.3105518 255 0 255
0.1286267 -0.06019204 0.3138588 255 0 255
0.1307172 -0.05790097 0.3093325 255 0 255
0.1353505 -0.05537278 0.3049147 255 0 255
0.07640334 -0.06475 0.3109733 255 0 255
0.07737798 -0.06419357 0.3098929 255 0 255
0.09295631 -0.06259777 0.3089678 255 0 255
0.1070963 -0.0603808 0.3067596 255 0 255
0.1084986 -0.05878629 0.3035564 255 0 255
0.1149712 -0.05695669 0.3009012 255 0 255
0.1307871 -0.05902249 0.3088359 255 0 255
0.1350458 -0.05612464 0.3035688 255 0 255
0.07211448 -0.06727431 0.3129683 255 0 255
0.074664 -0.06735994 0.3135284 255 0 255
0.07839539 -0.06472448 0.3083206 255 0 255
0.08309828 -0.06189274 0.3028761 255 0 255
0.08650972 -0.06134904 0.3022535 255 0 255
0.09252044 -0.06291737 0.3066995 255 0 255
0.0953336 -0.06328727 0.3079996 255 0 255
0.09947842 -0.065569 0.3137029 255 0 255
0.1045395 -0.06330923 0.3097359 255 0 255
0.106866 -0.06109636 0.3053902 255 0 255
0.1074222 -0.0601048 0.3033541 255 0 255
0.1082609 -0.05949194 0.3021941 255 0 255
0.1172805 -0.05752819 0.2997963 255 0 255
0.1218712 -0.05960208 0.3052229 255 0 255
0.1269019 -0.06200977 0.3114687 255 0 255
0.1316511 -0.05948858 0.3071152 255 0 255
0.1324368 -0.05883444 0.305894 255 0 255
0.07370985 -0.06902549 0.3140955 255 0 255
0.07631186 -0.06654105 0.3090875 255 0 255
0.07728311 -0.06597746 0.3080112 255 0 255
0.08087031 -0.06331047 0.3027875 255 0 255
0.08293056 -0.06256421 0.3015 255 0 255
0.09927575 -0.06629745 0.3123125 255 0 255
0.1147755 -0.0587335 0.2990621 255 0 255
0.1162209 -0.05885817 0.299622 255 0 255
0.1332827 -0.0592848 0.3041715 255 0 255
0.07007967 -0.06460867 0.3012039 255 0 255
0.0861529 -0.0626847 0.2995054 255 0 255
0.0872811 -0.06249896 0.2992921 255 0 255
0.08840829 -0.06231061 0.2990752 255 0 255
0.09090587 -0.06232161 0.299515 255 0 255
0.09253412 -0.06291435 0.3010543 255 0 255
0.09802595 -0.06544603 0.3073943 255 0 255
0.1032153 -0.06535417 0.3081208 255 0 255
0.1043787 -0.06512821 0.3078519 255 0 255
0.1046883 -0.06373449 0.3049495 255 0 255
0.107247 -0.06188115 0.3014949 255 0 255
0.1080822 -0.0612612 0.3003395 255 0 255
0.1195256 -0.06055231 0.3010944 255 0 255
0.1263499 -0.06350928 0.3087229 255 0 255
0.1297275 -0.06406808 0.3106048 255 0 255
0.130544 -0.06340759 0.3093911 255 0 255
0.1337204 -0.06075699 0.3045202 255 0 255
0.07199146 -0.06715033 0.3041311 255 0 255
0.08054704 -0.0646319 0.3000259 255 0 255
0.0812481 -0.06365096 0.2980536 255 0 255
0.08327316 -0.06289659 0.2967685 255 0 255
0.085742 -0.06293736 0.2972438 255 0 255
0.08822194 -0.06296541 0.2977016 255 0 255
0.08958747 -0.06317438 0.2983658 255 0 255
0.09208754 -0.06318252 0.2987961 255 0 255
0.1021089 -0.06667552 0.3078772 255 0 255
0.1078423 -0.06194298 0.2989726 255 0 255
0.1089682 -0.06170695 0.2986885 255 0 255
0.129444 -0.06481545 0.309228 255 0 255
0.1330079 -0.06252941 0.3052282 255 0 255
0.07393485 -0.06971126 0.3070329 255 0 255
0.07779321 -0.06742078 0.3027618 255 0 255
0.08038449 -0.06527887 0.2986438 255 0 255
0.0889111 -0.06301773 0.295226 255 0 255
0.1001916 -0.06679782 0.3049949 255 0 255
0.1146378 -0.06155068 0.2967158 255 0 255
0.1164067 -0.06207222 0.2981353 255 0 255
0.06059399 -0.04528242 0.2515803 255 0 255
0.076693 -0.06865011 0.3024391 255 0 255
0.07743982 -0.06765862 0.3004818 255 0 255
0.07909374 -0.06608666 0.2974502 255 0 255
0.08069812 -0.06451122 0.2944114 255 0 255
0.0818123 -0.06433789 0.2942168 255 0 255
0.08292548 -0.06416202 0.2940186 255 0 255
0.08491714 -0.06339406 0.2927284 255 0 255
0.08823328 -0.06283779 0.2920922 255 0 255
0.08933659 -0.06264733 0.2918729 255 0 255
0.1005835 -0.06645834 0.3016017 255 0 255
0.1034305 -0.06681497 0.3028245 255 0 255
0.1045716 -0.06476595 0.2988007 255 0 255
0.1057021 -0.06453688 0.2985282 255 0 255
0.1104023 -0.06217219 0.2945147 255 0 255
0.1175918 -0.06288277 0.2973198 255 0 255
0.1256247 -0.06425609 0.3016901 255 0 255
0.1346956 -0.06338749 0.3017608 255 0 255
0.08164097 -0.06495662 0.2928399 255 0 255
0.08275069 -0.06478106 0.2926425 255 0 255
0.09622004 -0.06471297 0.2946033 255 0 255
0.1012281 -0.06650053 0.2990879 255 0 255
0.1104606 -0.06322139 0.2940139 255 0 255
0.1158763 -0.06341697 0.2954042 255 0 255
0.1206764 -0.0627704 0.2950003 255 0 255
0.1224798 -0.06328272 0.2963836 255 0 255
0.1264779 -0.06467652 0.2999785 255 0 255
0.1290351 -0.06594282 0.3030384 255 0 255
0.1324764 -0.0650741 0.3019705 255 0 255
0.1332502 -0.06439613 0.3007605 255 0 255
0.1366604 -0.0634983 0.2996505 255 0 255
0.07544497 -0.07051456 0.3007098 255 0 255
0.07826732 -0.06876042 0.2975169 255 0 255
0.0825752 -0.06539099 0.2912658 255 0 255
0.08784781 -0.06406309 0.2893517 255 0 255
0.09003943 -0.06368099 0.2889132 255 0 255
0.09436872 -0.06473025 0.2917219 255 0 255
0.09905211 -0.06614812 0.2953496 255 0 255
0.1071744 -0.06498194 0.2943611 255 0 255
0.1079866 -0.06434456 0.293217 255 0 255
0.1116303 -0.06402554 0.2932177 255 0 255
0.1144947 -0.06432805 0.2943417 255 0 255
0.1203965 -0.06343433 0.2936369 255 0 255
0.136727 -0.06458569 0.2991272 255 0 255
0.06350112 -0.04973362 0.2545009 255 0 255
0.08483396 -0.06605355 0.290364 255 0 255
0.08570135 -0.06545191 0.2892798 255 0 255
0.08958738 -0.0638648 0.2866699 255 0 255
0.09526073 -0.06514034 0.2901112 255 0 255
0.09690248 -0.06575786 0.2916099 255 0 255
0.1021818 -0.06612577 0.2932019 255 0 255
0.1047013 -0.06608366 0.2935358 255 0 255
0.1055201 -0.06544673 0.2924 255 0 255
0.1102642 -0.06490945 0.2921399 255 0 255
0.1171127 -0.0652706 0.2940732 255 0 255
0.1333809 -0.06657175 0.2997078 255 0 255
0.136793 -0.06567093 0.2985996 255 0 255
0.07956216 -0.06837676 0.2917226 255 0 255
0.08575039 -0.06646668 0.2887798 255 0 255
0.09861405 -0.06553248 0.2888736 255 0 255
0.1227393 -0.06499993 0.2919584 255 0 255
0.07960937 -0.06939817 0.2912141 255 0 255
0.08469873 -0.06766251 0.288482 255 0 255
0.08689845 -0.06729378 0.2880661 255 0 255
0.09565446 -0.06571759 0.2862593 255 0 255
0.100862 -0.06611837 0.2878597 255 0 255
0.1067411 -0.06728729 0.2911005 255 0 255
0.1154586 -0.0668127 0.2916379 255 0 255
0.1168999 -0.0669642 0.2921833 255 0 255
0.1239085 -0.06577432 0.2911082 255 0 255
0.1275615 -0.06682025 0.2938089 255 0 255
0.1294076 -0.06733373 0.295147 255 0 255
0.1308995 -0.06744302 0.295636 255 0 255
0.1350309 -0.06734868 0.2962295 255 0 255
0.1361599 -0.06704672 0.2958594 255 0 255
0.07691802 -0.07222076 0.2938811 255 0 255
0.07944252 -0.06998482 0.2898258 255 0 255
0.08537419 -0.06763202 0.2860244 255 0 255
0.09543469 -0.06630251 0.2848883 255 0 255
0.1014317 -0.06607579 0.2853695 255 0 255
0.1044965 -0.06688207 0.2874213 255 0 255
0.110433 -0.0680213 0.2905933 255 0 255
0.1320888 -0.06821714 0.294745 255 0 255
0.07809193 -0.07308321 0.2931787 255 0 255
0.07879858 -0.07204098 0.2912454 255 0 255
0.08148578 -0.070218 0.2880577 255 0 255
0.08953285 -0.06744887 0.2837959 255 0 255
0.09251907 -0.06643044 0.2822566 255 0 255
0.0933291 -0.06580217 0.2811616 255 0 255
0.1003949 -0.06730317 0.2851151 255 0 255
0.1073507 -0.0682761 0.288072 255 0 255
0.1171253 -0.06755076 0.2882802 255 0 255
0.1211152 -0.06758478 0.2890245 255 0 255
0.1236745 -0.06745246 0.2892148 255 0 255
0.1262423 -0.06730613 0.2893862 255 0 255
0.1280751 -0.06783625 0.2907224 255 0 255
0.134779 -0.06908891 0.294317 255 0 255
0.07508633 -0.07267146 0.2895099 255 0 255
0.0806451 -0.07183838 0.2886041 255 0 255
0.08153236 -0.07122557 0.2875411 255 0 255
0.08390932 -0.06894252 0.2834701 255 0 255
0.08958118 -0.06844364 0.2832861 255 0 255
0.09040978 -0.0678163 0.2822004 255 0 255
0.09987408 -0.06745508 0.2828844 255 0 255
0.1099185 -0.06924231 0.2878392 255 0 255
0.1116532 -0.0698406 0.2892531 255 0 255
0.1222773 -0.06834925 0.2881719 255 0 255
0.12338 -0.06807713 0.2878446 255 0 255
0.1259411 -0.06793519 0.288017 255 0 255
0.1325882 -0.06923418 0.2916376 255 0 255
0.1340839 -0.06934255 0.2921089 255 0 255
0.07797753 -0.0746889 0.2912506 255 0 255
0.08804612 -0.06875385 0.2812615 255 0 255
0.09020171 -0.06836912 0.2808261 255 0 255
0.09747841 -0.06845058 0.2820093 255 0 255
0.09855905 -0.06823724 0.2817628 255 0 255
0.1023814 -0.06843989 0.2827108 255 0 255
0.1068476 -0.06946348 0.2853192 255 0 255
0.1143754 -0.06927552 0.2861424 255 0 255
0.1162334 -0.06834599 0.2846929 255 0 255
0.1194397 -0.06908194 0.2865993 255 0 255
0.1341451 -0.07039768 0.2915642 255 0 255
0.08314407 -0.07154553 0.2835055 255 0 255
0.08400191 -0.07092186 0.2824406 255 0 255
0.09106559 -0.06871716 0.2792295 255 0 255
0.09347524 -0.06875571 0.2796335 255 0 255
0.09860899 -0.06922869 0.281245 255 0 255
0.1024325 -0.06943721 0.28219 255 0 255
0.1076857 -0.06980826 0.2836667 255 0 255
0.1104963 -0.07018502 0.2847986 255 0 255
0.1151961 -0.0696154 0.2844674 255 0 255
0.1162884 -0.06935974 0.284164 255 0 255
0.1286286 -0.06984899 0.2870966 255 0 255
0.1360907 -0.07197141 0.2923051 255 0 255
0.07653712 -0.07598616 0.2886235 255 0 255
0.08122585 -0.07333774 0.2842367 255 0 255
0.08428138 -0.07235538 0.2827835 255 0 255
0.08730501 -0.07135395 0.2813026 255 0 255
0.08921868 -0.07052797 0.2800137 255 0 255
0.09865849 -0.07021806 0.2807233 255 0 255
0.1102328 -0.07076422 0.2834212 255 0 255
0.1130611 -0.07113183 0.2845299 255 0 255
0.1152504 -0.07062736 0.2839342 255 0 255
0.1181119 -0.07096419 0.2850022 255 0 255
0.1231981 -0.07074118 0.2854003 255 0 255
0.129055 -0.071299 0.2873837 255 0 255
0.1357685 -0.07261378 0.2909233 255 0 255
0.07597187 -0.07562754 0.2854861 255 0 255
0.08060932 -0.07540937 0.2856261 255 0 255
0.0814932 -0.07478219 0.2845717 255 0 255
0.08710602 -0.07188892 0.2799192 255 0 255
0.0911598 -0.07067002 0.2781942 255 0 255
0.09491622 -0.07095332 0.2792166 255 0 255
0.1025333 -0.07142539 0.2811367 255 0 255
0.1050019 -0.07140846 0.2814568 255 0 255
0.121804 -0.07160848 0.2843486 255 0 255
0.1269099 -0.07135041 0.2846902 255 0 255
0.1324522 -0.07300948 0.2886141 255 0 255
0.07954664 -0.07657898 0.2852766 255 0 255
0.08823217 -0.07267705 0.2791816 255 0 255
0.09013298 -0.07183996 0.2778924 255 0 255
0.09659179 -0.07261711 0.2801559 255 0 255
0.09767467 -0.07240497 0.2799138 255 0 255
0.1022886 -0.07197363 0.2797572 255 0 255
0.1036674 -0.07218991 0.2803428 255 0 255
0.1089313 -0.07257482 0.2817888 255 0 255
0.1193182 -0.0727297 0.2836058 255 0 255
0.1269664 -0.07237113 0.2841424 255 0 255
0.1302772 -0.07307198 0.2859344 255 0 255
0.07890452 -0.07866643 0.2866431 255 0 255
0.0852707 -0.07467185 0.2801333 255 0 255
0.09393328 -0.07311545 0.2783932 255 0 255
0.1034185 -0.07273296 0.2789623 255 0 255
0.1075822 -0.07336842 0.2806846 255 0 255
0.1092958 -0.07401391 0.2820884 255 0 255
0.1150784 -0.07321222 0.2814753 255 0 255
0.1193722 -0.07374058 0.2830577 255 0 255
0.1244638 -0.07352066 0.2834317 255 0 255
0.1270223 -0.07338957 0.2835906 255 0 255
0.1318159 -0.07423314 0.2858495 255 0 255
0.1351798 -0.07491107 0.2875952 255 0 255
0.07894845 -0.07966655 0.2860947 255 0 255
0.07984985 -0.07903104 0.285051 255 0 255
0.08052365 -0.07793083 0.2831463 255 0 255
0.08227577 -0.07665413 0.2810491 255 0 255
0.08591834 -0.07454453 0.2776832 255 0 255
0.08832309 -0.0746258 0.2781186 255 0 255
0.09155939 -0.07403947 0.2774637 255 0 255
0.1042449 -0.07303899 0.2773191 255 0 255
0.1104398 -0.07476904 0.2812594 255 0 255
0.1115315 -0.07452334 0.2809735 255 0 255
0.1126219 -0.07427505 0.2806841 255 0 255
0.1162204 -0.07395506 0.280627 255 0 255
0.1314964 -0.0748314 0.2844666 255 0 255
0.134854 -0.07552043 0.2862096 255 0 255
0.07899209 -0.08066442 0.2855424 255 0 255
0.09026982 -0.07474776 0.2762989 255 0 255
0.09268182 -0.07480887 0.276702 255 0 255
0.09402619 -0.07506365 0.2773207 255 0 255
0.09998124 -0.07491411 0.277808 255 0 255
0.1007699 -0.07423972 0.2767138 255 0 255
0.1070621 -0.0744506 0.2779192 255 0 255
0.1177007 -0.07513509 0.2806015 255 0 255
0.120228 -0.07504691 0.2808076 255 0 255
0.1227641 -0.07494475 0.2809952 255 0 255
0.1253087 -0.07482853 0.2811642 255 0 255
0.1264014 -0.07454695 0.2808307 255 0 255
0.1311759 -0.07542054 0.2830833 255 0 255
0.07679862 -0.08199646 0.2853434 255 0 255
0.08492704 -0.07666412 0.2768112 255 0 255
0.08683921 -0.07582548 0.2755511 255 0 255
0.08923931 -0.07590804 0.2759773 255 0 255
0.09407206 -0.07603443 0.2767788 255 0 255
0.1008173 -0.07521192 0.2761712 255 0 255
0.1068009 -0.07497814 0.2765363 255 0 255
0.1095875 -0.07540393 0.2776534 255 0 255
0.1145683 -0.0753087 0.2781622 255 0 255
0.1235511 -0.07523 0.2792886 255 0 255
0.07704525 -0.08346624 0.2856385 255 0 255
0.08688292 -0.07678571 0.27501 255 0 255
0.08770688 -0.07612738 0.2739532 255 0 255
0.09519638 -0.07679578 0.2760006 255 0 255
0.09655056 -0.07704945 0.2766065 255 0 255
0.103313 -0.07619169 0.2759497 255 0 255
0.1043896 -0.07596258 0.2756878 255 0 255
0.1057716 -0.07618812 0.2762571 255 0 255
0.1082399 -0.07617112 0.2765468 255 0 255
0.1214245 -0.07677501 0.2793716 255 0 255
0.1225149 -0.07650217 0.2790515 255 0 255
0.1279698 -0.07671143 0.2801872 255 0 255
0.07821084 -0.08429328 0.2848952 255 0 255
0.08002291 -0.08299434 0.2828269 255 0 255
0.08308156 -0.07942934 0.2769649 255 0 255
0.08907358 -0.07736078 0.2740433 255 0 255
0.09147819 -0.07743744 0.274451 255 0 255
0.09281722 -0.0777054 0.2750698 255 0 255
0.09389357 -0.07750112 0.2748418 255 0 255
0.1012027 -0.07761344 0.2759111 255 0 255
0.1124979 -0.07778451 0.2776335 255 0 255
0.1146687 -0.07727876 0.277048 255 0 255
0.1160886 -0.07747586 0.277575 255 0 255
0.1182582 -0.07695292 0.2769664 255 0 255
0.1200362 -0.0775898 0.2783006 255 0 255
0.07846139 -0.08576787 0.2851762 255 0 255
0.0800654 -0.08397947 0.2822611 255 0 255
0.08505631 -0.07955008 0.2751694 255 0 255
0.08911705 -0.07831598 0.273495 255 0 255
0.09393817 -0.07846184 0.2742904 255 0 255
0.101249 -0.07858233 0.2753552 255 0 255
0.104484 -0.0779005 0.2745811 255 0 255
0.1094155 -0.07787865 0.2751566 255 0 255
0.1164752 -0.07891761 0.2778336 255 0 255
0.1179052 -0.07911243 0.2783524 255 0 255
0.1240664 -0.078665 0.2784111 255 0 255
0.1266139 -0.07855257 0.2785667 255 0 255
0.1291698 -0.07842584 0.2787035 255 0 255
0.1332109 -0.07843131 0.2792777 255 0 255
0.0131494 -0.09764261 0.2984093 255 0 255
0.02034534 -0.09899935 0.3011105 255 0 255
0.02156506 -0.09946672 0.3019795 255 0 255
0.08032364 -0.08544669 0.2825394 255 0 255
0.08316618 -0.08135451 0.2758544 255 0 255
0.08509873 -0.08050761 0.2746146 255 0 255
0.08916014 -0.07926896 0.2729428 255 0 255
0.09156584 -0.07935115 0.2733475 255 0 255
0.09371291 -0.07894531 0.2728975 255 0 255
0.0996372 -0.07882885 0.2733792 255 0 255
0.1031536 -0.0786273 0.2734525 255 0 255
0.1122696 -0.07928389 0.2756785 255 0 255
0.1183582 -0.07891811 0.2758345 255 0 255
0.121578 -0.07975393 0.2776639 255 0 255
0.122669 -0.07947981 0.2773446 255 0 255
0.1237585 -0.07920311 0.2770219 255 0 255
0.1332643 -0.07943463 0.2786977 255 0 255
0.01074652 -0.09972082 0.2994597 255 0 255
0.02525393 -0.1008971 0.3022193 255 0 255
0.02878494 -0.09922913 0.2995906 255 0 255
0.07875393 -0.08824151 0.2848677 255 0 255
0.08212052 -0.08249328 0.2754861 255 0 255
0.09455525 -0.07921342 0.2712756 255 0 255
0.09696925 -0.07926939 0.2716403 255 0 255
0.1021244 -0.07981479 0.273148 255 0 255
0.104273 -0.07935784 0.2726312 255 0 255
0.1134006 -0.08000644 0.2748201 255 0 255
0.1141488 -0.07928721 0.2737072 255 0 255
0.1180628 -0.07943516 0.2744456 255 0 255
0.123809 -0.08019055 0.2764454 255 0 255
0.1303667 -0.08012644 0.2772017 255 0 255
0.1329321 -0.07998402 0.2773088 255 0 255
0.01318205 -0.100732 0.2989126 255 0 255
0.01560006 -0.09967126 0.2972445 255 0 255
0.0179885 -0.09911004 0.2964208 255 0 255
0.0203805 -0.09955797 0.2973019 255 0 255
0.02761613 -0.1003214 0.2989945 255 0 255
0.03566415 -0.09684562 0.2936329 255 0 255
0.08518253 -0.08241589 0.2734937 255 0 255
0.1021695 -0.08077315 0.2725829 255 0 255
0.1040148 -0.07984065 0.2712405 255 0 255
0.1184561 -0.08087407 0.2746872 255 0 255
0.1253105 -0.08135622 0.2763491 255 0 255
0.1274897 -0.08078608 0.2756848 255 0 255
0.1296625 -0.08020552 0.2750064 255 0 255
0.00703098 -0.1043893 0.3023838 255 0 255
0.01200954 -0.1017848 0.2982628 255 0 255
0.01442561 -0.1012368 0.2974643 255 0 255
0.01801963 -0.1001371 0.2958086 255 0 255
0.02283788 -0.1015412 0.29841 255 0 255
0.02644665 -0.1014085 0.2983905 255 0 255
0.03366028 -0.1010661 0.2982487 255 0 255
0.03480496 -0.1004876 0.2973543 255 0 255
0.08134603 -0.08772097 0.2797739 255 0 255
0.08305882 -0.08373331 0.2733212 255 0 255
0.09223703 -0.08103061 0.2697763 255 0 255
0.09812555 -0.08095108 0.2702765 255 0 255
0.1114331 -0.08078077 0.2715046 255 0 255
0.119588 -0.08158113 0.2737995 255 0 255
0.1235488 -0.08169336 0.2744719 255 0 255
0.01203988 -0.1028195 0.2976405 255 0 255
0.01324311 -0.1028039 0.2976721 255 0 255
0.02405179 -0.1020181 0.296929 255 0 255
0.02884797 -0.1018246 0.2968804 255 0 255
0.03008792 -0.1022847 0.2977147 255 0 255
0.03495334 -0.1025481 0.2984452 255 0 255
0.03603691 -0.1014488 0.2966938 255 0 255
0.07887817 -0.09121107 0.2830992 255 0 255
0.08027317 -0.08887049 0.2793746 255 0 255
0.08116668 -0.08819703 0.2783499 255 0 255
0.08160298 -0.086529 0.275646 255 0 255
0.08224341 -0.08535804 0.2737803 255 0 255
0.08742647 -0.0839375 0.2719508 255 0 255
0.08850565 -0.08374485 0.2717421 255 0 255
0.09121182 -0.08217175 0.2694328 255 0 255
0.1044082 -0.08222392 0.2709259 255 0 255
0.1062413 -0.08127471 0.2695766 255 0 255
0.1076232 -0.08151612 0.2701271 255 0 255
0.1210705 -0.0827526 0.2737143 255 0 255
0.005793885 -0.1075326 0.3027693 255 0 255
0.007057542 -0.1070105 0.3019681 255 0 255
0.01203504 -0.1048932 0.2987213 255 0 255
0.01566921 -0.1048374 0.2988051 255 0 255
0.02891868 -0.1033724 0.2971101 255 0 255
0.03012151 -0.1033167 0.2970884 255 0 255
0.03132414 -0.1032581 0.297063 255 0 255
0.03378195 -0.1036507 0.2978542 255 0 255
0.03739887 -0.1034399 0.2977318 255 0 255
0.04129877 -0.07757479 0.2555781 255 0 255
0.07799181 -0.09286997 0.2835186 255 0 255
0.08228374 -0.08630831 0.2732042 255 0 255
0.08746756 -0.08488306 0.2713776 255 0 255
0.09365732 -0.08319518 0.2692474 255 0 255
0.0950003 -0.08347866 0.269846 255 0 255
0.1047566 -0.08365952 0.27117 255 0 255
0.1073525 -0.08198339 0.2687347 255 0 255
0.1108714 -0.0817338 0.2687229 255 0 255
0.1193344 -0.08304769 0.2718216 255 0 255
0.131661 -0.08378592 0.2744936 255 0 255
0.004429155 -0.1106807 0.3054716 255 0 255
0.0120481 -0.1064537 0.2989383 255 0 255
0.01327713 -0.1059139 0.2981185 255 0 255
0.01932337 -0.1047449 0.2965161 255 0 255
0.03126696 -0.1032432 0.2947295 255 0 255
0.03502231 -0.1046159 0.297185 255 0 255
0.04340098 -0.08406807 0.264328 255 0 255
0.07762157 -0.09284368 0.2812401 255 0 255
0.08035408 -0.09081048 0.2781932 255 0 255
0.08168349 -0.08844116 0.2744816 255 0 255
0.08232374 -0.08725628 0.2726244 255 0 255
0.08402742 -0.08588912 0.2705727 255 0 255
0.08510622 -0.0857043 0.2703754 255 0 255
0.09423966 -0.08512358 0.2703252 255 0 255
0.09559055 -0.0854086 0.2709204 255 0 255
0.09694788 -0.08568954 0.2715105 255 0 255
0.1091009 -0.08365611 0.2695146 255 0 255
0.1154596 -0.08384579 0.2705228 255 0 255
0.1186461 -0.08475775 0.2723464 255 0 255
0.1197301 -0.0844891 0.2720391 255 0 255
0.1211655 -0.08469462 0.2725334 255 0 255
0.1324149 -0.08399992 0.2727496 255 0 255
0.004295398 -0.1138547 0.3082086 255 0 255
0.01936738 -0.1068261 0.2975814 255 0 255
0.02176302 -0.1057035 0.2958954 255 0 255
0.02537461 -0.1055792 0.2958876 255 0 255
0.02894751 -0.1049031 0.2949959 255 0 255
0.03505664 -0.105646 0.2965489 255 0 255
0.03874307 -0.1059503 0.2972642 255 0 255
0.04460756 -0.1044793 0.2952689 255 0 255
0.04334722 -0.0738417 0.2458464 255 0 255
0.07766144 -0.09382085 0.2806371 255 0 255
0.07949181 -0.09245966 0.2786126 255 0 255
0.08646793 -0.08695813 0.2704249 255 0 255
0.08730099 -0.08626451 0.269392 255 0 255
0.08812539 -0.08556969 0.2683572 255 0 255
0.09026635 -0.08517775 0.2679337 255 0 255
0.1002329 -0.08598112 0.2702011 255 0 255
0.1045395 -0.08506913 0.269187 255 0 255
0.1112874 -0.08411027 0.2683731 255 0 255
0.1140931 -0.08457557 0.2694189 255 0 255
0.1212122 -0.08566206 0.2719372 255 0 255
0.1233805 -0.08510896 0.2713035 255 0 255
0.1317592 -0.08574899 0.2732899 255 0 255
0.006916787 -0.1138681 0.3059553 255 0 255
0.009552239 -0.1112024 0.3018133 255 0 255
0.01327194 -0.1106328 0.3010745 255 0 255
0.02301724 -0.1072196 0.296106 255 0 255
0.02543317 -0.1071335 0.296097 255 0 255
0.02778092 -0.105977 0.2943774 255 0 255
0.03013837 -0.1053394 0.2934906 255 0 255
0.0399873 -0.1069015 0.2965698 255 0 255
0.04361307 -0.1066459 0.2963903 255 0 255
0.04752546 -0.1079409 0.2987122 255 0 255
0.07811222 -0.0958214 0.2816969 255 0 255
0.08240273 -0.08914515 0.2714536 255 0 255
0.08542585 -0.08808558 0.2700415 255 0 255
0.08709306 -0.08669379 0.2679837 255 0 255
0.09297729 -0.08671103 0.2685622 255 0 255
0.09432237 -0.08700607 0.2691588 255 0 255
0.09890943 -0.08664935 0.2690394 255 0 255
0.1081153 -0.08579297 0.2686151 255 0 255
0.1105841 -0.0857942 0.2688746 255 0 255
0.1130624 -0.08578163 0.2691165 255 0 255
0.1141378 -0.08552615 0.2688277 255 0 255
0.124509 -0.08579225 0.2703825 255 0 255
0.1259572 -0.08598831 0.2708538 255 0 255
0.1307152 -0.0870258 0.2730271 255 0 255
0.1318074 -0.08672687 0.2726822 255 0 255
0.006815975 -0.1170704 0.3086645 255 0 255
0.008144645 -0.1159978 0.307024 255 0 255
0.009507865 -0.1138537 0.3036891 255 0 255
0.01452583 -0.1121934 0.3012911 255 0 255
0.03627003 -0.1070965 0.2943789 255 0 255
0.04606433 -0.1074886 0.2956057 255 0 255
0.07865981 -0.09508084 0.2784128 255 0 255
0.08047304 -0.09370237 0.2763925 255 0 255
0.08630318 -0.08832347 0.2684276 255 0 255
0.08738043 -0.0881327 0.268224 255 0 255
0.09167884 -0.08734365 0.2673756 255 0 255
0.09623803 -0.08701698 0.2672906 255 0 255
0.1000273 -0.08736762 0.2682059 255 0 255
0.1046249 -0.08695415 0.2680091 255 0 255
0.1070834 -0.08697763 0.2682924 255 0 255
0.1081583 -0.08673647 0.268023 255 0 255
0.1092319 -0.08649272 0.2677501 255 0 255
0.1131064 -0.08673019 0.2685213 255 0 255
0.1213041 -0.08758961 0.2707335 255 0 255
0.1307627 -0.08800165 0.2724152 255 0 255
0.1318551 -0.08770224 0.2720707 255 0 255
0.00373626 -0.1256714 0.3196631 255 0 255
0.01326882 -0.115408 0.3039722 255 0 255
0.02547222 -0.1086451 0.2939604 255 0 255
0.02908455 -0.1084946 0.2939186 255 0 255
0.03028833 -0.1084386 0.2938971 255 0 255
0.03269534 -0.108318 0.2938428 255 0 255
0.03863922 -0.1074318 0.2927982 255 0 255
0.04342866 -0.1070994 0.2925692 255 0 255
0.04600716 -0.1079809 0.2941147 255 0 255
0.07798503 -0.09725716 0.279634 255 0 255
0.07939615 -0.09483664 0.2759657 255 0 255
0.09064551 -0.08847445 0.267004 255 0 255
0.09813385 -0.0870104 0.2654135 255 0 255
0.09948881 -0.08729553 0.265986 255 0 255
0.1011437 -0.08808028 0.2673657 255 0 255
0.1057408 -0.08765755 0.2671532 255 0 255
0.1170572 -0.0878853 0.2686474 255 0 255
0.1184819 -0.08811123 0.2691458 255 0 255
0.1224346 -0.08827324 0.2698117 255 0 255
0.1249651 -0.08819947 0.2699666 255 0 255
0.1315195 -0.088193 0.2706673 255 0 255
0.0002603334 -0.1532892 0.3600391 255 0 255
0.003200077 -0.1343636 0.3307084 255 0 255
0.007919352 -0.1235425 0.3140697 255 0 255
0.01060862 -0.1213614 0.3107947 255 0 255
0.01451612 -0.1186084 0.3066897 255 0 255
0.01578906 -0.1180455 0.3058737 255 0 255
0.03513536 -0.1092023 0.2931232 255 0 255
0.03633819 -0.1091318 0.2930828 255 0 255
0.03754081 -0.1090584 0.2930387 255 0 255
0.03979805 -0.1078286 0.2912586 255 0 255
0.04106928 -0.108284 0.2920435 255 0 255
0.04933762 -0.1070964 0.2907125 255 0 255
0.08055887 -0.0928378 0.2708656 255 0 255
0.0833751 -0.09125982 0.2686561 255 0 255
0.09390133 -0.08878883 0.2657508 255 0 255
0.09442151 -0.08755756 0.2638948 255 0 255
0.0968252 -0.08764332 0.2642468 255 0 255
0.1036331 -0.0890629 0.2670741 255 0 255
0.1047085 -0.08882959 0.2668164 255 0 255
0.1068553 -0.08835528 0.2662907 255 0 255
0.109637 -0.08887315 0.2673592 255 0 255
0.1121157 -0.0888742 0.2676044 255 0 255
0.1131929 -0.08862015 0.2673198 255 0 255
0.1146037 -0.08886129 0.2678318 255 0 255
0.1210403 -0.08901423 0.2687198 255 0 255
0.1235633 -0.08895095 0.2688833 255 0 255
0.1250104 -0.08915912 0.2693541 255 0 255
0.1260949 -0.08887332 0.2690287 255 0 255
0.001856304 -0.15403 0.3584488 255 0 255
0.004358843 -0.1393385 0.335887 255 0 255
0.01051601 -0.12571 0.3151278 255 0 255
0.01580126 -0.1212852 0.3085436 255 0 255
0.0196003 -0.117937 0.30356 255 0 255
0.02677202 -0.1111716 0.2934848 255 0 255
0.02915044 -0.1105253 0.292614 255 0 255
0.03396583 -0.1102837 0.2925056 255 0 255
0.03631032 -0.1096042 0.2915902 255 0 255
0.03983228 -0.1088354 0.290609 255 0 255
0.04238277 -0.1097494 0.2921705 255 0 255
0.04478459 -0.1095707 0.2920408 255 0 255
0.04828312 -0.1087425 0.2909814 255 0 255
0.05271023 -0.106706 0.2881263 255 0 255
0.07835578 -0.09692102 0.2749156 255 0 255
0.08449768 -0.09200547 0.267863 255 0 255
0.1009314 -0.08943614 0.2653602 255 0 255
0.1072094 -0.0897949 0.2664931 255 0 255
0.1182232 -0.0895144 0.2671317 255 0 255
0.1272228 -0.08954122 0.2680841 255 0 255
0.1323125 -0.0893348 0.2683006 255 0 255
0.01036242 -0.131738 0.3219406 255 0 255
0.02329013 -0.1156 0.2978663 255 0 255
0.02447749 -0.1144645 0.2961894 255 0 255
0.02564902 -0.1133266 0.2945087 255 0 255
0.02686558 -0.1132788 0.2944986 255 0 255
0.0280476 -0.112682 0.2936475 255 0 255
0.03168413 -0.1125126 0.2935829 255 0 255
0.03284578 -0.111905 0.292717 255 0 255
0.03399936 -0.1112949 0.2918475 255 0 255
0.03514479 -0.1106824 0.2909745 255 0 255
0.03747719 -0.1099944 0.2900542 255 0 255
0.04361869 -0.110672 0.2914499 255 0 255
0.0471228 -0.1098486 0.2904039 255 0 255
0.04940858 -0.1091058 0.2894106 255 0 255
0.04732655 -0.06242176 0.2179438 255 0 255
0.07741886 -0.1047438 0.2846943 255 0 255
0.07953807 -0.09488592 0.2698337 255 0 255
0.08150403 -0.09400581 0.268649 255 0 255
0.08861182 -0.09164597 0.2656379 255 0 255
0.09718673 -0.0899964 0.2638663 255 0 255
0.09960929 -0.09007253 0.2641964 255 0 255
0.1009714 -0.09036235 0.2647581 255 0 255
0.1044849 -0.09018425 0.2648056 255 0 255
0.1058646 -0.09045883 0.2653484 255 0 255
0.1122 -0.09075514 0.2663875 255 0 255
0.1193438 -0.09018855 0.2662154 255 0 255
0.02096601 -0.1222098 0.3055323 255 0 255
0.02339787 -0.1188317 0.3005289 255 0 255
0.03997422 -0.1113884 0.2901317 255 0 255
0.04944382 -0.1101065 0.2887537 255 0 255
0.0548522 -0.09738588 0.2698265 255 0 255
0.07731265 -0.09899375 0.2738463 255 0 255
0.0804497 -0.09511272 0.2682229 255 0 255
0.08263192 -0.09475448 0.2678527 255 0 255
0.08565683 -0.09367032 0.2664567 255 0 255
0.09106047 -0.09269284 0.2654232 255 0 255
0.09401813 -0.09155359 0.2639533 255 0 255
0.0972257 -0.09091464 0.2632641 255 0 255
0.1119135 -0.09118263 0.2649778 255 0 255
0.1176153 -0.09038997 0.2643206 255 0 255
0.1244127 -0.09102298 0.2659234 255 0 255
0.127311 -0.09144633 0.2668416 255 0 255
0.01292184 -0.1428223 0.3338493 255 0 255
0.01440182 -0.1383698 0.3272213 255 0 255
0.01980438 -0.1293959 0.3139802 255 0 255
0.02106528 -0.1265927 0.3098258 255 0 255
0.02352526 -0.1226402 0.3040028 255 0 255
0.02825171 -0.1169206 0.2956413 255 0 255
0.0448891 -0.1125941 0.2900563 255 0 255
0.05597376 -0.1077029 0.2833886 255 0 255
0.05612367 -0.09873982 0.2699386 255 0 255
0.05127721 -0.06847078 0.2241747 255 0 255
0.08437289 -0.09424958 0.2652292 255 0 255
0.09619606 -0.09204636 0.2628913 255 0 255
0.1010502 -0.09220744 0.2635432 255 0 255
0.1034926 -0.09226763 0.2638436 255 0 255
0.1045647 -0.09203377 0.2635877 255 0 255
0.1084072 -0.09234688 0.2643928 255 0 255
0.1094815 -0.09210093 0.2641215 255 0 255
0.1119544 -0.09211373 0.2643622 255 0 255
0.114101 -0.09160178 0.2637939 255 0 255
0.1259021 -0.09218298 0.2657603 255 0 255
0.1269818 -0.09189378 0.2654338 255 0 255
0.01576455 -0.1456217 0.3356167 255 0 255
0.02367258 -0.1270353 0.3082814 255 0 255
0.03644469 -0.1136195 0.2889431 255 0 255
0.04131859 -0.1138615 0.2895749 255 0 255
0.04483393 -0.113044 0.2885582 255 0 255
0.04722747 -0.1128535 0.2884145 255 0 255
0.05212241 -0.1129883 0.2889093 255 0 255
0.0760887 -0.114169 0.2922415 255 0 255
0.07646968 -0.1015946 0.2735749 255 0 255
0.07964843 -0.0976771 0.2679867 255 0 255
0.08247588 -0.09606922 0.2658105 255 0 255
0.08548984 -0.09497894 0.264422 255 0 255
0.08681411 -0.09532171 0.2650331 255 0 255
0.08789618 -0.09512825 0.2648302 255 0 255
0.09221367 -0.09432825 0.2639847 255 0 255
0.09302233 -0.09359307 0.2629594 255 0 255
0.105675 -0.09271808 0.2627145 255 0 255
0.1127369 -0.0922724 0.2626705 255 0 255
0.1173511 -0.09174098 0.262298 255 0 255
0.1270244 -0.09283686 0.2648053 255 0 255
0.1284791 -0.09304813 0.2652533 255 0 255
0.1299395 -0.09325479 0.2656957 255 0 255
0.1314055 -0.09345675 0.2661323 255 0 255
0.01337315 -0.2129602 0.4325145 255 0 255
0.01719345 -0.1731081 0.3737747 255 0 255
0.02147983 -0.1461081 0.3340611 255 0 255
0.02387833 -0.1331459 0.3150146 255 0 255
0.025022 -0.1286231 0.3083845 255 0 255
0.02838759 -0.1200824 0.2959273 255 0 255
0.02954667 -0.1189097 0.2942528 255 0 255
0.03302941 -0.1164951 0.2908642 255 0 255
0.04477833 -0.1134847 0.2870606 255 0 255
0.04954854 -0.1130929 0.2867596 255 0 255
0.05312122 -0.1127687 0.2864947 255 0 255
0.06011107 -0.1114913 0.2850419 255 0 255
0.06361233 -0.1025764 0.2721103 255 0 255
0.07352082 -0.114973 0.291061 255 0 255
0.07990291 -0.09914325 0.2681761 255 0 255
0.08444595 -0.0960809 0.2640019 255 0 255
0.08660564 -0.09570269 0.2636082 255 0 255
0.08876123 -0.09531398 0.2632009 255 0 255
0.09520213 -0.09408519 0.2618977 255 0 255
0.1021984 -0.09381419 0.2620661 255 0 255
0.1117062 -0.09344947 0.262331 255 0 255
0.1138458 -0.0929378 0.2617658 255 0 255
0.1188093 -0.09291017 0.2621608 255 0 255
0.1310645 -0.09390084 0.2647214 255 0 255
0.03076571 -0.1193079 0.292714 255 0 255
0.03311325 -0.1180611 0.2910077 255 0 255
0.05327361 -0.1143152 0.2866449 255 0 255
0.06773733 -0.1092961 0.2802029 255 0 255
0.07158077 -0.10994 0.2813991 255 0 255
0.07487828 -0.1054571 0.2750673 255 0 255
0.0774589 -0.1027685 0.2713161 255 0 255
0.07815623 -0.1015065 0.2695208 255 0 255
0.0805949 -0.09880544 0.2657478 255 0 255
0.08254804 -0.09790312 0.2645708 255 0 255
0.09120987 -0.0963617 0.2629648 255 0 255
0.09309647 -0.0954149 0.2617282 255 0 255
0.09389638 -0.09467147 0.2607059 255 0 255
0.1036087 -0.09502448 0.261989 255 0 255
0.1046811 -0.09478959 0.2617339 255 0 255
0.1245805 -0.09478071 0.2634082 255 0 255
0.1311066 -0.09484383 0.2640821 255 0 255
0.02424503 -0.1954231 0.4008577 255 0 255
0.02759014 -0.1289699 0.3044331 255 0 255
0.02869924 -0.1260878 0.3002991 255 0 255
0.03436277 -0.1190002 0.2902865 255 0 255
0.0437386 -0.1161167 0.2865991 255 0 255
0.05211394 -0.1154171 0.2860587 255 0 255
0.05342605 -0.1158654 0.2867866 255 0 255
0.05794805 -0.1142716 0.284742 255 0 255
0.06032307 -0.1140173 0.2845174 255 0 255
0.06608856 -0.1127758 0.2830753 255 0 255
0.06893526 -0.1101156 0.2793982 255 0 255
0.08281373 -0.09936166 0.2647516 255 0 255
0.08535654 -0.09717067 0.2617614 255 0 255
0.08750697 -0.09678747 0.2613631 255 0 255
0.08858065 -0.09659196 0.2611589 255 0 255
0.0899102 -0.09693436 0.2617525 255 0 255
0.09420504 -0.09611279 0.2608854 255 0 255
0.09905638 -0.09631855 0.261554 255 0 255
0.1014975 -0.09640104 0.261863 255 0 255
0.1093175 -0.0952633 0.2608426 255 0 255
0.1203133 -0.0950027 0.2613783 255 0 255
0.1260687 -0.0959416 0.2632228 255 0 255
0.03108998 -0.1247395 0.2962531 255 0 255
0.04010189 -0.1167949 0.2852711 255 0 255
0.04965173 -0.1160551 0.2847306 255 0 255
0.05214854 -0.1164047 0.2853764 255 0 255
0.0636107 -0.1134781 0.2818448 255 0 255
0.06478754 -0.1133388 0.2817168 255 0 255
0.07267296 -0.1076806 0.2740782 255 0 255
0.07400353 -0.1080744 0.2747313 255 0 255
0.07801622 -0.1028135 0.2674357 255 0 255
0.07890797 -0.1020894 0.2664555 255 0 255
0.08175783 -0.1004575 0.2643063 255 0 255
0.08393944 -0.1000909 0.2639315 255 0 255
0.09102145 -0.0976382 0.2609158 255 0 255
0.09209583 -0.09743382 0.260701 255 0 255
0.09666197 -0.09712942 0.260602 255 0 255
0.1001671 -0.09700387 0.2606861 255 0 255
0.1026099 -0.09708283 0.2609857 255 0 255
0.106138 -0.09690904 0.2610095 255 0 255
0.1079667 -0.09589193 0.2596962 255 0 255
0.1311891 -0.0967221 0.2627925 255 0 255
0.029366 -0.137894 0.3127858 255 0 255
0.03901019 -0.1184274 0.2854556 255 0 255
0.05815136 -0.1168012 0.2841934 255 0 255
0.06684531 -0.1129019 0.27915 255 0 255
0.06883375 -0.1114841 0.2772503 255 0 255
0.07060787 -0.1094996 0.2745307 255 0 255
0.07289605 -0.109185 0.2742273 255 0 255
0.07403889 -0.1090235 0.2740702 255 0 255
0.07685213 -0.1068543 0.2711599 255 0 255
0.08397458 -0.101002 0.2632971 255 0 255
0.09697812 -0.09857643 0.2607644 255 0 255
0.1051 -0.09805985 0.2606338 255 0 255
0.1083217 -0.09733381 0.2598479 255 0 255
0.1121893 -0.09764765 0.2605925 255 0 255
0.1146736 -0.09766113 0.2608061 255 0 255
0.1178958 -0.0968639 0.2599301 255 0 255
0.1218221 -0.09709165 0.2605683 255 0 255
0.1243347 -0.09704973 0.2607128 255 0 255
0.1272291 -0.09751374 0.2616074 255 0 255
0.03811073 -0.1217824 0.2880771 255 0 255
0.0427235 -0.1197352 0.2854165 255 0 255
0.04961354 -0.1174456 0.2825443 255 0 255
0.05924071 -0.1170884 0.2825818 255 0 255
0.06470086 -0.1147176 0.2795471 255 0 255
0.07940762 -0.1050393 0.266776 255 0 255
0.08007945 -0.1037488 0.264996 255 0 255
0.08182736 -0.1022783 0.2630331 255 0 255
0.08377501 -0.1013564 0.2618604 255 0 255
0.08570341 -0.1004265 0.2606767 255 0 255
0.0867832 -0.1002348 0.2604792 255 0 255
0.08761238 -0.09948882 0.2594824 255 0 255
0.08868632 -0.09929245 0.2592788 255 0 255
0.09109215 -0.09944128 0.2596553 255 0 255
0.09809043 -0.09926195 0.2598962 255 0 255
0.1023841 -0.0983571 0.2589309 255 0 255
0.1097516 -0.09853105 0.2597223 255 0 255
0.1122268 -0.09856105 0.2599515 255 0 255
0.1133015 -0.09830377 0.259671 255 0 255
0.1218606 -0.09801146 0.259923 255 0 255
0.1232973 -0.09825674 0.2603813 255 0 255
0.1291017 -0.09919168 0.2621584 255 0 255
0.03230504 -0.1625709 0.3430069 255 0 255
0.03736911 -0.1268912 0.2931165 255 0 255
0.04726943 -0.1186213 0.2820112 255 0 255
0.0483562 -0.1179472 0.2811226 255 0 255
0.05689813 -0.1183135 0.2821071 255 0 255
0.06121368 -0.1160922 0.2792341 255 0 255
0.06223901 -0.1153889 0.278306 255 0 255
0.06340905 -0.1152528 0.278183 255 0 255
0.06691501 -0.1148272 0.277792 255 0 255
0.07085761 -0.1119569 0.2740012 255 0 255
0.07505507 -0.1101855 0.2717742 255 0 255
0.07854276 -0.106695 0.2670986 255 0 255
0.08295318 -0.1030021 0.262206 255 0 255
0.08380935 -0.1022592 0.2612211 255 0 255
0.0848951 -0.1020718 0.2610298 255 0 255
0.09624819 -0.1011511 0.2605077 255 0 255
0.1190427 -0.09841888 0.2583449 255 0 255
0.03460472 -0.1549183 0.3299013 255 0 255
0.0359645 -0.1390845 0.3079015 255 0 255
0.04182362 -0.1235236 0.2865112 255 0 255
0.04295564 -0.1228576 0.2856412 255 0 255
0.04620761 -0.1202671 0.2822007 255 0 255
0.04838943 -0.1189146 0.2804315 255 0 255
0.06007246 -0.1171859 0.2786625 255 0 255
0.06328995 -0.1156395 0.2766923 255 0 255
0.06562038 -0.1153592 0.2764364 255 0 255
0.06876504 -0.1137775 0.2744188 255 0 255
0.07318842 -0.112585 0.2730228 255 0 255
0.07508954 -0.1111233 0.2711045 255 0 255
0.07857697 -0.1076159 0.266441 255 0 255
0.07947632 -0.1068768 0.2654693 255 0 255
0.08601402 -0.1027815 0.2601928 255 0 255
0.08709785 -0.1025885 0.2599949 255 0 255
0.09223609 -0.1010287 0.2581666 255 0 255
0.09952445 -0.1013915 0.2591631 255 0 255
0.1008942 -0.1017149 0.2597059 255 0 255
0.1016792 -0.1009362 0.2586797 255 0 255
0.1123003 -0.1003802 0.2586589 255 0 255
0.120505 -0.09958792 0.2581618 255 0 255
0.1262647 -0.1005817 0.2599683 255 0 255
0.1295018 -0.09969467 0.2589872 255 0 255
0.0377935 -0.1447512 0.3135683 255 0 255
0.0410919 -0.1280923 0.2907096 255 0 255
0.04411269 -0.1231703 0.2840611 255 0 255
0.04743439 -0.121141 0.2814283 255 0 255
0.05315918 -0.1194515 0.2793961 255 0 255
0.05434207 -0.1193373 0.2793019 255 0 255
0.0676441 -0.1148727 0.2738771 255 0 255
0.06977648 -0.1139987 0.2727939 255 0 255
0.07189023 -0.1131153 0.2716983 255 0 255
0.07303427 -0.1129558 0.2715455 255 0 255
0.07719421 -0.111152 0.2693049 255 0 255
0.0799411 -0.1089255 0.2664007 255 0 255
0.0882146 -0.1032895 0.2591482 255 0 255
0.09119541 -0.1021268 0.257738 255 0 255
0.09819577 -0.1019611 0.2579694 255 0 255
0.09955934 -0.1022915 0.2585153 255 0 255
0.1017142 -0.1018356 0.2580324 255 0 255
0.1055511 -0.1022308 0.2588369 255 0 255
0.11126 -0.1015416 0.2582835 255 0 255
0.1205418 -0.1004972 0.2575077 255 0 255
0.1273829 -0.1012084 0.2589832 255 0 255
0.128462 -0.1009123 0.2586565 255 0 255
0.04000367 -0.1533925 0.3232241 255 0 255
0.04088328 -0.1373867 0.3013304 255 0 255
0.04343711 -0.1277507 0.2882513 255 0 255
0.04855806 -0.121425 0.2798432 255 0 255
0.0508249 -0.1206328 0.2788752 255 0 255
0.05319242 -0.1204129 0.2786978 255 0 255
