ply
format ascii 1.0
Comment Generated by Floating Hands
element vertex 1104
property double x
property double y
property double z
property uchar red
property uchar green
property uchar blue
end_header
-0.09991262 -0.06088118 0.2183471 255 0 255
-0.0930194 -0.05943862 0.2164397 255 0 255
-0.08903127 -0.05905491 0.2161203 255 0 255
-0.08823093 -0.05919345 0.216425 255 0 255
-0.08501752 -0.05972677 0.2176193 255 0 255
-0.08421121 -0.0598549 0.2179118 255 0 255
-0.08340371 -0.05998091 0.2182017 255 0 255
-0.0798857 -0.06265048 0.2231056 255 0 255
-0.07902527 -0.06543837 0.227969 255 0 255
-0.0821588 -0.07620877 0.246118 255 0 255
-0.08522929 -0.08272897 0.2569843 255 0 255
-0.08850835 -0.09344195 0.2750368 255 0 255
-0.08445012 -0.09228851 0.2735135 255 0 255
-0.07438181 -0.09213492 0.2744616 255 0 255
-0.07250374 -0.09279062 0.2758325 255 0 255
-0.06846121 -0.09357272 0.2777111 255 0 255
-0.05404869 -0.07691357 0.2508149 255 0 255
-0.1074064 -0.06458593 0.2222784 255 0 255
-0.1002422 -0.06099891 0.2167964 255 0 255
-0.09336042 -0.05955344 0.2149108 255 0 255
-0.09256254 -0.05970334 0.2152289 255 0 255
-0.08817282 -0.05993563 0.2159967 255 0 255
-0.08495847 -0.06047004 0.2171904 255 0 255
-0.08079144 -0.06219223 0.2205062 255 0 255
-0.07966085 -0.0645093 0.2245517 255 0 255
-0.07896116 -0.06621472 0.227521 255 0 255
-0.09099307 -0.09677612 0.2782311 255 0 255
-0.08274654 -0.09234955 0.2716264 255 0 255
-0.07373229 -0.09416927 0.2758418 255 0 255
-0.06752539 -0.09509864 0.278246 255 0 255
-0.1134323 -0.06861812 0.2267661 255 0 255
-0.1018467 -0.06254788 0.2175448 255 0 255
-0.09610279 -0.0603155 0.2142818 255 0 255
-0.09489515 -0.05998872 0.2138355 255 0 255
-0.09250471 -0.06044563 0.2147968 255 0 255
-0.09170531 -0.06059374 0.2151123 255 0 255
-0.08489886 -0.06121147 0.2167587 255 0 255
-0.08072989 -0.06294195 0.2200696 255 0 255
-0.07959749 -0.06527323 0.2241068 255 0 255
-0.08956201 -0.09363046 0.2708471 255 0 255
-0.09060943 -0.09725395 0.2768493 255 0 255
-0.0818894 -0.09390017 0.272191 255 0 255
-0.07924634 -0.09519792 0.2747093 255 0 255
-0.0752179 -0.09605408 0.276664 255 0 255
-0.07330774 -0.09671961 0.2780383 255 0 255
-0.06223745 -0.09684803 0.2797454 255 0 255
-0.104281 -0.06392632 0.2179209 255 0 255
-0.09045414 -0.06099013 0.2142117 255 0 255
-0.08687542 -0.06105862 0.2146495 255 0 255
-0.08403163 -0.06208006 0.216616 255 0 255
-0.08322348 -0.06220685 0.2169055 255 0 255
-0.0790238 -0.0666487 0.2247367 255 0 255
-0.08287676 -0.08025578 0.2470593 255 0 255
-0.08917687 -0.09407577 0.2694806 255 0 255
-0.09003693 -0.09935468 0.278223 255 0 255
-0.07835513 -0.09675251 0.275256 255 0 255
-0.06956887 -0.09950153 0.2810175 255 0 255
-0.106737 -0.06529997 0.2182649 255 0 255
-0.1021112 -0.06340952 0.2155396 255 0 255
-0.09396028 -0.06048483 0.2114252 255 0 255
-0.088412 -0.06151636 0.2136116 255 0 255
-0.08316226 -0.06294524 0.2164677 255 0 255
-0.08218186 -0.08009568 0.244945 255 0 255
-0.09044078 -0.09919721 0.2757024 255 0 255
-0.08652621 -0.09638333 0.2714837 255 0 255
-0.08227596 -0.09681217 0.2727032 255 0 255
-0.07934175 -0.09761605 0.2744013 255 0 255
-0.07637496 -0.09839729 0.276076 255 0 255
-0.07470806 -0.09958851 0.2782761 255 0 255
-0.07214301 -0.1013587 0.2815654 255 0 255
-0.06927659 -0.1025945 0.2840129 255 0 255
-0.0636958 -0.1028871 0.2852722 255 0 255
-0.05159748 -0.0850623 0.257169 255 0 255
-0.09510217 -0.06155138 0.211433 255 0 255
-0.09073808 -0.06181727 0.2122521 255 0 255
-0.08088562 -0.06568526 0.2195342 255 0 255
-0.08006031 -0.06580364 0.2198148 255 0 255
-0.07957015 -0.06642596 0.2208871 255 0 255
-0.07848917 -0.07042816 0.2275723 255 0 255
-0.0795916 -0.07522582 0.2353321 255 0 255
-0.08297497 -0.09714554 0.2710239 255 0 255
-0.07679549 -0.1003851 0.2771406 255 0 255
-0.07030261 -0.1061632 0.2875559 255 0 255
-0.06576225 -0.1064078 0.2885873 255 0 255
-0.05855361 -0.1024978 0.2831285 255 0 255
-0.1139879 -0.07046796 0.2225825 255 0 255
-0.1113337 -0.06871487 0.2199796 255 0 255
-0.100329 -0.06410101 0.2134651 255 0 255
-0.09746114 -0.0629518 0.2118605 255 0 255
-0.09504303 -0.06228189 0.2109922 255 0 255
-0.08829147 -0.06297724 0.2127339 255 0 255
-0.08749342 -0.06311683 0.2130362 255 0 255
-0.08348522 -0.06378333 0.2145114 255 0 255
-0.08082159 -0.06643099 0.2190841 255 0 255
-0.08997068 -0.1006168 0.2737365 255 0 255
-0.08781423 -0.1008527 0.2743762 255 0 255
-0.07830847 -0.1022948 0.2779072 255 0 255
-0.07425749 -0.1058297 0.284227 255 0 255
-0.07316624 -0.1085807 0.2888849 255 0 255
-0.06923351 -0.1104148 0.292432 255 0 255
-0.06807471 -0.1104758 0.2926932 255 0 255
-0.06691498 -0.110534 0.2929508 255 0 255
-0.06419212 -0.1095979 0.2917969 255 0 255
-0.06343026 -0.1106907 0.2937023 255 0 255
-0.1130159 -0.07028051 0.2206127 255 0 255
-0.09498326 -0.06301057 0.2105486 255 0 255
-0.0910131 -0.06262195 0.2102905 255 0 255
-0.08982309 -0.06341893 0.2116792 255 0 255
-0.0882303 -0.06370495 0.2122908 255 0 255
-0.08625654 -0.06347604 0.2121168 255 0 255
-0.08545953 -0.06361111 0.2124127 255 0 255
-0.08297526 -0.06514943 0.2151374 255 0 255
-0.08170418 -0.06590942 0.2164928 255 0 255
-0.07993123 -0.06729373 0.2189114 255 0 255
-0.07835329 -0.07197394 0.2266351 255 0 255
-0.08407967 -0.0878976 0.251708 255 0 255
-0.08664705 -0.1019272 0.2741061 255 0 255
-0.08528194 -0.1015194 0.2736112 255 0 255
-0.07983422 -0.1042111 0.2786549 255 0 255
-0.07226669 -0.1160829 0.2989561 255 0 255
-0.0706436 -0.1151003 0.2975809 255 0 255
-0.06509453 -0.1132325 0.2953188 255 0 255
-0.06255282 -0.112804 0.294985 255 0 255
-0.1206303 -0.07705993 0.2289566 255 0 255
-0.09771323 -0.06375293 0.2098751 255 0 255
-0.09650273 -0.0634159 0.2094496 255 0 255
-0.09571347 -0.06357769 0.2097771 255 0 255
-0.09451101 -0.06323426 0.2093424 255 0 255
-0.09293307 -0.06354594 0.2099824 255 0 255
-0.09055649 -0.06399781 0.2109245 255 0 255
-0.08896577 -0.06428858 0.2115405 255 0 255
-0.0821014 -0.06600649 0.2149745 255 0 255
-0.09048636 -0.1057814 0.2776909 255 0 255
-0.08247922 -0.1060344 0.2790836 255 0 255
-0.07479212 -0.1234552 0.3081667 255 0 255
-0.04133622 -0.06475804 0.218125 255 0 255
-0.115103 -0.07313644 0.2214753 255 0 255
-0.1115271 -0.07035745 0.2174275 255 0 255
-0.1021151 -0.06530283 0.2103176 255 0 255
-0.09886875 -0.06481665 0.2098427 255 0 255
-0.08772349 -0.06464299 0.2106271 255 0 255
-0.08249056 -0.06609356 0.2134578 255 0 255
-0.07875251 -0.07287859 0.2246194 255 0 255
-0.07925243 -0.07675342 0.230713 255 0 255
-0.08453268 -0.09068305 0.2522261 255 0 255
-0.08458025 -0.1090131 0.2813985 255 0 255
-0.08399524 -0.1101711 0.2833187 255 0 255
-0.0816294 -0.1125797 0.2874642 255 0 255
-0.07891715 -0.1144402 0.2907896 255 0 255
-0.07816808 -0.1237788 0.3058107 255 0 255
-0.0780667 -0.1265089 0.3101891 255 0 255
-0.07881526 -0.1313606 0.3178446 255 0 255
-0.07155401 -0.1295767 0.3160064 255 0 255
-0.1209573 -0.07920592 0.2286661 255 0 255
-0.1088303 -0.06932073 0.214366 255 0 255
-0.1066704 -0.06800585 0.2125118 255 0 255
-0.1049735 -0.06718673 0.2113878 255 0 255
-0.09880738 -0.06554504 0.2093875 255 0 255
-0.09438897 -0.06467579 0.2084453 255 0 255
-0.08242627 -0.0668176 0.2130052 255 0 255
-0.078885 -0.07247925 0.2222915 255 0 255
-0.07910543 -0.07585213 0.2275737 255 0 255
-0.08204016 -0.0856507 0.2426614 255 0 255
-0.08949409 -0.1083777 0.2776005 255 0 255
-0.08643258 -0.1114798 0.2828795 255 0 255
-0.08638678 -0.1137083 0.2864065 255 0 255
-0.08540957 -0.1165723 0.2910588 255 0 255
-0.08172204 -0.1190913 0.2955248 255 0 255
-0.03824746 -0.06462416 0.2152272 255 0 255
-0.1032271 -0.06709718 0.2097918 255 0 255
-0.09313066 -0.0650379 0.2075581 255 0 255
-0.09234404 -0.06519289 0.2078749 255 0 255
-0.09076695 -0.06549659 0.2085014 255 0 255
-0.08721548 -0.06556049 0.2089606 255 0 255
-0.0828073 -0.06688938 0.2114898 255 0 255
-0.0791734 -0.07089503 0.2181294 255 0 255
-0.09072204 -0.1075151 0.2739516 255 0 255
-0.08859757 -0.112246 0.2816169 255 0 255
-0.08791722 -0.1179138 0.2905803 255 0 255
-0.08356595 -0.1216381 0.2969848 255 0 255
-0.08092807 -0.1240592 0.3011362 255 0 255
-0.03998071 -0.07125386 0.2238734 255 0 255
-0.1078033 -0.06981677 0.2119396 255 0 255
-0.106098 -0.06899 0.2108305 255 0 255
-0.1044053 -0.06815775 0.2097126 255 0 255
-0.1031644 -0.06783021 0.2093257 255 0 255
-0.09825771 -0.06648295 0.207723 255 0 255
-0.09109334 -0.06554119 0.2069794 255 0 255
-0.0907039 -0.06621062 0.2080472 255 0 255
-0.08991329 -0.06635962 0.2083566 255 0 255
-0.08677012 -0.06575069 0.2077448 255 0 255
-0.0819397 -0.06773408 0.2113192 255 0 255
-0.08148854 -0.06838651 0.2123758 255 0 255
-0.08102889 -0.06903794 0.2134324 255 0 255
-0.07943961 -0.07216249 0.2184396 255 0 255
-0.07926433 -0.07333885 0.2202787 255 0 255
-0.08435063 -0.09157804 0.2479117 255 0 255
-0.09017889 -0.1119274 0.2787498 255 0 255
-0.08953738 -0.1198965 0.2912024 255 0 255
-0.08971395 -0.122693 0.2955241 255 0 255
-0.08810805 -0.1245252 0.2985791 255 0 255
-0.08542943 -0.1241966 0.2984189 255 0 255
-0.09740363 -0.0673707 0.2075942 255 0 255
-0.09498928 -0.06666358 0.2067564 255 0 255
-0.0910302 -0.0662498 0.2065248 255 0 255
-0.08827972 -0.066172 0.2066903 255 0 255
-0.08512813 -0.06673455 0.2078828 255 0 255
-0.08142242 -0.06910516 0.2119146 255 0 255
-0.07886443 -0.07355209 0.2190208 255 0 255
-0.07920896 -0.07870257 0.2268828 255 0 255
-0.08580918 -0.09511375 0.2512928 255 0 255
-0.09410035 -0.1158818 0.282199 255 0 255
-0.0912493 -0.1173337 0.2847888 255 0 255
-0.0900582 -0.1197275 0.288625 255 0 255
-0.09108307 -0.1241602 0.2953201 255 0 255
-0.09451194 -0.06685362 0.2055497 255 0 255
-0.09134834 -0.06627933 0.2050048 255 0 255
-0.09056707 -0.06643171 0.2053157 255 0 255
-0.08900077 -0.06673021 0.2059306 255 0 255
-0.08821573 -0.06687634 0.2062344 255 0 255
-0.086642 -0.06716233 0.2068351 255 0 255
-0.08180787 -0.06916246 0.2103986 255 0 255
-0.08089511 -0.07048036 0.2125028 255 0 255
-0.0799484 -0.07179419 0.2146073 255 0 255
-0.07946232 -0.07244952 0.2156597 255 0 255
-0.07872286 -0.0772088 0.2229856 255 0 255
-0.09489369 -0.1184987 0.283917 255 0 255
-0.0902368 -0.1212863 0.28876 255 0 255
-0.1110548 -0.07372305 0.2126636 255 0 255
-0.100077 -0.0688127 0.2063949 255 0 255
-0.08972033 -0.06728388 0.2051661 255 0 255
-0.08815118 -0.06757879 0.2057759 255 0 255
-0.08578825 -0.06800548 0.2066728 255 0 255
-0.08383686 -0.06774617 0.2064982 255 0 255
-0.08128851 -0.07053675 0.2109839 255 0 255
-0.08082741 -0.0711987 0.2120338 255 0 255
-0.08001342 -0.07132221 0.212314 255 0 255
-0.07889803 -0.07383606 0.2162338 255 0 255
-0.07872406 -0.07503224 0.2180586 255 0 255
-0.04581399 -0.09850155 0.2581503 255 0 255
-0.03110912 -0.07036422 0.2175458 255 0 255
-0.102469 -0.07021994 0.206702 255 0 255
-0.09879225 -0.06917788 0.205526 255 0 255
-0.09516711 -0.06810272 0.2043014 255 0 255
-0.09397036 -0.0677371 0.2038826 255 0 255
-0.08769809 -0.06774604 0.2045629 255 0 255
-0.08651161 -0.06856645 0.2059145 255 0 255
-0.08534552 -0.06817156 0.2054551 255 0 255
-0.08122075 -0.07124967 0.2105145 255 0 255
-0.08015092 -0.07378419 0.2144263 255 0 255
-0.07966014 -0.074447 0.2154752 255 0 255
-0.07931166 -0.076855 0.2191184 255 0 255
-0.08026019 -0.08318724 0.2284811 255 0 255
-0.100041 -0.1280206 0.2932075 255 0 255
-0.09441185 -0.124593 0.2887799 255 0 255
-0.04473256 -0.103295 0.2636649 255 0 255
-0.04134512 -0.09831196 0.2566586 255 0 255
-0.03702101 -0.09721455 0.2556767 255 0 255
-0.02739134 -0.06548703 0.2092334 255 0 255
-0.1048825 -0.0716217 0.2069769 255 0 255
-0.1036401 -0.07128275 0.2066032 255 0 255
-0.1024033 -0.07094001 0.206224 255 0 255
-0.09708929 -0.06900232 0.2039176 255 0 255
-0.08763269 -0.06844147 0.2041011 255 0 255
-0.08291581 -0.0692754 0.2058631 255 0 255
-0.08212553 -0.06940707 0.2061485 255 0 255
-0.07992598 -0.07572019 0.2157596 255 0 255
-0.08584489 -0.09735947 0.2471601 255 0 255
-0.03968162 -0.09693842 0.2529911 255 0 255
-0.03911772 -0.1031027 0.2623174 255 0 255
-0.03972359 -0.1103786 0.273128 255 0 255
-0.03400984 -0.09860983 0.2563917 255 0 255
-0.0293152 -0.08013321 0.2294381 255 0 255
-0.1035736 -0.07200369 0.2061205 255 0 255
-0.09660047 -0.0691732 0.2027137 255 0 255
-0.09497976 -0.06827419 0.2015719 255 0 255
-0.09342751 -0.06860007 0.2022132 255 0 255
-0.09187002 -0.06891757 0.2028451 255 0 255
-0.08834878 -0.06898844 0.2033349 255 0 255
-0.08678339 -0.0692795 0.203936 255 0 255
-0.08442623 -0.06970039 0.20482 255 0 255
-0.08284884 -0.06997055 0.2053975 255 0 255
-0.0820584 -0.07010247 0.2056827 255 0 255
-0.08153761 -0.07199629 0.2085246 255 0 255
-0.08014999 -0.07401349 0.2116532 255 0 255
-0.07951848 -0.07590133 0.2145052 255 0 255
-0.0793506 -0.07711878 0.2163166 255 0 255
-0.08003633 -0.08297156 0.2248476 255 0 255
-0.08731046 -0.1009722 0.2504591 255 0 255
-0.1009232 -0.137026 0.3018935 255 0 255
-0.04979139 -0.1247636 0.2909351 255 0 255
-0.04524492 -0.1118334 0.2724289 255 0 255
-0.03931377 -0.09665455 0.2507977 255 0 255
-0.03899185 -0.0994744 0.2550378 255 0 255
-0.1064442 -0.07393821 0.2070895 255 0 255
-0.1047487 -0.0730673 0.206005 255 0 255
-0.09533377 -0.06950289 0.2018367 255 0 255
-0.09258352 -0.06945296 0.2020622 255 0 255
-0.09139889 -0.06907152 0.2016387 255 0 255
-0.08633327 -0.06942776 0.202722 255 0 255
-0.08191472 -0.07202214 0.207009 255 0 255
-0.08092296 -0.08539596 0.2266371 255 0 255
-0.09937742 -0.1258498 0.2834305 255 0 255
-0.09496694 -0.1293183 0.2890716 255 0 255
-0.0399128 -0.1003186 0.2542984 255 0 255
-0.03930135 -0.1020225 0.2569042 255 0 255
-0.0416701 -0.1218426 0.2857389 255 0 255
-0.03046279 -0.09857531 0.2532265 255 0 255
-0.02250537 -0.07303395 0.2168543 255 0 255
-0.1124527 -0.07832251 0.2112103 255 0 255
-0.0988869 -0.07129975 0.2025589 255 0 255
-0.08228375 -0.07203815 0.2054957 255 0 255
-0.09239601 -0.1121948 0.2623707 255 0 255
-0.1032495 -0.1341164 0.2927694 255 0 255
-0.04023267 -0.1028739 0.2561528 255 0 255
-0.04349025 -0.143304 0.3147195 255 0 255
-0.04054948 -0.1415731 0.3126578 255 0 255
-0.02123845 -0.07708948 0.2214983 255 0 255
-0.109734 -0.07713673 0.2082248 255 0 255
-0.1058597 -0.07485129 0.2053826 255 0 255
-0.1016975 -0.07326153 0.2035641 255 0 255
-0.0956193 -0.07143069 0.2016175 255 0 255
-0.09442098 -0.07105349 0.2012122 255 0 255
-0.09048806 -0.07060193 0.2010088 255 0 255
-0.08853552 -0.07035924 0.2008846 255 0 255
-0.08736533 -0.07120412 0.2022272 255 0 255
-0.08501037 -0.07163373 0.2031165 255 0 255
-0.08257555 -0.07328483 0.2057701 255 0 255
-0.08177618 -0.07341664 0.206055 255 0 255
-0.0799373 -0.07614964 0.210198 255 0 255
-0.07946309 -0.07986366 0.2155875 255 0 255
-0.07927316 -0.08110156 0.2173889 255 0 255
-0.08335585 -0.09322065 0.2342861 255 0 255
-0.04045068 -0.1191997 0.2779324 255 0 255
-0.04325157 -0.143816 0.3131633 255 0 255
-0.03426248 -0.1225756 0.2838095 255 0 255
-0.02275828 -0.08297314 0.2282529 255 0 255
-0.01760601 -0.07653049 0.2197601 255 0 255
-0.01651988 -0.07420922 0.2165744 255 0 255
-0.1028614 -0.07432622 0.2034457 255 0 255
-0.09119808 -0.07113057 0.2002244 255 0 255
-0.08415412 -0.07245965 0.2029324 255 0 255
-0.0837333 -0.07315261 0.2039671 255 0 255
-0.08330399 -0.07384469 0.2050021 255 0 255
-0.07972237 -0.07810234 0.2114968 255 0 255
-0.03984469 -0.1178355 0.2740504 255 0 255
-0.04250185 -0.1552367 0.3273809 255 0 255
-0.03181986 -0.1166067 0.2735607 255 0 255
-0.02425532 -0.08833736 0.2341398 255 0 255
-0.02186177 -0.08425774 0.2286643 255 0 255
-0.112695 -0.08110008 0.2103679 255 0 255
-0.102792 -0.07503393 0.2029515 255 0 255
-0.09990038 -0.07376298 0.2014901 255 0 255
-0.09911173 -0.07394084 0.2018276 255 0 255
-0.09590118 -0.07336331 0.2013789 255 0 255
-0.08722823 -0.07257381 0.2012744 255 0 255
-0.08163547 -0.07480328 0.2050903 255 0 255
-0.08108037 -0.07674748 0.2079017 255 0 255
-0.07998721 -0.07937868 0.2117525 255 0 255
-0.111763 -0.1537162 0.3127739 255 0 255
-0.04474057 -0.1164122 0.2692841 255 0 255
-0.0412546 -0.1065799 0.2558178 255 0 255
-0.03892221 -0.1054358 0.25455 255 0 255
-0.0244261 -0.09083329 0.2360422 255 0 255
-0.01998609 -0.08493423 0.2283562 255 0 255
-0.101054 -0.0748279 0.2013735 255 0 255
-0.09904214 -0.07463811 0.2013366 255 0 255
-0.08872354 -0.07295717 0.2001907 255 0 255
-0.08438566 -0.07438908 0.2027125 255 0 255
-0.08135685 -0.078013 0.2081559 255 0 255
-0.08040282 -0.07940038 0.2102183 255 0 255
-0.0804527 -0.08740154 0.2214245 255 0 255
-0.09308464 -0.1157117 0.259496 255 0 255
-0.0390911 -0.1074478 0.2555574 255 0 255
-0.03901379 -0.1167689 0.2687394 255 0 255
-0.04289829 -0.1609939 0.3306274 255 0 255
-0.03443026 -0.13532 0.2956869 255 0 255
-0.03012466 -0.1160894 0.2691913 255 0 255
-0.01817075 -0.08618051 0.2288459 255 0 255
-0.01551923 -0.08663787 0.2299336 255 0 255
-0.01461434 -0.08659203 0.2300201 255 0 255
-0.008839284 -0.07758539 0.218255 255 0 255
-0.09534423 -0.07418968 0.1996825 255 0 255
-0.09021389 -0.073329 0.199096 255 0 255
-0.08943451 -0.07348383 0.1994032 255 0 255
-0.08630452 -0.0740821 0.2006091 255 0 255
-0.08431482 -0.07507326 0.2022264 255 0 255
-0.08352203 -0.07521185 0.2025164 255 0 255
-0.07983834 -0.08080419 0.2107439 255 0 255
-0.08037341 -0.08815224 0.2208912 255 0 255
-0.08204338 -0.09285477 0.2272156 255 0 255
-0.09236544 -0.1154711 0.2573366 255 0 255
-0.1127409 -0.158264 0.3142218 255 0 255
-0.05056658 -0.142814 0.3015132 255 0 255
-0.04033827 -0.1299656 0.2851026 255 0 255
-0.04341827 -0.1656528 0.3346338 255 0 255
-0.03132224 -0.1251821 0.2798299 255 0 255
-0.02002425 -0.08815672 0.2297427 255 0 255
-0.01905073 -0.08753792 0.2290346 255 0 255
-0.01814651 -0.08750134 0.2291322 255 0 255
-0.1102796 -0.08188433 0.2070604 255 0 255
-0.1013479 -0.07677589 0.2010894 255 0 255
-0.09527395 -0.07487445 0.1991922 255 0 255
-0.09014389 -0.07400586 0.1986112 255 0 255
-0.08858359 -0.07431396 0.199223 255 0 255
-0.08701833 -0.07461365 0.1998255 255 0 255
-0.08623386 -0.07476033 0.2001233 255 0 255
-0.08424342 -0.07575543 0.2017378 255 0 255
-0.08345049 -0.07589429 0.2020275 255 0 255
-0.08213151 -0.07800891 0.2051042 255 0 255
-0.08007507 -0.08520543 0.2152857 255 0 255
-0.08029357 -0.08890077 0.2203549 255 0 255
-0.08196071 -0.09362881 0.2266611 255 0 255
-0.1053501 -0.1430625 0.2918189 255 0 255
-0.03868381 -0.1179829 0.2666549 255 0 255
-0.04301149 -0.173272 0.342821 255 0 255
-0.0236305 -0.09604409 0.2385504 255 0 255
-0.01812129 -0.08882643 0.2294109 255 0 255
-0.01544481 -0.08928907 0.2304965 255 0 255
-0.01270549 -0.08914325 0.2307501 255 0 255
-0.01001706 -0.09014752 0.2325993 255 0 255
-0.007409112 -0.09639004 0.2417269 255 0 255
-0.1119415 -0.08351316 0.207556 255 0 255
-0.1097526 -0.08206006 0.2058347 255 0 255
-0.09840204 -0.07615838 0.1991374 255 0 255
-0.09400577 -0.07516295 0.1983058 255 0 255
-0.08851276 -0.07498939 0.1987352 255 0 255
-0.07913969 -0.08605544 0.2150411 255 0 255
-0.04496732 -0.1324797 0.2837605 255 0 255
-0.03980165 -0.1194683 0.2666333 255 0 255
-0.0434519 -0.1620686 0.324777 255 0 255
-0.1109546 -0.08313466 0.2056316 255 0 255
-0.08446855 -0.07768783 0.2014833 255 0 255
-0.08367174 -0.07782785 0.201774 255 0 255
-0.07893233 -0.08993088 0.2188079 255 0 255
-0.04354249 -0.132856 0.2824582 255 0 255
-0.04345834 -0.1798208 0.3466716 255 0 255
-0.04206686 -0.1803936 0.3476757 255 0 255
-0.02256994 -0.09816114 0.2383406 255 0 255
-0.01703814 -0.09026261 0.2284366 255 0 255
-0.01252901 -0.09062476 0.2296762 255 0 255
-0.008099343 -0.0950656 0.2364936 255 0 255
0.002628003 -0.1673457 0.3372273 255 0 255
-0.1086985 -0.08238651 0.2033885 255 0 255
-0.09868486 -0.07809386 0.1988416 255 0 255
-0.08954521 -0.07675276 0.1981666 255 0 255
-0.08359824 -0.07850739 0.2012751 255 0 255
-0.08085339 -0.08279265 0.2073935 255 0 255
-0.07789832 -0.08891411 0.2160269 255 0 255
-0.07354572 -0.08947932 0.2173757 255 0 255
-0.04261895 -0.1857922 0.3523527 255 0 255
-0.02278118 -0.1013267 0.2409644 255 0 255
-0.01700671 -0.09159378 0.2286979 255 0 255
-0.005497133 -0.1324257 0.2860191 255 0 255
0.001114447 -0.2374723 0.4296916 255 0 255
-0.1112571 -0.08514333 0.2052564 255 0 255
-0.1090742 -0.08366267 0.2035531 255 0 255
-0.1069108 -0.08217452 0.2018378 255 0 255
-0.1056558 -0.08180786 0.2015021 255 0 255
-0.1044063 -0.08143727 0.2011608 255 0 255
-0.1027252 -0.08049659 0.2001153 255 0 255
-0.09300801 -0.07735687 0.1971356 255 0 255
-0.09181949 -0.07694768 0.1967393 255 0 255
-0.08511713 -0.07890163 0.2001905 255 0 255
-0.08160267 -0.08335921 0.2065932 255 0 255
-0.07895563 -0.08504294 0.2091913 255 0 255
-0.0731658 -0.08961708 0.2160867 255 0 255
-0.04450592 -0.152216 0.3043165 255 0 255
-0.04346203 -0.193035 0.359371 255 0 255
-0.0151883 -0.09344265 0.2299345 255 0 255
-0.01334573 -0.09334683 0.2301081 255 0 255
-0.007898298 -0.09599089 0.2345696 255 0 255
-0.002632072 -0.2077135 0.385812 255 0 255
-0.1009824 -0.08023884 0.1985476 255 0 255
-0.09690106 -0.07849505 0.1967532 255 0 255
-0.09215132 -0.07819336 0.1969497 255 0 255
-0.08861411 -0.07825027 0.1974738 255 0 255
-0.08381447 -0.08044433 0.2009944 255 0 255
-0.08292443 -0.08189128 0.2030257 255 0 255
-0.08069921 -0.08418591 0.2063576 255 0 255
-0.07700071 -0.08729145 0.2109685 255 0 255
-0.0509664 -0.185906 0.3460446 255 0 255
-0.04612168 -0.1840732 0.3443576 255 0 255
-0.02743771 -0.1325178 0.2785437 255 0 255
-0.02386947 -0.1131608 0.2532889 255 0 255
-0.02010592 -0.09800137 0.2336671 255 0 255
-0.01141276 -0.09398086 0.2297187 255 0 255
-0.009617224 -0.09506873 0.2314673 255 0 255
-0.006023673 -0.1038122 0.2437352 255 0 255
-0.1115554 -0.08715547 0.204861 255 0 255
-0.1093708 -0.08565804 0.2031724 255 0 255
-0.1004743 -0.08035203 0.1973356 255 0 255
-0.09925281 -0.07996184 0.1969775 255 0 255
-0.09604158 -0.07934485 0.196573 255 0 255
-0.08775373 -0.07907195 0.1972733 255 0 255
-0.0832978 -0.08184806 0.2014982 255 0 255
-0.08062136 -0.08487936 0.2058357 255 0 255
-0.07846694 -0.08585338 0.2074054 255 0 255
-0.07447472 -0.09214596 0.2162284 255 0 255
-0.04828501 -0.1980347 0.3599717 255 0 255
-0.04776822 -0.2040959 0.3680708 255 0 255
-0.02391806 -0.1152091 0.2542434 255 0 255
-0.01685141 -0.09500562 0.2286432 255 0 255
-0.01593039 -0.09496365 0.228737 255 0 255
-0.01220907 -0.09416664 0.228289 255 0 255
-0.009526268 -0.09581207 0.230908 255 0 255
-0.008596304 -0.09575052 0.2309801 255 0 255
-0.003952274 -0.1165043 0.2592253 255 0 255
-0.002776357 -0.1338885 0.2824347 255 0 255
-0.1119301 -0.08844826 0.2049977 255 0 255
-0.107575 -0.08543007 0.2016251 255 0 255
-0.1020622 -0.08199759 0.1978615 255 0 255
-0.09917773 -0.08064023 0.196463 255 0 255
-0.09517992 -0.08019104 0.1963874 255 0 255
-0.09278662 -0.07936702 0.195623 255 0 255
-0.09159876 -0.07894951 0.195233 255 0 255
-0.09003467 -0.07927154 0.1958537 255 0 255
-0.08689132 -0.07988998 0.1970675 255 0 255
-0.0848924 -0.08092022 0.1986714 255 0 255
-0.08241424 -0.08266408 0.2012716 255 0 255
-0.08195917 -0.0833922 0.2022812 255 0 255
-0.07922138 -0.08642276 0.2066008 255 0 255
-0.0768403 -0.08870386 0.209901 255 0 255
-0.07521597 -0.09084817 0.2129232 255 0 255
-0.07409035 -0.09227113 0.2149369 255 0 255
-0.06180558 -0.07594053 0.1953166 255 0 255
-0.05130795 -0.21701 0.3817551 255 0 255
-0.04653003 -0.2187812 0.3848294 255 0 255
-0.03737355 -0.1899916 0.3484968 255 0 255
-0.03182742 -0.1600491 0.3100815 255 0 255
-0.01860331 -0.09581744 0.2278898 255 0 255
-0.01487242 -0.09504525 0.2274786 255 0 255
-0.00573754 -0.09811198 0.2330027 255 0 255
-0.1019857 -0.08268236 0.1973379 255 0 255
-0.09867318 -0.08073647 0.1952532 255 0 255
-0.08839034 -0.08024934 0.1959571 255 0 255
-0.08402006 -0.08173265 0.1984516 255 0 255
-0.08278408 -0.08260755 0.1997477 255 0 255
-0.08188158 -0.08407141 0.2017616 255 0 255
-0.07109468 -0.09270798 0.2144275 255 0 255
-0.07022215 -0.09281003 0.2146825 255 0 255
-0.0456831 -0.2158441 0.3783052 255 0 255
-0.04223059 -0.2041555 0.3636358 255 0 255
-0.01936802 -0.09597206 0.2264398 255 0 255
-0.01845136 -0.09593737 0.2265414 255 0 255
-0.0175345 -0.0959003 0.2266403 255 0 255
-0.01570016 -0.09581903 0.2268298 255 0 255
-0.01382251 -0.09511636 0.2262185 255 0 255
-0.00929787 -0.09607042 0.2281978 255 0 255
-0.00654207 -0.09648994 0.2291965 255 0 255
-0.09902571 -0.0819907 0.1954261 255 0 255
-0.08674005 -0.0812176 0.1960479 255 0 255
-0.08350931 -0.0831377 0.1989423 255 0 255
-0.07921914 -0.0897375 0.2079964 255 0 255
-0.07752606 -0.0899865 0.2085497 255 0 255
-0.07560165 -0.0915516 0.2108274 255 0 255
-0.07130023 -0.09403002 0.2146161 255 0 255
-0.05191087 -0.2351131 0.3994284 255 0 255
-0.04598482 -0.2097986 0.3676789 255 0 255
-0.02786663 -0.1258183 0.2621128 255 0 255
-0.02513989 -0.1134605 0.246589 255 0 255
-0.02303411 -0.1048026 0.2357442 255 0 255
-0.02140535 -0.09922683 0.2288035 255 0 255
-0.01908134 -0.0948513 0.2235239 255 0 255
-0.01464668 -0.09588695 0.2255725 255 0 255
-0.01373288 -0.09584054 0.22566 255 0 255
-0.0119049 -0.09574065 0.2258268 255 0 255
-0.0101294 -0.09685943 0.2275602 255 0 255
-0.00643993 -0.09661017 0.2278411 255 0 255
-0.002739984 -0.09754637 0.2296596 255 0 255
-0.109053 -0.08849675 0.2009932 255 0 255
-0.1039438 -0.08560517 0.1979869 255 0 255
-0.1001693 -0.08306384 0.1952535 255 0 255
-0.09730935 -0.08167093 0.1938592 255 0 255
-0.09573898 -0.08202516 0.1945148 255 0 255
-0.09255993 -0.08135852 0.1940874 255 0 255
-0.08902387 -0.08141518 0.1946294 255 0 255
-0.08343166 -0.08380579 0.1984228 255 0 255
-0.08262912 -0.08394638 0.1987109 255 0 255
-0.08218123 -0.0846854 0.1997126 255 0 255
-0.08098667 -0.08883791 0.2051635 255 0 255
-0.07913741 -0.09043533 0.2074537 255 0 255
-0.07744413 -0.0906848 0.2080066 255 0 255
-0.07465971 -0.09237221 0.2105466 255 0 255
-0.07353884 -0.09381401 0.2125427 255 0 255
-0.07179848 -0.0940306 0.2130647 255 0 255
-0.06861752 -0.09311565 0.212349 255 0 255
-0.02094837 -0.09686728 0.2243218 255 0 255
-0.01718241 -0.09549624 0.2231653 255 0 255
-0.01542096 -0.09603446 0.2241367 255 0 255
-0.0126912 -0.09589581 0.2243981 255 0 255
-0.01001244 -0.09697029 0.2262077 255 0 255
-0.006359236 -0.0979542 0.2280628 255 0 255
-0.1085229 -0.08861684 0.1997653 255 0 255
-0.09765662 -0.08292503 0.1940258 255 0 255
-0.09566183 -0.08268995 0.1939939 255 0 255
-0.094461 -0.08227179 0.1936265 255 0 255
-0.09051454 -0.0817529 0.1934995 255 0 255
-0.08816151 -0.08222973 0.1944175 255 0 255
-0.08658656 -0.08253686 0.195018 255 0 255
-0.08538043 -0.08343579 0.1963163 255 0 255
-0.08458505 -0.08358248 0.1966098 255 0 255
-0.08378845 -0.08372702 0.196901 255 0 255
-0.08219171 -0.08400957 0.1974763 255 0 255
-0.08118029 -0.08683673 0.2011866 255 0 255
-0.07853491 -0.09186548 0.2079095 255 0 255
-0.07629332 -0.09284168 0.209458 255 0 255
-0.02634028 -0.1039298 0.2309511 255 0 255
-0.02064055 -0.09571949 0.2214199 255 0 255
-0.01883892 -0.09565837 0.2216278 255 0 255
-0.01793772 -0.09562428 0.2217277 255 0 255
-0.01442166 -0.09670718 0.2236648 255 0 255
-0.00812056 -0.098813 0.227356 255 0 255
-0.002561211 -0.0983938 0.2277295 255 0 255
-0.1079927 -0.08872869 0.1985395 255 0 255
-0.1000131 -0.08440692 0.1941969 255 0 255
-0.09879303 -0.08400043 0.1938513 255 0 255
-0.09637012 -0.08317598 0.1931442 255 0 255
-0.09321786 -0.08386955 0.194435 255 0 255
-0.09202408 -0.08343983 0.1940585 255 0 255
-0.09004944 -0.08316854 0.1939863 255 0 255
-0.0888698 -0.0827286 0.1935958 255 0 255
-0.08413709 -0.08363869 0.1953821 255 0 255
-0.07620947 -0.09354211 0.2089044 255 0 255
-0.07307006 -0.09461612 0.2106977 255 0 255
-0.07249966 -0.09534102 0.2116891 255 0 255
-0.06959955 -0.09503982 0.2117256 255 0 255
-0.06813516 -0.09585539 0.2129604 255 0 255
-0.06550469 -0.09613585 0.2136924 255 0 255
-0.01958275 -0.09577284 0.2201882 255 0 255
-0.01519289 -0.09684075 0.222231 255 0 255
-0.01342184 -0.09737527 0.2231874 255 0 255
-0.01254876 -0.09795069 0.2240524 255 0 255
-0.008955278 -0.09960096 0.2267098 255 0 255
-0.004324247 -0.09989112 0.2278254 255 0 255
-0.001512539 -0.1009039 0.2295601 255 0 255
-0.1100822 -0.09098235 0.1996318 255 0 255
-0.09592211 -0.08461075 0.1936296 255 0 255
-0.09273362 -0.08393107 0.1932186 255 0 255
-0.09194574 -0.08409855 0.1935339 255 0 255
-0.08800612 -0.08353948 0.1933784 255 0 255
-0.08405869 -0.08429383 0.1948601 255 0 255
-0.08326558 -0.08443823 0.1951496 255 0 255
-0.08283336 -0.0851889 0.1961429 255 0 255
-0.08006133 -0.08967341 0.2021078 255 0 255
-0.07526691 -0.09435875 0.2086176 255 0 255
-0.0706712 -0.09625959 0.2116429 255 0 255
-0.06951416 -0.09574278 0.2111655 255 0 255
-0.06832574 -0.09718254 0.2131311 255 0 255
-0.06558524 -0.09942119 0.216319 255 0 255
-0.02967692 -0.09855626 0.2206355 255 0 255
-0.02477991 -0.0959868 0.2181871 255 0 255
-0.0229965 -0.0959496 0.2184198 255 0 255
-0.02128781 -0.09653182 0.2194158 255 0 255
-0.01680216 -0.09637387 0.2199266 255 0 255
-0.01595678 -0.09696316 0.2207973 255 0 255
-0.01419734 -0.09750602 0.2217556 255 0 255
-0.008905502 -0.1015775 0.2276916 255 0 255
-0.006093005 -0.1007587 0.227121 255 0 255
-0.003298618 -0.1011687 0.2280857 255 0 255
-0.001419124 -0.1016369 0.2289761 255 0 255
0.00115222 -0.09453389 0.2205158 255 0 255
-0.09820811 -0.08473137 0.1921103 255 0 255
-0.09584282 -0.08527212 0.1930986 255 0 255
-0.08275393 -0.08584547 0.1956156 255 0 255
-0.07493497 -0.09641147 0.2097699 255 0 255
-0.06971197 -0.0970664 0.2113317 255 0 255
-0.0688379 -0.09716731 0.211583 255 0 255
-0.0685151 -0.09851347 0.2132942 255 0 255
-0.02814814 -0.09609799 0.2163625 255 0 255
-0.02715892 -0.09545764 0.2157224 255 0 255
-0.02030252 -0.09720548 0.2189605 255 0 255
-0.01940558 -0.09717625 0.2190654 255 0 255
-0.01761094 -0.09711076 0.219267 255 0 255
-0.01410757 -0.09821272 0.2211879 255 0 255
-0.01320135 -0.09816664 0.2212747 255 0 255
-0.01236763 -0.09937856 0.2229101 255 0 255
-0.01062428 -0.1011629 0.2254005 255 0 255
-0.009722454 -0.1017356 0.2262548 255 0 255
-0.008833323 -0.1029347 0.2278838 255 0 255
-0.003199704 -0.1031514 0.2290584 255 0 255
0.02611027 -0.09579518 0.2247749 255 0 255
-0.1039063 -0.08822303 0.194248 255 0 255
-0.1026666 -0.08782113 0.1939264 255 0 255
-0.100999 -0.08681589 0.1929266 255 0 255
-0.09977403 -0.08640527 0.1925927 255 0 255
-0.09855482 -0.08599079 0.1922535 255 0 255
-0.09576292 -0.08593134 0.1925651 255 0 255
-0.08178221 -0.08801159 0.1970627 255 0 255
-0.08038076 -0.09027205 0.2000297 255 0 255
-0.07940383 -0.09177388 0.2020085 255 0 255
-0.07595485 -0.09562992 0.2072273 255 0 255
-0.07509649 -0.0957488 0.2074965 255 0 255
-0.0745429 -0.09648849 0.2084831 255 0 255
-0.07166135 -0.09818352 0.2109779 255 0 255
-0.06962525 -0.09776781 0.2107636 255 0 255
-0.06727188 -0.09869138 0.2122394 255 0 255
-0.06665924 -0.09941347 0.2132148 255 0 255
-0.04414837 -0.1437988 0.2711143 255 0 255
-0.01572636 -0.09773415 0.2188924 255 0 255
-0.008739972 -0.1036633 0.2272938 255 0 255
0.0007021958 -0.104817 0.230229 255 0 255
0.001354042 -0.09655412 0.220171 255 0 255
-0.1089284 -0.0918792 0.1966131 255 0 255
-0.1038242 -0.08889567 0.1936993 255 0 255
-0.09689124 -0.08701542 0.1923789 255 0 255
-0.09409843 -0.08693913 0.1926753 255 0 255
-0.08894499 -0.0859419 0.1921865 255 0 255
-0.08698159 -0.08564418 0.1921013 255 0 255
-0.08159168 -0.09004744 0.1982141 255 0 255
-0.08077415 -0.09018479 0.1984976 255 0 255
-0.07830828 -0.09395276 0.2034312 255 0 255
-0.07359219 -0.09729831 0.208181 255 0 255
-0.06745572 -0.1000244 0.2123931 255 0 255
-0.06683887 -0.1007501 0.2133669 255 0 255
-0.06468067 -0.1022858 0.2155538 255 0 255
-0.03723262 -0.1121533 0.2317075 255 0 255
-0.02610115 -0.09682303 0.2147282 255 0 255
-0.01647981 -0.09783161 0.2174613 255 0 255
-0.01563706 -0.09843018 0.2183242 255 0 255
-0.01388403 -0.09898252 0.2192744 255 0 255
-0.008646448 -0.1043896 0.2267009 255 0 255
0.04109527 -0.1388582 0.2768705 255 0 255
-0.1041813 -0.09016967 0.193813 255 0 255
-0.09881858 -0.08791378 0.1918467 255 0 255
-0.09802416 -0.08809879 0.1921806 255 0 255
-0.09680984 -0.08767293 0.1918382 255 0 255
-0.09560131 -0.08724323 0.1914905 255 0 255
-0.09083708 -0.08687835 0.1917221 255 0 255
-0.08453196 -0.08674556 0.1924566 255 0 255
-0.08373974 -0.08689314 0.1927474 255 0 255
-0.08251236 -0.08780222 0.1940186 255 0 255
-0.08206987 -0.08856501 0.1950016 255 0 255
-0.07972971 -0.09236472 0.19992 255 0 255
-0.07770404 -0.0953854 0.2038565 255 0 255
-0.07547004 -0.0963823 0.2053834 255 0 255
-0.06522975 -0.1022753 0.2139983 255 0 255
-0.06279001 -0.1031701 0.2154402 255 0 255
-0.03345282 -0.09944802 0.2153652 255 0 255
-0.03231074 -0.09817123 0.2139961 255 0 255
-0.02415639 -0.09683886 0.2136439 255 0 255
-0.01907161 -0.0986236 0.2165957 255 0 255
-0.0129698 -0.1009124 0.2203231 255 0 255
-0.01037474 -0.1039533 0.2244129 255 0 255
-0.006687388 -0.1056239 0.2270187 255 0 255
-0.005752577 -0.1061938 0.2278569 255 0 255
-0.0009842995 -0.107725 0.2304698 255 0 255
-0.1087583 -0.09325106 0.1954806 255 0 255
-0.1070457 -0.09225129 0.194527 255 0 255
-0.1057885 -0.09185132 0.1942259 255 0 255
-0.104537 -0.09144729 0.1939193 255 0 255
-0.09873635 -0.08857142 0.1913016 255 0 255
-0.09672784 -0.08832823 0.1912949 255 0 255
-0.0955196 -0.0878959 0.1909494 255 0 255
-0.09472813 -0.08807296 0.1912732 255 0 255
-0.08207057 -0.08782674 0.1927873 255 0 255
-0.07729475 -0.09543606 0.2025858 255 0 255
-0.07197919 -0.09953881 0.208276 255 0 255
-0.06992657 -0.1011281 0.2104817 255 0 255
-0.06424453 -0.1030719 0.2136507 255 0 255
-0.0633484 -0.1031586 0.2138875 255 0 255
-0.06057626 -0.100769 0.2114354 255 0 255
-0.03209772 -0.09821155 0.2126735 255 0 255
-0.02318852 -0.09750102 0.2131963 255 0 255
-0.02230817 -0.09748165 0.2133098 255 0 255
-0.01719531 -0.09924684 0.2162253 255 0 255
-0.01630144 -0.09921072 0.2163217 255 0 255
-0.01370386 -0.1003737 0.2181248 255 0 255
-0.007550657 -0.1070547 0.2271144 255 0 255
-0.006615475 -0.10763 0.227953 255 0 255
0.061559 -0.1810057 0.3270858 255 0 255
-0.09950332 -0.09045266 0.1920862 255 0 255
-0.09464578 -0.08872373 0.1907293 255 0 255
-0.09385291 -0.08889887 0.1910505 255 0 255
-0.08673912 -0.08757433 0.1905008 255 0 255
-0.08595045 -0.08772898 0.1907981 255 0 255
-0.08436939 -0.08803173 0.1913857 255 0 255
-0.0832099 -0.0875548 0.1909873 255 0 255
-0.08162899 -0.08784316 0.1915585 255 0 255
-0.08119295 -0.08861108 0.1925335 255 0 255
-0.07983386 -0.09090938 0.1954601 255 0 255
-0.07888523 -0.09243672 0.1974122 255 0 255
-0.0763645 -0.09623609 0.2022939 255 0 255
-0.07159769 -0.0995938 0.2069844 255 0 255
-0.06867726 -0.1012907 0.2094329 255 0 255
-0.05936338 -0.100899 0.210352 255 0 255
-0.03013134 -0.09824907 0.2116294 255 0 255
-0.02925378 -0.09824831 0.2117636 255 0 255
-0.02837582 -0.09824525 0.2118951 255 0 255
-0.0257397 -0.0982221 0.2122743 255 0 255
-0.02213864 -0.09751148 0.2119855 255 0 255
-0.02133939 -0.09813695 0.2128543 255 0 255
-0.02045844 -0.09811296 0.2129625 255 0 255
-0.01361351 -0.1010658 0.217546 255 0 255
-0.008402135 -0.1078428 0.2264342 255 0 255
-0.006563496 -0.1109334 0.2304044 255 0 255
-0.003661233 -0.1132894 0.2336681 255 0 255
-0.002684214 -0.1125685 0.2329639 255 0 255
-0.001715083 -0.1118457 0.2322563 255 0 255
-6.713704E-05 -0.1001279 0.218562 255 0 255
-0.1094841 -0.09583309 0.1956435 255 0 255
-0.10732 -0.09421349 0.1940478 255 0 255
-0.1031214 -0.09237526 0.1924865 255 0 255
-0.09059147 -0.08881641 0.1901023 255 0 255
-0.088231 -0.087897 0.1893615 255 0 255
-0.08586846 -0.08836827 0.1902594 255 0 255
-0.08470439 -0.08789441 0.1898705 255 0 255
-0.08233821 -0.08833746 0.1907369 255 0 255
-0.0815471 -0.08848079 0.1910212 255 0 255
-0.07880075 -0.09309357 0.1968587 255 0 255
-0.07814716 -0.09525733 0.1995049 255 0 255
-0.0773126 -0.09538616 0.1997795 255 0 255
-0.06736854 -0.1034661 0.2107787 255 0 255
-0.06611522 -0.1049422 0.2127067 255 0 255
-0.03004325 -0.09892341 0.2110608 255 0 255
-0.02467924 -0.09823398 0.2110728 255 0 255
-0.02380337 -0.09821937 0.2111909 255 0 255
-0.02029684 -0.09813775 0.2116372 255 0 255
-0.009231224 -0.1079784 0.2249867 255 0 255
-0.007432537 -0.1117379 0.2297102 255 0 255
-0.004547034 -0.1147608 0.2337345 255 0 255
-0.109396 -0.09651673 0.1950632 255 0 255
-0.1072329 -0.09488873 0.1934746 255 0 255
-0.1017962 -0.09262002 0.1916113 255 0 255
-0.09609783 -0.09108306 0.1906425 255 0 255
-0.09488917 -0.0906406 0.1903013 255 0 255
-0.09050846 -0.08945802 0.1895574 255 0 255
-0.08225586 -0.08897266 0.1901974 255 0 255
-0.08146471 -0.08911625 0.1904814 255 0 255
-0.0782278 -0.09451663 0.1972734 255 0 255
-0.0772263 -0.09605031 0.1992152 255 0 255
-0.0599523 -0.1068896 0.2144761 255 0 255
-0.0556282 -0.09989811 0.2069405 255 0 255
-0.07224816 -0.1977024 0.3189688 255 0 255
-0.05096754 -0.1372444 0.2513858 255 0 255
-0.03183244 -0.1002433 0.2109605 255 0 255
-0.02995488 -0.09959548 0.2104896 255 0 255
-0.02907727 -0.09959485 0.2106237 255 0 255
-0.02624172 -0.09827201 0.2095098 255 0 255
-0.02020861 -0.09880724 0.2110682 255 0 255
-0.01597914 -0.1006098 0.2138361 255 0 255
-0.01513819 -0.1012236 0.214686 255 0 255
-0.01343223 -0.102443 0.2163802 255 0 255
-0.008283489 -0.1118871 0.2282506 255 0 255
-0.007377234 -0.1144233 0.2313646 255 0 255
-0.003463748 -0.1147857 0.2324016 255 0 255
-0.001615172 -0.1068466 0.223387 255 0 255
0.1042237 -0.2494911 0.4074653 255 0 255
0.05328867 -0.1012848 0.2256494 255 0 255
-0.1033837 -0.09432124 0.1920097 255 0 255
-0.09764375 -0.09279722 0.191082 255 0 255
-0.09400802 -0.09146444 0.1900694 255 0 255
-0.08727936 -0.08932722 0.1885793 255 0 255
-0.08532593 -0.08900855 0.1884974 255 0 255
-0.08332901 -0.09009351 0.1900507 255 0 255
-0.08084999 -0.0919401 0.1925598 255 0 255
-0.07764495 -0.09594271 0.1976802 255 0 255
-0.07610303 -0.0982476 0.2005849 255 0 255
-0.07525764 -0.09837113 0.2008541 255 0 255
-0.07441115 -0.09849232 0.2011209 255 0 255
-0.07186536 -0.09884205 0.2019065 255 0 255
-0.06988654 -0.1004627 0.2040838 255 0 255
-0.06725492 -0.1028154 0.2072097 255 0 255
-0.05962434 -0.1069431 0.2131509 255 0 255
-0.04398957 -0.09132268 0.197367 255 0 255
-0.04198234 -0.1066474 0.215481 255 0 255
-0.02963543 -0.09895221 0.2084249 255 0 255
-0.0261538 -0.09893602 0.208941 255 0 255
-0.01760865 -0.1007 0.2123095 255 0 255
-0.01672273 -0.1006665 0.2124076 255 0 255
-0.01588941 -0.101286 0.2132568 255 0 255
-0.01338232 -0.1037828 0.216548 255 0 255
-0.01077962 -0.1062534 0.2198243 255 0 255
-0.00337125 -0.1135742 0.2294891 255 0 255
-0.1096659 -0.09849526 0.1945402 255 0 255
-0.1049818 -0.0960253 0.1923876 255 0 255
-0.08482915 -0.09042651 0.1889227 255 0 255
-0.08403782 -0.09057784 0.1892145 255 0 255
-0.08361092 -0.09136377 0.1901828 255 0 255
-0.08111627 -0.09321985 0.1926912 255 0 255
-0.07755807 -0.0965991 0.1971136 255 0 255
-0.07262668 -0.09939457 0.2010715 255 0 255
-0.06416775 -0.1051806 0.2090095 255 0 255
-0.06353367 -0.1059224 0.20996 255 0 255
-0.06289107 -0.1066626 0.2109099 255 0 255
-0.06248613 -0.1080545 0.2125751 255 0 255
-0.05658602 -0.1045164 0.2093887 255 0 255
-0.04939447 -0.09094314 0.1948318 255 0 255
-0.04416431 -0.08726078 0.1913801 255 0 255
-0.03940136 -0.1007841 0.2076962 255 0 255
-0.03750602 -0.1001731 0.207281 255 0 255
-0.03041676 -0.09961192 0.2077183 255 0 255
-0.02519427 -0.0995879 0.208492 255 0 255
-0.004243461 -0.114382 0.228792 255 0 255
-0.002497253 -0.09459203 0.2062388 255 0 255
0.09219457 -0.1796989 0.319339 255 0 255
-0.1074121 -0.09752256 0.1923839 255 0 255
-0.1048931 -0.09669128 0.1918085 255 0 255
-0.09827425 -0.09391402 0.1896203 255 0 255
-0.08946487 -0.09153576 0.1882159 255 0 255
-0.08632408 -0.09074751 0.1877842 255 0 255
-0.08352626 -0.09199792 0.1896311 255 0 255
-0.08138128 -0.09450319 0.1928151 255 0 255
-0.07893841 -0.0949193 0.1936568 255 0 255
-0.07714225 -0.0966072 0.1958555 255 0 255
-0.07253786 -0.100059 0.2004933 255 0 255
-0.07054252 -0.0996352 0.2003093 255 0 255
-0.06827906 -0.1006091 0.2017639 255 0 255
-0.06452511 -0.1024099 0.2043893 255 0 255
-0.06391897 -0.1031568 0.2053351 255 0 255
-0.06268121 -0.1046461 0.207225 255 0 255
-0.06165523 -0.1067851 0.2098262 255 0 255
-0.05626794 -0.1045412 0.2080763 255 0 255
-0.04749331 -0.09370659 0.1970169 255 0 255
-0.03293417 -0.1002516 0.2067233 255 0 255
-0.02761203 -0.09960724 0.2068013 255 0 255
-0.02327485 -0.09955864 0.2074112 255 0 255
-0.0215377 -0.09952301 0.2076373 255 0 255
-0.01899754 -0.100114 0.208704 255 0 255
-0.01315887 -0.1044911 0.2146114 255 0 255
-0.01067863 -0.109626 0.2208691 255 0 255
-0.009916139 -0.1141893 0.2262079 255 0 255
-0.1035529 -0.09693059 0.1909332 255 0 255
-0.1010681 -0.09606986 0.1903298 255 0 255
-0.08661889 -0.09201526 0.1879019 255 0 255
-0.08094458 -0.09449958 0.1915734 255 0 255
-0.0772175 -0.09582832 0.1936424 255 0 255
-0.07414494 -0.1004843 0.1993876 255 0 255
-0.0732973 -0.1006039 0.1996513 255 0 255
-0.07244857 -0.1007211 0.1999126 255 0 255
-0.07045357 -0.1002948 0.1997307 255 0 255
-0.06875646 -0.100512 0.2002339 255 0 255
-0.06390606 -0.1017651 0.2023903 255 0 255
-0.05549765 -0.103236 0.2053354 255 0 255
-0.05418081 -0.1019819 0.2041126 255 0 255
-0.05159074 -0.09946332 0.2016486 255 0 255
-0.04926618 -0.09759343 0.1998804 255 0 255
-0.04778272 -0.09836259 0.200979 255 0 255
-0.04608936 -0.09846031 0.2013477 255 0 255
-0.04524168 -0.09850576 0.2015284 255 0 255
-0.04149968 -0.1006915 0.2045794 255 0 255
-0.0396123 -0.1000889 0.2041834 255 0 255
-0.03789129 -0.1001413 0.2045056 255 0 255
-0.03631346 -0.1008495 0.2055503 255 0 255
-0.03384695 -0.1015623 0.2067363 255 0 255
-0.03284556 -0.1009082 0.2061471 255 0 255
-0.02405469 -0.1002272 0.2067202 255 0 255
-0.02231813 -0.1001962 0.2069513 255 0 255
-0.02058039 -0.100156 0.2071723 255 0 255
-0.0197111 -0.1001325 0.207279 255 0 255
-0.01722065 -0.1013767 0.2090736 255 0 255
-0.01472886 -0.1032621 0.2115965 255 0 255
-0.009915325 -0.1175622 0.2285682 255 0 255
-0.007093508 -0.1233315 0.2355512 255 0 255
-0.1059697 -0.0984389 0.1909287 255 0 255
-0.1030303 -0.09695867 0.1897071 255 0 255
-0.101789 -0.09652689 0.1894088 255 0 255
-0.08888749 -0.09360521 0.1880718 255 0 255
-0.08770739 -0.09312639 0.1877116 255 0 255
-0.08291867 -0.09405409 0.1894808 255 0 255
-0.07923776 -0.0954154 0.1915709 255 0 255
-0.07842594 -0.09555171 0.1918474 255 0 255
-0.07235881 -0.1013808 0.1993293 255 0 255
-0.0712112 -0.1008397 0.1988945 255 0 255
-0.06725128 -0.09995877 0.1985046 255 0 255
-0.06668681 -0.1007194 0.1994465 255 0 255
-0.04399623 -0.1012344 0.2034822 255 0 255
-0.04141087 -0.101345 0.2040014 255 0 255
-0.03780284 -0.1007922 0.2039299 255 0 255
-0.03607965 -0.1008355 0.2042419 255 0 255
-0.02819171 -0.1002474 0.2047856 255 0 255
-0.01962259 -0.1007845 0.2067022 255 0 255
-0.01881994 -0.1014262 0.2075478 255 0 255
-0.01713135 -0.1020346 0.2084916 255 0 255
-0.01065521 -0.1150217 0.2241085 255 0 255
-0.009934873 -0.1216217 0.2316508 255 0 255
0.05705822 -0.07568484 0.1902664 255 0 255
-0.1092999 -0.1011982 0.1921618 255 0 255
-0.1058787 -0.09910028 0.1903397 255 0 255
-0.104623 -0.09867501 0.190056 255 0 255
-0.09599108 -0.09558515 0.1879197 255 0 255
-0.0880032 -0.09440017 0.1878132 255 0 255
-0.08682582 -0.09391581 0.1874516 255 0 255
-0.08443318 -0.09438376 0.188339 255 0 255
-0.07470891 -0.09958438 0.1956304 255 0 255
-0.07418688 -0.1003643 0.1965812 255 0 255
-0.06998056 -0.1009474 0.1978741 255 0 255
-0.06716212 -0.1006084 0.1979255 255 0 255
-0.05422246 -0.1039678 0.2036529 255 0 255
-0.05184189 -0.1020946 0.201924 255 0 255
-0.04667777 -0.1024225 0.2030789 255 0 255
-0.03512853 -0.1015026 0.2038156 255 0 255
-0.03426568 -0.1015185 0.2039653 255 0 255
-0.03167425 -0.1015524 0.2043992 255 0 255
-0.02994438 -0.1015634 0.2046758 255 0 255
-0.02821285 -0.1015651 0.2049423 255 0 255
-0.02465132 -0.1008695 0.2047097 255 0 255
-0.02300931 -0.1015144 0.2056812 255 0 255
-0.02222304 -0.1021688 0.2065324 255 0 255
-0.02127216 -0.101479 0.2059071 255 0 255
-0.02040315 -0.1014577 0.2060163 255 0 255
-0.01873083 -0.1020789 0.2069659 255 0 255
-0.00995028 -0.1257079 0.2347044 255 0 255
0.1285917 -0.2249604 0.3668068 255 0 255
-0.08871325 -0.0948661 0.1869442 255 0 255
-0.08673877 -0.09454279 0.1868887 255 0 255
-0.07858896 -0.09747502 0.1913887 255 0 255
-0.07187706 -0.1020318 0.1974681 255 0 255
-0.06875671 -0.101044 0.1968512 255 0 255
-0.06679051 -0.1005919 0.1966514 255 0 255
-0.06595071 -0.1006939 0.196893 255 0 255
-0.06395955 -0.1023174 0.1989973 255 0 255
-0.06165908 -0.1032581 0.2003922 255 0 255
-0.04175214 -0.1012645 0.2012282 255 0 255
-0.02628946 -0.1015305 0.2038855 255 0 255
-0.02118322 -0.1021263 0.2053254 255 0 255
-0.01776781 -0.1027009 0.2064834 255 0 255
-0.01695216 -0.1033435 0.20732 255 0 255
-0.01607409 -0.1033103 0.2074172 255 0 255
-0.01445686 -0.1052552 0.2098193 255 0 255
-0.009892615 -0.1278061 0.235507 255 0 255
-0.007888425 -0.1296901 0.2379004 255 0 255
-0.1023747 -0.09975273 0.1889382 255 0 255
-0.101133 -0.09931111 0.1886443 255 0 255
-0.09460347 -0.09639799 0.1864486 255 0 255
-0.09180202 -0.09628287 0.1867549 255 0 255
-0.08105114 -0.09623185 0.1883582 255 0 255
-0.07768363 -0.09824357 0.1910903 255 0 255
-0.07472479 -0.09942405 0.1928445 255 0 255
-0.07148588 -0.1020172 0.1961953 255 0 255
-0.06866667 -0.1016886 0.1962676 255 0 255
-0.0644489 -0.1022018 0.1974804 255 0 255
-0.05789259 -0.1035734 0.1999958 255 0 255
-0.05617731 -0.103726 0.2004267 255 0 255
-0.05187512 -0.1040663 0.2014606 255 0 255
-0.04908301 -0.1035681 0.2013407 255 0 255
-0.04458842 -0.1031381 0.2015562 255 0 255
-0.03808571 -0.1013529 0.200588 255 0 255
-0.0313716 -0.1021667 0.2025087 255 0 255
-0.02964957 -0.1021778 0.2027838 255 0 255
-0.02803459 -0.1028568 0.2037768 255 0 255
-0.02620061 -0.1021723 0.2033041 255 0 255
-0.02543445 -0.1028422 0.2041574 255 0 255
-0.024567 -0.1028327 0.2042792 255 0 255
-0.02029859 -0.1034267 0.2055829 255 0 255
-0.01686226 -0.1039943 0.2067303 255 0 255
-0.01598422 -0.1039612 0.2068276 255 0 255
-0.01281437 -0.1098826 0.2138202 255 0 255
-0.01119856 -0.1145108 0.2191544 255 0 255
-0.1094638 -0.1038383 0.1909788 255 0 255
-0.09010968 -0.09725508 0.1868041 255 0 255
-0.0784112 -0.09873904 0.1902399 255 0 255
-0.06744961 -0.1017692 0.1952424 255 0 255
-0.06661075 -0.1018738 0.1954861 255 0 255
-0.06577094 -0.1019762 0.1957274 255 0 255
-0.06462827 -0.103516 0.197584 255 0 255
-0.06147681 -0.1045598 0.1992087 255 0 255
-0.05780163 -0.1042209 0.1994048 255 0 255
-0.04707604 -0.103642 0.2004207 255 0 255
-0.04621746 -0.1036909 0.2006058 255 0 255
-0.03458162 -0.1020758 0.2006248 255 0 255
-0.02707874 -0.1034966 0.2033196 255 0 255
-0.01926646 -0.1033693 0.2043699 255 0 255
-0.01671472 -0.1039638 0.2054062 255 0 255
-0.01511517 -0.1059316 0.2077955 255 0 255
-0.01268294 -0.109879 0.2124702 255 0 255
-0.01187442 -0.1118664 0.2147606 255 0 255
-0.009639042 -0.1279654 0.2326592 255 0 255
-0.1017963 -0.1018957 0.1887305 255 0 255
-0.09890053 -0.1003455 0.1875045 255 0 255
-0.09645147 -0.0994259 0.1868918 255 0 255
-0.09442788 -0.09914207 0.1869014 255 0 255
-0.09241326 -0.09884593 0.186896 255 0 255
-0.09001987 -0.09788288 0.1862269 255 0 255
-0.08921635 -0.09805109 0.1865349 255 0 255
-0.08760551 -0.09838074 0.1871441 255 0 255
-0.08436881 -0.09901293 0.1883348 255 0 255
-0.07536996 -0.1005641 0.1914173 255 0 255
-0.07371919 -0.1008164 0.1919473 255 0 255
-0.06395244 -0.1049304 0.1979168 255 0 255
-0.06113068 -0.1045315 0.1979211 255 0 255
-0.06052744 -0.1052945 0.1988405 255 0 255
-0.05966895 -0.1053797 0.1990652 255 0 255
-0.05880963 -0.1054625 0.1992875 255 0 255
-0.05685304 -0.1049437 0.1990277 255 0 255
-0.05319598 -0.1045526 0.1991678 255 0 255
-0.04233832 -0.1031421 0.1993091 255 0 255
-0.04046345 -0.1025322 0.1989362 255 0 255
-0.03961208 -0.1025645 0.1991015 255 0 255
-0.03534709 -0.1026911 0.199891 255 0 255
-0.03106952 -0.10276 0.2006188 255 0 255
-0.02860941 -0.1034564 0.2017475 255 0 255
-0.02448016 -0.1047981 0.2038281 255 0 255
-0.0226521 -0.1040894 0.2033392 255 0 255
-0.01837233 -0.1046659 0.2046129 255 0 255
-0.01743772 -0.1039556 0.203986 255 0 255
-0.01585704 -0.1059376 0.2063703 255 0 255
-0.01341696 -0.1092298 0.2103024 255 0 255
-0.01097608 -0.1152172 0.2171507 255 0 255
0.11787 -0.1769321 0.3030557 255 0 255
-0.1071144 -0.1034496 0.1882483 255 0 255
-0.101279 -0.1018942 0.1874985 255 0 255
-0.09758083 -0.1005252 0.1866101 255 0 255
-0.09392558 -0.1006099 0.1872782 255 0 255
