ply
format ascii 1.0
Comment Generated by Floating Hands
element vertex 1116
property double x
property double y
property double z
property uchar red
property uchar green
property uchar blue
end_header
0.06005068 -0.007689152 0.2998504 255 0 255
0.06081839 -0.00729191 0.2987308 255 0 255
0.06759536 -0.0049186 0.2935026 255 0 255
0.07012914 -0.003090201 0.2879852 255 0 255
0.07171297 -0.0006609656 0.2796159 255 0 255
0.07214142 0.0007439912 0.2744903 255 0 255
0.07301054 0.000948527 0.2742825 255 0 255
0.07360154 0.001351837 0.2731314 255 0 255
0.07504302 0.001963745 0.271764 255 0 255
0.07786985 0.00319927 0.2690042 255 0 255
0.07871605 0.003415175 0.2687761 255 0 255
0.07925515 0.003822663 0.2676122 255 0 255
0.08009554 0.004041337 0.2673791 255 0 255
0.08177297 0.0044842 0.2669041 255 0 255
0.08460797 0.004978263 0.2670962 255 0 255
0.08695013 0.005077389 0.2684387 255 0 255
0.05252041 -0.007543449 0.2909283 255 0 255
0.05655047 -0.01112813 0.3070807 255 0 255
0.06091814 -0.008289729 0.2984854 255 0 255
0.06456365 -0.007318517 0.2968468 255 0 255
0.06574644 -0.007337501 0.297619 255 0 255
0.06670936 -0.007140772 0.2974357 255 0 255
0.06698142 -0.006307995 0.2943991 255 0 255
0.06793142 -0.00610941 0.2942113 255 0 255
0.06934654 -0.005288129 0.2919303 255 0 255
0.07181418 -0.00158923 0.2793888 255 0 255
0.07456607 0.0006554243 0.2726978 255 0 255
0.07514417 0.001064011 0.2715444 255 0 255
0.07627544 0.001881452 0.269234 255 0 255
0.07851583 0.002719125 0.2676262 255 0 255
0.08072475 0.003567809 0.2659976 255 0 255
0.08823864 0.004234442 0.2688845 255 0 255
0.09096357 0.00416706 0.2711147 255 0 255
0.09251471 0.004049903 0.27268 255 0 255
0.0538619 -0.01008308 0.2973916 255 0 255
0.06413452 -0.008938553 0.2986784 255 0 255
0.06607164 -0.008549302 0.2983207 255 0 255
0.06703881 -0.008351547 0.2981369 255 0 255
0.06754427 -0.007721408 0.2960516 255 0 255
0.06826811 -0.00730661 0.2949142 255 0 255
0.0689836 -0.006891298 0.293775 255 0 255
0.06944939 -0.006262723 0.2916871 255 0 255
0.07125753 -0.004804621 0.2873114 255 0 255
0.07307254 -0.002517818 0.2798936 255 0 255
0.07342413 -0.001896999 0.2778036 255 0 255
0.0737601 -0.001277672 0.2757138 255 0 255
0.08082761 0.002687044 0.2657795 255 0 255
0.08449096 0.003394838 0.2657365 255 0 255
0.08565732 0.00343469 0.2664099 255 0 255
0.0868296 0.003478347 0.2670782 255 0 255
0.09072793 0.00344592 0.2699715 255 0 255
0.09227691 0.003320587 0.2715362 255 0 255
0.05485076 -0.01221717 0.3019237 255 0 255
0.05793837 -0.01323246 0.307366 255 0 255
0.05913454 -0.01327699 0.3081664 255 0 255
0.06036209 -0.01200219 0.3040293 255 0 255
0.06250269 -0.01054167 0.2997206 255 0 255
0.06368998 -0.01057399 0.3005011 255 0 255
0.06466784 -0.01038079 0.3003261 255 0 255
0.0666208 -0.009987975 0.2999661 255 0 255
0.07051927 -0.008102517 0.2952234 255 0 255
0.07406761 -0.003238541 0.279449 255 0 255
0.07476755 -0.001148897 0.2722455 255 0 255
0.07591558 -0.0003151389 0.2699419 255 0 255
0.07956228 0.00116693 0.266954 255 0 255
0.08124467 0.001608185 0.266486 255 0 255
0.08208416 0.001831587 0.2662476 255 0 255
0.08292253 0.002056787 0.2660063 255 0 255
0.08375975 0.002283907 0.2657619 255 0 255
0.08845483 0.002441289 0.2684381 255 0 255
0.05548483 -0.01392274 0.3045301 255 0 255
0.05803822 -0.0142622 0.3070991 255 0 255
0.06125397 -0.01260398 0.3026502 255 0 255
0.06694753 -0.01121632 0.300655 255 0 255
0.0711077 -0.009530692 0.2968583 255 0 255
0.07182515 -0.009102201 0.2957139 255 0 255
0.0722847 -0.008454449 0.2936245 255 0 255
0.07356913 -0.006518317 0.2873554 255 0 255
0.07370167 -0.005660023 0.2843256 255 0 255
0.07434703 -0.005234088 0.2831762 255 0 255
0.0757263 -0.0009979529 0.2687787 255 0 255
0.07628424 -0.0005777433 0.2676273 255 0 255
0.07797635 -0.0001506059 0.2671833 255 0 255
0.08302614 0.0011752 0.2657805 255 0 255
0.08670605 0.001898912 0.2657072 255 0 255
0.09025294 0.002029648 0.2676799 255 0 255
0.09144694 0.002081058 0.2683271 255 0 255
0.05731307 -0.01570725 0.3079335 255 0 255
0.05832488 -0.01552589 0.3077819 255 0 255
0.05952662 -0.01557682 0.3085801 255 0 255
0.06015161 -0.01492267 0.3065157 255 0 255
0.06175815 -0.014081 0.3042867 255 0 255
0.06333143 -0.01323635 0.3020488 255 0 255
0.06530496 -0.01284795 0.3017002 255 0 255
0.06629039 -0.01265054 0.3015208 255 0 255
0.06825839 -0.01224931 0.3011518 255 0 255
0.06924094 -0.01204546 0.3009622 255 0 255
0.07359352 -0.00944694 0.2941041 255 0 255
0.07403234 -0.008791171 0.2920141 255 0 255
0.07471643 -0.008356796 0.2908641 255 0 255
0.0748629 -0.007483468 0.2878341 255 0 255
0.07525466 -0.006831588 0.2857442 255 0 255
0.07525083 -0.003163587 0.2727136 255 0 255
0.07837799 -0.001243594 0.2678831 255 0 255
0.07922644 -0.001025991 0.2676559 255 0 255
0.0822902 6.881377E-05 0.2657923 255 0 255
0.08312945 0.0002947512 0.2655513 255 0 255
0.08480444 0.0007521704 0.2650605 255 0 255
0.08681155 0.001016115 0.2654777 255 0 255
0.08798885 0.001052451 0.2661397 255 0 255
0.08882806 0.001291455 0.2658789 255 0 255
0.0582374 -0.01631779 0.3065531 255 0 255
0.06066263 -0.01505082 0.3032267 255 0 255
0.06285601 -0.01490891 0.3038473 255 0 255
0.06385207 -0.01471624 0.303677 255 0 255
0.06463382 -0.01428729 0.3025547 255 0 255
0.06605868 -0.01455773 0.3042738 255 0 255
0.06805182 -0.01415566 0.3039078 255 0 255
0.07491025 -0.01044136 0.2945733 255 0 255
0.07600652 -0.007346868 0.2843397 255 0 255
0.07526629 -0.00580706 0.2785094 255 0 255
0.07532013 -0.004934621 0.2754905 255 0 255
0.07621602 -0.002988389 0.2692434 255 0 255
0.07847878 -0.002128766 0.2676483 255 0 255
0.08239276 -0.0008108799 0.2655594 255 0 255
0.08323245 -0.000584591 0.2653186 255 0 255
0.08490829 -0.0001264438 0.2648281 255 0 255
0.08893458 0.0004068417 0.2656453 255 0 255
0.09131321 0.0004901691 0.266944 255 0 255
0.05996217 -0.01649162 0.304061 255 0 255
0.06295724 -0.01592576 0.303571 255 0 255
0.06637942 -0.0158146 0.3049438 255 0 255
0.06738072 -0.01561364 0.3047619 255 0 255
0.06860598 -0.01564616 0.3055221 255 0 255
0.07114018 -0.01455456 0.303057 255 0 255
0.07165345 -0.01387834 0.3009735 255 0 255
0.07239436 -0.01343491 0.2998315 255 0 255
0.07287978 -0.01275997 0.2977465 255 0 255
0.07431229 -0.01187204 0.2954548 255 0 255
0.07501596 -0.01142739 0.2943063 255 0 255
0.07653838 -0.009638898 0.2889784 255 0 255
0.07509144 -0.006506784 0.2773252 255 0 255
0.07545108 -0.004966185 0.2722305 255 0 255
0.07603303 -0.004532063 0.2710831 255 0 255
0.07942866 -0.00279447 0.267183 255 0 255
0.08112406 -0.002352278 0.2667205 255 0 255
0.08197006 -0.002128413 0.2664847 255 0 255
0.08450113 -0.001445555 0.2657598 255 0 255
0.0853425 -0.00121422 0.2655123 255 0 255
0.08618265 -0.0009810184 0.2652617 255 0 255
0.08735939 -0.0009543214 0.2659262 255 0 255
0.08904077 -0.0004766293 0.2654082 255 0 255
0.09106918 -0.0001957365 0.2657919 255 0 255
0.05466069 -0.01484039 0.2918729 255 0 255
0.05674294 -0.01614859 0.2974347 255 0 255
0.06185727 -0.01688849 0.3025089 255 0 255
0.06426593 -0.01699037 0.3040676 255 0 255
0.06526588 -0.01679422 0.3038935 255 0 255
0.06933031 -0.01137772 0.2873245 255 0 255
0.06927257 -0.01023584 0.2833717 255 0 255
0.07371926 -0.01011128 0.2853917 255 0 255
0.07464278 -0.009899002 0.2851837 255 0 255
0.07556523 -0.009684698 0.2849725 255 0 255
0.07539392 -0.008552785 0.2810208 255 0 255
0.07842597 -0.004557662 0.2692477 255 0 255
0.07983524 -0.003897777 0.2678674 255 0 255
0.08122562 -0.003234083 0.2664791 255 0 255
0.08259703 -0.002566739 0.2650829 255 0 255
0.08376145 -0.002555783 0.2657636 255 0 255
0.08628681 -0.001860698 0.2650215 255 0 255
0.0871262 -0.001625264 0.2647683 255 0 255
0.08796436 -0.001387983 0.2645121 255 0 255
0.05473903 -0.01296431 0.2818235 255 0 255
0.06289167 -0.01628475 0.2971603 255 0 255
0.06527626 -0.01638936 0.2987075 255 0 255
0.06581227 -0.01570437 0.2966419 255 0 255
0.066784 -0.01550661 0.2964625 255 0 255
0.06706651 -0.0145794 0.2934517 255 0 255
0.06732587 -0.01365469 0.2904419 255 0 255
0.06283694 -0.005870639 0.2616849 255 0 255
0.072969 -0.008297963 0.2753664 255 0 255
0.07440142 -0.008555291 0.2770272 255 0 255
0.07621936 -0.007224092 0.2735944 255 0 255
0.07738954 -0.006335851 0.2712996 255 0 255
0.07825756 -0.006118873 0.2710783 255 0 255
0.0867257 -0.002955984 0.2656947 255 0 255
0.08756909 -0.002719207 0.2654406 255 0 255
0.08841124 -0.002480544 0.2651834 255 0 255
0.09009185 -0.001997599 0.2646604 255 0 255
0.09093028 -0.001753342 0.2643945 255 0 255
0.04674086 -0.003244348 0.2417445 255 0 255
0.0518585 -0.007500261 0.2585477 255 0 255
0.06165947 -0.01316186 0.2823822 255 0 255
0.06235453 -0.01272944 0.2812733 255 0 255
0.06326736 -0.0125435 0.2811049 255 0 255
0.06303028 -0.01112445 0.2762255 255 0 255
0.06929552 -0.004980067 0.2590552 255 0 255
0.07748586 -0.00814637 0.2740501 255 0 255
0.07922543 -0.006795791 0.2706006 255 0 255
0.08088978 -0.005444545 0.2671411 255 0 255
0.08227514 -0.004769193 0.2657507 255 0 255
0.08598462 -0.004072319 0.2656974 255 0 255
0.08682964 -0.003836997 0.2654464 255 0 255
0.0543761 -0.002532725 0.2402249 255 0 255
0.06826399 -0.003953415 0.2521064 255 0 255
0.07817471 -0.008598984 0.272642 255 0 255
0.07932611 -0.007690341 0.2703437 255 0 255
0.08099047 -0.006326849 0.2668879 255 0 255
0.08491242 -0.004959958 0.2647763 255 0 255
0.08693326 -0.0047168 0.2651947 255 0 255
0.08862048 -0.004239873 0.2646842 255 0 255
0.08946224 -0.003998586 0.2644246 255 0 255
0.09078821 -0.003291238 0.2629871 255 0 255
0.07972682 -0.008821305 0.271007 255 0 255
0.07998966 -0.008125144 0.2689337 255 0 255
0.08054443 -0.007666548 0.267783 255 0 255
0.08300199 -0.006064224 0.2640882 255 0 255
0.08468524 -0.00560555 0.2636059 255 0 255
0.0867002 -0.005367382 0.2640256 255 0 255
0.08754123 -0.005130496 0.2637731 255 0 255
0.08921967 -0.004651097 0.2632594 255 0 255
0.09005702 -0.004408602 0.2629981 255 0 255
0.09089314 -0.004164239 0.2627339 255 0 255
0.06754419 -0.003917989 0.2458726 255 0 255
0.07375603 -0.008384919 0.263285 255 0 255
0.07691738 -0.01013065 0.270481 255 0 255
0.07837519 -0.01040071 0.2721124 255 0 255
0.07952661 -0.009475728 0.2698192 255 0 255
0.08064454 -0.008550471 0.2675215 255 0 255
0.08225869 -0.007162479 0.2640673 255 0 255
0.08361904 -0.006472114 0.2626755 255 0 255
0.08529357 -0.00601093 0.2621898 255 0 255
0.08814043 -0.005534931 0.26235 255 0 255
0.07962643 -0.01036657 0.2695516 255 0 255
0.08074438 -0.009433161 0.2672565 255 0 255
0.08623043 -0.006642534 0.2616837 255 0 255
0.09039167 -0.005445922 0.260405 255 0 255
0.07710298 -0.01094399 0.2669573 255 0 255
0.0802891 -0.01078539 0.2681348 255 0 255
0.08084387 -0.01031463 0.2669881 255 0 255
0.08170275 -0.01008981 0.2667578 255 0 255
0.08224439 -0.009618036 0.265608 255 0 255
0.0883453 -0.007269606 0.2618271 255 0 255
0.09049468 -0.006307822 0.2601436 255 0 255
0.07631604 -0.01105861 0.2639223 255 0 255
0.07982521 -0.01214443 0.2690058 255 0 255
0.08211528 -0.01121936 0.2674023 255 0 255
0.08266051 -0.01074259 0.2662529 255 0 255
0.08319737 -0.01026581 0.2651024 255 0 255
0.08442668 -0.008590994 0.2607343 255 0 255
0.08609404 -0.008125972 0.2602461 255 0 255
0.08726767 -0.008132462 0.2609058 255 0 255
0.08893498 -0.007654198 0.2603981 255 0 255
0.08976677 -0.007412252 0.2601399 255 0 255
0.09059735 -0.007168467 0.2598788 255 0 255
0.07845631 -0.01273865 0.2671125 255 0 255
0.0816614 -0.01258245 0.2682729 255 0 255
0.08307716 -0.01187327 0.266892 255 0 255
0.08485724 -0.009697859 0.2613759 255 0 255
0.08536054 -0.009217338 0.2602233 255 0 255
0.08986872 -0.008272059 0.2598714 255 0 255
0.09034322 -0.007786477 0.2587079 255 0 255
0.07325622 -0.009908158 0.2532695 255 0 255
0.07971998 -0.01365718 0.267529 255 0 255
0.08119886 -0.01395232 0.2691362 255 0 255
0.08207098 -0.01372558 0.2689066 255 0 255
0.08371744 -0.01226808 0.2654635 255 0 255
0.0844449 -0.01104323 0.2622532 255 0 255
0.08528832 -0.01081083 0.2620118 255 0 255
0.08663265 -0.01009006 0.2606133 255 0 255
0.08830392 -0.009614052 0.2601122 255 0 255
0.088788 -0.009126077 0.2589536 255 0 255
0.09044474 -0.008640941 0.2584373 255 0 255
0.0795147 -0.01427425 0.2663293 255 0 255
0.08327654 -0.01363327 0.2663289 255 0 255
0.08369894 -0.01213766 0.2622136 255 0 255
0.08505551 -0.01141802 0.2608262 255 0 255
0.08555873 -0.01092941 0.2596763 255 0 255
0.08888845 -0.009980033 0.2586792 255 0 255
0.08971781 -0.009738007 0.2584227 255 0 255
0.07900465 -0.01461523 0.2642139 255 0 255
0.08170422 -0.01599298 0.2694737 255 0 255
0.08258075 -0.0157646 0.2692435 255 0 255
0.08282701 -0.0150052 0.267187 255 0 255
0.08379725 -0.01300022 0.261932 255 0 255
0.08464264 -0.01276898 0.2616939 255 0 255
0.08515418 -0.01227618 0.2605462 255 0 255
0.08565734 -0.01178354 0.2593978 255 0 255
0.0868318 -0.01180625 0.2600575 255 0 255
0.08118781 -0.01634157 0.2673545 255 0 255
0.0834747 -0.01538799 0.2657518 255 0 255
0.08401503 -0.01489002 0.2646073 255 0 255
0.08389527 -0.01386149 0.261647 255 0 255
0.08474101 -0.01362989 0.261409 255 0 255
0.08609231 -0.01289869 0.2600201 255 0 255
0.08825696 -0.01192496 0.2583734 255 0 255
0.08246744 -0.01726735 0.2677412 255 0 255
0.08302458 -0.01676536 0.2666001 255 0 255
0.0835733 -0.01626337 0.265458 255 0 255
0.08379095 -0.01549142 0.2634078 255 0 255
0.08399297 -0.01472145 0.2613585 255 0 255
0.08601753 -0.01452261 0.2617843 255 0 255
0.08652777 -0.01401987 0.2606366 255 0 255
0.08737034 -0.01378222 0.2603901 255 0 255
0.08786738 -0.01327873 0.2592398 255 0 255
0.08225363 -0.01787291 0.2665322 255 0 255
0.08312292 -0.01764343 0.2663015 255 0 255
0.084417 -0.01585275 0.2619716 255 0 255
0.08578212 -0.01511358 0.2605886 255 0 255
0.08662625 -0.01487745 0.2603453 255 0 255
0.09058821 -0.01263063 0.2561382 255 0 255
0.08078843 -0.01734903 0.2616916 255 0 255
0.0825885 -0.01796168 0.2641859 255 0 255
0.0867244 -0.0157337 0.2600506 255 0 255
0.08756769 -0.01549532 0.2598046 255 0 255
0.0880646 -0.01498376 0.2586571 255 0 255
0.08938555 -0.01423041 0.2572564 255 0 255
0.09021677 -0.01398649 0.2570009 255 0 255
0.08354697 -0.01859951 0.2636515 255 0 255
0.08766588 -0.01634984 0.2595067 255 0 255
0.08816274 -0.0158343 0.2583607 255 0 255
0.08900034 -0.01559275 0.2581102 255 0 255
0.08948398 -0.01507651 0.2569616 255 0 255
0.08995917 -0.0145605 0.2558125 255 0 255
0.0759646 -0.01446224 0.2466084 255 0 255
0.08332323 -0.01918026 0.262442 255 0 255
0.0845047 -0.01923331 0.263111 255 0 255
0.08640967 -0.01796099 0.2605929 255 0 255
0.0877637 -0.01720304 0.2592054 255 0 255
0.08874887 -0.01616408 0.2569157 255 0 255
0.09005713 -0.01540131 0.2555159 255 0 255
0.0797039 -0.01765969 0.2542385 255 0 255
0.0875184 -0.0177717 0.2580051 255 0 255
0.08801153 -0.01724916 0.2568631 255 0 255
0.08967972 -0.01676482 0.2563621 255 0 255
0.0906214 -0.01571694 0.2540691 255 0 255
0.0772531 -0.01613638 0.2467265 255 0 255
0.08255091 -0.02002281 0.2591201 255 0 255
0.08675013 -0.02077875 0.2629097 255 0 255
0.08745327 -0.0194331 0.2597333 255 0 255
0.09025204 -0.01707886 0.2549127 255 0 255
0.09071857 -0.01655107 0.2537674 255 0 255
0.08167961 -0.01998093 0.2561114 255 0 255
0.08446907 -0.02152741 0.2612738 255 0 255
0.08684757 -0.02164347 0.2625923 255 0 255
0.08703669 -0.02081804 0.2605587 255 0 255
0.08721016 -0.01999469 0.2585263 255 0 255
0.08987406 -0.01844763 0.2557492 255 0 255
0.09034894 -0.0179156 0.254606 255 0 255
0.08080558 -0.01991584 0.2531073 255 0 255
0.08608118 -0.02274561 0.2625116 255 0 255
0.08815166 -0.02060219 0.2579664 255 0 255
0.08913624 -0.01953126 0.255689 255 0 255
0.08997069 -0.019287 0.2554376 255 0 255
0.09091187 -0.01821518 0.2531539 255 0 255
0.08057418 -0.02043519 0.2519011 255 0 255
0.09006701 -0.02012497 0.2551228 255 0 255
0.08377468 -0.02317429 0.2576257 255 0 255
0.08868838 -0.02259476 0.2582157 255 0 255
0.09063754 -0.02041758 0.2536663 255 0 255
0.08670015 -0.02563706 0.2624197 255 0 255
0.08775912 -0.02453929 0.2601562 255 0 255
0.08827592 -0.02399051 0.2590232 255 0 255
0.08878425 -0.02344185 0.2578894 255 0 255
0.08928411 -0.02289331 0.2567547 255 0 255
0.07987332 -0.02194152 0.2482793 255 0 255
0.08819319 -0.02570347 0.2607116 255 0 255
0.08871353 -0.02514971 0.2595792 255 0 255
0.0893795 -0.023735 0.2564266 255 0 255
0.08028606 -0.02306288 0.248853 255 0 255
0.08470971 -0.02632944 0.2584218 255 0 255
0.08722295 -0.02767486 0.2626329 255 0 255
0.08828889 -0.02655922 0.260374 255 0 255
0.08932094 -0.02544384 0.2581115 255 0 255
0.08982423 -0.02488636 0.256979 255 0 255
0.08765043 -0.02885684 0.2631759 255 0 255
0.08819117 -0.02829402 0.2620475 255 0 255
0.09041409 -0.02516743 0.2555113 255 0 255
0.0917391 -0.02435687 0.254125 255 0 255
0.09257659 -0.02410547 0.2538682 255 0 255
0.08774598 -0.0297211 0.2628267 255 0 255
0.08828667 -0.02915433 0.2617 255 0 255
0.08881886 -0.02858761 0.2605723 255 0 255
0.08985782 -0.02745436 0.2583144 255 0 255
0.09099492 -0.02543933 0.2540427 255 0 255
0.09230684 -0.02462377 0.2526559 255 0 255
0.08120163 -0.02613273 0.249651 255 0 255
0.09010845 -0.02740912 0.2559605 255 0 255
0.09060301 -0.02683993 0.2548322 255 0 255
0.09192843 -0.02602071 0.2534498 255 0 255
0.08063829 -0.0262759 0.2475466 255 0 255
0.08475097 -0.02936731 0.2561681 255 0 255
0.08726973 -0.03078398 0.2603518 255 0 255
0.09105181 -0.02799827 0.2553646 255 0 255
0.08890817 -0.03205929 0.2615173 255 0 255
0.09064781 -0.0294125 0.2561412 255 0 255
0.09163524 -0.02825643 0.2538886 255 0 255
0.09211626 -0.02767867 0.2527613 255 0 255
0.08427297 -0.03035862 0.2537042 255 0 255
0.08988664 -0.03049968 0.2560343 255 0 255
0.09220961 -0.02850539 0.2524121 255 0 255
0.09268205 -0.02792395 0.2512859 255 0 255
0.07860998 -0.02626804 0.2403701 255 0 255
0.09083476 -0.03108802 0.2554292 255 0 255
0.09218154 -0.03025014 0.2540549 255 0 255
0.08544584 -0.03304435 0.2556291 255 0 255
0.08919045 -0.03462793 0.2604189 255 0 255
0.09275892 -0.03049072 0.2525727 255 0 255
0.08928383 -0.03548098 0.260046 255 0 255
0.09086389 -0.0336955 0.2566935 255 0 255
0.09285153 -0.03131646 0.2522121 255 0 255
0.09369493 -0.03106095 0.251956 255 0 255
0.08312601 -0.03317571 0.2507469 255 0 255
0.08662193 -0.03576647 0.2575223 255 0 255
0.08991192 -0.03573337 0.2585549 255 0 255
0.09043852 -0.03513427 0.2574392 255 0 255
0.09294379 -0.03214065 0.2518483 255 0 255
0.08321362 -0.03398779 0.2503839 255 0 255
0.09104892 -0.0353735 0.2559483 255 0 255
0.09241696 -0.03451715 0.2545824 255 0 255
0.09340053 -0.03331019 0.2523452 255 0 255
0.09387955 -0.03270702 0.2512256 255 0 255
0.09250907 -0.0353495 0.2542069 255 0 255
0.09300497 -0.03474204 0.2530905 255 0 255
0.0934924 -0.03413478 0.2519733 255 0 255
0.08174124 -0.03378521 0.2452932 255 0 255
0.09123242 -0.03704512 0.2551898 255 0 255
0.09224234 -0.03582416 0.2529651 255 0 255
0.09273449 -0.03521392 0.2518515 255 0 255
0.08852796 -0.03960514 0.2575026 255 0 255
0.09008583 -0.04008722 0.2589975 255 0 255
0.09132363 -0.03787852 0.2548056 255 0 255
0.09318777 -0.03639422 0.2523331 255 0 255
0.08540438 -0.03809834 0.2512782 255 0 255
0.08983634 -0.04056568 0.2577379 255 0 255
0.07769874 -0.0312759 0.2329304 255 0 255
0.08582577 -0.03928674 0.2517596 255 0 255
0.09470478 -0.03715796 0.2501975 255 0 255
0.07513118 -0.02898822 0.2256622 255 0 255
0.09070113 -0.04299819 0.2586648 255 0 255
0.09158818 -0.04274419 0.2584214 255 0 255
0.09230036 -0.04111336 0.2553502 255 0 255
0.09332377 -0.03985722 0.2531362 255 0 255
0.09394584 -0.03823379 0.2500648 255 0 255
0.08753384 -0.04143666 0.2524725 255 0 255
0.09186637 -0.04257924 0.2560533 255 0 255
0.09239076 -0.04194719 0.2549495 255 0 255
0.09525586 -0.03915896 0.2502698 255 0 255
0.0807232 -0.03558072 0.2368216 255 0 255
0.08660477 -0.04110625 0.2494967 255 0 255
0.09142372 -0.04405116 0.2567485 255 0 255
0.09230636 -0.04379542 0.2565036 255 0 255
0.09335364 -0.04252154 0.2542968 255 0 255
0.09486043 -0.04061162 0.2509805 255 0 255
0.076441 -0.03129458 0.2252906 255 0 255
0.08601236 -0.04114026 0.2473855 255 0 255
0.09531824 -0.04180844 0.2514285 255 0 255
0.09580692 -0.0411672 0.2503225 255 0 255
0.09301392 -0.04482451 0.2545792 255 0 255
0.09454553 -0.0428912 0.251277 255 0 255
0.0954077 -0.04262876 0.2510222 255 0 255
0.09626856 -0.04236427 0.2507646 255 0 255
0.0267234 -0.0421005 0.2312266 255 0 255
0.08040239 -0.03604324 0.2320713 255 0 255
0.09099764 -0.045777 0.2538008 255 0 255
0.09398031 -0.04539501 0.2539146 255 0 255
0.09449434 -0.04474567 0.2528147 255 0 255
0.09499984 -0.04409643 0.2517141 255 0 255
0.03006695 -0.05843462 0.2620126 255 0 255
0.0326382 -0.05720359 0.2600932 255 0 255
0.03390946 -0.054748 0.2555408 255 0 255
0.03445686 -0.05329918 0.2528177 255 0 255
0.03485964 -0.05140858 0.2492047 255 0 255
0.03460697 -0.04730897 0.2411503 255 0 255
0.07877874 -0.03479455 0.227437 255 0 255
0.0878001 -0.04408314 0.247663 255 0 255
0.09073801 -0.04620792 0.2525328 255 0 255
0.0926646 -0.04713595 0.2548399 255 0 255
0.09458326 -0.04557021 0.252398 255 0 255
0.09632433 -0.04504144 0.2518882 255 0 255
0.09681978 -0.04438652 0.2507859 255 0 255
0.0261077 -0.05789068 0.2581736 255 0 255
0.02751622 -0.06049594 0.2634742 255 0 255
0.02975046 -0.06208238 0.2669544 255 0 255
0.03070218 -0.06197007 0.2669125 255 0 255
0.0316535 -0.06185551 0.2668676 255 0 255
0.0345051 -0.06149842 0.2667146 255 0 255
0.07612902 -0.03230806 0.2202657 255 0 255
0.08685185 -0.04368503 0.2447054 255 0 255
0.09275319 -0.04796671 0.2544156 255 0 255
0.09467179 -0.04639303 0.2519781 255 0 255
0.09554319 -0.04612928 0.2517248 255 0 255
0.09604344 -0.04547147 0.2506263 255 0 255
0.09653514 -0.04481388 0.2495271 255 0 255
0.02696444 -0.06326247 0.266618 255 0 255
0.0290434 -0.06395715 0.2683231 255 0 255
0.03298376 -0.06395154 0.2690345 255 0 255
0.03394621 -0.06383092 0.2689829 255 0 255
0.03490825 -0.06370802 0.2689283 255 0 255
0.03586984 -0.06358288 0.2688706 255 0 255
0.03694866 -0.06390574 0.2696949 255 0 255
0.04080386 -0.06337123 0.2694197 255 0 255
0.09056376 -0.04744597 0.2508445 255 0 255
0.09248929 -0.04839488 0.2531424 255 0 255
0.09372414 -0.04853569 0.2537418 255 0 255
0.09662315 -0.04562697 0.2491082 255 0 255
0.03122543 -0.06550753 0.2695607 255 0 255
0.03219284 -0.06539088 0.2695152 255 0 255
0.03714162 -0.06522705 0.2701246 255 0 255
0.04128034 -0.06559303 0.271613 255 0 255
0.04442998 -0.06276806 0.2668805 255 0 255
0.04649169 -0.06291923 0.2675815 255 0 255
0.04463296 -0.04759076 0.2381928 255 0 255
0.09222432 -0.04881443 0.2518694 255 0 255
0.09345609 -0.04895936 0.2524683 255 0 255
0.0960864 -0.04816883 0.2517154 255 0 255
0.09658998 -0.04750233 0.2506199 255 0 255
0.09708496 -0.04683602 0.2495237 255 0 255
0.0253419 -0.06610088 0.2675436 255 0 255
0.02734493 -0.06635623 0.2683706 255 0 255
0.02831015 -0.06624904 0.2683377 255 0 255
0.03313092 -0.06567892 0.268127 255 0 255
0.03709849 -0.06563899 0.2687844 255 0 255
0.0383079 -0.06642192 0.2704828 255 0 255
0.04025206 -0.0661519 0.2703445 255 0 255
0.04122338 -0.06601346 0.2702706 255 0 255
0.04219417 -0.06587271 0.2701937 255 0 255
0.04316442 -0.06572966 0.2701136 255 0 255
0.04510321 -0.06543671 0.2699442 255 0 255
0.04607172 -0.06528681 0.2698548 255 0 255
0.04816776 -0.0654311 0.2705446 255 0 255
0.04977115 -0.06421457 0.268589 255 0 255
0.0472529 -0.05029278 0.241991 255 0 255
0.08606453 -0.04481632 0.2409432 255 0 255
0.09038649 -0.04866333 0.2491502 255 0 255
0.09266377 -0.05004078 0.2522811 255 0 255
0.09389975 -0.05018767 0.2528774 255 0 255
0.0952986 -0.04925538 0.2515377 255 0 255
0.09717254 -0.04764901 0.2490965 255 0 255
0.02458646 -0.06799255 0.2688732 255 0 255
0.0256287 -0.06835804 0.2697312 255 0 255
0.02838225 -0.0671105 0.2678785 255 0 255
0.03310127 -0.06607709 0.2667877 255 0 255
0.03513037 -0.0662955 0.2675625 255 0 255
0.03910344 -0.06623924 0.2681932 255 0 255
0.04213287 -0.06628471 0.268852 255 0 255
0.04421126 -0.066454 0.2695671 255 0 255
0.04533017 -0.06676247 0.2703581 255 0 255
0.04872953 -0.06766682 0.2727081 255 0 255
0.05069353 -0.06734559 0.2725047 255 0 255
0.05183106 -0.06233409 0.2634358 255 0 255
0.0931035 -0.05127217 0.2526861 255 0 255
0.0943437 -0.05142102 0.2532798 255 0 255
0.09626174 -0.04980819 0.2508497 255 0 255
0.02577274 -0.06969461 0.2701445 255 0 255
0.02837036 -0.06750161 0.2665365 255 0 255
0.02933189 -0.06739237 0.2665008 255 0 255
0.03221425 -0.06705097 0.2663753 255 0 255
0.03317427 -0.06693263 0.2663274 255 0 255
0.03616681 -0.06702856 0.2670431 255 0 255
0.03905194 -0.06663775 0.2668525 255 0 255
0.04014317 -0.06696549 0.2676597 255 0 255
0.04110723 -0.06682783 0.2675866 255 0 255
0.0420708 -0.06668788 0.2675105 255 0 255
0.04428824 -0.06732175 0.2691004 255 0 255
0.04962609 -0.06793078 0.2712606 255 0 255
0.05335363 -0.06681684 0.2699584 255 0 255
0.05414061 -0.06619291 0.2689718 255 0 255
0.05280683 -0.05815282 0.253931 255 0 255
0.08934201 -0.05011099 0.2476841 255 0 255
0.09531684 -0.05198121 0.2525882 255 0 255
0.09671686 -0.05103532 0.2512463 255 0 255
0.09722356 -0.05035636 0.2501559 255 0 255
0.09809698 -0.05008548 0.249897 255 0 255
0.02278652 -0.06991252 0.2679783 255 0 255
0.02395196 -0.07123825 0.2705953 255 0 255
0.02584478 -0.07056299 0.2696728 255 0 255
0.02674669 -0.06998605 0.268768 255 0 255
0.02764051 -0.06940766 0.2678604 255 0 255
0.03045715 -0.06860594 0.2668754 255 0 255
0.03142209 -0.06849157 0.2668335 255 0 255
0.0324864 -0.06884501 0.2676654 255 0 255
0.0333508 -0.06825592 0.2667404 255 0 255
0.03431456 -0.06813468 0.2666893 255 0 255
0.03624074 -0.06788529 0.2665778 255 0 255
0.03899967 -0.06702749 0.2655121 255 0 255
0.0487261 -0.06896527 0.2708849 255 0 255
0.0518343 -0.06894009 0.271448 255 0 255
0.0545898 -0.06797519 0.2702406 255 0 255
0.05437095 -0.06016297 0.2559821 255 0 255
0.0486458 -0.04302745 0.2236472 255 0 255
0.08684581 -0.04905523 0.2432828 255 0 255
0.09363011 -0.05333198 0.2526384 255 0 255
0.0945176 -0.053069 0.2523922 255 0 255
0.09504266 -0.05238818 0.2513084 255 0 255
0.098184 -0.0508999 0.2494566 255 0 255
0.02297932 -0.07172803 0.2692593 255 0 255
0.02514454 -0.07296252 0.2718498 255 0 255
0.026972 -0.07180146 0.2700467 255 0 255
0.02876701 -0.07063437 0.2682321 255 0 255
0.02965233 -0.07004864 0.2673206 255 0 255
0.03631456 -0.06874011 0.266109 255 0 255
0.03715775 -0.06814077 0.2651748 255 0 255
0.03811607 -0.06801073 0.2651117 255 0 255
0.0390739 -0.06787843 0.2650455 255 0 255
0.04318558 -0.06826201 0.2664949 255 0 255
0.04429514 -0.06858436 0.2672847 255 0 255
0.05174029 -0.06935363 0.2700984 255 0 255
0.05271749 -0.06918725 0.2699896 255 0 255
0.05351273 -0.06855697 0.2690093 255 0 255
0.05526693 -0.0677538 0.2679095 255 0 255
0.05621626 -0.06510896 0.2633331 255 0 255
0.08438083 -0.04795197 0.2388839 255 0 255
0.09477882 -0.05541742 0.2546942 255 0 255
0.09496177 -0.05431044 0.2527774 255 0 255
0.09601023 -0.05293922 0.250611 255 0 255
0.09776917 -0.05239991 0.2501009 255 0 255
0.02323457 -0.0740367 0.2714038 255 0 255
0.02535538 -0.07479848 0.2731139 255 0 255
0.02727534 -0.07410842 0.2721885 255 0 255
0.03723138 -0.0689901 0.2647047 255 0 255
0.04010559 -0.06859276 0.2645065 255 0 255
0.04119794 -0.06892808 0.2653053 255 0 255
0.04630367 -0.06914485 0.2666357 255 0 255
0.04839596 -0.06930576 0.2673181 255 0 255
0.04953004 -0.06961564 0.2680882 255 0 255
0.05612003 -0.06797971 0.2664467 255 0 255
0.05688537 -0.06734142 0.2654592 255 0 255
0.05842482 -0.05955167 0.2518717 255 0 255
0.05404396 -0.04838615 0.2310654 255 0 255
0.09445293 -0.058482 0.2580653 255 0 255
0.09501813 -0.05778931 0.2569844 255 0 255
0.09522013 -0.05667196 0.2550695 255 0 255
0.09540624 -0.05555676 0.2531557 255 0 255
0.09557642 -0.05444383 0.251243 255 0 255
0.09660736 -0.05306527 0.2490792 255 0 255
0.02336817 -0.07539455 0.2717883 255 0 255
0.02449477 -0.07626434 0.2735155 255 0 255
0.02734856 -0.07498459 0.2716988 255 0 255
0.02916678 -0.07380076 0.2698914 255 0 255
0.0310453 -0.07309241 0.2689441 255 0 255
0.03202654 -0.07297584 0.2689017 255 0 255
0.03934981 -0.07005151 0.2649721 255 0 255
0.04031149 -0.06991607 0.2649028 255 0 255
0.04237277 -0.07011355 0.2656237 255 0 255
0.04348008 -0.07044532 0.2664134 255 0 255
0.04622522 -0.06952826 0.2652901 255 0 255
0.04718687 -0.06937617 0.265199 255 0 255
0.0561991 -0.06883743 0.2659678 255 0 255
0.06100387 -0.06793308 0.2653235 255 0 255
0.09168319 -0.05855546 0.2555751 255 0 255
0.0939666 -0.06002055 0.2586739 255 0 255
0.09566175 -0.05793133 0.2554377 255 0 255
0.09618171 -0.05456793 0.2497087 255 0 255
0.02356417 -0.07724546 0.2730362 255 0 255
0.02757676 -0.07683194 0.2729462 255 0 255
0.03040439 -0.07552601 0.2711058 255 0 255
0.03130478 -0.07492551 0.2701965 255 0 255
0.03338383 -0.07517181 0.2709773 255 0 255
0.03870999 -0.0719951 0.2662956 255 0 255
0.03955203 -0.07138045 0.2653613 255 0 255
0.04244786 -0.07096514 0.2651436 255 0 255
0.04437568 -0.07067674 0.2649831 255 0 255
0.04710399 -0.06975125 0.2638544 255 0 255
0.04822437 -0.0700724 0.2646255 255 0 255
0.04935182 -0.07038999 0.2653927 255 0 255
0.05031564 -0.07023022 0.2652921 255 0 255
0.05435027 -0.07003934 0.2657214 255 0 255
0.0555044 -0.07033788 0.2664667 255 0 255
0.05724068 -0.06951669 0.2653629 255 0 255
0.06033329 -0.06944029 0.2658361 255 0 255
0.06290942 -0.07046135 0.2681367 255 0 255
0.06146192 -0.05904115 0.2478608 255 0 255
0.08495084 -0.05333444 0.2430475 255 0 255
0.093131 -0.06112893 0.2584407 255 0 255
0.09474225 -0.06173373 0.2598639 255 0 255
0.09589532 -0.06032925 0.2577078 255 0 255
0.09610366 -0.05919555 0.255799 255 0 255
0.09610991 -0.05650547 0.2511571 255 0 255
0.09714749 -0.05510978 0.2489998 255 0 255
0.09765337 -0.05441212 0.2479199 255 0 255
0.09852775 -0.05413932 0.2476624 255 0 255
0.02503738 -0.08097224 0.2777291 255 0 255
0.02709103 -0.08076045 0.2776832 255 0 255
0.02982655 -0.07846781 0.2741179 255 0 255
0.03074674 -0.07786392 0.2732131 255 0 255
0.03156532 -0.07677031 0.2714376 255 0 255
0.03256263 -0.07665166 0.2713947 255 0 255
0.03805479 -0.07395052 0.2676059 255 0 255
0.03890889 -0.073333 0.2666759 255 0 255
0.04059233 -0.07209427 0.2648081 255 0 255
0.04717975 -0.07059664 0.2633734 255 0 255
0.05231873 -0.07075507 0.2645976 255 0 255
0.05328075 -0.07058821 0.2644879 255 0 255
0.05635657 -0.07054701 0.2649999 255 0 255
0.05751743 -0.07084276 0.2657363 255 0 255
0.05868515 -0.07113475 0.2664687 255 0 255
0.06222954 -0.07198815 0.268641 255 0 255
0.06780812 -0.07240216 0.2704689 255 0 255
0.06426002 -0.06131344 0.2505382 255 0 255
0.05930759 -0.05000247 0.2299395 255 0 255
0.07889622 -0.04727868 0.2294738 255 0 255
0.08836596 -0.05852451 0.250937 255 0 255
0.09161886 -0.06135383 0.2565362 255 0 255
0.09482964 -0.06258253 0.2593822 255 0 255
0.09566358 -0.05802394 0.2517691 255 0 255
0.09619512 -0.05732223 0.2506939 255 0 255
0.02819263 -0.08154834 0.2771398 255 0 255
0.02913685 -0.08094321 0.2762426 255 0 255
0.03015887 -0.08082901 0.2762085 255 0 255
0.0321081 -0.08010166 0.2752648 255 0 255
0.03606428 -0.07911296 0.2742058 255 0 255
0.03849224 -0.07627371 0.2697057 255 0 255
0.04008662 -0.07454004 0.2669818 255 0 255
0.04176889 -0.07328952 0.265112 255 0 255
0.04273795 -0.0731479 0.2650363 255 0 255
0.04370646 -0.07300396 0.2649575 255 0 255
0.05012685 -0.07097035 0.2625997 255 0 255
0.05125791 -0.07128917 0.2633568 255 0 255
0.05431972 -0.07126794 0.2638879 255 0 255
0.05643496 -0.07139887 0.2645109 255 0 255
0.0583605 -0.07104266 0.2642633 255 0 255
0.059528 -0.07133552 0.2649908 255 0 255
0.06070234 -0.07162462 0.2657142 255 0 255
0.06350622 -0.07313578 0.268857 255 0 255
0.06858896 -0.07468598 0.2725219 255 0 255
0.06840363 -0.0721359 0.2681054 255 0 255
0.06817934 -0.06959148 0.2636921 255 0 255
0.09491663 -0.06342936 0.2588972 255 0 255
0.09549717 -0.06271973 0.2578241 255 0 255
0.09592042 -0.06042409 0.2540236 255 0 255
0.09591666 -0.05770124 0.2494039 255 0 255
0.02937658 -0.08282783 0.2774539 255 0 255
0.03040663 -0.08271266 0.2774196 255 0 255
0.03152642 -0.08309051 0.2782459 255 0 255
0.0355511 -0.08209973 0.2771992 255 0 255
0.03646917 -0.08147658 0.2762823 255 0 255
0.03868882 -0.07763214 0.2700656 255 0 255
0.04100668 -0.07476819 0.2655539 255 0 255
0.04281284 -0.07399698 0.2645442 255 0 255
0.04378156 -0.07385289 0.2644655 255 0 255
0.04637202 -0.07243367 0.2624918 255 0 255
0.04812481 -0.07164179 0.2614493 255 0 255
0.05020287 -0.07181125 0.2621124 255 0 255
0.05115895 -0.07164992 0.26201 255 0 255
0.05229368 -0.07196897 0.2627618 255 0 255
0.05535816 -0.07194295 0.2632817 255 0 255
0.06057193 -0.07200329 0.2643651 255 0 255
0.06456897 -0.07380902 0.26821 255 0 255
0.06801247 -0.07206006 0.2659043 255 0 255
0.06921728 -0.07023631 0.2630402 255 0 255
0.06331931 -0.05529838 0.2364597 255 0 255
0.05955361 -0.04669629 0.2210805 255 0 255
0.08829813 -0.06129182 0.2518883 255 0 255
0.09441414 -0.06498747 0.2594788 255 0 255
0.09500318 -0.06427421 0.2584089 255 0 255
0.09580267 -0.06240495 0.2554413 255 0 255
0.09600065 -0.05851089 0.2489361 255 0 255
0.09753162 -0.05638747 0.2457215 255 0 255
0.09802473 -0.05567995 0.2446484 255 0 255
0.03435658 -0.08723219 0.2836658 255 0 255
0.03531441 -0.08660571 0.2827557 255 0 255
0.03698556 -0.08435498 0.2792045 255 0 255
0.03835728 -0.08111122 0.2739223 255 0 255
0.0420552 -0.07547881 0.2649835 255 0 255
0.04385653 -0.0746998 0.2639702 255 0 255
0.0446762 -0.07406213 0.2630302 255 0 255
0.04548754 -0.07342336 0.2620878 255 0 255
0.05027865 -0.07265016 0.2616219 255 0 255
0.05332899 -0.0726441 0.2621607 255 0 255
0.05851741 -0.07273949 0.2632759 255 0 255
0.06065097 -0.07285362 0.2638681 255 0 255
0.067142 -0.05942709 0.2424755 255 0 255
0.09003489 -0.06436678 0.2555547 255 0 255
0.09608424 -0.05931861 0.248465 255 0 255
0.09748434 -0.05833578 0.2471447 255 0 255
0.0369802 -0.08989407 0.2864585 255 0 255
0.03810277 -0.08512448 0.2786134 255 0 255
0.03944886 -0.08185826 0.2733383 255 0 255
0.0415563 -0.07795797 0.267128 255 0 255
0.04240466 -0.07731979 0.2661972 255 0 255
0.04324472 -0.07668039 0.2652639 255 0 255
0.04407646 -0.07603976 0.2643282 255 0 255
0.04556214 -0.07426117 0.2615933 255 0 255
0.04732021 -0.07346582 0.260561 255 0 255
0.0482748 -0.07331163 0.2604684 255 0 255
0.05148679 -0.07381548 0.2618796 255 0 255
0.05340547 -0.07348381 0.2616652 255 0 255
0.05532131 -0.07314293 0.2614387 255 0 255
0.05627814 -0.07296904 0.2613209 255 0 255
0.05935088 -0.07291814 0.2617992 255 0 255
0.06767139 -0.07493768 0.2667442 255 0 255
0.07157891 -0.07410185 0.2661013 255 0 255
0.07204824 -0.07293681 0.264247 255 0 255
0.07275784 -0.0722471 0.2632345 255 0 255
0.07345884 -0.07155674 0.2622201 255 0 255
0.09237824 -0.06675606 0.258139 255 0 255
0.09331178 -0.06649225 0.257903 255 0 255
0.09482909 -0.06550664 0.2565996 255 0 255
0.09653229 -0.06334741 0.2533996 255 0 255
0.09636147 -0.06173369 0.2506936 255 0 255
0.0965317 -0.06057025 0.2488085 255 0 255
0.09807248 -0.05842132 0.2456039 255 0 255
0.09894767 -0.05814663 0.2453477 255 0 255
0.04585576 -0.1641599 0.4096347 255 0 255
0.03731962 -0.09751529 0.2971025 255 0 255
0.03921979 -0.08588903 0.2780157 255 0 255
0.04116468 -0.08095727 0.2701113 255 0 255
0.04429682 -0.07738445 0.2646788 255 0 255
0.04578974 -0.07559422 0.2619496 255 0 255
0.04659639 -0.07494662 0.2610087 255 0 255
0.04867906 -0.07513434 0.2616788 255 0 255
0.05173906 -0.07514705 0.2622323 255 0 255
0.05348173 -0.07432152 0.2611665 255 0 255
0.0544402 -0.07415204 0.2610549 255 0 255
0.05635498 -0.07380613 0.2608226 255 0 255
0.0603864 -0.07357389 0.261169 255 0 255
0.06251809 -0.07368458 0.2617455 255 0 255
0.06825573 -0.07463008 0.2643887 255 0 255
0.06922569 -0.07442366 0.264231 255 0 255
0.07190999 -0.07544164 0.2664309 255 0 255
0.07212981 -0.07379036 0.2637391 255 0 255
0.07484234 -0.07478681 0.2659145 255 0 255
0.06992045 -0.05873712 0.238407 255 0 255
0.08770946 -0.06560998 0.2533717 255 0 255
0.09246304 -0.06759597 0.2576399 255 0 255
0.09526037 -0.06679673 0.2569238 255 0 255
0.09605784 -0.06489534 0.2539753 255 0 255
0.09680603 -0.0629981 0.2510267 255 0 255
0.09697937 -0.0618266 0.2491447 255 0 255
0.09839402 -0.06083118 0.2478252 255 0 255
0.09940954 -0.05938704 0.2456867 255 0 255
0.04009175 -0.0856384 0.2757027 255 0 255
0.0413709 -0.08232971 0.2704432 255 0 255
0.04367831 -0.07938265 0.2659543 255 0 255
0.04586427 -0.07643141 0.2614466 255 0 255
0.04667082 -0.07578027 0.2605078 255 0 255
0.04763028 -0.07562738 0.260418 255 0 255
0.04875417 -0.07597096 0.2611761 255 0 255
0.05085044 -0.07614988 0.2618307 255 0 255
0.05241791 -0.07482845 0.2599236 255 0 255
0.05337342 -0.07466174 0.2598156 255 0 255
0.05738804 -0.0744646 0.2602004 255 0 255
0.0623775 -0.07403602 0.2603964 255 0 255
0.06570213 -0.07442899 0.2616547 255 0 255
0.06689685 -0.07471523 0.2623471 255 0 255
0.06809825 -0.07499756 0.2630353 255 0 255
0.06882276 -0.07430741 0.2620375 255 0 255
0.07027556 -0.07506692 0.2635585 255 0 255
0.07580182 -0.07328548 0.2616935 255 0 255
0.07633833 -0.07045146 0.2571537 255 0 255
0.07707874 -0.06810112 0.2534499 255 0 255
0.08106565 -0.06601203 0.2508273 255 0 255
0.08227897 -0.06624666 0.2514558 255 0 255
0.08719552 -0.06714358 0.2539236 255 0 255
0.09314204 -0.06770933 0.2560815 255 0 255
0.09761214 -0.06472073 0.2521674 255 0 255
0.05152859 -0.1689551 0.4119853 255 0 255
0.0402076 -0.09124806 0.2828991 255 0 255
0.04170809 -0.08421414 0.2716194 255 0 255
0.04245339 -0.08305653 0.2698444 255 0 255
0.04318258 -0.0818987 0.2680673 255 0 255
0.04690272 -0.07711519 0.2608532 255 0 255
0.04882908 -0.07680557 0.2606701 255 0 255
0.04979134 -0.07664729 0.260574 255 0 255
0.05267409 -0.07615846 0.2602674 255 0 255
0.0553582 -0.07515132 0.2590875 255 0 255
0.05650798 -0.07547425 0.259816 255 0 255
0.05746459 -0.07529742 0.2596956 255 0 255
0.05862439 -0.07561359 0.2604166 255 0 255
0.06341094 -0.07467967 0.2597512 255 0 255
0.06459261 -0.07497673 0.2604502 255 0 255
0.06555038 -0.07477995 0.2603045 255 0 255
0.06697626 -0.07555931 0.2618357 255 0 255
0.07157427 -0.07619122 0.2637176 255 0 255
0.07351574 -0.07575926 0.2633798 255 0 255
0.07571808 -0.07580049 0.2638646 255 0 255
0.07668906 -0.07557546 0.2636842 255 0 255
0.07959572 -0.07488634 0.2631245 255 0 255
0.08143103 -0.06894775 0.2538487 255 0 255
0.08295962 -0.0696581 0.2553032 255 0 255
0.08419589 -0.06988993 0.255925 255 0 255
0.08794237 -0.07056016 0.2577623 255 0 255
0.09103168 -0.0686015 0.255223 255 0 255
0.09195958 -0.06834096 0.2549927 255 0 255
0.09658011 -0.06700469 0.2537963 255 0 255
0.0971423 -0.06627277 0.2527343 255 0 255
0.09787548 -0.06435315 0.2497958 255 0 255
0.0984081 -0.06362238 0.2487321 255 0 255
0.04411357 -0.08210347 0.2666149 255 0 255
0.04906952 -0.07814358 0.2610076 255 0 255
0.05003578 -0.07798446 0.2609113 255 0 255
0.05543386 -0.0759792 0.2585812 255 0 255
0.05754094 -0.07612819 0.2591875 255 0 255
0.06136037 -0.07539696 0.2586762 255 0 255
0.0644436 -0.07531846 0.2591 255 0 255
0.06682056 -0.07590877 0.2604829 255 0 255
0.06898203 -0.07599244 0.261012 255 0 255
0.07019018 -0.07627465 0.2616891 255 0 255
0.07385443 -0.07709724 0.2636943 255 0 255
0.07677098 -0.07642832 0.263163 255 0 255
0.08300629 -0.07215331 0.2574799 255 0 255
0.08550328 -0.07261944 0.258718 255 0 255
0.08583047 -0.07142188 0.2568591 255 0 255
0.08925453 -0.0699441 0.255169 255 0 255
0.09204249 -0.06916815 0.2544877 255 0 255
0.09389485 -0.06863964 0.2540185 255 0 255
0.09609309 -0.06856558 0.2543512 255 0 255
0.09795824 -0.06516428 0.2493009 255 0 255
0.09849068 -0.06442986 0.2482394 255 0 255
0.09952957 -0.06296123 0.246114 255 0 255
0.04160931 -0.08918992 0.2757024 255 0 255
0.04212328 -0.08698856 0.2722415 255 0 255
0.04274059 -0.08530264 0.269627 255 0 255
0.0441891 -0.08295836 0.2660873 255 0 255
0.04488922 -0.08178599 0.2643144 255 0 255
0.04654992 -0.08046249 0.2624551 255 0 255
0.04833934 -0.07964376 0.2614313 255 0 255
0.04994091 -0.07830999 0.2595524 255 0 255
0.05072916 -0.07764149 0.2586095 255 0 255
0.05168655 -0.07747885 0.258508 255 0 255
0.05474381 -0.07748175 0.2590275 255 0 255
0.05761701 -0.07695694 0.2586762 255 0 255
0.05877774 -0.07727934 0.2593934 255 0 255
0.06027109 -0.0759108 0.2574583 255 0 255
0.06122111 -0.07572504 0.2573266 255 0 255
0.0621703 -0.07553697 0.2571919 255 0 255
0.06406619 -0.075154 0.2569135 255 0 255
0.07658332 -0.07679073 0.2618084 255 0 255
0.07906889 -0.07730731 0.2630979 255 0 255
0.08004083 -0.07707377 0.2629079 255 0 255
0.08527867 -0.07297812 0.2573792 255 0 255
0.08685148 -0.07200401 0.2561344 255 0 255
0.08778952 -0.07175306 0.2559186 255 0 255
0.08993813 -0.07004053 0.2536188 255 0 255
0.09145184 -0.06905141 0.2523485 255 0 255
0.09271169 -0.0692599 0.252932 255 0 255
0.09490205 -0.06919611 0.253272 255 0 255
0.09710199 -0.06911905 0.2535962 255 0 255
0.09786205 -0.06717498 0.2506697 255 0 255
0.04930465 -0.1324033 0.3438319 255 0 255
0.04308727 -0.08720275 0.2707781 255 0 255
0.04455049 -0.08484254 0.2672457 255 0 255
0.04610015 -0.0829964 0.2645496 255 0 255
0.04760085 -0.0811478 0.2618451 255 0 255
0.04905266 -0.07929708 0.2591324 255 0 255
0.06246682 -0.07686154 0.2575164 255 0 255
0.06414285 -0.07597577 0.2564021 255 0 255
0.06532126 -0.07628059 0.257093 255 0 255
0.06650644 -0.07658153 0.2577797 255 0 255
0.06865396 -0.07667405 0.2583079 255 0 255
0.07202395 -0.07703687 0.259488 255 0 255
0.07420377 -0.07709704 0.2599787 255 0 255
0.07887364 -0.07766882 0.2617417 255 0 255
0.07984196 -0.07743589 0.2615527 255 0 255
0.08080917 -0.07720059 0.2613606 255 0 255
0.0820637 -0.07745002 0.2619897 255 0 255
0.08505305 -0.07332817 0.2560413 255 0 255
0.08693299 -0.07283244 0.2556193 255 0 255
0.08787119 -0.07258115 0.2554038 255 0 255
0.09034906 -0.07133732 0.253924 255 0 255
0.0984888 -0.06724609 0.249107 255 0 255
0.09865452 -0.06603882 0.2472445 255 0 255
0.04357051 -0.08963418 0.2727606 255 0 255
0.04418198 -0.08792605 0.2701559 255 0 255
0.04848863 -0.08131219 0.2603878 255 0 255
0.05968073 -0.07824589 0.257395 255 0 255
0.0604229 -0.07755408 0.2564309 255 0 255
0.06158986 -0.07787428 0.2571342 255 0 255
0.06254321 -0.07768501 0.2569993 255 0 255
0.0632714 -0.07698856 0.2560278 255 0 255
0.06539813 -0.07710333 0.2565764 255 0 255
0.06848854 -0.07700177 0.2569571 255 0 255
0.07428341 -0.07793421 0.2594533 255 0 255
0.0749786 -0.07721721 0.2584522 255 0 255
0.07620501 -0.07748945 0.2591014 255 0 255
0.07689059 -0.07676957 0.2580956 255 0 255
0.07839997 -0.07752848 0.2595618 255 0 255
0.08060574 -0.07755459 0.2600071 255 0 255
0.08156822 -0.07731759 0.2598129 255 0 255
0.08949944 -0.07241644 0.2536321 255 0 255
0.09287508 -0.07089679 0.2519103 255 0 255
0.09506666 -0.07083809 0.2522471 255 0 255
0.09762342 -0.07123825 0.2533748 255 0 255
0.0987358 -0.06684025 0.2467422 255 0 255
0.09925899 -0.06609496 0.2456868 255 0 255
0.0441912 -0.09260677 0.2755682 255 0 255
0.04453803 -0.08984042 0.2712871 255 0 255
0.04655316 -0.08573056 0.2651619 255 0 255
0.048726 -0.08266261 0.2607001 255 0 255
0.04936755 -0.08146642 0.2589295 255 0 255
0.05208799 -0.08046304 0.2577955 255 0 255
0.05612198 -0.08029819 0.2581945 255 0 255
0.05708405 -0.08012193 0.2580774 255 0 255
0.05804537 -0.07994332 0.2579572 255 0 255
0.05975638 -0.07906793 0.2568742 255 0 255
0.06261931 -0.0785064 0.2564789 255 0 255
0.06642478 -0.07772527 0.2559098 255 0 255
0.06737394 -0.07752422 0.25576 255 0 255
0.06951702 -0.07761852 0.2562793 255 0 255
0.07288253 -0.07798681 0.2574438 255 0 255
0.0757442 -0.07732757 0.2569253 255 0 255
0.08107111 -0.07716984 0.257641 255 0 255
0.08457641 -0.07571495 0.2560236 255 0 255
0.09295613 -0.07171211 0.2513945 255 0 255
0.09514832 -0.07165597 0.2517298 255 0 255
0.09642416 -0.07186116 0.2522944 255 0 255
0.09985392 -0.06614193 0.2441298 255 0 255
0.1007412 -0.06586079 0.2438725 255 0 255
0.0454552 -0.09387078 0.2757614 255 0 255
0.04762534 -0.08642503 0.264533 255 0 255
0.04814316 -0.08469795 0.2619326 255 0 255
0.04977594 -0.08333591 0.2600746 255 0 255
0.05251971 -0.08232481 0.2589407 255 0 255
0.05445692 -0.08198693 0.258727 255 0 255
0.05983178 -0.0798879 0.2563502 255 0 255
0.0645999 -0.07893926 0.2556772 255 0 255
0.06555101 -0.07874259 0.2555335 255 0 255
0.06745053 -0.07834228 0.2552373 255 0 255
0.0767749 -0.07792868 0.2562191 255 0 255
0.07895761 -0.07797115 0.2566722 255 0 255
0.08435228 -0.07604822 0.254681 255 0 255
0.08498628 -0.07531066 0.253661 255 0 255
0.09026155 -0.07331009 0.2515594 255 0 255
0.09118788 -0.07305077 0.2513344 255 0 255
0.09303679 -0.07252536 0.2508756 255 0 255
0.09395936 -0.07225926 0.2506417 255 0 255
0.0979966 -0.07164998 0.2504782 255 0 255
0.09979433 -0.06815756 0.2454749 255 0 255
0.1003121 -0.06740402 0.2444223 255 0 255
0.1008213 -0.06665055 0.2433689 255 0 255
0.04629451 -0.09354813 0.2734342 255 0 255
0.04731173 -0.08953805 0.2674154 255 0 255
0.04853731 -0.08658794 0.263063 255 0 255
0.04936547 -0.08590275 0.2621366 255 0 255
0.05018527 -0.08521647 0.2612079 255 0 255
0.05197487 -0.0843645 0.260177 255 0 255
0.05295239 -0.0841976 0.2600741 255 0 255
0.05569012 -0.08316129 0.2589152 255 0 255
0.05839811 -0.08210779 0.2577315 255 0 255
0.05936278 -0.08192571 0.2576081 255 0 255
0.06299213 -0.08065835 0.2562564 255 0 255
0.06394891 -0.08046529 0.2561184 255 0 255
0.06585985 -0.08007221 0.2558334 255 0 255
0.06776731 -0.0796698 0.2555363 255 0 255
0.07346731 -0.07840699 0.2545728 255 0 255
0.07441393 -0.07818842 0.2544018 255 0 255
0.07780445 -0.07852479 0.2555071 255 0 255
0.07970347 -0.07806332 0.255135 255 0 255
0.08412714 -0.07637281 0.2533393 255 0 255
0.08755469 -0.07488767 0.2516928 255 0 255
0.09253122 -0.07408792 0.2513891 255 0 255
0.09565962 -0.07376947 0.2514879 255 0 255
0.1002493 -0.06942879 0.2457588 255 0 255
0.101283 -0.06791227 0.2436554 255 0 255
0.04824435 -0.08970805 0.2659369 255 0 255
0.05124293 -0.08588785 0.2605682 255 0 255
0.05204965 -0.08519518 0.2596367 255 0 255
0.05382109 -0.08433262 0.2585976 255 0 255
0.05479348 -0.08416145 0.2584891 255 0 255
0.05923181 -0.08222643 0.2562455 255 0 255
0.06115141 -0.08185623 0.2559909 255 0 255
0.06284606 -0.08095792 0.2548986 255 0 255
0.06593592 -0.08088981 0.2553018 255 0 255
0.0678436 -0.08048693 0.255005 255 0 255
0.06949928 -0.07956158 0.2538747 255 0 255
0.07139197 -0.07914178 0.2535552 255 0 255
0.07354443 -0.07922254 0.2540427 255 0 255
0.07570807 -0.07929054 0.2545155 255 0 255
0.07760403 -0.07883953 0.2541573 255 0 255
0.07978202 -0.07888367 0.2546018 255 0 255
0.08138318 -0.07790983 0.253405 255 0 255
0.08202773 -0.07717011 0.2523971 255 0 255
0.08545721 -0.07570066 0.2507791 255 0 255
0.08763374 -0.07569874 0.2511659 255 0 255
0.08949301 -0.07519006 0.2507318 255 0 255
0.0904208 -0.07493233 0.2505103 255 0 255
0.09168222 -0.07516386 0.2510897 255 0 255
0.09481141 -0.07485549 0.251197 255 0 255
0.09759416 -0.07403509 0.2504735 255 0 255
0.0981585 -0.07327306 0.2494291 255 0 255
0.09926119 -0.07174893 0.2473374 255 0 255
0.1008502 -0.06946296 0.2441932 255 0 255
0.04863309 -0.09162785 0.2670397 255 0 255
0.05148958 -0.08725102 0.2608519 255 0 255
0.05247578 -0.08708485 0.2607515 255 0 255
0.05407914 -0.08568674 0.2588848 255 0 255
0.05584002 -0.08481234 0.2578367 255 0 255
0.05681112 -0.08463622 0.2577223 255 0 255
0.05758252 -0.08393122 0.2567782 255 0 255
0.05854827 -0.08375106 0.2566581 255 0 255
0.06026693 -0.08285936 0.2555839 255 0 255
0.06122646 -0.08267286 0.2554552 255 0 255
0.0621852 -0.08248403 0.2553236 255 0 255
0.0641001 -0.08209934 0.2550513 255 0 255
0.06862733 -0.08057948 0.2534978 255 0 255
0.06957524 -0.0803728 0.2533427 255 0 255
0.0705222 -0.08016381 0.2531846 255 0 255
0.07362123 -0.08003596 0.2535093 255 0 255
0.07796065 -0.08016454 0.2544367 255 0 255
0.07862814 -0.07942586 0.2534393 255 0 255
0.08274139 -0.07723729 0.2508587 255 0 255
0.08367383 -0.07699614 0.250659 255 0 255
0.08460515 -0.07675272 0.2504563 255 0 255
0.08553533 -0.07650701 0.2502507 255 0 255
0.08771243 -0.07650768 0.2506359 255 0 255
0.08957193 -0.07599834 0.2502022 255 0 255
0.09049985 -0.07574024 0.2499809 255 0 255
0.09269081 -0.07571103 0.2503304 255 0 255
0.09970928 -0.07303511 0.247606 255 0 255
0.09987915 -0.07178446 0.2457679 255 0 255
0.1007842 -0.07150161 0.2455134 255 0 255
0.04983243 -0.1001697 0.2781689 255 0 255
0.04980644 -0.09624363 0.272275 255 0 255
0.0500467 -0.0933963 0.2680396 255 0 255
0.05371639 -0.08828211 0.2609237 255 0 255
