ply
format ascii 1.0
Comment Generated by Floating Hands
element vertex 1102
property double x
property double y
property double z
property uchar red
property uchar green
property uchar blue
end_header
-0.0590092 -0.0657567 0.2386975 255 0 255
-0.05835661 -0.06629959 0.2397536 255 0 255
-0.0529357 -0.06858782 0.2445724 255 0 255
-0.04601197 -0.06735754 0.2433199 255 0 255
-0.03797203 -0.05670718 0.2252889 255 0 255
-0.03410589 -0.05478659 0.2224102 255 0 255
-0.03229085 -0.06016416 0.2324136 255 0 255
-0.06692834 -0.06440232 0.2334787 255 0 255
-0.06511681 -0.066092 0.2366826 255 0 255
-0.0624754 -0.06630404 0.2373722 255 0 255
-0.0565075 -0.0672106 0.2397282 255 0 255
-0.05307019 -0.06989565 0.2449652 255 0 255
-0.04959876 -0.07053538 0.2465838 255 0 255
-0.04757353 -0.07010474 0.246101 255 0 255
-0.03970714 -0.06037754 0.229866 255 0 255
-0.03379269 -0.05747775 0.2255792 255 0 255
-0.0306194 -0.05796365 0.2269523 255 0 255
-0.01215078 -0.05538624 0.2255513 255 0 255
-0.06566336 -0.06632262 0.2351709 255 0 255
-0.06088605 -0.06772283 0.2382074 255 0 255
-0.05821985 -0.06790277 0.2388587 255 0 255
-0.05732951 -0.0679583 0.2390702 255 0 255
-0.05576713 -0.06855585 0.2403266 255 0 255
-0.05228517 -0.0712493 0.2455481 255 0 255
-0.0467599 -0.07144617 0.2466713 255 0 255
-0.0453128 -0.06998562 0.2442952 255 0 255
-0.04371738 -0.06802699 0.24106 255 0 255
-0.04181828 -0.06507488 0.2361113 255 0 255
-0.03879414 -0.06114309 0.2295961 255 0 255
-0.0322776 -0.06217223 0.2324292 255 0 255
0.003207084 -0.05090833 0.2189305 255 0 255
-0.06909989 -0.06366816 0.228331 255 0 255
-0.06852793 -0.06580633 0.2321121 255 0 255
-0.06081775 -0.06852114 0.2377555 255 0 255
-0.05333606 -0.07252614 0.2457296 255 0 255
-0.0498313 -0.073175 0.2473504 255 0 255
-0.04415613 -0.07032023 0.2431587 255 0 255
-0.03351679 -0.0584394 0.2239017 255 0 255
0.002262199 -0.06157821 0.2359229 255 0 255
-0.06787514 -0.06716661 0.2327315 255 0 255
-0.06439296 -0.06747991 0.2336795 255 0 255
-0.05808128 -0.06949852 0.2379513 255 0 255
-0.05719044 -0.06955435 0.2381627 255 0 255
-0.05376766 -0.07230303 0.2433793 255 0 255
-0.05326269 -0.07334795 0.2452603 255 0 255
-0.05161341 -0.0739294 0.2464958 255 0 255
-0.04112532 -0.06764835 0.2370874 255 0 255
-0.03666244 -0.06165839 0.2273367 255 0 255
-0.07091184 -0.06393427 0.225076 255 0 255
-0.0709604 -0.06551815 0.2277724 255 0 255
-0.06808554 -0.06844855 0.2331014 255 0 255
-0.05645191 -0.0709065 0.2387476 255 0 255
-0.05138225 -0.07680877 0.2495799 255 0 255
-0.04742327 -0.07642999 0.2494906 255 0 255
-0.04630642 -0.07595024 0.2488262 255 0 255
-0.04342996 -0.072961 0.2440974 255 0 255
-0.03985224 -0.06743229 0.2350998 255 0 255
-0.03282914 -0.06089988 0.224907 255 0 255
-0.03108147 -0.06392761 0.230411 255 0 255
0.002643553 -0.08508734 0.273176 255 0 255
0.005841487 -0.05320859 0.2186557 255 0 255
-0.06513058 -0.06896974 0.2325402 255 0 255
-0.0499707 -0.07923745 0.2520006 255 0 255
-0.04674948 -0.07830548 0.2508739 255 0 255
-0.04385132 -0.07529657 0.2461612 255 0 255
-0.03113221 -0.06518521 0.2308279 255 0 255
0.006352901 -0.0583867 0.2260444 255 0 255
-0.07283066 -0.06736236 0.2271802 255 0 255
-0.06910358 -0.07043598 0.2327574 255 0 255
-0.06181655 -0.07054645 0.2338215 255 0 255
-0.06029793 -0.07118692 0.2350909 255 0 255
-0.05965076 -0.0717587 0.2361365 255 0 255
-0.05743199 -0.07295385 0.2384381 255 0 255
-0.05653203 -0.07300834 0.2386483 255 0 255
-0.0556313 -0.07306053 0.2388558 255 0 255
-0.05446198 -0.07469004 0.2417625 255 0 255
-0.05405911 -0.07835678 0.2480085 255 0 255
-0.05238268 -0.08154633 0.25363 255 0 255
-0.04268274 -0.07561963 0.2450075 255 0 255
-0.02865287 -0.06284441 0.2255319 255 0 255
-0.07336938 -0.06914099 0.2283419 255 0 255
-0.06438214 -0.07111344 0.2326737 255 0 255
-0.05403786 -0.08180317 0.2518875 255 0 255
-0.04975789 -0.08353032 0.2553857 255 0 255
-0.04501725 -0.08105432 0.2519251 255 0 255
-0.04341137 -0.07901032 0.2487341 255 0 255
-0.03270077 -0.06669015 0.2296854 255 0 255
-0.02915463 -0.06615204 0.2293457 255 0 255
-0.01692769 -0.05709751 0.216164 255 0 255
-0.01444608 -0.05595693 0.214681 255 0 255
0.0001390598 -0.06764212 0.2370983 255 0 255
0.00516187 -0.1079933 0.3060631 255 0 255
0.006707319 -0.06184304 0.228647 255 0 255
-0.07440133 -0.06869143 0.225751 255 0 255
-0.07159204 -0.07173129 0.231074 255 0 255
-0.06255645 -0.07203859 0.2326668 255 0 255
-0.05660914 -0.07511593 0.2385286 255 0 255
-0.05299048 -0.08532035 0.2559522 255 0 255
-0.04985699 -0.08490554 0.2557097 255 0 255
-0.04852244 -0.08389751 0.2542276 255 0 255
-0.04674055 -0.08446776 0.2554356 255 0 255
-0.04021338 -0.07571343 0.241849 255 0 255
-0.03707093 -0.07105958 0.2345829 255 0 255
-0.03152288 -0.07002661 0.2337285 255 0 255
-0.03052695 -0.06950054 0.233011 255 0 255
-0.02662416 -0.06323685 0.2232038 255 0 255
-0.01756539 -0.07893015 0.2509167 255 0 255
0.003399455 -0.0958494 0.2830828 255 0 255
-0.07495319 -0.07047749 0.2268944 255 0 255
-0.07470547 -0.07160535 0.2287624 255 0 255
-0.07297153 -0.07180516 0.229285 255 0 255
-0.07036305 -0.07208817 0.2300492 255 0 255
-0.06977421 -0.07269324 0.2311077 255 0 255
-0.06802088 -0.07286702 0.2316006 255 0 255
-0.06121565 -0.07399071 0.2342843 255 0 255
-0.05558183 -0.07809739 0.2417682 255 0 255
-0.0552914 -0.07970873 0.2444562 255 0 255
-0.04059425 -0.07807925 0.2438844 255 0 255
-0.03232476 -0.07079244 0.2331383 255 0 255
-0.01993395 -0.076752 0.2450331 255 0 255
-0.01352428 -0.06659485 0.2293587 255 0 255
-0.0755034 -0.07227494 0.2280268 255 0 255
-0.0737711 -0.07247967 0.2285544 255 0 255
-0.05620974 -0.07832971 0.2402446 255 0 255
-0.05085812 -0.08711203 0.2553093 255 0 255
-0.0498725 -0.0871444 0.255504 255 0 255
-0.04789925 -0.08720168 0.2558842 255 0 255
-0.04066784 -0.07941124 0.244231 255 0 255
-0.03721001 -0.07364535 0.2353306 255 0 255
-0.03501659 -0.07207809 0.2331052 255 0 255
-0.03325555 -0.07208024 0.2333829 255 0 255
-0.03161428 -0.07259967 0.2344915 255 0 255
-0.02906534 -0.07309893 0.2357165 255 0 255
-0.01972716 -0.058222 0.212893 255 0 255
-0.02522541 -0.1299779 0.3295405 255 0 255
-0.02584377 -0.1607892 0.3799345 255 0 255
-0.01994458 -0.129721 0.3300421 255 0 255
-0.01421434 -0.08874351 0.26388 255 0 255
-0.01141902 -0.07606807 0.2435993 255 0 255
-0.004804903 -0.05736684 0.2141477 255 0 255
0.005686954 -0.06937742 0.2358658 255 0 255
-0.07253769 -0.07282999 0.22754 255 0 255
-0.06196019 -0.07548615 0.2331042 255 0 255
-0.06131587 -0.07607976 0.2341437 255 0 255
-0.06066312 -0.07667173 0.2351824 255 0 255
-0.05682988 -0.07855116 0.2387211 255 0 255
-0.05597685 -0.08345199 0.2467511 255 0 255
-0.05176054 -0.08793383 0.254586 255 0 255
-0.05077539 -0.0879688 0.2547836 255 0 255
-0.04880303 -0.08803131 0.2551698 255 0 255
-0.04292467 -0.08496806 0.2510783 255 0 255
-0.03698923 -0.07388655 0.2340219 255 0 255
-0.03100304 -0.07494562 0.2366733 255 0 255
-0.02192105 -0.06843875 0.2275957 255 0 255
-0.02605447 -0.1185402 0.3082637 255 0 255
-0.0226485 -0.1624891 0.3802521 255 0 255
-0.01690803 -0.1270186 0.3236304 255 0 255
-0.01031489 -0.09514087 0.2730092 255 0 255
-0.007453501 -0.07030331 0.2331637 255 0 255
0.0008409199 -0.05911324 0.2165334 255 0 255
-0.07817473 -0.07233592 0.2244104 255 0 255
-0.07073706 -0.07378764 0.2275745 255 0 255
-0.06340738 -0.07559332 0.2313551 255 0 255
-0.06124287 -0.07686207 0.2336593 255 0 255
-0.05969152 -0.07752205 0.2349166 255 0 255
-0.05520806 -0.08756059 0.251591 255 0 255
-0.05443135 -0.0881367 0.2526227 255 0 255
-0.04988503 -0.08938809 0.2552767 255 0 255
-0.03518414 -0.07146188 0.2286879 255 0 255
-0.03222133 -0.07359786 0.2325814 255 0 255
-0.03158094 -0.07465913 0.2343886 255 0 255
-0.02833377 -0.07621708 0.2374134 255 0 255
-0.02743046 -0.07620128 0.2375345 255 0 255
-0.02293935 -0.08244243 0.2483206 255 0 255
-0.02512588 -0.1750485 0.3970542 255 0 255
-0.01562358 -0.112221 0.2975356 255 0 255
-0.01233748 -0.09618703 0.2722937 255 0 255
-0.003871556 -0.06075709 0.2167601 255 0 255
-0.07066727 -0.07455242 0.2270966 255 0 255
-0.06951449 -0.0741168 0.2265473 255 0 255
-0.06893115 -0.07473522 0.227595 255 0 255
-0.06631979 -0.07499267 0.2283227 255 0 255
-0.06483682 -0.07568338 0.2296007 255 0 255
-0.0611694 -0.07764238 0.2331719 255 0 255
-0.05159426 -0.08964065 0.2535248 255 0 255
-0.03383639 -0.07060135 0.2258648 255 0 255
-0.02262308 -0.06992755 0.2265855 255 0 255
-0.0273096 -0.1425181 0.3416276 255 0 255
-0.02106811 -0.1501982 0.3549615 255 0 255
-0.08297754 -0.07430648 0.2236169 255 0 255
-0.07461347 -0.07428906 0.2245337 255 0 255
-0.07059699 -0.07531522 0.2266159 255 0 255
-0.05699211 -0.08915126 0.2501075 255 0 255
-0.04029756 -0.08587678 0.2473658 255 0 255
-0.03106457 -0.0745663 0.2309319 255 0 255
-0.02896905 -0.07723706 0.2354854 255 0 255
-0.02568916 -0.07395516 0.2308273 255 0 255
-0.02052842 -0.06844859 0.2229704 255 0 255
-0.0246409 -0.1457298 0.3445291 255 0 255
-0.02015431 -0.1422961 0.3398698 255 0 255
-0.0123466 -0.08464425 0.2500011 255 0 255
-0.009796672 -0.09249425 0.2628778 255 0 255
-0.008979915 -0.09831391 0.2722353 255 0 255
-0.08066488 -0.07596431 0.224771 255 0 255
-0.07947534 -0.07555314 0.2242692 255 0 255
-0.07023784 -0.07554173 0.2253376 255 0 255
-0.06704854 -0.07643434 0.2271173 255 0 255
-0.06617673 -0.07651828 0.227357 255 0 255
-0.06126408 -0.07973547 0.2329947 255 0 255
-0.04625426 -0.09750212 0.2628427 255 0 255
-0.04343336 -0.09482351 0.2590757 255 0 255
-0.03882772 -0.08507764 0.2445238 255 0 255
-0.03185119 -0.07152262 0.2243793 255 0 255
-0.01779204 -0.1169796 0.2979631 255 0 255
-0.01191909 -0.08006167 0.2410724 255 0 255
-0.009391969 -0.08581236 0.2505411 255 0 255
-0.005264555 -0.06400825 0.2170717 255 0 255
-0.07416715 -0.07526455 0.2227819 255 0 255
-0.0639988 -0.07859817 0.2291742 255 0 255
-0.05790907 -0.08854766 0.2453554 255 0 255
-0.05270531 -0.09323622 0.2533415 255 0 255
-0.04926061 -0.09831302 0.2617066 255 0 255
-0.04856114 -0.09943099 0.2635426 255 0 255
-0.04768345 -0.1000009 0.2645562 255 0 255
-0.04663916 -0.1000225 0.2647452 255 0 255
-0.03724308 -0.08370794 0.2408583 255 0 255
-0.02364136 -0.06942452 0.2208259 255 0 255
-0.01799041 -0.09688068 0.2644483 255 0 255
-0.01156569 -0.07649719 0.2338607 255 0 255
-0.006039484 -0.06692228 0.2199474 255 0 255
-0.07729337 -0.07676396 0.2230621 255 0 255
-0.07298217 -0.07729817 0.2243903 255 0 255
-0.06116924 -0.08353777 0.2354315 255 0 255
-0.05856471 -0.08876667 0.2437964 255 0 255
-0.05576956 -0.09171667 0.2487085 255 0 255
-0.05199619 -0.09522149 0.2546247 255 0 255
-0.05037532 -0.0997127 0.261759 255 0 255
-0.04984898 -0.1013888 0.2644116 255 0 255
-0.04445708 -0.1009484 0.2645378 255 0 255
-0.04297195 -0.09931421 0.2622491 255 0 255
-0.04108232 -0.09602899 0.2574832 255 0 255
-0.02840681 -0.07788306 0.2315295 255 0 255
-0.027208 -0.07622227 0.2291635 255 0 255
-0.01053215 -0.07610165 0.23177 255 0 255
-0.08804367 -0.07828026 0.2224854 255 0 255
-0.0849151 -0.07641196 0.2200186 255 0 255
-0.08321368 -0.07667322 0.2206037 255 0 255
-0.08131716 -0.07812537 0.2230109 255 0 255
-0.0801254 -0.07770791 0.2225188 255 0 255
-0.07658788 -0.07643589 0.2210124 255 0 255
-0.07573502 -0.07654649 0.2212808 255 0 255
-0.07347254 -0.07740737 0.2228541 255 0 255
-0.0697259 -0.07898472 0.2257025 255 0 255
-0.06885266 -0.07907641 0.2259508 255 0 255
-0.06737559 -0.07979873 0.2272319 255 0 255
-0.06218058 -0.08253994 0.2320638 255 0 255
-0.06176328 -0.08370714 0.2338912 255 0 255
-0.05943543 -0.08952437 0.2430426 255 0 255
-0.05149638 -0.1011135 0.2617991 255 0 255
-0.04692901 -0.1034584 0.2660459 255 0 255
-0.04331853 -0.1018506 0.2641379 255 0 255
-0.04170322 -0.09965111 0.2610292 255 0 255
-0.02330812 -0.06973131 0.2182526 255 0 255
-0.02042664 -0.06690358 0.2144038 255 0 255
-0.01706283 -0.0656838 0.213098 255 0 255
-0.01602239 -0.07112443 0.221586 255 0 255
-0.01472791 -0.07544798 0.2284124 255 0 255
-0.01398891 -0.07705363 0.2309924 255 0 255
-0.01045005 -0.07684579 0.2312851 255 0 255
-0.08932953 -0.07822031 0.220608 255 0 255
-0.08725771 -0.07796577 0.2204576 255 0 255
-0.08484537 -0.07716078 0.2195258 255 0 255
-0.07972608 -0.07791919 0.2212494 255 0 255
-0.06965262 -0.07974099 0.2252048 255 0 255
-0.06877919 -0.07983288 0.2254529 255 0 255
-0.06818058 -0.08047113 0.2264878 255 0 255
-0.0625949 -0.0844171 0.2331488 255 0 255
-0.06148946 -0.08621302 0.2360004 255 0 255
-0.06126943 -0.08793703 0.2386266 255 0 255
-0.059799 -0.09144508 0.2441123 255 0 255
-0.05927661 -0.09261153 0.2459424 255 0 255
-0.05443287 -0.09569426 0.2512703 255 0 255
-0.04472106 -0.1043902 0.2658291 255 0 255
-0.0320427 -0.0805242 0.2316782 255 0 255
-0.022493 -0.07096258 0.2187247 255 0 255
-0.01594513 -0.07183062 0.2211218 255 0 255
-0.01455123 -0.07507247 0.2262687 255 0 255
-0.07729799 -0.07780969 0.219759 255 0 255
-0.07559266 -0.07803404 0.2202976 255 0 255
-0.07276541 -0.07955474 0.2229053 255 0 255
-0.06562474 -0.08378027 0.230109 255 0 255
-0.06498317 -0.08441405 0.2311384 255 0 255
-0.06090166 -0.09275753 0.2441434 255 0 255
-0.05513892 -0.09593315 0.2496945 255 0 255
-0.04462722 -0.1052836 0.2652363 255 0 255
-0.04222677 -0.1041908 0.2639619 255 0 255
-0.04089984 -0.103081 0.2625003 255 0 255
-0.01894629 -0.07044032 0.2169974 255 0 255
-0.01805405 -0.06985132 0.2162602 255 0 255
-0.009424233 -0.07882637 0.2312041 255 0 255
-0.008433316 -0.0759883 0.2271122 255 0 255
-0.08680905 -0.07347532 0.2106879 255 0 255
-0.08760966 -0.07878495 0.2183942 255 0 255
-0.08095957 -0.07862122 0.2189229 255 0 255
-0.07892772 -0.0783162 0.2187149 255 0 255
-0.07605767 -0.07811321 0.2187612 255 0 255
-0.07552069 -0.0787748 0.2198017 255 0 255
-0.07497519 -0.07943511 0.2208421 255 0 255
-0.06541824 -0.08630087 0.2322011 255 0 255
-0.06341824 -0.08820426 0.2352838 255 0 255
-0.06321667 -0.08995152 0.2378976 255 0 255
-0.06180864 -0.091209 0.2399504 255 0 255
-0.05932698 -0.09482054 0.2456426 255 0 255
-0.05624272 -0.09728197 0.2497243 255 0 255
-0.05377273 -0.1019541 0.2570092 255 0 255
-0.05366553 -0.1048017 0.2612513 255 0 255
-0.05227816 -0.1071225 0.2648987 255 0 255
-0.04121781 -0.1056466 0.2643588 255 0 255
-0.03077397 -0.08539312 0.2358543 255 0 255
-0.02730003 -0.08142339 0.2304965 255 0 255
-0.01831334 -0.07334439 0.2199256 255 0 255
-0.01465604 -0.09104089 0.24689 255 0 255
-0.009555974 -0.08459993 0.2381671 255 0 255
0.01427505 -0.06377836 0.211486 255 0 255
-0.07852864 -0.07850198 0.2174499 255 0 255
-0.07619479 -0.07762916 0.216457 255 0 255
-0.05869719 -0.09683017 0.2469041 255 0 255
-0.05635823 -0.09868393 0.2499592 255 0 255
-0.03446817 -0.09522482 0.2481137 255 0 255
-0.02225566 -0.07867918 0.225638 255 0 255
-0.01843561 -0.07573883 0.221921 255 0 255
-0.01080553 -0.09386848 0.2499729 255 0 255
-0.008544482 -0.08530609 0.2377154 255 0 255
0.01373291 -0.06564932 0.2127132 255 0 255
-0.08643438 -0.07064275 0.2035944 255 0 255
-0.09001229 -0.07983835 0.2164646 255 0 255
-0.08710647 -0.07972297 0.216632 255 0 255
-0.0816662 -0.07997444 0.2176361 255 0 255
-0.07644255 -0.07891196 0.2167294 255 0 255
-0.07506315 -0.07969297 0.2180319 255 0 255
-0.07366461 -0.08046696 0.2193289 255 0 255
-0.06754151 -0.08470275 0.2262647 255 0 255
-0.0664301 -0.08833484 0.2316933 255 0 255
-0.05767703 -0.1006045 0.2507662 255 0 255
-0.05687685 -0.1012243 0.2517835 255 0 255
-0.05422541 -0.1122808 0.2682994 255 0 255
-0.05296553 -0.1117498 0.2677082 255 0 255
-0.04400518 -0.1108082 0.2676668 255 0 255
-0.04184634 -0.1108293 0.2680258 255 0 255
-0.04050099 -0.1096976 0.2665773 255 0 255
-0.03474192 -0.09775036 0.2499969 255 0 255
-0.03162497 -0.09204929 0.2421448 255 0 255
-0.0275429 -0.08518871 0.2327516 255 0 255
-0.02338997 -0.08170157 0.228312 255 0 255
-0.02138202 -0.0799461 0.2260672 255 0 255
-0.01688714 -0.08768658 0.2381351 255 0 255
-0.01671392 -0.09615055 0.2505555 255 0 255
-0.01665629 -0.1074414 0.2670959 255 0 255
-0.01390195 -0.1146275 0.2780809 255 0 255
-0.01111929 -0.1031722 0.261779 255 0 255
-0.00977591 -0.09575105 0.2511411 255 0 255
0.01621168 -0.06597421 0.2122212 255 0 255
-0.08753747 -0.07173417 0.2035664 255 0 255
-0.09116101 -0.08097956 0.2163906 255 0 255
-0.08667456 -0.07990745 0.2153742 255 0 255
-0.07956012 -0.08040244 0.2169346 255 0 255
-0.07838403 -0.079965 0.2164496 255 0 255
-0.07273377 -0.08130728 0.2190839 255 0 255
-0.06780345 -0.08423994 0.2239433 255 0 255
-0.0671091 -0.08667721 0.227549 255 0 255
-0.06657765 -0.09615739 0.2412994 255 0 255
-0.05623724 -0.1096355 0.2622259 255 0 255
-0.04528198 -0.1128376 0.2684783 255 0 255
-0.03894569 -0.1088781 0.2637041 255 0 255
-0.03165068 -0.09341509 0.2424125 255 0 255
-0.0300389 -0.08997291 0.2376723 255 0 255
-0.02868338 -0.08767314 0.2345496 255 0 255
-0.01940973 -0.07947054 0.2241327 255 0 255
-0.01307415 -0.1228886 0.2882161 255 0 255
-0.006332572 -0.07704794 0.2228052 255 0 255
-0.005403012 -0.07130576 0.2146275 255 0 255
-0.09020027 -0.0750311 0.2064798 255 0 255
-0.08865339 -0.08090901 0.2150082 255 0 255
-0.08441497 -0.08161073 0.216509 255 0 255
-0.0823701 -0.08131617 0.2163361 255 0 255
-0.08033537 -0.08101036 0.2161482 255 0 255
-0.07948684 -0.08113381 0.2164281 255 0 255
-0.07375723 -0.08069912 0.2165219 255 0 255
-0.07123457 -0.08281059 0.2198583 255 0 255
-0.06979083 -0.08357334 0.2211347 255 0 255
-0.06920253 -0.08423553 0.2221575 255 0 255
-0.06832813 -0.08432864 0.2224049 255 0 255
-0.0637979 -0.1001296 0.2456296 255 0 255
-0.05237234 -0.1158921 0.2698712 255 0 255
-0.03345167 -0.09882011 0.2481986 255 0 255
-0.02348167 -0.08489549 0.229741 255 0 255
-0.01403331 -0.1222065 0.2849956 255 0 255
-0.005325272 -0.07198072 0.2141607 255 0 255
-0.00448331 -0.06735148 0.2076405 255 0 255
-0.09317313 -0.08143776 0.2136711 255 0 255
-0.09233046 -0.08159482 0.21399 255 0 255
-0.0894246 -0.08149467 0.2141888 255 0 255
-0.08821396 -0.08108363 0.2137522 255 0 255
-0.08519154 -0.08220904 0.2157013 255 0 255
-0.08026169 -0.08173943 0.2156391 255 0 255
-0.07856321 -0.08198457 0.2161961 255 0 255
-0.07172592 -0.08287507 0.2183224 255 0 255
-0.06668564 -0.08762455 0.2257165 255 0 255
-0.06591787 -0.1013827 0.2453522 255 0 255
-0.06218701 -0.1022464 0.2470956 255 0 255
-0.05703045 -0.1178029 0.2699578 255 0 255
-0.05610929 -0.1184244 0.2709765 255 0 255
-0.03626727 -0.1089019 0.2603869 255 0 255
-0.02348317 -0.08621477 0.2300353 255 0 255
-0.0214464 -0.08442941 0.2278143 255 0 255
-0.01818419 -0.07913798 0.2207907 255 0 255
-0.01505099 -0.08244955 0.2260301 255 0 255
-0.004413154 -0.0691465 0.2088269 255 0 255
0.01555366 -0.06750504 0.2100489 255 0 255
-0.09522527 -0.08112863 0.2114531 255 0 255
-0.08777457 -0.08124983 0.2124978 255 0 255
-0.08441439 -0.08181298 0.2136915 255 0 255
-0.06963784 -0.085048 0.2201006 255 0 255
-0.06632227 -0.09858969 0.239601 255 0 255
-0.05977467 -0.1109194 0.2578957 255 0 255
-0.05561198 -0.1217098 0.2737263 255 0 255
-0.05319322 -0.1212037 0.273367 255 0 255
-0.05207155 -0.1212369 0.2735795 255 0 255
-0.04253336 -0.1190697 0.2719496 255 0 255
-0.03979974 -0.1167528 0.2690922 255 0 255
-0.02863701 -0.09111747 0.2345711 255 0 255
-0.02257669 -0.08751374 0.2304322 255 0 255
-0.0163323 -0.07919057 0.2196623 255 0 255
-0.01467362 -0.07969173 0.2206431 255 0 255
-0.006097941 -0.07974156 0.2221454 255 0 255
-0.09509962 -0.08313899 0.2127224 255 0 255
-0.07978003 -0.08262122 0.2138613 255 0 255
-0.0767102 -0.08367451 0.215715 255 0 255
-0.07359327 -0.08469572 0.2175376 255 0 255
-0.0662616 -0.08855053 0.2238814 255 0 255
-0.06544742 -0.09525573 0.2333538 255 0 255
-0.05963283 -0.1147629 0.2614413 255 0 255
-0.05934983 -0.1171504 0.264823 255 0 255
-0.05775594 -0.1225531 0.2726158 255 0 255
-0.05681447 -0.1231821 0.2736337 255 0 255
-0.05213503 -0.122749 0.2737153 255 0 255
-0.04988144 -0.1228069 0.2741314 255 0 255
-0.0411883 -0.1194071 0.2706787 255 0 255
-0.02927548 -0.0959749 0.2396608 255 0 255
-0.02722375 -0.08952662 0.2309372 255 0 255
-0.005163971 -0.08154215 0.2233285 255 0 255
0.01660762 -0.06926255 0.2099295 255 0 255
-0.09744655 -0.08595448 0.2147782 255 0 255
-0.09379381 -0.08346926 0.2117945 255 0 255
-0.08139247 -0.08308635 0.2127826 255 0 255
-0.0774868 -0.08428062 0.2149252 255 0 255
-0.07179259 -0.08563484 0.2175341 255 0 255
-0.06528374 -0.09362446 0.2294632 255 0 255
-0.06516571 -0.09786678 0.2353564 255 0 255
-0.06542862 -0.1008629 0.2394716 255 0 255
-0.06540906 -0.1110976 0.253661 255 0 255
-0.05915272 -0.1246062 0.2732969 255 0 255
-0.05393687 -0.1224322 0.2710405 255 0 255
-0.05265027 -0.1218807 0.2704641 255 0 255
-0.0448359 -0.1220518 0.2718697 255 0 255
-0.04385515 -0.122653 0.2728539 255 0 255
-0.04259739 -0.1220747 0.272241 255 0 255
-0.03899004 -0.1209107 0.2711742 255 0 255
-0.01275469 -0.08041868 0.2189938 255 0 255
0.01706921 -0.06751101 0.2061896 255 0 255
-0.1010887 -0.08917221 0.217178 255 0 255
-0.09981813 -0.08878419 0.2167999 255 0 255
-0.0876521 -0.08212315 0.2091788 255 0 255
-0.08265347 -0.08296528 0.2109501 255 0 255
-0.08047399 -0.083932 0.2125478 255 0 255
-0.07845569 -0.08360559 0.2123581 255 0 255
-0.07708967 -0.08442403 0.2136541 255 0 255
-0.07429992 -0.08603992 0.2162301 255 0 255
-0.06760716 -0.08927692 0.2215594 255 0 255
-0.06534829 -0.09255086 0.2263623 255 0 255
-0.0655631 -0.1046805 0.2430009 255 0 255
-0.06644779 -0.1148964 0.2569235 255 0 255
-0.06583755 -0.116146 0.2587281 255 0 255
-0.0619897 -0.1175921 0.2612642 255 0 255
-0.0611177 -0.1182418 0.2622833 255 0 255
-0.06043684 -0.1194786 0.2640835 255 0 255
-0.05941045 -0.123126 0.2692528 255 0 255
-0.05660856 -0.1250408 0.2722975 255 0 255
-0.04361352 -0.1229812 0.2713955 255 0 255
-0.03665792 -0.1218153 0.2708522 255 0 255
-0.03357375 -0.1170663 0.2647798 255 0 255
-0.03115289 -0.1093655 0.2545338 255 0 255
-0.02670943 -0.09455151 0.2347917 255 0 255
-0.01259341 -0.07993442 0.216879 255 0 255
-0.009159259 -0.1026157 0.2487563 255 0 255
-0.007260103 -0.1071778 0.2553707 255 0 255
-0.00413471 -0.08816985 0.2296524 255 0 255
-0.002446526 -0.07747249 0.2151687 255 0 255
0.01021624 -0.07027593 0.2074254 255 0 255
0.01364831 -0.07159346 0.2098538 255 0 255
-0.07922183 -0.08419427 0.211563 255 0 255
-0.07391667 -0.08618013 0.2149509 255 0 255
-0.07048271 -0.08660261 0.2159803 255 0 255
-0.06873485 -0.08865432 0.2190069 255 0 255
-0.06122201 -0.1197239 0.2624153 255 0 255
-0.05983468 -0.1222089 0.2660081 255 0 255
-0.05632481 -0.1253726 0.2708396 255 0 255
-0.05355918 -0.1236731 0.2689245 255 0 255
-0.04798288 -0.1238254 0.2699613 255 0 255
-0.03678218 -0.1239125 0.2717831 255 0 255
-0.03565908 -0.1239053 0.2719468 255 0 255
-0.02140425 -0.09104098 0.2292132 255 0 255
-0.01816143 -0.0861974 0.2231013 255 0 255
-0.01617685 -0.08375192 0.2200729 255 0 255
-0.006179842 -0.1114801 0.2596739 255 0 255
0.001543094 -0.07189405 0.206777 255 0 255
0.0102942 -0.07091884 0.206958 255 0 255
-0.08915968 -0.08324074 0.2075337 255 0 255
-0.08833186 -0.08339169 0.2078396 255 0 255
-0.08346699 -0.08295457 0.207863 255 0 255
-0.08166508 -0.08451875 0.2101982 255 0 255
-0.07998656 -0.08477811 0.2107631 255 0 255
-0.07797585 -0.08444531 0.2105748 255 0 255
-0.07693633 -0.08585415 0.2126088 255 0 255
-0.07608725 -0.08597198 0.2128788 255 0 255
-0.06620368 -0.09211121 0.2224908 255 0 255
-0.06608977 -0.09397189 0.2250207 255 0 255
-0.06569584 -0.0952407 0.2267898 255 0 255
-0.06585742 -0.1075016 0.2433446 255 0 255
-0.06566926 -0.1209469 0.2615616 255 0 255
-0.05973328 -0.1231119 0.2653453 255 0 255
-0.0567935 -0.1244567 0.2675947 255 0 255
-0.04979136 -0.123489 0.2673168 255 0 255
-0.04646421 -0.1235629 0.2679144 255 0 255
-0.04201906 -0.1236209 0.2686646 255 0 255
-0.03991834 -0.1242304 0.2698114 255 0 255
-0.03791752 -0.1254263 0.2717401 255 0 255
-0.03167343 -0.1152301 0.2588721 255 0 255
-0.02431179 -0.09364504 0.2307322 255 0 255
-0.02338889 -0.09362248 0.2308469 255 0 255
-0.02254428 -0.09419478 0.2317569 255 0 255
-0.01929344 -0.08992715 0.2264803 255 0 255
-0.0182039 -0.08810337 0.2241786 255 0 255
-0.01707866 -0.08568162 0.2210712 255 0 255
-0.01517749 -0.08381654 0.2188448 255 0 255
-0.007951578 -0.1035703 0.2468435 255 0 255
0.01291955 -0.07241969 0.2081014 255 0 255
0.01607467 -0.07675088 0.2145361 255 0 255
0.01830615 -0.07046041 0.2063982 255 0 255
-0.09150147 -0.08479062 0.2078368 255 0 255
-0.08945958 -0.08452406 0.2077366 255 0 255
-0.08705934 -0.0836661 0.2068941 255 0 255
-0.0842184 -0.08351607 0.2070541 255 0 255
-0.08303843 -0.08307262 0.2066126 255 0 255
-0.07906887 -0.08561246 0.2105179 255 0 255
-0.07738337 -0.08585884 0.2110675 255 0 255
-0.06797452 -0.09079766 0.218937 255 0 255
-0.06776149 -0.1247518 0.2645033 255 0 255
-0.06073217 -0.1239558 0.2644436 255 0 255
-0.05650727 -0.124764 0.2661445 255 0 255
-0.05318115 -0.1248906 0.2668037 255 0 255
-0.0520709 -0.124927 0.2670169 255 0 255
-0.04968826 -0.1243906 0.2666497 255 0 255
-0.04873591 -0.1250188 0.2676363 255 0 255
-0.04650912 -0.1250655 0.2680326 255 0 255
-0.04539474 -0.1250844 0.2682257 255 0 255
-0.04413909 -0.1244996 0.2676287 255 0 255
-0.03566734 -0.1269278 0.2721887 255 0 255
-0.02338383 -0.09496807 0.2310911 255 0 255
-0.01242964 -0.08318383 0.2169737 255 0 255
-0.009946046 -0.08482989 0.2195937 255 0 255
-0.008425406 -0.0912923 0.2285443 255 0 255
-0.006061174 -0.1197451 0.2672476 255 0 255
-0.00130904 -0.0823985 0.2177462 255 0 255
0.01037958 -0.07161006 0.2052105 255 0 255
0.01643982 -0.07917815 0.2164559 255 0 255
0.01718554 -0.07847259 0.2156377 255 0 255
0.01838494 -0.07109831 0.2059267 255 0 255
-0.08496828 -0.08407272 0.2062404 255 0 255
-0.07529993 -0.08621201 0.2103375 255 0 255
-0.07137194 -0.08735801 0.2123843 255 0 255
-0.07052008 -0.08746222 0.2126377 255 0 255
-0.06578308 -0.09734865 0.2264273 255 0 255
-0.06282916 -0.1247314 0.2632934 255 0 255
-0.04194311 -0.1260267 0.2681117 255 0 255
-0.03871145 -0.1266446 0.2694285 255 0 255
-0.01620165 -0.0888587 0.222505 255 0 255
-0.01511408 -0.0864087 0.2194075 255 0 255
-0.01234789 -0.08387 0.2164619 255 0 255
-0.002743838 -0.1089865 0.2515759 255 0 255
0.001803035 -0.07441124 0.206159 255 0 255
0.003331906 -0.07305872 0.2046102 255 0 255
0.01203872 -0.07204092 0.2047397 255 0 255
0.01513477 -0.07643685 0.2111457 255 0 255
-0.08371007 -0.08432193 0.2052837 255 0 255
-0.0799197 -0.08558407 0.2074377 255 0 255
-0.07638322 -0.08738969 0.2102815 255 0 255
-0.06620839 -0.09930547 0.2273742 255 0 255
-0.06838869 -0.1227767 0.2580455 255 0 255
-0.06820946 -0.1252698 0.2613629 255 0 255
-0.05740797 -0.1265155 0.26457 255 0 255
-0.0563006 -0.1265637 0.2647962 255 0 255
-0.05408343 -0.1266515 0.2652386 255 0 255
-0.05314464 -0.1272975 0.2662313 255 0 255
-0.04771725 -0.1280591 0.2680466 255 0 255
-0.03748299 -0.1275467 0.2689192 255 0 255
-0.03197835 -0.121441 0.2616852 255 0 255
-0.01929955 -0.09452436 0.2280302 255 0 255
-0.01825922 -0.09327784 0.2265443 255 0 255
-0.01411433 -0.0864585 0.2181733 255 0 255
-0.01320543 -0.08580974 0.2174597 255 0 255
-0.01141079 -0.08450679 0.2160225 255 0 255
-0.008082354 -0.08731514 0.220281 255 0 255
-0.002581228 -0.1176329 0.2613394 255 0 255
0.002681377 -0.07497142 0.2057073 255 0 255
0.005170299 -0.07591832 0.2073797 255 0 255
0.01784681 -0.08277607 0.2186315 255 0 255
-0.09248765 -0.08733471 0.2066417 255 0 255
-0.08728571 -0.08502286 0.204299 255 0 255
-0.08363353 -0.08501253 0.20476 255 0 255
-0.07766662 -0.08725309 0.2084713 255 0 255
-0.06979766 -0.08957498 0.2125688 255 0 255
-0.06711943 -0.09367075 0.2182943 255 0 255
-0.06627182 -0.09816466 0.2242921 255 0 255
-0.06624392 -0.1100797 0.2398926 255 0 255
-0.06774091 -0.1193302 0.2517934 255 0 255
-0.0635132 -0.1258442 0.2609332 255 0 255
-0.05749008 -0.12802 0.2646618 255 0 255
-0.04325593 -0.1296443 0.2689126 255 0 255
-0.02203793 -0.09595456 0.2279477 255 0 255
-0.019212 -0.0952565 0.2274751 255 0 255
-0.01312266 -0.08649803 0.2169378 255 0 255
0.007672502 -0.07629043 0.2069433 255 0 255
0.008540077 -0.07679562 0.2077534 255 0 255
0.009158849 -0.07490067 0.2053693 255 0 255
-0.08355644 -0.08570097 0.2042337 255 0 255
-0.08238106 -0.08524554 0.2037995 255 0 255
-0.07306981 -0.0879381 0.2085345 255 0 255
-0.07222819 -0.08804879 0.2087926 255 0 255
-0.070838 -0.08886613 0.2100423 255 0 255
-0.06914426 -0.09098478 0.2130229 255 0 255
-0.06824982 -0.09299506 0.2157546 255 0 255
-0.06636184 -0.1039442 0.2302303 255 0 255
-0.0668079 -0.1152297 0.2448239 255 0 255
-0.05738537 -0.1289159 0.2639766 255 0 255
-0.05609211 -0.1283524 0.2634338 255 0 255
-0.05404855 -0.1290533 0.2646469 255 0 255
-0.04958879 -0.1291955 0.2654942 255 0 255
-0.04540392 -0.1305176 0.2678419 255 0 255
-0.04202066 -0.1305587 0.2684064 255 0 255
-0.03839274 -0.1293461 0.2673796 255 0 255
-0.03187206 -0.1237908 0.2611463 255 0 255
-0.02568142 -0.1035001 0.2356793 255 0 255
-0.02010971 -0.09663085 0.2276018 255 0 255
0.001388021 -0.08004075 0.2094453 255 0 255
0.00363806 -0.07616282 0.2047653 255 0 255
0.01638949 -0.08498787 0.2184092 255 0 255
0.02081746 -0.08495449 0.2191254 255 0 255
-0.0867613 -0.08580711 0.2025266 255 0 255
-0.07801857 -0.08791792 0.2064013 255 0 255
-0.07718328 -0.08804233 0.2066741 255 0 255
-0.07383121 -0.08851743 0.2077403 255 0 255
-0.07299053 -0.08863057 0.2080007 255 0 255
-0.07020158 -0.09027319 0.2104969 255 0 255
-0.06906301 -0.09169083 0.2124785 255 0 255
-0.06661589 -0.1008759 0.2246454 255 0 255
-0.06741729 -0.1178917 0.2464522 255 0 255
-0.04979927 -0.1313218 0.2663481 255 0 255
-0.0475494 -0.131376 0.2667545 255 0 255
-0.04558219 -0.1326512 0.2686962 255 0 255
-0.03513078 -0.1314626 0.2687496 255 0 255
-0.03399858 -0.1314528 0.2689107 255 0 255
-0.03196758 -0.1258912 0.2620397 255 0 255
-0.005328721 -0.1026885 0.2362605 255 0 255
0.00151976 -0.08191251 0.2105271 255 0 255
0.002174386 -0.07817588 0.2058059 255 0 255
0.00702343 -0.07766341 0.2059461 255 0 255
0.008760548 -0.07868794 0.2075596 255 0 255
0.01209653 -0.07888841 0.208378 255 0 255
0.02021032 -0.09190388 0.2265658 255 0 255
-0.08340061 -0.08707138 0.2031731 255 0 255
-0.07710398 -0.08873149 0.2061384 255 0 255
-0.0715253 -0.09014928 0.2087122 255 0 255
-0.06955528 -0.09168329 0.2109434 255 0 255
-0.0686791 -0.09371533 0.2136598 255 0 255
-0.06692719 -0.1003082 0.2223261 255 0 255
-0.06704379 -0.1028504 0.2255575 255 0 255
-0.06802047 -0.1294325 0.2593949 255 0 255
-0.06539023 -0.1283526 0.2583939 255 0 255
-0.06408521 -0.1278075 0.2578859 255 0 255
-0.06231209 -0.1291761 0.2598944 255 0 255
-0.05754438 -0.131936 0.2641237 255 0 255
-0.04447728 -0.1341919 0.2689588 255 0 255
-0.04232805 -0.1348366 0.2701093 255 0 255
-0.03865426 -0.1336123 0.2690991 255 0 255
-0.02894924 -0.1149748 0.2467095 255 0 255
-0.007675257 -0.08762691 0.2150002 255 0 255
0.003095875 -0.07934542 0.2061301 255 0 255
0.008082827 -0.08003652 0.207838 255 0 255
0.008840802 -0.07933121 0.2070599 255 0 255
0.01040181 -0.0785253 0.2062868 255 0 255
-0.09813911 -0.09636917 0.2115443 255 0 255
-0.08332191 -0.08775336 0.2026388 255 0 255
-0.07229118 -0.09073132 0.2079141 255 0 255
-0.07089188 -0.09156012 0.2091579 255 0 255
-0.07033072 -0.092278 0.2101452 255 0 255
-0.06807031 -0.1162949 0.2408996 255 0 255
-0.06059499 -0.1320428 0.2619605 255 0 255
-0.05555138 -0.134169 0.2654021 255 0 255
-0.05329295 -0.1342538 0.2658445 255 0 255
-0.05005709 -0.1349809 0.2672498 255 0 255
-0.03913799 -0.1376283 0.272259 255 0 255
-0.03809449 -0.1382502 0.2732083 255 0 255
-0.03566188 -0.1376166 0.2727746 255 0 255
-0.01663308 -0.09374072 0.2199535 255 0 255
-0.01475648 -0.09242045 0.2185697 255 0 255
-0.01291056 -0.09109244 0.2171722 255 0 255
-0.009286693 -0.08779431 0.2135531 255 0 255
-0.005081791 -0.09678102 0.2256497 255 0 255
-0.004180632 -0.1047494 0.2359252 255 0 255
0.001867489 -0.08753478 0.2150161 255 0 255
0.004926509 -0.08165944 0.2080457 255 0 255
0.01483214 -0.08666337 0.216043 255 0 255
0.02227482 -0.09865142 0.2325251 255 0 255
0.02411642 -0.1033508 0.2388068 255 0 255
-0.08488687 -0.08814598 0.201519 255 0 255
-0.08370754 -0.08768512 0.2011008 255 0 255
-0.08159369 -0.08871141 0.2026753 255 0 255
-0.08111052 -0.0894552 0.2036742 255 0 255
-0.07495236 -0.08973472 0.2048717 255 0 255
-0.07305573 -0.0913085 0.2071112 255 0 255
-0.07136327 -0.09153029 0.2076257 255 0 255
-0.06898288 -0.117018 0.2400022 255 0 255
-0.05729257 -0.1375177 0.2675066 255 0 255
-0.054832 -0.136985 0.2672002 255 0 255
-0.05026224 -0.1371327 0.2680666 255 0 255
-0.04911795 -0.137162 0.2682747 255 0 255
-0.04610572 -0.1391092 0.2711801 255 0 255
-0.02360178 -0.1008946 0.2264435 255 0 255
-0.02129506 -0.09709526 0.2220104 255 0 255
-0.01565683 -0.09440219 0.2194928 255 0 255
-0.0138322 -0.09369557 0.2188879 255 0 255
-0.006660599 -0.08954132 0.2147829 255 0 255
-0.003087829 -0.1116415 0.2432232 255 0 255
-0.0008328758 -0.1251249 0.2605884 255 0 255
0.0001535909 -0.1206898 0.2551541 255 0 255
0.0008196293 -0.1075805 0.2387299 255 0 255
0.002032131 -0.09006563 0.2168388 255 0 255
0.002627034 -0.08441354 0.2098076 255 0 255
0.005049963 -0.0829227 0.2083212 255 0 255
0.007696031 -0.08449831 0.2107397 255 0 255
0.0169422 -0.09517404 0.2257229 255 0 255
0.02061448 -0.1065208 0.2406369 255 0 255
0.02313204 -0.1036528 0.2374417 255 0 255
-0.09718937 -0.09661894 0.2089986 255 0 255
-0.09162604 -0.09092557 0.2026702 255 0 255
-0.08883285 -0.08943132 0.2011897 255 0 255
-0.08280908 -0.08850155 0.2008527 255 0 255
-0.07570584 -0.09029447 0.2040644 255 0 255
-0.07102229 -0.09356126 0.2087898 255 0 255
-0.0704565 -0.09428614 0.2097731 255 0 255
-0.06929932 -0.09573168 0.2117385 255 0 255
-0.07053122 -0.1247759 0.2477925 255 0 255
-0.06461497 -0.1329255 0.258824 255 0 255
-0.06169293 -0.13438 0.2610682 255 0 255
-0.02326401 -0.09973638 0.223544 255 0 255
-0.02098294 -0.0959193 0.2191227 255 0 255
-0.01472748 -0.09568648 0.219804 255 0 255
-0.0127802 -0.09309099 0.2168625 255 0 255
-0.004869502 -0.09321546 0.2182673 255 0 255
-0.003033159 -0.1049373 0.2332221 255 0 255
-0.001953913 -0.1148406 0.245782 255 0 255
-0.0008179471 -0.1209898 0.2536553 255 0 255
0.01703259 -0.09588696 0.2251555 255 0 255
0.02251062 -0.1120547 0.2462765 255 0 255
-0.171826 -0.205369 0.3315476 255 0 255
-0.1030849 -0.105021 0.2170902 255 0 255
-0.09192721 -0.09222073 0.2028145 255 0 255
-0.0887523 -0.09011117 0.2006441 255 0 255
-0.0797793 -0.09033573 0.2021556 255 0 255
-0.07812084 -0.090597 0.2027088 255 0 255
-0.0759449 -0.09158957 0.2042388 255 0 255
-0.07204621 -0.09279227 0.2062729 255 0 255
-0.07037304 -0.09498066 0.2092155 255 0 255
-0.06979827 -0.09570734 0.2101958 255 0 255
-0.06471848 -0.1344325 0.2588675 255 0 255
-0.05832899 -0.1437427 0.2713438 255 0 255
-0.05347681 -0.1432889 0.2715026 255 0 255
-0.0501167 -0.1440208 0.2729118 255 0 255
-0.0467566 -0.1561332 0.2884343 255 0 255
-0.0409303 -0.1738475 0.3112856 255 0 255
-0.02452178 -0.1036309 0.2267047 255 0 255
-0.02186734 -0.09727255 0.2192259 255 0 255
-0.01714642 -0.09460528 0.216647 255 0 255
-0.009083593 -0.09106033 0.2135082 255 0 255
0.001828244 -0.1046431 0.2320917 255 0 255
0.006970929 -0.08527962 0.208894 255 0 255
0.01011144 -0.08302751 0.2066086 255 0 255
0.02256809 -0.1065424 0.2378137 255 0 255
0.02376431 -0.1076265 0.2393554 255 0 255
0.02565828 -0.1123923 0.2455782 255 0 255
-0.1146179 -0.1219727 0.2347186 255 0 255
-0.1018154 -0.103952 0.2144101 255 0 255
-0.07886938 -0.09114194 0.2018877 255 0 255
-0.07720852 -0.09139919 0.2024356 255 0 255
-0.07418596 -0.09250826 0.2042208 255 0 255
-0.07056219 -0.09431741 0.2069532 255 0 255
-0.06999927 -0.09504828 0.2079301 255 0 255
-0.06971389 -0.09640283 0.209633 255 0 255
-0.06876136 -0.100463 0.2147524 255 0 255
-0.06841172 -0.1018151 0.2164622 255 0 255
-0.07045406 -0.1186218 0.2368042 255 0 255
-0.07125009 -0.1348251 0.2565904 255 0 255
-0.06571973 -0.1352371 0.2579038 255 0 255
-0.06391317 -0.1366459 0.2598999 255 0 255
-0.05016017 -0.1506837 0.2792003 255 0 255
-0.01970579 -0.09538317 0.2157954 255 0 255
-0.01348777 -0.09450399 0.2156766 255 0 255
-0.008999163 -0.09173136 0.2129652 255 0 255
-0.008135291 -0.0916767 0.2130334 255 0 255
0.002512631 -0.09712712 0.2214251 255 0 255
0.02149925 -0.1125443 0.243459 255 0 255
-0.09576543 -0.09693101 0.2051953 255 0 255
-0.08776524 -0.0916203 0.1998491 255 0 255
-0.08657244 -0.09115852 0.1994535 255 0 255
-0.07578059 -0.09294417 0.2031383 255 0 255
-0.07494254 -0.09306566 0.2034048 255 0 255
-0.06103794 -0.1435084 0.2668816 255 0 255
-0.0571273 -0.1507758 0.2763251 255 0 255
-0.05230838 -0.1509336 0.2772368 255 0 255
-0.05689104 -0.1873761 0.3210086 255 0 255
-0.06204339 -0.2173845 0.3568462 255 0 255
-0.02425416 -0.1044487 0.2247564 255 0 255
-0.01160913 -0.09445851 0.2145124 255 0 255
-0.004594457 -0.09210422 0.2127347 255 0 255
0.005508293 -0.08738641 0.2085732 255 0 255
0.007291544 -0.088461 0.2101695 255 0 255
-0.09490219 -0.09640408 0.2032453 255 0 255
-0.08566725 -0.09198041 0.1991998 255 0 255
-0.07653473 -0.09349409 0.2023154 255 0 255
-0.06983069 -0.09641989 0.2068066 255 0 255
-0.06864376 -0.09988723 0.2111666 255 0 255
-0.06831234 -0.101252 0.2128635 255 0 255
-0.06853486 -0.10851 0.2216024 255 0 255
-0.06502163 -0.1389727 0.2589478 255 0 255
-0.06088485 -0.1483096 0.2708537 255 0 255
-0.008829793 -0.09306682 0.2118712 255 0 255
-0.007087382 -0.09231737 0.211235 255 0 255
0.0002351297 -0.1083014 0.2317387 255 0 255
0.002834258 -0.1016932 0.2241457 255 0 255
0.004791779 -0.08875532 0.2087876 255 0 255
0.03182309 -0.146551 0.2830933 255 0 255
-0.08842438 -0.09280824 0.1984356 255 0 255
-0.08760002 -0.09296489 0.1987392 255 0 255
-0.08240385 -0.09184151 0.1981285 255 0 255
-0.07393684 -0.09453142 0.202557 255 0 255
-0.07086561 -0.09561993 0.2043027 255 0 255
-0.06917293 -0.09784138 0.2072095 255 0 255
-0.07009512 -0.1157133 0.2285037 255 0 255
-0.07218006 -0.1234588 0.2374887 255 0 255
-0.06440479 -0.1418471 0.2606891 255 0 255
-0.05896534 -0.1558207 0.2782669 255 0 255
-0.02370559 -0.1103752 0.2290118 255 0 255
-0.02213167 -0.1052025 0.2230393 255 0 255
-0.01749993 -0.09544048 0.2120231 255 0 255
-0.01581235 -0.09601638 0.2129741 255 0 255
-0.01347872 -0.1003949 0.2185931 255 0 255
-0.01059167 -0.09640101 0.2142414 255 0 255
-0.008744884 -0.09373125 0.2113204 255 0 255
-0.006988723 -0.09233791 0.2099191 255 0 255
-0.006122336 -0.09163867 0.2092137 255 0 255
-0.002690566 -0.09393991 0.2125129 255 0 255
-0.0008336173 -0.09954406 0.2195352 255 0 255
0.004216033 -0.09267285 0.2120732 255 0 255
0.009549586 -0.08503742 0.2037435 255 0 255
0.03198754 -0.1622902 0.3001037 255 0 255
-0.1051201 -0.1110509 0.2163729 255 0 255
-0.09714442 -0.1000926 0.2044879 255 0 255
-0.09074769 -0.09439969 0.1986321 255 0 255
-0.08834101 -0.09347688 0.1978771 255 0 255
-0.08513881 -0.09269043 0.1973976 255 0 255
-0.0823212 -0.09250284 0.1975759 255 0 255
-0.07655216 -0.09344523 0.1995213 255 0 255
-0.06937188 -0.0971458 0.2049572 255 0 255
-0.06821897 -0.1073277 0.2172364 255 0 255
-0.07206514 -0.1355502 0.2502558 255 0 255
-0.06989007 -0.1357347 0.2507948 255 0 255
-0.06677063 -0.1432272 0.2601729 255 0 255
-0.06511141 -0.1453093 0.2628969 255 0 255
-0.06128678 -0.1566627 0.2769824 255 0 255
-0.01977205 -0.1019851 0.2181056 255 0 255
-0.01860803 -0.0993707 0.2151685 255 0 255
-0.01759669 -0.09804748 0.2137466 255 0 255
-0.002616834 -0.09332013 0.2104243 255 0 255
0.002068015 -0.1025558 0.2221599 255 0 255
0.009420333 -0.09213149 0.2108907 255 0 255
0.009890109 -0.08821102 0.2062932 255 0 255
0.01314855 -0.08715908 0.2055539 255 0 255
0.02185322 -0.1221221 0.2485888 255 0 255
-0.1953455 -0.2478469 0.3631914 255 0 255
-0.08788385 -0.09351715 0.1966313 255 0 255
-0.06777451 -0.102716 0.2103868 255 0 255
-0.07451699 -0.1314922 0.2433684 255 0 255
-0.06955069 -0.1359399 0.2493501 255 0 255
-0.06871978 -0.1399885 0.2542537 255 0 255
-0.0646631 -0.1528197 0.2700089 255 0 255
-0.01864896 -0.1013505 0.2161101 255 0 255
-0.01433756 -0.1037661 0.2196248 255 0 255
-0.01053439 -0.1003384 0.2161567 255 0 255
-0.001661314 -0.09455152 0.2106852 255 0 255
0.001085499 -0.09883394 0.2161735 255 0 255
0.008214952 -0.09811062 0.216429 255 0 255
0.01023381 -0.09140647 0.2088202 255 0 255
0.0115698 -0.08800561 0.2050098 255 0 255
0.01240054 -0.08790055 0.2050159 255 0 255
0.01323101 -0.08779334 0.2050196 255 0 255
0.01595598 -0.09520981 0.2142139 255 0 255
-0.1181974 -0.131698 0.2355872 255 0 255
-0.1025627 -0.1088063 0.2110588 255 0 255
-0.09657667 -0.1008653 0.2026307 255 0 255
-0.08016808 -0.09346595 0.1963376 255 0 255
-0.07638457 -0.09476453 0.1984057 255 0 255
-0.07389514 -0.09513594 0.1992023 255 0 255
-0.07145768 -0.09752256 0.2023515 255 0 255
-0.07005338 -0.09838561 0.2035671 255 0 255
-0.07057643 -0.1199393 0.2287321 255 0 255
-0.07426531 -0.1376978 0.2489906 255 0 255
-0.06832609 -0.1468621 0.2606052 255 0 255
-0.06386022 -0.1597322 0.2763505 255 0 255
-0.01766262 -0.1020042 0.2156289 255 0 255
-0.008551468 -0.09766205 0.2119303 255 0 255
-0.0006970461 -0.09578364 0.2109364 255 0 255
0.003745494 -0.09732052 0.2134255 255 0 255
0.00819558 -0.09750056 0.214327 255 0 255
0.009193823 -0.09868718 0.2158736 255 0 255
0.01194612 -0.09120381 0.2075273 255 0 255
-0.09208702 -0.09750151 0.1979662 255 0 255
-0.08335049 -0.0935476 0.1946422 255 0 255
-0.08171965 -0.09383734 0.1952156 255 0 255
-0.08090247 -0.09397884 0.1954987 255 0 255
-0.07679941 -0.09465254 0.1968789 255 0 255
-0.06967596 -0.09841062 0.2022869 255 0 255
-0.06705207 -0.1028073 0.2077813 255 0 255
-0.0712631 -0.1367908 0.2466548 255 0 255
-0.06870048 -0.145709 0.2574013 255 0 255
-0.0228947 -0.117877 0.2319064 255 0 255
-0.02011088 -0.1099563 0.2231155 255 0 255
-0.01678722 -0.1039634 0.2166494 255 0 255
-0.0140249 -0.1031935 0.2161744 255 0 255
-0.01328237 -0.1057679 0.2192824 255 0 255
0.006331718 -0.09577273 0.2106641 255 0 255
0.008174724 -0.09687628 0.2122326 255 0 255
0.02167813 -0.1285155 0.251129 255 0 255
0.04925816 -0.243128 0.3887313 255 0 255
-0.08725778 -0.09485886 0.1942629 255 0 255
-0.08245135 -0.09434273 0.1943702 255 0 255
-0.07403833 -0.09709237 0.1987725 255 0 255
-0.07351188 -0.09785798 0.1997324 255 0 255
-0.07267135 -0.09797649 0.1999927 255 0 255
-0.07182976 -0.09809268 0.2002505 255 0 255
-0.0684532 -0.09853442 0.2012573 255 0 255
-0.06902325 -0.1478943 0.2580926 255 0 255
-0.01568856 -0.1032976 0.2146505 255 0 255
-0.01474282 -0.1026018 0.2139912 255 0 255
-0.01323088 -0.1071201 0.2194352 255 0 255
-0.008437865 -0.1009573 0.2130528 255 0 255
0.002052112 -0.096211 0.2091784 255 0 255
0.003745002 -0.09539256 0.2084935 255 0 255
0.005507507 -0.09586865 0.2093134 255 0 255
0.007285165 -0.09633406 0.2101235 255 0 255
0.009136485 -0.09743794 0.211682 255 0 255
-0.09991888 -0.1071891 0.2051781 255 0 255
-0.09552841 -0.1016675 0.1995097 255 0 255
-0.09313273 -0.09930435 0.1971595 255 0 255
-0.09152987 -0.09820418 0.1961369 255 0 255
-0.08873912 -0.09662526 0.1947413 255 0 255
-0.08754404 -0.09614802 0.1943712 255 0 255
-0.08004112 -0.09399083 0.193008 255 0 255
-0.07923007 -0.09412929 0.1932858 255 0 255
-0.07662967 -0.0959519 0.1957535 255 0 255
-0.06540984 -0.1097899 0.2132445 255 0 255
-0.07005079 -0.1270154 0.2322634 255 0 255
-0.07113196 -0.1418376 0.2490625 255 0 255
-0.06926554 -0.1534647 0.2626456 255 0 255
-0.01923439 -0.1139943 0.2249805 255 0 255
-0.01559923 -0.1039752 0.2140609 255 0 255
-0.01313919 -0.1078155 0.2188301 255 0 255
-0.009378345 -0.1056368 0.2169064 255 0 255
-0.006562678 -0.1008522 0.2118566 255 0 255
-0.00566325 -0.09947452 0.2104161 255 0 255
0.006409681 -0.09577389 0.2080197 255 0 255
0.01320202 -0.09431552 0.2073896 255 0 255
0.04891422 -0.2631378 0.4061291 255 0 255
0.04267083 -0.2077981 0.3418218 255 0 255
-0.09265844 -0.09933481 0.1959073 255 0 255
-0.08508638 -0.09582926 0.1930491 255 0 255
-0.08309607 -0.0954874 0.1929557 255 0 255
-0.08111569 -0.09513387 0.1928478 255 0 255
-0.07867137 -0.09555192 0.1936843 255 0 255
-0.07489483 -0.09685322 0.1957213 255 0 255
-0.07355354 -0.09774993 0.1969381 255 0 255
-0.07249791 -0.09929147 0.1988446 255 0 255
-0.07081357 -0.09952238 0.199357 255 0 255
-0.06996988 -0.09963439 0.1996095 255 0 255
-0.06799732 -0.101266 0.201755 255 0 255
-0.07064665 -0.1325033 0.2368214 255 0 255
-0.01695314 -0.1113256 0.2208316 255 0 255
-0.01451801 -0.1032852 0.2120679 255 0 255
-0.0137129 -0.1045719 0.2136509 255 0 255
-0.008376594 -0.1062653 0.2163814 255 0 255
-0.002956781 -0.09861609 0.2085149 255 0 255
-0.0003846065 -0.0970833 0.2071642 255 0 255
0.003915954 -0.09668493 0.2073646 255 0 255
0.005679209 -0.09716666 0.2081797 255 0 255
0.009932108 -0.09603215 0.207538 255 0 255
0.04160579 -0.2204557 0.3536707 255 0 255
0.03632213 -0.1660399 0.2910675 255 0 255
-0.09855349 -0.1066796 0.2019556 255 0 255
-0.08976559 -0.0984109 0.1939521 255 0 255
-0.08382399 -0.09598019 0.1920993 255 0 255
-0.08219521 -0.09627642 0.1926755 255 0 255
-0.08103015 -0.09577353 0.1922827 255 0 255
-0.0761312 -0.09659076 0.1939333 255 0 255
-0.0739824 -0.09762201 0.1954153 255 0 255
-0.06988236 -0.100289 0.1990311 255 0 255
-0.07271554 -0.145415 0.249438 255 0 255
-0.070095 -0.1585738 0.2646536 255 0 255
-0.02015909 -0.1274396 0.2370777 255 0 255
-0.01855142 -0.120734 0.2297648 255 0 255
-0.00836101 -0.1096073 0.2187649 255 0 255
0.001397074 -0.09691194 0.2059343 255 0 255
0.006532806 -0.09640186 0.206136 255 0 255
0.007388353 -0.09630892 0.2061608 255 0 255
0.01480864 -0.1000712 0.2115228 255 0 255
0.02144027 -0.1271668 0.2430552 255 0 255
0.03103361 -0.174505 0.2978432 255 0 255
0.03871551 -0.1867123 0.3127611 255 0 255
-0.09050205 -0.09889675 0.1930613 255 0 255
-0.08929965 -0.09841841 0.1927069 255 0 255
-0.08491345 -0.09711575 0.1919082 255 0 255
-0.0703416 -0.1001703 0.1975064 255 0 255
-0.06867441 -0.1024793 0.2003371 255 0 255
-0.06345092 -0.1051643 0.2041217 255 0 255
-0.06296176 -0.1086639 0.2081065 255 0 255
-0.03127376 -0.2167515 0.3336793 255 0 255
-0.009463457 -0.1183739 0.2269961 255 0 255
-0.00633012 -0.1048378 0.2123371 255 0 255
-0.0001962313 -0.0990326 0.206771 255 0 255
0.0006470552 -0.09829194 0.20607 255 0 255
0.004050708 -0.09730464 0.2054785 255 0 255
0.01523094 -0.1033608 0.2139304 255 0 255
0.01803018 -0.1103486 0.2221624 255 0 255
-0.09438841 -0.1030797 0.1957973 255 0 255
-0.07956976 -0.097983 0.1923787 255 0 255
-0.0771073 -0.09839148 0.1932029 255 0 255
-0.06656653 -0.1047768 0.2018724 255 0 255
-0.06483614 -0.1049754 0.2023531 255 0 255
-0.06336041 -0.1058305 0.2035236 255 0 255
-0.06545505 -0.1242969 0.2236879 255 0 255
-0.07251561 -0.157428 0.2593679 255 0 255
-0.01731186 -0.1214977 0.2278164 255 0 255
-0.01146245 -0.1225666 0.2298789 255 0 255
-0.009300092 -0.1170839 0.2241234 255 0 255
-0.007164242 -0.1069036 0.2131547 255 0 255
-0.002702474 -0.09988721 0.2060429 255 0 255
0.000732918 -0.0989304 0.2054965 255 0 255
0.03436165 -0.170639 0.2900472 255 0 255
-0.1167558 -0.1355085 0.226754 255 0 255
-0.091916 -0.1013232 0.1928935 255 0 255
-0.08636743 -0.09808028 0.190166 255 0 255
-0.08193443 -0.09818943 0.1909586 255 0 255
-0.0778417 -0.09889415 0.1923546 255 0 255
-0.07537252 -0.09928971 0.193164 255 0 255
-0.06934874 -0.10368 0.1989074 255 0 255
-0.06296295 -0.1183316 0.2159952 255 0 255
-0.06484427 -0.1264708 0.2246675 255 0 255
-0.0675588 -0.1373014 0.2361757 255 0 255
-0.07062385 -0.1680925 0.2695944 255 0 255
-0.06714457 -0.1607677 0.2620591 255 0 255
-0.01768953 -0.128308 0.2337739 255 0 255
-0.01632662 -0.1235391 0.2287315 255 0 255
-0.0147477 -0.1147181 0.2192636 255 0 255
-0.007005183 -0.1042041 0.2088545 255 0 255
-0.006101917 -0.1027988 0.2074435 255 0 255
0.008499532 -0.09811848 0.2044722 255 0 255
0.01896425 -0.1102875 0.2194167 255 0 255
0.02805193 -0.1414323 0.2550314 255 0 255
-0.08590981 -0.09805986 0.1889282 255 0 255
-0.08301621 -0.09933226 0.1907599 255 0 255
-0.07280545 -0.1003003 0.1933725 255 0 255
-0.06897074 -0.1036629 0.1976274 255 0 255
-0.0678313 -0.1052167 0.1994971 255 0 255
-0.06465458 -0.1062939 0.2011552 255 0 255
-0.06404939 -0.1070614 0.2020849 255 0 255
-0.07048589 -0.1537948 0.2521369 255 0 255
-0.07130039 -0.167576 0.2670596 255 0 255
-0.0163726 -0.126307 0.2302621 255 0 255
-0.01149817 -0.1085019 0.2115567 255 0 255
-0.00961717 -0.106372 0.2095125 255 0 255
-0.00868355 -0.104966 0.2081171 255 0 255
-0.00339837 -0.09987921 0.203352 255 0 255
0.002565284 -0.0986966 0.2029474 255 0 255
