ply
format ascii 1.0
Comment Generated by Floating Hands
element vertex 1145
property double x
property double y
property double z
property uchar red
property uchar green
property uchar blue
end_header
0.1154415 -0.06273334 0.290411 255 0 255
0.1234376 -0.062764 0.2918979 255 0 255
0.1292922 -0.06468955 0.2968001 255 0 255
0.1307868 -0.06479605 0.2972903 255 0 255
0.06112671 -0.04256409 0.2395627 255 0 255
0.07129327 -0.06299869 0.2818009 255 0 255
0.08008954 -0.06674234 0.2904286 255 0 255
0.0805376 -0.0652993 0.2876005 255 0 255
0.08312811 -0.06351174 0.2843769 255 0 255
0.08685614 -0.06381606 0.2855047 255 0 255
0.0911947 -0.06306023 0.284622 255 0 255
0.09335744 -0.06266737 0.2841594 255 0 255
0.1110731 -0.06475471 0.2911001 255 0 255
0.1151681 -0.06336795 0.2890477 255 0 255
0.1165999 -0.06351929 0.2895925 255 0 255
0.1188006 -0.06300727 0.2889639 255 0 255
0.1227932 -0.06301686 0.2896885 255 0 255
0.1242491 -0.06314505 0.2902018 255 0 255
0.1260696 -0.06366538 0.2915542 255 0 255
0.1316092 -0.06518896 0.2955622 255 0 255
0.1331082 -0.06529134 0.2960412 255 0 255
0.1346128 -0.06538921 0.296514 255 0 255
0.09098418 -0.0636398 0.2832556 255 0 255
0.09232475 -0.0638658 0.2838956 255 0 255
0.09448581 -0.06346735 0.2834262 255 0 255
0.09799971 -0.06326833 0.28356 255 0 255
0.1065797 -0.06485325 0.2880102 255 0 255
0.121748 -0.06432439 0.2895017 255 0 255
0.1257693 -0.06431533 0.2901907 255 0 255
0.1272372 -0.06443779 0.2906908 255 0 255
0.07205388 -0.06394007 0.2789 255 0 255
0.07992086 -0.07067494 0.2931066 255 0 255
0.08017971 -0.06877683 0.2894127 255 0 255
0.08213551 -0.06567653 0.2835827 255 0 255
0.08298684 -0.06507242 0.2825105 255 0 255
0.0977679 -0.06384809 0.2821958 255 0 255
0.1035436 -0.065079 0.2854681 255 0 255
0.1049329 -0.06527144 0.2860571 255 0 255
0.1074225 -0.06522872 0.2863625 255 0 255
0.124009 -0.06482544 0.2883208 255 0 255
0.125468 -0.06495617 0.2888265 255 0 255
0.1269328 -0.06508254 0.2893262 255 0 255
0.07925751 -0.07274452 0.2945234 255 0 255
0.08411022 -0.06588427 0.2818077 255 0 255
0.08602121 -0.06509226 0.2805242 255 0 255
0.08948858 -0.06496345 0.2807448 255 0 255
0.0916325 -0.06457781 0.2802952 255 0 255
0.0927028 -0.06438127 0.280065 255 0 255
0.09350201 -0.06375588 0.2789681 255 0 255
0.09590696 -0.06377685 0.2793539 255 0 255
0.09725402 -0.06399468 0.2799706 255 0 255
0.1002559 -0.06484118 0.2820472 255 0 255
0.1013331 -0.06462441 0.2817892 255 0 255
0.1030016 -0.06524753 0.2832419 255 0 255
0.1043839 -0.06544466 0.2838313 255 0 255
0.1139051 -0.0662945 0.2869533 255 0 255
0.1150025 -0.06604534 0.2866509 255 0 255
0.1204114 -0.06625462 0.287938 255 0 255
0.1222601 -0.06531426 0.2864451 255 0 255
0.1291948 -0.06705926 0.2909672 255 0 255
0.131049 -0.06758201 0.2922877 255 0 255
0.07930215 -0.073778 0.2939945 255 0 255
0.08284363 -0.06661098 0.2806357 255 0 255
0.0873858 -0.06632457 0.2806764 255 0 255
0.09141641 -0.06513068 0.2789286 255 0 255
0.09488736 -0.06496394 0.2790916 255 0 255
0.09567683 -0.06433129 0.2779915 255 0 255
0.09730201 -0.06498068 0.2794665 255 0 255
0.1013824 -0.06561975 0.2812804 255 0 255
0.1027551 -0.06582478 0.2818744 255 0 255
0.1055191 -0.06622271 0.2830463 255 0 255
0.1069104 -0.06641556 0.2836241 255 0 255
0.1161523 -0.06681588 0.2858227 255 0 255
0.1266844 -0.0667543 0.2874322 255 0 255
0.129996 -0.06741512 0.289245 255 0 255
0.1352239 -0.06856791 0.292326 255 0 255
0.07913708 -0.07436575 0.2925901 255 0 255
0.08031262 -0.07181283 0.2878591 255 0 255
0.08163255 -0.06970259 0.2839957 255 0 255
0.0847974 -0.06679743 0.2788575 255 0 255
0.09359536 -0.06571387 0.277962 255 0 255
0.1038833 -0.06659789 0.2810945 255 0 255
0.111173 -0.06798418 0.2848011 255 0 255
0.1187356 -0.06774153 0.2855165 255 0 255
0.1212743 -0.06763331 0.2857178 255 0 255
0.1220183 -0.0669506 0.2845537 255 0 255
0.1330255 -0.06869775 0.2896563 255 0 255
0.08424307 -0.0688367 0.2802823 255 0 255
0.09018039 -0.06684124 0.2772788 255 0 255
0.09150796 -0.0670858 0.277914 255 0 255
0.09470654 -0.06648804 0.2772174 255 0 255
0.1008936 -0.06673946 0.2785455 255 0 255
0.1231641 -0.06770074 0.2836952 255 0 255
0.1246139 -0.06784619 0.2841983 255 0 255
0.1264331 -0.06840356 0.2855289 255 0 255
0.1327052 -0.06933216 0.2882828 255 0 255
0.07859541 -0.07506339 0.2889123 255 0 255
0.08039965 -0.07382616 0.2868035 255 0 255
0.08915926 -0.06800397 0.2769881 255 0 255
0.09502695 -0.06790102 0.2775602 255 0 255
0.09609489 -0.06769578 0.2773205 255 0 255
0.09744363 -0.06792611 0.2779308 255 0 255
0.09958111 -0.06750172 0.2774322 255 0 255
0.112808 -0.06865968 0.2814692 255 0 255
0.1153081 -0.06858919 0.2817113 255 0 255
0.1206842 -0.06883071 0.2829763 255 0 255
0.1275862 -0.06914953 0.2846479 255 0 255
0.1323838 -0.06995751 0.2869088 255 0 255
0.07669304 -0.07442176 0.2850905 255 0 255
0.08492806 -0.06971566 0.2773204 255 0 255
0.08599845 -0.06953385 0.2771137 255 0 255
0.08706784 -0.06934955 0.2769035 255 0 255
0.09026965 -0.06878172 0.2762521 255 0 255
0.09373254 -0.06863529 0.2764239 255 0 255
0.09749003 -0.06890374 0.2774113 255 0 255
0.1006952 -0.0682624 0.2766587 255 0 255
0.106185 -0.06911693 0.2789883 255 0 255
0.1128587 -0.06966038 0.2809378 255 0 255
0.1156939 -0.0700228 0.282017 255 0 255
0.1258149 -0.06960718 0.2827868 255 0 255
0.1272734 -0.0697507 0.2832762 255 0 255
0.07239073 -0.06824121 0.2708868 255 0 255
0.07805075 -0.07571067 0.2852406 255 0 255
0.07958741 -0.07645761 0.2867838 255 0 255
0.09350654 -0.06915773 0.2750511 255 0 255
0.09753606 -0.0698792 0.2768878 255 0 255
0.1007419 -0.06923685 0.276136 255 0 255
0.1031741 -0.06923727 0.2764627 255 0 255
0.1104168 -0.07071061 0.2801448 255 0 255
0.1114999 -0.07046832 0.279856 255 0 255
0.1125817 -0.07022348 0.2795638 255 0 255
0.1200906 -0.06999196 0.2802333 255 0 255
0.1262327 -0.07104848 0.283071 255 0 255
0.08119574 -0.07573892 0.2832785 255 0 255
0.09488814 -0.0703693 0.2751445 255 0 255
0.09836547 -0.07019297 0.2752665 255 0 255
0.09972056 -0.07042614 0.2758632 255 0 255
0.103221 -0.07021233 0.2759347 255 0 255
0.1129587 -0.07165521 0.2798631 255 0 255
0.1143741 -0.07184459 0.2804023 255 0 255
0.1336578 -0.07276181 0.2848885 255 0 255
0.08744536 -0.07270523 0.2761867 255 0 255
0.08851822 -0.07251689 0.2759728 255 0 255
0.08933388 -0.07186928 0.2749036 255 0 255
0.09655534 -0.07203355 0.2760728 255 0 255
0.09762684 -0.07182375 0.2758296 255 0 255
0.09869713 -0.07161144 0.2755828 255 0 255
0.1000564 -0.07184692 0.276177 255 0 255
0.1070926 -0.07139207 0.2762752 255 0 255
0.1180223 -0.07251555 0.2797751 255 0 255
0.1234292 -0.07276189 0.2809831 255 0 255
0.1248811 -0.07292222 0.2814785 255 0 255
0.08105757 -0.0772502 0.281335 255 0 255
0.08193102 -0.07661077 0.2802864 255 0 255
0.0864137 -0.07385638 0.2758641 255 0 255
0.08723914 -0.07320869 0.2748022 255 0 255
0.08830842 -0.0730207 0.2745893 255 0 255
0.09124598 -0.07198302 0.2730814 255 0 255
0.09230713 -0.07178576 0.2728554 255 0 255
0.1025421 -0.0728315 0.2759692 255 0 255
0.1082113 -0.07213343 0.2754595 255 0 255
0.11556 -0.07358378 0.2790082 255 0 255
0.1195049 -0.0736925 0.2797408 255 0 255
0.1289524 -0.07395887 0.2815487 255 0 255
0.08109882 -0.07823206 0.2807876 255 0 255
0.0843038 -0.07518477 0.2757369 255 0 255
0.08835059 -0.07397985 0.2740548 255 0 255
0.09368189 -0.07300101 0.2729393 255 0 255
0.1015131 -0.07402579 0.2756861 255 0 255
0.1068733 -0.07289038 0.2743588 255 0 255
0.1096491 -0.07332 0.27547 255 0 255
0.1127772 -0.07418186 0.2773905 255 0 255
0.1156089 -0.07457601 0.2784557 255 0 255
0.1170338 -0.07476664 0.27898 255 0 255
0.1334374 -0.07540449 0.2823779 255 0 255
0.07693854 -0.08035948 0.2818257 255 0 255
0.07979576 -0.08144912 0.2840264 255 0 255
0.083501 -0.07679635 0.276246 255 0 255
0.08649707 -0.07578043 0.2747866 255 0 255
0.09133095 -0.07389048 0.2720134 255 0 255
0.09883097 -0.07451093 0.2739674 255 0 255
0.1001913 -0.07475562 0.2745565 255 0 255
0.101558 -0.07499623 0.2751405 255 0 255
0.1026328 -0.07477384 0.2748822 255 0 255
0.1096958 -0.07429463 0.2749222 255 0 255
0.1181708 -0.07549995 0.2781138 255 0 255
0.1228666 -0.074881 0.2776665 255 0 255
0.1243124 -0.07505197 0.2781593 255 0 255
0.08205402 -0.07953864 0.2786389 255 0 255
0.08291909 -0.07888683 0.2775944 255 0 255
0.09004944 -0.07456691 0.2708522 255 0 255
0.09455493 -0.07423894 0.2707875 255 0 255
0.09858774 -0.07500839 0.2725836 255 0 255
0.1037513 -0.07551641 0.2740715 255 0 255
0.1048238 -0.0752886 0.2738065 255 0 255
0.1157053 -0.07655369 0.2773392 255 0 255
0.1240008 -0.07559913 0.2767775 255 0 255
0.125449 -0.07576951 0.277264 255 0 255
0.1269029 -0.07593546 0.2777447 255 0 255
0.08232071 -0.08098911 0.2789302 255 0 255
0.08381601 -0.07919786 0.2759952 255 0 255
0.09487291 -0.0756565 0.2710831 255 0 255
0.1154169 -0.07708171 0.2759517 255 0 255
0.1164996 -0.07682557 0.2756497 255 0 255
0.1193546 -0.07721514 0.2766756 255 0 255
0.1284129 -0.07709482 0.2776487 255 0 255
0.01629851 -0.09486851 0.2956935 255 0 255
0.07922071 -0.08555643 0.2842066 255 0 255
0.08346021 -0.08178372 0.2781722 255 0 255
0.08385617 -0.08015975 0.2754388 255 0 255
0.08984195 -0.07807969 0.2725038 255 0 255
0.1123078 -0.07717933 0.2735082 255 0 255
0.1226554 -0.07739456 0.2751526 255 0 255
0.125182 -0.07729795 0.2753119 255 0 255
0.1266331 -0.07747065 0.2757906 255 0 255
0.01751053 -0.09587021 0.2951104 255 0 255
0.02346739 -0.09671979 0.2968594 255 0 255
0.07904928 -0.08605993 0.2827808 255 0 255
0.08413024 -0.08160394 0.2757215 255 0 255
0.08498201 -0.08093791 0.2746785 255 0 255
0.08773506 -0.07941419 0.2723773 255 0 255
0.1116959 -0.07721586 0.2713006 255 0 255
0.1191022 -0.07872188 0.2747172 255 0 255
0.1205355 -0.07891687 0.2752194 255 0 255
0.1252303 -0.07828209 0.2747385 255 0 255
0.1263124 -0.0780018 0.2744057 255 0 255
0.01635583 -0.09691741 0.294491 255 0 255
0.02466459 -0.09719996 0.2953852 255 0 255
0.02582368 -0.09664757 0.2945144 255 0 255
0.02826173 -0.09756901 0.2962034 255 0 255
0.02949237 -0.09802502 0.297042 255 0 255
0.07887724 -0.08655437 0.2813552 255 0 255
0.08021139 -0.08687484 0.2820158 255 0 255
0.08266694 -0.08438924 0.2780732 255 0 255
0.08416982 -0.08256468 0.2751556 255 0 255
0.09393338 -0.07870049 0.269659 255 0 255
0.1053063 -0.07960881 0.2723988 255 0 255
0.1089584 -0.07772139 0.2696611 255 0 255
0.1103464 -0.07795034 0.2702014 255 0 255
0.1148831 -0.07907918 0.272607 255 0 255
0.1162991 -0.07929018 0.2731244 255 0 255
0.1213124 -0.07916465 0.2735132 255 0 255
0.1296504 -0.07978576 0.2755696 255 0 255
0.01756894 -0.09842722 0.2947583 255 0 255
0.01994441 -0.09837075 0.2947792 255 0 255
0.02588225 -0.09818044 0.2947657 255 0 255
0.02829276 -0.09859648 0.2955922 255 0 255
0.03067442 -0.09848914 0.2955452 255 0 255
0.03747669 -0.09554877 0.2910263 255 0 255
0.0809342 -0.08669676 0.2795607 255 0 255
0.08270621 -0.08535834 0.2774971 255 0 255
0.08506101 -0.08284982 0.2735473 255 0 255
0.09503821 -0.07943713 0.2688672 255 0 255
0.1018187 -0.08077156 0.2717868 255 0 255
0.1028947 -0.08054707 0.2715299 255 0 255
0.1071858 -0.07962362 0.2704678 255 0 255
0.1145917 -0.07957455 0.2712179 255 0 255
0.1278618 -0.08013997 0.2737167 255 0 255
0.01759871 -0.09996532 0.2950014 255 0 255
0.01879059 -0.09993839 0.2950138 255 0 255
0.02116171 -0.09936004 0.2941707 255 0 255
0.02234959 -0.09932477 0.2941718 255 0 255
0.02351692 -0.09877091 0.2933126 255 0 255
0.03427742 -0.09933177 0.2948312 255 0 255
0.03552727 -0.0997794 0.2956464 255 0 255
0.036721 -0.09970994 0.295602 255 0 255
0.03860682 -0.09596949 0.2895153 255 0 255
0.03863518 -0.08094376 0.2646123 255 0 255
0.08075372 -0.08717371 0.278137 255 0 255
0.08424799 -0.08447929 0.2740125 255 0 255
0.0857009 -0.08263084 0.2711021 255 0 255
0.08653171 -0.08195201 0.2700623 255 0 255
0.08735386 -0.08127198 0.2690206 255 0 255
0.08842115 -0.08108208 0.2688101 255 0 255
0.09507857 -0.08037663 0.268304 255 0 255
0.09884086 -0.08071373 0.26924 255 0 255
0.1004916 -0.08146437 0.2706429 255 0 255
0.114636 -0.08053506 0.2706425 255 0 255
0.1199717 -0.08090935 0.2718595 255 0 255
0.1253719 -0.0812204 0.2729949 255 0 255
0.1330754 -0.08255805 0.2760957 255 0 255
0.01882465 -0.1014806 0.2952487 255 0 255
0.02002067 -0.1014508 0.2952574 255 0 255
0.02709843 -0.09965601 0.2926669 255 0 255
0.02828206 -0.09960683 0.2926492 255 0 255
0.03311882 -0.1004177 0.2942488 255 0 255
0.03675342 -0.1007354 0.294981 255 0 255
0.0400158 -0.09062216 0.2785626 255 0 255
0.03988243 -0.08280554 0.2657144 255 0 255
0.0842866 -0.08543314 0.2734353 255 0 255
0.0848999 -0.08425529 0.271567 255 0 255
0.08820599 -0.08152317 0.2674128 255 0 255
0.09033006 -0.08113656 0.2669835 255 0 255
0.0916558 -0.08143203 0.2675926 255 0 255
0.0964625 -0.08159489 0.2683277 255 0 255
0.09752861 -0.08138299 0.2680885 255 0 255
0.1016066 -0.08219181 0.2698167 255 0 255
0.1058892 -0.08127893 0.2687739 255 0 255
0.1083408 -0.08128894 0.2690485 255 0 255
0.1150166 -0.08197064 0.2708749 255 0 255
0.1185894 -0.08166737 0.2707778 255 0 255
0.1200167 -0.08187584 0.2712754 255 0 255
0.1236085 -0.0815325 0.2711259 255 0 255
0.1250518 -0.08172502 0.271603 255 0 255
0.1279556 -0.08209658 0.2725399 255 0 255
0.1308823 -0.08245 0.2734538 255 0 255
0.1342198 -0.08324929 0.2751402 255 0 255
0.005276833 -0.1084027 0.3036418 255 0 255
0.01043587 -0.1036803 0.2961605 255 0 255
0.01284355 -0.1036574 0.2962274 255 0 255
0.01766066 -0.1041004 0.2971678 255 0 255
0.02244251 -0.1024061 0.294638 255 0 255
0.02476079 -0.1007594 0.2920718 255 0 255
0.02831266 -0.1006201 0.2920301 255 0 255
0.03678573 -0.1017584 0.2943559 255 0 255
0.04108163 -0.09833468 0.2890365 255 0 255
0.04148112 -0.08044546 0.2599367 255 0 255
0.08061057 -0.08860414 0.2761257 255 0 255
0.08346409 -0.08706754 0.2738843 255 0 255
0.08493808 -0.08519982 0.2709903 255 0 255
0.08553499 -0.08401504 0.2691256 255 0 255
0.08636204 -0.08332964 0.268091 255 0 255
0.08824426 -0.08245324 0.266845 255 0 255
0.09036864 -0.08206605 0.2664161 255 0 255
0.09275798 -0.08216393 0.2667997 255 0 255
0.09382015 -0.08196081 0.2665726 255 0 255
0.09650238 -0.08253283 0.2677553 255 0 255
0.1122437 -0.0824714 0.2692526 255 0 255
0.1147232 -0.08244905 0.2694804 255 0 255
0.1225749 -0.08277403 0.2708591 255 0 255
0.005304959 -0.1094603 0.3029898 255 0 255
0.0176922 -0.1061843 0.2982326 255 0 255
0.02128893 -0.1039888 0.2948578 255 0 255
0.02594645 -0.101201 0.2905883 255 0 255
0.02834322 -0.1016309 0.291407 255 0 255
0.03675396 -0.102255 0.2928775 255 0 255
0.04333974 -0.09177151 0.276351 255 0 255
0.04268558 -0.07647563 0.2516306 255 0 255
0.08746856 -0.08407312 0.2673106 255 0 255
0.09040688 -0.08299328 0.2658451 255 0 255
0.09279668 -0.08309387 0.2662271 255 0 255
0.09626101 -0.08297219 0.2663577 255 0 255
0.1112126 -0.08367041 0.2689528 255 0 255
0.1229785 -0.08421679 0.2710672 255 0 255
0.124424 -0.08441765 0.2715443 255 0 255
0.01285685 -0.1073002 0.2974998 255 0 255
0.01772411 -0.108279 0.299285 255 0 255
0.02014529 -0.1066321 0.296762 255 0 255
0.02133168 -0.10554 0.2950705 255 0 255
0.02250224 -0.1044455 0.2933752 255 0 255
0.02365699 -0.1033487 0.2916761 255 0 255
0.02833713 -0.1021105 0.2899318 255 0 255
0.03074164 -0.1025321 0.2907335 255 0 255
0.03192533 -0.1024743 0.2907047 255 0 255
0.03434825 -0.102878 0.2914833 255 0 255
0.04043182 -0.1035706 0.2929385 255 0 255
0.04456151 -0.09955167 0.2867571 255 0 255
0.08284529 -0.08744494 0.2702188 255 0 255
0.08536711 -0.08537666 0.2671425 255 0 255
0.09842437 -0.08347543 0.2653011 255 0 255
0.1014321 -0.08452806 0.2672567 255 0 255
0.1031009 -0.08529488 0.268633 255 0 255
0.1041765 -0.08506612 0.2683738 255 0 255
0.1070805 -0.08387185 0.2667643 255 0 255
0.1119983 -0.08388181 0.2672709 255 0 255
0.1155407 -0.08361007 0.2672023 255 0 255
0.1215826 -0.08497364 0.2699871 255 0 255
0.1226631 -0.08470001 0.2696691 255 0 255
0.003365894 -0.1211655 0.3168235 255 0 255
0.01285669 -0.1093995 0.2985435 255 0 255
0.01898341 -0.1098238 0.2994918 255 0 255
0.02258308 -0.1070596 0.2952762 255 0 255
0.02372872 -0.105423 0.2927351 255 0 255
0.02840417 -0.1036449 0.2901489 255 0 255
0.02958839 -0.1035927 0.2901276 255 0 255
0.03077243 -0.1035377 0.2901025 255 0 255
0.03200476 -0.1040113 0.2909194 255 0 255
0.04293472 -0.1049498 0.2930237 255 0 255
0.0796147 -0.0916507 0.2745237 255 0 255
0.08202413 -0.0890734 0.2706496 255 0 255
0.083496 -0.08718001 0.267783 255 0 255
0.08861133 -0.08573762 0.2659428 255 0 255
0.09260322 -0.0844417 0.264251 255 0 255
0.09393553 -0.08474272 0.2648443 255 0 255
0.09499703 -0.08453613 0.2646145 255 0 255
0.09875181 -0.08490381 0.2655359 255 0 255
0.105291 -0.08577654 0.2675211 255 0 255
0.1166507 -0.08429594 0.2663117 255 0 255
0.1201914 -0.08571793 0.2689012 255 0 255
0.1227064 -0.08565937 0.2690684 255 0 255
0.1241489 -0.08586688 0.2695432 255 0 255
0.132462 -0.08480527 0.2687653 255 0 255
0.00470558 -0.1222801 0.3161802 255 0 255
0.007657626 -0.1163754 0.3070111 255 0 255
0.01028133 -0.1142166 0.3037235 255 0 255
0.01779039 -0.1130373 0.3021965 255 0 255
0.0344675 -0.1054275 0.2910569 255 0 255
0.04785196 -0.1061308 0.2929317 255 0 255
0.04855134 -0.09203441 0.2708234 255 0 255
0.07939214 -0.09484769 0.2774147 255 0 255
0.09291039 -0.08586974 0.2644872 255 0 255
0.1001473 -0.08611705 0.2655171 255 0 255
0.1060927 -0.08598144 0.2658536 255 0 255
0.1089707 -0.08476728 0.2642339 255 0 255
0.1100312 -0.08452404 0.2639566 255 0 255
0.1152828 -0.08500472 0.2652145 255 0 255
0.1213124 -0.08640146 0.2679853 255 0 255
0.1321173 -0.0852879 0.2673712 255 0 255
0.008849965 -0.1196021 0.3097374 255 0 255
0.01782496 -0.1157072 0.3040511 255 0 255
0.0226776 -0.1101823 0.2956606 255 0 255
0.03444226 -0.1058968 0.2895727 255 0 255
0.04052903 -0.1066083 0.291016 255 0 255
0.05017579 -0.1064117 0.2912763 255 0 255
0.05047804 -0.1020373 0.2844806 255 0 255
0.05083258 -0.09819903 0.2785241 255 0 255
0.04583 -0.06656023 0.2289346 255 0 255
0.08547661 -0.08815158 0.2653876 255 0 255
0.09161735 -0.08648008 0.2633063 255 0 255
0.09294757 -0.08679036 0.2639 255 0 255
0.09882839 -0.08675738 0.264359 255 0 255
0.1015493 -0.08732969 0.2654857 255 0 255
0.1042954 -0.0878854 0.2665918 255 0 255
0.1089053 -0.08744177 0.2663279 255 0 255
0.1107238 -0.08645227 0.2649692 255 0 255
0.1142573 -0.0861981 0.264911 255 0 255
0.1170783 -0.08667331 0.2659147 255 0 255
0.1188465 -0.08739877 0.2672045 255 0 255
0.1235074 -0.08680255 0.2667432 255 0 255
0.1245816 -0.08652339 0.2664202 255 0 255
0.126396 -0.08721919 0.267673 255 0 255
0.1311538 -0.08829577 0.269811 255 0 255
0.132242 -0.08799762 0.2694638 255 0 255
0.008697756 -0.1244872 0.3149145 255 0 255
0.01144699 -0.1206652 0.3091203 255 0 255
0.01786008 -0.1183944 0.3058887 255 0 255
0.02392463 -0.1111679 0.2949979 255 0 255
0.028532 -0.1071887 0.2890718 255 0 255
0.03447341 -0.106898 0.2889279 255 0 255
0.04183536 -0.1080738 0.2911463 255 0 255
0.04303288 -0.1079892 0.2910833 255 0 255
0.04932571 -0.1091365 0.2932217 255 0 255
0.09398489 -0.1441439 0.3502197 255 0 255
0.08252656 -0.09013934 0.2662023 255 0 255
0.08551238 -0.08907181 0.2647954 255 0 255
0.08683017 -0.08940391 0.2654113 255 0 255
0.1146351 -0.08763341 0.2651071 255 0 255
0.117119 -0.08761397 0.26531 255 0 255
0.1199643 -0.08807732 0.266288 255 0 255
0.01789576 -0.1210987 0.3077094 255 0 255
0.02514661 -0.1116022 0.2934899 255 0 255
0.0321771 -0.1085662 0.2891852 255 0 255
0.03687968 -0.1077602 0.2881956 255 0 255
0.03925379 -0.1076124 0.2880971 255 0 255
0.04051679 -0.1080774 0.2888784 255 0 255
0.0533468 -0.1059473 0.286359 255 0 255
0.07816616 -0.09737554 0.2749134 255 0 255
0.07864942 -0.09562057 0.2722692 255 0 255
0.08850186 -0.08889891 0.262769 255 0 255
0.09062834 -0.08850767 0.2623429 255 0 255
0.0930206 -0.08862443 0.2627148 255 0 255
0.09676994 -0.08903295 0.2636458 255 0 255
0.1013286 -0.08867256 0.2634813 255 0 255
0.1065211 -0.0892841 0.2648592 255 0 255
0.1089837 -0.08931292 0.2651193 255 0 255
0.1097341 -0.08856148 0.2640443 255 0 255
0.115745 -0.08831102 0.264206 255 0 255
0.01096889 -0.1393189 0.3327642 255 0 255
0.01393468 -0.1304875 0.3194703 255 0 255
0.01662666 -0.1271447 0.3145072 255 0 255
0.02517692 -0.1126183 0.2928241 255 0 255
0.0275031 -0.1108796 0.2902938 255 0 255
0.03684619 -0.1082088 0.2867086 255 0 255
0.04047204 -0.1085298 0.2873898 255 0 255
0.05455754 -0.1068264 0.2856105 255 0 255
0.0511881 -0.07497367 0.2370693 255 0 255
0.07799234 -0.09779733 0.2734682 255 0 255
0.08306085 -0.0930375 0.266635 255 0 255
0.08475088 -0.0916172 0.2646137 255 0 255
0.08690122 -0.09124324 0.2642122 255 0 255
0.08853719 -0.08981027 0.2621723 255 0 255
0.09066391 -0.08941844 0.2617466 255 0 255
0.09546002 -0.08964416 0.2624703 255 0 255
0.09787396 -0.08973721 0.262807 255 0 255
0.1027328 -0.08988307 0.2634293 255 0 255
0.1097726 -0.08948979 0.2634368 255 0 255
0.1129738 -0.08874283 0.262592 255 0 255
0.1186189 -0.08972751 0.2645775 255 0 255
0.1211206 -0.08969095 0.2647495 255 0 255
0.1247056 -0.08935976 0.2645813 255 0 255
0.129813 -0.09098541 0.2674997 255 0 255
0.1323703 -0.0908856 0.2675919 255 0 255
0.01797982 -0.1298762 0.3162982 255 0 255
0.03343096 -0.1105009 0.2878391 255 0 255
0.03575428 -0.1098189 0.2869303 255 0 255
0.03931674 -0.1096011 0.2867884 255 0 255
0.04058026 -0.1100725 0.2875655 255 0 255
0.04177072 -0.109991 0.2875068 255 0 255
0.04296079 -0.1099067 0.2874444 255 0 255
0.05150384 -0.1103303 0.2885622 255 0 255
0.05538504 -0.1060633 0.2823696 255 0 255
0.07760877 -0.09767479 0.2712052 255 0 255
0.0793948 -0.09626544 0.2692158 255 0 255
0.08092172 -0.09431739 0.2664015 255 0 255
0.08394492 -0.09324813 0.2650177 255 0 255
0.08750711 -0.09091157 0.2617796 255 0 255
0.08857218 -0.09071923 0.261572 255 0 255
0.0898952 -0.09105121 0.2621705 255 0 255
0.09442985 -0.09076707 0.2620963 255 0 255
0.09549592 -0.09055787 0.261867 255 0 255
0.09684269 -0.09086864 0.2624389 255 0 255
0.09926599 -0.09095682 0.2627646 255 0 255
0.1334989 -0.09154064 0.2666109 255 0 255
0.01521332 -0.1443864 0.3354621 255 0 255
0.01803512 -0.1376574 0.3255329 255 0 255
0.01939864 -0.1365141 0.3238851 255 0 255
0.02068747 -0.1320313 0.3172465 255 0 255
0.02536527 -0.1174204 0.2956359 255 0 255
0.03351481 -0.1120493 0.288007 255 0 255
0.03934803 -0.1105915 0.2861282 255 0 255
0.04299263 -0.1109001 0.2867822 255 0 255
0.05131268 -0.1102291 0.2862413 255 0 255
0.05261536 -0.1106716 0.2869763 255 0 255
0.07703214 -0.1032621 0.2774595 255 0 255
0.07714803 -0.1003979 0.2732022 255 0 255
0.08227199 -0.09559751 0.2664141 255 0 255
0.08672308 -0.09254067 0.2621891 255 0 255
0.08993004 -0.09196074 0.2615648 255 0 255
0.09073392 -0.09123281 0.2605433 255 0 255
0.09525325 -0.09094263 0.2604567 255 0 255
0.1095248 -0.09082216 0.2614184 255 0 255
0.1158616 -0.09110234 0.2623641 255 0 255
0.1183476 -0.09108662 0.2625529 255 0 255
0.1211995 -0.0915655 0.2635074 255 0 255
0.1309816 -0.09259671 0.2658949 255 0 255
0.02435827 -0.1235185 0.3024136 255 0 255
0.03819176 -0.1116549 0.2855151 255 0 255
0.03930629 -0.1110228 0.2846365 255 0 255
0.04293958 -0.1113352 0.2852891 255 0 255
0.04640009 -0.1105106 0.2842542 255 0 255
0.04768139 -0.1109697 0.2850036 255 0 255
0.04886575 -0.1108712 0.284923 255 0 255
0.05004967 -0.1107698 0.2848386 255 0 255
0.05134525 -0.1112191 0.2855758 255 0 255
0.05264818 -0.1116647 0.2863087 255 0 255
0.05583378 -0.1096681 0.2835371 255 0 255
0.05687885 -0.1089983 0.2826073 255 0 255
0.05777993 -0.1077754 0.2808511 255 0 255
0.05838568 -0.1054497 0.277447 255 0 255
0.05924646 -0.1042252 0.2756874 255 0 255
0.06023834 -0.1035497 0.2747479 255 0 255
0.07878761 -0.09938046 0.2697748 255 0 255
0.0850942 -0.09489644 0.2635956 255 0 255
0.0867572 -0.09344857 0.2615791 255 0 255
0.0875757 -0.0927228 0.260568 255 0 255
0.08996451 -0.09286781 0.2609554 255 0 255
0.09343282 -0.09279501 0.2611041 255 0 255
0.09663171 -0.0921656 0.2604173 255 0 255
0.108815 -0.09250488 0.2618667 255 0 255
0.1112812 -0.09253168 0.2621048 255 0 255
0.1123523 -0.09228072 0.2618231 255 0 255
0.1212381 -0.092499 0.2628808 255 0 255
0.02454238 -0.1285053 0.3074875 255 0 255
0.03127324 -0.115279 0.2883797 255 0 255
0.03247813 -0.1152198 0.2883508 255 0 255
0.0347154 -0.1134106 0.2858035 255 0 255
0.03703476 -0.1127128 0.2848942 255 0 255
0.03829173 -0.1132 0.2856728 255 0 255
0.03941025 -0.1125643 0.2847962 255 0 255
0.04059752 -0.1124857 0.2847416 255 0 255
0.04534296 -0.1121428 0.2844861 255 0 255
0.04879339 -0.1112981 0.283432 255 0 255
0.06207371 -0.1025808 0.2714044 255 0 255
0.0751276 -0.1135116 0.2882306 255 0 255
0.07558803 -0.1077046 0.2797533 255 0 255
0.08893044 -0.0939689 0.2605535 255 0 255
0.09106566 -0.09357339 0.260128 255 0 255
0.1004423 -0.09347782 0.2606784 255 0 255
0.1039475 -0.09332373 0.2607194 255 0 255
0.1088515 -0.09342369 0.2612445 255 0 255
0.1099218 -0.09317841 0.2609707 255 0 255
0.1109906 -0.09293053 0.2606936 255 0 255
0.1212763 -0.09343 0.2622506 255 0 255
0.1281349 -0.09406558 0.2637464 255 0 255
0.1325333 -0.09470068 0.2650431 255 0 255
0.02795751 -0.1209559 0.2943576 255 0 255
0.03366007 -0.1155893 0.2868132 255 0 255
0.04181557 -0.1133866 0.2840117 255 0 255
0.04401089 -0.1120911 0.2822393 255 0 255
0.04764444 -0.1123748 0.2828432 255 0 255
0.05129748 -0.112631 0.2834124 255 0 255
0.06060349 -0.1111351 0.281758 255 0 255
0.062952 -0.1108726 0.2815127 255 0 255
0.07369934 -0.1066348 0.2760039 255 0 255
0.07465127 -0.1059231 0.2750299 255 0 255
0.07683803 -0.1021319 0.2696626 255 0 255
0.0801888 -0.09871097 0.2649139 255 0 255
0.08492103 -0.09617566 0.261551 255 0 255
0.09003229 -0.0946746 0.259726 255 0 255
0.09323051 -0.09406885 0.2590732 255 0 255
0.09535705 -0.09365206 0.2586212 255 0 255
0.100771 -0.09492003 0.2608508 255 0 255
0.1145641 -0.09360874 0.2599996 255 0 255
0.117389 -0.09412938 0.2609737 255 0 255
0.1263466 -0.09426641 0.2618909 255 0 255
0.02819141 -0.1253851 0.2985873 255 0 255
0.02930112 -0.1230596 0.2952807 255 0 255
0.03716135 -0.115242 0.2843679 255 0 255
0.0383534 -0.1151688 0.2843207 255 0 255
0.04540583 -0.114104 0.2831395 255 0 255
0.04659143 -0.1140109 0.2830665 255 0 255
0.05025416 -0.1142778 0.2836442 255 0 255
0.06077994 -0.1126694 0.281902 255 0 255
0.06485283 -0.1098974 0.278139 255 0 255
0.0706467 -0.1091696 0.2774327 255 0 255
0.07956292 -0.1009002 0.2660747 255 0 255
0.08578593 -0.09634683 0.2599284 255 0 255
0.09460293 -0.09530041 0.2590251 255 0 255
0.09566952 -0.09508966 0.2587968 255 0 255
0.09729988 -0.09595367 0.2601528 255 0 255
0.1078513 -0.09549715 0.260259 255 0 255
0.1099935 -0.09500776 0.259716 255 0 255
0.1110625 -0.09475917 0.2594394 255 0 255
0.1213509 -0.09528438 0.2609791 255 0 255
0.129293 -0.09564735 0.2621268 255 0 255
0.1303728 -0.09535085 0.2617895 255 0 255
0.02700344 -0.1551112 0.3388882 255 0 255
0.02762172 -0.1390488 0.315919 255 0 255
0.03497946 -0.1180715 0.2862272 255 0 255
0.03612247 -0.1174332 0.2853679 255 0 255
0.04187747 -0.1153429 0.2826569 255 0 255
0.04534405 -0.1145125 0.2816426 255 0 255
0.06301754 -0.1128178 0.2801659 255 0 255
0.06504483 -0.1114201 0.2782826 255 0 255
0.07014295 -0.1084524 0.2743364 255 0 255
0.07619143 -0.1052715 0.2701547 255 0 255
0.08134692 -0.1003626 0.2634659 255 0 255
0.08954204 -0.09776278 0.260287 255 0 255
0.09918621 -0.09588023 0.2582579 255 0 255
0.1005459 -0.09619755 0.2588046 255 0 255
0.1100286 -0.09591869 0.2590833 255 0 255
0.1278731 -0.09635524 0.2610452 255 0 255
0.0287386 -0.1608512 0.3445794 255 0 255
0.03412751 -0.1225675 0.290474 255 0 255
0.03967999 -0.1176231 0.283719 255 0 255
0.04190821 -0.116317 0.2819737 255 0 255
0.04419271 -0.1155732 0.2810309 255 0 255
0.04881451 -0.114625 0.2799185 255 0 255
0.05009989 -0.1150937 0.2806495 255 0 255
0.05127993 -0.1149892 0.2805622 255 0 255
0.05481705 -0.1146584 0.2802781 255 0 255
0.06304994 -0.1137863 0.2794867 255 0 255
0.06422349 -0.1136503 0.279359 255 0 255
0.06523677 -0.1129466 0.2784179 255 0 255
0.06723777 -0.1115337 0.2765275 255 0 255
0.06839677 -0.1113877 0.2763865 255 0 255
0.08006328 -0.1038497 0.2663963 255 0 255
0.08072944 -0.1025612 0.2646126 255 0 255
0.08609536 -0.09869314 0.2594731 255 0 255
0.08824528 -0.09830964 0.259068 255 0 255
0.090391 -0.09791567 0.2586494 255 0 255
0.09360142 -0.09730513 0.2579963 255 0 255
0.09573611 -0.09688506 0.257544 255 0 255
0.09950993 -0.0973224 0.2584158 255 0 255
0.104697 -0.09803434 0.2597763 255 0 255
0.1096334 -0.09814752 0.2602804 255 0 255
0.1196394 -0.09634573 0.2584586 255 0 255
0.1224982 -0.09685095 0.2593815 255 0 255
0.1293675 -0.09751173 0.260827 255 0 255
0.1337744 -0.09816853 0.2620876 255 0 255
0.03155339 -0.2152601 0.4187313 255 0 255
0.03243589 -0.1329357 0.302868 255 0 255
0.03544483 -0.1240819 0.2905417 255 0 255
0.0375809 -0.121057 0.2863835 255 0 255
0.0419388 -0.1172884 0.2812867 255 0 255
0.05023992 -0.1166343 0.2807775 255 0 255
0.0721231 -0.1089077 0.2710916 255 0 255
0.07419905 -0.1080265 0.2699726 255 0 255
0.07965986 -0.1036505 0.2641467 255 0 255
0.08397315 -0.09996318 0.2592307 255 0 255
0.08505074 -0.09977771 0.2590368 255 0 255
0.08720287 -0.09939891 0.2586388 255 0 255
0.09497719 -0.09854035 0.2579286 255 0 255
0.09740013 -0.09866113 0.2582555 255 0 255
0.1022771 -0.09886199 0.2588589 255 0 255
0.1058068 -0.09870531 0.2588762 255 0 255
0.1128981 -0.09830571 0.2588027 255 0 255
0.1136366 -0.09751245 0.257744 255 0 255
0.1161158 -0.09752768 0.2579392 255 0 255
0.126494 -0.09797331 0.2593064 255 0 255
0.1275699 -0.09768283 0.2589792 255 0 255
0.1294038 -0.09844 0.2601716 255 0 255
0.1327237 -0.09941109 0.2617733 255 0 255
0.03256553 -0.1532183 0.3289695 255 0 255
0.0348365 -0.1315365 0.2988012 255 0 255
0.03787461 -0.1243638 0.2889276 255 0 255
0.03882372 -0.1219705 0.285631 255 0 255
0.04434326 -0.1180844 0.2804691 255 0 255
0.05240517 -0.1162377 0.2782902 255 0 255
0.05345973 -0.1155521 0.2773871 255 0 255
0.05463057 -0.1154395 0.2772896 255 0 255
0.06482157 -0.1131549 0.274638 255 0 255
0.06794661 -0.1115863 0.2726207 255 0 255
0.07811598 -0.1065981 0.2662414 255 0 255
0.08748326 -0.1008505 0.2587937 255 0 255
0.09045522 -0.09970387 0.2573802 255 0 255
0.09126268 -0.09894732 0.2563776 255 0 255
0.09232914 -0.09874392 0.256161 255 0 255
0.09500948 -0.09943519 0.2572909 255 0 255
0.09608021 -0.0992225 0.2570627 255 0 255
0.09986632 -0.09966836 0.2579244 255 0 255
0.1020121 -0.09921625 0.2574345 255 0 255
0.1047642 -0.09984684 0.2584903 255 0 255
0.1058402 -0.09960994 0.2582317 255 0 255
0.106915 -0.09937044 0.2579698 255 0 255
0.1161501 -0.09843539 0.2572927 255 0 255
0.1172198 -0.0981704 0.2569983 255 0 255
0.1179377 -0.09736674 0.2559326 255 0 255
0.03514505 -0.1507344 0.3232129 255 0 255
0.04664901 -0.1182851 0.2788248 255 0 255
0.05361139 -0.1170859 0.2775069 255 0 255
0.05466149 -0.1163945 0.2766029 255 0 255
0.06469308 -0.1135277 0.2731541 255 0 255
0.065846 -0.1133878 0.2730217 255 0 255
0.06991222 -0.1110843 0.2700548 255 0 255
0.07332227 -0.1106186 0.2695977 255 0 255
0.0744573 -0.1104579 0.2694383 255 0 255
0.07862009 -0.1056443 0.2630197 255 0 255
0.07950477 -0.1049049 0.2620484 255 0 255
0.08559569 -0.1026884 0.2593403 255 0 255
0.09048675 -0.1005942 0.2567404 255 0 255
0.09583291 -0.09955914 0.2556384 255 0 255
0.09746484 -0.1004534 0.256973 255 0 255
0.09989873 -0.1005657 0.2572796 255 0 255
0.1009723 -0.1003407 0.2570366 255 0 255
0.1055636 -0.09996308 0.2568072 255 0 255
0.106948 -0.1002721 0.257322 255 0 255
0.1218799 -0.09852368 0.2559011 255 0 255
0.1251175 -0.09956533 0.257555 255 0 255
0.1272639 -0.09898728 0.2569075 255 0 255
0.1290949 -0.09975717 0.2580928 255 0 255
0.1324083 -0.1007474 0.2596847 255 0 255
0.03838234 -0.142259 0.3093417 255 0 255
0.04347393 -0.1218551 0.2815617 255 0 255
0.04458317 -0.1211818 0.2806894 255 0 255
0.04677678 -0.1198284 0.2789351 255 0 255
0.04925303 -0.1202153 0.2795845 255 0 255
0.05586261 -0.117231 0.2758115 255 0 255
0.05703248 -0.1171123 0.2757069 255 0 255
0.0605385 -0.1167392 0.2753714 255 0 255
0.06472412 -0.114469 0.2724717 255 0 255
0.06783751 -0.112888 0.2704658 255 0 255
0.06898051 -0.1127405 0.2703238 255 0 255
0.07012272 -0.1125901 0.2701781 255 0 255
0.07108084 -0.1118624 0.2692313 255 0 255
0.07542406 -0.1106517 0.2678058 255 0 255
0.07886535 -0.107121 0.2631556 255 0 255
0.08779463 -0.1032008 0.2582918 255 0 255
0.09158941 -0.1012799 0.2558836 255 0 255
0.09507293 -0.1012172 0.256005 255 0 255
0.1055961 -0.1008594 0.2561578 255 0 255
0.1083711 -0.1014788 0.2571782 255 0 255
0.109768 -0.1017819 0.2576804 255 0 255
0.1162171 -0.100243 0.2559889 255 0 255
0.11694 -0.09943396 0.2549307 255 0 255
0.1176541 -0.09862417 0.2538711 255 0 255
0.1262257 -0.1001894 0.2565728 255 0 255
0.1339187 -0.101898 0.2594214 255 0 255
0.04938893 -0.1217645 0.2796837 255 0 255
0.05047238 -0.1210752 0.2787968 255 0 255
0.05379366 -0.1195792 0.2769194 255 0 255
0.05472267 -0.1182962 0.2752182 255 0 255
0.05589317 -0.1181803 0.2751174 255 0 255
0.05809577 -0.1173565 0.2741042 255 0 255
0.06459476 -0.1148268 0.2709873 255 0 255
0.06672447 -0.1139647 0.2699231 255 0 255
0.07432462 -0.111739 0.2672925 255 0 255
0.07545508 -0.1115756 0.2671304 255 0 255
0.0795662 -0.1067088 0.2607355 255 0 255
0.08153541 -0.1057833 0.2595855 255 0 255
0.08262774 -0.1056029 0.2594006 255 0 255
0.08371908 -0.1054197 0.2592122 255 0 255
0.08480942 -0.1052339 0.2590204 255 0 255
0.08807444 -0.1046605 0.2584247 255 0 255
0.0918845 -0.1027293 0.256019 255 0 255
0.09403196 -0.1023153 0.2555808 255 0 255
0.1034818 -0.1022246 0.2560154 255 0 255
0.1059377 -0.1023083 0.2562769 255 0 255
0.1073261 -0.1026221 0.2567867 255 0 255
0.1119558 -0.1021809 0.2564718 255 0 255
0.1141057 -0.1016672 0.2559085 255 0 255
0.1162499 -0.1011428 0.2553317 255 0 255
0.1173198 -0.1008767 0.2550383 255 0 255
0.1262593 -0.1010986 0.255909 255 0 255
0.1269553 -0.1002688 0.2548305 255 0 255
0.04322309 -0.1751368 0.3494653 255 0 255
0.0424496 -0.1555012 0.322913 255 0 255
0.04292854 -0.137568 0.2987162 255 0 255
0.04348169 -0.1321566 0.2914333 255 0 255
0.04952489 -0.1233172 0.2797745 255 0 255
0.05592351 -0.1191269 0.2744196 255 0 255
0.06462519 -0.1157595 0.2702999 255 0 255
0.06692291 -0.1154767 0.2700332 255 0 255
0.07036389 -0.1150314 0.2696065 255 0 255
0.07132581 -0.1142964 0.2686642 255 0 255
0.08265802 -0.106497 0.2587416 255 0 255
0.08701763 -0.1057474 0.2579685 255 0 255
0.088105 -0.1055533 0.2577668 255 0 255
0.09001978 -0.1045879 0.2565719 255 0 255
0.09217943 -0.1041825 0.2561462 255 0 255
0.1002843 -0.1038047 0.2560981 255 0 255
0.1016566 -0.1041395 0.256628 255 0 255
0.1038155 -0.1036764 0.2561299 255 0 255
0.1098324 -0.1035834 0.2563591 255 0 255
0.1123164 -0.1036336 0.2565748 255 0 255
0.1133959 -0.1033768 0.2562942 255 0 255
0.1176993 -0.1023231 0.2551378 255 0 255
0.1212699 -0.1020515 0.2549918 255 0 255
0.127365 -0.1017135 0.2549171 255 0 255
0.132124 -0.1029776 0.2569154 255 0 255
0.04559822 -0.1702284 0.3404182 255 0 255
0.04557225 -0.130012 0.286553 255 0 255
0.04735573 -0.1256662 0.2808134 255 0 255
0.0517215 -0.1228862 0.2772905 255 0 255
0.05290942 -0.1227772 0.2771996 255 0 255
0.05699073 -0.1193615 0.2728176 255 0 255
0.05918043 -0.1185263 0.2718034 255 0 255
0.06135201 -0.1176813 0.2707764 255 0 255
0.06580461 -0.1165492 0.2694773 255 0 255
0.06695315 -0.1164062 0.2693423 255 0 255
0.07531697 -0.1128334 0.2649804 255 0 255
0.08291797 -0.1079654 0.2588629 255 0 255
0.08922152 -0.1062464 0.2569004 255 0 255
0.09165168 -0.1064159 0.2572584 255 0 255
0.09463704 -0.1052212 0.255825 255 0 255
0.09651567 -0.1042245 0.2545971 255 0 255
0.1098638 -0.1044802 0.2556931 255 0 255
0.1216604 -0.1035005 0.2550788 255 0 255
0.1238092 -0.1029371 0.2544564 255 0 255
0.1252508 -0.1031983 0.2548914 255 0 255
0.1303063 -0.1031105 0.2550818 255 0 255
0.05186919 -0.2216777 0.4065423 255 0 255
0.04591699 -0.141846 0.3002309 255 0 255
0.05186511 -0.1244354 0.277371 255 0 255
0.05702061 -0.1202992 0.2721148 255 0 255
0.07138626 -0.1161449 0.2672847 255 0 255
0.07233949 -0.1154015 0.2663448 255 0 255
0.07328413 -0.1146564 0.2654024 255 0 255
0.08294765 -0.1088574 0.2581947 255 0 255
0.084043 -0.1086729 0.2580063 255 0 255
0.0870775 -0.1075256 0.2566419 255 0 255
0.09412295 -0.1074642 0.2569315 255 0 255
0.0992666 -0.1058071 0.2550115 255 0 255
0.1030969 -0.1062588 0.2558188 255 0 255
0.1131262 -0.1046124 0.2541965 255 0 255
0.123841 -0.103836 0.2537836 255 0 255
0.05570021 -0.2380434 0.425239 255 0 255
0.0507249 -0.1874423 0.358352 255 0 255
0.05003852 -0.128595 0.2807896 255 0 255
0.05909895 -0.1197965 0.2696086 255 0 255
0.06455439 -0.1179476 0.2674268 255 0 255
0.07045432 -0.11781 0.2675244 255 0 255
0.07742045 -0.1137332 0.2624944 255 0 255
0.08034118 -0.1120402 0.26041 255 0 255
0.08320723 -0.11033 0.258302 255 0 255
0.08626015 -0.1091843 0.2569481 255 0 255
0.09332776 -0.1091407 0.2572517 255 0 255
0.09415279 -0.1083539 0.2562595 255 0 255
0.09577654 -0.1067766 0.2542697 255 0 255
0.1009579 -0.1076106 0.2556381 255 0 255
0.1059041 -0.107814 0.2561685 255 0 255
0.1088454 -0.1065147 0.2546193 255 0 255
0.1096039 -0.1057006 0.2535907 255 0 255
0.1159844 -0.1061021 0.2544667 255 0 255
0.1184884 -0.1061245 0.2546345 255 0 255
0.1238722 -0.1047321 0.2531072 255 0 255
0.05008121 -0.1625358 0.3231424 255 0 255
0.04956918 -0.1338819 0.2856753 255 0 255
0.05128136 -0.1294568 0.2799677 255 0 255
0.05512293 -0.1242024 0.2732715 255 0 255
0.05926936 -0.1213206 0.269692 255 0 255
0.06244342 -0.1197354 0.2677648 255 0 255
0.07030383 -0.1181367 0.266039 255 0 255
0.07144558 -0.1179823 0.2658908 255 0 255
0.0733432 -0.1164805 0.2640187 255 0 255
0.07447472 -0.1163188 0.263861 255 0 255
0.07857006 -0.1144651 0.2616356 255 0 255
0.07947455 -0.1137018 0.2606825 255 0 255
0.08037036 -0.1129369 0.259727 255 0 255
0.09226257 -0.1102392 0.2567903 255 0 255
0.1034558 -0.10861 0.2552336 255 0 255
0.1045423 -0.1083742 0.2549821 255 0 255
0.1077941 -0.1076504 0.2542075 255 0 255
0.1099554 -0.1071545 0.2536741 255 0 255
0.1121111 -0.1066478 0.2531272 255 0 255
0.1195988 -0.1067464 0.2536547 255 0 255
0.1213951 -0.1056324 0.2523002 255 0 255
0.1267927 -0.1061593 0.2532799 255 0 255
0.1330292 -0.1077212 0.2556563 255 0 255
0.05126056 -0.1617408 0.3198204 255 0 255
0.05433812 -0.1270672 0.275011 255 0 255
0.05750906 -0.1249033 0.2723451 255 0 255
0.06690305 -0.1194981 0.2657596 255 0 255
0.07033303 -0.1190514 0.2653365 255 0 255
0.07242781 -0.1181435 0.2642562 255 0 255
0.08239141 -0.11288 0.2579033 255 0 255
0.08349551 -0.1126961 0.2577175 255 0 255
0.08546264 -0.1117321 0.2565629 255 0 255
0.08790193 -0.1119334 0.2569403 255 0 255
0.09009893 -0.1115358 0.2565313 255 0 255
0.09365121 -0.1115021 0.25666 255 0 255
0.0947486 -0.1112903 0.2564394 255 0 255
0.09775373 -0.1100583 0.2549924 255 0 255
0.106741 -0.1087814 0.2537882 255 0 255
0.1078236 -0.1085371 0.2535269 255 0 255
0.1110635 -0.1077881 0.2527226 255 0 255
0.1146276 -0.1075827 0.2526393 255 0 255
0.1160447 -0.1078855 0.2531037 255 0 255
0.1224967 -0.1062398 0.2513114 255 0 255
0.1250052 -0.106229 0.251429 255 0 255
0.1293551 -0.1070194 0.2526799 255 0 255
0.1312011 -0.1078285 0.2538232 255 0 255
0.05600831 -0.1933258 0.3583189 255 0 255
0.05270969 -0.1627486 0.318867 255 0 255
0.05140124 -0.1387882 0.2880062 255 0 255
0.05200117 -0.1350304 0.2832003 255 0 255
0.06265435 -0.1221744 0.2671319 255 0 255
0.06365218 -0.1214354 0.2662258 255 0 255
0.06921936 -0.1201153 0.2647749 255 0 255
0.07150371 -0.1198086 0.2644826 255 0 255
0.09341501 -0.1118038 0.2552072 255 0 255
0.09477741 -0.1121781 0.2557523 255 0 255
0.09995916 -0.110495 0.2538387 255 0 255
0.10677 -0.1096657 0.2531039 255 0 255
0.116074 -0.1087732 0.252417 255 0 255
0.1178413 -0.1096431 0.2536209 255 0 255
0.1279292 -0.1076535 0.251578 255 0 255
0.05247172 -0.1384517 0.285573 255 0 255
0.06283616 -0.1236976 0.2671964 255 0 255
0.06368075 -0.1223487 0.2655129 255 0 255
0.06793199 -0.1205696 0.2634279 255 0 255
0.06907146 -0.1204208 0.2632877 255 0 255
0.0766181 -0.1181005 0.2606606 255 0 255
0.08905777 -0.1135054 0.2553623 255 0 255
0.09344329 -0.1126861 0.2545187 255 0 255
0.09590205 -0.112848 0.2548381 255 0 255
0.09699719 -0.1126302 0.2546112 255 0 255
0.09998754 -0.1113754 0.2531517 255 0 255
0.1010741 -0.1111475 0.252912 255 0 255
0.1024548 -0.1115002 0.2534256 255 0 255
0.1060213 -0.1113704 0.2534276 255 0 255
0.1100425 -0.1098044 0.2516237 255 0 255
0.1193033 -0.1108319 0.2533747 255 0 255
0.121121 -0.1097069 0.2520308 255 0 255
0.1265083 -0.1082749 0.2504709 255 0 255
0.1294144 -0.1088076 0.2512912 255 0 255
0.0543311 -0.1573684 0.3075538 255 0 255
0.0542965 -0.1355291 0.2799254 255 0 255
0.05995065 -0.1274511 0.2699413 255 0 255
0.06386623 -0.1238685 0.2655736 255 0 255
0.06485932 -0.1231206 0.2646694 255 0 255
0.07137633 -0.1210178 0.2622861 255 0 255
0.07458927 -0.1199328 0.2610515 255 0 255
0.07756376 -0.1182235 0.259018 255 0 255
0.08159375 -0.1163164 0.2567815 255 0 255
0.08270269 -0.1161339 0.2565991 255 0 255
0.08381068 -0.1159487 0.2564133 255 0 255
0.09289917 -0.1149612 0.2555654 255 0 255
0.09400155 -0.1147506 0.2553482 255 0 255
0.09620287 -0.114321 0.2549034 255 0 255
0.1038701 -0.1127314 0.2532396 255 0 255
0.1060495 -0.1122527 0.2527337 255 0 255
0.1089906 -0.1109329 0.2512005 255 0 255
0.1139687 -0.1110695 0.2516016 255 0 255
0.1182432 -0.1119966 0.2529702 255 0 255
0.1204192 -0.1114455 0.2523753 255 0 255
0.1233091 -0.1100281 0.2507204 255 0 255
0.1294433 -0.1096976 0.2505916 255 0 255
0.1338455 -0.1104688 0.2517736 255 0 255
0.06323821 -0.2203504 0.384747 255 0 255
0.05469732 -0.1452438 0.2901552 255 0 255
0.05579709 -0.1376092 0.2806195 255 0 255
0.06101009 -0.1276343 0.2683151 255 0 255
0.06304625 -0.1261411 0.266525 255 0 255
0.0704469 -0.1226822 0.2624909 255 0 255
0.07140429 -0.121918 0.2615719 255 0 255
0.0725414 -0.1217603 0.2614215 255 0 255
0.07348554 -0.120992 0.2604972 255 0 255
0.07687783 -0.1204954 0.2600161 255 0 255
0.07759145 -0.1191132 0.2583122 255 0 255
0.07871184 -0.1189403 0.2581426 255 0 255
0.08494525 -0.1166427 0.2555245 255 0 255
0.08826019 -0.1160615 0.254937 255 0 255
0.09266537 -0.1152481 0.254106 255 0 255
0.09814671 -0.1141696 0.2529907 255 0 255
0.1011295 -0.1128996 0.2515282 255 0 255
0.1049881 -0.1133732 0.2522907 255 0 255
0.1079369 -0.1120567 0.25077 255 0 255
0.1125837 -0.1116288 0.2504391 255 0 255
0.1136633 -0.1113688 0.2501612 255 0 255
0.11936 -0.1126101 0.2519707 255 0 255
0.1218886 -0.1126279 0.2521063 255 0 255
0.1237001 -0.1114845 0.250755 255 0 255
0.1265648 -0.1100415 0.2490763 255 0 255
0.1280152 -0.1103155 0.2494852 255 0 255
0.1290901 -0.1100164 0.2491593 255 0 255
0.05852139 -0.174899 0.3251657 255 0 255
0.05764466 -0.13524 0.2757645 255 0 255
0.05938189 -0.1318992 0.2716754 255 0 255
0.06407969 -0.1263023 0.2648972 255 0 255
0.06721351 -0.1246462 0.2629623 255 0 255
0.07782663 -0.1206086 0.2583687 255 0 255
0.08187167 -0.118685 0.2561411 255 0 255
0.08718341 -0.1171366 0.2544337 255 0 255
0.09405645 -0.1165135 0.2539443 255 0 255
0.09488853 -0.1157016 0.252969 255 0 255
0.1011566 -0.1137715 0.2508311 255 0 255
0.107964 -0.1129296 0.2500721 255 0 255
0.1090454 -0.112681 0.2498088 255 0 255
0.1115299 -0.1127611 0.2500143 255 0 255
0.1126109 -0.1125034 0.24974 255 0 255
0.05772099 -0.1425299 0.2828312 255 0 255
0.06340924 -0.1292043 0.2665997 255 0 255
0.06873503 -0.126633 0.2636346 255 0 255
0.07050212 -0.1244804 0.2610468 255 0 255
0.07145931 -0.1237097 0.2601331 255 0 255
0.07713665 -0.1228912 0.2593478 255 0 255
0.07806164 -0.1221073 0.2584169 255 0 255
0.08189861 -0.1195651 0.2554315 255 0 255
0.08499921 -0.1183981 0.254115 255 0 255
0.09820064 -0.1159185 0.2515867 255 0 255
0.1093905 -0.1141412 0.2498495 255 0 255
0.1104742 -0.1138887 0.2495822 255 0 255
0.1118825 -0.114222 0.2500513 255 0 255
0.1154697 -0.114023 0.2499532 255 0 255
0.1215876 -0.1138182 0.249953 255 0 255
0.1230313 -0.1141149 0.2503788 255 0 255
0.1241177 -0.1138277 0.2500694 255 0 255
0.07375979 -0.124282 0.2591051 255 0 255
0.07489527 -0.1241181 0.2589482 255 0 255
0.07921664 -0.1228199 0.2575255 255 0 255
0.08303797 -0.1202584 0.2545363 255 0 255
0.1004112 -0.1163364 0.2504113 255 0 255
0.1015015 -0.1161062 0.2501721 255 0 255
0.1039781 -0.1162351 0.2504272 255 0 255
0.1083316 -0.1152616 0.2494063 255 0 255
0.1094167 -0.1150113 0.2491426 255 0 255
0.1129936 -0.1148351 0.2490679 255 0 255
0.1158333 -0.1154862 0.2499774 255 0 255
0.1169213 -0.1152169 0.2496906 255 0 255
0.1263123 -0.1141249 0.2487259 255 0 255
0.1310147 -0.1135014 0.2481496 255 0 255
0.06676419 -0.2057125 0.355987 255 0 255
0.06252378 -0.1753936 0.3189845 255 0 255
0.06068536 -0.1589236 0.2989013 255 0 255
0.06020531 -0.1500019 0.2880417 255 0 255
0.06136914 -0.1376925 0.2731271 255 0 255
0.06304245 -0.1342933 0.2690593 255 0 255
0.06407931 -0.1335301 0.2681709 255 0 255
0.06831103 -0.1310803 0.2653529 255 0 255
0.07091803 -0.1275103 0.2611129 255 0 255
0.07585628 -0.1242203 0.2573008 255 0 255
0.07811514 -0.123879 0.2569711 255 0 255
0.08750542 -0.1203675 0.253058 255 0 255
0.08971987 -0.1199684 0.2526565 255 0 255
0.09934553 -0.1174311 0.2499369 255 0 255
0.100437 -0.1172033 0.2497013 255 0 255
0.1026164 -0.1167394 0.24922 255 0 255
0.1037042 -0.1165033 0.2489744 255 0 255
0.1108486 -0.1162208 0.2489015 255 0 255
0.1119347 -0.115964 0.2486304 255 0 255
0.1130194 -0.1157043 0.2483561 255 0 255
0.115522 -0.1157688 0.2485293 255 0 255
0.1216401 -0.1155723 0.2485225 255 0 255
0.1252551 -0.1152955 0.2483233 255 0 255
0.1270456 -0.1141235 0.2469673 255 0 255
0.1299601 -0.1146853 0.2477605 255 0 255
0.06271142 -0.1629812 0.3017539 255 0 255
0.06170493 -0.1456912 0.2808731 255 0 255
0.06456827 -0.1363348 0.2696989 255 0 255
0.06968287 -0.1324654 0.2652219 255 0 255
0.07050303 -0.1310605 0.2635582 255 0 255
0.08331749 -0.1226215 0.2538534 255 0 255
0.09305919 -0.1202178 0.251311 255 0 255
0.09884019 -0.1197361 0.2509409 255 0 255
0.09994048 -0.1195091 0.2507073 255 0 255
0.104816 -0.1171273 0.248013 255 0 255
0.1122862 -0.1174283 0.2486473 255 0 255
0.1158847 -0.1172324 0.2485417 255 0 255
0.1194926 -0.1170062 0.2483999 255 0 255
0.1249134 -0.1155828 0.2468801 255 0 255
0.125993 -0.1152899 0.246566 255 0 255
0.1340075 -0.1157955 0.2474656 255 0 255
0.07864837 -0.2607395 0.4171093 255 0 255
0.0649109 -0.1676912 0.3053322 255 0 255
0.0668288 -0.1363434 0.2679096 255 0 255
0.07005662 -0.1346333 0.2659799 255 0 255
0.07070716 -0.132593 0.2635628 255 0 255
0.07403187 -0.1275641 0.2576667 255 0 255
0.07610907 -0.1266062 0.2565949 255 0 255
0.07929534 -0.1254639 0.2553418 255 0 255
0.09804119 -0.1214397 0.2511896 255 0 255
0.09914645 -0.1212145 0.2509589 255 0 255
0.1029629 -0.1190708 0.248528 255 0 255
0.1040544 -0.1188333 0.248282 255 0 255
0.1054484 -0.1191988 0.248768 255 0 255
0.1065411 -0.118955 0.2485144 255 0 255
0.1079438 -0.1193125 0.248991 255 0 255
0.1263885 -0.1167475 0.2465613 255 0 255
0.1285501 -0.1161506 0.2459216 255 0 255
0.1314763 -0.1167131 0.2466954 255 0 255
0.1329479 -0.116987 0.2470738 255 0 255
0.07621555 -0.2306578 0.3782798 255 0 255
0.06743401 -0.1736968 0.3103865 255 0 255
0.06734129 -0.139163 0.269408 255 0 255
0.0700836 -0.1355469 0.265213 255 0 255
0.07539374 -0.1289098 0.2575218 255 0 255
0.07819292 -0.1265149 0.2547764 255 0 255
0.08359599 -0.1249851 0.2531468 255 0 255
0.0870957 -0.1217281 0.2494009 255 0 255
0.09090146 -0.1223647 0.250286 255 0 255
0.09474339 -0.1229677 0.2511321 255 0 255
0.09723321 -0.1231457 0.2514277 255 0 255
0.1104736 -0.1202794 0.2484691 255 0 255
0.1173632 -0.1192962 0.2475305 255 0 255
0.120629 -0.1184647 0.2466509 255 0 255
0.1264127 -0.1176158 0.2458329 255 0 255
0.1304165 -0.1178935 0.2462936 255 0 255
0.1333615 -0.1184493 0.2470497 255 0 255
0.1348424 -0.1187199 0.2474192 255 0 255
0.0754941 -0.2118363 0.3533604 255 0 255
0.06785406 -0.1419975 0.2708877 255 0 255
0.06857243 -0.1399393 0.2684893 255 0 255
0.0784266 -0.1280174 0.2547864 255 0 255
0.0818193 -0.1274797 0.2542664 255 0 255
0.08474034 -0.1256645 0.252226 255 0 255
0.08956977 -0.1228079 0.2490214 255 0 255
0.09919573 -0.1229472 0.2494991 255 0 255
0.1122379 -0.1221017 0.2489212 255 0 255
0.1133389 -0.1218399 0.2486477 255 0 255
0.1152026 -0.1207032 0.2473674 255 0 255
0.1162956 -0.1204339 0.2470846 255 0 255
0.1195657 -0.1196095 0.2462161 255 0 255
0.1206528 -0.1193292 0.2459199 255 0 255
0.1246323 -0.1196659 0.246441 255 0 255
