ply
format ascii 1.0
Comment Generated by Floating Hands
element vertex 1100
property double x
property double y
property double z
property uchar red
property uchar green
property uchar blue
end_header
0.07787778 -0.03346033 0.2747665 255 0 255
0.08436481 -0.03292665 0.2761004 255 0 255
-0.08525839 -0.02402898 0.2213887 255 0 255
-0.07039808 -0.02766482 0.2291278 255 0 255
0.06187116 -0.01884567 0.2296642 255 0 255
0.06607875 -0.02248591 0.2403272 255 0 255
0.07125061 -0.02705604 0.253673 255 0 255
0.07534828 -0.03032761 0.2633859 255 0 255
-0.09470255 -0.02831766 0.2302819 255 0 255
-0.08665286 -0.02663734 0.2255911 255 0 255
-0.08082043 -0.0227091 0.2158342 255 0 255
0.07746774 -0.0298633 0.2606142 255 0 255
-0.09212469 -0.03101262 0.2341514 255 0 255
-0.09139773 -0.03204128 0.2364912 255 0 255
-0.07080632 -0.02703902 0.223421 255 0 255
-0.07605059 -0.03490162 0.2423407 255 0 255
0.07251439 -0.02439703 0.2430623 255 0 255
-0.09333588 -0.02887653 0.227167 255 0 255
-0.0917514 -0.03233599 0.234994 255 0 255
-0.09138329 -0.03285402 0.2361625 255 0 255
-0.07262009 -0.02957477 0.227413 255 0 255
-0.05405989 -0.03091255 0.2303229 255 0 255
-0.09256457 -0.02983345 0.2271844 255 0 255
-0.09221516 -0.03436831 0.2375005 255 0 255
-0.08511233 -0.02925515 0.2252882 255 0 255
-0.07395383 -0.03349511 0.2345141 255 0 255
-0.06157941 -0.02868239 0.2229622 255 0 255
-0.0925125 -0.03377641 0.233996 255 0 255
-0.09214848 -0.03430352 0.2351624 255 0 255
-0.09219938 -0.03518526 0.2371625 255 0 255
-0.07001058 -0.02767204 0.2188299 255 0 255
-0.07404581 -0.03255438 0.2302109 255 0 255
-0.0626273 -0.02968021 0.2232922 255 0 255
-0.05485115 -0.03354992 0.2323492 255 0 255
-0.093605 -0.03068127 0.2250427 255 0 255
-0.06120744 -0.0297669 0.2214864 255 0 255
-0.09296793 -0.03252411 0.2270304 255 0 255
-0.09205064 -0.03502237 0.2324928 255 0 255
-0.08231958 -0.03076324 0.2224427 255 0 255
-0.05462333 -0.0325905 0.2260163 255 0 255
-0.09262828 -0.0338413 0.2278539 255 0 255
-0.09209889 -0.03672298 0.234139 255 0 255
-0.09092334 -0.03743261 0.2356323 255 0 255
-0.0754642 -0.03016781 0.2188343 255 0 255
-0.06700885 -0.03120117 0.2208979 255 0 255
-1.3329E-05 -0.03407738 0.2326293 255 0 255
-0.09370182 -0.03390019 0.2260249 255 0 255
-0.0922788 -0.03516451 0.2286715 255 0 255
-0.09237054 -0.03607355 0.2306501 255 0 255
-0.08682168 -0.03634789 0.2309479 255 0 255
-0.08367442 -0.03698075 0.2321936 255 0 255
-0.00234441 -0.0353299 0.2331076 255 0 255
-9.108603E-05 -0.03720396 0.2378136 255 0 255
0.001561528 -0.03591657 0.2351329 255 0 255
-0.09259574 -0.03540146 0.227176 255 0 255
-0.09226182 -0.03594771 0.2283293 255 0 255
-0.09242892 -0.03778182 0.2322834 255 0 255
-0.08841814 -0.03771878 0.2319445 255 0 255
-0.08680238 -0.0371334 0.2306045 255 0 255
-0.08524626 -0.0383666 0.233211 255 0 255
-0.06184936 -0.0325519 0.2200087 255 0 255
-0.05994873 -0.03325357 0.2215652 255 0 255
-0.05217593 -0.03377859 0.2228577 255 0 255
-0.00176722 -0.03965352 0.2410632 255 0 255
0.006341206 -0.03473965 0.2312919 255 0 255
0.01616792 -0.04352368 0.2533145 255 0 255
0.01624786 -0.03788502 0.2404725 255 0 255
-0.09379249 -0.03637222 0.2273121 255 0 255
-0.09276851 -0.03802744 0.2307759 255 0 255
-0.08522474 -0.04007907 0.2348396 255 0 255
-0.08402532 -0.03985347 0.2343143 255 0 255
-0.07355616 -0.03223882 0.2175923 255 0 255
-0.06347004 -0.03523722 0.2239832 255 0 255
-0.06466544 -0.03770811 0.2293801 255 0 255
-0.007931204 -0.03823953 0.2348224 255 0 255
-0.006490504 -0.03940886 0.2376789 255 0 255
-0.002666844 -0.04208724 0.2443319 255 0 255
0.007172906 -0.03540755 0.2309875 255 0 255
0.007970218 -0.03575102 0.2319151 255 0 255
0.008753338 -0.03568875 0.2319255 255 0 255
0.01252036 -0.04225458 0.2474949 255 0 255
0.01643724 -0.05324059 0.2730944 255 0 255
-0.09531824 -0.03678599 0.2262826 255 0 255
-0.09499472 -0.03734426 0.2274368 255 0 255
-0.09282104 -0.03975184 0.2323964 255 0 255
-0.08560508 -0.04033362 0.2333391 255 0 255
-0.08480463 -0.0404919 0.2336505 255 0 255
-0.0659654 -0.03693764 0.2257331 255 0 255
-0.01303374 -0.03705003 0.2294502 255 0 255
-0.007694354 -0.04348189 0.2445607 255 0 255
0.001690556 -0.03895823 0.2359781 255 0 255
0.01109124 -0.04603671 0.2535333 255 0 255
0.01370954 -0.05521082 0.2745426 255 0 255
0.01841874 -0.06130973 0.289124 255 0 255
-0.0875259 -0.03931651 0.2292391 255 0 255
-0.08674099 -0.03948093 0.2295562 255 0 255
-0.08636335 -0.04002987 0.2306976 255 0 255
-0.08121087 -0.04057626 0.2317054 255 0 255
-0.07240202 -0.03342203 0.2163778 255 0 255
-0.06616973 -0.03899546 0.2282064 255 0 255
-0.06308849 -0.03630634 0.2224676 255 0 255
-0.01376415 -0.04151515 0.2372727 255 0 255
-0.01328067 -0.04316488 0.2409773 255 0 255
-0.01245226 -0.04314993 0.2410577 255 0 255
-0.01177275 -0.04396394 0.2429485 255 0 255
-0.01107752 -0.04477564 0.244838 255 0 255
-0.008897681 -0.04719616 0.2504984 255 0 255
-0.007212125 -0.04755285 0.251539 255 0 255
-0.006339577 -0.04752054 0.2516011 255 0 255
-0.004633782 -0.04786406 0.2526263 255 0 255
-0.002752475 -0.04612867 0.2490926 255 0 255
-0.001806927 -0.04484521 0.2464103 255 0 255
7.527584E-05 -0.04103561 0.2383029 255 0 255
0.0009230977 -0.04016366 0.236519 255 0 255
0.003378231 -0.03712941 0.2302371 255 0 255
0.005759911 -0.03944076 0.2357739 255 0 255
0.006649447 -0.04267363 0.2430836 255 0 255
0.01352683 -0.06479216 0.2932845 255 0 255
-0.09551302 -0.04023532 0.2295015 255 0 255
-0.09560511 -0.04118538 0.2314684 255 0 255
-0.09480828 -0.04136886 0.2318117 255 0 255
-0.08713138 -0.04064969 0.2300245 255 0 255
-0.08474472 -0.04301878 0.2349017 255 0 255
-0.07465822 -0.03651064 0.2210689 255 0 255
-0.06744386 -0.03819061 0.2245565 255 0 255
-0.04398958 -0.03787518 0.2245359 255 0 255
-0.01261499 -0.04976931 0.2534537 255 0 255
-0.006568603 -0.05083902 0.2566755 255 0 255
-0.002729453 -0.04734438 0.2496375 255 0 255
0.003411812 -0.03951598 0.2335458 255 0 255
0.005036432 -0.04356524 0.2426911 255 0 255
0.006926616 -0.05174574 0.2609276 255 0 255
0.008017914 -0.05665364 0.2718638 255 0 255
0.01340494 -0.07742875 0.3183206 255 0 255
-0.09706639 -0.04064977 0.2284454 255 0 255
-0.08789813 -0.04126536 0.2293462 255 0 255
-0.08591033 -0.0412014 0.2291563 255 0 255
-0.08432637 -0.04341947 0.233705 255 0 255
-0.08429972 -0.04436959 0.2356733 255 0 255
-0.08154946 -0.0425358 0.231821 255 0 255
-0.0788339 -0.04069319 0.2279527 255 0 255
-0.0438977 -0.03991314 0.2270122 255 0 255
-0.04189018 -0.03919717 0.2256053 255 0 255
-0.0162113 -0.04009412 0.2299268 255 0 255
-0.01663237 -0.05318434 0.2581393 255 0 255
-0.01322916 -0.05439139 0.2612065 255 0 255
-0.01125901 -0.05350247 0.2595619 255 0 255
0.003409493 -0.04570661 0.2450077 255 0 255
0.005180722 -0.05481441 0.2650349 255 0 255
0.01520539 -0.1018499 0.3686993 255 0 255
-0.08588722 -0.04197811 0.2287947 255 0 255
-0.08229785 -0.04412051 0.2331173 255 0 255
-0.06939656 -0.03702058 0.2183786 255 0 255
-0.01756239 -0.05871381 0.2676503 255 0 255
-0.01383892 -0.05907635 0.2689261 255 0 255
-0.009438612 -0.05471772 0.2602239 255 0 255
-0.00631678 -0.05121914 0.2531982 255 0 255
0.005360965 -0.06877732 0.29273 255 0 255
0.0127608 -0.1071367 0.3762473 255 0 255
-0.09802771 -0.0439783 0.231274 255 0 255
-0.09191696 -0.0438987 0.2309014 255 0 255
-0.08947833 -0.04345115 0.2299291 255 0 255
-0.08346802 -0.04515844 0.233271 255 0 255
-0.07686242 -0.04114766 0.2250319 255 0 255
-0.0482873 -0.04633817 0.2364356 255 0 255
-0.04906021 -0.05249642 0.2492545 255 0 255
-0.03524666 -0.04019568 0.2244567 255 0 255
-0.0191446 -0.04111642 0.2279723 255 0 255
-0.01888486 -0.04628238 0.2389208 255 0 255
-0.01715421 -0.06258717 0.2736283 255 0 255
-0.01625891 -0.06300194 0.2746253 255 0 255
-0.01174112 -0.05905089 0.2668814 255 0 255
-0.01054626 -0.0573068 0.2633572 255 0 255
-0.006261337 -0.05203419 0.2528155 255 0 255
0.0006570902 -0.05639826 0.2631614 255 0 255
0.007057009 -0.1003435 0.3574412 255 0 255
-0.08786173 -0.04457286 0.2302003 255 0 255
-0.086668 -0.04530817 0.2316538 255 0 255
-0.08305167 -0.04553995 0.2320702 255 0 255
-0.07718989 -0.04327151 0.2274493 255 0 255
-0.06122009 -0.03879069 0.2184679 255 0 255
-0.05118019 -0.03959596 0.2204284 255 0 255
-0.05124421 -0.04095259 0.2232174 255 0 255
-0.05101624 -0.04188417 0.2251457 255 0 255
-0.05100957 -0.04595669 0.2335404 255 0 255
-0.05251499 -0.05302484 0.2480512 255 0 255
-0.05294623 -0.05881986 0.2600067 255 0 255
-0.04973373 -0.05638955 0.2551797 255 0 255
-0.0363768 -0.04172896 0.2257245 255 0 255
-0.03482673 -0.04181596 0.2260283 255 0 255
-0.03386176 -0.04142493 0.2252945 255 0 255
-0.02828014 -0.04122276 0.2253714 255 0 255
-0.02156876 -0.04225054 0.2282125 255 0 255
-0.01142072 -0.0581887 0.2628725 255 0 255
-0.009094117 -0.05467155 0.2558298 255 0 255
-0.006159456 -0.05241506 0.2515292 255 0 255
-0.00290666 -0.05615029 0.2598652 255 0 255
-0.002176737 -0.05912726 0.2662273 255 0 255
0.001996365 -0.09115774 0.3341315 255 0 255
0.003181022 -0.09753494 0.347716 255 0 255
0.005951955 -0.1154152 0.3857188 255 0 255
-0.09923501 -0.04577725 0.2309593 255 0 255
-0.09352729 -0.04610365 0.2314315 255 0 255
-0.08904928 -0.04559251 0.2303186 255 0 255
-0.08622275 -0.04764818 0.2343655 255 0 255
-0.08029503 -0.04344587 0.2259261 255 0 255
-0.07443665 -0.04403542 0.2270932 255 0 255
-0.05565175 -0.03977938 0.2188406 255 0 255
-0.0532194 -0.04099313 0.2213978 255 0 255
-0.0520437 -0.04706847 0.2338359 255 0 255
-0.05303119 -0.05015935 0.2400972 255 0 255
-0.05596058 -0.06168797 0.2635068 255 0 255
-0.05735989 -0.06789683 0.2761351 255 0 255
-0.05659399 -0.06840904 0.2772333 255 0 255
-0.04656676 -0.05476644 0.2499256 255 0 255
-0.04309744 -0.04962447 0.2396154 255 0 255
-0.03595635 -0.04336391 0.2272891 255 0 255
-0.03341984 -0.043052 0.2268569 255 0 255
-0.0305044 -0.04583636 0.2328583 255 0 255
-0.02064326 -0.06747568 0.2787181 255 0 255
-0.0196397 -0.06746735 0.2788282 255 0 255
-0.01129818 -0.05860654 0.2615656 255 0 255
-0.00808315 -0.05503217 0.2546057 255 0 255
-0.005103006 -0.06186767 0.2692437 255 0 255
-0.002280123 -0.0812617 0.3099678 255 0 255
0.001738409 -0.1131296 0.376828 255 0 255
0.006238295 -0.1345189 0.4220286 255 0 255
-0.09921221 -0.0465749 0.2305728 255 0 255
-0.09796062 -0.04636679 0.230128 255 0 255
-0.08742462 -0.04770276 0.232529 255 0 255
-0.08380318 -0.04694975 0.231009 255 0 255
-0.08026861 -0.04420387 0.2255583 255 0 255
-0.07564307 -0.04117339 0.2195425 255 0 255
-0.07375642 -0.04103514 0.2192675 255 0 255
-0.0626511 -0.03999434 0.2173122 255 0 255
-0.05618044 -0.05476522 0.247268 255 0 255
-0.06027209 -0.07040047 0.2786901 255 0 255
-0.06092897 -0.07353462 0.2850034 255 0 255
-0.04327697 -0.05264723 0.2437838 255 0 255
-0.03491532 -0.04549123 0.2298739 255 0 255
-0.03393431 -0.04509219 0.2291439 255 0 255
-0.0328796 -0.04648391 0.2320754 255 0 255
-0.02665182 -0.0426997 0.2249344 255 0 255
-0.02510379 -0.04274128 0.2251766 255 0 255
-0.02224377 -0.04633827 0.2328478 255 0 255
-0.02012848 -0.05077081 0.2421758 255 0 255
-0.01952593 -0.06354694 0.2684555 255 0 255
-0.01751459 -0.06308797 0.2677701 255 0 255
-0.01535615 -0.06173875 0.2652828 255 0 255
-0.01433238 -0.06128125 0.2644801 255 0 255
-0.005784026 -0.08466206 0.3137657 255 0 255
-0.002068938 -0.1059117 0.3580451 255 0 255
-0.09838357 -0.0475655 0.2305373 255 0 255
-0.09713384 -0.04735141 0.2300899 255 0 255
-0.08982772 -0.04798441 0.231177 255 0 255
-0.08259561 -0.04647795 0.2281691 255 0 255
-0.05456952 -0.04459582 0.2249751 255 0 255
-0.0543497 -0.04555406 0.2268983 255 0 255
-0.05681338 -0.05366048 0.2429848 255 0 255
-0.05848666 -0.05951492 0.2546154 255 0 255
-0.06040457 -0.06441385 0.2643235 255 0 255
-0.06548473 -0.08741911 0.3101807 255 0 255
-0.04968708 -0.06484286 0.2658719 255 0 255
-0.03376329 -0.05169206 0.2406505 255 0 255
-0.02394719 -0.04749934 0.2331446 255 0 255
-0.02000429 -0.04798887 0.2345822 255 0 255
-0.01831738 -0.05909394 0.2573368 255 0 255
-0.01692798 -0.06129813 0.2619922 255 0 255
-0.01092624 -0.06515908 0.2706525 255 0 255
-0.009491521 -0.07836591 0.2977285 255 0 255
-0.007366293 -0.107409 0.3571556 255 0 255
-0.006588439 -0.1157546 0.3742631 255 0 255
-0.001279495 -0.1269405 0.3978738 255 0 255
-0.09141489 -0.04842191 0.2301317 255 0 255
-0.08217464 -0.04682552 0.2269713 255 0 255
-0.07750196 -0.04375407 0.221006 255 0 255
-0.07407715 -0.0429103 0.219377 255 0 255
-0.06923584 -0.04131323 0.2163059 255 0 255
-0.06367067 -0.04172808 0.2172151 255 0 255
-0.05779952 -0.0416087 0.2171472 255 0 255
-0.0553133 -0.04523577 0.2243999 255 0 255
-0.05710923 -0.05208415 0.2378622 255 0 255
-0.06025869 -0.06017736 0.2537322 255 0 255
-0.06821675 -0.0914939 0.3154501 255 0 255
-0.0646855 -0.09176907 0.3162396 255 0 255
-0.04931698 -0.0671264 0.2682465 255 0 255
-0.04461518 -0.05918427 0.2527633 255 0 255
-0.03569655 -0.05101595 0.2371812 255 0 255
-0.03558733 -0.05284078 0.2408402 255 0 255
-0.02526558 -0.05001749 0.2361935 255 0 255
-0.01385304 -0.06656446 0.2708522 255 0 255
-0.01356339 -0.0710172 0.279857 255 0 255
-0.007949844 -0.1389045 0.4174556 255 0 255
0.0006702347 -0.1139933 0.3686013 255 0 255
-0.0938547 -0.04968186 0.2306771 255 0 255
-0.08937538 -0.05015048 0.2315274 255 0 255
-0.07901758 -0.04519321 0.2219864 255 0 255
-0.05874318 -0.05267774 0.2370216 255 0 255
-0.05846593 -0.05365681 0.2389528 255 0 255
-0.06796392 -0.0995677 0.3286892 255 0 255
-0.05412176 -0.07832474 0.2877811 255 0 255
-0.04387202 -0.06052031 0.2534017 255 0 255
-0.03874147 -0.05713107 0.2471233 255 0 255
-0.03946256 -0.06580629 0.2642407 255 0 255
-0.03721335 -0.07319888 0.2791143 255 0 255
-0.02862048 -0.05614782 0.2461355 255 0 255
-0.02372147 -0.04853186 0.2315248 255 0 255
-0.02265317 -0.04764229 0.2298736 255 0 255
-0.02185294 -0.04765323 0.2299844 255 0 255
-0.01673836 -0.04993276 0.2351228 255 0 255
-0.0162151 -0.06479518 0.264796 255 0 255
-0.01476985 -0.1173302 0.3697412 255 0 255
-0.01404555 -0.1235874 0.3823267 255 0 255
-0.01361695 -0.1338898 0.4029413 255 0 255
-0.01305014 -0.1446318 0.4244556 255 0 255
-0.0950696 -0.05070649 0.2307377 255 0 255
-0.0848989 -0.04931362 0.2280337 255 0 255
-0.07937872 -0.04636304 0.2224275 255 0 255
-0.07706027 -0.04479567 0.2194505 255 0 255
-0.06659206 -0.04267187 0.2155254 255 0 255
-0.05912389 -0.04620805 0.2225655 255 0 255
-0.06263428 -0.05394153 0.2373886 255 0 255
-0.06269092 -0.05825023 0.245735 255 0 255
-0.06433833 -0.06712519 0.2628806 255 0 255
-0.05926811 -0.06196077 0.2531163 255 0 255
-0.05289391 -0.0573813 0.2445768 255 0 255
-0.06478316 -0.09953276 0.3260467 255 0 255
-0.04829581 -0.07129745 0.2720896 255 0 255
-0.04299108 -0.06372298 0.2576914 255 0 255
-0.04206485 -0.06377452 0.2578706 255 0 255
-0.04155783 -0.08684514 0.3031997 255 0 255
-0.02260741 -0.04837133 0.2295058 255 0 255
-0.02205946 -0.04929209 0.2313797 255 0 255
-0.02125083 -0.04930124 0.231489 255 0 255
-0.02020478 -0.04839854 0.2298306 255 0 255
-0.01629267 -0.04885989 0.2312063 255 0 255
-0.0171087 -0.06567097 0.2642625 255 0 255
-0.01749781 -0.1186935 0.3688748 255 0 255
-0.01710472 -0.1268274 0.3849925 255 0 255
-0.01599469 -0.1439789 0.4190262 255 0 255
-0.09666505 -0.05111998 0.2296461 255 0 255
-0.09217571 -0.05162277 0.2305478 255 0 255
-0.07626916 -0.04567049 0.2193603 255 0 255
-0.07063472 -0.04217578 0.2128095 255 0 255
-0.05951133 -0.04395343 0.2164756 255 0 255
-0.06032366 -0.04628056 0.2208986 255 0 255
-0.06140657 -0.04905609 0.2261709 255 0 255
-0.05337788 -0.05432764 0.2366933 255 0 255
-0.05177184 -0.05305656 0.2343382 255 0 255
-0.05854305 -0.07427274 0.2748618 255 0 255
-0.07053115 -0.1101188 0.3433454 255 0 255
-0.07115414 -0.1143043 0.3514036 255 0 255
-0.04871926 -0.08059026 0.2878538 255 0 255
-0.04806671 -0.08435348 0.2952178 255 0 255
-0.04705804 -0.09369421 0.3134646 255 0 255
-0.04670792 -0.09602638 0.3180342 255 0 255
-0.02997635 -0.06231776 0.2540992 255 0 255
-0.02708404 -0.05592568 0.2419512 255 0 255
-0.02376313 -0.05046066 0.231658 255 0 255
-0.02015796 -0.04912623 0.2294599 255 0 255
-0.02022604 -0.1200406 0.3679854 255 0 255
-0.09788957 -0.05214019 0.2296828 255 0 255
-0.09539101 -0.05167323 0.2287926 255 0 255
-0.09296002 -0.05222872 0.2298092 255 0 255
-0.09051646 -0.0527654 0.2308029 255 0 255
-0.09010982 -0.05337117 0.2319325 255 0 255
-0.08048782 -0.04813032 0.2221857 255 0 255
-0.07661058 -0.04785494 0.2217119 255 0 255
-0.07394462 -0.04682359 0.2198158 255 0 255
-0.06323823 -0.04756828 0.2214957 255 0 255
-0.06453294 -0.05181793 0.2294989 255 0 255
-0.07063588 -0.06472512 0.253738 255 0 255
-0.07212781 -0.06844202 0.2607318 255 0 255
-0.07421001 -0.0764663 0.275889 255 0 255
-0.07290991 -0.07613632 0.2753246 255 0 255
-0.06987227 -0.07648446 0.2761449 255 0 255
-0.05307799 -0.05464753 0.2354426 255 0 255
-0.05032504 -0.05443361 0.2352046 255 0 255
-0.06681862 -0.09355534 0.3089531 255 0 255
-0.07352749 -0.1120376 0.343879 255 0 255
-0.06829374 -0.1218534 0.3631257 255 0 255
-0.06318901 -0.1132048 0.346937 255 0 255
-0.05861145 -0.105464 0.3324503 255 0 255
-0.04641187 -0.09992201 0.3229111 255 0 255
-0.04488083 -0.09904047 0.3213642 255 0 255
-0.03485912 -0.07557991 0.2771464 255 0 255
-0.0223432 -0.05214545 0.2332623 255 0 255
-0.02022897 -0.05031436 0.2299654 255 0 255
-0.0217232 -0.1429649 0.409044 255 0 255
-0.09830395 -0.05335744 0.230061 255 0 255
-0.06800874 -0.04351681 0.2120416 255 0 255
-0.06535126 -0.04546931 0.2157592 255 0 255
-0.06392492 -0.04469189 0.2143478 255 0 255
-0.06243565 -0.04492049 0.2148246 255 0 255
-0.07086433 -0.06307386 0.2485741 255 0 255
-0.07202154 -0.08107354 0.2824279 255 0 255
-0.05251843 -0.05450092 0.2333421 255 0 255
-0.0683527 -0.1002401 0.3189521 255 0 255
-0.07548998 -0.117389 0.3509785 255 0 255
-0.08237994 -0.1378964 0.3894048 255 0 255
-0.04575474 -0.09587438 0.3125608 255 0 255
-0.04009086 -0.08948559 0.3009288 255 0 255
-0.02350431 -0.05427201 0.2353904 255 0 255
-0.02267205 -0.05428363 0.2355054 255 0 255
-0.02211737 -0.102675 0.3282454 255 0 255
-0.02482025 -0.1347352 0.389347 255 0 255
-0.02321483 -0.1444371 0.4081616 255 0 255
-0.0978329 -0.05371837 0.2288593 255 0 255
-0.09409257 -0.05299391 0.2275252 255 0 255
-0.07617219 -0.04681864 0.2163268 255 0 255
-0.07352519 -0.04577279 0.214445 255 0 255
-0.0698114 -0.04439778 0.2119835 255 0 255
-0.06641395 -0.04650296 0.2159668 255 0 255
-0.06917029 -0.05614891 0.2337717 255 0 255
-0.08683213 -0.09455013 0.304518 255 0 255
-0.05973545 -0.06476305 0.2502999 255 0 255
-0.05351565 -0.0571069 0.2363367 255 0 255
-0.05107505 -0.05588593 0.234203 255 0 255
-0.0509803 -0.06074648 0.2433314 255 0 255
-0.05389472 -0.06823749 0.257197 255 0 255
-0.06714562 -0.09902249 0.3140951 255 0 255
-0.06937387 -0.1381748 0.3876709 255 0 255
-0.04131085 -0.08761992 0.2948176 255 0 255
-0.03548659 -0.07975998 0.2805416 255 0 255
-0.0269003 -0.06108638 0.2461036 255 0 255
-0.02362616 -0.05878559 0.2421061 255 0 255
-0.0215159 -0.08272436 0.2877487 255 0 255
-0.09950735 -0.05517505 0.2296584 255 0 255
-0.0978036 -0.0545048 0.228443 255 0 255
-0.09443395 -0.05314793 0.2259865 255 0 255
-0.0928707 -0.05457815 0.228577 255 0 255
-0.08797385 -0.05458293 0.2286185 255 0 255
-0.08716022 -0.0547529 0.2289361 255 0 255
-0.0704645 -0.04805786 0.2170298 255 0 255
-0.06887711 -0.04935028 0.2194457 255 0 255
-0.06879193 -0.05394117 0.2278832 255 0 255
-0.08055018 -0.07592633 0.2679041 255 0 255
-0.08303265 -0.08110487 0.277346 255 0 255
-0.0884606 -0.09439474 0.3016267 255 0 255
-0.09002807 -0.09868441 0.3094758 255 0 255
-0.09063669 -0.1015982 0.3148309 255 0 255
-0.09002691 -0.1026707 0.3168446 255 0 255
-0.08387253 -0.09894537 0.3102776 255 0 255
-0.05193595 -0.05998873 0.2399465 255 0 255
-0.05502956 -0.0714258 0.2610051 255 0 255
-0.06012623 -0.08365476 0.2834002 255 0 255
-0.0919265 -0.1578742 0.4192707 255 0 255
-0.09282254 -0.1713611 0.4443508 255 0 255
-0.07228116 -0.147071 0.4007443 255 0 255
-0.04231286 -0.0823603 0.2824832 255 0 255
-0.03836995 -0.08012454 0.278682 255 0 255
-0.03294691 -0.07600071 0.2715101 255 0 255
-0.0251364 -0.06902108 0.2592711 255 0 255
-0.0231634 -0.07707439 0.274624 255 0 255
-0.02462531 -0.1058756 0.3285663 255 0 255
-0.09520552 -0.05373065 0.225234 255 0 255
-0.094404 -0.05391977 0.225574 255 0 255
-0.09360108 -0.05410676 0.2259116 255 0 255
-0.09244624 -0.05598257 0.2292852 255 0 255
-0.07876892 -0.04825042 0.215518 255 0 255
-0.07570055 -0.04675523 0.2128707 255 0 255
-0.0700725 -0.04831661 0.2158333 255 0 255
-0.06860387 -0.04753663 0.2144601 255 0 255
-0.06849506 -0.04961482 0.2182413 255 0 255
-0.07091314 -0.0564011 0.2305105 255 0 255
-0.07242697 -0.05974045 0.2365389 255 0 255
-0.07718845 -0.06767894 0.2508281 255 0 255
-0.08662876 -0.08913232 0.2896 255 0 255
-0.0895436 -0.09529364 0.3007313 255 0 255
-0.09387739 -0.1057925 0.3197339 255 0 255
-0.06764401 -0.08044866 0.2747009 255 0 255
-0.05990789 -0.0703577 0.2566336 255 0 255
-0.05616299 -0.06529599 0.2475642 255 0 255
-0.05551803 -0.06585214 0.248631 255 0 255
-0.07068191 -0.1087229 0.3265743 255 0 255
-0.0565437 -0.1120749 0.3339547 255 0 255
-0.03114374 -0.08936481 0.2943876 255 0 255
-0.02871143 -0.08414288 0.2849535 255 0 255
-0.02595103 -0.09083021 0.2977145 255 0 255
-0.02808841 -0.1060608 0.3258012 255 0 255
-0.02958566 -0.1193841 0.350417 255 0 255
-0.03002004 -0.1284198 0.3671834 255 0 255
-0.02829205 -0.1345802 0.3788691 255 0 255
-0.09605192 -0.05538389 0.2263842 255 0 255
-0.09362116 -0.0559509 0.2274052 255 0 255
-0.08628945 -0.05540148 0.22651 255 0 255
-0.07532251 -0.04910864 0.215458 255 0 255
-0.07305785 -0.0484831 0.2143911 255 0 255
-0.06887592 -0.04974349 0.2167823 255 0 255
-0.09066 -0.09261643 0.2933614 255 0 255
-0.09238916 -0.09695824 0.3011435 255 0 255
-0.09412762 -0.1053574 0.3162812 255 0 255
-0.09408015 -0.1094119 0.32364 255 0 255
-0.08892552 -0.1075286 0.3205011 255 0 255
-0.06947393 -0.107484 0.3217117 255 0 255
-0.0850959 -0.143191 0.3858049 255 0 255
-0.03466861 -0.06321421 0.2435621 255 0 255
-0.03340163 -0.06471995 0.2464522 255 0 255
-0.03860679 -0.1142976 0.3371143 255 0 255
-0.03631483 -0.1104815 0.3303429 255 0 255
-0.03125705 -0.1225104 0.353098 255 0 255
-0.09239573 -0.05862582 0.2303494 255 0 255
-0.08745961 -0.0553735 0.2246698 255 0 255
-0.07681639 -0.05058817 0.2163965 255 0 255
-0.07060091 -0.05276733 0.2204637 255 0 255
-0.08196263 -0.07327507 0.2566954 255 0 255
-0.08568565 -0.07994125 0.2684751 255 0 255
-0.09249136 -0.09284692 0.2913015 255 0 255
-0.09300269 -0.09534618 0.2957589 255 0 255
-0.09589237 -0.1072455 0.3169772 255 0 255
-0.09176634 -0.1254778 0.35005 255 0 255
-0.07646138 -0.1049739 0.3140343 255 0 255
-0.06228238 -0.09130248 0.290323 255 0 255
-0.07673947 -0.1510631 0.3975361 255 0 255
-0.05004529 -0.09460233 0.2973357 255 0 255
-0.04345175 -0.08023192 0.2718174 255 0 255
-0.03214087 -0.06458756 0.2444422 255 0 255
-0.03406552 -0.07962292 0.2716349 255 0 255
-0.03593646 -0.08929786 0.2890708 255 0 255
-0.04315855 -0.1226459 0.3490936 255 0 255
-0.04221277 -0.1347834 0.3713373 255 0 255
-0.03895354 -0.1275582 0.358522 255 0 255
-0.03076844 -0.1217944 0.3489568 255 0 255
-0.0989386 -0.05788203 0.2271731 255 0 255
-0.09723837 -0.05718533 0.22597 255 0 255
-0.09642695 -0.05738011 0.2263164 255 0 255
-0.09398403 -0.05795173 0.2273406 255 0 255
-0.07600784 -0.05252089 0.2181666 255 0 255
-0.07635444 -0.05405227 0.2208577 255 0 255
-0.07639496 -0.06249101 0.2357747 255 0 255
-0.08422508 -0.07587015 0.2591711 255 0 255
-0.08798357 -0.08258109 0.2709155 255 0 255
-0.0979847 -0.1116708 0.3221443 255 0 255
-0.09735018 -0.1127847 0.3241612 255 0 255
-0.09622509 -0.1175435 0.3327051 255 0 255
-0.09460346 -0.1218222 0.3404366 255 0 255
-0.09469153 -0.126896 0.3494956 255 0 255
-0.09818407 -0.1356405 0.3649049 255 0 255
-0.1007414 -0.1429628 0.3778334 255 0 255
-0.1005616 -0.1455114 0.3824045 255 0 255
-0.06520178 -0.09604303 0.2962871 255 0 255
-0.09202243 -0.1767954 0.4391781 255 0 255
-0.03492335 -0.06329586 0.239974 255 0 255
-0.04771519 -0.1579557 0.40955 255 0 255
-0.09273464 -0.05955447 0.2283644 255 0 255
-0.07738192 -0.05726158 0.2247487 255 0 255
-0.08582609 -0.07754133 0.2599913 255 0 255
-0.1000498 -0.1099128 0.316298 255 0 255
-0.0990309 -0.1306994 0.3530692 255 0 255
-0.108607 -0.1618126 0.4075679 255 0 255
-0.06633656 -0.1019957 0.3044167 255 0 255
-0.06916632 -0.1133419 0.3243764 255 0 255
-0.07661925 -0.1358741 0.3638767 255 0 255
-0.08284459 -0.1534722 0.3946972 255 0 255
-0.05796615 -0.1111048 0.3213442 255 0 255
-0.04397358 -0.08100912 0.2689267 255 0 255
-0.0398808 -0.07276784 0.2545985 255 0 255
-0.03349568 -0.06264345 0.2371293 255 0 255
-0.04476762 -0.1264921 0.3501469 255 0 255
-0.05231082 -0.1711272 0.4292249 255 0 255
-0.09434385 -0.05995886 0.2272565 255 0 255
-0.07976401 -0.0521219 0.2140614 255 0 255
-0.08017329 -0.05693544 0.2223742 255 0 255
-0.0805172 -0.05849247 0.2250598 255 0 255
-0.08121499 -0.06051987 0.2285501 255 0 255
-0.08261567 -0.06724937 0.2401761 255 0 255
-0.08665302 -0.07669138 0.2564289 255 0 255
-0.1006576 -0.1140754 0.3209598 255 0 255
-0.09879331 -0.113292 0.3196893 255 0 255
-0.09597589 -0.1152362 0.3232468 255 0 255
-0.1034718 -0.1370985 0.3611023 255 0 255
-0.1059777 -0.1440297 0.3731008 255 0 255
-0.111776 -0.1629366 0.405908 255 0 255
-0.1132353 -0.1720168 0.4217605 255 0 255
-0.09903442 -0.1580959 0.3982927 255 0 255
-0.06673688 -0.1040159 0.3055145 255 0 255
-0.08555784 -0.1693003 0.4191324 255 0 255
-0.08548314 -0.1733304 0.4262572 255 0 255
-0.06524022 -0.1308537 0.3530123 255 0 255
-0.05287147 -0.1024629 0.3039547 255 0 255
-0.03667945 -0.07275012 0.2529264 255 0 255
-0.03498252 -0.07331792 0.2541 255 0 255
-0.03452389 -0.07482921 0.2568231 255 0 255
-0.09464535 -0.05897323 0.2238116 255 0 255
-0.09094683 -0.05815098 0.2224794 255 0 255
-0.08853827 -0.05868823 0.2234497 255 0 255
-0.0841833 -0.06885076 0.2410145 255 0 255
-0.09295303 -0.08774217 0.2732057 255 0 255
-0.09281625 -0.09415932 0.2842925 255 0 255
-0.09871132 -0.1123179 0.3154104 255 0 255
-0.0978007 -0.1129724 0.316594 255 0 255
-0.1163187 -0.1695841 0.4137771 255 0 255
-0.1175941 -0.1818519 0.4350455 255 0 255
-0.1005137 -0.1660485 0.4087437 255 0 255
-0.06595837 -0.1061448 0.306865 255 0 255
-0.05826754 -0.09960558 0.2960725 255 0 255
-0.08052197 -0.1670654 0.4121808 255 0 255
-0.08369346 -0.1795157 0.433697 255 0 255
-0.07645497 -0.1652817 0.4094279 255 0 255
-0.03707485 -0.08710557 0.2761577 255 0 255
-0.09747147 -0.05961274 0.2231174 255 0 255
-0.09622303 -0.05934913 0.2226939 255 0 255
-0.08964223 -0.05750901 0.2197172 255 0 255
-0.08445738 -0.05697624 0.2189459 255 0 255
-0.07814652 -0.05275517 0.2119667 255 0 255
-0.08012912 -0.0562134 0.217781 255 0 255
-0.08163606 -0.06031252 0.2247026 255 0 255
-0.08415158 -0.06585097 0.234043 255 0 255
-0.09072265 -0.07825347 0.2549348 255 0 255
-0.09288071 -0.0919159 0.2781892 255 0 255
-0.08800033 -0.09160887 0.2779067 255 0 255
-0.09432653 -0.1087426 0.3069692 255 0 255
-0.100036 -0.1243359 0.3334382 255 0 255
-0.1162608 -0.1590566 0.3921873 255 0 255
-0.08422029 -0.1406205 0.3626394 255 0 255
-0.05577653 -0.08747821 0.2729463 255 0 255
-0.07760764 -0.1793686 0.4304088 255 0 255
-0.05473123 -0.1277554 0.3429418 255 0 255
-0.04133285 -0.102001 0.2995079 255 0 255
-0.099139 -0.06110134 0.2238594 255 0 255
-0.08764199 -0.05925401 0.2210259 255 0 255
-0.08466731 -0.06488039 0.2305957 255 0 255
-0.09762058 -0.08825577 0.2695796 255 0 255
-0.1005802 -0.09373116 0.2787178 255 0 255
-0.08702853 -0.08948837 0.2721688 255 0 255
-0.08664817 -0.09061949 0.2741114 255 0 255
-0.08946373 -0.096627 0.2841732 255 0 255
-0.09457651 -0.1103073 0.3071647 255 0 255
-0.05549603 -0.08789453 0.2715815 255 0 255
-0.05086084 -0.0820592 0.2619544 255 0 255
-0.04890129 -0.0821993 0.2623652 255 0 255
-0.08195166 -0.1786194 0.4251627 255 0 255
-0.06431331 -0.1575596 0.3905977 255 0 255
-0.04297236 -0.1126006 0.3152833 255 0 255
-0.09615318 -0.06086781 0.2218157 255 0 255
-0.08721536 -0.0606479 0.2216875 255 0 255
-0.08552647 -0.06436525 0.2279495 255 0 255
-0.08546843 -0.06549133 0.2298342 255 0 255
-0.08731185 -0.06901969 0.2356658 255 0 255
-0.0898628 -0.07351783 0.2430937 255 0 255
-0.09401926 -0.08157995 0.2564265 255 0 255
-0.09674574 -0.08658999 0.2647079 255 0 255
-0.09245843 -0.09171999 0.2735194 255 0 255
-0.08904178 -0.08847287 0.2682301 255 0 255
-0.09350891 -0.1077702 0.3005005 255 0 255
-0.1166264 -0.1543702 0.377793 255 0 255
-0.1258214 -0.1755594 0.4130295 255 0 255
-0.1057498 -0.1856282 0.4315529 255 0 255
-0.0738688 -0.1877489 0.4380235 255 0 255
-0.0995155 -0.06310418 0.2237259 255 0 255
-0.097366 -0.06189692 0.2217907 255 0 255
-0.09111527 -0.05936313 0.2177783 255 0 255
-0.08753547 -0.05961071 0.2182916 255 0 255
-0.08799515 -0.06235112 0.2228045 255 0 255
-0.08714796 -0.06479231 0.2268726 255 0 255
-0.1011725 -0.0949973 0.276421 255 0 255
-0.1001155 -0.09518836 0.2767873 255 0 255
-0.0979837 -0.09391143 0.2747626 255 0 255
-0.08661535 -0.0859552 0.2620744 255 0 255
-0.08629684 -0.08709889 0.2639993 255 0 255
-0.08692452 -0.09135881 0.2710763 255 0 255
-0.1279981 -0.1778471 0.4133064 255 0 255
-0.1317297 -0.1939654 0.4400857 255 0 255
-0.0592797 -0.1066558 0.2987666 255 0 255
-0.08492444 -0.1949657 0.4455716 255 0 255
-0.09564043 -0.0619048 0.2201636 255 0 255
-0.09107909 -0.06009905 0.217343 255 0 255
-0.08754864 -0.06262051 0.2215847 255 0 255
-0.09179389 -0.07251688 0.2376662 255 0 255
-0.09325404 -0.07561013 0.2426903 255 0 255
-0.09988061 -0.09116971 0.2680084 255 0 255
-0.09710657 -0.09056766 0.2671442 255 0 255
-0.09070593 -0.09990662 0.2829162 255 0 255
-0.1056034 -0.1293225 0.330781 255 0 255
-0.1243241 -0.1674012 0.3927912 255 0 255
-0.1320319 -0.1863761 0.4238023 255 0 255
-0.1326219 -0.1906143 0.4308057 255 0 255
-0.07710853 -0.1625409 0.3883603 255 0 255
-0.0833775 -0.1877759 0.43003 255 0 255
-0.08462884 -0.196058 0.4437838 255 0 255
-0.09773628 -0.06388724 0.2216503 255 0 255
-0.08663041 -0.06010972 0.2158792 255 0 255
-0.09070425 -0.06955335 0.2310801 255 0 255
-0.09223448 -0.07265725 0.2360715 255 0 255
-0.09945267 -0.08426262 0.2546781 255 0 255
-0.1049029 -0.09563997 0.2729948 255 0 255
-0.1016013 -0.09289159 0.2686589 255 0 255
-0.08107642 -0.07533936 0.2409699 255 0 255
-0.07810029 -0.07251004 0.236494 255 0 255
-0.08486381 -0.08856478 0.262442 255 0 255
-0.09227006 -0.1033894 0.2863444 255 0 255
-0.1224704 -0.1630751 0.3825847 255 0 255
-0.101121 -0.1848372 0.4200925 255 0 255
-0.09971572 -0.1897377 0.4283258 255 0 255
-0.09751115 -0.1930941 0.434077 255 0 255
-0.09315134 -0.1870749 0.4244843 255 0 255
-0.09858564 -0.06560466 0.2227079 255 0 255
-0.08737568 -0.06065686 0.21513 255 0 255
-0.0865927 -0.06083343 0.2154433 255 0 255
-0.08665489 -0.06313393 0.2191483 255 0 255
-0.09420116 -0.08559566 0.2551186 255 0 255
-0.08282293 -0.07583861 0.2398768 255 0 255
-0.07998071 -0.07465239 0.2381033 255 0 255
-0.07820515 -0.07495228 0.2386887 255 0 255
-0.0786707 -0.07710502 0.2421614 255 0 255
-0.08897198 -0.0993448 0.277738 255 0 255
-0.09759262 -0.1168349 0.3056933 255 0 255
-0.1112122 -0.2004335 0.4414324 255 0 255
-0.09060283 -0.06296905 0.2171069 255 0 255
-0.08938593 -0.06266488 0.216667 255 0 255
-0.08696943 -0.0620454 0.2157712 255 0 255
-0.08864373 -0.0674907 0.224408 255 0 255
-0.0910209 -0.07161367 0.2309039 255 0 255
-0.08222863 -0.0744836 0.2359322 255 0 255
-0.08272364 -0.09234058 0.2646863 255 0 255
-0.08455843 -0.09706566 0.272202 255 0 255
-0.09514513 -0.1204617 0.3093271 255 0 255
-0.1314227 -0.1971032 0.4308736 255 0 255
-0.08693041 -0.06276873 0.2153277 255 0 255
-0.08739083 -0.06559343 0.2197859 255 0 255
-0.08467497 -0.07596107 0.2364003 255 0 255
-0.07883949 -0.07473176 0.2347621 255 0 255
-0.07755121 -0.08506629 0.2513675 255 0 255
-0.1077557 -0.2006796 0.4349802 255 0 255
-0.08972916 -0.06461661 0.2165296 255 0 255
-0.08551247 -0.07659262 0.2355956 255 0 255
-0.08426099 -0.07625268 0.2351265 255 0 255
-0.07757045 -0.07515781 0.2337778 255 0 255
-0.07472774 -0.07675832 0.2364903 255 0 255
-0.07489848 -0.08853326 0.2551807 255 0 255
-0.101713 -0.1440238 0.3415594 255 0 255
-0.116612 -0.2052239 0.4379938 255 0 255
-0.1011214 -0.07279687 0.2271894 255 0 255
-0.09140038 -0.06852337 0.2209496 255 0 255
-0.09016635 -0.06820939 0.2205159 255 0 255
-0.0891708 -0.0743212 0.2301034 255 0 255
-0.08830924 -0.07449871 0.2304247 255 0 255
-0.07926861 -0.07563733 0.2327105 255 0 255
-0.07265485 -0.07899448 0.2384093 255 0 255
-0.07984035 -0.1038669 0.2771142 255 0 255
-0.1224929 -0.2072911 0.4372574 255 0 255
-0.1160023 -0.2057657 0.4353738 255 0 255
-0.1131004 -0.2077068 0.438691 255 0 255
-0.1081295 -0.0790995 0.2349169 255 0 255
-0.09469344 -0.07089406 0.2228353 255 0 255
-0.09136005 -0.07165666 0.2241693 255 0 255
-0.08924527 -0.07271185 0.2259071 255 0 255
-0.08701519 -0.07494384 0.2294834 255 0 255
-0.08691797 -0.07613661 0.2313395 255 0 255
-0.08555235 -0.07698941 0.2327393 255 0 255
-0.08467665 -0.07715737 0.2330499 255 0 255
-0.07886869 -0.07590042 0.2314392 255 0 255
-0.07504924 -0.07597532 0.2317962 255 0 255
-0.07417956 -0.07611731 0.2320742 255 0 255
-0.06961597 -0.08135743 0.2405705 255 0 255
-0.1081828 -0.1736616 0.3821614 255 0 255
-0.1148597 -0.1974524 0.4189311 255 0 255
-0.1067518 -0.07964084 0.2340347 255 0 255
-0.1023518 -0.07585762 0.2284424 255 0 255
-0.09762213 -0.07397047 0.2257678 255 0 255
-0.09172658 -0.07292252 0.2244453 255 0 255
-0.0900439 -0.07329285 0.2250994 255 0 255
-0.08875183 -0.0741647 0.2265066 255 0 255
-0.08790208 -0.07434286 0.226826 255 0 255
-0.08743986 -0.07503068 0.2279089 255 0 255
-0.08550503 -0.07777409 0.2322409 255 0 255
-0.08462913 -0.07794234 0.2325513 255 0 255
-0.08214676 -0.07723825 0.2316139 255 0 255
-0.07968856 -0.07651965 0.2306557 255 0 255
-0.0776035 -0.07630622 0.2304572 255 0 255
-0.07552837 -0.07608122 0.2302434 255 0 255
-0.1018809 -0.07736062 0.2290463 255 0 255
-0.09843396 -0.07575431 0.226771 255 0 255
-0.09588011 -0.07514144 0.2259646 255 0 255
-0.09040187 -0.07456547 0.2253707 255 0 255
-0.08730739 -0.07700554 0.2292626 255 0 255
-0.07928468 -0.07676923 0.2293861 255 0 255
-0.07374833 -0.077133 0.2303081 255 0 255
-0.06890411 -0.08189555 0.2379673 255 0 255
-0.06887635 -0.08532844 0.2432489 255 0 255
-0.08459275 -0.1327532 0.3150436 255 0 255
-0.1037896 -0.1780022 0.3832246 255 0 255
-0.114677 -0.08912152 0.2444368 255 0 255
-0.0889859 -0.07742327 0.2281246 255 0 255
-0.08851204 -0.07812049 0.2292069 255 0 255
-0.08802956 -0.07881692 0.2302892 255 0 255
-0.08379181 -0.07846215 0.2300082 255 0 255
-0.07802001 -0.07716371 0.2284069 255 0 255
-0.07629515 -0.07746387 0.2289776 255 0 255
-0.07509007 -0.07708325 0.2284807 255 0 255
-0.07422838 -0.07722709 0.2287584 255 0 255
-0.07336551 -0.07736866 0.2290334 255 0 255
-0.06966404 -0.07910571 0.2319421 255 0 255
-0.06883113 -0.08095936 0.2348285 255 0 255
-0.06854888 -0.08387728 0.2392988 255 0 255
-0.06746145 -0.08917974 0.2474751 255 0 255
-0.06778044 -0.09370709 0.2543637 255 0 255
-0.114181 -0.08947152 0.2431407 255 0 255
-0.1022157 -0.08068135 0.2306143 255 0 255
-0.09449781 -0.07758736 0.2263965 255 0 255
-0.09111483 -0.07712408 0.2258919 255 0 255
-0.08748958 -0.08029365 0.2308625 255 0 255
-0.08623475 -0.07994431 0.2304151 255 0 255
-0.083743 -0.07923444 0.2295047 255 0 255
-0.08250611 -0.07887399 0.2290417 255 0 255
-0.07883188 -0.07777081 0.2276219 255 0 255
-0.07710908 -0.07807598 0.2281974 255 0 255
-0.07071993 -0.07853963 0.2293475 255 0 255
-0.06788852 -0.08186284 0.2345812 255 0 255
-0.06669604 -0.08318355 0.2366712 255 0 255
-0.1181383 -0.09492932 0.2491932 255 0 255
-0.1038924 -0.08353558 0.2330557 255 0 255
-0.09998389 -0.08137986 0.2300697 255 0 255
-0.09697451 -0.08023504 0.2285372 255 0 255
-0.09354535 -0.07978444 0.2280635 255 0 255
-0.08782088 -0.08159899 0.2311105 255 0 255
-0.08656242 -0.08124746 0.2306664 255 0 255
-0.08530995 -0.08089218 0.230217 255 0 255
-0.08245672 -0.0796413 0.2285372 255 0 255
-0.08000119 -0.07890356 0.2275996 255 0 255
-0.07499099 -0.07859798 0.2274889 255 0 255
-0.07240134 -0.07902432 0.2283129 255 0 255
-0.07153584 -0.07916193 0.2285823 255 0 255
-0.07011964 -0.07996777 0.2298944 255 0 255
-0.0692471 -0.08009919 0.2301571 255 0 255
-0.06868412 -0.08076681 0.2312005 255 0 255
-0.06634679 -0.08342516 0.2353692 255 0 255
-0.06450391 -0.08540528 0.2384897 255 0 255
-0.06331114 -0.08497749 0.237945 255 0 255
-0.06267872 -0.08563241 0.2389811 255 0 255
-0.0541294 -0.07971009 0.2308061 255 0 255
-0.09335368 -0.08304247 0.2312215 255 0 255
-0.0924682 -0.08323223 0.2315561 255 0 255
-0.08240677 -0.08040655 0.2280297 255 0 255
-0.08117599 -0.08003656 0.2275654 255 0 255
-0.07822286 -0.07997509 0.2276783 255 0 255
-0.06950951 -0.08139973 0.2304334 255 0 255
-0.06806006 -0.0821996 0.231735 255 0 255
-0.06143617 -0.08598369 0.2379083 255 0 255
-0.06025557 -0.08554397 0.2373534 255 0 255
-0.1120685 -0.09377518 0.2441119 255 0 255
-0.1050351 -0.08797029 0.2360431 255 0 255
-0.07852317 -0.08127133 0.2279375 255 0 255
-0.07678211 -0.08157627 0.2285115 255 0 255
-0.07382902 -0.08147511 0.2285808 255 0 255
-0.07208361 -0.08175603 0.2291262 255 0 255
-0.06415383 -0.08466784 0.2340511 255 0 255
-0.06138038 -0.08676627 0.2373847 255 0 255
-0.05452912 -0.08231204 0.2313967 255 0 255
-0.1271514 -0.109817 0.2646353 255 0 255
-0.09979589 -0.08500244 0.2303232 255 0 255
-0.09849177 -0.08468127 0.2299373 255 0 255
-0.08340184 -0.08354733 0.2292827 255 0 255
-0.08004957 -0.08295595 0.2286601 255 0 255
-0.07952421 -0.08365501 0.2297173 255 0 255
-0.07410923 -0.08277702 0.2288398 255 0 255
-0.07091581 -0.08388019 0.2306986 255 0 255
-0.06706961 -0.08385251 0.2309659 255 0 255
-0.06618475 -0.0839766 0.2312197 255 0 255
-0.06376994 -0.08665714 0.2353453 255 0 255
-0.06286487 -0.08677161 0.2355899 255 0 255
-0.05832469 -0.08730873 0.2367718 255 0 255
-0.05689923 -0.08629923 0.2354178 255 0 255
-0.05472762 -0.08361968 0.2316811 255 0 255
-0.05109509 -0.07759935 0.2231746 255 0 255
-0.1005838 -0.0868526 0.2312596 255 0 255
-0.09729815 -0.08947766 0.2352474 255 0 255
-0.09533516 -0.09114257 0.2377768 255 0 255
-0.09363561 -0.09026083 0.2366207 255 0 255
-0.08681121 -0.08793695 0.2337423 255 0 255
-0.08122469 -0.08714538 0.2330046 255 0 255
-0.07416546 -0.08532365 0.2309054 255 0 255
-0.09832685 -0.08752695 0.2306889 255 0 255
-0.09775119 -0.08954309 0.2336056 255 0 255
-0.09063958 -0.09290005 0.2389001 255 0 255
-0.08840839 -0.09271577 0.2387982 255 0 255
-0.08477788 -0.09521744 0.2426568 255 0 255
-0.08016349 -0.09114725 0.2371694 255 0 255
-0.07201198 -0.08581949 0.230159 255 0 255
-0.07112477 -0.08595674 0.230428 255 0 255
-0.06992314 -0.08553761 0.229923 255 0 255
-0.06398778 -0.08697105 0.2324838 255 0 255
-0.06337424 -0.08764558 0.2335085 255 0 255
-0.06247259 -0.08776002 0.2337518 255 0 255
-0.05976176 -0.08808928 0.2344652 255 0 255
-0.05678547 -0.08783599 0.2343676 255 0 255
-0.09925796 -0.08554479 0.226156 255 0 255
-0.0964376 -0.09750905 0.2433069 255 0 255
-0.09455507 -0.1028479 0.251029 255 0 255
-0.07284334 -0.08644094 0.2293607 255 0 255
-0.06602014 -0.08625202 0.2296582 255 0 255
-0.0639315 -0.08773449 0.2319554 255 0 255
-0.05557049 -0.08813393 0.2332758 255 0 255
-0.04739232 -0.07361053 0.2132435 255 0 255
-0.09117592 -0.07607349 0.2117756 255 0 255
-0.09869774 -0.08835419 0.2285117 255 0 255
-0.1018154 -0.09527392 0.2380202 255 0 255
-0.09994157 -0.09569349 0.2387411 255 0 255
-0.09884925 -0.09719443 0.2409302 255 0 255
-0.1050696 -0.119705 0.2721833 255 0 255
-0.1103709 -0.1317322 0.2887431 255 0 255
-0.08782264 -0.1036891 0.2509197 255 0 255
-0.07488887 -0.08747017 0.2290417 255 0 255
-0.07301781 -0.08594115 0.2270326 255 0 255
-0.07181599 -0.08552364 0.2265408 255 0 255
-0.05926865 -0.09086206 0.2351923 255 0 255
-0.05835424 -0.09096602 0.2354236 255 0 255
-0.05601763 -0.09003038 0.2343116 255 0 255
-0.0979909 -0.09247924 0.2326722 255 0 255
-0.09787993 -0.09377703 0.2344908 255 0 255
-0.1130946 -0.1309701 0.2853202 255 0 255
-0.1251865 -0.1536366 0.3160958 255 0 255
-0.1277955 -0.160001 0.3247993 255 0 255
-0.08707576 -0.1034252 0.2488083 255 0 255
-0.07638984 -0.08920171 0.2297426 255 0 255
-0.07417072 -0.08710816 0.2269896 255 0 255
-0.07111333 -0.08514702 0.2244926 255 0 255
-0.06732621 -0.08511873 0.2247729 255 0 255
-0.05947346 -0.09220226 0.2354284 255 0 255
-0.100699 -0.1016058 0.2434398 255 0 255
-0.1016798 -0.1045769 0.2474823 255 0 255
-0.1196434 -0.1420069 0.2980056 255 0 255
-0.07532917 -0.08827526 0.2269346 255 0 255
-0.06868882 -0.08502628 0.2229738 255 0 255
-0.06046756 -0.09526666 0.2379845 255 0 255
-0.09945885 -0.1007783 0.2406416 255 0 255
-0.1077365 -0.1194454 0.265671 255 0 255
-0.1423153 -0.1828664 0.3502281 255 0 255
-0.07273564 -0.08633962 0.2229036 255 0 255
-0.06863344 -0.08575702 0.2224509 255 0 255
-0.06634611 -0.08671785 0.2239783 255 0 255
-0.06607804 -0.08798704 0.2257559 255 0 255
-0.06579392 -0.08925609 0.2275353 255 0 255
-0.06520034 -0.0899522 0.2285507 255 0 255
-0.06066975 -0.09662469 0.2381987 255 0 255
-0.07267982 -0.08707354 0.2223741 255 0 255
-0.06826192 -0.08591308 0.2211685 255 0 255
-0.06543537 -0.09127705 0.2287735 255 0 255
-0.06449981 -0.09325001 0.2315652 255 0 255
-0.06231822 -0.0947569 0.2338348 255 0 255
-0.06154481 -0.09729727 0.2373949 255 0 255
-0.07642174 -0.08778118 0.221482 255 0 255
-0.0748737 -0.08679114 0.2202707 255 0 255
-0.073677 -0.08636833 0.2197995 255 0 255
-0.0685212 -0.08721214 0.2213967 255 0 255
-0.0659633 -0.08946299 0.2246865 255 0 255
-0.0624187 -0.09796466 0.2365855 255 0 255
-0.07328343 -0.08651596 0.2185242 255 0 255
-0.06617515 -0.0889089 0.2223842 255 0 255
-0.06471013 -0.09348021 0.2286879 255 0 255
-0.06339271 -0.09675674 0.2332353 255 0 255
-0.06248513 -0.101197 0.2393197 255 0 255
-0.07119013 -0.08694409 0.2177878 255 0 255
-0.06948588 -0.08722392 0.2183148 255 0 255
-0.06863211 -0.08736047 0.2185745 255 0 255
-0.06431884 -0.0955229 0.2298978 255 0 255
-0.06397159 -0.0968163 0.2316631 255 0 255
-0.06404926 -0.101165 0.2374817 255 0 255
-0.07334077 -0.08663864 0.2157081 255 0 255
-0.07249624 -0.08678605 0.215979 255 0 255
-0.06432068 -0.09249834 0.2243117 255 0 255
-0.07531767 -0.0876258 0.2153625 255 0 255
-0.0741275 -0.08719546 0.2149036 255 0 255
-0.06957293 -0.08733629 0.2155029 255 0 255
-0.0687275 -0.08747435 0.2157625 255 0 255
-0.06501298 -0.1051025 0.2393392 255 0 255
-0.06539723 -0.1081941 0.2433787 255 0 255
-0.06468076 -0.1089079 0.2443903 255 0 255
-0.1102138 -0.1364329 0.2743961 255 0 255
-0.06378446 -0.09908818 0.2299548 255 0 255
-0.06336487 -0.1092352 0.2432707 255 0 255
-0.1397241 -0.1821713 0.3288922 255 0 255
-0.07724609 -0.08931168 0.2144548 255 0 255
-0.07485517 -0.08844922 0.2135578 255 0 255
-0.07401263 -0.08860197 0.2138332 255 0 255
-0.0731689 -0.08875243 0.2141059 255 0 255
-0.07232403 -0.08890065 0.2143762 255 0 255
-0.06613764 -0.09119607 0.2179339 255 0 255
-0.06606819 -0.1116045 0.2444133 255 0 255
-0.07960289 -0.0908704 0.2147842 255 0 255
-0.07767599 -0.08926616 0.2129026 255 0 255
-0.0693991 -0.0894374 0.2138973 255 0 255
-0.06577181 -0.09130611 0.2166476 255 0 255
-0.06437245 -0.09408622 0.2203598 255 0 255
-0.06315706 -0.09746014 0.2248207 255 0 255
-0.06318045 -0.1038443 0.2330365 255 0 255
-0.07845903 -0.08980295 0.2120731 255 0 255
-0.07558 -0.089691 0.2121997 255 0 255
-0.07389571 -0.08999977 0.2127519 255 0 255
-0.07305179 -0.09015077 0.2130243 255 0 255
-0.07018492 -0.08999211 0.2130954 255 0 255
-0.06934018 -0.09013343 0.2133566 255 0 255
-0.06849433 -0.09027249 0.2136154 255 0 255
-0.06372525 -0.0955306 0.2207905 255 0 255
-0.1343839 -0.1727242 0.310148 255 0 255
-0.07803871 -0.08990516 0.2108093 255 0 255
-0.07552096 -0.09038607 0.2116555 255 0 255
-0.07383647 -0.09069539 0.2122072 255 0 255
-0.06619991 -0.09197506 0.214567 255 0 255
-0.0647928 -0.09283974 0.2158005 255 0 255
-0.06366082 -0.09430388 0.2177667 255 0 255
-0.06260971 -0.1022048 0.2278808 255 0 255
-0.07461967 -0.09123502 0.2113854 255 0 255
-0.06268442 -0.09903939 0.2223659 255 0 255
-0.06162461 -0.1030661 0.2275355 255 0 255
-0.07839216 -0.09052125 0.2087158 255 0 255
-0.0767243 -0.09084832 0.2092839 255 0 255
-0.07588856 -0.09100848 0.2095643 255 0 255
-0.07371649 -0.09208 0.2111098 255 0 255
-0.07253374 -0.09162648 0.2106612 255 0 255
-0.07169212 -0.09177535 0.2109292 255 0 255
-0.06381051 -0.09436309 0.2149391 255 0 255
-0.06265587 -0.09779891 0.2193397 255 0 255
-0.05444455 -0.09170578 0.2125819 255 0 255
-0.07833214 -0.09120558 0.2081669 255 0 255
-0.06845269 -0.09167378 0.2097221 255 0 255
-0.06793373 -0.09242407 0.2107015 255 0 255
-0.0637486 -0.09505801 0.2143815 255 0 255
-0.07409219 -0.09269114 0.2090149 255 0 255
-0.06510088 -0.09487605 0.212603 255 0 255
-0.06254192 -0.09723741 0.2157637 255 0 255
-0.06192735 -0.09995936 0.2191684 255 0 255
-0.05763732 -0.09658004 0.2154655 255 0 255
-0.1190409 -0.1477792 0.2701035 255 0 255
-0.07867555 -0.09179112 0.2060709 255 0 255
-0.07368558 -0.09275938 0.2077488 255 0 255
-0.06916837 -0.09288789 0.2083635 255 0 255
-0.06696732 -0.09392389 0.2098493 255 0 255
-0.06612258 -0.09405927 0.2101008 255 0 255
-0.06186259 -0.1006687 0.2185899 255 0 255
-0.05324093 -0.08925454 0.2055892 255 0 255
-0.0810167 -0.09334456 0.2063351 255 0 255
-0.07493987 -0.09250652 0.2059384 255 0 255
-0.07411002 -0.09266409 0.206213 255 0 255
-0.07210556 -0.09235581 0.2060454 255 0 255
-0.06961329 -0.09279949 0.2068364 255 0 255
-0.06467158 -0.09562474 0.2107594 255 0 255
-0.06211397 -0.1000025 0.2163159 255 0 255
-0.0617974 -0.1013758 0.2180088 255 0 255
-0.05724027 -0.09733386 0.2136043 255 0 255
-0.09037766 -0.1044822 0.2173353 255 0 255
-0.0845247 -0.09672605 0.2086474 255 0 255
-0.08095451 -0.09402207 0.2057739 255 0 255
-0.07570684 -0.09301668 0.2051065 255 0 255
-0.06922162 -0.09284665 0.2055719 255 0 255
-0.06704901 -0.09389247 0.2070509 255 0 255
-0.06204893 -0.100701 0.2157371 255 0 255
-0.05771596 -0.09927955 0.2144925 255 0 255
-0.04992843 -0.08297982 0.1957735 255 0 255
-0.09547605 -0.111755 0.2239708 255 0 255
-0.08172418 -0.09452116 0.2049154 255 0 255
-0.06965459 -0.0927408 0.2040512 255 0 255
-0.06313623 -0.09786858 0.2108355 255 0 255
-0.06070843 -0.1049201 0.2194835 255 0 255
-0.05953757 -0.1044032 0.2189939 255 0 255
-0.08880758 -0.1020418 0.2116783 255 0 255
-0.07405014 -0.09326352 0.2028683 255 0 255
-0.07240369 -0.09357516 0.2034088 255 0 255
-0.06587096 -0.09675856 0.2078554 255 0 255
-0.1320136 -0.1650222 0.2793793 255 0 255
-0.08922008 -0.1019329 0.2100788 255 0 255
-0.08525041 -0.09717696 0.2049325 255 0 255
-0.08166738 -0.09444434 0.2021123 255 0 255
-0.07480896 -0.09376166 0.2020368 255 0 255
-0.06787933 -0.09434324 0.2034544 255 0 255
-0.06737404 -0.09511588 0.2044129 255 0 255
-0.06549655 -0.09679407 0.2065789 255 0 255
-0.06496082 -0.09756195 0.2075356 255 0 255
-0.06153215 -0.1041804 0.2156567 255 0 255
-0.1307406 -0.1620216 0.2740071 255 0 255
-0.08363532 -0.09536585 0.201632 255 0 255
-0.07720333 -0.09392417 0.2006422 255 0 255
-0.06979909 -0.09534127 0.2030809 255 0 255
-0.06679634 -0.09654803 0.2048064 255 0 255
-0.06208408 -0.1000229 0.2093546 255 0 255
-0.06178437 -0.1034715 0.2133951 255 0 255
-0.06118473 -0.1042346 0.2143474 255 0 255
-0.1005166 -0.116398 0.222711 255 0 255
-0.0779566 -0.09440728 0.1997976 255 0 255
-0.07022668 -0.09521181 0.20156 255 0 255
-0.06973518 -0.09599561 0.2025167 255 0 255
-0.06483127 -0.09889384 0.2063917 255 0 255
-0.06050865 -0.1056894 0.2147015 255 0 255
-0.1013831 -0.116931 0.2216953 255 0 255
-0.09161051 -0.1034215 0.2073091 255 0 255
-0.08716694 -0.0979984 0.2015904 255 0 255
-0.08354863 -0.0952481 0.198838 255 0 255
-0.07833584 -0.09425452 0.1982678 255 0 255
-0.07589633 -0.09475983 0.199111 255 0 255
-0.07228024 -0.09476638 0.1995129 255 0 255
-0.06967083 -0.09664765 0.2019501 255 0 255
-0.06188738 -0.1075528 0.2152833 255 0 255
-0.0802713 -0.09518205 0.197806 255 0 255
-0.07092069 -0.09635651 0.2001677 255 0 255
-0.06993753 -0.09793899 0.2020726 255 0 255
-0.06237626 -0.1095465 0.2160892 255 0 255
-0.08020636 -0.09582614 0.1972374 255 0 255
-0.07576723 -0.09604719 0.197979 255 0 255
-0.07296696 -0.09589295 0.1981165 255 0 255
-0.07085574 -0.09700058 0.199599 255 0 255
