ply
format ascii 1.0
Comment Generated by Floating Hands
element vertex 1101
property double x
property double y
property double z
property uchar red
property uchar green
property uchar blue
end_header
0.0406418 -0.04269302 0.3005001 255 0 255
0.0453405 -0.04076928 0.2971309 255 0 255
0.04824337 -0.03985562 0.295817 255 0 255
0.05028968 -0.03945183 0.2955437 255 0 255
0.0511396 -0.03711731 0.2896993 255 0 255
0.04776817 -0.02841864 0.2653521 255 0 255
0.04446363 -0.02187158 0.246724 255 0 255
0.004873111 -0.02424608 0.2371518 255 0 255
0.01135348 -0.02918519 0.2520916 255 0 255
0.01338959 -0.03070932 0.2567343 255 0 255
0.02967833 -0.04372797 0.296353 255 0 255
0.03082985 -0.0439079 0.2972139 255 0 255
0.03288639 -0.04072608 0.289514 255 0 255
0.03461481 -0.03972694 0.2874787 255 0 255
0.03575153 -0.03989484 0.2883202 255 0 255
0.03748009 -0.04139467 0.2928825 255 0 255
0.04147166 -0.04285381 0.298156 255 0 255
0.04250841 -0.04266776 0.2980445 255 0 255
0.04834534 -0.04084814 0.2954489 255 0 255
0.05203605 -0.03755778 0.2882708 255 0 255
0.05054831 -0.03348259 0.2770377 255 0 255
0.006642306 -0.02589914 0.2396712 255 0 255
0.02761293 -0.04827897 0.3045736 255 0 255
0.03000437 -0.045405 0.2978438 255 0 255
0.03092461 -0.04490344 0.2968388 255 0 255
0.03210302 -0.04219348 0.2901625 255 0 255
0.03371283 -0.04084911 0.2872048 255 0 255
0.04536955 -0.04242904 0.2954599 255 0 255
0.04863186 -0.04216959 0.2960026 255 0 255
0.04966005 -0.04196745 0.2958675 255 0 255
0.05068737 -0.04176302 0.2957291 255 0 255
0.04738828 -0.02621427 0.2542916 255 0 255
0.00415172 -0.02513002 0.2347016 255 0 255
0.007643841 -0.02764959 0.2421746 255 0 255
0.008507744 -0.02791555 0.2431025 255 0 255
0.0104779 -0.02985665 0.248684 255 0 255
0.01387066 -0.0341456 0.2607655 255 0 255
0.01964853 -0.04317143 0.2858374 255 0 255
0.02158613 -0.04689533 0.2960564 255 0 255
0.03077902 -0.04520629 0.2945984 255 0 255
0.03118738 -0.04332103 0.289871 255 0 255
0.03944327 -0.04487832 0.2966837 255 0 255
0.04078748 -0.04537682 0.2984352 255 0 255
0.04427268 -0.04327439 0.294278 255 0 255
0.04632007 -0.04288887 0.2940343 255 0 255
0.04854932 -0.04282822 0.2947011 255 0 255
0.05427073 -0.04092386 0.2920019 255 0 255
0.04702037 -0.02489567 0.2483251 255 0 255
0.006076825 -0.02860199 0.2418759 255 0 255
0.01526345 -0.0370245 0.2660026 255 0 255
0.01670049 -0.03939931 0.2724966 255 0 255
0.01819108 -0.04176516 0.2789858 255 0 255
0.02634773 -0.05310046 0.3104198 255 0 255
0.04161237 -0.04550676 0.29609 255 0 255
0.04624317 -0.04353402 0.2927317 255 0 255
0.05314802 -0.0436634 0.2956058 255 0 255
0.05359792 -0.03715946 0.2793758 255 0 255
0.04637966 -0.02320937 0.2414597 255 0 255
0.04469228 -0.01940951 0.2312432 255 0 255
0.01170114 -0.03281126 0.2517662 255 0 255
0.01395584 -0.03548777 0.2591726 255 0 255
0.01851119 -0.04376508 0.2814147 255 0 255
0.02245881 -0.05173758 0.302725 255 0 255
0.02406838 -0.05373721 0.3082567 255 0 255
0.02798582 -0.04799779 0.2949678 255 0 255
0.0302421 -0.04505724 0.2882673 255 0 255
0.03246534 -0.04247195 0.2824754 255 0 255
0.03344716 -0.0423114 0.2823938 255 0 255
0.03484847 -0.04319798 0.285088 255 0 255
0.03641594 -0.04442761 0.2887028 255 0 255
0.0413937 -0.04580539 0.2938546 255 0 255
0.04616553 -0.04417023 0.2914281 255 0 255
0.04718132 -0.04397483 0.2913025 255 0 255
0.04838201 -0.04411859 0.2920949 255 0 255
0.05520814 -0.0404353 0.2854343 255 0 255
0.0050977 -0.02693031 0.2328964 255 0 255
0.007109929 -0.03080536 0.2431214 255 0 255
0.009846416 -0.03236295 0.2477513 255 0 255
0.01189338 -0.03435748 0.253301 255 0 255
0.02353054 -0.05224845 0.3013487 255 0 255
0.02693774 -0.04877718 0.2937122 255 0 255
0.03021313 -0.04566038 0.2869618 255 0 255
0.03157395 -0.04356755 0.2821834 255 0 255
0.04133309 -0.04643786 0.292544 255 0 255
0.04406013 -0.04518052 0.2903634 255 0 255
0.04507401 -0.04499019 0.2902452 255 0 255
0.04950167 -0.04489437 0.2915774 255 0 255
0.05459186 -0.04577314 0.2955994 255 0 255
0.05583371 -0.04589693 0.2963638 255 0 255
0.05665729 -0.04533734 0.2952911 255 0 255
0.04561745 -0.02071503 0.2305373 255 0 255
0.01437933 -0.03864764 0.2622096 255 0 255
0.02298809 -0.05070679 0.2944572 255 0 255
0.03068127 -0.04465976 0.2818842 255 0 255
0.03153568 -0.04414428 0.2808851 255 0 255
0.0323819 -0.04362781 0.2798834 255 0 255
0.03489422 -0.04473428 0.2834128 255 0 255
0.03922933 -0.04742301 0.291439 255 0 255
0.04111195 -0.04670761 0.2903109 255 0 255
0.04701703 -0.04522128 0.2886937 255 0 255
0.04821166 -0.04537316 0.2894845 255 0 255
0.04922291 -0.04517324 0.289353 255 0 255
0.05449165 -0.04641991 0.2942888 255 0 255
0.05573049 -0.04654777 0.2950525 255 0 255
0.006308281 -0.03133205 0.2397112 255 0 255
0.008117742 -0.03265464 0.2434143 255 0 255
0.009094222 -0.0336841 0.246188 255 0 255
0.01459324 -0.04024724 0.2637142 255 0 255
0.0281561 -0.05058482 0.2928627 255 0 255
0.02939293 -0.04772264 0.2862644 255 0 255
0.03015328 -0.04683987 0.284348 255 0 255
0.03077196 -0.04559404 0.2815064 255 0 255
0.03162643 -0.04507472 0.280509 255 0 255
0.03247268 -0.04455435 0.2795089 255 0 255
0.03372254 -0.04511702 0.2812731 255 0 255
0.03512825 -0.04603559 0.2839547 255 0 255
0.03770913 -0.04713548 0.2874593 255 0 255
0.03917411 -0.04803675 0.2901254 255 0 255
0.04812536 -0.04598704 0.288178 255 0 255
0.05213717 -0.04713214 0.2923531 255 0 255
0.05480202 -0.04775478 0.294806 255 0 255
0.05625485 -0.04823291 0.2964818 255 0 255
0.05030805 -0.0318311 0.2548153 255 0 255
0.008232206 -0.03381577 0.2440176 255 0 255
0.01113225 -0.03616901 0.2504671 255 0 255
0.02847115 -0.05230032 0.2943082 255 0 255
0.02936622 -0.04830587 0.284953 255 0 255
0.03086274 -0.04652666 0.2811249 255 0 255
0.03256349 -0.04547928 0.2791308 255 0 255
0.03381446 -0.04604894 0.2808921 255 0 255
0.03997621 -0.048101 0.2877914 255 0 255
0.0408259 -0.04755948 0.2867694 255 0 255
0.04401298 -0.04736504 0.2873577 255 0 255
0.05470095 -0.04839085 0.2934905 255 0 255
0.05636103 -0.04922801 0.2960766 255 0 255
0.0576156 -0.04935682 0.2968321 255 0 255
0.04737886 -0.02656592 0.2388735 255 0 255
0.005286744 -0.02912848 0.2298404 255 0 255
0.008484416 -0.03612651 0.247385 255 0 255
0.01143405 -0.03849964 0.2538237 255 0 255
0.01267683 -0.04067397 0.2593488 255 0 255
0.01982223 -0.05256044 0.2896816 255 0 255
0.02648267 -0.05358814 0.2940204 255 0 255
0.02903095 -0.05126566 0.289232 255 0 255
0.03278852 -0.04677176 0.2796686 255 0 255
0.04813797 -0.0475476 0.2864764 255 0 255
0.05750848 -0.04999922 0.2955112 255 0 255
0.04741337 -0.02452596 0.2319385 255 0 255
0.04722805 -0.02295377 0.228179 255 0 255
0.006625069 -0.03479261 0.2415207 255 0 255
0.007620848 -0.03624649 0.2452084 255 0 255
0.008601422 -0.03731027 0.2479716 255 0 255
0.01299915 -0.043052 0.2626809 255 0 255
0.01600417 -0.04932826 0.2783084 255 0 255
0.01975028 -0.05276342 0.2874351 255 0 255
0.02678384 -0.05532453 0.2954498 255 0 255
0.0293546 -0.05297991 0.2906681 255 0 255
0.03314881 -0.04844264 0.2811179 255 0 255
0.04804975 -0.04813831 0.2851659 255 0 255
0.05024718 -0.04809986 0.2858157 255 0 255
0.05697178 -0.0499172 0.2923717 255 0 255
0.05193249 -0.03645324 0.2592327 255 0 255
0.005623017 -0.03292595 0.2347462 255 0 255
0.009677793 -0.0391814 0.2503875 255 0 255
0.02150261 -0.04756866 0.2731245 255 0 255
0.02452356 -0.05149957 0.2831417 255 0 255
0.02760413 -0.05501659 0.2922189 255 0 255
0.02933262 -0.05356849 0.2893404 255 0 255
0.02999951 -0.0522752 0.2865206 255 0 255
0.03138984 -0.05006995 0.281793 255 0 255
0.03212098 -0.04915694 0.2798848 255 0 255
0.03324085 -0.0493734 0.2807242 255 0 255
0.04195751 -0.04986234 0.2845565 255 0 255
0.0437884 -0.04912112 0.2834229 255 0 255
0.04478553 -0.04893263 0.283308 255 0 255
0.05015169 -0.04868616 0.2845044 255 0 255
0.05024306 -0.03606065 0.2553931 255 0 255
0.0488596 -0.03227801 0.246197 255 0 255
0.04876314 -0.02778965 0.2358369 255 0 255
0.04814919 -0.0242288 0.2274363 255 0 255
0.008931019 -0.04047946 0.2509636 255 0 255
0.01596371 -0.04999789 0.2747696 255 0 255
0.02929725 -0.05775483 0.2963247 255 0 255
0.03645281 -0.05300407 0.2874779 255 0 255
0.03835123 -0.05509983 0.2928725 255 0 255
0.0392411 -0.0545432 0.2918636 255 0 255
0.04121289 -0.0513653 0.2851707 255 0 255
0.04787103 -0.04929294 0.2825427 255 0 255
0.04847479 -0.02531117 0.2280292 255 0 255
0.04874081 -0.0244158 0.2260909 255 0 255
0.005755554 -0.03442319 0.2341001 255 0 255
0.01007783 -0.04277712 0.2542748 255 0 255
0.01261022 -0.04770262 0.266178 255 0 255
0.01404508 -0.05074437 0.2734996 255 0 255
0.01612889 -0.04607218 0.2633517 255 0 255
0.01804068 -0.0418038 0.2540999 255 0 255
0.02064654 -0.04507493 0.262274 255 0 255
0.0221467 -0.0472844 0.2677283 255 0 255
0.03132335 -0.05440444 0.2865479 255 0 255
0.03322606 -0.05369642 0.2854857 255 0 255
0.03812431 -0.05816555 0.2971061 255 0 255
0.04398264 -0.05100107 0.2826158 255 0 255
0.04480285 -0.05043581 0.281592 255 0 255
0.04561472 -0.04986971 0.2805657 255 0 255
0.04896436 -0.0500326 0.2820105 255 0 255
0.05371469 -0.04863728 0.2804182 255 0 255
0.0492924 -0.02712267 0.2304148 255 0 255
0.007945907 -0.03979893 0.244764 255 0 255
0.01030608 -0.04479921 0.2566597 255 0 255
0.0140651 -0.05124743 0.2721895 255 0 255
0.01575742 -0.03563162 0.237301 255 0 255
0.01904257 -0.03884622 0.2454382 255 0 255
0.0251628 -0.05181351 0.2763903 255 0 255
0.02777652 -0.05754163 0.2900429 255 0 255
0.03433297 -0.05447879 0.2849928 255 0 255
0.03534532 -0.05431138 0.2849108 255 0 255
0.03943245 -0.05936355 0.29749 255 0 255
0.04019402 -0.05841062 0.2955719 255 0 255
0.04016414 -0.05553812 0.2891006 255 0 255
0.04373138 -0.05117748 0.2803903 255 0 255
0.0484836 -0.04983815 0.2788846 255 0 255
0.0506496 -0.04981387 0.2795278 255 0 255
0.05183938 -0.04998435 0.280296 255 0 255
0.008017015 -0.04058706 0.2444146 255 0 255
0.01294752 -0.05064976 0.2681519 255 0 255
0.03240024 -0.0557524 0.2847289 255 0 255
0.04317764 -0.05306134 0.2819048 255 0 255
0.04365323 -0.05172187 0.279074 255 0 255
0.05173383 -0.05053601 0.2789836 255 0 255
0.05207672 -0.03395071 0.2424654 255 0 255
0.009415797 -0.04534692 0.2531843 255 0 255
0.01279041 -0.04990842 0.264109 255 0 255
0.04274447 -0.05787127 0.2898563 255 0 255
0.04294336 -0.05573684 0.2852191 255 0 255
0.04374923 -0.05264502 0.2786623 255 0 255
0.04455787 -0.05207038 0.2776451 255 0 255
0.0504439 -0.05090017 0.2769042 255 0 255
0.05337622 -0.05028434 0.2764902 255 0 255
0.009490746 -0.04616778 0.2528127 255 0 255
0.01403909 -0.03648371 0.2326921 255 0 255
0.03866617 -0.05662291 0.2833825 255 0 255
0.04092663 -0.05960264 0.2905314 255 0 255
0.04228755 -0.06020521 0.2922404 255 0 255
0.04284388 -0.05883617 0.2894211 255 0 255
0.04319975 -0.05453587 0.2801639 255 0 255
0.04447472 -0.05259747 0.2763285 255 0 255
0.05054179 -0.05181595 0.2764919 255 0 255
0.05249812 -0.05140704 0.2762195 255 0 255
0.01050583 -0.04730182 0.2533424 255 0 255
0.01117176 -0.04554956 0.2496987 255 0 255
0.01186669 -0.04421117 0.2469615 255 0 255
0.01260222 -0.04328535 0.2451308 255 0 255
0.01332199 -0.0423594 0.2432975 255 0 255
0.01366697 -0.03937851 0.2369177 255 0 255
0.04596772 -0.05195154 0.272979 255 0 255
0.05161853 -0.05252632 0.2759416 255 0 255
0.007658934 -0.04590534 0.2475226 255 0 255
0.01157762 -0.04251146 0.2411494 255 0 255
0.01241832 -0.04241208 0.241137 255 0 255
0.01319053 -0.04189572 0.2402147 255 0 255
0.0138747 -0.03630547 0.2283846 255 0 255
0.04088044 -0.05814052 0.2823303 255 0 255
0.04239511 -0.05657346 0.2794219 255 0 255
0.04527855 -0.05343707 0.2735807 255 0 255
0.04587527 -0.05245474 0.2716662 255 0 255
0.05227449 -0.05244924 0.2735931 255 0 255
0.04724228 -0.03956082 0.2446781 255 0 255
0.006674736 -0.04468409 0.2426163 255 0 255
0.007856451 -0.04796883 0.2498669 255 0 255
0.01229663 -0.04192781 0.2380591 255 0 255
0.01386696 -0.03661045 0.2271419 255 0 255
0.04297118 -0.05610383 0.2761888 255 0 255
0.04476143 -0.05532876 0.275071 255 0 255
0.04555773 -0.0547387 0.2740592 255 0 255
0.04945635 -0.05395996 0.2735723 255 0 255
0.04969671 -0.04644501 0.2578415 255 0 255
0.05141373 -0.03052943 0.2250327 255 0 255
0.01117143 -0.04024847 0.232288 255 0 255
0.01385863 -0.0369069 0.2258996 255 0 255
0.04254761 -0.05579662 0.2730684 255 0 255
0.04741259 -0.05485401 0.2725029 255 0 255
0.04838335 -0.05465863 0.2723802 255 0 255
0.01351376 -0.03984344 0.2300894 255 0 255
0.0416018 -0.05423778 0.2672675 255 0 255
0.04343935 -0.05610211 0.2716397 255 0 255
0.04495246 -0.05714068 0.2742148 255 0 255
0.04574862 -0.056543 0.2732067 255 0 255
0.05041913 -0.05515737 0.2717001 255 0 255
0.048973 -0.04831904 0.2571783 255 0 255
0.005726029 -0.04320612 0.2333901 255 0 255
0.006773396 -0.04571917 0.2388012 255 0 255
0.009240027 -0.04501905 0.2379053 255 0 255
0.01211734 -0.04162718 0.23157 255 0 255
0.03856717 -0.04767783 0.2507557 255 0 255
0.04414126 -0.05598574 0.2693157 255 0 255
0.04818207 -0.05563334 0.2697426 255 0 255
0.006727444 -0.04517442 0.2357323 255 0 255
0.009109016 -0.04403916 0.2339393 255 0 255
0.009601849 -0.04134031 0.2285417 255 0 255
0.01271433 -0.04053328 0.2276033 255 0 255
0.04116205 -0.03625372 0.2263034 255 0 255
0.008406145 -0.04531224 0.2344715 255 0 255
0.03686295 -0.04058738 0.231977 255 0 255
0.04431136 -0.05093684 0.2547874 255 0 255
0.004465407 -0.04825819 0.2376466 255 0 255
0.007025561 -0.04844977 0.2385719 255 0 255
0.007455944 -0.0532339 0.2462329 255 0 255
0.009216292 -0.04537681 0.2310451 255 0 255
0.00346364 -0.06169175 0.2600309 255 0 255
0.006549627 -0.06503139 0.2672181 255 0 255
0.008498027 -0.05483431 0.2476202 255 0 255
0.008905037 -0.05024422 0.2387024 255 0 255
0.001112227 -0.04399464 0.2230708 255 0 255
0.006119942 -0.07328175 0.2809956 255 0 255
0.008821405 -0.06843241 0.2721317 255 0 255
0.003920526 -0.06981436 0.2715928 255 0 255
0.00641143 -0.07742066 0.2867329 255 0 255
0.007540954 -0.07823284 0.2885258 255 0 255
0.009314898 -0.07389978 0.2805533 255 0 255
0.009390855 -0.05496378 0.2441378 255 0 255
0.0617926 -0.03457394 0.2186593 255 0 255
0.001395445 -0.05049605 0.232088 255 0 255
0.005488474 -0.07939889 0.2879889 255 0 255
0.008740157 -0.07954536 0.2889253 255 0 255
0.009627197 -0.066431 0.2641175 255 0 255
0.00792475 -0.08293878 0.2928294 255 0 255
0.004618983 -0.0818804 0.2878357 255 0 255
0.009689529 -0.05021683 0.229658 255 0 255
0.009584246 -0.07665388 0.2768348 255 0 255
0.0009913867 -0.05971863 0.2419092 255 0 255
0.002235035 -0.07109774 0.2630238 255 0 255
0.009515936 -0.05649763 0.2376665 255 0 255
4.692333E-05 -0.05190349 0.225677 255 0 255
0.006159114 -0.08799998 0.2924467 255 0 255
0.008192176 -0.0853909 0.2880996 255 0 255
0.008903289 -0.06891385 0.2582974 255 0 255
0.00800153 -0.0824886 0.2805691 255 0 255
0.003734115 -0.08040468 0.2738531 255 0 255
-0.07450335 -0.06483468 0.2335322 255 0 255
-0.07047192 -0.06584688 0.2356546 255 0 255
-0.06610079 -0.06631882 0.2368938 255 0 255
-0.05807122 -0.06498998 0.2353967 255 0 255
-0.05623019 -0.0630885 0.2322683 255 0 255
-0.05298356 -0.05822519 0.2241105 255 0 255
0.00151341 -0.07165849 0.2558662 255 0 255
0.002611639 -0.07599576 0.2637354 255 0 255
0.00369828 -0.0783617 0.2681192 255 0 255
0.004726499 -0.07876036 0.2690162 255 0 255
-0.08357146 -0.05891161 0.2208319 255 0 255
-0.08412343 -0.06207174 0.2262012 255 0 255
-0.08182224 -0.06405296 0.2297732 255 0 255
-0.07841589 -0.06455454 0.2309092 255 0 255
-0.07626314 -0.06697398 0.2352543 255 0 255
-0.07188407 -0.06751769 0.2365849 255 0 255
-0.06924414 -0.06781727 0.2373508 255 0 255
-0.06747917 -0.06800587 0.2378478 255 0 255
-0.06543738 -0.06769221 0.237508 255 0 255
-0.0636723 -0.06786226 0.2379811 255 0 255
-0.05762743 -0.06683105 0.2368339 255 0 255
-0.001307797 -0.05190039 0.2188092 255 0 255
0.001671169 -0.07545812 0.2606075 255 0 255
0.004663977 -0.07667974 0.2632997 255 0 255
0.008567788 -0.06488199 0.2433799 255 0 255
-0.08284312 -0.05097786 0.2057481 255 0 255
-0.08280935 -0.06629402 0.2317287 255 0 255
-0.08074604 -0.06606455 0.2315055 255 0 255
-0.07902534 -0.06631363 0.2320728 255 0 255
-0.07762517 -0.0670445 0.2334381 255 0 255
-0.07707853 -0.06765292 0.2345233 255 0 255
-0.07620572 -0.06776857 0.2347974 255 0 255
-0.07533181 -0.06788199 0.2350688 255 0 255
-0.07270361 -0.0682089 0.2358667 255 0 255
-0.07182543 -0.06831344 0.2361273 255 0 255
-0.07065097 -0.06792144 0.2355676 255 0 255
-0.06801853 -0.06821374 0.2363217 255 0 255
-0.06713909 -0.06830674 0.2365677 255 0 255
-0.06510457 -0.06798933 0.2362275 255 0 255
-0.06361178 -0.0686565 0.2375244 255 0 255
-0.06184258 -0.06881806 0.2379864 255 0 255
-0.04822948 -0.05330518 0.2128138 255 0 255
-0.0003412994 -0.06299991 0.2366485 255 0 255
0.00459766 -0.07455613 0.2576031 255 0 255
0.00526961 -0.06949788 0.2489511 255 0 255
0.005731966 -0.06245919 0.2368247 255 0 255
0.006415467 -0.05989332 0.2325013 255 0 255
-0.08712107 -0.05586239 0.2120848 255 0 255
-0.08938232 -0.0632287 0.2242826 255 0 255
-0.08847193 -0.0644975 0.2264795 255 0 255
-0.08837654 -0.06561711 0.2283683 255 0 255
-0.08533041 -0.06667551 0.2303819 255 0 255
-0.08310048 -0.06757201 0.2320711 255 0 255
-0.08189213 -0.06721215 0.2315632 255 0 255
-0.07146752 -0.06861003 0.234852 255 0 255
-0.06942383 -0.06831389 0.2345459 255 0 255
-0.0688374 -0.06890965 0.2356139 255 0 255
-0.06679901 -0.06859894 0.2352884 255 0 255
-0.0650443 -0.06877792 0.2357699 255 0 255
-0.06302091 -0.06844717 0.2354166 255 0 255
-0.06240524 -0.06902973 0.2364719 255 0 255
-0.06152374 -0.06910923 0.2367004 255 0 255
-0.05702026 -0.06739386 0.2342684 255 0 255
-0.05293239 -0.06249239 0.226372 255 0 255
-0.04863656 -0.05499781 0.2140812 255 0 255
-0.09102647 -0.06256013 0.2213267 255 0 255
-0.08954611 -0.0667383 0.2283875 255 0 255
-0.08649289 -0.06781185 0.2304129 255 0 255
-0.08269706 -0.06786667 0.2308119 255 0 255
-0.07696251 -0.06923588 0.2336005 255 0 255
-0.07053217 -0.06950093 0.2346468 255 0 255
-0.06761485 -0.06929222 0.2345833 255 0 255
-0.06146207 -0.06989669 0.2362394 255 0 255
-0.06032613 -0.06946891 0.2356401 255 0 255
-0.001052431 -0.06710823 0.2400472 255 0 255
0.003799907 -0.07631612 0.2566062 255 0 255
0.007161327 -0.05826695 0.226474 255 0 255
-0.09261727 -0.06186368 0.2183711 255 0 255
-0.08996218 -0.06687633 0.2268277 255 0 255
-0.0894909 -0.06751952 0.227926 255 0 255
-0.08778565 -0.06781539 0.2285474 255 0 255
-0.08729599 -0.0684545 0.2296432 255 0 255
-0.08471401 -0.06887696 0.2305518 255 0 255
-0.08177824 -0.06878152 0.2306401 255 0 255
-0.08125438 -0.06940922 0.2317262 255 0 255
-0.07918577 -0.06916241 0.2314973 255 0 255
-0.07745172 -0.06940529 0.2320556 255 0 255
-0.0745893 -0.07086954 0.2347545 255 0 255
-0.06667791 -0.07016963 0.2343645 255 0 255
-0.06607629 -0.07076709 0.2354233 255 0 255
-0.06492228 -0.07034939 0.2348455 255 0 255
0.002129122 -0.08341924 0.266388 255 0 255
0.003047238 -0.0807914 0.262115 255 0 255
0.004401579 -0.06843606 0.2414974 255 0 255
0.006445685 -0.05957095 0.2269037 255 0 255
-0.08958706 -0.05576885 0.2069732 255 0 255
-0.09170992 -0.05934917 0.2126647 255 0 255
-0.09293192 -0.06538897 0.2224367 255 0 255
-0.08990686 -0.06765198 0.2263653 255 0 255
-0.08821099 -0.06795157 0.226989 255 0 255
-0.08736116 -0.06809807 0.2272969 255 0 255
-0.08565774 -0.06838448 0.2279049 255 0 255
-0.08085723 -0.06969277 0.2304621 255 0 255
-0.07509574 -0.07104222 0.2332097 255 0 255
-0.06283661 -0.07079259 0.2340308 255 0 255
-0.06082418 -0.0704426 0.2336681 255 0 255
-0.05311217 -0.06362128 0.223213 255 0 255
-0.002575557 -0.05799942 0.221033 255 0 255
0.004859344 -0.06044913 0.2264477 255 0 255
-0.09327482 -0.06664645 0.222751 255 0 255
-0.08681763 -0.06951844 0.2279211 255 0 255
-0.08252436 -0.07021129 0.2294141 255 0 255
-0.08079865 -0.07047293 0.2299928 255 0 255
-0.07993405 -0.07060043 0.2302783 255 0 255
-0.07503536 -0.07182746 0.2327373 255 0 255
-0.07210232 -0.07164768 0.2327278 255 0 255
-0.07035017 -0.07185587 0.2332427 255 0 255
-0.06365103 -0.07148625 0.2333303 255 0 255
-0.05484267 -0.06635093 0.225862 255 0 255
0.002181147 -0.0810395 0.2584918 255 0 255
-0.08993803 -0.05356749 0.2003264 255 0 255
-0.09005639 -0.05471374 0.2021529 255 0 255
-0.09401159 -0.06145679 0.2126761 255 0 255
-0.08639587 -0.06979028 0.226667 255 0 255
-0.08246565 -0.07098901 0.2289421 255 0 255
-0.07900874 -0.07150444 0.2300885 255 0 255
-0.07814164 -0.07162773 0.2303684 255 0 255
-0.07234225 -0.07294191 0.2330574 255 0 255
-0.0699906 -0.07376772 0.2346354 255 0 255
-0.06910426 -0.07386729 0.2348882 255 0 255
-0.06793449 -0.07344889 0.2343294 255 0 255
-0.06704994 -0.07354354 0.2345757 255 0 255
-0.06385577 -0.07277939 0.2336724 255 0 255
-0.05844912 -0.07110552 0.2315411 255 0 255
-0.05660056 -0.0691007 0.228482 255 0 255
-0.05454075 -0.06657158 0.224593 255 0 255
-0.002465678 -0.06250744 0.225321 255 0 255
0.004971117 -0.06135882 0.2247324 255 0 255
-0.0929845 -0.05886846 0.2070346 255 0 255
-0.0952139 -0.06367598 0.2145114 255 0 255
-0.09482848 -0.0678426 0.2211684 255 0 255
-0.09188391 -0.06899568 0.2232355 255 0 255
-0.0901157 -0.07047264 0.2257358 255 0 255
-0.08206087 -0.07125399 0.2276798 255 0 255
-0.0780813 -0.07240476 0.2298926 255 0 255
-0.07460091 -0.07287664 0.2309855 255 0 255
-0.07285421 -0.07309916 0.2315159 255 0 255
-0.06904112 -0.07465356 0.2344067 255 0 255
-0.06815358 -0.07475109 0.2346567 255 0 255
-0.06698664 -0.07432689 0.2340961 255 0 255
-0.0661009 -0.07441946 0.2343395 255 0 255
-0.06405949 -0.07407728 0.2340074 255 0 255
-0.06202948 -0.07372463 0.2336604 255 0 255
-0.05813765 -0.07134801 0.230257 255 0 255
-0.05056422 -0.0605698 0.2137032 255 0 255
-0.002403558 -0.06426566 0.2265904 255 0 255
-0.001566017 -0.06891114 0.2343012 255 0 255
0.0002893412 -0.07608923 0.2463136 255 0 255
0.003484587 -0.0643049 0.2276717 255 0 255
0.00497977 -0.06102533 0.2225936 255 0 255
-0.09284155 -0.05840783 0.2047709 255 0 255
-0.09519584 -0.06793062 0.2196071 255 0 255
-0.09394097 -0.06876785 0.2210271 255 0 255
-0.09137188 -0.07042459 0.2238534 255 0 255
-0.09090817 -0.07108894 0.2249431 255 0 255
-0.09005769 -0.07124387 0.2252595 255 0 255
-0.08749854 -0.07169543 0.2261928 255 0 255
-0.08200129 -0.0720245 0.2272039 255 0 255
-0.08028173 -0.0722866 0.2277792 255 0 255
-0.07975435 -0.07293002 0.2288519 255 0 255
-0.07888797 -0.07305604 0.2291342 255 0 255
-0.07715181 -0.0733014 0.2296909 255 0 255
-0.06954883 -0.07648177 0.2355297 255 0 255
-0.06631129 -0.07572424 0.2346636 255 0 255
-0.06222449 -0.07502498 0.2339922 255 0 255
-0.001492013 -0.06965748 0.233841 255 0 255
-0.0006018551 -0.07169465 0.2372819 255 0 255
0.003461775 -0.06292602 0.2238242 255 0 255
-0.09110633 -0.05409655 0.1966459 255 0 255
-0.09354753 -0.05893449 0.2040169 255 0 255
-0.09511948 -0.069866 0.2209896 255 0 255
-0.094284 -0.07003309 0.2213183 255 0 255
-0.09131394 -0.07118996 0.2233765 255 0 255
-0.08866453 -0.07283007 0.2261788 255 0 255
-0.08314805 -0.07317511 0.2272155 255 0 255
-0.07653931 -0.07471546 0.2302747 255 0 255
-0.07185786 -0.07811512 0.2361253 255 0 255
-0.07095693 -0.07821932 0.2363847 255 0 255
-0.003078369 -0.06416599 0.223118 255 0 255
0.001896665 -0.06430481 0.2241835 255 0 255
0.003388156 -0.06046294 0.2182924 255 0 255
-0.09512233 -0.06046334 0.2047515 255 0 255
-0.09622644 -0.06502292 0.2117293 255 0 255
-0.09630416 -0.06739687 0.2154035 255 0 255
-0.09548984 -0.0699455 0.2194235 255 0 255
-0.09465912 -0.07011437 0.2197531 255 0 255
-0.09382706 -0.07028107 0.2200802 255 0 255
-0.0912554 -0.07195339 0.2228967 255 0 255
-0.0894618 -0.07344949 0.225382 255 0 255
-0.08860468 -0.07360123 0.225694 255 0 255
-0.08566632 -0.07352479 0.2258385 255 0 255
-0.08394817 -0.07380693 0.2264366 255 0 255
-0.08308727 -0.07394468 0.2267317 255 0 255
-0.08049741 -0.07434446 0.2276013 255 0 255
-0.07534835 -0.0767751 0.2319138 255 0 255
-0.07388193 -0.07752827 0.2332442 255 0 255
-0.06790418 -0.07878267 0.2358456 255 0 255
-0.06466449 -0.07799903 0.2349697 255 0 255
-0.05794589 -0.07362102 0.2288406 255 0 255
-0.09626289 -0.0693311 0.2167729 255 0 255
-0.09585191 -0.07001517 0.2178593 255 0 255
-0.09081151 -0.0721978 0.2216493 255 0 255
-0.09025756 -0.07406408 0.22458 255 0 255
-0.08891441 -0.07489002 0.2259764 255 0 255
-0.08841869 -0.07556076 0.2270583 255 0 255
-0.08755152 -0.07570957 0.2273676 255 0 255
-0.08632393 -0.07533459 0.2269002 255 0 255
-0.08077257 -0.07563786 0.2278955 255 0 255
-0.08023646 -0.07629305 0.2289639 255 0 255
-0.07936207 -0.07642093 0.2292482 255 0 255
-0.07760987 -0.07666992 0.2298086 255 0 255
-0.06986281 -0.08160318 0.2382898 255 0 255
-0.06603362 -0.07975897 0.235837 255 0 255
-0.06370119 -0.07886898 0.2347102 255 0 255
-0.0600016 -0.07697605 0.2321781 255 0 255
-0.05812813 -0.07491044 0.2291702 255 0 255
-0.05279396 -0.0670111 0.2174579 255 0 255
-0.0004004987 -0.07128141 0.2316386 255 0 255
0.0003780819 -0.06585342 0.2232327 255 0 255
-0.09729849 -0.06132412 0.2028746 255 0 255
-0.09665571 -0.06270021 0.205018 255 0 255
-0.09738874 -0.06800835 0.2130476 255 0 255
-0.09700292 -0.06869785 0.2141304 255 0 255
-0.0957942 -0.07076266 0.2173814 255 0 255
-0.09494565 -0.07213584 0.2195506 255 0 255
-0.09327221 -0.07246972 0.2202043 255 0 255
-0.09075201 -0.07295399 0.2211657 255 0 255
-0.08799069 -0.07581121 0.225794 255 0 255
-0.08748958 -0.07648384 0.2268723 255 0 255
-0.08575112 -0.07677528 0.2274826 255 0 255
-0.0836598 -0.07653102 0.2273066 255 0 255
-0.08083951 -0.07812396 0.2300306 255 0 255
-0.0778681 -0.07797433 0.2300977 255 0 255
-0.07494881 -0.07951298 0.2327683 255 0 255
-0.07375982 -0.08080485 0.2348852 255 0 255
-0.07344832 -0.08198255 0.236735 255 0 255
-0.06768896 -0.08206225 0.2374849 255 0 255
-0.06650537 -0.08161953 0.2369327 255 0 255
-0.06132847 -0.07874142 0.2330691 255 0 255
-0.05597671 -0.07304287 0.2248709 255 0 255
-0.005186984 -0.06156621 0.2140766 255 0 255
-0.0029984 -0.07761625 0.2394564 255 0 255
0.001989735 -0.06264699 0.2169497 255 0 255
-0.09835406 -0.06544986 0.2075212 255 0 255
-0.09851002 -0.06786568 0.2111586 255 0 255
-0.09733214 -0.06873962 0.212576 255 0 255
-0.09490956 -0.07167945 0.2172306 255 0 255
-0.09365156 -0.07253614 0.2186381 255 0 255
-0.09281758 -0.07270159 0.2189621 255 0 255
-0.09153347 -0.07354867 0.2203614 255 0 255
-0.08778937 -0.07778352 0.2271426 255 0 255
-0.08604319 -0.07807674 0.2277551 255 0 255
-0.0757756 -0.08017947 0.2319919 255 0 255
-0.07399233 -0.08213127 0.2351646 255 0 255
-0.07270806 -0.08514638 0.2399167 255 0 255
-0.06499472 -0.08142163 0.2350685 255 0 255
-0.05775016 -0.07587653 0.227398 255 0 255
-0.004630012 -0.07415469 0.2321492 255 0 255
-0.003859757 -0.08007854 0.2414298 255 0 255
-0.002962108 -0.08218859 0.2448374 255 0 255
0.0004912749 -0.06562866 0.219813 255 0 255
0.004175277 -0.07400361 0.2333756 255 0 255
-0.1001919 -0.06509148 0.2053038 255 0 255
-0.09897154 -0.06476475 0.2049118 255 0 255
-0.09931472 -0.06962521 0.2121662 255 0 255
-0.09893441 -0.07032534 0.2132478 255 0 255
-0.09608926 -0.07155699 0.2153373 255 0 255
-0.09485046 -0.07242332 0.2167466 255 0 255
-0.08978813 -0.07461799 0.2205047 255 0 255
-0.08932045 -0.07530151 0.2215782 255 0 255
-0.08633415 -0.07938266 0.2280203 255 0 255
-0.08170808 -0.08128344 0.2313531 255 0 255
-0.07691512 -0.08137912 0.2319924 255 0 255
-0.07298363 -0.0847642 0.2375467 255 0 255
-0.07105915 -0.08670612 0.2407071 255 0 255
-0.06809708 -0.08473515 0.238045 255 0 255
-0.06663717 -0.08374372 0.2367035 255 0 255
-0.06119333 -0.08028444 0.2320693 255 0 255
-0.05955081 -0.07872932 0.229895 255 0 255
-0.05768405 -0.0766244 0.2269112 255 0 255
-0.05487743 -0.07233146 0.2207089 255 0 255
-0.001951595 -0.08509496 0.2477234 255 0 255
-0.001019567 -0.080106 0.2402319 255 0 255
0.0005617631 -0.06631732 0.2193656 255 0 255
0.003260432 -0.07210039 0.2286761 255 0 255
-0.1003481 -0.0682411 0.2084535 255 0 255
-0.1004304 -0.06946488 0.2102654 255 0 255
-0.09930307 -0.07157989 0.2135057 255 0 255
-0.09313332 -0.07350242 0.2169116 255 0 255
-0.09269716 -0.07419565 0.2179858 255 0 255
-0.08972664 -0.07536848 0.2200122 255 0 255
-0.08925851 -0.07605551 0.2210833 255 0 255
-0.08829656 -0.07742687 0.223226 255 0 255
-0.08853358 -0.0791777 0.2258232 255 0 255
-0.08786355 -0.08108027 0.2287367 255 0 255
-0.08697844 -0.08122814 0.2290451 255 0 255
-0.08555158 -0.08205331 0.2304231 255 0 255
-0.08376529 -0.08233403 0.2310235 255 0 255
-0.08230644 -0.08314406 0.2323874 255 0 255
-0.07716198 -0.08270174 0.2322597 255 0 255
-0.07314339 -0.08784926 0.2404378 255 0 255
-0.07249012 -0.08850133 0.2414922 255 0 255
-0.0700531 -0.08761747 0.2404345 255 0 255
-0.06857194 -0.08662447 0.2391061 255 0 255
-0.005358847 -0.07568694 0.2311329 255 0 255
-0.0009407931 -0.08087514 0.2397277 255 0 255
0.003490843 -0.07665946 0.2340555 255 0 255
-0.09344076 -0.05680322 0.1906411 255 0 255
-0.1009767 -0.0675397 0.205831 255 0 255
-0.101247 -0.07123262 0.2112513 255 0 255
-0.09967057 -0.07283887 0.2137565 255 0 255
-0.09720675 -0.07338179 0.2147745 255 0 255
-0.09638265 -0.07355841 0.2151089 255 0 255
-0.08815584 -0.08239733 0.2289842 255 0 255
-0.08762106 -0.0830845 0.2300583 255 0 255
-0.08527876 -0.08405887 0.2317427 255 0 255
-0.08199447 -0.08514961 0.2337043 255 0 255
-0.07862706 -0.08444966 0.2330167 255 0 255
-0.07712384 -0.08523954 0.2343549 255 0 255
-0.07435387 -0.08734363 0.2377952 255 0 255
-0.0740083 -0.08854964 0.2396333 255 0 255
-0.07298537 -0.09041143 0.2425272 255 0 255
-0.07025757 -0.08897409 0.2406887 255 0 255
-0.06246238 -0.08283828 0.2324165 255 0 255
-0.06080316 -0.08126794 0.2302625 255 0 255
-0.0518469 -0.06714122 0.2101876 255 0 255
0.0007031279 -0.0676892 0.2184625 255 0 255
-0.1011881 -0.07196113 0.2107652 255 0 255
-0.09754995 -0.0734105 0.2132083 255 0 255
-0.09549642 -0.07447036 0.2149485 255 0 255
-0.09173829 -0.07584611 0.2173186 255 0 255
-0.09128773 -0.07654411 0.2183872 255 0 255
-0.0868044 -0.08578923 0.232443 255 0 255
-0.08623961 -0.08647706 0.2335154 255 0 255
-0.08566617 -0.08716366 0.2345876 255 0 255
-0.08290994 -0.08757889 0.2354887 255 0 255
-0.07890496 -0.08755113 0.2358755 255 0 255
-0.06924487 -0.089883 0.2404054 255 0 255
-0.0604814 -0.0814744 0.2289616 255 0 255
-0.05478488 -0.07274813 0.2166924 255 0 255
-0.004615161 -0.08991537 0.2493068 255 0 255
-0.002668404 -0.08866794 0.247755 255 0 255
-0.00170065 -0.08247641 0.2386656 255 0 255
-2.343453E-06 -0.07177366 0.2229593 255 0 255
-0.09788075 -0.06332853 0.196984 255 0 255
-0.09984061 -0.06666292 0.2016489 255 0 255
-0.09954999 -0.07430865 0.2127715 255 0 255
-0.0987298 -0.07449248 0.2131128 255 0 255
-0.09543498 -0.07520587 0.2144534 255 0 255
-0.08927138 -0.0843479 0.2283852 255 0 255
-0.08854758 -0.08628467 0.2312895 255 0 255
-0.08834217 -0.08752502 0.2331242 255 0 255
-0.08777452 -0.08821934 0.2341982 255 0 255
-0.08661321 -0.08960429 0.2363455 255 0 255
-0.08163662 -0.08974393 0.2370792 255 0 255
-0.07914871 -0.09067845 0.2387199 255 0 255
-0.07821034 -0.09080175 0.239004 255 0 255
-0.05423031 -0.07233529 0.2146332 255 0 255
-0.006191469 -0.08298984 0.2370582 255 0 255
-0.00355503 -0.09009486 0.2479929 255 0 255
-0.002560545 -0.08610659 0.2422469 255 0 255
3.273723E-05 -0.06967879 0.2183427 255 0 255
-0.1002593 -0.07360116 0.21013 255 0 255
-0.09700932 -0.07433572 0.2114874 255 0 255
-0.09328397 -0.07699226 0.2156763 255 0 255
-0.092449 -0.07715954 0.2159989 255 0 255
-0.08926976 -0.08084101 0.2216401 255 0 255
-0.07619689 -0.09363645 0.2416208 255 0 255
-0.07031433 -0.09195212 0.2398419 255 0 255
-0.06367121 -0.08617801 0.2322036 255 0 255
-0.06174 -0.08402243 0.2292891 255 0 255
-0.05983829 -0.08186168 0.226364 255 0 255
-0.003464198 -0.09033138 0.2466242 255 0 255
0.0001199241 -0.07148642 0.2195332 255 0 255
-0.09981684 -0.07504738 0.2107049 255 0 255
-0.09860633 -0.07595479 0.212116 255 0 255
-0.09736605 -0.07559846 0.211723 255 0 255
-0.09448277 -0.07684425 0.2137832 255 0 255
-0.09322057 -0.07772781 0.2151726 255 0 255
-0.09277862 -0.0784393 0.2162364 255 0 255
-0.09006508 -0.081437 0.2208101 255 0 255
-0.08936221 -0.09257827 0.2369018 255 0 255
-0.08816218 -0.09398302 0.2390519 255 0 255
-0.08721455 -0.09412921 0.2393642 255 0 255
-0.08468752 -0.09510875 0.2410498 255 0 255
-0.08373117 -0.09524552 0.2413519 255 0 255
-0.06334019 -0.086385 0.2308916 255 0 255
-0.0566568 -0.07760506 0.2189913 255 0 255
-0.05214597 -0.06920508 0.2073808 255 0 255
-0.007430037 -0.07552285 0.22274 255 0 255
-0.006246207 -0.09074715 0.2450807 255 0 255
0.00380882 -0.1035887 0.2653659 255 0 255
-0.1008747 -0.07358927 0.207005 255 0 255
-0.09812199 -0.07614187 0.2108857 255 0 255
-0.09359036 -0.07774555 0.2136052 255 0 255
-0.09187392 -0.07934268 0.2160486 255 0 255
-0.09141801 -0.08005536 0.217109 255 0 255
-0.09037352 -0.08273879 0.2210373 255 0 255
-0.0895935 -0.08597035 0.2257243 255 0 255
-0.08747509 -0.09550479 0.2395591 255 0 255
-0.08685291 -0.09620728 0.2406307 255 0 255
-0.07729807 -0.09571248 0.2409917 255 0 255
-0.07138774 -0.09402107 0.2392528 255 0 255
-0.06694052 -0.09093075 0.2353471 255 0 255
-0.0608323 -0.08383457 0.2258991 255 0 255
-0.05869236 -0.08107982 0.2222046 255 0 255
-0.006239414 -0.0938198 0.2478193 255 0 255
-0.0005863044 -0.07064746 0.215263 255 0 255
0.00140932 -0.0870066 0.2391891 255 0 255
-0.1015181 -0.07283676 0.2043845 255 0 255
-0.09642027 -0.07722685 0.2110529 255 0 255
-0.09559881 -0.0774046 0.2113844 255 0 255
-0.094776 -0.07758018 0.2117135 255 0 255
-0.09435532 -0.07830159 0.2127728 255 0 255
-0.09264911 -0.07991115 0.2152158 255 0 255
-0.09219772 -0.08062885 0.2162749 255 0 255
-0.09135239 -0.08079401 0.2165946 255 0 255
-0.09126922 -0.08206169 0.2183939 255 0 255
-0.09079207 -0.08277682 0.2194536 255 0 255
-0.08967616 -0.08547168 0.2233797 255 0 255
-0.09007641 -0.08912003 0.2284982 255 0 255
-0.08801438 -0.09561651 0.237919 255 0 255
-0.08677778 -0.09702983 0.2400578 255 0 255
-0.08486072 -0.09731309 0.2406722 255 0 255
-0.08008789 -0.09615643 0.2395685 255 0 255
-0.07501718 -0.09619621 0.2402081 255 0 255
-0.06660007 -0.0911466 0.2340225 255 0 255
-0.06267854 -0.08677325 0.228272 255 0 255
-0.006211201 -0.09634201 0.2497184 255 0 255
-0.005226078 -0.09627996 0.2497819 255 0 255
-0.004133958 -0.09047988 0.2416513 255 0 255
-0.001328531 -0.07309806 0.2172155 255 0 255
-0.1026959 -0.07388443 0.2042545 255 0 255
-0.1015507 -0.07481765 0.2056653 255 0 255
-0.09920035 -0.0766683 0.2084764 255 0 255
-0.0979953 -0.07758554 0.2098765 255 0 255
-0.09258348 -0.08064396 0.2147013 255 0 255
-0.0907247 -0.08352349 0.2189293 255 0 255
-0.09023853 -0.08424116 0.2199867 255 0 255
-0.08945476 -0.0875062 0.2246502 255 0 255
-0.09016953 -0.09173599 0.2305105 255 0 255
-0.08983197 -0.09612823 0.2367159 255 0 255
-0.08223209 -0.09727459 0.2391754 255 0 255
-0.07780251 -0.09665077 0.2388048 255 0 255
-0.07123674 -0.09562613 0.2381301 255 0 255
-0.06825963 -0.09354523 0.2355505 255 0 255
-0.06455162 -0.08972973 0.2306138 255 0 255
-0.05225011 -0.06997927 0.2042357 255 0 255
-0.007067072 -0.09605405 0.247453 255 0 255
-0.101488 -0.07552493 0.2051647 255 0 255
-0.1003223 -0.07645676 0.2065693 255 0 255
-0.09913663 -0.07738324 0.2079704 255 0 255
-0.09793097 -0.07830425 0.2093677 255 0 255
-0.09629174 -0.07866766 0.2100371 255 0 255
-0.09505343 -0.07957583 0.2114236 255 0 255
-0.09065674 -0.08426798 0.2184021 255 0 255
-0.08990424 -0.08755132 0.223051 255 0 255
-0.09058858 -0.09493457 0.2332579 255 0 255
-0.08752705 -0.09667437 0.2360214 255 0 255
-0.08534157 -0.09824325 0.2384551 255 0 255
-0.0723886 -0.09689167 0.23807 255 0 255
-0.06645145 -0.09270371 0.2329242 255 0 255
-0.008225928 -0.08301584 0.2272288 255 0 255
-0.007754278 -0.09226196 0.2403104 255 0 255
-0.004957972 -0.09383082 0.2429451 255 0 255
-0.003889899 -0.08738824 0.2340437 255 0 255
-0.1025711 -0.0752894 0.203256 255 0 255
-0.1014248 -0.07623021 0.2046613 255 0 255
-0.1006249 -0.07642395 0.2050071 255 0 255
-0.09864455 -0.07754413 0.2067457 255 0 255
-0.0974455 -0.07846732 0.2081373 255 0 255
-0.09415948 -0.08047194 0.2112362 255 0 255
-0.09372894 -0.08120303 0.2122885 255 0 255
-0.09289443 -0.0813744 0.2126123 255 0 255
-0.09068571 -0.08372302 0.2160854 255 0 255
-0.09003882 -0.09016367 0.2250463 255 0 255
-0.09086566 -0.09629965 0.2334329 255 0 255
-0.08968115 -0.0977466 0.2355649 255 0 255
-0.08398836 -0.1004792 0.2399914 255 0 255
-0.07920787 -0.09928757 0.2388954 255 0 255
-0.07728799 -0.0995351 0.2394638 255 0 255
-0.07632636 -0.09965511 0.2397438 255 0 255
-0.07507527 -0.09919633 0.2392561 255 0 255
-0.07231165 -0.09769142 0.2374988 255 0 255
-0.008325476 -0.08724178 0.2315808 255 0 255
-0.006898003 -0.09764929 0.2463193 255 0 255
0.003276235 -0.1545873 0.3273416 255 0 255
-0.1021594 -0.07673716 0.2038075 255 0 255
-0.1013608 -0.07693341 0.2041553 255 0 255
-0.100194 -0.07787281 0.2055545 255 0 255
-0.09981861 -0.07861761 0.2066087 255 0 255
-0.09282739 -0.08209742 0.2120918 255 0 255
-0.09238289 -0.08282965 0.2131408 255 0 255
-0.09192979 -0.08356113 0.2141901 255 0 255
-0.09099787 -0.08502159 0.2162893 255 0 255
-0.09003152 -0.08647851 0.2183892 255 0 255
-0.09122352 -0.0945017 0.2292497 255 0 255
-0.09136988 -0.09636968 0.2317938 255 0 255
-0.08960485 -0.09855229 0.2349848 255 0 255
-0.08487486 -0.1011568 0.2390998 255 0 255
-0.07223421 -0.09848883 0.2369245 255 0 255
-0.06923931 -0.09637855 0.234383 255 0 255
-0.05819021 -0.08228543 0.2163341 255 0 255
-0.006770974 -0.09726924 0.2441292 255 0 255
-0.003618772 -0.0818401 0.2232572 255 0 255
-0.002745496 -0.08119481 0.2224977 255 0 255
0.001792517 -0.1423539 0.3078309 255 0 255
-0.09975313 -0.07932594 0.2060947 255 0 255
-0.09691501 -0.08063164 0.20816 255 0 255
-0.09568143 -0.08155476 0.2095418 255 0 255
-0.09399292 -0.08321077 0.2119681 255 0 255
-0.09033436 -0.08778943 0.2185834 255 0 255
-0.09078825 -0.09153405 0.2236218 255 0 255
-0.09012538 -0.09862588 0.2333407 255 0 255
-0.08918428 -0.09878097 0.2336588 255 0 255
-0.08478434 -0.1038468 0.2410651 255 0 255
-0.08056515 -0.1038058 0.2415065 255 0 255
-0.07549391 -0.101972 0.2396117 255 0 255
-0.07243636 -0.09986736 0.2371094 255 0 255
-0.06294868 -0.08984846 0.2245919 255 0 255
-0.009106612 -0.07461986 0.2110374 255 0 255
-0.008196951 -0.08930402 0.2313237 255 0 255
-0.007483659 -0.09397751 0.237844 255 0 255
-0.00444971 -0.08436924 0.2251161 255 0 255
-0.003516091 -0.08077419 0.2203242 255 0 255
-0.002670023 -0.08189428 0.2219901 255 0 255
-0.0008440119 -0.1023744 0.2503753 255 0 255
-0.09848556 -0.08097187 0.2069676 255 0 255
-0.09766752 -0.08115817 0.207305 255 0 255
-0.09643978 -0.08208868 0.2086875 255 0 255
-0.09561396 -0.08226912 0.209019 255 0 255
-0.09435992 -0.0831902 0.2103939 255 0 255
-0.09308601 -0.08410534 0.2117645 255 0 255
-0.09123895 -0.09155945 0.2220126 255 0 255
-0.07783675 -0.1055875 0.2425264 255 0 255
-0.07444606 -0.1028961 0.2392948 255 0 255
-0.06653549 -0.09451707 0.2289183 255 0 255
-0.0560235 -0.07897785 0.2091709 255 0 255
-0.007279873 -0.09177012 0.2332655 255 0 255
-0.003432607 -0.0808726 0.2190131 255 0 255
-0.1027616 -0.07863379 0.2019246 255 0 255
-0.1008022 -0.07978743 0.203668 255 0 255
-0.1000503 -0.08129983 0.2057638 255 0 255
-0.09884126 -0.08224491 0.2071537 255 0 255
-0.09192719 -0.08894176 0.2168568 255 0 255
-0.0918122 -0.09025802 0.2186298 255 0 255
-0.09168128 -0.09157473 0.2204055 255 0 255
-0.09246688 -0.09594038 0.2261566 255 0 255
-0.08785696 -0.1037393 0.237133 255 0 255
-0.08624104 -0.1065144 0.2410435 255 0 255
-0.08589137 -0.1078272 0.2428452 255 0 255
-0.08521221 -0.108554 0.2439008 255 0 255
-0.08452435 -0.1092793 0.2449558 255 0 255
-0.08321605 -0.10883 0.24451 255 0 255
-0.07077146 -0.1003859 0.234688 255 0 255
-0.05882683 -0.08431066 0.2145721 255 0 255
-0.007079334 -0.08952886 0.2287073 255 0 255
-0.004210351 -0.08161461 0.2184544 255 0 255
-0.00257983 -0.09162551 0.2322125 255 0 255
-0.001672986 -0.1082294 0.2547611 255 0 255
-0.098773 -0.08295372 0.2066264 255 0 255
-0.09754345 -0.08389694 0.2080096 255 0 255
-0.09458093 -0.08651645 0.2118077 255 0 255
-0.09327791 -0.08743975 0.2131776 255 0 255
-0.09261397 -0.0908339 0.2177541 255 0 255
-0.09235202 -0.09348267 0.2212984 255 0 255
-0.08806989 -0.1032271 0.2347388 255 0 255
-0.08777659 -0.1045488 0.2365306 255 0 255
-0.08713935 -0.1052839 0.2375836 255 0 255
-0.0861254 -0.1092444 0.2429723 255 0 255
-0.08505928 -0.1112933 0.2458267 255 0 255
-0.08404924 -0.1114319 0.2461331 255 0 255
-0.08042317 -0.1106493 0.2455319 255 0 255
-0.07541656 -0.106875 0.2411191 255 0 255
-0.06504319 -0.09306344 0.2240015 255 0 255
-0.009390906 -0.08499213 0.2207709 255 0 255
-0.004940624 -0.0805539 0.2154899 255 0 255
-0.004147507 -0.08289782 0.2187461 255 0 255
-0.002571534 -0.1031405 0.2460805 255 0 255
-0.1026284 -0.08001999 0.2008894 255 0 255
-0.0978822 -0.0838485 0.2064345 255 0 255
-0.09622397 -0.08554853 0.2088531 255 0 255
-0.09535479 -0.08705992 0.2109377 255 0 255
-0.09377253 -0.09981629 0.2279074 255 0 255
-0.09145329 -0.1028145 0.2321291 255 0 255
-0.08955664 -0.103132 0.2327713 255 0 255
-0.08894502 -0.1038746 0.2338229 255 0 255
-0.08703698 -0.109929 0.242038 255 0 255
-0.08325439 -0.1130011 0.2465523 255 0 255
-0.06613595 -0.09430146 0.2239594 255 0 255
-0.05586649 -0.07912263 0.2051794 255 0 255
-0.003390814 -0.09737618 0.2366468 255 0 255
-0.002569071 -0.1177759 0.2638536 255 0 255
-0.1002267 -0.08264244 0.2031418 255 0 255
-0.09739824 -0.08665395 0.2086871 255 0 255
-0.09656118 -0.08683804 0.2090219 255 0 255
-0.09612688 -0.08759828 0.2100629 255 0 255
-0.09562941 -0.08969644 0.2128573 255 0 255
-0.09469329 -0.091213 0.214944 255 0 255
-0.09498445 -0.09313431 0.2174189 255 0 255
-0.09511842 -0.09639925 0.2216671 255 0 255
-0.09384809 -0.1025253 0.2298202 255 0 255
-0.09290801 -0.1026925 0.2301495 255 0 255
-0.08683531 -0.1146127 0.2464766 255 0 255
-0.08509844 -0.1154923 0.2478413 255 0 255
-0.07440343 -0.1067035 0.2376462 255 0 255
-0.07148 -0.1026248 0.2326638 255 0 255
-0.06805878 -0.09733843 0.2261605 255 0 255
-0.06497558 -0.09264182 0.2203885 255 0 255
-0.05323964 -0.07376714 0.1971125 255 0 255
-0.01071887 -0.08281676 0.2148192 255 0 255
-0.01033905 -0.09006344 0.2244161 255 0 255
-0.003459966 -0.1108424 0.2527911 255 0 255
-0.1016949 -0.08159851 0.2001919 255 0 255
-0.1005308 -0.08256765 0.2015746 255 0 255
-0.09857877 -0.0864125 0.2067669 255 0 255
-0.0968124 -0.09082399 0.2126787 255 0 255
-0.09674628 -0.09217136 0.214431 255 0 255
-0.09617724 -0.0989174 0.2232368 255 0 255
-0.09223925 -0.1042366 0.2306002 255 0 255
-0.09069026 -0.1051529 0.2319747 255 0 255
-0.08878537 -0.115161 0.2451999 255 0 255
-0.08016755 -0.1131453 0.2436434 255 0 255
-0.07028623 -0.1009938 0.2290773 255 0 255
-0.01121175 -0.07986127 0.209488 255 0 255
-0.006558862 -0.08693114 0.2193998 255 0 255
-0.004268494 -0.1044243 0.2425834 255 0 255
-0.003583532 -0.1305217 0.2767683 255 0 255
-0.101626 -0.0822845 0.1996648 255 0 255
-0.09849382 -0.08576737 0.2044902 255 0 255
-0.0980467 -0.09796406 0.2202095 255 0 255
-0.09739088 -0.1000928 0.2230235 255 0 255
-0.09685538 -0.1008618 0.2240758 255 0 255
-0.0948295 -0.1025708 0.2265149 255 0 255
-0.08999704 -0.1067005 0.2324122 255 0 255
-0.08971477 -0.1158494 0.2442327 255 0 255
-0.08594862 -0.1170425 0.2462355 255 0 255
-0.08299489 -0.1155157 0.2446342 255 0 255
-0.07549509 -0.1087859 0.2368929 255 0 255
-0.01111583 -0.09213358 0.2240435 255 0 255
-0.009631829 -0.09756809 0.2312981 255 0 255
-0.008610555 -0.09568212 0.2290038 255 0 255
-0.005705834 -0.0906301 0.2228843 255 0 255
-0.1031511 -0.08256317 0.1984371 255 0 255
-0.101114 -0.08238995 0.1984497 255 0 255
-0.09719031 -0.08742701 0.2053183 255 0 255
-0.09786299 -0.09403957 0.213668 255 0 255
-0.09899445 -0.1018586 0.2235063 255 0 255
-0.09715382 -0.1022234 0.2241912 255 0 255
-0.09030602 -0.1100509 0.2350172 255 0 255
-0.08719594 -0.1183435 0.2460038 255 0 255
-0.08260703 -0.1157432 0.2432513 255 0 255
-0.07911631 -0.1129769 0.2401506 255 0 255
-0.06508521 -0.09349373 0.2169895 255 0 255
-0.06204735 -0.08871928 0.2112637 255 0 255
-0.05615065 -0.07914358 0.1997558 255 0 255
-0.01128652 -0.09654112 0.2282118 255 0 255
-0.009549808 -0.09830388 0.2307277 255 0 255
-0.09951466 -0.08482632 0.2003185 255 0 255
-0.09913517 -0.0856051 0.201347 255 0 255
-0.09711784 -0.08812644 0.2047719 255 0 255
-0.09818627 -0.09536194 0.2137975 255 0 255
-0.09293956 -0.1064285 0.2284451 255 0 255
-0.09269781 -0.1077962 0.230208 255 0 255
-0.09119438 -0.1106941 0.2340664 255 0 255
-0.09058066 -0.113426 0.2376065 255 0 255
-0.08546384 -0.1181157 0.2441947 255 0 255
-0.07659014 -0.1108661 0.2361134 255 0 255
-0.06699484 -0.09654995 0.2191557 255 0 255
-0.05820032 -0.08276129 0.2027677 255 0 255
-0.05450935 -0.07610409 0.1947847 255 0 255
-0.01231796 -0.07815098 0.2031292 255 0 255
-0.01189844 -0.09420546 0.2236469 255 0 255
-0.008301008 -0.09403709 0.223951 255 0 255
-0.006652745 -0.09826995 0.2295841 255 0 255
-0.005164412 -0.1796753 0.3335415 255 0 255
-0.09829449 -0.104176 0.2233505 255 0 255
-0.09699243 -0.1037596 0.222986 255 0 255
-0.09644333 -0.1045384 0.2240317 255 0 255
-0.09213072 -0.1133108 0.2355938 255 0 255
-0.09116022 -0.1154525 0.2384094 255 0 255
-0.09046549 -0.1181985 0.2419519 255 0 255
-0.08977185 -0.1189625 0.2430005 255 0 255
-0.08875125 -0.1191158 0.2433219 255 0 255
-0.08639535 -0.1188043 0.2432268 255 0 255
-0.08374598 -0.1178687 0.242384 255 0 255
-0.06949217 -0.1008501 0.2227644 255 0 255
-0.06055286 -0.08701634 0.2064815 255 0 255
-0.01266893 -0.08376344 0.2088776 255 0 255
-0.008192244 -0.09412134 0.222612 255 0 255
-0.004014866 -0.2285175 0.3930999 255 0 255
-0.1001062 -0.08461884 0.1971948 255 0 255
-0.09974301 -0.08540522 0.1982167 255 0 255
-0.09736423 -0.08736072 0.2009365 255 0 255
-0.09745603 -0.09898949 0.2154123 255 0 255
-0.09783208 -0.104342 0.2220386 255 0 255
-0.09419293 -0.1104117 0.2300594 255 0 255
-0.09274201 -0.1173257 0.2388701 255 0 255
-0.07202945 -0.1051763 0.2263263 255 0 255
-0.01254164 -0.09440017 0.2208914 255 0 255
-0.01012375 -0.09866513 0.2265842 255 0 255
-0.007206211 -0.1602596 0.3042305 255 0 255
-0.006692572 -0.1982682 0.3519602 255 0 255
-0.004009152 -0.2479784 0.4146765 255 0 255
-0.09967076 -0.08608101 0.1976759 255 0 255
-0.09647546 -0.08823282 0.2007228 255 0 255
-0.09606756 -0.09039824 0.2034492 255 0 255
-0.09552594 -0.1136356 0.2322665 255 0 255
-0.08165426 -0.1178013 0.2391907 255 0 255
-0.07460657 -0.109528 0.229841 255 0 255
-0.06178045 -0.08949844 0.2066617 255 0 255
-0.01329437 -0.08445883 0.2069877 255 0 255
-0.01192419 -0.1000929 0.2266248 255 0 255
-0.00811618 -0.1205999 0.2526725 255 0 255
-0.005601193 -0.2420278 0.404052 255 0 255
-0.09803142 -0.08853303 0.1995053 255 0 255
-0.09681755 -0.08951337 0.2008571 255 0 255
-0.09563425 -0.09943321 0.2131766 255 0 255
-0.09712184 -0.1066534 0.2218552 255 0 255
-0.09835605 -0.1138984 0.2305976 255 0 255
-0.09784428 -0.1167028 0.2341071 255 0 255
-0.0766413 -0.1126614 0.2318538 255 0 255
-0.05791775 -0.08339464 0.1982795 255 0 255
-0.01366545 -0.09016138 0.2126494 255 0 255
-0.01271712 -0.100216 0.2251867 255 0 255
-0.01184208 -0.100811 0.226045 255 0 255
-0.008290313 -0.2133893 0.3654321 255 0 255
-0.005514642 -0.2491116 0.4098995 255 0 255
-0.09909092 -0.08682786 0.1959125 255 0 255
-0.09714277 -0.08940321 0.1992885 255 0 255
-0.09591692 -0.09177753 0.2023319 255 0 255
-0.09549116 -0.09256765 0.2033473 255 0 255
-0.0950115 -0.09475224 0.2060677 255 0 255
-0.0949504 -0.09614813 0.2077756 255 0 255
-0.09487344 -0.09754477 0.2094865 255 0 255
-0.09530631 -0.1029587 0.2160277 255 0 255
-0.09682707 -0.1197107 0.2362533 255 0 255
-0.09482051 -0.1200583 0.2369338 255 0 255
-0.08977985 -0.1208796 0.2385835 255 0 255
-0.08712037 -0.1199469 0.237789 255 0 255
-0.08579985 -0.1194748 0.2373839 255 0 255
-0.08510444 -0.1202433 0.2384118 255 0 255
-0.07870189 -0.1158095 0.2338328 255 0 255
-0.07242745 -0.106687 0.2235158 255 0 255
-0.01345131 -0.0996924 0.2229784 255 0 255
-0.01175977 -0.1015268 0.2254624 255 0 255
-0.01071836 -0.09958203 0.2232302 255 0 255
-0.009700399 -0.09763595 0.2209933 255 0 255
-0.008990551 -0.1014006 0.2257009 255 0 255
-0.00541348 -0.2556123 0.4149231 255 0 255
-0.1008584 -0.08489428 0.1919975 255 0 255
-0.09901713 -0.08749404 0.1953664 255 0 255
-0.09826898 -0.08909011 0.1973878 255 0 255
