ply
format ascii 1.0
Comment Generated by Floating Hands
element vertex 1118
property double x
property double y
property double z
property uchar red
property uchar green
property uchar blue
end_header
-0.01654764 -0.06214668 0.2555604 255 0 255
-0.00722553 -0.04621278 0.2259291 255 0 255
0.004512708 -0.05051287 0.2371546 255 0 255
0.006878588 -0.04799055 0.2327264 255 0 255
0.007671501 -0.04744561 0.2318407 255 0 255
0.0109475 -0.04658549 0.2309537 255 0 255
0.01943419 -0.04628564 0.2325724 255 0 255
0.02174957 -0.04864425 0.2378651 255 0 255
0.02677665 -0.05372624 0.2492971 255 0 255
0.03339871 -0.06578912 0.2749913 255 0 255
0.04680858 -0.0664321 0.2801681 255 0 255
0.05175049 -0.06028607 0.2695918 255 0 255
0.05372322 -0.05983943 0.2693311 255 0 255
0.05591505 -0.05979759 0.2699402 255 0 255
0.0591075 -0.05950487 0.270385 255 0 255
0.06205847 -0.05689888 0.2662418 255 0 255
-0.1278641 -0.06662623 0.2490952 255 0 255
-0.1186831 -0.06232904 0.2414548 255 0 255
-0.1098123 -0.05896382 0.2355776 255 0 255
-0.1058807 -0.05922533 0.2362901 255 0 255
-0.1025036 -0.08538435 0.2862985 255 0 255
-0.06988963 -0.07698025 0.2736719 255 0 255
-0.06861038 -0.07658913 0.2730784 255 0 255
-0.06063319 -0.07326229 0.2676889 255 0 255
-0.03639346 -0.05299935 0.2318573 255 0 255
-0.0355466 -0.0530029 0.2320042 255 0 255
-0.03256347 -0.05437757 0.2351969 255 0 255
-0.02021036 -0.06910761 0.2663617 255 0 255
-0.01306391 -0.05734615 0.2447257 255 0 255
-0.001374949 -0.05779485 0.2481533 255 0 255
0.004030932 -0.05634214 0.2465561 255 0 255
0.004871438 -0.05534245 0.2447925 255 0 255
0.01133848 -0.0495686 0.2350374 255 0 255
0.01458075 -0.04822157 0.233217 255 0 255
0.03660677 -0.07305227 0.287804 255 0 255
0.0492883 -0.06268719 0.2712732 255 0 255
0.05724173 -0.06088425 0.2702244 255 0 255
0.05823196 -0.06064831 0.2700787 255 0 255
0.06217154 -0.05778879 0.2657946 255 0 255
0.06238161 -0.05631203 0.2630036 255 0 255
0.06011726 -0.04308034 0.2366819 255 0 255
-0.1250209 -0.06604739 0.2459583 255 0 255
-0.1027067 -0.06117606 0.2381119 255 0 255
-0.1089063 -0.08853401 0.2891882 255 0 255
-0.06926029 -0.07892522 0.2751491 255 0 255
-0.06223409 -0.07552527 0.2695532 255 0 255
-0.05689982 -0.07293369 0.2653122 255 0 255
-0.02096315 -0.07554983 0.2765107 255 0 255
-0.01945845 -0.07226543 0.2704265 255 0 255
-0.01661163 -0.0656977 0.2582322 255 0 255
-0.01148308 -0.05165086 0.231974 255 0 255
0.006823773 -0.05685103 0.2461954 255 0 255
0.02906323 -0.06655859 0.2707421 255 0 255
0.03783586 -0.07752924 0.294413 255 0 255
0.05614014 -0.06160109 0.2690282 255 0 255
0.06253436 -0.05909139 0.2662189 255 0 255
0.06102092 -0.04073199 0.2305861 255 0 255
-0.1066436 -0.06075345 0.2350413 255 0 255
-0.1044196 -0.06170246 0.2369426 255 0 255
-0.1030528 -0.06247418 0.2384676 255 0 255
-0.09385901 -0.0854977 0.282396 255 0 255
-0.08969614 -0.08447269 0.2809012 255 0 255
-0.08832081 -0.08412399 0.2803916 255 0 255
-0.08237923 -0.08371383 0.2802855 255 0 255
-0.08103031 -0.08334579 0.279746 255 0 255
-0.07781813 -0.08361018 0.2806326 255 0 255
-0.06990784 -0.08128018 0.2772053 255 0 255
-0.0596821 -0.07562587 0.2678228 255 0 255
-0.04876841 -0.06890907 0.2565949 255 0 255
-0.03510297 -0.05360784 0.2294683 255 0 255
-0.0337089 -0.05454377 0.2314963 255 0 255
-0.02714114 -0.05911549 0.2414263 255 0 255
-0.01234276 -0.05339192 0.2332799 255 0 255
-0.002104123 -0.07563987 0.2783352 255 0 255
0.001203217 -0.08177567 0.2909012 255 0 255
0.003188714 -0.07650637 0.2812055 255 0 255
0.004128897 -0.07410364 0.2767947 255 0 255
0.016001 -0.05187164 0.2368688 255 0 255
0.03877018 -0.07744318 0.2920515 255 0 255
0.05130013 -0.06363167 0.2692257 255 0 255
0.06237556 -0.03916859 0.2262406 255 0 255
-0.1286169 -0.06808371 0.2452344 255 0 255
-0.1025021 -0.06393894 0.2391783 255 0 255
-0.1008957 -0.06938587 0.2493586 255 0 255
-0.09929702 -0.08935229 0.2866096 255 0 255
-0.09754908 -0.08856274 0.2853132 255 0 255
-0.09130448 -0.08628478 0.2817109 255 0 255
-0.08069074 -0.08777604 0.2857227 255 0 255
-0.08012249 -0.08879635 0.28771 255 0 255
-0.06400136 -0.07921493 0.2717545 255 0 255
-0.05354082 -0.07440041 0.2641478 255 0 255
-0.04409954 -0.06276937 0.2435534 255 0 255
-0.03571768 -0.05389367 0.2280565 255 0 255
-0.03095724 -0.05482663 0.2306313 255 0 255
-0.02831858 -0.08425694 0.2871145 255 0 255
-0.01715155 -0.06560066 0.2537178 255 0 255
-0.006807296 -0.06631053 0.2572099 255 0 255
-0.005091087 -0.07452753 0.2732571 255 0 255
0.007790965 -0.067671 0.263096 255 0 255
0.02363904 -0.06646051 0.2647107 255 0 255
0.03178133 -0.0820081 0.2964293 255 0 255
0.03350577 -0.0840657 0.3008004 255 0 255
0.04092905 -0.07427936 0.2842225 255 0 255
0.0431148 -0.0710219 0.2786546 255 0 255
0.04736814 -0.06778628 0.2737379 255 0 255
0.06252687 -0.06238164 0.2680789 255 0 255
0.06326241 -0.06171143 0.2670463 255 0 255
-0.103823 -0.06401839 0.2372055 255 0 255
-0.1024409 -0.06479566 0.2387251 255 0 255
-0.105662 -0.09259843 0.2895132 255 0 255
-0.08630196 -0.08679961 0.280817 255 0 255
-0.08385593 -0.08653561 0.2806093 255 0 255
-0.0788504 -0.09186522 0.2911399 255 0 255
-0.07671137 -0.09006427 0.2880542 255 0 255
-0.06940082 -0.08469858 0.2789954 255 0 255
-0.06391928 -0.08015931 0.2712553 255 0 255
-0.05995136 -0.07842144 0.2685584 255 0 255
-0.0393142 -0.05794504 0.2332596 255 0 255
-0.03664127 -0.0551174 0.2283761 255 0 255
-0.03111082 -0.08862301 0.2924437 255 0 255
-0.018076 -0.06696796 0.2540564 255 0 255
0.03064416 -0.08746111 0.3039619 255 0 255
0.03259537 -0.09044866 0.3100997 255 0 255
0.04426624 -0.07174984 0.2780686 255 0 255
0.04616234 -0.07088879 0.276987 255 0 255
0.05350704 -0.06497992 0.2680371 255 0 255
0.058221 -0.0633918 0.2664759 255 0 255
0.06264114 -0.06327794 0.2676102 255 0 255
-0.1215294 -0.06547345 0.2367133 255 0 255
-0.1134377 -0.06183004 0.2306385 255 0 255
-0.1064674 -0.06328677 0.2337011 255 0 255
-0.1027798 -0.06610619 0.2390632 255 0 255
-0.1089823 -0.08545321 0.2736858 255 0 255
-0.1123027 -0.09115518 0.2837757 255 0 255
-0.1022076 -0.09407902 0.2900801 255 0 255
-0.09723734 -0.09214432 0.2870515 255 0 255
-0.09126759 -0.09028827 0.2842928 255 0 255
-0.08379641 -0.09348671 0.2910522 255 0 255
-0.05257105 -0.07672191 0.2642516 255 0 255
-0.04111956 -0.06157625 0.2378569 255 0 255
-0.03404902 -0.05588584 0.2284092 255 0 255
-0.01606564 -0.06015671 0.2396591 255 0 255
-0.01483625 -0.05725624 0.2344773 255 0 255
-0.01386606 -0.05625704 0.2328014 255 0 255
-0.01150443 -0.05847186 0.2374213 255 0 255
0.01106605 -0.06196821 0.2489563 255 0 255
0.01198722 -0.06185136 0.2489575 255 0 255
0.02352269 -0.08201703 0.2894815 255 0 255
0.04174128 -0.07463922 0.2804907 255 0 255
0.04367629 -0.07378223 0.2794283 255 0 255
0.04879907 -0.06984267 0.2735405 255 0 255
0.04942873 -0.06874143 0.2716745 255 0 255
0.05856612 -0.06471363 0.2668771 255 0 255
0.06201168 -0.06484956 0.2681644 255 0 255
0.06374206 -0.06392275 0.2669773 255 0 255
-0.1077305 -0.06332254 0.2317178 255 0 255
-0.1054787 -0.0653824 0.2355602 255 0 255
-0.1031175 -0.06742167 0.2393944 255 0 255
-0.1038828 -0.07730892 0.257116 255 0 255
-0.09461703 -0.09295582 0.2863712 255 0 255
-0.09148604 -0.09177671 0.2845732 255 0 255
-0.08978634 -0.09094439 0.2832496 255 0 255
-0.08515044 -0.1013787 0.3028506 255 0 255
-0.07692049 -0.09504075 0.292306 255 0 255
-0.07041993 -0.08904169 0.2821757 255 0 255
-0.04694645 -0.07097745 0.2523612 255 0 255
-0.03284765 -0.07200605 0.2565807 255 0 255
-0.01151505 -0.07161369 0.2598942 255 0 255
-0.007673366 -0.09935366 0.3121108 255 0 255
0.003810651 -0.08501102 0.2880169 255 0 255
0.01706713 -0.07677172 0.2758324 255 0 255
0.03083134 -0.1000557 0.3223299 255 0 255
0.03899276 -0.07708523 0.2819938 255 0 255
0.03974858 -0.07598036 0.2801573 255 0 255
0.0429069 -0.07537606 0.2798975 255 0 255
0.04864163 -0.07275963 0.276662 255 0 255
0.05135898 -0.06876475 0.2700805 255 0 255
0.05891201 -0.06604032 0.267271 255 0 255
0.06146473 -0.05200702 0.2423548 255 0 255
0.06184489 -0.04790054 0.2349768 255 0 255
-0.1072236 -0.06479137 0.2324185 255 0 255
-0.1058858 -0.06559785 0.2339455 255 0 255
-0.1038542 -0.06920453 0.2405097 255 0 255
-0.1036586 -0.07667599 0.253844 255 0 255
-0.1087705 -0.08586918 0.2698152 255 0 255
-0.1083486 -0.09637751 0.2886747 255 0 255
-0.1044905 -0.09792292 0.2918399 255 0 255
-0.09 -0.0924312 0.283527 255 0 255
-0.08584933 -0.1038998 0.3047722 255 0 255
-0.06276532 -0.08104946 0.2663511 255 0 255
-0.05952357 -0.08318096 0.2706895 255 0 255
-0.04892306 -0.07471643 0.2568382 255 0 255
-0.03752765 -0.06077631 0.2331795 255 0 255
-0.03713052 -0.09948701 0.304092 255 0 255
-0.03481811 -0.1052185 0.3150073 255 0 255
-0.01449537 -0.06501253 0.2450967 255 0 255
-0.01320092 -0.07068224 0.2557616 255 0 255
-0.01136935 -0.08587921 0.284032 255 0 255
-0.01063111 -0.09156916 0.2946303 255 0 255
-0.003923132 -0.09916602 0.3099864 255 0 255
-0.001549598 -0.09273697 0.2986898 255 0 255
0.001623405 -0.08286927 0.2812608 255 0 255
0.004480925 -0.07587895 0.2690588 255 0 255
0.0107498 -0.06750021 0.2551079 255 0 255
0.03134623 -0.09724551 0.3146565 255 0 255
0.03250577 -0.09175624 0.3048922 255 0 255
0.03373803 -0.0872083 0.2968769 255 0 255
0.03698035 -0.07842017 0.2816328 255 0 255
0.03895684 -0.07757396 0.2806062 255 0 255
0.04212949 -0.07697424 0.2803562 255 0 255
0.04827162 -0.07525557 0.2788913 255 0 255
0.06049087 -0.06756901 0.2683768 255 0 255
0.0636023 -0.06129886 0.2579258 255 0 255
0.06316051 -0.04325454 0.2251652 255 0 255
-0.1141269 -0.06414421 0.22888 255 0 255
-0.1119489 -0.06407212 0.2288963 255 0 255
-0.1110842 -0.06426025 0.2292836 255 0 255
-0.1055447 -0.09883246 0.2908795 255 0 255
-0.1006559 -0.09892385 0.291561 255 0 255
-0.09712066 -0.09727486 0.2890053 255 0 255
-0.08969419 -0.09499682 0.2857794 255 0 255
-0.08641425 -0.1039256 0.3021828 255 0 255
-0.07823069 -0.1000132 0.2962096 255 0 255
-0.03761021 -0.06204055 0.2336124 255 0 255
-0.03627976 -0.06058226 0.2311883 255 0 255
-0.03455827 -0.06058831 0.2314834 255 0 255
-0.02996983 -0.0945432 0.2938961 255 0 255
-0.02322515 -0.07494217 0.259537 255 0 255
-0.01905671 -0.06654652 0.245067 255 0 255
-0.004990841 -0.09936596 0.3075869 255 0 255
-0.001466395 -0.08845751 0.2884925 255 0 255
0.01536976 -0.08853069 0.2924007 255 0 255
0.03179293 -0.09438432 0.3070076 255 0 255
0.03251239 -0.09232481 0.3034503 255 0 255
0.05300394 -0.07124014 0.2707208 255 0 255
0.06184443 -0.06866118 0.2686024 255 0 255
0.06282032 -0.04615904 0.2285192 255 0 255
-0.1048697 -0.07881036 0.2532638 255 0 255
-0.1111375 -0.09910707 0.2883428 255 0 255
-0.1088705 -0.09942736 0.2891343 255 0 255
-0.1023559 -0.1007992 0.2922398 255 0 255
-0.1008879 -0.1004565 0.2917942 255 0 255
-0.09734575 -0.0987954 0.2892483 255 0 255
-0.09559488 -0.09795789 0.287963 255 0 255
-0.07954732 -0.1014687 0.2961651 255 0 255
-0.01745249 -0.06971928 0.2491576 255 0 255
-0.01541245 -0.07690214 0.2624907 255 0 255
-0.01386109 -0.09429703 0.2941347 255 0 255
-0.01206825 -0.1014599 0.3074008 255 0 255
-0.009821037 -0.1042098 0.312813 255 0 255
-0.006032004 -0.09905945 0.3043141 255 0 255
-0.004779613 -0.09507316 0.2973921 255 0 255
0.0005460951 -0.07518366 0.2626798 255 0 255
0.003349647 -0.07101992 0.2557865 255 0 255
0.02986488 -0.09721926 0.3091478 255 0 255
0.03323544 -0.08639903 0.2905305 255 0 255
0.04640272 -0.07755542 0.2780781 255 0 255
0.06143373 -0.0706962 0.2699874 255 0 255
0.06220117 -0.07000303 0.2689722 255 0 255
-0.1046158 -0.07813182 0.2500078 255 0 255
-0.1140329 -0.1007824 0.2885516 255 0 255
-0.1128957 -0.1009513 0.2889585 255 0 255
-0.1068482 -0.1012692 0.290132 255 0 255
-0.09354944 -0.09972341 0.2888983 255 0 255
-0.08595799 -0.1055912 0.3001525 255 0 255
-0.08451109 -0.1051969 0.2996427 255 0 255
-0.07331975 -0.0973447 0.2872613 255 0 255
-0.02884393 -0.08620894 0.2744933 255 0 255
-0.009512898 -0.1013595 0.3052453 255 0 255
0.004637023 -0.06000679 0.2344028 255 0 255
0.01979048 -0.1350302 0.3717154 255 0 255
0.02452301 -0.1020384 0.3139646 255 0 255
0.03322816 -0.08690561 0.2891135 255 0 255
0.03583761 -0.08002933 0.2775303 255 0 255
0.0405104 -0.08065908 0.2798471 255 0 255
0.05195719 -0.07784399 0.2778807 255 0 255
0.06532792 -0.07014333 0.267999 255 0 255
0.06358736 -0.05626217 0.2430261 255 0 255
0.06309398 -0.0507277 0.2331427 255 0 255
-0.106937 -0.06924577 0.232483 255 0 255
-0.1139468 -0.1018355 0.2879569 255 0 255
-0.1128092 -0.1020047 0.2883635 255 0 255
-0.1043049 -0.1042271 0.2931107 255 0 255
-0.09428984 -0.1001456 0.2871513 255 0 255
-0.09410416 -0.103821 0.2935724 255 0 255
-0.08932347 -0.1084316 0.3021985 255 0 255
-0.08559601 -0.1061684 0.29872 255 0 255
-0.05854965 -0.08542319 0.2660855 255 0 255
-0.05793279 -0.08646153 0.2679989 255 0 255
-0.02909408 -0.08368407 0.2678005 255 0 255
-0.02180655 -0.07058682 0.2459903 255 0 255
-0.01847052 -0.08080722 0.2646797 255 0 255
-0.01025857 -0.09655987 0.2941462 255 0 255
-0.009091862 -0.09598151 0.2933588 255 0 255
-0.003147903 -0.06646301 0.2423638 255 0 255
0.0002144306 -0.05434305 0.2216325 255 0 255
0.002544474 -0.05164761 0.2173651 255 0 255
0.00818221 -0.07022974 0.2514679 255 0 255
0.02230325 -0.1315841 0.363138 255 0 255
0.03148002 -0.08967892 0.2912844 255 0 255
0.03309596 -0.08692703 0.2868258 255 0 255
0.03530279 -0.08256687 0.2796842 255 0 255
0.05121579 -0.07946415 0.2783406 255 0 255
0.05227065 -0.07923689 0.2782238 255 0 255
0.06135932 -0.07410519 0.2717118 255 0 255
0.06452212 -0.05838911 0.2451384 255 0 255
-0.119129 -0.06737886 0.2265121 255 0 255
-0.1082143 -0.06924936 0.2304844 255 0 255
-0.1068186 -0.07120925 0.2339276 255 0 255
-0.1052184 -0.07815151 0.2458906 255 0 255
-0.1104682 -0.0903968 0.2663135 255 0 255
-0.1135008 -0.1023999 0.2865614 255 0 255
-0.1120111 -0.1020823 0.2861685 255 0 255
-0.09594577 -0.1146302 0.3095912 255 0 255
-0.07596269 -0.1027799 0.2916581 255 0 255
-0.06198551 -0.08719319 0.2665361 255 0 255
-0.04923906 -0.0810792 0.2577856 255 0 255
-0.04234876 -0.08472215 0.2652348 255 0 255
-0.03815077 -0.0882359 0.2720704 255 0 255
-0.0295333 -0.0776162 0.25499 255 0 255
-0.02205156 -0.06793206 0.2393865 255 0 255
-0.01459373 -0.09637427 0.2906173 255 0 255
0.008660749 -0.06505898 0.2405705 255 0 255
0.02473674 -0.09721194 0.3005535 255 0 255
0.02989365 -0.05487873 0.2277781 255 0 255
0.04903331 -0.08037617 0.2771721 255 0 255
0.0527826 -0.08109979 0.2794222 255 0 255
0.05449496 -0.07970615 0.2774536 255 0 255
0.056783 -0.07714832 0.2736217 255 0 255
0.06351933 -0.07451144 0.2708946 255 0 255
0.06530831 -0.07354647 0.2697218 255 0 255
0.06415951 -0.05357677 0.2348363 255 0 255
-0.111216 -0.06886198 0.2277149 255 0 255
-0.1070952 -0.07366543 0.2361379 255 0 255
-0.1063773 -0.07659322 0.2411425 255 0 255
-0.1097677 -0.1072146 0.2927576 255 0 255
-0.09585381 -0.1030669 0.2872517 255 0 255
-0.09502035 -0.1036896 0.2884149 255 0 255
-0.09567659 -0.1067955 0.2936486 255 0 255
-0.08343618 -0.1068902 0.295347 255 0 255
-0.07168115 -0.09993885 0.2849841 255 0 255
-0.02608251 -0.07135918 0.2427616 255 0 255
-0.01679986 -0.09800274 0.290712 255 0 255
-0.01066184 -0.09011739 0.27822 255 0 255
0.0108814 -0.06858467 0.2453481 255 0 255
0.01568195 -0.09148158 0.2861628 255 0 255
0.02611023 -0.09252405 0.2903678 255 0 255
0.05290003 -0.08203641 0.2788876 255 0 255
0.06126525 -0.07755056 0.273398 255 0 255
0.06592957 -0.07327828 0.2673393 255 0 255
0.06715327 -0.07139659 0.2644513 255 0 255
0.06511205 -0.0572682 0.2396502 255 0 255
-0.1141662 -0.06843226 0.2249178 255 0 255
-0.1094071 -0.07006011 0.2280045 255 0 255
-0.1079996 -0.07319312 0.2333514 255 0 255
-0.1073682 -0.08006214 0.2449006 255 0 255
-0.09755574 -0.1177407 0.3095769 255 0 255
-0.09603001 -0.11736 0.309121 255 0 255
-0.07601434 -0.1053421 0.2912982 255 0 255
-0.04968807 -0.08179127 0.2548902 255 0 255
-0.04487277 -0.07371037 0.2418023 255 0 255
-0.02269997 -0.06903671 0.2375078 255 0 255
-0.02046515 -0.07198168 0.2429775 255 0 255
-0.01985139 -0.09715071 0.2863698 255 0 255
-0.01286673 -0.09322397 0.2809535 255 0 255
0.01094792 -0.06133651 0.2310281 255 0 255
0.02502243 -0.06839095 0.2463859 255 0 255
0.02975865 -0.07165918 0.2531294 255 0 255
0.04821017 -0.08244864 0.2762148 255 0 255
0.05704781 -0.08155689 0.2769907 255 0 255
0.05998489 -0.08035766 0.2757247 255 0 255
0.06184797 -0.07939371 0.2745807 255 0 255
0.06289072 -0.07914104 0.2744315 255 0 255
0.06607229 -0.05940603 0.2417361 255 0 255
-0.1166781 -0.06864186 0.2232431 255 0 255
-0.1110863 -0.07050582 0.2267567 255 0 255
-0.1078651 -0.07518382 0.2347727 255 0 255
-0.1088881 -0.08290199 0.2474872 255 0 255
-0.1191574 -0.1101278 0.2918093 255 0 255
-0.1150348 -0.1134946 0.2978709 255 0 255
-0.1111084 -0.1134931 0.298301 255 0 255
-0.1092471 -0.1126528 0.2971025 255 0 255
-0.1065395 -0.1124594 0.2970864 255 0 255
-0.1016166 -0.1087401 0.2914188 255 0 255
-0.09835814 -0.1075072 0.2897337 255 0 255
-0.08428847 -0.1110167 0.2974091 255 0 255
-0.07333022 -0.1033929 0.2860234 255 0 255
-0.06944542 -0.0999682 0.2807777 255 0 255
-0.05674222 -0.0907003 0.2669327 255 0 255
-0.03537484 -0.08128211 0.2543336 255 0 255
-0.02678522 -0.06840743 0.2339025 255 0 255
-0.02402976 -0.06783044 0.2334063 255 0 255
-0.02146412 -0.06825665 0.234593 255 0 255
-0.02025853 -0.07836545 0.2520342 255 0 255
-0.01126283 -0.08799947 0.2701624 255 0 255
-0.008438669 -0.07362898 0.246215 255 0 255
-0.007057183 -0.06340583 0.2290571 255 0 255
0.05293585 -0.08342746 0.2769503 255 0 255
0.05399458 -0.08319555 0.2768307 255 0 255
0.05610949 -0.08272399 0.2765813 255 0 255
0.06161033 -0.08196896 0.2767518 255 0 255
0.06616101 -0.07506083 0.2663093 255 0 255
-0.1118908 -0.07113291 0.2258858 255 0 255
-0.108537 -0.0781671 0.2377216 255 0 255
-0.1095243 -0.08196224 0.2438736 255 0 255
-0.1133683 -0.09087926 0.2581949 255 0 255
-0.1158672 -0.09550832 0.2655836 255 0 255
-0.1185159 -0.1140562 0.2959668 255 0 255
-0.1152866 -0.1150841 0.2980204 255 0 255
-0.1001241 -0.1115841 0.2939481 255 0 255
-0.09830127 -0.1193378 0.3070902 255 0 255
-0.05541271 -0.09114504 0.2657785 255 0 255
-0.03110778 -0.07284424 0.2388677 255 0 255
-0.02324938 -0.06960293 0.2347706 255 0 255
-0.01927647 -0.0960163 0.2800917 255 0 255
-0.005774598 -0.0543802 0.2123461 255 0 255
0.02006591 -0.05901646 0.2257206 255 0 255
0.05160191 -0.08362434 0.2748117 255 0 255
0.05516978 -0.08388697 0.2761645 255 0 255
0.06489272 -0.08212766 0.2757571 255 0 255
0.06627903 -0.07807225 0.2693409 255 0 255
0.06702327 -0.07522384 0.2647784 255 0 255
-0.1135608 -0.07155813 0.2246174 255 0 255
-0.109622 -0.07417375 0.2292062 255 0 255
-0.1085563 -0.0778565 0.2353003 255 0 255
-0.1251495 -0.1135022 0.2919233 255 0 255
-0.1175841 -0.1158233 0.2965319 255 0 255
-0.1148435 -0.1156687 0.2965802 255 0 255
-0.103873 -0.1127283 0.2929975 255 0 255
-0.0921381 -0.1188748 0.3046077 255 0 255
-0.09063835 -0.1184725 0.3041373 255 0 255
-0.08513301 -0.1151869 0.299423 255 0 255
-0.06746756 -0.1004464 0.2774024 255 0 255
-0.06525476 -0.09792502 0.2735292 255 0 255
-0.05968583 -0.09240123 0.2651539 255 0 255
-0.05238427 -0.09268089 0.2667175 255 0 255
-0.0502535 -0.08960009 0.261913 255 0 255
-0.02504885 -0.07094568 0.2349281 255 0 255
0.01335904 -0.05455053 0.2150793 255 0 255
0.03694654 -0.08382654 0.2694514 255 0 255
0.06503976 -0.05185646 0.2235771 255 0 255
-0.1134942 -0.07237189 0.2241281 255 0 255
-0.1122009 -0.073254 0.2256596 255 0 255
-0.1108723 -0.07530414 0.2290812 255 0 255
-0.1089796 -0.07802557 0.2336483 255 0 255
-0.1111422 -0.08453364 0.2439655 255 0 255
-0.1250558 -0.1145785 0.2912758 255 0 255
-0.1235031 -0.1142726 0.2909414 255 0 255
-0.1203372 -0.1153496 0.2930292 255 0 255
-0.1179675 -0.1157166 0.2938843 255 0 255
-0.1019653 -0.1129083 0.2911409 255 0 255
-0.09931167 -0.1126741 0.2910794 255 0 255
-0.09838645 -0.1220643 0.3065721 255 0 255
-0.08060053 -0.1122984 0.292882 255 0 255
-0.06916106 -0.102908 0.2790255 255 0 255
-0.04606291 -0.09058511 0.2621666 255 0 255
-0.04267162 -0.09690638 0.2731681 255 0 255
-0.03380691 -0.07862358 0.2443789 255 0 255
-0.03094186 -0.07443027 0.2379191 255 0 255
-0.0253627 -0.07380813 0.2378516 255 0 255
0.016432 -0.05377341 0.2129073 255 0 255
0.03974257 -0.08631913 0.2721945 255 0 255
0.06725357 -0.07698611 0.2637317 255 0 255
0.07042857 -0.07451899 0.2605282 255 0 255
-0.1093944 -0.07818427 0.2319978 255 0 255
-0.1161721 -0.09312063 0.2552931 255 0 255
-0.122233 -0.1155374 0.29073 255 0 255
-0.1175139 -0.116283 0.2924483 255 0 255
-0.1057023 -0.1140303 0.2901615 255 0 255
-0.103679 -0.1148431 0.2917196 255 0 255
-0.09808031 -0.1182533 0.2979411 255 0 255
-0.09193113 -0.1210566 0.3032894 255 0 255
-0.08665857 -0.1182586 0.2994361 255 0 255
-0.08244336 -0.1148082 0.2943859 255 0 255
-0.07857831 -0.111859 0.2901094 255 0 255
-0.0635502 -0.09883586 0.270987 255 0 255
-0.04281795 -0.08782934 0.2561485 255 0 255
-0.03753153 -0.08680575 0.2553329 255 0 255
-0.03006398 -0.07573489 0.2384198 255 0 255
-0.02445688 -0.08031762 0.2469202 255 0 255
-0.02376373 -0.08186147 0.2495798 255 0 255
-0.02131607 -0.08490048 0.255013 255 0 255
0.01897322 -0.05460026 0.213295 255 0 255
0.02773124 -0.07360977 0.2464905 255 0 255
0.03579021 -0.08849495 0.2727746 255 0 255
0.03790107 -0.0881146 0.2726442 255 0 255
0.05657925 -0.08641286 0.2743873 255 0 255
0.07109592 -0.07250232 0.2554665 255 0 255
-0.1133836 -0.0751829 0.2250209 255 0 255
-0.1116206 -0.0767638 0.2276877 255 0 255
-0.1291393 -0.1136614 0.2846357 255 0 255
-0.1128215 -0.1163374 0.2906894 255 0 255
-0.1082777 -0.1152848 0.2895306 255 0 255
-0.1067748 -0.1149258 0.2891322 255 0 255
-0.1035808 -0.1158965 0.2910746 255 0 255
-0.09794872 -0.1215379 0.3008517 255 0 255
-0.0970171 -0.1221866 0.3020162 255 0 255
-0.0820854 -0.1153286 0.2929343 255 0 255
-0.06805038 -0.1027507 0.2745635 255 0 255
-0.06195355 -0.09877678 0.2690142 255 0 255
-0.05429465 -0.1049621 0.2802013 255 0 255
-0.05171594 -0.1039598 0.2789771 255 0 255
-0.04909163 -0.09922454 0.271702 255 0 255
-0.03989352 -0.08236079 0.2457786 255 0 255
-0.03344543 -0.08342248 0.2485687 255 0 255
-0.02570007 -0.08328117 0.2496704 255 0 255
-0.02345207 -0.08741222 0.2567956 255 0 255
0.02175556 -0.06011844 0.2213644 255 0 255
0.03618118 -0.09041241 0.2739252 255 0 255
0.03906823 -0.08882857 0.2720208 255 0 255
0.04027721 -0.08913321 0.2727985 255 0 255
0.04834435 -0.08646885 0.2703919 255 0 255
0.05858968 -0.0863564 0.2727246 255 0 255
-0.115885 -0.07419198 0.2214519 255 0 255
-0.111093 -0.07828023 0.2283157 255 0 255
-0.1111665 -0.08477362 0.2385381 255 0 255
-0.1285978 -0.1124651 0.2804775 255 0 255
-0.1162495 -0.1168717 0.2887975 255 0 255
-0.08846099 -0.1218679 0.300216 255 0 255
-0.08645085 -0.1203912 0.2981247 255 0 255
-0.06904814 -0.1036398 0.273707 255 0 255
-0.04933023 -0.1012211 0.2727862 255 0 255
-0.03034073 -0.08368859 0.2476513 255 0 255
-0.02645664 -0.08889993 0.2567314 255 0 255
-0.02435974 -0.08830673 0.2561432 255 0 255
-0.02180589 -0.08451669 0.2504791 255 0 255
-0.01456591 -0.09049743 0.2614586 255 0 255
0.01981731 -0.05531674 0.2115903 255 0 255
0.02278556 -0.06120502 0.2217488 255 0 255
0.03482521 -0.0942444 0.2777336 255 0 255
0.04950223 -0.0871493 0.2697364 255 0 255
0.05198312 -0.08769532 0.2712117 255 0 255
0.05765429 -0.08750997 0.272297 255 0 255
0.05975845 -0.08702078 0.2720314 255 0 255
0.06737243 -0.08351335 0.2683211 255 0 255
0.07274467 -0.07656817 0.2585981 255 0 255
-0.1170715 -0.07408066 0.2194144 255 0 255
-0.1138437 -0.09041095 0.2451927 255 0 255
-0.1293667 -0.1180298 0.2868381 255 0 255
-0.1001811 -0.1211923 0.2952273 255 0 255
-0.09161528 -0.124309 0.3012804 255 0 255
-0.01499281 -0.1104924 0.2914325 255 0 255
0.02228749 -0.05934007 0.2170623 255 0 255
0.0345422 -0.09363521 0.2746125 255 0 255
0.03775937 -0.0930659 0.274431 255 0 255
0.04261835 -0.09054444 0.2715214 255 0 255
0.04875868 -0.08876839 0.2701273 255 0 255
0.04980666 -0.08854783 0.2700244 255 0 255
0.05693099 -0.08915554 0.2727036 255 0 255
0.05965095 -0.08743491 0.2706292 255 0 255
0.07106896 -0.08236372 0.2654305 255 0 255
0.07328019 -0.08009609 0.2624029 255 0 255
0.06928717 -0.06446557 0.2366221 255 0 255
-0.1165356 -0.07437827 0.2181839 255 0 255
-0.1122931 -0.07902877 0.225766 255 0 255
-0.1118406 -0.07973191 0.2268983 255 0 255
-0.1109096 -0.08113562 0.2291641 255 0 255
-0.1103648 -0.08304674 0.2321806 255 0 255
-0.1253852 -0.1174398 0.2840253 255 0 255
-0.1132152 -0.1205531 0.2902728 255 0 255
-0.1061524 -0.1237913 0.2961996 255 0 255
-0.1000425 -0.1267682 0.3016441 255 0 255
-0.09396324 -0.1251531 0.2999057 255 0 255
-0.09027923 -0.1255 0.3009453 255 0 255
-0.06188296 -0.1020994 0.2680951 255 0 255
-0.06060161 -0.101615 0.2675208 255 0 255
-0.05535034 -0.09910889 0.2643535 255 0 255
-0.04409315 -0.09343033 0.2571311 255 0 255
-0.02391395 -0.08840565 0.2525569 255 0 255
-0.01788509 -0.1068517 0.2829049 255 0 255
0.03909312 -0.09429834 0.2746369 255 0 255
0.03971087 -0.09256316 0.2720304 255 0 255
0.04695353 -0.09060794 0.2706039 255 0 255
0.05871955 -0.0885826 0.2701991 255 0 255
0.06419124 -0.08782184 0.2703343 255 0 255
0.06707782 -0.08654572 0.2690378 255 0 255
0.07193132 -0.08248927 0.2638734 255 0 255
-0.1122201 -0.07984419 0.2252491 255 0 255
-0.1229648 -0.1188896 0.2842459 255 0 255
-0.1141479 -0.1231927 0.291932 255 0 255
-0.1033104 -0.1246298 0.2955025 255 0 255
-0.09152128 -0.129258 0.3042611 255 0 255
-0.0884956 -0.1284031 0.3033421 255 0 255
-0.05902601 -0.1015075 0.2655421 255 0 255
-0.04713432 -0.1013338 0.2671074 255 0 255
-0.03486261 -0.114879 0.2903987 255 0 255
-0.03431931 -0.1181084 0.2955664 255 0 255
-0.02234128 -0.08596693 0.2471223 255 0 255
-0.02145107 -0.08647242 0.2480745 255 0 255
0.02151494 -0.0565488 0.2094334 255 0 255
0.025085 -0.06461444 0.2228836 255 0 255
0.02799833 -0.07278556 0.2363568 255 0 255
0.03460743 -0.09061192 0.2658088 255 0 255
0.03677413 -0.09456854 0.2725019 255 0 255
0.04390226 -0.09214296 0.2703044 255 0 255
0.06640255 -0.08820141 0.2694619 255 0 255
0.07306295 -0.08309142 0.2631436 255 0 255
-0.1174979 -0.09950732 0.2529179 255 0 255
-0.1245272 -0.1101265 0.2683827 255 0 255
-0.1142094 -0.1265549 0.294765 255 0 255
-0.1010717 -0.1242336 0.2928388 255 0 255
-0.09994874 -0.1340447 0.308125 255 0 255
-0.0850744 -0.1252659 0.2965785 255 0 255
-0.07938214 -0.1184236 0.2867859 255 0 255
-0.06796534 -0.1058143 0.2688846 255 0 255
-0.06642659 -0.1047965 0.2675304 255 0 255
-0.06512615 -0.1043181 0.2669784 255 0 255
-0.05640959 -0.1014254 0.26379 255 0 255
-0.03113889 -0.1152539 0.2894123 255 0 255
0.04206264 -0.09396978 0.2707346 255 0 255
0.04805212 -0.09167621 0.2685298 255 0 255
0.0492892 -0.09196921 0.2692692 255 0 255
0.05537067 -0.09286308 0.2720681 255 0 255
0.05790322 -0.09062409 0.2691903 255 0 255
0.05895257 -0.09038034 0.2690607 255 0 255
0.06547407 -0.08936264 0.2690443 255 0 255
0.0675659 -0.08883471 0.2687339 255 0 255
0.07140712 -0.06968291 0.2400953 255 0 255
-0.1150732 -0.07768087 0.2181901 255 0 255
-0.1129539 -0.08003826 0.2219565 255 0 255
-0.1186288 -0.1019996 0.2545708 255 0 255
-0.1207308 -0.1236832 0.2872621 255 0 255
-0.1027888 -0.1262221 0.2933503 255 0 255
-0.09855147 -0.1232702 0.2893872 255 0 255
-0.04046452 -0.09497697 0.2543608 255 0 255
-0.02755648 -0.124321 0.3018547 255 0 255
-0.008274491 -0.06350435 0.2113098 255 0 255
0.03288536 -0.08117983 0.246991 255 0 255
0.04729646 -0.0933015 0.2688892 255 0 255
0.04835049 -0.09308415 0.2687936 255 0 255
0.05569512 -0.09428052 0.2723205 255 0 255
0.05823832 -0.09202819 0.2694484 255 0 255
0.07228041 -0.08511861 0.2622031 255 0 255
0.07604457 -0.08350429 0.260658 255 0 255
0.07447877 -0.07707582 0.2504332 255 0 255
-0.1133242 -0.0813586 0.2221652 255 0 255
-0.1265262 -0.1237313 0.2843699 255 0 255
-0.118257 -0.125116 0.287435 255 0 255
-0.11272 -0.1399645 0.3105874 255 0 255
-0.08914279 -0.1309908 0.3001182 255 0 255
-0.08356931 -0.1246364 0.2912317 255 0 255
-0.06278333 -0.106287 0.2662841 255 0 255
-0.06128382 -0.1052429 0.2649153 255 0 255
-0.03539969 -0.1008043 0.2622197 255 0 255
-0.03339643 -0.09637751 0.2557788 255 0 255
-0.03139356 -0.134816 0.3149785 255 0 255
-0.03513781 -0.1897936 0.3985454 255 0 255
-0.03361289 -0.2045278 0.4213895 255 0 255
-0.02908312 -0.212529 0.4344576 255 0 255
0.03350482 -0.08023451 0.2438993 255 0 255
0.06885543 -0.06512304 0.2291014 255 0 255
-0.1162491 -0.0795682 0.2174805 255 0 255
-0.1149756 -0.08050571 0.2190011 255 0 255
-0.1114319 -0.08505062 0.2261264 255 0 255
-0.124753 -0.1280728 0.2888037 255 0 255
-0.1183819 -0.1285083 0.2902253 255 0 255
-0.1035051 -0.1299705 0.2943061 255 0 255
-0.07078916 -0.1106731 0.2697276 255 0 255
-0.06290042 -0.1077608 0.2664847 255 0 255
-0.05990917 -0.1056567 0.2637504 255 0 255
-0.04413435 -0.1072379 0.2686038 255 0 255
-0.03761591 -0.1072531 0.2696925 255 0 255
0.04735744 -0.09792099 0.2719853 255 0 255
0.04950536 -0.09747984 0.2717948 255 0 255
0.05203599 -0.09806969 0.2732537 255 0 255
0.05997208 -0.09460134 0.2698109 255 0 255
0.06209176 -0.09409869 0.2695403 255 0 255
0.06945887 -0.0876793 0.2615788 255 0 255
0.07278904 -0.08736053 0.2618926 255 0 255
0.07685995 -0.08622888 0.261169 255 0 255
0.07142139 -0.07154599 0.2377573 255 0 255
-0.1127289 -0.08243707 0.2203826 255 0 255
-0.1122907 -0.08316334 0.2214999 255 0 255
-0.1118438 -0.08388885 0.2226178 255 0 255
-0.1297685 -0.1215334 0.2762326 255 0 255
-0.1357807 -0.1313777 0.2901107 255 0 255
-0.1321827 -0.1302236 0.2888199 255 0 255
-0.1224875 -0.1318951 0.2924594 255 0 255
-0.09518929 -0.1302101 0.2934759 255 0 255
-0.09166942 -0.1334573 0.2988113 255 0 255
-0.07962367 -0.1212568 0.2822582 255 0 255
-0.06540386 -0.1096721 0.2669723 255 0 255
-0.05833759 -0.1055015 0.2617762 255 0 255
-0.05563013 -0.1039213 0.2598173 255 0 255
-0.04655177 -0.1019454 0.2582631 255 0 255
-0.04551174 -0.1019653 0.258458 255 0 255
-0.04494283 -0.1036583 0.2610929 255 0 255
-0.03296627 -0.09697915 0.2530048 255 0 255
-0.04102936 -0.2244868 0.4435688 255 0 255
0.03748972 -0.08448255 0.2476671 255 0 255
0.05254016 -0.1000281 0.2743127 255 0 255
0.06803706 -0.09240385 0.2664148 255 0 255
0.07392476 -0.08795144 0.2611441 255 0 255
0.06588142 -0.0599297 0.2174 255 0 255
-0.1117433 -0.08595005 0.2239268 255 0 255
-0.1117046 -0.08720957 0.2257748 255 0 255
-0.11165 -0.08846976 0.2276261 255 0 255
-0.09515738 -0.1265723 0.2858206 255 0 255
-0.09542452 -0.1294705 0.2900751 255 0 255
-0.09459607 -0.1353952 0.2989643 255 0 255
-0.08247405 -0.1260555 0.2868164 255 0 255
-0.07474175 -0.1168541 0.2742684 255 0 255
-0.05658175 -0.104767 0.2589967 255 0 255
-0.03607671 -0.1079541 0.267009 255 0 255
-0.007874423 -0.06451894 0.2070522 255 0 255
0.05453566 -0.1028145 0.2769043 255 0 255
0.06945646 -0.09121536 0.2630497 255 0 255
-0.1130057 -0.08329121 0.2182059 255 0 255
-0.1250516 -0.1157928 0.2640677 255 0 255
-0.1350878 -0.1367013 0.2933398 255 0 255
-0.1299383 -0.1333441 0.289064 255 0 255
-0.1172956 -0.1245432 0.2777662 255 0 255
-0.1019551 -0.1332949 0.2925639 255 0 255
-0.09446195 -0.126481 0.2835784 255 0 255
-0.07143638 -0.1157317 0.2710209 255 0 255
-0.06609116 -0.1137703 0.268919 255 0 255
-0.05523962 -0.1051352 0.2578231 255 0 255
-0.04756409 -0.1042414 0.2576976 255 0 255
-0.04006617 -0.122434 0.2857977 255 0 255
-0.03901331 -0.1229918 0.2867967 255 0 255
-0.03888196 -0.1809893 0.3726294 255 0 255
0.03745502 -0.07875845 0.23569 255 0 255
0.04842091 -0.1027634 0.273491 255 0 255
-0.1317406 -0.1371476 0.2920623 255 0 255
-0.09142409 -0.1266275 0.2820331 255 0 255
-0.08568069 -0.1301285 0.2879422 255 0 255
-0.0785477 -0.1225422 0.2778943 255 0 255
-0.07068633 -0.117884 0.2722376 255 0 255
-0.06598867 -0.1147031 0.2682856 255 0 255
-0.0449115 -0.1154381 0.2726296 255 0 255
0.03060549 -0.06257097 0.2088785 255 0 255
0.03453638 -0.06981461 0.2203185 255 0 255
0.04761555 -0.09755232 0.2637167 255 0 255
0.05203458 -0.09431062 0.2599269 255 0 255
0.06447944 -0.1047646 0.2779392 255 0 255
0.06778385 -0.09871624 0.269844 255 0 255
0.06969381 -0.09530359 0.2652951 255 0 255
0.06503983 -0.06175813 0.2153574 255 0 255
-0.1118308 -0.09146573 0.2266851 255 0 255
-0.1202476 -0.1098777 0.2520473 255 0 255
-0.08868899 -0.1273086 0.2812462 255 0 255
-0.08086812 -0.1262578 0.2808384 255 0 255
-0.06326187 -0.1117122 0.2623577 255 0 255
-0.05153528 -0.1058731 0.2556785 255 0 255
-0.04607311 -0.1169295 0.2725992 255 0 255
-0.04556211 -0.1238139 0.2826856 255 0 255
-0.04707573 -0.1575577 0.3314919 255 0 255
-0.04785052 -0.1678406 0.3463165 255 0 255
0.0435317 -0.08312667 0.2400262 255 0 255
0.0687212 -0.09882031 0.2682629 255 0 255
0.07186764 -0.09328055 0.2609553 255 0 255
0.07540734 -0.09112436 0.2586421 255 0 255
0.06438409 -0.05967166 0.2107093 255 0 255
-0.1136438 -0.08544023 0.2162016 255 0 255
-0.1403997 -0.2051658 0.3834643 255 0 255
-0.08892428 -0.1240961 0.2744728 255 0 255
-0.08559106 -0.1297841 0.2830991 255 0 255
-0.07948333 -0.1243984 0.2762491 255 0 255
-0.07481162 -0.1218208 0.273228 255 0 255
-0.06620909 -0.1147769 0.2643798 255 0 255
0.07070974 -0.09863909 0.2665211 255 0 255
0.07376308 -0.09306722 0.2592118 255 0 255
0.07392674 -0.0870468 0.2506226 255 0 255
-0.1148884 -0.08655301 0.2159725 255 0 255
-0.1169974 -0.1059941 0.2430811 255 0 255
-0.1212771 -0.1133702 0.252958 255 0 255
-0.05513896 -0.1841744 0.3632484 255 0 255
-0.05635209 -0.2044056 0.3919734 255 0 255
0.06658975 -0.105941 0.2741175 255 0 255
0.07214171 -0.09738919 0.2631559 255 0 255
-0.1160348 -0.08506259 0.2121177 255 0 255
-0.1152256 -0.0865774 0.2143216 255 0 255
-0.128178 -0.125617 0.2672841 255 0 255
-0.1001256 -0.1411097 0.292751 255 0 255
-0.07499066 -0.1219111 0.2692658 255 0 255
-0.07386863 -0.1219984 0.269554 255 0 255
-0.06533089 -0.1148691 0.2607487 255 0 255
-0.05123744 -0.108479 0.253864 255 0 255
-0.05037367 -0.1090938 0.2548694 255 0 255
-0.05228372 -0.1400502 0.2984133 255 0 255
0.03707975 -0.06336874 0.2057401 255 0 255
0.03825678 -0.06429389 0.2072939 255 0 255
0.05297204 -0.08045563 0.233246 255 0 255
0.07009187 -0.1036234 0.2696397 255 0 255
0.07040071 -0.1017493 0.267061 255 0 255
-0.1120961 -0.08873701 0.2160518 255 0 255
-0.09409748 -0.1330899 0.2801577 255 0 255
-0.08860234 -0.1270057 0.2724292 255 0 255
-0.06784508 -0.1167902 0.2611497 255 0 255
-0.05757637 -0.1096637 0.252708 255 0 255
-0.05425811 -0.1092239 0.252601 255 0 255
-0.05752499 -0.1668259 0.3329865 255 0 255
-0.06251626 -0.199011 0.3774148 255 0 255
-0.06392708 -0.2118845 0.395281 255 0 255
0.07212491 -0.1010122 0.2645045 255 0 255
0.07264541 -0.09966637 0.2627334 255 0 255
0.07354873 -0.0945795 0.2558132 255 0 255
0.07257588 -0.09060135 0.250039 255 0 255
0.06726 -0.07689608 0.2297208 255 0 255
0.06490286 -0.07086726 0.2207796 255 0 255
0.0636591 -0.0669553 0.2150409 255 0 255
-0.111571 -0.09027238 0.2165922 255 0 255
-0.06167246 -0.1132859 0.2552892 255 0 255
-0.04905321 -0.1220991 0.2695179 255 0 255
-0.002492054 -0.06937087 0.2037786 255 0 255
-0.1014415 -0.1502196 0.2984665 255 0 255
-0.08751946 -0.1296358 0.2721415 255 0 255
-0.0893029 -0.1386309 0.2842644 255 0 255
-0.08688357 -0.138863 0.2849357 255 0 255
-0.071853 -0.1207057 0.2621346 255 0 255
-0.06613512 -0.1205032 0.2627126 255 0 255
-0.04857968 -0.117681 0.2615319 255 0 255
-0.00510838 -0.1422563 0.3028492 255 0 255
0.0723091 -0.1076546 0.2699711 255 0 255
0.07289359 -0.1038456 0.264849 255 0 255
-0.1121514 -0.09693148 0.2222828 255 0 255
-0.09573211 -0.1426515 0.2866944 255 0 255
-0.08768841 -0.1311843 0.2722031 255 0 255
-0.06405579 -0.119114 0.259209 255 0 255
-0.04830863 -0.1179787 0.2600971 255 0 255
-0.06149546 -0.1941236 0.3623537 255 0 255
-0.06878752 -0.2393097 0.4231263 255 0 255
0.04112406 -0.06452449 0.2027023 255 0 255
0.07380852 -0.1038992 0.2632508 255 0 255
0.06853878 -0.08687763 0.2389105 255 0 255
0.06290811 -0.07240339 0.2179741 255 0 255
-0.1161413 -0.09077238 0.2118432 255 0 255
-0.1143945 -0.09120377 0.2126395 255 0 255
-0.1139658 -0.0919769 0.2137303 255 0 255
-0.112191 -0.09372829 0.2163048 255 0 255
-0.1121216 -0.09639623 0.2198965 255 0 255
-0.1311981 -0.1337085 0.2675958 255 0 255
-0.138656 -0.2282727 0.3942454 255 0 255
-0.0590409 -0.1154305 0.2530937 255 0 255
-0.05547964 -0.1143943 0.2522362 255 0 255
0.06155476 -0.07040386 0.2135122 255 0 255
-0.1160566 -0.0915387 0.2112779 255 0 255
-0.131087 -0.134697 0.2668663 255 0 255
-0.1002869 -0.1603744 0.305547 255 0 255
-0.0751769 -0.1354436 0.2757535 255 0 255
-0.07282636 -0.1356129 0.276336 255 0 255
-0.0515269 -0.1166219 0.2540439 255 0 255
-0.05081635 -0.1178569 0.2558196 255 0 255
-0.04901093 -0.1191199 0.2578062 255 0 255
0.07015653 -0.09551493 0.2475699 255 0 255
0.06237452 -0.06397963 0.2036286 255 0 255
-0.1159713 -0.09230272 0.2107097 255 0 255
-0.1155519 -0.09308586 0.2117974 255 0 255
-0.1129088 -0.09507351 0.2147636 255 0 255
-0.1180604 -0.1139257 0.2390322 255 0 255
-0.1215297 -0.1204721 0.2472416 255 0 255
-0.125322 -0.1276087 0.2561903 255 0 255
-0.1168595 -0.1972297 0.3499234 255 0 255
-0.1048706 -0.1747312 0.3217015 255 0 255
-0.08675763 -0.1465856 0.2868583 255 0 255
-0.07970802 -0.151494 0.294463 255 0 255
-0.05711679 -0.1184709 0.2538286 255 0 255
-0.05160119 -0.118089 0.2541782 255 0 255
0.05948773 -0.08734175 0.2328157 255 0 255
-0.1087522 -0.1080655 0.2307757 255 0 255
-0.1021718 -0.176779 0.3223714 255 0 255
-0.0936546 -0.1607001 0.3023725 255 0 255
-0.08688633 -0.1575572 0.2992265 255 0 255
-0.06659973 -0.1342186 0.2714105 255 0 255
-0.06058019 -0.1234632 0.2580908 255 0 255
-0.05381149 -0.1194795 0.2538634 255 0 255
0.003334478 -0.2146845 0.3898101 255 0 255
0.04356813 -0.06594522 0.199779 255 0 255
0.06017597 -0.07290408 0.2122834 255 0 255
-0.1157982 -0.09382373 0.2095645 255 0 255
-0.1153779 -0.09461375 0.210647 255 0 255
-0.1140654 -0.09561834 0.2121264 255 0 255
-0.1127109 -0.097977 0.2153758 255 0 255
-0.0931799 -0.1674634 0.3090591 255 0 255
-0.09056872 -0.1645586 0.3056391 255 0 255
-0.0909622 -0.1689069 0.3112872 255 0 255
-0.04668823 -0.122406 0.2570263 255 0 255
0.004444649 -0.07383521 0.2016049 255 0 255
0.05495723 -0.07626476 0.2142457 255 0 255
0.06054189 -0.07792833 0.2175314 255 0 255
-0.1150671 -0.2170166 0.3679678 255 0 255
-0.05534631 -0.1198918 0.2505633 255 0 255
-0.05039089 -0.1213239 0.2532076 255 0 255
-0.04874779 -0.1232253 0.2559474 255 0 255
0.06044846 -0.08437467 0.2244492 255 0 255
0.05968256 -0.06934658 0.2047506 255 0 255
-0.1134251 -0.09519264 0.2085192 255 0 255
-0.1134421 -0.0965649 0.2102757 255 0 255
-0.1134434 -0.09793809 0.2120358 255 0 255
-0.1129643 -0.1001053 0.2148796 255 0 255
-0.1129218 -0.1014803 0.2166489 255 0 255
-0.1123865 -0.2293378 0.3814777 255 0 255
-0.05610173 -0.1200806 0.2489135 255 0 255
0.06185544 -0.06874782 0.2030588 255 0 255
0.06312419 -0.06772761 0.2019931 255 0 255
0.06422354 -0.06804316 0.2026166 255 0 255
-0.115533 -0.09608756 0.207825 255 0 255
-0.1137844 -0.09652419 0.2086171 255 0 255
-0.1089351 -0.1105693 0.2271714 255 0 255
-0.1085642 -0.1133317 0.2307457 255 0 255
-0.04448985 -0.1262959 0.2569614 255 0 255
-0.04354164 -0.126932 0.2579296 255 0 255
0.05985954 -0.07063617 0.2037578 255 0 255
0.06242619 -0.06859791 0.2016478 255 0 255
-0.1145695 -0.09705728 0.2076364 255 0 255
-0.1132617 -0.09807522 0.2091008 255 0 255
-0.0590483 -0.1216057 0.2468916 255 0 255
-0.05025346 -0.1207522 0.2471819 255 0 255
-0.04452864 -0.1277888 0.2570493 255 0 255
0.00820761 -0.07906273 0.2037112 255 0 255
0.05196484 -0.06959959 0.1996077 255 0 255
0.05786935 -0.0763748 0.2093341 255 0 255
0.05892236 -0.07286117 0.205072 255 0 255
0.06267581 -0.06788111 0.1994697 255 0 255
-0.1148979 -0.09699902 0.20598 255 0 255
-0.1110556 -0.1076086 0.2198162 255 0 255
-0.1200771 -0.2546316 0.403563 255 0 255
-0.05790547 -0.1193317 0.2424576 255 0 255
-0.04661188 -0.1286169 0.2559588 255 0 255
0.01404832 -0.1871092 0.3399978 255 0 255
0.009795676 -0.1105847 0.2425121 255 0 255
0.06198412 -0.06873975 0.1991222 255 0 255
-0.1125918 -0.103181 0.2124674 255 0 255
-0.1113735 -0.1089947 0.2198761 255 0 255
-0.1082397 -0.1123988 0.2245636 255 0 255
-0.1190497 -0.2491103 0.3937329 255 0 255
-0.05140464 -0.1198328 0.2424013 255 0 255
-0.04743593 -0.128831 0.2543009 255 0 255
0.05396812 -0.07100589 0.1991652 255 0 255
0.05953616 -0.07141535 0.2007148 255 0 255
0.06344204 -0.06697346 0.1958995 255 0 255
-0.05129872 -0.1206515 0.2417457 255 0 255
0.0553402 -0.07062486 0.1976599 255 0 255
0.06029562 -0.06987606 0.1976472 255 0 255
-0.1118651 -0.1069295 0.2140489 255 0 255
-0.1102343 -0.1107743 0.2189992 255 0 255
-0.1055273 -0.115188 0.2251004 255 0 255
-0.1021212 -0.1185542 0.2297337 255 0 255
-0.1014907 -0.1193454 0.2307983 255 0 255
-0.1102143 -0.2215066 0.355143 255 0 255
-0.05901109 -0.1197748 0.2377746 255 0 255
-0.04894383 -0.1247523 0.2454912 255 0 255
0.01312068 -0.08546383 0.2072184 255 0 255
-0.1123374 -0.1040429 0.2088972 255 0 255
-0.1102478 -0.1101383 0.2166173 255 0 255
-0.1086495 -0.1125707 0.2198119 255 0 255
-0.1080992 -0.1133793 0.2208771 255 0 255
-0.1021126 -0.1213973 0.231529 255 0 255
-0.08395103 -0.09868736 0.2065531 255 0 255
-0.0684225 -0.1263933 0.2427404 255 0 255
-0.06445829 -0.1214925 0.2373673 255 0 255
-0.05108559 -0.1222808 0.2404248 255 0 255
-0.04954045 -0.1242711 0.2431028 255 0 255
-0.04789553 -0.1345952 0.2559896 255 0 255
-0.04765825 -0.1480531 0.2724884 255 0 255
0.02572748 -0.2259545 0.3799603 255 0 255
0.058494 -0.06902521 0.1937468 255 0 255
0.06001746 -0.06857896 0.1934785 255 0 255
-0.1157608 -0.1010612 0.2032682 255 0 255
-0.1094967 -0.1131539 0.218785 255 0 255
-0.1083968 -0.1147804 0.2209127 255 0 255
-0.1033753 -0.1171617 0.2245364 255 0 255
-0.1025341 -0.1193815 0.2273458 255 0 255
-0.09862886 -0.122119 0.2312416 255 0 255
-0.0965761 -0.1204195 0.2294939 255 0 255
-0.09144188 -0.1131053 0.2214171 255 0 255
-0.06118219 -0.1192676 0.2335201 255 0 255
-0.05513211 -0.1196498 0.2349309 255 0 255
-0.04833614 -0.1290013 0.2473475 255 0 255
-0.04868366 -0.1438152 0.2652659 255 0 255
0.01561888 -0.0915606 0.2123687 255 0 255
-0.1121626 -0.1041079 0.20595 255 0 255
-0.1103494 -0.1059629 0.2084402 255 0 255
-0.09676735 -0.1816159 0.3013394 255 0 255
-0.06730968 -0.1228585 0.2352603 255 0 255
-0.06581058 -0.1216663 0.23406 255 0 255
-0.05381825 -0.1198547 0.2337592 255 0 255
-0.05032556 -0.121972 0.2368581 255 0 255
-0.04964525 -0.149224 0.2697656 255 0 255
0.05881634 -0.06884003 0.1911175 255 0 255
-0.1084807 -0.1134799 0.216142 255 0 255
-0.09981918 -0.1262604 0.2326668 255 0 255
-0.09881631 -0.1811385 0.2982408 255 0 255
-0.05531824 -0.1192414 0.2311791 255 0 255
-0.05270443 -0.1206931 0.233324 255 0 255
-0.1132948 -0.104532 0.2032816 255 0 255
-0.1124136 -0.1047511 0.2036722 255 0 255
-0.1101529 -0.1074496 0.2071968 255 0 255
-0.109019 -0.1119842 0.2127217 255 0 255
-0.1089092 -0.1134273 0.2144424 255 0 255
-0.1079728 -0.1136301 0.2148234 255 0 255
-0.1003758 -0.1262787 0.230923 255 0 255
-0.09834961 -0.1286872 0.2340802 255 0 255
-0.0729695 -0.128592 0.2378903 255 0 255
-0.06264476 -0.1208381 0.2303264 255 0 255
0.02092273 -0.1097019 0.2306508 255 0 255
-0.1123157 -0.1054805 0.2030549 255 0 255
-0.1047118 -0.1178801 0.2187428 255 0 255
-0.08169802 -0.1079955 0.2106843 255 0 255
-0.07036171 -0.08909179 0.1902535 255 0 255
-0.06553533 -0.1213733 0.2289075 255 0 255
-0.06307013 -0.1202429 0.2279667 255 0 255
-0.05810023 -0.1206077 0.2291773 255 0 255
-0.05589867 -0.1200848 0.2289102 255 0 255
-0.05210794 -0.120957 0.230534 255 0 255
-0.04982315 -0.1237013 0.2341204 255 0 255
-0.1144056 -0.104925 0.2006104 255 0 255
-0.113531 -0.1051489 0.2010039 255 0 255
-0.1113341 -0.1064247 0.2028223 255 0 255
-0.1104224 -0.1080931 0.2049016 255 0 255
-0.1099535 -0.1089261 0.205942 255 0 255
-0.1065525 -0.1132789 0.2115258 255 0 255
-0.1057348 -0.1170094 0.2159916 255 0 255
-0.1038332 -0.1173959 0.2167336 255 0 255
-0.09991613 -0.1216624 0.2223026 255 0 255
-0.09777185 -0.1276173 0.2295659 255 0 255
-0.09002891 -0.125379 0.2281605 255 0 255
-0.08426507 -0.1391394 0.2450855 255 0 255
-0.07663742 -0.1291481 0.2346392 255 0 255
-0.07271667 -0.1248285 0.2302208 255 0 255
-0.0511882 -0.122433 0.2308224 255 0 255
-0.1138791 -0.1064887 0.20103 255 0 255
-0.1098528 -0.1096605 0.2053104 255 0 255
-0.09562549 -0.1287597 0.2295727 255 0 255
-0.09223471 -0.1285961 0.2299124 255 0 255
-0.08403661 -0.1297471 0.2325241 255 0 255
0.02294255 -0.08403309 0.1967755 255 0 255
-0.1058184 -0.1156103 0.2112666 255 0 255
-0.1047376 -0.1172712 0.2133384 255 0 255
-0.1019043 -0.1178445 0.2144371 255 0 255
-0.07911289 -0.1270292 0.2285396 255 0 255
-0.07653137 -0.1259618 0.227722 255 0 255
-0.06449298 -0.1217265 0.2247636 255 0 255
-0.05955081 -0.1221191 0.225996 255 0 255
-0.05735372 -0.1215989 0.2257472 255 0 255
-0.04900564 -0.128072 0.2344996 255 0 255
-0.1132326 -0.1073034 0.1991364 255 0 255
-0.1123562 -0.107526 0.1995265 255 0 255
-0.1105811 -0.1094354 0.2019753 255 0 255
-0.1096492 -0.1111217 0.2040387 255 0 255
-0.1014166 -0.1179614 0.2131086 255 0 255
-0.08969848 -0.1277577 0.2260973 255 0 255
-0.08673707 -0.1261013 0.2246794 255 0 255
-0.0768634 -0.1253161 0.2253448 255 0 255
-0.07305495 -0.1236869 0.2240929 255 0 255
-0.06759197 -0.1228765 0.2240352 255 0 255
-0.05625828 -0.1224221 0.2253152 255 0 255
-0.05447957 -0.1232063 0.2264904 255 0 255
-0.04733324 -0.1309256 0.2364147 255 0 255
-0.1131317 -0.1080165 0.1985085 255 0 255
-0.1050709 -0.117943 0.2109848 255 0 255
-0.09825959 -0.1207296 0.2152069 255 0 255
-0.09547938 -0.1233631 0.2186198 255 0 255
-0.09093661 -0.126935 0.2233718 255 0 255
-0.08993995 -0.1270889 0.2237033 255 0 255
-0.06379972 -0.1219191 0.2220117 255 0 255
-0.05516156 -0.1232402 0.2248771 255 0 255
-0.1084744 -0.1142681 0.2048095 255 0 255
-0.1060302 -0.1170075 0.2082672 255 0 255
-0.1053595 -0.1193321 0.2109783 255 0 255
-0.104418 -0.1195294 0.2113491 255 0 255
-0.09180394 -0.1254373 0.2199748 255 0 255
-0.07033305 -0.1240985 0.2218922 255 0 255
-0.06836316 -0.1242976 0.2224289 255 0 255
-0.06196583 -0.1234985 0.2225524 255 0 255
-0.06075318 -0.1229111 0.2220873 255 0 255
-0.05977141 -0.1229868 0.2223286 255 0 255
-0.04533638 -0.1339134 0.2368729 255 0 255
0.02841231 -0.08692642 0.1959889 255 0 255
-0.1059236 -0.1177452 0.207607 255 0 255
-0.09767725 -0.1215862 0.2131976 255 0 255
-0.08090716 -0.125678 0.2204289 255 0 255
-0.07022469 -0.1248521 0.2212173 255 0 255
-0.06284198 -0.1241662 0.2216336 255 0 255
-0.05614497 -0.1253513 0.2240201 255 0 255
-0.04490624 -0.1333605 0.2347173 255 0 255
-0.1052869 -0.1193284 0.2079652 255 0 255
-0.1006076 -0.1202975 0.2097884 255 0 255
-0.09872541 -0.1206668 0.2104989 255 0 255
-0.08862898 -0.1253009 0.2172362 255 0 255
-0.08570154 -0.1257466 0.2181982 255 0 255
-0.07628397 -0.1256051 0.2195532 255 0 255
-0.07502205 -0.1250562 0.21915 255 0 255
-0.07404299 -0.1251709 0.2194335 255 0 255
-0.06469859 -0.1247411 0.2204561 255 0 255
-0.1100861 -0.1115087 0.1971268 255 0 255
-0.1082825 -0.1134402 0.1995362 255 0 255
-0.1082276 -0.1149416 0.20119 255 0 255
-0.101438 -0.1208458 0.2087591 255 0 255
-0.1001195 -0.1203809 0.2084635 255 0 255
-0.09730485 -0.1209297 0.2095202 255 0 255
-0.09483515 -0.1221127 0.2112155 255 0 255
-0.09233085 -0.1232759 0.2128942 255 0 255
-0.08689475 -0.1248781 0.2155266 255 0 255
-0.07589066 -0.1256857 0.2181841 255 0 255
-0.07170372 -0.1254692 0.2186205 255 0 255
-0.06876485 -0.1257805 0.2194336 255 0 255
-0.06141103 -0.1250637 0.2198291 255 0 255
-0.05769729 -0.126039 0.2214918 255 0 255
-0.1152658 -0.1123668 0.1957889 255 0 255
-0.1108614 -0.1119903 0.1961013 255 0 255
-0.1090687 -0.1139343 0.1985091 255 0 255
-0.1046722 -0.1201439 0.2059798 255 0 255
-0.1024221 -0.1198848 0.2060653 255 0 255
-0.08549561 -0.1251035 0.2144891 255 0 255
-0.07675759 -0.1263093 0.217213 255 0 255
-0.07452346 -0.1258752 0.2171022 255 0 255
-0.06423948 -0.1255486 0.2184046 255 0 255
-0.06251628 -0.1263972 0.2196034 255 0 255
-0.04673728 -0.1404408 0.2373813 255 0 255
-0.09614557 -0.1225701 0.2085209 255 0 255
-0.09520303 -0.1227458 0.2088645 255 0 255
-0.09211081 -0.1247529 0.2115348 255 0 255
-0.08054284 -0.1265405 0.2153461 255 0 255
-0.07957071 -0.126672 0.2156457 255 0 255
-0.06510749 -0.1261936 0.2174706 255 0 255
-0.06165269 -0.1278979 0.2198642 255 0 255
-0.06066418 -0.1279777 0.2201094 255 0 255
