ply
format ascii 1.0
comment Created by Open3D
element vertex 1289
property double x
property double y
property double z
property uchar red
property uchar green
property uchar blue
end_header
0.415666 -0.421275 -0.589 161 177 203
0.416788 -0.421275 -0.589 194 202 223
0.41791 -0.421275 -0.589 195 203 224
0.41832 -0.42056 -0.588 202 203 223
0.41944 -0.42056 -0.588 201 202 222
0.42056 -0.42056 -0.588 198 204 228
0.42168 -0.42056 -0.588 184 190 214
0.4228 -0.42056 -0.588 150 169 202
0.42392 -0.42056 -0.588 124 143 176
0.42504 -0.42056 -0.588 108 137 179
0.42616 -0.42056 -0.588 102 131 173
0.42728 -0.42056 -0.588 107 138 182
0.4284 -0.42056 -0.588 122 153 197
0.43025 -0.421275 -0.589 136 160 204
0.431372 -0.421275 -0.589 122 146 190
0.432494 -0.421275 -0.589 101 126 166
0.433616 -0.421275 -0.589 103 128 168
0.434738 -0.421275 -0.589 103 128 168
0.43586 -0.421275 -0.589 106 136 174
0.437724 -0.42199 -0.59 122 152 190
0.438848 -0.42199 -0.59 156 173 199
0.439971 -0.42199 -0.59 183 200 226
0.441095 -0.42199 -0.59 201 210 227
0.442219 -0.42199 -0.59 200 209 226
0.443343 -0.42199 -0.59 197 208 230
0.444467 -0.42199 -0.59 197 208 230
0.44559 -0.42199 -0.59 184 194 221
0.446714 -0.42199 -0.59 162 172 199
0.447838 -0.42199 -0.59 126 136 163
0.448962 -0.42199 -0.59 99 109 136
0.450086 -0.42199 -0.59 93 108 141
0.45121 -0.42199 -0.59 152 167 200
0.452333 -0.42199 -0.59 194 205 227
0.453457 -0.42199 -0.59 195 206 228
0.454581 -0.42199 -0.59 200 211 231
0.455705 -0.42199 -0.59 198 209 229
0.456829 -0.42199 -0.59 205 212 230
0.457952 -0.42199 -0.59 206 213 231
0.459076 -0.42199 -0.59 206 212 226
0.4602 -0.42199 -0.59 208 214 228
0.461324 -0.42199 -0.59 198 200 213
0.462448 -0.42199 -0.59 169 171 184
0.463571 -0.42199 -0.59 179 178 194
0.464695 -0.42199 -0.59 202 201 217
0.466609 -0.422706 -0.591 209 214 233
0.467734 -0.422706 -0.591 203 208 227
0.46886 -0.422706 -0.591 201 212 232
0.469986 -0.422706 -0.591 201 212 232
0.471111 -0.422706 -0.591 195 203 222
0.472237 -0.422706 -0.591 200 208 227
0.473363 -0.422706 -0.591 200 208 229
0.474489 -0.422706 -0.591 204 212 233
0.475614 -0.422706 -0.591 156 164 185
0.47674 -0.422706 -0.591 156 164 185
0.477866 -0.422706 -0.591 109 117 138
0.478991 -0.422706 -0.591 118 130 154
0.479305 -0.42199 -0.59 149 161 185
0.481243 -0.422706 -0.591 182 191 220
0.482369 -0.422706 -0.591 202 211 240
0.483494 -0.422706 -0.591 205 213 232
0.48462 -0.422706 -0.591 206 214 233
0.485746 -0.422706 -0.591 206 213 229
0.486871 -0.422706 -0.591 210 217 233
0.487997 -0.422706 -0.591 186 193 219
0.489123 -0.422706 -0.591 170 177 203
0.490249 -0.422706 -0.591 135 159 193
0.491374 -0.422706 -0.591 128 152 186
0.4925 -0.422706 -0.591 135 153 191
0.493626 -0.422706 -0.591 143 161 199
0.494751 -0.422706 -0.591 149 164 205
0.495877 -0.422706 -0.591 163 178 219
0.497003 -0.422706 -0.591 151 173 214
0.498129 -0.422706 -0.591 129 151 192
0.499254 -0.422706 -0.591 117 142 183
0.50038 -0.422706 -0.591 122 147 188
0.501506 -0.422706 -0.591 130 153 187
0.502631 -0.422706 -0.591 151 174 208
0.503757 -0.422706 -0.591 174 187 203
0.504883 -0.422706 -0.591 190 203 219
0.506009 -0.422706 -0.591 196 200 199
0.507134 -0.422706 -0.591 193 197 196
0.50826 -0.422706 -0.591 185 191 203
0.509386 -0.422706 -0.591 182 188 200
0.509648 -0.42199 -0.59 166 164 175
0.510771 -0.42199 -0.59 141 139 150
0.511895 -0.42199 -0.59 122 119 136
0.501463 -0.406255 -0.568 138 102 80
0.502545 -0.406255 -0.568 138 102 80
0.464038 -0.371924 -0.52 146 105 87
0.458769 -0.366917 -0.513 147 106 88
0.455265 -0.363341 -0.508 148 107 87
0.451742 -0.359765 -0.503 148 107 87
0.45 -0.357619 -0.5 149 108 88
0.449149 -0.356189 -0.498 148 107 87
0.44829 -0.354758 -0.496 149 107 85
0.447423 -0.353328 -0.494 150 108 86
0.447456 -0.352612 -0.493 152 107 86
0.446576 -0.351182 -0.491 152 107 86
0.4466 -0.350467 -0.49 153 108 85
0.44662 -0.349751 -0.489 156 111 88
0.446636 -0.349036 -0.488 157 112 89
0.446649 -0.348321 -0.487 156 111 88
0.446657 -0.347606 -0.486 157 111 88
0.447583 -0.347606 -0.486 158 112 89
0.448509 -0.347606 -0.486 158 112 88
0.44851 -0.34689 -0.485 159 113 89
0.448507 -0.346175 -0.484 161 115 91
0.4485 -0.34546 -0.483 162 116 92
0.44942 -0.34546 -0.483 162 116 92
0.449408 -0.344745 -0.482 162 116 92
0.450326 -0.344745 -0.482 163 117 93
0.450308 -0.34403 -0.481 163 117 93
0.451224 -0.34403 -0.481 163 117 91
0.4512 -0.343314 -0.48 163 117 91
0.451172 -0.342599 -0.479 165 118 92
0.452085 -0.342599 -0.479 166 119 93
0.452051 -0.341884 -0.478 164 117 91
0.452962 -0.341884 -0.478 164 117 91
0.452923 -0.341169 -0.477 166 119 93
0.453831 -0.341169 -0.477 167 120 94
0.453787 -0.340453 -0.476 170 123 97
0.454693 -0.340453 -0.476 171 124 98
0.454643 -0.339738 -0.475 172 124 101
0.455548 -0.339738 -0.475 170 122 99
0.456452 -0.339738 -0.475 169 122 96
0.456394 -0.339023 -0.474 170 123 97
0.457297 -0.339023 -0.474 171 124 96
0.4582 -0.339023 -0.474 172 125 97
0.458134 -0.338308 -0.473 173 126 96
0.459035 -0.338308 -0.473 172 125 95
0.459936 -0.338308 -0.473 170 123 93
0.460837 -0.338308 -0.473 169 122 92
0.461738 -0.338308 -0.473 169 122 92
0.462639 -0.338308 -0.473 168 121 91
0.46354 -0.338308 -0.473 168 122 89
0.464441 -0.338308 -0.473 170 124 91
0.465342 -0.338308 -0.473 170 123 93
0.466243 -0.338308 -0.473 169 122 92
0.467144 -0.338308 -0.473 170 123 95
0.468045 -0.338308 -0.473 170 123 95
0.469937 -0.339023 -0.474 174 127 99
0.47084 -0.339023 -0.474 174 127 99
0.471743 -0.339023 -0.474 168 121 93
0.472646 -0.339023 -0.474 166 119 89
0.473549 -0.339023 -0.474 168 121 91
0.474451 -0.339023 -0.474 168 121 91
0.475354 -0.339023 -0.474 168 121 91
0.477262 -0.339738 -0.475 169 122 94
0.478167 -0.339738 -0.475 169 122 94
0.479071 -0.339738 -0.475 169 122 94
0.479976 -0.339738 -0.475 169 122 94
0.480881 -0.339738 -0.475 167 120 92
0.481786 -0.339738 -0.475 167 120 92
0.48269 -0.339738 -0.475 162 121 91
0.484613 -0.340453 -0.476 161 120 90
0.48552 -0.340453 -0.476 166 119 91
0.486427 -0.340453 -0.476 166 119 91
0.488357 -0.341169 -0.477 168 117 90
0.489266 -0.341169 -0.477 168 117 90
0.490174 -0.341169 -0.477 166 116 91
0.492112 -0.341884 -0.478 165 115 90
0.493023 -0.341884 -0.478 163 115 92
0.494967 -0.342599 -0.479 162 114 91
0.496914 -0.343314 -0.48 158 116 91
0.498866 -0.34403 -0.481 161 119 94
0.500821 -0.344745 -0.482 161 127 99
0.50278 -0.34546 -0.483 167 133 105
0.504743 -0.346175 -0.484 170 143 114
0.0463171 -0.400883 -0.559 199 157 133
0.0471276 -0.398731 -0.556 201 159 135
0.0479267 -0.39658 -0.553 203 161 137
0.0488914 -0.395863 -0.552 203 161 137
0.049581 -0.392994 -0.548 201 159 135
0.0503476 -0.390843 -0.545 200 158 133
0.0510086 -0.387974 -0.541 199 157 132
0.0516543 -0.385106 -0.537 198 156 131
0.052481 -0.383671 -0.535 199 157 132
0.0533 -0.382237 -0.533 199 157 132
0.0541114 -0.380803 -0.531 198 156 131
0.055019 -0.380086 -0.53 202 158 133
0.0559229 -0.379369 -0.529 204 160 135
0.0568229 -0.378651 -0.528 206 162 137
0.0578286 -0.378651 -0.528 208 164 139
0.0587229 -0.377934 -0.527 211 165 139
0.0597267 -0.377934 -0.527 210 164 138
0.0607305 -0.377934 -0.527 209 163 137
0.0617343 -0.377934 -0.527 208 162 136
0.0626191 -0.377217 -0.526 206 160 134
0.063621 -0.377217 -0.526 207 161 135
0.0646229 -0.377217 -0.526 208 162 136
0.0655 -0.3765 -0.525 206 160 134
0.0665 -0.3765 -0.525 205 159 133
0.0675 -0.3765 -0.525 203 157 131
0.0685 -0.3765 -0.525 203 157 131
0.0695 -0.3765 -0.525 203 157 131
0.0705 -0.3765 -0.525 203 156 130
0.0715 -0.3765 -0.525 201 154 128
0.0725 -0.3765 -0.525 200 153 127
0.0735 -0.3765 -0.525 199 152 126
0.0746419 -0.377217 -0.526 198 151 125
0.0756438 -0.377217 -0.526 196 149 123
0.0766457 -0.377217 -0.526 196 149 121
0.0776476 -0.377217 -0.526 194 147 119
0.0786495 -0.377217 -0.526 193 146 118
0.0796514 -0.377217 -0.526 193 146 118
0.0806533 -0.377217 -0.526 194 144 117
0.0818105 -0.377934 -0.527 190 140 113
0.0828143 -0.377934 -0.527 185 133 109
0.0838181 -0.377934 -0.527 182 130 106
0.0849829 -0.378651 -0.528 182 130 108
0.0859886 -0.378651 -0.528 182 130 108
0.087159 -0.379369 -0.529 183 127 110
0.0883333 -0.380086 -0.53 182 126 109
0.0893429 -0.380086 -0.53 181 123 111
0.0905229 -0.380803 -0.531 177 119 107
0.0917067 -0.38152 -0.532 177 120 101
0.0928943 -0.382237 -0.533 175 118 99
0.0940857 -0.382954 -0.534 175 120 100
0.095281 -0.383671 -0.535 175 120 100
0.0963 -0.383671 -0.535 172 116 99
0.097501 -0.384389 -0.536 171 115 98
0.0987057 -0.385106 -0.537 170 114 99
0.0999143 -0.385823 -0.538 168 112 97
0.101127 -0.38654 -0.539 163 110 94
0.102343 -0.387257 -0.54 163 110 94
0.103563 -0.387974 -0.541 162 110 96
0.104787 -0.388691 -0.542 162 110 96
0.106014 -0.389409 -0.543 160 108 95
0.107246 -0.390126 -0.544 158 106 93
0.10868 -0.39156 -0.546 155 103 90
0.109921 -0.392277 -0.547 153 101 88
0.111166 -0.392994 -0.548 148 102 89
0.112619 -0.394429 -0.55 146 100 87
0.113873 -0.395146 -0.551 142 99 90
0.11534 -0.39658 -0.553 141 98 89
0.116814 -0.398014 -0.555 133 98 92
0.118084 -0.398731 -0.556 130 95 89
0.119571 -0.400166 -0.558 124 94 92
0.121067 -0.4016 -0.56 124 94 92
0.137306 -0.415226 -0.579 89 83 93
0.138648 -0.415943 -0.58 95 89 99
0.139752 -0.415943 -0.58 110 108 122
0.1411 -0.41666 -0.581 121 119 133
0.142207 -0.41666 -0.581 124 124 136
0.143313 -0.41666 -0.581 130 130 142
0.14442 -0.41666 -0.581 132 132 140
0.145527 -0.41666 -0.581 136 136 144
0.146633 -0.41666 -0.581 136 136 144
0.14774 -0.41666 -0.581 142 145 154
0.14859 -0.415943 -0.58 146 149 158
0.149695 -0.415943 -0.58 144 153 170
0.1508 -0.415943 -0.58 127 136 153
0.151905 -0.415943 -0.58 78 94 120
0.15301 -0.415943 -0.58 64 80 106
0.154114 -0.415943 -0.58 66 80 119
0.155219 -0.415943 -0.58 84 98 137
0.156324 -0.415943 -0.58 118 133 162
0.157429 -0.415943 -0.58 157 172 201
0.158533 -0.415943 -0.58 171 182 200
0.159638 -0.415943 -0.58 178 189 207
0.160743 -0.415943 -0.58 184 187 202
0.162127 -0.41666 -0.581 187 190 205
0.163233 -0.41666 -0.581 171 177 201
0.16434 -0.41666 -0.581 147 153 177
0.165447 -0.41666 -0.581 115 135 172
0.166553 -0.41666 -0.581 102 122 159
0.16766 -0.41666 -0.581 97 128 174
0.168476 -0.415943 -0.58 102 133 179
0.169581 -0.415943 -0.58 113 147 193
0.170686 -0.415943 -0.58 120 154 200
0.17179 -0.415943 -0.58 117 145 184
0.172895 -0.415943 -0.58 124 152 191
0.198305 -0.415943 -0.58 227 234 253
0.211927 -0.41666 -0.581 229 235 251
0.23074 -0.41666 -0.581 168 182 217
0.231847 -0.41666 -0.581 163 177 212
0.232953 -0.41666 -0.581 155 175 212
0.23406 -0.41666 -0.581 163 183 220
0.235167 -0.41666 -0.581 172 194 233
0.327596 -0.418811 -0.584 222 233 255
0.328709 -0.418811 -0.584 226 232 254
0.329821 -0.418811 -0.584 226 232 254
0.330933 -0.418811 -0.584 227 234 253
0.332046 -0.418811 -0.584 226 233 252
0.333158 -0.418811 -0.584 216 223 242
0.33427 -0.418811 -0.584 206 213 232
0.335383 -0.418811 -0.584 217 223 245
0.337071 -0.419529 -0.585 219 225 247
0.338186 -0.419529 -0.585 221 231 241
0.3393 -0.419529 -0.585 216 226 236
0.340414 -0.419529 -0.585 222 231 248
0.342643 -0.419529 -0.585 218 225 244
0.343757 -0.419529 -0.585 217 224 243
0.344871 -0.419529 -0.585 217 224 242
0.345986 -0.419529 -0.585 210 217 235
0.3471 -0.419529 -0.585 163 177 203
0.348214 -0.419529 -0.585 127 141 167
0.349329 -0.419529 -0.585 107 125 163
0.350443 -0.419529 -0.585 116 134 172
0.351557 -0.419529 -0.585 156 170 207
0.352671 -0.419529 -0.585 192 206 243
0.353786 -0.419529 -0.585 208 215 241
0.3549 -0.419529 -0.585 208 215 241
0.356014 -0.419529 -0.585 219 227 246
0.357129 -0.419529 -0.585 217 225 244
0.358243 -0.419529 -0.585 194 210 235
0.359357 -0.419529 -0.585 194 210 235
0.360471 -0.419529 -0.585 169 185 210
0.362204 -0.420246 -0.586 134 158 194
0.36332 -0.420246 -0.586 121 145 181
0.364436 -0.420246 -0.586 127 158 202
0.365552 -0.420246 -0.586 142 173 217
0.366669 -0.420246 -0.586 129 163 211
0.367785 -0.420246 -0.586 119 153 201
0.368901 -0.420246 -0.586 107 138 182
0.370017 -0.420246 -0.586 125 156 200
0.371133 -0.420246 -0.586 155 175 208
0.372885 -0.420963 -0.587 179 199 232
0.374003 -0.420963 -0.587 205 217 239
0.375121 -0.420963 -0.587 209 221 243
0.376239 -0.420963 -0.587 205 215 227
0.377357 -0.420963 -0.587 199 209 221
0.378475 -0.420963 -0.587 183 193 218
0.379593 -0.420963 -0.587 157 167 192
0.380711 -0.420963 -0.587 129 142 177
0.38183 -0.420963 -0.587 101 114 149
0.382948 -0.420963 -0.587 115 131 165
0.384066 -0.420963 -0.587 139 155 189
0.385184 -0.420963 -0.587 180 196 219
0.386302 -0.420963 -0.587 202 218 241
0.38742 -0.420963 -0.587 201 213 225
0.388538 -0.420963 -0.587 200 212 224
0.389656 -0.420963 -0.587 201 211 221
0.390774 -0.420963 -0.587 200 210 220
0.391892 -0.420963 -0.587 201 211 223
0.39301 -0.420963 -0.587 201 211 223
0.394129 -0.420963 -0.587 203 206 225
0.395247 -0.420963 -0.587 205 208 227
0.396365 -0.420963 -0.587 205 208 227
0.39816 -0.42168 -0.588 189 196 212
0.39928 -0.42168 -0.588 189 196 212
0.4004 -0.42168 -0.588 200 212 224
0.40152 -0.42168 -0.588 200 212 224
0.40264 -0.42168 -0.588 196 210 219
0.40376 -0.42168 -0.588 200 214 223
0.40488 -0.42168 -0.588 197 207 216
0.406 -0.42168 -0.588 196 206 215
0.40712 -0.42168 -0.588 200 210 220
0.40824 -0.42168 -0.588 198 208 218
0.40936 -0.42168 -0.588 199 212 231
0.41048 -0.42168 -0.588 170 183 202
0.4116 -0.42168 -0.588 114 131 161
0.41272 -0.42168 -0.588 89 106 136
0.41384 -0.42168 -0.588 92 111 143
0.41496 -0.42168 -0.588 111 130 162
0.41608 -0.42168 -0.588 162 176 203
0.4172 -0.42168 -0.588 183 197 224
0.41832 -0.42168 -0.588 197 205 224
0.41944 -0.42168 -0.588 194 202 221
0.42056 -0.42168 -0.588 194 207 224
0.42168 -0.42168 -0.588 182 195 212
0.4228 -0.42168 -0.588 163 180 210
0.42392 -0.42168 -0.588 136 153 183
0.42504 -0.42168 -0.588 111 132 177
0.42616 -0.42168 -0.588 108 129 174
0.42728 -0.42168 -0.588 110 138 185
0.4284 -0.42168 -0.588 125 153 200
0.42952 -0.42168 -0.588 126 164 203
0.43064 -0.42168 -0.588 110 148 187
0.43176 -0.42168 -0.588 101 128 173
0.43288 -0.42168 -0.588 102 129 174
0.434 -0.42168 -0.588 102 129 174
0.43586 -0.422397 -0.589 114 136 173
0.436982 -0.422397 -0.589 131 153 190
0.438104 -0.422397 -0.589 162 178 204
0.439226 -0.422397 -0.589 185 201 227
0.440348 -0.422397 -0.589 202 213 231
0.44147 -0.422397 -0.589 199 210 228
0.442591 -0.422397 -0.589 191 202 220
0.443713 -0.422397 -0.589 182 193 211
0.444835 -0.422397 -0.589 165 176 204
0.445957 -0.422397 -0.589 129 140 168
0.447838 -0.423114 -0.59 104 120 153
0.448962 -0.423114 -0.59 96 112 145
0.450086 -0.423114 -0.59 116 135 167
0.450445 -0.422397 -0.589 166 185 217
0.451567 -0.422397 -0.589 196 201 221
0.452689 -0.422397 -0.589 202 207 227
0.45381 -0.422397 -0.589 205 210 229
0.454932 -0.422397 -0.589 201 206 225
0.456054 -0.422397 -0.589 204 210 226
0.457176 -0.422397 -0.589 200 206 222
0.458298 -0.422397 -0.589 198 205 221
0.45942 -0.422397 -0.589 201 208 224
0.460542 -0.422397 -0.589 202 209 227
0.461664 -0.422397 -0.589 188 195 213
0.463571 -0.423114 -0.59 183 190 208
0.464695 -0.423114 -0.59 202 209 227
0.465819 -0.423114 -0.59 204 212 225
0.467734 -0.423831 -0.591 202 210 223
0.46886 -0.423831 -0.591 203 213 223
0.469986 -0.423831 -0.591 204 214 224
0.471111 -0.423831 -0.591 206 208 231
0.472237 -0.423831 -0.591 204 206 229
0.473363 -0.423831 -0.591 202 209 225
0.474489 -0.423831 -0.591 205 212 228
0.475614 -0.423831 -0.591 178 194 210
0.47674 -0.423831 -0.591 178 194 210
0.477866 -0.423831 -0.591 128 144 160
0.478181 -0.423114 -0.59 101 118 148
0.479305 -0.423114 -0.59 117 134 164
0.480429 -0.423114 -0.59 138 151 183
0.481552 -0.423114 -0.59 175 188 220
0.483494 -0.423831 -0.591 201 207 229
0.48462 -0.423831 -0.591 207 213 235
0.485746 -0.423831 -0.591 208 215 231
0.486871 -0.423831 -0.591 206 213 229
0.487997 -0.423831 -0.591 200 211 229
0.489123 -0.423831 -0.591 180 191 209
0.490249 -0.423831 -0.591 150 171 202
0.491374 -0.423831 -0.591 129 150 181
0.4925 -0.423831 -0.591 125 147 184
0.493626 -0.423831 -0.591 137 159 196
0.494751 -0.423831 -0.591 133 161 201
0.495877 -0.423831 -0.591 143 171 211
0.497003 -0.423831 -0.591 145 173 220
0.498129 -0.423831 -0.591 125 153 200
0.499254 -0.423831 -0.591 119 146 191
0.50038 -0.423831 -0.591 117 144 189
0.500657 -0.423114 -0.59 131 151 186
0.501781 -0.423114 -0.59 153 173 208
0.502905 -0.423114 -0.59 186 197 215
0.504883 -0.423831 -0.591 197 208 226
0.506009 -0.423831 -0.591 203 208 214
0.507134 -0.423831 -0.591 197 202 208
0.5074 -0.423114 -0.59 188 187 193
0.508524 -0.423114 -0.59 182 181 187
0.509648 -0.423114 -0.59 166 164 175
0.510771 -0.423114 -0.59 125 124 138
0.469392 -0.377217 -0.526 146 105 87
0.462346 -0.370763 -0.517 147 106 88
0.457953 -0.36646 -0.511 148 107 89
0.454436 -0.362874 -0.506 148 107 89
0.4518 -0.360006 -0.502 149 108 88
0.45005 -0.357854 -0.499 148 107 87
0.449193 -0.35642 -0.497 149 106 87
0.448329 -0.354986 -0.495 148 105 86
0.448364 -0.354269 -0.494 152 107 86
0.447486 -0.352834 -0.492 152 107 86
0.447511 -0.352117 -0.491 153 108 87
0.447533 -0.3514 -0.49 155 110 89
0.447551 -0.350683 -0.489 156 111 90
0.447566 -0.349966 -0.488 156 111 90
0.447576 -0.349249 -0.487 157 111 88
0.447583 -0.348531 -0.486 157 111 88
0.448509 -0.348531 -0.486 156 110 86
0.44851 -0.347814 -0.485 158 112 88
0.449433 -0.347814 -0.485 159 113 89
0.449429 -0.347097 -0.484 160 114 90
0.44942 -0.34638 -0.483 162 116 92
0.449408 -0.345663 -0.482 163 117 93
0.450326 -0.345663 -0.482 163 117 91
0.450308 -0.344946 -0.481 164 118 92
0.451224 -0.344946 -0.481 164 118 92
0.4512 -0.344229 -0.48 163 117 91
0.452114 -0.344229 -0.48 166 119 93
0.452085 -0.343511 -0.479 166 119 93
0.452051 -0.342794 -0.478 165 118 92
0.452962 -0.342794 -0.478 165 118 92
0.453872 -0.342794 -0.478 166 119 91
0.453831 -0.342077 -0.477 166 119 91
0.453787 -0.34136 -0.476 170 123 97
0.454693 -0.34136 -0.476 170 123 97
0.454643 -0.340643 -0.475 171 124 98
0.455548 -0.340643 -0.475 170 123 97
0.456452 -0.340643 -0.475 170 123 97
0.456394 -0.339926 -0.474 170 123 97
0.457297 -0.339926 -0.474 172 125 97
0.4582 -0.339926 -0.474 172 125 97
0.458134 -0.339209 -0.473 172 125 95
0.459035 -0.339209 -0.473 172 125 95
0.459936 -0.339209 -0.473 171 124 94
0.460837 -0.339209 -0.473 170 123 93
0.461738 -0.339209 -0.473 170 123 93
0.462639 -0.339209 -0.473 169 122 92
0.46354 -0.339209 -0.473 168 122 89
0.464441 -0.339209 -0.473 169 123 90
0.465342 -0.339209 -0.473 171 124 94
0.466243 -0.339209 -0.473 170 123 93
0.467144 -0.339209 -0.473 170 123 95
0.468045 -0.339209 -0.473 172 125 97
0.468946 -0.339209 -0.473 172 125 97
0.47084 -0.339926 -0.474 172 125 97
0.471743 -0.339926 -0.474 168 121 93
0.472646 -0.339926 -0.474 166 119 89
0.473549 -0.339926 -0.474 168 121 91
0.474451 -0.339926 -0.474 169 122 94
0.475354 -0.339926 -0.474 170 123 95
0.476257 -0.339926 -0.474 170 123 95
0.478167 -0.340643 -0.475 170 123 95
0.479071 -0.340643 -0.475 169 122 94
0.479976 -0.340643 -0.475 168 121 93
0.480881 -0.340643 -0.475 167 120 92
0.481786 -0.340643 -0.475 168 121 93
0.48269 -0.340643 -0.475 165 121 94
0.483595 -0.340643 -0.475 164 120 93
0.48552 -0.34136 -0.476 166 119 91
0.486427 -0.34136 -0.476 167 120 92
0.487333 -0.34136 -0.476 168 118 91
0.489266 -0.342077 -0.477 167 117 90
0.490174 -0.342077 -0.477 166 116 91
0.491083 -0.342077 -0.477 165 115 90
0.493023 -0.342794 -0.478 162 115 89
0.494967 -0.343511 -0.479 162 115 89
0.495879 -0.343511 -0.479 159 115 88
0.497829 -0.344229 -0.48 159 115 88
0.499782 -0.344946 -0.481 157 120 93
0.501739 -0.345663 -0.482 164 127 100
0.5037 -0.34638 -0.483 169 138 109
0.505665 -0.347097 -0.484 173 142 113
0.509727 -0.349249 -0.487 168 149 132
0.512751 -0.350683 -0.489 173 154 137
0.516834 -0.352834 -0.492 178 162 147
0.0460686 -0.39979 -0.556 202 157 134
0.0468733 -0.397633 -0.553 203 158 135
0.0476667 -0.395476 -0.55 204 159 136
0.0486257 -0.394757 -0.549 204 162 138
0.0493095 -0.391881 -0.545 203 161 137
0.0500705 -0.389724 -0.542 200 158 133
0.0507257 -0.386848 -0.538 198 156 131
0.0514619 -0.38469 -0.535 198 156 131
0.0522848 -0.383252 -0.533 199 157 132
0.0531 -0.381814 -0.531 202 158 133
0.0540095 -0.381095 -0.53 201 157 132
0.0549152 -0.380376 -0.529 202 158 133
0.0558171 -0.379657 -0.528 205 161 136
0.0567152 -0.378938 -0.527 207 163 138
0.057719 -0.378938 -0.527 208 164 139
0.0586114 -0.378219 -0.526 209 165 140
0.0596133 -0.378219 -0.526 209 165 140
0.0606152 -0.378219 -0.526 207 163 138
0.0616171 -0.378219 -0.526 205 161 136
0.0625 -0.3775 -0.525 204 158 132
0.0635 -0.3775 -0.525 205 159 133
0.0645 -0.3775 -0.525 205 159 133
0.0655 -0.3775 -0.525 204 158 132
0.0665 -0.3775 -0.525 203 157 131
0.0675 -0.3775 -0.525 202 156 130
0.0685 -0.3775 -0.525 203 156 130
0.0695 -0.3775 -0.525 203 156 130
0.0705 -0.3775 -0.525 202 155 129
0.0715 -0.3775 -0.525 200 153 127
0.0725 -0.3775 -0.525 199 152 126
0.0735 -0.3775 -0.525 199 152 126
0.0745 -0.3775 -0.525 197 150 124
0.0755 -0.3775 -0.525 196 149 123
0.0765 -0.3775 -0.525 194 147 119
0.0775 -0.3775 -0.525 193 146 118
0.0785 -0.3775 -0.525 191 144 114
0.0796514 -0.378219 -0.526 189 142 112
0.0806533 -0.378219 -0.526 188 139 109
0.0816552 -0.378219 -0.526 185 136 106
0.0828143 -0.378938 -0.527 184 133 106
0.0838181 -0.378938 -0.527 183 132 105
0.0849829 -0.379657 -0.528 181 129 107
0.0859886 -0.379657 -0.528 178 126 104
0.087159 -0.380376 -0.529 178 122 105
0.0883333 -0.381095 -0.53 178 122 105
0.0893429 -0.381095 -0.53 177 121 108
0.0905229 -0.381814 -0.531 174 118 105
0.0917067 -0.382533 -0.532 176 121 101
0.0928943 -0.383252 -0.533 175 120 100
0.0940857 -0.383971 -0.534 175 120 100
0.0951029 -0.383971 -0.534 175 120 100
0.0963 -0.38469 -0.535 172 116 99
0.097501 -0.38541 -0.536 170 114 97
0.0987057 -0.386129 -0.537 167 114 96
0.0999143 -0.386848 -0.538 166 113 95
0.101127 -0.387567 -0.539 165 112 96
0.102343 -0.388286 -0.54 164 111 95
0.103563 -0.389005 -0.541 163 110 96
0.104787 -0.389724 -0.542 163 110 96
0.106014 -0.390443 -0.543 161 109 96
0.107246 -0.391162 -0.544 159 107 94
0.10868 -0.3926 -0.546 155 103 90
0.109921 -0.393319 -0.547 152 100 87
0.111166 -0.394038 -0.548 147 103 90
0.112619 -0.395476 -0.55 146 100 87
0.113873 -0.396195 -0.551 140 100 90
0.11534 -0.397633 -0.553 138 98 88
0.116814 -0.399071 -0.555 130 97 90
0.118296 -0.40051 -0.557 128 95 88
0.119571 -0.401229 -0.558 121 96 92
0.135968 -0.41561 -0.578 100 96 97
0.137306 -0.416329 -0.579 99 96 103
0.138409 -0.416329 -0.579 106 103 110
0.139752 -0.417048 -0.58 118 116 129
0.140857 -0.417048 -0.58 127 125 138
0.141962 -0.417048 -0.58 132 130 141
0.143067 -0.417048 -0.58 138 136 147
0.144171 -0.417048 -0.58 142 139 146
0.145276 -0.417048 -0.58 142 139 146
0.146381 -0.417048 -0.58 148 145 152
0.147486 -0.417048 -0.58 152 153 158
0.14859 -0.417048 -0.58 155 156 161
0.149695 -0.417048 -0.58 150 157 173
0.1508 -0.417048 -0.58 144 151 167
0.151905 -0.417048 -0.58 109 121 145
0.15301 -0.417048 -0.58 84 96 120
0.154114 -0.417048 -0.58 73 88 127
0.155219 -0.417048 -0.58 76 91 130
0.156324 -0.417048 -0.58 87 103 137
0.157429 -0.417048 -0.58 129 145 179
0.158533 -0.417048 -0.58 165 172 198
0.159638 -0.417048 -0.58 181 188 214
0.160743 -0.417048 -0.58 190 192 207
0.161848 -0.417048 -0.58 188 190 205
0.162952 -0.417048 -0.58 177 182 202
0.164057 -0.417048 -0.58 158 163 183
0.165162 -0.417048 -0.58 126 146 183
0.166267 -0.417048 -0.58 105 125 162
0.167371 -0.417048 -0.58 101 135 183
0.168476 -0.417048 -0.58 110 144 192
0.169289 -0.416329 -0.579 118 155 207
0.170391 -0.416329 -0.579 115 152 204
0.171494 -0.416329 -0.579 112 145 188
0.172597 -0.416329 -0.579 123 156 199
0.1737 -0.416329 -0.579 117 146 188
0.174803 -0.416329 -0.579 121 150 192
0.175906 -0.416329 -0.579 141 163 200
0.177009 -0.416329 -0.579 165 187 224
0.178111 -0.416329 -0.579 191 205 231
0.179214 -0.416329 -0.579 205 219 245
0.180317 -0.416329 -0.579 213 222 239
0.208248 -0.417048 -0.58 228 236 247
0.209352 -0.417048 -0.58 229 237 248
0.210457 -0.417048 -0.58 231 237 251
0.211562 -0.417048 -0.58 228 234 248
0.212667 -0.417048 -0.58 234 237 254
0.213771 -0.417048 -0.58 237 240 255
0.214876 -0.417048 -0.58 235 240 255
0.217086 -0.417048 -0.58 175 185 212
0.21819 -0.417048 -0.58 152 162 189
0.219295 -0.417048 -0.58 137 152 183
0.329821 -0.419924 -0.584 226 233 251
0.330933 -0.419924 -0.584 226 232 248
0.332046 -0.419924 -0.584 225 231 247
0.333158 -0.419924 -0.584 220 226 242
0.33427 -0.419924 -0.584 209 215 231
0.335383 -0.419924 -0.584 215 221 237
0.336495 -0.419924 -0.584 219 225 241
0.337608 -0.419924 -0.584 218 228 238
0.33872 -0.419924 -0.584 218 228 238
0.339832 -0.419924 -0.584 222 229 247
0.340945 -0.419924 -0.584 222 229 247
0.342057 -0.419924 -0.584 221 228 244
0.34317 -0.419924 -0.584 220 227 243
0.344282 -0.419924 -0.584 219 227 240
0.345394 -0.419924 -0.584 213 221 234
0.346507 -0.419924 -0.584 194 209 230
0.347619 -0.419924 -0.584 160 175 196
0.348731 -0.419924 -0.584 124 140 174
0.349844 -0.419924 -0.584 113 129 163
0.351557 -0.420643 -0.585 114 128 165
0.352671 -0.420643 -0.585 144 158 195
0.353786 -0.420643 -0.585 185 195 222
0.3549 -0.420643 -0.585 204 214 241
0.356014 -0.420643 -0.585 218 227 244
0.357129 -0.420643 -0.585 209 218 235
0.358243 -0.420643 -0.585 194 210 235
0.359357 -0.420643 -0.585 194 210 235
0.360471 -0.420643 -0.585 182 198 223
0.361586 -0.420643 -0.585 148 172 208
0.3627 -0.420643 -0.585 129 153 189
0.364436 -0.421362 -0.586 125 158 203
0.365552 -0.421362 -0.586 134 167 212
0.366669 -0.421362 -0.586 129 165 213
0.367785 -0.421362 -0.586 115 151 199
0.368901 -0.421362 -0.586 111 144 187
0.370017 -0.421362 -0.586 132 165 208
0.371133 -0.421362 -0.586 161 182 213
0.37225 -0.421362 -0.586 180 201 232
0.373366 -0.421362 -0.586 201 212 232
0.374482 -0.421362 -0.586 210 221 241
0.376239 -0.422081 -0.587 200 208 221
0.377357 -0.422081 -0.587 186 194 207
0.37783 -0.421362 -0.586 155 167 193
0.378947 -0.421362 -0.586 124 136 162
0.380063 -0.421362 -0.586 112 128 164
0.381179 -0.421362 -0.586 115 131 167
0.382295 -0.421362 -0.586 146 161 194
0.383411 -0.421362 -0.586 167 182 215
0.384528 -0.421362 -0.586 193 206 225
0.385644 -0.421362 -0.586 204 217 236
0.38676 -0.421362 -0.586 204 214 226
0.387876 -0.421362 -0.586 205 215 227
0.388992 -0.421362 -0.586 203 211 222
0.390109 -0.421362 -0.586 202 210 221
0.391225 -0.421362 -0.586 201 211 223
0.392341 -0.421362 -0.586 201 211 223
0.393457 -0.421362 -0.586 202 205 222
0.395247 -0.422081 -0.587 206 209 226
0.396365 -0.422081 -0.587 206 209 226
0.397483 -0.422081 -0.587 196 202 216
0.398601 -0.422081 -0.587 196 202 216
0.399719 -0.422081 -0.587 201 211 221
0.400837 -0.422081 -0.587 200 210 220
0.401955 -0.422081 -0.587 198 211 219
0.403073 -0.422081 -0.587 198 211 219
0.404191 -0.422081 -0.587 196 207 213
0.40531 -0.422081 -0.587 195 206 212
0.406428 -0.422081 -0.587 200 209 218
0.407546 -0.422081 -0.587 201 210 219
0.408664 -0.422081 -0.587 196 207 225
0.409782 -0.422081 -0.587 186 197 215
0.4109 -0.422081 -0.587 154 170 196
0.412018 -0.422081 -0.587 125 141 167
0.413136 -0.422081 -0.587 97 116 148
0.414254 -0.422081 -0.587 93 112 144
0.415372 -0.422081 -0.587 108 123 152
0.41649 -0.422081 -0.587 151 166 195
0.417609 -0.422081 -0.587 183 194 216
0.418727 -0.422081 -0.587 191 202 224
0.42056 -0.4228 -0.588 192 203 223
0.42168 -0.4228 -0.588 184 195 215
0.4228 -0.4228 -0.588 170 185 214
0.42392 -0.4228 -0.588 149 164 193
0.42504 -0.4228 -0.588 119 140 185
0.42616 -0.4228 -0.588 106 127 172
0.42728 -0.4228 -0.588 108 138 188
0.4284 -0.4228 -0.588 123 153 203
0.42952 -0.4228 -0.588 129 168 211
0.43064 -0.4228 -0.588 118 157 200
0.43176 -0.4228 -0.588 107 135 182
0.43288 -0.4228 -0.588 99 127 174
0.434 -0.4228 -0.588 99 127 174
0.43512 -0.4228 -0.588 112 136 174
0.43624 -0.4228 -0.588 137 161 199
0.438104 -0.423519 -0.589 164 180 206
0.439226 -0.423519 -0.589 179 195 221
0.440348 -0.423519 -0.589 195 206 224
0.44147 -0.423519 -0.589 197 208 226
0.442591 -0.423519 -0.589 180 191 211
0.443713 -0.423519 -0.589 156 167 187
0.444835 -0.423519 -0.589 126 141 170
0.445957 -0.423519 -0.589 104 119 148
0.447079 -0.423519 -0.589 110 126 159
0.448201 -0.423519 -0.589 124 140 173
0.449323 -0.423519 -0.589 147 164 192
0.450445 -0.423519 -0.589 172 189 217
0.451567 -0.423519 -0.589 196 201 220
0.452689 -0.423519 -0.589 199 204 223
0.45381 -0.423519 -0.589 202 208 222
0.454932 -0.423519 -0.589 199 205 219
0.456054 -0.423519 -0.589 197 204 214
0.457176 -0.423519 -0.589 198 205 215
0.458298 -0.423519 -0.589 204 210 222
0.45942 -0.423519 -0.589 200 206 218
0.460542 -0.423519 -0.589 199 207 220
0.461664 -0.423519 -0.589 193 201 214
0.462786 -0.423519 -0.589 197 203 217
0.464695 -0.424238 -0.59 202 208 222
0.465819 -0.424238 -0.59 200 206 218
0.466943 -0.424238 -0.59 203 209 221
0.468067 -0.424238 -0.59 203 212 219
0.46919 -0.424238 -0.59 202 211 218
0.470314 -0.424238 -0.59 201 207 223
0.471438 -0.424238 -0.59 206 212 228
0.472562 -0.424238 -0.59 206 214 227
0.473686 -0.424238 -0.59 203 211 224
0.47481 -0.424238 -0.59 191 203 219
0.475933 -0.424238 -0.59 191 203 219
0.477057 -0.424238 -0.59 164 176 192
0.478181 -0.424238 -0.59 130 144 171
0.478492 -0.423519 -0.589 114 128 155
0.479614 -0.423519 -0.589 112 125 157
0.481552 -0.424238 -0.59 130 143 175
0.482676 -0.424238 -0.59 172 179 205
0.4838 -0.424238 -0.59 194 201 227
0.484924 -0.424238 -0.59 205 214 229
0.486048 -0.424238 -0.59 206 215 230
0.487171 -0.424238 -0.59 196 208 222
0.488295 -0.424238 -0.59 181 193 207
0.489419 -0.424238 -0.59 161 180 212
0.491374 -0.424957 -0.591 137 156 188
0.4925 -0.424957 -0.591 124 148 184
0.493626 -0.424957 -0.591 136 160 196
0.494751 -0.424957 -0.591 134 163 205
0.495877 -0.424957 -0.591 132 161 203
0.496162 -0.424238 -0.59 138 171 216
0.497286 -0.424238 -0.59 133 166 211
0.499254 -0.424957 -0.591 119 151 192
0.499533 -0.424238 -0.59 116 148 189
0.500657 -0.424238 -0.59 132 155 187
0.501781 -0.424238 -0.59 151 174 206
0.502905 -0.424238 -0.59 179 192 211
0.504029 -0.424238 -0.59 192 205 224
0.505152 -0.424238 -0.59 203 207 218
0.506276 -0.424238 -0.59 198 202 213
0.5074 -0.424238 -0.59 186 188 200
0.508524 -0.424238 -0.59 166 168 180
0.509648 -0.424238 -0.59 142 141 155
0.510771 -0.424238 -0.59 125 124 138
0.511028 -0.423519 -0.589 120 121 141
0.51215 -0.423519 -0.589 127 128 148
0.504314 -0.409857 -0.57 140 104 88
0.5054 -0.409857 -0.57 140 104 88
0.496711 -0.401948 -0.559 142 100 84
0.461538 -0.37031 -0.515 147 106 88
0.45713 -0.365995 -0.509 148 107 89
0.4545 -0.363119 -0.505 149 106 87
0.452756 -0.360962 -0.502 149 106 87
0.451001 -0.358805 -0.499 149 106 87
0.45014 -0.357367 -0.497 147 104 85
0.449271 -0.355929 -0.495 151 106 87
0.448395 -0.35449 -0.493 152 107 88
0.447511 -0.353052 -0.491 153 108 87
0.447533 -0.352333 -0.49 154 109 88
0.447551 -0.351614 -0.489 155 110 89
0.448483 -0.351614 -0.489 155 110 89
0.448495 -0.350895 -0.488 155 110 89
0.448504 -0.350176 -0.487 155 110 89
0.448509 -0.349457 -0.486 155 109 86
0.449434 -0.349457 -0.486 157 111 88
0.449433 -0.348738 -0.485 157 111 87
0.449429 -0.348019 -0.484 159 113 89
0.44942 -0.3473 -0.483 162 116 92
0.45034 -0.3473 -0.483 163 117 93
0.450326 -0.346581 -0.482 163 117 93
0.450308 -0.345862 -0.481 164 118 94
0.451224 -0.345862 -0.481 163 117 91
0.4512 -0.345143 -0.48 164 118 92
0.452114 -0.345143 -0.48 166 119 93
0.452085 -0.344424 -0.479 166 119 93
0.452997 -0.344424 -0.479 166 119 91
0.452962 -0.343705 -0.478 166 119 91
0.453872 -0.343705 -0.478 167 120 92
0.453831 -0.342986 -0.477 166 119 91
0.453787 -0.342267 -0.476 169 122 94
0.454693 -0.342267 -0.476 169 122 94
0.454643 -0.341548 -0.475 170 123 95
0.455548 -0.341548 -0.475 170 123 95
0.456452 -0.341548 -0.475 170 123 95
0.456394 -0.340829 -0.474 170 123 95
0.457297 -0.340829 -0.474 171 124 94
0.4582 -0.340829 -0.474 173 126 96
0.458134 -0.34011 -0.473 172 125 95
0.459035 -0.34011 -0.473 172 125 95
0.459936 -0.34011 -0.473 171 124 94
0.460837 -0.34011 -0.473 170 123 93
0.461738 -0.34011 -0.473 170 123 93
0.462639 -0.34011 -0.473 169 122 92
0.46354 -0.34011 -0.473 169 123 90
0.464441 -0.34011 -0.473 169 123 90
0.465342 -0.34011 -0.473 169 124 95
0.466243 -0.34011 -0.473 168 123 94
0.467144 -0.34011 -0.473 169 124 95
0.468045 -0.34011 -0.473 170 125 96
0.469937 -0.340829 -0.474 171 126 97
0.47084 -0.340829 -0.474 171 126 97
0.471743 -0.340829 -0.474 168 123 94
0.472646 -0.340829 -0.474 167 120 92
0.473549 -0.340829 -0.474 167 120 92
0.474451 -0.340829 -0.474 169 122 94
0.475354 -0.340829 -0.474 170 123 95
0.476257 -0.340829 -0.474 170 123 95
0.47716 -0.340829 -0.474 169 122 94
0.479071 -0.341548 -0.475 169 122 96
0.479976 -0.341548 -0.475 167 120 94
0.480881 -0.341548 -0.475 167 120 92
0.481786 -0.341548 -0.475 169 119 92
0.48269 -0.341548 -0.475 165 121 92
0.483595 -0.341548 -0.475 164 120 91
0.4845 -0.341548 -0.475 166 121 92
0.486427 -0.342267 -0.476 167 122 93
0.487333 -0.342267 -0.476 168 118 91
0.48824 -0.342267 -0.476 166 116 89
0.490174 -0.342986 -0.477 166 116 91
0.491083 -0.342986 -0.477 166 116 91
0.491991 -0.342986 -0.477 162 115 89
0.493933 -0.343705 -0.478 161 114 88
0.495879 -0.344424 -0.479 160 114 88
0.497829 -0.345143 -0.48 159 113 87
0.498743 -0.345143 -0.48 156 117 88
0.500698 -0.345862 -0.481 161 122 93
0.502657 -0.346581 -0.482 166 131 103
0.50462 -0.3473 -0.483 172 137 109
0.506587 -0.348019 -0.484 166 143 125
0.510654 -0.350176 -0.487 173 150 132
0.513683 -0.351614 -0.489 175 156 139
0.0441086 -0.402291 -0.558 196 154 130
0.0450905 -0.40157 -0.557 202 157 136
0.0459029 -0.399408 -0.554 202 157 136
0.0467038 -0.397245 -0.551 203 158 137
0.0476667 -0.396524 -0.55 204 159 136
0.04836 -0.39364 -0.546 205 160 137
0.0489476 -0.390035 -0.541 204 159 136
0.049701 -0.387872 -0.538 202 157 134
0.0504429 -0.38571 -0.535 200 155 132
0.0512695 -0.384268 -0.533 200 155 132
0.0520886 -0.382826 -0.531 201 156 133
0.053 -0.382105 -0.53 202 157 134
0.0539076 -0.381384 -0.529 203 158 135
0.0548114 -0.380663 -0.528 203 158 135
0.0557114 -0.379942 -0.527 205 160 137
0.0567152 -0.379942 -0.527 207 162 139
0.0576095 -0.379221 -0.526 207 162 139
0.0585 -0.3785 -0.525 209 163 139
0.0595 -0.3785 -0.525 209 163 139
0.0605 -0.3785 -0.525 208 162 138
0.0615 -0.3785 -0.525 205 159 135
0.0625 -0.3785 -0.525 204 158 134
0.0635 -0.3785 -0.525 202 156 132
0.0643771 -0.377779 -0.524 202 156 132
0.0653752 -0.377779 -0.524 201 155 131
0.0663733 -0.377779 -0.524 203 155 132
0.0673714 -0.377779 -0.524 203 155 132
0.0683695 -0.377779 -0.524 203 155 132
0.0693676 -0.377779 -0.524 202 154 131
0.0703657 -0.377779 -0.524 201 154 128
0.0713638 -0.377779 -0.524 199 152 126
0.0723619 -0.377779 -0.524 198 151 125
0.07336 -0.377779 -0.524 197 150 124
0.0743581 -0.377779 -0.524 194 149 120
0.0753562 -0.377779 -0.524 193 148 119
0.0765 -0.3785 -0.525 191 144 116
0.0775 -0.3785 -0.525 190 143 115
0.0785 -0.3785 -0.525 189 142 112
0.0795 -0.3785 -0.525 187 140 110
0.0806533 -0.379221 -0.526 186 137 107
0.0816552 -0.379221 -0.526 184 135 105
0.0828143 -0.379942 -0.527 184 134 107
0.0838181 -0.379942 -0.527 183 133 106
0.0849829 -0.380663 -0.528 179 127 105
0.0859886 -0.380663 -0.528 173 121 99
0.087159 -0.381384 -0.529 174 118 101
0.0883333 -0.382105 -0.53 175 119 102
0.0893429 -0.382105 -0.53 175 119 104
0.0905229 -0.382826 -0.531 175 119 104
0.0917067 -0.383547 -0.532 175 120 100
0.0928943 -0.384268 -0.533 175 120 100
0.0939095 -0.384268 -0.533 175 120 100
0.0951029 -0.384989 -0.534 174 119 99
0.0963 -0.38571 -0.535 172 117 97
0.097501 -0.38643 -0.536 170 115 95
0.0987057 -0.387151 -0.537 166 113 95
0.0999143 -0.387872 -0.538 167 114 96
0.101127 -0.388593 -0.539 166 113 97
0.102343 -0.389314 -0.54 164 111 95
0.103563 -0.390035 -0.541 162 109 95
0.104787 -0.390756 -0.542 162 109 95
0.106014 -0.391477 -0.543 162 108 96
0.107246 -0.392198 -0.544 161 107 95
0.10868 -0.39364 -0.546 156 104 91
0.109921 -0.394361 -0.547 153 101 88
0.111369 -0.395803 -0.549 146 102 89
0.112619 -0.396524 -0.55 145 101 88
0.113873 -0.397245 -0.551 139 101 90
0.11534 -0.398687 -0.553 137 99 88
0.116814 -0.400129 -0.555 129 96 89
0.118296 -0.40157 -0.557 127 94 87
0.119786 -0.403012 -0.559 119 94 90
0.134633 -0.41599 -0.577 103 99 98
0.135968 -0.41671 -0.578 106 102 101
0.137306 -0.417431 -0.579 106 104 109
0.138409 -0.417431 -0.579 114 112 117
0.139511 -0.417431 -0.579 124 122 133
0.140857 -0.418152 -0.58 131 129 140
0.141962 -0.418152 -0.58 137 136 144
0.143067 -0.418152 -0.58 143 142 150
0.144171 -0.418152 -0.58 143 142 150
0.145276 -0.418152 -0.58 147 145 150
0.146381 -0.418152 -0.58 156 154 159
0.147486 -0.418152 -0.58 158 157 162
0.14859 -0.418152 -0.58 163 162 167
0.149695 -0.418152 -0.58 160 164 176
0.15054 -0.417431 -0.579 160 164 176
0.151643 -0.417431 -0.579 137 148 170
0.152746 -0.417431 -0.579 115 126 148
0.153849 -0.417431 -0.579 94 110 144
0.154951 -0.417431 -0.579 83 99 133
0.156054 -0.417431 -0.579 85 99 136
0.157157 -0.417431 -0.579 96 110 147
0.15826 -0.417431 -0.579 149 156 184
0.159363 -0.417431 -0.579 181 188 216
0.160466 -0.417431 -0.579 191 193 208
0.161569 -0.417431 -0.579 187 189 204
0.162952 -0.418152 -0.58 179 184 203
0.164057 -0.418152 -0.58 170 175 194
0.164877 -0.417431 -0.579 139 161 200
0.16598 -0.417431 -0.579 108 130 169
0.167083 -0.417431 -0.579 100 136 188
0.168186 -0.417431 -0.579 111 147 199
0.169289 -0.417431 -0.579 120 161 215
0.170391 -0.417431 -0.579 109 150 204
0.199066 -0.417431 -0.579 230 236 252
0.232552 -0.418152 -0.58 152 181 223
0.233657 -0.418152 -0.58 165 194 236
0.234762 -0.418152 -0.58 172 205 250
0.235867 -0.418152 -0.58 172 205 250
0.236971 -0.418152 -0.58 167 194 239
0.238076 -0.418152 -0.58 154 181 226
0.27058 -0.418873 -0.581 237 246 253
0.271687 -0.418873 -0.581 240 247 255
0.302086 -0.419594 -0.582 161 191 241
0.303194 -0.419594 -0.582 147 177 227
0.304303 -0.419594 -0.582 146 173 216
0.325925 -0.420315 -0.583 226 233 251
0.327035 -0.420315 -0.583 228 235 253
0.328146 -0.420315 -0.583 225 231 247
0.329256 -0.420315 -0.583 224 230 246
0.330367 -0.420315 -0.583 225 231 243
0.332046 -0.421036 -0.584 226 232 244
0.333158 -0.421036 -0.584 222 226 237
0.33427 -0.421036 -0.584 201 205 216
0.335383 -0.421036 -0.584 204 206 218
0.336495 -0.421036 -0.584 219 221 233
0.337608 -0.421036 -0.584 220 228 241
0.33872 -0.421036 -0.584 220 228 241
0.339832 -0.421036 -0.584 219 226 242
0.340945 -0.421036 -0.584 221 228 244
0.342057 -0.421036 -0.584 220 226 238
0.34317 -0.421036 -0.584 216 222 234
0.344282 -0.421036 -0.584 214 223 230
0.345394 -0.421036 -0.584 220 229 236
0.346507 -0.421036 -0.584 207 221 234
0.347619 -0.421036 -0.584 195 209 222
0.348731 -0.421036 -0.584 166 181 210
0.349844 -0.421036 -0.584 149 164 193
0.350956 -0.421036 -0.584 123 137 172
0.352069 -0.421036 -0.584 122 136 171
0.353181 -0.421036 -0.584 147 160 192
0.354293 -0.421036 -0.584 193 206 238
0.356014 -0.421757 -0.585 215 224 241
0.357129 -0.421757 -0.585 210 219 236
0.358243 -0.421757 -0.585 194 210 236
0.359357 -0.421757 -0.585 194 210 236
0.360471 -0.421757 -0.585 186 202 228
0.361586 -0.421757 -0.585 162 185 226
0.3627 -0.421757 -0.585 131 154 195
0.363814 -0.421757 -0.585 113 149 197
0.364929 -0.421757 -0.585 133 169 217
0.366669 -0.422478 -0.586 122 162 214
0.367785 -0.422478 -0.586 104 144 196
0.368901 -0.422478 -0.586 112 146 191
0.370017 -0.422478 -0.586 142 176 221
0.371133 -0.422478 -0.586 176 195 227
0.37225 -0.422478 -0.586 186 205 237
0.373366 -0.422478 -0.586 202 208 230
0.374482 -0.422478 -0.586 210 216 238
0.375598 -0.422478 -0.586 201 206 225
0.376714 -0.422478 -0.586 160 165 184
0.37783 -0.422478 -0.586 121 136 165
0.378947 -0.422478 -0.586 115 130 159
0.380063 -0.422478 -0.586 129 147 183
0.381179 -0.422478 -0.586 144 162 198
0.382295 -0.422478 -0.586 173 187 216
0.383411 -0.422478 -0.586 186 200 229
0.384528 -0.422478 -0.586 204 211 229
0.385644 -0.422478 -0.586 206 213 231
0.38676 -0.422478 -0.586 206 212 224
0.387876 -0.422478 -0.586 205 211 223
0.388992 -0.422478 -0.586 199 207 218
0.390109 -0.422478 -0.586 202 210 221
0.391225 -0.422478 -0.586 200 208 219
0.392341 -0.422478 -0.586 196 204 215
0.393457 -0.422478 -0.586 201 203 218
0.394573 -0.422478 -0.586 206 208 223
0.39569 -0.422478 -0.586 206 208 223
0.396806 -0.422478 -0.586 201 207 219
0.397922 -0.422478 -0.586 200 206 218
0.399038 -0.422478 -0.586 199 207 218
0.400154 -0.422478 -0.586 199 207 218
0.40127 -0.422478 -0.586 200 210 219
0.402387 -0.422478 -0.586 195 205 214
0.403503 -0.422478 -0.586 201 210 215
0.404619 -0.422478 -0.586 199 208 213
0.405735 -0.422478 -0.586 197 204 212
0.406851 -0.422478 -0.586 199 206 214
0.407968 -0.422478 -0.586 197 206 221
0.409084 -0.422478 -0.586 197 206 221
0.4102 -0.422478 -0.586 184 196 220
0.411316 -0.422478 -0.586 164 176 200
0.412432 -0.422478 -0.586 136 153 183
0.414254 -0.423199 -0.587 110 127 157
0.415372 -0.423199 -0.587 99 114 147
0.41649 -0.423199 -0.587 104 119 152
0.417609 -0.423199 -0.587 157 168 198
0.418727 -0.423199 -0.587 188 199 229
0.419845 -0.423199 -0.587 191 199 222
0.420963 -0.423199 -0.587 182 190 213
0.422081 -0.423199 -0.587 179 190 218
0.423199 -0.423199 -0.587 167 178 206
0.424317 -0.423199 -0.587 133 154 201
0.425435 -0.423199 -0.587 104 125 172
0.426553 -0.423199 -0.587 101 134 187
0.427671 -0.423199 -0.587 115 148 201
0.42879 -0.423199 -0.587 125 163 212
0.429908 -0.423199 -0.587 115 153 202
0.43176 -0.42392 -0.588 109 137 187
0.43288 -0.42392 -0.588 98 126 176
0.434 -0.42392 -0.588 118 143 184
0.43512 -0.42392 -0.588 118 143 184
0.43624 -0.42392 -0.588 150 175 216
0.43736 -0.42392 -0.588 169 186 214
0.43848 -0.42392 -0.588 176 193 221
0.4396 -0.42392 -0.588 194 202 223
0.44072 -0.42392 -0.588 197 205 226
0.44184 -0.42392 -0.588 163 173 198
0.44296 -0.42392 -0.588 127 137 162
0.44408 -0.42392 -0.588 108 124 158
0.4452 -0.42392 -0.588 110 126 160
0.44632 -0.42392 -0.588 131 148 178
0.44744 -0.42392 -0.588 145 162 192
0.44856 -0.42392 -0.588 173 184 206
0.44968 -0.42392 -0.588 189 200 222
0.4508 -0.42392 -0.588 199 202 217
0.45192 -0.42392 -0.588 197 200 215
0.45381 -0.424641 -0.589 200 204 215
0.454932 -0.424641 -0.589 202 206 217
0.456054 -0.424641 -0.589 191 196 202
0.457176 -0.424641 -0.589 179 184 190
0.458298 -0.424641 -0.589 194 199 205
0.45942 -0.424641 -0.589 202 207 213
0.460542 -0.424641 -0.589 200 204 215
0.461664 -0.424641 -0.589 203 207 218
0.462786 -0.424641 -0.589 201 205 217
0.463908 -0.424641 -0.589 198 202 214
0.46503 -0.424641 -0.589 203 207 216
0.466943 -0.425362 -0.59 204 208 217
0.468067 -0.425362 -0.59 203 211 214
0.46919 -0.425362 -0.59 203 211 214
0.470314 -0.425362 -0.59 201 209 220
0.471438 -0.425362 -0.59 201 209 220
0.472562 -0.425362 -0.59 202 208 220
0.473686 -0.425362 -0.59 203 209 221
0.47481 -0.425362 -0.59 202 209 225
0.475933 -0.425362 -0.59 194 201 217
0.477057 -0.425362 -0.59 194 201 217
0.47737 -0.424641 -0.589 168 179 201
0.478492 -0.424641 -0.589 145 156 178
0.479614 -0.424641 -0.589 120 134 161
0.480736 -0.424641 -0.589 114 128 155
0.481858 -0.424641 -0.589 127 139 165
0.48298 -0.424641 -0.589 157 169 195
0.484102 -0.424641 -0.589 194 205 223
0.485224 -0.424641 -0.589 198 209 227
0.486346 -0.424641 -0.589 203 213 223
0.487468 -0.424641 -0.589 189 199 209
0.489419 -0.425362 -0.59 175 191 225
0.490543 -0.425362 -0.59 151 167 201
0.491667 -0.425362 -0.59 125 149 187
0.49279 -0.425362 -0.59 129 153 191
0.493914 -0.425362 -0.59 128 161 206
0.495038 -0.425362 -0.59 120 153 198
0.496162 -0.425362 -0.59 130 166 214
0.497286 -0.425362 -0.59 134 170 218
0.49841 -0.425362 -0.59 117 150 193
0.499533 -0.425362 -0.59 114 147 190
0.500657 -0.425362 -0.59 142 167 198
0.50093 -0.424641 -0.589 164 189 220
0.502052 -0.424641 -0.589 181 193 215
0.503174 -0.424641 -0.589 193 205 227
0.504296 -0.424641 -0.589 201 207 221
0.505418 -0.424641 -0.589 193 199 213
0.50654 -0.424641 -0.589 168 173 192
0.507662 -0.424641 -0.589 141 146 165
0.509648 -0.425362 -0.59 122 125 144
0.509906 -0.424641 -0.589 113 116 135
0.511028 -0.424641 -0.589 136 139 156
0.501853 -0.408059 -0.566 139 100 83
0.502931 -0.408059 -0.566 139 100 83
0.465123 -0.374174 -0.519 147 104 85
0.459825 -0.369128 -0.512 148 105 86
0.4563 -0.365523 -0.507 149 106 87
0.453658 -0.362639 -0.503 149 106 87
0.451905 -0.360476 -0.5 149 106 87
0.451046 -0.359034 -0.498 149 106 87
0.450179 -0.357592 -0.496 151 106 87
0.449305 -0.35615 -0.494 152 107 88
0.448423 -0.354709 -0.492 151 108 89
0.448447 -0.353988 -0.491 152 109 90
0.448467 -0.353267 -0.49 154 109 88
0.448483 -0.352546 -0.489 155 110 89
0.448495 -0.351825 -0.488 155 110 89
0.448504 -0.351104 -0.487 154 109 88
0.449431 -0.351104 -0.487 155 109 86
0.449434 -0.350383 -0.486 156 110 87
0.449433 -0.349662 -0.485 157 111 88
0.449429 -0.348941 -0.484 159 113 90
0.45035 -0.348941 -0.484 162 116 92
0.45034 -0.34822 -0.483 163 117 93
0.450326 -0.347499 -0.482 163 117 93
0.451244 -0.347499 -0.482 163 117 93
0.451224 -0.346778 -0.481 161 115 89
0.4512 -0.346057 -0.48 164 118 92
0.452114 -0.346057 -0.48 167 120 94
0.453029 -0.346057 -0.48 166 119 93
0.452997 -0.345336 -0.479 164 117 89
0.452962 -0.344615 -0.478 165 118 90
0.453872 -0.344615 -0.478 166 119 91
0.453831 -0.343894 -0.477 166 119 91
0.453787 -0.343173 -0.476 168 121 93
0.454693 -0.343173 -0.476 168 121 93
0.454643 -0.342452 -0.475 169 122 94
0.455548 -0.342452 -0.475 170 123 95
0.456452 -0.342452 -0.475 169 122 94
0.456394 -0.341731 -0.474 169 122 94
0.456332 -0.34101 -0.473 171 124 96
0.457233 -0.34101 -0.473 173 126 98
0.458134 -0.34101 -0.473 172 125 97
0.459035 -0.34101 -0.473 172 125 97
0.459936 -0.34101 -0.473 171 124 96
0.459863 -0.34029 -0.472 169 122 94
0.460762 -0.34029 -0.472 168 121 91
0.462639 -0.34101 -0.473 169 122 92
0.46354 -0.34101 -0.473 168 121 91
0.464441 -0.34101 -0.473 168 121 91
0.465342 -0.34101 -0.473 168 123 92
0.466243 -0.34101 -0.473 167 122 91
0.467144 -0.34101 -0.473 168 123 94
0.468045 -0.34101 -0.473 170 125 96
0.468946 -0.34101 -0.473 170 125 96
0.47084 -0.341731 -0.474 168 123 94
0.471743 -0.341731 -0.474 168 123 94
0.472646 -0.341731 -0.474 168 121 93
0.473549 -0.341731 -0.474 168 121 93
0.474451 -0.341731 -0.474 168 121 93
0.475354 -0.341731 -0.474 168 121 93
0.476257 -0.341731 -0.474 168 121 93
0.47716 -0.341731 -0.474 168 121 93
0.478063 -0.341731 -0.474 168 121 93
0.478966 -0.341731 -0.474 168 121 93
0.480881 -0.342452 -0.475 169 119 92
0.481786 -0.342452 -0.475 169 119 92
0.48269 -0.342452 -0.475 167 122 93
0.483595 -0.342452 -0.475 167 122 93
0.4845 -0.342452 -0.475 167 122 93
0.485405 -0.342452 -0.475 167 122 93
0.48631 -0.342452 -0.475 167 120 92
0.48824 -0.343173 -0.476 165 118 90
0.489147 -0.343173 -0.476 164 117 89
0.490053 -0.343173 -0.476 164 117 89
0.491991 -0.343894 -0.477 163 116 90
0.493933 -0.344615 -0.478 160 113 87
0.494844 -0.344615 -0.478 158 112 86
0.496791 -0.345336 -0.479 159 113 87
0.498743 -0.346057 -0.48 159 115 88
0.499657 -0.346057 -0.48 159 115 88
0.501614 -0.346778 -0.481 163 122 94
0.503575 -0.347499 -0.482 171 130 102
0.50554 -0.34822 -0.483 163 138 116
0.507509 -0.348941 -0.484 171 146 124
0.0439505 -0.401909 -0.556 191 153 132
0.0448476 -0.400463 -0.554 201 156 135
0.0456543 -0.398294 -0.551 202 157 136
0.0464495 -0.396126 -0.548 203 158 137
0.0474067 -0.395403 -0.547 203 158 137
0.0480943 -0.392511 -0.543 203 158 135
0.0487667 -0.38962 -0.539 202 157 134
0.0495162 -0.387451 -0.536 201 156 135
0.0502543 -0.385283 -0.533 201 156 135
0.0511733 -0.38456 -0.532 202 156 133
0.0519905 -0.383114 -0.53 202 156 133
0.0529 -0.382391 -0.529 203 157 134
0.0538057 -0.381669 -0.528 204 158 135
0.0547076 -0.380946 -0.527 205 159 136
0.0557114 -0.380946 -0.527 206 160 137
0.0566076 -0.380223 -0.526 207 161 138
0.0576095 -0.380223 -0.526 206 160 137
0.0585 -0.3795 -0.525 209 163 139
0.0595 -0.3795 -0.525 209 163 139
0.0603848 -0.378777 -0.524 208 162 138
0.0613829 -0.378777 -0.524 206 160 136
0.062381 -0.378777 -0.524 203 157 133
0.063379 -0.378777 -0.524 200 154 130
0.0643771 -0.378777 -0.524 199 153 129
0.0653752 -0.378777 -0.524 200 154 130
0.0663733 -0.378777 -0.524 203 155 132
0.0673714 -0.378777 -0.524 203 155 132
0.0683695 -0.378777 -0.524 202 154 131
0.0693676 -0.378777 -0.524 201 153 130
0.0703657 -0.378777 -0.524 200 152 129
0.0713638 -0.378777 -0.524 199 151 128
0.0723619 -0.378777 -0.524 197 149 126
0.07336 -0.378777 -0.524 195 147 124
0.0743581 -0.378777 -0.524 190 145 116
0.0753562 -0.378777 -0.524 190 145 116
0.0763543 -0.378777 -0.524 190 143 115
