ply
format ascii 1.0
comment Created by Open3D
element vertex 1292
property double x
property double y
property double z
property uchar red
property uchar green
property uchar blue
end_header
0.238773 -0.372533 -0.616 190 193 210
0.239947 -0.372533 -0.616 161 164 181
0.24112 -0.372533 -0.616 161 164 181
0.242293 -0.372533 -0.616 131 138 167
0.243467 -0.372533 -0.616 134 141 170
0.361714 -0.362857 -0.6 173 159 176
0.334972 -0.330805 -0.547 166 109 100
0.336014 -0.330805 -0.547 166 109 100
0.333975 -0.327781 -0.542 163 106 97
0.331917 -0.324757 -0.537 164 104 96
0.3317 -0.323548 -0.535 165 105 97
0.330853 -0.321733 -0.532 168 108 100
0.330619 -0.320524 -0.53 176 116 108
0.331003 -0.319919 -0.529 177 118 110
0.331383 -0.319314 -0.528 179 120 112
0.331759 -0.31871 -0.527 182 125 118
0.332131 -0.318105 -0.526 185 128 121
0.333133 -0.318105 -0.526 184 129 122
0.3335 -0.3175 -0.525 187 132 125
0.3345 -0.3175 -0.525 189 137 126
0.334861 -0.316895 -0.524 192 140 129
0.335218 -0.31629 -0.523 191 138 130
0.336214 -0.31629 -0.523 192 139 131
0.336566 -0.315686 -0.522 192 142 131
0.33756 -0.315686 -0.522 195 145 134
0.337906 -0.315081 -0.521 195 145 134
0.338898 -0.315081 -0.521 194 144 133
0.33989 -0.315081 -0.521 198 145 137
0.340229 -0.314476 -0.52 196 143 135
0.341219 -0.314476 -0.52 193 140 132
0.341551 -0.313871 -0.519 193 140 132
0.34254 -0.313871 -0.519 194 142 131
0.343529 -0.313871 -0.519 196 144 133
0.343853 -0.313267 -0.518 196 144 133
0.34484 -0.313267 -0.518 196 144 133
0.345827 -0.313267 -0.518 196 144 133
0.346813 -0.313267 -0.518 197 142 135
0.3478 -0.313267 -0.518 197 142 135
0.348787 -0.313267 -0.518 196 144 133
0.349773 -0.313267 -0.518 195 143 132
0.35076 -0.313267 -0.518 196 144 133
0.351747 -0.313267 -0.518 196 144 133
0.352733 -0.313267 -0.518 196 144 133
0.35372 -0.313267 -0.518 194 142 131
0.354022 -0.312662 -0.517 191 139 126
0.355693 -0.313267 -0.518 193 141 128
0.35668 -0.313267 -0.518 191 139 126
0.357667 -0.313267 -0.518 189 137 124
0.358653 -0.313267 -0.518 190 136 126
0.35964 -0.313267 -0.518 188 134 124
0.360627 -0.313267 -0.518 185 131 121
0.361613 -0.313267 -0.518 184 130 120
0.3626 -0.313267 -0.518 184 130 118
0.363587 -0.313267 -0.518 184 130 118
0.364573 -0.313267 -0.518 183 131 120
0.366266 -0.313871 -0.519 182 130 119
0.367254 -0.313871 -0.519 181 129 118
0.368243 -0.313871 -0.519 181 129 118
0.369231 -0.313871 -0.519 181 129 118
0.37022 -0.313871 -0.519 181 129 118
0.371924 -0.314476 -0.52 181 127 117
0.372914 -0.314476 -0.52 181 127 117
0.373905 -0.314476 -0.52 181 127 117
0.375616 -0.315081 -0.521 182 128 116
0.376609 -0.315081 -0.521 180 126 114
0.377601 -0.315081 -0.521 179 125 113
0.37932 -0.315686 -0.522 178 124 112
0.381043 -0.31629 -0.523 176 122 110
0.38277 -0.316895 -0.524 174 120 108
0.3845 -0.3175 -0.525 173 119 107
0.386234 -0.318105 -0.526 173 119 107
0.387972 -0.31871 -0.527 168 122 107
0.389714 -0.319314 -0.528 169 123 108
0.39146 -0.319919 -0.529 162 114 102
0.393951 -0.321129 -0.531 157 109 97
0.39645 -0.322338 -0.533 158 107 103
0.398957 -0.323548 -0.535 155 104 100
0.401471 -0.324757 -0.537 150 101 97
0.404743 -0.326571 -0.54 147 98 94
0.407274 -0.327781 -0.542 146 98 94
0.410567 -0.329595 -0.545 145 97 93
0.459204 -0.360438 -0.596 215 212 233
0.464973 -0.364067 -0.602 194 191 212
1.1244 -0.377976 -0.625 204 207 190
1.1256 -0.377976 -0.625 204 207 190
1.12679 -0.377976 -0.625 204 207 190
1.12617 -0.377371 -0.624 204 207 190
1.12736 -0.377371 -0.624 203 206 189
1.12674 -0.376767 -0.623 203 206 189
1.12793 -0.376767 -0.623 202 204 190
1.12911 -0.376767 -0.623 202 204 190
1.12849 -0.376162 -0.622 202 204 190
1.12967 -0.376162 -0.622 202 204 190
1.12904 -0.375557 -0.621 202 204 190
1.1284 -0.374952 -0.62 202 204 190
1.12594 -0.373743 -0.618 202 204 190
0.08274 -0.35854 -0.591 197 148 141
0.0832981 -0.356113 -0.587 198 149 142
0.0836971 -0.35308 -0.582 197 149 139
0.0840771 -0.350047 -0.577 195 147 137
0.0842905 -0.346407 -0.571 196 146 137
0.0849295 -0.344587 -0.568 195 145 136
0.0854057 -0.34216 -0.564 194 144 135
0.0863267 -0.341553 -0.563 194 144 135
0.0872438 -0.340947 -0.562 196 143 135
0.0881571 -0.34034 -0.561 195 142 134
0.0892257 -0.34034 -0.561 195 143 132
0.0901333 -0.339733 -0.56 196 144 133
0.0910371 -0.339127 -0.559 197 145 134
0.0921019 -0.339127 -0.559 197 145 134
0.093 -0.33852 -0.558 197 144 136
0.0940629 -0.33852 -0.558 198 145 137
0.0951257 -0.33852 -0.558 196 146 139
0.0960162 -0.337913 -0.557 195 145 138
0.0970771 -0.337913 -0.557 198 145 139
0.0979619 -0.337307 -0.556 198 145 139
0.099021 -0.337307 -0.556 195 142 134
0.10008 -0.337307 -0.556 193 140 132
0.101139 -0.337307 -0.556 191 138 130
0.102198 -0.337307 -0.556 191 138 130
0.103071 -0.3367 -0.555 193 138 131
0.104129 -0.3367 -0.555 191 136 129
0.105186 -0.3367 -0.555 192 138 128
0.106051 -0.336093 -0.554 196 142 132
0.107107 -0.336093 -0.554 197 143 133
0.108162 -0.336093 -0.554 197 143 133
0.109217 -0.336093 -0.554 198 141 132
0.110272 -0.336093 -0.554 196 139 130
0.111328 -0.336093 -0.554 193 139 129
0.112383 -0.336093 -0.554 191 137 127
0.113438 -0.336093 -0.554 188 131 120
0.114493 -0.336093 -0.554 185 128 117
0.115757 -0.3367 -0.555 184 127 116
0.116814 -0.3367 -0.555 183 126 115
0.117871 -0.3367 -0.555 179 125 115
0.118929 -0.3367 -0.555 175 121 111
0.119986 -0.3367 -0.555 175 121 109
0.121261 -0.337307 -0.556 174 120 108
0.12254 -0.337913 -0.557 172 118 106
0.123823 -0.33852 -0.558 165 111 99
0.124886 -0.33852 -0.558 160 107 93
0.125949 -0.33852 -0.558 160 107 93
0.127239 -0.339127 -0.559 160 107 93
0.128304 -0.339127 -0.559 160 106 94
0.1296 -0.339733 -0.56 155 101 89
0.1309 -0.34034 -0.561 155 103 90
0.132204 -0.340947 -0.562 155 103 90
0.133274 -0.340947 -0.562 154 100 88
0.134584 -0.341553 -0.563 154 100 88
0.135897 -0.34216 -0.564 152 98 86
0.137214 -0.342767 -0.565 152 98 86
0.138535 -0.343373 -0.566 152 97 90
0.13986 -0.34398 -0.567 147 92 85
0.14094 -0.34398 -0.567 147 94 88
0.14227 -0.344587 -0.568 147 94 88
0.143605 -0.345193 -0.569 142 93 86
0.144689 -0.345193 -0.569 138 89 82
0.146029 -0.3458 -0.57 136 89 81
0.147372 -0.346407 -0.571 134 87 79
0.14846 -0.346407 -0.571 130 85 79
0.14981 -0.347013 -0.572 129 84 78
0.151163 -0.34762 -0.573 133 86 78
0.15252 -0.348227 -0.574 134 87 79
0.153613 -0.348227 -0.574 136 89 83
0.154976 -0.348833 -0.575 134 87 81
0.156343 -0.34944 -0.576 128 83 77
0.157713 -0.350047 -0.577 126 81 75
0.159088 -0.350653 -0.578 127 84 78
0.160466 -0.35126 -0.579 129 86 80
0.161569 -0.35126 -0.579 129 85 82
0.162952 -0.351867 -0.58 128 84 81
0.16434 -0.352473 -0.581 125 84 80
0.165731 -0.35308 -0.582 124 83 79
0.167127 -0.353687 -0.583 122 82 80
0.168814 -0.3549 -0.585 122 82 80
0.170219 -0.355507 -0.586 122 82 80
0.171628 -0.356113 -0.587 121 81 79
0.17304 -0.35672 -0.588 126 82 81
0.174752 -0.357933 -0.59 127 83 82
0.176174 -0.35854 -0.591 125 84 80
0.1776 -0.359147 -0.592 124 83 79
0.17903 -0.359753 -0.593 125 86 81
0.180463 -0.36036 -0.594 126 87 82
0.183033 -0.360967 -0.595 121 85 85
0.20876 -0.372493 -0.614 161 160 178
0.210271 -0.3731 -0.615 148 144 169
0.211443 -0.3731 -0.615 127 123 148
0.21296 -0.373707 -0.616 121 120 154
0.214133 -0.373707 -0.616 104 103 137
0.215307 -0.373707 -0.616 66 65 105
0.21648 -0.373707 -0.616 84 83 123
0.217653 -0.373707 -0.616 123 127 164
0.218827 -0.373707 -0.616 149 153 190
0.22 -0.373707 -0.616 160 160 186
0.221173 -0.373707 -0.616 155 155 181
0.222347 -0.373707 -0.616 156 158 183
0.22352 -0.373707 -0.616 141 143 168
0.224693 -0.373707 -0.616 147 151 180
0.225867 -0.373707 -0.616 133 137 166
0.22704 -0.373707 -0.616 103 108 140
0.228213 -0.373707 -0.616 150 155 187
0.229387 -0.373707 -0.616 181 182 213
0.23056 -0.373707 -0.616 184 185 216
0.231733 -0.373707 -0.616 185 183 207
0.232907 -0.373707 -0.616 190 188 212
0.23408 -0.373707 -0.616 197 195 209
0.235253 -0.373707 -0.616 199 197 211
0.236427 -0.373707 -0.616 197 195 206
0.2376 -0.373707 -0.616 203 201 212
0.238773 -0.373707 -0.616 193 195 210
0.239947 -0.373707 -0.616 165 167 182
0.24112 -0.373707 -0.616 165 167 182
0.2419 -0.3731 -0.615 128 137 168
0.243071 -0.3731 -0.615 124 133 164
0.244243 -0.3731 -0.615 129 143 182
0.245414 -0.3731 -0.615 150 164 203
0.246586 -0.3731 -0.615 158 172 207
0.247757 -0.3731 -0.615 161 175 210
0.248929 -0.3731 -0.615 157 173 209
0.2501 -0.3731 -0.615 153 169 205
0.251271 -0.3731 -0.615 145 160 201
0.252443 -0.3731 -0.615 138 153 194
0.35937 -0.362787 -0.598 191 173 189
0.358097 -0.36036 -0.594 168 150 166
0.332523 -0.32942 -0.543 157 95 84
0.333557 -0.32942 -0.543 157 95 84
0.332127 -0.326993 -0.539 154 92 81
0.330681 -0.324567 -0.535 157 91 79
0.33046 -0.323353 -0.533 158 92 80
0.330231 -0.32214 -0.531 161 97 85
0.329995 -0.320927 -0.529 168 104 92
0.330377 -0.32032 -0.528 168 106 95
0.330755 -0.319713 -0.527 170 108 97
0.33113 -0.319107 -0.526 175 112 103
0.332131 -0.319107 -0.526 181 118 109
0.3325 -0.3185 -0.525 182 122 112
0.3335 -0.3185 -0.525 186 126 116
0.333863 -0.317893 -0.524 189 133 120
0.334861 -0.317893 -0.524 191 135 122
0.335218 -0.317287 -0.523 187 137 128
0.335571 -0.31668 -0.522 188 138 129
0.336566 -0.31668 -0.522 189 139 130
0.336913 -0.316073 -0.521 192 142 133
0.337906 -0.316073 -0.521 192 142 133
0.338898 -0.316073 -0.521 192 142 133
0.339238 -0.315467 -0.52 196 143 135
0.340229 -0.315467 -0.52 194 141 133
0.340563 -0.31486 -0.519 191 138 130
0.341551 -0.31486 -0.519 193 140 132
0.34254 -0.31486 -0.519 194 142 131
0.342867 -0.314253 -0.518 195 143 132
0.343853 -0.314253 -0.518 195 143 132
0.34484 -0.314253 -0.518 195 143 132
0.345159 -0.313647 -0.517 195 143 132
0.346144 -0.313647 -0.517 196 141 134
0.347129 -0.313647 -0.517 197 142 135
0.348113 -0.313647 -0.517 200 148 137
0.349098 -0.313647 -0.517 198 146 135
0.350083 -0.313647 -0.517 197 144 136
0.351068 -0.313647 -0.517 196 143 135
0.352052 -0.313647 -0.517 193 140 132
0.353037 -0.313647 -0.517 187 134 126
0.354022 -0.313647 -0.517 183 131 120
0.355007 -0.313647 -0.517 185 133 122
0.355991 -0.313647 -0.517 188 136 125
0.356976 -0.313647 -0.517 189 137 126
0.357961 -0.313647 -0.517 191 139 128
0.358946 -0.313647 -0.517 191 139 128
0.35993 -0.313647 -0.517 189 137 126
0.360217 -0.31304 -0.516 187 135 124
0.3612 -0.31304 -0.516 186 134 121
0.362183 -0.31304 -0.516 186 134 121
0.36387 -0.313647 -0.517 185 133 120
0.364854 -0.313647 -0.517 183 131 118
0.365839 -0.313647 -0.517 180 128 115
0.367533 -0.314253 -0.518 179 127 114
0.36852 -0.314253 -0.518 179 127 114
0.369507 -0.314253 -0.518 180 128 115
0.371209 -0.31486 -0.519 180 128 115
0.372197 -0.31486 -0.519 179 127 114
0.373186 -0.31486 -0.519 177 125 112
0.374174 -0.31486 -0.519 177 125 112
0.375886 -0.315467 -0.52 174 122 109
0.376876 -0.315467 -0.52 172 120 107
0.378593 -0.316073 -0.521 172 120 107
0.380314 -0.31668 -0.522 169 117 104
0.382039 -0.317287 -0.523 166 114 101
0.383768 -0.317893 -0.524 165 113 100
0.3855 -0.3185 -0.525 163 111 98
0.387236 -0.319107 -0.526 161 118 102
0.388976 -0.319713 -0.527 168 125 109
0.39146 -0.320927 -0.529 165 117 103
0.39321 -0.321533 -0.53 159 111 97
0.395707 -0.322747 -0.532 163 110 102
0.398211 -0.32396 -0.534 159 106 98
0.400724 -0.325173 -0.536 149 100 95
0.403244 -0.326387 -0.538 150 101 96
0.405771 -0.3276 -0.54 144 97 91
0.40906 -0.32942 -0.543 140 93 87
0.41236 -0.33124 -0.546 140 97 88
0.417186 -0.334273 -0.551 141 98 89
0.42203 -0.337307 -0.556 143 109 99
1.12498 -0.37856 -0.624 203 206 189
1.12617 -0.37856 -0.624 203 206 189
1.12736 -0.37856 -0.624 203 206 189
1.12674 -0.377953 -0.623 202 205 188
1.12793 -0.377953 -0.623 201 204 187
1.12911 -0.377953 -0.623 201 204 187
1.12849 -0.377347 -0.622 201 204 187
1.12785 -0.37674 -0.621 202 204 190
1.12904 -0.37674 -0.621 202 204 190
1.1284 -0.376133 -0.62 202 204 190
1.12594 -0.37492 -0.618 203 205 191
1.12529 -0.374313 -0.617 203 205 191
1.12464 -0.373707 -0.616 202 204 190
0.08232 -0.35784 -0.588 198 150 140
0.0827305 -0.354797 -0.583 197 149 139
0.0832657 -0.352363 -0.579 196 148 138
0.0834943 -0.348711 -0.573 196 148 138
0.0839952 -0.346277 -0.569 196 146 137
0.0846305 -0.344451 -0.566 195 145 136
0.0852543 -0.342626 -0.563 195 145 136
0.0861733 -0.342017 -0.562 194 144 135
0.0872438 -0.342017 -0.562 196 143 135
0.088 -0.3408 -0.56 196 143 135
0.0890667 -0.3408 -0.56 196 144 133
0.0899724 -0.340191 -0.559 196 144 133
0.0908743 -0.339583 -0.558 196 144 133
0.0919371 -0.339583 -0.558 195 143 132
0.093 -0.339583 -0.558 195 142 134
0.0938943 -0.338974 -0.557 196 143 135
0.0949552 -0.338974 -0.557 199 146 140
0.0960162 -0.338974 -0.557 197 144 138
0.0969029 -0.338366 -0.556 197 144 136
0.0979619 -0.338366 -0.556 196 143 135
0.099021 -0.338366 -0.556 195 142 134
0.0999 -0.337757 -0.555 193 140 132
0.100957 -0.337757 -0.555 190 137 129
0.102014 -0.337757 -0.555 189 136 128
0.103071 -0.337757 -0.555 192 138 128
0.103941 -0.337149 -0.554 191 137 127
0.104996 -0.337149 -0.554 194 140 130
0.106051 -0.337149 -0.554 196 142 132
0.107107 -0.337149 -0.554 197 143 133
0.108162 -0.337149 -0.554 196 142 132
0.109217 -0.337149 -0.554 196 142 132
0.110272 -0.337149 -0.554 195 141 131
0.111127 -0.33654 -0.553 194 140 130
0.11218 -0.33654 -0.553 186 132 122
0.113438 -0.337149 -0.554 183 126 115
0.114493 -0.337149 -0.554 183 126 115
0.115549 -0.337149 -0.554 184 127 116
0.116814 -0.337757 -0.555 183 126 115
0.117871 -0.337757 -0.555 180 126 114
0.118929 -0.337757 -0.555 178 124 112
0.119986 -0.337757 -0.555 175 121 109
0.121261 -0.338366 -0.556 174 120 108
0.12254 -0.338974 -0.557 171 118 104
0.123823 -0.339583 -0.558 164 111 97
0.124886 -0.339583 -0.558 164 111 97
0.126174 -0.340191 -0.559 160 107 93
0.127239 -0.340191 -0.559 161 108 94
0.128533 -0.3408 -0.56 159 105 93
0.1296 -0.3408 -0.56 155 101 89
0.1309 -0.341409 -0.561 153 99 89
0.132204 -0.342017 -0.562 154 100 90
0.133511 -0.342626 -0.563 155 101 91
0.134584 -0.342626 -0.563 156 102 92
0.136138 -0.343843 -0.565 154 102 91
0.137457 -0.344451 -0.566 150 98 87
0.138535 -0.344451 -0.566 144 94 87
0.13986 -0.34506 -0.567 139 89 82
0.141189 -0.345669 -0.568 141 92 85
0.14227 -0.345669 -0.568 141 92 85
0.143605 -0.346277 -0.569 137 90 84
0.144943 -0.346886 -0.57 135 88 82
0.146285 -0.347494 -0.571 132 87 81
0.147372 -0.347494 -0.571 131 86 80
0.14872 -0.348103 -0.572 130 85 80
0.150071 -0.348711 -0.573 130 85 80
0.151427 -0.34932 -0.574 129 84 78
0.15252 -0.34932 -0.574 131 86 80
0.153881 -0.349929 -0.575 133 88 82
0.155246 -0.350537 -0.576 131 86 80
0.156614 -0.351146 -0.577 126 83 77
0.157987 -0.351754 -0.578 125 82 76
0.159363 -0.352363 -0.579 127 84 78
0.160743 -0.352971 -0.58 129 86 80
0.162127 -0.35358 -0.581 126 85 81
0.163233 -0.35358 -0.581 126 85 81
0.164906 -0.354797 -0.583 126 85 81
0.166301 -0.355406 -0.584 125 84 80
0.1677 -0.356014 -0.585 123 83 81
0.169103 -0.356623 -0.586 122 82 80
0.17051 -0.357231 -0.587 122 82 80
0.172212 -0.358449 -0.589 121 81 79
0.173629 -0.359057 -0.59 122 81 79
0.175049 -0.359666 -0.591 123 82 80
0.17677 -0.360883 -0.593 125 84 80
0.1782 -0.361491 -0.594 124 83 79
0.206085 -0.373054 -0.613 105 108 139
0.207252 -0.373054 -0.613 128 128 162
0.20876 -0.373663 -0.614 137 137 171
0.210271 -0.374271 -0.615 125 118 149
0.211443 -0.374271 -0.615 124 117 148
0.212614 -0.374271 -0.615 123 126 157
0.213786 -0.374271 -0.615 88 91 122
0.214957 -0.374271 -0.615 60 71 117
0.216129 -0.374271 -0.615 83 94 140
0.2173 -0.374271 -0.615 124 133 174
0.218471 -0.374271 -0.615 150 159 200
0.219643 -0.374271 -0.615 152 156 194
0.220814 -0.374271 -0.615 145 149 187
0.221986 -0.374271 -0.615 138 146 185
0.223157 -0.374271 -0.615 107 115 154
0.224329 -0.374271 -0.615 92 100 136
0.2255 -0.374271 -0.615 80 88 124
0.226671 -0.374271 -0.615 119 123 150
0.227843 -0.374271 -0.615 163 167 194
0.229014 -0.374271 -0.615 184 185 203
0.230186 -0.374271 -0.615 186 187 205
0.231357 -0.374271 -0.615 188 190 203
0.232529 -0.374271 -0.615 190 192 205
0.2337 -0.374271 -0.615 191 192 210
0.234871 -0.374271 -0.615 192 193 211
0.236043 -0.374271 -0.615 197 195 219
0.237214 -0.374271 -0.615 201 199 223
0.238386 -0.374271 -0.615 192 195 212
0.239557 -0.374271 -0.615 148 151 168
0.240729 -0.374271 -0.615 148 151 168
0.2419 -0.374271 -0.615 127 142 181
0.242676 -0.373663 -0.614 114 129 168
0.243846 -0.373663 -0.614 122 137 176
0.245015 -0.373663 -0.614 142 157 196
0.246185 -0.373663 -0.614 150 172 211
0.247354 -0.373663 -0.614 154 176 215
0.248524 -0.373663 -0.614 151 172 217
0.249693 -0.373663 -0.614 143 164 209
0.335931 -0.335931 -0.552 162 110 97
0.33271 -0.331671 -0.545 151 99 86
0.330686 -0.328629 -0.54 146 89 78
0.331714 -0.328629 -0.54 146 89 78
0.330278 -0.326194 -0.536 141 84 73
0.329445 -0.324369 -0.533 135 75 64
0.32922 -0.323151 -0.531 134 74 63
0.328988 -0.321934 -0.529 141 78 69
0.329371 -0.321326 -0.528 145 82 73
0.329751 -0.320717 -0.527 154 87 78
0.330128 -0.320109 -0.526 158 91 82
0.3305 -0.3195 -0.525 164 96 85
0.3315 -0.3195 -0.525 169 101 90
0.3325 -0.3195 -0.525 174 106 95
0.332865 -0.318891 -0.524 180 112 101
0.333863 -0.318891 -0.524 185 117 108
0.334222 -0.318283 -0.523 188 120 111
0.335218 -0.318283 -0.523 188 128 118
0.335571 -0.317674 -0.522 188 128 118
0.335921 -0.317066 -0.521 191 132 124
0.336913 -0.317066 -0.521 196 137 129
0.337906 -0.317066 -0.521 196 137 129
0.338248 -0.316457 -0.52 189 130 122
0.339238 -0.316457 -0.52 186 129 118
0.339574 -0.315849 -0.519 192 135 124
0.340563 -0.315849 -0.519 197 140 129
0.341551 -0.315849 -0.519 198 141 130
0.34188 -0.31524 -0.518 191 139 128
0.342867 -0.31524 -0.518 194 142 131
0.34319 -0.314631 -0.517 195 143 132
0.344174 -0.314631 -0.517 195 143 132
0.345159 -0.314631 -0.517 193 141 130
0.346144 -0.314631 -0.517 197 145 132
0.347129 -0.314631 -0.517 197 145 132
0.348113 -0.314631 -0.517 199 142 133
0.349098 -0.314631 -0.517 200 143 134
0.350083 -0.314631 -0.517 199 142 133
0.351068 -0.314631 -0.517 194 137 128
0.351371 -0.314023 -0.516 196 139 130
0.352354 -0.314023 -0.516 189 132 123
0.353337 -0.314023 -0.516 174 120 110
0.35432 -0.314023 -0.516 182 128 118
0.355303 -0.314023 -0.516 187 133 123
0.356286 -0.314023 -0.516 189 135 125
0.357269 -0.314023 -0.516 193 141 130
0.358251 -0.314023 -0.516 193 141 130
0.358538 -0.313414 -0.515 190 138 127
0.359519 -0.313414 -0.515 192 140 129
0.3605 -0.313414 -0.515 191 139 128
0.361481 -0.313414 -0.515 188 136 125
0.362462 -0.313414 -0.515 187 135 124
0.363443 -0.313414 -0.515 187 135 124
0.365131 -0.314023 -0.516 183 131 120
0.366114 -0.314023 -0.516 182 130 119
0.367809 -0.314631 -0.517 183 131 120
0.368793 -0.314631 -0.517 182 130 119
0.369778 -0.314631 -0.517 182 130 117
0.37148 -0.31524 -0.518 178 126 113
0.372467 -0.31524 -0.518 179 127 114
0.373453 -0.31524 -0.518 179 127 114
0.375163 -0.315849 -0.519 179 127 114
0.376151 -0.315849 -0.519 176 124 111
0.377867 -0.316457 -0.52 171 119 106
0.379586 -0.317066 -0.521 171 119 106
0.381309 -0.317674 -0.522 170 118 105
0.383035 -0.318283 -0.523 166 114 100
0.384766 -0.318891 -0.524 162 110 96
0.3865 -0.3195 -0.525 164 117 109
0.388976 -0.320717 -0.527 168 121 113
0.39072 -0.321326 -0.528 164 116 106
0.392468 -0.321934 -0.529 161 113 103
0.394963 -0.323151 -0.531 162 116 103
0.397466 -0.324369 -0.533 157 111 98
0.399976 -0.325586 -0.535 149 105 94
0.402494 -0.326803 -0.537 150 106 95
0.40502 -0.32802 -0.539 149 105 96
0.407553 -0.329237 -0.541 145 101 92
0.41085 -0.331063 -0.544 145 101 92
0.414157 -0.332889 -0.547 148 104 95
0.418994 -0.335931 -0.552 152 108 99
0.46649 -0.365751 -0.601 131 142 172
0.467635 -0.365751 -0.601 131 142 172
1.12555 -0.37914 -0.623 201 204 187
1.12674 -0.37914 -0.623 202 205 188
1.12793 -0.37914 -0.623 202 205 188
1.1273 -0.378531 -0.622 202 205 188
1.12849 -0.378531 -0.622 202 205 188
1.12785 -0.377923 -0.621 203 206 189
1.12904 -0.377923 -0.621 202 205 188
1.1284 -0.377314 -0.62 202 205 188
1.12776 -0.376706 -0.619 203 206 189
1.12529 -0.375489 -0.617 202 205 188
1.12464 -0.37488 -0.616 202 205 188
1.12399 -0.374271 -0.615 201 204 187
0.0814762 -0.360181 -0.59 195 148 142
0.08176 -0.356518 -0.584 197 149 139
0.0821629 -0.353466 -0.579 196 148 138
0.0826905 -0.351024 -0.575 197 149 139
0.0830571 -0.347971 -0.57 197 149 139
0.0835524 -0.34553 -0.566 196 148 138
0.0843314 -0.344309 -0.564 195 147 137
0.0849514 -0.342477 -0.561 195 145 136
0.0861733 -0.343088 -0.562 194 144 135
0.0870886 -0.342477 -0.561 194 144 135
0.088 -0.341867 -0.56 194 144 135
0.0889076 -0.341256 -0.559 197 144 136
0.0898114 -0.340646 -0.558 196 143 135
0.0908743 -0.340646 -0.558 195 142 134
0.0917724 -0.340035 -0.557 195 142 134
0.0928333 -0.340035 -0.557 195 142 134
0.0938943 -0.340035 -0.557 195 142 134
0.0949552 -0.340035 -0.557 199 146 138
0.0958438 -0.339425 -0.556 198 145 137
0.0969029 -0.339425 -0.556 197 144 136
0.0977857 -0.338814 -0.555 194 141 133
0.0988429 -0.338814 -0.555 194 141 133
0.0999 -0.338814 -0.555 192 139 131
0.100775 -0.338204 -0.554 189 136 128
0.10183 -0.338204 -0.554 188 135 127
0.102886 -0.338204 -0.554 193 139 129
0.103753 -0.337593 -0.553 193 139 129
0.104807 -0.337593 -0.553 194 140 130
0.10586 -0.337593 -0.553 195 141 131
0.106913 -0.337593 -0.553 195 141 131
0.107967 -0.337593 -0.553 196 142 132
0.10902 -0.337593 -0.553 196 142 130
0.110073 -0.337593 -0.553 195 141 129
0.111127 -0.337593 -0.553 194 140 128
0.11218 -0.337593 -0.553 182 128 116
0.113233 -0.337593 -0.553 179 122 111
0.114493 -0.338204 -0.554 182 125 114
0.115549 -0.338204 -0.554 184 127 116
0.116604 -0.338204 -0.554 182 125 114
0.117871 -0.338814 -0.555 179 125 113
0.118929 -0.338814 -0.555 179 125 113
0.119986 -0.338814 -0.555 175 121 109
0.121261 -0.339425 -0.556 173 119 107
0.12232 -0.339425 -0.556 168 115 101
0.123601 -0.340035 -0.557 163 110 96
0.124662 -0.340035 -0.557 163 110 96
0.125949 -0.340646 -0.558 161 108 94
0.127239 -0.341256 -0.559 161 108 94
0.128533 -0.341867 -0.56 158 105 91
0.129831 -0.342477 -0.561 154 101 87
0.131133 -0.343088 -0.562 155 98 91
0.132204 -0.343088 -0.562 155 98 91
0.133511 -0.343698 -0.563 154 99 92
0.134823 -0.344309 -0.564 154 99 92
0.136138 -0.344919 -0.565 150 100 91
0.137457 -0.34553 -0.566 146 96 87
0.13878 -0.34614 -0.567 138 91 83
0.140107 -0.34675 -0.568 135 88 80
0.141437 -0.347361 -0.569 136 91 85
0.142521 -0.347361 -0.569 135 90 84
0.143857 -0.347971 -0.57 133 88 82
0.145197 -0.348582 -0.571 131 86 80
0.146541 -0.349192 -0.572 131 86 81
0.14763 -0.349192 -0.572 130 85 80
0.14898 -0.349803 -0.573 130 85 80
0.150333 -0.350413 -0.574 130 85 80
0.15169 -0.351024 -0.575 127 84 78
0.152786 -0.351024 -0.575 128 85 79
0.154149 -0.351634 -0.576 131 88 82
0.155515 -0.352245 -0.577 131 88 82
0.156886 -0.352855 -0.578 127 84 78
0.15826 -0.353466 -0.579 126 83 77
0.159638 -0.354076 -0.58 126 85 81
0.16102 -0.354687 -0.581 126 85 81
0.162406 -0.355297 -0.582 127 86 82
0.163795 -0.355908 -0.583 127 86 82
0.165189 -0.356518 -0.584 125 85 83
0.166586 -0.357129 -0.585 124 84 82
0.168273 -0.35835 -0.587 124 84 82
0.16968 -0.35896 -0.588 123 83 81
0.17109 -0.35957 -0.589 122 82 80
0.172505 -0.360181 -0.59 123 83 81
0.174217 -0.361402 -0.592 124 80 77
0.175641 -0.362012 -0.593 123 79 76
0.204583 -0.373611 -0.612 59 65 97
0.206085 -0.374222 -0.613 79 85 117
0.207252 -0.374222 -0.613 108 108 142
0.20876 -0.374832 -0.614 111 111 145
0.20993 -0.374832 -0.614 132 128 155
0.211099 -0.374832 -0.614 140 136 163
0.212269 -0.374832 -0.614 113 119 153
0.213786 -0.375443 -0.615 74 80 114
0.214957 -0.375443 -0.615 44 60 109
0.216129 -0.375443 -0.615 68 84 133
0.2173 -0.375443 -0.615 118 130 170
0.218471 -0.375443 -0.615 147 159 199
0.219643 -0.375443 -0.615 141 149 186
0.220814 -0.375443 -0.615 117 125 162
0.221986 -0.375443 -0.615 111 123 165
0.223157 -0.375443 -0.615 81 93 135
0.223964 -0.374832 -0.614 62 74 114
0.225133 -0.374832 -0.614 72 84 124
0.226671 -0.375443 -0.615 150 157 186
0.227843 -0.375443 -0.615 173 180 209
0.229014 -0.375443 -0.615 182 185 202
0.229811 -0.374832 -0.614 186 189 206
0.230981 -0.374832 -0.614 191 193 208
0.23215 -0.374832 -0.614 193 195 210
0.23332 -0.374832 -0.614 195 196 216
0.23449 -0.374832 -0.614 196 197 217
0.235659 -0.374832 -0.614 196 196 220
0.236829 -0.374832 -0.614 196 196 220
0.237998 -0.374832 -0.614 197 200 217
0.239168 -0.374832 -0.614 197 200 217
0.240337 -0.374832 -0.614 152 155 172
0.241507 -0.374832 -0.614 127 146 186
0.355952 -0.365065 -0.598 209 190 194
0.3553 -0.363233 -0.595 196 163 170
0.33228 -0.33332 -0.546 182 128 118
0.329657 -0.329657 -0.54 180 126 116
0.328236 -0.327215 -0.536 181 124 113
0.329257 -0.327215 -0.536 181 124 113
0.32843 -0.325384 -0.533 179 122 111
0.328209 -0.324163 -0.531 172 114 102
0.32798 -0.322942 -0.529 162 104 92
0.328366 -0.322331 -0.528 151 93 82
0.328748 -0.321721 -0.527 141 83 72
0.329126 -0.32111 -0.526 135 75 64
0.3295 -0.3205 -0.525 136 76 65
0.3305 -0.3205 -0.525 143 79 67
0.330869 -0.31989 -0.524 148 84 72
0.331867 -0.31989 -0.524 159 91 80
0.33223 -0.319279 -0.523 166 98 87
0.333226 -0.319279 -0.523 172 104 93
0.334222 -0.319279 -0.523 176 108 97
0.334577 -0.318669 -0.522 174 111 102
0.335571 -0.318669 -0.522 176 113 104
0.335921 -0.318058 -0.521 180 120 110
0.336267 -0.317448 -0.52 186 126 116
0.337257 -0.317448 -0.52 186 128 117
0.338248 -0.317448 -0.52 182 124 113
0.338586 -0.316837 -0.519 181 123 112
0.339574 -0.316837 -0.519 186 128 117
0.340563 -0.316837 -0.519 190 133 122
0.340893 -0.316227 -0.518 194 137 126
0.34188 -0.316227 -0.518 191 137 125
0.342205 -0.315616 -0.517 193 139 127
0.34319 -0.315616 -0.517 195 141 129
0.344174 -0.315616 -0.517 195 141 129
0.345159 -0.315616 -0.517 195 141 129
0.345474 -0.315006 -0.516 197 143 131
0.346457 -0.315006 -0.516 196 142 130
0.34744 -0.315006 -0.516 200 143 134
0.348423 -0.315006 -0.516 198 141 132
0.349406 -0.315006 -0.516 195 138 129
0.350389 -0.315006 -0.516 195 138 129
0.351371 -0.315006 -0.516 196 139 130
0.352354 -0.315006 -0.516 191 134 125
0.352652 -0.314395 -0.515 185 128 119
0.353633 -0.314395 -0.515 186 129 120
0.354614 -0.314395 -0.515 182 128 118
0.355595 -0.314395 -0.515 183 129 119
0.356576 -0.314395 -0.515 191 137 127
0.357557 -0.314395 -0.515 194 140 130
0.357842 -0.313785 -0.514 194 140 130
0.358821 -0.313785 -0.514 197 143 133
0.3598 -0.313785 -0.514 197 143 133
0.360779 -0.313785 -0.514 194 140 130
0.361758 -0.313785 -0.514 193 139 129
0.362737 -0.313785 -0.514 193 139 129
0.364424 -0.314395 -0.515 190 136 126
0.365405 -0.314395 -0.515 189 135 125
0.366386 -0.314395 -0.515 188 134 124
0.36808 -0.315006 -0.516 186 132 122
0.369063 -0.315006 -0.516 184 132 119
0.370763 -0.315616 -0.517 185 133 120
0.371748 -0.315616 -0.517 182 130 117
0.372732 -0.315616 -0.517 182 130 117
0.37444 -0.316227 -0.518 183 131 118
0.375427 -0.316227 -0.518 181 129 116
0.37714 -0.316837 -0.519 177 125 112
0.378857 -0.317448 -0.52 177 125 112
0.380578 -0.318058 -0.521 176 124 111
0.382303 -0.318669 -0.522 171 119 105
0.384031 -0.319279 -0.523 167 115 101
0.385764 -0.31989 -0.524 164 117 109
0.388238 -0.32111 -0.526 166 119 111
0.38998 -0.321721 -0.527 162 115 105
0.392468 -0.322942 -0.529 159 112 102
0.394219 -0.323552 -0.53 157 110 100
0.39672 -0.324773 -0.532 153 106 96
0.399229 -0.325994 -0.534 149 105 96
0.401745 -0.327215 -0.536 148 104 95
0.404269 -0.328436 -0.538 147 102 96
0.4068 -0.329657 -0.54 145 100 94
0.409339 -0.330878 -0.542 145 101 92
0.412643 -0.33271 -0.545 147 103 94
0.415958 -0.334541 -0.548 149 105 96
0.456829 -0.360181 -0.59 153 159 183
0.46261 -0.363844 -0.596 130 136 160
0.463745 -0.363844 -0.596 130 136 160
0.46878 -0.366896 -0.601 155 163 184
1.12437 -0.380327 -0.623 202 205 188
1.12555 -0.380327 -0.623 202 205 188
1.12674 -0.380327 -0.623 202 205 188
1.12793 -0.380327 -0.623 202 205 188
1.1273 -0.379716 -0.622 202 205 188
1.12667 -0.379106 -0.621 202 205 188
1.12785 -0.379106 -0.621 204 206 192
1.12722 -0.378495 -0.62 203 205 191
1.1284 -0.378495 -0.62 203 205 191
1.12776 -0.377885 -0.619 203 205 191
1.12711 -0.377274 -0.618 202 204 190
1.12647 -0.376664 -0.617 202 204 190
1.12399 -0.375443 -0.615 201 204 187
0.0803524 -0.361305 -0.59 194 145 140
0.0810619 -0.359468 -0.587 193 144 139
0.08134 -0.355793 -0.581 196 148 138
0.0815952 -0.352119 -0.575 196 148 138
0.0821152 -0.34967 -0.571 197 149 139
0.0824743 -0.346608 -0.566 198 150 140
0.0832571 -0.345383 -0.564 198 150 140
0.0840324 -0.344158 -0.562 196 148 138
0.0849514 -0.343546 -0.561 195 145 136
0.0858667 -0.342933 -0.56 194 144 135
0.0869333 -0.342933 -0.56 193 143 134
0.0878429 -0.342321 -0.559 194 144 135
0.0887486 -0.341709 -0.558 194 144 135
0.0896505 -0.341096 -0.557 194 144 135
0.0907114 -0.341096 -0.557 197 144 136
0.0916076 -0.340484 -0.556 198 145 137
0.0926667 -0.340484 -0.556 198 145 139
0.0937257 -0.340484 -0.556 197 144 138
0.0947848 -0.340484 -0.556 198 145 137
0.0958438 -0.340484 -0.556 198 145 137
0.0967286 -0.339871 -0.555 197 144 136
0.0977857 -0.339871 -0.555 194 141 133
0.0988429 -0.339871 -0.555 192 139 131
0.09972 -0.339259 -0.554 191 138 130
0.100775 -0.339259 -0.554 189 137 126
0.10183 -0.339259 -0.554 189 137 126
0.1027 -0.338647 -0.553 194 140 130
0.103753 -0.338647 -0.553 194 140 130
0.104807 -0.338647 -0.553 194 140 130
0.10586 -0.338647 -0.553 194 140 130
0.106913 -0.338647 -0.553 195 141 129
0.107967 -0.338647 -0.553 195 141 129
0.10902 -0.338647 -0.553 194 140 128
0.110073 -0.338647 -0.553 191 137 125
0.111127 -0.338647 -0.553 193 137 124
0.11218 -0.338647 -0.553 185 129 116
0.113233 -0.338647 -0.553 181 125 112
0.114493 -0.339259 -0.554 183 127 114
0.115549 -0.339259 -0.554 183 127 114
0.116604 -0.339259 -0.554 180 124 111
0.117871 -0.339871 -0.555 176 123 109
0.118929 -0.339871 -0.555 176 123 109
0.120202 -0.340484 -0.556 174 121 107
0.121261 -0.340484 -0.556 171 118 104
0.12254 -0.341096 -0.557 166 113 99
0.123601 -0.341096 -0.557 166 113 99
0.124886 -0.341709 -0.558 161 108 94
0.126174 -0.342321 -0.559 160 107 93
0.127467 -0.342933 -0.56 160 107 93
0.128533 -0.342933 -0.56 156 103 89
0.129831 -0.343546 -0.561 152 99 85
0.131133 -0.344158 -0.562 154 97 90
0.132439 -0.34477 -0.563 152 95 88
0.133749 -0.345383 -0.564 151 96 89
0.135062 -0.345995 -0.565 149 94 87
0.136379 -0.346608 -0.566 147 94 86
0.1377 -0.34722 -0.567 145 92 84
0.139025 -0.347832 -0.568 138 89 82
0.140353 -0.348445 -0.569 138 89 82
0.141686 -0.349057 -0.57 137 90 82
0.142771 -0.349057 -0.57 137 90 82
0.14411 -0.34967 -0.571 134 89 83
0.145451 -0.350282 -0.572 131 86 80
0.146797 -0.350894 -0.573 130 85 79
0.147889 -0.350894 -0.573 129 84 78
0.14924 -0.351507 -0.574 129 84 78
0.150595 -0.352119 -0.575 130 85 79
0.15169 -0.352119 -0.575 128 85 79
0.153051 -0.352731 -0.576 128 85 79
0.154416 -0.353344 -0.577 129 86 80
0.155785 -0.353956 -0.578 129 86 80
0.157157 -0.354569 -0.579 128 85 79
0.158533 -0.355181 -0.58 127 84 78
0.159913 -0.355793 -0.581 126 85 81
0.161297 -0.356406 -0.582 125 84 80
0.162685 -0.357018 -0.583 127 86 82
0.164076 -0.35763 -0.584 126 85 81
0.165471 -0.358243 -0.585 125 86 81
0.167155 -0.359468 -0.587 125 86 81
0.16856 -0.36008 -0.588 125 85 83
0.170257 -0.361305 -0.59 123 83 81
0.171671 -0.361917 -0.591 123 83 81
0.17309 -0.36253 -0.592 124 84 82
0.203417 -0.374777 -0.612 65 68 101
0.204583 -0.374777 -0.612 46 55 88
0.206085 -0.37539 -0.613 60 69 102
0.207252 -0.37539 -0.613 95 96 127
0.20842 -0.37539 -0.613 102 103 134
0.20993 -0.376002 -0.614 138 134 161
0.211099 -0.376002 -0.614 149 145 172
0.212269 -0.376002 -0.614 102 115 150
0.213438 -0.376002 -0.614 62 75 110
0.214608 -0.376002 -0.614 39 59 112
0.216129 -0.376614 -0.615 67 87 140
0.2173 -0.376614 -0.615 114 127 169
0.218471 -0.376614 -0.615 142 155 197
0.219643 -0.376614 -0.615 122 134 172
0.220455 -0.376002 -0.614 101 113 151
0.221625 -0.376002 -0.614 97 111 156
0.222794 -0.376002 -0.614 56 70 115
0.223964 -0.376002 -0.614 64 78 123
0.225133 -0.376002 -0.614 88 102 147
0.226303 -0.376002 -0.614 159 170 202
0.227472 -0.376002 -0.614 171 182 214
0.228642 -0.376002 -0.614 179 184 203
0.229811 -0.376002 -0.614 184 189 208
0.230605 -0.37539 -0.613 190 191 209
0.231772 -0.37539 -0.613 191 192 210
0.23294 -0.37539 -0.613 193 194 215
0.234108 -0.37539 -0.613 195 196 217
0.235275 -0.37539 -0.613 195 197 220
0.236443 -0.37539 -0.613 196 198 221
0.23761 -0.37539 -0.613 193 198 217
0.238778 -0.37539 -0.613 193 198 217
0.239946 -0.37539 -0.613 157 162 181
0.241113 -0.37539 -0.613 127 150 192
0.242281 -0.37539 -0.613 117 140 182
0.353571 -0.363754 -0.594 179 149 151
0.350523 -0.359468 -0.587 185 140 143
0.328813 -0.33191 -0.542 185 127 125
0.32802 -0.330073 -0.539 184 129 122
0.326605 -0.327624 -0.535 183 128 121
0.326399 -0.326399 -0.533 181 127 117
0.327414 -0.326399 -0.533 181 127 117
0.326581 -0.324562 -0.53 183 129 119
0.326972 -0.32395 -0.529 189 135 125
0.32674 -0.322725 -0.527 192 138 128
0.327122 -0.322112 -0.526 187 133 123
0.3275 -0.3215 -0.525 179 125 115
0.3285 -0.3215 -0.525 171 114 103
0.328872 -0.320888 -0.524 162 105 94
0.32987 -0.320888 -0.524 152 92 81
0.330237 -0.320275 -0.523 142 82 71
0.331233 -0.320275 -0.523 142 78 68
0.331594 -0.319663 -0.522 145 81 71
0.332589 -0.319663 -0.522 151 87 77
0.333583 -0.319663 -0.522 156 92 82
0.333936 -0.31905 -0.521 160 98 87
0.334929 -0.31905 -0.521 163 101 90
0.335276 -0.318438 -0.52 169 106 97
0.336267 -0.318438 -0.52 176 113 104
0.337257 -0.318438 -0.52 176 116 106
0.337597 -0.317826 -0.519 174 114 104
0.338586 -0.317826 -0.519 174 114 103
0.33892 -0.317213 -0.518 177 117 106
0.339907 -0.317213 -0.518 187 129 117
0.340893 -0.317213 -0.518 191 133 121
0.34122 -0.316601 -0.517 189 132 121
0.342205 -0.316601 -0.517 187 130 119
0.34319 -0.316601 -0.517 192 135 124
0.343509 -0.315989 -0.516 197 140 129
0.344491 -0.315989 -0.516 197 140 129
0.345474 -0.315989 -0.516 199 143 130
0.346457 -0.315989 -0.516 200 144 131
0.34744 -0.315989 -0.516 193 136 125
0.348423 -0.315989 -0.516 193 136 125
0.349406 -0.315989 -0.516 192 135 124
0.350389 -0.315989 -0.516 194 137 126
0.35069 -0.315376 -0.515 190 133 122
0.351671 -0.315376 -0.515 188 131 120
0.352652 -0.315376 -0.515 194 137 126
0.352947 -0.314764 -0.514 194 137 126
0.353926 -0.314764 -0.514 183 129 117
0.354905 -0.314764 -0.514 180 126 114
0.355884 -0.314764 -0.514 187 133 121
0.356863 -0.314764 -0.514 193 139 127
0.357842 -0.314764 -0.514 194 140 128
0.358123 -0.314151 -0.513 195 141 129
0.3591 -0.314151 -0.513 195 141 129
0.360077 -0.314151 -0.513 193 139 127
0.361054 -0.314151 -0.513 196 139 130
0.362031 -0.314151 -0.513 195 138 129
0.363716 -0.314764 -0.514 193 139 129
0.364695 -0.314764 -0.514 193 139 129
0.365674 -0.314764 -0.514 193 139 129
0.367367 -0.315376 -0.515 190 136 126
0.368348 -0.315376 -0.515 187 133 121
0.370046 -0.315989 -0.516 189 135 123
0.371029 -0.315989 -0.516 185 131 119
0.372011 -0.315989 -0.516 185 131 119
0.373717 -0.316601 -0.517 186 132 120
0.374702 -0.316601 -0.517 184 130 118
0.376413 -0.317213 -0.518 181 127 115
0.378129 -0.317826 -0.519 179 125 113
0.379848 -0.318438 -0.52 178 124 112
0.38157 -0.31905 -0.521 175 122 108
0.383297 -0.319663 -0.522 172 119 105
0.385764 -0.320888 -0.524 166 119 111
0.3875 -0.3215 -0.525 163 116 108
0.38998 -0.322725 -0.527 160 113 105
0.391726 -0.323337 -0.528 159 112 104
0.394219 -0.324562 -0.53 155 108 100
0.39672 -0.325787 -0.532 153 106 98
0.398481 -0.326399 -0.533 151 106 100
0.400995 -0.327624 -0.535 146 101 95
0.403517 -0.328849 -0.537 144 99 93
0.406047 -0.330073 -0.539 144 99 93
0.407829 -0.330686 -0.54 146 101 95
0.411129 -0.332523 -0.543 146 101 95
0.41444 -0.33436 -0.546 147 102 96
0.417002 -0.335585 -0.548 149 104 98
0.42186 -0.338647 -0.553 151 106 101
0.425972 -0.341096 -0.557 154 109 104
1.12493 -0.380901 -0.622 203 206 189
1.12612 -0.380901 -0.622 203 206 189
1.1273 -0.380901 -0.622 202 205 188
1.12667 -0.380289 -0.621 202 205 188
1.12785 -0.380289 -0.621 203 205 191
1.12722 -0.379676 -0.62 203 205 191
1.1284 -0.379676 -0.62 202 204 190
1.12776 -0.379064 -0.619 202 204 190
1.12711 -0.378451 -0.618 202 204 190
1.12647 -0.377839 -0.617 202 204 190
1.12399 -0.376614 -0.615 202 204 190
0.0790943 -0.361814 -0.589 183 150 133
0.0798076 -0.359971 -0.586 190 145 139
0.0803714 -0.357514 -0.582 190 145 139
0.08078 -0.354443 -0.577 194 147 137
0.0811695 -0.351371 -0.572 195 148 138
0.0816838 -0.348914 -0.568 196 149 139
0.0820371 -0.345843 -0.563 197 150 140
0.0829619 -0.345229 -0.562 198 150 140
0.0840324 -0.345229 -0.562 196 148 138
0.0848 -0.344 -0.56 193 145 135
0.0857133 -0.343386 -0.559 193 145 135
0.0866229 -0.342771 -0.558 194 144 135
0.0876857 -0.342771 -0.558 195 145 136
0.0885895 -0.342157 -0.557 195 145 136
0.0894895 -0.341543 -0.556 196 146 137
0.0905486 -0.341543 -0.556 199 146 138
0.0914429 -0.340929 -0.555 201 148 140
0.0925 -0.340929 -0.555 201 148 140
0.0935571 -0.340929 -0.555 200 147 139
0.0946143 -0.340929 -0.555 196 143 135
0.0956714 -0.340929 -0.555 196 143 135
0.0967286 -0.340929 -0.555 197 144 136
0.0976095 -0.340314 -0.554 194 141 133
0.0986648 -0.340314 -0.554 192 140 129
0.09972 -0.340314 -0.554 191 139 128
0.100593 -0.3397 -0.553 190 138 127
0.101647 -0.3397 -0.553 190 138 127
0.1027 -0.3397 -0.553 194 140 130
0.103753 -0.3397 -0.553 194 140 130
0.104807 -0.3397 -0.553 194 140 128
0.10586 -0.3397 -0.553 194 140 128
0.106913 -0.3397 -0.553 195 141 129
0.107967 -0.3397 -0.553 194 140 128
0.10902 -0.3397 -0.553 191 137 125
0.110073 -0.3397 -0.553 187 133 121
0.111127 -0.3397 -0.553 189 133 118
0.11218 -0.3397 -0.553 187 131 116
0.113233 -0.3397 -0.553 182 129 113
0.114287 -0.3397 -0.553 180 127 111
0.115549 -0.340314 -0.554 180 127 111
0.116604 -0.340314 -0.554 177 124 108
0.117871 -0.340929 -0.555 173 120 104
0.118929 -0.340929 -0.555 173 120 104
0.120202 -0.341543 -0.556 173 120 106
0.121261 -0.341543 -0.556 170 117 103
0.12232 -0.341543 -0.556 170 117 103
0.123601 -0.342157 -0.557 165 112 98
0.124886 -0.342771 -0.558 160 107 93
0.126174 -0.343386 -0.559 158 105 91
0.127467 -0.344 -0.56 156 103 89
0.128763 -0.344614 -0.561 153 100 86
0.129831 -0.344614 -0.561 150 97 83
0.131133 -0.345229 -0.562 151 97 85
0.132439 -0.345843 -0.563 148 94 82
0.133749 -0.346457 -0.564 149 95 85
0.135062 -0.347071 -0.565 147 93 83
0.136379 -0.347686 -0.566 146 92 82
0.1377 -0.3483 -0.567 145 91 81
0.139025 -0.348914 -0.568 140 88 77
0.140353 -0.349529 -0.569 140 88 77
0.141934 -0.350757 -0.571 138 88 79
0.143022 -0.350757 -0.571 138 88 79
0.144362 -0.351371 -0.572 136 89 79
0.145706 -0.351986 -0.573 134 87 77
0.146797 -0.351986 -0.573 130 86 77
0.148147 -0.3526 -0.574 129 85 76
0.1495 -0.353214 -0.575 128 85 76
0.150857 -0.353829 -0.576 129 86 77
0.152218 -0.354443 -0.577 129 86 80
0.153317 -0.354443 -0.577 129 86 80
0.154684 -0.355057 -0.578 127 84 78
0.156054 -0.355671 -0.579 127 84 78
0.157429 -0.356286 -0.58 127 84 78
0.158807 -0.3569 -0.581 127 84 78
0.160189 -0.357514 -0.582 125 84 78
0.161574 -0.358129 -0.583 126 85 79
0.162964 -0.358743 -0.584 125 84 80
0.164638 -0.359971 -0.586 125 84 80
0.166037 -0.360586 -0.587 126 85 81
0.16744 -0.3612 -0.588 128 87 83
0.169133 -0.362429 -0.59 126 87 82
0.170546 -0.363043 -0.591 125 86 81
0.201921 -0.375329 -0.611 106 110 145
0.203085 -0.375329 -0.611 67 71 106
0.204583 -0.375943 -0.612 55 66 98
0.205749 -0.375943 -0.612 68 79 111
0.206914 -0.375943 -0.612 101 102 132
0.20842 -0.376557 -0.613 106 107 137
0.209588 -0.376557 -0.613 148 144 171
0.210755 -0.376557 -0.613 148 144 171
0.211923 -0.376557 -0.613 96 111 150
0.21309 -0.376557 -0.613 53 68 107
0.214608 -0.377171 -0.614 33 58 114
0.215777 -0.377171 -0.614 75 100 156
0.216947 -0.377171 -0.614 118 131 173
0.218116 -0.377171 -0.614 150 163 205
0.219286 -0.377171 -0.614 128 142 177
0.220455 -0.377171 -0.614 110 124 159
0.221625 -0.377171 -0.614 100 114 159
0.222794 -0.377171 -0.614 66 80 125
0.223599 -0.376557 -0.613 58 75 119
0.224767 -0.376557 -0.613 89 106 150
0.225934 -0.376557 -0.613 157 170 202
0.227472 -0.377171 -0.614 172 185 217
0.228642 -0.377171 -0.614 183 188 208
0.229437 -0.376557 -0.613 187 192 212
0.230605 -0.376557 -0.613 194 192 213
0.231772 -0.376557 -0.613 194 192 213
0.23294 -0.376557 -0.613 196 194 216
0.234108 -0.376557 -0.613 197 195 217
0.235275 -0.376557 -0.613 196 198 219
0.236443 -0.376557 -0.613 200 202 223
0.237223 -0.375943 -0.612 183 188 208
0.238389 -0.375943 -0.612 183 188 208
0.239554 -0.375943 -0.612 149 154 174
0.24072 -0.375943 -0.612 123 147 191
0.241886 -0.375943 -0.612 114 138 182
0.243051 -0.375943 -0.612 128 153 194
0.353571 -0.364886 -0.594 179 149 151
0.350523 -0.360586 -0.587 185 140 143
0.328813 -0.332943 -0.542 185 127 125
0.32802 -0.3311 -0.539 184 129 122
0.326605 -0.328643 -0.535 183 128 121
0.326399 -0.327414 -0.533 181 127 117
0.327414 -0.327414 -0.533 181 127 117
0.326581 -0.325571 -0.53 183 129 119
0.326972 -0.324957 -0.529 189 135 125
0.32674 -0.323729 -0.527 192 138 128
0.327122 -0.323114 -0.526 187 133 123
0.3275 -0.3225 -0.525 179 125 115
0.3285 -0.3225 -0.525 171 114 103
0.328872 -0.321886 -0.524 162 105 94
0.32987 -0.321886 -0.524 152 92 81
0.330237 -0.321271 -0.523 142 82 71
0.331233 -0.321271 -0.523 142 78 68
0.331594 -0.320657 -0.522 145 81 71
0.332589 -0.320657 -0.522 151 87 77
0.332944 -0.320043 -0.521 151 93 82
0.333295 -0.319429 -0.52 150 88 77
0.334286 -0.319429 -0.52 150 88 77
0.335276 -0.319429 -0.52 151 91 81
0.33562 -0.318814 -0.519 157 97 87
0.336609 -0.318814 -0.519 162 102 92
0.337597 -0.318814 -0.519 166 106 96
0.337933 -0.3182 -0.518 169 109 98
0.33892 -0.3182 -0.518 173 113 102
0.33925 -0.317586 -0.517 176 118 106
0.340235 -0.317586 -0.517 181 123 111
0.34122 -0.317586 -0.517 183 125 114
0.341543 -0.316971 -0.516 184 126 115
0.342526 -0.316971 -0.516 191 133 122
0.343509 -0.316971 -0.516 196 138 127
0.344491 -0.316971 -0.516 196 138 127
0.344805 -0.316357 -0.515 196 138 126
0.345786 -0.316357 -0.515 197 139 127
0.346767 -0.316357 -0.515 193 139 127
0.347748 -0.316357 -0.515 189 135 123
0.348729 -0.316357 -0.515 189 135 123
0.34971 -0.316357 -0.515 190 136 124
0.35069 -0.316357 -0.515 187 133 121
0.350989 -0.315743 -0.514 189 135 123
0.351968 -0.315743 -0.514 195 141 129
0.352947 -0.315743 -0.514 193 139 127
0.353237 -0.315129 -0.513 186 132 120
0.354214 -0.315129 -0.513 181 127 115
0.355191 -0.315129 -0.513 185 131 119
0.356169 -0.315129 -0.513 191 137 125
0.357146 -0.315129 -0.513 192 138 126
0.357425 -0.314514 -0.512 193 139 127
0.3584 -0.314514 -0.512 194 140 128
0.359375 -0.314514 -0.512 195 141 129
0.361054 -0.315129 -0.513 196 139 130
0.362031 -0.315129 -0.513 195 138 129
0.363009 -0.315129 -0.513 197 140 131
0.363986 -0.315129 -0.513 197 140 131
0.364963 -0.315129 -0.513 198 141 132
0.366653 -0.315743 -0.514 196 139 130
0.367632 -0.315743 -0.514 186 132 120
0.368611 -0.315743 -0.514 184 130 118
0.37031 -0.316357 -0.515 185 131 119
0.37129 -0.316357 -0.515 185 131 119
0.372994 -0.316971 -0.516 185 131 119
0.373977 -0.316971 -0.516 183 129 117
0.375687 -0.317586 -0.517 179 125 113
0.3774 -0.3182 -0.518 176 122 110
0.379848 -0.319429 -0.52 174 120 108
0.38157 -0.320043 -0.521 173 121 107
0.383297 -0.320657 -0.522 172 120 106
0.385028 -0.321271 -0.523 165 118 108
0.386762 -0.321886 -0.524 158 111 101
0.38924 -0.323114 -0.526 157 110 102
0.391726 -0.324343 -0.528 158 111 103
0.393475 -0.324957 -0.529 153 106 98
0.395974 -0.326186 -0.531 153 106 98
0.398481 -0.327414 -0.533 155 108 102
0.400246 -0.328029 -0.534 147 100 94
0.402766 -0.329257 -0.536 144 97 91
0.405293 -0.330486 -0.538 146 99 93
0.407073 -0.3311 -0.539 148 101 93
0.408857 -0.331714 -0.54 147 100 92
0.412163 -0.333557 -0.543 147 100 94
0.41548 -0.3354 -0.546 151 104 98
0.418809 -0.337243 -0.549 152 107 102
0.422913 -0.3397 -0.553 155 110 105
0.466015 -0.366114 -0.596 178 177 193
0.47107 -0.369186 -0.601 206 213 232
1.12375 -0.382086 -0.622 203 206 189
1.12493 -0.382086 -0.622 203 206 189
1.12612 -0.382086 -0.622 203 206 189
1.1273 -0.382086 -0.622 202 205 188
1.12667 -0.381471 -0.621 202 205 188
1.12604 -0.380857 -0.62 203 205 191
1.12722 -0.380857 -0.62 202 204 190
1.12658 -0.380243 -0.619 201 203 189
1.12776 -0.380243 -0.619 201 203 189
1.12711 -0.379629 -0.618 201 203 189
1.12647 -0.379014 -0.617 202 204 190
1.12581 -0.3784 -0.616 202 204 190
0.0786914 -0.361088 -0.586 188 146 134
0.0792629 -0.358623 -0.582 188 146 134
0.079819 -0.356158 -0.578 186 144 132
0.08008 -0.352461 -0.572 194 148 135
0.0806019 -0.349996 -0.568 194 148 135
0.0812524 -0.348148 -0.565 196 150 137
0.0817457 -0.345683 -0.561 197 151 138
0.0829619 -0.346299 -0.562 198 150 140
0.0837333 -0.345067 -0.56 196 148 138
0.0844971 -0.343834 -0.558 194 146 134
0.08556 -0.343834 -0.558 194 146 134
0.0864676 -0.343218 -0.557 196 146 135
0.0875286 -0.343218 -0.557 197 147 136
0.0884305 -0.342602 -0.556 198 148 139
0.0893286 -0.341986 -0.555 199 149 140
0.0903857 -0.341986 -0.555 199 149 140
0.0914429 -0.341986 -0.555 200 150 141
0.0923333 -0.34137 -0.554 200 150 139
0.0933886 -0.34137 -0.554 200 150 139
0.0944438 -0.34137 -0.554 196 144 133
0.0954991 -0.34137 -0.554 195 143 132
0.0965543 -0.34137 -0.554 196 144 133
0.0976095 -0.34137 -0.554 195 143 132
0.0986648 -0.34137 -0.554 193 141 128
0.09954 -0.340753 -0.553 193 141 128
0.100593 -0.340753 -0.553 191 139 126
0.101647 -0.340753 -0.553 190 138 125
0.1027 -0.340753 -0.553 194 140 128
0.103753 -0.340753 -0.553 194 140 128
0.104807 -0.340753 -0.553 194 141 127
0.10586 -0.340753 -0.553 193 140 126
0.106913 -0.340753 -0.553 194 141 127
0.107967 -0.340753 -0.553 192 139 125
0.10902 -0.340753 -0.553 189 136 122
0.110073 -0.340753 -0.553 186 133 119
0.111127 -0.340753 -0.553 185 130 110
0.11218 -0.340753 -0.553 186 131 111
0.113233 -0.340753 -0.553 182 130 109
0.114287 -0.340753 -0.553 180 128 107
0.115549 -0.34137 -0.554 180 127 109
0.116604 -0.34137 -0.554 176 123 105
0.117659 -0.34137 -0.554 173 117 100
0.118929 -0.341986 -0.555 170 114 97
0.120202 -0.342602 -0.556 170 117 101
0.121261 -0.342602 -0.556 170 117 101
0.12232 -0.342602 -0.556 168 115 99
0.123601 -0.343218 -0.557 164 111 97
0.124886 -0.343834 -0.558 159 106 92
0.126174 -0.34445 -0.559 155 101 89
0.127467 -0.345067 -0.56 152 98 86
0.128763 -0.345683 -0.561 151 97 85
0.130063 -0.346299 -0.562 149 95 83
0.131367 -0.346915 -0.563 148 96 82
0.132674 -0.347531 -0.564 146 94 80
0.133986 -0.348148 -0.565 147 93 81
0.135301 -0.348764 -0.566 147 93 81
0.13662 -0.34938 -0.567 146 92 80
0.137943 -0.349996 -0.568 144 90 78
0.13927 -0.350612 -0.569 140 86 76
0.1406 -0.351229 -0.57 139 85 75
0.141934 -0.351845 -0.571 140 88 77
0.143272 -0.352461 -0.572 138 86 75
0.144614 -0.353077 -0.573 135 87 77
0.145706 -0.353077 -0.573 134 86 76
0.147053 -0.353693 -0.574 130 86 77
0.148405 -0.35431 -0.575 130 86 77
0.14976 -0.354926 -0.576 127 87 75
0.151119 -0.355542 -0.577 126 86 74
0.152482 -0.356158 -0.578 127 84 77
0.153849 -0.356774 -0.579 128 85 78
0.154951 -0.356774 -0.579 127 84 78
0.156324 -0.35739 -0.58 126 83 77
0.1577 -0.358007 -0.581 127 84 78
0.15908 -0.358623 -0.582 127 84 78
0.160464 -0.359239 -0.583 124 83 77
0.162129 -0.360471 -0.585 126 85 79
0.163522 -0.361088 -0.586 124 83 79
0.164919 -0.361704 -0.587 124 83 79
0.166603 -0.362936 -0.589 125 86 81
0.16801 -0.363552 -0.59 126 87 82
0.16942 -0.364169 -0.591 125 85 83
0.198105 -0.375876 -0.61 157 150 168
0.201921 -0.376492 -0.611 82 87 119
0.203085 -0.376492 -0.611 60 65 97
0.204249 -0.376492 -0.611 69 78 109
0.205412 -0.376492 -0.611 92 101 132
0.206914 -0.377109 -0.612 121 121 149
0.20808 -0.377109 -0.612 131 131 159
0.209246 -0.377109 -0.612 155 152 181
0.210411 -0.377109 -0.612 148 145 174
0.211577 -0.377109 -0.612 99 117 157
0.212743 -0.377109 -0.612 61 79 119
0.214258 -0.377725 -0.613 46 71 127
0.215426 -0.377725 -0.613 91 116 172
0.216593 -0.377725 -0.613 133 145 183
0.217761 -0.377725 -0.613 158 170 208
0.218929 -0.377725 -0.613 147 160 192
0.220096 -0.377725 -0.613 130 143 175
0.221264 -0.377725 -0.613 125 139 178
0.222431 -0.377725 -0.613 100 114 153
0.223599 -0.377725 -0.613 79 94 133
0.224767 -0.377725 -0.613 64 79 118
0.225934 -0.377725 -0.613 151 162 192
0.227102 -0.377725 -0.613 179 190 220
0.22827 -0.377725 -0.613 187 189 212
0.229437 -0.377725 -0.613 189 191 214
0.230605 -0.377725 -0.613 194 191 212
0.231772 -0.377725 -0.613 196 193 214
0.23294 -0.377725 -0.613 200 197 216
0.234108 -0.377725 -0.613 200 197 216
0.235275 -0.377725 -0.613 198 199 217
0.236057 -0.377109 -0.612 203 204 222
0.237223 -0.377109 -0.612 203 204 222
