ply
format ascii 1.0
comment Created by Open3D
element vertex 1288
property double x
property double y
property double z
property uchar red
property uchar green
property uchar blue
end_header
0.368434 -0.340046 -0.648 238 244 255
0.370239 -0.34057 -0.649 239 245 255
0.371475 -0.34057 -0.649 232 238 252
0.372711 -0.34057 -0.649 240 243 252
0.373948 -0.34057 -0.649 243 246 255
0.375184 -0.34057 -0.649 214 213 229
0.377 -0.341095 -0.65 192 191 207
0.378238 -0.341095 -0.65 193 192 210
0.379476 -0.341095 -0.65 196 195 213
0.380714 -0.341095 -0.65 208 209 227
0.381952 -0.341095 -0.65 227 228 246
0.38319 -0.341095 -0.65 232 233 253
0.384429 -0.341095 -0.65 234 235 255
0.385667 -0.341095 -0.65 233 234 255
0.386905 -0.341095 -0.65 226 227 248
0.388143 -0.341095 -0.65 233 234 255
0.389381 -0.341095 -0.65 238 239 255
0.390619 -0.341095 -0.65 221 221 245
0.391857 -0.341095 -0.65 167 167 191
0.393095 -0.341095 -0.65 132 134 159
0.394333 -0.341095 -0.65 141 143 168
0.395571 -0.341095 -0.65 159 163 190
0.39681 -0.341095 -0.65 200 204 231
0.398048 -0.341095 -0.65 225 226 246
0.399286 -0.341095 -0.65 225 226 246
0.400524 -0.341095 -0.65 225 226 246
0.401762 -0.341095 -0.65 225 228 245
0.403 -0.341095 -0.65 220 223 240
0.404238 -0.341095 -0.65 199 210 238
0.405476 -0.341095 -0.65 173 184 212
0.406714 -0.341095 -0.65 139 158 200
0.407952 -0.341095 -0.65 137 156 198
0.40919 -0.341095 -0.65 145 169 215
0.410429 -0.341095 -0.65 147 171 217
0.411667 -0.341095 -0.65 139 166 211
0.412905 -0.341095 -0.65 127 154 199
0.5526 -0.3306 -0.63 161 133 129
0.48146 -0.284946 -0.543 165 136 132
0.47272 -0.279173 -0.532 166 137 133
0.4675 -0.2755 -0.525 170 137 132
0.462253 -0.271827 -0.518 171 138 133
0.458769 -0.269203 -0.513 165 135 125
0.455265 -0.266579 -0.508 169 139 129
0.45264 -0.26448 -0.504 173 140 131
0.4509 -0.262906 -0.501 172 139 130
0.449149 -0.261331 -0.498 178 141 132
0.447386 -0.259757 -0.495 180 143 134
0.447423 -0.259232 -0.494 181 141 131
0.446549 -0.258183 -0.492 183 143 133
0.445667 -0.257133 -0.49 185 146 131
0.445689 -0.256609 -0.489 186 147 132
0.444793 -0.255559 -0.487 188 149 134
0.445721 -0.255559 -0.487 185 146 131
0.445731 -0.255034 -0.486 181 142 125
0.445738 -0.25451 -0.485 176 137 120
0.445741 -0.253985 -0.484 177 140 122
0.44574 -0.25346 -0.483 188 151 133
0.44666 -0.25346 -0.483 197 150 134
0.446653 -0.252935 -0.482 198 151 135
0.446643 -0.25241 -0.481 199 152 136
0.447559 -0.25241 -0.481 200 153 137
0.448475 -0.25241 -0.481 198 151 135
0.448457 -0.251886 -0.48 195 148 132
0.449371 -0.251886 -0.48 194 147 129
0.450286 -0.251886 -0.48 196 149 131
0.45026 -0.251361 -0.479 197 150 132
0.45023 -0.250836 -0.478 197 150 132
0.451141 -0.250836 -0.478 197 150 132
0.452051 -0.250836 -0.478 197 150 132
0.452962 -0.250836 -0.478 190 143 123
0.452923 -0.250311 -0.477 190 143 123
0.453831 -0.250311 -0.477 194 147 127
0.45474 -0.250311 -0.477 195 148 128
0.454693 -0.249787 -0.476 197 150 130
0.4556 -0.249787 -0.476 198 151 131
0.456507 -0.249787 -0.476 197 150 130
0.456452 -0.249262 -0.475 197 150 130
0.457357 -0.249262 -0.475 197 150 130
0.458262 -0.249262 -0.475 196 149 129
0.459167 -0.249262 -0.475 194 147 127
0.459103 -0.248737 -0.474 195 149 126
0.460006 -0.248737 -0.474 196 150 127
0.460909 -0.248737 -0.474 195 149 126
0.460837 -0.248212 -0.473 196 150 127
0.461738 -0.248212 -0.473 197 151 128
0.462639 -0.248212 -0.473 195 149 126
0.46256 -0.247688 -0.472 196 150 127
0.463459 -0.247688 -0.472 197 151 128
0.464358 -0.247688 -0.472 194 148 125
0.464271 -0.247163 -0.471 193 147 124
0.465169 -0.247163 -0.471 191 145 121
0.466066 -0.247163 -0.471 192 146 122
0.466963 -0.247163 -0.471 192 144 121
0.46786 -0.247163 -0.471 192 144 121
0.468757 -0.247163 -0.471 190 144 121
0.468657 -0.246638 -0.47 190 144 121
0.469552 -0.246638 -0.47 191 146 123
0.470448 -0.246638 -0.47 192 147 124
0.471343 -0.246638 -0.47 192 147 124
0.472238 -0.246638 -0.47 193 148 125
0.473133 -0.246638 -0.47 190 145 124
0.474029 -0.246638 -0.47 185 140 119
0.474924 -0.246638 -0.47 182 137 116
0.475819 -0.246638 -0.47 180 135 114
0.476714 -0.246638 -0.47 177 135 113
0.47761 -0.246638 -0.47 176 134 112
0.478505 -0.246638 -0.47 180 133 113
0.4794 -0.246638 -0.47 179 132 112
0.480295 -0.246638 -0.47 178 133 114
0.482214 -0.247163 -0.471 175 130 111
0.484137 -0.247688 -0.472 174 131 114
0.485036 -0.247688 -0.472 170 127 110
0.486965 -0.248212 -0.473 168 125 108
0.488897 -0.248737 -0.474 169 126 109
0.490833 -0.249262 -0.475 169 127 111
0.492773 -0.249787 -0.476 166 124 108
0.494717 -0.250311 -0.477 161 123 110
0.496665 -0.250836 -0.478 159 121 108
0.115761 -0.324953 -0.617 197 147 136
0.116368 -0.323373 -0.614 195 147 137
0.116389 -0.320213 -0.608 194 146 136
0.11658 -0.31758 -0.603 194 143 142
0.116752 -0.314947 -0.598 191 140 139
0.116906 -0.312313 -0.593 188 139 122
0.117239 -0.310207 -0.589 188 139 122
0.117959 -0.309153 -0.587 193 141 130
0.118469 -0.307573 -0.584 193 141 130
0.119171 -0.30652 -0.582 194 139 132
0.119867 -0.305467 -0.58 187 132 125
0.120763 -0.30494 -0.579 184 129 122
0.121445 -0.303887 -0.577 189 134 127
0.122331 -0.30336 -0.576 191 137 127
0.123 -0.302307 -0.574 189 135 125
0.123661 -0.301253 -0.572 189 132 123
0.124532 -0.300727 -0.571 179 122 113
0.1254 -0.3002 -0.57 179 120 114
0.126264 -0.299673 -0.569 178 119 113
0.127124 -0.299147 -0.568 179 118 113
0.12798 -0.29862 -0.567 182 121 116
0.128832 -0.298093 -0.566 182 123 115
0.12991 -0.298093 -0.566 180 121 113
0.130757 -0.297567 -0.565 184 121 114
0.131833 -0.297567 -0.565 184 121 114
0.13291 -0.297567 -0.565 185 122 115
0.133749 -0.29704 -0.564 188 125 118
0.134823 -0.29704 -0.564 191 128 121
0.135656 -0.296513 -0.563 191 128 121
0.136729 -0.296513 -0.563 189 126 119
0.137801 -0.296513 -0.563 191 128 121
0.138627 -0.295987 -0.562 189 126 119
0.139697 -0.295987 -0.562 184 121 114
0.140768 -0.295987 -0.562 185 122 115
0.141838 -0.295987 -0.562 189 126 119
0.142909 -0.295987 -0.562 190 127 120
0.143979 -0.295987 -0.562 194 131 124
0.14505 -0.295987 -0.562 193 130 123
0.14612 -0.295987 -0.562 182 119 112
0.14719 -0.295987 -0.562 185 122 117
0.148261 -0.295987 -0.562 190 127 122
0.149331 -0.295987 -0.562 187 127 119
0.15067 -0.296513 -0.563 183 123 115
0.151742 -0.296513 -0.563 183 120 113
0.152814 -0.296513 -0.563 183 120 113
0.153887 -0.296513 -0.563 183 120 113
0.154684 -0.295987 -0.562 181 118 111
0.155754 -0.295987 -0.562 178 115 108
0.156825 -0.295987 -0.562 172 107 101
0.157895 -0.295987 -0.562 171 106 100
0.159249 -0.296513 -0.563 170 107 100
0.160321 -0.296513 -0.563 170 107 100
0.161393 -0.296513 -0.563 168 105 98
0.162466 -0.296513 -0.563 167 102 98
0.163538 -0.296513 -0.563 168 103 99
0.16461 -0.296513 -0.563 170 105 101
0.165683 -0.296513 -0.563 172 107 101
0.167051 -0.29704 -0.564 170 105 99
0.168126 -0.29704 -0.564 160 99 94
0.1695 -0.297567 -0.565 157 96 91
0.170576 -0.297567 -0.565 155 98 91
0.171652 -0.297567 -0.565 153 96 89
0.173034 -0.298093 -0.566 152 94 90
0.17442 -0.29862 -0.567 150 92 88
0.17581 -0.299147 -0.568 151 93 89
0.176891 -0.299147 -0.568 149 91 87
0.178287 -0.299673 -0.569 149 91 89
0.179686 -0.3002 -0.57 150 92 90
0.181089 -0.300727 -0.571 150 90 89
0.182495 -0.301253 -0.572 151 91 90
0.183906 -0.30178 -0.573 154 90 91
0.18532 -0.302307 -0.574 150 86 87
0.186738 -0.302833 -0.575 141 85 86
0.18816 -0.30336 -0.576 139 83 84
0.189586 -0.303887 -0.577 138 82 81
0.191346 -0.30494 -0.579 137 81 80
0.192781 -0.305467 -0.58 136 80 79
0.194554 -0.30652 -0.582 134 78 77
0.195999 -0.307047 -0.583 134 78 77
0.197448 -0.307573 -0.584 135 79 78
0.19924 -0.308627 -0.586 134 78 77
0.200698 -0.309153 -0.587 133 77 76
0.20216 -0.30968 -0.588 115 62 58
0.203626 -0.310207 -0.589 102 49 45
0.205095 -0.310733 -0.59 122 69 65
0.206219 -0.310733 -0.59 122 69 65
0.207694 -0.31126 -0.591 151 98 94
0.20882 -0.31126 -0.591 157 103 101
0.20959 -0.310733 -0.59 171 117 115
0.210714 -0.310733 -0.59 182 117 121
0.211838 -0.310733 -0.59 185 120 124
0.21224 -0.30968 -0.588 185 121 122
0.213723 -0.310207 -0.589 187 123 124
0.214845 -0.310207 -0.589 190 126 126
0.2156 -0.30968 -0.588 187 123 123
0.21672 -0.30968 -0.588 181 117 117
0.21784 -0.30968 -0.588 178 114 114
0.219332 -0.310207 -0.589 180 116 114
0.220454 -0.310207 -0.589 176 112 110
0.221952 -0.310733 -0.59 174 111 104
0.223454 -0.31126 -0.591 167 104 97
0.22496 -0.311787 -0.592 159 96 89
0.22647 -0.312313 -0.593 149 86 79
0.228367 -0.313367 -0.595 147 87 79
0.229886 -0.313893 -0.596 143 83 75
0.231796 -0.314947 -0.598 134 84 83
0.233714 -0.316 -0.6 128 78 77
0.23564 -0.317053 -0.602 122 79 86
0.237967 -0.318633 -0.605 118 75 82
0.2407 -0.32074 -0.609 111 79 82
0.243051 -0.32232 -0.612 110 78 81
0.245813 -0.324427 -0.616 106 84 87
0.24819 -0.326007 -0.619 131 109 112
0.25098 -0.328113 -0.623 171 156 175
0.306529 -0.3397 -0.645 207 212 241
0.345683 -0.340753 -0.647 213 227 254
0.346915 -0.340753 -0.647 212 226 253
0.348148 -0.340753 -0.647 201 213 251
0.34938 -0.340753 -0.647 191 203 241
0.350612 -0.340753 -0.647 182 196 231
0.351845 -0.340753 -0.647 194 208 243
0.353077 -0.340753 -0.647 225 230 255
0.35431 -0.340753 -0.647 237 242 255
0.355542 -0.340753 -0.647 248 253 255
0.356774 -0.340753 -0.647 247 252 255
0.35856 -0.34128 -0.648 249 250 252
0.359794 -0.34128 -0.648 250 251 253
0.361029 -0.34128 -0.648 246 249 254
0.362263 -0.34128 -0.648 240 243 248
0.363497 -0.34128 -0.648 224 232 245
0.364731 -0.34128 -0.648 197 205 218
0.365966 -0.34128 -0.648 197 205 218
0.3672 -0.34128 -0.648 186 193 222
0.368434 -0.34128 -0.648 206 213 242
0.369669 -0.34128 -0.648 229 235 255
0.370903 -0.34128 -0.648 221 227 251
0.372137 -0.34128 -0.648 226 229 248
0.373371 -0.34128 -0.648 222 225 244
0.375184 -0.341807 -0.649 228 231 250
0.37642 -0.341807 -0.649 211 214 233
0.377656 -0.341807 -0.649 187 188 208
0.378892 -0.341807 -0.649 178 179 199
0.380129 -0.341807 -0.649 198 199 220
0.381952 -0.342333 -0.65 224 225 246
0.38319 -0.342333 -0.65 225 227 248
0.384429 -0.342333 -0.65 223 225 246
0.385667 -0.342333 -0.65 225 227 250
0.386905 -0.342333 -0.65 219 221 244
0.388143 -0.342333 -0.65 225 227 252
0.388782 -0.341807 -0.649 217 219 244
0.390018 -0.341807 -0.649 196 197 225
0.391254 -0.341807 -0.649 161 162 190
0.39249 -0.341807 -0.649 145 146 174
0.393727 -0.341807 -0.649 163 164 192
0.394963 -0.341807 -0.649 206 208 231
0.396199 -0.341807 -0.649 224 226 249
0.397435 -0.341807 -0.649 228 227 245
0.398671 -0.341807 -0.649 228 227 245
0.399908 -0.341807 -0.649 223 222 240
0.401144 -0.341807 -0.649 221 222 240
0.40238 -0.341807 -0.649 225 226 244
0.404238 -0.342333 -0.65 200 209 238
0.405476 -0.342333 -0.65 171 180 209
0.406714 -0.342333 -0.65 141 159 199
0.407952 -0.342333 -0.65 144 162 202
0.40919 -0.342333 -0.65 152 175 219
0.410429 -0.342333 -0.65 159 182 226
0.411667 -0.342333 -0.65 152 176 220
0.412905 -0.342333 -0.65 139 163 207
0.414143 -0.342333 -0.65 127 154 197
0.415381 -0.342333 -0.65 137 164 207
0.416619 -0.342333 -0.65 170 186 222
0.417857 -0.342333 -0.65 197 213 249
0.419095 -0.342333 -0.65 214 218 243
0.553477 -0.332327 -0.631 161 133 130
0.483233 -0.287033 -0.545 164 136 133
0.475386 -0.281767 -0.535 165 137 134
0.46839 -0.277027 -0.526 170 137 132
0.463146 -0.27334 -0.519 171 138 133
0.459663 -0.270707 -0.514 167 137 127
0.456161 -0.268073 -0.509 171 141 131
0.453538 -0.265967 -0.505 173 140 131
0.4509 -0.26386 -0.501 169 136 127
0.45005 -0.262807 -0.499 176 139 130
0.44829 -0.261227 -0.496 180 143 134
0.447423 -0.260173 -0.494 182 142 132
0.447456 -0.259647 -0.493 183 143 133
0.446576 -0.258593 -0.491 182 142 130
0.445689 -0.25754 -0.489 185 145 133
0.445707 -0.257013 -0.488 188 149 134
0.445721 -0.256487 -0.487 186 147 132
0.445731 -0.25596 -0.486 181 144 126
0.445738 -0.255433 -0.485 177 140 122
0.445741 -0.254907 -0.484 177 140 122
0.44574 -0.25438 -0.483 188 151 133
0.44666 -0.25438 -0.483 197 150 134
0.446653 -0.253853 -0.482 199 152 136
0.446643 -0.253327 -0.481 199 152 136
0.447559 -0.253327 -0.481 199 152 136
0.447543 -0.2528 -0.48 199 152 134
0.448457 -0.2528 -0.48 196 149 131
0.449371 -0.2528 -0.48 194 147 129
0.449348 -0.252273 -0.479 196 149 131
0.45026 -0.252273 -0.479 193 146 128
0.45023 -0.251747 -0.478 195 148 130
0.450197 -0.25122 -0.477 196 149 131
0.451106 -0.25122 -0.477 197 150 132
0.452014 -0.25122 -0.477 189 142 124
0.452923 -0.25122 -0.477 192 145 127
0.453831 -0.25122 -0.477 196 149 129
0.453787 -0.250693 -0.476 198 151 131
0.454693 -0.250693 -0.476 197 150 130
0.4556 -0.250693 -0.476 198 151 131
0.455548 -0.250167 -0.475 197 150 130
0.456452 -0.250167 -0.475 197 150 130
0.457357 -0.250167 -0.475 197 150 130
0.458262 -0.250167 -0.475 196 149 129
0.4582 -0.24964 -0.474 193 146 126
0.459103 -0.24964 -0.474 193 147 124
0.460006 -0.24964 -0.474 195 149 126
0.459936 -0.249113 -0.473 195 149 126
0.460837 -0.249113 -0.473 196 150 127
0.461738 -0.249113 -0.473 198 152 129
0.461661 -0.248587 -0.472 194 148 125
0.46256 -0.248587 -0.472 193 147 124
0.463459 -0.248587 -0.472 193 147 124
0.463374 -0.24806 -0.471 191 145 121
0.464271 -0.24806 -0.471 189 143 119
0.465169 -0.24806 -0.471 192 146 122
0.466066 -0.24806 -0.471 193 147 123
0.466963 -0.24806 -0.471 192 144 121
0.46786 -0.24806 -0.471 191 143 120
0.467762 -0.247533 -0.47 189 143 119
0.468657 -0.247533 -0.47 189 143 119
0.469552 -0.247533 -0.47 193 148 125
0.470448 -0.247533 -0.47 194 149 126
0.471343 -0.247533 -0.47 192 150 126
0.472238 -0.247533 -0.47 190 148 124
0.473133 -0.247533 -0.47 187 145 123
0.474029 -0.247533 -0.47 183 141 119
0.474924 -0.247533 -0.47 181 139 117
0.474807 -0.247007 -0.469 182 140 118
0.4757 -0.247007 -0.469 180 139 117
0.476593 -0.247007 -0.469 179 138 116
0.477487 -0.247007 -0.469 183 135 113
0.47838 -0.247007 -0.469 182 134 112
0.479273 -0.247007 -0.469 178 135 116
0.48119 -0.247533 -0.47 173 130 111
0.483111 -0.24806 -0.471 175 134 116
0.484009 -0.24806 -0.471 173 132 114
0.485935 -0.248587 -0.472 171 130 112
0.487866 -0.249113 -0.473 169 128 110
0.4898 -0.24964 -0.474 167 125 109
0.491738 -0.250167 -0.475 166 124 108
0.49368 -0.250693 -0.476 159 121 108
0.495626 -0.25122 -0.477 162 124 111
0.115573 -0.3256 -0.616 195 146 139
0.115799 -0.322957 -0.611 195 145 144
0.115814 -0.319786 -0.605 195 145 144
0.116 -0.317143 -0.6 188 144 133
0.116167 -0.3145 -0.595 185 141 130
0.116314 -0.311857 -0.59 190 137 131
0.11704 -0.3108 -0.588 189 136 130
0.117557 -0.309214 -0.585 190 135 128
0.118266 -0.308157 -0.583 194 139 132
0.118967 -0.3071 -0.581 192 139 133
0.11966 -0.306043 -0.579 189 136 130
0.120554 -0.305514 -0.578 189 134 127
0.121234 -0.304457 -0.576 183 128 121
0.122119 -0.303929 -0.575 182 125 116
0.122786 -0.302871 -0.573 188 131 122
0.123445 -0.301814 -0.571 188 129 121
0.124532 -0.301814 -0.571 183 124 116
0.12518 -0.300757 -0.569 179 120 114
0.126264 -0.300757 -0.569 178 119 113
0.127124 -0.300229 -0.568 180 120 112
0.127754 -0.299171 -0.566 180 120 112
0.128832 -0.299171 -0.566 186 123 116
0.129681 -0.298643 -0.565 186 123 116
0.130757 -0.298643 -0.565 185 122 115
0.1316 -0.298114 -0.564 184 121 114
0.132674 -0.298114 -0.564 184 121 114
0.133749 -0.298114 -0.564 189 126 119
0.134584 -0.297586 -0.563 192 129 122
0.135656 -0.297586 -0.563 192 129 122
0.136486 -0.297057 -0.562 192 129 122
0.137556 -0.297057 -0.562 191 128 121
0.138627 -0.297057 -0.562 190 127 120
0.139697 -0.297057 -0.562 182 119 112
0.140768 -0.297057 -0.562 177 114 107
0.141838 -0.297057 -0.562 184 121 114
0.142909 -0.297057 -0.562 190 127 120
0.143979 -0.297057 -0.562 194 131 124
0.14505 -0.297057 -0.562 199 136 129
0.14612 -0.297057 -0.562 194 131 124
0.14719 -0.297057 -0.562 194 131 124
0.148261 -0.297057 -0.562 186 123 116
0.149331 -0.297057 -0.562 186 123 116
0.150402 -0.297057 -0.562 187 124 117
0.151742 -0.297586 -0.563 184 121 114
0.152814 -0.297586 -0.563 182 119 112
0.153887 -0.297586 -0.563 182 119 112
0.154684 -0.297057 -0.562 181 116 110
0.155754 -0.297057 -0.562 181 116 110
0.156825 -0.297057 -0.562 174 109 105
0.157895 -0.297057 -0.562 172 107 103
0.159249 -0.297586 -0.563 171 106 102
0.160321 -0.297586 -0.563 170 107 100
0.161393 -0.297586 -0.563 168 105 98
0.162466 -0.297586 -0.563 166 103 96
0.163538 -0.297586 -0.563 166 101 95
0.16461 -0.297586 -0.563 166 101 95
0.165977 -0.298114 -0.564 167 102 96
0.167051 -0.298114 -0.564 167 102 96
0.168126 -0.298114 -0.564 160 99 94
0.1695 -0.298643 -0.565 156 95 90
0.170576 -0.298643 -0.565 154 97 90
0.171956 -0.299171 -0.566 154 97 90
0.173034 -0.299171 -0.566 154 96 92
0.17442 -0.2997 -0.567 151 93 89
0.17581 -0.300229 -0.568 147 89 87
0.177203 -0.300757 -0.569 147 89 87
0.178287 -0.300757 -0.569 149 91 89
0.179686 -0.301286 -0.57 150 92 90
0.181089 -0.301814 -0.571 150 90 90
0.182495 -0.302343 -0.572 149 89 89
0.183906 -0.302871 -0.573 151 87 88
0.18532 -0.3034 -0.574 148 84 85
0.186738 -0.303929 -0.575 141 85 84
0.18816 -0.304457 -0.576 139 83 82
0.189586 -0.304986 -0.577 137 84 80
0.191346 -0.306043 -0.579 136 83 79
0.192781 -0.306571 -0.58 134 81 77
0.194554 -0.307629 -0.582 132 79 75
0.195999 -0.308157 -0.583 133 80 76
0.197448 -0.308686 -0.584 135 82 78
0.1989 -0.309214 -0.585 135 82 78
0.200356 -0.309743 -0.586 123 70 66
0.201816 -0.310271 -0.587 108 58 51
0.20328 -0.3108 -0.588 117 67 60
0.2044 -0.3108 -0.588 134 84 77
0.20552 -0.3108 -0.588 134 84 77
0.206991 -0.311329 -0.589 158 108 101
0.208113 -0.311329 -0.589 169 119 112
0.20888 -0.3108 -0.588 169 119 112
0.21 -0.3108 -0.588 181 117 118
0.210761 -0.310271 -0.587 182 118 119
0.211879 -0.310271 -0.587 182 116 117
0.212997 -0.310271 -0.587 184 118 119
0.214115 -0.310271 -0.587 189 123 124
0.2156 -0.3108 -0.588 187 121 122
0.216351 -0.310271 -0.587 179 115 113
0.21747 -0.310271 -0.587 174 110 108
0.21896 -0.3108 -0.588 180 117 112
0.220454 -0.311329 -0.589 172 109 104
0.221952 -0.311857 -0.59 168 103 97
0.223454 -0.312386 -0.591 162 97 91
0.22496 -0.312914 -0.592 155 91 82
0.22647 -0.313443 -0.593 145 81 72
0.228367 -0.3145 -0.595 146 83 74
0.230271 -0.315557 -0.597 142 79 70
0.232184 -0.316614 -0.599 126 80 82
0.234104 -0.317671 -0.601 122 76 78
0.236031 -0.318729 -0.603 121 79 89
0.23836 -0.320314 -0.606 117 75 85
0.241095 -0.322429 -0.61 111 82 86
0.243449 -0.324014 -0.613 110 81 85
0.246212 -0.326129 -0.617 109 90 96
0.248991 -0.328243 -0.621 144 125 131
0.345149 -0.341457 -0.646 210 224 253
0.346379 -0.341457 -0.646 214 228 255
0.34761 -0.341457 -0.646 209 222 255
0.34884 -0.341457 -0.646 196 209 244
0.35007 -0.341457 -0.646 182 196 233
0.351301 -0.341457 -0.646 193 207 244
0.352531 -0.341457 -0.646 221 225 252
0.358007 -0.341986 -0.647 249 248 253
0.359239 -0.341986 -0.647 250 249 254
0.360471 -0.341986 -0.647 245 249 252
0.361704 -0.341986 -0.647 244 248 251
0.362936 -0.341986 -0.647 238 246 255
0.364169 -0.341986 -0.647 230 238 249
0.365401 -0.341986 -0.647 230 238 249
0.366633 -0.341986 -0.647 195 204 237
0.367866 -0.341986 -0.647 164 173 206
0.369098 -0.341986 -0.647 189 193 228
0.37033 -0.341986 -0.647 201 205 240
0.371563 -0.341986 -0.647 207 208 239
0.373371 -0.342514 -0.648 214 215 246
0.374606 -0.342514 -0.648 217 221 246
0.37584 -0.342514 -0.648 227 231 255
0.377074 -0.342514 -0.648 208 210 233
0.378309 -0.342514 -0.648 187 189 212
0.379543 -0.342514 -0.648 193 193 217
0.381365 -0.343043 -0.649 222 222 246
0.382601 -0.343043 -0.649 227 229 254
0.383837 -0.343043 -0.649 210 212 237
0.385073 -0.343043 -0.649 203 207 236
0.38631 -0.343043 -0.649 202 206 235
0.387546 -0.343043 -0.649 202 206 235
0.388782 -0.343043 -0.649 177 181 210
0.390018 -0.343043 -0.649 170 171 201
0.390651 -0.342514 -0.648 179 180 210
0.391886 -0.342514 -0.648 190 191 221
0.39312 -0.342514 -0.648 207 208 238
0.394354 -0.342514 -0.648 226 226 250
0.395589 -0.342514 -0.648 228 228 252
0.396823 -0.342514 -0.648 225 224 242
0.398057 -0.342514 -0.648 225 224 242
0.399291 -0.342514 -0.648 229 228 246
0.400526 -0.342514 -0.648 228 229 247
0.40176 -0.342514 -0.648 226 227 245
0.403616 -0.343043 -0.649 194 203 232
0.404852 -0.343043 -0.649 178 187 216
0.406089 -0.343043 -0.649 144 162 202
0.407325 -0.343043 -0.649 148 166 206
0.408561 -0.343043 -0.649 159 180 225
0.409797 -0.343043 -0.649 171 192 237
0.411033 -0.343043 -0.649 165 189 235
0.41227 -0.343043 -0.649 151 175 221
0.413506 -0.343043 -0.649 135 162 207
0.414742 -0.343043 -0.649 138 165 210
0.415978 -0.343043 -0.649 177 193 227
0.417214 -0.343043 -0.649 197 213 247
0.419095 -0.343571 -0.65 217 222 244
0.420333 -0.343571 -0.65 215 220 242
0.421571 -0.343571 -0.65 216 214 228
0.42281 -0.343571 -0.65 216 214 228
0.424048 -0.343571 -0.65 214 216 237
0.425286 -0.343571 -0.65 200 202 223
0.426524 -0.343571 -0.65 169 183 212
0.427762 -0.343571 -0.65 130 144 173
0.429 -0.343571 -0.65 138 152 179
0.430238 -0.343571 -0.65 138 152 179
0.431476 -0.343571 -0.65 180 194 221
0.432714 -0.343571 -0.65 199 206 225
0.433952 -0.343571 -0.65 180 187 206
0.43519 -0.343571 -0.65 151 150 164
0.436429 -0.343571 -0.65 170 169 183
0.437667 -0.343571 -0.65 197 202 224
0.555231 -0.334586 -0.633 161 132 128
0.485893 -0.289657 -0.548 163 135 132
0.477163 -0.283843 -0.537 163 135 132
0.470171 -0.279086 -0.528 168 135 130
0.464931 -0.275386 -0.521 170 137 132
0.460557 -0.272214 -0.515 168 138 127
0.457057 -0.269571 -0.51 171 141 130
0.454436 -0.267457 -0.506 174 140 131
0.4518 -0.265343 -0.502 170 136 127
0.45005 -0.263757 -0.499 176 139 130
0.449193 -0.2627 -0.497 181 144 135
0.448329 -0.261643 -0.495 183 143 133
0.447456 -0.260586 -0.493 183 143 133
0.446576 -0.259529 -0.491 184 142 130
0.4466 -0.259 -0.49 186 144 132
0.445707 -0.257943 -0.488 189 147 133
0.445721 -0.257414 -0.487 188 146 132
0.445731 -0.256886 -0.486 186 147 132
0.445738 -0.256357 -0.485 183 144 129
0.445741 -0.255829 -0.484 180 143 125
0.44574 -0.2553 -0.483 189 152 134
0.445735 -0.254771 -0.482 198 151 135
0.446653 -0.254771 -0.482 199 152 136
0.446643 -0.254243 -0.481 199 152 136
0.446629 -0.253714 -0.48 198 153 134
0.447543 -0.253714 -0.48 197 152 133
0.447523 -0.253186 -0.479 191 146 127
0.448435 -0.253186 -0.479 193 150 131
0.449348 -0.253186 -0.479 194 151 132
0.44932 -0.252657 -0.478 196 151 132
0.449289 -0.252129 -0.477 192 147 128
0.450197 -0.252129 -0.477 196 149 131
0.451106 -0.252129 -0.477 197 150 132
0.452014 -0.252129 -0.477 194 147 129
0.452923 -0.252129 -0.477 194 147 129
0.45288 -0.2516 -0.476 196 151 132
0.453787 -0.2516 -0.476 194 149 130
0.454693 -0.2516 -0.476 195 150 129
0.454643 -0.251071 -0.475 197 152 131
0.455548 -0.251071 -0.475 196 151 130
0.456452 -0.251071 -0.475 193 148 127
0.456394 -0.250543 -0.474 193 148 127
0.457297 -0.250543 -0.474 193 148 127
0.4582 -0.250543 -0.474 192 147 126
0.459103 -0.250543 -0.474 193 147 124
0.459035 -0.250014 -0.473 197 151 128
0.459936 -0.250014 -0.473 195 149 126
0.460837 -0.250014 -0.473 196 150 127
0.460762 -0.249486 -0.472 196 150 127
0.461661 -0.249486 -0.472 190 144 121
0.46256 -0.249486 -0.472 188 142 119
0.462477 -0.248957 -0.471 174 128 105
0.463374 -0.248957 -0.471 183 137 113
0.464271 -0.248957 -0.471 192 146 122
0.464181 -0.248429 -0.47 194 148 125
0.465076 -0.248429 -0.47 192 146 123
0.465971 -0.248429 -0.47 191 145 122
0.466867 -0.248429 -0.47 190 144 121
0.467762 -0.248429 -0.47 190 144 121
0.468657 -0.248429 -0.47 193 147 124
0.469552 -0.248429 -0.47 196 149 129
0.469447 -0.2479 -0.469 194 147 127
0.47034 -0.2479 -0.469 192 147 126
0.471233 -0.2479 -0.469 190 145 124
0.472127 -0.2479 -0.469 188 143 122
0.47302 -0.2479 -0.469 187 142 121
0.473913 -0.2479 -0.469 186 141 120
0.474807 -0.2479 -0.469 183 138 117
0.4757 -0.2479 -0.469 181 136 115
0.475577 -0.247371 -0.468 183 138 117
0.476469 -0.247371 -0.468 180 133 113
0.47838 -0.2479 -0.469 181 134 114
0.479273 -0.2479 -0.469 179 134 115
0.480167 -0.2479 -0.469 178 133 114
0.482086 -0.248429 -0.47 172 129 112
0.484009 -0.248957 -0.471 172 129 112
0.484906 -0.248957 -0.471 174 131 114
0.486834 -0.249486 -0.472 168 125 108
0.488767 -0.250014 -0.473 165 126 109
0.489668 -0.250014 -0.473 167 128 111
0.491606 -0.250543 -0.474 161 125 111
0.493548 -0.251071 -0.475 157 121 107
0.114771 -0.327834 -0.618 193 143 136
0.11501 -0.325182 -0.613 189 139 132
0.11523 -0.32253 -0.608 192 141 137
0.11524 -0.319347 -0.602 197 146 142
0.11542 -0.316694 -0.597 191 142 135
0.115776 -0.314572 -0.593 181 132 125
0.11592 -0.31192 -0.588 184 129 124
0.116642 -0.310859 -0.586 191 136 131
0.117356 -0.309798 -0.584 191 134 127
0.118063 -0.308737 -0.582 194 137 130
0.118762 -0.307676 -0.58 190 135 130
0.119453 -0.306615 -0.578 188 133 128
0.120346 -0.306085 -0.577 190 132 128
0.121024 -0.305024 -0.575 186 128 124
0.121694 -0.303963 -0.573 185 126 120
0.122571 -0.303432 -0.572 189 130 124
0.123229 -0.302371 -0.57 190 130 122
0.124314 -0.302371 -0.57 187 127 119
0.12518 -0.301841 -0.569 184 123 118
0.126042 -0.30131 -0.568 184 123 118
0.1269 -0.30078 -0.567 184 121 116
0.127754 -0.30025 -0.566 184 121 116
0.128832 -0.30025 -0.566 186 123 116
0.129681 -0.299719 -0.565 186 123 116
0.130526 -0.299189 -0.564 185 125 115
0.1316 -0.299189 -0.564 181 121 111
0.132674 -0.299189 -0.564 182 122 112
0.133511 -0.298658 -0.563 190 130 120
0.134584 -0.298658 -0.563 192 132 124
0.135415 -0.298128 -0.562 188 128 120
0.136486 -0.298128 -0.562 190 127 120
0.137556 -0.298128 -0.562 191 128 121
0.138627 -0.298128 -0.562 187 124 117
0.139697 -0.298128 -0.562 185 122 115
0.140768 -0.298128 -0.562 184 121 114
0.141838 -0.298128 -0.562 188 125 118
0.142909 -0.298128 -0.562 191 128 121
0.143979 -0.298128 -0.562 193 130 123
0.14505 -0.298128 -0.562 195 132 125
0.14612 -0.298128 -0.562 192 129 122
0.14719 -0.298128 -0.562 187 124 117
0.148261 -0.298128 -0.562 187 124 117
0.149331 -0.298128 -0.562 185 125 117
0.150402 -0.298128 -0.562 183 123 115
0.151472 -0.298128 -0.562 182 119 112
0.152543 -0.298128 -0.562 182 119 112
0.153887 -0.298658 -0.563 184 121 114
0.154684 -0.298128 -0.562 182 119 114
0.155754 -0.298128 -0.562 177 114 109
0.156825 -0.298128 -0.562 174 109 105
0.157895 -0.298128 -0.562 172 107 103
0.159249 -0.298658 -0.563 171 106 102
0.160321 -0.298658 -0.563 170 105 101
0.161393 -0.298658 -0.563 169 104 100
0.162466 -0.298658 -0.563 169 104 100
0.163538 -0.298658 -0.563 169 104 100
0.164903 -0.299189 -0.564 168 103 99
0.165977 -0.299189 -0.564 169 105 103
0.167051 -0.299189 -0.564 165 101 99
0.168424 -0.299719 -0.565 160 99 96
0.1695 -0.299719 -0.565 158 97 94
0.170576 -0.299719 -0.565 156 95 92
0.171956 -0.30025 -0.566 155 94 91
0.173034 -0.30025 -0.566 155 94 91
0.17442 -0.30078 -0.567 152 91 88
0.17581 -0.30131 -0.568 150 91 87
0.177203 -0.301841 -0.569 151 92 88
0.1786 -0.302371 -0.57 148 90 86
0.180001 -0.302902 -0.571 148 90 86
0.181089 -0.302902 -0.571 147 89 85
0.182495 -0.303432 -0.572 144 86 82
0.183906 -0.303963 -0.573 143 85 81
0.18532 -0.304493 -0.574 140 82 78
0.186738 -0.305024 -0.575 140 82 80
0.18816 -0.305554 -0.576 139 81 79
0.189586 -0.306085 -0.577 138 84 82
0.191346 -0.307146 -0.579 135 81 79
0.192781 -0.307676 -0.58 131 82 78
0.19422 -0.308207 -0.581 133 84 80
0.195663 -0.308737 -0.582 133 82 78
0.197448 -0.309798 -0.584 132 81 77
0.19856 -0.309798 -0.584 128 73 70
0.200014 -0.310329 -0.585 111 56 53
0.201472 -0.310859 -0.586 116 58 57
0.202934 -0.31139 -0.587 132 74 73
0.204052 -0.31139 -0.587 132 74 73
0.20517 -0.31139 -0.587 150 90 90
0.206289 -0.31139 -0.587 169 109 109
0.207407 -0.31139 -0.587 173 112 111
0.208525 -0.31139 -0.587 179 118 117
0.209286 -0.310859 -0.586 178 116 119
0.210402 -0.310859 -0.586 182 120 123
0.211518 -0.310859 -0.586 179 113 114
0.212634 -0.310859 -0.586 182 116 117
0.21375 -0.310859 -0.586 187 119 120
0.215233 -0.31139 -0.587 186 118 119
0.216351 -0.31139 -0.587 181 111 113
0.21747 -0.31139 -0.587 177 107 109
0.21896 -0.31192 -0.588 183 114 109
0.220454 -0.31245 -0.589 176 107 102
0.221952 -0.312981 -0.59 166 102 92
0.223454 -0.313511 -0.591 159 95 85
0.22496 -0.314042 -0.592 147 90 81
0.226851 -0.315103 -0.594 144 87 78
0.22875 -0.316164 -0.596 136 86 85
0.230271 -0.316694 -0.597 132 82 81
0.232571 -0.318286 -0.6 116 81 79
0.234883 -0.319877 -0.603 114 79 77
0.236814 -0.320938 -0.605 115 75 76
0.239147 -0.32253 -0.608 120 80 81
0.241886 -0.324651 -0.612 115 79 89
0.244243 -0.326243 -0.615 121 85 95
0.24701 -0.328365 -0.619 118 97 116
0.249392 -0.329956 -0.622 154 133 152
0.306053 -0.341627 -0.644 173 186 230
0.30728 -0.341627 -0.644 188 201 245
0.308507 -0.341627 -0.644 204 218 255
0.309733 -0.341627 -0.644 214 228 255
0.31096 -0.341627 -0.644 194 209 242
0.312187 -0.341627 -0.644 169 184 217
0.313413 -0.341627 -0.644 196 206 242
0.31464 -0.341627 -0.644 222 232 255
0.353762 -0.342688 -0.646 225 239 255
0.354992 -0.342688 -0.646 240 250 249
0.356223 -0.342688 -0.646 244 254 253
0.357453 -0.342688 -0.646 249 250 255
0.358684 -0.342688 -0.646 251 252 255
0.360471 -0.343218 -0.647 250 249 255
0.361704 -0.343218 -0.647 250 249 255
0.362936 -0.343218 -0.647 245 246 250
0.364169 -0.343218 -0.647 246 247 251
0.365401 -0.343218 -0.647 246 247 251
0.366633 -0.343218 -0.647 223 227 252
0.367866 -0.343218 -0.647 179 183 208
0.369098 -0.343218 -0.647 155 164 203
0.37033 -0.343218 -0.647 162 171 210
0.371563 -0.343218 -0.647 182 200 238
0.372795 -0.343218 -0.647 188 206 244
0.374606 -0.343749 -0.648 217 224 250
0.37584 -0.343749 -0.648 228 235 255
0.377074 -0.343749 -0.648 218 223 252
0.378309 -0.343749 -0.648 172 177 206
0.379543 -0.343749 -0.648 185 188 219
0.380777 -0.343749 -0.648 217 220 251
0.382011 -0.343749 -0.648 221 227 255
0.383246 -0.343749 -0.648 202 208 244
0.38448 -0.343749 -0.648 182 195 237
0.385714 -0.343749 -0.648 162 175 217
0.386949 -0.343749 -0.648 147 162 203
0.388183 -0.343749 -0.648 132 147 188
0.389417 -0.343749 -0.648 153 158 190
0.390651 -0.343749 -0.648 176 181 213
0.391281 -0.343218 -0.647 221 212 231
0.392513 -0.343218 -0.647 235 226 245
0.393746 -0.343218 -0.647 230 232 253
0.395589 -0.343749 -0.648 228 230 251
0.396823 -0.343749 -0.648 225 226 247
0.398057 -0.343749 -0.648 225 226 247
0.399291 -0.343749 -0.648 226 227 248
0.400526 -0.343749 -0.648 223 227 252
0.40176 -0.343749 -0.648 214 218 243
0.402994 -0.343749 -0.648 191 204 238
0.404229 -0.343749 -0.648 166 179 213
0.406089 -0.344279 -0.649 142 164 205
0.407325 -0.344279 -0.649 151 173 214
0.408561 -0.344279 -0.649 158 185 228
0.409797 -0.344279 -0.649 168 195 238
0.411033 -0.344279 -0.649 172 197 238
0.41227 -0.344279 -0.649 158 183 224
0.413506 -0.344279 -0.649 142 161 203
0.414742 -0.344279 -0.649 144 163 205
0.415978 -0.344279 -0.649 166 183 213
0.417214 -0.344279 -0.649 190 207 237
0.41845 -0.344279 -0.649 208 215 241
0.419687 -0.344279 -0.649 211 218 244
0.420923 -0.344279 -0.649 217 223 249
0.422159 -0.344279 -0.649 209 215 241
0.423395 -0.344279 -0.649 212 218 244
0.425286 -0.34481 -0.65 212 218 244
0.426524 -0.34481 -0.65 212 214 237
0.427762 -0.34481 -0.65 204 206 229
0.429 -0.34481 -0.65 164 169 198
0.430238 -0.34481 -0.65 164 169 198
0.431476 -0.34481 -0.65 135 140 169
0.432714 -0.34481 -0.65 160 171 201
0.433952 -0.34481 -0.65 174 185 215
0.43519 -0.34481 -0.65 153 163 188
0.436429 -0.34481 -0.65 146 156 181
0.437667 -0.34481 -0.65 171 175 200
0.438905 -0.34481 -0.65 192 196 221
0.440143 -0.34481 -0.65 188 194 220
0.441381 -0.34481 -0.65 157 163 189
0.442619 -0.34481 -0.65 164 171 197
0.443857 -0.34481 -0.65 195 202 228
0.445095 -0.34481 -0.65 194 200 224
0.446333 -0.34481 -0.65 185 191 215
0.447571 -0.34481 -0.65 170 178 199
0.44881 -0.34481 -0.65 159 167 188
0.556109 -0.336322 -0.634 162 132 130
0.487667 -0.291762 -0.55 163 132 130
0.479829 -0.286457 -0.54 165 134 132
0.471952 -0.281152 -0.53 168 134 132
0.465823 -0.276909 -0.522 171 137 135
0.461451 -0.273726 -0.516 171 138 129
0.457057 -0.270543 -0.51 168 135 126
0.454436 -0.268421 -0.506 170 135 129
0.4527 -0.26683 -0.503 171 136 130
0.450952 -0.265238 -0.5 175 138 132
0.449193 -0.263647 -0.497 179 142 136
0.448329 -0.262586 -0.495 182 146 134
0.447456 -0.261525 -0.493 181 145 133
0.447486 -0.260994 -0.492 180 143 125
0.4466 -0.259933 -0.49 182 145 127
0.44662 -0.259403 -0.489 185 147 128
0.445721 -0.258342 -0.487 186 148 129
0.445731 -0.257811 -0.486 189 148 130
0.445738 -0.257281 -0.485 188 147 129
0.445741 -0.25675 -0.484 186 143 126
0.44574 -0.25622 -0.483 188 145 128
0.445735 -0.25569 -0.482 192 149 130
0.445727 -0.255159 -0.481 192 149 130
0.445714 -0.254629 -0.48 197 152 133
0.446629 -0.254629 -0.48 198 153 134
0.447543 -0.254629 -0.48 197 152 133
0.447523 -0.254098 -0.479 191 146 127
0.448435 -0.254098 -0.479 192 146 130
0.44841 -0.253568 -0.478 195 149 133
0.44932 -0.253568 -0.478 195 149 133
0.449289 -0.253037 -0.477 192 146 130
0.449253 -0.252507 -0.476 195 148 132
0.45016 -0.252507 -0.476 198 151 135
0.451067 -0.252507 -0.476 196 149 133
0.451973 -0.252507 -0.476 196 149 133
0.45288 -0.252507 -0.476 197 150 134
0.453787 -0.252507 -0.476 195 148 132
0.453738 -0.251976 -0.475 195 150 129
0.454643 -0.251976 -0.475 197 152 131
0.455548 -0.251976 -0.475 194 149 130
0.455491 -0.251446 -0.474 191 146 127
0.456394 -0.251446 -0.474 192 147 126
0.457297 -0.251446 -0.474 192 147 126
0.4582 -0.251446 -0.474 192 147 126
0.458134 -0.250915 -0.473 192 147 126
0.459035 -0.250915 -0.473 197 152 131
0.459936 -0.250915 -0.473 198 152 129
0.459863 -0.250385 -0.472 196 150 127
0.460762 -0.250385 -0.472 196 149 129
0.461661 -0.250385 -0.472 191 144 124
0.46158 -0.249854 -0.471 183 136 116
0.462477 -0.249854 -0.471 161 114 94
0.463374 -0.249854 -0.471 169 123 100
0.463286 -0.249324 -0.47 186 140 117
0.464181 -0.249324 -0.47 191 144 124
0.465076 -0.249324 -0.47 192 145 125
0.465971 -0.249324 -0.47 192 145 125
0.466867 -0.249324 -0.47 192 145 125
0.467762 -0.249324 -0.47 192 145 125
0.468657 -0.249324 -0.47 194 147 127
0.469552 -0.249324 -0.47 195 148 128
0.469447 -0.248793 -0.469 193 146 126
0.47034 -0.248793 -0.469 189 144 123
0.471233 -0.248793 -0.469 191 146 125
0.472127 -0.248793 -0.469 193 148 127
0.47302 -0.248793 -0.469 192 147 126
0.473913 -0.248793 -0.469 189 144 123
0.474807 -0.248793 -0.469 183 138 117
0.474686 -0.248263 -0.468 180 135 114
0.475577 -0.248263 -0.468 181 136 115
0.476469 -0.248263 -0.468 182 137 116
0.47736 -0.248263 -0.468 183 138 117
0.478251 -0.248263 -0.468 179 136 117
0.480167 -0.248793 -0.469 175 132 113
0.48106 -0.248793 -0.469 171 128 111
0.482981 -0.249324 -0.47 172 129 112
0.483876 -0.249324 -0.47 172 131 113
0.485803 -0.249854 -0.471 169 128 110
0.4867 -0.249854 -0.471 165 126 109
0.488632 -0.250385 -0.472 164 125 108
0.490569 -0.250915 -0.473 158 122 108
0.492509 -0.251446 -0.474 156 120 106
0.494452 -0.251976 -0.475 157 123 111
0.497443 -0.253037 -0.477 156 122 110
0.499396 -0.253568 -0.478 156 120 108
0.5024 -0.254629 -0.48 157 121 109
0.1144 -0.327947 -0.616 195 142 136
0.114635 -0.325285 -0.611 191 138 132
0.114851 -0.322623 -0.606 192 142 133
0.114666 -0.318896 -0.599 197 147 138
0.11484 -0.316234 -0.594 193 139 137
0.11519 -0.314105 -0.59 183 129 127
0.115526 -0.311975 -0.586 184 129 122
0.116244 -0.31091 -0.584 193 138 131
0.116954 -0.309846 -0.582 193 136 129
0.11786 -0.309313 -0.581 194 137 130
0.118557 -0.308249 -0.579 191 133 129
0.119247 -0.307184 -0.577 187 129 125
0.120137 -0.306651 -0.576 188 130 126
0.120813 -0.305587 -0.574 187 129 125
0.121694 -0.305054 -0.573 187 128 122
0.122357 -0.30399 -0.571 189 130 124
0.123229 -0.303457 -0.57 190 129 124
0.124096 -0.302925 -0.569 189 128 123
0.12496 -0.302392 -0.568 188 127 122
0.12582 -0.30186 -0.567 188 127 122
0.1269 -0.30186 -0.567 187 126 121
0.127754 -0.301328 -0.566 187 126 121
0.128605 -0.300795 -0.565 190 127 120
0.129681 -0.300795 -0.565 188 125 118
0.130526 -0.300263 -0.564 183 123 113
0.1316 -0.300263 -0.564 182 122 112
0.132439 -0.29973 -0.563 185 125 115
0.133511 -0.29973 -0.563 191 131 121
0.134584 -0.29973 -0.563 192 132 124
0.135415 -0.299198 -0.562 190 130 122
0.136486 -0.299198 -0.562 191 131 123
0.137556 -0.299198 -0.562 191 131 123
0.13838 -0.298666 -0.561 186 123 116
0.139449 -0.298666 -0.561 188 125 118
0.140517 -0.298666 -0.561 190 127 120
0.141586 -0.298666 -0.561 191 128 121
0.142654 -0.298666 -0.561 192 129 122
0.143723 -0.298666 -0.561 192 129 122
0.144791 -0.298666 -0.561 192 129 122
0.14586 -0.298666 -0.561 191 128 121
0.146929 -0.298666 -0.561 186 123 116
0.148261 -0.299198 -0.562 186 123 116
0.149331 -0.299198 -0.562 183 123 115
0.150402 -0.299198 -0.562 181 121 113
0.151472 -0.299198 -0.562 184 121 116
0.152543 -0.299198 -0.562 184 121 116
0.153613 -0.299198 -0.562 187 124 119
0.154684 -0.299198 -0.562 182 119 114
0.155754 -0.299198 -0.562 177 114 109
0.156825 -0.299198 -0.562 175 110 106
0.157895 -0.299198 -0.562 170 105 101
0.159249 -0.29973 -0.563 166 103 98
0.160321 -0.29973 -0.563 167 104 99
0.161393 -0.29973 -0.563 169 104 100
0.162466 -0.29973 -0.563 169 104 100
0.163538 -0.29973 -0.563 169 104 102
0.164903 -0.300263 -0.564 168 103 101
0.165977 -0.300263 -0.564 168 103 101
0.167051 -0.300263 -0.564 165 100 98
0.168424 -0.300795 -0.565 163 99 97
0.1695 -0.300795 -0.565 161 97 95
0.170576 -0.300795 -0.565 156 95 92
0.171956 -0.301328 -0.566 156 95 92
0.17334 -0.30186 -0.567 155 94 91
0.17442 -0.30186 -0.567 151 90 87
0.17581 -0.302392 -0.568 151 90 87
0.177203 -0.302925 -0.569 151 90 87
0.1786 -0.303457 -0.57 145 87 83
0.180001 -0.30399 -0.571 144 86 82
0.181406 -0.304522 -0.572 144 86 82
0.182495 -0.304522 -0.572 143 85 81
0.183906 -0.305054 -0.573 141 83 79
0.18532 -0.305587 -0.574 139 81 77
0.186738 -0.306119 -0.575 140 82 80
0.18816 -0.306651 -0.576 140 82 80
0.189586 -0.307184 -0.577 137 84 80
0.191346 -0.308249 -0.579 135 82 78
0.192781 -0.308781 -0.58 133 82 78
0.19422 -0.309313 -0.581 134 83 79
0.195663 -0.309846 -0.582 132 79 75
0.19711 -0.310378 -0.583 127 74 70
0.19856 -0.31091 -0.584 121 66 63
0.199672 -0.31091 -0.584 109 54 51
0.201129 -0.311443 -0.585 116 58 56
0.202589 -0.311975 -0.586 143 85 83
0.203705 -0.311975 -0.586 143 85 83
0.204821 -0.311975 -0.586 160 99 98
0.205937 -0.311975 -0.586 167 106 105
0.207053 -0.311975 -0.586 173 107 108
0.207814 -0.311443 -0.585 178 112 113
0.208929 -0.311443 -0.585 180 114 116
0.210043 -0.311443 -0.585 181 115 117
0.211157 -0.311443 -0.585 175 110 108
0.212271 -0.311443 -0.585 176 111 109
0.21375 -0.311975 -0.586 181 113 112
0.214867 -0.311975 -0.586 184 116 115
0.216351 -0.312508 -0.587 180 110 112
0.21747 -0.312508 -0.587 179 109 111
0.21896 -0.31304 -0.588 180 109 105
0.220454 -0.313572 -0.589 173 102 98
0.221952 -0.314105 -0.59 164 97 88
0.223832 -0.31517 -0.592 157 90 81
0.22534 -0.315702 -0.593 145 88 79
0.227233 -0.316767 -0.595 142 85 76
0.22875 -0.317299 -0.596 133 83 82
0.230657 -0.318364 -0.598 129 79 78
0.232959 -0.319961 -0.601 115 81 80
0.235272 -0.321558 -0.604 115 81 80
0.237206 -0.322623 -0.606 111 75 77
0.239933 -0.324752 -0.61 112 76 78
0.242281 -0.32635 -0.613 110 80 92
0.245037 -0.328479 -0.617 125 95 107
0.247809 -0.330609 -0.621 129 114 133
0.304353 -0.342321 -0.643 155 164 203
0.351986 -0.343386 -0.645 193 206 241
0.353214 -0.343386 -0.645 220 233 255
0.354443 -0.343386 -0.645 240 250 251
0.355671 -0.343386 -0.645 244 254 255
0.3569 -0.343386 -0.645 246 250 253
0.358684 -0.343918 -0.646 249 253 255
0.359914 -0.343918 -0.646 250 251 255
0.361145 -0.343918 -0.646 252 253 255
0.362375 -0.343918 -0.646 243 247 250
0.363606 -0.343918 -0.646 231 235 238
0.364836 -0.343918 -0.646 231 235 238
0.366067 -0.343918 -0.646 212 218 242
0.367297 -0.343918 -0.646 180 186 210
0.368528 -0.343918 -0.646 149 161 199
0.369758 -0.343918 -0.646 141 153 191
0.370989 -0.343918 -0.646 152 171 213
0.372795 -0.34445 -0.647 174 193 235
0.374028 -0.34445 -0.647 203 218 251
0.37526 -0.34445 -0.647 218 233 255
0.376492 -0.34445 -0.647 200 213 248
0.377725 -0.34445 -0.647 156 169 204
0.378957 -0.34445 -0.647 172 181 220
0.38019 -0.34445 -0.647 208 217 255
0.381422 -0.34445 -0.647 208 221 255
0.382654 -0.34445 -0.647 186 199 241
0.383887 -0.34445 -0.647 155 173 219
0.385119 -0.34445 -0.647 131 149 195
0.386351 -0.34445 -0.647 123 141 187
0.387584 -0.34445 -0.647 138 156 202
0.388816 -0.34445 -0.647 177 185 221
0.390049 -0.34445 -0.647 196 204 240
0.391281 -0.34445 -0.647 224 221 242
0.393746 -0.34445 -0.647 230 232 253
0.394978 -0.34445 -0.647 231 233 254
0.39621 -0.34445 -0.647 227 229 250
0.397443 -0.34445 -0.647 227 229 250
0.398675 -0.34445 -0.647 221 223 244
0.399908 -0.34445 -0.647 220 226 252
0.40114 -0.34445 -0.647 214 220 246
0.402372 -0.34445 -0.647 181 194 228
0.403605 -0.34445 -0.647 151 164 198
0.405463 -0.344983 -0.648 138 160 201
0.406697 -0.344983 -0.648 154 176 217
0.407931 -0.344983 -0.648 161 188 231
0.409166 -0.344983 -0.648 168 195 238
0.4104 -0.344983 -0.648 174 198 242
0.411634 -0.344983 -0.648 164 188 232
0.412869 -0.344983 -0.648 143 164 207
0.414103 -0.344983 -0.648 129 150 193
0.415337 -0.344983 -0.648 147 166 199
0.416571 -0.344983 -0.648 179 198 231
0.417806 -0.344983 -0.648 208 215 244
0.41904 -0.344983 -0.648 208 215 244
0.420274 -0.344983 -0.648 209 216 244
0.421509 -0.344983 -0.648 210 217 245
0.422743 -0.344983 -0.648 212 219 245
0.424631 -0.345515 -0.649 211 218 244
0.425868 -0.345515 -0.649 209 214 236
0.427104 -0.345515 -0.649 210 215 237
0.42834 -0.345515 -0.649 191 198 227
0.429576 -0.345515 -0.649 191 198 227
0.430812 -0.345515 -0.649 132 139 168
0.432049 -0.345515 -0.649 97 111 148
0.433285 -0.345515 -0.649 126 140 177
0.434521 -0.345515 -0.649 155 170 203
0.435757 -0.345515 -0.649 151 166 199
0.436993 -0.345515 -0.649 138 144 176
0.43823 -0.345515 -0.649 165 171 203
0.439466 -0.345515 -0.649 184 193 224
0.440702 -0.345515 -0.649 146 155 186
0.441938 -0.345515 -0.649 162 169 198
0.443174 -0.345515 -0.649 192 199 228
0.445095 -0.346048 -0.65 194 201 229
0.446333 -0.346048 -0.65 180 187 215
0.447571 -0.346048 -0.65 156 166 193
0.44881 -0.346048 -0.65 127 137 164
0.450048 -0.346048 -0.65 114 125 153
0.451286 -0.346048 -0.65 94 105 133
0.452524 -0.346048 -0.65 126 133 161
0.481 -0.346048 -0.65 164 178 207
0.482238 -0.346048 -0.65 184 198 227
0.483476 -0.346048 -0.65 194 197 214
0.556109 -0.33753 -0.634 161 132 128
0.548526 -0.332206 -0.624 161 132 128
0.481606 -0.28855 -0.542 162 132 130
0.473733 -0.283227 -0.532 163 132 130
0.467608 -0.278968 -0.524 166 135 133
0.462346 -0.275241 -0.517 169 136 131
0.45885 -0.272579 -0.512 167 134 129
0.455334 -0.269917 -0.507 167 134 127
0.4536 -0.26832 -0.504 169 136 129
0.450952 -0.26619 -0.5 174 140 131
0.450097 -0.265126 -0.498 178 144 135
0.448329 -0.263529 -0.495 181 145 133
0.448364 -0.262996 -0.494 180 144 132
0.447486 -0.261931 -0.492 179 142 126
0.4466 -0.260867 -0.49 180 143 127
0.44662 -0.260334 -0.489 186 144 130
0.445721 -0.25927 -0.487 188 146 132
0.445731 -0.258737 -0.486 189 148 130
0.445738 -0.258205 -0.485 182 141 123
0.445741 -0.257672 -0.484 170 127 108
0.44574 -0.25714 -0.483 164 121 102
0.445735 -0.256608 -0.482 184 141 125
0.445727 -0.256075 -0.481 187 144 128
0.445714 -0.255543 -0.48 195 149 134
0.446629 -0.255543 -0.48 196 150 135
0.44661 -0.25501 -0.479 196 150 135
0.447523 -0.25501 -0.479 189 143 128
0.448435 -0.25501 -0.479 192 146 130
0.44841 -0.254478 -0.478 195 149 133
0.44932 -0.254478 -0.478 196 150 135
0.449289 -0.253946 -0.477 193 147 132
0.449253 -0.253413 -0.476 195 148 132
0.45016 -0.253413 -0.476 197 150 134
0.451067 -0.253413 -0.476 197 150 134
0.451973 -0.253413 -0.476 197 150 134
0.451929 -0.252881 -0.475 197 150 134
0.452833 -0.252881 -0.475 195 148 132
0.453738 -0.252881 -0.475 195 150 129
0.453686 -0.252349 -0.474 199 154 133
0.454589 -0.252349 -0.474 197 152 131
0.455491 -0.252349 -0.474 194 149 128
0.455431 -0.251816 -0.473 195 150 129
0.456332 -0.251816 -0.473 194 149 128
0.457233 -0.251816 -0.473 194 149 128
0.458134 -0.251816 -0.473 193 148 127
0.458065 -0.251284 -0.472 196 151 130
0.458964 -0.251284 -0.472 197 150 130
0.459863 -0.251284 -0.472 194 147 127
0.459786 -0.250751 -0.471 197 150 130
0.460683 -0.250751 -0.471 195 148 128
0.46158 -0.250751 -0.471 189 142 122
0.461495 -0.250219 -0.47 170 123 103
0.46239 -0.250219 -0.47 175 128 108
0.463286 -0.250219 -0.47 192 145 125
0.463193 -0.249687 -0.469 191 144 124
0.464087 -0.249687 -0.469 193 146 126
0.46498 -0.249687 -0.469 193 146 126
0.465873 -0.249687 -0.469 192 145 125
0.466767 -0.249687 -0.469 193 146 126
0.46766 -0.249687 -0.469 194 147 127
0.468553 -0.249687 -0.469 195 148 128
0.469447 -0.249687 -0.469 195 148 128
0.47034 -0.249687 -0.469 192 147 128
0.470229 -0.249154 -0.468 194 149 130
0.47112 -0.249154 -0.468 195 150 131
0.47302 -0.249687 -0.469 193 148 129
0.473913 -0.249687 -0.469 189 144 125
0.473794 -0.249154 -0.468 185 140 121
0.474686 -0.249154 -0.468 183 138 119
0.475577 -0.249154 -0.468 184 139 120
0.476469 -0.249154 -0.468 183 138 119
0.47736 -0.249154 -0.468 183 138 119
0.478251 -0.249154 -0.468 180 137 120
0.479143 -0.249154 -0.468 174 131 114
0.480034 -0.249154 -0.468 169 128 110
0.481953 -0.249687 -0.469 171 130 112
0.482847 -0.249687 -0.469 171 129 113
0.484771 -0.250219 -0.47 170 128 112
0.485667 -0.250219 -0.47 164 125 110
0.487597 -0.250751 -0.471 161 122 107
0.489531 -0.251284 -0.472 155 119 105
0.49043 -0.251284 -0.472 156 120 106
0.493411 -0.252349 -0.474 159 123 111
0.495357 -0.252881 -0.475 157 121 109
0.497307 -0.253413 -0.476 155 119 107
0.501353 -0.25501 -0.479 157 121 109
0.505411 -0.256608 -0.482 155 119 105
0.509481 -0.258205 -0.485 156 120 106
0.113843 -0.327517 -0.613 195 142 136
0.11426 -0.32538 -0.609 195 142 136
0.114472 -0.322709 -0.604 193 145 133
0.114283 -0.318969 -0.597 191 143 131
0.114647 -0.316831 -0.593 191 137 135
0.114995 -0.314694 -0.589 188 134 132
0.115329 -0.312557 -0.585 189 137 126
0.116244 -0.312023 -0.584 191 139 128
0.116954 -0.310954 -0.582 191 136 129
0.117657 -0.309886 -0.58 194 139 132
0.118352 -0.308817 -0.578 190 135 128
0.119247 -0.308283 -0.577 186 131 124
0.119929 -0.307214 -0.575 186 131 124
0.120813 -0.30668 -0.574 186 131 124
0.121482 -0.305611 -0.572 186 129 122
0.122143 -0.304543 -0.57 187 130 123
0.123012 -0.304009 -0.569 186 129 120
0.123878 -0.303474 -0.568 186 129 120
0.12496 -0.303474 -0.568 186 127 119
0.12582 -0.30294 -0.567 188 129 121
0.126676 -0.302406 -0.566 190 131 123
0.127529 -0.301871 -0.565 191 132 124
0.128605 -0.301871 -0.565 191 132 124
0.129681 -0.301871 -0.565 188 129 121
0.130526 -0.301337 -0.564 184 126 115
0.1316 -0.301337 -0.564 188 130 119
0.132439 -0.300803 -0.563 190 132 121
0.133511 -0.300803 -0.563 188 130 119
0.134584 -0.300803 -0.563 189 129 119
0.135415 -0.300269 -0.562 192 132 122
0.136486 -0.300269 -0.562 193 133 125
0.137311 -0.299734 -0.561 188 128 120
0.13838 -0.299734 -0.561 184 124 116
0.139449 -0.299734 -0.561 187 127 119
0.140517 -0.299734 -0.561 192 129 122
0.141586 -0.299734 -0.561 192 129 122
0.142654 -0.299734 -0.561 192 129 122
0.143723 -0.299734 -0.561 193 130 123
0.144791 -0.299734 -0.561 191 128 121
0.14586 -0.299734 -0.561 190 127 120
0.146929 -0.299734 -0.561 185 125 117
0.147997 -0.299734 -0.561 177 117 109
0.149331 -0.300269 -0.562 171 111 103
0.150402 -0.300269 -0.562 177 117 109
0.151472 -0.300269 -0.562 177 117 109
0.152543 -0.300269 -0.562 184 121 116
0.153613 -0.300269 -0.562 187 124 119
0.154684 -0.300269 -0.562 186 123 118
0.155754 -0.300269 -0.562 180 117 112
0.156825 -0.300269 -0.562 176 113 108
0.157895 -0.300269 -0.562 169 106 101
0.159249 -0.300803 -0.563 166 103 98
0.160321 -0.300803 -0.563 168 105 100
0.161393 -0.300803 -0.563 171 106 104
0.162466 -0.300803 -0.563 170 105 103
0.163538 -0.300803 -0.563 170 105 103
0.16461 -0.300803 -0.563 168 103 101
0.165977 -0.301337 -0.564 167 102 100
0.167051 -0.301337 -0.564 164 99 97
0.168424 -0.301871 -0.565 166 102 100
0.1695 -0.301871 -0.565 161 97 95
0.170576 -0.301871 -0.565 155 91 89
0.171956 -0.302406 -0.566 158 94 92
0.17334 -0.30294 -0.567 155 94 91
0.17442 -0.30294 -0.567 150 89 86
0.17581 -0.303474 -0.568 149 90 86
0.177203 -0.304009 -0.569 148 89 85
0.1786 -0.304543 -0.57 144 86 82
0.180001 -0.305077 -0.571 141 83 79
0.181406 -0.305611 -0.572 142 84 80
0.182814 -0.306146 -0.573 142 84 80
0.183906 -0.306146 -0.573 138 80 76
0.18532 -0.30668 -0.574 137 79 75
0.186738 -0.307214 -0.575 135 80 75
0.18816 -0.307749 -0.576 136 81 76
0.189586 -0.308283 -0.577 134 81 77
0.191346 -0.309351 -0.579 133 80 76
0.192781 -0.309886 -0.58 133 80 76
0.19422 -0.31042 -0.581 132 79 75
0.195663 -0.310954 -0.582 129 76 70
