ply
format ascii 1.0
comment Created by Open3D
element vertex 1286
property double x
property double y
property double z
property uchar red
property uchar green
property uchar blue
end_header
0.435426 -0.393117 -0.617 218 218 226
0.438486 -0.393754 -0.618 211 214 223
0.439663 -0.393754 -0.618 213 216 247
0.44084 -0.393754 -0.618 203 206 237
0.442017 -0.393754 -0.618 197 207 243
0.443194 -0.393754 -0.618 183 193 229
0.444371 -0.393754 -0.618 180 199 241
0.445549 -0.393754 -0.618 188 207 249
0.447449 -0.394391 -0.619 186 210 244
0.448628 -0.394391 -0.619 186 210 244
0.449807 -0.394391 -0.619 183 207 241
0.450986 -0.394391 -0.619 179 197 235
0.452165 -0.394391 -0.619 184 202 240
0.453344 -0.394391 -0.619 203 215 239
0.455257 -0.395029 -0.62 211 223 247
0.456438 -0.395029 -0.62 226 227 247
0.457619 -0.395029 -0.62 217 218 238
0.4588 -0.395029 -0.62 208 208 220
0.459981 -0.395029 -0.62 225 225 237
0.461162 -0.395029 -0.62 234 238 250
0.462343 -0.395029 -0.62 225 229 241
0.464271 -0.395666 -0.621 179 190 212
0.464705 -0.395029 -0.62 131 143 169
0.465886 -0.395029 -0.62 181 191 218
0.467067 -0.395029 -0.62 219 229 255
0.468248 -0.395029 -0.62 240 243 255
0.469429 -0.395029 -0.62 237 240 255
0.47061 -0.395029 -0.62 240 242 255
0.47179 -0.395029 -0.62 240 242 255
0.473734 -0.395666 -0.621 236 241 255
0.474917 -0.395666 -0.621 232 237 255
0.4761 -0.395666 -0.621 233 242 255
0.477283 -0.395666 -0.621 230 239 255
0.478466 -0.395666 -0.621 232 238 250
0.480421 -0.396303 -0.622 204 210 222
0.481606 -0.396303 -0.622 197 198 218
0.48279 -0.396303 -0.622 219 220 240
0.483975 -0.396303 -0.622 230 231 249
0.48516 -0.396303 -0.622 229 230 248
0.487127 -0.39694 -0.623 224 230 255
0.488313 -0.39694 -0.623 224 230 255
0.4895 -0.39694 -0.623 219 225 251
0.490687 -0.39694 -0.623 221 230 245
0.491084 -0.396303 -0.622 217 226 241
0.492269 -0.396303 -0.622 221 226 248
0.494247 -0.39694 -0.623 221 226 248
0.495433 -0.39694 -0.623 214 212 236
0.49662 -0.39694 -0.623 177 175 199
0.497807 -0.39694 -0.623 112 113 134
0.498993 -0.39694 -0.623 122 123 144
0.50018 -0.39694 -0.623 161 169 188
0.501367 -0.39694 -0.623 153 161 180
0.502553 -0.39694 -0.623 163 159 174
0.504549 -0.397577 -0.624 202 198 213
0.505737 -0.397577 -0.624 206 208 231
0.506926 -0.397577 -0.624 203 205 228
0.508114 -0.397577 -0.624 179 185 207
0.509303 -0.397577 -0.624 165 171 193
0.510491 -0.397577 -0.624 142 166 204
0.51168 -0.397577 -0.624 131 155 193
0.512869 -0.397577 -0.624 128 151 195
0.514057 -0.397577 -0.624 120 143 187
0.515246 -0.397577 -0.624 99 136 180
0.516434 -0.397577 -0.624 95 132 176
0.517623 -0.397577 -0.624 110 133 177
0.51798 -0.39694 -0.623 118 141 185
0.519167 -0.39694 -0.623 130 151 180
0.519518 -0.396303 -0.622 119 140 169
0.519866 -0.395666 -0.621 122 120 133
0.513714 -0.382286 -0.6 172 142 131
0.511425 -0.379737 -0.596 173 140 131
0.50912 -0.377189 -0.592 174 141 132
0.5068 -0.37464 -0.588 174 144 136
0.504465 -0.372091 -0.584 176 146 138
0.502114 -0.369543 -0.58 176 146 138
0.499749 -0.366994 -0.576 175 145 137
0.497368 -0.364446 -0.572 175 145 135
0.495843 -0.362534 -0.569 174 144 134
0.494307 -0.360623 -0.566 176 142 132
0.491884 -0.358074 -0.562 178 144 134
0.4912 -0.3568 -0.56 180 144 132
0.490509 -0.355526 -0.558 181 145 133
0.488929 -0.353614 -0.555 183 147 133
0.48822 -0.35234 -0.553 183 147 133
0.486619 -0.350429 -0.55 183 147 133
0.485893 -0.349154 -0.548 184 148 134
0.48516 -0.34788 -0.546 184 147 131
0.484419 -0.346606 -0.544 187 150 134
0.484563 -0.345969 -0.543 191 150 132
0.484703 -0.345331 -0.542 191 150 132
0.484839 -0.344694 -0.541 189 151 132
0.484073 -0.34342 -0.539 188 150 131
0.4842 -0.342783 -0.538 190 152 133
0.484323 -0.342146 -0.537 192 154 135
0.484442 -0.341509 -0.536 195 154 134
0.484557 -0.340871 -0.535 197 156 136
0.484669 -0.340234 -0.534 197 154 135
0.484776 -0.339597 -0.533 193 150 131
0.485791 -0.339597 -0.533 194 153 133
0.485893 -0.33896 -0.532 197 156 136
0.486907 -0.33896 -0.532 198 157 137
0.48792 -0.33896 -0.532 199 158 138
0.488014 -0.338323 -0.531 200 158 136
0.488105 -0.337686 -0.53 200 158 136
0.489114 -0.337686 -0.53 198 156 132
0.489199 -0.337049 -0.529 195 153 129
0.490207 -0.337049 -0.529 196 154 130
0.490286 -0.336411 -0.528 198 156 132
0.491291 -0.336411 -0.528 198 156 132
0.492297 -0.336411 -0.528 195 153 129
0.492369 -0.335774 -0.527 193 151 127
0.493372 -0.335774 -0.527 195 153 128
0.493438 -0.335137 -0.526 197 155 130
0.49444 -0.335137 -0.526 199 155 130
0.495442 -0.335137 -0.526 199 155 130
0.4955 -0.3345 -0.525 196 151 128
0.4965 -0.3345 -0.525 195 150 127
0.4975 -0.3345 -0.525 196 151 128
0.49755 -0.333863 -0.524 194 149 126
0.498549 -0.333863 -0.524 196 155 127
0.498593 -0.333226 -0.523 191 150 122
0.49959 -0.333226 -0.523 192 150 125
0.500586 -0.333226 -0.523 190 148 123
0.501582 -0.333226 -0.523 187 145 120
0.502578 -0.333226 -0.523 184 142 117
0.503574 -0.333226 -0.523 184 143 115
0.50457 -0.333226 -0.523 186 145 117
0.506533 -0.333863 -0.524 185 144 114
0.507531 -0.333863 -0.524 180 139 109
0.5095 -0.3345 -0.525 182 143 114
0.511472 -0.335137 -0.526 178 139 110
0.512474 -0.335137 -0.526 175 135 110
0.514452 -0.335774 -0.527 172 132 107
0.517412 -0.337049 -0.529 169 128 108
0.5194 -0.337686 -0.53 167 126 106
0.522373 -0.33896 -0.532 166 125 105
0.525354 -0.340234 -0.534 162 121 101
1.14542 -0.402674 -0.632 202 205 188
1.14663 -0.402674 -0.632 201 204 187
1.14602 -0.402037 -0.631 205 208 191
0.0748286 -0.371926 -0.582 204 159 138
0.0755457 -0.370009 -0.579 202 157 136
0.076119 -0.367452 -0.575 201 158 141
0.0766771 -0.364896 -0.571 204 161 144
0.07722 -0.36234 -0.567 200 161 146
0.0776095 -0.359145 -0.562 200 161 146
0.07826 -0.357228 -0.559 202 157 138
0.0787571 -0.354671 -0.555 202 157 138
0.0795267 -0.353393 -0.553 202 157 138
0.0804343 -0.352754 -0.552 203 158 139
0.0811905 -0.351476 -0.55 203 158 139
0.0820886 -0.350837 -0.549 202 157 138
0.0831343 -0.350837 -0.549 202 155 137
0.0840267 -0.350198 -0.548 201 154 136
0.0850705 -0.350198 -0.548 202 155 135
0.0859571 -0.349559 -0.547 200 153 133
0.086999 -0.349559 -0.547 199 152 132
0.088041 -0.349559 -0.547 199 152 132
0.0890829 -0.349559 -0.547 200 152 132
0.0901248 -0.349559 -0.547 200 152 132
0.0911667 -0.349559 -0.547 200 152 132
0.0922086 -0.349559 -0.547 199 151 131
0.09308 -0.34892 -0.546 199 151 129
0.09412 -0.34892 -0.546 197 149 127
0.09516 -0.34892 -0.546 196 145 124
0.0962 -0.34892 -0.546 195 144 123
0.09724 -0.34892 -0.546 195 144 123
0.09828 -0.34892 -0.546 196 145 124
0.09932 -0.34892 -0.546 196 146 123
0.10036 -0.34892 -0.546 196 146 123
0.1014 -0.34892 -0.546 195 145 122
0.10244 -0.34892 -0.546 196 146 123
0.10348 -0.34892 -0.546 196 146 123
0.10452 -0.34892 -0.546 197 147 124
0.10556 -0.34892 -0.546 198 148 125
0.106795 -0.349559 -0.547 197 147 124
0.107837 -0.349559 -0.547 197 147 124
0.108879 -0.349559 -0.547 196 144 122
0.109921 -0.349559 -0.547 195 143 121
0.110963 -0.349559 -0.547 194 144 121
0.11221 -0.350198 -0.548 194 144 121
0.113253 -0.350198 -0.548 191 139 117
0.114297 -0.350198 -0.548 186 134 112
0.115551 -0.350837 -0.549 184 129 108
0.11681 -0.351476 -0.55 182 127 106
0.118071 -0.352115 -0.551 177 123 99
0.119337 -0.352754 -0.552 169 115 91
0.120389 -0.352754 -0.552 163 108 87
0.12166 -0.353393 -0.553 159 104 83
0.122935 -0.354032 -0.554 153 102 85
0.124214 -0.354671 -0.555 150 99 82
0.125497 -0.35531 -0.556 146 98 86
0.126784 -0.35595 -0.557 146 98 86
0.128074 -0.356589 -0.558 141 94 84
0.1296 -0.357867 -0.56 140 93 83
0.1309 -0.358506 -0.561 138 94 83
0.132204 -0.359145 -0.562 137 93 82
0.133511 -0.359784 -0.563 135 91 80
0.135062 -0.361062 -0.565 133 89 78
0.136379 -0.361701 -0.566 129 86 77
0.1377 -0.36234 -0.567 128 85 76
0.139025 -0.362979 -0.568 126 86 78
0.140353 -0.363618 -0.569 127 87 79
0.141686 -0.364257 -0.57 125 86 79
0.143022 -0.364896 -0.571 125 86 79
0.144362 -0.365535 -0.572 125 86 81
0.145706 -0.366174 -0.573 126 87 82
0.14731 -0.367452 -0.575 124 87 81
0.148663 -0.368091 -0.576 123 86 80
0.15002 -0.36873 -0.577 118 83 79
0.151381 -0.36937 -0.578 117 82 78
0.152482 -0.36937 -0.578 115 83 84
0.154114 -0.370648 -0.58 115 83 84
0.155487 -0.371287 -0.581 119 86 81
0.156863 -0.371926 -0.582 120 87 82
0.158514 -0.373204 -0.584 120 85 81
0.1599 -0.373843 -0.585 120 85 81
0.16129 -0.374482 -0.586 123 84 87
0.187571 -0.387263 -0.606 57 65 101
0.188726 -0.387263 -0.606 68 76 112
0.190193 -0.387902 -0.607 105 113 149
0.19135 -0.387902 -0.607 123 129 165
0.192506 -0.387902 -0.607 111 117 153
0.193662 -0.387902 -0.607 125 131 165
0.194818 -0.387902 -0.607 148 154 188
0.195974 -0.387902 -0.607 151 158 187
0.197455 -0.388541 -0.608 129 136 165
0.198613 -0.388541 -0.608 79 93 122
0.199771 -0.388541 -0.608 37 51 80
0.20093 -0.388541 -0.608 57 67 103
0.202088 -0.388541 -0.608 97 107 143
0.203246 -0.388541 -0.608 137 144 170
0.204404 -0.388541 -0.608 154 161 187
0.205562 -0.388541 -0.608 160 162 177
0.20672 -0.388541 -0.608 163 165 180
0.20822 -0.38918 -0.609 173 168 188
0.20938 -0.38918 -0.609 170 165 185
0.21054 -0.38918 -0.609 171 167 181
0.2117 -0.38918 -0.609 160 156 170
0.21286 -0.38918 -0.609 122 120 125
0.21402 -0.38918 -0.609 133 131 136
0.21518 -0.38918 -0.609 170 166 180
0.21634 -0.38918 -0.609 175 171 185
0.2175 -0.38918 -0.609 169 170 190
0.21866 -0.38918 -0.609 171 172 192
0.21982 -0.38918 -0.609 177 178 196
0.220617 -0.388541 -0.608 181 182 200
0.221775 -0.388541 -0.608 184 187 204
0.222933 -0.388541 -0.608 182 185 202
0.224091 -0.388541 -0.608 183 189 205
0.22525 -0.388541 -0.608 187 193 209
0.226408 -0.388541 -0.608 183 190 208
0.227566 -0.388541 -0.608 184 191 209
0.228724 -0.388541 -0.608 188 195 214
0.229882 -0.388541 -0.608 188 195 214
0.23104 -0.388541 -0.608 186 194 217
0.232198 -0.388541 -0.608 186 194 217
0.233356 -0.388541 -0.608 186 194 217
0.234514 -0.388541 -0.608 167 177 202
0.235672 -0.388541 -0.608 136 146 171
0.23683 -0.388541 -0.608 94 107 139
0.237989 -0.388541 -0.608 78 91 123
0.239147 -0.388541 -0.608 133 149 185
0.240305 -0.388541 -0.608 183 199 235
0.241463 -0.388541 -0.608 192 205 239
0.242621 -0.388541 -0.608 190 203 237
0.243779 -0.388541 -0.608 179 185 211
0.244937 -0.388541 -0.608 176 182 208
0.246095 -0.388541 -0.608 191 198 226
0.247253 -0.388541 -0.608 165 172 200
0.248411 -0.388541 -0.608 132 150 188
0.24957 -0.388541 -0.608 130 148 186
0.425333 -0.393653 -0.616 246 247 249
0.426507 -0.393653 -0.616 235 243 254
0.437776 -0.394292 -0.617 232 231 245
0.438951 -0.394292 -0.617 218 219 249
0.440127 -0.394292 -0.617 220 221 251
0.441302 -0.394292 -0.617 202 212 248
0.442477 -0.394292 -0.617 175 185 221
0.443652 -0.394292 -0.617 168 189 234
0.444828 -0.394292 -0.617 182 203 248
0.446726 -0.394931 -0.618 181 207 244
0.447903 -0.394931 -0.618 181 207 244
0.44908 -0.394931 -0.618 172 198 235
0.450257 -0.394931 -0.618 169 188 228
0.452165 -0.39557 -0.619 188 207 247
0.453344 -0.39557 -0.619 212 225 244
0.454523 -0.39557 -0.619 207 220 239
0.455702 -0.39557 -0.619 233 234 255
0.456881 -0.39557 -0.619 239 240 255
0.4588 -0.39621 -0.62 209 208 222
0.459981 -0.39621 -0.62 191 190 204
0.461162 -0.39621 -0.62 198 204 218
0.462343 -0.39621 -0.62 192 198 212
0.463524 -0.39621 -0.62 147 159 185
0.464705 -0.39621 -0.62 131 143 169
0.465886 -0.39621 -0.62 181 191 218
0.467067 -0.39621 -0.62 219 229 255
0.467492 -0.39557 -0.619 240 242 254
0.468671 -0.39557 -0.619 240 242 254
0.46985 -0.39557 -0.619 239 243 255
0.47179 -0.39621 -0.62 240 244 255
0.472971 -0.39621 -0.62 232 240 251
0.474152 -0.39621 -0.62 234 242 253
0.475333 -0.39621 -0.62 237 239 255
0.476514 -0.39621 -0.62 231 233 254
0.478466 -0.396849 -0.621 237 238 255
0.479649 -0.396849 -0.621 232 233 251
0.480831 -0.396849 -0.621 222 225 244
0.482014 -0.396849 -0.621 225 228 247
0.483197 -0.396849 -0.621 227 232 252
0.48516 -0.397488 -0.622 223 228 248
0.486345 -0.397488 -0.622 227 232 252
0.48753 -0.397488 -0.622 227 232 252
0.488714 -0.397488 -0.622 221 226 246
0.489899 -0.397488 -0.622 227 230 247
0.491084 -0.397488 -0.622 226 229 246
0.492269 -0.397488 -0.622 223 226 241
0.493453 -0.397488 -0.622 222 225 240
0.494638 -0.397488 -0.622 217 220 237
0.49662 -0.398127 -0.623 201 204 221
0.497807 -0.398127 -0.623 172 179 195
0.498993 -0.398127 -0.623 119 126 142
0.50018 -0.398127 -0.623 129 131 156
0.501367 -0.398127 -0.623 137 139 164
0.502553 -0.398127 -0.623 177 175 186
0.50374 -0.398127 -0.623 210 208 219
0.504927 -0.398127 -0.623 213 209 236
0.506113 -0.398127 -0.623 206 202 229
0.5073 -0.398127 -0.623 187 198 220
0.508487 -0.398127 -0.623 180 191 213
0.509673 -0.398127 -0.623 170 196 229
0.51086 -0.398127 -0.623 130 156 189
0.512047 -0.398127 -0.623 103 137 185
0.513233 -0.398127 -0.623 95 129 177
0.51442 -0.398127 -0.623 85 116 173
0.515607 -0.398127 -0.623 83 114 171
0.516793 -0.398127 -0.623 88 122 170
0.51798 -0.398127 -0.623 106 140 188
0.518333 -0.397488 -0.622 151 166 199
0.519518 -0.397488 -0.622 157 172 205
0.519866 -0.396849 -0.621 146 148 161
0.51457 -0.384068 -0.601 173 140 131
0.512283 -0.381511 -0.597 178 143 139
0.50912 -0.378316 -0.592 175 140 136
0.507662 -0.376399 -0.589 174 142 131
0.505329 -0.373843 -0.585 175 143 132
0.50298 -0.371287 -0.581 178 145 136
0.500616 -0.36873 -0.577 180 147 138
0.498237 -0.366174 -0.573 180 147 138
0.496714 -0.364257 -0.57 178 145 136
0.49518 -0.36234 -0.567 177 143 133
0.493634 -0.360423 -0.564 176 142 132
0.492077 -0.358506 -0.561 181 145 131
0.490509 -0.356589 -0.558 182 146 132
0.48981 -0.35531 -0.556 183 147 131
0.48822 -0.353393 -0.553 182 146 130
0.487504 -0.352115 -0.551 183 145 132
0.485893 -0.350198 -0.548 185 147 134
0.48516 -0.34892 -0.546 186 148 135
0.48531 -0.348281 -0.545 186 148 135
0.484563 -0.347003 -0.543 187 148 131
0.484703 -0.346364 -0.542 192 153 136
0.484839 -0.345725 -0.541 189 150 133
0.484073 -0.344447 -0.539 186 147 130
0.4842 -0.343808 -0.538 191 150 132
0.484323 -0.343169 -0.537 192 151 133
0.484442 -0.34253 -0.536 193 152 134
0.484557 -0.34189 -0.535 198 157 139
0.484669 -0.341251 -0.534 196 155 135
0.484776 -0.340612 -0.533 191 150 130
0.485791 -0.340612 -0.533 195 153 131
0.485893 -0.339973 -0.532 199 157 135
0.486907 -0.339973 -0.532 201 156 133
0.487003 -0.339334 -0.531 201 156 133
0.487095 -0.338695 -0.53 200 158 134
0.488105 -0.338695 -0.53 200 158 134
0.488191 -0.338056 -0.529 198 154 127
0.489199 -0.338056 -0.529 197 153 126
0.490207 -0.338056 -0.529 198 154 129
0.490286 -0.337417 -0.528 199 155 130
0.490361 -0.336778 -0.527 200 156 131
0.491365 -0.336778 -0.527 200 156 131
0.492369 -0.336778 -0.527 200 156 131
0.492436 -0.336139 -0.526 197 156 128
0.493438 -0.336139 -0.526 198 157 129
0.49444 -0.336139 -0.526 199 158 130
0.4945 -0.3355 -0.525 197 156 128
0.4955 -0.3355 -0.525 195 154 126
0.4965 -0.3355 -0.525 194 153 125
0.496552 -0.334861 -0.524 192 151 123
0.49755 -0.334861 -0.524 194 153 125
0.498549 -0.334861 -0.524 196 155 127
0.498593 -0.334222 -0.523 192 151 123
0.498634 -0.333583 -0.522 194 150 125
0.499629 -0.333583 -0.522 193 149 124
0.500623 -0.333583 -0.522 188 146 121
0.501617 -0.333583 -0.522 186 144 119
0.502611 -0.333583 -0.522 185 144 116
0.50457 -0.334222 -0.523 187 146 118
0.505567 -0.334222 -0.523 187 146 116
0.506563 -0.334222 -0.523 184 143 113
0.50853 -0.334861 -0.524 185 144 114
0.5105 -0.3355 -0.525 180 139 109
0.5115 -0.3355 -0.525 175 135 109
0.513476 -0.336139 -0.526 171 131 105
0.515456 -0.336778 -0.527 169 128 106
0.51744 -0.337417 -0.528 168 127 105
0.520409 -0.338695 -0.53 168 127 107
0.523387 -0.339973 -0.532 165 124 104
1.14602 -0.403239 -0.631 205 208 191
0.07372 -0.373034 -0.582 206 159 139
0.0745714 -0.371752 -0.58 206 160 137
0.0750238 -0.368548 -0.575 204 158 135
0.0754571 -0.365343 -0.57 201 160 142
0.0760057 -0.362779 -0.566 204 163 145
0.076539 -0.360215 -0.562 202 163 146
0.0770571 -0.357651 -0.558 201 162 145
0.0777 -0.355729 -0.555 201 158 139
0.0783314 -0.353806 -0.552 199 156 137
0.0790952 -0.352524 -0.55 201 156 137
0.0799971 -0.351883 -0.549 202 157 138
0.0808952 -0.351242 -0.548 202 157 138
0.081939 -0.351242 -0.548 202 157 138
0.0829829 -0.351242 -0.548 202 157 136
0.0838733 -0.350601 -0.547 201 156 135
0.0849152 -0.350601 -0.547 201 154 134
0.0858 -0.34996 -0.546 200 153 133
0.08684 -0.34996 -0.546 201 154 134
0.08788 -0.34996 -0.546 201 154 134
0.08892 -0.34996 -0.546 200 153 133
0.08996 -0.34996 -0.546 199 152 132
0.091 -0.34996 -0.546 199 152 132
0.09204 -0.34996 -0.546 197 150 130
0.09308 -0.34996 -0.546 196 148 126
0.09412 -0.34996 -0.546 194 146 124
0.0949857 -0.349319 -0.545 193 145 123
0.0960238 -0.349319 -0.545 194 146 124
0.0970619 -0.349319 -0.545 194 146 124
0.0981 -0.349319 -0.545 195 147 125
0.0991381 -0.349319 -0.545 198 148 125
0.100176 -0.349319 -0.545 197 147 124
0.101214 -0.349319 -0.545 196 146 123
0.102252 -0.349319 -0.545 196 146 123
0.10329 -0.349319 -0.545 196 146 123
0.104329 -0.349319 -0.545 198 148 125
0.10556 -0.34996 -0.546 199 149 126
0.1066 -0.34996 -0.546 199 149 126
0.10764 -0.34996 -0.546 197 147 124
0.10868 -0.34996 -0.546 193 143 120
0.109921 -0.350601 -0.547 192 142 119
0.110963 -0.350601 -0.547 193 142 121
0.11221 -0.351242 -0.548 192 141 120
0.113253 -0.351242 -0.548 190 138 116
0.114506 -0.351883 -0.549 183 131 109
0.115551 -0.351883 -0.549 177 125 103
0.11681 -0.352524 -0.55 175 123 101
0.118071 -0.353165 -0.551 172 117 96
0.119337 -0.353806 -0.552 166 111 90
0.120607 -0.354447 -0.553 159 106 88
0.12188 -0.355088 -0.554 153 100 82
0.123157 -0.355729 -0.555 147 98 84
0.124438 -0.35637 -0.556 145 96 82
0.125723 -0.35701 -0.557 142 95 85
0.127011 -0.357651 -0.558 141 94 84
0.128304 -0.358292 -0.559 138 94 83
0.1296 -0.358933 -0.56 136 92 81
0.131133 -0.360215 -0.562 137 91 78
0.132439 -0.360856 -0.563 138 92 79
0.133749 -0.361497 -0.564 137 91 78
0.135062 -0.362138 -0.565 135 89 76
0.136379 -0.362779 -0.566 131 87 76
0.1377 -0.36342 -0.567 130 86 75
0.139025 -0.364061 -0.568 128 85 76
0.140353 -0.364702 -0.569 129 86 77
0.141686 -0.365343 -0.57 128 88 80
0.143022 -0.365984 -0.571 124 84 76
0.144614 -0.367266 -0.573 124 83 77
0.14596 -0.367907 -0.574 126 85 79
0.14731 -0.368548 -0.575 125 86 79
0.148921 -0.36983 -0.577 121 82 75
0.15028 -0.37047 -0.578 118 81 75
0.151381 -0.37047 -0.578 117 82 78
0.152746 -0.371111 -0.579 115 84 82
0.15438 -0.372393 -0.581 116 85 83
0.155754 -0.373034 -0.582 119 86 81
0.157402 -0.374316 -0.584 120 87 82
0.158786 -0.374957 -0.585 120 85 81
0.184957 -0.387776 -0.605 55 61 97
0.186417 -0.388417 -0.606 54 63 102
0.187571 -0.388417 -0.606 57 66 105
0.188726 -0.388417 -0.606 55 67 107
0.190193 -0.389058 -0.607 95 107 147
0.19135 -0.389058 -0.607 106 115 156
0.192506 -0.389058 -0.607 103 112 153
0.193662 -0.389058 -0.607 123 132 171
0.194818 -0.389058 -0.607 145 154 193
0.195974 -0.389058 -0.607 141 152 184
0.19713 -0.389058 -0.607 93 104 136
0.198287 -0.389058 -0.607 44 55 87
0.199443 -0.389058 -0.607 55 66 98
0.20093 -0.389699 -0.608 98 107 140
0.202088 -0.389699 -0.608 127 136 169
0.203246 -0.389699 -0.608 152 158 180
0.204404 -0.389699 -0.608 162 168 190
0.205562 -0.389699 -0.608 165 167 180
0.20672 -0.389699 -0.608 167 169 182
0.207878 -0.389699 -0.608 172 167 187
0.209036 -0.389699 -0.608 169 164 184
0.210194 -0.389699 -0.608 173 169 186
0.211352 -0.389699 -0.608 171 167 184
0.21251 -0.389699 -0.608 158 155 162
0.213669 -0.389699 -0.608 122 119 126
0.214827 -0.389699 -0.608 166 163 174
0.215985 -0.389699 -0.608 172 169 180
0.217143 -0.389699 -0.608 165 167 182
0.218301 -0.389699 -0.608 159 161 176
0.219459 -0.389699 -0.608 170 171 189
0.220254 -0.389058 -0.607 180 181 199
0.22141 -0.389058 -0.607 179 180 198
0.222567 -0.389058 -0.607 185 186 204
0.223723 -0.389058 -0.607 188 193 212
0.224879 -0.389058 -0.607 184 189 208
0.226035 -0.389058 -0.607 183 188 208
0.227191 -0.389058 -0.607 184 189 209
0.228348 -0.389058 -0.607 187 194 213
0.229504 -0.389058 -0.607 189 196 215
0.23066 -0.389058 -0.607 189 196 215
0.231816 -0.389058 -0.607 190 197 216
0.232972 -0.389058 -0.607 192 199 218
0.234129 -0.389058 -0.607 183 191 210
0.235285 -0.389058 -0.607 167 175 194
0.236441 -0.389058 -0.607 126 141 174
0.237597 -0.389058 -0.607 81 96 129
0.238753 -0.389058 -0.607 90 108 146
0.23991 -0.389058 -0.607 165 183 221
0.241066 -0.389058 -0.607 196 212 248
0.246095 -0.389699 -0.608 168 181 215
0.247253 -0.389699 -0.608 145 158 192
0.248411 -0.389699 -0.608 117 138 183
0.364881 -0.392904 -0.613 228 233 237
0.366049 -0.392904 -0.613 191 202 224
0.367216 -0.392904 -0.613 147 158 180
0.368384 -0.392904 -0.613 150 154 191
0.369551 -0.392904 -0.613 199 203 240
0.370719 -0.392904 -0.613 240 236 255
0.415271 -0.394186 -0.615 249 250 255
0.416443 -0.394186 -0.615 248 252 255
0.417614 -0.394186 -0.615 249 253 255
0.43472 -0.394827 -0.616 221 223 244
0.435893 -0.394827 -0.616 238 246 248
0.437067 -0.394827 -0.616 234 242 244
0.43824 -0.394827 -0.616 217 224 253
0.440127 -0.395468 -0.617 219 226 255
0.441302 -0.395468 -0.617 212 227 255
0.442477 -0.395468 -0.617 176 191 222
0.443652 -0.395468 -0.617 156 179 221
0.444828 -0.395468 -0.617 158 181 223
0.446003 -0.395468 -0.617 153 182 226
0.447178 -0.395468 -0.617 153 182 226
0.448353 -0.395468 -0.617 159 188 232
0.450257 -0.396109 -0.618 163 186 227
0.451434 -0.396109 -0.618 199 222 255
0.452611 -0.396109 -0.618 216 232 255
0.453789 -0.396109 -0.618 210 226 252
0.454966 -0.396109 -0.618 219 228 255
0.456881 -0.39675 -0.619 235 244 255
0.45806 -0.39675 -0.619 230 238 249
0.459239 -0.39675 -0.619 204 212 223
0.460418 -0.39675 -0.619 171 176 195
0.461597 -0.39675 -0.619 159 164 183
0.462776 -0.39675 -0.619 138 141 172
0.463955 -0.39675 -0.619 173 176 207
0.465134 -0.39675 -0.619 210 215 235
0.466313 -0.39675 -0.619 232 237 255
0.467492 -0.39675 -0.619 240 242 254
0.468671 -0.39675 -0.619 240 242 254
0.46985 -0.39675 -0.619 241 244 255
0.47103 -0.39675 -0.619 239 242 255
0.472971 -0.39739 -0.62 233 239 251
0.474152 -0.39739 -0.62 235 241 253
0.475333 -0.39739 -0.62 234 236 255
0.476514 -0.39739 -0.62 237 239 255
0.477695 -0.39739 -0.62 236 237 255
0.478876 -0.39739 -0.62 230 231 251
0.480057 -0.39739 -0.62 232 233 251
0.481238 -0.39739 -0.62 232 233 251
0.482419 -0.39739 -0.62 227 228 248
0.48438 -0.398031 -0.621 228 229 249
0.485563 -0.398031 -0.621 226 227 245
0.48753 -0.398672 -0.622 225 226 244
0.488714 -0.398672 -0.622 225 226 244
0.489899 -0.398672 -0.622 229 231 246
0.490294 -0.398031 -0.621 226 228 243
0.491477 -0.398031 -0.621 220 222 237
0.49266 -0.398031 -0.621 222 224 239
0.494638 -0.398672 -0.622 223 226 243
0.495823 -0.398672 -0.622 217 220 237
0.497008 -0.398672 -0.622 197 201 212
0.498192 -0.398672 -0.622 154 158 169
0.499377 -0.398672 -0.622 127 129 152
0.500562 -0.398672 -0.622 107 109 132
0.501747 -0.398672 -0.622 161 163 186
0.502931 -0.398672 -0.622 202 204 227
0.504116 -0.398672 -0.622 208 209 237
0.505301 -0.398672 -0.622 196 197 225
0.506486 -0.398672 -0.622 186 196 221
0.50767 -0.398672 -0.622 182 192 217
0.508855 -0.398672 -0.622 172 196 232
0.51004 -0.398672 -0.622 141 165 201
0.511225 -0.398672 -0.622 98 131 184
0.51241 -0.398672 -0.622 82 115 168
0.513594 -0.398672 -0.622 75 110 174
0.514779 -0.398672 -0.622 62 97 161
0.515964 -0.398672 -0.622 74 115 169
0.517149 -0.398672 -0.622 89 130 184
0.518333 -0.398672 -0.622 153 173 210
0.518683 -0.398031 -0.621 158 178 215
0.519029 -0.39739 -0.62 168 170 185
0.52021 -0.39739 -0.62 147 149 164
0.515427 -0.385853 -0.602 168 141 134
0.513141 -0.38329 -0.598 174 141 136
0.50998 -0.380085 -0.593 176 143 138
0.507662 -0.377521 -0.589 172 142 131
0.506192 -0.375598 -0.586 173 143 132
0.503846 -0.373034 -0.582 175 145 134
0.501484 -0.37047 -0.578 176 146 135
0.499107 -0.367907 -0.574 178 146 135
0.497586 -0.365984 -0.571 177 145 134
0.496053 -0.364061 -0.568 177 145 132
0.49451 -0.362138 -0.565 177 145 132
0.492077 -0.359574 -0.561 178 145 130
0.491388 -0.358292 -0.559 178 145 130
0.48981 -0.35637 -0.556 182 146 132
0.489103 -0.355088 -0.554 182 146 132
0.487504 -0.353165 -0.551 183 147 131
0.48678 -0.351883 -0.549 185 149 133
0.486049 -0.350601 -0.547 186 150 134
0.48531 -0.349319 -0.545 185 149 133
0.485455 -0.348678 -0.544 186 149 131
0.484703 -0.347396 -0.542 190 153 135
0.484839 -0.346755 -0.541 189 150 133
0.484073 -0.345473 -0.539 186 147 130
0.4842 -0.344832 -0.538 189 151 132
0.483421 -0.34355 -0.536 190 152 133
0.484442 -0.34355 -0.536 191 153 132
0.484557 -0.34291 -0.535 195 157 136
0.484669 -0.342269 -0.534 197 156 136
0.484776 -0.341628 -0.533 191 150 130
0.485791 -0.341628 -0.533 196 154 132
0.485893 -0.340987 -0.532 200 158 136
0.485991 -0.340346 -0.531 199 157 135
0.487003 -0.340346 -0.531 199 157 135
0.487095 -0.339705 -0.53 198 156 132
0.487184 -0.339064 -0.529 197 155 131
0.488191 -0.339064 -0.529 196 154 129
0.488274 -0.338423 -0.528 197 155 130
0.48928 -0.338423 -0.528 197 155 131
0.490286 -0.338423 -0.528 197 155 131
0.490361 -0.337782 -0.527 198 156 132
0.490432 -0.337141 -0.526 197 155 131
0.491434 -0.337141 -0.526 197 155 131
0.492436 -0.337141 -0.526 197 155 130
0.4925 -0.3365 -0.525 199 157 132
0.4935 -0.3365 -0.525 196 154 129
0.493558 -0.335859 -0.524 195 153 128
0.494556 -0.335859 -0.524 195 153 128
0.495554 -0.335859 -0.524 194 152 127
0.496552 -0.335859 -0.524 195 153 128
0.496601 -0.335218 -0.523 195 153 128
0.497597 -0.335218 -0.523 194 153 125
0.498593 -0.335218 -0.523 192 151 123
0.498634 -0.334577 -0.522 192 148 123
0.499629 -0.334577 -0.522 192 148 123
0.500623 -0.334577 -0.522 190 146 119
0.501617 -0.334577 -0.522 188 144 117
0.502611 -0.334577 -0.522 188 144 115
0.503606 -0.334577 -0.522 189 145 116
0.5046 -0.334577 -0.522 187 146 114
0.505594 -0.334577 -0.522 185 144 112
0.506589 -0.334577 -0.522 186 145 115
0.508555 -0.335218 -0.523 182 141 111
0.510526 -0.335859 -0.524 176 136 110
0.5125 -0.3365 -0.525 173 133 107
0.5135 -0.3365 -0.525 171 130 108
0.51548 -0.337141 -0.526 171 130 108
0.518446 -0.338423 -0.528 170 129 107
0.521419 -0.339705 -0.53 167 126 104
0.5244 -0.340987 -0.532 163 127 103
0.528376 -0.34291 -0.535 161 125 101
0.532364 -0.344832 -0.538 159 124 104
0.536363 -0.346755 -0.541 158 123 103
0.611338 -0.387776 -0.605 215 198 190
1.14602 -0.404441 -0.631 210 213 196
0.07334 -0.372214 -0.579 206 157 140
0.0741857 -0.370929 -0.577 204 157 139
0.0745019 -0.367071 -0.571 202 155 137
0.0749276 -0.363857 -0.566 201 160 142
0.0754686 -0.361286 -0.562 204 163 145
0.0759943 -0.358714 -0.558 201 162 145
0.0766429 -0.356786 -0.555 198 159 142
0.07742 -0.3555 -0.553 199 156 137
0.0780476 -0.353571 -0.55 199 156 137
0.0789514 -0.352929 -0.549 201 156 137
0.0798514 -0.352286 -0.548 200 155 136
0.0807476 -0.351643 -0.547 201 156 137
0.0817895 -0.351643 -0.547 201 156 137
0.0828314 -0.351643 -0.547 202 157 138
0.08372 -0.351 -0.546 203 158 139
0.08476 -0.351 -0.546 200 153 133
0.0858 -0.351 -0.546 200 153 133
0.086681 -0.350357 -0.545 201 154 134
0.0877191 -0.350357 -0.545 201 154 134
0.0887571 -0.350357 -0.545 201 154 134
0.0897952 -0.350357 -0.545 200 153 133
0.0908333 -0.350357 -0.545 197 150 130
0.0918714 -0.350357 -0.545 194 147 127
0.0929095 -0.350357 -0.545 195 144 125
0.0939476 -0.350357 -0.545 194 143 124
0.0949857 -0.350357 -0.545 195 144 123
0.0960238 -0.350357 -0.545 197 146 125
0.0970619 -0.350357 -0.545 199 148 127
0.0981 -0.350357 -0.545 200 149 128
0.0991381 -0.350357 -0.545 198 150 128
0.100176 -0.350357 -0.545 197 149 127
0.101214 -0.350357 -0.545 199 151 129
0.102252 -0.350357 -0.545 195 147 125
0.10329 -0.350357 -0.545 193 145 122
0.104329 -0.350357 -0.545 194 146 123
0.105367 -0.350357 -0.545 194 146 123
0.106405 -0.350357 -0.545 195 147 124
0.10764 -0.351 -0.546 194 146 123
0.10868 -0.351 -0.546 191 143 120
0.10972 -0.351 -0.546 190 142 119
0.110963 -0.351643 -0.547 191 140 119
0.11221 -0.352286 -0.548 191 140 119
0.113253 -0.352286 -0.548 190 138 116
0.114506 -0.352929 -0.549 181 129 107
0.115762 -0.353571 -0.55 176 121 100
0.11681 -0.353571 -0.55 172 117 96
0.118071 -0.354214 -0.551 165 109 92
0.119337 -0.354857 -0.552 162 106 89
0.120607 -0.3555 -0.553 156 103 89
0.12188 -0.356143 -0.554 151 98 84
0.123157 -0.356786 -0.555 145 95 84
0.124438 -0.357429 -0.556 143 93 82
0.125949 -0.358714 -0.558 140 93 83
0.127239 -0.359357 -0.559 139 92 82
0.128533 -0.36 -0.56 135 91 78
0.129831 -0.360643 -0.561 134 90 77
0.131133 -0.361286 -0.562 134 88 75
0.132439 -0.361929 -0.563 134 88 75
0.133749 -0.362571 -0.564 134 88 75
0.135062 -0.363214 -0.565 133 87 74
0.136379 -0.363857 -0.566 133 86 76
0.137943 -0.365143 -0.568 132 85 75
0.13927 -0.365786 -0.569 129 85 74
0.1406 -0.366429 -0.57 128 84 73
0.141934 -0.367071 -0.571 130 87 78
0.143272 -0.367714 -0.572 127 84 75
0.144867 -0.369 -0.574 125 85 77
0.146214 -0.369643 -0.575 125 85 77
0.147566 -0.370286 -0.576 123 84 77
0.149179 -0.371571 -0.578 120 81 74
0.15028 -0.371571 -0.578 118 81 75
0.151643 -0.372214 -0.579 119 82 76
0.15301 -0.372857 -0.58 115 81 79
0.154646 -0.374143 -0.582 116 82 80
0.15629 -0.375429 -0.584 120 82 81
0.157671 -0.376071 -0.585 121 83 82
0.1812 -0.388286 -0.604 53 58 90
0.18235 -0.388286 -0.604 53 58 90
0.183501 -0.388286 -0.604 50 58 97
0.184957 -0.388929 -0.605 47 55 94
0.18611 -0.388929 -0.605 41 54 96
0.187571 -0.389571 -0.606 43 56 98
0.188726 -0.389571 -0.606 52 66 113
0.18988 -0.389571 -0.606 91 105 152
0.191034 -0.389571 -0.606 85 101 150
0.192506 -0.390214 -0.607 74 90 139
0.193662 -0.390214 -0.607 98 112 159
0.194818 -0.390214 -0.607 119 133 180
0.195974 -0.390214 -0.607 110 125 164
0.196806 -0.389571 -0.606 62 77 116
0.19796 -0.389571 -0.606 50 58 94
0.199443 -0.390214 -0.607 92 100 136
0.200599 -0.390214 -0.607 137 144 173
0.201755 -0.390214 -0.607 151 158 187
0.202911 -0.390214 -0.607 164 167 184
0.204068 -0.390214 -0.607 167 170 187
0.205224 -0.390214 -0.607 167 167 179
0.20638 -0.390214 -0.607 165 165 177
0.207536 -0.390214 -0.607 174 171 192
0.209036 -0.390857 -0.608 170 167 188
0.210194 -0.390857 -0.608 173 170 191
0.211352 -0.390857 -0.608 169 166 187
0.212161 -0.390214 -0.607 168 166 177
0.213317 -0.390214 -0.607 122 120 131
0.214473 -0.390214 -0.607 111 110 116
0.21563 -0.390214 -0.607 149 148 154
0.216786 -0.390214 -0.607 137 136 150
0.217942 -0.390214 -0.607 134 133 147
0.219098 -0.390214 -0.607 160 159 175
0.220254 -0.390214 -0.607 183 182 198
0.221046 -0.389571 -0.606 181 182 200
0.2222 -0.389571 -0.606 186 187 205
0.223354 -0.389571 -0.606 190 192 213
0.224509 -0.389571 -0.606 191 193 214
0.225663 -0.389571 -0.606 187 192 212
0.226817 -0.389571 -0.606 187 192 212
0.227971 -0.389571 -0.606 189 194 214
0.229126 -0.389571 -0.606 191 196 216
0.23028 -0.389571 -0.606 191 196 216
0.231434 -0.389571 -0.606 191 198 216
0.24569 -0.390214 -0.607 151 166 207
0.246847 -0.390214 -0.607 132 147 188
0.248003 -0.390214 -0.607 109 132 184
0.249159 -0.390214 -0.607 116 139 191
0.36312 -0.393429 -0.612 249 255 253
0.364286 -0.393429 -0.612 241 247 245
0.4223 -0.395357 -0.615 252 249 255
0.423471 -0.395357 -0.615 252 251 255
0.424643 -0.395357 -0.615 254 253 255
0.425814 -0.395357 -0.615 249 253 255
0.426986 -0.395357 -0.615 241 245 248
0.428157 -0.395357 -0.615 228 234 246
0.429329 -0.395357 -0.615 205 211 223
0.4305 -0.395357 -0.615 170 174 199
0.43824 -0.396 -0.616 215 225 252
0.439413 -0.396 -0.616 214 224 251
0.440587 -0.396 -0.616 214 231 255
0.44176 -0.396 -0.616 178 195 225
0.442933 -0.396 -0.616 147 171 217
0.444107 -0.396 -0.616 150 174 220
0.44528 -0.396 -0.616 144 172 222
0.446453 -0.396 -0.616 144 172 222
0.447627 -0.396 -0.616 146 174 224
0.449529 -0.396643 -0.617 155 178 222
0.450704 -0.396643 -0.617 192 215 255
0.452611 -0.397286 -0.618 211 228 255
0.453789 -0.397286 -0.618 206 223 253
0.454966 -0.397286 -0.618 213 227 253
0.456143 -0.397286 -0.618 231 245 255
0.45732 -0.397286 -0.618 238 250 255
0.458497 -0.397286 -0.618 212 224 236
0.459674 -0.397286 -0.618 164 171 189
0.460851 -0.397286 -0.618 140 147 165
0.462029 -0.397286 -0.618 169 173 200
0.463206 -0.397286 -0.618 206 210 237
0.465134 -0.397929 -0.619 226 231 250
0.466313 -0.397929 -0.619 240 245 255
0.467492 -0.397929 -0.619 239 241 253
0.468671 -0.397929 -0.619 241 243 255
0.46985 -0.397929 -0.619 241 244 255
0.47103 -0.397929 -0.619 239 242 255
0.472971 -0.398571 -0.62 233 239 251
0.473388 -0.397929 -0.619 229 236 246
0.475333 -0.398571 -0.62 237 239 255
0.476514 -0.398571 -0.62 237 239 255
0.477695 -0.398571 -0.62 237 238 255
0.478876 -0.398571 -0.62 229 230 250
0.480057 -0.398571 -0.62 223 222 238
0.481238 -0.398571 -0.62 227 226 242
0.482419 -0.398571 -0.62 231 230 244
0.4836 -0.398571 -0.62 228 227 241
0.484781 -0.398571 -0.62 230 229 243
0.486746 -0.399214 -0.621 230 229 243
0.487929 -0.399214 -0.621 230 229 243
0.489111 -0.399214 -0.621 227 227 239
0.490294 -0.399214 -0.621 227 227 239
0.491477 -0.399214 -0.621 226 228 240
0.49266 -0.399214 -0.621 222 224 236
0.493843 -0.399214 -0.621 218 222 234
0.495026 -0.399214 -0.621 220 224 236
0.496209 -0.399214 -0.621 200 199 204
0.497391 -0.399214 -0.621 162 161 166
0.498574 -0.399214 -0.621 165 168 187
0.500562 -0.399857 -0.622 100 103 122
0.501747 -0.399857 -0.622 100 105 143
0.502931 -0.399857 -0.622 165 170 208
0.504116 -0.399857 -0.622 202 211 240
0.505301 -0.399857 -0.622 203 212 241
0.506486 -0.399857 -0.622 188 201 233
0.50767 -0.399857 -0.622 174 187 219
0.508855 -0.399857 -0.622 169 192 233
0.51004 -0.399857 -0.622 145 168 209
0.511225 -0.399857 -0.622 88 123 179
0.51241 -0.399857 -0.622 75 110 166
0.513594 -0.399857 -0.622 72 112 182
0.514779 -0.399857 -0.622 57 97 167
0.515134 -0.399214 -0.621 62 108 170
0.516317 -0.399214 -0.621 79 125 187
0.5175 -0.399214 -0.621 146 173 216
0.518683 -0.399214 -0.621 146 173 216
0.519029 -0.398571 -0.62 155 162 181
0.51937 -0.397929 -0.619 172 179 198
0.513999 -0.385071 -0.599 174 144 136
0.5117 -0.3825 -0.595 173 143 135
0.508524 -0.379286 -0.59 171 141 131
0.506192 -0.376714 -0.586 172 142 132
0.504711 -0.374786 -0.583 173 143 132
0.503219 -0.372857 -0.58 175 145 134
0.500846 -0.370286 -0.576 175 145 134
0.498457 -0.367714 -0.572 175 145 134
0.496927 -0.365786 -0.569 177 145 132
0.495385 -0.363857 -0.566 177 145 132
0.493831 -0.361929 -0.563 177 143 131
0.492267 -0.36 -0.56 176 142 130
0.49069 -0.358071 -0.557 178 145 130
0.489103 -0.356143 -0.554 180 147 132
0.488389 -0.354857 -0.552 183 147 131
0.48678 -0.352929 -0.549 185 149 133
0.486049 -0.351643 -0.547 186 150 134
0.4862 -0.351 -0.546 185 149 133
0.485455 -0.349714 -0.544 185 150 131
0.484703 -0.348429 -0.542 186 151 132
0.484839 -0.347786 -0.541 186 149 131
0.484073 -0.3465 -0.539 185 148 130
0.4842 -0.345857 -0.538 188 150 131
0.483421 -0.344571 -0.536 190 152 133
0.483538 -0.343929 -0.535 191 153 134
0.484557 -0.343929 -0.535 193 155 136
0.484669 -0.343286 -0.534 196 155 135
0.484776 -0.342643 -0.533 192 151 131
0.48488 -0.342 -0.532 196 153 134
0.485893 -0.342 -0.532 199 156 137
0.485991 -0.341357 -0.531 198 156 134
0.486086 -0.340714 -0.53 198 156 134
0.487095 -0.340714 -0.53 196 154 132
0.487184 -0.340071 -0.529 194 152 130
0.487269 -0.339429 -0.528 193 152 130
0.488274 -0.339429 -0.528 196 155 133
0.48928 -0.339429 -0.528 197 155 133
0.489357 -0.338786 -0.527 197 155 133
0.48943 -0.338143 -0.526 198 156 134
0.490432 -0.338143 -0.526 197 155 133
0.491434 -0.338143 -0.526 197 155 133
0.4915 -0.3375 -0.525 196 154 130
0.4925 -0.3375 -0.525 197 155 131
0.4935 -0.3375 -0.525 197 155 131
0.493558 -0.336857 -0.524 197 155 131
0.493612 -0.336214 -0.523 197 155 131
0.494609 -0.336214 -0.523 194 152 128
0.495605 -0.336214 -0.523 195 153 128
0.495651 -0.335571 -0.522 194 152 127
0.496646 -0.335571 -0.522 191 149 124
0.49764 -0.335571 -0.522 195 153 128
0.498634 -0.335571 -0.522 192 148 123
0.498671 -0.334929 -0.521 193 147 123
0.499664 -0.334929 -0.521 191 147 120
0.500656 -0.334929 -0.521 190 146 119
0.501649 -0.334929 -0.521 189 145 116
0.502641 -0.334929 -0.521 190 146 117
0.503633 -0.334929 -0.521 186 145 113
0.504626 -0.334929 -0.521 184 143 111
0.505618 -0.334929 -0.521 186 145 115
0.507583 -0.335571 -0.522 184 143 113
0.508577 -0.335571 -0.522 180 140 114
0.510548 -0.336214 -0.523 176 136 110
0.512522 -0.336857 -0.524 172 132 107
0.5145 -0.3375 -0.525 171 131 106
0.516482 -0.338143 -0.526 170 129 107
0.519451 -0.339429 -0.528 168 127 105
0.522429 -0.340714 -0.53 164 128 102
0.525413 -0.342 -0.532 163 127 101
0.529395 -0.343929 -0.535 164 128 106
0.607296 -0.386357 -0.601 195 173 162
0.61249 -0.388929 -0.605 210 199 193
0.0722371 -0.373317 -0.579 203 155 141
0.07296 -0.371383 -0.576 202 154 140
0.0735429 -0.368804 -0.572 199 156 139
0.07398 -0.36558 -0.567 198 155 138
0.0743981 -0.362356 -0.562 200 159 141
0.0749314 -0.359777 -0.558 204 163 145
0.0755857 -0.357843 -0.555 203 162 144
0.0762286 -0.355909 -0.552 199 158 140
0.07714 -0.355264 -0.551 202 156 140
0.0777638 -0.35333 -0.548 202 156 140
0.0786638 -0.352685 -0.547 200 154 138
0.0797057 -0.352685 -0.547 199 153 137
0.0806 -0.35204 -0.546 199 154 135
0.08164 -0.35204 -0.546 200 155 136
0.08268 -0.35204 -0.546 202 157 138
0.0835667 -0.351395 -0.545 203 158 139
0.0846048 -0.351395 -0.545 201 154 136
0.0856429 -0.351395 -0.545 200 153 135
0.086681 -0.351395 -0.545 198 151 133
0.0877191 -0.351395 -0.545 198 151 133
0.0887571 -0.351395 -0.545 200 152 132
0.0897952 -0.351395 -0.545 200 152 132
0.0908333 -0.351395 -0.545 197 149 129
0.0918714 -0.351395 -0.545 194 146 126
0.0927391 -0.35075 -0.544 197 146 127
0.0937752 -0.35075 -0.544 196 145 126
0.0948114 -0.35075 -0.544 196 145 126
0.0958476 -0.35075 -0.544 198 147 128
0.0968838 -0.35075 -0.544 201 150 131
0.0981 -0.351395 -0.545 202 151 132
0.0991381 -0.351395 -0.545 203 152 133
0.100176 -0.351395 -0.545 203 152 133
0.101214 -0.351395 -0.545 202 151 132
0.102252 -0.351395 -0.545 198 147 128
0.10329 -0.351395 -0.545 198 147 128
0.104329 -0.351395 -0.545 193 145 123
0.105367 -0.351395 -0.545 193 145 123
0.106405 -0.351395 -0.545 193 145 123
0.10764 -0.35204 -0.546 192 144 122
0.10868 -0.35204 -0.546 191 143 121
0.10972 -0.35204 -0.546 191 143 121
0.110963 -0.352685 -0.547 190 140 117
0.11221 -0.35333 -0.548 188 138 115
0.113253 -0.35333 -0.548 188 136 114
0.114506 -0.353974 -0.549 179 127 105
0.115762 -0.354619 -0.55 174 119 99
0.117022 -0.355264 -0.551 167 112 92
0.118286 -0.355909 -0.552 157 101 86
0.119553 -0.356553 -0.553 153 97 82
0.120825 -0.357198 -0.554 149 95 83
0.1221 -0.357843 -0.555 147 93 81
0.123379 -0.358488 -0.556 143 93 82
0.124662 -0.359132 -0.557 141 91 80
0.125949 -0.359777 -0.558 139 93 80
0.127239 -0.360422 -0.559 137 91 78
0.128533 -0.361067 -0.56 133 89 76
0.129831 -0.361711 -0.561 133 89 76
0.131133 -0.362356 -0.562 135 89 76
0.132674 -0.363646 -0.564 134 88 75
0.133986 -0.36429 -0.565 133 87 74
0.135301 -0.364935 -0.566 131 85 72
0.13662 -0.36558 -0.567 129 85 74
0.137943 -0.366225 -0.568 130 86 75
0.13927 -0.36687 -0.569 130 86 77
0.140847 -0.368159 -0.571 127 83 74
0.142183 -0.368804 -0.572 128 85 78
0.143523 -0.369449 -0.573 128 85 78
0.144867 -0.370093 -0.574 125 84 78
0.146469 -0.371383 -0.576 123 82 76
0.147822 -0.372028 -0.577 120 81 74
0.149179 -0.372672 -0.578 120 81 74
0.15054 -0.373317 -0.579 119 80 73
0.152167 -0.374607 -0.581 121 82 75
0.153537 -0.375251 -0.582 116 81 77
0.155177 -0.376541 -0.584 115 80 76
0.156557 -0.377186 -0.585 118 80 79
0.178603 -0.388791 -0.603 71 76 105
0.1812 -0.389436 -0.604 50 56 92
0.18235 -0.389436 -0.604 50 56 92
0.183501 -0.389436 -0.604 42 51 94
0.184957 -0.390081 -0.605 35 44 87
0.18611 -0.390081 -0.605 30 44 89
0.187262 -0.390081 -0.605 35 49 94
0.188414 -0.390081 -0.605 50 70 120
0.189567 -0.390081 -0.605 73 93 143
0.191034 -0.390726 -0.606 67 86 142
0.192189 -0.390726 -0.606 54 73 129
0.193343 -0.390726 -0.606 62 82 135
0.194497 -0.390726 -0.606 57 77 130
0.195651 -0.390726 -0.606 53 71 117
0.196806 -0.390726 -0.606 63 81 127
0.19796 -0.390726 -0.606 94 102 138
0.199114 -0.390726 -0.606 128 136 172
0.200269 -0.390726 -0.606 153 159 185
0.201755 -0.39137 -0.607 158 164 190
0.202911 -0.39137 -0.607 165 167 182
0.204068 -0.39137 -0.607 166 168 183
0.205224 -0.39137 -0.607 170 169 183
0.20638 -0.39137 -0.607 172 171 185
0.207536 -0.39137 -0.607 173 170 191
0.208692 -0.39137 -0.607 171 168 189
0.209849 -0.39137 -0.607 169 167 189
0.211005 -0.39137 -0.607 170 168 190
0.212161 -0.39137 -0.607 157 156 170
0.213317 -0.39137 -0.607 151 150 164
0.214473 -0.39137 -0.607 121 121 129
0.21563 -0.39137 -0.607 109 109 117
0.216786 -0.39137 -0.607 103 102 118
0.217942 -0.39137 -0.607 118 117 133
0.218737 -0.390726 -0.606 148 147 163
0.219891 -0.390726 -0.606 168 167 183
0.221046 -0.390726 -0.606 168 169 187
0.2222 -0.390726 -0.606 172 173 191
0.223354 -0.390726 -0.606 177 180 199
0.245286 -0.390726 -0.606 147 164 210
0.415766 -0.395884 -0.614 246 250 255
0.416935 -0.395884 -0.614 246 250 255
0.418105 -0.395884 -0.614 250 250 255
0.419274 -0.395884 -0.614 252 252 255
0.420444 -0.395884 -0.614 253 250 255
0.421613 -0.395884 -0.614 255 253 255
0.436357 -0.396529 -0.615 231 243 255
0.437529 -0.396529 -0.615 201 218 248
0.4387 -0.396529 -0.615 194 211 241
0.439871 -0.396529 -0.615 203 223 255
0.441043 -0.396529 -0.615 167 187 222
0.442214 -0.396529 -0.615 140 166 217
0.443386 -0.396529 -0.615 145 171 222
0.44528 -0.397173 -0.616 140 169 225
0.446453 -0.397173 -0.616 140 169 225
0.447627 -0.397173 -0.616 134 163 219
0.4488 -0.397173 -0.616 141 167 218
0.449973 -0.397173 -0.616 174 200 251
0.451879 -0.397818 -0.617 200 220 255
0.453054 -0.397818 -0.617 196 216 253
0.45423 -0.397818 -0.617 203 223 248
0.455405 -0.397818 -0.617 222 242 255
0.45658 -0.397818 -0.617 224 239 255
0.457755 -0.397818 -0.617 179 194 215
0.45893 -0.397818 -0.617 130 138 161
0.460106 -0.397818 -0.617 147 155 178
0.461281 -0.397818 -0.617 182 187 209
0.462456 -0.397818 -0.617 213 218 240
0.464383 -0.398463 -0.618 235 238 253
0.46556 -0.398463 -0.618 243 246 255
0.466737 -0.398463 -0.618 239 241 254
0.467914 -0.398463 -0.618 242 244 255
0.469091 -0.398463 -0.618 239 241 255
0.47103 -0.399108 -0.619 240 242 255
0.472209 -0.399108 -0.619 239 246 255
0.473388 -0.399108 -0.619 229 236 246
0.475333 -0.399752 -0.62 237 239 255
0.475746 -0.399108 -0.619 233 234 252
0.476925 -0.399108 -0.619 232 233 251
0.478104 -0.399108 -0.619 220 221 239
0.479283 -0.399108 -0.619 198 200 215
0.480462 -0.399108 -0.619 205 207 222
0.481641 -0.399108 -0.619 224 228 240
0.48282 -0.399108 -0.619 227 231 243
0.484781 -0.399752 -0.62 229 231 243
0.485962 -0.399752 -0.62 226 228 240
0.487143 -0.399752 -0.62 226 228 240
0.488324 -0.399752 -0.62 227 230 237
0.489505 -0.399752 -0.62 227 230 237
0.490686 -0.399752 -0.62 223 224 229
0.491867 -0.399752 -0.62 227 228 233
0.493048 -0.399752 -0.62 222 223 228
0.494229 -0.399752 -0.62 210 211 216
0.49541 -0.399752 -0.62 185 183 184
0.49659 -0.399752 -0.62 174 172 173
0.498574 -0.400397 -0.621 195 199 211
0.499757 -0.400397 -0.621 151 155 167
0.50094 -0.400397 -0.621 87 94 138
0.502123 -0.400397 -0.621 115 122 166
0.503306 -0.400397 -0.621 179 194 225
0.504489 -0.400397 -0.621 192 207 238
0.505671 -0.400397 -0.621 169 188 228
0.506854 -0.400397 -0.621 146 165 205
0.508037 -0.400397 -0.621 151 179 226
0.50922 -0.400397 -0.621 136 164 211
0.511225 -0.401042 -0.622 77 116 175
0.51241 -0.401042 -0.622 68 107 166
0.513594 -0.401042 -0.622 61 105 176
0.513951 -0.400397 -0.621 52 96 167
0.515134 -0.400397 -0.621 58 101 169
0.516317 -0.400397 -0.621 69 112 180
0.516667 -0.399752 -0.62 120 152 201
0.517848 -0.399752 -0.62 135 167 216
0.519029 -0.399752 -0.62 133 148 181
0.51937 -0.399108 -0.619 151 166 199
0.513999 -0.386212 -0.599 176 143 134
0.5117 -0.383633 -0.595 171 138 129
0.509386 -0.381054 -0.591 171 141 131
0.507056 -0.378475 -0.587 171 141 131
0.505577 -0.376541 -0.584 172 142 131
0.504087 -0.374607 -0.581 173 143 132
0.501715 -0.372028 -0.577 174 145 131
0.5002 -0.370093 -0.574 174 145 131
0.4978 -0.367514 -0.57 175 143 130
0.49626 -0.36558 -0.567 174 142 129
0.494709 -0.363646 -0.564 176 142 130
0.493146 -0.361711 -0.561 175 141 129
0.491571 -0.359777 -0.558 177 143 131
0.489986 -0.357843 -0.555 179 145 133
0.489273 -0.356553 -0.553 183 147 133
0.487667 -0.354619 -0.55 184 148 134
0.486937 -0.35333 -0.548 185 149 133
0.4862 -0.35204 -0.546 185 149 133
0.485455 -0.35075 -0.544 185 150 131
0.484703 -0.349461 -0.542 185 150 131
0.484839 -0.348816 -0.541 183 146 128
0.484073 -0.347527 -0.539 183 146 128
0.4842 -0.346882 -0.538 188 151 133
0.483421 -0.345592 -0.536 191 154 136
0.483538 -0.344948 -0.535 192 154 135
0.483651 -0.344303 -0.534 193 155 136
0.484669 -0.344303 -0.534 196 155 137
0.484776 -0.343658 -0.533 192 151 133
0.48488 -0.343013 -0.532 196 153 134
0.48498 -0.342369 -0.531 198 155 136
0.485991 -0.342369 -0.531 196 153 134
0.486086 -0.341724 -0.53 196 153 134
0.486176 -0.341079 -0.529 196 153 134
0.487184 -0.341079 -0.529 195 152 133
0.487269 -0.340434 -0.528 192 151 129
0.488274 -0.340434 -0.528 194 153 131
0.488353 -0.33979 -0.527 196 154 132
0.489357 -0.33979 -0.527 197 155 133
0.48943 -0.339145 -0.526 198 156 134
0.4895 -0.3385 -0.525 198 156 134
0.4905 -0.3385 -0.525 196 154 130
0.4915 -0.3385 -0.525 196 154 130
0.4925 -0.3385 -0.525 195 153 129
0.49256 -0.337855 -0.524 197 155 131
0.493558 -0.337855 -0.524 199 157 133
0.493612 -0.33721 -0.523 200 155 132
0.493663 -0.336566 -0.522 195 150 127
0.494657 -0.336566 -0.522 195 151 126
0.495651 -0.336566 -0.522 191 147 122
0.495694 -0.335921 -0.521 185 141 116
0.496687 -0.335921 -0.521 194 150 125
0.497679 -0.335921 -0.521 193 147 123
0.498671 -0.335921 -0.521 193 147 123
0.498705 -0.335276 -0.52 193 149 122
0.499695 -0.335276 -0.52 191 147 120
0.500686 -0.335276 -0.52 191 147 118
0.501676 -0.335276 -0.52 192 148 119
0.502667 -0.335276 -0.52 189 148 118
0.503657 -0.335276 -0.52 188 147 117
0.504648 -0.335276 -0.52 187 146 116
0.505638 -0.335276 -0.52 185 144 114
0.507603 -0.335921 -0.521 184 144 118
0.509571 -0.336566 -0.522 180 140 114
0.510566 -0.336566 -0.522 173 133 108
0.51254 -0.33721 -0.523 171 131 106
0.514518 -0.337855 -0.524 169 131 110
0.5165 -0.3385 -0.525 166 128 107
0.519471 -0.33979 -0.527 166 130 104
0.523438 -0.341724 -0.53 164 128 102
0.526427 -0.343013 -0.532 164 128 106
0.602244 -0.384278 -0.596 161 135 122
0.608441 -0.387502 -0.601 202 188 179
1.14478 -0.405555 -0.629 201 203 189
0.0712571 -0.375067 -0.58 193 156 140
0.0718629 -0.37248 -0.576 197 155 139
0.0724533 -0.369893 -0.572 196 154 138
0.0730286 -0.367307 -0.568 199 156 137
0.0734581 -0.364073 -0.563 200 157 138
0.0738686 -0.36084 -0.558 202 159 140
0.0745286 -0.3589 -0.555 205 162 143
0.075041 -0.356313 -0.551 205 162 143
0.0759524 -0.355667 -0.55 201 158 139
0.07672 -0.354373 -0.548 204 158 142
0.0776219 -0.353727 -0.547 203 157 141
0.07852 -0.35308 -0.546 201 155 139
0.07956 -0.35308 -0.546 199 153 137
0.0804524 -0.352433 -0.545 199 153 137
0.0814905 -0.352433 -0.545 200 154 138
0.0825286 -0.352433 -0.545 201 156 137
0.0835667 -0.352433 -0.545 202 157 138
0.0844495 -0.351787 -0.544 201 154 136
0.0854857 -0.351787 -0.544 201 154 136
0.0865219 -0.351787 -0.544 199 152 134
0.0875581 -0.351787 -0.544 199 152 134
0.0885943 -0.351787 -0.544 202 153 136
0.0896305 -0.351787 -0.544 201 152 135
0.0906667 -0.351787 -0.544 197 148 131
0.0917029 -0.351787 -0.544 194 145 128
0.0927391 -0.351787 -0.544 197 148 131
0.0937752 -0.351787 -0.544 197 148 131
0.0948114 -0.351787 -0.544 197 148 131
0.0958476 -0.351787 -0.544 199 150 133
0.0968838 -0.351787 -0.544 201 152 135
0.09792 -0.351787 -0.544 202 153 136
0.0991381 -0.352433 -0.545 201 153 133
0.100176 -0.352433 -0.545 201 153 133
0.101214 -0.352433 -0.545 196 148 128
0.102252 -0.352433 -0.545 196 148 128
0.10329 -0.352433 -0.545 195 147 127
0.104329 -0.352433 -0.545 197 146 127
0.105367 -0.352433 -0.545 197 146 127
0.106405 -0.352433 -0.545 196 145 126
0.10764 -0.35308 -0.546 194 143 124
0.10868 -0.35308 -0.546 193 142 121
0.10972 -0.35308 -0.546 191 140 119
0.110963 -0.353727 -0.547 189 139 114
0.11221 -0.354373 -0.548 186 136 111
0.113253 -0.354373 -0.548 183 131 109
0.114506 -0.35502 -0.549 176 124 102
0.115762 -0.355667 -0.55 172 116 99
0.117022 -0.356313 -0.551 164 108 91
0.118286 -0.35696 -0.552 152 99 85
0.119553 -0.357607 -0.553 146 93 79
0.120825 -0.358253 -0.554 145 91 81
0.1221 -0.3589 -0.555 145 91 81
0.123379 -0.359547 -0.556 142 92 81
0.124662 -0.360193 -0.557 140 90 79
0.125949 -0.36084 -0.558 138 90 78
