ply
format ascii 1.0
comment Created by Open3D
element vertex 1377
property double x
property double y
property double z
property uchar red
property uchar green
property uchar blue
end_header
0.405543 -0.505451 -0.564 58 57 65
0.405896 -0.504555 -0.563 57 56 64
0.406246 -0.503659 -0.562 55 55 63
0.406591 -0.502763 -0.561 55 55 63
0.406933 -0.501867 -0.56 56 55 63
0.408 -0.501867 -0.56 56 55 63
0.407606 -0.500074 -0.558 56 55 63
0.408669 -0.500074 -0.558 56 55 63
0.408263 -0.498282 -0.556 55 55 63
0.409322 -0.498282 -0.556 55 55 63
0.410381 -0.498282 -0.556 55 55 63
0.41144 -0.498282 -0.556 56 56 64
0.411757 -0.497386 -0.555 57 56 64
0.412814 -0.497386 -0.555 56 55 63
0.413871 -0.497386 -0.555 56 55 63
0.414181 -0.49649 -0.554 56 55 63
0.415236 -0.49649 -0.554 56 55 63
0.417043 -0.497386 -0.555 56 55 63
0.4181 -0.497386 -0.555 56 55 63
0.419157 -0.497386 -0.555 56 55 63
0.420214 -0.497386 -0.555 56 55 61
0.421271 -0.497386 -0.555 56 55 61
0.422329 -0.497386 -0.555 56 55 61
0.422623 -0.49649 -0.554 55 54 60
0.423678 -0.49649 -0.554 56 53 60
0.424733 -0.49649 -0.554 55 52 59
0.425789 -0.49649 -0.554 55 52 59
0.426844 -0.49649 -0.554 55 52 59
0.427899 -0.49649 -0.554 55 52 59
0.428954 -0.49649 -0.554 54 51 58
0.43001 -0.49649 -0.554 54 51 58
0.430287 -0.495593 -0.553 54 51 58
0.43134 -0.495593 -0.553 55 52 61
0.432393 -0.495593 -0.553 55 52 61
0.433447 -0.495593 -0.553 54 51 60
0.4345 -0.495593 -0.553 53 50 59
0.435553 -0.495593 -0.553 52 49 58
0.436607 -0.495593 -0.553 52 49 58
0.43766 -0.495593 -0.553 52 49 58
0.438713 -0.495593 -0.553 51 48 57
0.439767 -0.495593 -0.553 50 47 56
0.44082 -0.495593 -0.553 51 52 57
0.442672 -0.49649 -0.554 50 51 56
0.443728 -0.49649 -0.554 49 50 55
0.444783 -0.49649 -0.554 48 49 54
0.445838 -0.49649 -0.554 48 49 54
0.446893 -0.49649 -0.554 48 49 54
0.447949 -0.49649 -0.554 48 49 54
0.449004 -0.49649 -0.554 48 49 54
0.450871 -0.497386 -0.555 45 45 53
0.451929 -0.497386 -0.555 45 45 53
0.452986 -0.497386 -0.555 46 46 54
0.454043 -0.497386 -0.555 46 46 54
0.4551 -0.497386 -0.555 46 46 54
0.456979 -0.498282 -0.556 46 46 54
0.458038 -0.498282 -0.556 46 46 54
0.459923 -0.499178 -0.557 46 46 54
0.460984 -0.499178 -0.557 47 46 52
0.462874 -0.500074 -0.558 47 46 52
0.464769 -0.50097 -0.559 47 46 52
0.466667 -0.501867 -0.56 46 45 51
0.469404 -0.503659 -0.562 46 45 51
0.472149 -0.505451 -0.564 45 44 50
0.474901 -0.507244 -0.566 46 45 50
0.477661 -0.509036 -0.568 46 45 50
0.479586 -0.509932 -0.569 46 45 50
0.482359 -0.511725 -0.571 46 45 50
0.521566 -0.505451 -0.564 36 37 42
0.520787 -0.503659 -0.562 36 37 42
0.519071 -0.50097 -0.559 36 37 42
0.518275 -0.499178 -0.557 35 36 41
0.517471 -0.497386 -0.555 36 37 42
0.517594 -0.49649 -0.554 37 38 43
0.516777 -0.494697 -0.552 38 39 44
0.51689 -0.493801 -0.551 39 40 45
0.517 -0.492905 -0.55 37 38 43
0.517106 -0.492009 -0.549 33 34 39
0.516264 -0.490216 -0.547 37 38 43
0.515414 -0.488424 -0.545 39 40 45
0.451711 -0.422106 -0.471 26 27 32
0.44396 -0.41404 -0.462 23 24 29
0.440989 -0.410455 -0.458 19 22 27
0.438002 -0.40687 -0.454 14 17 22
0.435967 -0.404182 -0.451 19 22 29
0.43392 -0.401493 -0.448 18 21 28
0.431862 -0.398805 -0.445 17 20 27
0.430765 -0.397012 -0.443 18 21 28
0.430634 -0.396116 -0.442 18 21 28
0.429524 -0.394324 -0.44 18 21 28
0.429384 -0.393428 -0.439 17 20 27
0.42924 -0.392531 -0.438 17 20 27
0.429092 -0.391635 -0.437 17 18 23
0.428941 -0.390739 -0.436 18 19 24
0.428786 -0.389843 -0.435 19 20 25
0.429614 -0.389843 -0.435 18 19 24
0.429453 -0.388947 -0.434 18 19 24
0.429289 -0.38805 -0.433 18 19 24
0.430113 -0.38805 -0.433 19 20 25
0.429943 -0.387154 -0.432 19 19 27
0.429769 -0.386258 -0.431 19 19 27
0.43059 -0.386258 -0.431 19 19 27
0.43041 -0.385362 -0.43 19 19 27
0.430226 -0.384466 -0.429 19 19 27
0.431043 -0.384466 -0.429 20 20 28
0.430853 -0.38357 -0.428 21 21 29
0.43066 -0.382673 -0.427 21 21 29
0.430463 -0.381777 -0.426 21 21 29
0.430262 -0.380881 -0.425 19 22 29
0.431071 -0.380881 -0.425 19 22 29
0.430865 -0.379985 -0.424 19 22 29
0.430654 -0.379089 -0.423 19 22 29
0.43146 -0.379089 -0.423 18 21 28
0.431244 -0.378192 -0.422 18 21 28
0.432048 -0.378192 -0.422 19 22 29
0.431826 -0.377296 -0.421 19 22 29
0.4316 -0.3764 -0.42 18 21 28
0.4324 -0.3764 -0.42 19 22 29
0.432169 -0.375504 -0.419 19 22 29
0.432967 -0.375504 -0.419 20 23 30
0.43273 -0.374608 -0.418 21 24 31
0.432489 -0.373711 -0.417 21 24 31
0.433283 -0.373711 -0.417 21 24 31
0.433036 -0.372815 -0.416 22 25 32
0.433829 -0.372815 -0.416 25 25 33
0.433576 -0.371919 -0.415 24 24 32
0.43332 -0.371023 -0.414 24 24 32
0.434109 -0.371023 -0.414 24 24 32
0.433847 -0.370127 -0.413 23 23 31
0.434633 -0.370127 -0.413 23 23 31
0.434366 -0.36923 -0.412 23 24 29
0.43515 -0.36923 -0.412 24 25 30
0.434877 -0.368334 -0.411 24 25 30
0.43566 -0.368334 -0.411 24 25 30
0.435381 -0.367438 -0.41 23 24 29
0.436162 -0.367438 -0.41 22 23 28
0.436943 -0.367438 -0.41 21 22 26
0.436656 -0.366542 -0.409 21 22 26
0.436366 -0.365646 -0.408 20 21 25
0.437143 -0.365646 -0.408 20 21 25
0.436847 -0.36475 -0.407 21 22 27
0.437622 -0.36475 -0.407 23 24 29
0.43732 -0.363853 -0.406 25 26 31
0.438093 -0.363853 -0.406 26 27 32
0.438867 -0.363853 -0.406 26 27 32
0.438557 -0.362957 -0.405 24 25 30
0.439329 -0.362957 -0.405 23 24 29
0.439013 -0.362061 -0.404 25 26 31
0.439783 -0.362061 -0.404 22 23 28
0.439462 -0.361165 -0.403 23 24 29
0.439137 -0.360269 -0.402 23 24 29
0.439903 -0.360269 -0.402 23 24 29
0.439572 -0.359372 -0.401 23 24 29
0.440336 -0.359372 -0.401 24 25 30
0.4411 -0.359372 -0.401 25 26 31
0.441864 -0.359372 -0.401 26 27 32
0.441524 -0.358476 -0.4 21 22 26
0.44118 -0.35758 -0.399 20 21 25
0.44194 -0.35758 -0.399 20 21 26
0.4427 -0.35758 -0.399 19 20 25
0.442349 -0.356684 -0.398 19 20 25
0.443107 -0.356684 -0.398 20 21 26
0.443865 -0.356684 -0.398 21 22 26
0.444623 -0.356684 -0.398 21 22 26
0.444262 -0.355788 -0.397 20 21 25
0.445018 -0.355788 -0.397 20 21 25
0.445774 -0.355788 -0.397 19 20 25
0.44653 -0.355788 -0.397 19 20 25
0.44616 -0.354891 -0.396 19 20 25
0.446914 -0.354891 -0.396 19 20 25
0.447669 -0.354891 -0.396 19 20 25
0.448423 -0.354891 -0.396 19 20 25
0.449177 -0.354891 -0.396 21 22 26
0.449931 -0.354891 -0.396 20 21 25
0.450686 -0.354891 -0.396 19 20 24
0.45144 -0.354891 -0.396 18 19 23
0.452194 -0.354891 -0.396 19 20 24
0.452949 -0.354891 -0.396 19 20 24
0.453703 -0.354891 -0.396 20 21 25
0.45331 -0.353995 -0.395 21 22 26
0.454062 -0.353995 -0.395 21 25 28
0.454814 -0.353995 -0.395 20 24 27
0.455567 -0.353995 -0.395 19 23 26
0.456319 -0.353995 -0.395 18 22 25
0.457071 -0.353995 -0.395 17 21 24
0.458983 -0.354891 -0.396 18 22 25
0.459737 -0.354891 -0.396 18 22 25
0.460491 -0.354891 -0.396 18 22 25
0.461246 -0.354891 -0.396 20 21 26
0.462 -0.354891 -0.396 21 22 27
0.462754 -0.354891 -0.396 20 21 26
0.463509 -0.354891 -0.396 19 20 25
0.464263 -0.354891 -0.396 17 20 25
0.465017 -0.354891 -0.396 18 21 26
0.465771 -0.354891 -0.396 19 22 27
0.466526 -0.354891 -0.396 19 22 27
0.46728 -0.354891 -0.396 18 21 26
0.469216 -0.355788 -0.397 19 22 27
0.469972 -0.355788 -0.397 18 21 26
0.470729 -0.355788 -0.397 17 20 25
0.471485 -0.355788 -0.397 18 21 26
0.472241 -0.355788 -0.397 19 22 27
0.474189 -0.356684 -0.398 19 22 27
0.474947 -0.356684 -0.398 20 23 28
0.475705 -0.356684 -0.398 24 23 28
0.476463 -0.356684 -0.398 23 22 27
0.477221 -0.356684 -0.398 24 25 29
0.47918 -0.35758 -0.399 26 27 31
0.481143 -0.358476 -0.4 25 28 33
0.481905 -0.358476 -0.4 26 29 34
0.483873 -0.359372 -0.401 27 32 36
0.484637 -0.359372 -0.401 26 31 35
0.486611 -0.360269 -0.402 29 33 36
0.48859 -0.361165 -0.403 33 37 40
0.813062 -0.506348 -0.565 96 95 90
0.814138 -0.506348 -0.565 96 95 90
0.815214 -0.506348 -0.565 96 95 90
0.81629 -0.506348 -0.565 96 95 90
0.817367 -0.506348 -0.565 97 96 91
0.819891 -0.507244 -0.566 99 98 93
0.82097 -0.507244 -0.566 113 114 106
0.822048 -0.507244 -0.566 114 115 107
0.823126 -0.507244 -0.566 114 116 105
0.824204 -0.507244 -0.566 115 117 106
0.825282 -0.507244 -0.566 117 119 108
0.82636 -0.507244 -0.566 119 121 110
0.827438 -0.507244 -0.566 120 122 111
0.828516 -0.507244 -0.566 120 122 111
0.829594 -0.507244 -0.566 118 118 108
0.830672 -0.507244 -0.566 118 118 108
0.83175 -0.507244 -0.566 118 118 108
0.832829 -0.507244 -0.566 117 117 107
0.833907 -0.507244 -0.566 116 116 106
0.834985 -0.507244 -0.566 112 112 100
0.836063 -0.507244 -0.566 111 111 99
0.835662 -0.506348 -0.565 110 110 98
0.838219 -0.507244 -0.566 113 113 101
0.839297 -0.507244 -0.566 116 116 104
0.840375 -0.507244 -0.566 118 118 106
0.841453 -0.507244 -0.566 120 120 108
0.842531 -0.507244 -0.566 119 119 107
0.84361 -0.507244 -0.566 117 117 105
0.843195 -0.506348 -0.565 116 116 104
0.844271 -0.506348 -0.565 116 116 106
0.845348 -0.506348 -0.565 115 115 105
0.846424 -0.506348 -0.565 114 114 104
0.8475 -0.506348 -0.565 114 114 104
0.850078 -0.507244 -0.566 114 114 104
0.851156 -0.507244 -0.566 115 115 105
0.852234 -0.507244 -0.566 117 117 107
0.853312 -0.507244 -0.566 119 119 109
0.8559 -0.50814 -0.567 117 117 105
0.858491 -0.509036 -0.568 118 118 106
0.859573 -0.509036 -0.568 119 119 107
0.860655 -0.509036 -0.568 119 119 107
0.861737 -0.509036 -0.568 118 118 106
0.862819 -0.509036 -0.568 116 116 104
0.863901 -0.509036 -0.568 113 113 101
0.864983 -0.509036 -0.568 110 110 98
0.866065 -0.509036 -0.568 108 108 98
0.867147 -0.509036 -0.568 110 110 100
0.868229 -0.509036 -0.568 112 112 102
0.869311 -0.509036 -0.568 114 114 104
0.871925 -0.509932 -0.569 116 116 106
0.873009 -0.509932 -0.569 117 117 107
0.874092 -0.509932 -0.569 118 118 108
0.875176 -0.509932 -0.569 118 118 108
0.87626 -0.509932 -0.569 119 119 109
0.878886 -0.510829 -0.57 119 119 109
0.879971 -0.510829 -0.57 118 118 110
0.881057 -0.510829 -0.57 116 116 108
0.987494 -0.517102 -0.577 112 109 102
0.988593 -0.517102 -0.577 110 110 102
0.987977 -0.516206 -0.576 108 108 100
1.02431 -0.513517 -0.573 102 102 104
1.02719 -0.514413 -0.574 102 102 104
1.02828 -0.514413 -0.574 102 102 104
-0.0199143 -0.458029 -0.51 181 145 113
-0.0188314 -0.455334 -0.507 180 144 112
-0.0177952 -0.453538 -0.505 180 144 112
-0.0167333 -0.450844 -0.502 180 141 108
-0.0156829 -0.44815 -0.499 176 137 104
-0.0146733 -0.446353 -0.497 176 137 104
-0.0136714 -0.444557 -0.495 181 142 109
-0.0126514 -0.441863 -0.492 186 146 111
-0.0116905 -0.440965 -0.491 187 147 112
-0.0107114 -0.439169 -0.489 188 148 113
-0.00976 -0.43827 -0.488 189 149 114
-0.00881238 -0.437372 -0.487 190 147 112
-0.00788476 -0.437372 -0.487 189 146 111
-0.00694286 -0.436474 -0.486 190 148 110
-0.00600476 -0.435576 -0.485 191 149 111
-0.00507048 -0.434678 -0.484 192 150 112
-0.00414857 -0.434678 -0.484 193 151 113
-0.00322 -0.43378 -0.483 190 150 114
-0.0023 -0.43378 -0.483 192 152 116
-0.00138 -0.43378 -0.483 194 154 118
-0.00046 -0.43378 -0.483 195 155 119
0.000459048 -0.432882 -0.482 195 155 119
0.00137714 -0.432882 -0.482 195 155 119
0.0023 -0.43378 -0.483 194 154 118
0.00322 -0.43378 -0.483 193 153 117
0.00414 -0.43378 -0.483 193 150 115
0.00506 -0.43378 -0.483 193 150 115
0.00598 -0.43378 -0.483 193 150 116
0.0069 -0.43378 -0.483 193 150 116
0.00782 -0.43378 -0.483 194 151 117
0.00874 -0.43378 -0.483 195 152 118
0.00966 -0.43378 -0.483 195 152 118
0.0106019 -0.434678 -0.484 194 151 117
0.0115238 -0.434678 -0.484 192 149 114
0.0124714 -0.435576 -0.485 192 149 114
0.0133952 -0.435576 -0.485 192 149 114
0.0143486 -0.436474 -0.486 190 150 114
0.0152743 -0.436474 -0.486 191 151 115
0.0162333 -0.437372 -0.487 192 152 116
0.017161 -0.437372 -0.487 191 151 116
0.0180886 -0.437372 -0.487 189 149 114
0.0189771 -0.436474 -0.486 194 151 117
0.0199438 -0.437372 -0.487 196 153 119
0.0208714 -0.437372 -0.487 193 150 116
0.021799 -0.437372 -0.487 190 147 113
0.0227267 -0.437372 -0.487 191 148 114
0.0236543 -0.437372 -0.487 192 149 115
0.0246324 -0.43827 -0.488 191 148 116
0.0255619 -0.43827 -0.488 191 148 116
0.0264914 -0.43827 -0.488 193 148 115
0.027421 -0.43827 -0.488 194 149 116
0.0283505 -0.43827 -0.488 196 152 117
0.02928 -0.43827 -0.488 197 153 118
0.0302095 -0.43827 -0.488 195 150 117
0.031139 -0.43827 -0.488 194 149 116
0.0320686 -0.43827 -0.488 193 148 117
0.0329981 -0.43827 -0.488 192 147 116
0.0339276 -0.43827 -0.488 191 146 117
0.0348571 -0.43827 -0.488 189 144 115
0.0357867 -0.43827 -0.488 185 140 111
0.0367914 -0.439169 -0.489 186 141 112
0.0377229 -0.439169 -0.489 187 142 113
0.0386543 -0.439169 -0.489 185 139 113
0.0396667 -0.440067 -0.49 183 137 111
0.0406 -0.440067 -0.49 181 135 109
0.0416181 -0.440965 -0.491 180 134 108
0.0425533 -0.440965 -0.491 181 135 111
0.0435771 -0.441863 -0.492 181 135 111
0.0445143 -0.441863 -0.492 179 133 109
0.0455438 -0.442761 -0.493 178 132 108
0.0465771 -0.443659 -0.494 177 131 108
0.0475181 -0.443659 -0.494 175 129 106
0.0485571 -0.444557 -0.495 174 128 105
0.0496 -0.445455 -0.496 172 126 103
0.0505448 -0.445455 -0.496 167 120 100
0.0515933 -0.446353 -0.497 164 117 97
0.0526457 -0.447251 -0.498 164 117 99
0.0537019 -0.44815 -0.499 163 116 98
0.0546524 -0.44815 -0.499 160 115 94
0.0557143 -0.449048 -0.5 160 115 94
0.05678 -0.449946 -0.501 159 114 95
0.0578495 -0.450844 -0.502 156 111 92
0.0589229 -0.451742 -0.503 153 110 91
0.06 -0.45264 -0.504 151 108 89
0.061081 -0.453538 -0.505 143 105 84
0.0621657 -0.454436 -0.506 142 104 81
0.0632543 -0.455334 -0.507 135 100 80
0.0644733 -0.45713 -0.509 130 95 75
0.0655714 -0.458029 -0.51 128 97 79
0.0666733 -0.458927 -0.511 125 94 76
0.0677791 -0.459825 -0.512 120 92 78
0.0688886 -0.460723 -0.513 118 90 76
0.0834429 -0.476889 -0.531 83 67 67
0.0847724 -0.478685 -0.533 84 68 68
0.0859486 -0.479583 -0.534 85 71 68
0.0872914 -0.481379 -0.536 83 69 66
0.0886419 -0.483175 -0.538 81 69 69
0.09 -0.484971 -0.54 77 65 65
0.0911971 -0.48587 -0.541 67 58 63
0.0925686 -0.487666 -0.543 57 48 53
0.0937752 -0.488564 -0.544 45 39 49
0.0949857 -0.489462 -0.545 45 39 49
0.0962 -0.49036 -0.546 47 44 51
0.0974181 -0.491258 -0.547 50 47 54
0.09846 -0.491258 -0.547 52 49 56
0.0996838 -0.492156 -0.548 53 50 57
0.100911 -0.493054 -0.549 55 52 59
0.102143 -0.493952 -0.55 59 56 63
0.103378 -0.49485 -0.551 64 61 68
0.104428 -0.49485 -0.551 70 67 74
0.105477 -0.49485 -0.551 74 71 78
0.106527 -0.49485 -0.551 77 74 81
0.107771 -0.495749 -0.552 83 78 84
0.10902 -0.496647 -0.553 85 80 86
0.110272 -0.497545 -0.554 87 82 88
0.111328 -0.497545 -0.554 87 82 88
0.112586 -0.498443 -0.555 84 82 87
0.113848 -0.499341 -0.556 83 81 86
0.114907 -0.499341 -0.556 80 78 81
0.115757 -0.498443 -0.555 80 78 81
0.116604 -0.497545 -0.554 79 77 82
0.117447 -0.496647 -0.553 80 78 83
0.118286 -0.495749 -0.552 81 79 84
0.118905 -0.493952 -0.55 83 81 86
0.119734 -0.493054 -0.549 84 82 87
0.12056 -0.492156 -0.548 84 82 87
0.121382 -0.491258 -0.547 83 81 86
0.122424 -0.491258 -0.547 84 82 87
0.123466 -0.491258 -0.547 85 82 89
0.124508 -0.491258 -0.547 86 83 90
0.12509 -0.489462 -0.545 94 89 96
0.126129 -0.489462 -0.545 95 90 97
0.127167 -0.489462 -0.545 96 91 97
0.12844 -0.49036 -0.546 96 91 97
0.129717 -0.491258 -0.547 94 91 98
0.130759 -0.491258 -0.547 97 94 101
0.132042 -0.492156 -0.548 96 93 100
0.133329 -0.493054 -0.549 96 93 100
0.134374 -0.493054 -0.549 96 93 100
0.135667 -0.493952 -0.55 96 93 100
0.136714 -0.493952 -0.55 98 96 101
0.138012 -0.49485 -0.551 96 94 99
0.139062 -0.49485 -0.551 96 94 99
0.140366 -0.495749 -0.552 97 95 100
0.141417 -0.495749 -0.552 97 95 100
0.14221 -0.49485 -0.551 95 93 98
0.14326 -0.49485 -0.551 95 93 98
0.14431 -0.49485 -0.551 96 94 99
0.145359 -0.49485 -0.551 97 95 98
0.146409 -0.49485 -0.551 99 97 100
0.147458 -0.49485 -0.551 97 94 101
0.148238 -0.493952 -0.55 96 93 100
0.149286 -0.493952 -0.55 96 93 100
0.150607 -0.49485 -0.551 97 94 101
0.151656 -0.49485 -0.551 97 96 102
0.152706 -0.49485 -0.551 96 95 101
0.153755 -0.49485 -0.551 96 95 101
0.154524 -0.493952 -0.55 97 96 102
0.155571 -0.493952 -0.55 97 96 102
0.156619 -0.493952 -0.55 97 96 102
0.157667 -0.493952 -0.55 97 96 102
0.158714 -0.493952 -0.55 97 96 102
0.159762 -0.493952 -0.55 96 97 102
0.16081 -0.493952 -0.55 95 96 101
0.161857 -0.493952 -0.55 95 96 101
0.162905 -0.493952 -0.55 96 97 102
0.16425 -0.49485 -0.551 96 93 100
0.1653 -0.49485 -0.551 96 93 100
0.16635 -0.49485 -0.551 97 94 101
0.167399 -0.49485 -0.551 97 94 101
0.168449 -0.49485 -0.551 97 94 101
0.169498 -0.49485 -0.551 98 95 102
0.170548 -0.49485 -0.551 98 95 102
0.171909 -0.495749 -0.552 96 93 100
0.17296 -0.495749 -0.552 97 95 100
0.174011 -0.495749 -0.552 96 94 99
0.175063 -0.495749 -0.552 94 92 97
0.176114 -0.495749 -0.552 94 92 97
0.177166 -0.495749 -0.552 95 93 98
0.178217 -0.495749 -0.552 95 93 98
0.179269 -0.495749 -0.552 96 94 99
0.18032 -0.495749 -0.552 97 95 100
0.1817 -0.496647 -0.553 96 93 100
0.182753 -0.496647 -0.553 96 93 100
0.183807 -0.496647 -0.553 95 93 98
0.18486 -0.496647 -0.553 94 92 97
0.185913 -0.496647 -0.553 94 92 97
0.186967 -0.496647 -0.553 93 91 96
0.18802 -0.496647 -0.553 93 91 96
0.189073 -0.496647 -0.553 93 90 97
0.190127 -0.496647 -0.553 94 91 98
0.19118 -0.496647 -0.553 93 92 98
0.192233 -0.496647 -0.553 91 90 96
0.193287 -0.496647 -0.553 92 91 97
0.19434 -0.496647 -0.553 93 92 98
0.195393 -0.496647 -0.553 92 91 97
0.196447 -0.496647 -0.553 92 91 97
0.1975 -0.496647 -0.553 92 91 97
0.198553 -0.496647 -0.553 91 90 96
0.199607 -0.496647 -0.553 91 90 96
0.201023 -0.497545 -0.554 90 89 95
0.201713 -0.496647 -0.553 89 88 94
0.203133 -0.497545 -0.554 90 89 95
0.203083 -0.49485 -0.551 86 83 90
0.204132 -0.49485 -0.551 85 82 89
0.205182 -0.49485 -0.551 85 82 89
0.206231 -0.49485 -0.551 86 83 90
0.207281 -0.49485 -0.551 86 83 90
0.20833 -0.49485 -0.551 87 84 91
0.20976 -0.495749 -0.552 86 83 90
0.210811 -0.495749 -0.552 85 82 89
0.211863 -0.495749 -0.552 84 81 88
0.2133 -0.496647 -0.553 84 81 88
0.214353 -0.496647 -0.553 84 81 88
0.215407 -0.496647 -0.553 84 81 88
0.21646 -0.496647 -0.553 82 81 87
0.217513 -0.496647 -0.553 83 82 88
0.218567 -0.496647 -0.553 83 82 88
0.220017 -0.497545 -0.554 82 81 87
0.221072 -0.497545 -0.554 85 82 89
0.222128 -0.497545 -0.554 84 81 88
0.223183 -0.497545 -0.554 83 80 87
0.224238 -0.497545 -0.554 85 82 89
0.225293 -0.497545 -0.554 82 79 86
0.226349 -0.497545 -0.554 83 80 87
0.226993 -0.496647 -0.553 84 79 86
0.228047 -0.496647 -0.553 83 78 85
0.2291 -0.496647 -0.553 84 79 86
0.230153 -0.496647 -0.553 83 78 85
0.231207 -0.496647 -0.553 83 78 85
0.23268 -0.497545 -0.554 84 79 86
0.233735 -0.497545 -0.554 78 75 84
0.23479 -0.497545 -0.554 80 77 86
0.235846 -0.497545 -0.554 80 77 86
0.237329 -0.498443 -0.555 80 77 86
0.238386 -0.498443 -0.555 80 77 86
0.239443 -0.498443 -0.555 79 76 85
0.2405 -0.498443 -0.555 77 76 82
0.241557 -0.498443 -0.555 78 77 83
0.242614 -0.498443 -0.555 77 76 82
0.243671 -0.498443 -0.555 77 76 82
0.244729 -0.498443 -0.555 77 76 82
0.246229 -0.499341 -0.556 77 76 82
0.247288 -0.499341 -0.556 77 76 82
0.248347 -0.499341 -0.556 77 76 82
0.249406 -0.499341 -0.556 77 76 82
0.250465 -0.499341 -0.556 77 76 82
0.251524 -0.499341 -0.556 77 76 82
0.252583 -0.499341 -0.556 78 77 83
0.253642 -0.499341 -0.556 78 77 83
0.254701 -0.499341 -0.556 77 76 82
0.25622 -0.500239 -0.557 76 75 81
0.257281 -0.500239 -0.557 76 75 81
0.258342 -0.500239 -0.557 76 75 81
0.259869 -0.501137 -0.558 77 74 81
0.260931 -0.501137 -0.558 76 73 80
0.261994 -0.501137 -0.558 75 72 79
0.263057 -0.501137 -0.558 76 73 80
0.26412 -0.501137 -0.558 76 73 80
0.265183 -0.501137 -0.558 75 72 79
0.266246 -0.501137 -0.558 74 71 78
0.267309 -0.501137 -0.558 73 70 77
0.268371 -0.501137 -0.558 74 71 78
0.269434 -0.501137 -0.558 76 73 80
0.270497 -0.501137 -0.558 75 72 79
0.27156 -0.501137 -0.558 74 71 78
0.272623 -0.501137 -0.558 75 72 79
0.273686 -0.501137 -0.558 75 72 79
0.274749 -0.501137 -0.558 74 71 78
0.275811 -0.501137 -0.558 74 71 78
0.276874 -0.501137 -0.558 75 72 79
0.278435 -0.502035 -0.559 75 72 79
0.2795 -0.502035 -0.559 74 71 78
0.280565 -0.502035 -0.559 75 72 79
0.282133 -0.502933 -0.56 76 73 80
0.2832 -0.502933 -0.56 75 72 79
0.284267 -0.502933 -0.56 74 71 78
0.285333 -0.502933 -0.56 73 70 77
0.286911 -0.503831 -0.561 73 70 77
0.28798 -0.503831 -0.561 72 69 76
0.289049 -0.503831 -0.561 72 71 77
0.290634 -0.50473 -0.562 71 70 76
0.291705 -0.50473 -0.562 70 69 75
0.293296 -0.505628 -0.563 70 69 75
0.294369 -0.505628 -0.563 71 70 76
0.295441 -0.505628 -0.563 72 71 77
0.29704 -0.506526 -0.564 73 72 78
0.298114 -0.506526 -0.564 73 72 78
0.299189 -0.506526 -0.564 72 69 76
0.300263 -0.506526 -0.564 72 69 76
0.301337 -0.506526 -0.564 72 69 76
0.302948 -0.507424 -0.565 71 68 75
0.343026 -0.511016 -0.569 65 64 72
0.34411 -0.511016 -0.569 65 64 70
0.3458 -0.511914 -0.57 64 63 69
0.346886 -0.511914 -0.57 65 64 70
0.347971 -0.511914 -0.57 65 64 70
0.349057 -0.511914 -0.57 65 64 70
0.349529 -0.511016 -0.569 64 63 69
0.350612 -0.511016 -0.569 64 63 69
0.351696 -0.511016 -0.569 64 63 69
0.3534 -0.511914 -0.57 62 61 67
0.355108 -0.512812 -0.571 62 61 67
0.356195 -0.512812 -0.571 64 63 69
0.357283 -0.512812 -0.571 63 62 70
0.357743 -0.511914 -0.57 62 61 69
0.359458 -0.512812 -0.571 62 61 69
0.360546 -0.512812 -0.571 62 61 69
0.362267 -0.513711 -0.572 63 62 70
0.363356 -0.513711 -0.572 63 62 70
0.364446 -0.513711 -0.572 62 61 69
0.365535 -0.513711 -0.572 63 62 70
0.367266 -0.514609 -0.573 60 61 66
0.368357 -0.514609 -0.573 61 62 67
0.369449 -0.514609 -0.573 61 61 69
0.37054 -0.514609 -0.573 60 60 68
0.371631 -0.514609 -0.573 59 58 66
0.373373 -0.515507 -0.574 60 59 67
0.374467 -0.515507 -0.574 61 60 68
0.37556 -0.515507 -0.574 60 59 67
0.376653 -0.515507 -0.574 60 59 67
0.377747 -0.515507 -0.574 60 59 67
0.37818 -0.514609 -0.573 59 57 68
0.379271 -0.514609 -0.573 59 57 68
0.380363 -0.514609 -0.573 60 58 69
0.381454 -0.514609 -0.573 58 56 67
0.382546 -0.514609 -0.573 57 55 66
0.383637 -0.514609 -0.573 58 56 67
0.384729 -0.514609 -0.573 57 57 65
0.386493 -0.515507 -0.574 55 55 63
0.387587 -0.515507 -0.574 56 56 64
0.38868 -0.515507 -0.574 57 57 65
0.389094 -0.514609 -0.573 58 57 65
0.389505 -0.513711 -0.572 58 57 65
0.390594 -0.513711 -0.572 59 58 66
0.390999 -0.512812 -0.571 58 57 65
0.392087 -0.512812 -0.571 57 56 62
0.393863 -0.513711 -0.572 58 57 63
0.394952 -0.513711 -0.572 58 57 63
0.396042 -0.513711 -0.572 58 57 63
0.397131 -0.513711 -0.572 57 56 62
0.397525 -0.512812 -0.571 56 55 61
0.403669 -0.513711 -0.572 55 54 62
0.404758 -0.513711 -0.572 55 54 62
0.405848 -0.513711 -0.572 56 55 63
0.406937 -0.513711 -0.572 56 55 63
0.408027 -0.513711 -0.572 55 54 62
0.408401 -0.512812 -0.571 54 53 61
0.409489 -0.512812 -0.571 53 52 60
0.410576 -0.512812 -0.571 54 53 61
0.410943 -0.511914 -0.57 54 53 61
0.411306 -0.511016 -0.569 54 53 61
0.411665 -0.510118 -0.568 55 54 62
0.411293 -0.508322 -0.566 55 54 62
0.411643 -0.507424 -0.565 54 53 61
0.411989 -0.506526 -0.564 54 53 61
0.411598 -0.50473 -0.562 54 53 61
0.411934 -0.503831 -0.561 54 53 61
0.412267 -0.502933 -0.56 54 53 61
0.412595 -0.502035 -0.559 54 53 61
0.41366 -0.502035 -0.559 54 53 61
0.413983 -0.501137 -0.558 54 53 61
0.415046 -0.501137 -0.558 53 52 60
0.415363 -0.500239 -0.557 53 52 60
0.416424 -0.500239 -0.557 53 52 60
0.417485 -0.500239 -0.557 52 51 59
0.418546 -0.500239 -0.557 53 52 60
0.419607 -0.500239 -0.557 54 53 61
0.420668 -0.500239 -0.557 54 53 61
0.421729 -0.500239 -0.557 53 52 60
0.42279 -0.500239 -0.557 52 51 59
0.42385 -0.500239 -0.557 52 51 59
0.424149 -0.499341 -0.556 52 51 59
0.425208 -0.499341 -0.556 51 50 58
0.426267 -0.499341 -0.556 51 50 58
0.426557 -0.498443 -0.555 51 50 58
0.427614 -0.498443 -0.555 51 50 58
0.428671 -0.498443 -0.555 50 49 57
0.429729 -0.498443 -0.555 49 48 56
0.430786 -0.498443 -0.555 49 48 56
0.431065 -0.497545 -0.554 49 48 56
0.43212 -0.497545 -0.554 50 49 57
0.433175 -0.497545 -0.554 50 49 57
0.43423 -0.497545 -0.554 50 49 57
0.435286 -0.497545 -0.554 49 48 56
0.436341 -0.497545 -0.554 48 47 55
0.437396 -0.497545 -0.554 49 48 56
0.438451 -0.497545 -0.554 49 48 56
0.4403 -0.498443 -0.555 48 46 57
0.441357 -0.498443 -0.555 47 45 56
0.442414 -0.498443 -0.555 46 46 54
0.443471 -0.498443 -0.555 45 45 53
0.444529 -0.498443 -0.555 45 45 53
0.445586 -0.498443 -0.555 45 45 53
0.446643 -0.498443 -0.555 44 44 52
0.4477 -0.498443 -0.555 45 45 53
0.448757 -0.498443 -0.555 46 46 54
0.449814 -0.498443 -0.555 45 45 53
0.451684 -0.499341 -0.556 45 45 53
0.453557 -0.500239 -0.557 45 45 53
0.454618 -0.500239 -0.557 45 45 53
0.455679 -0.500239 -0.557 45 45 53
0.45674 -0.500239 -0.557 44 44 52
0.457801 -0.500239 -0.557 44 44 52
0.459686 -0.501137 -0.558 44 44 52
0.461574 -0.502035 -0.559 44 44 52
0.462639 -0.502035 -0.559 45 42 49
0.464533 -0.502933 -0.56 45 42 49
0.466431 -0.503831 -0.561 45 42 49
0.468333 -0.50473 -0.562 46 43 50
0.471074 -0.506526 -0.564 46 45 51
0.473823 -0.508322 -0.566 46 45 51
0.476579 -0.510118 -0.568 45 44 50
0.478502 -0.511016 -0.569 45 44 50
0.481271 -0.512812 -0.571 44 43 49
0.483204 -0.513711 -0.572 44 43 49
0.485987 -0.515507 -0.574 44 43 49
0.526951 -0.512812 -0.571 42 42 50
0.525265 -0.510118 -0.568 42 42 50
0.523567 -0.507424 -0.565 42 42 50
0.522786 -0.505628 -0.563 41 41 49
0.521067 -0.502933 -0.56 41 41 49
0.519336 -0.500239 -0.557 41 41 49
0.519463 -0.499341 -0.556 40 40 48
0.51865 -0.497545 -0.554 41 41 49
0.517829 -0.495749 -0.552 41 41 49
0.51794 -0.49485 -0.551 41 41 49
0.518048 -0.493952 -0.55 40 40 48
0.517208 -0.492156 -0.548 39 39 47
0.450752 -0.422105 -0.47 22 25 32
0.44396 -0.41492 -0.462 20 23 30
0.440989 -0.411328 -0.458 19 22 27
0.438002 -0.407735 -0.454 18 21 26
0.435967 -0.405041 -0.451 15 18 23
0.43392 -0.402347 -0.448 16 19 24
0.432832 -0.40055 -0.446 17 20 27
0.431737 -0.398754 -0.444 19 22 29
0.430634 -0.396958 -0.442 21 22 27
0.429524 -0.395162 -0.44 20 21 26
0.429384 -0.394264 -0.439 18 19 24
0.42924 -0.393366 -0.438 17 18 23
0.429092 -0.392468 -0.437 19 19 27
0.429925 -0.392468 -0.437 20 20 28
0.428786 -0.390671 -0.435 20 20 28
0.428627 -0.389773 -0.434 19 19 27
0.429453 -0.389773 -0.434 19 19 27
0.429289 -0.388875 -0.433 18 18 26
0.42912 -0.387977 -0.432 18 18 26
0.429943 -0.387977 -0.432 18 18 26
0.429769 -0.387079 -0.431 18 18 26
0.42959 -0.386181 -0.43 19 19 27
0.43041 -0.386181 -0.43 20 20 28
0.430226 -0.385283 -0.429 20 20 28
0.431043 -0.385283 -0.429 20 20 28
0.430853 -0.384385 -0.428 21 21 29
0.43066 -0.383487 -0.427 22 23 28
0.430463 -0.382589 -0.426 22 23 28
0.430262 -0.38169 -0.425 19 22 29
0.430057 -0.380792 -0.424 20 23 30
0.430865 -0.380792 -0.424 20 23 30
0.430654 -0.379894 -0.423 20 23 30
0.43146 -0.379894 -0.423 19 22 29
0.431244 -0.378996 -0.422 19 22 29
0.431024 -0.378098 -0.421 19 22 27
0.431826 -0.378098 -0.421 19 22 27
0.4316 -0.3772 -0.42 19 22 27
0.43137 -0.376302 -0.419 20 23 28
0.432169 -0.376302 -0.419 20 23 28
0.431933 -0.375404 -0.418 20 23 28
0.43273 -0.375404 -0.418 21 24 29
0.432489 -0.374506 -0.417 21 24 29
0.433283 -0.374506 -0.417 20 23 28
0.433036 -0.373608 -0.416 21 24 29
0.432786 -0.37271 -0.415 23 23 31
0.433576 -0.37271 -0.415 23 23 31
0.43332 -0.371811 -0.414 23 24 29
0.434109 -0.371811 -0.414 23 24 29
0.433847 -0.370913 -0.413 23 24 29
0.433581 -0.370015 -0.412 23 24 29
0.434366 -0.370015 -0.412 23 24 29
0.43515 -0.370015 -0.412 23 24 29
0.434877 -0.369117 -0.411 22 23 28
0.43566 -0.369117 -0.411 22 23 28
0.435381 -0.368219 -0.41 22 23 28
0.436162 -0.368219 -0.41 21 22 27
0.435877 -0.367321 -0.409 21 22 27
0.436656 -0.367321 -0.409 21 22 27
0.436366 -0.366423 -0.408 20 21 26
0.436071 -0.365525 -0.407 20 21 26
0.436847 -0.365525 -0.407 20 21 26
0.436547 -0.364627 -0.406 22 23 28
0.43732 -0.364627 -0.406 24 25 30
0.438093 -0.364627 -0.406 26 27 32
0.437786 -0.363729 -0.405 27 28 33
0.438557 -0.363729 -0.405 25 26 31
0.438244 -0.36283 -0.404 23 24 29
0.439013 -0.36283 -0.404 23 24 29
0.438694 -0.361932 -0.403 23 24 29
0.439462 -0.361932 -0.403 22 23 28
0.439137 -0.361034 -0.402 22 23 28
0.439903 -0.361034 -0.402 22 23 28
0.439572 -0.360136 -0.401 23 24 29
0.439238 -0.359238 -0.4 24 25 30
0.44 -0.359238 -0.4 24 25 30
0.43966 -0.35834 -0.399 22 23 28
0.44042 -0.35834 -0.399 21 22 26
0.44118 -0.35834 -0.399 20 21 25
0.44194 -0.35834 -0.399 20 21 25
0.44159 -0.357442 -0.398 20 21 25
0.442349 -0.357442 -0.398 19 20 24
0.443107 -0.357442 -0.398 20 21 25
0.443865 -0.357442 -0.398 21 22 26
0.443506 -0.356544 -0.397 21 22 26
0.444262 -0.356544 -0.397 21 22 26
0.445018 -0.356544 -0.397 20 21 25
0.445774 -0.356544 -0.397 19 20 25
0.445406 -0.355646 -0.396 18 19 24
0.44616 -0.355646 -0.396 19 20 25
0.446914 -0.355646 -0.396 18 19 24
0.447669 -0.355646 -0.396 18 19 24
0.448423 -0.355646 -0.396 19 20 25
0.449177 -0.355646 -0.396 20 21 26
0.449931 -0.355646 -0.396 19 20 25
0.450686 -0.355646 -0.396 19 20 25
0.45144 -0.355646 -0.396 19 20 25
0.452194 -0.355646 -0.396 19 20 25
0.452949 -0.355646 -0.396 19 20 25
0.453703 -0.355646 -0.396 20 21 26
0.45331 -0.354748 -0.395 20 21 26
0.454062 -0.354748 -0.395 21 24 29
0.454814 -0.354748 -0.395 21 24 29
0.455567 -0.354748 -0.395 20 23 28
0.456319 -0.354748 -0.395 19 22 27
0.457071 -0.354748 -0.395 19 22 27
0.457824 -0.354748 -0.395 19 22 27
0.458576 -0.354748 -0.395 18 21 26
0.459329 -0.354748 -0.395 18 21 26
0.460081 -0.354748 -0.395 20 21 25
0.460833 -0.354748 -0.395 20 21 25
0.461586 -0.354748 -0.395 20 21 26
0.462338 -0.354748 -0.395 20 21 26
0.46309 -0.354748 -0.395 17 20 25
0.465017 -0.355646 -0.396 17 20 25
0.465771 -0.355646 -0.396 17 21 24
0.466526 -0.355646 -0.396 18 22 25
0.46728 -0.355646 -0.396 18 22 25
0.468034 -0.355646 -0.396 18 22 25
0.469972 -0.356544 -0.397 18 21 26
0.470729 -0.356544 -0.397 18 21 26
0.471485 -0.356544 -0.397 19 22 27
0.472241 -0.356544 -0.397 19 22 27
0.472997 -0.356544 -0.397 19 23 26
0.473753 -0.356544 -0.397 20 24 27
0.47451 -0.356544 -0.397 23 22 27
0.475266 -0.356544 -0.397 23 22 27
0.477221 -0.357442 -0.398 24 25 29
0.477979 -0.357442 -0.398 26 27 31
0.47994 -0.35834 -0.399 25 28 33
0.481905 -0.359238 -0.4 26 29 34
0.482667 -0.359238 -0.4 26 31 35
0.484637 -0.360136 -0.401 26 31 35
0.485401 -0.360136 -0.401 25 29 32
0.487377 -0.361034 -0.402 30 34 37
0.81702 -0.50922 -0.567 95 94 89
0.8181 -0.50922 -0.567 95 95 87
0.81918 -0.50922 -0.567 97 97 89
0.82026 -0.50922 -0.567 98 97 92
0.822789 -0.510118 -0.568 99 98 93
0.823871 -0.510118 -0.568 107 107 99
0.8235 -0.50922 -0.567 116 116 108
0.82458 -0.50922 -0.567 116 116 106
0.82566 -0.50922 -0.567 115 115 105
0.828198 -0.510118 -0.568 116 116 106
0.82928 -0.510118 -0.568 118 118 108
0.830362 -0.510118 -0.568 121 121 111
0.831444 -0.510118 -0.568 120 120 110
0.832526 -0.510118 -0.568 116 116 106
0.833608 -0.510118 -0.568 117 117 107
0.83469 -0.510118 -0.568 118 118 108
0.835771 -0.510118 -0.568 117 117 107
0.836853 -0.510118 -0.568 113 113 101
0.837935 -0.510118 -0.568 111 111 99
0.839017 -0.510118 -0.568 109 109 97
0.83862 -0.50922 -0.567 110 110 98
0.8397 -0.50922 -0.567 112 112 100
0.84078 -0.50922 -0.567 114 114 102
0.843345 -0.510118 -0.568 117 117 105
0.844427 -0.510118 -0.568 119 119 107
0.845509 -0.510118 -0.568 119 119 107
0.846591 -0.510118 -0.568 116 116 104
0.84618 -0.50922 -0.567 115 115 103
0.84726 -0.50922 -0.567 115 115 105
0.84834 -0.50922 -0.567 113 113 103
0.84942 -0.50922 -0.567 112 112 102
0.8505 -0.50922 -0.567 111 111 101
0.85158 -0.50922 -0.567 111 111 101
0.85266 -0.50922 -0.567 112 112 102
0.85374 -0.50922 -0.567 114 114 104
0.857835 -0.511016 -0.569 115 115 105
0.858919 -0.511016 -0.569 113 113 101
0.860003 -0.511016 -0.569 115 115 103
0.861087 -0.511016 -0.569 117 117 105
0.86217 -0.511016 -0.569 118 118 106
0.863254 -0.511016 -0.569 117 117 105
0.864338 -0.511016 -0.569 117 117 105
0.865422 -0.511016 -0.569 116 116 104
0.868029 -0.511914 -0.57 113 113 101
0.869114 -0.511914 -0.57 110 110 98
0.8702 -0.511914 -0.57 111 111 99
0.871286 -0.511914 -0.57 112 112 102
0.872371 -0.511914 -0.57 113 113 103
0.874989 -0.512812 -0.571 115 115 105
0.876077 -0.512812 -0.571 117 117 107
0.877165 -0.512812 -0.571 118 118 108
0.878252 -0.512812 -0.571 118 118 108
0.87934 -0.512812 -0.571 118 118 108
0.88197 -0.513711 -0.572 119 119 109
0.884603 -0.514609 -0.573 119 119 111
0.885694 -0.514609 -0.573 117 117 109
0.886786 -0.514609 -0.573 115 116 108
0.99716 -0.522691 -0.582 111 104 96
-0.314023 -0.4644 -0.516 117 118 123
-0.31304 -0.4644 -0.516 117 118 122
-0.312057 -0.4644 -0.516 117 118 122
-0.311074 -0.4644 -0.516 118 117 122
-0.310692 -0.4653 -0.517 118 117 122
-0.309708 -0.4653 -0.517 118 117 122
-0.308126 -0.4644 -0.516 118 117 122
-0.307143 -0.4644 -0.516 118 117 122
-0.30616 -0.4644 -0.516 118 117 122
-0.305177 -0.4644 -0.516 118 117 122
-0.304194 -0.4644 -0.516 119 119 121
-0.303211 -0.4644 -0.516 119 119 121
-0.302229 -0.4644 -0.516 119 121 120
-0.289451 -0.4644 -0.516 121 121 121
-0.288469 -0.4644 -0.516 121 121 121
-0.287486 -0.4644 -0.516 121 121 121
-0.286503 -0.4644 -0.516 122 122 122
-0.28552 -0.4644 -0.516 123 123 123
-0.277657 -0.4644 -0.516 123 123 123
-0.276674 -0.4644 -0.516 123 123 123
-0.0208857 -0.459 -0.51 179 144 114
-0.0197971 -0.4563 -0.507 178 143 113
-0.0187571 -0.4545 -0.505 180 143 114
-0.0176895 -0.4518 -0.502 179 142 113
-0.0166333 -0.4491 -0.499 178 141 112
-0.01562 -0.4473 -0.497 179 142 113
-0.0146143 -0.4455 -0.495 183 144 113
-0.0135886 -0.4428 -0.492 184 145 114
-0.0126257 -0.4419 -0.491 185 146 113
-0.0116429 -0.4401 -0.489 187 148 115
-0.0106895 -0.4392 -0.488 189 149 114
-0.00974 -0.4383 -0.487 188 148 113
-0.00879429 -0.4374 -0.486 188 148 113
-0.00785238 -0.4365 -0.485 188 148 113
-0.00692857 -0.4365 -0.485 191 148 113
-0.00599238 -0.4356 -0.484 193 150 115
-0.00506 -0.4347 -0.483 195 152 117
-0.00414 -0.4347 -0.483 194 151 116
-0.00322 -0.4347 -0.483 190 150 114
-0.00229524 -0.4338 -0.482 191 151 115
-0.00137714 -0.4338 -0.482 193 153 117
-0.000459048 -0.4338 -0.482 194 154 118
0.000459048 -0.4338 -0.482 193 153 117
0.00137714 -0.4338 -0.482 192 152 116
0.00229524 -0.4338 -0.482 193 153 117
0.00321333 -0.4338 -0.482 193 153 117
0.00413143 -0.4338 -0.482 193 150 115
0.00504952 -0.4338 -0.482 193 150 115
0.00598 -0.4347 -0.483 193 150 116
0.0069 -0.4347 -0.483 193 150 116
0.00782 -0.4347 -0.483 193 150 116
0.00874 -0.4347 -0.483 193 150 116
0.00966 -0.4347 -0.483 193 150 116
0.01058 -0.4347 -0.483 192 149 115
0.0115238 -0.4356 -0.484 191 148 113
0.0124457 -0.4356 -0.484 191 148 113
0.0133952 -0.4365 -0.485 192 149 114
0.014319 -0.4365 -0.485 192 149 114
0.0152743 -0.4374 -0.486 193 150 115
0.0162 -0.4374 -0.486 193 150 115
0.0171257 -0.4374 -0.486 193 150 116
0.0180514 -0.4374 -0.486 193 150 116
0.0189771 -0.4374 -0.486 194 151 117
0.0199029 -0.4374 -0.486 195 152 118
0.0208286 -0.4374 -0.486 194 151 117
0.0217543 -0.4374 -0.486 191 148 114
0.0227267 -0.4383 -0.487 192 149 115
0.0236543 -0.4383 -0.487 193 150 116
0.0245819 -0.4383 -0.487 193 150 116
0.0255095 -0.4383 -0.487 193 150 116
0.0264371 -0.4383 -0.487 195 150 117
0.0273648 -0.4383 -0.487 195 150 117
0.0282924 -0.4383 -0.487 196 151 118
0.02922 -0.4383 -0.487 196 151 118
0.0301476 -0.4383 -0.487 196 151 118
0.0310752 -0.4383 -0.487 194 149 116
0.0320029 -0.4383 -0.487 192 147 116
0.0329305 -0.4383 -0.487 191 146 115
0.0338581 -0.4383 -0.487 189 144 115
0.0347857 -0.4383 -0.487 188 143 114
0.0357867 -0.4392 -0.488 186 141 112
0.0367162 -0.4392 -0.488 184 139 110
0.0376457 -0.4392 -0.488 185 139 113
0.0386543 -0.4401 -0.489 185 139 113
0.0395857 -0.4401 -0.489 183 137 111
0.0406 -0.441 -0.49 181 135 109
0.0415333 -0.441 -0.49 180 134 110
0.0424667 -0.441 -0.49 180 134 110
0.0434886 -0.4419 -0.491 179 133 109
0.0444238 -0.4419 -0.491 178 132 108
0.0454514 -0.4428 -0.492 176 130 107
0.0464829 -0.4437 -0.493 176 130 107
0.0474219 -0.4437 -0.493 174 128 105
0.048459 -0.4446 -0.494 172 126 103
0.0495 -0.4455 -0.495 172 126 103
0.0505448 -0.4464 -0.496 169 123 100
0.0514895 -0.4464 -0.496 164 117 97
0.05254 -0.4473 -0.497 162 115 95
0.0535943 -0.4482 -0.498 163 116 96
0.0546524 -0.4491 -0.499 163 116 96
0.0557143 -0.45 -0.5 160 113 93
0.0566667 -0.45 -0.5 158 111 91
0.0577343 -0.4509 -0.501 154 109 90
0.0588057 -0.4518 -0.502 153 108 89
0.059881 -0.4527 -0.503 150 107 88
0.06096 -0.4536 -0.504 148 105 86
0.0620429 -0.4545 -0.505 143 105 84
0.0631295 -0.4554 -0.506 138 100 79
0.0643467 -0.4572 -0.508 132 97 78
0.0654429 -0.4581 -0.509 127 92 73
0.0665429 -0.459 -0.51 127 96 78
0.0676467 -0.4599 -0.511 124 93 75
0.0687543 -0.4608 -0.512 117 91 78
0.0698657 -0.4617 -0.513 115 89 76
0.0821209 -0.4761 -0.529 86 67 71
0.0834429 -0.4779 -0.531 85 66 68
0.0847724 -0.4797 -0.533 85 66 68
0.0861095 -0.4815 -0.535 85 71 70
0.0872914 -0.4824 -0.536 83 69 68
0.0886419 -0.4842 -0.538 78 66 68
0.09 -0.486 -0.54 74 62 64
0.0913657 -0.4878 -0.542 61 54 61
0.0925686 -0.4887 -0.543 50 43 50
0.0939476 -0.4905 -0.545 42 39 50
0.09516 -0.4914 -0.546 44 41 52
0.0963762 -0.4923 -0.547 46 43 52
0.0975962 -0.4932 -0.548 48 45 54
0.09864 -0.4932 -0.548 50 47 56
0.0998657 -0.4941 -0.549 52 49 58
0.101095 -0.495 -0.55 54 51 58
0.102329 -0.4959 -0.551 58 55 62
0.103753 -0.4977 -0.553 63 60 67
0.104996 -0.4986 -0.554 67 64 71
0.106051 -0.4986 -0.554 72 69 76
0.1073 -0.4995 -0.555 75 72 79
0.108357 -0.4995 -0.555 81 76 82
0.109611 -0.5004 -0.556 82 77 83
0.11087 -0.5013 -0.557 83 78 84
0.11193 -0.5013 -0.557 83 78 84
0.113194 -0.5022 -0.558 82 77 83
0.114462 -0.5031 -0.559 81 76 82
0.115527 -0.5031 -0.559 76 73 80
0.116174 -0.5013 -0.557 75 72 79
0.117235 -0.5013 -0.557 76 73 80
0.117871 -0.4995 -0.555 77 74 81
0.118714 -0.4986 -0.554 79 76 83
0.119337 -0.4968 -0.552 79 76 83
0.12017 -0.4959 -0.551 80 77 84
0.12078 -0.4941 -0.549 80 77 84
0.121604 -0.4932 -0.548 81 78 85
0.122871 -0.4941 -0.549 82 79 86
0.123917 -0.4941 -0.549 82 79 88
0.124963 -0.4941 -0.549 84 81 90
0.126238 -0.495 -0.55 87 84 93
0.126823 -0.4932 -0.548 90 87 94
0.127867 -0.4932 -0.548 91 89 94
0.129146 -0.4941 -0.549 92 90 95
0.130429 -0.495 -0.55 90 87 94
0.131476 -0.495 -0.55 92 89 96
0.132765 -0.4959 -0.551 93 90 97
0.134057 -0.4968 -0.552 94 91 98
0.135353 -0.4977 -0.553 95 92 99
0.136407 -0.4977 -0.553 94 91 98
0.137709 -0.4986 -0.554 95 92 99
0.138764 -0.4986 -0.554 95 92 99
0.140071 -0.4995 -0.555 92 90 95
0.141129 -0.4995 -0.555 93 91 96
0.142186 -0.4995 -0.555 93 91 96
0.143243 -0.4995 -0.555 92 90 95
0.14404 -0.4986 -0.554 94 92 97
0.145095 -0.4986 -0.554 95 93 98
0.14615 -0.4986 -0.554 94 92 97
0.147206 -0.4986 -0.554 94 92 97
0.148261 -0.4986 -0.554 94 91 98
0.149316 -0.4986 -0.554 94 91 98
0.1501 -0.4977 -0.553 95 92 99
0.151427 -0.4986 -0.554 96 93 100
0.152482 -0.4986 -0.554 96 94 99
0.153537 -0.4986 -0.554 95 93 98
0.154592 -0.4986 -0.554 96 94 99
0.155367 -0.4977 -0.553 97 95 100
0.15642 -0.4977 -0.553 97 95 100
0.157473 -0.4977 -0.553 96 94 99
0.158527 -0.4977 -0.553 95 93 98
0.15958 -0.4977 -0.553 95 93 98
0.160633 -0.4977 -0.553 94 93 98
0.161687 -0.4977 -0.553 93 92 97
0.16274 -0.4977 -0.553 93 92 97
0.163793 -0.4977 -0.553 93 92 97
0.165145 -0.4986 -0.554 94 93 98
0.1662 -0.4986 -0.554 95 94 99
0.167255 -0.4986 -0.554 96 95 100
0.16831 -0.4986 -0.554 96 95 100
0.169366 -0.4986 -0.554 95 94 99
0.170729 -0.4995 -0.555 94 93 98
0.171786 -0.4995 -0.555 94 93 98
0.172843 -0.4995 -0.555 94 93 98
0.1739 -0.4995 -0.555 96 96 98
0.174957 -0.4995 -0.555 94 94 96
0.176331 -0.5004 -0.556 94 92 95
0.17739 -0.5004 -0.556 93 91 94
0.17845 -0.5004 -0.556 93 91 94
0.179509 -0.5004 -0.556 94 92 95
0.180568 -0.5004 -0.556 96 94 97
0.181627 -0.5004 -0.556 98 96 99
0.182686 -0.5004 -0.556 98 96 101
0.183745 -0.5004 -0.556 97 95 100
0.184804 -0.5004 -0.556 95 93 98
0.185863 -0.5004 -0.556 94 92 97
0.186922 -0.5004 -0.556 93 91 96
0.187981 -0.5004 -0.556 93 91 96
0.18904 -0.5004 -0.556 93 91 96
0.190441 -0.5013 -0.557 93 92 98
0.191502 -0.5013 -0.557 93 92 98
0.192563 -0.5013 -0.557 93 92 98
0.193276 -0.5004 -0.556 92 91 97
0.194335 -0.5004 -0.556 92 91 96
0.195394 -0.5004 -0.556 92 91 96
0.196453 -0.5004 -0.556 91 90 96
0.197512 -0.5004 -0.556 90 89 95
0.198571 -0.5004 -0.556 91 90 96
0.19963 -0.5004 -0.556 91 90 96
0.20069 -0.5004 -0.556 92 91 97
0.202111 -0.5013 -0.557 92 91 97
0.203172 -0.5013 -0.557 90 89 95
0.204233 -0.5013 -0.557 90 89 95
0.205294 -0.5013 -0.557 90 89 95
0.205244 -0.4986 -0.554 89 88 94
0.206299 -0.4986 -0.554 89 88 94
0.207354 -0.4986 -0.554 91 90 96
0.20841 -0.4986 -0.554 90 89 95
0.209843 -0.4995 -0.555 91 90 96
0.2109 -0.4995 -0.555 90 89 95
0.211957 -0.4995 -0.555 89 88 94
0.213014 -0.4995 -0.555 89 88 93
0.214071 -0.4995 -0.555 88 87 92
0.215516 -0.5004 -0.556 88 87 92
0.216575 -0.5004 -0.556 88 87 92
0.217634 -0.5004 -0.556 86 85 90
0.218693 -0.5004 -0.556 88 87 92
0.219752 -0.5004 -0.556 90 89 94
0.220811 -0.5004 -0.556 90 89 94
0.22227 -0.5013 -0.557 89 88 93
0.22333 -0.5013 -0.557 88 87 92
0.224391 -0.5013 -0.557 87 86 92
0.225452 -0.5013 -0.557 86 85 91
0.226107 -0.5004 -0.556 88 87 93
0.227166 -0.5004 -0.556 86 85 91
0.228225 -0.5004 -0.556 87 86 92
0.229284 -0.5004 -0.556 87 86 92
0.230343 -0.5004 -0.556 87 86 94
0.231402 -0.5004 -0.556 87 86 94
0.232461 -0.5004 -0.556 86 85 93
0.23352 -0.5004 -0.556 84 83 91
0.234579 -0.5004 -0.556 85 84 90
0.236062 -0.5013 -0.557 86 85 91
0.237123 -0.5013 -0.557 86 85 91
0.238184 -0.5013 -0.557 85 84 90
0.239674 -0.5022 -0.558 85 84 90
0.240737 -0.5022 -0.558 84 83 89
0.2418 -0.5022 -0.558 83 82 88
0.242863 -0.5022 -0.558 83 82 88
0.243926 -0.5022 -0.558 82 81 87
0.245428 -0.5031 -0.559 83 82 88
0.246492 -0.5031 -0.559 83 82 88
0.247557 -0.5031 -0.559 82 81 87
0.248622 -0.5031 -0.559 82 81 87
0.249687 -0.5031 -0.559 83 82 88
0.250751 -0.5031 -0.559 83 82 88
0.251816 -0.5031 -0.559 84 83 89
0.253333 -0.504 -0.56 83 82 88
0.2544 -0.504 -0.56 84 81 88
0.255467 -0.504 -0.56 84 81 88
0.256533 -0.504 -0.56 84 81 90
0.25806 -0.5049 -0.561 84 81 90
0.259129 -0.5049 -0.561 84 81 90
0.260197 -0.5049 -0.561 84 81 90
0.261731 -0.5058 -0.562 83 80 89
0.262802 -0.5058 -0.562 82 79 88
0.263872 -0.5058 -0.562 80 77 86
0.264943 -0.5058 -0.562 81 78 87
0.266013 -0.5058 -0.562 82 79 90
0.267084 -0.5058 -0.562 82 79 90
0.268154 -0.5058 -0.562 82 79 90
0.269225 -0.5058 -0.562 81 78 89
0.270295 -0.5058 -0.562 81 78 87
0.271366 -0.5058 -0.562 81 78 87
0.272921 -0.5067 -0.563 79 78 86
0.273993 -0.5067 -0.563 79 78 86
0.274577 -0.5058 -0.562 79 78 86
0.275648 -0.5058 -0.562 80 79 87
0.27721 -0.5067 -0.563 80 79 87
0.278283 -0.5067 -0.563 79 78 86
0.279355 -0.5067 -0.563 78 77 85
0.280926 -0.5076 -0.564 77 76 84
0.282 -0.5076 -0.564 79 78 86
0.283074 -0.5076 -0.564 79 78 86
0.284652 -0.5085 -0.565 78 77 85
0.285729 -0.5085 -0.565 77 76 84
0.287312 -0.5094 -0.566 79 76 85
0.28839 -0.5094 -0.566 80 77 86
0.289469 -0.5094 -0.566 80 77 86
0.29106 -0.5103 -0.567 80 77 86
0.29214 -0.5103 -0.567 77 76 82
0.293737 -0.5112 -0.568 77 76 82
0.294819 -0.5112 -0.568 77 76 82
0.296422 -0.5121 -0.569 76 75 81
0.297506 -0.5121 -0.569 75 74 80
0.29859 -0.5121 -0.569 76 75 81
0.3002 -0.513 -0.57 77 76 82
0.301814 -0.5139 -0.571 76 75 81
0.302902 -0.5139 -0.571 77 76 82
0.30399 -0.5139 -0.571 76 75 81
0.305077 -0.5139 -0.571 76 75 81
0.306701 -0.5148 -0.572 76 73 80
0.30779 -0.5148 -0.572 75 72 79
0.394271 -0.5211 -0.579 64 65 70
0.394691 -0.5202 -0.578 63 64 69
0.395792 -0.5202 -0.578 63 64 69
0.396207 -0.5193 -0.577 61 62 67
0.397994 -0.5202 -0.578 61 62 67
0.399095 -0.5202 -0.578 62 62 70
0.400196 -0.5202 -0.578 62 62 70
0.401297 -0.5202 -0.578 62 62 70
0.402398 -0.5202 -0.578 61 61 69
0.409314 -0.522 -0.58 62 61 67
0.409711 -0.5211 -0.579 61 60 66
0.410105 -0.5202 -0.578 60 59 65
0.411206 -0.5202 -0.578 61 60 66
0.41302 -0.5211 -0.579 61 60 66
0.413408 -0.5202 -0.578 59 58 66
0.414509 -0.5202 -0.578 59 58 66
0.41561 -0.5202 -0.578 59 58 66
0.41599 -0.5193 -0.577 61 60 68
0.416366 -0.5184 -0.576 60 59 67
0.416738 -0.5175 -0.575 60 59 67
0.41638 -0.5157 -0.573 61 60 68
0.416014 -0.5139 -0.571 60 59 67
0.416371 -0.513 -0.57 59 58 66
0.415992 -0.5112 -0.568 61 60 68
0.415606 -0.5094 -0.566 58 57 65
0.415211 -0.5076 -0.564 59 58 66
0.415548 -0.5067 -0.563 60 59 67
0.41662 -0.5067 -0.563 59 58 66
0.41695 -0.5058 -0.562 58 57 65
0.417277 -0.5049 -0.561 57 56 64
0.4176 -0.504 -0.56 58 57 65
0.418667 -0.504 -0.56 59 58 66
0.419733 -0.504 -0.56 57 57 65
0.420049 -0.5031 -0.559 57 57 65
0.421113 -0.5031 -0.559 58 58 66
0.422178 -0.5031 -0.559 58 58 66
0.423243 -0.5031 -0.559 58 58 66
0.424308 -0.5031 -0.559 56 56 64
0.425372 -0.5031 -0.559 55 55 65
0.426437 -0.5031 -0.559 55 55 65
0.426737 -0.5022 -0.558 56 55 63
0.4278 -0.5022 -0.558 56 55 63
0.428863 -0.5022 -0.558 56 55 63
0.429926 -0.5022 -0.558 55 54 62
0.430216 -0.5013 -0.557 56 55 63
0.431277 -0.5013 -0.557 55 54 62
0.432338 -0.5013 -0.557 55 54 62
0.432621 -0.5004 -0.556 56 55 63
0.43368 -0.5004 -0.556 57 56 64
0.449566 -0.5004 -0.556 51 52 57
0.450625 -0.5004 -0.556 51 52 57
0.452496 -0.5013 -0.557 51 51 59
0.454371 -0.5022 -0.558 51 51 59
0.45625 -0.5031 -0.559 52 52 60
0.457315 -0.5031 -0.559 52 52 60
0.45838 -0.5031 -0.559 53 53 61
0.459445 -0.5031 -0.559 52 52 60
0.461333 -0.504 -0.56 50 50 58
0.463226 -0.5049 -0.561 49 49 57
0.464294 -0.5049 -0.561 49 48 54
0.466192 -0.5058 -0.562 49 48 54
0.468094 -0.5067 -0.563 50 49 55
0.47 -0.5076 -0.564 51 50 56
0.472745 -0.5094 -0.566 51 50 56
0.47466 -0.5103 -0.567 51 50 56
0.477418 -0.5121 -0.569 52 51 57
0.480184 -0.5139 -0.571 52 51 57
0.482114 -0.5148 -0.572 51 50 56
0.484893 -0.5166 -0.574 50 49 55
0.48768 -0.5184 -0.576 50 49 55
0.490474 -0.5202 -0.578 49 48 54
0.494977 -0.5238 -0.582 44 45 50
0.530643 -0.5175 -0.575 41 42 47
0.528964 -0.5148 -0.572 41 42 47
0.527273 -0.5121 -0.569 41 42 47
0.5265 -0.5103 -0.567 41 41 49
0.524789 -0.5076 -0.564 42 42 50
0.523066 -0.5049 -0.561 42 42 50
0.521331 -0.5022 -0.558 42 42 50
0.520522 -0.5004 -0.556 42 42 50
0.519705 -0.4986 -0.554 41 41 49
0.51888 -0.4968 -0.552 41 41 49
0.51899 -0.4959 -0.551 40 40 48
0.451711 -0.4239 -0.471 23 26 33
0.444921 -0.4167 -0.463 21 24 31
0.440989 -0.4122 -0.458 20 23 28
0.438002 -0.4086 -0.454 17 20 25
0.435967 -0.4059 -0.451 16 19 24
0.43392 -0.4032 -0.448 17 20 25
0.432832 -0.4014 -0.446 18 21 28
0.431737 -0.3996 -0.444 18 21 28
0.430634 -0.3978 -0.442 20 21 26
0.429524 -0.396 -0.44 19 20 25
0.429384 -0.3951 -0.439 18 19 24
0.42924 -0.3942 -0.438 17 18 23
0.429092 -0.3933 -0.437 19 19 27
0.428941 -0.3924 -0.436 20 20 28
0.429771 -0.3924 -0.436 21 21 29
0.429614 -0.3915 -0.435 20 20 28
0.429453 -0.3906 -0.434 19 19 27
0.429289 -0.3897 -0.433 18 18 26
0.42912 -0.3888 -0.432 19 19 27
0.428948 -0.3879 -0.431 19 19 27
0.429769 -0.3879 -0.431 18 18 26
0.42959 -0.387 -0.43 18 18 26
0.429409 -0.3861 -0.429 20 21 26
0.430226 -0.3861 -0.429 20 21 26
0.430038 -0.3852 -0.428 21 22 27
0.430853 -0.3852 -0.428 22 23 28
0.43066 -0.3843 -0.427 22 23 28
0.430463 -0.3834 -0.426 22 23 28
0.430262 -0.3825 -0.425 22 22 30
0.430057 -0.3816 -0.424 22 22 30
0.430865 -0.3816 -0.424 22 22 30
0.430654 -0.3807 -0.423 23 23 31
0.43044 -0.3798 -0.422 23 24 29
0.431244 -0.3798 -0.422 22 23 28
0.431024 -0.3789 -0.421 22 23 28
0.4308 -0.378 -0.42 21 22 27
0.430572 -0.3771 -0.419 23 24 29
0.43137 -0.3771 -0.419 23 24 29
0.431137 -0.3762 -0.418 23 24 29
0.431933 -0.3762 -0.418 22 23 28
0.431694 -0.3753 -0.417 23 24 29
0.432489 -0.3753 -0.417 22 23 28
0.432244 -0.3744 -0.416 22 23 28
0.433036 -0.3744 -0.416 22 23 28
0.432786 -0.3735 -0.415 21 22 27
0.432531 -0.3726 -0.414 21 22 27
0.43332 -0.3726 -0.414 22 23 28
0.43306 -0.3717 -0.413 22 23 28
0.433847 -0.3717 -0.413 23 24 29
0.433581 -0.3708 -0.412 24 25 30
0.434366 -0.3708 -0.412 23 24 29
0.434094 -0.3699 -0.411 23 24 29
0.434877 -0.3699 -0.411 21 22 27
0.43566 -0.3699 -0.411 21 22 27
0.435381 -0.369 -0.41 21 22 27
0.435098 -0.3681 -0.409 20 21 26
0.435877 -0.3681 -0.409 20 21 26
0.435589 -0.3672 -0.408 20 21 26
0.436366 -0.3672 -0.408 20 21 26
0.436071 -0.3663 -0.407 19 20 25
0.436847 -0.3663 -0.407 20 21 26
0.436547 -0.3654 -0.406 21 22 27
0.43732 -0.3654 -0.406 22 23 28
0.437014 -0.3645 -0.405 23 24 29
0.437786 -0.3645 -0.405 25 26 31
0.438557 -0.3645 -0.405 25 26 31
0.438244 -0.3636 -0.404 23 24 29
0.439013 -0.3636 -0.404 22 23 28
0.438694 -0.3627 -0.403 22 23 28
0.438371 -0.3618 -0.402 21 22 27
0.439137 -0.3618 -0.402 21 22 27
0.438809 -0.3609 -0.401 21 22 27
0.439572 -0.3609 -0.401 21 22 27
0.439238 -0.36 -0.4 22 23 28
0.4389 -0.3591 -0.399 21 22 27
0.43966 -0.3591 -0.399 22 23 28
0.44042 -0.3591 -0.399 21 22 26
0.44118 -0.3591 -0.399 21 22 26
0.440832 -0.3582 -0.398 21 22 26
0.44159 -0.3582 -0.398 20 21 25
0.442349 -0.3582 -0.398 20 21 25
