ply
format ascii 1.0
comment Created by Open3D
element vertex 1293
property double x
property double y
property double z
property uchar red
property uchar green
property uchar blue
end_header
0.176513 -0.344727 -0.581 124 81 74
0.177926 -0.34532 -0.582 122 79 73
0.179342 -0.345913 -0.583 123 80 74
0.180762 -0.346507 -0.584 124 81 75
0.182186 -0.3471 -0.585 124 81 75
0.183613 -0.347693 -0.586 121 80 76
0.185045 -0.348287 -0.587 121 80 76
0.18648 -0.34888 -0.588 122 83 78
0.188238 -0.350067 -0.59 123 84 79
0.189683 -0.35066 -0.591 121 82 77
0.191454 -0.351847 -0.593 121 82 77
0.192584 -0.351847 -0.593 121 82 77
0.19404 -0.35244 -0.594 115 78 69
0.195829 -0.353627 -0.596 120 83 74
0.197625 -0.354813 -0.598 119 79 71
0.198431 -0.35422 -0.597 122 79 70
0.200237 -0.355407 -0.599 122 77 71
0.20205 -0.356593 -0.601 126 81 75
0.226152 -0.367867 -0.62 160 158 172
0.227333 -0.367867 -0.62 164 162 176
0.228514 -0.367867 -0.62 172 170 191
0.229695 -0.367867 -0.62 170 168 189
0.231249 -0.36846 -0.621 170 171 192
0.232431 -0.36846 -0.621 175 176 197
0.233614 -0.36846 -0.621 174 173 191
0.234797 -0.36846 -0.621 174 173 191
0.23598 -0.36846 -0.621 168 168 194
0.237163 -0.36846 -0.621 132 132 158
0.238346 -0.36846 -0.621 97 96 136
0.239143 -0.367867 -0.62 112 111 151
0.240324 -0.367867 -0.62 120 129 162
0.241505 -0.367867 -0.62 136 145 178
0.242686 -0.367867 -0.62 110 125 164
0.243867 -0.367867 -0.62 113 128 167
0.245048 -0.367867 -0.62 113 128 167
0.246229 -0.367867 -0.62 127 153 204
0.24741 -0.367867 -0.62 113 139 190
0.24859 -0.367867 -0.62 82 113 177
0.249771 -0.367867 -0.62 80 111 175
0.250952 -0.367867 -0.62 85 119 182
0.372257 -0.35956 -0.606 186 142 141
0.345779 -0.329893 -0.556 189 142 136
0.341848 -0.325147 -0.548 191 144 138
0.340389 -0.322773 -0.544 189 141 137
0.338914 -0.3204 -0.54 190 142 138
0.338684 -0.319213 -0.538 194 143 139
0.339077 -0.31862 -0.537 196 145 141
0.338833 -0.317433 -0.535 195 147 143
0.339217 -0.31684 -0.534 198 150 146
0.339597 -0.316247 -0.533 202 154 140
0.340612 -0.316247 -0.533 202 154 140
0.341628 -0.316247 -0.533 198 150 138
0.342 -0.315653 -0.532 200 152 140
0.343013 -0.315653 -0.532 200 152 140
0.34338 -0.31506 -0.531 199 151 139
0.344391 -0.31506 -0.531 200 152 140
0.345403 -0.31506 -0.531 200 152 140
0.345762 -0.314467 -0.53 199 151 139
0.346771 -0.314467 -0.53 198 150 138
0.347781 -0.314467 -0.53 196 148 136
0.34879 -0.314467 -0.53 198 150 138
0.3498 -0.314467 -0.53 195 147 135
0.35081 -0.314467 -0.53 195 147 135
0.352483 -0.31506 -0.531 195 147 135
0.353494 -0.31506 -0.531 195 147 135
0.354506 -0.31506 -0.531 193 145 133
0.355517 -0.31506 -0.531 192 144 132
0.356529 -0.31506 -0.531 187 139 127
0.35754 -0.31506 -0.531 190 138 125
0.359227 -0.315653 -0.532 190 138 125
0.36024 -0.315653 -0.532 189 137 124
0.361932 -0.316247 -0.533 188 136 123
0.362948 -0.316247 -0.533 188 136 123
0.363963 -0.316247 -0.533 186 134 121
0.364978 -0.316247 -0.533 185 133 120
0.365993 -0.316247 -0.533 187 135 122
0.367697 -0.31684 -0.534 187 135 122
0.368714 -0.31684 -0.534 189 137 124
0.369731 -0.31684 -0.534 188 136 123
0.370054 -0.316247 -0.533 188 136 123
0.37107 -0.316247 -0.533 189 137 124
0.372085 -0.316247 -0.533 190 138 125
0.3731 -0.316247 -0.533 191 139 126
0.374115 -0.316247 -0.533 193 141 128
0.37513 -0.316247 -0.533 198 145 139
0.376146 -0.316247 -0.533 199 146 140
0.377161 -0.316247 -0.533 197 144 136
0.378176 -0.316247 -0.533 195 142 134
0.379191 -0.316247 -0.533 194 141 133
0.380207 -0.316247 -0.533 192 139 131
0.381222 -0.316247 -0.533 189 136 128
0.382954 -0.31684 -0.534 188 135 127
0.383971 -0.31684 -0.534 188 135 127
0.384989 -0.31684 -0.534 185 132 124
0.386006 -0.31684 -0.534 181 128 120
0.387023 -0.31684 -0.534 182 130 119
0.388767 -0.317433 -0.535 187 135 124
0.390514 -0.318027 -0.536 187 135 124
0.392266 -0.31862 -0.537 187 135 124
0.394021 -0.319213 -0.538 187 135 124
0.396514 -0.3204 -0.54 186 134 123
0.398279 -0.320993 -0.541 188 135 121
0.45391 -0.354813 -0.598 234 236 248
0.458854 -0.35778 -0.603 231 233 245
1.13995 -0.37202 -0.627 205 207 194
1.1375 -0.370833 -0.625 203 205 194
1.13687 -0.37024 -0.624 202 204 193
1.13441 -0.369053 -0.622 204 206 195
0.0881286 -0.355357 -0.597 198 149 145
0.0886676 -0.352976 -0.593 197 148 144
0.08904 -0.35 -0.588 193 144 137
0.0890867 -0.345833 -0.581 193 144 137
0.0894171 -0.342857 -0.576 192 145 139
0.0900429 -0.341071 -0.573 192 145 139
0.0904981 -0.33869 -0.569 193 144 140
0.091421 -0.338095 -0.568 193 144 140
0.0921771 -0.336905 -0.566 194 143 139
0.0930905 -0.33631 -0.565 196 145 141
0.094 -0.335714 -0.564 198 147 143
0.0949057 -0.335119 -0.563 197 146 142
0.0959781 -0.335119 -0.563 198 145 141
0.0968781 -0.334524 -0.562 198 145 141
0.0979486 -0.334524 -0.562 199 146 142
0.0988429 -0.333929 -0.561 200 147 143
0.0999114 -0.333929 -0.561 199 146 140
0.1008 -0.333333 -0.56 197 144 138
0.101867 -0.333333 -0.56 195 142 136
0.10275 -0.332738 -0.559 195 142 136
0.103814 -0.332738 -0.559 197 144 138
0.104879 -0.332738 -0.559 194 141 135
0.105944 -0.332738 -0.559 195 140 135
0.106817 -0.332143 -0.558 195 140 135
0.10788 -0.332143 -0.558 195 140 135
0.108943 -0.332143 -0.558 199 144 139
0.110006 -0.332143 -0.558 198 143 138
0.111069 -0.332143 -0.558 194 139 134
0.11193 -0.331548 -0.557 192 137 132
0.112991 -0.331548 -0.557 192 137 132
0.114052 -0.331548 -0.557 191 136 131
0.115113 -0.331548 -0.557 191 136 131
0.116174 -0.331548 -0.557 189 131 127
0.117235 -0.331548 -0.557 188 130 126
0.118296 -0.331548 -0.557 185 128 121
0.119357 -0.331548 -0.557 183 126 119
0.120418 -0.331548 -0.557 185 128 119
0.121479 -0.331548 -0.557 182 125 116
0.12276 -0.332143 -0.558 183 124 116
0.123823 -0.332143 -0.558 187 128 120
0.124886 -0.332143 -0.558 181 123 112
0.125949 -0.332143 -0.558 179 121 110
0.127011 -0.332143 -0.558 178 120 109
0.128304 -0.332738 -0.559 178 120 109
0.1296 -0.333333 -0.56 174 118 105
0.130667 -0.333333 -0.56 170 114 101
0.131733 -0.333333 -0.56 170 114 101
0.133037 -0.333929 -0.561 161 108 94
0.134106 -0.333929 -0.561 156 103 89
0.135415 -0.334524 -0.562 155 102 88
0.136729 -0.335119 -0.563 155 102 88
0.137801 -0.335119 -0.563 156 100 87
0.13912 -0.335714 -0.564 155 99 86
0.140443 -0.33631 -0.565 153 96 85
0.14177 -0.336905 -0.566 152 95 84
0.1431 -0.3375 -0.567 151 97 85
0.14418 -0.3375 -0.567 150 96 84
0.145516 -0.338095 -0.568 149 95 83
0.146598 -0.338095 -0.568 148 94 82
0.14794 -0.33869 -0.569 147 93 81
0.149024 -0.33869 -0.569 146 92 80
0.150371 -0.339286 -0.57 140 92 82
0.151723 -0.339881 -0.571 138 90 80
0.15281 -0.339881 -0.571 135 87 77
0.154168 -0.340476 -0.572 134 86 76
0.155257 -0.340476 -0.572 134 86 76
0.156347 -0.340476 -0.572 135 87 77
0.157711 -0.341071 -0.573 133 84 77
0.158803 -0.341071 -0.573 131 82 75
0.160173 -0.341667 -0.574 131 84 76
0.161267 -0.341667 -0.574 131 84 76
0.162643 -0.342262 -0.575 132 85 77
0.163738 -0.342262 -0.575 132 85 77
0.16512 -0.342857 -0.576 131 84 76
0.166217 -0.342857 -0.576 131 84 76
0.167605 -0.343452 -0.577 131 84 78
0.168704 -0.343452 -0.577 130 83 77
0.170097 -0.344048 -0.578 126 81 75
0.171198 -0.344048 -0.578 125 80 74
0.172597 -0.344643 -0.579 125 80 74
0.174 -0.345238 -0.58 125 80 74
0.175407 -0.345833 -0.581 124 81 74
0.176817 -0.346429 -0.582 124 81 74
0.178231 -0.347024 -0.583 124 81 74
0.17965 -0.347619 -0.584 122 79 72
0.181071 -0.348214 -0.585 124 81 75
0.182497 -0.34881 -0.586 124 81 75
0.183927 -0.349405 -0.587 121 80 74
0.185675 -0.350595 -0.589 121 80 74
0.187114 -0.35119 -0.59 124 83 77
0.188557 -0.351786 -0.591 125 84 78
0.190325 -0.352976 -0.593 124 83 79
0.191777 -0.353571 -0.594 124 83 79
0.192909 -0.353571 -0.594 124 83 79
0.194693 -0.354762 -0.596 119 81 72
0.195829 -0.354762 -0.596 120 83 74
0.197625 -0.355952 -0.598 119 79 71
0.199096 -0.356548 -0.599 117 77 69
0.22225 -0.368452 -0.619 121 118 137
0.22343 -0.368452 -0.619 157 153 168
0.224609 -0.368452 -0.619 166 162 177
0.225788 -0.368452 -0.619 167 165 179
0.227333 -0.369048 -0.62 169 167 181
0.228514 -0.369048 -0.62 169 170 190
0.229695 -0.369048 -0.62 166 167 187
0.230876 -0.369048 -0.62 172 173 194
0.232057 -0.369048 -0.62 173 174 195
0.233614 -0.369643 -0.621 169 170 191
0.234797 -0.369643 -0.621 164 165 186
0.23598 -0.369643 -0.621 144 143 174
0.236781 -0.369048 -0.62 95 94 125
0.237962 -0.369048 -0.62 83 85 123
0.239143 -0.369048 -0.62 128 130 168
0.240324 -0.369048 -0.62 165 170 199
0.241505 -0.369048 -0.62 179 184 213
0.242686 -0.369048 -0.62 148 161 195
0.243867 -0.369048 -0.62 144 157 191
0.245048 -0.369048 -0.62 144 157 191
0.246229 -0.369048 -0.62 149 173 219
0.369266 -0.358929 -0.603 184 139 134
0.370414 -0.358929 -0.603 184 139 134
0.344535 -0.329762 -0.554 188 139 132
0.3406 -0.325 -0.546 191 142 135
0.339137 -0.322619 -0.542 189 142 136
0.338287 -0.320833 -0.539 191 144 138
0.338054 -0.319643 -0.537 196 143 137
0.338446 -0.319048 -0.536 198 145 139
0.3382 -0.317857 -0.534 196 149 143
0.338582 -0.317262 -0.533 196 149 143
0.339597 -0.317262 -0.533 197 151 136
0.339973 -0.316667 -0.532 196 150 135
0.340987 -0.316667 -0.532 195 147 135
0.341357 -0.316071 -0.531 195 147 135
0.342369 -0.316071 -0.531 194 146 134
0.34338 -0.316071 -0.531 194 146 134
0.343743 -0.315476 -0.53 197 149 137
0.344752 -0.315476 -0.53 200 152 140
0.34511 -0.314881 -0.529 202 154 142
0.346117 -0.314881 -0.529 203 155 143
0.347125 -0.314881 -0.529 198 150 138
0.348132 -0.314881 -0.529 199 151 139
0.34914 -0.314881 -0.529 196 148 136
0.350148 -0.314881 -0.529 196 148 136
0.351155 -0.314881 -0.529 195 147 135
0.352163 -0.314881 -0.529 195 147 135
0.35317 -0.314881 -0.529 193 145 133
0.354178 -0.314881 -0.529 193 145 133
0.355186 -0.314881 -0.529 190 142 130
0.356867 -0.315476 -0.53 187 137 126
0.357876 -0.315476 -0.53 187 137 126
0.359563 -0.316071 -0.531 186 136 125
0.360574 -0.316071 -0.531 186 136 125
0.361586 -0.316071 -0.531 188 136 125
0.362597 -0.316071 -0.531 186 134 123
0.363609 -0.316071 -0.531 184 132 121
0.36462 -0.316071 -0.531 185 133 122
0.36632 -0.316667 -0.532 182 130 119
0.367333 -0.316667 -0.532 183 131 120
0.368347 -0.316667 -0.532 184 132 121
0.36936 -0.316667 -0.532 185 133 122
0.370373 -0.316667 -0.532 186 134 123
0.371387 -0.316667 -0.532 186 134 123
0.3724 -0.316667 -0.532 186 134 123
0.373413 -0.316667 -0.532 187 135 124
0.374427 -0.316667 -0.532 189 136 128
0.37544 -0.316667 -0.532 189 136 128
0.376453 -0.316667 -0.532 189 136 128
0.377467 -0.316667 -0.532 189 136 128
0.37848 -0.316667 -0.532 188 135 127
0.379493 -0.316667 -0.532 189 136 128
0.380507 -0.316667 -0.532 189 136 128
0.38152 -0.316667 -0.532 188 135 127
0.382533 -0.316667 -0.532 188 135 127
0.383547 -0.316667 -0.532 182 129 121
0.385283 -0.317262 -0.533 181 128 120
0.386298 -0.317262 -0.533 184 131 123
0.387313 -0.317262 -0.533 187 134 126
0.389057 -0.317857 -0.534 186 133 125
0.390805 -0.318452 -0.535 186 133 125
0.392556 -0.319048 -0.536 185 133 122
0.394311 -0.319643 -0.537 179 127 116
0.396807 -0.320833 -0.539 182 126 113
0.398571 -0.321429 -0.54 179 123 110
0.40182 -0.323214 -0.543 169 119 108
0.40508 -0.325 -0.546 162 112 101
0.408351 -0.326786 -0.549 157 107 98
0.41238 -0.329167 -0.553 156 106 97
0.416424 -0.331548 -0.557 157 109 99
0.421232 -0.334524 -0.562 157 109 99
0.449356 -0.352381 -0.592 230 227 238
0.45505 -0.355952 -0.598 232 229 240
0.460003 -0.358929 -0.603 244 250 255
1.13932 -0.372619 -0.626 202 204 191
1.13687 -0.371429 -0.624 202 204 191
1.13623 -0.370833 -0.623 202 204 191
1.13377 -0.369643 -0.621 202 204 191
0.0878333 -0.3553 -0.595 198 147 143
0.0883686 -0.352911 -0.591 196 145 141
0.0885857 -0.349329 -0.585 194 145 140
0.0886267 -0.345149 -0.578 192 143 138
0.0891067 -0.34276 -0.574 190 145 140
0.0895714 -0.340371 -0.57 191 146 141
0.0903391 -0.339177 -0.568 193 145 143
0.091099 -0.337983 -0.566 192 144 142
0.0920143 -0.337386 -0.565 195 144 141
0.0929257 -0.336789 -0.564 197 146 143
0.094 -0.336789 -0.564 198 147 143
0.0949057 -0.336191 -0.563 197 146 142
0.0959781 -0.336191 -0.563 196 146 139
0.0968781 -0.335594 -0.562 196 146 139
0.0977743 -0.334997 -0.561 197 147 140
0.0988429 -0.334997 -0.561 198 148 141
0.0997333 -0.3344 -0.56 199 146 140
0.1008 -0.3344 -0.56 197 144 138
0.101685 -0.333803 -0.559 195 142 136
0.10275 -0.333803 -0.559 194 141 135
0.103629 -0.333206 -0.558 196 143 137
0.104691 -0.333206 -0.558 193 140 134
0.105754 -0.333206 -0.558 194 141 135
0.106817 -0.333206 -0.558 194 141 135
0.107687 -0.332609 -0.557 194 139 134
0.108748 -0.332609 -0.557 197 142 137
0.109809 -0.332609 -0.557 197 142 137
0.11087 -0.332609 -0.557 196 141 136
0.11193 -0.332609 -0.557 191 136 129
0.112991 -0.332609 -0.557 188 133 126
0.114052 -0.332609 -0.557 185 130 123
0.115113 -0.332609 -0.557 187 132 125
0.116174 -0.332609 -0.557 184 127 120
0.117235 -0.332609 -0.557 185 128 121
0.118296 -0.332609 -0.557 183 126 119
0.119357 -0.332609 -0.557 184 127 120
0.120418 -0.332609 -0.557 180 123 114
0.121479 -0.332609 -0.557 180 123 114
0.12254 -0.332609 -0.557 182 123 115
0.123823 -0.333206 -0.558 186 127 119
0.124886 -0.333206 -0.558 181 122 114
0.125949 -0.333206 -0.558 177 118 110
0.127239 -0.333803 -0.559 178 119 111
0.128304 -0.333803 -0.559 177 118 110
0.1296 -0.3344 -0.56 170 116 104
0.130667 -0.3344 -0.56 170 116 104
0.131733 -0.3344 -0.56 166 112 100
0.133037 -0.334997 -0.561 161 107 95
0.134106 -0.334997 -0.561 156 102 90
0.135415 -0.335594 -0.562 155 101 89
0.136729 -0.336191 -0.563 155 101 89
0.138046 -0.336789 -0.564 153 99 89
0.13912 -0.336789 -0.564 151 97 87
0.140443 -0.337386 -0.565 150 96 86
0.14177 -0.337983 -0.566 150 96 86
0.1431 -0.33858 -0.567 150 96 86
0.144434 -0.339177 -0.568 149 95 85
0.145516 -0.339177 -0.568 148 94 84
0.146856 -0.339774 -0.569 148 94 84
0.14794 -0.339774 -0.569 148 91 82
0.149286 -0.340371 -0.57 146 89 80
0.150635 -0.340969 -0.571 140 91 84
0.151723 -0.340969 -0.571 138 89 82
0.153078 -0.341566 -0.572 137 88 81
0.154168 -0.341566 -0.572 135 86 79
0.155257 -0.341566 -0.572 135 86 79
0.15662 -0.342163 -0.573 134 85 78
0.157711 -0.342163 -0.573 133 84 79
0.15908 -0.34276 -0.574 131 82 77
0.160173 -0.34276 -0.574 132 85 79
0.161267 -0.34276 -0.574 132 85 79
0.162643 -0.343357 -0.575 131 84 78
0.164023 -0.343954 -0.576 131 84 78
0.16512 -0.343954 -0.576 131 84 78
0.166506 -0.344551 -0.577 130 83 77
0.167605 -0.344551 -0.577 129 82 76
0.168996 -0.345149 -0.578 127 80 74
0.170391 -0.345746 -0.579 125 81 72
0.171494 -0.345746 -0.579 125 81 72
0.172895 -0.346343 -0.58 124 79 73
0.1743 -0.34694 -0.581 124 79 73
0.175709 -0.347537 -0.582 124 79 73
0.177121 -0.348134 -0.583 126 81 75
0.178537 -0.348731 -0.584 125 82 75
0.179957 -0.349329 -0.585 125 82 75
0.181381 -0.349926 -0.586 122 79 73
0.18312 -0.35112 -0.588 122 79 73
0.184553 -0.351717 -0.589 120 79 73
0.18599 -0.352314 -0.59 121 80 74
0.187749 -0.353509 -0.592 124 83 77
0.189195 -0.354106 -0.593 125 84 78
0.190967 -0.3553 -0.595 125 84 80
0.192423 -0.355897 -0.596 126 85 81
0.192909 -0.354703 -0.594 124 83 79
0.194693 -0.355897 -0.596 119 81 72
0.196486 -0.357091 -0.598 120 82 73
0.197955 -0.357689 -0.599 121 84 78
0.219537 -0.369034 -0.618 156 153 170
0.220714 -0.369034 -0.618 118 115 132
0.22225 -0.369631 -0.619 116 113 130
0.22343 -0.369631 -0.619 157 153 170
0.224609 -0.369631 -0.619 168 164 181
0.225788 -0.369631 -0.619 164 161 178
0.226967 -0.369631 -0.619 167 164 181
0.228146 -0.369631 -0.619 168 169 187
0.229325 -0.369631 -0.619 172 173 191
0.230504 -0.369631 -0.619 168 170 193
0.231683 -0.369631 -0.619 180 182 205
0.233238 -0.370229 -0.62 169 170 200
0.234419 -0.370229 -0.62 136 137 167
0.2356 -0.370229 -0.62 108 108 142
0.236781 -0.370229 -0.62 85 85 119
0.237962 -0.370229 -0.62 110 113 146
0.238757 -0.369631 -0.619 159 162 195
0.239936 -0.369631 -0.619 183 188 210
0.241115 -0.369631 -0.619 185 190 212
0.242294 -0.369631 -0.619 166 177 205
0.243473 -0.369631 -0.619 166 177 205
0.244652 -0.369631 -0.619 160 171 199
0.245831 -0.369631 -0.619 162 184 225
0.24701 -0.369631 -0.619 132 154 195
0.24819 -0.369631 -0.619 96 128 179
0.249369 -0.369631 -0.619 101 133 184
0.250548 -0.369631 -0.619 104 137 191
0.255264 -0.369631 -0.619 185 204 237
0.256443 -0.369631 -0.619 176 195 228
0.257622 -0.369631 -0.619 190 201 229
0.258801 -0.369631 -0.619 209 220 248
0.367429 -0.358286 -0.6 185 136 131
0.368571 -0.358286 -0.6 185 136 131
0.34534 -0.332609 -0.557 183 134 129
0.342048 -0.328429 -0.55 188 138 127
0.339352 -0.324846 -0.544 191 141 130
0.337886 -0.322457 -0.54 189 141 131
0.337031 -0.320666 -0.537 191 143 133
0.337425 -0.320069 -0.536 194 141 133
0.337814 -0.319471 -0.535 198 145 137
0.3382 -0.318874 -0.534 197 150 142
0.337947 -0.31768 -0.532 196 149 141
0.33896 -0.31768 -0.532 193 150 134
0.339334 -0.317083 -0.531 191 148 132
0.340346 -0.317083 -0.531 195 147 133
0.341357 -0.317083 -0.531 195 147 133
0.341724 -0.316486 -0.53 195 147 133
0.342733 -0.316486 -0.53 195 147 133
0.343094 -0.315889 -0.529 197 149 135
0.344102 -0.315889 -0.529 199 151 137
0.344457 -0.315291 -0.528 201 153 139
0.344809 -0.314694 -0.527 204 156 142
0.345812 -0.314694 -0.527 202 153 139
0.346816 -0.314694 -0.527 200 151 137
0.34782 -0.314694 -0.527 197 148 134
0.348824 -0.314694 -0.527 196 147 133
0.350491 -0.315291 -0.528 195 146 132
0.351497 -0.315291 -0.528 195 146 132
0.352503 -0.315291 -0.528 194 145 131
0.353509 -0.315291 -0.528 193 144 130
0.354514 -0.315291 -0.528 192 143 129
0.35552 -0.315291 -0.528 192 139 131
0.357201 -0.315889 -0.529 190 137 129
0.358209 -0.315889 -0.529 188 135 127
0.359216 -0.315889 -0.529 189 136 128
0.360905 -0.316486 -0.53 189 136 128
0.361914 -0.316486 -0.53 187 134 126
0.362924 -0.316486 -0.53 185 132 124
0.363933 -0.316486 -0.53 185 132 124
0.364943 -0.316486 -0.53 178 128 119
0.365952 -0.316486 -0.53 177 127 118
0.366962 -0.316486 -0.53 178 128 119
0.367971 -0.316486 -0.53 180 130 121
0.368981 -0.316486 -0.53 181 131 122
0.36999 -0.316486 -0.53 181 131 122
0.371 -0.316486 -0.53 182 132 123
0.37201 -0.316486 -0.53 182 132 123
0.373019 -0.316486 -0.53 184 131 123
0.374029 -0.316486 -0.53 183 130 122
0.375038 -0.316486 -0.53 185 132 124
0.376048 -0.316486 -0.53 187 134 126
0.377057 -0.316486 -0.53 186 133 125
0.378067 -0.316486 -0.53 188 135 127
0.379076 -0.316486 -0.53 189 136 128
0.380803 -0.317083 -0.531 187 134 126
0.381814 -0.317083 -0.531 187 134 126
0.382826 -0.317083 -0.531 181 128 120
0.383837 -0.317083 -0.531 182 129 121
0.385573 -0.31768 -0.532 186 133 125
0.386587 -0.31768 -0.532 185 132 124
0.388329 -0.318277 -0.533 183 130 122
0.390074 -0.318874 -0.534 186 133 125
0.391824 -0.319471 -0.535 185 132 124
0.393577 -0.320069 -0.536 177 124 116
0.395334 -0.320666 -0.537 181 123 109
0.397095 -0.321263 -0.538 178 120 106
0.3996 -0.322457 -0.54 171 119 108
0.402854 -0.324249 -0.543 166 114 103
0.40612 -0.32604 -0.546 158 109 102
0.409397 -0.327831 -0.549 157 108 101
0.413433 -0.33022 -0.553 157 108 101
0.417485 -0.332609 -0.557 154 105 98
0.461151 -0.360077 -0.603 241 239 250
1.1375 -0.373214 -0.625 202 204 191
1.13687 -0.372617 -0.624 202 204 191
1.13623 -0.37202 -0.623 202 204 191
1.13377 -0.370826 -0.621 202 204 191
0.0872429 -0.354037 -0.591 196 145 141
0.0877705 -0.351641 -0.587 192 141 137
0.0881314 -0.348646 -0.582 193 144 139
0.0881667 -0.344452 -0.575 190 141 136
0.0886409 -0.342056 -0.571 189 144 139
0.0892571 -0.340259 -0.568 191 146 141
0.0900209 -0.339061 -0.566 193 145 143
0.0909381 -0.338462 -0.565 193 145 143
0.0916886 -0.337264 -0.563 199 146 142
0.0929257 -0.337863 -0.564 197 146 143
0.0938333 -0.337264 -0.563 197 147 140
0.0947371 -0.336665 -0.562 197 147 140
0.0958076 -0.336665 -0.562 199 148 144
0.0967057 -0.336066 -0.561 197 146 142
0.0977743 -0.336066 -0.561 198 147 143
0.0986667 -0.335467 -0.56 199 148 144
0.0997333 -0.335467 -0.56 199 148 144
0.1008 -0.335467 -0.56 198 147 143
0.101685 -0.334868 -0.559 197 147 140
0.102566 -0.334269 -0.558 196 146 139
0.103629 -0.334269 -0.558 196 143 137
0.104691 -0.334269 -0.558 192 139 133
0.105754 -0.334269 -0.558 193 140 134
0.106626 -0.33367 -0.557 194 141 135
0.107687 -0.33367 -0.557 193 140 134
0.108748 -0.33367 -0.557 193 140 134
0.109809 -0.33367 -0.557 194 141 135
0.11087 -0.33367 -0.557 194 141 135
0.11193 -0.33367 -0.557 193 139 129
0.112991 -0.33367 -0.557 188 134 124
0.113848 -0.33307 -0.556 186 132 122
0.114907 -0.33307 -0.556 190 136 126
0.115966 -0.33307 -0.556 182 128 118
0.117025 -0.33307 -0.556 180 126 116
0.118084 -0.33307 -0.556 182 125 116
0.119143 -0.33307 -0.556 185 128 119
0.120418 -0.33367 -0.557 175 118 109
0.121479 -0.33367 -0.557 177 120 111
0.12254 -0.33367 -0.557 181 122 114
0.123823 -0.334269 -0.558 183 124 116
0.124886 -0.334269 -0.558 180 121 113
0.125949 -0.334269 -0.558 177 118 110
0.127239 -0.334868 -0.559 178 119 111
0.128304 -0.334868 -0.559 173 114 106
0.129369 -0.334868 -0.559 173 114 106
0.130667 -0.335467 -0.56 168 114 104
0.131733 -0.335467 -0.56 164 110 100
0.133037 -0.336066 -0.561 159 105 95
0.134345 -0.336665 -0.562 156 102 92
0.135415 -0.336665 -0.562 156 102 92
0.136729 -0.337264 -0.563 156 102 92
0.138046 -0.337863 -0.564 154 100 90
0.139367 -0.338462 -0.565 150 96 86
0.140443 -0.338462 -0.565 150 95 88
0.14177 -0.339061 -0.566 150 95 88
0.1431 -0.33966 -0.567 150 95 88
0.144434 -0.340259 -0.568 148 93 86
0.145772 -0.340858 -0.569 148 93 86
0.146856 -0.340858 -0.569 147 92 85
0.1482 -0.341457 -0.57 145 90 83
0.149286 -0.341457 -0.57 143 88 81
0.150635 -0.342056 -0.571 139 90 83
0.151989 -0.342655 -0.572 138 89 82
0.153078 -0.342655 -0.572 136 87 80
0.154168 -0.342655 -0.572 135 86 79
0.155529 -0.343254 -0.573 134 85 78
0.15662 -0.343254 -0.573 133 84 77
0.157987 -0.343853 -0.574 133 84 77
0.15908 -0.343853 -0.574 134 85 78
0.160452 -0.344452 -0.575 133 86 78
0.161548 -0.344452 -0.575 132 85 77
0.162926 -0.345051 -0.576 131 84 76
0.164023 -0.345051 -0.576 130 83 75
0.165407 -0.34565 -0.577 130 83 75
0.166794 -0.34625 -0.578 130 83 75
0.167895 -0.34625 -0.578 129 82 74
0.169289 -0.346849 -0.579 129 82 74
0.170686 -0.347448 -0.58 126 81 75
0.17179 -0.347448 -0.58 126 81 75
0.173193 -0.348047 -0.581 125 80 74
0.1746 -0.348646 -0.582 123 78 72
0.17601 -0.349245 -0.583 123 78 72
0.177425 -0.349844 -0.584 125 80 74
0.178843 -0.350443 -0.585 125 82 76
0.180572 -0.351641 -0.587 126 83 77
0.182 -0.35224 -0.588 125 82 76
0.183431 -0.352839 -0.589 124 81 75
0.184867 -0.353438 -0.59 124 81 75
0.186621 -0.354636 -0.592 124 81 75
0.188066 -0.355235 -0.593 122 81 77
0.189833 -0.356433 -0.595 124 83 79
0.190967 -0.356433 -0.595 125 84 80
0.1921 -0.356433 -0.595 125 84 80
0.193558 -0.357032 -0.596 126 85 81
0.195347 -0.35823 -0.598 120 81 74
0.196814 -0.35883 -0.599 121 82 75
0.220714 -0.370211 -0.618 158 155 174
0.221891 -0.370211 -0.618 146 143 162
0.22343 -0.37081 -0.619 163 160 179
0.224609 -0.37081 -0.619 168 165 184
0.225788 -0.37081 -0.619 168 167 185
0.226967 -0.37081 -0.619 172 171 189
0.228146 -0.37081 -0.619 172 173 191
0.229325 -0.37081 -0.619 174 175 193
0.230504 -0.37081 -0.619 170 172 197
0.231683 -0.37081 -0.619 165 167 192
0.232862 -0.37081 -0.619 140 143 178
0.234041 -0.37081 -0.619 98 101 136
0.23522 -0.37081 -0.619 79 83 118
0.236399 -0.37081 -0.619 97 101 136
0.237578 -0.37081 -0.619 149 154 183
0.238757 -0.37081 -0.619 170 175 204
0.239936 -0.37081 -0.619 180 182 205
0.241115 -0.37081 -0.619 186 188 211
0.242294 -0.37081 -0.619 170 177 205
0.243473 -0.37081 -0.619 170 177 205
0.244652 -0.37081 -0.619 166 173 201
0.245831 -0.37081 -0.619 166 184 222
0.366896 -0.360028 -0.601 163 149 164
0.364979 -0.357032 -0.596 185 135 128
0.366114 -0.357032 -0.596 185 135 128
0.35046 -0.33966 -0.567 178 127 123
0.34348 -0.331872 -0.554 181 130 126
0.340804 -0.328278 -0.548 186 134 123
0.338729 -0.325283 -0.543 187 135 124
0.33726 -0.322887 -0.539 183 135 125
0.337031 -0.321689 -0.537 185 137 127
0.336795 -0.32049 -0.535 190 138 127
0.337183 -0.319891 -0.534 196 144 133
0.337567 -0.319292 -0.533 196 148 138
0.337947 -0.318693 -0.532 195 147 137
0.338323 -0.318094 -0.531 190 148 134
0.339334 -0.318094 -0.531 189 147 133
0.339705 -0.317495 -0.53 192 144 130
0.340714 -0.317495 -0.53 194 146 132
0.341724 -0.317495 -0.53 198 149 135
0.342087 -0.316896 -0.529 200 151 137
0.343094 -0.316896 -0.529 200 151 137
0.343451 -0.316297 -0.528 200 151 137
0.343805 -0.315698 -0.527 201 152 138
0.344809 -0.315698 -0.527 203 154 140
0.345812 -0.315698 -0.527 200 151 137
0.346816 -0.315698 -0.527 197 148 134
0.34716 -0.315099 -0.526 195 146 132
0.348162 -0.315099 -0.526 194 145 131
0.349828 -0.315698 -0.527 194 145 131
0.350831 -0.315698 -0.527 194 145 131
0.351168 -0.315099 -0.526 194 145 131
0.35217 -0.315099 -0.526 192 143 129
0.353843 -0.315698 -0.527 192 143 129
0.354847 -0.315698 -0.527 194 142 131
0.35585 -0.315698 -0.527 192 140 129
0.357531 -0.316297 -0.528 190 138 127
0.358537 -0.316297 -0.528 189 137 126
0.359543 -0.316297 -0.528 189 137 126
0.360549 -0.316297 -0.528 186 134 123
0.361554 -0.316297 -0.528 185 133 122
0.36256 -0.316297 -0.528 186 134 123
0.363566 -0.316297 -0.528 179 129 118
0.364571 -0.316297 -0.528 177 127 116
0.365577 -0.316297 -0.528 177 127 116
0.366583 -0.316297 -0.528 177 127 116
0.367589 -0.316297 -0.528 178 128 117
0.368594 -0.316297 -0.528 178 128 117
0.3696 -0.316297 -0.528 180 130 119
0.370606 -0.316297 -0.528 182 132 121
0.372315 -0.316896 -0.529 184 132 121
0.373323 -0.316896 -0.529 184 132 121
0.37433 -0.316896 -0.529 186 134 123
0.375338 -0.316896 -0.529 187 135 124
0.376346 -0.316896 -0.529 186 134 123
0.377353 -0.316896 -0.529 185 133 122
0.378361 -0.316896 -0.529 185 133 122
0.379369 -0.316896 -0.529 183 131 120
0.380376 -0.316896 -0.529 183 131 120
0.382105 -0.317495 -0.53 181 129 118
0.383114 -0.317495 -0.53 181 129 118
0.384849 -0.318094 -0.531 183 131 120
0.38586 -0.318094 -0.531 181 129 118
0.3876 -0.318693 -0.532 179 127 116
0.388613 -0.318693 -0.532 184 132 121
0.390359 -0.319292 -0.533 185 133 122
0.392109 -0.319891 -0.534 180 128 117
0.393862 -0.32049 -0.535 178 122 107
0.395619 -0.32109 -0.536 179 123 108
0.39812 -0.322288 -0.538 173 123 112
0.400629 -0.323486 -0.54 168 118 107
0.403889 -0.325283 -0.543 160 113 107
0.406414 -0.326481 -0.545 156 109 103
0.409695 -0.328278 -0.548 152 105 97
0.457328 -0.35823 -0.598 242 232 240
0.463067 -0.361825 -0.604 239 237 255
1.1375 -0.374405 -0.625 202 204 190
1.13687 -0.373806 -0.624 201 203 189
1.13441 -0.372608 -0.622 201 203 189
1.13377 -0.372009 -0.621 201 203 189
0.0865543 -0.356966 -0.594 192 149 143
0.0869476 -0.353961 -0.589 196 143 137
0.0871724 -0.350355 -0.583 195 142 136
0.0875257 -0.34735 -0.578 194 145 138
0.0877067 -0.343745 -0.572 191 142 135
0.0883305 -0.341942 -0.569 190 145 140
0.0889429 -0.340139 -0.566 191 146 141
0.0897029 -0.338937 -0.564 194 144 143
0.0906162 -0.338336 -0.563 194 144 143
0.0916886 -0.338336 -0.563 199 146 142
0.092761 -0.338336 -0.563 199 146 142
0.0936667 -0.337735 -0.562 199 146 138
0.0947371 -0.337735 -0.562 200 147 139
0.0956371 -0.337134 -0.561 197 146 142
0.0967057 -0.337134 -0.561 197 146 142
0.0976 -0.336533 -0.56 198 147 143
0.0986667 -0.336533 -0.56 199 148 144
0.0995552 -0.335932 -0.559 199 148 144
0.10062 -0.335932 -0.559 198 147 143
0.101685 -0.335932 -0.559 197 147 140
0.102566 -0.335331 -0.558 196 146 139
0.103629 -0.335331 -0.558 195 145 138
0.104691 -0.335331 -0.558 189 139 132
0.105565 -0.33473 -0.557 191 138 132
0.106626 -0.33473 -0.557 193 140 134
0.107493 -0.33413 -0.556 192 139 133
0.108552 -0.33413 -0.556 193 140 134
0.109611 -0.33413 -0.556 193 140 134
0.11067 -0.33413 -0.556 193 140 134
0.11173 -0.33413 -0.556 193 139 127
0.112789 -0.33413 -0.556 189 135 123
0.113848 -0.33413 -0.556 192 138 126
0.114907 -0.33413 -0.556 193 139 127
0.115966 -0.33413 -0.556 183 129 117
0.117025 -0.33413 -0.556 177 123 111
0.118084 -0.33413 -0.556 180 123 114
0.119143 -0.33413 -0.556 183 126 117
0.120418 -0.33473 -0.557 174 117 108
0.121479 -0.33473 -0.557 175 118 109
0.12254 -0.33473 -0.557 179 122 113
0.123823 -0.335331 -0.558 178 121 112
0.124886 -0.335331 -0.558 179 120 112
0.125949 -0.335331 -0.558 176 117 109
0.127239 -0.335932 -0.559 175 116 110
0.128304 -0.335932 -0.559 175 116 110
0.129369 -0.335932 -0.559 168 109 103
0.130667 -0.336533 -0.56 165 111 101
0.131969 -0.337134 -0.561 161 107 97
0.133037 -0.337134 -0.561 157 103 93
0.134345 -0.337735 -0.562 156 102 92
0.135656 -0.338336 -0.563 157 103 93
0.136729 -0.338336 -0.563 157 103 93
0.138046 -0.338937 -0.564 154 100 90
0.139367 -0.339538 -0.565 150 96 86
0.140691 -0.340139 -0.566 150 96 86
0.14202 -0.34074 -0.567 152 98 88
0.143352 -0.341341 -0.568 151 96 89
0.144689 -0.341942 -0.569 149 94 87
0.145772 -0.341942 -0.569 147 92 85
0.146856 -0.341942 -0.569 145 90 83
0.1482 -0.342543 -0.57 143 88 81
0.149548 -0.343144 -0.571 143 88 81
0.150635 -0.343144 -0.571 137 89 79
0.151989 -0.343745 -0.572 136 88 78
0.153078 -0.343745 -0.572 135 87 77
0.154437 -0.344346 -0.573 134 86 76
0.155529 -0.344346 -0.573 133 85 75
0.156893 -0.344947 -0.574 132 84 74
0.157987 -0.344947 -0.574 132 84 74
0.159357 -0.345548 -0.575 133 85 75
0.160452 -0.345548 -0.575 131 84 74
0.161829 -0.346149 -0.576 132 85 75
0.162926 -0.346149 -0.576 131 84 76
0.164308 -0.34675 -0.577 131 84 76
0.165693 -0.34735 -0.578 131 84 76
0.167083 -0.347951 -0.579 130 83 75
0.168186 -0.347951 -0.579 131 84 76
0.169581 -0.348552 -0.58 132 85 77
0.17098 -0.349153 -0.581 126 83 77
0.172087 -0.349153 -0.581 126 83 77
0.173491 -0.349754 -0.582 125 80 75
0.1752 -0.350956 -0.584 123 78 73
0.176312 -0.350956 -0.584 122 79 73
0.178032 -0.352158 -0.586 123 80 74
0.179454 -0.352759 -0.587 122 81 77
0.18088 -0.35336 -0.588 124 83 79
0.18231 -0.353961 -0.589 124 83 79
0.184054 -0.355163 -0.591 124 83 79
0.185493 -0.355764 -0.592 125 84 80
0.186936 -0.356365 -0.593 125 84 80
0.188066 -0.356365 -0.593 122 81 77
0.189833 -0.357567 -0.595 124 83 79
0.191609 -0.358769 -0.597 126 85 81
0.192746 -0.358769 -0.597 126 85 81
0.194208 -0.35937 -0.598 126 85 81
0.219182 -0.370788 -0.617 142 135 151
0.220357 -0.370788 -0.617 163 160 181
0.221891 -0.371389 -0.618 162 159 180
0.223069 -0.371389 -0.618 166 164 185
0.224246 -0.371389 -0.618 166 164 185
0.225423 -0.371389 -0.618 166 167 187
0.2266 -0.371389 -0.618 168 169 189
0.227777 -0.371389 -0.618 173 174 194
0.228954 -0.371389 -0.618 177 178 198
0.230131 -0.371389 -0.618 170 171 201
0.231309 -0.371389 -0.618 138 139 169
0.232486 -0.371389 -0.618 103 107 145
0.233663 -0.371389 -0.618 88 92 130
0.23484 -0.371389 -0.618 106 110 145
0.236017 -0.371389 -0.618 134 138 173
0.237194 -0.371389 -0.618 164 170 194
0.238371 -0.371389 -0.618 160 166 190
0.239549 -0.371389 -0.618 143 148 170
0.240726 -0.371389 -0.618 174 179 201
0.241903 -0.371389 -0.618 168 175 203
0.24308 -0.371389 -0.618 168 175 203
0.244257 -0.371389 -0.618 161 168 196
0.245434 -0.371389 -0.618 160 173 207
0.246611 -0.371389 -0.618 131 144 178
0.363233 -0.357567 -0.595 164 141 151
0.34737 -0.337735 -0.562 177 126 125
0.34162 -0.331125 -0.551 177 126 125
0.33956 -0.32812 -0.546 182 125 116
0.338105 -0.325716 -0.542 179 122 113
0.33726 -0.323913 -0.539 177 127 120
0.336404 -0.32211 -0.536 180 130 123
0.336795 -0.32151 -0.535 188 133 126
0.337183 -0.320909 -0.534 193 138 131
0.337567 -0.320308 -0.533 192 142 133
0.337947 -0.319707 -0.532 192 142 133
0.338323 -0.319106 -0.531 190 146 135
0.338695 -0.318505 -0.53 191 147 136
0.339705 -0.318505 -0.53 193 143 132
0.340714 -0.318505 -0.53 194 144 133
0.341079 -0.317904 -0.529 198 148 137
0.342087 -0.317904 -0.529 200 150 139
0.342446 -0.317303 -0.528 200 150 139
0.343451 -0.317303 -0.528 199 149 138
0.343805 -0.316702 -0.527 198 148 137
0.344154 -0.316101 -0.526 198 148 137
0.345156 -0.316101 -0.526 198 148 137
0.346158 -0.316101 -0.526 195 145 134
0.34716 -0.316101 -0.526 194 144 133
0.348162 -0.316101 -0.526 194 144 133
0.349164 -0.316101 -0.526 196 144 133
0.350166 -0.316101 -0.526 196 144 133
0.3505 -0.3155 -0.525 196 144 133
0.3515 -0.3155 -0.525 195 143 132
0.3525 -0.3155 -0.525 195 143 132
0.354173 -0.316101 -0.526 194 142 129
0.355175 -0.316101 -0.526 193 141 128
0.356177 -0.316101 -0.526 192 140 127
0.357179 -0.316101 -0.526 190 138 125
0.358862 -0.316702 -0.527 188 136 123
0.359866 -0.316702 -0.527 187 135 122
0.36087 -0.316702 -0.527 187 135 122
0.361873 -0.316702 -0.527 188 136 123
0.362877 -0.316702 -0.527 185 133 120
0.363881 -0.316702 -0.527 182 130 117
0.364192 -0.316101 -0.526 180 128 115
0.365194 -0.316101 -0.526 178 126 113
0.366196 -0.316101 -0.526 178 126 113
0.367896 -0.316702 -0.527 179 127 114
0.3689 -0.316702 -0.527 180 128 115
0.369904 -0.316702 -0.527 181 129 116
0.370908 -0.316702 -0.527 183 131 120
0.371911 -0.316702 -0.527 184 132 121
0.372915 -0.316702 -0.527 184 132 121
0.373919 -0.316702 -0.527 183 131 120
0.374923 -0.316702 -0.527 183 131 120
0.375927 -0.316702 -0.527 180 128 117
0.37693 -0.316702 -0.527 179 127 116
0.378651 -0.317303 -0.528 179 127 116
0.379657 -0.317303 -0.528 179 127 116
0.380663 -0.317303 -0.528 180 128 117
0.382391 -0.317904 -0.529 179 127 116
0.383399 -0.317904 -0.529 179 127 116
0.384407 -0.317904 -0.529 179 127 116
0.386143 -0.318505 -0.53 179 127 116
0.387883 -0.319106 -0.531 181 129 118
0.389627 -0.319707 -0.532 183 131 120
0.391374 -0.320308 -0.533 181 129 118
0.393126 -0.320909 -0.534 176 123 109
0.394881 -0.32151 -0.535 178 125 111
0.39664 -0.32211 -0.536 172 122 113
0.399145 -0.323312 -0.538 166 116 107
0.401657 -0.324514 -0.54 159 111 107
0.404923 -0.326317 -0.543 155 107 103
0.4082 -0.32812 -0.546 150 102 98
0.411489 -0.329923 -0.549 146 98 94
0.41554 -0.332327 -0.553 145 98 90
0.42036 -0.335331 -0.558 149 102 94
0.425199 -0.338336 -0.563 152 109 102
1.13568 -0.374994 -0.624 202 204 190
1.13505 -0.374393 -0.623 201 203 189
1.13441 -0.373792 -0.622 201 203 189
1.13194 -0.37259 -0.62 201 203 189
1.1313 -0.37199 -0.619 201 203 189
0.0861171 -0.356289 -0.591 192 149 142
0.0865048 -0.353274 -0.586 195 142 136
0.0867238 -0.349657 -0.58 196 143 137
0.0870714 -0.346643 -0.575 193 144 137
0.0874 -0.343629 -0.57 190 141 134
0.08802 -0.34182 -0.567 192 147 142
0.0886286 -0.340011 -0.564 191 146 141
0.0895438 -0.339409 -0.563 193 142 139
0.0906162 -0.339409 -0.563 194 144 143
0.0915257 -0.338806 -0.562 199 144 141
0.0924314 -0.338203 -0.561 199 144 141
0.0935 -0.338203 -0.561 201 144 135
0.0945686 -0.338203 -0.561 202 145 136
0.0954667 -0.3376 -0.56 195 144 140
0.0965333 -0.3376 -0.56 196 145 141
0.0976 -0.3376 -0.56 197 146 142
0.0984905 -0.336997 -0.559 198 147 143
0.0995552 -0.336997 -0.559 197 146 142
0.10062 -0.336997 -0.559 196 145 141
0.101503 -0.336394 -0.558 194 144 137
0.102566 -0.336394 -0.558 193 143 136
0.103629 -0.336394 -0.558 196 143 137
0.104504 -0.335791 -0.557 190 137 131
0.105565 -0.335791 -0.557 191 138 132
0.106626 -0.335791 -0.557 190 137 131
0.107493 -0.335189 -0.556 189 136 128
0.108552 -0.335189 -0.556 193 140 132
0.109611 -0.335189 -0.556 195 142 134
0.11067 -0.335189 -0.556 192 139 131
0.11173 -0.335189 -0.556 193 139 127
0.112789 -0.335189 -0.556 191 137 125
0.113848 -0.335189 -0.556 193 139 127
0.114907 -0.335189 -0.556 190 136 124
0.115966 -0.335189 -0.556 183 126 115
0.117025 -0.335189 -0.556 178 121 110
0.118084 -0.335189 -0.556 181 124 115
0.119143 -0.335189 -0.556 181 124 115
0.120418 -0.335791 -0.557 175 118 111
0.121479 -0.335791 -0.557 172 115 108
0.12254 -0.335791 -0.557 178 119 113
0.123823 -0.336394 -0.558 177 118 112
0.124886 -0.336394 -0.558 178 119 113
0.125949 -0.336394 -0.558 174 115 109
0.127239 -0.336997 -0.559 172 113 109
0.128304 -0.336997 -0.559 172 113 109
0.1296 -0.3376 -0.56 164 105 101
0.130667 -0.3376 -0.56 162 108 98
0.131969 -0.338203 -0.561 159 105 95
0.133274 -0.338806 -0.562 158 101 92
0.134345 -0.338806 -0.562 157 100 91
0.135656 -0.339409 -0.563 159 102 93
0.136971 -0.340011 -0.564 158 101 92
0.138046 -0.340011 -0.564 153 98 91
0.139367 -0.340614 -0.565 151 96 89
0.140691 -0.341217 -0.566 151 96 89
0.14202 -0.34182 -0.567 151 96 89
0.143352 -0.342423 -0.568 150 95 88
0.144689 -0.343026 -0.569 149 94 87
0.145772 -0.343026 -0.569 146 91 84
0.147114 -0.343629 -0.57 143 88 81
0.1482 -0.343629 -0.57 141 88 82
0.149548 -0.344231 -0.571 140 87 81
0.150899 -0.344834 -0.572 134 86 76
0.151989 -0.344834 -0.572 135 87 77
0.153346 -0.345437 -0.573 134 87 77
0.154437 -0.345437 -0.573 132 85 75
0.1558 -0.34604 -0.574 130 83 75
0.156893 -0.34604 -0.574 128 81 73
0.158262 -0.346643 -0.575 128 81 73
0.159357 -0.346643 -0.575 130 83 75
0.160731 -0.347246 -0.576 128 84 75
0.161829 -0.347246 -0.576 129 85 76
0.163209 -0.347849 -0.577 129 84 78
0.164592 -0.348451 -0.578 129 84 78
0.16598 -0.349054 -0.579 128 85 79
0.167083 -0.349054 -0.579 128 85 79
0.168476 -0.349657 -0.58 127 84 78
0.169873 -0.35026 -0.581 128 85 79
0.171274 -0.350863 -0.582 125 84 80
0.172679 -0.351466 -0.583 123 82 78
0.174088 -0.352069 -0.584 124 80 77
0.1755 -0.352671 -0.585 123 79 76
0.176916 -0.353274 -0.586 120 79 75
0.178336 -0.353877 -0.587 121 80 76
0.17976 -0.35448 -0.588 122 82 80
0.181495 -0.355686 -0.59 122 82 80
0.182929 -0.356289 -0.591 122 82 80
0.184677 -0.357494 -0.593 123 83 81
0.18612 -0.358097 -0.594 126 86 84
0.186936 -0.357494 -0.593 125 84 80
0.1887 -0.3587 -0.595 123 82 80
0.190471 -0.359906 -0.597 123 82 80
0.191609 -0.359906 -0.597 123 82 80
0.193069 -0.360509 -0.598 124 84 82
0.215307 -0.37136 -0.616 146 141 161
0.219182 -0.371963 -0.617 145 140 160
0.220357 -0.371963 -0.617 164 160 183
0.221532 -0.371963 -0.617 172 168 191
0.222708 -0.371963 -0.617 168 166 188
0.224246 -0.372566 -0.618 167 165 187
0.225423 -0.372566 -0.618 169 170 190
0.2266 -0.372566 -0.618 171 172 192
0.227777 -0.372566 -0.618 176 177 198
0.228584 -0.371963 -0.617 175 176 197
0.230131 -0.372566 -0.618 156 157 188
0.231309 -0.372566 -0.618 101 102 133
0.232486 -0.372566 -0.618 77 81 118
0.233663 -0.372566 -0.618 109 113 150
0.23484 -0.372566 -0.618 152 157 187
0.236017 -0.372566 -0.618 170 175 205
0.237194 -0.372566 -0.618 180 187 205
0.238371 -0.372566 -0.618 172 179 197
0.239161 -0.371963 -0.617 136 141 161
0.240336 -0.371963 -0.617 144 149 169
0.241511 -0.371963 -0.617 144 149 169
0.242687 -0.371963 -0.617 161 167 193
0.243862 -0.371963 -0.617 159 165 191
0.245037 -0.371963 -0.617 147 158 190
0.246212 -0.371963 -0.617 140 151 183
0.247388 -0.371963 -0.617 143 157 192
0.365143 -0.361714 -0.6 174 141 148
0.360791 -0.356289 -0.591 165 132 139
0.348148 -0.340614 -0.565 175 122 118
0.343661 -0.335189 -0.556 172 118 118
0.33976 -0.330366 -0.548 170 116 116
0.337694 -0.327351 -0.543 175 115 104
0.336857 -0.325543 -0.54 173 113 102
0.336634 -0.324337 -0.538 173 118 113
0.336404 -0.323131 -0.536 178 123 118
0.336795 -0.322529 -0.535 186 129 122
0.336551 -0.321323 -0.533 190 133 126
0.337567 -0.321323 -0.533 190 133 124
0.337947 -0.32072 -0.532 191 134 125
0.338323 -0.320117 -0.531 192 142 131
0.338695 -0.319514 -0.53 194 144 133
0.339064 -0.318911 -0.529 194 144 133
0.340071 -0.318911 -0.529 194 144 133
0.341079 -0.318911 -0.529 195 145 134
0.34144 -0.318309 -0.528 197 147 136
0.342446 -0.318309 -0.528 198 148 137
0.342801 -0.317706 -0.527 198 148 137
0.343805 -0.317706 -0.527 200 148 137
0.344154 -0.317103 -0.526 199 147 136
0.345156 -0.317103 -0.526 198 146 135
0.346158 -0.317103 -0.526 197 145 134
0.34716 -0.317103 -0.526 196 144 133
0.3475 -0.3165 -0.525 196 144 133
0.3485 -0.3165 -0.525 197 145 134
0.3495 -0.3165 -0.525 197 145 134
0.349832 -0.315897 -0.524 197 145 134
0.35083 -0.315897 -0.524 197 145 134
0.351829 -0.315897 -0.524 197 145 134
0.3535 -0.3165 -0.525 197 145 132
0.3545 -0.3165 -0.525 196 144 131
0.3555 -0.3165 -0.525 195 143 130
0.3565 -0.3165 -0.525 194 142 129
0.3575 -0.3165 -0.525 192 140 127
0.3585 -0.3165 -0.525 192 140 127
0.3595 -0.3165 -0.525 191 139 126
0.3605 -0.3165 -0.525 189 137 124
0.3615 -0.3165 -0.525 191 139 126
0.3625 -0.3165 -0.525 188 136 123
0.3635 -0.3165 -0.525 184 132 119
0.3645 -0.3165 -0.525 182 130 117
0.3655 -0.3165 -0.525 181 129 116
0.3665 -0.3165 -0.525 181 129 116
0.3675 -0.3165 -0.525 181 129 116
0.3685 -0.3165 -0.525 182 130 117
0.3695 -0.3165 -0.525 180 128 115
0.3705 -0.3165 -0.525 182 130 117
0.3715 -0.3165 -0.525 182 130 117
0.3725 -0.3165 -0.525 181 129 116
0.3735 -0.3165 -0.525 182 130 117
0.375213 -0.317103 -0.526 179 127 114
0.376215 -0.317103 -0.526 177 125 112
0.377217 -0.317103 -0.526 178 126 113
0.378219 -0.317103 -0.526 178 126 113
0.379942 -0.317706 -0.527 179 127 114
0.380946 -0.317706 -0.527 179 127 114
0.382674 -0.318309 -0.528 180 128 115
0.38368 -0.318309 -0.528 181 129 116
0.385414 -0.318911 -0.529 181 129 116
0.387152 -0.319514 -0.53 181 129 116
0.388162 -0.319514 -0.53 179 127 114
0.39064 -0.32072 -0.532 177 125 112
0.391653 -0.32072 -0.532 174 125 111
0.394143 -0.321926 -0.534 175 126 112
0.3959 -0.322529 -0.535 170 122 112
0.398403 -0.323734 -0.537 164 116 106
0.400913 -0.32494 -0.539 161 113 109
0.403431 -0.326146 -0.541 158 110 106
0.405957 -0.327351 -0.543 151 106 103
0.40999 -0.329763 -0.547 148 103 100
0.413286 -0.331571 -0.55 140 92 88
0.417347 -0.333983 -0.554 147 99 95
0.465368 -0.364126 -0.604 229 228 242
1.13568 -0.376183 -0.624 202 204 190
1.13505 -0.37558 -0.623 201 203 189
1.13441 -0.374977 -0.622 201 203 189
1.13194 -0.373771 -0.62 201 203 189
1.1313 -0.373169 -0.619 201 203 189
0.085279 -0.358624 -0.593 199 150 145
0.08568 -0.3556 -0.588 196 147 142
0.0859143 -0.351971 -0.582 195 144 140
0.0862752 -0.348948 -0.577 195 144 140
0.0866171 -0.345924 -0.572 194 145 140
0.0870933 -0.343505 -0.568 194 145 140
0.0877095 -0.34169 -0.565 195 146 139
0.0884714 -0.340481 -0.563 196 147 140
0.0895438 -0.340481 -0.563 193 142 139
0.0904552 -0.339876 -0.562 193 142 139
0.0913629 -0.339271 -0.561 198 140 136
0.0924314 -0.339271 -0.561 199 141 137
0.0933333 -0.338667 -0.56 201 143 132
0.0944 -0.338667 -0.56 203 145 134
0.0954667 -0.338667 -0.56 195 144 140
0.0965333 -0.338667 -0.56 196 145 141
0.0974257 -0.338062 -0.559 197 146 142
0.0984905 -0.338062 -0.559 196 145 141
0.0993771 -0.337457 -0.558 195 145 138
0.10044 -0.337457 -0.558 194 144 137
0.101503 -0.337457 -0.558 195 142 136
0.102382 -0.336852 -0.557 194 141 135
0.103443 -0.336852 -0.557 193 140 132
0.104504 -0.336852 -0.557 190 137 129
0.105565 -0.336852 -0.557 192 139 131
0.106626 -0.336852 -0.557 189 136 128
0.107493 -0.336248 -0.556 185 132 124
0.108552 -0.336248 -0.556 193 140 132
0.109611 -0.336248 -0.556 197 144 136
0.110471 -0.335643 -0.555 192 139 131
0.111529 -0.335643 -0.555 197 140 131
0.112586 -0.335643 -0.555 194 137 128
0.113643 -0.335643 -0.555 193 136 125
0.1147 -0.335643 -0.555 185 128 117
0.115757 -0.335643 -0.555 182 125 114
0.116814 -0.335643 -0.555 180 123 112
0.118084 -0.336248 -0.556 185 128 121
0.119143 -0.336248 -0.556 182 125 118
0.120202 -0.336248 -0.556 178 119 113
0.121479 -0.336852 -0.557 171 112 106
0.12254 -0.336852 -0.557 177 118 112
0.123823 -0.337457 -0.558 178 119 113
0.124886 -0.337457 -0.558 179 118 113
0.125949 -0.337457 -0.558 174 113 108
0.127011 -0.337457 -0.558 174 113 108
0.128304 -0.338062 -0.559 170 109 106
0.1296 -0.338667 -0.56 164 103 100
0.1309 -0.339271 -0.561 161 106 99
0.131969 -0.339271 -0.561 160 105 98
0.133274 -0.339876 -0.562 158 101 94
0.134584 -0.340481 -0.563 156 99 92
0.135656 -0.340481 -0.563 156 99 92
0.136971 -0.341086 -0.564 154 97 90
0.13829 -0.34169 -0.565 151 96 91
0.139367 -0.34169 -0.565 153 98 93
0.140691 -0.342295 -0.566 151 98 92
0.14202 -0.3429 -0.567 149 96 90
0.143352 -0.343505 -0.568 149 94 89
0.144689 -0.34411 -0.569 148 93 88
0.146029 -0.344714 -0.57 146 91 86
0.147114 -0.344714 -0.57 143 88 83
0.14846 -0.345319 -0.571 140 87 83
0.149548 -0.345319 -0.571 138 85 81
0.150899 -0.345924 -0.572 134 87 79
0.152254 -0.346529 -0.573 135 88 80
0.153346 -0.346529 -0.573 134 87 81
0.154707 -0.347133 -0.574 131 84 78
0.1558 -0.347133 -0.574 126 81 75
0.157167 -0.347738 -0.575 123 78 72
0.158262 -0.347738 -0.575 124 79 73
0.159634 -0.348343 -0.576 127 82 76
0.160731 -0.348343 -0.576 127 84 78
0.16211 -0.348948 -0.577 128 85 79
0.163491 -0.349552 -0.578 127 83 80
0.164877 -0.350157 -0.579 127 83 80
0.166267 -0.350762 -0.58 126 85 83
0.167371 -0.350762 -0.58 125 84 82
0.168767 -0.351367 -0.581 124 83 81
0.170166 -0.351971 -0.582 124 83 81
0.171569 -0.352576 -0.583 124 83 79
0.172975 -0.353181 -0.584 122 81 77
0.174386 -0.353786 -0.585 122 81 77
0.1761 -0.354995 -0.587 122 81 77
0.17752 -0.3556 -0.588 121 80 78
0.178944 -0.356205 -0.589 122 81 79
0.180371 -0.35681 -0.59 122 84 81
0.18211 -0.358019 -0.592 122 84 81
0.183548 -0.358624 -0.593 117 82 80
0.184677 -0.358624 -0.593 123 83 81
0.18612 -0.359229 -0.594 126 86 84
0.187567 -0.359833 -0.595 126 86 84
0.189334 -0.361043 -0.597 122 84 83
0.215307 -0.372533 -0.616 117 112 135
0.21648 -0.372533 -0.616 83 78 101
0.217653 -0.372533 -0.616 121 117 142
0.218827 -0.372533 -0.616 154 150 175
0.22 -0.372533 -0.616 159 155 182
0.221173 -0.372533 -0.616 169 165 192
0.222708 -0.373138 -0.617 170 168 189
0.223883 -0.373138 -0.617 169 167 188
0.225058 -0.373138 -0.617 166 167 187
0.226233 -0.373138 -0.617 172 173 193
0.227409 -0.373138 -0.617 182 180 204
0.228584 -0.373138 -0.617 178 176 200
0.229759 -0.373138 -0.617 133 132 164
0.230934 -0.373138 -0.617 83 82 114
0.23211 -0.373138 -0.617 95 98 131
0.233285 -0.373138 -0.617 150 153 186
0.23446 -0.373138 -0.617 175 179 204
0.235635 -0.373138 -0.617 182 186 211
0.23681 -0.373138 -0.617 193 196 211
0.237986 -0.373138 -0.617 190 193 208
0.239161 -0.373138 -0.617 174 175 193
0.362787 -0.361648 -0.598 160 147 173
0.345067 -0.338667 -0.56 164 109 104
0.34057 -0.333224 -0.551 160 104 103
0.33914 -0.330805 -0.547 155 99 98
0.337072 -0.327781 -0.542 166 100 88
0.336233 -0.325967 -0.539 169 103 91
0.336009 -0.324757 -0.537 164 107 100
0.335776 -0.323548 -0.535 170 113 106
0.336166 -0.322943 -0.534 177 117 109
0.336551 -0.322338 -0.533 182 122 114
0.336933 -0.321733 -0.532 185 123 110
0.337311 -0.321129 -0.531 188 126 113
0.338323 -0.321129 -0.531 190 134 121
0.338695 -0.320524 -0.53 194 138 125
0.339064 -0.319919 -0.529 190 138 125
0.340071 -0.319919 -0.529 191 139 126
0.341079 -0.319919 -0.529 193 141 128
0.34144 -0.319314 -0.528 195 143 130
0.341797 -0.31871 -0.527 197 145 132
0.342801 -0.31871 -0.527 199 147 134
0.343152 -0.318105 -0.526 200 148 135
0.344154 -0.318105 -0.526 198 146 133
0.3445 -0.3175 -0.525 197 145 132
0.3455 -0.3175 -0.525 196 144 131
0.3465 -0.3175 -0.525 193 141 128
0.3475 -0.3175 -0.525 194 142 129
0.347836 -0.316895 -0.524 195 143 130
0.348834 -0.316895 -0.524 195 143 130
0.349832 -0.316895 -0.524 195 143 130
0.35083 -0.316895 -0.524 198 146 133
0.351157 -0.31629 -0.523 198 146 133
0.352827 -0.316895 -0.524 199 147 136
0.353825 -0.316895 -0.524 198 146 135
0.354823 -0.316895 -0.524 197 145 134
0.355821 -0.316895 -0.524 196 144 133
0.356819 -0.316895 -0.524 196 144 133
0.357817 -0.316895 -0.524 196 144 133
0.358815 -0.316895 -0.524 191 139 128
0.359813 -0.316895 -0.524 185 133 122
0.360811 -0.316895 -0.524 191 139 128
0.36181 -0.316895 -0.524 190 138 127
0.362808 -0.316895 -0.524 189 137 126
0.363111 -0.31629 -0.523 187 135 124
0.364108 -0.31629 -0.523 186 134 123
0.365104 -0.31629 -0.523 186 134 123
0.3661 -0.31629 -0.523 186 134 123
0.367096 -0.31629 -0.523 185 133 122
0.368092 -0.31629 -0.523 182 130 119
0.369089 -0.31629 -0.523 182 130 119
0.370085 -0.31629 -0.523 182 130 119
0.371081 -0.31629 -0.523 182 130 119
0.372789 -0.316895 -0.524 182 130 117
0.373787 -0.316895 -0.524 180 128 115
0.374785 -0.316895 -0.524 179 127 114
0.3765 -0.3175 -0.525 178 126 113
0.3775 -0.3175 -0.525 178 126 113
0.3785 -0.3175 -0.525 178 126 113
0.380223 -0.318105 -0.526 179 127 114
0.381225 -0.318105 -0.526 180 128 115
0.382953 -0.31871 -0.527 179 127 114
0.383957 -0.31871 -0.527 178 126 113
0.385691 -0.319314 -0.528 178 126 113
0.38743 -0.319919 -0.529 175 123 110
0.389171 -0.320524 -0.53 169 117 104
0.390917 -0.321129 -0.531 167 121 106
0.393405 -0.322338 -0.533 169 123 108
0.39516 -0.322943 -0.534 169 121 109
0.396919 -0.323548 -0.535 164 116 104
0.399426 -0.324757 -0.537 160 113 105
0.40194 -0.325967 -0.539 157 110 102
0.404462 -0.327176 -0.541 151 106 101
0.407741 -0.32899 -0.544 148 103 98
0.411783 -0.33141 -0.548 142 97 92
0.415087 -0.333224 -0.551 138 93 88
0.462286 -0.362857 -0.6 223 221 234
0.466518 -0.365276 -0.604 212 210 223
1.13505 -0.376767 -0.623 201 203 189
