ply
format ascii 1.0
comment Created by Open3D
element vertex 1291
property double x
property double y
property double z
property uchar red
property uchar green
property uchar blue
end_header
0.228314 -0.386333 -0.61 175 187 209
0.441797 -0.3933 -0.621 173 190 220
0.44298 -0.3933 -0.621 174 191 221
0.444163 -0.3933 -0.621 185 205 240
0.445346 -0.3933 -0.621 193 213 248
0.446529 -0.3933 -0.621 189 211 250
0.447711 -0.3933 -0.621 191 213 252
0.453171 -0.393933 -0.622 171 190 223
0.454356 -0.393933 -0.622 170 189 222
0.455541 -0.393933 -0.622 209 220 248
0.456726 -0.393933 -0.622 230 241 255
0.45791 -0.393933 -0.622 246 246 255
0.459095 -0.393933 -0.622 244 244 255
0.46028 -0.393933 -0.622 247 250 255
0.461465 -0.393933 -0.622 249 252 255
0.463393 -0.394567 -0.623 243 247 255
0.46458 -0.394567 -0.623 225 229 240
0.465767 -0.394567 -0.623 193 200 218
0.466953 -0.394567 -0.623 170 177 195
0.46814 -0.394567 -0.623 195 200 222
0.469327 -0.394567 -0.623 229 234 255
0.471269 -0.3952 -0.624 236 238 255
0.472457 -0.3952 -0.624 232 234 255
0.473646 -0.3952 -0.624 225 232 251
0.474834 -0.3952 -0.624 231 238 255
0.476023 -0.3952 -0.624 224 237 254
0.477211 -0.3952 -0.624 225 238 255
0.4784 -0.3952 -0.624 217 224 243
0.479589 -0.3952 -0.624 199 206 225
0.480777 -0.3952 -0.624 139 154 187
0.481966 -0.3952 -0.624 138 153 186
0.483154 -0.3952 -0.624 193 205 227
0.484343 -0.3952 -0.624 208 220 242
0.48631 -0.395833 -0.625 222 226 238
0.4875 -0.395833 -0.625 222 226 238
0.48869 -0.395833 -0.625 218 223 243
0.489881 -0.395833 -0.625 218 223 243
0.491071 -0.395833 -0.625 217 222 242
0.492262 -0.395833 -0.625 216 213 234
0.494242 -0.396467 -0.626 225 222 243
0.495434 -0.396467 -0.626 201 212 234
0.496627 -0.396467 -0.626 167 178 200
0.497819 -0.396467 -0.626 167 174 192
0.499011 -0.396467 -0.626 188 195 213
0.500204 -0.396467 -0.626 203 210 228
0.501396 -0.396467 -0.626 212 219 237
0.502589 -0.396467 -0.626 219 223 234
0.503781 -0.396467 -0.626 213 217 228
0.504973 -0.396467 -0.626 216 218 231
0.506166 -0.396467 -0.626 214 216 229
0.507358 -0.396467 -0.626 196 198 211
0.50855 -0.396467 -0.626 173 175 188
0.509743 -0.396467 -0.626 126 151 191
0.510935 -0.396467 -0.626 123 148 188
0.512946 -0.3971 -0.627 135 165 203
0.51414 -0.3971 -0.627 143 173 211
0.515334 -0.3971 -0.627 144 176 217
0.516529 -0.3971 -0.627 143 175 216
0.517723 -0.3971 -0.627 130 159 201
0.518917 -0.3971 -0.627 125 154 196
0.520111 -0.3971 -0.627 109 134 174
0.521306 -0.3971 -0.627 101 126 166
0.5225 -0.3971 -0.627 136 149 168
0.522859 -0.396467 -0.626 169 182 201
0.523214 -0.395833 -0.625 184 184 192
0.524405 -0.395833 -0.625 183 183 191
0.518551 -0.384433 -0.607 171 140 137
0.516283 -0.3819 -0.603 171 140 137
0.513141 -0.378733 -0.598 172 144 132
0.50998 -0.375567 -0.593 170 142 130
0.507662 -0.373033 -0.589 169 140 132
0.505329 -0.3705 -0.585 168 139 131
0.50298 -0.367967 -0.581 170 140 132
0.500616 -0.365433 -0.577 172 142 134
0.498237 -0.3629 -0.573 172 142 132
0.495843 -0.360367 -0.569 173 143 133
0.494307 -0.358467 -0.566 177 145 134
0.492759 -0.356567 -0.563 176 144 133
0.4912 -0.354667 -0.56 177 144 129
0.48963 -0.352767 -0.557 178 145 130
0.488929 -0.3515 -0.555 181 145 129
0.48822 -0.350233 -0.553 182 146 130
0.486619 -0.348333 -0.55 183 146 130
0.485893 -0.347067 -0.548 183 146 130
0.48516 -0.3458 -0.546 184 147 129
0.484419 -0.344533 -0.544 183 146 128
0.484563 -0.3439 -0.543 185 146 129
0.484703 -0.343267 -0.542 189 150 133
0.484839 -0.342633 -0.541 193 152 134
0.484073 -0.341367 -0.539 193 152 134
0.4842 -0.340733 -0.538 191 150 132
0.484323 -0.3401 -0.537 191 150 132
0.484442 -0.339467 -0.536 193 152 134
0.485463 -0.339467 -0.536 197 156 138
0.485576 -0.338833 -0.535 195 152 133
0.486595 -0.338833 -0.535 197 154 135
0.486703 -0.3382 -0.534 198 155 136
0.48772 -0.3382 -0.534 196 153 134
0.488737 -0.3382 -0.534 193 151 129
0.488837 -0.337567 -0.533 193 151 129
0.489852 -0.337567 -0.533 199 154 133
0.489947 -0.336933 -0.532 202 157 136
0.490037 -0.3363 -0.531 202 160 138
0.491049 -0.3363 -0.531 200 158 136
0.49206 -0.3363 -0.531 198 156 134
0.493071 -0.3363 -0.531 198 156 134
0.493152 -0.335667 -0.53 195 153 131
0.49323 -0.335033 -0.529 193 151 127
0.494237 -0.335033 -0.529 193 151 127
0.494309 -0.3344 -0.528 197 152 131
0.495314 -0.3344 -0.528 197 152 131
0.49632 -0.3344 -0.528 196 151 128
0.496384 -0.333767 -0.527 196 151 128
0.497388 -0.333767 -0.527 192 147 124
0.497446 -0.333133 -0.526 192 146 123
0.498448 -0.333133 -0.526 192 146 123
0.49945 -0.333133 -0.526 193 147 124
0.500451 -0.333133 -0.526 194 148 125
0.501453 -0.333133 -0.526 196 150 127
0.502455 -0.333133 -0.526 197 150 130
0.503457 -0.333133 -0.526 195 148 128
0.504459 -0.333133 -0.526 193 146 128
0.505461 -0.333133 -0.526 192 145 127
0.506463 -0.333133 -0.526 186 141 122
0.507465 -0.333133 -0.526 182 137 118
0.509433 -0.333767 -0.527 180 138 116
0.511406 -0.3344 -0.528 180 138 116
0.513382 -0.335033 -0.529 178 137 117
0.515362 -0.335667 -0.53 177 136 116
0.517346 -0.3363 -0.531 170 132 111
0.519333 -0.336933 -0.532 166 128 107
0.521325 -0.337567 -0.533 163 125 104
0.52528 -0.339467 -0.536 160 122 101
0.528265 -0.340733 -0.538 159 123 101
0.532241 -0.342633 -0.541 158 122 100
0.60989 -0.384433 -0.607 188 177 173
0.61608 -0.3876 -0.612 207 196 192
1.08968 -0.4028 -0.636 206 209 190
1.09089 -0.4028 -0.636 206 209 190
1.0921 -0.4028 -0.636 206 209 190
1.09816 -0.4028 -0.636 204 207 190
1.09937 -0.4028 -0.636 204 207 190
1.10058 -0.4028 -0.636 204 207 190
1.10179 -0.4028 -0.636 204 207 190
1.10301 -0.4028 -0.636 204 207 190
1.10422 -0.4028 -0.636 203 206 187
1.10959 -0.403433 -0.637 204 207 190
1.11081 -0.403433 -0.637 204 207 190
1.11202 -0.403433 -0.637 204 207 190
1.11149 -0.4028 -0.636 203 206 189
1.1127 -0.4028 -0.636 203 206 189
1.11391 -0.4028 -0.636 203 206 189
1.11687 -0.403433 -0.637 204 207 190
1.11809 -0.403433 -0.637 203 206 189
1.1193 -0.403433 -0.637 203 205 191
1.12051 -0.403433 -0.637 204 206 192
1.12658 -0.403433 -0.637 204 207 190
1.12779 -0.403433 -0.637 204 207 190
1.12901 -0.403433 -0.637 204 207 190
1.13022 -0.403433 -0.637 204 207 190
1.13143 -0.403433 -0.637 203 206 189
1.13265 -0.403433 -0.637 203 206 189
1.13386 -0.403433 -0.637 203 205 191
1.13507 -0.403433 -0.637 204 206 192
1.1345 -0.4028 -0.636 204 206 192
1.13571 -0.4028 -0.636 203 205 191
1.13693 -0.4028 -0.636 203 205 191
1.13635 -0.402167 -0.635 202 204 190
1.13756 -0.402167 -0.635 203 205 191
1.13697 -0.401533 -0.634 203 205 191
1.13639 -0.4009 -0.633 203 205 191
1.13759 -0.4009 -0.633 203 205 191
1.137 -0.400267 -0.632 203 205 192
1.1382 -0.400267 -0.632 203 205 192
1.1376 -0.399633 -0.631 202 206 189
1.1388 -0.399633 -0.631 202 206 189
0.0749571 -0.370344 -0.583 201 159 143
0.0761981 -0.370979 -0.584 197 158 143
0.0766486 -0.367803 -0.579 195 153 137
0.0772143 -0.365262 -0.575 193 151 135
0.0777648 -0.362721 -0.571 193 151 135
0.0781619 -0.359545 -0.566 193 151 135
0.07868 -0.357004 -0.562 199 154 135
0.0791829 -0.354463 -0.558 200 155 136
0.0798143 -0.352557 -0.555 200 153 135
0.08058 -0.351287 -0.553 199 152 134
0.0813381 -0.350016 -0.551 199 152 134
0.0822381 -0.349381 -0.55 200 153 135
0.0832857 -0.349381 -0.55 201 154 136
0.0843333 -0.349381 -0.55 201 154 136
0.0852257 -0.348746 -0.549 202 154 134
0.0862714 -0.348746 -0.549 201 153 133
0.0873171 -0.348746 -0.549 200 152 132
0.0882019 -0.34811 -0.548 199 151 131
0.0892457 -0.34811 -0.548 200 152 132
0.0902895 -0.34811 -0.548 201 153 133
0.0913333 -0.34811 -0.548 201 153 133
0.0923771 -0.34811 -0.548 199 151 131
0.0934209 -0.34811 -0.548 198 150 128
0.0944648 -0.34811 -0.548 198 150 128
0.0955086 -0.34811 -0.548 196 148 126
0.0965524 -0.34811 -0.548 195 147 125
0.0975962 -0.34811 -0.548 196 148 128
0.09864 -0.34811 -0.548 196 148 128
0.0996838 -0.34811 -0.548 196 145 124
0.100544 -0.347475 -0.547 194 143 122
0.101586 -0.347475 -0.547 194 143 122
0.10244 -0.34684 -0.546 195 144 123
0.10348 -0.34684 -0.546 195 144 125
0.10452 -0.34684 -0.546 195 144 125
0.10556 -0.34684 -0.546 196 143 125
0.1066 -0.34684 -0.546 197 144 126
0.10764 -0.34684 -0.546 198 146 125
0.10868 -0.34684 -0.546 198 146 125
0.10972 -0.34684 -0.546 198 146 125
0.11076 -0.34684 -0.546 196 145 128
0.112005 -0.347475 -0.547 193 142 125
0.113047 -0.347475 -0.547 190 139 120
0.114089 -0.347475 -0.547 188 137 118
0.115341 -0.34811 -0.548 188 136 114
0.116597 -0.348746 -0.549 188 136 114
0.117643 -0.348746 -0.549 181 131 108
0.118905 -0.349381 -0.55 172 122 99
0.12017 -0.350016 -0.551 167 116 95
0.12144 -0.350651 -0.552 164 113 92
0.122713 -0.351287 -0.553 159 106 90
0.12399 -0.351922 -0.554 154 101 85
0.125271 -0.352557 -0.555 151 98 84
0.126784 -0.353828 -0.557 148 95 81
0.128074 -0.354463 -0.558 148 95 81
0.129369 -0.355098 -0.559 149 96 82
0.1309 -0.356369 -0.561 137 92 86
0.132204 -0.357004 -0.562 134 89 83
0.133511 -0.357639 -0.563 130 87 78
0.134823 -0.358274 -0.564 128 85 76
0.136138 -0.35891 -0.565 127 84 77
0.137457 -0.359545 -0.566 127 84 77
0.139025 -0.360815 -0.568 128 85 79
0.140353 -0.36145 -0.569 128 85 79
0.141686 -0.362086 -0.57 126 85 79
0.143022 -0.362721 -0.571 128 87 81
0.144362 -0.363356 -0.572 128 89 82
0.145706 -0.363991 -0.573 130 91 84
0.14731 -0.365262 -0.575 127 90 84
0.148663 -0.365897 -0.576 121 84 78
0.15002 -0.366532 -0.577 120 80 78
0.151381 -0.367168 -0.578 123 83 81
0.152746 -0.367803 -0.579 122 87 85
0.154114 -0.368438 -0.58 123 88 86
0.155219 -0.368438 -0.58 123 85 82
0.156593 -0.369073 -0.581 122 84 81
0.157971 -0.369709 -0.582 121 86 84
0.159627 -0.370979 -0.584 121 86 84
0.161014 -0.371614 -0.585 120 86 85
0.162683 -0.372885 -0.587 121 87 86
0.16408 -0.37352 -0.588 122 88 87
0.191665 -0.386225 -0.608 108 108 134
0.192823 -0.386225 -0.608 114 114 140
0.193981 -0.386225 -0.608 136 138 163
0.19546 -0.38686 -0.609 155 157 182
0.19662 -0.38686 -0.609 153 157 184
0.19778 -0.38686 -0.609 144 148 175
0.19894 -0.38686 -0.609 123 128 158
0.200429 -0.387495 -0.61 107 112 142
0.20159 -0.387495 -0.61 79 84 114
0.202752 -0.387495 -0.61 59 64 94
0.203914 -0.387495 -0.61 88 92 119
0.205076 -0.387495 -0.61 127 131 158
0.206238 -0.387495 -0.61 151 152 172
0.2074 -0.387495 -0.61 160 161 181
0.208562 -0.387495 -0.61 158 154 168
0.209724 -0.387495 -0.61 108 104 118
0.210886 -0.387495 -0.61 114 106 117
0.212048 -0.387495 -0.61 160 152 163
0.21321 -0.387495 -0.61 173 169 183
0.214371 -0.387495 -0.61 172 168 182
0.215533 -0.387495 -0.61 174 177 192
0.216695 -0.387495 -0.61 167 170 185
0.217857 -0.387495 -0.61 125 131 147
0.219019 -0.387495 -0.61 136 142 158
0.220181 -0.387495 -0.61 170 172 197
0.221343 -0.387495 -0.61 178 180 205
0.222505 -0.387495 -0.61 177 182 201
0.223667 -0.387495 -0.61 184 189 208
0.224829 -0.387495 -0.61 181 191 201
0.22599 -0.387495 -0.61 183 193 203
0.227152 -0.387495 -0.61 180 189 206
0.228314 -0.387495 -0.61 181 190 207
0.229476 -0.387495 -0.61 187 194 212
0.230638 -0.387495 -0.61 185 192 210
0.2318 -0.387495 -0.61 152 158 180
0.232962 -0.387495 -0.61 152 158 180
0.234124 -0.387495 -0.61 110 116 138
0.235286 -0.387495 -0.61 93 100 142
0.236448 -0.387495 -0.61 125 132 174
0.23761 -0.387495 -0.61 154 165 197
0.238771 -0.387495 -0.61 180 191 223
0.239933 -0.387495 -0.61 199 203 228
0.45126 -0.394483 -0.621 180 200 235
0.452443 -0.394483 -0.621 180 195 228
0.453626 -0.394483 -0.621 186 201 234
0.454809 -0.394483 -0.621 212 221 250
0.455991 -0.394483 -0.621 230 239 255
0.45791 -0.395118 -0.622 236 236 248
0.459095 -0.395118 -0.622 244 244 255
0.46028 -0.395118 -0.622 247 250 255
0.461465 -0.395118 -0.622 249 252 255
0.46265 -0.395118 -0.622 227 233 249
0.463834 -0.395118 -0.622 196 202 218
0.465019 -0.395118 -0.622 149 157 180
0.466204 -0.395118 -0.622 141 149 172
0.46814 -0.395753 -0.623 200 204 229
0.469327 -0.395753 -0.623 236 240 255
0.470513 -0.395753 -0.623 238 239 255
0.4717 -0.395753 -0.623 239 240 255
0.472887 -0.395753 -0.623 228 234 250
0.474073 -0.395753 -0.623 234 240 255
0.47526 -0.395753 -0.623 229 242 255
0.476447 -0.395753 -0.623 226 239 255
0.477633 -0.395753 -0.623 222 230 251
0.47882 -0.395753 -0.623 216 224 245
0.480007 -0.395753 -0.623 172 178 210
0.481193 -0.395753 -0.623 160 166 198
0.48238 -0.395753 -0.623 208 215 231
0.484343 -0.396389 -0.624 218 225 241
0.485531 -0.396389 -0.624 224 227 244
0.48672 -0.396389 -0.624 225 228 245
0.487909 -0.396389 -0.624 218 224 240
0.489097 -0.396389 -0.624 218 224 240
0.490286 -0.396389 -0.624 218 224 240
0.491474 -0.396389 -0.624 227 219 240
0.493452 -0.397024 -0.625 227 219 240
0.494643 -0.397024 -0.625 217 228 246
0.495833 -0.397024 -0.625 183 194 212
0.497024 -0.397024 -0.625 126 134 153
0.498214 -0.397024 -0.625 126 134 153
0.499405 -0.397024 -0.625 178 184 200
0.500595 -0.397024 -0.625 210 216 232
0.502589 -0.397659 -0.626 212 215 230
0.503781 -0.397659 -0.626 197 200 215
0.504973 -0.397659 -0.626 199 201 214
0.506166 -0.397659 -0.626 209 211 224
0.507358 -0.397659 -0.626 206 205 223
0.50855 -0.397659 -0.626 185 184 202
0.509743 -0.397659 -0.626 138 162 198
0.510935 -0.397659 -0.626 134 158 194
0.512128 -0.397659 -0.626 137 165 205
0.51332 -0.397659 -0.626 137 165 205
0.515334 -0.398294 -0.627 129 160 204
0.516529 -0.398294 -0.627 128 159 203
0.517723 -0.398294 -0.627 125 156 203
0.518917 -0.398294 -0.627 125 156 203
0.520111 -0.398294 -0.627 121 146 187
0.521306 -0.398294 -0.627 119 144 185
0.521667 -0.397659 -0.626 134 145 165
0.522859 -0.397659 -0.626 168 179 199
0.523214 -0.397024 -0.625 190 190 200
0.517139 -0.383684 -0.604 169 139 137
0.513999 -0.380508 -0.599 172 144 133
0.51084 -0.377331 -0.594 170 142 131
0.508524 -0.37479 -0.59 170 141 135
0.506192 -0.37225 -0.586 169 140 134
0.503846 -0.369709 -0.582 170 141 133
0.501484 -0.367168 -0.578 171 142 134
0.499107 -0.364627 -0.574 171 141 133
0.496714 -0.362086 -0.57 172 142 134
0.49518 -0.36018 -0.567 176 143 134
0.493634 -0.358274 -0.564 176 143 134
0.492077 -0.356369 -0.561 176 142 132
0.490509 -0.354463 -0.558 178 144 134
0.488929 -0.352557 -0.555 180 144 132
0.48822 -0.351287 -0.553 182 146 134
0.487504 -0.350016 -0.551 184 146 133
0.485893 -0.34811 -0.548 183 145 132
0.48516 -0.34684 -0.546 185 145 133
0.484419 -0.34557 -0.544 184 144 132
0.484563 -0.344934 -0.543 184 145 128
0.484703 -0.344299 -0.542 188 149 132
0.484839 -0.343664 -0.541 192 151 133
0.484073 -0.342393 -0.539 192 151 133
0.4842 -0.341758 -0.538 191 150 132
0.484323 -0.341123 -0.537 190 149 131
0.484442 -0.340488 -0.536 193 152 132
0.484557 -0.339852 -0.535 196 155 135
0.485576 -0.339852 -0.535 196 153 134
0.485686 -0.339217 -0.534 198 155 136
0.486703 -0.339217 -0.534 198 156 134
0.48772 -0.339217 -0.534 196 154 132
0.487822 -0.338582 -0.533 195 153 131
0.488837 -0.338582 -0.533 195 153 131
0.488933 -0.337947 -0.532 199 154 133
0.489947 -0.337947 -0.532 202 157 136
0.490037 -0.337311 -0.531 205 160 139
0.491049 -0.337311 -0.531 202 157 136
0.491133 -0.336676 -0.53 199 154 131
0.492143 -0.336676 -0.53 196 151 128
0.493152 -0.336676 -0.53 196 151 128
0.49323 -0.336041 -0.529 195 150 127
0.493303 -0.335406 -0.528 196 151 128
0.494309 -0.335406 -0.528 197 152 129
0.495314 -0.335406 -0.528 199 154 131
0.49538 -0.33477 -0.527 195 150 127
0.496384 -0.33477 -0.527 196 151 128
0.497388 -0.33477 -0.527 195 149 126
0.497446 -0.334135 -0.526 192 146 123
0.498448 -0.334135 -0.526 191 145 121
0.4985 -0.3335 -0.525 195 149 125
0.4995 -0.3335 -0.525 195 149 126
0.5005 -0.3335 -0.525 198 152 129
0.5015 -0.3335 -0.525 198 150 130
0.5025 -0.3335 -0.525 197 149 129
0.5035 -0.3335 -0.525 197 149 129
0.5045 -0.3335 -0.525 197 149 129
0.5055 -0.3335 -0.525 191 144 126
0.507465 -0.334135 -0.526 186 139 121
0.508467 -0.334135 -0.526 182 137 116
0.509469 -0.334135 -0.526 181 136 115
0.511441 -0.33477 -0.527 180 138 116
0.513417 -0.335406 -0.528 179 137 115
0.515397 -0.336041 -0.529 171 130 110
0.517381 -0.336676 -0.53 167 126 106
0.519369 -0.337311 -0.531 166 125 105
0.52234 -0.338582 -0.533 164 123 103
0.526301 -0.340488 -0.536 160 122 101
0.52929 -0.341758 -0.538 160 122 101
0.604867 -0.382413 -0.602 168 153 148
0.611047 -0.38559 -0.607 202 187 182
1.08192 -0.403376 -0.635 206 209 190
1.08313 -0.403376 -0.635 206 209 190
1.08434 -0.403376 -0.635 206 209 190
1.10006 -0.403376 -0.635 205 208 191
1.10127 -0.403376 -0.635 205 208 191
1.10422 -0.404011 -0.636 204 207 190
1.10543 -0.404011 -0.636 204 207 190
1.10664 -0.404011 -0.636 204 207 190
1.10785 -0.404011 -0.636 204 207 190
1.10906 -0.404011 -0.636 204 207 190
1.11027 -0.404011 -0.636 204 207 190
1.11149 -0.404011 -0.636 204 207 190
1.1127 -0.404011 -0.636 204 207 190
1.11391 -0.404011 -0.636 204 207 190
1.11512 -0.404011 -0.636 203 206 189
1.11633 -0.404011 -0.636 203 206 189
1.11754 -0.404011 -0.636 204 206 192
1.11875 -0.404011 -0.636 204 206 192
1.12173 -0.404647 -0.637 204 206 192
1.12294 -0.404647 -0.637 204 206 192
1.12415 -0.404647 -0.637 204 206 192
1.12537 -0.404647 -0.637 204 206 192
1.12658 -0.404647 -0.637 203 206 189
1.12779 -0.404647 -0.637 203 206 189
1.12901 -0.404647 -0.637 203 206 189
1.12845 -0.404011 -0.636 203 206 189
1.12966 -0.404011 -0.636 203 206 189
1.13087 -0.404011 -0.636 203 206 189
1.13208 -0.404011 -0.636 204 207 190
1.13329 -0.404011 -0.636 203 206 189
1.1345 -0.404011 -0.636 204 206 192
1.13571 -0.404011 -0.636 203 205 191
1.13693 -0.404011 -0.636 202 204 190
1.13635 -0.403376 -0.635 202 204 190
1.13756 -0.403376 -0.635 202 204 190
1.13697 -0.402741 -0.634 202 204 190
1.13639 -0.402106 -0.633 202 204 190
1.13759 -0.402106 -0.633 202 204 190
1.1388 -0.402106 -0.633 204 206 193
1.1382 -0.40147 -0.632 203 205 192
1.13941 -0.40147 -0.632 203 205 192
1.1388 -0.400835 -0.631 203 206 189
1.14001 -0.400835 -0.631 202 205 188
0.07372 -0.370817 -0.582 200 161 144
0.0749571 -0.371454 -0.583 201 159 143
0.0756762 -0.369543 -0.58 201 159 143
0.0762514 -0.366994 -0.576 197 158 141
0.0766771 -0.363809 -0.571 196 157 140
0.0770838 -0.360623 -0.566 195 157 138
0.0776095 -0.358074 -0.562 194 156 137
0.07826 -0.356163 -0.559 203 156 138
0.078899 -0.354251 -0.556 203 156 138
0.0795267 -0.35234 -0.553 201 156 137
0.0804343 -0.351703 -0.552 201 156 137
0.0811905 -0.350429 -0.55 201 156 137
0.0820886 -0.349791 -0.549 201 156 137
0.0831343 -0.349791 -0.549 203 154 137
0.0840267 -0.349154 -0.548 202 153 136
0.0850705 -0.349154 -0.548 202 153 136
0.0861143 -0.349154 -0.548 201 152 135
0.0871581 -0.349154 -0.548 202 153 136
0.0882019 -0.349154 -0.548 203 154 137
0.0890829 -0.348517 -0.547 201 152 135
0.0901248 -0.348517 -0.547 199 150 133
0.0911667 -0.348517 -0.547 202 151 134
0.0922086 -0.348517 -0.547 202 151 134
0.0932505 -0.348517 -0.547 198 150 128
0.0942924 -0.348517 -0.547 198 150 128
0.0953343 -0.348517 -0.547 197 149 126
0.0963762 -0.348517 -0.547 196 148 125
0.0974181 -0.348517 -0.547 198 148 125
0.09846 -0.348517 -0.547 197 147 124
0.0995019 -0.348517 -0.547 195 144 123
0.100544 -0.348517 -0.547 192 141 120
0.101586 -0.348517 -0.547 194 143 122
0.10244 -0.34788 -0.546 194 143 122
0.10348 -0.34788 -0.546 197 145 124
0.10452 -0.34788 -0.546 199 147 126
0.10556 -0.34788 -0.546 199 147 126
0.1066 -0.34788 -0.546 199 147 126
0.10764 -0.34788 -0.546 198 146 125
0.10868 -0.34788 -0.546 198 146 125
0.10972 -0.34788 -0.546 195 143 122
0.11076 -0.34788 -0.546 200 144 121
0.1118 -0.34788 -0.546 201 145 122
0.113047 -0.348517 -0.547 195 140 119
0.114089 -0.348517 -0.547 188 133 112
0.115341 -0.349154 -0.548 185 133 111
0.116597 -0.349791 -0.549 185 133 111
0.117643 -0.349791 -0.549 177 126 99
0.118905 -0.350429 -0.55 168 117 90
0.120389 -0.351703 -0.552 162 112 87
0.12166 -0.35234 -0.553 159 109 84
0.122935 -0.352977 -0.554 153 106 86
0.124214 -0.353614 -0.555 149 102 82
0.125497 -0.354251 -0.556 145 97 83
0.126784 -0.354889 -0.557 145 97 83
0.128304 -0.356163 -0.559 145 97 87
0.1296 -0.3568 -0.56 143 95 85
0.1309 -0.357437 -0.561 137 92 86
0.132439 -0.358711 -0.563 135 90 84
0.133749 -0.359349 -0.564 128 88 80
0.135062 -0.359986 -0.565 127 87 79
0.136379 -0.360623 -0.566 124 85 78
0.1377 -0.36126 -0.567 122 83 76
0.139025 -0.361897 -0.568 125 86 79
0.1406 -0.363171 -0.57 125 86 79
0.141934 -0.363809 -0.571 125 86 81
0.143272 -0.364446 -0.572 126 87 82
0.144614 -0.365083 -0.573 122 87 83
0.14596 -0.36572 -0.574 122 87 83
0.14731 -0.366357 -0.575 120 87 82
0.148921 -0.367631 -0.577 120 87 82
0.15028 -0.368269 -0.578 120 86 84
0.151643 -0.368906 -0.579 118 84 82
0.15301 -0.369543 -0.58 118 89 83
0.154114 -0.369543 -0.58 123 88 86
0.155487 -0.37018 -0.581 122 87 85
0.156863 -0.370817 -0.582 120 85 83
0.158514 -0.372091 -0.584 119 85 83
0.1599 -0.372729 -0.585 118 84 82
0.161565 -0.374003 -0.587 116 85 83
0.16296 -0.37464 -0.588 118 87 85
0.190193 -0.386746 -0.607 115 118 153
0.19135 -0.386746 -0.607 119 122 153
0.192506 -0.386746 -0.607 117 120 151
0.193981 -0.387383 -0.608 137 142 171
0.195139 -0.387383 -0.608 152 157 186
0.19662 -0.38802 -0.609 145 151 177
0.19778 -0.38802 -0.609 133 139 165
0.19894 -0.38802 -0.609 93 99 131
0.2001 -0.38802 -0.609 66 72 104
0.20126 -0.38802 -0.609 59 64 94
0.20242 -0.38802 -0.609 85 90 120
0.20358 -0.38802 -0.609 126 130 157
0.20474 -0.38802 -0.609 147 151 178
0.2059 -0.38802 -0.609 162 160 181
0.20706 -0.38802 -0.609 164 162 183
0.20822 -0.38802 -0.609 172 166 178
0.20938 -0.38802 -0.609 156 150 162
0.21054 -0.38802 -0.609 112 102 111
0.2117 -0.38802 -0.609 119 109 118
0.21286 -0.38802 -0.609 166 163 174
0.21402 -0.38802 -0.609 179 176 187
0.21518 -0.38802 -0.609 171 173 186
0.21634 -0.38802 -0.609 174 176 189
0.2175 -0.38802 -0.609 162 168 182
0.219019 -0.388657 -0.61 165 171 185
0.21982 -0.38802 -0.609 174 176 201
0.22098 -0.38802 -0.609 180 182 207
0.22214 -0.38802 -0.609 181 184 199
0.2233 -0.38802 -0.609 185 188 203
0.22446 -0.38802 -0.609 186 193 199
0.22562 -0.38802 -0.609 190 197 203
0.22678 -0.38802 -0.609 183 189 205
0.228314 -0.388657 -0.61 191 197 213
0.229476 -0.388657 -0.61 183 189 203
0.23026 -0.38802 -0.609 184 190 204
0.23142 -0.38802 -0.609 174 183 200
0.23258 -0.38802 -0.609 174 183 200
0.450533 -0.395029 -0.62 181 201 236
0.451714 -0.395029 -0.62 188 201 233
0.452895 -0.395029 -0.62 197 210 242
0.457174 -0.395666 -0.621 214 216 229
0.458357 -0.395666 -0.621 217 219 232
0.45954 -0.395666 -0.621 230 232 244
0.461465 -0.396303 -0.622 241 243 255
0.46265 -0.396303 -0.622 227 233 249
0.463834 -0.396303 -0.622 196 202 218
0.465019 -0.396303 -0.622 149 157 180
0.466204 -0.396303 -0.622 162 169 197
0.467389 -0.396303 -0.622 214 218 243
0.468573 -0.396303 -0.622 235 239 255
0.469758 -0.396303 -0.622 242 241 255
0.470943 -0.396303 -0.622 236 235 253
0.472887 -0.39694 -0.623 236 239 254
0.474073 -0.39694 -0.623 237 240 255
0.47526 -0.39694 -0.623 230 243 255
0.476447 -0.39694 -0.623 228 241 255
0.477633 -0.39694 -0.623 225 235 255
0.47882 -0.39694 -0.623 228 238 255
0.480007 -0.39694 -0.623 196 199 230
0.481193 -0.39694 -0.623 178 181 212
0.48238 -0.39694 -0.623 218 225 235
0.483567 -0.39694 -0.623 226 233 243
0.485531 -0.397577 -0.624 227 228 248
0.48672 -0.397577 -0.624 226 227 247
0.487909 -0.397577 -0.624 220 227 243
0.489097 -0.397577 -0.624 220 227 243
0.490286 -0.397577 -0.624 220 227 243
0.491474 -0.397577 -0.624 225 217 238
0.492663 -0.397577 -0.624 226 218 239
0.493851 -0.397577 -0.624 214 227 243
0.49504 -0.397577 -0.624 203 216 232
0.496229 -0.397577 -0.624 150 161 181
0.497417 -0.397577 -0.624 100 111 131
0.498606 -0.397577 -0.624 131 137 151
0.499794 -0.397577 -0.624 180 186 200
0.501786 -0.398214 -0.625 174 177 194
0.502976 -0.398214 -0.625 164 167 184
0.504167 -0.398214 -0.625 185 187 199
0.505357 -0.398214 -0.625 210 212 224
0.506548 -0.398214 -0.625 210 207 228
0.507738 -0.398214 -0.625 187 184 205
0.508929 -0.398214 -0.625 153 176 208
0.510119 -0.398214 -0.625 144 167 199
0.51131 -0.398214 -0.625 134 158 202
0.5125 -0.398214 -0.625 128 152 196
0.514512 -0.398851 -0.626 113 144 188
0.515705 -0.398851 -0.626 110 141 185
0.516897 -0.398851 -0.626 114 144 196
0.51809 -0.398851 -0.626 111 141 193
0.519282 -0.398851 -0.626 121 148 191
0.520474 -0.398851 -0.626 118 145 188
0.521667 -0.398851 -0.626 117 129 151
0.522024 -0.398214 -0.625 133 145 167
0.523214 -0.398214 -0.625 173 175 187
0.523566 -0.397577 -0.624 191 193 205
0.517995 -0.385471 -0.605 168 140 139
0.514857 -0.382286 -0.6 171 144 133
0.5117 -0.3791 -0.595 170 143 132
0.509386 -0.376551 -0.591 170 141 135
0.507056 -0.374003 -0.587 170 141 135
0.504711 -0.371454 -0.583 171 142 136
0.502351 -0.368906 -0.579 171 142 136
0.499976 -0.366357 -0.575 172 142 134
0.497586 -0.363809 -0.571 172 142 134
0.496053 -0.361897 -0.568 174 141 132
0.493634 -0.359349 -0.564 175 142 133
0.492077 -0.357437 -0.561 177 143 134
0.491388 -0.356163 -0.559 178 144 135
0.48981 -0.354251 -0.556 181 143 134
0.489103 -0.352977 -0.554 183 145 136
0.487504 -0.351066 -0.551 185 145 135
0.48678 -0.349791 -0.549 185 145 135
0.486049 -0.348517 -0.547 186 146 136
0.48531 -0.347243 -0.545 185 145 135
0.484563 -0.345969 -0.543 185 146 129
0.484703 -0.345331 -0.542 188 149 132
0.484839 -0.344694 -0.541 191 150 132
0.484073 -0.34342 -0.539 191 150 132
0.4842 -0.342783 -0.538 191 150 132
0.484323 -0.342146 -0.537 191 150 132
0.484442 -0.341509 -0.536 192 151 131
0.484557 -0.340871 -0.535 195 154 134
0.484669 -0.340234 -0.534 198 156 134
0.485686 -0.340234 -0.534 199 157 135
0.486703 -0.340234 -0.534 197 155 133
0.486807 -0.339597 -0.533 196 154 132
0.487822 -0.339597 -0.533 197 155 131
0.488837 -0.339597 -0.533 196 154 130
0.488933 -0.33896 -0.532 198 153 130
0.489026 -0.338323 -0.531 200 155 132
0.490037 -0.338323 -0.531 204 159 136
0.490124 -0.337686 -0.53 202 157 134
0.491133 -0.337686 -0.53 198 154 129
0.491214 -0.337049 -0.529 196 152 127
0.492222 -0.337049 -0.529 196 152 127
0.49323 -0.337049 -0.529 197 153 128
0.493303 -0.336411 -0.528 196 152 127
0.494309 -0.336411 -0.528 196 150 127
0.494376 -0.335774 -0.527 198 152 129
0.49538 -0.335774 -0.527 198 152 129
0.496384 -0.335774 -0.527 197 151 128
0.496444 -0.335137 -0.526 197 151 127
0.497446 -0.335137 -0.526 192 146 122
0.498448 -0.335137 -0.526 191 145 121
0.4985 -0.3345 -0.525 195 149 125
0.4995 -0.3345 -0.525 196 150 127
0.499547 -0.333863 -0.524 196 150 127
0.500545 -0.333863 -0.524 198 152 128
0.501543 -0.333863 -0.524 195 149 125
0.502541 -0.333863 -0.524 195 149 125
0.503539 -0.333863 -0.524 193 147 123
0.5055 -0.3345 -0.525 191 146 123
0.5065 -0.3345 -0.525 189 144 121
0.5075 -0.3345 -0.525 184 139 116
0.509469 -0.335137 -0.526 183 138 115
0.51047 -0.335137 -0.526 181 139 115
0.512445 -0.335774 -0.527 177 135 111
0.514423 -0.336411 -0.528 174 132 110
0.515429 -0.336411 -0.528 169 127 105
0.51839 -0.337686 -0.53 164 123 101
0.52038 -0.338323 -0.531 162 121 99
0.523355 -0.339597 -0.533 162 121 99
0.526338 -0.340871 -0.535 161 120 98
1.09522 -0.404586 -0.635 204 207 190
1.09643 -0.404586 -0.635 204 207 190
1.09764 -0.404586 -0.635 204 207 190
1.09885 -0.404586 -0.635 205 208 191
1.10006 -0.404586 -0.635 205 208 191
1.10127 -0.404586 -0.635 206 209 192
1.10248 -0.404586 -0.635 205 208 191
1.10369 -0.404586 -0.635 205 208 191
1.1049 -0.404586 -0.635 204 207 190
1.11216 -0.404586 -0.635 204 207 190
1.11337 -0.404586 -0.635 203 206 189
1.11458 -0.404586 -0.635 203 206 189
1.11579 -0.404586 -0.635 204 207 190
1.11875 -0.405223 -0.636 205 208 191
1.11997 -0.405223 -0.636 204 207 190
1.12118 -0.405223 -0.636 204 207 190
1.12239 -0.405223 -0.636 204 207 190
1.1236 -0.405223 -0.636 204 207 190
1.12481 -0.405223 -0.636 203 206 189
1.12602 -0.405223 -0.636 202 205 188
1.12723 -0.405223 -0.636 203 206 189
1.12845 -0.405223 -0.636 203 206 189
1.12966 -0.405223 -0.636 203 206 189
1.13087 -0.405223 -0.636 203 206 189
1.13208 -0.405223 -0.636 204 207 190
1.13329 -0.405223 -0.636 203 206 189
1.1345 -0.405223 -0.636 203 205 191
1.13571 -0.405223 -0.636 203 205 191
1.13514 -0.404586 -0.635 203 205 191
1.13635 -0.404586 -0.635 202 204 190
1.13756 -0.404586 -0.635 202 204 190
1.13697 -0.403949 -0.634 202 204 190
1.13639 -0.403311 -0.633 202 204 190
1.13759 -0.403311 -0.633 202 204 190
1.1388 -0.403311 -0.633 204 204 192
1.1382 -0.402674 -0.632 204 204 192
1.13941 -0.402674 -0.632 204 204 192
1.14061 -0.402674 -0.632 203 206 189
1.14001 -0.402037 -0.631 202 205 188
1.1394 -0.4014 -0.63 202 205 184
1.13879 -0.400763 -0.629 201 204 183
0.07372 -0.371926 -0.582 200 161 144
0.0745714 -0.370648 -0.58 202 160 144
0.0751543 -0.368091 -0.576 201 159 143
0.0755895 -0.364896 -0.571 200 158 142
0.07614 -0.36234 -0.567 200 158 142
0.076539 -0.359145 -0.562 201 158 141
0.0770571 -0.356589 -0.558 202 159 142
0.07784 -0.35531 -0.556 204 159 140
0.0784733 -0.353393 -0.553 203 158 139
0.079239 -0.352115 -0.551 202 157 138
0.0801429 -0.351476 -0.55 201 156 137
0.0808952 -0.350198 -0.548 202 157 138
0.081939 -0.350198 -0.548 202 157 138
0.0829829 -0.350198 -0.548 202 155 137
0.0838733 -0.349559 -0.547 201 154 136
0.0849152 -0.349559 -0.547 201 154 134
0.0859571 -0.349559 -0.547 200 153 133
0.086999 -0.349559 -0.547 200 153 133
0.088041 -0.349559 -0.547 200 153 133
0.0890829 -0.349559 -0.547 200 152 132
0.0901248 -0.349559 -0.547 200 152 132
0.0911667 -0.349559 -0.547 200 152 132
0.0922086 -0.349559 -0.547 200 152 132
0.0932505 -0.349559 -0.547 200 149 128
0.0942924 -0.349559 -0.547 200 149 128
0.0953343 -0.349559 -0.547 198 147 126
0.0963762 -0.349559 -0.547 196 145 124
0.0974181 -0.349559 -0.547 195 144 123
0.09846 -0.349559 -0.547 196 145 124
0.09932 -0.34892 -0.546 197 146 125
0.10036 -0.34892 -0.546 197 146 125
0.1014 -0.34892 -0.546 196 145 124
0.10244 -0.34892 -0.546 195 144 123
0.10348 -0.34892 -0.546 196 145 124
0.10452 -0.34892 -0.546 197 146 125
0.10556 -0.34892 -0.546 198 146 125
0.1066 -0.34892 -0.546 197 145 124
0.10764 -0.34892 -0.546 197 145 124
0.10868 -0.34892 -0.546 196 144 123
0.10972 -0.34892 -0.546 193 141 120
0.11076 -0.34892 -0.546 196 141 120
0.1118 -0.34892 -0.546 198 143 122
0.113047 -0.349559 -0.547 192 140 119
0.114089 -0.349559 -0.547 186 134 113
0.115341 -0.350198 -0.548 183 131 110
0.116597 -0.350837 -0.549 180 128 107
0.117857 -0.351476 -0.55 172 120 98
0.119121 -0.352115 -0.551 163 111 89
0.120389 -0.352754 -0.552 158 107 86
0.12166 -0.353393 -0.553 153 102 81
0.122935 -0.354032 -0.554 146 99 83
0.124214 -0.354671 -0.555 144 97 81
0.125497 -0.35531 -0.556 143 95 85
0.127011 -0.356589 -0.558 143 95 85
0.128304 -0.357228 -0.559 143 94 87
0.129831 -0.358506 -0.561 142 93 86
0.131133 -0.359145 -0.562 138 94 85
0.132439 -0.359784 -0.563 136 92 83
0.133749 -0.360423 -0.564 131 88 79
0.135062 -0.361062 -0.565 129 86 77
0.136379 -0.361701 -0.566 125 85 77
0.137943 -0.362979 -0.568 124 84 76
0.13927 -0.363618 -0.569 125 85 77
0.1406 -0.364257 -0.57 126 86 78
0.142183 -0.365535 -0.572 124 85 78
0.143523 -0.366174 -0.573 125 86 79
0.144867 -0.366813 -0.574 123 86 80
0.146214 -0.367452 -0.575 123 86 80
0.147566 -0.368091 -0.576 120 85 81
0.148921 -0.36873 -0.577 120 85 81
0.15054 -0.370009 -0.579 120 85 81
0.151905 -0.370648 -0.58 119 84 80
0.15301 -0.370648 -0.58 118 89 83
0.154646 -0.371926 -0.582 118 89 83
0.156022 -0.372565 -0.583 120 85 81
0.157402 -0.373204 -0.584 118 83 79
0.159057 -0.374482 -0.586 122 83 84
0.160447 -0.375121 -0.587 121 82 83
0.189037 -0.387902 -0.607 93 98 140
0.190193 -0.387902 -0.607 120 125 167
0.19135 -0.387902 -0.607 115 117 156
0.192506 -0.387902 -0.607 122 124 163
0.193662 -0.387902 -0.607 141 144 179
0.195139 -0.388541 -0.608 153 156 191
0.196297 -0.388541 -0.608 140 146 180
0.197455 -0.388541 -0.608 109 115 149
0.198613 -0.388541 -0.608 50 58 95
0.199771 -0.388541 -0.608 46 54 91
0.20093 -0.388541 -0.608 84 90 124
0.202088 -0.388541 -0.608 120 126 160
0.203246 -0.388541 -0.608 149 153 180
0.204404 -0.388541 -0.608 158 162 189
0.205562 -0.388541 -0.608 163 161 182
0.20672 -0.388541 -0.608 165 163 184
0.207878 -0.388541 -0.608 172 169 180
0.209036 -0.388541 -0.608 171 168 179
0.210194 -0.388541 -0.608 157 149 160
0.211352 -0.388541 -0.608 122 114 125
0.21251 -0.388541 -0.608 143 136 152
0.213669 -0.388541 -0.608 174 167 183
0.214827 -0.388541 -0.608 175 170 192
0.215985 -0.388541 -0.608 173 168 190
0.2175 -0.38918 -0.609 168 175 194
0.21866 -0.38918 -0.609 172 179 198
0.21982 -0.38918 -0.609 174 180 196
0.220617 -0.388541 -0.608 175 181 197
0.221775 -0.388541 -0.608 179 185 201
0.222933 -0.388541 -0.608 182 188 204
0.224091 -0.388541 -0.608 188 193 212
0.22525 -0.388541 -0.608 188 193 212
0.22678 -0.38918 -0.609 185 190 210
0.22794 -0.38918 -0.609 186 191 211
0.2291 -0.38918 -0.609 188 193 213
0.23026 -0.38918 -0.609 187 192 212
0.23142 -0.38918 -0.609 180 188 211
0.23258 -0.38918 -0.609 180 188 211
0.23374 -0.38918 -0.609 170 178 201
0.2349 -0.38918 -0.609 135 147 171
0.23606 -0.38918 -0.609 92 104 128
0.23722 -0.38918 -0.609 82 98 132
0.23838 -0.38918 -0.609 129 145 179
0.23954 -0.38918 -0.609 186 192 228
0.2407 -0.38918 -0.609 200 206 242
0.24186 -0.38918 -0.609 198 201 232
0.452895 -0.39621 -0.62 206 219 251
0.454076 -0.39621 -0.62 212 217 247
0.455257 -0.39621 -0.62 230 235 255
0.456438 -0.39621 -0.62 228 230 245
0.457619 -0.39621 -0.62 202 204 219
0.45954 -0.396849 -0.621 197 200 215
0.460723 -0.396849 -0.621 213 216 231
0.46265 -0.397488 -0.622 204 211 230
0.463834 -0.397488 -0.622 169 176 195
0.465019 -0.397488 -0.622 127 134 162
0.466204 -0.397488 -0.622 162 169 197
0.467389 -0.397488 -0.622 214 218 243
0.468573 -0.397488 -0.622 235 239 255
0.469003 -0.396849 -0.621 236 243 255
0.470943 -0.397488 -0.622 233 240 255
0.472128 -0.397488 -0.622 236 242 255
0.473312 -0.397488 -0.622 234 240 255
0.474497 -0.397488 -0.622 231 237 253
0.475682 -0.397488 -0.622 232 238 254
0.476867 -0.397488 -0.622 232 237 255
0.478051 -0.397488 -0.622 233 238 255
0.479236 -0.397488 -0.622 221 224 243
0.480421 -0.397488 -0.622 214 217 236
0.481606 -0.397488 -0.622 223 226 245
0.483567 -0.398127 -0.623 228 231 250
0.484753 -0.398127 -0.623 224 229 248
0.48594 -0.398127 -0.623 224 229 248
0.487127 -0.398127 -0.623 226 229 246
0.488313 -0.398127 -0.623 226 229 246
0.4895 -0.398127 -0.623 224 227 244
0.491474 -0.398766 -0.624 226 228 241
0.492663 -0.398766 -0.624 223 225 238
0.493851 -0.398766 -0.624 221 224 239
0.49504 -0.398766 -0.624 218 221 236
0.496229 -0.398766 -0.624 195 202 221
0.497417 -0.398766 -0.624 148 155 174
0.498606 -0.398766 -0.624 114 120 146
0.499794 -0.398766 -0.624 128 134 160
0.500983 -0.398766 -0.624 144 148 173
0.502171 -0.398766 -0.624 167 171 196
0.504167 -0.399405 -0.625 202 204 225
0.505357 -0.399405 -0.625 211 213 234
0.506548 -0.399405 -0.625 201 209 228
0.507738 -0.399405 -0.625 183 191 210
0.508929 -0.399405 -0.625 172 190 214
0.510119 -0.399405 -0.625 167 185 209
0.51131 -0.399405 -0.625 139 165 202
0.5125 -0.399405 -0.625 116 142 179
0.51369 -0.399405 -0.625 102 138 186
0.514881 -0.399405 -0.625 88 124 172
0.516897 -0.400044 -0.626 84 125 179
0.51809 -0.400044 -0.626 88 129 183
0.518452 -0.399405 -0.625 110 142 193
0.519643 -0.399405 -0.625 134 166 217
0.520833 -0.399405 -0.625 157 165 184
0.522024 -0.399405 -0.625 123 131 150
0.523214 -0.399405 -0.625 134 144 154
0.523566 -0.398766 -0.624 173 183 193
0.523913 -0.398127 -0.623 184 188 199
0.515715 -0.384068 -0.601 171 143 140
0.51256 -0.380872 -0.596 170 142 139
0.510248 -0.378316 -0.592 172 141 136
0.50792 -0.37576 -0.588 171 140 135
0.505577 -0.373204 -0.584 171 141 133
0.503219 -0.370648 -0.58 171 141 133
0.500846 -0.368091 -0.576 173 140 133
0.498457 -0.365535 -0.572 174 141 134
0.496927 -0.363618 -0.569 175 142 133
0.49451 -0.361062 -0.565 175 142 133
0.492954 -0.359145 -0.562 176 142 132
0.491388 -0.357228 -0.559 178 144 134
0.49069 -0.35595 -0.557 182 146 134
0.489103 -0.354032 -0.554 182 146 134
0.488389 -0.352754 -0.552 182 146 134
0.48678 -0.350837 -0.549 182 146 134
0.486049 -0.349559 -0.547 183 147 133
0.48531 -0.348281 -0.545 183 147 133
0.484563 -0.347003 -0.543 189 150 133
0.484703 -0.346364 -0.542 187 148 131
0.484839 -0.345725 -0.541 190 149 131
0.484073 -0.344447 -0.539 191 150 132
0.4842 -0.343808 -0.538 190 149 131
0.484323 -0.343169 -0.537 191 150 132
0.484442 -0.34253 -0.536 194 153 133
0.484557 -0.34189 -0.535 195 154 134
0.484669 -0.341251 -0.534 196 154 132
0.485686 -0.341251 -0.534 198 156 134
0.485791 -0.340612 -0.533 199 154 131
0.486807 -0.340612 -0.533 197 152 129
0.487822 -0.340612 -0.533 197 152 129
0.48792 -0.339973 -0.532 198 153 130
0.488014 -0.339334 -0.531 199 155 130
0.489026 -0.339334 -0.531 200 156 131
0.489114 -0.338695 -0.53 199 157 132
0.490124 -0.338695 -0.53 199 157 132
0.491133 -0.338695 -0.53 197 155 130
0.491214 -0.338056 -0.529 194 152 127
0.491291 -0.337417 -0.528 196 152 127
0.492297 -0.337417 -0.528 196 152 127
0.493303 -0.337417 -0.528 196 152 127
0.493372 -0.336778 -0.527 196 151 128
0.494376 -0.336778 -0.527 197 152 129
0.49538 -0.336778 -0.527 197 152 129
0.495442 -0.336139 -0.526 198 153 130
0.496444 -0.336139 -0.526 198 152 128
0.497446 -0.336139 -0.526 197 151 127
0.4975 -0.3355 -0.525 191 145 121
0.4985 -0.3355 -0.525 189 143 119
0.4995 -0.3355 -0.525 196 150 127
0.499547 -0.334861 -0.524 196 150 126
0.49959 -0.334222 -0.523 197 151 127
0.500586 -0.334222 -0.523 196 150 126
0.501582 -0.334222 -0.523 195 149 125
0.502578 -0.334222 -0.523 194 148 124
0.504537 -0.334861 -0.524 192 147 124
0.505535 -0.334861 -0.524 189 144 121
0.506533 -0.334861 -0.524 186 141 118
0.5085 -0.3355 -0.525 184 139 116
0.5095 -0.3355 -0.525 183 138 115
0.511472 -0.336139 -0.526 181 136 113
0.512474 -0.336139 -0.526 177 135 113
0.514452 -0.336778 -0.527 174 132 110
0.516434 -0.337417 -0.528 171 129 107
0.51842 -0.338056 -0.529 169 127 105
0.521391 -0.339334 -0.531 167 125 103
0.523387 -0.339973 -0.532 164 122 100
1.08746 -0.405156 -0.634 204 207 190
1.08867 -0.405156 -0.634 204 207 190
1.08988 -0.405156 -0.634 204 207 190
1.09108 -0.405156 -0.634 204 207 190
1.09229 -0.405156 -0.634 205 208 191
1.0935 -0.405156 -0.634 205 208 189
1.09471 -0.405156 -0.634 204 207 188
1.09591 -0.405156 -0.634 204 207 188
1.09712 -0.405156 -0.634 205 208 189
1.09833 -0.405156 -0.634 206 209 190
1.09954 -0.405156 -0.634 206 209 190
1.10074 -0.405156 -0.634 205 208 191
1.10195 -0.405156 -0.634 205 208 191
1.10732 -0.405795 -0.635 204 207 190
1.10853 -0.405795 -0.635 203 206 189
1.10974 -0.405795 -0.635 202 205 188
1.11095 -0.405795 -0.635 202 205 188
1.11216 -0.405795 -0.635 202 205 188
1.11337 -0.405795 -0.635 203 206 189
1.11458 -0.405795 -0.635 203 206 189
1.11579 -0.405795 -0.635 204 207 190
1.117 -0.405795 -0.635 205 208 191
1.1182 -0.405795 -0.635 205 208 191
1.11941 -0.405795 -0.635 205 208 191
1.12546 -0.405795 -0.635 204 207 190
1.12667 -0.405795 -0.635 204 207 190
1.12788 -0.405795 -0.635 202 205 188
1.12909 -0.405795 -0.635 202 205 188
1.1303 -0.405795 -0.635 203 206 189
1.13151 -0.405795 -0.635 202 205 188
1.13272 -0.405795 -0.635 202 205 188
1.13393 -0.405795 -0.635 203 206 189
1.13514 -0.405795 -0.635 203 206 189
1.13635 -0.405795 -0.635 203 206 189
1.13577 -0.405156 -0.634 203 206 189
1.13697 -0.405156 -0.634 202 205 188
1.13639 -0.404517 -0.633 202 205 188
1.13759 -0.404517 -0.633 202 205 188
1.1388 -0.404517 -0.633 203 203 193
1.1382 -0.403878 -0.632 203 203 193
1.13941 -0.403878 -0.632 203 203 193
1.14061 -0.403878 -0.632 203 204 188
1.14001 -0.403239 -0.631 203 204 188
1.14121 -0.403239 -0.631 202 205 184
1.1406 -0.4026 -0.63 202 205 184
1.13999 -0.401961 -0.629 203 205 184
0.0734667 -0.371752 -0.58 203 161 145
0.0741857 -0.36983 -0.577 203 160 143
0.0746324 -0.366625 -0.572 203 160 143
0.0749276 -0.362779 -0.566 203 160 143
0.0754686 -0.360215 -0.562 203 160 143
0.0759943 -0.357651 -0.558 206 159 143
0.0766429 -0.355729 -0.555 207 160 144
0.07742 -0.354447 -0.553 204 159 140
0.0781895 -0.353165 -0.551 203 158 139
0.0789514 -0.351883 -0.549 202 157 138
0.0798514 -0.351242 -0.548 202 157 138
0.0807476 -0.350601 -0.547 203 158 139
0.0817895 -0.350601 -0.547 203 158 139
0.0828314 -0.350601 -0.547 202 155 135
0.08372 -0.34996 -0.546 200 153 133
0.08476 -0.34996 -0.546 200 153 133
0.0858 -0.34996 -0.546 200 153 133
0.08684 -0.34996 -0.546 200 153 133
0.08788 -0.34996 -0.546 200 153 133
0.08892 -0.34996 -0.546 200 154 131
0.08996 -0.34996 -0.546 199 153 130
0.091 -0.34996 -0.546 199 151 129
0.09204 -0.34996 -0.546 197 149 127
0.09308 -0.34996 -0.546 197 146 127
0.09412 -0.34996 -0.546 197 146 127
0.09516 -0.34996 -0.546 197 146 125
0.0962 -0.34996 -0.546 197 146 125
0.09724 -0.34996 -0.546 197 146 125
0.09828 -0.34996 -0.546 197 146 125
0.09932 -0.34996 -0.546 198 147 126
0.10036 -0.34996 -0.546 199 148 127
0.1014 -0.34996 -0.546 200 149 128
0.10244 -0.34996 -0.546 197 146 125
0.10329 -0.349319 -0.545 197 146 125
0.104329 -0.349319 -0.545 199 148 127
0.10556 -0.34996 -0.546 198 148 125
0.1066 -0.34996 -0.546 198 148 125
0.10764 -0.34996 -0.546 197 147 124
0.10868 -0.34996 -0.546 194 143 122
0.10972 -0.34996 -0.546 191 140 119
0.11076 -0.34996 -0.546 196 141 121
0.1118 -0.34996 -0.546 196 141 121
0.113047 -0.350601 -0.547 189 137 116
0.114089 -0.350601 -0.547 182 130 109
0.115341 -0.351242 -0.548 177 125 104
0.116597 -0.351883 -0.549 172 120 99
0.117857 -0.352524 -0.55 164 113 92
0.119121 -0.353165 -0.551 158 107 86
0.120389 -0.353806 -0.552 156 105 88
0.12166 -0.354447 -0.553 151 100 83
0.122935 -0.355088 -0.554 143 95 83
0.124214 -0.355729 -0.555 141 93 81
0.125723 -0.35701 -0.557 141 92 85
0.127011 -0.357651 -0.558 142 93 86
0.128533 -0.358933 -0.56 142 93 86
0.129831 -0.359574 -0.561 142 93 86
0.131367 -0.360856 -0.563 139 92 82
0.132674 -0.361497 -0.564 137 90 80
0.133986 -0.362138 -0.565 134 90 79
0.135301 -0.362779 -0.566 130 86 75
0.13662 -0.36342 -0.567 130 86 77
0.137943 -0.364061 -0.568 129 85 76
0.139514 -0.365343 -0.57 126 83 76
0.140847 -0.365984 -0.571 128 85 78
0.142183 -0.366625 -0.572 125 84 78
0.143523 -0.367266 -0.573 125 84 78
0.144867 -0.367907 -0.574 123 84 79
0.146469 -0.369189 -0.576 124 85 80
0.147822 -0.36983 -0.577 122 85 79
0.149437 -0.371111 -0.579 121 84 78
0.1508 -0.371752 -0.58 122 82 80
0.151905 -0.371752 -0.58 119 84 80
0.153273 -0.372393 -0.581 116 86 78
0.154911 -0.373675 -0.583 116 86 78
0.15629 -0.374316 -0.584 118 84 82
0.157941 -0.375598 -0.586 117 83 81
0.159329 -0.376239 -0.587 119 83 85
0.185263 -0.388417 -0.606 51 64 96
0.186417 -0.388417 -0.606 51 64 106
0.187571 -0.388417 -0.606 55 68 110
0.189037 -0.389058 -0.607 85 93 139
0.190193 -0.389058 -0.607 114 122 168
0.19135 -0.389058 -0.607 104 109 151
0.192506 -0.389058 -0.607 119 124 166
0.193662 -0.389058 -0.607 144 149 187
0.194818 -0.389058 -0.607 142 147 185
0.195974 -0.389058 -0.607 115 125 161
0.197455 -0.389699 -0.608 70 80 116
0.198613 -0.389699 -0.608 52 60 97
0.199771 -0.389699 -0.608 81 89 126
0.20093 -0.389699 -0.608 118 123 153
0.202088 -0.389699 -0.608 141 146 176
0.203246 -0.389699 -0.608 158 160 183
0.204404 -0.389699 -0.608 161 163 186
0.205562 -0.389699 -0.608 166 165 181
0.20672 -0.389699 -0.608 167 166 182
0.207878 -0.389699 -0.608 171 167 181
0.209036 -0.389699 -0.608 176 172 186
0.209849 -0.389058 -0.607 173 167 181
0.211005 -0.389058 -0.607 159 153 167
0.212161 -0.389058 -0.607 127 120 136
0.213669 -0.389699 -0.608 160 153 169
0.214827 -0.389699 -0.608 172 169 188
0.215985 -0.389699 -0.608 169 166 185
0.217143 -0.389699 -0.608 162 165 182
0.218301 -0.389699 -0.608 169 172 189
0.219459 -0.389699 -0.608 176 179 196
0.220617 -0.389699 -0.608 180 183 200
0.221775 -0.389699 -0.608 179 184 203
0.222933 -0.389699 -0.608 183 188 207
0.224091 -0.389699 -0.608 188 195 214
0.22525 -0.389699 -0.608 185 192 211
0.226408 -0.389699 -0.608 187 193 215
0.227566 -0.389699 -0.608 186 192 214
0.228724 -0.389699 -0.608 188 195 214
0.229882 -0.389699 -0.608 188 195 214
0.23104 -0.389699 -0.608 188 195 214
0.232198 -0.389699 -0.608 187 194 213
0.233356 -0.389699 -0.608 184 191 210
0.234514 -0.389699 -0.608 164 172 193
0.235672 -0.389699 -0.608 131 139 160
0.23683 -0.389699 -0.608 80 98 138
0.450986 -0.39675 -0.619 194 212 250
0.452165 -0.39675 -0.619 211 229 255
0.453344 -0.39675 -0.619 221 227 249
0.454523 -0.39675 -0.619 229 235 255
0.455702 -0.39675 -0.619 234 241 249
0.457619 -0.39739 -0.62 226 233 241
0.4588 -0.39739 -0.62 197 204 220
0.459981 -0.39739 -0.62 173 180 196
0.461906 -0.398031 -0.621 163 169 193
0.463089 -0.398031 -0.621 148 154 178
0.464271 -0.398031 -0.621 166 170 195
0.465454 -0.398031 -0.621 199 203 228
0.466637 -0.398031 -0.621 224 229 249
0.46782 -0.398031 -0.621 237 242 255
0.469003 -0.398031 -0.621 236 243 255
0.470943 -0.398672 -0.622 233 240 255
0.471369 -0.398031 -0.621 239 245 255
0.472551 -0.398031 -0.621 232 238 250
0.473734 -0.398031 -0.621 234 238 250
0.474917 -0.398031 -0.621 237 241 253
0.476867 -0.398672 -0.622 231 238 255
0.478051 -0.398672 -0.622 231 238 255
0.479236 -0.398672 -0.622 228 233 252
0.480421 -0.398672 -0.622 227 232 251
0.481606 -0.398672 -0.622 231 234 253
0.48279 -0.398672 -0.622 227 230 249
0.483975 -0.398672 -0.622 220 225 244
0.48594 -0.399313 -0.623 222 227 246
0.487127 -0.399313 -0.623 223 229 245
0.488313 -0.399313 -0.623 223 229 245
0.4895 -0.399313 -0.623 223 229 245
0.490687 -0.399313 -0.623 226 229 244
0.491873 -0.399313 -0.623 222 225 240
0.49306 -0.399313 -0.623 223 226 241
0.494247 -0.399313 -0.623 220 223 238
0.495433 -0.399313 -0.623 211 218 234
0.49662 -0.399313 -0.623 191 198 214
0.497807 -0.399313 -0.623 146 152 174
0.498993 -0.399313 -0.623 124 130 152
0.500983 -0.399954 -0.624 130 136 160
0.502171 -0.399954 -0.624 164 170 194
0.50336 -0.399954 -0.624 200 205 227
0.504549 -0.399954 -0.624 208 213 235
0.505737 -0.399954 -0.624 200 206 228
0.506926 -0.399954 -0.624 186 192 214
0.508114 -0.399954 -0.624 177 193 219
0.509303 -0.399954 -0.624 178 194 220
0.510491 -0.399954 -0.624 142 170 210
0.51168 -0.399954 -0.624 103 131 171
0.512869 -0.399954 -0.624 85 121 179
0.514881 -0.400595 -0.625 73 109 167
0.516071 -0.400595 -0.625 68 109 175
0.517262 -0.400595 -0.625 75 116 182
0.518452 -0.400595 -0.625 102 137 191
0.519643 -0.400595 -0.625 137 172 226
0.52 -0.399954 -0.624 167 178 198
0.521189 -0.399954 -0.624 160 171 191
0.522377 -0.399954 -0.624 134 142 153
0.523566 -0.399954 -0.624 126 134 145
0.523913 -0.399313 -0.623 171 175 187
0.517431 -0.386494 -0.603 172 141 138
0.51428 -0.38329 -0.598 170 139 136
0.51111 -0.380085 -0.593 171 141 133
0.508784 -0.377521 -0.589 172 142 134
0.506443 -0.374957 -0.585 172 142 134
0.504087 -0.372393 -0.581 172 142 134
0.501715 -0.36983 -0.577 174 141 132
0.499329 -0.367266 -0.573 174 141 132
0.4978 -0.365343 -0.57 175 143 132
0.495385 -0.362779 -0.566 176 144 133
0.493831 -0.360856 -0.563 175 141 131
0.492267 -0.358933 -0.56 178 144 134
0.49069 -0.35701 -0.557 182 146 134
0.489986 -0.355729 -0.555 182 146 134
0.488389 -0.353806 -0.552 182 146 132
0.487667 -0.352524 -0.55 182 146 132
0.486937 -0.351242 -0.548 183 147 133
0.4862 -0.34996 -0.546 183 147 133
0.485455 -0.348678 -0.544 186 147 130
0.484703 -0.347396 -0.542 186 147 130
0.484839 -0.346755 -0.541 191 150 132
0.484073 -0.345473 -0.539 192 151 133
0.4842 -0.344832 -0.538 190 149 131
0.484323 -0.344191 -0.537 190 149 131
0.484442 -0.34355 -0.536 193 152 132
0.484557 -0.34291 -0.535 193 152 132
0.484669 -0.342269 -0.534 195 153 131
0.484776 -0.341628 -0.533 197 155 133
0.485791 -0.341628 -0.533 198 153 132
0.485893 -0.340987 -0.532 197 152 131
0.486907 -0.340987 -0.532 198 153 130
0.48792 -0.340987 -0.532 200 155 132
0.488014 -0.340346 -0.531 200 155 132
0.488105 -0.339705 -0.53 199 154 131
0.489114 -0.339705 -0.53 199 154 131
0.489199 -0.339064 -0.529 200 155 132
0.490207 -0.339064 -0.529 198 154 129
0.491214 -0.339064 -0.529 197 153 128
0.491291 -0.338423 -0.528 197 153 128
0.491365 -0.337782 -0.527 197 153 128
0.492369 -0.337782 -0.527 197 153 128
0.493372 -0.337782 -0.527 196 151 128
0.493438 -0.337141 -0.526 196 151 128
0.49444 -0.337141 -0.526 199 153 129
0.4945 -0.3365 -0.525 200 154 130
0.4955 -0.3365 -0.525 200 154 130
0.4965 -0.3365 -0.525 198 152 128
0.4975 -0.3365 -0.525 192 146 122
0.49755 -0.335859 -0.524 190 144 120
0.498549 -0.335859 -0.524 196 150 126
0.499547 -0.335859 -0.524 196 150 126
0.49959 -0.335218 -0.523 197 151 127
0.500586 -0.335218 -0.523 196 150 126
0.501582 -0.335218 -0.523 194 148 124
0.502578 -0.335218 -0.523 194 148 124
0.503574 -0.335218 -0.523 192 146 123
0.50457 -0.335218 -0.523 191 145 122
0.505567 -0.335218 -0.523 189 144 121
0.506563 -0.335218 -0.523 185 140 117
