ply
format ascii 1.0
comment Created by Open3D
element vertex 1312
property double x
property double y
property double z
property uchar red
property uchar green
property uchar blue
end_header
-0.151997 -0.250174 -0.621 111 112 114
-0.150086 -0.248966 -0.618 106 107 109
-0.147945 -0.247354 -0.614 106 107 109
-0.146536 -0.246951 -0.613 106 107 109
-0.145131 -0.246549 -0.612 105 106 110
-0.143495 -0.245743 -0.61 104 105 109
-0.141633 -0.244534 -0.607 101 100 105
-0.140477 -0.244534 -0.607 97 96 101
-0.139321 -0.244534 -0.607 96 95 100
-0.137937 -0.244131 -0.606 95 94 99
-0.136783 -0.244131 -0.606 93 92 98
-0.1363 -0.24534 -0.609 87 88 92
-0.134918 -0.244937 -0.608 82 83 87
-0.13376 -0.244937 -0.608 79 80 84
-0.132384 -0.244534 -0.607 75 76 81
-0.131228 -0.244534 -0.607 71 72 77
-0.129857 -0.244131 -0.606 69 70 75
-0.128915 -0.244534 -0.607 67 68 73
-0.127759 -0.244534 -0.607 68 67 73
-0.126394 -0.244131 -0.606 69 68 74
-0.125033 -0.243729 -0.605 69 68 74
-0.123676 -0.243326 -0.604 68 67 73
-0.122323 -0.242923 -0.603 68 67 73
-0.121174 -0.242923 -0.603 67 66 72
-0.119827 -0.24252 -0.602 65 64 70
-0.11868 -0.24252 -0.602 65 64 70
-0.117338 -0.242117 -0.601 65 64 72
-0.116193 -0.242117 -0.601 64 63 71
-0.114857 -0.241714 -0.6 65 64 72
-0.113714 -0.241714 -0.6 68 67 75
-0.112571 -0.241714 -0.6 66 65 73
-0.111429 -0.241714 -0.6 67 66 74
-0.110286 -0.241714 -0.6 68 67 75
-0.109143 -0.241714 -0.6 71 70 78
-0.108 -0.241714 -0.6 70 69 77
-0.106857 -0.241714 -0.6 70 69 77
-0.105538 -0.241311 -0.599 73 72 78
-0.104571 -0.241714 -0.6 76 75 81
-0.103429 -0.241714 -0.6 77 76 82
-0.102456 -0.242117 -0.601 77 76 82
-0.10148 -0.24252 -0.602 76 75 81
-0.100333 -0.24252 -0.602 77 76 82
-0.0991867 -0.24252 -0.602 77 76 82
-0.09804 -0.24252 -0.602 79 78 84
-0.0970543 -0.242923 -0.603 78 77 83
-0.0960648 -0.243326 -0.604 77 76 82
-0.0949143 -0.243326 -0.604 77 76 82
-0.0939191 -0.243729 -0.605 77 76 82
-0.09292 -0.244131 -0.606 75 74 80
-0.0919171 -0.244534 -0.607 77 76 82
-0.0909105 -0.244937 -0.608 77 76 82
-0.0899 -0.24534 -0.609 77 76 82
-0.08874 -0.24534 -0.609 76 75 81
-0.0877238 -0.245743 -0.61 76 75 81
-0.0867038 -0.246146 -0.611 76 75 81
-0.08568 -0.246549 -0.612 76 75 81
-0.0846524 -0.246951 -0.613 76 75 81
-0.083621 -0.247354 -0.614 77 76 81
-0.0825857 -0.247757 -0.615 76 75 80
-0.0815467 -0.24816 -0.616 76 75 80
-0.0805038 -0.248563 -0.617 75 74 79
-0.0793286 -0.248563 -0.617 74 73 79
-0.07828 -0.248966 -0.618 74 73 79
-0.0772276 -0.249369 -0.619 74 73 79
-0.0761714 -0.249771 -0.62 75 74 80
-0.0751114 -0.250174 -0.621 74 73 79
-0.0739286 -0.250174 -0.621 74 73 79
-0.0728629 -0.250577 -0.622 74 73 79
-0.0717933 -0.25098 -0.623 74 73 79
-0.0706067 -0.25098 -0.623 74 73 79
-0.0695314 -0.251383 -0.624 74 73 79
-0.0683429 -0.251383 -0.624 74 73 79
-0.0672619 -0.251786 -0.625 74 73 79
-0.0661771 -0.252189 -0.626 75 74 82
-0.0650886 -0.252591 -0.627 75 74 82
-0.0639962 -0.252994 -0.628 74 73 79
-0.0628 -0.252994 -0.628 71 70 76
-0.0617019 -0.253397 -0.629 69 68 76
-0.0606 -0.2538 -0.63 77 76 84
-0.0594943 -0.254203 -0.631 77 76 84
-0.0583848 -0.254606 -0.632 71 70 78
-0.057181 -0.254606 -0.632 97 95 106
-0.0560657 -0.255009 -0.633 140 138 149
-0.0549467 -0.255411 -0.634 135 134 142
-0.0538238 -0.255814 -0.635 140 139 147
-0.0526971 -0.256217 -0.636 145 144 152
-0.0515667 -0.25662 -0.637 101 100 108
-0.0504324 -0.257023 -0.638 73 71 82
-0.0492943 -0.257426 -0.639 80 78 89
-0.0481524 -0.257829 -0.64 75 73 84
-0.0469333 -0.257829 -0.64 75 73 84
-0.0457857 -0.258231 -0.641 75 74 82
-0.0447038 -0.259037 -0.643 75 74 82
-0.0435467 -0.25944 -0.644 75 74 82
-0.0423857 -0.259843 -0.645 75 74 82
-0.041221 -0.260246 -0.646 75 74 82
-0.0400524 -0.260649 -0.647 74 73 81
-0.03888 -0.261051 -0.648 74 74 82
-0.0377619 -0.261857 -0.65 74 74 82
-0.0365238 -0.261857 -0.65 74 74 82
0.160333 -0.261857 -0.65 204 155 150
0.160329 -0.259843 -0.645 203 154 149
0.16182 -0.24534 -0.609 191 143 133
0.162177 -0.244131 -0.606 193 145 135
0.161984 -0.242117 -0.601 193 146 138
0.162586 -0.241311 -0.599 192 145 137
0.16318 -0.240506 -0.597 186 142 133
0.163767 -0.2397 -0.595 179 135 126
0.164623 -0.239297 -0.594 183 139 130
0.165475 -0.238894 -0.593 180 136 127
0.166324 -0.238491 -0.592 183 134 127
0.166886 -0.237686 -0.59 191 142 135
0.167725 -0.237283 -0.589 200 150 143
0.16856 -0.23688 -0.588 199 149 142
0.169391 -0.236477 -0.587 196 146 139
0.170219 -0.236074 -0.586 198 148 141
0.171043 -0.235671 -0.585 197 150 142
0.171863 -0.235269 -0.584 198 151 143
0.172679 -0.234866 -0.583 198 150 140
0.173491 -0.234463 -0.582 196 148 138
0.1746 -0.234463 -0.582 191 142 135
0.175709 -0.234463 -0.582 188 139 132
0.176817 -0.234463 -0.582 187 138 131
0.177926 -0.234463 -0.582 187 138 131
0.179034 -0.234463 -0.582 188 136 125
0.180452 -0.234866 -0.583 186 134 123
0.181874 -0.235269 -0.584 178 124 112
0.1833 -0.235671 -0.585 171 117 105
0.184414 -0.235671 -0.585 171 117 105
0.185846 -0.236074 -0.586 172 115 104
0.187281 -0.236477 -0.587 172 115 104
0.189362 -0.237686 -0.59 164 111 103
0.190809 -0.238089 -0.591 158 105 97
0.192584 -0.238894 -0.593 154 100 98
0.194693 -0.240103 -0.596 154 100 98
0.196814 -0.241311 -0.599 147 95 97
0.198616 -0.242117 -0.601 143 91 93
0.200758 -0.243326 -0.604 138 89 95
0.202911 -0.244534 -0.607 131 82 88
0.205076 -0.245743 -0.61 124 77 85
0.207252 -0.246951 -0.613 127 80 88
0.20944 -0.24816 -0.616 130 83 91
0.211639 -0.249369 -0.619 127 80 88
0.21385 -0.250577 -0.622 129 82 88
0.216071 -0.251786 -0.625 134 87 93
0.218305 -0.252994 -0.628 135 86 92
0.2202 -0.2538 -0.63 135 86 92
0.222454 -0.255009 -0.633 135 84 91
0.224367 -0.255814 -0.635 130 79 86
0.225931 -0.256217 -0.636 123 74 80
0.227857 -0.257023 -0.638 124 75 81
0.229431 -0.257426 -0.639 130 80 89
0.23137 -0.258231 -0.641 130 80 89
0.233317 -0.259037 -0.643 130 80 91
0.235271 -0.259843 -0.645 134 84 95
0.2376 -0.261051 -0.648 134 87 97
0.239571 -0.261857 -0.65 134 87 97
-0.165286 -0.263095 -0.65 131 136 132
-0.163038 -0.261476 -0.646 132 137 133
-0.161056 -0.260262 -0.643 125 130 126
-0.157843 -0.257024 -0.635 119 121 120
-0.155647 -0.255405 -0.631 114 116 115
-0.153221 -0.253381 -0.626 112 114 113
-0.151057 -0.251762 -0.622 110 112 111
-0.14915 -0.250548 -0.619 110 111 113
-0.147014 -0.248929 -0.615 109 110 112
-0.145131 -0.247714 -0.612 108 107 112
-0.143495 -0.246905 -0.61 107 106 111
-0.141867 -0.246095 -0.608 103 102 107
-0.140014 -0.244881 -0.605 100 99 104
-0.138862 -0.244881 -0.605 99 98 103
-0.137482 -0.244476 -0.604 94 93 98
-0.136783 -0.245286 -0.606 93 92 98
-0.135629 -0.245286 -0.606 84 83 89
-0.134252 -0.244881 -0.605 77 76 82
-0.1331 -0.244881 -0.605 75 74 80
-0.13173 -0.244476 -0.604 73 72 78
-0.130579 -0.244476 -0.604 70 69 75
-0.129214 -0.244071 -0.603 68 67 73
-0.127853 -0.243667 -0.602 67 66 72
-0.126707 -0.243667 -0.602 63 64 69
-0.125351 -0.243262 -0.601 65 66 71
-0.124207 -0.243262 -0.601 65 66 71
-0.122857 -0.242857 -0.6 64 65 70
-0.121511 -0.242452 -0.599 65 66 71
-0.12017 -0.242048 -0.598 63 64 69
-0.118831 -0.241643 -0.597 60 61 66
-0.117694 -0.241643 -0.597 60 61 66
-0.116557 -0.241643 -0.597 62 61 67
-0.115227 -0.241238 -0.596 64 63 69
-0.114091 -0.241238 -0.596 63 62 68
-0.112956 -0.241238 -0.596 66 65 71
-0.111821 -0.241238 -0.596 65 64 70
-0.110686 -0.241238 -0.596 66 65 71
-0.10955 -0.241238 -0.596 65 64 70
-0.108415 -0.241238 -0.596 69 68 74
-0.10728 -0.241238 -0.596 68 67 73
-0.106323 -0.241643 -0.597 69 68 74
-0.105186 -0.241643 -0.597 72 71 79
-0.104049 -0.241643 -0.597 75 74 82
-0.103084 -0.242048 -0.598 76 75 83
-0.101945 -0.242048 -0.598 77 76 84
-0.101143 -0.242857 -0.6 75 74 82
-0.100167 -0.243262 -0.601 77 76 82
-0.0991867 -0.243667 -0.602 76 75 81
-0.09804 -0.243667 -0.602 78 77 83
-0.0970543 -0.244071 -0.603 79 78 84
-0.0960648 -0.244476 -0.604 78 77 83
-0.0950714 -0.244881 -0.605 77 76 82
-0.0940743 -0.245286 -0.606 78 77 83
-0.0930733 -0.24569 -0.607 76 75 81
-0.0920686 -0.246095 -0.608 77 76 82
-0.09106 -0.2465 -0.609 77 76 82
-0.0900476 -0.246905 -0.61 77 76 82
-0.0890314 -0.24731 -0.611 77 76 82
-0.0880114 -0.247714 -0.612 77 76 82
-0.0868457 -0.247714 -0.612 77 76 82
-0.08582 -0.248119 -0.613 77 76 82
-0.0847905 -0.248524 -0.614 76 75 81
-0.0837571 -0.248929 -0.615 78 77 82
-0.08272 -0.249333 -0.616 77 76 81
-0.081679 -0.249738 -0.617 76 75 80
-0.0806343 -0.250143 -0.618 75 74 79
-0.0794571 -0.250143 -0.618 75 74 80
-0.0784067 -0.250548 -0.619 74 73 79
-0.0773524 -0.250952 -0.62 75 74 80
-0.0762943 -0.251357 -0.621 75 74 80
-0.0751114 -0.251357 -0.621 74 73 79
-0.0740476 -0.251762 -0.622 74 73 79
-0.07298 -0.252167 -0.623 74 73 81
-0.0717933 -0.252167 -0.623 74 73 81
-0.07072 -0.252571 -0.624 74 73 81
-0.0695314 -0.252571 -0.624 74 73 81
-0.0684524 -0.252976 -0.625 74 73 81
-0.0673695 -0.253381 -0.626 74 73 81
-0.0662829 -0.253786 -0.627 73 72 80
-0.0651924 -0.25419 -0.628 74 73 81
-0.0639962 -0.25419 -0.628 75 74 82
-0.0629 -0.254595 -0.629 74 73 81
-0.0617019 -0.254595 -0.629 76 75 83
-0.0606 -0.255 -0.63 74 73 81
-0.0594943 -0.255405 -0.631 68 67 75
-0.0583848 -0.25581 -0.632 96 95 103
-0.0572714 -0.256214 -0.633 141 139 150
-0.0560657 -0.256214 -0.633 101 99 110
-0.0549467 -0.256619 -0.634 77 76 84
-0.0538238 -0.257024 -0.635 81 80 88
-0.0526971 -0.257429 -0.636 145 144 152
-0.0515667 -0.257833 -0.637 98 97 105
-0.0504324 -0.258238 -0.638 76 74 85
-0.0492943 -0.258643 -0.639 74 72 83
-0.0481524 -0.259048 -0.64 74 72 83
-0.0470067 -0.259452 -0.641 75 73 84
-0.0457857 -0.259452 -0.641 74 72 83
-0.0446343 -0.259857 -0.642 75 73 84
-0.0435467 -0.260667 -0.644 75 73 84
-0.0423857 -0.261071 -0.645 75 73 84
-0.041221 -0.261476 -0.646 74 73 81
-0.0400524 -0.261881 -0.647 74 73 81
-0.03888 -0.262286 -0.648 73 73 81
-0.0377038 -0.26269 -0.649 73 73 81
-0.0365238 -0.263095 -0.65 74 74 82
0.159163 -0.242452 -0.599 195 148 140
0.159769 -0.241643 -0.597 193 146 138
0.160097 -0.240429 -0.594 194 146 134
0.160957 -0.240024 -0.593 191 143 131
0.161813 -0.239619 -0.592 189 136 120
0.162666 -0.239214 -0.591 185 132 116
0.163514 -0.23881 -0.59 186 130 117
0.164359 -0.238405 -0.589 183 127 114
0.1652 -0.238 -0.588 193 143 132
0.166037 -0.237595 -0.587 198 148 137
0.167155 -0.237595 -0.587 194 147 139
0.167987 -0.23719 -0.586 198 151 143
0.168814 -0.236786 -0.585 194 150 141
0.169348 -0.235976 -0.583 193 149 140
0.170166 -0.235571 -0.582 199 152 144
0.17098 -0.235167 -0.581 197 150 142
0.17179 -0.234762 -0.58 198 151 143
0.172895 -0.234762 -0.58 195 148 140
0.174 -0.234762 -0.58 193 143 132
0.175105 -0.234762 -0.58 189 139 128
0.17621 -0.234762 -0.58 187 134 120
0.17762 -0.235167 -0.581 190 137 123
0.178727 -0.235167 -0.581 189 133 118
0.180143 -0.235571 -0.582 185 129 114
0.181563 -0.235976 -0.583 179 126 112
0.182673 -0.235976 -0.583 179 126 112
0.184414 -0.236786 -0.585 172 119 105
0.185846 -0.23719 -0.586 166 114 101
0.187281 -0.237595 -0.587 166 114 101
0.189041 -0.238405 -0.589 163 111 98
0.191131 -0.239619 -0.592 156 104 91
0.192909 -0.240429 -0.594 153 98 95
0.194693 -0.241238 -0.596 150 95 92
0.196814 -0.242452 -0.599 148 96 98
0.198947 -0.243667 -0.602 140 88 90
0.20109 -0.244881 -0.605 139 90 94
0.203246 -0.246095 -0.608 131 82 86
0.205412 -0.24731 -0.611 120 73 79
0.20759 -0.248524 -0.614 126 79 85
0.20978 -0.249738 -0.617 124 78 88
0.211981 -0.250952 -0.62 126 80 90
0.214193 -0.252167 -0.623 128 82 93
0.216417 -0.253381 -0.626 129 83 94
0.218652 -0.254595 -0.629 132 85 95
0.220899 -0.25581 -0.632 133 86 96
0.222806 -0.256619 -0.634 130 80 89
0.22472 -0.257429 -0.636 123 73 82
0.226287 -0.257833 -0.637 120 67 83
0.227857 -0.258238 -0.638 127 74 90
0.22979 -0.259048 -0.64 127 79 91
0.23137 -0.259452 -0.641 128 80 92
0.233317 -0.260262 -0.643 130 83 93
0.235271 -0.261071 -0.645 130 83 93
0.237233 -0.261881 -0.647 130 83 93
0.239571 -0.263095 -0.65 131 84 94
-0.164048 -0.264333 -0.65 138 143 139
-0.162058 -0.263113 -0.647 135 140 136
-0.16008 -0.261893 -0.644 128 133 129
-0.157127 -0.259047 -0.637 119 124 120
-0.15469 -0.257013 -0.632 116 118 117
-0.152514 -0.255387 -0.628 112 114 113
-0.150113 -0.253353 -0.623 113 115 114
-0.14821 -0.252133 -0.62 111 113 112
-0.14608 -0.250507 -0.616 110 111 113
-0.143966 -0.24888 -0.612 108 109 111
-0.142333 -0.248067 -0.61 106 106 108
-0.140709 -0.247253 -0.608 105 105 107
-0.138862 -0.246033 -0.605 99 98 103
-0.137482 -0.245627 -0.604 94 93 98
-0.136106 -0.24522 -0.603 89 88 94
-0.134957 -0.24522 -0.603 80 79 85
-0.133587 -0.244813 -0.602 72 71 77
-0.13222 -0.244407 -0.601 70 69 75
-0.131075 -0.244407 -0.601 69 68 74
-0.129714 -0.244 -0.6 66 65 71
-0.128357 -0.243593 -0.599 63 64 69
-0.127216 -0.243593 -0.599 63 64 69
-0.125865 -0.243187 -0.598 60 61 66
-0.124517 -0.24278 -0.597 62 63 68
-0.123173 -0.242373 -0.596 62 63 68
-0.121833 -0.241967 -0.595 62 63 68
-0.120497 -0.24156 -0.594 63 64 69
-0.119366 -0.24156 -0.594 63 64 69
-0.118035 -0.241153 -0.593 63 64 69
-0.116906 -0.241153 -0.593 63 64 69
-0.115776 -0.241153 -0.593 62 61 67
-0.114453 -0.240747 -0.592 66 65 71
-0.113326 -0.240747 -0.592 60 59 65
-0.112388 -0.241153 -0.593 62 61 67
-0.111258 -0.241153 -0.593 61 60 66
-0.110129 -0.241153 -0.593 65 64 70
-0.109183 -0.24156 -0.594 65 64 70
-0.108051 -0.24156 -0.594 64 63 69
-0.1071 -0.241967 -0.595 66 65 71
-0.105967 -0.241967 -0.595 68 67 73
-0.10501 -0.242373 -0.596 71 70 78
-0.104049 -0.24278 -0.597 73 72 80
-0.102911 -0.24278 -0.597 75 74 82
-0.101945 -0.243187 -0.598 75 74 82
-0.101311 -0.244407 -0.601 75 74 82
-0.100333 -0.244813 -0.602 76 75 81
-0.0993514 -0.24522 -0.603 75 74 80
-0.0983657 -0.245627 -0.604 77 76 82
-0.0973762 -0.246033 -0.605 79 78 84
-0.0962238 -0.246033 -0.605 78 77 83
-0.0952286 -0.24644 -0.606 78 77 83
-0.0942295 -0.246847 -0.607 78 77 83
-0.0932267 -0.247253 -0.608 78 77 83
-0.0923714 -0.248067 -0.61 77 76 82
-0.0912095 -0.248067 -0.61 77 76 82
-0.0901952 -0.248473 -0.611 77 76 82
-0.0891771 -0.24888 -0.612 77 76 82
-0.0881552 -0.249287 -0.613 77 76 82
-0.0869876 -0.249287 -0.613 77 76 82
-0.08596 -0.249693 -0.614 77 76 81
-0.0849286 -0.2501 -0.615 77 76 81
-0.0837571 -0.2501 -0.615 78 77 82
-0.08272 -0.250507 -0.616 78 77 82
-0.081679 -0.250913 -0.617 77 76 81
-0.0806343 -0.25132 -0.618 76 75 80
-0.0795857 -0.251727 -0.619 75 74 80
-0.0785333 -0.252133 -0.62 74 73 79
-0.0773524 -0.252133 -0.62 74 73 79
-0.0762943 -0.25254 -0.621 75 74 80
-0.0752324 -0.252947 -0.622 73 72 78
-0.0740476 -0.252947 -0.622 73 72 78
-0.07298 -0.253353 -0.623 74 73 81
-0.0719086 -0.25376 -0.624 74 73 81
-0.07072 -0.25376 -0.624 74 73 81
-0.0696429 -0.254167 -0.625 74 73 81
-0.0685619 -0.254573 -0.626 74 73 81
-0.0674771 -0.25498 -0.627 74 73 81
-0.0663886 -0.255387 -0.628 73 71 82
-0.0651924 -0.255387 -0.628 71 69 80
-0.0640981 -0.255793 -0.629 76 75 83
-0.0629 -0.255793 -0.629 76 75 83
-0.0618 -0.2562 -0.63 72 71 79
-0.0606 -0.2562 -0.63 75 74 82
-0.0594943 -0.256607 -0.631 83 81 92
-0.0583848 -0.257013 -0.632 140 138 149
-0.0572714 -0.25742 -0.633 96 94 105
-0.0561543 -0.257827 -0.634 71 69 80
-0.0549467 -0.257827 -0.634 68 67 75
-0.0538238 -0.258233 -0.635 97 96 104
-0.0526971 -0.25864 -0.636 142 141 149
-0.0515667 -0.259047 -0.637 89 88 96
-0.0504324 -0.259453 -0.638 74 73 81
-0.0492943 -0.25986 -0.639 74 73 81
-0.0481524 -0.260267 -0.64 73 71 82
-0.0469333 -0.260267 -0.64 74 72 83
-0.0457857 -0.260673 -0.641 74 72 83
-0.0446343 -0.26108 -0.642 74 72 83
-0.043479 -0.261487 -0.643 75 73 84
-0.04232 -0.261893 -0.644 75 73 84
-0.041221 -0.262707 -0.646 74 72 83
-0.0400524 -0.263113 -0.647 74 72 83
-0.03888 -0.26352 -0.648 73 73 81
-0.0377038 -0.263927 -0.649 73 73 81
-0.0365238 -0.264333 -0.65 73 73 81
0.155142 -0.263927 -0.649 206 166 166
0.155971 -0.25132 -0.618 200 156 147
0.156131 -0.249693 -0.614 200 156 145
0.156276 -0.248067 -0.61 198 154 143
0.156148 -0.246033 -0.605 197 155 143
0.156 -0.244 -0.6 197 155 143
0.156357 -0.24278 -0.597 201 154 144
0.156703 -0.24156 -0.594 199 152 142
0.157569 -0.241153 -0.593 195 148 138
0.158163 -0.24034 -0.591 191 144 134
0.159019 -0.239933 -0.59 191 143 131
0.159871 -0.239527 -0.589 190 142 130
0.16072 -0.23912 -0.588 189 136 122
0.16184 -0.23912 -0.588 184 131 117
0.162683 -0.238713 -0.587 186 133 119
0.163522 -0.238307 -0.586 192 139 125
0.164638 -0.238307 -0.586 199 149 140
0.165471 -0.2379 -0.585 204 154 145
0.166301 -0.237493 -0.584 198 151 145
0.167127 -0.237087 -0.583 196 149 143
0.168237 -0.237087 -0.583 197 150 144
0.169057 -0.23668 -0.582 195 148 142
0.169581 -0.235867 -0.58 198 151 145
0.170686 -0.235867 -0.58 197 150 144
0.171494 -0.23546 -0.579 198 149 142
0.172597 -0.23546 -0.579 195 146 139
0.1737 -0.23546 -0.579 194 142 131
0.174803 -0.23546 -0.579 190 138 127
0.175906 -0.23546 -0.579 189 133 120
0.177314 -0.235867 -0.58 189 133 120
0.178727 -0.236273 -0.581 185 129 116
0.180143 -0.23668 -0.582 183 127 114
0.181563 -0.237087 -0.583 177 123 111
0.182673 -0.237087 -0.583 177 123 111
0.184414 -0.2379 -0.585 169 115 103
0.185846 -0.238307 -0.586 163 111 100
0.1876 -0.23912 -0.588 162 110 99
0.189362 -0.239933 -0.59 157 105 94
0.191131 -0.240747 -0.592 153 101 90
0.192909 -0.24156 -0.594 149 95 93
0.19502 -0.24278 -0.597 146 92 90
0.197143 -0.244 -0.6 144 94 95
0.198947 -0.244813 -0.602 139 89 90
0.201423 -0.24644 -0.606 138 89 95
0.20358 -0.24766 -0.609 128 79 85
0.205749 -0.24888 -0.612 116 69 77
0.207929 -0.2501 -0.615 119 72 80
0.21046 -0.251727 -0.619 123 77 87
0.212665 -0.252947 -0.622 125 79 89
0.214881 -0.254167 -0.625 126 80 91
0.217109 -0.255387 -0.628 128 82 93
0.219348 -0.256607 -0.631 130 83 93
0.221598 -0.257827 -0.634 126 79 89
0.223509 -0.25864 -0.636 122 72 81
0.225427 -0.259453 -0.638 119 69 78
0.226997 -0.25986 -0.639 118 65 81
0.228571 -0.260267 -0.64 123 70 86
0.23015 -0.260673 -0.641 127 76 91
0.232092 -0.261487 -0.643 129 78 93
0.23368 -0.261893 -0.644 128 77 92
0.235636 -0.262707 -0.646 125 74 89
0.2376 -0.26352 -0.648 128 78 89
0.239571 -0.264333 -0.65 136 86 97
-0.161074 -0.264754 -0.648 132 137 131
-0.15836 -0.262303 -0.642 123 125 122
-0.156403 -0.261077 -0.639 116 118 115
-0.153971 -0.259034 -0.634 114 116 113
-0.151559 -0.256991 -0.629 114 116 115
-0.149405 -0.255357 -0.625 111 113 112
-0.147266 -0.253723 -0.621 110 112 111
-0.145142 -0.252089 -0.617 109 111 110
-0.1428 -0.250046 -0.612 106 108 107
-0.140709 -0.248411 -0.608 105 105 107
-0.138632 -0.246777 -0.604 102 102 104
-0.137254 -0.246369 -0.603 94 94 96
-0.13588 -0.24596 -0.602 88 87 93
-0.13451 -0.245551 -0.601 80 79 85
-0.132921 -0.244734 -0.599 73 72 78
-0.13156 -0.244326 -0.598 72 71 77
-0.130203 -0.243917 -0.597 70 71 76
-0.12885 -0.243509 -0.596 68 69 74
-0.1275 -0.2431 -0.595 68 69 74
-0.126154 -0.242691 -0.594 70 71 76
-0.124812 -0.242283 -0.593 73 74 79
-0.123474 -0.241874 -0.592 72 73 78
-0.12214 -0.241466 -0.591 73 74 79
-0.12081 -0.241057 -0.59 73 74 79
-0.119686 -0.241057 -0.59 74 75 80
-0.118361 -0.240649 -0.589 76 77 82
-0.117239 -0.240649 -0.589 76 77 82
-0.116117 -0.240649 -0.589 74 75 80
-0.114995 -0.240649 -0.589 71 70 76
-0.113873 -0.240649 -0.589 67 66 72
-0.112751 -0.240649 -0.589 59 58 64
-0.111819 -0.241057 -0.59 59 58 64
-0.110883 -0.241466 -0.591 58 57 63
-0.109757 -0.241466 -0.591 62 61 67
-0.108815 -0.241874 -0.592 66 65 71
-0.10787 -0.242283 -0.593 66 65 71
-0.10692 -0.242691 -0.594 67 66 72
-0.105967 -0.2431 -0.595 68 67 73
-0.10501 -0.243509 -0.596 70 69 75
-0.104049 -0.243917 -0.597 71 70 76
-0.103084 -0.244326 -0.598 73 72 80
-0.102115 -0.244734 -0.599 73 72 80
-0.101143 -0.245143 -0.6 74 73 81
-0.1005 -0.246369 -0.603 75 74 82
-0.0995162 -0.246777 -0.604 75 74 82
-0.0985286 -0.247186 -0.605 75 74 80
-0.0975371 -0.247594 -0.606 77 76 82
-0.0965419 -0.248003 -0.607 78 77 83
-0.0955429 -0.248411 -0.608 78 77 83
-0.09454 -0.24882 -0.609 77 76 82
-0.0935333 -0.249229 -0.61 78 77 83
-0.0925229 -0.249637 -0.611 78 77 83
-0.091359 -0.249637 -0.611 78 77 83
-0.0903429 -0.250046 -0.612 79 78 84
-0.0893229 -0.250454 -0.613 78 77 83
-0.0881552 -0.250454 -0.613 78 77 83
-0.0871295 -0.250863 -0.614 77 76 82
-0.0861 -0.251271 -0.615 77 76 82
-0.0849286 -0.251271 -0.615 78 77 83
-0.0838933 -0.25168 -0.616 78 77 82
-0.0828543 -0.252089 -0.617 77 76 81
-0.081679 -0.252089 -0.617 76 75 80
-0.0806343 -0.252497 -0.618 75 74 79
-0.0795857 -0.252906 -0.619 75 74 80
-0.0785333 -0.253314 -0.62 75 74 80
-0.0774771 -0.253723 -0.621 75 74 80
-0.0762943 -0.253723 -0.621 75 74 80
-0.0752324 -0.254131 -0.622 74 73 81
-0.0740476 -0.254131 -0.622 74 73 81
-0.07298 -0.25454 -0.623 74 73 81
-0.0719086 -0.254949 -0.624 74 73 81
-0.0708333 -0.255357 -0.625 74 73 81
-0.0697543 -0.255766 -0.626 74 73 81
-0.0685619 -0.255766 -0.626 74 73 81
-0.0674771 -0.256174 -0.627 74 73 81
-0.0663886 -0.256583 -0.628 77 75 86
-0.0652962 -0.256991 -0.629 73 71 82
-0.0640981 -0.256991 -0.629 74 72 83
-0.0629 -0.256991 -0.629 74 72 83
-0.0618 -0.2574 -0.63 73 71 82
-0.0606962 -0.257809 -0.631 75 73 84
-0.0595886 -0.258217 -0.632 86 84 95
-0.0584771 -0.258626 -0.633 153 151 162
-0.0572714 -0.258626 -0.633 80 78 89
-0.0561543 -0.259034 -0.634 73 71 82
-0.0549467 -0.259034 -0.634 101 99 110
-0.0538238 -0.259443 -0.635 134 132 143
-0.0526971 -0.259851 -0.636 107 105 116
-0.0515667 -0.26026 -0.637 80 78 89
-0.0504324 -0.260669 -0.638 76 75 83
-0.0492943 -0.261077 -0.639 76 75 83
-0.0481524 -0.261486 -0.64 74 72 83
-0.0469333 -0.261486 -0.64 74 72 83
-0.0457857 -0.261894 -0.641 74 72 83
-0.0446343 -0.262303 -0.642 74 72 83
-0.043479 -0.262711 -0.643 74 72 83
-0.04232 -0.26312 -0.644 74 72 83
-0.0411571 -0.263529 -0.645 75 73 84
-0.0399905 -0.263937 -0.646 75 73 84
-0.03882 -0.264346 -0.647 74 74 84
-0.0377038 -0.265163 -0.649 73 73 83
-0.0365238 -0.265571 -0.65 72 72 80
0.149966 -0.264754 -0.648 196 150 137
0.1512 -0.264754 -0.648 196 150 137
0.155142 -0.265163 -0.649 206 166 166
0.153952 -0.249229 -0.61 199 156 147
0.153843 -0.247186 -0.605 201 157 146
0.154227 -0.24596 -0.602 198 154 143
0.154341 -0.244326 -0.598 197 153 144
0.1547 -0.2431 -0.595 197 153 144
0.15531 -0.242283 -0.593 198 150 138
0.155648 -0.241057 -0.59 196 148 136
0.156771 -0.241057 -0.59 193 145 133
0.157628 -0.240649 -0.589 189 141 129
0.15848 -0.24024 -0.588 187 137 126
0.159329 -0.239831 -0.587 186 136 125
0.160447 -0.239831 -0.587 185 133 120
0.16129 -0.239423 -0.586 179 127 114
0.162129 -0.239014 -0.585 191 139 126
0.162964 -0.238606 -0.584 202 150 137
0.164076 -0.238606 -0.584 200 152 142
0.164906 -0.238197 -0.583 203 155 145
0.165731 -0.237789 -0.582 199 152 146
0.166553 -0.23738 -0.581 194 147 141
0.16766 -0.23738 -0.581 198 151 145
0.168476 -0.236971 -0.58 196 149 143
0.169289 -0.236563 -0.579 199 148 144
0.170097 -0.236154 -0.578 198 147 143
0.170902 -0.235746 -0.577 196 146 139
0.172001 -0.235746 -0.577 193 143 136
0.1734 -0.236154 -0.578 190 136 126
0.174501 -0.236154 -0.578 187 133 123
0.175906 -0.236563 -0.579 190 132 121
0.177009 -0.236563 -0.579 187 129 118
0.178419 -0.236971 -0.58 182 124 113
0.180143 -0.237789 -0.582 179 121 110
0.181563 -0.238197 -0.583 174 117 108
0.182673 -0.238197 -0.583 174 117 108
0.184414 -0.239014 -0.585 168 111 102
0.185846 -0.239423 -0.586 163 108 101
0.1876 -0.24024 -0.588 160 105 98
0.189362 -0.241057 -0.59 153 100 92
0.191454 -0.242283 -0.593 148 95 87
0.193233 -0.2431 -0.595 143 88 93
0.195347 -0.244326 -0.598 139 84 89
0.197143 -0.245143 -0.6 139 88 93
0.199277 -0.246369 -0.603 137 86 91
0.201755 -0.248003 -0.607 135 85 94
0.203914 -0.249229 -0.61 125 75 84
0.206085 -0.250454 -0.613 115 68 78
0.208605 -0.252089 -0.617 118 71 81
0.2108 -0.253314 -0.62 122 76 87
0.213349 -0.254949 -0.624 123 77 88
0.215569 -0.256174 -0.627 124 78 89
0.2178 -0.2574 -0.63 126 80 91
0.220043 -0.258626 -0.633 126 78 90
0.222297 -0.259851 -0.636 118 70 82
0.224211 -0.260669 -0.638 115 65 76
0.226133 -0.261486 -0.64 117 67 78
0.227708 -0.261894 -0.641 118 70 84
0.229286 -0.262303 -0.642 121 73 87
0.230868 -0.262711 -0.643 123 72 89
0.232453 -0.26312 -0.644 121 70 87
0.234406 -0.263937 -0.646 124 71 89
0.236001 -0.264346 -0.647 129 76 94
0.237967 -0.265163 -0.649 130 80 91
-0.159593 -0.265578 -0.647 128 130 127
-0.157627 -0.264347 -0.644 119 121 120
-0.155671 -0.263115 -0.641 118 120 119
-0.153246 -0.261063 -0.636 118 120 119
-0.150839 -0.25901 -0.631 115 117 116
-0.148451 -0.256958 -0.626 114 116 115
-0.1428 -0.251211 -0.612 106 108 107
-0.141171 -0.25039 -0.61 106 108 107
-0.139091 -0.248749 -0.606 102 103 105
-0.137254 -0.247517 -0.603 91 92 94
-0.135654 -0.246696 -0.601 80 81 86
-0.134062 -0.245875 -0.599 76 77 82
-0.132477 -0.245054 -0.597 74 75 80
-0.1309 -0.244233 -0.595 75 76 81
-0.129549 -0.243823 -0.594 76 77 82
-0.127985 -0.243002 -0.592 76 77 82
-0.126643 -0.242591 -0.591 77 78 83
-0.125305 -0.242181 -0.59 80 81 86
-0.12397 -0.24177 -0.589 81 82 87
-0.12264 -0.24136 -0.588 79 80 85
-0.121107 -0.240539 -0.586 79 79 87
-0.11999 -0.240539 -0.586 80 80 88
-0.118671 -0.240129 -0.585 78 78 86
-0.117557 -0.240129 -0.585 76 76 84
-0.116443 -0.240129 -0.585 73 73 81
-0.115329 -0.240129 -0.585 68 68 76
-0.11441 -0.240539 -0.586 64 63 69
-0.113293 -0.240539 -0.586 58 57 63
-0.112177 -0.240539 -0.586 54 53 59
-0.11125 -0.24095 -0.587 53 52 58
-0.11032 -0.24136 -0.588 53 52 58
-0.109386 -0.24177 -0.589 54 53 59
-0.108448 -0.242181 -0.59 62 61 67
-0.107688 -0.243002 -0.592 67 66 72
-0.10674 -0.243412 -0.593 67 66 72
-0.105789 -0.243823 -0.594 67 66 72
-0.104833 -0.244233 -0.595 67 66 72
-0.104049 -0.245054 -0.597 68 67 73
-0.103084 -0.245465 -0.598 71 70 76
-0.102115 -0.245875 -0.599 72 71 77
-0.101311 -0.246696 -0.601 73 72 78
-0.100667 -0.247928 -0.604 75 74 80
-0.099681 -0.248338 -0.605 75 74 80
-0.0986914 -0.248749 -0.606 75 74 80
-0.097859 -0.24957 -0.608 76 75 81
-0.09686 -0.24998 -0.609 78 77 83
-0.0958571 -0.25039 -0.61 77 76 82
-0.0946952 -0.25039 -0.61 76 75 81
-0.0936867 -0.250801 -0.611 78 77 83
-0.0926743 -0.251211 -0.612 78 77 83
-0.0916581 -0.251622 -0.613 79 78 84
-0.0904905 -0.251622 -0.613 79 78 84
-0.0894686 -0.252032 -0.614 78 77 83
-0.0882991 -0.252032 -0.614 78 77 83
-0.0872714 -0.252443 -0.615 77 76 82
-0.08624 -0.252853 -0.616 78 77 83
-0.0850667 -0.252853 -0.616 78 77 83
-0.0840295 -0.253264 -0.617 77 76 82
-0.0828543 -0.253264 -0.617 76 75 81
-0.0818114 -0.253674 -0.618 75 74 80
-0.0806343 -0.253674 -0.618 75 74 80
-0.0795857 -0.254085 -0.619 75 74 80
-0.0785333 -0.254495 -0.62 76 75 81
-0.0774771 -0.254906 -0.621 76 75 81
-0.0764171 -0.255316 -0.622 76 75 81
-0.0752324 -0.255316 -0.622 74 73 81
-0.0741667 -0.255727 -0.623 74 73 81
-0.07298 -0.255727 -0.623 74 73 81
-0.0719086 -0.256137 -0.624 74 73 81
-0.0708333 -0.256548 -0.625 74 73 81
-0.0697543 -0.256958 -0.626 74 73 81
-0.0686714 -0.257369 -0.627 74 73 81
-0.0675848 -0.257779 -0.628 74 73 81
-0.0663886 -0.257779 -0.628 72 71 79
-0.0652962 -0.25819 -0.629 77 76 84
-0.0642 -0.2586 -0.63 77 75 86
-0.063 -0.2586 -0.63 75 73 84
-0.0618 -0.2586 -0.63 75 73 84
-0.0606962 -0.25901 -0.631 74 72 83
-0.0595886 -0.259421 -0.632 87 86 94
-0.0584771 -0.259831 -0.633 146 145 153
-0.0572714 -0.259831 -0.633 154 152 163
-0.0561543 -0.260242 -0.634 141 139 150
-0.0550333 -0.260652 -0.635 138 136 147
-0.0538238 -0.260652 -0.635 103 101 112
-0.0526971 -0.261063 -0.636 76 74 85
-0.0515667 -0.261473 -0.637 76 74 85
-0.0504324 -0.261884 -0.638 73 71 82
-0.0492943 -0.262294 -0.639 74 72 83
-0.0481524 -0.262705 -0.64 76 74 85
-0.0469333 -0.262705 -0.64 75 73 84
-0.0457857 -0.263115 -0.641 75 73 84
-0.0446343 -0.263526 -0.642 75 73 84
-0.043479 -0.263936 -0.643 74 72 83
-0.04232 -0.264347 -0.644 74 72 83
-0.0411571 -0.264757 -0.645 74 72 83
-0.0399905 -0.265168 -0.646 74 72 83
-0.03882 -0.265578 -0.647 74 74 84
-0.0376457 -0.265989 -0.648 73 73 83
-0.0364676 -0.266399 -0.649 72 72 82
0.146714 -0.26681 -0.65 194 156 143
0.1512 -0.265989 -0.648 196 150 137
0.151964 -0.265168 -0.646 201 158 151
0.152483 -0.263936 -0.643 207 164 157
0.151789 -0.248749 -0.606 198 158 150
0.151933 -0.247107 -0.602 197 157 149
0.151809 -0.245054 -0.597 200 156 145
0.152177 -0.243823 -0.594 197 153 142
0.152534 -0.242591 -0.591 197 150 140
0.1534 -0.242181 -0.59 195 148 138
0.154 -0.24136 -0.588 193 144 130
0.154856 -0.24095 -0.587 193 144 130
0.155974 -0.24095 -0.587 193 144 130
0.156825 -0.240539 -0.586 190 141 127
0.157941 -0.240539 -0.586 188 136 123
0.158786 -0.240129 -0.585 184 132 119
0.1599 -0.240129 -0.585 182 130 117
0.160739 -0.239718 -0.584 181 129 116
0.161574 -0.239308 -0.583 195 145 134
0.162685 -0.239308 -0.583 203 153 142
0.163514 -0.238897 -0.582 199 151 141
0.164623 -0.238897 -0.582 200 152 142
0.165162 -0.238076 -0.58 201 152 145
0.16598 -0.237666 -0.579 198 149 142
0.167083 -0.237666 -0.579 200 151 146
0.167895 -0.237255 -0.578 197 148 143
0.168996 -0.237255 -0.578 198 145 139
0.169803 -0.236845 -0.577 199 146 140
0.170606 -0.236434 -0.576 195 140 133
0.172001 -0.236845 -0.577 191 136 129
0.1731 -0.236845 -0.577 188 131 122
0.174501 -0.237255 -0.578 185 128 119
0.175602 -0.237255 -0.578 187 129 118
0.177009 -0.237666 -0.579 184 126 115
0.178419 -0.238076 -0.58 180 120 110
0.180143 -0.238897 -0.582 176 116 106
0.181563 -0.239308 -0.583 171 112 104
0.182673 -0.239308 -0.583 171 112 104
0.184414 -0.240129 -0.585 167 108 100
0.186163 -0.24095 -0.587 165 107 103
0.1876 -0.24136 -0.588 163 105 101
0.189683 -0.242591 -0.591 153 98 93
0.191454 -0.243412 -0.593 147 92 87
0.193558 -0.244644 -0.596 142 89 95
0.195673 -0.245875 -0.599 137 84 90
0.197471 -0.246696 -0.601 136 85 92
0.199608 -0.247928 -0.604 135 84 91
0.202088 -0.24957 -0.608 131 84 94
0.204249 -0.250801 -0.611 119 72 82
0.206757 -0.252443 -0.615 113 67 78
0.209281 -0.254085 -0.619 117 71 82
0.21148 -0.255316 -0.622 117 71 84
0.214032 -0.256958 -0.626 120 74 87
0.216256 -0.25819 -0.629 123 77 90
0.218491 -0.259421 -0.632 123 77 90
0.220738 -0.260652 -0.635 120 72 84
0.222996 -0.261884 -0.638 114 66 78
0.224914 -0.262705 -0.64 114 64 75
0.227193 -0.263936 -0.643 117 67 78
0.228418 -0.263936 -0.643 113 70 79
0.23 -0.264347 -0.644 115 72 81
0.231586 -0.264757 -0.645 120 72 86
0.233175 -0.265168 -0.646 122 74 88
0.234769 -0.265578 -0.647 126 75 90
0.23673 -0.266399 -0.649 126 75 90
0.238333 -0.26681 -0.65 126 80 90
-0.158361 -0.26681 -0.647 128 130 129
-0.156643 -0.265986 -0.645 121 123 122
-0.154691 -0.264749 -0.642 120 122 121
-0.152512 -0.263099 -0.638 116 118 117
-0.148451 -0.25815 -0.626 114 116 115
-0.134062 -0.247016 -0.599 73 74 79
-0.132255 -0.245779 -0.596 71 72 77
-0.13068 -0.244954 -0.594 71 72 77
-0.128894 -0.243717 -0.591 72 73 78
-0.127552 -0.243305 -0.59 71 72 77
-0.126214 -0.242892 -0.589 70 71 76
-0.12488 -0.24248 -0.588 70 71 76
-0.12355 -0.242068 -0.587 66 66 74
-0.122223 -0.241655 -0.586 65 65 73
-0.120693 -0.24083 -0.584 66 66 74
-0.119581 -0.24083 -0.584 66 66 74
-0.118266 -0.240418 -0.583 64 64 72
-0.117155 -0.240418 -0.583 61 61 69
-0.116045 -0.240418 -0.583 59 59 67
-0.115131 -0.24083 -0.584 56 56 64
-0.114019 -0.24083 -0.584 58 57 63
-0.1131 -0.241243 -0.585 61 60 66
-0.112177 -0.241655 -0.586 62 61 67
-0.11125 -0.242068 -0.587 50 49 55
-0.11032 -0.24248 -0.588 47 46 52
-0.109386 -0.242892 -0.589 47 46 52
-0.108448 -0.243305 -0.59 57 56 62
-0.107688 -0.24413 -0.592 63 62 68
-0.10674 -0.244542 -0.593 64 63 69
-0.105789 -0.244954 -0.594 64 63 69
-0.10501 -0.245779 -0.596 64 63 69
-0.104223 -0.246604 -0.598 65 64 70
-0.103256 -0.247016 -0.599 68 67 73
-0.102286 -0.247429 -0.6 69 68 74
-0.10148 -0.248253 -0.602 71 70 76
-0.1005 -0.248666 -0.603 72 71 77
-0.0998457 -0.249903 -0.606 74 73 79
-0.0988543 -0.250315 -0.607 74 73 79
-0.09802 -0.25114 -0.609 75 74 80
-0.097019 -0.251552 -0.61 77 76 82
-0.0958571 -0.251552 -0.61 77 76 82
-0.0948505 -0.251965 -0.611 76 75 81
-0.09384 -0.252377 -0.612 77 76 82
-0.0928257 -0.25279 -0.613 78 77 83
-0.0916581 -0.25279 -0.613 78 77 83
-0.0906381 -0.253202 -0.614 78 77 83
-0.0894686 -0.253202 -0.614 78 77 83
-0.0884429 -0.253614 -0.615 78 77 85
-0.0874133 -0.254027 -0.616 78 77 85
-0.08624 -0.254027 -0.616 78 77 85
-0.0852048 -0.254439 -0.617 78 77 85
-0.0840295 -0.254439 -0.617 77 76 82
-0.0829886 -0.254851 -0.618 76 75 81
-0.0819438 -0.255264 -0.619 75 74 80
-0.0807648 -0.255264 -0.619 75 74 80
-0.0797143 -0.255676 -0.62 75 74 80
-0.0785333 -0.255676 -0.62 75 74 80
-0.0774771 -0.256089 -0.621 76 75 81
-0.0764171 -0.256501 -0.622 76 75 81
-0.0752324 -0.256501 -0.622 74 73 81
-0.0741667 -0.256913 -0.623 74 73 81
-0.0730971 -0.257326 -0.624 74 73 81
-0.0719086 -0.257326 -0.624 74 73 81
-0.0708333 -0.257738 -0.625 74 73 81
-0.0697543 -0.25815 -0.626 74 73 81
-0.0686714 -0.258563 -0.627 74 73 81
-0.0675848 -0.258975 -0.628 74 73 81
-0.0663886 -0.258975 -0.628 74 73 81
-0.0652962 -0.259388 -0.629 74 73 81
-0.0642 -0.2598 -0.63 71 69 80
-0.063 -0.2598 -0.63 70 68 79
-0.0618 -0.2598 -0.63 72 70 81
-0.0606962 -0.260212 -0.631 77 75 86
-0.0595886 -0.260625 -0.632 79 78 86
-0.0584771 -0.261037 -0.633 86 85 93
-0.0572714 -0.261037 -0.633 106 104 115
-0.0561543 -0.26145 -0.634 99 97 108
-0.0550333 -0.261862 -0.635 85 83 94
-0.0539086 -0.262274 -0.636 74 72 83
-0.0526971 -0.262274 -0.636 71 69 82
-0.0515667 -0.262687 -0.637 72 70 83
-0.0504324 -0.263099 -0.638 72 70 81
-0.0492943 -0.263511 -0.639 74 72 83
-0.0480771 -0.263511 -0.639 76 74 85
-0.0469333 -0.263924 -0.64 76 74 85
-0.0457857 -0.264336 -0.641 75 73 84
-0.0446343 -0.264749 -0.642 75 73 84
-0.043479 -0.265161 -0.643 75 73 84
-0.04232 -0.265573 -0.644 74 72 83
-0.0411571 -0.265986 -0.645 74 72 83
-0.0399905 -0.266398 -0.646 74 72 83
-0.03882 -0.26681 -0.647 74 74 84
-0.0376457 -0.267223 -0.648 73 73 83
-0.0364676 -0.267635 -0.649 73 73 83
-0.0352857 -0.268048 -0.65 72 72 82
0.146714 -0.268048 -0.65 194 156 143
0.14727 -0.26681 -0.647 195 157 144
0.147813 -0.265573 -0.644 205 160 154
0.14904 -0.265573 -0.644 205 160 154
0.149333 -0.263924 -0.64 202 157 151
0.149847 -0.262687 -0.637 202 161 155
0.150349 -0.26145 -0.634 202 161 155
0.150329 -0.255264 -0.619 190 153 147
0.150039 -0.25279 -0.613 193 156 150
0.15022 -0.25114 -0.609 196 157 150
0.150137 -0.249078 -0.604 195 156 149
0.150286 -0.247429 -0.6 197 154 147
0.150671 -0.246191 -0.597 196 153 146
0.150791 -0.244542 -0.593 195 151 140
0.151409 -0.243717 -0.591 193 149 138
0.15176 -0.24248 -0.588 194 148 135
0.15262 -0.242068 -0.587 190 144 131
0.153476 -0.241655 -0.586 194 143 126
0.154329 -0.241243 -0.585 193 142 125
0.155443 -0.241243 -0.585 195 142 128
0.15629 -0.24083 -0.584 193 140 126
0.157402 -0.24083 -0.584 188 134 122
0.158514 -0.24083 -0.584 184 130 118
0.159353 -0.240418 -0.583 186 134 123
0.160189 -0.240006 -0.582 193 141 130
0.16102 -0.239593 -0.581 201 151 142
0.162127 -0.239593 -0.581 203 153 144
0.162952 -0.239181 -0.58 202 154 144
0.164057 -0.239181 -0.58 200 152 142
0.164877 -0.238769 -0.579 202 152 143
0.165693 -0.238356 -0.578 203 153 144
0.166506 -0.237944 -0.577 202 149 141
0.167605 -0.237944 -0.577 198 145 137
0.168704 -0.237944 -0.577 196 143 135
0.169509 -0.237531 -0.576 198 145 137
0.170606 -0.237531 -0.576 194 140 130
0.171703 -0.237531 -0.576 188 134 124
0.1731 -0.237944 -0.577 186 128 117
0.174199 -0.237944 -0.577 182 124 113
0.175906 -0.238769 -0.579 183 123 113
0.177009 -0.238769 -0.579 181 121 111
0.178727 -0.239593 -0.581 178 118 110
0.180143 -0.240006 -0.582 173 113 105
0.181251 -0.240006 -0.582 173 113 105
0.182673 -0.240418 -0.583 169 110 104
0.184414 -0.241243 -0.585 167 108 102
0.186163 -0.242068 -0.587 165 107 103
0.187919 -0.242892 -0.589 161 103 99
0.190004 -0.24413 -0.592 152 96 95
0.191777 -0.244954 -0.594 147 91 90
0.193883 -0.246191 -0.597 141 88 94
0.196 -0.247429 -0.6 136 83 89
0.198129 -0.248666 -0.603 133 82 89
0.200269 -0.249903 -0.606 134 83 90
0.20242 -0.25114 -0.609 131 84 92
0.204917 -0.25279 -0.613 117 70 78
0.20743 -0.254439 -0.617 111 65 76
0.209957 -0.256089 -0.621 114 68 79
0.2125 -0.257738 -0.625 113 69 82
0.214716 -0.258975 -0.628 115 71 84
0.217288 -0.260625 -0.632 120 74 85
0.219529 -0.261862 -0.635 118 72 83
0.221781 -0.263099 -0.638 113 66 76
0.224045 -0.264336 -0.641 111 64 74
0.225969 -0.265161 -0.643 114 64 75
0.2279 -0.265986 -0.645 113 63 74
0.229484 -0.266398 -0.646 109 66 73
0.231071 -0.26681 -0.647 112 69 76
0.232663 -0.267223 -0.648 117 71 81
0.233897 -0.267223 -0.648 121 75 85
0.235857 -0.268048 -0.65 125 79 90
-0.157371 -0.268457 -0.648 122 124 121
-0.155655 -0.267629 -0.646 121 123 122
-0.152512 -0.264314 -0.638 116 118 117
-0.150111 -0.262243 -0.633 115 117 116
-0.134957 -0.249814 -0.603 74 77 82
-0.132921 -0.248157 -0.599 70 71 76
-0.13112 -0.246914 -0.596 67 68 73
-0.129549 -0.246086 -0.594 67 68 73
-0.127769 -0.244843 -0.591 65 66 71
-0.126214 -0.244014 -0.589 60 61 66
-0.12488 -0.2436 -0.588 58 59 64
-0.12355 -0.243186 -0.587 58 58 66
-0.122014 -0.242357 -0.585 58 58 66
-0.120693 -0.241943 -0.584 60 60 68
-0.119581 -0.241943 -0.584 61 61 69
-0.118266 -0.241529 -0.583 61 61 69
-0.117155 -0.241529 -0.583 63 63 71
-0.116045 -0.241529 -0.583 68 68 76
-0.114934 -0.241529 -0.583 71 71 79
-0.114019 -0.241943 -0.584 78 77 83
-0.112907 -0.241943 -0.584 90 89 95
-0.111986 -0.242357 -0.585 91 90 96
-0.11125 -0.243186 -0.587 59 58 64
-0.11032 -0.2436 -0.588 50 49 55
-0.109386 -0.244014 -0.589 49 48 54
-0.108448 -0.244429 -0.59 58 57 63
-0.107688 -0.245257 -0.592 60 59 65
-0.10674 -0.245671 -0.593 60 59 65
-0.105967 -0.2465 -0.595 62 61 67
-0.10501 -0.246914 -0.596 62 61 67
-0.104223 -0.247743 -0.598 63 62 68
-0.103429 -0.248571 -0.6 65 64 70
-0.102456 -0.248986 -0.601 67 66 72
-0.101649 -0.249814 -0.603 68 67 72
-0.100667 -0.250229 -0.604 71 70 75
-0.10001 -0.251471 -0.607 72 71 77
-0.0990171 -0.251886 -0.608 74 73 79
-0.098181 -0.252714 -0.61 75 74 80
-0.0971781 -0.253129 -0.611 76 75 81
-0.0960143 -0.253129 -0.611 77 76 82
-0.0950057 -0.253543 -0.612 76 75 81
-0.0939933 -0.253957 -0.613 76 75 81
-0.0928257 -0.253957 -0.613 78 77 83
-0.0918076 -0.254371 -0.614 77 76 82
-0.0907857 -0.254786 -0.615 77 76 84
-0.0896143 -0.254786 -0.615 77 76 84
-0.0885867 -0.2552 -0.616 78 77 85
-0.0874133 -0.2552 -0.616 78 77 85
-0.08638 -0.255614 -0.617 78 77 85
-0.0852048 -0.255614 -0.617 78 77 85
-0.0841657 -0.256029 -0.618 77 76 82
-0.0831229 -0.256443 -0.619 77 76 82
-0.0819438 -0.256443 -0.619 76 75 81
-0.0808952 -0.256857 -0.62 75 74 80
-0.0797143 -0.256857 -0.62 74 73 79
-0.07866 -0.257271 -0.621 74 73 79
-0.0776019 -0.257686 -0.622 74 73 81
-0.0764171 -0.257686 -0.622 75 74 82
-0.0753533 -0.2581 -0.623 73 72 80
-0.0741667 -0.2581 -0.623 73 72 80
-0.0730971 -0.258514 -0.624 73 72 80
-0.0720238 -0.258929 -0.625 74 73 81
-0.0708333 -0.258929 -0.625 74 73 81
-0.0697543 -0.259343 -0.626 74 73 81
-0.0686714 -0.259757 -0.627 74 73 81
-0.0675848 -0.260171 -0.628 74 73 81
-0.0663886 -0.260171 -0.628 74 73 81
-0.0652962 -0.260586 -0.629 75 74 82
-0.0642 -0.261 -0.63 72 70 81
-0.063 -0.261 -0.63 74 72 83
-0.0618981 -0.261414 -0.631 77 75 86
-0.0606962 -0.261414 -0.631 74 72 83
-0.0595886 -0.261829 -0.632 77 76 84
-0.0584771 -0.262243 -0.633 76 75 83
-0.0572714 -0.262243 -0.633 73 71 82
-0.0561543 -0.262657 -0.634 72 70 81
-0.0550333 -0.263071 -0.635 77 75 88
-0.0539086 -0.263486 -0.636 73 71 84
-0.05278 -0.2639 -0.637 75 73 86
-0.0515667 -0.2639 -0.637 76 74 87
-0.0504324 -0.264314 -0.638 71 69 80
-0.0492943 -0.264729 -0.639 72 70 81
-0.0480771 -0.264729 -0.639 73 73 83
-0.0469333 -0.265143 -0.64 74 74 84
-0.0457857 -0.265557 -0.641 73 73 83
-0.0446343 -0.265971 -0.642 73 73 83
-0.043479 -0.266386 -0.643 75 75 85
-0.04232 -0.2668 -0.644 74 74 84
-0.0411571 -0.267214 -0.645 73 71 82
-0.0399905 -0.267629 -0.646 74 72 83
-0.03882 -0.268043 -0.647 74 72 83
-0.0376457 -0.268457 -0.648 74 72 83
-0.0364676 -0.268871 -0.649 74 72 83
-0.0352857 -0.269286 -0.65 74 72 83
0.144016 -0.268871 -0.649 206 162 163
0.144357 -0.267214 -0.645 200 156 157
0.144909 -0.265971 -0.642 197 157 149
0.145449 -0.264729 -0.639 199 159 151
0.145748 -0.263071 -0.635 200 159 157
0.146957 -0.263071 -0.635 200 159 157
0.147233 -0.261414 -0.631 199 158 156
0.147494 -0.259757 -0.627 198 159 154
0.147945 -0.254371 -0.614 197 159 150
0.148143 -0.252714 -0.61 195 155 145
0.148081 -0.250643 -0.605 196 156 146
0.148247 -0.248986 -0.601 197 154 145
0.148646 -0.247743 -0.598 196 153 144
0.149033 -0.2465 -0.595 195 151 142
0.14941 -0.245257 -0.592 194 150 141
0.149774 -0.244014 -0.589 194 147 137
0.150384 -0.243186 -0.587 193 146 136
0.150986 -0.242357 -0.585 194 146 134
0.1521 -0.242357 -0.585 190 142 130
0.152952 -0.241943 -0.584 193 140 124
0.154065 -0.241943 -0.584 193 140 124
0.154911 -0.241529 -0.583 194 138 123
0.156022 -0.241529 -0.583 192 136 121
0.156863 -0.241114 -0.582 188 134 122
0.157971 -0.241114 -0.582 187 133 121
0.158807 -0.2407 -0.581 191 141 132
0.159638 -0.240286 -0.58 202 152 143
0.160743 -0.240286 -0.58 203 155 145
0.161569 -0.239871 -0.579 201 153 143
0.162671 -0.239871 -0.579 206 154 143
0.163491 -0.239457 -0.578 201 149 138
0.164308 -0.239043 -0.577 198 144 134
0.16512 -0.238629 -0.576 202 148 138
0.166217 -0.238629 -0.576 200 146 136
0.167314 -0.238629 -0.576 198 144 134
0.168119 -0.238214 -0.575 198 145 137
0.169214 -0.238214 -0.575 198 145 137
0.17031 -0.238214 -0.575 193 139 129
0.171703 -0.238629 -0.576 186 132 122
0.1731 -0.239043 -0.577 184 126 115
0.174199 -0.239043 -0.577 179 121 110
0.175906 -0.239871 -0.579 178 118 108
0.177314 -0.240286 -0.58 178 118 108
0.178727 -0.2407 -0.581 176 116 108
0.180143 -0.241114 -0.582 172 112 104
0.181251 -0.241114 -0.582 172 112 104
0.182987 -0.241943 -0.584 170 109 104
0.18473 -0.242771 -0.586 168 107 102
0.18648 -0.2436 -0.588 162 104 102
0.188238 -0.244429 -0.59 157 99 97
0.190004 -0.245257 -0.592 148 92 93
0.1921 -0.2465 -0.595 146 90 91
0.194208 -0.247743 -0.598 136 86 87
0.196327 -0.248986 -0.601 134 84 85
0.198457 -0.250229 -0.604 131 82 85
0.200599 -0.251471 -0.607 134 85 88
0.203085 -0.253129 -0.611 130 85 90
0.205586 -0.254786 -0.615 112 67 72
0.208102 -0.256443 -0.619 104 63 71
0.210633 -0.2581 -0.623 104 63 71
0.21318 -0.259757 -0.627 104 62 72
0.215742 -0.261414 -0.631 106 64 74
0.217975 -0.262657 -0.634 110 67 77
0.22022 -0.2639 -0.637 109 66 76
0.222824 -0.265557 -0.641 108 62 72
0.224744 -0.266386 -0.643 110 64 74
0.226671 -0.267214 -0.645 113 67 77
0.22896 -0.268457 -0.648 111 65 75
0.23055 -0.268871 -0.649 114 68 78
0.231786 -0.268871 -0.649 117 71 81
0.233381 -0.269286 -0.65 113 70 79
-0.155655 -0.268859 -0.646 121 123 122
-0.153947 -0.268027 -0.644 119 121 120
-0.151771 -0.266362 -0.64 113 114 116
-0.136524 -0.253876 -0.61 99 104 110
-0.13403 -0.251379 -0.604 96 101 107
-0.13178 -0.249298 -0.599 92 97 103
-0.129985 -0.24805 -0.596 90 95 99
-0.128201 -0.246801 -0.593 89 94 98
-0.126429 -0.245552 -0.59 88 91 96
-0.12488 -0.24472 -0.588 87 90 95
-0.12355 -0.244304 -0.587 88 91 96
-0.122014 -0.243471 -0.585 87 90 95
-0.120693 -0.243055 -0.584 87 90 95
-0.119376 -0.242639 -0.583 89 92 97
-0.118266 -0.242639 -0.583 91 94 99
-0.116954 -0.242223 -0.582 93 96 101
-0.115846 -0.242223 -0.582 95 98 103
-0.114934 -0.242639 -0.583 97 100 105
-0.113824 -0.242639 -0.583 109 110 114
-0.112907 -0.243055 -0.584 109 110 114
-0.111986 -0.243471 -0.585 88 89 93
-0.111061 -0.243888 -0.586 60 61 65
-0.11032 -0.24472 -0.588 53 54 58
-0.109386 -0.245136 -0.589 52 53 57
-0.108448 -0.245552 -0.59 51 52 57
-0.107688 -0.246385 -0.592 56 57 62
-0.10674 -0.246801 -0.593 59 60 65
-0.105967 -0.247633 -0.595 60 61 66
-0.105186 -0.248466 -0.597 61 62 67
-0.104397 -0.249298 -0.599 61 62 67
-0.103429 -0.249714 -0.6 63 62 68
-0.102627 -0.250547 -0.602 65 64 70
-0.101817 -0.251379 -0.604 67 66 74
-0.100833 -0.251795 -0.605 69 68 76
-0.100175 -0.253044 -0.608 69 68 76
-0.09918 -0.25346 -0.609 71 70 78
-0.098181 -0.253876 -0.61 72 71 79
-0.0973371 -0.254709 -0.612 74 73 81
-0.0961714 -0.254709 -0.612 75 74 82
-0.0951609 -0.255125 -0.613 75 74 82
-0.0939933 -0.255125 -0.613 75 74 82
-0.0929771 -0.255541 -0.614 76 75 83
-0.0919571 -0.255957 -0.615 77 76 84
-0.0907857 -0.255957 -0.615 77 76 84
-0.08976 -0.256373 -0.616 78 77 85
-0.0885867 -0.256373 -0.616 78 77 85
-0.0875552 -0.25679 -0.617 78 77 85
-0.08638 -0.25679 -0.617 78 77 85
-0.0853429 -0.257206 -0.618 78 77 85
-0.0841657 -0.257206 -0.618 77 76 84
-0.0831229 -0.257622 -0.619 77 76 84
-0.0820762 -0.258038 -0.62 77 76 84
-0.0808952 -0.258038 -0.62 76 75 83
-0.0798429 -0.258454 -0.621 75 74 82
-0.07866 -0.258454 -0.621 74 73 81
-0.0776019 -0.25887 -0.622 74 73 79
-0.07654 -0.259287 -0.623 74 73 79
-0.0753533 -0.259287 -0.623 74 73 79
-0.0742857 -0.259703 -0.624 75 74 80
-0.0730971 -0.259703 -0.624 75 74 82
-0.0720238 -0.260119 -0.625 74 73 81
-0.0709467 -0.260535 -0.626 74 73 81
-0.0697543 -0.260535 -0.626 74 73 81
-0.0686714 -0.260951 -0.627 74 73 79
-0.0675848 -0.261368 -0.628 73 72 78
-0.0664943 -0.261784 -0.629 74 72 83
-0.0654 -0.2622 -0.63 74 72 83
-0.0642 -0.2622 -0.63 73 71 82
-0.0631 -0.262616 -0.631 73 71 82
-0.0618981 -0.262616 -0.631 73 71 82
-0.0607924 -0.263032 -0.632 73 71 82
-0.0596829 -0.263449 -0.633 73 72 80
-0.0584771 -0.263449 -0.633 75 74 82
-0.0573619 -0.263865 -0.634 73 72 80
-0.0562429 -0.264281 -0.635 73 72 80
-0.0550333 -0.264281 -0.635 74 73 81
-0.0539086 -0.264697 -0.636 74 73 81
-0.05278 -0.265113 -0.637 73 72 80
-0.0515667 -0.265113 -0.637 75 74 82
-0.0504324 -0.26553 -0.638 76 75 83
-0.0492943 -0.265946 -0.639 76 75 83
-0.0480771 -0.265946 -0.639 75 73 84
-0.0469333 -0.266362 -0.64 74 72 83
-0.0457857 -0.266778 -0.641 73 71 82
-0.0446343 -0.267194 -0.642 74 72 83
-0.043479 -0.26761 -0.643 74 72 83
-0.04232 -0.268027 -0.644 74 72 83
-0.0411571 -0.268443 -0.645 73 71 82
-0.0399905 -0.268859 -0.646 73 71 82
-0.03882 -0.269275 -0.647 74 72 83
-0.0376457 -0.269691 -0.648 75 73 84
-0.0364676 -0.270108 -0.649 75 73 84
-0.0352857 -0.270524 -0.65 74 72 83
0.14212 -0.268859 -0.646 211 167 164
0.142463 -0.267194 -0.642 205 161 158
0.14279 -0.26553 -0.638 192 148 145
0.143103 -0.263865 -0.634 197 150 140
0.1434 -0.2622 -0.63 203 156 146
0.1446 -0.2622 -0.63 203 156 146
0.144874 -0.260535 -0.626 202 157 152
0.145133 -0.25887 -0.622 204 159 154
0.145377 -0.257206 -0.618 200 157 150
0.145606 -0.255541 -0.614 201 158 151
0.14558 -0.25346 -0.609 203 161 149
0.145776 -0.251795 -0.605 200 158 146
0.1462 -0.250547 -0.602 198 154 141
0.146368 -0.248882 -0.598 197 153 140
0.146767 -0.247633 -0.595 198 154 141
0.147154 -0.246385 -0.592 197 153 140
0.147781 -0.245552 -0.59 196 152 141
0.1484 -0.24472 -0.588 195 151 140
0.149011 -0.243888 -0.586 196 148 138
0.149871 -0.243471 -0.585 194 146 136
0.15047 -0.242639 -0.583 195 145 136
0.15158 -0.242639 -0.583 193 143 134
0.152429 -0.242223 -0.582 195 139 124
0.153537 -0.242223 -0.582 194 138 123
0.154646 -0.242223 -0.582 192 136 121
0.155487 -0.241807 -0.581 191 135 120
0.156593 -0.241807 -0.581 189 137 124
0.1577 -0.241807 -0.581 193 141 128
0.158533 -0.24139 -0.58 197 148 141
0.159363 -0.240974 -0.579 201 152 145
0.160189 -0.240558 -0.578 201 152 145
0.16129 -0.240558 -0.578 199 150 143
0.16211 -0.240142 -0.577 204 152 141
0.163209 -0.240142 -0.577 198 146 135
0.164023 -0.239726 -0.576 193 136 125
0.164833 -0.23931 -0.575 196 139 128
0.165929 -0.23931 -0.575 199 145 133
0.167024 -0.23931 -0.575 198 144 132
0.168119 -0.23931 -0.575 197 147 138
0.169214 -0.23931 -0.575 193 143 134
0.17031 -0.23931 -0.575 191 139 128
0.171703 -0.239726 -0.576 184 132 121
0.1728 -0.239726 -0.576 181 124 113
0.174199 -0.240142 -0.577 176 119 108
0.175602 -0.240558 -0.578 175 116 108
0.177314 -0.24139 -0.58 175 116 108
0.178727 -0.241807 -0.581 174 115 109
0.180452 -0.242639 -0.583 169 110 104
0.181563 -0.242639 -0.583 169 110 104
0.182987 -0.243055 -0.584 167 108 104
0.18473 -0.243888 -0.586 165 106 102
0.18648 -0.24472 -0.588 160 102 101
0.188238 -0.245552 -0.59 153 95 94
0.190325 -0.246801 -0.593 145 89 92
0.192423 -0.24805 -0.596 144 88 91
0.194532 -0.249298 -0.599 133 87 89
0.196653 -0.250547 -0.602 132 86 88
0.199114 -0.252211 -0.606 130 84 87
0.20126 -0.25346 -0.609 132 86 89
0.20375 -0.255125 -0.613 121 78 85
0.206254 -0.25679 -0.617 100 57 64
0.208774 -0.258454 -0.621 94 54 65
0.21131 -0.260119 -0.625 93 53 64
0.2142 -0.2622 -0.63 91 53 66
0.216768 -0.263865 -0.634 93 55 68
0.219007 -0.265113 -0.637 99 59 70
0.221603 -0.266778 -0.641 102 62 73
0.223867 -0.268027 -0.644 105 63 75
0.225792 -0.268859 -0.646 109 67 79
0.227726 -0.269691 -0.648 114 72 84
0.229667 -0.270524 -0.65 115 73 85
-0.154664 -0.270508 -0.647 125 127 126
