ply
format ascii 1.0
comment Created by Open3D
element vertex 1289
property double x
property double y
property double z
property uchar red
property uchar green
property uchar blue
end_header
1.13012 -0.429043 -0.639 203 205 191
1.13133 -0.429043 -0.639 203 205 191
1.13078 -0.428371 -0.638 203 205 191
1.13199 -0.428371 -0.638 203 205 191
1.13321 -0.428371 -0.638 203 205 191
1.13442 -0.428371 -0.638 203 205 191
1.13386 -0.4277 -0.637 203 205 191
1.13507 -0.4277 -0.637 202 204 190
1.13629 -0.4277 -0.637 203 205 191
1.13571 -0.427029 -0.636 202 204 190
1.13693 -0.427029 -0.636 202 204 191
1.13814 -0.427029 -0.636 202 204 191
1.13935 -0.427029 -0.636 202 204 191
1.14056 -0.427029 -0.636 202 204 191
1.14177 -0.427029 -0.636 202 204 191
1.14119 -0.426357 -0.635 201 203 190
1.1424 -0.426357 -0.635 201 203 190
1.1418 -0.425686 -0.634 201 204 195
0.0539314 -0.385147 -0.572 196 156 131
0.0548286 -0.3838 -0.57 197 157 132
0.0555219 -0.381107 -0.566 200 155 134
0.0562 -0.378413 -0.562 200 155 134
0.056761 -0.375047 -0.557 202 156 133
0.0574067 -0.372353 -0.553 203 157 134
0.0581429 -0.370333 -0.55 201 156 125
0.0589752 -0.368987 -0.548 200 155 124
0.0598 -0.36764 -0.546 200 155 132
0.0606171 -0.366293 -0.544 200 155 132
0.06154 -0.36562 -0.543 199 154 131
0.062459 -0.364947 -0.542 203 158 135
0.0633743 -0.364273 -0.541 201 157 132
0.0642857 -0.3636 -0.54 203 159 134
0.0653143 -0.3636 -0.54 202 156 132
0.06622 -0.362927 -0.539 205 159 135
0.0672467 -0.362927 -0.539 203 157 131
0.0682733 -0.362927 -0.539 203 157 131
0.0691714 -0.362253 -0.538 204 158 132
0.0701962 -0.362253 -0.538 204 158 132
0.0710886 -0.36158 -0.537 203 157 131
0.0721114 -0.36158 -0.537 202 156 130
0.0731343 -0.36158 -0.537 203 156 128
0.0741571 -0.36158 -0.537 203 156 128
0.07504 -0.360907 -0.536 201 156 127
0.076061 -0.360907 -0.536 200 155 126
0.0770819 -0.360907 -0.536 197 152 123
0.0781029 -0.360907 -0.536 199 154 125
0.0791238 -0.360907 -0.536 202 156 130
0.0801448 -0.360907 -0.536 202 156 130
0.0813171 -0.36158 -0.537 201 155 129
0.08234 -0.36158 -0.537 202 155 129
0.0833629 -0.36158 -0.537 199 152 126
0.0843857 -0.36158 -0.537 202 152 127
0.0854086 -0.36158 -0.537 200 150 125
0.0864314 -0.36158 -0.537 197 145 121
0.0876171 -0.362253 -0.538 191 139 115
0.0886419 -0.362253 -0.538 187 135 113
0.0896667 -0.362253 -0.538 187 135 113
0.09086 -0.362927 -0.539 188 136 114
0.0920571 -0.3636 -0.54 188 136 114
0.0930857 -0.3636 -0.54 187 131 106
0.0942886 -0.364273 -0.541 188 132 107
0.0954952 -0.364947 -0.542 185 129 106
0.0967057 -0.36562 -0.543 180 124 101
0.09792 -0.366293 -0.544 178 121 101
0.0991381 -0.366967 -0.545 177 120 100
0.100176 -0.366967 -0.545 174 117 97
0.1014 -0.36764 -0.546 169 112 92
0.102628 -0.368313 -0.547 169 112 95
0.103859 -0.368987 -0.548 167 110 93
0.105094 -0.36966 -0.549 164 106 92
0.106333 -0.370333 -0.55 162 104 90
0.107576 -0.371007 -0.551 161 103 91
0.108823 -0.37168 -0.552 159 101 89
0.110073 -0.372353 -0.553 156 98 86
0.111328 -0.373027 -0.554 155 97 85
0.112586 -0.3737 -0.555 156 98 84
0.113848 -0.374373 -0.556 155 97 83
0.115113 -0.375047 -0.557 151 95 80
0.116383 -0.37572 -0.558 149 93 78
0.117867 -0.377067 -0.56 146 94 81
0.119146 -0.37774 -0.561 146 94 81
0.120643 -0.379087 -0.563 140 93 85
0.121931 -0.37976 -0.564 138 91 83
0.123442 -0.381107 -0.566 132 91 87
0.12496 -0.382453 -0.568 129 88 84
0.126264 -0.383127 -0.569 124 86 85
0.127795 -0.384473 -0.571 122 84 83
0.12956 -0.386493 -0.574 119 85 86
0.131109 -0.38784 -0.576 119 85 86
0.150419 -0.401307 -0.596 96 94 118
0.151554 -0.401307 -0.596 116 114 138
0.15269 -0.401307 -0.596 118 116 137
0.153825 -0.401307 -0.596 123 121 142
0.15522 -0.40198 -0.597 131 130 148
0.156357 -0.40198 -0.597 133 132 150
0.157494 -0.40198 -0.597 140 136 151
0.158631 -0.40198 -0.597 141 137 152
0.159769 -0.40198 -0.597 138 140 155
0.160906 -0.40198 -0.597 132 134 149
0.162043 -0.40198 -0.597 116 123 149
0.16318 -0.40198 -0.597 93 100 126
0.164317 -0.40198 -0.597 75 85 120
0.165731 -0.402653 -0.598 80 90 125
0.16687 -0.402653 -0.598 87 95 132
0.16801 -0.402653 -0.598 86 94 131
0.169149 -0.402653 -0.598 85 96 128
0.170288 -0.402653 -0.598 85 96 128
0.171427 -0.402653 -0.598 120 131 163
0.172566 -0.402653 -0.598 108 124 158
0.173705 -0.402653 -0.598 103 119 153
0.174844 -0.402653 -0.598 88 109 152
0.175983 -0.402653 -0.598 73 94 137
0.177122 -0.402653 -0.598 84 100 149
0.178261 -0.402653 -0.598 104 120 169
0.1794 -0.402653 -0.598 134 143 172
0.460533 -0.414773 -0.616 201 201 213
0.461707 -0.414773 -0.616 204 204 216
0.487926 -0.41612 -0.618 165 179 205
0.489103 -0.41612 -0.618 177 191 217
0.49028 -0.41612 -0.618 177 191 217
0.491457 -0.41612 -0.618 189 194 213
0.493431 -0.416793 -0.619 187 192 211
0.49461 -0.416793 -0.619 183 188 207
0.49579 -0.416793 -0.619 160 165 184
0.496969 -0.416793 -0.619 122 144 181
0.498148 -0.416793 -0.619 98 120 157
0.499327 -0.416793 -0.619 96 120 166
0.500506 -0.416793 -0.619 106 130 176
0.501685 -0.416793 -0.619 91 123 172
0.502864 -0.416793 -0.619 90 122 171
0.504043 -0.416793 -0.619 101 139 186
0.505222 -0.416793 -0.619 92 130 177
0.522307 -0.405347 -0.602 139 129 130
0.519975 -0.402653 -0.598 147 126 121
0.515014 -0.39794 -0.591 148 127 122
0.510027 -0.393227 -0.584 154 129 122
0.505012 -0.388513 -0.577 153 128 121
0.499971 -0.3838 -0.57 156 129 122
0.495783 -0.37976 -0.564 157 130 123
0.492452 -0.376393 -0.559 159 130 124
0.489986 -0.3737 -0.555 158 129 123
0.488389 -0.37168 -0.552 157 128 122
0.485893 -0.368987 -0.548 157 128 122
0.484271 -0.366967 -0.545 160 131 127
0.482638 -0.364947 -0.542 163 134 130
0.481886 -0.3636 -0.54 168 134 124
0.480231 -0.36158 -0.537 170 136 126
0.479462 -0.360233 -0.535 173 135 122
0.478685 -0.358887 -0.533 174 136 123
0.4788 -0.358213 -0.532 180 138 122
0.478009 -0.356867 -0.53 180 138 122
0.478115 -0.356193 -0.529 183 138 119
0.477311 -0.354847 -0.527 183 138 119
0.477408 -0.354173 -0.526 183 136 116
0.4775 -0.3535 -0.525 184 137 117
0.477589 -0.352827 -0.524 189 142 122
0.477673 -0.352153 -0.523 191 144 124
0.477754 -0.35148 -0.522 188 143 124
0.477831 -0.350807 -0.521 188 143 124
0.477905 -0.350133 -0.52 185 142 125
0.477974 -0.34946 -0.519 183 140 123
0.478963 -0.34946 -0.519 185 140 119
0.479027 -0.348787 -0.518 186 141 120
0.479087 -0.348113 -0.517 186 141 120
0.480071 -0.348113 -0.517 186 141 120
0.480126 -0.34744 -0.516 188 143 122
0.481109 -0.34744 -0.516 188 143 122
0.481157 -0.346767 -0.515 186 141 118
0.482138 -0.346767 -0.515 188 143 120
0.482181 -0.346093 -0.514 190 144 121
0.48316 -0.346093 -0.514 189 143 120
0.484139 -0.346093 -0.514 188 142 119
0.485118 -0.346093 -0.514 186 140 117
0.486097 -0.346093 -0.514 185 139 115
0.487076 -0.346093 -0.514 183 137 113
0.488055 -0.346093 -0.514 184 138 114
0.489034 -0.346093 -0.514 185 139 115
0.490013 -0.346093 -0.514 183 137 113
0.490992 -0.346093 -0.514 183 137 113
0.491971 -0.346093 -0.514 182 136 112
0.49295 -0.346093 -0.514 182 136 110
0.49393 -0.346093 -0.514 181 135 109
0.494909 -0.346093 -0.514 181 135 109
0.496852 -0.346767 -0.515 182 136 110
0.497833 -0.346767 -0.515 181 136 107
0.498814 -0.346767 -0.515 179 134 105
0.500766 -0.34744 -0.516 181 136 107
0.501749 -0.34744 -0.516 180 135 106
0.502731 -0.34744 -0.516 178 133 100
0.503714 -0.34744 -0.516 178 133 100
0.505675 -0.348113 -0.517 176 130 97
0.50764 -0.348787 -0.518 174 128 95
0.508627 -0.348787 -0.518 173 127 94
0.510597 -0.34946 -0.519 170 124 91
0.511586 -0.34946 -0.519 168 123 100
0.513562 -0.350133 -0.52 168 123 100
0.515542 -0.350807 -0.521 165 123 98
0.518517 -0.352153 -0.523 162 120 95
0.5215 -0.3535 -0.525 160 120 94
0.52449 -0.354847 -0.527 159 119 93
0.61302 -0.404673 -0.601 203 196 188
0.618252 -0.407367 -0.605 207 200 192
0.622476 -0.409387 -0.608 204 206 201
0.903722 -0.422853 -0.628 212 214 201
0.904918 -0.422853 -0.628 212 214 200
0.909703 -0.422853 -0.628 211 213 199
0.910899 -0.422853 -0.628 211 213 199
0.912095 -0.422853 -0.628 211 213 199
0.913291 -0.422853 -0.628 211 213 199
0.914488 -0.422853 -0.628 212 214 200
0.919538 -0.423527 -0.629 212 214 200
0.920736 -0.423527 -0.629 212 214 200
0.921934 -0.423527 -0.629 211 213 199
0.923132 -0.423527 -0.629 211 213 199
0.9342 -0.4242 -0.63 210 212 198
0.9354 -0.4242 -0.63 210 212 198
0.9366 -0.4242 -0.63 210 212 198
0.9378 -0.4242 -0.63 210 212 198
0.939 -0.4242 -0.63 210 212 198
0.9402 -0.4242 -0.63 211 213 199
0.9414 -0.4242 -0.63 211 213 199
0.950106 -0.424873 -0.631 211 213 199
0.951308 -0.424873 -0.631 211 213 199
0.952509 -0.424873 -0.631 212 214 200
0.953711 -0.424873 -0.631 213 215 201
0.954913 -0.424873 -0.631 212 214 200
0.956115 -0.424873 -0.631 210 212 199
0.957317 -0.424873 -0.631 211 213 200
0.958519 -0.424873 -0.631 211 213 200
0.959721 -0.424873 -0.631 211 213 200
0.964853 -0.425547 -0.632 212 214 201
0.966057 -0.425547 -0.632 210 212 199
0.96573 -0.424873 -0.631 211 213 199
0.966932 -0.424873 -0.631 211 213 199
0.968134 -0.424873 -0.631 211 213 199
0.969336 -0.424873 -0.631 211 213 199
0.970538 -0.424873 -0.631 211 213 199
0.97174 -0.424873 -0.631 210 212 198
0.974484 -0.425547 -0.632 210 212 198
0.975688 -0.425547 -0.632 210 212 198
0.976891 -0.425547 -0.632 210 212 198
0.978095 -0.425547 -0.632 209 211 197
0.979299 -0.425547 -0.632 209 211 197
0.980503 -0.425547 -0.632 209 211 197
0.981707 -0.425547 -0.632 209 211 197
0.982911 -0.425547 -0.632 209 211 197
0.982557 -0.424873 -0.631 210 212 198
0.983759 -0.424873 -0.631 209 211 198
0.984961 -0.424873 -0.631 209 211 198
0.987726 -0.425547 -0.632 209 211 198
0.98893 -0.425547 -0.632 211 213 200
0.990133 -0.425547 -0.632 210 212 199
0.992906 -0.42622 -0.633 210 212 199
0.994111 -0.42622 -0.633 210 212 199
0.995317 -0.42622 -0.633 210 212 198
0.996523 -0.42622 -0.633 209 211 197
0.997729 -0.42622 -0.633 209 211 197
0.998934 -0.42622 -0.633 209 211 197
1.00014 -0.42622 -0.633 209 211 197
1.00135 -0.42622 -0.633 209 211 197
1.00255 -0.42622 -0.633 209 211 197
1.00376 -0.42622 -0.633 208 210 196
1.00496 -0.42622 -0.633 209 211 197
1.00617 -0.42622 -0.633 207 209 195
1.00737 -0.42622 -0.633 207 209 195
1.00858 -0.42622 -0.633 207 209 195
1.00979 -0.42622 -0.633 207 209 195
1.01099 -0.42622 -0.633 207 209 195
1.0122 -0.42622 -0.633 207 210 193
1.0134 -0.42622 -0.633 207 210 193
1.01461 -0.42622 -0.633 208 211 194
1.01581 -0.42622 -0.633 208 211 194
1.01702 -0.42622 -0.633 207 210 193
1.01823 -0.42622 -0.633 207 210 193
1.01943 -0.42622 -0.633 208 211 194
1.02064 -0.42622 -0.633 207 210 193
1.02184 -0.42622 -0.633 207 210 193
1.02305 -0.42622 -0.633 206 209 192
1.02425 -0.42622 -0.633 208 210 196
1.02546 -0.42622 -0.633 207 209 195
1.02829 -0.426893 -0.634 208 210 196
1.0295 -0.426893 -0.634 207 209 195
1.0307 -0.426893 -0.634 207 209 195
1.03191 -0.426893 -0.634 208 210 196
1.03149 -0.42622 -0.633 207 209 195
1.03269 -0.42622 -0.633 207 209 195
1.0339 -0.42622 -0.633 207 209 195
1.03674 -0.426893 -0.634 207 210 193
1.03795 -0.426893 -0.634 207 210 193
1.03916 -0.426893 -0.634 207 210 193
1.04036 -0.426893 -0.634 206 209 192
1.04321 -0.427567 -0.635 206 209 192
1.04442 -0.427567 -0.635 206 209 192
1.04563 -0.427567 -0.635 206 209 192
1.04684 -0.427567 -0.635 206 209 192
1.04805 -0.427567 -0.635 206 209 192
1.04761 -0.426893 -0.634 206 209 192
1.04882 -0.426893 -0.634 206 209 192
1.05002 -0.426893 -0.634 206 209 192
1.05123 -0.426893 -0.634 206 209 192
1.0541 -0.427567 -0.635 206 209 192
1.05531 -0.427567 -0.635 206 209 192
1.05652 -0.427567 -0.635 206 209 192
1.05773 -0.427567 -0.635 206 209 192
1.05894 -0.427567 -0.635 206 209 192
1.06182 -0.42824 -0.636 206 209 192
1.06303 -0.42824 -0.636 206 209 192
1.06424 -0.42824 -0.636 206 209 192
1.06545 -0.42824 -0.636 206 209 192
1.06666 -0.42824 -0.636 205 208 189
1.06787 -0.42824 -0.636 205 208 189
1.06909 -0.42824 -0.636 206 209 190
1.0703 -0.42824 -0.636 206 209 190
1.07151 -0.42824 -0.636 206 209 190
1.07272 -0.42824 -0.636 206 209 190
1.07393 -0.42824 -0.636 206 209 190
1.07514 -0.42824 -0.636 205 208 191
1.07635 -0.42824 -0.636 205 208 191
1.07757 -0.42824 -0.636 204 207 190
1.07878 -0.42824 -0.636 204 207 190
1.08169 -0.428913 -0.637 205 208 191
1.0829 -0.428913 -0.637 205 208 191
1.08411 -0.428913 -0.637 204 207 190
1.08533 -0.428913 -0.637 204 207 190
1.08654 -0.428913 -0.637 206 209 190
1.08775 -0.428913 -0.637 206 209 190
1.08897 -0.428913 -0.637 206 209 192
1.09018 -0.428913 -0.637 205 208 191
1.09139 -0.428913 -0.637 205 208 191
1.09261 -0.428913 -0.637 205 208 191
1.09382 -0.428913 -0.637 205 208 189
1.09503 -0.428913 -0.637 205 208 189
1.09625 -0.428913 -0.637 204 207 188
1.09746 -0.428913 -0.637 204 207 188
1.09867 -0.428913 -0.637 204 207 190
1.09989 -0.428913 -0.637 204 207 190
1.1011 -0.428913 -0.637 205 208 191
1.10404 -0.429587 -0.638 205 208 191
1.10526 -0.429587 -0.638 205 208 191
1.10647 -0.429587 -0.638 205 208 191
1.10595 -0.428913 -0.637 204 207 190
1.10717 -0.428913 -0.637 204 207 190
1.10838 -0.428913 -0.637 204 207 190
1.10959 -0.428913 -0.637 204 207 190
1.11081 -0.428913 -0.637 204 207 190
1.11202 -0.428913 -0.637 204 207 190
1.11498 -0.429587 -0.638 203 206 189
1.1162 -0.429587 -0.638 203 206 189
1.11741 -0.429587 -0.638 203 206 189
1.12038 -0.43026 -0.639 203 206 189
1.1216 -0.43026 -0.639 203 206 189
1.12281 -0.43026 -0.639 203 206 189
1.12227 -0.429587 -0.638 202 205 188
1.12349 -0.429587 -0.638 202 204 190
1.1247 -0.429587 -0.638 202 204 190
1.12592 -0.429587 -0.638 202 204 190
1.12713 -0.429587 -0.638 202 204 190
1.12835 -0.429587 -0.638 202 204 190
1.12956 -0.429587 -0.638 203 205 191
1.13078 -0.429587 -0.638 203 205 191
1.13199 -0.429587 -0.638 203 205 191
1.13321 -0.429587 -0.638 203 205 191
1.13265 -0.428913 -0.637 202 204 190
1.13386 -0.428913 -0.637 203 205 191
1.13507 -0.428913 -0.637 203 205 191
1.1345 -0.42824 -0.636 203 205 191
1.13571 -0.42824 -0.636 203 205 191
1.13693 -0.42824 -0.636 203 205 191
1.13814 -0.42824 -0.636 202 204 190
1.13935 -0.42824 -0.636 202 204 190
1.14056 -0.42824 -0.636 202 204 191
1.13998 -0.427567 -0.635 202 204 191
1.14119 -0.427567 -0.635 201 203 190
1.1424 -0.427567 -0.635 201 203 190
1.1418 -0.426893 -0.634 199 202 191
0.0528419 -0.386236 -0.572 190 154 130
0.0537429 -0.384886 -0.57 197 157 131
0.05454 -0.38286 -0.567 197 157 131
0.0552276 -0.380159 -0.563 199 155 130
0.0559 -0.377458 -0.559 200 156 131
0.0565571 -0.374757 -0.555 202 158 133
0.0574067 -0.373407 -0.553 203 157 134
0.0579314 -0.37003 -0.548 202 157 128
0.05876 -0.36868 -0.546 201 156 127
0.059581 -0.36733 -0.544 200 156 131
0.0605057 -0.366654 -0.543 200 156 131
0.0614267 -0.365979 -0.542 200 156 131
0.0623438 -0.365304 -0.541 204 160 135
0.0633743 -0.365304 -0.541 201 157 132
0.0642857 -0.364629 -0.54 202 158 133
0.0651933 -0.363953 -0.539 200 156 129
0.06622 -0.363953 -0.539 204 160 133
0.0671219 -0.363278 -0.538 204 158 132
0.0681467 -0.363278 -0.538 204 158 132
0.0691714 -0.363278 -0.538 204 159 130
0.0700657 -0.362603 -0.537 203 158 129
0.0710886 -0.362603 -0.537 203 158 129
0.0721114 -0.362603 -0.537 203 158 129
0.0729981 -0.361928 -0.536 203 158 129
0.074019 -0.361928 -0.536 204 159 130
0.07504 -0.361928 -0.536 201 156 127
0.076061 -0.361928 -0.536 200 155 126
0.0770819 -0.361928 -0.536 197 152 123
0.0781029 -0.361928 -0.536 200 155 126
0.0791238 -0.361928 -0.536 200 155 126
0.0801448 -0.361928 -0.536 202 157 128
0.0811657 -0.361928 -0.536 200 155 126
0.0821867 -0.361928 -0.536 200 153 125
0.0832076 -0.361928 -0.536 196 149 121
0.0843857 -0.362603 -0.537 199 149 124
0.0854086 -0.362603 -0.537 198 148 123
0.0864314 -0.362603 -0.537 195 143 119
0.0876171 -0.363278 -0.538 191 139 115
0.0886419 -0.363278 -0.538 189 137 113
0.0896667 -0.363278 -0.538 187 135 111
0.09086 -0.363953 -0.539 187 135 111
0.0920571 -0.364629 -0.54 187 135 111
0.0930857 -0.364629 -0.54 190 134 111
0.0942886 -0.365304 -0.541 188 132 109
0.0954952 -0.365979 -0.542 184 128 105
0.0967057 -0.366654 -0.543 180 124 101
0.09792 -0.36733 -0.544 179 122 102
0.0991381 -0.368005 -0.545 179 122 102
0.100176 -0.368005 -0.545 175 118 99
0.1014 -0.36868 -0.546 170 113 94
0.102628 -0.369355 -0.547 170 113 96
0.103859 -0.37003 -0.548 168 111 94
0.105094 -0.370706 -0.549 166 108 94
0.106333 -0.371381 -0.55 164 106 92
0.107576 -0.372056 -0.551 162 104 92
0.108823 -0.372731 -0.552 160 102 90
0.110073 -0.373407 -0.553 159 101 89
0.111328 -0.374082 -0.554 157 99 87
0.112586 -0.374757 -0.555 154 97 86
0.113848 -0.375432 -0.556 153 96 85
0.115113 -0.376108 -0.557 149 95 85
0.116591 -0.377458 -0.559 148 94 84
0.117867 -0.378133 -0.56 144 94 87
0.119146 -0.378809 -0.561 143 93 86
0.120643 -0.380159 -0.563 138 93 87
0.122148 -0.38151 -0.565 134 89 83
0.123442 -0.382185 -0.566 129 89 87
0.12496 -0.383535 -0.568 126 86 84
0.126486 -0.384886 -0.57 120 86 85
0.128019 -0.386236 -0.572 118 84 83
0.12956 -0.387587 -0.574 115 85 85
0.131109 -0.388937 -0.576 115 85 85
0.150419 -0.402442 -0.596 111 109 131
0.151554 -0.402442 -0.596 120 118 140
0.15269 -0.402442 -0.596 123 122 140
0.153825 -0.402442 -0.596 127 126 144
0.15496 -0.402442 -0.596 128 130 145
0.156095 -0.402442 -0.596 133 135 150
0.15723 -0.402442 -0.596 140 138 152
0.158366 -0.402442 -0.596 140 138 152
0.159501 -0.402442 -0.596 138 141 158
0.160636 -0.402442 -0.596 125 128 145
0.161771 -0.402442 -0.596 107 117 144
0.162907 -0.402442 -0.596 86 96 123
0.165454 -0.403117 -0.597 86 99 134
0.166591 -0.403117 -0.597 102 112 148
0.167729 -0.403117 -0.597 111 121 157
0.168866 -0.403117 -0.597 111 121 157
0.170003 -0.403117 -0.597 96 105 136
0.17114 -0.403117 -0.597 115 124 155
0.172277 -0.403117 -0.597 112 125 157
0.173414 -0.403117 -0.597 107 120 152
0.174551 -0.403117 -0.597 93 111 149
0.175689 -0.403117 -0.597 80 98 136
0.176826 -0.403117 -0.597 84 98 143
0.177963 -0.403117 -0.597 98 112 157
0.46992 -0.415947 -0.616 187 191 203
0.484786 -0.416622 -0.617 118 129 159
0.485961 -0.416622 -0.617 168 179 209
0.491457 -0.417297 -0.618 197 198 216
0.492634 -0.417297 -0.618 194 195 213
0.493811 -0.417297 -0.618 190 191 211
0.494989 -0.417297 -0.618 163 164 184
0.496166 -0.417297 -0.618 124 144 179
0.498148 -0.417972 -0.619 101 121 156
0.499327 -0.417972 -0.619 97 120 162
0.499697 -0.417297 -0.618 103 126 168
0.500874 -0.417297 -0.618 99 127 174
0.521714 -0.405143 -0.6 147 127 126
0.517629 -0.401091 -0.594 145 125 124
0.512647 -0.396365 -0.587 151 126 121
0.507638 -0.391638 -0.58 154 129 124
0.502603 -0.386911 -0.573 156 129 122
0.49842 -0.38286 -0.567 157 130 123
0.494214 -0.378809 -0.561 158 129 123
0.491751 -0.376108 -0.557 158 129 123
0.489273 -0.373407 -0.553 157 128 122
0.48678 -0.370706 -0.549 158 129 123
0.48516 -0.36868 -0.546 162 131 126
0.483529 -0.366654 -0.543 164 133 128
0.481886 -0.364629 -0.54 167 133 121
0.481126 -0.363278 -0.538 169 135 123
0.480358 -0.361928 -0.536 173 136 120
0.479583 -0.360577 -0.534 173 136 120
0.4788 -0.359227 -0.532 178 136 120
0.478009 -0.357876 -0.53 178 136 120
0.478115 -0.357201 -0.529 180 137 118
0.478217 -0.356526 -0.528 181 138 119
0.478315 -0.35585 -0.527 181 136 115
0.47841 -0.355175 -0.526 183 138 117
0.477589 -0.353825 -0.524 186 141 120
0.477673 -0.35315 -0.523 189 144 123
0.477754 -0.352474 -0.522 188 143 124
0.477831 -0.351799 -0.521 187 142 123
0.477905 -0.351124 -0.52 185 142 123
0.477974 -0.350449 -0.519 184 141 122
0.478963 -0.350449 -0.519 185 140 119
0.479027 -0.349773 -0.518 185 140 119
0.479087 -0.349098 -0.517 186 141 120
0.480071 -0.349098 -0.517 186 141 120
0.480126 -0.348423 -0.516 188 143 120
0.480176 -0.347748 -0.515 188 143 120
0.481157 -0.347748 -0.515 187 142 119
0.481202 -0.347072 -0.514 188 143 120
0.482181 -0.347072 -0.514 187 142 119
0.48316 -0.347072 -0.514 188 143 120
0.484139 -0.347072 -0.514 187 141 117
0.485118 -0.347072 -0.514 186 140 116
0.485151 -0.346397 -0.513 187 141 117
0.486129 -0.346397 -0.513 185 139 115
0.487106 -0.346397 -0.513 184 138 114
0.488083 -0.346397 -0.513 186 140 116
0.490013 -0.347072 -0.514 183 137 113
0.490992 -0.347072 -0.514 183 137 113
0.491971 -0.347072 -0.514 183 137 113
0.49295 -0.347072 -0.514 183 137 111
0.49393 -0.347072 -0.514 182 136 110
0.494909 -0.347072 -0.514 181 135 109
0.495888 -0.347072 -0.514 181 135 109
0.496867 -0.347072 -0.514 181 136 107
0.498814 -0.347748 -0.515 179 134 105
0.499795 -0.347748 -0.515 180 135 104
0.500776 -0.347748 -0.515 180 135 104
0.501757 -0.347748 -0.515 179 134 101
0.502738 -0.347748 -0.515 179 134 101
0.504697 -0.348423 -0.516 177 133 98
0.50666 -0.349098 -0.517 174 130 95
0.507645 -0.349098 -0.517 174 130 95
0.509613 -0.349773 -0.518 171 127 92
0.511586 -0.350449 -0.519 168 123 100
0.512574 -0.350449 -0.519 171 125 101
0.514552 -0.351124 -0.52 166 124 99
0.516534 -0.351799 -0.521 164 122 97
0.519513 -0.35315 -0.523 161 121 95
0.5225 -0.3545 -0.525 160 120 94
0.525494 -0.35585 -0.527 161 121 96
0.529495 -0.357876 -0.53 160 120 95
0.60894 -0.403117 -0.597 194 181 172
0.614165 -0.405818 -0.601 208 195 186
0.619405 -0.408519 -0.605 204 203 198
0.623634 -0.410545 -0.608 205 204 199
0.910643 -0.423374 -0.627 212 214 201
0.911837 -0.423374 -0.627 212 214 201
0.913031 -0.423374 -0.627 212 214 201
0.915684 -0.42405 -0.628 212 214 201
0.91688 -0.42405 -0.628 212 214 201
0.927925 -0.424725 -0.629 212 214 200
0.929123 -0.424725 -0.629 211 213 199
0.930321 -0.424725 -0.629 212 214 200
0.931519 -0.424725 -0.629 211 213 199
0.932717 -0.424725 -0.629 210 212 198
0.933915 -0.424725 -0.629 212 214 200
0.935113 -0.424725 -0.629 212 214 200
0.9438 -0.4254 -0.63 211 213 199
0.945 -0.4254 -0.63 210 212 198
0.9462 -0.4254 -0.63 211 213 199
0.9474 -0.4254 -0.63 211 213 199
0.9486 -0.4254 -0.63 211 213 199
0.9498 -0.4254 -0.63 212 214 200
0.951 -0.4254 -0.63 211 213 199
0.9522 -0.4254 -0.63 210 212 198
0.9534 -0.4254 -0.63 211 213 199
0.959721 -0.426075 -0.631 211 213 199
0.960923 -0.426075 -0.631 211 213 199
0.962125 -0.426075 -0.631 211 213 199
0.963327 -0.426075 -0.631 211 213 199
0.964529 -0.426075 -0.631 211 213 199
0.9642 -0.4254 -0.63 210 212 198
0.966932 -0.426075 -0.631 211 213 199
0.968134 -0.426075 -0.631 211 213 199
0.969336 -0.426075 -0.631 210 212 198
0.970538 -0.426075 -0.631 210 212 198
0.97174 -0.426075 -0.631 211 213 199
0.972942 -0.426075 -0.631 211 213 199
0.974144 -0.426075 -0.631 209 211 197
0.975346 -0.426075 -0.631 209 211 197
0.976548 -0.426075 -0.631 210 212 198
0.977749 -0.426075 -0.631 210 212 198
0.978951 -0.426075 -0.631 209 211 197
0.980153 -0.426075 -0.631 209 211 197
0.981355 -0.426075 -0.631 209 211 197
0.982557 -0.426075 -0.631 209 211 197
0.983759 -0.426075 -0.631 210 212 199
0.984961 -0.426075 -0.631 210 212 199
0.986163 -0.426075 -0.631 210 212 199
0.987365 -0.426075 -0.631 210 212 199
0.990133 -0.42675 -0.632 209 211 197
0.991337 -0.42675 -0.632 208 210 196
0.992541 -0.42675 -0.632 210 212 198
0.993745 -0.42675 -0.632 208 210 196
0.994949 -0.42675 -0.632 208 210 196
0.996152 -0.42675 -0.632 209 211 197
0.997356 -0.42675 -0.632 209 211 197
0.99856 -0.42675 -0.632 208 210 196
0.999764 -0.42675 -0.632 208 210 196
1.00097 -0.42675 -0.632 209 211 197
1.00217 -0.42675 -0.632 209 211 197
1.00338 -0.42675 -0.632 210 212 198
1.00458 -0.42675 -0.632 209 211 197
1.00578 -0.42675 -0.632 208 210 196
1.00699 -0.42675 -0.632 207 209 195
1.00819 -0.42675 -0.632 207 209 195
1.00939 -0.42675 -0.632 206 208 194
1.0106 -0.42675 -0.632 207 209 195
1.0118 -0.42675 -0.632 207 209 195
1.01301 -0.42675 -0.632 208 211 194
1.01421 -0.42675 -0.632 208 211 194
1.01541 -0.42675 -0.632 209 212 195
1.01662 -0.42675 -0.632 208 211 194
1.01782 -0.42675 -0.632 208 211 194
1.02064 -0.427426 -0.633 207 210 193
1.02184 -0.427426 -0.633 207 210 193
1.02305 -0.427426 -0.633 207 210 193
1.02425 -0.427426 -0.633 207 209 195
1.02546 -0.427426 -0.633 207 209 195
1.02667 -0.427426 -0.633 207 209 195
1.02787 -0.427426 -0.633 207 209 195
1.02908 -0.427426 -0.633 207 209 195
1.03028 -0.427426 -0.633 207 209 195
1.03149 -0.427426 -0.633 207 209 195
1.03269 -0.427426 -0.633 207 210 193
1.0339 -0.427426 -0.633 207 210 193
1.03511 -0.427426 -0.633 206 209 192
1.03631 -0.427426 -0.633 206 209 192
1.03752 -0.427426 -0.633 206 209 192
1.03872 -0.427426 -0.633 206 209 192
1.04157 -0.428101 -0.634 206 209 192
1.04278 -0.428101 -0.634 206 209 192
1.04399 -0.428101 -0.634 206 208 194
1.04519 -0.428101 -0.634 206 208 194
1.0464 -0.428101 -0.634 207 209 195
1.04761 -0.428101 -0.634 207 209 195
1.04882 -0.428101 -0.634 207 209 195
1.05002 -0.428101 -0.634 207 209 195
1.05123 -0.428101 -0.634 207 210 193
1.05244 -0.428101 -0.634 207 210 193
1.05365 -0.428101 -0.634 206 209 192
1.05486 -0.428101 -0.634 206 209 192
1.05773 -0.428776 -0.635 206 209 192
1.05894 -0.428776 -0.635 206 209 192
1.06015 -0.428776 -0.635 206 209 192
1.06136 -0.428776 -0.635 207 210 193
1.06257 -0.428776 -0.635 206 209 192
1.06378 -0.428776 -0.635 206 209 192
1.06499 -0.428776 -0.635 204 207 190
1.0662 -0.428776 -0.635 205 208 191
1.0674 -0.428776 -0.635 206 209 192
1.06861 -0.428776 -0.635 206 209 192
1.06982 -0.428776 -0.635 206 209 192
1.07103 -0.428776 -0.635 205 208 191
1.07224 -0.428776 -0.635 205 208 191
1.07345 -0.428776 -0.635 205 208 191
1.07466 -0.428776 -0.635 205 208 191
1.07757 -0.429451 -0.636 205 208 191
1.07878 -0.429451 -0.636 205 208 191
1.07999 -0.429451 -0.636 205 208 191
1.0812 -0.429451 -0.636 205 208 191
1.08241 -0.429451 -0.636 204 207 190
1.08362 -0.429451 -0.636 204 207 190
1.08483 -0.429451 -0.636 206 209 190
1.08605 -0.429451 -0.636 206 209 190
1.08726 -0.429451 -0.636 206 209 190
1.08847 -0.429451 -0.636 206 209 190
1.08968 -0.429451 -0.636 205 208 189
1.09089 -0.429451 -0.636 205 208 189
1.0921 -0.429451 -0.636 205 208 189
1.09503 -0.430127 -0.637 205 208 189
1.09625 -0.430127 -0.637 204 207 188
1.09746 -0.430127 -0.637 204 207 188
1.09867 -0.430127 -0.637 204 207 190
1.09989 -0.430127 -0.637 205 208 191
1.1011 -0.430127 -0.637 205 208 191
1.10231 -0.430127 -0.637 205 208 191
1.10353 -0.430127 -0.637 205 208 191
1.10474 -0.430127 -0.637 205 208 191
1.10595 -0.430127 -0.637 205 208 191
1.10717 -0.430127 -0.637 204 207 190
1.10838 -0.430127 -0.637 204 207 190
1.10959 -0.430127 -0.637 204 207 190
1.10906 -0.429451 -0.636 204 207 190
1.11027 -0.429451 -0.636 204 207 190
1.11323 -0.430127 -0.637 204 207 190
1.11445 -0.430127 -0.637 204 207 190
1.11741 -0.430802 -0.638 203 206 189
1.11863 -0.430802 -0.638 202 205 188
1.11984 -0.430802 -0.638 202 205 188
1.12106 -0.430802 -0.638 202 205 188
1.12227 -0.430802 -0.638 202 205 188
1.12349 -0.430802 -0.638 203 206 189
1.1247 -0.430802 -0.638 203 206 189
1.12592 -0.430802 -0.638 203 206 189
1.12713 -0.430802 -0.638 203 206 189
1.12658 -0.430127 -0.637 203 205 191
1.12779 -0.430127 -0.637 203 205 191
1.12901 -0.430127 -0.637 203 205 191
1.13022 -0.430127 -0.637 203 205 191
1.13143 -0.430127 -0.637 203 205 191
1.13265 -0.430127 -0.637 202 204 190
1.13386 -0.430127 -0.637 202 204 190
1.13329 -0.429451 -0.636 202 204 190
1.1345 -0.429451 -0.636 203 205 191
1.13571 -0.429451 -0.636 203 205 191
1.13693 -0.429451 -0.636 203 205 191
1.13635 -0.428776 -0.635 203 205 191
1.13756 -0.428776 -0.635 203 205 191
1.13877 -0.428776 -0.635 202 204 191
1.13998 -0.428776 -0.635 202 204 191
1.14119 -0.428776 -0.635 202 204 191
1.1424 -0.428776 -0.635 202 204 191
1.1418 -0.428101 -0.634 199 202 191
1.14301 -0.428101 -0.634 202 205 194
1.14422 -0.428101 -0.634 202 204 191
0.0526571 -0.385971 -0.57 193 153 128
0.05346 -0.38394 -0.567 201 157 132
0.0543476 -0.382586 -0.565 201 157 132
0.0549333 -0.3792 -0.56 200 156 129
0.0556 -0.376491 -0.556 200 156 129
0.0562514 -0.373783 -0.552 202 158 131
0.057199 -0.373106 -0.551 203 159 134
0.0578257 -0.370397 -0.547 202 158 131
0.0586524 -0.369043 -0.545 201 157 130
0.0594714 -0.367689 -0.543 200 156 129
0.0603943 -0.367011 -0.542 201 157 130
0.0613133 -0.366334 -0.541 202 158 131
0.0623438 -0.366334 -0.541 205 161 134
0.0632571 -0.365657 -0.54 203 159 132
0.0641667 -0.36498 -0.539 201 157 130
0.0651933 -0.36498 -0.539 201 157 130
0.0660971 -0.364303 -0.538 203 159 132
0.0669971 -0.363626 -0.537 204 159 130
0.06802 -0.363626 -0.537 204 159 130
0.0690429 -0.363626 -0.537 204 159 130
0.0700657 -0.363626 -0.537 203 158 129
0.0710886 -0.363626 -0.537 203 158 129
0.0719771 -0.362949 -0.536 204 159 130
0.0729981 -0.362949 -0.536 204 159 130
0.074019 -0.362949 -0.536 204 159 130
0.07504 -0.362949 -0.536 202 157 128
0.076061 -0.362949 -0.536 202 157 128
0.0770819 -0.362949 -0.536 202 157 128
0.0781029 -0.362949 -0.536 200 155 126
0.0791238 -0.362949 -0.536 201 156 127
0.0801448 -0.362949 -0.536 203 156 128
0.0811657 -0.362949 -0.536 200 153 125
0.0821867 -0.362949 -0.536 197 150 122
0.0832076 -0.362949 -0.536 194 147 119
0.0843857 -0.363626 -0.537 198 148 121
0.0854086 -0.363626 -0.537 196 146 119
0.0864314 -0.363626 -0.537 193 143 116
0.0876171 -0.364303 -0.538 190 140 113
0.0886419 -0.364303 -0.538 190 138 114
0.0896667 -0.364303 -0.538 188 136 112
0.09086 -0.36498 -0.539 187 135 111
0.0920571 -0.365657 -0.54 187 135 111
0.0930857 -0.365657 -0.54 190 136 112
0.0942886 -0.366334 -0.541 188 134 110
0.0954952 -0.367011 -0.542 184 128 105
0.0967057 -0.367689 -0.543 180 124 101
0.09792 -0.368366 -0.544 180 123 103
0.0989562 -0.368366 -0.544 179 122 102
0.100176 -0.369043 -0.545 173 118 98
0.1014 -0.36972 -0.546 169 114 94
0.102628 -0.370397 -0.547 168 112 95
0.103859 -0.371074 -0.548 166 110 93
0.105094 -0.371751 -0.549 166 108 94
0.106333 -0.372429 -0.55 164 106 92
0.107576 -0.373106 -0.551 162 104 92
0.108823 -0.373783 -0.552 161 103 91
0.110073 -0.37446 -0.553 158 102 89
0.111328 -0.375137 -0.554 156 100 87
0.112586 -0.375814 -0.555 152 97 90
0.113848 -0.376491 -0.556 149 94 87
0.115113 -0.377169 -0.557 145 95 88
0.116591 -0.378523 -0.559 144 94 87
0.117867 -0.3792 -0.56 140 93 87
0.119358 -0.380554 -0.562 140 93 87
0.120857 -0.381909 -0.564 136 93 87
0.122148 -0.382586 -0.565 133 90 84
0.12366 -0.38394 -0.567 126 88 85
0.12518 -0.385294 -0.569 124 86 83
0.126708 -0.386649 -0.571 119 88 86
0.128243 -0.388003 -0.573 117 86 84
0.129786 -0.389357 -0.575 114 84 84
0.149033 -0.4029 -0.595 107 104 131
0.150167 -0.4029 -0.595 115 111 134
0.1513 -0.4029 -0.595 119 115 138
0.152433 -0.4029 -0.595 126 124 145
0.153567 -0.4029 -0.595 133 131 152
0.1547 -0.4029 -0.595 130 133 152
0.155833 -0.4029 -0.595 131 134 153
0.15723 -0.403577 -0.596 140 138 152
0.158366 -0.403577 -0.596 141 139 153
0.159501 -0.403577 -0.596 135 142 160
0.160636 -0.403577 -0.596 113 120 138
0.161771 -0.403577 -0.596 85 99 126
0.162907 -0.403577 -0.596 70 84 111
0.164042 -0.403577 -0.596 74 88 127
0.165177 -0.403577 -0.596 87 101 140
0.166312 -0.403577 -0.596 111 123 161
0.167729 -0.404254 -0.597 118 130 168
0.168866 -0.404254 -0.597 118 130 168
0.170003 -0.404254 -0.597 121 132 162
0.17114 -0.404254 -0.597 107 118 148
0.172277 -0.404254 -0.597 111 125 154
0.173414 -0.404254 -0.597 113 127 156
0.1791 -0.404254 -0.597 122 136 162
0.180237 -0.404254 -0.597 151 165 191
0.462129 -0.416443 -0.615 198 201 216
0.4633 -0.416443 -0.615 196 199 214
0.464471 -0.416443 -0.615 198 205 223
0.487136 -0.417797 -0.617 194 195 213
0.488311 -0.417797 -0.617 195 196 214
0.489487 -0.417797 -0.617 199 198 216
0.490662 -0.417797 -0.617 199 198 216
0.491837 -0.417797 -0.617 196 195 213
0.493012 -0.417797 -0.617 189 187 208
0.494188 -0.417797 -0.617 165 163 184
0.495363 -0.417797 -0.617 123 141 177
0.497343 -0.418474 -0.618 102 120 156
0.49852 -0.418474 -0.618 104 128 166
0.499697 -0.418474 -0.618 114 138 176
0.500874 -0.418474 -0.618 116 143 186
0.503229 -0.418474 -0.618 130 159 203
0.504406 -0.418474 -0.618 109 138 182
0.523453 -0.40764 -0.602 142 124 124
0.519371 -0.403577 -0.596 144 126 126
0.515267 -0.399514 -0.59 147 122 117
0.510264 -0.394774 -0.583 151 126 121
0.505234 -0.390034 -0.576 156 129 122
0.501057 -0.385971 -0.57 156 129 122
0.496857 -0.381909 -0.564 157 128 122
0.493517 -0.378523 -0.559 157 128 122
0.491043 -0.375814 -0.555 158 128 120
0.488553 -0.373106 -0.551 160 130 122
0.486049 -0.370397 -0.547 164 131 122
0.484419 -0.368366 -0.544 165 132 123
0.482778 -0.366334 -0.541 166 133 118
0.48202 -0.36498 -0.539 166 133 118
0.480358 -0.362949 -0.536 170 134 118
0.479583 -0.361594 -0.534 171 135 119
0.4788 -0.36024 -0.532 174 136 117
0.478911 -0.359563 -0.531 175 137 118
0.478115 -0.358209 -0.529 180 138 116
0.478217 -0.357531 -0.528 181 139 117
0.478315 -0.356854 -0.527 182 137 114
0.47841 -0.356177 -0.526 184 139 116
0.477589 -0.354823 -0.524 182 140 118
0.477673 -0.354146 -0.523 184 142 120
0.477754 -0.353469 -0.522 186 144 122
0.477831 -0.352791 -0.521 185 143 121
0.477905 -0.352114 -0.52 184 143 123
0.477974 -0.351437 -0.519 183 142 122
0.478963 -0.351437 -0.519 183 141 119
0.479027 -0.35076 -0.518 182 140 118
0.479087 -0.350083 -0.517 185 140 117
0.479143 -0.349406 -0.516 186 141 118
0.480126 -0.349406 -0.516 186 141 118
0.480176 -0.348729 -0.515 187 142 119
0.480223 -0.348051 -0.514 188 143 120
0.481202 -0.348051 -0.514 189 144 121
0.482181 -0.348051 -0.514 186 142 117
0.48222 -0.347374 -0.513 188 144 119
0.483197 -0.347374 -0.513 188 142 118
0.484174 -0.347374 -0.513 188 142 118
0.485151 -0.347374 -0.513 190 144 120
0.486129 -0.347374 -0.513 186 140 116
0.487106 -0.347374 -0.513 183 137 113
0.488083 -0.347374 -0.513 184 138 114
0.48906 -0.347374 -0.513 186 138 115
0.490037 -0.347374 -0.513 186 138 115
0.491014 -0.347374 -0.513 186 138 115
0.49295 -0.348051 -0.514 184 136 113
0.49393 -0.348051 -0.514 182 134 111
0.494909 -0.348051 -0.514 181 134 108
0.495888 -0.348051 -0.514 182 135 109
0.496867 -0.348051 -0.514 182 135 107
0.497846 -0.348051 -0.514 183 136 108
0.498825 -0.348051 -0.514 181 134 104
0.499804 -0.348051 -0.514 182 135 105
0.500783 -0.348051 -0.514 181 135 102
0.501762 -0.348051 -0.514 181 135 102
0.503719 -0.348729 -0.515 180 134 100
0.50568 -0.349406 -0.516 177 131 97
0.506663 -0.349406 -0.516 175 129 93
0.50863 -0.350083 -0.517 174 128 92
0.5106 -0.35076 -0.518 172 126 102
0.512574 -0.351437 -0.519 171 125 101
0.512573 -0.35076 -0.518 169 125 98
0.515543 -0.352114 -0.52 167 123 96
0.517527 -0.352791 -0.521 160 123 97
0.52051 -0.354146 -0.523 159 122 96
0.522503 -0.354823 -0.524 159 122 96
0.526498 -0.356854 -0.527 157 120 94
0.624792 -0.411703 -0.608 206 208 205
0.90706 -0.424569 -0.627 212 214 200
0.908254 -0.424569 -0.627 212 214 200
0.909449 -0.424569 -0.627 212 214 200
0.910643 -0.424569 -0.627 212 214 200
0.911837 -0.424569 -0.627 212 214 200
0.913031 -0.424569 -0.627 211 213 199
0.914226 -0.424569 -0.627 211 213 199
0.91542 -0.424569 -0.627 211 213 199
0.922861 -0.425246 -0.628 211 213 199
0.924057 -0.425246 -0.628 211 213 199
0.925253 -0.425246 -0.628 212 214 200
0.92645 -0.425246 -0.628 212 214 200
0.927646 -0.425246 -0.628 211 213 199
0.928842 -0.425246 -0.628 211 213 199
0.930038 -0.425246 -0.628 212 214 200
0.93751 -0.425923 -0.629 211 213 199
0.938708 -0.425923 -0.629 212 214 200
0.939906 -0.425923 -0.629 212 214 200
0.941104 -0.425923 -0.629 212 214 200
0.942302 -0.425923 -0.629 211 213 199
0.9435 -0.425923 -0.629 211 213 199
0.944698 -0.425923 -0.629 212 214 200
0.945896 -0.425923 -0.629 211 213 199
0.947094 -0.425923 -0.629 211 213 199
0.9534 -0.4266 -0.63 211 213 199
0.9546 -0.4266 -0.63 211 213 199
0.9558 -0.4266 -0.63 210 212 198
0.957 -0.4266 -0.63 210 212 198
0.9582 -0.4266 -0.63 211 213 199
0.9594 -0.4266 -0.63 211 213 199
0.9606 -0.4266 -0.63 210 212 198
0.9618 -0.4266 -0.63 210 212 198
0.963 -0.4266 -0.63 210 212 198
0.9642 -0.4266 -0.63 210 212 199
0.9654 -0.4266 -0.63 210 212 199
0.9666 -0.4266 -0.63 210 212 199
0.9678 -0.4266 -0.63 210 212 199
0.969 -0.4266 -0.63 210 212 199
0.9702 -0.4266 -0.63 211 213 200
0.9714 -0.4266 -0.63 211 213 200
0.9726 -0.4266 -0.63 210 212 199
0.9738 -0.4266 -0.63 209 211 198
0.975 -0.4266 -0.63 210 212 199
0.9762 -0.4266 -0.63 210 212 199
0.978951 -0.427277 -0.631 210 212 199
0.980153 -0.427277 -0.631 210 212 199
0.9798 -0.4266 -0.63 210 212 199
0.981 -0.4266 -0.63 209 211 198
0.9822 -0.4266 -0.63 210 212 198
0.9834 -0.4266 -0.63 210 212 198
0.9846 -0.4266 -0.63 209 211 197
0.987365 -0.427277 -0.631 209 211 197
0.988567 -0.427277 -0.631 209 211 197
0.989769 -0.427277 -0.631 208 210 196
0.99097 -0.427277 -0.631 209 211 197
0.992172 -0.427277 -0.631 208 210 196
0.993374 -0.427277 -0.631 208 210 196
0.996152 -0.427954 -0.632 208 210 196
0.995778 -0.427277 -0.631 208 210 196
0.99698 -0.427277 -0.631 208 210 196
0.998182 -0.427277 -0.631 208 210 196
0.999384 -0.427277 -0.631 208 210 196
1.00059 -0.427277 -0.631 209 211 197
1.00179 -0.427277 -0.631 210 212 198
1.00299 -0.427277 -0.631 209 211 197
1.00419 -0.427277 -0.631 208 210 196
1.00539 -0.427277 -0.631 207 209 195
1.0066 -0.427277 -0.631 206 208 194
1.0078 -0.427277 -0.631 206 208 194
1.009 -0.427277 -0.631 207 209 195
1.0102 -0.427277 -0.631 208 210 196
1.0114 -0.427277 -0.631 210 213 196
1.0126 -0.427277 -0.631 209 212 195
1.01381 -0.427277 -0.631 209 212 195
1.01662 -0.427954 -0.632 208 211 194
1.01782 -0.427954 -0.632 207 210 193
1.01902 -0.427954 -0.632 207 210 193
1.02023 -0.427954 -0.632 207 210 193
1.02143 -0.427954 -0.632 208 211 194
1.02264 -0.427954 -0.632 207 209 195
1.02384 -0.427954 -0.632 207 209 195
1.02504 -0.427954 -0.632 207 209 195
1.02625 -0.427954 -0.632 208 210 196
1.02745 -0.427954 -0.632 207 209 195
1.02866 -0.427954 -0.632 207 210 193
1.02986 -0.427954 -0.632 207 210 193
1.03106 -0.427954 -0.632 207 210 193
1.03227 -0.427954 -0.632 206 209 192
1.03347 -0.427954 -0.632 206 209 192
1.03467 -0.427954 -0.632 206 209 192
1.03588 -0.427954 -0.632 206 209 190
1.03872 -0.428631 -0.633 206 209 190
1.03993 -0.428631 -0.633 206 209 190
1.04113 -0.428631 -0.633 206 209 190
1.04234 -0.428631 -0.633 206 209 192
1.04355 -0.428631 -0.633 206 209 192
1.04475 -0.428631 -0.633 207 210 193
1.04596 -0.428631 -0.633 207 210 193
1.04716 -0.428631 -0.633 207 210 193
1.04837 -0.428631 -0.633 207 210 193
1.04957 -0.428631 -0.633 207 210 193
1.05078 -0.428631 -0.633 207 210 193
1.05199 -0.428631 -0.633 206 209 192
1.05486 -0.429309 -0.634 206 209 192
1.05606 -0.429309 -0.634 206 209 192
1.05727 -0.429309 -0.634 206 209 192
1.05848 -0.429309 -0.634 206 209 192
1.05969 -0.429309 -0.634 207 210 193
1.06089 -0.429309 -0.634 206 209 192
1.0621 -0.429309 -0.634 206 209 192
1.06331 -0.429309 -0.634 204 207 190
1.0662 -0.429986 -0.635 205 208 191
1.0674 -0.429986 -0.635 206 209 192
1.06861 -0.429986 -0.635 206 209 192
1.06982 -0.429986 -0.635 205 208 191
1.07103 -0.429986 -0.635 205 208 191
1.07224 -0.429986 -0.635 206 209 192
1.07345 -0.429986 -0.635 205 208 191
1.07466 -0.429986 -0.635 205 208 191
1.07587 -0.429986 -0.635 206 209 192
1.07708 -0.429986 -0.635 205 208 191
1.07829 -0.429986 -0.635 205 208 191
1.0795 -0.429986 -0.635 204 207 190
1.08071 -0.429986 -0.635 204 207 190
1.08192 -0.429986 -0.635 205 208 191
1.08313 -0.429986 -0.635 206 209 190
1.08605 -0.430663 -0.636 206 209 190
1.08726 -0.430663 -0.636 206 209 190
1.08847 -0.430663 -0.636 205 208 189
1.08968 -0.430663 -0.636 205 208 189
1.09089 -0.430663 -0.636 205 208 189
1.0921 -0.430663 -0.636 205 208 189
1.09331 -0.430663 -0.636 205 208 189
1.09453 -0.430663 -0.636 205 208 191
1.09574 -0.430663 -0.636 205 208 191
1.09695 -0.430663 -0.636 205 208 191
1.09816 -0.430663 -0.636 205 208 191
1.09937 -0.430663 -0.636 205 208 191
1.10058 -0.430663 -0.636 205 208 191
1.10179 -0.430663 -0.636 205 208 191
1.10301 -0.430663 -0.636 205 208 191
1.10422 -0.430663 -0.636 204 207 190
1.10543 -0.430663 -0.636 204 207 190
1.10664 -0.430663 -0.636 204 207 190
1.10785 -0.430663 -0.636 204 207 190
1.10906 -0.430663 -0.636 204 207 190
1.11027 -0.430663 -0.636 203 206 189
1.11149 -0.430663 -0.636 203 206 189
1.11445 -0.43134 -0.637 203 206 189
1.11566 -0.43134 -0.637 203 206 189
1.11687 -0.43134 -0.637 202 205 188
1.11984 -0.432017 -0.638 202 205 188
1.12106 -0.432017 -0.638 202 205 188
1.12227 -0.432017 -0.638 202 205 188
1.12173 -0.43134 -0.637 202 205 188
1.12294 -0.43134 -0.637 203 206 189
1.12415 -0.43134 -0.637 203 206 189
1.12537 -0.43134 -0.637 203 206 189
1.12658 -0.43134 -0.637 205 207 193
1.12779 -0.43134 -0.637 204 206 192
1.12901 -0.43134 -0.637 204 206 192
1.12845 -0.430663 -0.636 203 205 191
1.12966 -0.430663 -0.636 203 205 191
1.13087 -0.430663 -0.636 202 204 190
1.13208 -0.430663 -0.636 202 204 190
1.13329 -0.430663 -0.636 201 203 189
1.1345 -0.430663 -0.636 203 205 191
1.13393 -0.429986 -0.635 203 205 191
1.13514 -0.429986 -0.635 203 205 191
1.13635 -0.429986 -0.635 203 205 191
1.13756 -0.429986 -0.635 203 205 191
1.13877 -0.429986 -0.635 202 204 190
1.13998 -0.429986 -0.635 202 204 190
1.14119 -0.429986 -0.635 202 204 190
1.1406 -0.429309 -0.634 202 204 190
1.1418 -0.429309 -0.634 204 206 195
1.14301 -0.429309 -0.634 201 203 192
1.14422 -0.429309 -0.634 201 203 190
0.0516619 -0.387736 -0.571 197 155 130
0.0524724 -0.385699 -0.568 191 149 124
0.0532714 -0.383662 -0.565 203 159 132
0.0539629 -0.380946 -0.561 204 160 133
0.054639 -0.37823 -0.557 204 161 129
0.0553 -0.375513 -0.553 203 160 128
0.0562514 -0.374834 -0.552 202 158 131
0.0569914 -0.372797 -0.549 202 158 131
0.05772 -0.37076 -0.546 201 156 133
0.0585448 -0.369402 -0.544 202 157 134
0.0593619 -0.368044 -0.542 201 157 130
0.0602829 -0.367365 -0.541 203 159 132
0.0612 -0.366686 -0.54 202 158 131
0.0622286 -0.366686 -0.54 203 159 132
0.06314 -0.366007 -0.539 203 159 132
0.0641667 -0.366007 -0.539 199 155 128
0.0650724 -0.365328 -0.538 201 157 130
0.0659743 -0.364649 -0.537 203 159 132
0.0669971 -0.364649 -0.537 203 159 132
0.0678933 -0.36397 -0.536 203 159 132
0.0689143 -0.36397 -0.536 204 159 130
0.0699352 -0.36397 -0.536 203 158 129
0.0709562 -0.36397 -0.536 203 158 129
0.0719771 -0.36397 -0.536 204 159 130
0.0728619 -0.36329 -0.535 204 159 130
0.073881 -0.36329 -0.535 203 158 129
0.0749 -0.36329 -0.535 203 158 129
0.0759191 -0.36329 -0.535 203 156 128
0.0769381 -0.36329 -0.535 202 155 127
0.0779571 -0.36329 -0.535 202 155 127
0.0789762 -0.36329 -0.535 202 155 127
0.0799952 -0.36329 -0.535 202 155 127
0.0810143 -0.36329 -0.535 200 153 125
0.0821867 -0.36397 -0.536 197 147 120
0.0832076 -0.36397 -0.536 195 145 118
0.0842286 -0.36397 -0.536 199 149 124
0.0852495 -0.36397 -0.536 195 145 120
0.0864314 -0.364649 -0.537 194 142 118
0.0874543 -0.364649 -0.537 192 140 116
0.0886419 -0.365328 -0.538 190 138 114
0.0896667 -0.365328 -0.538 188 136 112
0.09086 -0.366007 -0.539 188 136 112
0.0918867 -0.366007 -0.539 188 136 112
0.0930857 -0.366686 -0.54 190 134 109
0.0942886 -0.367365 -0.541 187 131 106
0.0954952 -0.368044 -0.542 183 127 102
0.0967057 -0.368723 -0.543 180 124 99
0.09774 -0.368723 -0.543 179 123 100
0.0989562 -0.369402 -0.544 177 121 98
0.100176 -0.370081 -0.545 174 117 98
0.1014 -0.37076 -0.546 170 113 94
0.102628 -0.371439 -0.547 169 112 95
0.103859 -0.372118 -0.548 167 110 93
0.105094 -0.372797 -0.549 165 107 93
0.106333 -0.373476 -0.55 163 105 91
0.107576 -0.374155 -0.551 161 103 91
0.108823 -0.374834 -0.552 159 101 89
0.110073 -0.375513 -0.553 157 99 88
0.111328 -0.376192 -0.554 155 97 86
0.112586 -0.376871 -0.555 151 98 90
0.113848 -0.37755 -0.556 148 95 87
0.115113 -0.37823 -0.557 143 94 87
0.116591 -0.379588 -0.559 141 92 85
0.118077 -0.380946 -0.561 136 91 85
0.119358 -0.381625 -0.562 136 91 85
0.120857 -0.382983 -0.564 135 92 86
0.122364 -0.384341 -0.566 134 91 85
0.123878 -0.385699 -0.568 126 88 85
0.12518 -0.386378 -0.569 123 85 82
0.126708 -0.387736 -0.571 118 87 85
0.128243 -0.389094 -0.573 116 85 83
0.130011 -0.391131 -0.576 113 83 85
0.147651 -0.403354 -0.594 77 77 101
0.148783 -0.403354 -0.594 93 93 117
0.150167 -0.404033 -0.595 110 107 128
0.1513 -0.404033 -0.595 124 121 142
0.152433 -0.404033 -0.595 127 125 146
0.153567 -0.404033 -0.595 132 130 151
0.1547 -0.404033 -0.595 135 137 158
0.155833 -0.404033 -0.595 138 140 161
0.156967 -0.404033 -0.595 142 141 157
0.1581 -0.404033 -0.595 147 146 162
0.159501 -0.404712 -0.596 138 146 167
0.160636 -0.404712 -0.596 111 119 140
0.161771 -0.404712 -0.596 78 93 124
0.162907 -0.404712 -0.596 67 82 113
0.164042 -0.404712 -0.596 71 88 131
0.165177 -0.404712 -0.596 82 99 142
0.166312 -0.404712 -0.596 106 119 161
0.167448 -0.404712 -0.596 106 119 161
0.168583 -0.404712 -0.596 113 126 168
0.169718 -0.404712 -0.596 110 123 157
0.170853 -0.404712 -0.596 101 114 148
0.171989 -0.404712 -0.596 88 101 133
0.173124 -0.404712 -0.596 108 121 153
0.174259 -0.404712 -0.596 100 114 151
0.1788 -0.404712 -0.596 118 132 161
0.179935 -0.404712 -0.596 151 165 194
0.486347 -0.418293 -0.616 195 194 208
0.48752 -0.418293 -0.616 197 196 210
0.488693 -0.418293 -0.616 193 196 213
0.495363 -0.418972 -0.617 133 153 188
0.496538 -0.418972 -0.617 104 124 159
0.497713 -0.418972 -0.617 108 132 168
0.499697 -0.419651 -0.618 116 140 176
0.500064 -0.418972 -0.617 121 146 186
0.501239 -0.418972 -0.617 138 163 203
0.502414 -0.418972 -0.617 147 172 213
0.50359 -0.418972 -0.617 132 157 198
0.504765 -0.418972 -0.617 111 136 177
0.521986 -0.40675 -0.599 140 125 130
0.517013 -0.401996 -0.592 146 122 118
0.51289 -0.397922 -0.586 151 127 123
0.507866 -0.393169 -0.579 155 128 121
0.502815 -0.388415 -0.572 155 128 121
0.498619 -0.384341 -0.566 155 128 121
0.495283 -0.380946 -0.561 155 128 121
0.492812 -0.37823 -0.557 155 126 118
0.48944 -0.374834 -0.552 157 128 120
0.486937 -0.372118 -0.548 163 131 118
0.48531 -0.370081 -0.545 165 133 120
0.48367 -0.368044 -0.542 164 132 117
0.482914 -0.366686 -0.54 162 130 115
0.481254 -0.364649 -0.537 165 132 115
0.480481 -0.36329 -0.535 167 134 117
0.4797 -0.361932 -0.533 171 134 115
0.478911 -0.360574 -0.531 174 137 118
0.479019 -0.359895 -0.53 180 139 117
0.478217 -0.358537 -0.528 180 139 117
0.478315 -0.357858 -0.527 182 140 116
0.47841 -0.357179 -0.526 183 141 117
0.477589 -0.355821 -0.524 183 141 117
0.477673 -0.355142 -0.523 183 141 117
0.477754 -0.354463 -0.522 184 143 121
0.477831 -0.353784 -0.521 185 144 122
0.477905 -0.353105 -0.52 183 142 120
0.477974 -0.352426 -0.519 184 143 121
0.478963 -0.352426 -0.519 183 141 117
0.479027 -0.351747 -0.518 181 139 115
0.479087 -0.351068 -0.517 184 142 118
0.479143 -0.350389 -0.516 184 142 118
0.480126 -0.350389 -0.516 186 141 118
0.480176 -0.34971 -0.515 187 142 119
0.480223 -0.34903 -0.514 188 143 120
0.481202 -0.34903 -0.514 189 144 121
0.482181 -0.34903 -0.514 187 143 118
0.48222 -0.348351 -0.513 189 145 120
0.483197 -0.348351 -0.513 187 143 118
0.484174 -0.348351 -0.513 187 143 118
0.485151 -0.348351 -0.513 191 145 121
0.486129 -0.348351 -0.513 187 141 117
0.487106 -0.348351 -0.513 183 137 111
0.488083 -0.348351 -0.513 184 138 112
0.48906 -0.348351 -0.513 185 139 113
0.490037 -0.348351 -0.513 186 140 114
0.491014 -0.348351 -0.513 184 138 112
0.491991 -0.348351 -0.513 184 138 112
0.492969 -0.348351 -0.513 182 136 110
0.493946 -0.348351 -0.513 182 135 109
0.494923 -0.348351 -0.513 181 134 108
0.4959 -0.348351 -0.513 182 135 107
0.496877 -0.348351 -0.513 183 136 108
0.497854 -0.348351 -0.513 182 135 105
0.498831 -0.348351 -0.513 184 137 107
0.499809 -0.348351 -0.513 182 135 105
0.501762 -0.34903 -0.514 182 135 105
0.502741 -0.34903 -0.514 181 135 102
0.50372 -0.34903 -0.514 177 131 98
0.505681 -0.34971 -0.515 175 129 96
0.507646 -0.350389 -0.516 175 129 96
0.509614 -0.351068 -0.517 178 128 101
0.510599 -0.351068 -0.517 175 125 98
0.512573 -0.351747 -0.518 169 125 98
0.51356 -0.351747 -0.518 168 124 97
0.51554 -0.352426 -0.519 160 123 97
0.518519 -0.353784 -0.521 159 122 96
0.521506 -0.355142 -0.523 159 121 98
0.62171 -0.410824 -0.605 205 204 202
0.62595 -0.412861 -0.608 206 205 203
0.900844 -0.425084 -0.626 212 214 200
0.902036 -0.425084 -0.626 212 214 200
0.903229 -0.425084 -0.626 212 214 200
0.904421 -0.425084 -0.626 212 214 200
0.907998 -0.425084 -0.626 212 214 200
0.90919 -0.425084 -0.626 212 214 200
0.910383 -0.425084 -0.626 210 212 198
0.911575 -0.425084 -0.626 211 213 199
0.912768 -0.425084 -0.626 211 213 199
0.91396 -0.425084 -0.626 211 213 199
0.915152 -0.425084 -0.626 212 214 200
0.917809 -0.425763 -0.627 212 214 200
0.919003 -0.425763 -0.627 212 214 200
0.920197 -0.425763 -0.627 213 215 201
0.921391 -0.425763 -0.627 210 212 198
0.922586 -0.425763 -0.627 210 212 198
0.92378 -0.425763 -0.627 211 213 199
0.924974 -0.425763 -0.627 211 213 199
0.926169 -0.425763 -0.627 210 212 198
0.927363 -0.425763 -0.627 210 212 198
0.928557 -0.425763 -0.627 212 214 200
0.931234 -0.426442 -0.628 212 214 200
0.932431 -0.426442 -0.628 212 214 200
