ply
format ascii 1.0
comment Created by Open3D
element vertex 1279
property double x
property double y
property double z
property uchar red
property uchar green
property uchar blue
end_header
-0.0235857 -0.21469 -0.635 71 70 86
-0.0224467 -0.215367 -0.637 72 71 87
-0.0213 -0.216043 -0.639 73 72 88
-0.0201457 -0.216719 -0.641 73 72 88
-0.0190133 -0.217733 -0.644 74 73 89
-0.0178419 -0.21841 -0.646 74 73 91
-0.0166629 -0.219086 -0.648 74 73 91
-0.0154762 -0.219762 -0.65 76 75 93
0.458443 -0.190348 -0.563 162 125 116
0.451353 -0.186967 -0.553 168 128 116
0.447498 -0.184938 -0.547 173 133 121
0.44444 -0.183248 -0.542 176 135 117
0.442185 -0.181895 -0.538 179 138 120
0.440738 -0.180881 -0.535 183 141 119
0.43928 -0.179867 -0.532 184 142 120
0.438638 -0.17919 -0.53 186 144 122
0.437989 -0.178514 -0.528 189 147 125
0.438163 -0.178176 -0.527 190 144 121
0.438333 -0.177838 -0.526 190 144 121
0.437665 -0.177162 -0.524 191 145 121
0.438663 -0.177162 -0.524 194 148 124
0.438822 -0.176824 -0.523 195 147 124
0.438977 -0.176486 -0.522 196 148 125
0.439129 -0.176148 -0.521 198 150 128
0.440121 -0.176148 -0.521 198 150 128
0.440267 -0.17581 -0.52 197 149 127
0.441257 -0.17581 -0.52 198 150 128
0.441397 -0.175471 -0.519 197 149 127
0.442386 -0.175471 -0.519 196 148 125
0.44252 -0.175133 -0.518 195 147 124
0.44265 -0.174795 -0.517 196 146 123
0.443635 -0.174795 -0.517 198 148 125
0.44462 -0.174795 -0.517 200 149 128
0.444743 -0.174457 -0.516 202 151 130
0.445726 -0.174457 -0.516 201 153 130
0.446709 -0.174457 -0.516 203 155 132
0.447691 -0.174457 -0.516 202 154 131
0.448674 -0.174457 -0.516 202 154 131
0.448786 -0.174119 -0.515 198 150 127
0.449767 -0.174119 -0.515 197 149 126
0.450748 -0.174119 -0.515 198 150 127
0.451729 -0.174119 -0.515 196 148 125
0.45271 -0.174119 -0.515 194 146 123
0.45369 -0.174119 -0.515 194 146 123
0.454671 -0.174119 -0.515 193 145 123
0.455652 -0.174119 -0.515 194 146 124
0.456633 -0.174119 -0.515 193 145 123
0.457614 -0.174119 -0.515 186 138 116
0.458595 -0.174119 -0.515 187 136 115
0.459576 -0.174119 -0.515 190 139 118
0.460557 -0.174119 -0.515 192 142 119
0.461538 -0.174119 -0.515 184 134 111
0.462519 -0.174119 -0.515 176 128 106
0.4635 -0.174119 -0.515 176 128 106
0.465383 -0.174457 -0.516 177 129 107
0.466366 -0.174457 -0.516 175 127 105
0.467349 -0.174457 -0.516 175 127 105
0.468331 -0.174457 -0.516 175 124 103
0.470224 -0.174795 -0.517 175 124 103
0.471209 -0.174795 -0.517 171 123 101
0.473107 -0.175133 -0.518 169 121 99
0.475009 -0.175471 -0.519 166 119 99
0.476914 -0.17581 -0.52 165 118 98
0.478824 -0.176148 -0.521 163 116 96
0.480737 -0.176486 -0.522 161 114 94
-0.291571 -0.221 -0.65 253 254 249
-0.289887 -0.22066 -0.649 253 253 251
-0.287761 -0.21998 -0.647 253 253 251
-0.286086 -0.21964 -0.646 253 253 251
-0.284414 -0.2193 -0.645 253 253 251
-0.282747 -0.21896 -0.644 253 253 251
-0.28152 -0.21896 -0.644 253 253 251
-0.280293 -0.21896 -0.644 253 253 251
-0.279067 -0.21896 -0.644 253 253 251
-0.277409 -0.21862 -0.643 253 253 253
-0.276184 -0.21862 -0.643 253 253 253
-0.275387 -0.21896 -0.644 253 253 253
-0.27416 -0.21896 -0.644 253 253 253
-0.272933 -0.21896 -0.644 253 253 253
-0.271707 -0.21896 -0.644 253 253 253
-0.27048 -0.21896 -0.644 253 253 253
-0.269671 -0.2193 -0.645 253 253 253
-0.268443 -0.2193 -0.645 254 254 254
-0.267214 -0.2193 -0.645 254 254 254
-0.266398 -0.21964 -0.646 253 253 253
-0.264757 -0.2193 -0.645 251 251 251
-0.263529 -0.2193 -0.645 250 250 250
-0.262707 -0.21964 -0.646 254 254 254
-0.261881 -0.21998 -0.647 252 252 252
-0.261454 -0.22066 -0.649 252 252 250
-0.260619 -0.221 -0.65 255 255 253
-0.144805 -0.21998 -0.647 203 203 195
-0.142463 -0.21828 -0.642 192 189 182
-0.1408 -0.2176 -0.64 193 190 183
-0.138927 -0.21658 -0.637 193 190 183
-0.137497 -0.21624 -0.636 191 188 181
-0.136286 -0.21624 -0.636 190 187 178
-0.135287 -0.21658 -0.637 189 186 177
-0.134073 -0.21658 -0.637 193 191 179
-0.133069 -0.21692 -0.638 195 193 181
-0.131853 -0.21692 -0.638 196 192 180
-0.130843 -0.21726 -0.639 195 191 179
-0.129829 -0.2176 -0.64 197 191 179
-0.129011 -0.21828 -0.642 197 191 179
-0.127988 -0.21862 -0.643 197 193 182
-0.127157 -0.2193 -0.645 199 195 184
-0.126124 -0.21964 -0.646 196 193 186
-0.125087 -0.21998 -0.647 196 193 186
-0.124237 -0.22066 -0.649 192 189 180
-0.12319 -0.221 -0.65 192 189 180
-0.045121 -0.22066 -0.649 72 71 77
-0.0436143 -0.2193 -0.645 75 74 80
-0.0421886 -0.21828 -0.642 70 69 77
-0.0408381 -0.2176 -0.64 68 67 75
-0.0394952 -0.21692 -0.638 69 67 80
-0.03816 -0.21624 -0.636 69 67 80
-0.0367743 -0.21522 -0.633 68 65 82
-0.0355124 -0.21488 -0.632 66 63 80
-0.0342543 -0.21454 -0.631 67 64 85
-0.033 -0.2142 -0.63 68 65 86
-0.0318 -0.2142 -0.63 70 67 86
-0.0306 -0.2142 -0.63 71 68 87
-0.0294 -0.2142 -0.63 69 68 82
-0.0282448 -0.21454 -0.631 69 68 82
-0.0270857 -0.21488 -0.632 70 69 85
-0.0258819 -0.21488 -0.632 69 68 84
-0.0247562 -0.21556 -0.634 70 69 85
-0.0236229 -0.21624 -0.636 72 71 87
-0.0224819 -0.21692 -0.638 74 73 89
-0.0213333 -0.2176 -0.64 74 73 89
-0.0201771 -0.21828 -0.642 73 72 88
-0.0190133 -0.21896 -0.644 73 72 88
-0.0178419 -0.21964 -0.646 74 73 91
-0.0166629 -0.22032 -0.648 76 75 93
-0.0154762 -0.221 -0.65 76 75 93
0.449952 -0.187 -0.55 167 129 118
0.44608 -0.18496 -0.544 172 130 116
0.443829 -0.1836 -0.54 175 133 119
0.441562 -0.18224 -0.536 180 137 120
0.440106 -0.18122 -0.533 181 138 121
0.438638 -0.1802 -0.53 184 141 124
0.438818 -0.17986 -0.529 187 144 127
0.438163 -0.17918 -0.527 191 143 121
0.438333 -0.17884 -0.526 192 144 122
0.4385 -0.1785 -0.525 192 144 121
0.438663 -0.17816 -0.524 194 146 123
0.438822 -0.17782 -0.523 195 147 124
0.438977 -0.17748 -0.522 195 147 124
0.439129 -0.17714 -0.521 199 151 129
0.440121 -0.17714 -0.521 199 151 129
0.440267 -0.1768 -0.52 200 152 130
0.441257 -0.1768 -0.52 198 150 128
0.441397 -0.17646 -0.519 196 148 126
0.442386 -0.17646 -0.519 199 149 126
0.44252 -0.17612 -0.518 200 150 127
0.44265 -0.17578 -0.517 198 148 125
0.443635 -0.17578 -0.517 199 149 126
0.44376 -0.17544 -0.516 202 151 130
0.444743 -0.17544 -0.516 201 150 129
0.445726 -0.17544 -0.516 200 152 129
0.446709 -0.17544 -0.516 202 154 131
0.447691 -0.17544 -0.516 200 152 129
0.447805 -0.1751 -0.515 199 151 128
0.448786 -0.1751 -0.515 198 150 127
0.449767 -0.1751 -0.515 197 149 126
0.450748 -0.1751 -0.515 198 150 127
0.451729 -0.1751 -0.515 196 148 125
0.45271 -0.1751 -0.515 194 146 123
0.45369 -0.1751 -0.515 194 146 123
0.454671 -0.1751 -0.515 193 145 123
0.455652 -0.1751 -0.515 194 146 124
0.456633 -0.1751 -0.515 193 145 123
0.457614 -0.1751 -0.515 186 138 116
0.458595 -0.1751 -0.515 187 136 115
0.458684 -0.17476 -0.514 192 142 119
0.459663 -0.17476 -0.514 191 136 116
0.460642 -0.17476 -0.514 187 132 112
0.461621 -0.17476 -0.514 180 128 107
0.4635 -0.1751 -0.515 178 126 105
0.464481 -0.1751 -0.515 178 125 107
0.465462 -0.1751 -0.515 177 124 106
0.467349 -0.17544 -0.516 175 124 107
0.468331 -0.17544 -0.516 175 124 107
0.469314 -0.17544 -0.516 174 123 106
0.471209 -0.17578 -0.517 170 119 100
0.472193 -0.17578 -0.517 172 121 102
0.475009 -0.17646 -0.519 168 120 98
0.475997 -0.17646 -0.519 168 120 98
0.477905 -0.1768 -0.52 166 118 98
0.479816 -0.17714 -0.521 162 114 94
0.481731 -0.17748 -0.522 162 115 97
-0.289095 -0.222238 -0.65 253 253 251
-0.287414 -0.221896 -0.649 253 253 251
-0.285737 -0.221554 -0.648 253 253 251
-0.284064 -0.221212 -0.647 253 253 251
-0.282831 -0.221212 -0.647 253 253 251
-0.281599 -0.221212 -0.647 253 253 251
-0.279933 -0.22087 -0.646 253 253 251
-0.278703 -0.22087 -0.646 253 253 253
-0.277472 -0.22087 -0.646 253 253 253
-0.276242 -0.22087 -0.646 253 253 253
-0.275011 -0.22087 -0.646 253 253 253
-0.274205 -0.221212 -0.647 253 253 253
-0.272972 -0.221212 -0.647 253 253 253
-0.27174 -0.221212 -0.647 253 253 253
-0.270508 -0.221212 -0.647 253 253 253
-0.269275 -0.221212 -0.647 252 252 252
-0.268457 -0.221554 -0.648 253 253 253
-0.267635 -0.221896 -0.649 252 252 252
-0.265578 -0.221212 -0.647 251 251 251
-0.264754 -0.221554 -0.648 252 252 252
-0.263927 -0.221896 -0.649 254 254 254
-0.263095 -0.222238 -0.65 252 252 252
-0.142907 -0.220187 -0.644 200 199 194
-0.1408 -0.218819 -0.64 195 194 189
-0.138927 -0.217793 -0.637 192 192 184
-0.137281 -0.21711 -0.635 191 191 183
-0.136071 -0.21711 -0.635 193 190 183
-0.135074 -0.217451 -0.636 192 189 182
-0.133863 -0.217451 -0.636 195 192 183
-0.13286 -0.217793 -0.637 196 193 184
-0.131853 -0.218135 -0.638 197 193 182
-0.130843 -0.218477 -0.639 196 192 181
-0.129829 -0.218819 -0.64 197 190 180
-0.12881 -0.219161 -0.641 199 192 182
-0.127789 -0.219503 -0.642 200 194 182
-0.12696 -0.220187 -0.644 200 194 182
-0.125929 -0.220529 -0.645 197 194 185
-0.124893 -0.22087 -0.646 197 194 185
-0.124046 -0.221554 -0.648 195 192 183
-0.12319 -0.222238 -0.65 193 190 181
-0.121952 -0.222238 -0.65 193 190 181
-0.0463571 -0.221896 -0.649 75 74 82
-0.0447038 -0.219845 -0.643 73 71 82
-0.0432762 -0.218819 -0.64 70 68 79
-0.04186 -0.217793 -0.637 71 69 80
-0.0404552 -0.216768 -0.634 72 70 81
-0.0391857 -0.216426 -0.633 70 68 82
-0.03786 -0.215742 -0.631 69 67 81
-0.0366 -0.2154 -0.63 68 65 82
-0.0354 -0.2154 -0.63 66 63 80
-0.0341457 -0.215058 -0.629 67 64 85
-0.0329476 -0.215058 -0.629 68 65 86
-0.0317495 -0.215058 -0.629 70 67 86
-0.0305514 -0.215058 -0.629 72 69 88
-0.0293533 -0.215058 -0.629 69 68 82
-0.0282 -0.2154 -0.63 69 68 82
-0.0270429 -0.215742 -0.631 70 69 85
-0.0258819 -0.216084 -0.632 70 69 85
-0.0247562 -0.216768 -0.634 71 70 86
-0.0236229 -0.217451 -0.636 72 71 87
-0.0224819 -0.218135 -0.638 73 72 86
-0.0213333 -0.218819 -0.64 74 73 87
-0.0201771 -0.219503 -0.642 73 72 88
-0.0190133 -0.220187 -0.644 73 72 88
-0.0178419 -0.22087 -0.646 74 73 89
-0.0166629 -0.221554 -0.648 75 74 90
-0.0154762 -0.222238 -0.65 76 75 93
0.452407 -0.189073 -0.553 164 127 119
0.44854 -0.187022 -0.547 169 131 118
0.44465 -0.18497 -0.541 172 134 121
0.442386 -0.183603 -0.537 178 135 118
0.440931 -0.182577 -0.534 182 139 122
0.439466 -0.181551 -0.531 189 140 123
0.438818 -0.180868 -0.529 189 140 123
0.438994 -0.180526 -0.528 189 141 121
0.438333 -0.179842 -0.526 192 144 124
0.4385 -0.1795 -0.525 191 145 122
0.438663 -0.179158 -0.524 192 146 123
0.438822 -0.178816 -0.523 195 149 126
0.438977 -0.178474 -0.522 194 148 125
0.439129 -0.178132 -0.521 193 145 125
0.440121 -0.178132 -0.521 193 145 125
0.440267 -0.17779 -0.52 194 146 126
0.440409 -0.177449 -0.519 195 147 127
0.441397 -0.177449 -0.519 198 150 130
0.441533 -0.177107 -0.518 200 152 130
0.44252 -0.177107 -0.518 199 151 129
0.44265 -0.176765 -0.517 194 146 124
0.442777 -0.176423 -0.516 200 152 130
0.44376 -0.176423 -0.516 201 150 129
0.443881 -0.176081 -0.515 205 154 133
0.444862 -0.176081 -0.515 200 154 130
0.445843 -0.176081 -0.515 199 153 129
0.446824 -0.176081 -0.515 200 154 130
0.447805 -0.176081 -0.515 196 150 126
0.448786 -0.176081 -0.515 200 152 129
0.449767 -0.176081 -0.515 197 149 126
0.449872 -0.175739 -0.514 198 150 127
0.450851 -0.175739 -0.514 195 147 124
0.45183 -0.175739 -0.514 193 145 122
0.45281 -0.175739 -0.514 194 146 123
0.453789 -0.175739 -0.514 194 144 121
0.454768 -0.175739 -0.514 191 141 118
0.455747 -0.175739 -0.514 190 140 117
0.456726 -0.175739 -0.514 189 139 116
0.457705 -0.175739 -0.514 189 139 116
0.458684 -0.175739 -0.514 192 142 119
0.459663 -0.175739 -0.514 191 136 116
0.460642 -0.175739 -0.514 187 132 112
0.461621 -0.175739 -0.514 180 128 107
0.4635 -0.176081 -0.515 178 126 105
0.464481 -0.176081 -0.515 178 125 107
0.465462 -0.176081 -0.515 177 124 106
0.467349 -0.176423 -0.516 175 124 107
0.468331 -0.176423 -0.516 175 124 107
0.469314 -0.176423 -0.516 175 124 103
0.470297 -0.176423 -0.516 171 123 103
0.472193 -0.176765 -0.517 171 123 103
0.474093 -0.177107 -0.518 170 122 100
0.47508 -0.177107 -0.518 169 121 99
0.476986 -0.177449 -0.519 166 118 98
0.478895 -0.17779 -0.52 162 114 94
0.480809 -0.178132 -0.521 161 114 96
0.48365 -0.178816 -0.523 162 115 97
-0.285381 -0.223476 -0.65 253 253 251
-0.284143 -0.223476 -0.65 253 253 251
-0.28247 -0.223132 -0.649 253 253 253
-0.281233 -0.223132 -0.649 253 253 253
-0.279997 -0.223132 -0.649 253 253 253
-0.278761 -0.223132 -0.649 253 253 253
-0.277525 -0.223132 -0.649 253 253 253
-0.276289 -0.223132 -0.649 253 253 253
-0.275052 -0.223132 -0.649 253 253 253
-0.273816 -0.223132 -0.649 253 253 253
-0.273 -0.223476 -0.65 253 253 253
-0.271762 -0.223476 -0.65 253 253 253
-0.270524 -0.223476 -0.65 252 252 252
-0.269286 -0.223476 -0.65 253 253 253
-0.267223 -0.222789 -0.648 253 253 253
-0.26681 -0.223476 -0.65 254 254 254
-0.265571 -0.223476 -0.65 254 254 254
-0.143794 -0.222789 -0.648 217 218 212
-0.14102 -0.220382 -0.641 200 201 195
-0.138927 -0.219007 -0.637 191 191 183
-0.137281 -0.218319 -0.635 191 191 183
-0.136071 -0.218319 -0.635 193 193 185
-0.134862 -0.218319 -0.635 193 193 185
-0.133863 -0.218663 -0.636 196 193 184
-0.132651 -0.218663 -0.636 197 194 185
-0.131647 -0.219007 -0.637 199 195 186
-0.130638 -0.21935 -0.638 198 194 185
-0.129626 -0.219694 -0.639 200 193 183
-0.12861 -0.220038 -0.64 201 194 184
-0.12759 -0.220382 -0.641 201 195 183
-0.126763 -0.22107 -0.643 199 193 181
-0.125733 -0.221413 -0.644 197 194 185
-0.1247 -0.221757 -0.645 198 195 186
-0.123663 -0.222101 -0.646 196 193 184
-0.123001 -0.223132 -0.649 196 192 181
-0.121765 -0.223132 -0.649 195 191 180
-0.120714 -0.223476 -0.65 193 189 178
-0.0501429 -0.223476 -0.65 141 140 136
-0.0487543 -0.222789 -0.648 86 84 95
-0.0473733 -0.222101 -0.646 70 68 79
-0.0459286 -0.22107 -0.643 68 66 79
-0.0444952 -0.220038 -0.64 73 71 84
-0.0430057 -0.218663 -0.636 70 68 81
-0.0415971 -0.217631 -0.633 68 66 80
-0.0403276 -0.217288 -0.632 65 63 77
-0.0390619 -0.216944 -0.631 70 68 82
-0.03774 -0.216256 -0.629 69 67 81
-0.0365419 -0.216256 -0.629 68 65 82
-0.0352876 -0.215912 -0.628 68 65 82
-0.0340914 -0.215912 -0.628 68 65 84
-0.0328952 -0.215912 -0.628 69 66 85
-0.0317495 -0.216256 -0.629 70 67 86
-0.0305514 -0.216256 -0.629 72 69 88
-0.0293533 -0.216256 -0.629 70 69 83
-0.0282448 -0.216944 -0.631 69 68 82
-0.0270857 -0.217288 -0.632 69 68 82
-0.0259229 -0.217631 -0.633 70 69 83
-0.0247562 -0.217975 -0.634 71 70 84
-0.0236229 -0.218663 -0.636 72 71 85
-0.0225171 -0.219694 -0.639 73 72 86
-0.0213667 -0.220382 -0.641 74 73 87
-0.0201771 -0.220726 -0.642 73 72 88
-0.0190133 -0.221413 -0.644 73 72 88
-0.0178419 -0.222101 -0.646 73 72 88
-0.0166629 -0.222789 -0.648 75 74 90
-0.0154762 -0.223476 -0.65 76 75 93
0.456497 -0.191846 -0.558 160 125 119
0.451 -0.189095 -0.55 168 132 118
0.446294 -0.186689 -0.543 172 136 122
0.44321 -0.18497 -0.538 178 137 119
0.441757 -0.183938 -0.535 181 140 122
0.440293 -0.182907 -0.532 188 141 123
0.439648 -0.182219 -0.53 188 141 123
0.438994 -0.181531 -0.528 189 141 121
0.439167 -0.181188 -0.527 190 142 122
0.4385 -0.1805 -0.525 191 145 122
0.437826 -0.179812 -0.523 192 146 123
0.438822 -0.179812 -0.523 195 149 126
0.438977 -0.179469 -0.522 195 149 126
0.439129 -0.179125 -0.521 195 147 127
0.440121 -0.179125 -0.521 195 147 127
0.440267 -0.178781 -0.52 196 148 128
0.440409 -0.178437 -0.519 198 150 130
0.441397 -0.178437 -0.519 196 148 128
0.441533 -0.178093 -0.518 190 142 120
0.441666 -0.17775 -0.517 193 145 123
0.44265 -0.17775 -0.517 192 144 122
0.442777 -0.177406 -0.516 197 149 127
0.44376 -0.177406 -0.516 202 151 130
0.443881 -0.177062 -0.515 203 152 131
0.444862 -0.177062 -0.515 202 154 132
0.445843 -0.177062 -0.515 201 153 131
0.446824 -0.177062 -0.515 201 153 131
0.447805 -0.177062 -0.515 197 149 127
0.448786 -0.177062 -0.515 198 150 128
0.448893 -0.176718 -0.514 198 150 128
0.449872 -0.176718 -0.514 199 151 129
0.450851 -0.176718 -0.514 195 147 125
0.45183 -0.176718 -0.514 193 145 123
0.45281 -0.176718 -0.514 195 147 125
0.453789 -0.176718 -0.514 195 144 123
0.454768 -0.176718 -0.514 193 142 121
0.455747 -0.176718 -0.514 192 141 120
0.456726 -0.176718 -0.514 190 139 118
0.457705 -0.176718 -0.514 190 139 118
0.458684 -0.176718 -0.514 193 142 121
0.459663 -0.176718 -0.514 189 137 115
0.460642 -0.176718 -0.514 186 134 112
0.461621 -0.176718 -0.514 182 132 109
0.4626 -0.176718 -0.514 180 130 107
0.464481 -0.177062 -0.515 179 128 107
0.465462 -0.177062 -0.515 178 127 106
0.466443 -0.177062 -0.515 177 126 105
0.467424 -0.177062 -0.515 177 126 105
0.469314 -0.177406 -0.516 175 124 103
0.470297 -0.177406 -0.516 171 123 103
0.472193 -0.17775 -0.517 171 123 103
0.474093 -0.178093 -0.518 170 122 100
0.47508 -0.178093 -0.518 169 121 99
0.476986 -0.178437 -0.519 166 118 98
0.478895 -0.178781 -0.52 162 114 94
0.480809 -0.179125 -0.521 161 114 96
0.48365 -0.179812 -0.523 162 115 97
0.485573 -0.180156 -0.524 168 115 99
0.489357 -0.181188 -0.527 167 114 98
-0.269286 -0.224714 -0.65 253 253 253
-0.14212 -0.223331 -0.646 215 216 210
-0.139363 -0.220911 -0.639 201 201 193
-0.137281 -0.219529 -0.635 195 195 187
-0.136071 -0.219529 -0.635 194 194 186
-0.134862 -0.219529 -0.635 194 194 186
-0.133652 -0.219529 -0.635 195 192 183
-0.132651 -0.219874 -0.636 197 194 185
-0.131647 -0.22022 -0.637 199 195 186
-0.130433 -0.22022 -0.637 199 195 186
-0.129423 -0.220566 -0.638 200 196 185
-0.128409 -0.220911 -0.639 201 197 186
-0.12759 -0.221603 -0.641 202 196 184
-0.126566 -0.221949 -0.642 202 196 184
-0.125538 -0.222294 -0.643 198 195 186
-0.124507 -0.22264 -0.644 200 197 188
-0.123471 -0.222986 -0.645 197 193 184
-0.122622 -0.223677 -0.647 197 193 182
-0.121577 -0.224023 -0.648 196 192 181
-0.120529 -0.224369 -0.649 193 189 177
-0.119476 -0.224714 -0.65 193 189 177
-0.118238 -0.224714 -0.65 210 206 194
-0.052619 -0.224714 -0.65 161 160 156
-0.0512229 -0.224023 -0.648 105 105 103
-0.0497571 -0.222986 -0.645 73 73 71
-0.0483781 -0.222294 -0.643 73 71 85
-0.0469333 -0.221257 -0.64 73 71 85
-0.0455 -0.22022 -0.637 68 66 80
-0.0440781 -0.219183 -0.634 67 65 79
-0.0427352 -0.218491 -0.632 69 67 81
-0.0414 -0.2178 -0.63 64 62 76
-0.0401362 -0.217454 -0.629 70 68 82
-0.0388762 -0.217109 -0.628 69 67 81
-0.03762 -0.216763 -0.627 68 66 80
-0.0364257 -0.216763 -0.627 68 65 82
-0.0352314 -0.216763 -0.627 69 66 83
-0.0339829 -0.216417 -0.626 69 66 83
-0.0328429 -0.216763 -0.627 69 66 83
-0.031699 -0.217109 -0.628 70 67 84
-0.0305029 -0.217109 -0.628 71 68 85
-0.0293533 -0.217454 -0.629 70 70 82
-0.0282448 -0.218146 -0.631 69 69 81
-0.0270857 -0.218491 -0.632 69 69 81
-0.0259638 -0.219183 -0.634 70 70 82
-0.0247952 -0.219529 -0.635 70 69 83
-0.02366 -0.22022 -0.637 71 70 84
-0.0225171 -0.220911 -0.639 72 71 85
-0.0213667 -0.221603 -0.641 73 72 86
-0.0202086 -0.222294 -0.643 73 72 86
-0.0190133 -0.22264 -0.644 73 72 86
-0.0178419 -0.223331 -0.646 73 72 88
-0.0166629 -0.224023 -0.648 75 74 90
-0.0154762 -0.224714 -0.65 76 75 91
0.45977 -0.194291 -0.562 159 126 119
0.45346 -0.19118 -0.553 167 131 119
0.447938 -0.188414 -0.545 172 136 124
0.444857 -0.186686 -0.54 175 136 119
0.442583 -0.185303 -0.536 178 139 122
0.441121 -0.184266 -0.533 186 140 124
0.439648 -0.183229 -0.53 187 141 125
0.438994 -0.182537 -0.528 189 141 121
0.439167 -0.182191 -0.527 190 142 122
0.4385 -0.1815 -0.525 192 144 124
0.438663 -0.181154 -0.524 194 146 126
0.438822 -0.180809 -0.523 196 148 128
0.438977 -0.180463 -0.522 197 149 129
0.439129 -0.180117 -0.521 197 149 129
0.440121 -0.180117 -0.521 197 149 129
0.440267 -0.179771 -0.52 198 150 130
0.440409 -0.179426 -0.519 194 146 126
0.441397 -0.179426 -0.519 189 141 121
0.441533 -0.17908 -0.518 178 130 108
0.441666 -0.178734 -0.517 186 138 116
0.441794 -0.178389 -0.516 190 142 120
0.442777 -0.178389 -0.516 194 146 124
0.44376 -0.178389 -0.516 202 151 130
0.443881 -0.178043 -0.515 198 147 126
0.444862 -0.178043 -0.515 198 150 130
0.445843 -0.178043 -0.515 197 149 129
0.446824 -0.178043 -0.515 198 150 130
0.447805 -0.178043 -0.515 195 147 127
0.448786 -0.178043 -0.515 196 148 126
0.448893 -0.177697 -0.514 197 149 127
0.449872 -0.177697 -0.514 198 150 128
0.450851 -0.177697 -0.514 192 144 122
0.45183 -0.177697 -0.514 193 145 123
0.45281 -0.177697 -0.514 193 145 123
0.452906 -0.177351 -0.513 192 144 122
0.453883 -0.177351 -0.513 190 142 120
0.45486 -0.177351 -0.513 189 141 119
0.455837 -0.177351 -0.513 188 140 118
0.456814 -0.177351 -0.513 188 140 118
0.457791 -0.177351 -0.513 190 142 120
0.458769 -0.177351 -0.513 187 140 114
0.459746 -0.177351 -0.513 185 138 112
0.460723 -0.177351 -0.513 184 137 111
0.4617 -0.177351 -0.513 182 135 109
0.463579 -0.177697 -0.514 180 133 107
0.464558 -0.177697 -0.514 179 132 106
0.465537 -0.177697 -0.514 177 129 106
0.466516 -0.177697 -0.514 177 129 106
0.468405 -0.178043 -0.515 175 127 104
0.469386 -0.178043 -0.515 173 125 103
0.47128 -0.178389 -0.516 172 124 102
0.473178 -0.178734 -0.517 171 123 101
0.474163 -0.178734 -0.517 167 119 97
0.476067 -0.17908 -0.518 164 116 96
0.477974 -0.179426 -0.519 163 115 95
0.479886 -0.179771 -0.52 161 113 93
0.482726 -0.180463 -0.522 163 115 95
0.485573 -0.181154 -0.524 168 115 99
0.489357 -0.182191 -0.527 167 114 98
-0.143 -0.225952 -0.65 238 239 233
-0.140017 -0.223171 -0.642 223 224 218
-0.137497 -0.221086 -0.636 208 209 203
-0.135857 -0.22039 -0.634 197 197 189
-0.13465 -0.22039 -0.634 193 193 185
-0.133442 -0.22039 -0.634 194 191 182
-0.132234 -0.22039 -0.634 195 192 183
-0.131233 -0.220738 -0.635 197 194 185
-0.130229 -0.221086 -0.636 200 197 188
-0.129017 -0.221086 -0.636 201 199 187
-0.128208 -0.221781 -0.638 202 200 188
-0.127191 -0.222129 -0.639 203 199 187
-0.126171 -0.222476 -0.64 203 199 187
-0.125343 -0.223171 -0.642 201 197 188
-0.124313 -0.223519 -0.643 202 198 189
-0.12328 -0.223867 -0.644 199 195 184
-0.122432 -0.224562 -0.646 198 194 183
-0.12139 -0.22491 -0.647 196 192 181
-0.120343 -0.225257 -0.648 194 190 178
-0.119292 -0.225605 -0.649 197 193 181
-0.118238 -0.225952 -0.65 215 211 199
-0.117 -0.225952 -0.65 218 214 202
-0.0550952 -0.225952 -0.65 175 174 172
-0.0536914 -0.225257 -0.648 116 116 116
-0.0522143 -0.224214 -0.645 81 81 81
-0.0508276 -0.223519 -0.643 72 72 72
-0.0493714 -0.222476 -0.64 69 69 69
-0.0479267 -0.221433 -0.637 73 71 85
-0.0465667 -0.220738 -0.635 75 73 87
-0.0451429 -0.219695 -0.632 73 71 85
-0.0438 -0.219 -0.63 67 65 79
-0.0425324 -0.218652 -0.629 67 65 79
-0.0412029 -0.217957 -0.627 68 66 80
-0.0399448 -0.21761 -0.626 67 65 79
-0.0387524 -0.21761 -0.626 70 68 82
-0.0375 -0.217262 -0.625 69 67 81
-0.0363095 -0.217262 -0.625 69 67 81
-0.0351752 -0.21761 -0.626 69 67 81
-0.0339829 -0.21761 -0.626 69 67 80
-0.0327905 -0.21761 -0.626 70 68 81
-0.0316486 -0.217957 -0.627 71 69 83
-0.0305029 -0.218305 -0.628 72 70 84
-0.0293533 -0.218652 -0.629 70 70 82
-0.0282448 -0.219348 -0.631 69 69 81
-0.0271286 -0.220043 -0.633 69 69 81
-0.0259638 -0.22039 -0.634 70 70 82
-0.0248343 -0.221086 -0.636 70 70 82
-0.0236971 -0.221781 -0.638 71 71 83
-0.0225524 -0.222476 -0.64 72 71 85
-0.0213667 -0.222824 -0.641 73 72 86
-0.0202086 -0.223519 -0.643 74 73 87
-0.0190429 -0.224214 -0.645 74 73 87
-0.0178419 -0.224562 -0.646 75 73 87
-0.0166629 -0.225257 -0.648 76 74 88
-0.0154762 -0.225952 -0.65 77 74 91
0.463042 -0.196752 -0.566 161 128 123
0.4551 -0.192929 -0.555 166 130 118
0.450404 -0.190495 -0.548 170 134 122
0.445681 -0.188062 -0.541 176 134 118
0.443409 -0.186671 -0.537 179 137 121
0.441949 -0.185629 -0.534 185 139 123
0.440477 -0.184586 -0.531 186 140 124
0.438994 -0.183543 -0.528 189 141 121
0.439167 -0.183195 -0.527 191 143 123
0.439335 -0.182848 -0.526 193 145 125
0.438663 -0.182152 -0.524 194 146 126
0.438822 -0.181805 -0.523 196 148 128
0.438977 -0.181457 -0.522 196 148 128
0.439129 -0.18111 -0.521 197 149 129
0.439276 -0.180762 -0.52 200 152 132
0.440267 -0.180762 -0.52 200 152 132
0.440409 -0.180414 -0.519 196 148 128
0.440547 -0.180067 -0.518 191 143 123
0.441533 -0.180067 -0.518 182 134 112
0.441666 -0.179719 -0.517 184 136 114
0.441794 -0.179371 -0.516 190 142 120
0.442777 -0.179371 -0.516 195 147 125
0.4429 -0.179024 -0.515 201 150 129
0.443881 -0.179024 -0.515 195 144 123
0.443998 -0.178676 -0.514 198 147 128
0.444977 -0.178676 -0.514 198 147 128
0.445956 -0.178676 -0.514 198 150 130
0.446935 -0.178676 -0.514 198 150 130
0.447914 -0.178676 -0.514 198 150 130
0.448893 -0.178676 -0.514 196 148 128
0.449872 -0.178676 -0.514 195 147 125
0.450851 -0.178676 -0.514 193 145 123
0.450951 -0.178329 -0.513 192 144 122
0.451929 -0.178329 -0.513 192 144 122
0.452906 -0.178329 -0.513 192 144 122
0.453883 -0.178329 -0.513 190 142 120
0.45486 -0.178329 -0.513 189 141 118
0.455837 -0.178329 -0.513 188 140 117
0.456814 -0.178329 -0.513 187 139 116
0.457791 -0.178329 -0.513 188 140 117
0.458769 -0.178329 -0.513 187 140 114
0.459746 -0.178329 -0.513 187 140 114
0.460723 -0.178329 -0.513 186 139 111
0.4617 -0.178329 -0.513 184 137 109
0.462677 -0.178329 -0.513 182 135 107
0.463654 -0.178329 -0.513 181 134 106
0.465537 -0.178676 -0.514 178 131 105
0.466516 -0.178676 -0.514 178 131 105
0.467495 -0.178676 -0.514 176 129 103
0.469386 -0.179024 -0.515 173 125 103
0.470367 -0.179024 -0.515 171 123 101
0.472263 -0.179371 -0.516 171 123 103
0.473246 -0.179371 -0.516 166 118 98
0.475148 -0.179719 -0.517 163 115 95
0.476132 -0.179719 -0.517 163 115 95
0.478963 -0.180414 -0.519 162 114 94
0.481801 -0.18111 -0.521 164 116 96
0.48372 -0.181457 -0.522 166 115 98
0.488429 -0.182848 -0.526 164 113 96
0.492222 -0.18389 -0.529 161 112 97
-0.14089 -0.225792 -0.646 241 242 237
-0.138362 -0.223695 -0.64 229 230 225
-0.136286 -0.222297 -0.636 213 212 207
-0.134225 -0.220899 -0.632 201 200 195
-0.133021 -0.220899 -0.632 199 196 189
-0.132026 -0.221249 -0.633 196 193 186
-0.13082 -0.221249 -0.633 197 194 185
-0.129819 -0.221598 -0.634 201 198 189
-0.128814 -0.221948 -0.635 203 200 191
-0.127806 -0.222297 -0.636 203 200 191
-0.126793 -0.222647 -0.637 204 200 191
-0.125974 -0.223346 -0.639 204 200 191
-0.124952 -0.223695 -0.64 202 198 187
-0.123927 -0.224045 -0.641 203 199 188
-0.122897 -0.224394 -0.642 201 197 186
-0.121864 -0.224744 -0.643 198 194 183
-0.121202 -0.225792 -0.646 198 194 183
-0.120157 -0.226142 -0.647 196 192 180
-0.119109 -0.226491 -0.648 204 200 188
-0.117874 -0.226491 -0.648 217 214 199
-0.11682 -0.226841 -0.649 218 215 200
-0.115762 -0.22719 -0.65 223 217 203
-0.0588095 -0.22719 -0.65 208 204 203
-0.0573943 -0.226491 -0.648 183 179 178
-0.0560733 -0.226142 -0.647 126 124 129
-0.0545867 -0.225093 -0.644 85 83 88
-0.0531943 -0.224394 -0.642 68 67 72
-0.0517286 -0.223346 -0.639 63 62 67
-0.0503533 -0.222647 -0.637 65 64 69
-0.0489857 -0.221948 -0.635 64 63 68
-0.0475505 -0.220899 -0.632 72 70 84
-0.0463467 -0.220899 -0.632 68 66 80
-0.0449286 -0.21985 -0.629 69 67 80
-0.0435914 -0.219151 -0.627 71 69 82
-0.0423971 -0.219151 -0.627 69 67 80
-0.0411371 -0.218802 -0.626 67 65 78
-0.039881 -0.218452 -0.625 68 66 79
-0.0386905 -0.218452 -0.625 70 68 81
-0.03744 -0.218103 -0.624 69 67 80
-0.0363095 -0.218452 -0.625 70 68 79
-0.0351752 -0.218802 -0.626 70 68 79
-0.0339829 -0.218802 -0.626 70 68 79
-0.0328429 -0.219151 -0.627 70 68 79
-0.031699 -0.219501 -0.628 70 68 81
-0.0305514 -0.21985 -0.629 71 69 82
-0.0294 -0.2202 -0.63 70 70 82
-0.0282895 -0.220899 -0.632 69 69 81
-0.0271286 -0.221249 -0.633 69 69 81
-0.0260048 -0.221948 -0.635 70 70 82
-0.0248733 -0.222647 -0.637 70 70 82
-0.0236971 -0.222996 -0.638 71 71 83
-0.0225524 -0.223695 -0.64 72 72 84
-0.0214 -0.224394 -0.642 73 73 85
-0.0202086 -0.224744 -0.643 76 74 88
-0.0190429 -0.225443 -0.645 76 74 88
-0.0178419 -0.225792 -0.646 75 73 87
-0.0166629 -0.226491 -0.648 75 73 87
-0.0154762 -0.22719 -0.65 76 74 88
0.4592 -0.195733 -0.56 167 129 120
0.452048 -0.192238 -0.55 169 131 122
0.448152 -0.190141 -0.544 175 133 119
0.444234 -0.188044 -0.538 177 135 121
0.442776 -0.186995 -0.535 182 136 120
0.441307 -0.185947 -0.532 186 140 124
0.439826 -0.184898 -0.529 190 142 122
0.439167 -0.184199 -0.527 192 144 124
0.439335 -0.18385 -0.526 191 143 123
0.438663 -0.18315 -0.524 192 144 124
0.438822 -0.182801 -0.523 196 148 128
0.438977 -0.182451 -0.522 196 148 128
0.439129 -0.182102 -0.521 196 148 128
0.439276 -0.181752 -0.52 199 151 131
0.440267 -0.181752 -0.52 199 151 131
0.440409 -0.181403 -0.519 196 148 128
0.440547 -0.181053 -0.518 192 144 124
0.441533 -0.181053 -0.518 188 137 118
0.441666 -0.180704 -0.517 181 130 111
0.441794 -0.180354 -0.516 187 136 117
0.441919 -0.180005 -0.515 197 146 127
0.4429 -0.180005 -0.515 199 148 127
0.443019 -0.179655 -0.514 197 146 125
0.443998 -0.179655 -0.514 198 147 128
0.444977 -0.179655 -0.514 198 147 128
0.445956 -0.179655 -0.514 199 148 129
0.446935 -0.179655 -0.514 199 148 129
0.447914 -0.179655 -0.514 194 143 122
0.448893 -0.179655 -0.514 189 138 117
0.449872 -0.179655 -0.514 189 138 117
0.449974 -0.179306 -0.513 195 144 123
0.450951 -0.179306 -0.513 194 143 122
0.451929 -0.179306 -0.513 194 143 122
0.452906 -0.179306 -0.513 196 146 123
0.453883 -0.179306 -0.513 196 146 123
0.453973 -0.178956 -0.512 195 145 122
0.454949 -0.178956 -0.512 193 143 120
0.455924 -0.178956 -0.512 192 142 119
0.456899 -0.178956 -0.512 191 141 118
0.457874 -0.178956 -0.512 189 142 116
0.45885 -0.178956 -0.512 188 141 115
0.459825 -0.178956 -0.512 186 139 113
0.4608 -0.178956 -0.512 184 137 111
0.461775 -0.178956 -0.512 183 136 110
0.46275 -0.178956 -0.512 182 135 109
0.464631 -0.179306 -0.513 179 131 108
0.465609 -0.179306 -0.513 179 131 108
0.466586 -0.179306 -0.513 178 130 107
0.468474 -0.179655 -0.514 173 125 103
0.469453 -0.179655 -0.514 171 123 101
0.471348 -0.180005 -0.515 171 122 105
0.472329 -0.180005 -0.515 167 118 101
0.474229 -0.180354 -0.516 165 116 99
0.475211 -0.180354 -0.516 166 117 100
0.47804 -0.181053 -0.518 164 116 96
0.480876 -0.181752 -0.52 164 116 96
0.482793 -0.182102 -0.521 165 116 99
0.486571 -0.18315 -0.524 163 114 97
0.490361 -0.184199 -0.527 161 114 96
0.494162 -0.185248 -0.53 162 115 97
-0.141544 -0.228077 -0.649 247 247 245
-0.13901 -0.225969 -0.643 248 248 246
-0.136929 -0.224563 -0.639 236 235 230
-0.134862 -0.223157 -0.635 220 219 214
-0.13281 -0.221751 -0.631 206 203 196
-0.131609 -0.221751 -0.631 199 196 189
-0.130613 -0.222103 -0.632 195 195 187
-0.12941 -0.222103 -0.632 198 198 190
-0.128409 -0.222454 -0.633 202 199 192
-0.127404 -0.222806 -0.634 203 200 193
-0.126395 -0.223157 -0.635 204 201 194
-0.12558 -0.22386 -0.637 203 200 193
-0.124562 -0.224211 -0.638 204 200 189
-0.12354 -0.224563 -0.639 204 200 189
-0.122514 -0.224914 -0.64 203 199 188
-0.121485 -0.225266 -0.641 199 195 184
-0.120827 -0.22632 -0.644 199 195 184
-0.119786 -0.226671 -0.645 198 194 182
-0.118741 -0.227023 -0.646 209 205 193
-0.117692 -0.227374 -0.647 217 214 199
-0.11664 -0.227726 -0.648 219 216 201
-0.115584 -0.228077 -0.649 223 217 203
-0.114524 -0.228429 -0.65 222 216 202
-0.113286 -0.228429 -0.65 224 218 202
-0.0625238 -0.228429 -0.65 228 225 220
-0.0611914 -0.228077 -0.649 211 207 208
-0.0597705 -0.227374 -0.647 187 183 184
-0.0583571 -0.226671 -0.645 139 137 142
-0.0569514 -0.225969 -0.643 91 89 94
-0.0555533 -0.225266 -0.641 73 72 80
-0.0540781 -0.224211 -0.638 71 70 78
-0.0526971 -0.223509 -0.636 63 62 70
-0.0512429 -0.222454 -0.633 63 62 70
-0.049879 -0.221751 -0.631 62 61 69
-0.0485229 -0.221049 -0.629 63 62 70
-0.0471743 -0.220346 -0.627 71 69 83
-0.04598 -0.220346 -0.627 71 69 83
-0.0447143 -0.219994 -0.626 70 68 81
-0.0434524 -0.219643 -0.625 68 66 79
-0.0421943 -0.219291 -0.624 68 66 79
-0.0410057 -0.219291 -0.624 68 66 79
-0.0398171 -0.219291 -0.624 69 67 80
-0.0386286 -0.219291 -0.624 69 67 80
-0.03738 -0.21894 -0.623 70 68 81
-0.0362514 -0.219291 -0.624 71 69 80
-0.035119 -0.219643 -0.625 71 69 80
-0.0339829 -0.219994 -0.626 71 69 80
-0.0328429 -0.220346 -0.627 71 69 80
-0.0317495 -0.221049 -0.629 70 68 79
-0.0306 -0.2214 -0.63 69 67 78
-0.0294467 -0.221751 -0.631 70 70 82
-0.0283343 -0.222454 -0.633 70 70 82
-0.0271714 -0.222806 -0.634 70 70 80
-0.0260457 -0.223509 -0.636 70 70 80
-0.0248733 -0.22386 -0.637 70 70 82
-0.0237343 -0.224563 -0.639 72 72 84
-0.0225524 -0.224914 -0.64 72 72 84
-0.0214 -0.225617 -0.642 73 73 85
-0.0202086 -0.225969 -0.643 75 73 87
-0.0190429 -0.226671 -0.645 75 73 87
-0.0178419 -0.227023 -0.646 74 72 85
-0.0166629 -0.227726 -0.648 74 72 85
-0.0154524 -0.228077 -0.649 75 73 86
0.4633 -0.198557 -0.565 166 128 119
0.455335 -0.194691 -0.554 167 129 120
0.450624 -0.192231 -0.547 174 130 117
0.445886 -0.189771 -0.54 176 132 119
0.443604 -0.188366 -0.536 181 135 119
0.442136 -0.187311 -0.533 186 140 124
0.440657 -0.186257 -0.53 189 141 121
0.44 -0.185554 -0.528 191 143 123
0.439335 -0.184851 -0.526 189 141 121
0.4395 -0.1845 -0.525 189 141 121
0.438822 -0.183797 -0.523 195 147 127
0.438977 -0.183446 -0.522 196 148 128
0.439129 -0.183094 -0.521 195 147 127
0.439276 -0.182743 -0.52 199 151 131
0.440267 -0.182743 -0.52 199 151 131
0.440409 -0.182391 -0.519 193 145 125
0.440547 -0.18204 -0.518 189 141 121
0.441533 -0.18204 -0.518 186 135 116
0.441666 -0.181689 -0.517 176 125 106
0.441794 -0.181337 -0.516 183 132 113
0.441919 -0.180986 -0.515 195 144 125
0.4429 -0.180986 -0.515 198 147 126
0.443019 -0.180634 -0.514 198 147 126
0.443998 -0.180634 -0.514 198 147 126
0.444977 -0.180634 -0.514 199 148 127
0.445956 -0.180634 -0.514 197 146 125
0.446935 -0.180634 -0.514 194 143 122
0.447914 -0.180634 -0.514 185 134 113
0.448893 -0.180634 -0.514 179 128 107
0.448997 -0.180283 -0.513 182 131 110
0.449974 -0.180283 -0.513 193 142 121
0.450951 -0.180283 -0.513 193 142 121
0.451929 -0.180283 -0.513 193 142 121
0.452906 -0.180283 -0.513 195 144 123
0.452998 -0.179931 -0.512 195 144 123
0.453973 -0.179931 -0.512 194 144 121
0.454949 -0.179931 -0.512 193 143 120
0.455924 -0.179931 -0.512 194 144 121
0.456899 -0.179931 -0.512 193 143 120
0.457874 -0.179931 -0.512 189 141 118
0.45885 -0.179931 -0.512 188 140 117
0.459825 -0.179931 -0.512 185 137 114
0.4608 -0.179931 -0.512 184 136 113
0.461775 -0.179931 -0.512 184 136 113
0.46275 -0.179931 -0.512 183 135 112
0.463726 -0.179931 -0.512 181 133 111
0.465609 -0.180283 -0.513 180 132 110
0.466586 -0.180283 -0.513 180 132 110
0.467563 -0.180283 -0.513 177 129 109
0.469453 -0.180634 -0.514 174 126 106
0.470432 -0.180634 -0.514 171 122 105
0.472329 -0.180986 -0.515 168 119 102
0.47331 -0.180986 -0.515 167 118 101
0.475211 -0.181337 -0.516 168 119 102
0.477117 -0.181689 -0.517 166 117 100
0.479027 -0.18204 -0.518 164 115 98
0.481867 -0.182743 -0.52 164 119 100
0.484714 -0.183446 -0.522 162 117 98
0.48757 -0.184149 -0.524 160 115 96
0.491365 -0.185203 -0.527 161 116 97
-0.140091 -0.22896 -0.648 243 242 240
-0.137571 -0.22684 -0.642 243 244 239
-0.135287 -0.225073 -0.637 238 239 234
-0.133231 -0.22366 -0.633 235 235 227
-0.1314 -0.2226 -0.63 218 218 210
-0.129993 -0.222247 -0.629 208 206 194
-0.129 -0.2226 -0.63 204 202 190
-0.128003 -0.222953 -0.631 206 204 192
-0.126801 -0.222953 -0.631 211 209 197
-0.125997 -0.22366 -0.633 210 207 198
-0.124989 -0.224013 -0.634 210 207 198
-0.123976 -0.224367 -0.635 203 199 188
-0.123153 -0.225073 -0.637 206 202 191
-0.122131 -0.225427 -0.638 201 199 187
-0.121106 -0.22578 -0.639 201 199 187
-0.120264 -0.226487 -0.641 200 196 184
-0.119414 -0.227193 -0.643 202 198 186
-0.118373 -0.227547 -0.644 214 210 198
-0.117329 -0.2279 -0.645 221 215 201
-0.11628 -0.228253 -0.646 221 215 201
-0.115228 -0.228607 -0.647 220 217 200
-0.113995 -0.228607 -0.647 222 219 202
-0.112937 -0.22896 -0.648 222 219 202
-0.111875 -0.229313 -0.649 221 218 201
-0.110639 -0.229313 -0.649 223 218 199
-0.109571 -0.229667 -0.65 224 219 200
-0.0662381 -0.229667 -0.65 232 232 222
-0.065 -0.229667 -0.65 223 223 213
-0.0635657 -0.22896 -0.648 207 206 204
-0.0621391 -0.228253 -0.646 181 180 178
-0.06072 -0.227547 -0.644 138 136 141
-0.0593086 -0.22684 -0.642 94 92 97
-0.0579048 -0.226133 -0.64 75 72 79
-0.0565086 -0.225427 -0.638 71 68 75
-0.05512 -0.22472 -0.636 70 68 79
-0.053739 -0.224013 -0.634 71 69 80
-0.0522829 -0.222953 -0.631 64 64 74
-0.051 -0.2226 -0.63 60 60 70
-0.0496419 -0.221893 -0.628 62 60 71
-0.0482914 -0.221187 -0.626 58 56 67
-0.0470238 -0.220833 -0.625 71 69 82
-0.04576 -0.22048 -0.624 69 67 80
-0.0445 -0.220127 -0.623 70 68 79
-0.0433133 -0.220127 -0.623 69 67 78
-0.0421267 -0.220127 -0.623 67 65 76
-0.04094 -0.220127 -0.623 67 65 76
-0.0397533 -0.220127 -0.623 67 65 78
-0.0385667 -0.220127 -0.623 70 68 81
-0.03738 -0.220127 -0.623 71 69 82
-0.0363095 -0.220833 -0.625 71 69 80
-0.0351752 -0.221187 -0.626 71 69 80
-0.0340371 -0.22154 -0.627 70 68 79
-0.0328952 -0.221893 -0.628 71 69 80
-0.0317495 -0.222247 -0.629 70 68 79
-0.0306486 -0.222953 -0.631 69 67 78
-0.0294933 -0.223307 -0.632 70 70 82
-0.028379 -0.224013 -0.634 71 71 83
-0.0272143 -0.224367 -0.635 70 70 80
-0.0260457 -0.22472 -0.636 70 70 80
-0.0249124 -0.225427 -0.638 71 71 81
-0.0237343 -0.22578 -0.639 72 72 82
-0.0225876 -0.226487 -0.641 74 72 85
-0.0214 -0.22684 -0.642 74 72 85
-0.02024 -0.227547 -0.644 75 73 86
-0.0190429 -0.2279 -0.645 74 72 85
-0.0178695 -0.228607 -0.647 73 71 84
-0.0166629 -0.22896 -0.648 73 71 84
-0.0154524 -0.229313 -0.649 75 73 86
0.46904 -0.202107 -0.572 165 126 119
0.458623 -0.19716 -0.558 166 127 120
0.453095 -0.194333 -0.55 172 128 117
0.448363 -0.19186 -0.543 175 131 120
0.445259 -0.190093 -0.538 180 134 119
0.442966 -0.18868 -0.534 184 138 123
0.441489 -0.18762 -0.531 188 140 120
0.440833 -0.186913 -0.529 190 142 122
0.44017 -0.186207 -0.527 190 139 122
0.4395 -0.1855 -0.525 190 139 122
0.439661 -0.185147 -0.524 195 144 127
0.438977 -0.18444 -0.522 197 146 129
0.439129 -0.184087 -0.521 196 148 128
0.439276 -0.183733 -0.52 198 150 130
0.440267 -0.183733 -0.52 198 150 130
0.440409 -0.18338 -0.519 198 150 130
0.440547 -0.183027 -0.518 193 145 125
0.440681 -0.182673 -0.517 190 139 120
0.441666 -0.182673 -0.517 183 132 113
0.441794 -0.18232 -0.516 191 140 121
0.441919 -0.181967 -0.515 196 145 126
0.4429 -0.181967 -0.515 199 148 127
0.443019 -0.181613 -0.514 197 146 125
0.443998 -0.181613 -0.514 198 150 128
0.444977 -0.181613 -0.514 199 151 129
0.445956 -0.181613 -0.514 195 147 125
0.446935 -0.181613 -0.514 192 144 122
0.447043 -0.18126 -0.513 187 136 115
0.44802 -0.18126 -0.513 187 136 115
0.448997 -0.18126 -0.513 188 137 116
0.449097 -0.180907 -0.512 194 143 122
0.450072 -0.180907 -0.512 193 142 121
0.451048 -0.180907 -0.512 192 141 120
0.452023 -0.180907 -0.512 192 141 120
0.452998 -0.180907 -0.512 191 140 119
0.453087 -0.180553 -0.511 189 138 117
0.45406 -0.180553 -0.511 189 138 117
0.455033 -0.180553 -0.511 192 141 120
0.456007 -0.180553 -0.511 192 141 120
0.45698 -0.180553 -0.511 192 142 119
0.457953 -0.180553 -0.511 189 139 116
0.458927 -0.180553 -0.511 184 136 114
0.4599 -0.180553 -0.511 183 135 113
0.460873 -0.180553 -0.511 184 136 116
0.46275 -0.180907 -0.512 184 136 116
0.463726 -0.180907 -0.512 183 135 115
0.464701 -0.180907 -0.512 183 135 115
0.465676 -0.180907 -0.512 183 135 115
0.467563 -0.18126 -0.513 180 133 113
0.46854 -0.18126 -0.513 176 129 109
0.469517 -0.18126 -0.513 170 123 105
0.471411 -0.181613 -0.514 167 120 102
0.47239 -0.181613 -0.514 166 119 101
0.47429 -0.181967 -0.515 166 119 101
0.476194 -0.18232 -0.516 166 121 102
0.478102 -0.182673 -0.517 163 118 99
0.48094 -0.18338 -0.519 160 119 101
0.482857 -0.183733 -0.52 160 119 101
0.485709 -0.18444 -0.522 156 115 97
-0.138643 -0.229839 -0.647 235 235 233
-0.135924 -0.227352 -0.64 238 238 236
-0.133863 -0.225931 -0.636 250 251 245
-0.131817 -0.22451 -0.632 243 244 238
-0.129993 -0.223445 -0.629 233 233 225
-0.12859 -0.22309 -0.628 217 217 209
-0.127597 -0.223445 -0.629 206 203 196
-0.126399 -0.223445 -0.629 204 201 194
-0.1254 -0.2238 -0.63 206 206 198
-0.124397 -0.224155 -0.631 210 210 202
-0.123586 -0.224866 -0.633 205 201 192
-0.122573 -0.225221 -0.634 203 199 190
-0.121557 -0.225576 -0.635 199 197 185
-0.120537 -0.225931 -0.636 200 198 186
-0.119701 -0.226642 -0.638 197 195 183
-0.118857 -0.227352 -0.64 203 199 187
-0.117822 -0.227708 -0.641 216 212 200
-0.116965 -0.228418 -0.643 224 218 204
-0.11592 -0.228773 -0.644 224 218 204
-0.114871 -0.229129 -0.645 222 219 202
-0.113643 -0.229129 -0.645 224 221 204
-0.112589 -0.229484 -0.646 226 221 202
-0.11153 -0.229839 -0.647 225 220 201
-0.110469 -0.230194 -0.648 225 220 201
-0.109234 -0.230194 -0.648 225 220 201
-0.108167 -0.23055 -0.649 225 220 200
-0.107095 -0.230905 -0.65 225 220 200
-0.0711905 -0.230905 -0.65 255 251 239
-0.0699524 -0.230905 -0.65 248 242 230
-0.0686086 -0.23055 -0.649 233 232 227
-0.0672686 -0.230194 -0.648 217 216 211
-0.0658305 -0.229484 -0.646 205 204 202
-0.0645 -0.229129 -0.645 183 182 180
-0.0630752 -0.228418 -0.643 140 138 139
-0.0615619 -0.227352 -0.64 100 98 99
-0.0602486 -0.226997 -0.639 80 80 82
-0.0587543 -0.225931 -0.636 75 75 77
-0.0573619 -0.225221 -0.634 74 73 79
-0.0559771 -0.22451 -0.632 73 72 78
-0.0546 -0.2238 -0.63 72 70 83
-0.0533152 -0.223445 -0.629 71 69 82
-0.0518686 -0.222379 -0.626 70 69 83
-0.0506762 -0.222379 -0.626 70 69 83
-0.0494048 -0.222024 -0.625 71 70 84
-0.04806 -0.221313 -0.623 71 70 84
-0.0468733 -0.221313 -0.623 71 69 80
-0.0456133 -0.220958 -0.622 71 69 80
-0.0444286 -0.220958 -0.622 71 69 82
-0.0432438 -0.220958 -0.622 71 69 82
-0.042059 -0.220958 -0.622 70 68 81
-0.0408743 -0.220958 -0.622 69 67 80
-0.0396895 -0.220958 -0.622 69 67 78
-0.0386286 -0.221669 -0.624 71 69 80
-0.03744 -0.221669 -0.624 71 69 80
-0.0363095 -0.222024 -0.625 70 68 81
-0.0352314 -0.222734 -0.627 70 68 81
-0.0340914 -0.22309 -0.628 70 68 81
-0.0329476 -0.223445 -0.629 71 69 82
-0.0318 -0.2238 -0.63 71 69 80
-0.0306971 -0.22451 -0.632 71 69 80
-0.02954 -0.224866 -0.633 71 71 81
-0.028379 -0.225221 -0.634 70 70 80
-0.0272571 -0.225931 -0.636 70 70 82
-0.0260867 -0.226287 -0.637 70 70 82
-0.0249124 -0.226642 -0.638 70 70 82
-0.0237714 -0.227352 -0.64 71 71 83
-0.0225876 -0.227708 -0.641 73 71 84
-0.0214 -0.228063 -0.642 73 71 84
-0.02024 -0.228773 -0.644 74 72 86
-0.0190429 -0.229129 -0.645 75 73 87
-0.0178695 -0.229839 -0.647 75 73 87
-0.0166629 -0.230194 -0.648 75 73 87
-0.0154524 -0.23055 -0.649 76 74 88
0.455567 -0.196447 -0.553 173 129 120
0.450014 -0.193605 -0.545 175 131 122
0.446914 -0.191829 -0.54 177 134 118
0.443795 -0.190052 -0.535 179 136 120
0.44232 -0.188987 -0.532 187 139 119
0.440833 -0.187921 -0.529 190 142 122
0.44017 -0.18721 -0.527 192 141 124
0.440337 -0.186855 -0.526 191 140 123
0.439661 -0.186145 -0.524 193 142 125
0.438977 -0.185434 -0.522 196 145 128
0.439129 -0.185079 -0.521 195 147 127
0.439276 -0.184724 -0.52 199 151 131
0.440267 -0.184724 -0.52 199 151 131
0.440409 -0.184369 -0.519 196 148 128
0.440547 -0.184013 -0.518 193 145 125
0.440681 -0.183658 -0.517 189 138 119
0.441666 -0.183658 -0.517 189 138 119
0.441794 -0.183303 -0.516 197 146 127
0.441919 -0.182948 -0.515 196 145 126
0.4429 -0.182948 -0.515 201 150 129
0.443019 -0.182592 -0.514 196 145 124
0.443998 -0.182592 -0.514 195 147 127
0.444977 -0.182592 -0.514 196 148 128
0.445956 -0.182592 -0.514 191 143 123
0.446066 -0.182237 -0.513 192 144 124
0.447043 -0.182237 -0.513 190 142 122
0.44802 -0.182237 -0.513 196 148 128
0.448997 -0.182237 -0.513 195 144 125
0.449097 -0.181882 -0.512 193 142 123
0.450072 -0.181882 -0.512 194 143 124
0.451048 -0.181882 -0.512 192 141 122
0.452023 -0.181882 -0.512 192 141 122
0.452998 -0.181882 -0.512 190 139 120
0.453087 -0.181527 -0.511 187 134 116
0.45406 -0.181527 -0.511 187 134 116
0.455033 -0.181527 -0.511 191 138 120
0.456007 -0.181527 -0.511 192 139 121
0.45698 -0.181527 -0.511 191 140 119
0.457953 -0.181527 -0.511 187 136 115
0.458927 -0.181527 -0.511 183 135 115
0.4599 -0.181527 -0.511 183 135 115
0.460873 -0.181527 -0.511 184 135 118
0.461847 -0.181527 -0.511 184 135 118
0.46282 -0.181527 -0.511 183 136 116
0.464701 -0.181882 -0.512 183 136 116
0.465676 -0.181882 -0.512 183 136 116
0.466651 -0.181882 -0.512 180 133 113
0.467627 -0.181882 -0.512 177 130 110
0.469517 -0.182237 -0.513 170 125 104
0.470494 -0.182237 -0.513 167 122 101
0.471471 -0.182237 -0.513 165 120 101
0.47337 -0.182592 -0.514 164 119 100
0.475271 -0.182948 -0.515 164 121 102
0.477177 -0.183303 -0.516 161 118 99
0.480013 -0.184013 -0.518 160 121 104
0.481929 -0.184369 -0.519 159 120 103
0.484778 -0.185079 -0.521 152 115 96
-0.137198 -0.230714 -0.646 229 229 227
-0.134494 -0.228214 -0.639 239 239 237
-0.132443 -0.226786 -0.635 246 246 244
-0.130407 -0.225357 -0.631 250 249 247
-0.12859 -0.224286 -0.628 246 245 243
-0.127191 -0.223929 -0.627 236 235 231
-0.125997 -0.223929 -0.627 224 223 219
-0.125002 -0.224286 -0.628 213 214 209
-0.124003 -0.224643 -0.629 204 205 200
-0.123 -0.225 -0.63 203 200 193
-0.121993 -0.225357 -0.631 196 193 186
-0.120983 -0.225714 -0.632 198 195 186
-0.120158 -0.226429 -0.634 201 198 189
-0.119138 -0.226786 -0.635 200 198 186
-0.118486 -0.227857 -0.638 208 204 192
-0.117454 -0.228214 -0.639 219 215 203
-0.116419 -0.228571 -0.64 223 217 203
-0.11538 -0.228929 -0.641 224 218 204
-0.114337 -0.229286 -0.642 225 219 203
-0.11329 -0.229643 -0.643 226 220 204
-0.11224 -0.23 -0.644 226 221 202
-0.111186 -0.230357 -0.645 227 222 203
-0.109957 -0.230357 -0.645 227 222 202
-0.108897 -0.230714 -0.646 227 222 202
-0.107833 -0.231071 -0.647 225 223 202
-0.106766 -0.231429 -0.648 225 223 202
-0.105531 -0.231429 -0.648 225 223 202
-0.104458 -0.231786 -0.649 226 224 203
-0.103222 -0.231786 -0.649 229 224 204
-0.102143 -0.232143 -0.65 229 224 204
-0.100905 -0.232143 -0.65 230 225 206
-0.0996667 -0.232143 -0.65 231 226 207
-0.0885238 -0.232143 -0.65 241 238 223
-0.0872857 -0.232143 -0.65 241 238 223
-0.0860476 -0.232143 -0.65 242 239 224
-0.0761429 -0.232143 -0.65 255 254 242
-0.0747895 -0.231786 -0.649 255 253 241
-0.07344 -0.231429 -0.648 251 247 236
-0.0720943 -0.231071 -0.647 245 241 230
-0.0708619 -0.231071 -0.647 235 231 222
-0.0695219 -0.230714 -0.646 222 218 209
-0.0681857 -0.230357 -0.645 199 198 196
-0.0668533 -0.23 -0.644 166 165 163
-0.0655248 -0.229643 -0.643 122 122 122
-0.0641 -0.228929 -0.641 88 88 88
-0.0626829 -0.228214 -0.639 74 74 76
-0.0611771 -0.227143 -0.636 74 74 76
-0.0596829 -0.226071 -0.633 75 74 79
-0.0582924 -0.225357 -0.631 75 74 79
-0.056819 -0.224286 -0.628 73 72 80
-0.0554457 -0.223571 -0.626 73 72 80
-0.0541667 -0.223214 -0.625 72 70 81
-0.0528067 -0.2225 -0.623 72 70 81
-0.0515371 -0.222143 -0.622 71 69 83
-0.0503524 -0.222143 -0.622 72 70 84
-0.0490886 -0.221786 -0.621 72 70 83
-0.0479057 -0.221786 -0.621 73 71 84
-0.0467229 -0.221786 -0.621 72 71 79
-0.0454667 -0.221429 -0.62 71 70 78
-0.0442857 -0.221429 -0.62 71 69 80
-0.0431048 -0.221429 -0.62 71 69 80
-0.0419238 -0.221429 -0.62 71 69 80
-0.0408086 -0.221786 -0.621 71 69 80
-0.0396257 -0.221786 -0.621 70 68 79
-0.0385048 -0.222143 -0.622 70 68 79
-0.03744 -0.222857 -0.624 70 68 79
-0.0363676 -0.223571 -0.626 70 68 81
-0.0352314 -0.223929 -0.627 70 68 81
-0.0341457 -0.224643 -0.629 70 68 81
-0.033 -0.225 -0.63 71 69 82
-0.0318505 -0.225357 -0.631 71 69 80
-0.0307457 -0.226071 -0.633 72 70 81
-0.0295867 -0.226429 -0.634 70 70 80
-0.0284238 -0.226786 -0.635 70 70 80
-0.0273 -0.2275 -0.637 70 70 80
-0.0261276 -0.227857 -0.638 70 70 80
-0.0249514 -0.228214 -0.639 70 70 82
-0.0237714 -0.228571 -0.64 71 71 83
-0.0225876 -0.228929 -0.641 73 71 84
-0.0214333 -0.229643 -0.643 73 71 84
-0.02024 -0.23 -0.644 73 71 84
-0.0190724 -0.230714 -0.646 74 72 85
-0.0178695 -0.231071 -0.647 75 73 87
-0.0166629 -0.231429 -0.648 76 74 88
-0.0154762 -0.232143 -0.65 77 75 89
0.458862 -0.198929 -0.557 170 130 120
0.452491 -0.195714 -0.548 173 133 123
0.44857 -0.193571 -0.542 175 135 123
0.445454 -0.191786 -0.537 176 136 124
0.443151 -0.190357 -0.533 187 140 124
0.441667 -0.189286 -0.53 187 140 124
0.441006 -0.188571 -0.528 188 141 123
0.440337 -0.187857 -0.526 188 141 123
0.439661 -0.187143 -0.524 190 141 124
0.439818 -0.186786 -0.523 194 145 128
0.439129 -0.186071 -0.521 196 148 128
0.439276 -0.185714 -0.52 195 147 127
0.440267 -0.185714 -0.52 195 147 127
0.440409 -0.185357 -0.519 197 149 127
0.440547 -0.185 -0.518 194 146 124
0.440681 -0.184643 -0.517 190 139 118
0.441666 -0.184643 -0.517 191 140 119
0.441794 -0.184286 -0.516 198 148 125
0.441919 -0.183929 -0.515 200 150 127
0.4429 -0.183929 -0.515 198 148 125
0.443019 -0.183571 -0.514 201 151 128
0.443998 -0.183571 -0.514 200 149 130
0.444111 -0.183214 -0.513 199 148 129
0.445089 -0.183214 -0.513 199 148 127
0.446066 -0.183214 -0.513 191 140 119
0.446171 -0.182857 -0.512 192 141 120
0.447147 -0.182857 -0.512 194 143 122
0.448122 -0.182857 -0.512 197 146 127
0.449097 -0.182857 -0.512 196 145 126
