ply
format ascii 1.0
comment Created by Open3D
element vertex 1296
property double x
property double y
property double z
property uchar red
property uchar green
property uchar blue
end_header
0.335383 -0.28944 -0.536 189 130 124
0.335149 -0.28836 -0.534 185 126 120
0.334277 -0.28674 -0.531 182 123 115
0.334657 -0.2862 -0.53 181 122 114
0.335033 -0.28566 -0.529 182 125 118
0.335406 -0.28512 -0.528 184 127 120
0.335774 -0.28458 -0.527 181 128 122
0.336139 -0.28404 -0.526 180 127 121
0.3365 -0.2835 -0.525 182 125 116
0.3375 -0.2835 -0.525 185 128 119
0.3385 -0.2835 -0.525 187 130 121
0.3395 -0.2835 -0.525 188 131 122
0.3405 -0.2835 -0.525 189 132 123
0.3415 -0.2835 -0.525 189 132 123
0.3425 -0.2835 -0.525 189 132 123
0.3435 -0.2835 -0.525 189 132 123
0.3445 -0.2835 -0.525 189 131 120
0.3455 -0.2835 -0.525 188 130 119
0.3465 -0.2835 -0.525 186 128 117
0.3475 -0.2835 -0.525 186 128 117
0.3485 -0.2835 -0.525 183 125 114
0.350166 -0.28404 -0.526 181 123 112
0.351168 -0.28404 -0.526 181 123 112
0.35217 -0.28404 -0.526 182 124 113
0.353171 -0.28404 -0.526 182 124 113
0.354173 -0.28404 -0.526 179 121 109
0.355175 -0.28404 -0.526 179 121 109
0.356177 -0.28404 -0.526 179 121 109
0.357179 -0.28404 -0.526 179 121 109
0.358181 -0.28404 -0.526 181 123 111
0.359183 -0.28404 -0.526 182 124 112
0.360185 -0.28404 -0.526 181 125 110
0.3605 -0.2835 -0.525 181 125 110
0.3615 -0.2835 -0.525 182 126 111
0.3625 -0.2835 -0.525 181 125 110
0.3635 -0.2835 -0.525 181 125 110
0.3645 -0.2835 -0.525 181 125 110
0.3655 -0.2835 -0.525 182 126 111
0.3665 -0.2835 -0.525 183 127 112
0.3675 -0.2835 -0.525 185 129 114
0.3685 -0.2835 -0.525 185 129 114
0.3695 -0.2835 -0.525 186 133 119
0.369794 -0.28296 -0.524 186 130 117
0.370792 -0.28296 -0.524 187 134 120
0.37179 -0.28296 -0.524 189 136 122
0.372789 -0.28296 -0.524 189 136 122
0.373787 -0.28296 -0.524 189 136 122
0.374785 -0.28296 -0.524 188 135 121
0.375783 -0.28296 -0.524 187 134 120
0.376781 -0.28296 -0.524 185 132 118
0.3785 -0.2835 -0.525 186 133 119
0.3795 -0.2835 -0.525 186 133 119
0.3805 -0.2835 -0.525 187 133 121
0.3815 -0.2835 -0.525 187 133 121
0.3825 -0.2835 -0.525 188 134 122
0.3835 -0.2835 -0.525 189 135 123
0.385232 -0.28404 -0.526 188 134 122
0.386234 -0.28404 -0.526 189 135 123
0.387236 -0.28404 -0.526 190 134 121
0.388238 -0.28404 -0.526 189 133 120
0.38998 -0.28458 -0.527 189 133 120
0.390984 -0.28458 -0.527 189 133 120
0.391988 -0.28458 -0.527 188 132 119
0.392991 -0.28458 -0.527 187 131 118
0.394743 -0.28512 -0.528 186 133 119
0.395749 -0.28512 -0.528 187 134 120
0.397506 -0.28566 -0.529 186 132 120
0.399267 -0.2862 -0.53 187 133 121
0.400276 -0.2862 -0.53 186 132 120
0.402043 -0.28674 -0.531 185 131 119
0.403813 -0.28728 -0.532 183 129 117
0.405588 -0.28782 -0.533 181 127 115
0.407366 -0.28836 -0.534 181 127 115
0.408383 -0.28836 -0.534 181 127 115
0.410167 -0.2889 -0.535 180 126 114
0.412723 -0.28998 -0.537 173 124 117
0.415287 -0.29106 -0.539 171 122 115
0.417858 -0.29214 -0.541 173 124 119
0.420437 -0.29322 -0.543 173 124 119
0.4238 -0.29484 -0.546 168 119 114
0.427174 -0.29646 -0.549 167 118 113
0.43056 -0.29808 -0.552 166 117 110
0.435521 -0.30078 -0.557 163 114 107
1.14127 -0.34884 -0.646 203 205 191
-0.354857 -0.325143 -0.6 246 247 239
-0.353714 -0.325143 -0.6 245 247 236
0.0950057 -0.331646 -0.612 190 145 142
0.0957 -0.33002 -0.609 190 145 142
0.0960648 -0.32731 -0.604 192 142 143
0.0964105 -0.324601 -0.599 191 141 142
0.0967371 -0.321891 -0.594 187 141 143
0.0970448 -0.319182 -0.589 190 144 146
0.0975 -0.317014 -0.585 191 146 143
0.0981086 -0.315389 -0.582 186 141 138
0.0987057 -0.313763 -0.579 188 137 134
0.0992914 -0.312137 -0.576 192 141 138
0.10004 -0.311053 -0.574 189 140 136
0.100781 -0.30997 -0.572 189 140 136
0.101514 -0.308886 -0.57 191 141 140
0.10224 -0.307802 -0.568 190 140 139
0.10314 -0.30726 -0.567 190 136 134
0.104036 -0.306718 -0.566 187 133 131
0.104929 -0.306176 -0.565 188 133 128
0.10563 -0.305092 -0.563 188 133 128
0.106512 -0.30455 -0.562 189 134 127
0.107583 -0.30455 -0.562 189 134 127
0.10846 -0.304009 -0.561 184 129 122
0.109529 -0.304009 -0.561 190 135 128
0.110597 -0.304009 -0.561 191 133 129
0.111666 -0.304009 -0.561 188 130 126
0.112533 -0.303467 -0.56 189 134 129
0.113397 -0.302925 -0.559 189 134 129
0.114462 -0.302925 -0.559 195 140 135
0.11532 -0.302383 -0.558 193 138 133
0.116383 -0.302383 -0.558 187 132 127
0.117446 -0.302383 -0.558 186 131 126
0.118296 -0.301841 -0.557 186 131 126
0.119357 -0.301841 -0.557 188 133 128
0.120418 -0.301841 -0.557 188 130 126
0.121261 -0.301299 -0.556 187 129 125
0.12232 -0.301299 -0.556 190 132 128
0.123379 -0.301299 -0.556 188 130 126
0.124438 -0.301299 -0.556 190 132 128
0.125497 -0.301299 -0.556 187 129 125
0.126784 -0.301841 -0.557 185 127 123
0.127845 -0.301841 -0.557 188 130 126
0.128906 -0.301841 -0.557 182 123 117
0.129967 -0.301841 -0.557 177 118 112
0.131028 -0.301841 -0.557 180 119 116
0.132089 -0.301841 -0.557 178 117 114
0.13315 -0.301841 -0.557 172 111 108
0.13421 -0.301841 -0.557 173 112 109
0.135514 -0.302383 -0.558 176 115 110
0.136577 -0.302383 -0.558 178 117 112
0.13764 -0.302383 -0.558 178 117 112
0.138703 -0.302383 -0.558 170 109 104
0.139766 -0.302383 -0.558 165 101 99
0.140829 -0.302383 -0.558 165 101 99
0.141891 -0.302383 -0.558 172 106 107
0.142954 -0.302383 -0.558 171 105 106
0.144017 -0.302383 -0.558 168 104 102
0.14508 -0.302383 -0.558 162 98 96
0.146405 -0.302925 -0.559 163 102 97
0.147733 -0.303467 -0.56 162 101 96
0.1488 -0.303467 -0.56 162 101 96
0.149867 -0.303467 -0.56 158 99 93
0.150933 -0.303467 -0.56 157 98 92
0.152 -0.303467 -0.56 155 96 92
0.15334 -0.304009 -0.561 152 93 89
0.154684 -0.30455 -0.562 150 91 87
0.155754 -0.30455 -0.562 149 90 86
0.157104 -0.305092 -0.563 148 89 85
0.158457 -0.305634 -0.564 147 88 84
0.159814 -0.306176 -0.565 145 87 85
0.16089 -0.306176 -0.565 143 85 83
0.161967 -0.306176 -0.565 140 82 80
0.163331 -0.306718 -0.566 140 82 80
0.1647 -0.30726 -0.567 141 83 81
0.16578 -0.30726 -0.567 139 81 79
0.167154 -0.307802 -0.568 133 80 74
0.168532 -0.308344 -0.569 132 79 73
0.169914 -0.308886 -0.57 135 75 74
0.1713 -0.309428 -0.571 134 74 73
0.17269 -0.30997 -0.572 139 75 75
0.173779 -0.30997 -0.572 141 77 77
0.175174 -0.310511 -0.573 136 76 75
0.176573 -0.311053 -0.574 130 70 69
0.177667 -0.311053 -0.574 121 66 63
0.17876 -0.311053 -0.574 124 69 66
0.180167 -0.311595 -0.575 134 76 74
0.181262 -0.311595 -0.575 148 90 88
0.182357 -0.311595 -0.575 152 92 91
0.183771 -0.312137 -0.576 154 94 93
0.184548 -0.311595 -0.575 156 94 95
0.185643 -0.311595 -0.575 159 97 98
0.187063 -0.312137 -0.576 162 101 100
0.18816 -0.312137 -0.576 167 106 105
0.189257 -0.312137 -0.576 175 110 108
0.190354 -0.312137 -0.576 174 109 107
0.191784 -0.312679 -0.577 177 109 106
0.193217 -0.313221 -0.578 173 105 102
0.194654 -0.313763 -0.579 172 104 103
0.195757 -0.313763 -0.579 167 99 98
0.19754 -0.314847 -0.581 161 97 97
0.198989 -0.315389 -0.582 158 94 94
0.200097 -0.315389 -0.582 158 94 94
0.201551 -0.31593 -0.583 148 89 91
0.203357 -0.317014 -0.585 142 83 85
0.204821 -0.317556 -0.586 131 82 86
0.20664 -0.31864 -0.588 129 80 84
0.208467 -0.319724 -0.59 123 80 87
0.210656 -0.32135 -0.593 119 76 83
0.2125 -0.322433 -0.595 119 76 85
0.21507 -0.324601 -0.599 115 72 81
0.217293 -0.326227 -0.602 110 77 86
0.219529 -0.327852 -0.605 113 80 89
0.222505 -0.330562 -0.61 107 89 103
0.225133 -0.33273 -0.614 98 80 94
0.227777 -0.334897 -0.618 86 80 106
0.37081 -0.335439 -0.619 185 144 150
0.368384 -0.332188 -0.613 187 137 140
0.365934 -0.328936 -0.607 186 136 139
0.335207 -0.292087 -0.539 186 131 128
0.334362 -0.290461 -0.536 186 131 128
0.333506 -0.288835 -0.533 186 127 121
0.333893 -0.288293 -0.532 185 126 120
0.333648 -0.28721 -0.53 184 125 119
0.333394 -0.286126 -0.528 184 125 119
0.333767 -0.285584 -0.527 184 126 122
0.334135 -0.285042 -0.526 186 128 124
0.335137 -0.285042 -0.526 183 130 126
0.3355 -0.2845 -0.525 182 129 125
0.3365 -0.2845 -0.525 183 126 119
0.336857 -0.283958 -0.524 186 129 122
0.337855 -0.283958 -0.524 187 130 123
0.338853 -0.283958 -0.524 188 131 124
0.339851 -0.283958 -0.524 191 134 125
0.34085 -0.283958 -0.524 191 134 125
0.341848 -0.283958 -0.524 190 133 124
0.342846 -0.283958 -0.524 191 134 125
0.343844 -0.283958 -0.524 192 133 125
0.344842 -0.283958 -0.524 190 131 123
0.34584 -0.283958 -0.524 188 130 119
0.346838 -0.283958 -0.524 188 130 119
0.347836 -0.283958 -0.524 186 128 117
0.348834 -0.283958 -0.524 183 125 114
0.3505 -0.2845 -0.525 182 124 113
0.3515 -0.2845 -0.525 183 125 114
0.3525 -0.2845 -0.525 182 124 113
0.3535 -0.2845 -0.525 180 122 110
0.3545 -0.2845 -0.525 180 122 110
0.3555 -0.2845 -0.525 179 121 109
0.3565 -0.2845 -0.525 180 122 110
0.3575 -0.2845 -0.525 180 122 110
0.3585 -0.2845 -0.525 181 123 111
0.3595 -0.2845 -0.525 181 123 109
0.3605 -0.2845 -0.525 181 123 109
0.3615 -0.2845 -0.525 181 125 110
0.3625 -0.2845 -0.525 180 124 109
0.3635 -0.2845 -0.525 180 124 109
0.3645 -0.2845 -0.525 181 125 110
0.3655 -0.2845 -0.525 182 126 111
0.3665 -0.2845 -0.525 183 127 112
0.3668 -0.283958 -0.524 184 128 113
0.367798 -0.283958 -0.524 184 128 113
0.368796 -0.283958 -0.524 186 130 117
0.369794 -0.283958 -0.524 186 130 117
0.370792 -0.283958 -0.524 187 134 120
0.37179 -0.283958 -0.524 189 136 122
0.372789 -0.283958 -0.524 189 136 122
0.373787 -0.283958 -0.524 189 136 122
0.374785 -0.283958 -0.524 188 135 121
0.375783 -0.283958 -0.524 187 134 120
0.376062 -0.283416 -0.523 189 133 118
0.377058 -0.283416 -0.523 189 133 118
0.378054 -0.283416 -0.523 190 134 119
0.37905 -0.283416 -0.523 187 134 118
0.380047 -0.283416 -0.523 188 135 119
0.381043 -0.283416 -0.523 188 135 119
0.38277 -0.283958 -0.524 188 135 119
0.383768 -0.283958 -0.524 190 134 119
0.384766 -0.283958 -0.524 189 133 118
0.385764 -0.283958 -0.524 189 133 118
0.386762 -0.283958 -0.524 189 133 118
0.3885 -0.2845 -0.525 191 134 117
0.3895 -0.2845 -0.525 190 133 116
0.391244 -0.285042 -0.526 189 131 117
0.392246 -0.285042 -0.526 189 131 117
0.393248 -0.285042 -0.526 189 133 118
0.39425 -0.285042 -0.526 189 133 118
0.396003 -0.285584 -0.527 188 132 119
0.39776 -0.286126 -0.528 189 133 120
0.398766 -0.286126 -0.528 189 133 118
0.400529 -0.286668 -0.529 187 131 116
0.401536 -0.286668 -0.529 186 130 117
0.404066 -0.287751 -0.531 184 128 115
0.40584 -0.288293 -0.532 181 125 112
0.406853 -0.288293 -0.532 181 125 112
0.408633 -0.288835 -0.533 182 126 113
0.411186 -0.289919 -0.535 176 123 115
0.413746 -0.291003 -0.537 175 122 114
0.416313 -0.292087 -0.539 173 124 119
0.418889 -0.29317 -0.541 172 123 118
0.421471 -0.294254 -0.543 166 119 113
0.42484 -0.29588 -0.546 165 118 112
0.42822 -0.297506 -0.549 166 116 109
0.431611 -0.299131 -0.552 161 111 104
1.14127 -0.35007 -0.646 203 206 189
1.14073 -0.349529 -0.645 207 210 193
0.0948505 -0.332268 -0.611 190 149 147
0.0953857 -0.330092 -0.607 188 147 145
0.0957467 -0.327373 -0.602 193 144 139
0.0960886 -0.324654 -0.597 192 143 138
0.0964114 -0.321935 -0.592 193 143 144
0.0967152 -0.319216 -0.587 194 144 145
0.0971667 -0.317041 -0.583 190 146 137
0.0977714 -0.31541 -0.58 188 144 135
0.0983648 -0.313778 -0.577 189 138 134
0.099119 -0.31269 -0.575 189 138 134
0.0998657 -0.311603 -0.573 189 138 134
0.100605 -0.310515 -0.571 189 138 134
0.101158 -0.308884 -0.568 189 138 134
0.10206 -0.30834 -0.567 188 137 133
0.102958 -0.307796 -0.566 190 137 131
0.103852 -0.307252 -0.565 190 137 131
0.104743 -0.306709 -0.564 187 134 128
0.10563 -0.306165 -0.563 187 134 128
0.106512 -0.305621 -0.562 186 133 129
0.107583 -0.305621 -0.562 186 133 129
0.10846 -0.305077 -0.561 187 132 129
0.109529 -0.305077 -0.561 187 132 129
0.110597 -0.305077 -0.561 186 131 126
0.111467 -0.304533 -0.56 186 131 126
0.112533 -0.304533 -0.56 187 129 125
0.113397 -0.30399 -0.559 193 135 131
0.114462 -0.30399 -0.559 198 140 136
0.11532 -0.303446 -0.558 198 140 136
0.116383 -0.303446 -0.558 192 134 130
0.117446 -0.303446 -0.558 185 127 123
0.118296 -0.302902 -0.557 184 126 122
0.119357 -0.302902 -0.557 189 131 127
0.120202 -0.302358 -0.556 190 132 128
0.121261 -0.302358 -0.556 188 130 126
0.12232 -0.302358 -0.556 189 131 127
0.123379 -0.302358 -0.556 191 133 129
0.124438 -0.302358 -0.556 191 133 129
0.125497 -0.302358 -0.556 190 132 128
0.126556 -0.302358 -0.556 187 129 125
0.127845 -0.302902 -0.557 185 127 123
0.128906 -0.302902 -0.557 181 120 117
0.129967 -0.302902 -0.557 184 123 120
0.131028 -0.302902 -0.557 182 121 118
0.132089 -0.302902 -0.557 174 113 110
0.13315 -0.302902 -0.557 174 113 110
0.13421 -0.302902 -0.557 172 111 108
0.135271 -0.302902 -0.557 178 115 110
0.136332 -0.302902 -0.557 180 117 112
0.137393 -0.302902 -0.557 177 114 109
0.138454 -0.302902 -0.557 167 104 99
0.139766 -0.303446 -0.558 165 101 99
0.140829 -0.303446 -0.558 165 101 99
0.141891 -0.303446 -0.558 167 103 101
0.142954 -0.303446 -0.558 164 100 98
0.144275 -0.30399 -0.559 163 100 95
0.14534 -0.30399 -0.559 162 99 94
0.146405 -0.30399 -0.559 163 102 99
0.147733 -0.304533 -0.56 161 100 97
0.1488 -0.304533 -0.56 161 100 97
0.150134 -0.305077 -0.561 156 95 92
0.151203 -0.305077 -0.561 155 94 91
0.152271 -0.305077 -0.561 154 93 90
0.15334 -0.305077 -0.561 149 88 85
0.154684 -0.305621 -0.562 147 88 84
0.156031 -0.306165 -0.563 148 89 85
0.157104 -0.306165 -0.563 149 89 88
0.158457 -0.306709 -0.564 147 87 86
0.159814 -0.307252 -0.565 146 86 85
0.161175 -0.307796 -0.566 144 84 83
0.162253 -0.307796 -0.566 144 84 83
0.163331 -0.307796 -0.566 143 83 82
0.1647 -0.30834 -0.567 141 83 81
0.166072 -0.308884 -0.568 139 81 79
0.167154 -0.308884 -0.568 137 84 78
0.168532 -0.309428 -0.569 134 81 75
0.169914 -0.309971 -0.57 136 77 73
0.1713 -0.310515 -0.571 134 75 71
0.17269 -0.311059 -0.572 137 73 71
0.173779 -0.311059 -0.572 139 75 73
0.175174 -0.311603 -0.573 132 73 69
0.176573 -0.312147 -0.574 124 65 61
0.177667 -0.312147 -0.574 124 69 66
0.17876 -0.312147 -0.574 131 76 73
0.179853 -0.312147 -0.574 129 74 71
0.181262 -0.31269 -0.575 143 88 85
0.182357 -0.31269 -0.575 148 88 87
0.183452 -0.31269 -0.575 149 89 88
0.184548 -0.31269 -0.575 155 95 94
0.185643 -0.31269 -0.575 156 96 95
0.186738 -0.31269 -0.575 162 101 100
0.18816 -0.313234 -0.576 165 104 103
0.189257 -0.313234 -0.576 171 106 102
0.190354 -0.313234 -0.576 170 105 101
0.191784 -0.313778 -0.577 174 106 103
0.193217 -0.314322 -0.578 171 103 100
0.194654 -0.314866 -0.579 170 102 99
0.196095 -0.31541 -0.58 166 98 95
0.19754 -0.315953 -0.581 158 94 94
0.198989 -0.316497 -0.582 155 91 91
0.200097 -0.316497 -0.582 155 91 91
0.201897 -0.317585 -0.584 144 88 89
0.203705 -0.318672 -0.586 139 83 84
0.20517 -0.319216 -0.587 128 82 85
0.206991 -0.320304 -0.589 127 81 84
0.20882 -0.321391 -0.591 122 82 90
0.211011 -0.323023 -0.594 116 76 84
0.213214 -0.324654 -0.597 118 75 84
0.215429 -0.326286 -0.6 117 74 83
0.217654 -0.327917 -0.603 109 77 92
0.220254 -0.330092 -0.607 115 83 98
0.22287 -0.332268 -0.611 109 91 115
0.2255 -0.334443 -0.615 109 91 115
0.344309 -0.306709 -0.564 192 131 126
0.341096 -0.302902 -0.557 187 131 130
0.342157 -0.302902 -0.557 187 131 130
0.339521 -0.299639 -0.551 187 131 130
0.33748 -0.29692 -0.546 187 133 133
0.33542 -0.294201 -0.541 185 131 131
0.333963 -0.292026 -0.537 185 130 127
0.333114 -0.290394 -0.534 185 130 127
0.33288 -0.289307 -0.532 186 127 121
0.332638 -0.288219 -0.53 185 126 120
0.333018 -0.287675 -0.529 185 126 120
0.333394 -0.287131 -0.528 187 128 122
0.333133 -0.286044 -0.526 186 128 124
0.334135 -0.286044 -0.526 186 128 124
0.3345 -0.2855 -0.525 184 129 124
0.3355 -0.2855 -0.525 184 129 124
0.335859 -0.284956 -0.524 185 128 121
0.336214 -0.284412 -0.523 187 130 123
0.33721 -0.284412 -0.523 188 131 124
0.338207 -0.284412 -0.523 190 133 126
0.339203 -0.284412 -0.523 192 135 126
0.340199 -0.284412 -0.523 192 135 126
0.341195 -0.284412 -0.523 191 134 125
0.342191 -0.284412 -0.523 191 134 125
0.343188 -0.284412 -0.523 192 134 123
0.344184 -0.284412 -0.523 191 133 122
0.34518 -0.284412 -0.523 190 132 121
0.346176 -0.284412 -0.523 190 132 121
0.347172 -0.284412 -0.523 188 130 119
0.348169 -0.284412 -0.523 186 128 117
0.349165 -0.284412 -0.523 185 127 116
0.35083 -0.284956 -0.524 184 126 114
0.351829 -0.284956 -0.524 183 125 113
0.352827 -0.284956 -0.524 180 122 108
0.353825 -0.284956 -0.524 180 122 108
0.354823 -0.284956 -0.524 180 122 108
0.355821 -0.284956 -0.524 181 123 109
0.356819 -0.284956 -0.524 181 123 109
0.357817 -0.284956 -0.524 181 123 109
0.358815 -0.284956 -0.524 181 123 109
0.359813 -0.284956 -0.524 181 123 109
0.360811 -0.284956 -0.524 181 125 110
0.36181 -0.284956 -0.524 180 124 109
0.362808 -0.284956 -0.524 182 126 111
0.363806 -0.284956 -0.524 183 127 112
0.364804 -0.284956 -0.524 183 127 112
0.365802 -0.284956 -0.524 183 127 112
0.3668 -0.284956 -0.524 184 128 113
0.367096 -0.284412 -0.523 183 127 112
0.368092 -0.284412 -0.523 184 128 113
0.369089 -0.284412 -0.523 184 128 113
0.370085 -0.284412 -0.523 187 131 116
0.371081 -0.284412 -0.523 189 133 118
0.372077 -0.284412 -0.523 187 134 118
0.373073 -0.284412 -0.523 187 134 118
0.37407 -0.284412 -0.523 185 132 116
0.375066 -0.284412 -0.523 187 131 116
0.376062 -0.284412 -0.523 189 133 118
0.377058 -0.284412 -0.523 189 133 118
0.378054 -0.284412 -0.523 190 134 119
0.37905 -0.284412 -0.523 187 134 118
0.380047 -0.284412 -0.523 188 135 119
0.381043 -0.284412 -0.523 188 135 119
0.381309 -0.283869 -0.522 187 134 116
0.383035 -0.284412 -0.523 189 133 116
0.384031 -0.284412 -0.523 187 131 114
0.385028 -0.284412 -0.523 188 131 114
0.386024 -0.284412 -0.523 190 133 116
0.38702 -0.284412 -0.523 190 133 116
0.388758 -0.284956 -0.524 189 132 115
0.389756 -0.284956 -0.524 190 133 116
0.390754 -0.284956 -0.524 191 134 117
0.391752 -0.284956 -0.524 190 132 118
0.3935 -0.2855 -0.525 189 131 117
0.3945 -0.2855 -0.525 190 134 119
0.396253 -0.286044 -0.526 189 133 118
0.39801 -0.286588 -0.527 190 132 118
0.399014 -0.286588 -0.527 188 130 116
0.400777 -0.287131 -0.528 187 129 115
0.402544 -0.287675 -0.529 186 128 114
0.404314 -0.288219 -0.53 180 124 111
0.405324 -0.288219 -0.53 180 124 111
0.4071 -0.288763 -0.531 180 124 111
0.409649 -0.28985 -0.533 180 122 111
0.412205 -0.290938 -0.535 178 120 109
0.414769 -0.292026 -0.537 172 123 116
0.41734 -0.293113 -0.539 169 120 113
0.419919 -0.294201 -0.541 161 116 111
0.423284 -0.295832 -0.544 161 116 111
0.42666 -0.297464 -0.547 164 114 107
0.430048 -0.299095 -0.55 158 108 101
0.433447 -0.300727 -0.553 157 104 96
0.438429 -0.303446 -0.558 156 103 95
0.442642 -0.305621 -0.562 149 104 98
0.44766 -0.30834 -0.567 149 104 98
1.14073 -0.350757 -0.645 207 208 192
1.14019 -0.350213 -0.644 206 207 191
1.13964 -0.34967 -0.643 205 208 191
-0.354266 -0.326883 -0.599 246 248 237
-0.353125 -0.326883 -0.599 246 248 237
-0.351984 -0.326883 -0.599 245 247 236
-0.350843 -0.326883 -0.599 245 247 236
0.09454 -0.33234 -0.609 189 148 146
0.0950714 -0.330157 -0.605 189 148 146
0.0954286 -0.327429 -0.6 194 145 140
0.0957667 -0.3247 -0.595 193 144 139
0.0960857 -0.321971 -0.59 194 142 144
0.0963857 -0.319243 -0.585 194 142 144
0.097 -0.317606 -0.582 192 143 136
0.0976029 -0.315969 -0.579 191 142 135
0.0981943 -0.314331 -0.576 189 140 135
0.0989467 -0.31324 -0.574 189 140 135
0.0996914 -0.312149 -0.572 189 138 134
0.100252 -0.310511 -0.569 189 138 134
0.10098 -0.30942 -0.567 189 138 134
0.10188 -0.308874 -0.566 188 137 133
0.102776 -0.308329 -0.565 187 137 130
0.103669 -0.307783 -0.564 188 138 131
0.104557 -0.307237 -0.563 188 135 129
0.105442 -0.306691 -0.562 187 134 128
0.106512 -0.306691 -0.562 186 133 129
0.107391 -0.306146 -0.561 184 131 127
0.10846 -0.306146 -0.561 184 131 127
0.109333 -0.3056 -0.56 185 132 128
0.1104 -0.3056 -0.56 186 133 127
0.111467 -0.3056 -0.56 186 133 127
0.112332 -0.305054 -0.559 186 131 128
0.113397 -0.305054 -0.559 190 135 132
0.114462 -0.305054 -0.559 194 139 136
0.11532 -0.304509 -0.558 194 139 136
0.116383 -0.304509 -0.558 189 134 131
0.117235 -0.303963 -0.557 184 129 126
0.118296 -0.303963 -0.557 184 126 122
0.119357 -0.303963 -0.557 187 129 125
0.120202 -0.303417 -0.556 190 132 128
0.121261 -0.303417 -0.556 189 131 127
0.12232 -0.303417 -0.556 189 131 127
0.123379 -0.303417 -0.556 191 133 129
0.124438 -0.303417 -0.556 192 134 130
0.125497 -0.303417 -0.556 190 132 128
0.126556 -0.303417 -0.556 187 129 125
0.127615 -0.303417 -0.556 183 125 121
0.128674 -0.303417 -0.556 181 120 115
0.129967 -0.303963 -0.557 183 122 117
0.131028 -0.303963 -0.557 184 123 120
0.132089 -0.303963 -0.557 177 116 113
0.13315 -0.303963 -0.557 175 114 111
0.13421 -0.303963 -0.557 174 113 110
0.135271 -0.303963 -0.557 177 116 113
0.136332 -0.303963 -0.557 177 116 113
0.137393 -0.303963 -0.557 177 114 109
0.138454 -0.303963 -0.557 167 104 99
0.139766 -0.304509 -0.558 162 98 96
0.140829 -0.304509 -0.558 164 100 98
0.141891 -0.304509 -0.558 165 101 99
0.142954 -0.304509 -0.558 163 99 97
0.144275 -0.305054 -0.559 163 100 95
0.14534 -0.305054 -0.559 164 101 96
0.146667 -0.3056 -0.56 163 102 99
0.147733 -0.3056 -0.56 163 102 99
0.149066 -0.306146 -0.561 160 99 96
0.150134 -0.306146 -0.561 154 93 90
0.151203 -0.306146 -0.561 152 91 88
0.152543 -0.306691 -0.562 148 88 87
0.153613 -0.306691 -0.562 145 85 84
0.154684 -0.306691 -0.562 146 87 83
0.156031 -0.307237 -0.563 146 87 83
0.157383 -0.307783 -0.564 150 91 87
0.158457 -0.307783 -0.564 147 88 84
0.159814 -0.308329 -0.565 145 85 84
0.161175 -0.308874 -0.566 143 83 82
0.16254 -0.30942 -0.567 141 83 81
0.16362 -0.30942 -0.567 142 84 82
0.1647 -0.30942 -0.567 140 82 78
0.166072 -0.309966 -0.568 136 78 74
0.167449 -0.310511 -0.569 137 79 75
0.168532 -0.310511 -0.569 136 78 74
0.169914 -0.311057 -0.57 136 78 74
0.1713 -0.311603 -0.571 135 77 73
0.172388 -0.311603 -0.571 132 77 72
0.173779 -0.312149 -0.572 128 73 68
0.175174 -0.312694 -0.573 121 68 62
0.176573 -0.31324 -0.574 120 67 61
0.177667 -0.31324 -0.574 129 76 70
0.17876 -0.31324 -0.574 128 75 69
0.179853 -0.31324 -0.574 134 76 72
0.180947 -0.31324 -0.574 142 84 80
0.182357 -0.313786 -0.575 146 85 82
0.183452 -0.313786 -0.575 153 92 89
0.184548 -0.313786 -0.575 153 92 89
0.185643 -0.313786 -0.575 160 99 96
0.186738 -0.313786 -0.575 166 101 97
0.18816 -0.314331 -0.576 169 104 100
0.189257 -0.314331 -0.576 169 106 101
0.190685 -0.314877 -0.577 169 106 101
0.191784 -0.314877 -0.577 168 107 104
0.193217 -0.315423 -0.578 167 106 103
0.194654 -0.315969 -0.579 161 99 100
0.196095 -0.316514 -0.58 153 91 92
0.19788 -0.317606 -0.582 154 90 91
0.19933 -0.318151 -0.583 152 88 89
0.200441 -0.318151 -0.583 152 88 89
0.201897 -0.318697 -0.584 148 88 88
0.203705 -0.319789 -0.586 142 82 82
0.20552 -0.32088 -0.588 127 77 76
0.207343 -0.321971 -0.59 127 77 76
0.209527 -0.323609 -0.593 123 81 82
0.211367 -0.3247 -0.595 119 77 78
0.213571 -0.326337 -0.598 111 78 87
0.215788 -0.327974 -0.601 113 80 89
0.218376 -0.330157 -0.605 113 78 82
0.220617 -0.331794 -0.608 121 86 90
0.223234 -0.333977 -0.612 106 100 128
0.36668 -0.337251 -0.618 188 142 145
0.342017 -0.306691 -0.562 193 130 121
0.339425 -0.303417 -0.556 193 130 121
0.337422 -0.300689 -0.551 187 129 127
0.338471 -0.300689 -0.551 187 129 127
0.337056 -0.298506 -0.547 185 127 125
0.335008 -0.295777 -0.542 183 129 129
0.33418 -0.29414 -0.539 181 127 127
0.332719 -0.291957 -0.535 181 126 123
0.33249 -0.290866 -0.533 184 129 126
0.332254 -0.289774 -0.531 188 129 121
0.33201 -0.288683 -0.529 186 127 119
0.332389 -0.288137 -0.528 187 127 119
0.332763 -0.287591 -0.527 187 127 119
0.333133 -0.287046 -0.526 186 127 121
0.3335 -0.2865 -0.525 186 127 121
0.3345 -0.2865 -0.525 186 129 122
0.334861 -0.285954 -0.524 187 130 123
0.335218 -0.285409 -0.523 188 131 124
0.336214 -0.285409 -0.523 188 131 124
0.336566 -0.284863 -0.522 189 132 125
0.33756 -0.284863 -0.522 191 134 127
0.338554 -0.284863 -0.522 193 136 127
0.338898 -0.284317 -0.521 192 135 126
0.33989 -0.284317 -0.521 190 133 124
0.340883 -0.284317 -0.521 190 133 124
0.341875 -0.284317 -0.521 192 134 123
0.342868 -0.284317 -0.521 192 134 123
0.34386 -0.284317 -0.521 190 132 120
0.344852 -0.284317 -0.521 190 132 120
0.346509 -0.284863 -0.522 189 131 119
0.347503 -0.284863 -0.522 189 131 119
0.348497 -0.284863 -0.522 187 129 117
0.349491 -0.284863 -0.522 185 127 115
0.351157 -0.285409 -0.523 185 127 115
0.352153 -0.285409 -0.523 180 123 106
0.35315 -0.285409 -0.523 181 124 107
0.354146 -0.285409 -0.523 182 124 110
0.355142 -0.285409 -0.523 182 124 110
0.356138 -0.285409 -0.523 182 124 110
0.357134 -0.285409 -0.523 181 123 109
0.35813 -0.285409 -0.523 182 125 108
0.359127 -0.285409 -0.523 182 125 108
0.360123 -0.285409 -0.523 181 124 107
0.361119 -0.285409 -0.523 181 124 107
0.362115 -0.285409 -0.523 181 125 110
0.363111 -0.285409 -0.523 182 126 111
0.364108 -0.285409 -0.523 182 126 111
0.365104 -0.285409 -0.523 182 126 111
0.3661 -0.285409 -0.523 183 127 110
0.367096 -0.285409 -0.523 182 126 109
0.368092 -0.285409 -0.523 186 129 112
0.368383 -0.284863 -0.522 185 128 111
0.369377 -0.284863 -0.522 184 128 111
0.370371 -0.284863 -0.522 186 130 113
0.371366 -0.284863 -0.522 186 130 113
0.37236 -0.284863 -0.522 186 130 113
0.373354 -0.284863 -0.522 185 129 112
0.374349 -0.284863 -0.522 186 130 113
0.375343 -0.284863 -0.522 189 133 116
0.376337 -0.284863 -0.522 189 133 116
0.377331 -0.284863 -0.522 191 135 118
0.378326 -0.284863 -0.522 188 135 117
0.37932 -0.284863 -0.522 189 136 118
0.380314 -0.284863 -0.522 189 136 118
0.381309 -0.284863 -0.522 187 134 116
0.383035 -0.285409 -0.523 189 133 116
0.384031 -0.285409 -0.523 187 131 114
0.385028 -0.285409 -0.523 188 131 114
0.386024 -0.285409 -0.523 190 133 116
0.38628 -0.284863 -0.522 190 133 116
0.387274 -0.284863 -0.522 190 133 116
0.389012 -0.285409 -0.523 190 133 116
0.390009 -0.285409 -0.523 191 134 117
0.391005 -0.285409 -0.523 190 134 119
0.39275 -0.285954 -0.524 190 134 119
0.393749 -0.285954 -0.524 194 138 123
0.3955 -0.2865 -0.525 190 134 119
0.3965 -0.2865 -0.525 188 132 117
0.3975 -0.2865 -0.525 187 131 116
0.399259 -0.287046 -0.526 184 128 113
0.401022 -0.287591 -0.527 181 125 110
0.402789 -0.288137 -0.528 178 125 109
0.403794 -0.288137 -0.528 178 125 109
0.405567 -0.288683 -0.529 177 124 108
0.408111 -0.289774 -0.531 176 122 110
0.410664 -0.290866 -0.533 177 123 111
0.413224 -0.291957 -0.535 174 122 111
0.415791 -0.293049 -0.537 170 118 107
0.418367 -0.29414 -0.539 164 115 108
0.421728 -0.295777 -0.542 162 113 106
0.4251 -0.297414 -0.545 155 112 106
0.428484 -0.299051 -0.548 151 108 102
0.431879 -0.300689 -0.551 148 107 103
0.436071 -0.302871 -0.555 146 105 101
0.441067 -0.3056 -0.56 147 104 98
1.14019 -0.35144 -0.644 206 207 191
1.13964 -0.350894 -0.643 206 209 192
1.13909 -0.350349 -0.642 204 207 190
-0.357091 -0.327476 -0.598 246 248 237
-0.355952 -0.327476 -0.598 245 247 236
-0.354813 -0.327476 -0.598 246 248 237
-0.353674 -0.327476 -0.598 246 248 237
0.0936867 -0.334595 -0.611 191 146 143
0.0943848 -0.332952 -0.608 191 147 146
0.0947571 -0.330214 -0.603 191 147 146
0.0951105 -0.327476 -0.598 194 146 142
0.0954448 -0.324738 -0.593 193 145 141
0.09576 -0.322 -0.588 194 142 144
0.096221 -0.31981 -0.584 195 143 145
0.0968333 -0.318167 -0.581 194 144 135
0.0974343 -0.316524 -0.578 192 142 133
0.0980238 -0.314881 -0.575 190 141 136
0.0987743 -0.313786 -0.573 190 141 136
0.0993429 -0.312143 -0.57 190 141 136
0.100076 -0.311048 -0.568 190 141 136
0.10098 -0.3105 -0.567 193 142 138
0.1017 -0.309405 -0.565 193 142 138
0.102594 -0.308857 -0.564 192 141 137
0.103485 -0.30831 -0.563 191 140 136
0.104371 -0.307762 -0.562 190 139 135
0.105442 -0.307762 -0.562 188 137 133
0.106323 -0.307214 -0.561 189 136 132
0.107391 -0.307214 -0.561 186 133 129
0.10846 -0.307214 -0.561 183 130 126
0.109333 -0.306667 -0.56 186 133 129
0.1104 -0.306667 -0.56 189 136 130
0.111268 -0.306119 -0.559 189 136 130
0.112332 -0.306119 -0.559 188 133 130
0.113397 -0.306119 -0.559 189 134 131
0.114257 -0.305571 -0.558 190 135 132
0.11532 -0.305571 -0.558 189 134 131
0.116383 -0.305571 -0.558 188 133 130
0.117235 -0.305024 -0.557 185 130 127
0.118296 -0.305024 -0.557 183 128 125
0.119357 -0.305024 -0.557 183 128 125
0.120202 -0.304476 -0.556 189 131 127
0.121261 -0.304476 -0.556 188 130 126
0.12232 -0.304476 -0.556 188 130 126
0.123379 -0.304476 -0.556 188 130 126
0.124438 -0.304476 -0.556 188 130 126
0.125497 -0.304476 -0.556 186 128 124
0.126556 -0.304476 -0.556 183 125 121
0.127615 -0.304476 -0.556 179 121 117
0.128674 -0.304476 -0.556 179 120 114
0.129967 -0.305024 -0.557 180 121 115
0.131028 -0.305024 -0.557 182 121 118
0.132089 -0.305024 -0.557 177 116 113
0.13315 -0.305024 -0.557 175 114 111
0.13421 -0.305024 -0.557 172 111 108
0.135271 -0.305024 -0.557 177 116 113
0.136332 -0.305024 -0.557 177 116 113
0.137393 -0.305024 -0.557 177 113 111
0.138454 -0.305024 -0.557 167 103 101
0.139515 -0.305024 -0.557 160 96 94
0.140829 -0.305571 -0.558 163 99 97
0.141891 -0.305571 -0.558 166 102 100
0.14321 -0.306119 -0.559 165 101 99
0.144275 -0.306119 -0.559 163 99 97
0.14534 -0.306119 -0.559 162 98 96
0.146667 -0.306667 -0.56 159 98 95
0.147733 -0.306667 -0.56 159 98 95
0.149066 -0.307214 -0.561 156 95 92
0.150134 -0.307214 -0.561 152 91 88
0.151472 -0.307762 -0.562 149 88 85
0.152543 -0.307762 -0.562 145 85 84
0.153887 -0.30831 -0.563 144 84 83
0.154959 -0.30831 -0.563 146 87 83
0.156309 -0.308857 -0.564 146 87 83
0.157383 -0.308857 -0.564 148 89 85
0.158738 -0.309405 -0.565 147 88 84
0.160097 -0.309952 -0.566 145 85 84
0.161175 -0.309952 -0.566 143 83 82
0.16254 -0.3105 -0.567 141 83 81
0.16362 -0.3105 -0.567 141 83 81
0.16499 -0.311048 -0.568 139 81 77
0.166072 -0.311048 -0.568 135 77 73
0.167449 -0.311595 -0.569 134 76 72
0.168829 -0.312143 -0.57 134 76 72
0.169914 -0.312143 -0.57 133 78 73
0.1713 -0.31269 -0.571 131 76 71
0.172388 -0.31269 -0.571 129 74 69
0.173779 -0.313238 -0.572 126 71 66
0.174869 -0.313238 -0.572 120 70 63
0.176266 -0.313786 -0.573 122 72 65
0.177667 -0.314333 -0.574 129 76 70
0.17876 -0.314333 -0.574 129 76 70
0.179853 -0.314333 -0.574 133 75 73
0.180947 -0.314333 -0.574 141 83 81
0.182357 -0.314881 -0.575 146 85 84
0.183452 -0.314881 -0.575 152 91 90
0.184548 -0.314881 -0.575 153 92 91
0.185643 -0.314881 -0.575 159 98 97
0.187063 -0.315429 -0.576 165 102 97
0.18816 -0.315429 -0.576 166 103 98
0.189586 -0.315976 -0.577 166 103 98
0.190685 -0.315976 -0.577 167 104 99
0.192116 -0.316524 -0.578 164 103 100
0.193551 -0.317071 -0.579 161 100 97
0.19499 -0.317619 -0.58 156 94 95
0.196433 -0.318167 -0.581 150 88 89
0.19788 -0.318714 -0.582 147 87 89
0.198989 -0.318714 -0.582 147 87 89
0.200785 -0.31981 -0.584 144 84 86
0.202243 -0.320357 -0.585 140 86 86
0.204052 -0.321452 -0.587 136 82 82
0.20587 -0.322548 -0.589 122 76 76
0.207694 -0.323643 -0.591 121 75 75
0.20988 -0.325286 -0.594 120 80 81
0.211722 -0.326381 -0.596 117 77 78
0.213929 -0.328024 -0.599 114 79 85
0.216506 -0.330214 -0.603 117 82 88
0.218737 -0.331857 -0.606 113 82 88
0.221343 -0.334048 -0.61 111 80 86
0.223964 -0.336238 -0.614 100 97 128
0.366094 -0.338976 -0.619 185 143 144
0.36312 -0.335143 -0.612 190 142 140
0.339127 -0.306119 -0.559 188 130 128
0.337149 -0.303381 -0.554 187 129 125
0.335151 -0.300643 -0.549 185 127 123
0.333748 -0.298452 -0.545 186 128 124
0.334786 -0.298452 -0.545 186 128 124
0.333975 -0.29681 -0.542 186 128 124
0.333153 -0.295167 -0.539 185 127 123
0.33232 -0.293524 -0.536 185 127 123
0.332097 -0.292429 -0.534 185 128 121
0.331867 -0.291333 -0.532 184 127 120
0.331629 -0.290238 -0.53 184 127 120
0.33201 -0.28969 -0.529 185 128 121
0.331759 -0.288595 -0.527 185 128 119
0.332131 -0.288048 -0.526 185 128 119
0.3325 -0.2875 -0.525 185 128 119
0.3335 -0.2875 -0.525 186 129 120
0.333863 -0.286952 -0.524 186 129 120
0.334861 -0.286952 -0.524 188 131 122
0.335218 -0.286405 -0.523 188 129 121
0.335571 -0.285857 -0.522 188 129 121
0.336566 -0.285857 -0.522 189 130 124
0.336913 -0.28531 -0.521 189 130 124
0.337906 -0.28531 -0.521 190 131 123
0.338898 -0.28531 -0.521 191 132 124
0.339238 -0.284762 -0.52 191 134 123
0.340229 -0.284762 -0.52 190 133 122
0.341219 -0.284762 -0.52 189 132 121
0.34221 -0.284762 -0.52 188 131 120
0.3432 -0.284762 -0.52 188 131 120
0.34419 -0.284762 -0.52 188 131 120
0.345181 -0.284762 -0.52 191 134 123
0.346171 -0.284762 -0.52 190 134 121
0.347162 -0.284762 -0.52 186 130 117
0.348822 -0.28531 -0.521 185 129 114
0.349814 -0.28531 -0.521 184 128 113
0.350807 -0.28531 -0.521 184 128 115
0.351799 -0.28531 -0.521 183 127 114
0.352791 -0.28531 -0.521 182 126 113
0.354463 -0.285857 -0.522 181 125 112
0.355457 -0.285857 -0.522 181 125 112
0.356451 -0.285857 -0.522 179 123 110
0.357446 -0.285857 -0.522 179 123 110
0.35844 -0.285857 -0.522 180 124 111
0.359434 -0.285857 -0.522 180 122 110
0.360429 -0.285857 -0.522 180 122 110
0.361423 -0.285857 -0.522 182 124 110
0.362417 -0.285857 -0.522 183 125 111
0.364108 -0.286405 -0.523 183 125 111
0.365104 -0.286405 -0.523 184 126 112
0.3661 -0.286405 -0.523 185 127 113
0.367096 -0.286405 -0.523 185 127 113
0.367389 -0.285857 -0.522 185 129 114
0.368383 -0.285857 -0.522 184 128 113
0.369377 -0.285857 -0.522 184 128 113
0.370371 -0.285857 -0.522 185 129 114
0.371366 -0.285857 -0.522 184 131 115
0.37236 -0.285857 -0.522 184 131 115
0.372639 -0.28531 -0.521 184 131 115
0.373631 -0.28531 -0.521 187 131 116
0.374624 -0.28531 -0.521 189 133 118
0.375616 -0.28531 -0.521 189 133 118
0.376609 -0.28531 -0.521 190 134 119
0.377601 -0.28531 -0.521 188 135 119
0.378593 -0.28531 -0.521 188 135 119
0.379586 -0.28531 -0.521 188 135 119
0.380578 -0.28531 -0.521 187 134 118
0.38157 -0.28531 -0.521 188 132 117
0.382563 -0.28531 -0.521 186 130 115
0.384291 -0.285857 -0.522 188 132 117
0.385286 -0.285857 -0.522 188 132 117
0.38628 -0.285857 -0.522 190 133 116
0.387274 -0.285857 -0.522 190 133 116
0.389012 -0.286405 -0.523 190 133 116
0.390009 -0.286405 -0.523 191 134 117
0.391005 -0.286405 -0.523 190 134 119
0.391251 -0.285857 -0.522 191 135 120
0.392997 -0.286405 -0.523 190 134 119
0.393993 -0.286405 -0.523 188 132 117
0.395745 -0.286952 -0.524 187 131 116
0.396743 -0.286952 -0.524 186 130 115
0.3985 -0.2875 -0.525 182 126 111
0.3995 -0.2875 -0.525 179 123 108
0.401263 -0.288048 -0.526 178 122 107
0.403794 -0.289143 -0.528 177 121 106
0.4048 -0.289143 -0.528 177 121 106
0.406574 -0.28969 -0.529 174 121 107
0.409123 -0.290786 -0.531 174 121 107
0.411679 -0.291881 -0.533 170 118 105
0.414243 -0.292976 -0.535 166 114 101
0.416814 -0.294071 -0.537 162 114 104
0.420171 -0.295714 -0.54 160 112 102
0.42354 -0.297357 -0.543 151 108 102
0.42692 -0.299 -0.546 147 104 98
0.430311 -0.300643 -0.549 145 104 100
0.4345 -0.302833 -0.553 143 102 98
0.438704 -0.305024 -0.557 143 102 96
0.502553 -0.341167 -0.623 142 154 192
1.14141 -0.352667 -0.644 208 211 192
1.13909 -0.351571 -0.642 205 208 189
1.13854 -0.351024 -0.641 204 208 191
0.09338 -0.33466 -0.609 189 144 141
0.0940743 -0.333011 -0.606 191 147 144
0.0944429 -0.330264 -0.601 191 147 144
0.0947924 -0.327516 -0.596 191 146 141
0.0951229 -0.324769 -0.591 190 145 140
0.0954343 -0.322021 -0.586 195 144 143
0.0958914 -0.319823 -0.582 195 144 143
0.0965 -0.318174 -0.579 194 144 135
0.0972657 -0.317075 -0.577 192 142 133
0.0978533 -0.315427 -0.574 189 140 135
0.0986019 -0.314328 -0.572 190 141 136
0.0993429 -0.313229 -0.57 189 140 135
0.100076 -0.31213 -0.568 188 139 134
0.100802 -0.31103 -0.566 190 139 135
0.1017 -0.310481 -0.565 189 138 134
0.102594 -0.309931 -0.564 188 137 133
0.103485 -0.309382 -0.563 188 137 133
0.104371 -0.308832 -0.562 191 140 136
0.105442 -0.308832 -0.562 189 138 134
0.106323 -0.308283 -0.561 191 138 134
0.107391 -0.308283 -0.561 188 135 131
0.108267 -0.307733 -0.56 184 131 127
0.109333 -0.307733 -0.56 187 134 130
0.1104 -0.307733 -0.56 191 138 132
0.111268 -0.307184 -0.559 190 137 131
0.112332 -0.307184 -0.559 188 135 131
0.113397 -0.307184 -0.559 187 134 130
0.114257 -0.306634 -0.558 185 132 128
0.11532 -0.306634 -0.558 185 132 128
0.116383 -0.306634 -0.558 188 133 128
0.117235 -0.306085 -0.557 188 133 128
0.118296 -0.306085 -0.557 186 131 126
0.119357 -0.306085 -0.557 183 128 123
0.120418 -0.306085 -0.557 186 131 126
0.121261 -0.305535 -0.556 187 132 127
0.12232 -0.305535 -0.556 188 130 126
0.123379 -0.305535 -0.556 186 128 124
0.124438 -0.305535 -0.556 182 124 120
0.125497 -0.305535 -0.556 180 122 118
0.126556 -0.305535 -0.556 179 121 117
0.127615 -0.305535 -0.556 177 119 115
0.128906 -0.306085 -0.557 178 121 114
0.129967 -0.306085 -0.557 178 121 114
0.131028 -0.306085 -0.557 179 122 115
0.132089 -0.306085 -0.557 174 117 110
0.13315 -0.306085 -0.557 175 114 111
0.13421 -0.306085 -0.557 172 111 108
0.135271 -0.306085 -0.557 174 113 110
0.136332 -0.306085 -0.557 173 112 109
0.137393 -0.306085 -0.557 172 111 108
0.138454 -0.306085 -0.557 163 102 99
0.139766 -0.306634 -0.558 159 95 93
0.140829 -0.306634 -0.558 161 97 95
0.141891 -0.306634 -0.558 166 102 102
0.14321 -0.307184 -0.559 165 101 101
0.144275 -0.307184 -0.559 162 98 96
0.1456 -0.307733 -0.56 160 96 94
0.146667 -0.307733 -0.56 160 96 94
0.147733 -0.307733 -0.56 154 93 90
0.149066 -0.308283 -0.561 151 90 87
0.150402 -0.308832 -0.562 149 90 86
0.151472 -0.308832 -0.562 146 87 83
0.152543 -0.308832 -0.562 144 85 81
0.153887 -0.309382 -0.563 145 86 82
0.155234 -0.309931 -0.564 146 87 83
0.156309 -0.309931 -0.564 146 87 83
0.157662 -0.310481 -0.565 145 86 82
0.159019 -0.31103 -0.566 145 86 82
0.160097 -0.31103 -0.566 143 85 83
0.16146 -0.31158 -0.567 140 82 80
0.16254 -0.31158 -0.567 139 81 79
0.163909 -0.31213 -0.568 140 82 80
0.16499 -0.31213 -0.568 138 80 78
0.166072 -0.31213 -0.568 134 76 74
0.167449 -0.312679 -0.569 132 77 72
0.168829 -0.313229 -0.57 132 77 72
0.170212 -0.313778 -0.571 132 77 72
0.1713 -0.313778 -0.571 129 74 69
0.172388 -0.313778 -0.571 126 73 67
0.173779 -0.314328 -0.572 124 71 65
0.174869 -0.314328 -0.572 122 72 65
0.176266 -0.314877 -0.573 124 74 67
0.177357 -0.314877 -0.573 125 74 70
0.178449 -0.314877 -0.573 126 75 71
0.179853 -0.315427 -0.574 130 75 72
0.180947 -0.315427 -0.574 138 83 80
0.18204 -0.315427 -0.574 146 86 85
0.183452 -0.315976 -0.575 149 89 88
0.184548 -0.315976 -0.575 152 91 90
0.185966 -0.316526 -0.576 157 96 95
0.187063 -0.316526 -0.576 161 98 93
0.18816 -0.316526 -0.576 162 99 94
0.189586 -0.317075 -0.577 161 98 93
0.191015 -0.317625 -0.578 161 98 93
0.192116 -0.317625 -0.578 160 96 94
0.193551 -0.318174 -0.579 157 93 91
0.19499 -0.318724 -0.58 152 92 92
0.196433 -0.319273 -0.581 151 91 91
0.19822 -0.320372 -0.583 139 87 89
0.19933 -0.320372 -0.583 139 87 89
0.200785 -0.320922 -0.584 133 81 83
0.202589 -0.322021 -0.586 130 84 86
0.2044 -0.32312 -0.588 129 83 85
0.206219 -0.324219 -0.59 118 78 79
0.208046 -0.325318 -0.592 117 77 78
0.210233 -0.326967 -0.595 119 80 81
0.212077 -0.328066 -0.597 117 78 79
0.214286 -0.329714 -0.6 121 85 89
0.216865 -0.331912 -0.604 120 84 88
0.219459 -0.33411 -0.608 109 85 98
0.221706 -0.335759 -0.611 95 71 84
0.224329 -0.337957 -0.615 87 90 125
0.364326 -0.339606 -0.618 187 142 137
0.342543 -0.313229 -0.57 192 128 126
0.340011 -0.309931 -0.564 191 127 125
0.338667 -0.307733 -0.56 188 127 122
0.337307 -0.305535 -0.556 187 126 121
0.335931 -0.303337 -0.552 187 128 124
0.33393 -0.30059 -0.547 185 126 122
0.333135 -0.298941 -0.544 185 126 122
0.334171 -0.298941 -0.544 185 126 122
0.333359 -0.297292 -0.541 186 127 123
0.333153 -0.296193 -0.539 185 126 120
0.33232 -0.294545 -0.536 185 126 120
0.332097 -0.293446 -0.534 185 126 120
0.331867 -0.292347 -0.532 185 126 120
0.331629 -0.291248 -0.53 185 126 120
0.33201 -0.290698 -0.529 185 126 120
0.331759 -0.289599 -0.527 184 125 117
0.332763 -0.289599 -0.527 185 126 118
0.333133 -0.28905 -0.526 186 127 119
0.3335 -0.2885 -0.525 187 128 120
0.333863 -0.28795 -0.524 188 129 121
0.334861 -0.28795 -0.524 189 130 122
0.335218 -0.287401 -0.523 187 128 120
0.335571 -0.286851 -0.522 188 129 121
0.335921 -0.286302 -0.521 190 131 123
0.336913 -0.286302 -0.521 191 132 124
0.337906 -0.286302 -0.521 190 133 124
0.338248 -0.285752 -0.52 190 133 124
0.339238 -0.285752 -0.52 190 133 122
0.339574 -0.285203 -0.519 188 131 120
0.340563 -0.285203 -0.519 189 133 120
0.341551 -0.285203 -0.519 188 132 119
0.34254 -0.285203 -0.519 188 131 120
0.343529 -0.285203 -0.519 188 131 120
0.344517 -0.285203 -0.519 190 133 122
0.345506 -0.285203 -0.519 189 133 120
0.347162 -0.285752 -0.52 187 131 118
0.348152 -0.285752 -0.52 186 133 117
0.349143 -0.285752 -0.52 185 132 116
0.350133 -0.285752 -0.52 187 131 118
0.351799 -0.286302 -0.521 185 129 116
0.352791 -0.286302 -0.521 184 128 115
0.353784 -0.286302 -0.521 182 126 113
0.354776 -0.286302 -0.521 181 125 112
0.355769 -0.286302 -0.521 180 124 111
0.357446 -0.286851 -0.522 179 123 108
0.35844 -0.286851 -0.522 179 123 108
0.359434 -0.286851 -0.522 178 122 107
0.360429 -0.286851 -0.522 179 123 108
0.361423 -0.286851 -0.522 181 125 110
0.362417 -0.286851 -0.522 182 126 111
0.363411 -0.286851 -0.522 182 126 111
0.364406 -0.286851 -0.522 182 126 111
0.3654 -0.286851 -0.522 182 126 111
0.366394 -0.286851 -0.522 182 126 111
0.366685 -0.286302 -0.521 185 127 113
0.367677 -0.286302 -0.521 184 126 112
0.36867 -0.286302 -0.521 184 128 113
0.369662 -0.286302 -0.521 185 129 114
0.370654 -0.286302 -0.521 186 130 115
0.371647 -0.286302 -0.521 186 130 115
0.371924 -0.285752 -0.52 187 131 116
0.372914 -0.285752 -0.52 188 132 117
0.373905 -0.285752 -0.52 188 132 117
0.374895 -0.285752 -0.52 189 133 118
0.375886 -0.285752 -0.52 189 133 118
0.376876 -0.285752 -0.52 190 134 119
0.377867 -0.285752 -0.52 189 133 118
0.378857 -0.285752 -0.52 186 133 117
0.379848 -0.285752 -0.52 187 134 118
0.380838 -0.285752 -0.52 189 133 118
0.381829 -0.285752 -0.52 189 133 118
0.383555 -0.286302 -0.521 189 133 116
0.384548 -0.286302 -0.521 189 133 116
0.38554 -0.286302 -0.521 190 133 116
0.386532 -0.286302 -0.521 190 133 116
0.387525 -0.286302 -0.521 191 134 117
0.389263 -0.286851 -0.522 191 134 117
0.390257 -0.286851 -0.522 191 135 120
0.391251 -0.286851 -0.522 191 135 120
0.392997 -0.287401 -0.523 190 134 119
0.393993 -0.287401 -0.523 188 132 117
0.395745 -0.28795 -0.524 187 131 116
0.396743 -0.28795 -0.524 186 130 115
0.397741 -0.28795 -0.524 180 124 109
0.3995 -0.2885 -0.525 178 122 107
0.4005 -0.2885 -0.525 177 121 108
0.40303 -0.289599 -0.527 176 120 107
0.404033 -0.289599 -0.527 176 120 107
0.405806 -0.290149 -0.528 177 121 106
0.408352 -0.291248 -0.53 175 119 104
0.410907 -0.292347 -0.532 167 115 102
0.413469 -0.293446 -0.534 164 112 99
0.416038 -0.294545 -0.536 160 112 102
0.419393 -0.296193 -0.539 157 109 99
0.42276 -0.297842 -0.542 148 105 98
0.425356 -0.298941 -0.544 146 103 96
0.429528 -0.301139 -0.548 142 101 97
0.433714 -0.303337 -0.552 141 100 96
0.437916 -0.305535 -0.556 142 101 97
1.14087 -0.353344 -0.643 203 205 192
1.14031 -0.352794 -0.642 202 205 194
0.0932267 -0.335269 -0.608 188 144 143
0.0939191 -0.333614 -0.605 194 149 146
0.0942857 -0.330857 -0.6 192 147 144
0.0946333 -0.3281 -0.595 189 145 142
0.0949619 -0.325343 -0.59 188 144 141
0.0952714 -0.322586 -0.585 194 142 144
0.0957267 -0.32038 -0.581 195 143 145
0.0963333 -0.318726 -0.578 192 143 136
0.0969286 -0.317071 -0.575 190 141 134
0.0976829 -0.315969 -0.573 191 140 137
0.0984295 -0.314866 -0.571 191 140 137
0.0991686 -0.313763 -0.569 191 140 136
0.100076 -0.313211 -0.568 189 138 134
0.100802 -0.312109 -0.566 186 135 131
0.1017 -0.311557 -0.565 186 135 131
0.102594 -0.311006 -0.564 191 138 134
0.103485 -0.310454 -0.563 192 139 135
0.104371 -0.309903 -0.562 191 138 134
0.105254 -0.309351 -0.561 189 136 132
0.106323 -0.309351 -0.561 189 136 132
0.107391 -0.309351 -0.561 187 134 130
0.108267 -0.3088 -0.56 187 132 129
0.109333 -0.3088 -0.56 190 135 132
0.1104 -0.3088 -0.56 191 136 133
0.111268 -0.308249 -0.559 188 133 130
0.112332 -0.308249 -0.559 186 133 127
0.113397 -0.308249 -0.559 185 132 126
0.114257 -0.307697 -0.558 185 132 126
0.11532 -0.307697 -0.558 186 133 127
0.116174 -0.307146 -0.557 188 135 129
0.117235 -0.307146 -0.557 189 136 130
0.118296 -0.307146 -0.557 188 133 128
0.119357 -0.307146 -0.557 184 129 124
0.120418 -0.307146 -0.557 188 133 128
0.121479 -0.307146 -0.557 188 133 128
0.12254 -0.307146 -0.557 186 131 126
0.123601 -0.307146 -0.557 182 127 122
0.124662 -0.307146 -0.557 181 123 119
0.125723 -0.307146 -0.557 180 122 118
0.126784 -0.307146 -0.557 179 122 115
0.127845 -0.307146 -0.557 179 122 115
0.128906 -0.307146 -0.557 178 124 114
0.129967 -0.307146 -0.557 177 123 113
0.131028 -0.307146 -0.557 179 122 115
0.132089 -0.307146 -0.557 174 117 110
0.13315 -0.307146 -0.557 172 113 107
0.13421 -0.307146 -0.557 168 109 103
0.135514 -0.307697 -0.558 169 110 104
0.136577 -0.307697 -0.558 167 108 102
0.13764 -0.307697 -0.558 166 105 100
0.138703 -0.307697 -0.558 160 99 94
0.139766 -0.307697 -0.558 156 95 92
0.140829 -0.307697 -0.558 157 96 93
0.142146 -0.308249 -0.559 159 98 95
0.14321 -0.308249 -0.559 159 98 95
0.144275 -0.308249 -0.559 158 97 94
0.1456 -0.3088 -0.56 156 95 92
0.146667 -0.3088 -0.56 156 95 92
0.147997 -0.309351 -0.561 149 90 84
0.149066 -0.309351 -0.561 147 88 82
0.150402 -0.309903 -0.562 148 89 83
0.151472 -0.309903 -0.562 145 86 80
0.152814 -0.310454 -0.563 142 84 80
0.153887 -0.310454 -0.563 144 86 82
0.155234 -0.311006 -0.564 143 85 81
0.156586 -0.311557 -0.565 144 86 82
0.157662 -0.311557 -0.565 142 84 80
0.159019 -0.312109 -0.566 143 85 81
0.16038 -0.31266 -0.567 142 84 80
0.16146 -0.31266 -0.567 139 81 77
0.16254 -0.31266 -0.567 136 81 76
0.163909 -0.313211 -0.568 137 82 77
0.16499 -0.313211 -0.568 135 80 75
0.166365 -0.313763 -0.569 132 77 72
0.167449 -0.313763 -0.569 134 79 74
0.168829 -0.314314 -0.57 132 77 72
0.170212 -0.314866 -0.571 130 77 71
0.1713 -0.314866 -0.571 127 74 68
0.172388 -0.314866 -0.571 123 73 66
0.173779 -0.315417 -0.572 122 72 65
0.174869 -0.315417 -0.572 120 70 63
0.176266 -0.315969 -0.573 120 70 63
0.177357 -0.315969 -0.573 124 74 67
0.17876 -0.31652 -0.574 126 76 69
0.179853 -0.31652 -0.574 130 75 70
0.180947 -0.31652 -0.574 139 84 79
0.182357 -0.317071 -0.575 147 87 86
0.183452 -0.317071 -0.575 147 87 86
0.184548 -0.317071 -0.575 152 91 90
0.185966 -0.317623 -0.576 155 94 93
0.187388 -0.318174 -0.577 159 96 91
0.188487 -0.318174 -0.577 161 98 93
0.189586 -0.318174 -0.577 161 96 92
0.191015 -0.318726 -0.578 159 94 90
0.192449 -0.319277 -0.579 155 90 86
0.193886 -0.319829 -0.58 153 88 84
0.195327 -0.32038 -0.581 148 90 88
0.196771 -0.320931 -0.582 146 88 86
0.19856 -0.322034 -0.584 134 86 86
0.199672 -0.322034 -0.584 134 86 86
0.201129 -0.322586 -0.585 128 80 80
0.202934 -0.323689 -0.587 122 82 83
0.204748 -0.324791 -0.589 123 83 84
0.206569 -0.325894 -0.591 119 80 81
0.208397 -0.326997 -0.593 117 78 79
0.210587 -0.328651 -0.596 119 80 81
0.212788 -0.330306 -0.599 118 79 80
0.215 -0.33196 -0.602 122 83 86
0.217583 -0.334166 -0.606 119 80 83
0.220181 -0.336371 -0.61 98 80 102
0.222431 -0.338026 -0.613 84 66 88
0.362561 -0.340231 -0.617 187 139 139
0.360789 -0.337474 -0.612 188 138 131
0.338336 -0.310454 -0.563 189 124 122
0.336394 -0.307697 -0.558 188 123 121
0.336248 -0.306594 -0.556 187 124 117
0.33488 -0.304389 -0.552 186 123 116
0.334106 -0.302734 -0.549 184 125 119
0.33332 -0.30108 -0.546 182 123 117
0.332523 -0.299426 -0.543 182 123 117
0.333557 -0.299426 -0.543 182 123 117
0.333359 -0.298323 -0.541 182 123 117
0.332535 -0.296669 -0.538 182 123 117
0.33232 -0.295566 -0.536 182 123 117
0.332097 -0.294463 -0.534 182 123 117
0.331867 -0.29336 -0.532 183 124 118
0.331629 -0.292257 -0.53 184 125 119
0.33201 -0.291706 -0.529 183 124 118
0.332389 -0.291154 -0.528 182 123 117
0.332763 -0.290603 -0.527 183 124 118
0.333133 -0.290051 -0.526 184 125 117
0.3335 -0.2895 -0.525 187 128 120
0.333863 -0.288949 -0.524 189 130 122
0.334861 -0.288949 -0.524 189 130 122
0.334577 -0.287846 -0.522 188 130 119
0.334929 -0.287294 -0.521 188 130 119
0.335921 -0.287294 -0.521 190 131 123
0.336267 -0.286743 -0.52 191 132 124
0.337257 -0.286743 -0.52 189 132 121
0.338248 -0.286743 -0.52 189 132 121
0.338586 -0.286191 -0.519 189 132 121
0.339574 -0.286191 -0.519 188 131 120
0.340563 -0.286191 -0.519 190 134 121
0.341551 -0.286191 -0.519 189 133 120
0.34254 -0.286191 -0.519 189 133 120
0.343529 -0.286191 -0.519 189 133 120
0.344517 -0.286191 -0.519 190 134 121
0.345506 -0.286191 -0.519 188 132 119
0.346494 -0.286191 -0.519 188 132 119
0.347483 -0.286191 -0.519 188 135 121
0.348471 -0.286191 -0.519 187 134 120
