ply
format ascii 1.0
comment Created by Open3D
element vertex 1309
property double x
property double y
property double z
property uchar red
property uchar green
property uchar blue
end_header
0.319555 -0.394397 -0.517 111 62 68
0.32054 -0.394397 -0.517 117 68 74
0.321525 -0.394397 -0.517 113 67 70
0.32251 -0.394397 -0.517 108 62 65
0.323494 -0.394397 -0.517 107 61 64
0.323851 -0.393634 -0.516 105 59 62
0.324834 -0.393634 -0.516 110 63 69
0.325817 -0.393634 -0.516 111 64 70
0.326167 -0.392871 -0.515 117 70 76
0.327148 -0.392871 -0.515 122 75 81
0.328129 -0.392871 -0.515 127 82 85
0.32911 -0.392871 -0.515 129 84 87
0.33009 -0.392871 -0.515 137 93 90
0.331071 -0.392871 -0.515 140 96 93
0.332697 -0.393634 -0.516 136 92 89
0.33368 -0.393634 -0.516 131 87 84
0.334663 -0.393634 -0.516 133 90 84
0.335646 -0.393634 -0.516 130 87 81
0.336629 -0.393634 -0.516 121 82 75
0.337611 -0.393634 -0.516 120 81 74
0.337938 -0.392871 -0.515 115 77 68
0.338919 -0.392871 -0.515 110 72 63
0.33924 -0.392109 -0.514 108 71 62
0.339557 -0.391346 -0.513 109 72 63
0.33987 -0.390583 -0.512 109 72 63
0.34018 -0.38982 -0.511 110 73 64
0.339818 -0.388294 -0.509 107 73 63
0.340118 -0.387531 -0.508 106 72 62
0.340414 -0.386769 -0.507 109 73 61
0.340707 -0.386006 -0.506 106 70 58
0.34167 -0.386006 -0.506 106 68 59
0.341957 -0.385243 -0.505 107 69 60
0.34224 -0.38448 -0.504 106 68 59
0.3432 -0.38448 -0.504 106 68 59
0.34416 -0.38448 -0.504 104 66 57
0.344435 -0.383717 -0.503 103 67 55
0.345393 -0.383717 -0.503 102 66 54
0.346351 -0.383717 -0.503 102 66 54
0.34731 -0.383717 -0.503 104 68 56
0.348268 -0.383717 -0.503 105 68 59
0.349226 -0.383717 -0.503 103 66 57
0.350184 -0.383717 -0.503 102 65 56
0.351142 -0.383717 -0.503 102 65 56
0.3528 -0.38448 -0.504 101 65 53
0.35376 -0.38448 -0.504 103 67 55
0.35472 -0.38448 -0.504 99 65 53
0.356386 -0.385243 -0.505 99 65 53
0.358055 -0.386006 -0.506 97 63 51
0.359729 -0.386769 -0.507 95 61 49
0.361406 -0.387531 -0.508 96 62 50
0.362373 -0.387531 -0.508 96 62 50
0.364056 -0.388294 -0.509 97 63 51
0.365026 -0.388294 -0.509 99 65 53
0.366714 -0.389057 -0.51 98 64 52
0.367686 -0.389057 -0.51 97 63 51
0.368657 -0.389057 -0.51 98 64 52
0.369629 -0.389057 -0.51 99 65 53
0.371327 -0.38982 -0.511 99 65 53
0.3723 -0.38982 -0.511 100 66 54
0.373273 -0.38982 -0.511 102 68 56
0.374247 -0.38982 -0.511 103 69 57
0.37522 -0.38982 -0.511 106 70 58
0.376193 -0.38982 -0.511 104 68 56
0.377905 -0.390583 -0.512 104 68 56
0.37888 -0.390583 -0.512 104 68 56
0.379855 -0.390583 -0.512 105 69 57
0.381574 -0.391346 -0.513 105 69 57
0.382551 -0.391346 -0.513 105 69 57
0.383529 -0.391346 -0.513 105 69 57
0.384506 -0.391346 -0.513 105 69 57
0.385483 -0.391346 -0.513 104 68 56
0.38646 -0.391346 -0.513 104 68 56
0.387437 -0.391346 -0.513 106 68 57
0.388414 -0.391346 -0.513 105 67 56
0.389391 -0.391346 -0.513 105 67 56
0.390369 -0.391346 -0.513 106 68 57
0.391346 -0.391346 -0.513 106 68 57
0.392323 -0.391346 -0.513 106 68 57
0.392533 -0.390583 -0.512 104 71 62
0.393509 -0.390583 -0.512 104 71 62
0.394484 -0.390583 -0.512 108 72 60
0.395459 -0.390583 -0.512 107 71 59
0.396434 -0.390583 -0.512 108 70 57
0.39741 -0.390583 -0.512 111 73 60
0.397607 -0.38982 -0.511 114 74 62
0.39858 -0.38982 -0.511 113 73 61
0.398771 -0.389057 -0.51 122 79 63
0.399743 -0.389057 -0.51 123 80 64
0.399929 -0.388294 -0.509 128 81 63
0.40011 -0.387531 -0.508 131 84 66
0.401078 -0.387531 -0.508 132 84 64
0.402046 -0.387531 -0.508 130 82 62
0.403013 -0.387531 -0.508 128 80 60
0.403186 -0.386769 -0.507 129 81 61
0.404151 -0.386769 -0.507 135 84 63
0.405117 -0.386769 -0.507 136 85 64
0.406083 -0.386769 -0.507 137 87 64
0.406246 -0.386006 -0.506 140 90 67
0.40721 -0.386006 -0.506 146 96 73
0.408173 -0.386006 -0.506 149 99 76
0.409137 -0.386006 -0.506 149 97 75
0.410101 -0.386006 -0.506 147 95 73
0.411065 -0.386006 -0.506 146 94 72
0.412029 -0.386006 -0.506 149 97 75
0.412992 -0.386006 -0.506 153 101 79
0.413956 -0.386006 -0.506 151 99 77
0.41574 -0.386769 -0.507 156 102 78
0.416706 -0.386769 -0.507 154 100 76
0.417671 -0.386769 -0.507 154 100 76
0.418637 -0.386769 -0.507 156 102 78
0.419603 -0.386769 -0.507 156 102 78
0.420569 -0.386769 -0.507 159 105 79
0.421534 -0.386769 -0.507 161 107 81
0.4225 -0.386769 -0.507 163 109 83
0.423466 -0.386769 -0.507 162 108 82
0.424431 -0.386769 -0.507 160 106 80
0.425397 -0.386769 -0.507 163 109 83
0.426363 -0.386769 -0.507 165 113 89
0.428171 -0.387531 -0.508 166 114 90
0.429139 -0.387531 -0.508 164 112 88
0.430107 -0.387531 -0.508 171 119 95
0.431074 -0.387531 -0.508 169 117 93
0.432042 -0.387531 -0.508 167 115 91
0.43301 -0.387531 -0.508 168 116 92
0.433977 -0.387531 -0.508 169 117 93
0.434945 -0.387531 -0.508 173 121 99
0.435912 -0.387531 -0.508 170 118 96
0.43688 -0.387531 -0.508 172 120 96
0.43871 -0.388294 -0.509 171 119 95
0.439679 -0.388294 -0.509 172 120 96
0.440649 -0.388294 -0.509 173 121 97
0.441618 -0.388294 -0.509 175 121 97
0.442588 -0.388294 -0.509 173 119 95
0.443557 -0.388294 -0.509 172 120 96
0.444527 -0.388294 -0.509 175 123 99
0.445496 -0.388294 -0.509 175 125 102
0.446466 -0.388294 -0.509 175 125 102
0.447435 -0.388294 -0.509 172 124 101
0.448405 -0.388294 -0.509 170 122 99
0.450257 -0.389057 -0.51 167 119 96
0.451229 -0.389057 -0.51 167 119 96
0.4522 -0.389057 -0.51 171 121 98
0.453171 -0.389057 -0.51 171 123 100
0.455033 -0.38982 -0.511 167 125 100
0.456007 -0.38982 -0.511 164 122 97
0.457874 -0.390583 -0.512 165 119 93
0.45885 -0.390583 -0.512 165 119 93
0.460723 -0.391346 -0.513 168 118 93
0.4626 -0.392109 -0.514 166 116 91
0.464481 -0.392871 -0.515 164 117 91
0.46727 -0.394397 -0.517 164 117 91
0.470066 -0.395923 -0.519 164 119 96
0.473777 -0.398211 -0.522 164 119 96
0.4775 -0.4005 -0.525 160 119 97
0.481234 -0.402789 -0.528 160 119 97
0.48224 -0.402789 -0.528 160 119 97
0.485991 -0.405077 -0.531 154 121 102
0.490671 -0.408129 -0.535 158 125 106
0.495367 -0.41118 -0.539 173 147 132
0.518143 -0.425674 -0.558 220 215 212
0.521997 -0.427963 -0.561 209 216 226
0.52493 -0.429489 -0.563 208 215 225
1.00195 -0.441694 -0.579 205 207 193
1.00305 -0.441694 -0.579 205 207 193
1.00415 -0.441694 -0.579 205 207 193
0.0192048 -0.416795 -0.545 192 155 126
0.0201314 -0.414501 -0.542 192 155 126
0.0210857 -0.412971 -0.54 192 153 124
0.0219505 -0.409912 -0.536 191 152 123
0.0228 -0.406853 -0.532 196 152 123
0.023679 -0.404559 -0.529 198 154 125
0.0245467 -0.402265 -0.526 199 156 124
0.0254029 -0.39997 -0.523 199 156 124
0.0262981 -0.398441 -0.521 197 156 126
0.0271857 -0.396911 -0.519 197 156 126
0.02812 -0.396147 -0.518 198 157 127
0.0290505 -0.395382 -0.517 199 158 128
0.0300352 -0.395382 -0.517 200 159 129
0.03096 -0.394617 -0.516 201 160 130
0.0319429 -0.394617 -0.516 204 161 129
0.0328619 -0.393852 -0.515 204 161 129
0.0338429 -0.393852 -0.515 203 160 128
0.0348238 -0.393852 -0.515 202 159 127
0.0358048 -0.393852 -0.515 201 158 124
0.0367143 -0.393088 -0.514 201 158 124
0.0376933 -0.393088 -0.514 202 159 125
0.0386724 -0.393088 -0.514 202 159 125
0.0396514 -0.393088 -0.514 202 159 125
0.0405514 -0.392323 -0.513 203 160 126
0.0415286 -0.392323 -0.513 203 160 126
0.0425886 -0.393088 -0.514 203 160 126
0.0435676 -0.393088 -0.514 202 159 125
0.0445467 -0.393088 -0.514 200 157 123
0.0455257 -0.393088 -0.514 200 157 125
0.0464143 -0.392323 -0.513 200 157 125
0.0473914 -0.392323 -0.513 201 156 125
0.0483686 -0.392323 -0.513 200 155 124
0.0493457 -0.392323 -0.513 198 153 124
0.0503229 -0.392323 -0.513 194 149 120
0.0513 -0.392323 -0.513 195 148 120
0.0522771 -0.392323 -0.513 195 148 120
0.0532543 -0.392323 -0.513 195 148 122
0.0542314 -0.392323 -0.513 197 150 124
0.0552086 -0.392323 -0.513 197 147 122
0.0561857 -0.392323 -0.513 195 145 120
0.0572743 -0.393088 -0.514 193 143 120
0.0582533 -0.393088 -0.514 193 143 120
0.0592324 -0.393088 -0.514 191 141 118
0.0603286 -0.393852 -0.515 189 139 116
0.0613095 -0.393852 -0.515 188 138 115
0.0622905 -0.393852 -0.515 188 138 115
0.0632714 -0.393852 -0.515 188 138 115
0.0643771 -0.394617 -0.516 190 140 117
0.06536 -0.394617 -0.516 190 140 117
0.0663429 -0.394617 -0.516 189 139 116
0.0674562 -0.395382 -0.517 186 134 112
0.068441 -0.395382 -0.517 186 134 112
0.0694257 -0.395382 -0.517 188 136 114
0.0705467 -0.396147 -0.518 189 137 115
0.0716714 -0.396911 -0.519 190 138 116
0.07266 -0.396911 -0.519 189 137 115
0.0737905 -0.397676 -0.52 187 135 114
0.0747809 -0.397676 -0.52 187 135 114
0.0759171 -0.398441 -0.521 186 134 112
0.0770571 -0.399206 -0.522 186 134 112
0.078201 -0.39997 -0.523 184 134 111
0.0791971 -0.39997 -0.523 182 132 109
0.0803467 -0.400735 -0.524 177 129 107
0.0815 -0.4015 -0.525 176 128 106
0.0825 -0.4015 -0.525 173 126 108
0.0836591 -0.402265 -0.526 172 125 107
0.0848219 -0.40303 -0.527 168 122 109
0.0859886 -0.403794 -0.528 165 119 106
0.0873238 -0.405324 -0.53 160 116 107
0.0885 -0.406089 -0.531 157 113 104
0.08968 -0.406853 -0.532 155 110 105
0.0910343 -0.408383 -0.534 150 105 100
0.0923962 -0.409912 -0.536 145 106 99
0.0935914 -0.410677 -0.537 144 105 98
0.0949667 -0.412207 -0.539 138 105 100
0.0963495 -0.413736 -0.541 136 103 98
0.09774 -0.415266 -0.543 131 103 100
0.0991381 -0.416795 -0.545 129 101 98
0.100728 -0.41909 -0.548 124 98 97
0.102143 -0.420619 -0.55 123 97 96
0.304887 -0.421384 -0.551 165 114 113
0.302605 -0.416795 -0.545 176 120 119
0.299186 -0.410677 -0.537 176 120 119
0.296854 -0.406089 -0.531 170 121 116
0.295061 -0.402265 -0.526 174 125 120
0.293811 -0.399206 -0.522 177 121 122
0.293111 -0.396911 -0.519 176 120 121
0.292967 -0.395382 -0.517 175 116 118
0.293951 -0.395382 -0.517 171 112 114
0.294366 -0.394617 -0.516 166 111 108
0.294776 -0.393852 -0.515 162 107 104
0.295757 -0.393852 -0.515 161 104 95
0.296738 -0.393852 -0.515 160 103 94
0.297141 -0.393088 -0.514 159 103 102
0.29812 -0.393088 -0.514 155 99 98
0.299099 -0.393088 -0.514 148 94 92
0.300078 -0.393088 -0.514 146 92 90
0.301057 -0.393088 -0.514 144 93 90
0.302036 -0.393088 -0.514 142 91 88
0.302426 -0.392323 -0.513 140 89 88
0.303403 -0.392323 -0.513 141 90 89
0.30438 -0.392323 -0.513 143 92 91
0.305357 -0.392323 -0.513 142 91 90
0.306334 -0.392323 -0.513 137 87 88
0.307311 -0.392323 -0.513 132 82 83
0.308289 -0.392323 -0.513 129 81 81
0.309869 -0.393088 -0.514 129 81 81
0.310848 -0.393088 -0.514 124 76 76
0.311827 -0.393088 -0.514 119 71 71
0.312806 -0.393088 -0.514 117 68 74
0.314395 -0.393852 -0.515 115 66 72
0.315376 -0.393852 -0.515 110 61 67
0.316357 -0.393852 -0.515 110 61 67
0.317338 -0.393852 -0.515 110 61 67
0.318319 -0.393852 -0.515 117 68 74
0.3193 -0.393852 -0.515 121 72 78
0.320281 -0.393852 -0.515 115 68 74
0.321262 -0.393852 -0.515 112 65 71
0.322243 -0.393852 -0.515 108 62 65
0.323224 -0.393852 -0.515 107 61 64
0.323575 -0.393088 -0.514 110 63 69
0.324554 -0.393088 -0.514 112 65 71
0.325533 -0.393088 -0.514 118 71 77
0.326512 -0.393088 -0.514 122 75 81
0.327491 -0.393088 -0.514 128 83 86
0.32847 -0.393088 -0.514 127 82 85
0.32945 -0.393088 -0.514 133 89 86
0.331071 -0.393852 -0.515 140 96 93
0.332052 -0.393852 -0.515 141 97 94
0.333033 -0.393852 -0.515 135 91 88
0.334014 -0.393852 -0.515 132 88 85
0.335646 -0.394617 -0.516 131 87 84
0.336629 -0.394617 -0.516 125 84 78
0.337611 -0.394617 -0.516 122 81 75
0.338594 -0.394617 -0.516 117 78 71
0.338919 -0.393852 -0.515 114 75 68
0.3399 -0.393852 -0.515 113 74 67
0.340219 -0.393088 -0.514 113 74 67
0.340534 -0.392323 -0.513 111 74 65
0.340846 -0.391558 -0.512 110 73 64
0.341153 -0.390793 -0.511 108 74 64
0.340788 -0.389264 -0.509 107 73 63
0.341086 -0.388499 -0.508 109 72 63
0.342053 -0.388499 -0.508 107 70 61
0.342346 -0.387734 -0.507 107 69 60
0.342634 -0.38697 -0.506 107 69 60
0.343598 -0.38697 -0.506 106 68 59
0.344562 -0.38697 -0.506 106 68 59
0.344843 -0.386205 -0.505 104 66 57
0.345805 -0.386205 -0.505 102 66 54
0.34608 -0.38544 -0.504 101 65 53
0.34704 -0.38544 -0.504 102 66 54
0.348 -0.38544 -0.504 104 68 56
0.34896 -0.38544 -0.504 104 67 58
0.34992 -0.38544 -0.504 101 64 55
0.35088 -0.38544 -0.504 100 63 54
0.352538 -0.386205 -0.505 99 62 53
0.3535 -0.386205 -0.505 98 64 52
0.354462 -0.386205 -0.505 100 66 54
0.355424 -0.386205 -0.505 99 65 55
0.357091 -0.38697 -0.506 100 66 56
0.358763 -0.387734 -0.507 99 65 55
0.360438 -0.388499 -0.508 97 63 53
0.362117 -0.389264 -0.509 96 62 50
0.363087 -0.389264 -0.509 95 61 49
0.364771 -0.390029 -0.51 95 61 49
0.365743 -0.390029 -0.51 97 63 51
0.366714 -0.390029 -0.51 97 63 51
0.368407 -0.390793 -0.511 97 63 51
0.36938 -0.390793 -0.511 98 64 52
0.370353 -0.390793 -0.511 99 65 53
0.371327 -0.390793 -0.511 100 64 52
0.373029 -0.391558 -0.512 102 66 54
0.374004 -0.391558 -0.512 104 68 56
0.374979 -0.391558 -0.512 104 68 56
0.375954 -0.391558 -0.512 105 69 57
0.37693 -0.391558 -0.512 104 68 56
0.377905 -0.391558 -0.512 104 68 56
0.37962 -0.392323 -0.513 105 69 57
0.380597 -0.392323 -0.513 105 69 57
0.381574 -0.392323 -0.513 105 69 57
0.383297 -0.393088 -0.514 105 69 57
0.384276 -0.393088 -0.514 106 70 58
0.385255 -0.393088 -0.514 106 70 58
0.386234 -0.393088 -0.514 104 68 56
0.387213 -0.393088 -0.514 104 68 56
0.388192 -0.393088 -0.514 105 67 56
0.389171 -0.393088 -0.514 105 67 56
0.389391 -0.392323 -0.513 105 67 56
0.390369 -0.392323 -0.513 105 67 56
0.391346 -0.392323 -0.513 105 67 56
0.392323 -0.392323 -0.513 106 68 57
0.3933 -0.392323 -0.513 105 71 62
0.393509 -0.391558 -0.512 105 71 62
0.394484 -0.391558 -0.512 108 71 62
0.395459 -0.391558 -0.512 108 71 62
0.396434 -0.391558 -0.512 110 70 60
0.39741 -0.391558 -0.512 112 72 62
0.397607 -0.390793 -0.511 116 74 62
0.39858 -0.390793 -0.511 117 75 63
0.399553 -0.390793 -0.511 123 77 64
0.399743 -0.390029 -0.51 127 81 68
0.399929 -0.389264 -0.509 131 82 67
0.400898 -0.389264 -0.509 131 82 67
0.401078 -0.388499 -0.508 133 82 65
0.402046 -0.388499 -0.508 134 83 66
0.403013 -0.388499 -0.508 134 83 66
0.403186 -0.387734 -0.507 135 84 67
0.404151 -0.387734 -0.507 138 85 67
0.405117 -0.387734 -0.507 139 86 68
0.406083 -0.387734 -0.507 139 86 68
0.407049 -0.387734 -0.507 141 88 70
0.40721 -0.38697 -0.506 147 95 74
0.408173 -0.38697 -0.506 149 97 76
0.409137 -0.38697 -0.506 148 96 75
0.410101 -0.38697 -0.506 148 96 75
0.411065 -0.38697 -0.506 147 95 74
0.412029 -0.38697 -0.506 151 99 78
0.412992 -0.38697 -0.506 155 100 79
0.413956 -0.38697 -0.506 152 97 76
0.41574 -0.387734 -0.507 156 101 80
0.416706 -0.387734 -0.507 154 99 78
0.417671 -0.387734 -0.507 154 99 78
0.418637 -0.387734 -0.507 155 100 79
0.419603 -0.387734 -0.507 157 102 81
0.420569 -0.387734 -0.507 158 104 80
0.421534 -0.387734 -0.507 158 104 80
0.4225 -0.387734 -0.507 159 107 83
0.423466 -0.387734 -0.507 161 109 85
0.424431 -0.387734 -0.507 160 108 84
0.425397 -0.387734 -0.507 161 109 85
0.426363 -0.387734 -0.507 164 112 88
0.428171 -0.388499 -0.508 165 113 89
0.428294 -0.387734 -0.507 165 113 89
0.42926 -0.387734 -0.507 169 117 93
0.430226 -0.387734 -0.507 166 116 91
0.431191 -0.387734 -0.507 165 115 90
0.432157 -0.387734 -0.507 167 117 94
0.433977 -0.388499 -0.508 170 120 97
0.434945 -0.388499 -0.508 172 122 99
0.435912 -0.388499 -0.508 170 120 97
0.43688 -0.388499 -0.508 171 121 96
0.437848 -0.388499 -0.508 170 120 95
0.438815 -0.388499 -0.508 171 119 95
0.440649 -0.389264 -0.509 171 119 95
0.441618 -0.389264 -0.509 171 119 95
0.442588 -0.389264 -0.509 169 117 93
0.443557 -0.389264 -0.509 169 119 96
0.444527 -0.389264 -0.509 174 124 101
0.445496 -0.389264 -0.509 177 127 104
0.446466 -0.389264 -0.509 176 126 103
0.447435 -0.389264 -0.509 171 123 100
0.448405 -0.389264 -0.509 167 119 96
0.449374 -0.389264 -0.509 165 117 94
0.451229 -0.390029 -0.51 167 119 96
0.4522 -0.390029 -0.51 170 122 99
0.453171 -0.390029 -0.51 171 123 100
0.454143 -0.390029 -0.51 166 124 100
0.455114 -0.390029 -0.51 164 122 98
0.45698 -0.390793 -0.511 166 120 96
0.457953 -0.390793 -0.511 166 120 96
0.459825 -0.391558 -0.512 169 119 94
0.4617 -0.392323 -0.513 168 118 93
0.463579 -0.393088 -0.514 167 117 94
0.465462 -0.393852 -0.515 165 115 92
0.468254 -0.395382 -0.517 165 117 95
0.471962 -0.397676 -0.52 164 116 94
0.474771 -0.399206 -0.522 162 117 96
0.4785 -0.4015 -0.525 163 118 97
0.48224 -0.403794 -0.528 158 121 102
0.483246 -0.403794 -0.528 158 121 102
0.487003 -0.406089 -0.531 157 120 101
0.515357 -0.424443 -0.555 220 212 210
0.519206 -0.426737 -0.558 207 211 220
0.523066 -0.429031 -0.561 211 215 224
0.526003 -0.430561 -0.563 182 199 219
0.922149 -0.440503 -0.576 207 210 193
0.923246 -0.440503 -0.576 207 210 193
0.924343 -0.440503 -0.576 207 210 193
0.92544 -0.440503 -0.576 207 210 193
0.926537 -0.440503 -0.576 208 211 194
0.927634 -0.440503 -0.576 208 211 194
1.01849 -0.442797 -0.579 205 207 193
0.0171914 -0.419367 -0.547 184 154 120
0.0182 -0.4186 -0.546 182 152 118
0.0191343 -0.4163 -0.543 189 154 124
0.0200571 -0.414 -0.54 189 154 124
0.0209686 -0.4117 -0.537 191 151 125
0.0218276 -0.408633 -0.533 190 150 124
0.0226714 -0.405567 -0.529 194 150 123
0.0235895 -0.404033 -0.527 195 151 124
0.0244533 -0.401733 -0.524 197 153 126
0.0253057 -0.399433 -0.521 198 154 127
0.0262476 -0.398667 -0.52 201 157 128
0.0271333 -0.397133 -0.518 201 157 128
0.0280657 -0.396367 -0.517 202 158 129
0.0290505 -0.396367 -0.517 202 158 129
0.0299771 -0.3956 -0.516 203 160 128
0.0309 -0.394833 -0.515 204 161 129
0.031881 -0.394833 -0.515 204 161 129
0.0328619 -0.394833 -0.515 205 162 130
0.0337771 -0.394067 -0.514 203 160 128
0.0347562 -0.394067 -0.514 202 159 127
0.0357352 -0.394067 -0.514 202 157 124
0.0367143 -0.394067 -0.514 202 157 124
0.0376933 -0.394067 -0.514 202 157 124
0.0385971 -0.3933 -0.513 203 158 125
0.0395743 -0.3933 -0.513 203 158 125
0.0405514 -0.3933 -0.513 204 159 126
0.0415286 -0.3933 -0.513 202 159 125
0.0425057 -0.3933 -0.513 202 159 125
0.0434829 -0.3933 -0.513 201 158 124
0.04446 -0.3933 -0.513 199 156 122
0.0454371 -0.3933 -0.513 198 155 123
0.0464143 -0.3933 -0.513 199 156 124
0.047299 -0.392533 -0.512 201 156 125
0.0482743 -0.392533 -0.512 199 154 123
0.0492495 -0.392533 -0.512 198 151 123
0.0502248 -0.392533 -0.512 193 146 118
0.0512 -0.392533 -0.512 193 146 120
0.0522771 -0.3933 -0.513 194 147 121
0.0532543 -0.3933 -0.513 195 145 120
0.0542314 -0.3933 -0.513 198 148 123
0.0552086 -0.3933 -0.513 197 147 122
0.0561857 -0.3933 -0.513 195 145 120
0.0571629 -0.3933 -0.513 191 143 120
0.0582533 -0.394067 -0.514 189 141 118
0.0592324 -0.394067 -0.514 188 140 117
0.0602114 -0.394067 -0.514 187 139 116
0.0611905 -0.394067 -0.514 186 138 115
0.0622905 -0.394833 -0.515 187 139 116
0.0632714 -0.394833 -0.515 190 140 117
0.0642524 -0.394833 -0.515 189 139 116
0.06536 -0.3956 -0.516 189 139 116
0.0663429 -0.3956 -0.516 188 138 115
0.0674562 -0.396367 -0.517 187 137 112
0.068441 -0.396367 -0.517 188 138 113
0.0694257 -0.396367 -0.517 189 139 114
0.0705467 -0.397133 -0.518 188 138 113
0.0715333 -0.397133 -0.518 189 139 116
0.07266 -0.3979 -0.519 186 136 113
0.0736486 -0.3979 -0.519 184 133 112
0.0747809 -0.398667 -0.52 183 132 111
0.0759171 -0.399433 -0.521 184 134 111
0.0770571 -0.4002 -0.522 185 135 112
0.078201 -0.400967 -0.523 182 134 111
0.0791971 -0.400967 -0.523 179 131 108
0.0803467 -0.401733 -0.524 175 129 106
0.0815 -0.4025 -0.525 173 127 104
0.0825 -0.4025 -0.525 172 127 108
0.0836591 -0.403267 -0.526 172 127 108
0.0848219 -0.404033 -0.527 166 122 109
0.0859886 -0.4048 -0.528 163 119 106
0.0873238 -0.406333 -0.53 159 116 107
0.0885 -0.4071 -0.531 155 112 103
0.0898486 -0.408633 -0.533 151 108 102
0.0910343 -0.4094 -0.534 148 105 99
0.0923962 -0.410933 -0.536 144 106 103
0.0935914 -0.4117 -0.537 141 103 100
0.0949667 -0.413233 -0.539 132 102 100
0.0965276 -0.415533 -0.542 131 101 99
0.09792 -0.417067 -0.544 126 102 102
0.09932 -0.4186 -0.546 125 101 101
0.100728 -0.420133 -0.548 123 98 101
0.102143 -0.421667 -0.55 121 96 99
0.305993 -0.423967 -0.553 162 112 113
0.303715 -0.419367 -0.547 168 114 112
0.300857 -0.414 -0.54 170 116 114
0.297972 -0.408633 -0.533 172 123 118
0.296183 -0.4048 -0.528 172 123 118
0.294937 -0.401733 -0.524 175 121 119
0.294241 -0.399433 -0.521 173 119 117
0.2941 -0.3979 -0.519 171 115 116
0.293951 -0.396367 -0.517 168 112 113
0.294936 -0.396367 -0.517 162 109 105
0.295349 -0.3956 -0.516 158 105 101
0.296331 -0.3956 -0.516 157 102 95
0.296738 -0.394833 -0.515 159 104 97
0.297719 -0.394833 -0.515 160 104 103
0.29812 -0.394067 -0.514 153 97 96
0.299099 -0.394067 -0.514 146 92 90
0.300078 -0.394067 -0.514 146 92 90
0.301057 -0.394067 -0.514 148 94 94
0.302036 -0.394067 -0.514 147 93 93
0.303015 -0.394067 -0.514 144 93 92
0.303403 -0.3933 -0.513 146 95 94
0.30438 -0.3933 -0.513 147 95 97
0.305357 -0.3933 -0.513 146 94 96
0.306334 -0.3933 -0.513 141 91 92
0.307311 -0.3933 -0.513 137 87 88
0.308289 -0.3933 -0.513 134 85 88
0.309266 -0.3933 -0.513 133 84 87
0.310848 -0.394067 -0.514 128 79 82
0.311827 -0.394067 -0.514 124 75 78
0.312806 -0.394067 -0.514 121 72 76
0.313785 -0.394067 -0.514 119 70 74
0.314764 -0.394067 -0.514 115 66 72
0.315743 -0.394067 -0.514 117 68 74
0.316722 -0.394067 -0.514 117 68 74
0.317701 -0.394067 -0.514 123 74 78
0.31868 -0.394067 -0.514 123 74 78
0.319659 -0.394067 -0.514 117 71 74
0.320638 -0.394067 -0.514 115 69 72
0.321617 -0.394067 -0.514 114 68 71
0.322596 -0.394067 -0.514 112 66 69
0.322946 -0.3933 -0.513 113 67 70
0.323923 -0.3933 -0.513 115 69 72
0.3249 -0.3933 -0.513 119 73 76
0.325877 -0.3933 -0.513 122 76 79
0.326854 -0.3933 -0.513 130 84 87
0.327831 -0.3933 -0.513 129 83 86
0.328809 -0.3933 -0.513 130 86 83
0.330429 -0.394067 -0.514 135 91 88
0.331408 -0.394067 -0.514 143 98 95
0.333033 -0.394833 -0.515 143 98 95
0.334014 -0.394833 -0.515 135 91 88
0.334995 -0.394833 -0.515 131 87 84
0.336629 -0.3956 -0.516 127 86 82
0.337611 -0.3956 -0.516 124 83 79
0.338594 -0.3956 -0.516 121 80 76
0.339577 -0.3956 -0.516 117 76 72
0.3399 -0.394833 -0.515 116 77 70
0.340219 -0.394067 -0.514 116 77 70
0.341198 -0.394067 -0.514 114 75 68
0.341511 -0.3933 -0.513 112 73 66
0.341821 -0.392533 -0.512 111 74 66
0.342127 -0.391767 -0.511 110 73 65
0.342429 -0.391 -0.51 110 71 64
0.342727 -0.390233 -0.509 109 70 63
0.343021 -0.389467 -0.508 109 70 63
0.343989 -0.389467 -0.508 109 70 63
0.344277 -0.3887 -0.507 107 68 61
0.345243 -0.3887 -0.507 107 68 61
0.345526 -0.387933 -0.506 105 66 59
0.34649 -0.387933 -0.506 101 64 55
0.346767 -0.387167 -0.505 99 62 53
0.347729 -0.387167 -0.505 101 64 55
0.34869 -0.387167 -0.505 102 65 56
0.350345 -0.387933 -0.506 102 65 56
0.351309 -0.387933 -0.506 99 62 53
0.352272 -0.387933 -0.506 96 62 52
0.353236 -0.387933 -0.506 95 61 51
0.3542 -0.387933 -0.506 96 62 52
0.355164 -0.387933 -0.506 98 64 54
0.356831 -0.3887 -0.507 98 64 54
0.357797 -0.3887 -0.507 100 66 56
0.35947 -0.389467 -0.508 100 66 56
0.361148 -0.390233 -0.509 99 65 55
0.362829 -0.391 -0.51 96 62 52
0.3638 -0.391 -0.51 94 60 50
0.365487 -0.391767 -0.511 95 61 51
0.36646 -0.391767 -0.511 96 62 52
0.367433 -0.391767 -0.511 99 62 53
0.369128 -0.392533 -0.512 99 62 53
0.370103 -0.392533 -0.512 100 64 52
0.371078 -0.392533 -0.512 100 64 52
0.372053 -0.392533 -0.512 100 64 52
0.373029 -0.392533 -0.512 102 66 54
0.374004 -0.392533 -0.512 103 67 55
0.375711 -0.3933 -0.513 103 67 55
0.376689 -0.3933 -0.513 105 69 55
0.377666 -0.3933 -0.513 105 69 55
0.378643 -0.3933 -0.513 104 68 54
0.37962 -0.3933 -0.513 104 68 54
0.380597 -0.3933 -0.513 104 68 54
0.382318 -0.394067 -0.514 104 68 54
0.383297 -0.394067 -0.514 106 70 56
0.384276 -0.394067 -0.514 107 71 57
0.385255 -0.394067 -0.514 107 71 57
0.386234 -0.394067 -0.514 104 68 54
0.387213 -0.394067 -0.514 104 68 54
0.388192 -0.394067 -0.514 106 68 55
0.389171 -0.394067 -0.514 107 69 56
0.39015 -0.394067 -0.514 107 69 56
0.39113 -0.394067 -0.514 107 69 56
0.392109 -0.394067 -0.514 106 68 55
0.393088 -0.394067 -0.514 106 68 55
0.3933 -0.3933 -0.513 108 71 63
0.394277 -0.3933 -0.513 107 70 62
0.395254 -0.3933 -0.513 108 70 61
0.396231 -0.3933 -0.513 111 73 64
0.396434 -0.392533 -0.512 112 72 62
0.39741 -0.392533 -0.512 113 73 63
0.398385 -0.392533 -0.512 118 74 63
0.39858 -0.391767 -0.511 120 76 65
0.399553 -0.391767 -0.511 126 78 66
0.400527 -0.391767 -0.511 130 82 70
0.400714 -0.391 -0.51 135 83 69
0.400898 -0.390233 -0.509 134 82 68
0.401078 -0.389467 -0.508 135 82 66
0.402046 -0.389467 -0.508 137 84 68
0.403013 -0.389467 -0.508 140 84 69
0.403186 -0.3887 -0.507 140 84 69
0.404151 -0.3887 -0.507 141 85 68
0.405117 -0.3887 -0.507 143 87 70
0.406083 -0.3887 -0.507 143 87 70
0.407049 -0.3887 -0.507 145 89 72
0.408014 -0.3887 -0.507 149 94 74
0.40898 -0.3887 -0.507 150 95 75
0.409946 -0.3887 -0.507 149 94 74
0.410911 -0.3887 -0.507 150 95 75
0.411877 -0.3887 -0.507 151 96 76
0.412843 -0.3887 -0.507 155 100 80
0.413809 -0.3887 -0.507 155 100 79
0.414774 -0.3887 -0.507 150 95 74
0.41574 -0.3887 -0.507 155 100 79
0.416706 -0.3887 -0.507 154 99 78
0.417671 -0.3887 -0.507 157 102 81
0.418637 -0.3887 -0.507 157 102 81
0.419603 -0.3887 -0.507 159 104 83
0.420569 -0.3887 -0.507 157 105 81
0.421534 -0.3887 -0.507 154 102 78
0.4225 -0.3887 -0.507 156 104 80
0.423466 -0.3887 -0.507 160 108 84
0.424431 -0.3887 -0.507 160 108 84
0.425397 -0.3887 -0.507 161 109 85
0.426363 -0.3887 -0.507 164 112 88
0.428171 -0.389467 -0.508 165 113 89
0.428294 -0.3887 -0.507 165 113 89
0.42926 -0.3887 -0.507 167 115 91
0.430226 -0.3887 -0.507 165 115 90
0.431191 -0.3887 -0.507 164 114 89
0.432157 -0.3887 -0.507 167 117 94
0.433123 -0.3887 -0.507 171 121 98
0.434945 -0.389467 -0.508 172 122 99
0.435912 -0.389467 -0.508 171 121 98
0.43688 -0.389467 -0.508 174 122 98
0.437848 -0.389467 -0.508 174 122 98
0.438815 -0.389467 -0.508 171 121 96
0.439783 -0.389467 -0.508 171 121 96
0.44075 -0.389467 -0.508 170 120 97
0.441718 -0.389467 -0.508 167 117 94
0.442686 -0.389467 -0.508 167 117 94
0.443653 -0.389467 -0.508 172 122 99
0.444621 -0.389467 -0.508 177 127 104
0.446466 -0.390233 -0.509 176 126 103
0.447435 -0.390233 -0.509 173 123 100
0.448405 -0.390233 -0.509 168 118 95
0.449374 -0.390233 -0.509 164 116 93
0.450344 -0.390233 -0.509 167 119 96
0.451313 -0.390233 -0.509 170 122 99
0.452283 -0.390233 -0.509 169 121 98
0.453252 -0.390233 -0.509 166 121 98
0.455114 -0.391 -0.51 166 121 98
0.456086 -0.391 -0.51 167 121 97
0.457953 -0.391767 -0.511 167 121 97
0.458927 -0.391767 -0.511 170 120 95
0.4608 -0.392533 -0.512 169 119 94
0.462677 -0.3933 -0.513 167 117 94
0.464558 -0.394067 -0.514 165 115 92
0.466443 -0.394833 -0.515 166 115 94
0.470147 -0.397133 -0.518 168 117 96
0.472952 -0.398667 -0.52 166 119 99
0.475766 -0.4002 -0.522 162 115 95
0.4795 -0.4025 -0.525 161 119 97
0.4805 -0.4025 -0.525 161 119 97
0.484251 -0.4048 -0.528 162 120 98
0.507813 -0.420133 -0.548 212 201 199
0.512571 -0.4232 -0.552 219 208 206
0.516414 -0.4255 -0.555 211 211 219
0.520269 -0.4278 -0.558 211 211 219
0.5232 -0.429333 -0.56 187 200 217
0.526139 -0.430867 -0.562 168 181 198
0.923833 -0.440833 -0.575 207 210 193
0.924929 -0.440833 -0.575 207 210 193
0.926024 -0.440833 -0.575 207 210 193
1.00242 -0.443133 -0.578 205 208 191
1.00352 -0.443133 -0.578 206 209 192
0.0171286 -0.418871 -0.545 185 151 116
0.0181333 -0.418103 -0.544 186 152 117
0.0190286 -0.415029 -0.54 190 153 124
0.0199829 -0.413491 -0.538 189 152 123
0.0208514 -0.410417 -0.534 191 150 122
0.0217048 -0.407343 -0.53 190 149 121
0.0225857 -0.405037 -0.527 193 149 122
0.0234552 -0.402731 -0.524 194 150 123
0.02436 -0.401194 -0.522 196 152 125
0.0252571 -0.399657 -0.52 199 155 128
0.0261971 -0.398889 -0.519 201 158 126
0.027081 -0.397351 -0.517 202 159 127
0.0280114 -0.396583 -0.516 203 158 127
0.0289943 -0.396583 -0.516 204 159 128
0.029919 -0.395814 -0.515 205 160 129
0.0309 -0.395814 -0.515 206 161 130
0.031819 -0.395046 -0.514 205 162 130
0.0327981 -0.395046 -0.514 206 163 131
0.0337771 -0.395046 -0.514 205 160 129
0.0347562 -0.395046 -0.514 203 158 127
0.0357352 -0.395046 -0.514 202 156 123
0.0366429 -0.394277 -0.513 201 155 122
0.03762 -0.394277 -0.513 203 157 124
0.0385971 -0.394277 -0.513 204 158 125
0.0395743 -0.394277 -0.513 204 159 126
0.0405514 -0.394277 -0.513 204 159 126
0.0415286 -0.394277 -0.513 201 156 125
0.0425057 -0.394277 -0.513 201 158 124
0.0434829 -0.394277 -0.513 200 157 125
0.04446 -0.394277 -0.513 197 154 122
0.0454371 -0.394277 -0.513 198 153 122
0.0463238 -0.393509 -0.512 200 155 124
0.047299 -0.393509 -0.512 200 155 124
0.0482743 -0.393509 -0.512 198 153 122
0.0492495 -0.393509 -0.512 195 148 120
0.0502248 -0.393509 -0.512 191 144 116
0.0512 -0.393509 -0.512 194 147 121
0.0521752 -0.393509 -0.512 195 148 122
0.0532543 -0.394277 -0.513 195 145 120
0.0542314 -0.394277 -0.513 196 146 121
0.0552086 -0.394277 -0.513 196 146 121
0.0561857 -0.394277 -0.513 193 143 118
0.0571629 -0.394277 -0.513 191 144 118
0.05814 -0.394277 -0.513 188 141 115
0.0592324 -0.395046 -0.514 188 141 115
0.0602114 -0.395046 -0.514 188 141 115
0.0611905 -0.395046 -0.514 187 140 114
0.0621695 -0.395046 -0.514 188 141 115
0.0632714 -0.395814 -0.515 188 141 115
0.0642524 -0.395814 -0.515 186 139 113
0.0652333 -0.395814 -0.515 188 138 113
0.0663429 -0.396583 -0.516 187 137 112
0.0673257 -0.396583 -0.516 185 138 112
0.068441 -0.397351 -0.517 186 139 113
0.0694257 -0.397351 -0.517 187 140 114
0.0705467 -0.39812 -0.518 186 139 113
0.0715333 -0.39812 -0.518 187 137 114
0.07266 -0.398889 -0.519 184 134 111
0.0736486 -0.398889 -0.519 182 131 110
0.0747809 -0.399657 -0.52 182 131 110
0.0759171 -0.400426 -0.521 181 133 110
0.0770571 -0.401194 -0.522 182 134 111
0.078201 -0.401963 -0.523 180 134 110
0.0791971 -0.401963 -0.523 178 132 108
0.0803467 -0.402731 -0.524 175 130 107
0.0813448 -0.402731 -0.524 173 128 105
0.0825 -0.4035 -0.525 171 129 107
0.0836591 -0.404269 -0.526 171 129 107
0.0848219 -0.405037 -0.527 164 122 106
0.0859886 -0.405806 -0.528 160 118 102
0.0873238 -0.407343 -0.53 159 117 105
0.0885 -0.408111 -0.531 153 111 99
0.0898486 -0.409649 -0.533 147 107 99
0.0912048 -0.411186 -0.535 145 105 97
0.0923962 -0.411954 -0.536 139 105 103
0.0937657 -0.413491 -0.538 136 102 100
0.0951429 -0.415029 -0.54 130 102 101
0.0965276 -0.416566 -0.542 128 100 99
0.09792 -0.418103 -0.544 122 100 102
0.0995019 -0.420409 -0.547 121 99 101
0.100911 -0.421946 -0.549 120 98 100
0.3071 -0.426557 -0.555 158 112 112
0.304826 -0.421946 -0.549 161 108 104
0.302529 -0.417334 -0.543 166 113 109
0.29965 -0.411954 -0.536 172 123 116
0.297305 -0.407343 -0.53 173 124 117
0.296063 -0.404269 -0.526 173 120 116
0.29537 -0.401963 -0.523 174 121 117
0.294667 -0.399657 -0.52 171 115 114
0.295089 -0.398889 -0.519 166 110 109
0.295507 -0.39812 -0.518 161 108 104
0.295921 -0.397351 -0.517 158 105 101
0.296331 -0.396583 -0.516 158 103 96
0.297314 -0.396583 -0.516 160 105 98
0.297719 -0.395814 -0.515 160 104 103
0.2987 -0.395814 -0.515 153 97 96
0.299681 -0.395814 -0.515 147 91 90
0.300078 -0.395046 -0.514 150 94 93
0.301057 -0.395046 -0.514 152 98 98
0.302036 -0.395046 -0.514 152 98 98
0.303015 -0.395046 -0.514 151 97 97
0.303994 -0.395046 -0.514 153 99 99
0.30438 -0.394277 -0.513 147 95 97
0.305357 -0.394277 -0.513 147 95 97
0.306334 -0.394277 -0.513 144 94 95
0.307311 -0.394277 -0.513 141 91 92
0.308289 -0.394277 -0.513 138 88 91
0.309266 -0.394277 -0.513 136 86 89
0.310848 -0.395046 -0.514 133 83 86
0.311827 -0.395046 -0.514 130 80 83
0.312806 -0.395046 -0.514 124 78 80
0.313785 -0.395046 -0.514 121 75 77
0.314764 -0.395046 -0.514 120 74 76
0.315129 -0.394277 -0.513 123 77 79
0.316106 -0.394277 -0.513 123 77 79
0.317083 -0.394277 -0.513 126 80 82
0.31806 -0.394277 -0.513 125 79 81
0.319037 -0.394277 -0.513 121 75 77
0.320014 -0.394277 -0.513 119 73 75
0.320991 -0.394277 -0.513 122 76 78
0.321969 -0.394277 -0.513 121 75 77
0.322946 -0.394277 -0.513 119 73 75
0.323923 -0.394277 -0.513 119 73 75
0.324267 -0.393509 -0.512 121 75 77
0.325242 -0.393509 -0.512 121 75 77
0.326217 -0.393509 -0.512 132 86 86
0.327192 -0.393509 -0.512 134 88 88
0.328809 -0.394277 -0.513 133 88 85
0.329786 -0.394277 -0.513 130 85 82
0.331408 -0.395046 -0.514 138 93 90
0.332387 -0.395046 -0.514 147 102 99
0.334014 -0.395814 -0.515 140 96 93
0.334995 -0.395814 -0.515 130 86 83
0.336629 -0.396583 -0.516 128 84 81
0.337611 -0.396583 -0.516 128 84 81
0.338594 -0.396583 -0.516 122 81 77
0.339577 -0.396583 -0.516 118 77 73
0.34056 -0.396583 -0.516 117 76 72
0.340881 -0.395814 -0.515 118 77 73
0.341198 -0.395046 -0.514 116 75 71
0.342177 -0.395046 -0.514 115 74 70
0.342489 -0.394277 -0.513 114 75 70
0.342796 -0.393509 -0.512 112 73 68
0.3431 -0.39274 -0.511 112 73 66
0.3434 -0.391971 -0.51 111 72 65
0.344371 -0.391971 -0.51 109 70 63
0.344666 -0.391203 -0.509 108 69 62
0.345635 -0.391203 -0.509 106 69 61
0.346605 -0.391203 -0.509 106 69 61
0.346891 -0.390434 -0.508 105 68 60
0.347174 -0.389666 -0.507 102 65 56
0.34814 -0.389666 -0.507 99 62 53
0.349106 -0.389666 -0.507 98 64 54
0.350071 -0.389666 -0.507 98 64 54
0.351037 -0.389666 -0.507 97 63 53
0.352003 -0.389666 -0.507 96 62 52
0.352969 -0.389666 -0.507 95 61 51
0.353934 -0.389666 -0.507 96 62 52
0.3549 -0.389666 -0.507 95 63 50
0.356568 -0.390434 -0.508 96 64 51
0.357535 -0.390434 -0.508 95 63 52
0.359209 -0.391203 -0.509 97 65 54
0.360178 -0.391203 -0.509 98 66 55
0.361857 -0.391971 -0.51 97 65 54
0.36354 -0.39274 -0.511 96 62 52
0.364513 -0.39274 -0.511 95 61 51
0.365487 -0.39274 -0.511 96 62 52
0.367177 -0.393509 -0.512 97 63 53
0.368152 -0.393509 -0.512 99 65 53
0.369128 -0.393509 -0.512 98 64 52
0.370826 -0.394277 -0.513 100 64 52
0.371803 -0.394277 -0.513 100 64 52
0.37278 -0.394277 -0.513 101 65 53
0.373757 -0.394277 -0.513 103 67 55
0.374734 -0.394277 -0.513 104 68 56
0.375711 -0.394277 -0.513 103 67 55
0.377423 -0.395046 -0.514 102 69 54
0.378402 -0.395046 -0.514 102 69 54
0.379381 -0.395046 -0.514 104 68 54
0.38036 -0.395046 -0.514 103 67 53
0.381339 -0.395046 -0.514 103 67 53
0.382318 -0.395046 -0.514 103 67 53
0.384043 -0.395814 -0.515 105 69 55
0.385024 -0.395814 -0.515 106 70 56
0.386005 -0.395814 -0.515 106 70 56
0.386986 -0.395814 -0.515 104 68 54
0.387967 -0.395814 -0.515 104 68 54
0.388948 -0.395814 -0.515 106 68 55
0.389929 -0.395814 -0.515 107 69 56
0.39091 -0.395814 -0.515 108 70 57
0.39189 -0.395814 -0.515 107 69 56
0.392871 -0.395814 -0.515 107 69 56
0.393088 -0.395046 -0.514 108 70 57
0.394067 -0.395046 -0.514 109 72 63
0.395046 -0.395046 -0.514 106 69 60
0.395254 -0.394277 -0.513 108 70 59
0.396231 -0.394277 -0.513 112 74 63
0.397209 -0.394277 -0.513 118 76 64
0.39741 -0.393509 -0.512 118 76 64
0.398385 -0.393509 -0.512 120 76 63
0.39936 -0.393509 -0.512 123 79 66
0.399553 -0.39274 -0.511 130 82 68
0.400527 -0.39274 -0.511 131 83 69
0.400714 -0.391971 -0.51 135 83 69
0.400898 -0.391203 -0.509 136 84 70
0.401868 -0.391203 -0.509 139 83 68
0.402046 -0.390434 -0.508 140 84 69
0.403013 -0.390434 -0.508 142 84 70
0.403981 -0.390434 -0.508 143 85 71
0.404151 -0.389666 -0.507 142 87 67
0.405117 -0.389666 -0.507 143 88 68
0.406083 -0.389666 -0.507 144 89 69
0.407049 -0.389666 -0.507 147 92 72
0.408014 -0.389666 -0.507 149 94 73
0.40898 -0.389666 -0.507 150 95 74
0.409946 -0.389666 -0.507 150 95 74
0.410911 -0.389666 -0.507 151 96 75
0.411065 -0.388897 -0.506 151 97 73
0.412029 -0.388897 -0.506 155 101 77
0.413809 -0.389666 -0.507 155 101 75
0.414774 -0.389666 -0.507 150 96 70
0.41574 -0.389666 -0.507 154 100 74
0.416706 -0.389666 -0.507 154 100 74
0.417671 -0.389666 -0.507 157 103 77
0.418637 -0.389666 -0.507 157 103 77
0.419603 -0.389666 -0.507 159 105 79
0.420569 -0.389666 -0.507 157 103 79
0.421534 -0.389666 -0.507 156 102 78
0.4225 -0.389666 -0.507 158 104 80
0.423466 -0.389666 -0.507 160 106 82
0.424431 -0.389666 -0.507 159 107 83
0.425397 -0.389666 -0.507 161 109 85
0.426363 -0.389666 -0.507 164 112 88
0.427329 -0.389666 -0.507 165 113 89
0.428294 -0.389666 -0.507 165 113 89
0.42926 -0.389666 -0.507 166 114 90
0.430226 -0.389666 -0.507 167 115 91
0.431191 -0.389666 -0.507 166 114 90
0.432157 -0.389666 -0.507 168 118 93
0.433123 -0.389666 -0.507 172 122 97
0.434089 -0.389666 -0.507 172 122 97
0.435912 -0.390434 -0.508 173 123 98
0.43688 -0.390434 -0.508 173 121 97
0.437848 -0.390434 -0.508 173 121 97
0.438815 -0.390434 -0.508 171 121 96
0.439783 -0.390434 -0.508 173 123 98
0.44075 -0.390434 -0.508 171 124 98
0.441718 -0.390434 -0.508 170 123 97
0.442686 -0.390434 -0.508 172 122 97
0.443653 -0.390434 -0.508 175 125 100
0.444621 -0.390434 -0.508 175 125 100
0.445589 -0.390434 -0.508 176 126 101
0.447435 -0.391203 -0.509 174 122 100
0.448405 -0.391203 -0.509 169 117 95
0.449374 -0.391203 -0.509 166 116 93
0.450344 -0.391203 -0.509 169 119 96
0.451313 -0.391203 -0.509 169 121 98
0.452283 -0.391203 -0.509 169 121 98
0.453252 -0.391203 -0.509 167 121 98
0.454222 -0.391203 -0.509 167 121 98
0.455191 -0.391203 -0.509 167 121 97
0.457057 -0.391971 -0.51 168 122 98
0.458029 -0.391971 -0.51 170 122 99
0.4599 -0.39274 -0.511 170 122 99
0.460873 -0.39274 -0.511 169 118 97
0.46275 -0.393509 -0.512 166 115 94
0.465537 -0.395046 -0.514 166 115 94
0.467424 -0.395814 -0.515 168 117 96
0.471133 -0.39812 -0.518 168 120 100
0.473031 -0.398889 -0.519 162 114 94
0.47676 -0.401194 -0.522 160 114 91
0.4805 -0.4035 -0.525 165 119 96
0.4815 -0.4035 -0.525 165 119 96
0.521331 -0.428863 -0.558 191 199 212
0.524267 -0.4304 -0.56 181 189 202
0.52721 -0.431937 -0.562 158 178 202
0.921643 -0.441929 -0.575 206 209 192
0.922738 -0.441929 -0.575 206 209 192
0.923833 -0.441929 -0.575 206 209 192
0.924929 -0.441929 -0.575 207 210 193
0.926024 -0.441929 -0.575 207 210 193
0.927119 -0.441929 -0.575 207 210 193
0.928214 -0.441929 -0.575 206 209 192
0.92931 -0.441929 -0.575 208 211 194
0.985296 -0.443466 -0.577 205 207 193
0.986395 -0.443466 -0.577 205 207 193
0.987494 -0.443466 -0.577 205 207 193
0.988593 -0.443466 -0.577 205 207 193
0.989692 -0.443466 -0.577 205 207 193
0.997386 -0.443466 -0.577 204 206 192
0.998485 -0.443466 -0.577 205 208 191
0.999584 -0.443466 -0.577 205 208 191
1.00068 -0.443466 -0.577 204 207 190
0.0160905 -0.41991 -0.545 188 154 117
0.0170971 -0.419139 -0.544 185 149 113
0.0180333 -0.416828 -0.541 185 149 113
0.0189581 -0.414516 -0.538 192 153 122
0.0198714 -0.412205 -0.535 191 152 121
0.0207343 -0.409123 -0.531 191 147 120
0.0215819 -0.406041 -0.527 190 146 119
0.0224571 -0.40373 -0.524 193 147 121
0.0233657 -0.402189 -0.522 194 148 122
0.0242667 -0.400648 -0.52 196 152 127
0.02516 -0.399107 -0.518 199 155 130
0.0260962 -0.398336 -0.517 199 158 126
0.0270286 -0.397566 -0.516 199 158 126
0.0280114 -0.397566 -0.516 202 159 127
0.0289381 -0.396795 -0.515 203 160 128
0.029861 -0.396025 -0.514 204 161 129
0.03084 -0.396025 -0.514 206 163 131
0.0317571 -0.395254 -0.513 207 164 132
0.0327343 -0.395254 -0.513 207 164 132
0.0337114 -0.395254 -0.513 206 163 131
0.0346886 -0.395254 -0.513 203 160 128
0.0356657 -0.395254 -0.513 200 155 124
0.0366429 -0.395254 -0.513 199 154 123
0.03762 -0.395254 -0.513 202 157 124
0.0385219 -0.394484 -0.512 204 159 126
0.0394971 -0.394484 -0.512 205 160 127
0.0404724 -0.394484 -0.512 203 158 125
0.0414476 -0.394484 -0.512 202 155 127
0.0424229 -0.394484 -0.512 202 157 126
0.0433981 -0.394484 -0.512 200 155 126
0.0443733 -0.394484 -0.512 196 151 122
0.0453486 -0.394484 -0.512 197 150 122
0.0463238 -0.394484 -0.512 199 152 124
0.047299 -0.394484 -0.512 199 152 124
0.0482743 -0.394484 -0.512 197 150 122
0.0492495 -0.394484 -0.512 192 145 117
0.0502248 -0.394484 -0.512 189 142 114
0.0512 -0.394484 -0.512 195 145 120
0.0521752 -0.394484 -0.512 197 147 122
0.0531505 -0.394484 -0.512 195 145 120
0.0541257 -0.394484 -0.512 196 146 121
0.055101 -0.394484 -0.512 195 145 120
0.0560762 -0.394484 -0.512 192 142 117
0.0571629 -0.395254 -0.513 191 144 118
0.05814 -0.395254 -0.513 190 143 117
0.0591171 -0.395254 -0.513 190 143 117
0.0600943 -0.395254 -0.513 191 144 118
0.0611905 -0.396025 -0.514 189 142 116
0.0621695 -0.396025 -0.514 188 141 115
0.0631486 -0.396025 -0.514 189 139 116
0.0642524 -0.396795 -0.515 188 138 115
0.0652333 -0.396795 -0.515 188 138 115
0.0663429 -0.397566 -0.516 188 138 115
0.0673257 -0.397566 -0.516 185 138 112
0.068441 -0.398336 -0.517 186 139 113
0.0694257 -0.398336 -0.517 186 138 115
0.0705467 -0.399107 -0.518 184 136 113
0.0715333 -0.399107 -0.518 185 135 112
0.07266 -0.399877 -0.519 183 133 110
0.0736486 -0.399877 -0.519 183 132 111
0.0747809 -0.400648 -0.52 182 131 110
0.0759171 -0.401418 -0.521 181 133 111
0.0770571 -0.402189 -0.522 181 133 111
0.078201 -0.402959 -0.523 178 132 108
0.0791971 -0.402959 -0.523 176 130 106
0.0803467 -0.40373 -0.524 175 130 107
0.0813448 -0.40373 -0.524 174 129 106
0.0826571 -0.40527 -0.526 170 128 106
0.0838181 -0.406041 -0.527 168 126 104
0.0849829 -0.406811 -0.528 162 121 103
0.0861514 -0.407582 -0.529 159 118 100
0.0873238 -0.408352 -0.53 157 115 103
0.0886667 -0.409893 -0.532 152 110 98
0.0898486 -0.410664 -0.533 146 106 96
0.0912048 -0.412205 -0.535 145 105 95
0.0925686 -0.413746 -0.537 138 104 102
0.0937657 -0.414516 -0.538 136 102 100
0.095319 -0.416828 -0.541 130 101 103
0.0967057 -0.418369 -0.543 128 99 101
0.0981 -0.41991 -0.545 122 100 102
0.0995019 -0.42145 -0.547 121 99 101
0.3071 -0.427614 -0.555 155 111 110
0.305936 -0.424532 -0.551 162 112 105
0.303643 -0.41991 -0.545 165 115 108
0.301327 -0.415287 -0.539 168 118 109
0.298988 -0.410664 -0.533 177 127 118
0.297189 -0.406811 -0.528 176 121 116
0.2965 -0.4045 -0.525 177 122 117
0.2958 -0.402189 -0.522 173 115 113
0.295657 -0.400648 -0.52 166 108 106
0.296077 -0.399877 -0.519 162 109 105
0.296493 -0.399107 -0.518 161 108 104
0.296906 -0.398336 -0.517 160 105 100
0.297314 -0.397566 -0.516 160 105 100
0.298297 -0.397566 -0.516 163 105 103
0.29928 -0.397566 -0.516 157 99 97
0.299681 -0.396795 -0.515 155 97 96
0.300662 -0.396795 -0.515 157 99 98
0.301643 -0.396795 -0.515 155 99 98
0.302624 -0.396795 -0.515 154 98 97
0.303605 -0.396795 -0.515 152 98 98
0.303994 -0.396025 -0.514 153 99 99
0.304973 -0.396025 -0.514 151 97 97
0.305952 -0.396025 -0.514 152 98 98
0.306931 -0.396025 -0.514 149 97 99
0.30791 -0.396025 -0.514 146 94 96
0.30889 -0.396025 -0.514 142 90 92
0.309869 -0.396025 -0.514 139 87 89
0.310848 -0.396025 -0.514 136 86 87
0.311827 -0.396025 -0.514 135 85 86
0.312806 -0.396025 -0.514 132 83 86
0.313785 -0.396025 -0.514 129 80 83
0.314151 -0.395254 -0.513 128 82 84
0.315129 -0.395254 -0.513 132 86 88
0.316106 -0.395254 -0.513 132 86 88
0.317083 -0.395254 -0.513 134 88 90
0.31806 -0.395254 -0.513 131 85 87
0.319037 -0.395254 -0.513 129 83 85
0.320014 -0.395254 -0.513 127 81 83
0.320366 -0.394484 -0.512 127 81 83
0.321341 -0.394484 -0.512 128 82 84
0.322316 -0.394484 -0.512 125 79 79
0.323291 -0.394484 -0.512 124 78 78
0.324267 -0.394484 -0.512 126 80 80
0.325242 -0.394484 -0.512 123 77 77
0.326217 -0.394484 -0.512 132 86 86
0.327192 -0.394484 -0.512 136 90 90
0.328168 -0.394484 -0.512 139 91 89
0.329143 -0.394484 -0.512 131 83 81
0.330763 -0.395254 -0.513 133 88 85
0.332387 -0.396025 -0.514 143 98 95
0.333366 -0.396025 -0.514 141 96 93
0.334995 -0.396795 -0.515 134 89 86
0.336629 -0.397566 -0.516 131 86 83
0.337611 -0.397566 -0.516 131 86 83
0.338594 -0.397566 -0.516 127 83 80
0.339577 -0.397566 -0.516 120 76 73
0.34056 -0.397566 -0.516 119 75 72
0.341543 -0.397566 -0.516 120 76 73
0.341862 -0.396795 -0.515 117 76 72
0.342843 -0.396795 -0.515 117 76 72
0.343156 -0.396025 -0.514 117 76 72
0.343466 -0.395254 -0.513 115 74 70
0.343771 -0.394484 -0.512 116 77 70
0.344073 -0.393713 -0.511 113 74 67
0.345047 -0.393713 -0.511 108 71 63
0.34602 -0.393713 -0.511 104 67 59
0.346314 -0.392943 -0.51 104 67 59
0.347286 -0.392943 -0.51 104 67 59
0.347574 -0.392172 -0.509 104 67 59
0.347859 -0.391402 -0.508 103 66 58
0.348827 -0.391402 -0.508 101 64 56
0.349794 -0.391402 -0.508 99 65 55
0.350762 -0.391402 -0.508 97 63 53
0.35173 -0.391402 -0.508 95 61 51
0.352697 -0.391402 -0.508 95 61 51
0.354361 -0.392172 -0.509 95 63 52
0.35533 -0.392172 -0.509 96 64 53
0.3563 -0.392172 -0.509 97 65 54
0.35727 -0.392172 -0.509 97 65 54
0.358239 -0.392172 -0.509 95 63 50
0.359914 -0.392943 -0.51 95 63 50
0.361593 -0.393713 -0.511 95 63 50
0.362567 -0.393713 -0.511 95 63 50
0.364251 -0.394484 -0.512 95 63 50
0.365227 -0.394484 -0.512 95 63 50
0.366917 -0.395254 -0.513 96 64 51
0.367894 -0.395254 -0.513 96 64 51
0.368871 -0.395254 -0.513 99 65 53
0.369849 -0.395254 -0.513 99 65 53
0.370826 -0.395254 -0.513 99 65 53
0.372528 -0.396025 -0.514 98 64 52
0.373507 -0.396025 -0.514 100 66 54
0.374486 -0.396025 -0.514 101 67 55
0.375465 -0.396025 -0.514 102 68 56
0.376444 -0.396025 -0.514 102 68 56
0.377423 -0.396025 -0.514 101 67 55
0.378402 -0.396025 -0.514 101 67 55
0.380119 -0.396795 -0.515 101 67 55
0.3811 -0.396795 -0.515 101 67 55
0.382081 -0.396795 -0.515 103 67 55
0.383062 -0.396795 -0.515 104 68 56
0.384043 -0.396795 -0.515 104 68 56
0.385024 -0.396795 -0.515 104 68 56
0.386005 -0.396795 -0.515 103 67 55
0.386986 -0.396795 -0.515 103 67 55
0.387967 -0.396795 -0.515 103 67 55
0.388948 -0.396795 -0.515 103 67 55
0.389929 -0.396795 -0.515 104 68 56
0.39091 -0.396795 -0.515 106 68 57
0.39189 -0.396795 -0.515 106 68 57
0.392871 -0.396795 -0.515 108 70 59
0.393852 -0.396795 -0.515 109 71 60
0.394833 -0.396795 -0.515 108 72 58
0.395046 -0.396025 -0.514 106 70 56
0.396025 -0.396025 -0.514 109 71 58
0.396231 -0.395254 -0.513 114 76 63
0.397209 -0.395254 -0.513 117 78 63
0.398186 -0.395254 -0.513 116 77 62
0.398385 -0.394484 -0.512 121 78 62
0.39936 -0.394484 -0.512 125 82 66
0.399553 -0.393713 -0.511 133 86 70
0.400527 -0.393713 -0.511 131 84 68
0.400714 -0.392943 -0.51 135 84 67
0.401686 -0.392943 -0.51 136 85 68
0.401868 -0.392172 -0.509 139 83 66
0.402837 -0.392172 -0.509 139 83 66
0.403013 -0.391402 -0.508 142 85 66
0.403981 -0.391402 -0.508 145 88 69
0.404151 -0.390631 -0.507 145 90 69
0.405117 -0.390631 -0.507 144 89 68
0.406083 -0.390631 -0.507 144 92 70
0.407049 -0.390631 -0.507 146 94 72
0.408014 -0.390631 -0.507 146 94 70
0.40898 -0.390631 -0.507 147 95 71
0.409946 -0.390631 -0.507 149 97 73
0.410911 -0.390631 -0.507 151 99 75
0.411065 -0.389861 -0.506 149 98 71
0.412029 -0.389861 -0.506 151 100 73
0.413809 -0.390631 -0.507 151 100 73
0.414774 -0.390631 -0.507 148 97 70
0.41574 -0.390631 -0.507 152 101 72
0.416706 -0.390631 -0.507 150 99 70
0.416848 -0.389861 -0.506 150 99 70
0.417811 -0.389861 -0.506 150 99 70
0.418775 -0.389861 -0.506 150 99 70
0.419739 -0.389861 -0.506 152 98 74
0.420703 -0.389861 -0.506 155 101 77
0.421667 -0.389861 -0.506 157 103 79
0.42263 -0.389861 -0.506 157 103 79
0.423594 -0.389861 -0.506 160 106 82
0.424558 -0.389861 -0.506 164 110 86
0.426363 -0.390631 -0.507 167 113 89
0.427329 -0.390631 -0.507 168 114 90
0.428294 -0.390631 -0.507 165 113 89
0.42926 -0.390631 -0.507 165 113 89
0.429377 -0.389861 -0.506 167 115 91
0.430341 -0.389861 -0.506 168 116 92
0.431305 -0.389861 -0.506 171 119 95
0.432269 -0.389861 -0.506 174 122 98
0.434089 -0.390631 -0.507 175 123 99
0.435054 -0.390631 -0.507 176 124 100
0.43602 -0.390631 -0.507 177 126 99
0.436986 -0.390631 -0.507 174 123 96
0.437951 -0.390631 -0.507 174 123 96
0.438917 -0.390631 -0.507 176 125 98
0.439883 -0.390631 -0.507 175 125 98
0.440849 -0.390631 -0.507 175 125 98
0.441814 -0.390631 -0.507 176 126 101
0.44278 -0.390631 -0.507 177 127 102
0.444621 -0.391402 -0.508 175 123 99
0.445589 -0.391402 -0.508 177 125 101
0.446556 -0.391402 -0.508 175 123 99
0.447524 -0.391402 -0.508 170 118 94
0.448491 -0.391402 -0.508 167 117 92
0.449459 -0.391402 -0.508 169 119 94
0.451313 -0.392172 -0.509 170 120 95
0.452283 -0.392172 -0.509 170 120 95
0.452362 -0.391402 -0.508 169 122 96
0.45333 -0.391402 -0.508 169 122 96
0.455191 -0.392172 -0.509 169 121 98
0.456161 -0.392172 -0.509 170 122 99
0.45713 -0.392172 -0.509 172 124 102
0.459 -0.392943 -0.51 172 124 102
0.459971 -0.392943 -0.51 172 121 100
0.461847 -0.393713 -0.511 168 117 96
0.463726 -0.394484 -0.512 166 115 94
0.466516 -0.396025 -0.514 166 115 94
0.468405 -0.396795 -0.515 167 119 97
0.471209 -0.398336 -0.517 164 116 94
0.47402 -0.399877 -0.519 160 114 90
0.477754 -0.402189 -0.522 162 116 92
0.518529 -0.427614 -0.555 196 200 209
0.522394 -0.429926 -0.558 180 184 193
0.525333 -0.431467 -0.56 171 188 208
0.52734 -0.432237 -0.561 161 178 198
0.981394 -0.443794 -0.576 205 207 194
0.982491 -0.443794 -0.576 206 208 195
0.983589 -0.443794 -0.576 206 208 195
0.984686 -0.443794 -0.576 206 208 195
0.985783 -0.443794 -0.576 205 207 194
0.98688 -0.443794 -0.576 204 206 193
1.00178 -0.444565 -0.577 204 206 192
