ply
format ascii 1.0
comment Created by Open3D
element vertex 1297
property double x
property double y
property double z
property uchar red
property uchar green
property uchar blue
end_header
0.43878 -0.308546 -0.639 226 217 234
0.437243 -0.306614 -0.635 233 226 242
0.442743 -0.301303 -0.624 197 205 244
0.446777 -0.303234 -0.628 189 197 236
0.450827 -0.305166 -0.632 184 191 220
0.454176 -0.306614 -0.635 182 189 218
0.45682 -0.30758 -0.637 210 215 244
0.46019 -0.309029 -0.64 227 232 255
0.46213 -0.309511 -0.641 238 244 255
0.46552 -0.31096 -0.644 238 244 255
-0.127771 -0.302491 -0.624 105 106 110
-0.126177 -0.301522 -0.622 105 105 113
-0.124791 -0.301037 -0.621 98 98 106
-0.12321 -0.300068 -0.619 94 94 104
-0.12144 -0.298613 -0.616 94 94 104
-0.119876 -0.297644 -0.614 97 98 103
-0.118127 -0.29619 -0.611 97 98 103
-0.116389 -0.294735 -0.608 96 97 102
-0.114662 -0.293281 -0.605 96 97 102
-0.113322 -0.292796 -0.604 94 95 100
-0.1118 -0.291827 -0.602 93 94 99
-0.110286 -0.290857 -0.6 94 95 100
-0.108961 -0.290372 -0.599 94 95 100
-0.10782 -0.290372 -0.599 93 94 99
-0.106679 -0.290372 -0.599 93 94 99
-0.105538 -0.290372 -0.599 90 89 95
-0.104571 -0.290857 -0.6 92 91 97
-0.103429 -0.290857 -0.6 93 92 98
-0.102627 -0.291827 -0.602 88 87 93
-0.101649 -0.292311 -0.603 80 79 85
-0.100667 -0.292796 -0.604 86 85 91
-0.099681 -0.293281 -0.605 84 85 90
-0.0988543 -0.29425 -0.607 82 83 88
-0.097859 -0.294735 -0.608 79 80 85
-0.09686 -0.29522 -0.609 75 76 81
-0.0958571 -0.295705 -0.61 71 72 77
-0.0948505 -0.29619 -0.611 64 65 70
-0.0939933 -0.297159 -0.613 59 60 65
-0.0929771 -0.297644 -0.614 61 62 67
-0.0919571 -0.298129 -0.615 61 62 67
-0.0910809 -0.299098 -0.617 58 59 64
-0.0900514 -0.299583 -0.618 53 54 59
-0.0890181 -0.300068 -0.619 55 56 61
-0.087981 -0.300552 -0.62 54 55 60
-0.08694 -0.301037 -0.621 50 51 56
-0.0860333 -0.302007 -0.623 54 55 60
-0.0848467 -0.302007 -0.623 45 46 51
-0.08366 -0.302007 -0.623 44 45 50
-0.0826057 -0.302491 -0.624 52 53 58
-0.0815476 -0.302976 -0.625 59 58 64
-0.0803571 -0.302976 -0.625 69 68 74
-0.0792933 -0.303461 -0.626 122 121 127
0.11358 -0.305885 -0.631 188 139 132
0.11369 -0.302976 -0.625 185 136 129
0.113594 -0.299583 -0.618 186 136 127
0.113471 -0.29619 -0.611 186 136 127
0.113134 -0.292311 -0.603 192 140 129
0.113146 -0.289403 -0.597 195 143 132
0.113134 -0.286494 -0.591 192 140 127
0.113487 -0.284555 -0.587 188 136 123
0.114605 -0.284555 -0.587 188 136 123
0.115131 -0.283101 -0.584 184 134 123
0.115647 -0.281647 -0.581 185 135 124
0.116351 -0.280677 -0.579 193 136 129
0.117049 -0.279708 -0.577 190 133 126
0.117943 -0.279223 -0.576 185 133 122
0.118627 -0.278253 -0.574 186 134 123
0.119303 -0.277284 -0.572 191 137 127
0.119971 -0.276314 -0.57 194 140 130
0.120632 -0.275345 -0.568 193 136 127
0.1215 -0.27486 -0.567 188 131 122
0.12258 -0.27486 -0.567 189 132 123
0.123224 -0.27389 -0.565 187 130 121
0.12408 -0.273406 -0.564 187 130 119
0.124932 -0.272921 -0.563 187 130 119
0.126005 -0.272921 -0.563 186 129 118
0.126851 -0.272436 -0.562 185 128 117
0.127922 -0.272436 -0.562 187 128 120
0.128992 -0.272436 -0.562 188 129 121
0.129831 -0.271951 -0.561 191 134 127
0.1309 -0.271951 -0.561 189 132 125
0.131733 -0.271467 -0.56 191 134 127
0.1328 -0.271467 -0.56 190 133 126
0.133867 -0.271467 -0.56 191 132 124
0.134933 -0.271467 -0.56 187 128 120
0.136 -0.271467 -0.56 187 128 120
0.137067 -0.271467 -0.56 182 123 115
0.138133 -0.271467 -0.56 180 121 113
0.1392 -0.271467 -0.56 177 118 110
0.140267 -0.271467 -0.56 175 116 108
0.141586 -0.271951 -0.561 174 115 107
0.142654 -0.271951 -0.561 175 117 106
0.143723 -0.271951 -0.561 178 120 109
0.144791 -0.271951 -0.561 178 120 109
0.14586 -0.271951 -0.561 176 118 107
0.146929 -0.271951 -0.561 174 115 109
0.147997 -0.271951 -0.561 173 114 108
0.149066 -0.271951 -0.561 173 113 105
0.150134 -0.271951 -0.561 171 111 103
0.151203 -0.271951 -0.561 168 108 98
0.152543 -0.272436 -0.562 165 105 95
0.153613 -0.272436 -0.562 165 105 97
0.154409 -0.271951 -0.561 162 102 94
0.155477 -0.271951 -0.561 160 101 95
0.156546 -0.271951 -0.561 152 93 87
0.157895 -0.272436 -0.562 148 90 86
0.158966 -0.272436 -0.562 149 91 87
0.160036 -0.272436 -0.562 145 91 89
0.161107 -0.272436 -0.562 144 90 88
0.162177 -0.272436 -0.562 138 88 89
0.163248 -0.272436 -0.562 138 88 89
0.16461 -0.272921 -0.563 130 80 81
0.165977 -0.273406 -0.564 136 86 89
0.167051 -0.273406 -0.564 136 86 89
0.168424 -0.27389 -0.565 142 84 83
0.1698 -0.274375 -0.566 140 82 81
0.17118 -0.27486 -0.567 139 81 80
0.172868 -0.27583 -0.569 142 84 83
0.174257 -0.276314 -0.57 141 89 93
0.175958 -0.277284 -0.572 143 91 95
0.177667 -0.278253 -0.574 146 96 99
0.179383 -0.279223 -0.576 151 101 104
0.18142 -0.280677 -0.579 147 101 101
0.183153 -0.281647 -0.581 143 97 97
0.185529 -0.283586 -0.585 132 101 109
0.188238 -0.28601 -0.59 130 99 107
0.191288 -0.288918 -0.596 100 87 105
0.19436 -0.291827 -0.602 84 71 89
0.224367 -0.307824 -0.635 170 117 125
0.223445 -0.304915 -0.629 182 122 121
0.220714 -0.299583 -0.618 192 132 131
0.219019 -0.295705 -0.61 198 138 138
0.220181 -0.295705 -0.61 198 138 138
0.218803 -0.292311 -0.603 196 136 136
0.218492 -0.290372 -0.599 197 133 134
0.218167 -0.288433 -0.595 198 134 135
0.218563 -0.287464 -0.593 196 130 131
0.219322 -0.286979 -0.592 189 123 124
0.220077 -0.286494 -0.591 191 126 124
0.221203 -0.286494 -0.591 189 124 122
0.222705 -0.286979 -0.592 184 123 122
0.223832 -0.286979 -0.592 178 117 116
0.22534 -0.287464 -0.593 167 107 106
0.226851 -0.287949 -0.594 164 104 103
0.22875 -0.288918 -0.596 162 104 100
0.230657 -0.289888 -0.598 156 98 94
0.232571 -0.290857 -0.6 144 95 91
0.234493 -0.291827 -0.602 142 93 89
0.236814 -0.293281 -0.605 136 94 98
0.239147 -0.294735 -0.608 133 91 95
0.242281 -0.297159 -0.613 123 90 99
0.245434 -0.299583 -0.618 129 96 105
0.248607 -0.302007 -0.623 156 144 166
0.251397 -0.303946 -0.627 194 182 204
0.254203 -0.305885 -0.631 196 191 214
0.257429 -0.308309 -0.636 196 191 214
0.437171 -0.311217 -0.642 174 167 183
0.435663 -0.309278 -0.638 184 177 193
0.457084 -0.307339 -0.634 231 237 255
0.459737 -0.308309 -0.636 233 239 255
-0.12638 -0.303193 -0.623 106 107 112
-0.124791 -0.30222 -0.621 106 107 112
-0.12341 -0.301733 -0.62 104 104 114
-0.121834 -0.30076 -0.618 105 105 115
-0.120267 -0.299787 -0.616 101 102 107
-0.118513 -0.298327 -0.613 99 100 105
-0.116771 -0.296867 -0.61 100 101 106
-0.11523 -0.295893 -0.608 100 101 106
-0.113697 -0.29492 -0.606 98 99 104
-0.112357 -0.294433 -0.605 98 99 104
-0.110837 -0.29346 -0.603 97 98 103
-0.109689 -0.29346 -0.603 96 97 102
-0.10836 -0.292973 -0.602 95 94 100
-0.107035 -0.292487 -0.601 99 98 104
-0.106067 -0.292973 -0.602 98 97 103
-0.10492 -0.292973 -0.602 95 94 100
-0.103946 -0.29346 -0.603 94 93 99
-0.102797 -0.29346 -0.603 93 92 98
-0.101817 -0.293947 -0.604 90 89 95
-0.101 -0.29492 -0.606 87 86 92
-0.10001 -0.295407 -0.607 84 85 90
-0.0990171 -0.295893 -0.608 81 82 87
-0.09802 -0.29638 -0.609 80 81 86
-0.097019 -0.296867 -0.61 73 74 79
-0.0960143 -0.297353 -0.611 69 70 75
-0.0950057 -0.29784 -0.612 67 68 73
-0.0939933 -0.298327 -0.613 59 60 65
-0.0931286 -0.2993 -0.615 59 60 65
-0.0921067 -0.299787 -0.616 61 62 67
-0.0910809 -0.300273 -0.617 64 65 70
-0.0900514 -0.30076 -0.618 60 60 68
-0.0891619 -0.301733 -0.62 58 58 66
-0.0881229 -0.30222 -0.621 58 58 66
-0.08694 -0.30222 -0.621 50 51 56
-0.0858952 -0.302707 -0.622 51 52 57
-0.0848467 -0.303193 -0.623 52 53 58
-0.0837943 -0.30368 -0.624 54 53 59
-0.0826057 -0.30368 -0.624 61 60 66
-0.0815476 -0.304167 -0.625 73 72 78
-0.0803571 -0.304167 -0.625 129 128 134
0.112556 -0.307573 -0.632 187 144 137
0.11322 -0.306113 -0.629 189 140 133
0.113327 -0.303193 -0.623 184 135 128
0.113227 -0.299787 -0.616 185 132 124
0.112914 -0.295893 -0.608 186 133 125
0.112759 -0.292487 -0.601 191 137 127
0.112767 -0.289567 -0.595 194 140 130
0.112943 -0.287133 -0.59 193 139 127
0.114067 -0.287133 -0.59 193 139 127
0.11441 -0.285187 -0.586 189 135 123
0.114934 -0.283727 -0.583 186 136 127
0.115647 -0.282753 -0.581 185 135 124
0.116351 -0.28178 -0.579 193 136 129
0.117049 -0.280807 -0.577 190 133 126
0.117738 -0.279833 -0.575 186 132 122
0.11842 -0.27886 -0.573 186 132 122
0.119094 -0.277887 -0.571 189 135 125
0.119761 -0.276913 -0.569 191 137 127
0.120632 -0.276427 -0.568 191 134 127
0.1215 -0.27594 -0.567 188 131 124
0.122364 -0.275453 -0.566 188 131 124
0.123224 -0.274967 -0.565 188 131 124
0.12408 -0.27448 -0.564 188 131 122
0.124932 -0.273993 -0.563 187 130 121
0.125781 -0.273507 -0.562 187 130 121
0.126851 -0.273507 -0.562 187 130 121
0.127922 -0.273507 -0.562 190 131 123
0.128763 -0.27302 -0.561 192 133 125
0.129831 -0.27302 -0.561 192 135 128
0.130667 -0.272533 -0.56 190 133 126
0.131733 -0.272533 -0.56 189 132 125
0.1328 -0.272533 -0.56 186 129 122
0.133867 -0.272533 -0.56 188 129 121
0.134933 -0.272533 -0.56 189 130 122
0.136 -0.272533 -0.56 192 133 125
0.137067 -0.272533 -0.56 185 126 118
0.138133 -0.272533 -0.56 179 120 112
0.1392 -0.272533 -0.56 175 116 108
0.140267 -0.272533 -0.56 174 114 106
0.141586 -0.27302 -0.561 174 114 106
0.142654 -0.27302 -0.561 175 115 105
0.143723 -0.27302 -0.561 177 117 107
0.144791 -0.27302 -0.561 178 118 108
0.14586 -0.27302 -0.561 176 116 106
0.146929 -0.27302 -0.561 176 117 109
0.147997 -0.27302 -0.561 175 116 108
0.149066 -0.27302 -0.561 176 116 106
0.150134 -0.27302 -0.561 171 111 101
0.151203 -0.27302 -0.561 167 107 96
0.152543 -0.273507 -0.562 167 107 96
0.153613 -0.273507 -0.562 166 106 96
0.154409 -0.27302 -0.561 164 104 94
0.155477 -0.27302 -0.561 160 101 93
0.156546 -0.27302 -0.561 152 93 85
0.157614 -0.27302 -0.561 145 90 85
0.158966 -0.273507 -0.562 144 89 84
0.160036 -0.273507 -0.562 141 90 87
0.161107 -0.273507 -0.562 140 89 86
0.162177 -0.273507 -0.562 135 87 85
0.163248 -0.273507 -0.562 135 87 85
0.16461 -0.273993 -0.563 128 80 78
0.165977 -0.27448 -0.564 133 84 87
0.167051 -0.27448 -0.564 134 85 88
0.168424 -0.274967 -0.565 137 83 81
0.1698 -0.275453 -0.566 132 78 76
0.17118 -0.27594 -0.567 131 75 74
0.172868 -0.276913 -0.569 137 81 80
0.174257 -0.2774 -0.57 142 90 92
0.175958 -0.278373 -0.572 144 92 94
0.177667 -0.279347 -0.574 145 95 98
0.179383 -0.28032 -0.576 146 96 99
0.181107 -0.281293 -0.578 144 96 96
0.183153 -0.282753 -0.581 140 92 92
0.185529 -0.2847 -0.585 132 97 101
0.187919 -0.286647 -0.589 139 104 108
0.190646 -0.28908 -0.594 115 97 111
0.21073 -0.308547 -0.634 117 121 150
0.222953 -0.307087 -0.631 180 123 129
0.221669 -0.30368 -0.624 186 128 126
0.219286 -0.298813 -0.614 194 136 134
0.217583 -0.29492 -0.606 200 140 139
0.218737 -0.29492 -0.606 200 140 139
0.217714 -0.292 -0.6 201 141 140
0.217398 -0.290053 -0.596 198 137 136
0.2178 -0.28908 -0.594 195 134 133
0.218194 -0.288107 -0.592 193 129 127
0.218951 -0.28762 -0.591 183 119 117
0.220077 -0.28762 -0.591 187 123 121
0.221203 -0.28762 -0.591 183 119 117
0.222329 -0.28762 -0.591 181 120 119
0.223832 -0.288107 -0.592 177 116 115
0.22534 -0.288593 -0.593 164 106 102
0.22647 -0.288593 -0.593 159 101 97
0.228367 -0.289567 -0.595 158 101 94
0.230657 -0.291027 -0.598 154 97 90
0.232571 -0.292 -0.6 144 96 94
0.234493 -0.292973 -0.602 140 92 90
0.236814 -0.294433 -0.605 133 93 94
0.239147 -0.295893 -0.608 130 90 91
0.242281 -0.298327 -0.613 118 87 95
0.245434 -0.30076 -0.618 119 88 96
0.248607 -0.303193 -0.623 123 114 141
0.251397 -0.30514 -0.627 181 172 199
0.254203 -0.307087 -0.631 195 192 223
0.257024 -0.309033 -0.635 192 189 220
0.43459 -0.311467 -0.64 213 205 220
0.433086 -0.30952 -0.636 188 180 195
0.429517 -0.306113 -0.629 180 172 187
0.453231 -0.30514 -0.627 233 238 255
0.467505 -0.311467 -0.64 166 171 190
0.470921 -0.312927 -0.643 165 170 189
-0.12638 -0.30438 -0.623 102 103 108
-0.124992 -0.303891 -0.622 109 110 115
-0.12341 -0.302914 -0.62 111 109 120
-0.122031 -0.302426 -0.619 105 103 114
-0.120462 -0.301449 -0.617 106 107 112
-0.1189 -0.300471 -0.615 104 105 110
-0.117154 -0.299006 -0.612 104 105 110
-0.115799 -0.298517 -0.611 104 105 110
-0.11426 -0.29754 -0.609 103 104 109
-0.112914 -0.297051 -0.608 102 103 108
-0.111389 -0.296074 -0.606 102 103 108
-0.110234 -0.296074 -0.606 100 101 106
-0.1089 -0.295586 -0.605 103 102 108
-0.10757 -0.295097 -0.604 102 101 107
-0.106419 -0.295097 -0.604 104 103 109
-0.105269 -0.295097 -0.604 102 101 107
-0.10429 -0.295586 -0.605 97 96 102
-0.103309 -0.296074 -0.606 97 96 102
-0.102154 -0.296074 -0.606 96 95 101
-0.101167 -0.296563 -0.607 88 87 93
-0.100175 -0.297051 -0.608 89 88 93
-0.09918 -0.29754 -0.609 83 82 87
-0.098181 -0.298029 -0.61 83 82 88
-0.0971781 -0.298517 -0.611 78 77 83
-0.0961714 -0.299006 -0.612 67 66 72
-0.0951609 -0.299494 -0.613 61 60 66
-0.0941467 -0.299983 -0.614 60 59 65
-0.09328 -0.30096 -0.616 59 58 64
-0.0922562 -0.301449 -0.617 66 65 71
-0.0912286 -0.301937 -0.618 64 63 69
-0.0901971 -0.302426 -0.619 62 61 69
-0.0893057 -0.303403 -0.621 59 58 66
-0.0881229 -0.303403 -0.621 58 58 66
-0.08708 -0.303891 -0.622 55 55 63
-0.0860333 -0.30438 -0.623 55 55 63
-0.0849829 -0.304869 -0.624 63 63 71
-0.0837943 -0.304869 -0.624 66 65 71
0.1122 -0.3078 -0.63 190 143 135
0.11286 -0.306334 -0.627 194 144 135
0.112781 -0.302914 -0.62 186 136 127
0.112675 -0.299494 -0.613 187 134 128
0.112543 -0.296074 -0.606 187 134 128
0.112196 -0.292166 -0.598 192 135 126
0.112388 -0.289723 -0.593 194 137 128
0.11256 -0.28728 -0.588 194 137 128
0.11368 -0.28728 -0.588 194 137 128
0.11441 -0.286303 -0.586 189 135 123
0.114934 -0.284837 -0.583 186 136 127
0.115448 -0.283371 -0.58 189 139 130
0.11615 -0.282394 -0.578 193 136 127
0.116846 -0.281417 -0.576 190 133 124
0.117533 -0.28044 -0.574 188 131 122
0.118213 -0.279463 -0.572 188 131 122
0.118886 -0.278486 -0.57 191 134 125
0.119761 -0.277997 -0.569 193 136 127
0.12042 -0.27702 -0.567 192 135 126
0.121286 -0.276531 -0.566 190 133 124
0.122148 -0.276043 -0.565 190 133 124
0.123224 -0.276043 -0.565 190 133 124
0.12408 -0.275554 -0.564 189 132 123
0.124932 -0.275066 -0.563 188 131 122
0.125781 -0.274577 -0.562 188 131 122
0.126851 -0.274577 -0.562 190 133 124
0.127694 -0.274089 -0.561 192 135 128
0.128763 -0.274089 -0.561 193 136 129
0.129831 -0.274089 -0.561 195 138 131
0.130667 -0.2736 -0.56 189 132 125
0.131733 -0.2736 -0.56 183 126 117
0.1328 -0.2736 -0.56 180 123 114
0.133867 -0.2736 -0.56 186 127 119
0.134933 -0.2736 -0.56 188 129 121
0.136 -0.2736 -0.56 187 128 120
0.137067 -0.2736 -0.56 177 118 110
0.138133 -0.2736 -0.56 180 121 113
0.1392 -0.2736 -0.56 178 119 111
0.140267 -0.2736 -0.56 177 117 107
0.141586 -0.274089 -0.561 176 116 106
0.142654 -0.274089 -0.561 176 116 106
0.143723 -0.274089 -0.561 177 117 107
0.144791 -0.274089 -0.561 178 118 108
0.14586 -0.274089 -0.561 179 119 109
0.146929 -0.274089 -0.561 178 120 109
0.147997 -0.274089 -0.561 178 120 109
0.149066 -0.274089 -0.561 180 120 109
0.150134 -0.274089 -0.561 172 112 101
0.151203 -0.274089 -0.561 166 106 95
0.152271 -0.274089 -0.561 167 107 96
0.15334 -0.274089 -0.561 167 107 96
0.154409 -0.274089 -0.561 166 106 95
0.155477 -0.274089 -0.561 158 100 89
0.156546 -0.274089 -0.561 151 93 82
0.157614 -0.274089 -0.561 145 90 83
0.158966 -0.274577 -0.562 144 89 82
0.160036 -0.274577 -0.562 140 89 85
0.161393 -0.275066 -0.563 141 90 86
0.162466 -0.275066 -0.563 137 89 87
0.163538 -0.275066 -0.563 137 89 87
0.16461 -0.275066 -0.563 132 84 82
0.165977 -0.275554 -0.564 132 84 84
0.167051 -0.275554 -0.564 135 87 87
0.168424 -0.276043 -0.565 138 87 84
0.1698 -0.276531 -0.566 133 82 79
0.17118 -0.27702 -0.567 132 78 76
0.172868 -0.277997 -0.569 136 82 80
0.174257 -0.278486 -0.57 140 90 91
0.175958 -0.279463 -0.572 143 93 94
0.177667 -0.28044 -0.574 147 96 95
0.179383 -0.281417 -0.576 146 95 94
0.181107 -0.282394 -0.578 140 91 87
0.183153 -0.28386 -0.581 136 87 83
0.185211 -0.285326 -0.584 129 89 90
0.187919 -0.287769 -0.589 136 96 97
0.190646 -0.290211 -0.594 120 95 101
0.206878 -0.305846 -0.626 99 96 125
0.209732 -0.308289 -0.631 106 111 143
0.223157 -0.310243 -0.635 180 123 129
0.221893 -0.306823 -0.628 186 129 135
0.219892 -0.302426 -0.619 190 132 130
0.2175 -0.29754 -0.609 197 139 137
0.21866 -0.29754 -0.609 197 139 137
0.217654 -0.294609 -0.603 199 141 137
0.216626 -0.291677 -0.597 201 143 139
0.217033 -0.2907 -0.595 200 139 134
0.217067 -0.289234 -0.592 195 134 129
0.217826 -0.288746 -0.591 193 130 125
0.218581 -0.288257 -0.59 182 119 114
0.219705 -0.288257 -0.59 183 119 117
0.221203 -0.288746 -0.591 178 114 112
0.222329 -0.288746 -0.591 175 114 111
0.223832 -0.289234 -0.592 174 113 110
0.22534 -0.289723 -0.593 165 106 100
0.22647 -0.289723 -0.593 159 100 94
0.228367 -0.2907 -0.595 156 99 90
0.230657 -0.292166 -0.598 152 95 86
0.232571 -0.293143 -0.6 139 94 91
0.234883 -0.294609 -0.603 136 91 88
0.237206 -0.296074 -0.606 126 86 86
0.23954 -0.29754 -0.609 128 88 88
0.242281 -0.299494 -0.613 121 92 97
0.245434 -0.301937 -0.618 124 95 100
0.248607 -0.30438 -0.623 100 95 127
0.251397 -0.306334 -0.627 148 143 175
0.254203 -0.308289 -0.631 173 175 213
0.257429 -0.310731 -0.636 172 174 212
0.467259 -0.311709 -0.638 198 203 223
0.470677 -0.313174 -0.641 228 233 253
0.47337 -0.314151 -0.643 237 241 250
-0.124992 -0.305076 -0.622 110 111 115
-0.123609 -0.304586 -0.621 110 109 117
-0.122229 -0.304095 -0.62 113 112 120
-0.120657 -0.303114 -0.618 109 110 115
-0.119287 -0.302624 -0.617 109 110 115
-0.117729 -0.301643 -0.615 109 110 115
-0.116178 -0.300662 -0.613 108 109 114
-0.114823 -0.300171 -0.612 106 107 112
-0.113471 -0.299681 -0.611 105 106 111
-0.11194 -0.2987 -0.609 106 105 111
-0.11078 -0.2987 -0.609 106 105 111
-0.10944 -0.29821 -0.608 103 102 108
-0.108104 -0.297719 -0.607 104 103 109
-0.106948 -0.297719 -0.607 103 102 108
-0.105791 -0.297719 -0.607 100 99 105
-0.104808 -0.29821 -0.608 104 103 109
-0.10365 -0.29821 -0.608 102 101 107
-0.10266 -0.2987 -0.609 98 97 103
-0.1015 -0.2987 -0.609 98 97 103
-0.100505 -0.29919 -0.61 90 89 94
-0.0995057 -0.299681 -0.611 91 90 95
-0.0985029 -0.300171 -0.612 84 83 89
-0.0974962 -0.300662 -0.613 79 78 84
-0.0964857 -0.301152 -0.614 77 76 82
-0.0954714 -0.301643 -0.615 73 72 78
-0.0944533 -0.302133 -0.616 68 67 73
-0.0934314 -0.302624 -0.617 61 60 66
-0.0924057 -0.303114 -0.618 68 67 73
-0.0913762 -0.303605 -0.619 72 71 77
-0.0903429 -0.304095 -0.62 71 70 78
-0.0893057 -0.304586 -0.621 59 58 66
-0.0882648 -0.305076 -0.622 62 61 69
-0.08708 -0.305076 -0.622 70 69 77
-0.0860333 -0.305567 -0.623 71 70 78
0.111844 -0.308019 -0.628 192 142 131
0.11232 -0.306057 -0.624 195 142 134
0.112235 -0.302624 -0.617 187 134 126
0.112124 -0.29919 -0.61 188 133 128
0.111986 -0.295757 -0.603 187 132 127
0.111821 -0.292324 -0.596 191 132 124
0.112388 -0.290852 -0.593 194 137 128
0.113517 -0.290852 -0.593 194 137 128
0.11368 -0.2884 -0.588 194 137 128
0.114214 -0.286929 -0.585 192 135 126
0.114737 -0.285457 -0.582 188 138 131
0.115448 -0.284476 -0.58 192 142 135
0.11615 -0.283495 -0.578 190 136 126
0.116846 -0.282514 -0.576 188 134 124
0.117533 -0.281533 -0.574 188 131 122
0.118213 -0.280552 -0.572 190 133 124
0.118886 -0.279571 -0.57 193 136 127
0.11955 -0.27859 -0.568 194 137 128
0.12042 -0.2781 -0.567 193 136 127
0.121286 -0.27761 -0.566 192 135 126
0.122148 -0.277119 -0.565 191 134 125
0.123006 -0.276629 -0.564 191 134 125
0.12386 -0.276138 -0.563 190 133 124
0.124932 -0.276138 -0.563 188 131 122
0.125781 -0.275648 -0.562 188 131 122
0.126851 -0.275648 -0.562 190 133 124
0.127694 -0.275157 -0.561 191 134 125
0.128763 -0.275157 -0.561 190 133 124
0.129831 -0.275157 -0.561 188 131 122
0.130667 -0.274667 -0.56 181 124 115
0.131733 -0.274667 -0.56 174 117 108
0.1328 -0.274667 -0.56 173 116 107
0.133867 -0.274667 -0.56 184 125 117
0.134933 -0.274667 -0.56 185 126 118
0.136 -0.274667 -0.56 183 124 116
0.136822 -0.274176 -0.559 176 117 109
0.137887 -0.274176 -0.559 179 119 111
0.1392 -0.274667 -0.56 179 119 111
0.140267 -0.274667 -0.56 179 119 109
0.141333 -0.274667 -0.56 178 118 108
0.1424 -0.274667 -0.56 177 117 107
0.143467 -0.274667 -0.56 176 116 106
0.144791 -0.275157 -0.561 176 116 106
0.14586 -0.275157 -0.561 179 119 109
0.146929 -0.275157 -0.561 179 121 110
0.147997 -0.275157 -0.561 178 120 109
0.149066 -0.275157 -0.561 180 120 109
0.150134 -0.275157 -0.561 172 112 101
0.151203 -0.275157 -0.561 165 105 94
0.152271 -0.275157 -0.561 166 106 95
0.15334 -0.275157 -0.561 166 106 95
0.154409 -0.275157 -0.561 163 103 92
0.155477 -0.275157 -0.561 157 99 88
0.156546 -0.275157 -0.561 151 93 82
0.157614 -0.275157 -0.561 145 92 84
0.158966 -0.275648 -0.562 144 91 83
0.160036 -0.275648 -0.562 140 91 86
0.161107 -0.275648 -0.562 141 92 87
0.162177 -0.275648 -0.562 141 92 87
0.163538 -0.276138 -0.563 139 91 87
0.16461 -0.276138 -0.563 135 87 83
0.165977 -0.276629 -0.564 133 85 83
0.167051 -0.276629 -0.564 135 87 85
0.168424 -0.277119 -0.565 137 88 83
0.1698 -0.27761 -0.566 136 87 82
0.17118 -0.2781 -0.567 135 84 81
0.172868 -0.279081 -0.569 135 84 81
0.174257 -0.279571 -0.57 138 88 87
0.175958 -0.280552 -0.572 144 94 93
0.177667 -0.281533 -0.574 149 98 97
0.179071 -0.282024 -0.575 147 96 95
0.181107 -0.283495 -0.578 145 92 88
0.182838 -0.284476 -0.58 144 91 87
0.184894 -0.285948 -0.583 135 91 90
0.187281 -0.28791 -0.587 134 90 89
0.190004 -0.290362 -0.592 120 88 91
0.2214 -0.309 -0.63 177 127 130
0.220127 -0.305567 -0.623 185 135 138
0.218471 -0.301643 -0.615 195 140 137
0.216071 -0.296738 -0.605 200 145 142
0.217224 -0.296738 -0.605 200 145 142
0.216932 -0.294776 -0.601 200 141 137
0.2159 -0.291833 -0.595 200 141 137
0.216304 -0.290852 -0.593 201 140 135
0.2167 -0.289871 -0.591 198 137 132
0.217457 -0.289381 -0.59 196 133 128
0.218581 -0.289381 -0.59 189 126 121
0.219705 -0.289381 -0.59 186 122 120
0.221203 -0.289871 -0.591 178 114 112
0.222329 -0.289871 -0.591 170 109 104
0.223832 -0.290362 -0.592 166 105 100
0.22534 -0.290852 -0.593 161 102 96
0.226851 -0.291343 -0.594 154 95 89
0.22875 -0.292324 -0.596 148 91 82
0.230657 -0.293305 -0.598 146 89 80
0.232571 -0.294286 -0.6 130 86 85
0.234883 -0.295757 -0.603 131 87 86
0.237206 -0.297229 -0.606 121 83 82
0.23954 -0.2987 -0.609 121 83 82
0.242676 -0.301152 -0.614 112 85 92
0.245831 -0.303605 -0.619 133 106 113
0.249006 -0.306057 -0.624 102 102 138
0.251798 -0.308019 -0.628 114 114 150
0.254606 -0.309981 -0.632 115 122 164
0.430933 -0.313905 -0.64 233 217 230
0.431477 -0.313414 -0.639 227 211 224
0.468217 -0.311943 -0.636 236 243 251
0.470905 -0.312924 -0.638 240 247 255
0.4736 -0.313905 -0.64 240 247 253
0.477045 -0.315376 -0.643 239 246 252
-0.123609 -0.305769 -0.621 113 113 113
-0.122426 -0.305769 -0.621 114 114 114
-0.120852 -0.304784 -0.619 114 113 118
-0.11948 -0.304291 -0.618 111 110 115
-0.11792 -0.303307 -0.616 110 109 114
-0.116557 -0.302814 -0.615 109 108 113
-0.115198 -0.302322 -0.614 107 106 111
-0.113843 -0.30183 -0.613 106 105 110
-0.112491 -0.301337 -0.612 107 106 111
-0.111326 -0.301337 -0.612 105 104 109
-0.10998 -0.300845 -0.611 103 104 108
-0.108638 -0.300352 -0.61 103 104 108
-0.107476 -0.300352 -0.61 103 104 108
-0.106314 -0.300352 -0.61 101 102 106
-0.105152 -0.300352 -0.61 101 102 106
-0.10399 -0.300352 -0.61 100 101 105
-0.102997 -0.300845 -0.611 98 99 103
-0.101833 -0.300845 -0.611 95 96 100
-0.100834 -0.301337 -0.612 95 96 101
-0.0998314 -0.30183 -0.613 91 92 97
-0.0986638 -0.30183 -0.613 86 86 94
-0.0976552 -0.302322 -0.614 82 82 90
-0.0966429 -0.302814 -0.615 82 81 89
-0.0956267 -0.303307 -0.616 82 81 89
-0.0946067 -0.303799 -0.617 80 79 85
-0.0935829 -0.304291 -0.618 77 76 82
-0.0925552 -0.304784 -0.619 78 77 83
-0.0915238 -0.305276 -0.62 79 78 84
-0.0903429 -0.305276 -0.62 71 70 78
-0.0893057 -0.305769 -0.621 74 73 81
-0.0882648 -0.306261 -0.622 80 78 89
-0.08722 -0.306753 -0.623 69 67 78
0.111488 -0.30823 -0.626 193 141 130
0.11196 -0.306261 -0.622 191 138 130
0.11169 -0.302322 -0.614 187 134 126
0.111572 -0.298875 -0.607 192 137 132
0.111986 -0.296906 -0.603 187 132 127
0.111821 -0.293459 -0.596 191 132 124
0.112956 -0.293459 -0.596 191 132 124
0.113134 -0.290997 -0.591 192 133 125
0.113487 -0.289028 -0.587 191 134 125
0.114019 -0.28755 -0.584 189 132 123
0.11454 -0.286073 -0.581 185 134 130
0.115249 -0.285089 -0.579 188 137 133
0.11595 -0.284104 -0.577 192 138 128
0.116643 -0.283119 -0.575 189 135 125
0.117329 -0.282134 -0.573 187 133 123
0.118007 -0.28115 -0.571 188 134 124
0.118677 -0.280165 -0.569 192 135 126
0.11934 -0.27918 -0.567 193 136 127
0.120208 -0.278688 -0.566 191 137 127
0.121071 -0.278195 -0.565 190 136 126
0.121931 -0.277703 -0.564 194 137 128
0.123006 -0.277703 -0.564 192 135 126
0.12386 -0.27721 -0.563 190 133 124
0.12471 -0.276718 -0.562 188 131 122
0.125781 -0.276718 -0.562 188 131 122
0.126851 -0.276718 -0.562 189 132 123
0.127694 -0.276226 -0.561 189 132 123
0.128763 -0.276226 -0.561 188 131 122
0.1296 -0.275733 -0.56 188 129 121
0.130667 -0.275733 -0.56 184 125 117
0.131733 -0.275733 -0.56 178 119 111
0.132563 -0.275241 -0.559 176 117 109
0.133628 -0.275241 -0.559 183 124 116
0.134692 -0.275241 -0.559 178 119 111
0.135757 -0.275241 -0.559 175 116 108
0.136822 -0.275241 -0.559 173 114 106
0.137887 -0.275241 -0.559 175 115 105
0.138951 -0.275241 -0.559 176 116 106
0.140267 -0.275733 -0.56 176 116 106
0.141333 -0.275733 -0.56 175 115 105
0.1424 -0.275733 -0.56 176 116 106
0.143467 -0.275733 -0.56 175 115 105
0.144533 -0.275733 -0.56 176 116 106
0.1456 -0.275733 -0.56 179 119 109
0.146667 -0.275733 -0.56 180 122 111
0.147733 -0.275733 -0.56 178 120 109
0.1488 -0.275733 -0.56 177 119 108
0.149867 -0.275733 -0.56 171 113 102
0.150933 -0.275733 -0.56 166 106 95
0.152271 -0.276226 -0.561 168 108 97
0.15334 -0.276226 -0.561 168 108 97
0.154409 -0.276226 -0.561 163 103 92
0.155477 -0.276226 -0.561 160 102 91
0.156546 -0.276226 -0.561 155 97 86
0.157614 -0.276226 -0.561 147 94 86
0.158966 -0.276718 -0.562 145 92 84
0.160036 -0.276718 -0.562 141 92 87
0.161107 -0.276718 -0.562 142 93 88
0.162177 -0.276718 -0.562 142 93 88
0.163538 -0.27721 -0.563 140 92 88
0.16461 -0.27721 -0.563 137 89 85
0.165977 -0.277703 -0.564 136 89 83
0.167051 -0.277703 -0.564 135 88 82
0.168424 -0.278195 -0.565 135 86 81
0.1698 -0.278688 -0.566 136 87 82
0.17118 -0.27918 -0.567 137 88 84
0.172868 -0.280165 -0.569 137 88 84
0.174257 -0.280657 -0.57 141 91 92
0.175958 -0.281642 -0.572 149 99 100
0.177357 -0.282134 -0.573 150 99 98
0.179071 -0.283119 -0.575 148 97 96
0.180793 -0.284104 -0.577 148 95 91
0.182523 -0.285089 -0.579 147 94 90
0.184894 -0.287058 -0.583 141 93 91
0.186962 -0.288535 -0.586 134 86 84
0.189362 -0.290505 -0.59 123 84 85
0.221249 -0.311677 -0.633 166 120 130
0.219994 -0.30823 -0.626 179 130 133
0.218713 -0.304784 -0.619 184 135 138
0.216695 -0.300352 -0.61 198 143 140
0.215 -0.296413 -0.602 200 145 142
0.216147 -0.296413 -0.602 200 145 142
0.215489 -0.293951 -0.597 199 140 136
0.215174 -0.291982 -0.593 198 139 135
0.215574 -0.290997 -0.591 201 140 135
0.216333 -0.290505 -0.59 200 139 134
0.217089 -0.290012 -0.589 198 134 132
0.21821 -0.290012 -0.589 193 129 127
0.219332 -0.290012 -0.589 189 128 125
0.220829 -0.290505 -0.59 180 119 116
0.222329 -0.290997 -0.591 168 107 102
0.223832 -0.29149 -0.592 161 100 95
0.22534 -0.291982 -0.593 153 96 89
0.226851 -0.292474 -0.594 147 90 83
0.22875 -0.293459 -0.596 140 85 78
0.230657 -0.294444 -0.598 138 83 76
0.232571 -0.295429 -0.6 133 89 88
0.235272 -0.297398 -0.604 130 86 85
0.237597 -0.298875 -0.607 120 84 86
0.239933 -0.300352 -0.61 119 83 85
0.243071 -0.302814 -0.615 117 93 106
0.246229 -0.305276 -0.62 157 133 146
0.249405 -0.307738 -0.625 125 129 167
0.252199 -0.309708 -0.629 92 96 134
0.254606 -0.311185 -0.632 115 122 164
0.429714 -0.315124 -0.64 223 213 224
0.428913 -0.313647 -0.637 228 210 222
0.362611 -0.262931 -0.534 221 201 212
0.359543 -0.259977 -0.528 218 196 208
0.357817 -0.258008 -0.524 214 192 204
0.356761 -0.25653 -0.521 203 181 194
0.35638 -0.255546 -0.519 182 160 173
0.357369 -0.255546 -0.519 175 157 173
0.357667 -0.255053 -0.518 194 176 192
0.358653 -0.255053 -0.518 193 178 197
0.35964 -0.255053 -0.518 193 178 197
0.361323 -0.255546 -0.519 191 179 203
0.363708 -0.25653 -0.521 198 186 210
0.3654 -0.257023 -0.522 192 182 207
0.367798 -0.258008 -0.524 172 162 187
0.370204 -0.258992 -0.526 175 164 194
0.372617 -0.259977 -0.528 173 162 192
0.373623 -0.259977 -0.528 173 162 192
0.465738 -0.310692 -0.631 238 244 255
0.46916 -0.31217 -0.634 238 247 254
0.473335 -0.314139 -0.638 237 246 253
0.476038 -0.315124 -0.64 239 249 251
0.478749 -0.316109 -0.642 239 249 251
-0.122426 -0.306951 -0.621 132 132 132
-0.121243 -0.306951 -0.621 120 119 124
-0.119673 -0.305963 -0.619 114 113 118
-0.118303 -0.305469 -0.618 113 112 117
-0.116936 -0.304974 -0.617 115 114 119
-0.115573 -0.30448 -0.616 113 112 117
-0.114214 -0.303986 -0.615 112 111 116
-0.112859 -0.303491 -0.614 111 110 115
-0.11169 -0.303491 -0.614 109 108 113
-0.11034 -0.302997 -0.613 108 109 114
-0.109172 -0.302997 -0.613 109 110 115
-0.107829 -0.302503 -0.612 109 110 115
-0.106663 -0.302503 -0.612 108 109 114
-0.105497 -0.302503 -0.612 106 107 112
-0.104502 -0.302997 -0.613 104 105 110
-0.103334 -0.302997 -0.613 103 104 109
-0.102167 -0.302997 -0.613 102 103 108
-0.101164 -0.303491 -0.614 101 102 106
-0.100157 -0.303986 -0.615 100 101 105
-0.0989857 -0.303986 -0.615 96 97 102
-0.0979733 -0.30448 -0.616 92 93 98
-0.0969571 -0.304974 -0.617 91 90 96
-0.0957819 -0.304974 -0.617 89 88 94
-0.09476 -0.305469 -0.618 87 86 91
-0.0937343 -0.305963 -0.619 86 85 90
-0.0927048 -0.306457 -0.62 85 84 89
-0.0915238 -0.306457 -0.62 79 78 84
-0.0904886 -0.306951 -0.621 76 75 81
-0.0894495 -0.307446 -0.622 73 72 78
0.110824 -0.310906 -0.629 195 143 130
0.111131 -0.308434 -0.624 193 141 128
0.11142 -0.305963 -0.619 188 135 127
0.11169 -0.303491 -0.614 187 134 126
0.111572 -0.300031 -0.607 192 137 132
0.111614 -0.297066 -0.601 192 137 132
0.111446 -0.293606 -0.594 196 137 129
0.112577 -0.293606 -0.594 196 137 129
0.112943 -0.291629 -0.59 198 139 131
0.113293 -0.289651 -0.586 198 141 134
0.113824 -0.288169 -0.583 197 140 133
0.114343 -0.286686 -0.58 191 142 138
0.11505 -0.285697 -0.578 194 145 141
0.115749 -0.284709 -0.576 195 140 133
0.11644 -0.28372 -0.574 191 136 129
0.117124 -0.282731 -0.572 191 134 127
0.1178 -0.281743 -0.57 190 133 126
0.118469 -0.280754 -0.568 191 134 127
0.11934 -0.28026 -0.567 191 134 127
0.119995 -0.279271 -0.565 191 134 125
0.121071 -0.279271 -0.565 193 136 127
0.121931 -0.278777 -0.564 193 136 127
0.122788 -0.278283 -0.563 192 135 126
0.12386 -0.278283 -0.563 190 131 125
0.12471 -0.277789 -0.562 188 129 123
0.125781 -0.277789 -0.562 187 128 120
0.126851 -0.277789 -0.562 188 129 121
0.127694 -0.277294 -0.561 188 129 121
0.128763 -0.277294 -0.561 188 129 121
0.1296 -0.2768 -0.56 183 124 116
0.130667 -0.2768 -0.56 182 123 115
0.131733 -0.2768 -0.56 180 121 113
0.132563 -0.276306 -0.559 178 119 111
0.133628 -0.276306 -0.559 181 122 114
0.134692 -0.276306 -0.559 177 118 110
0.135757 -0.276306 -0.559 177 118 110
0.136822 -0.276306 -0.559 176 117 109
0.137887 -0.276306 -0.559 176 116 106
0.138951 -0.276306 -0.559 177 117 107
0.140016 -0.276306 -0.559 177 117 107
0.141333 -0.2768 -0.56 177 117 107
0.142146 -0.276306 -0.559 177 117 107
0.14321 -0.276306 -0.559 177 117 107
0.144533 -0.2768 -0.56 179 119 109
0.1456 -0.2768 -0.56 182 122 112
0.146667 -0.2768 -0.56 180 122 111
0.147733 -0.2768 -0.56 177 119 108
0.1488 -0.2768 -0.56 174 116 105
0.149867 -0.2768 -0.56 171 113 102
0.150933 -0.2768 -0.56 168 110 99
0.152 -0.2768 -0.56 169 111 100
0.153067 -0.2768 -0.56 170 110 99
0.154133 -0.2768 -0.56 162 102 91
0.1552 -0.2768 -0.56 162 104 93
0.156546 -0.277294 -0.561 158 100 89
0.157614 -0.277294 -0.561 149 96 90
0.158966 -0.277789 -0.562 146 93 87
0.160036 -0.277789 -0.562 141 92 88
0.161107 -0.277789 -0.562 141 92 88
0.162177 -0.277789 -0.562 142 93 89
0.163538 -0.278283 -0.563 142 92 91
0.16461 -0.278283 -0.563 140 90 89
0.165977 -0.278777 -0.564 139 90 83
0.167051 -0.278777 -0.564 138 89 82
0.168424 -0.279271 -0.565 137 88 83
0.1698 -0.279766 -0.566 137 88 83
0.17118 -0.28026 -0.567 139 89 90
0.172868 -0.281249 -0.569 141 91 92
0.174257 -0.281743 -0.57 145 95 98
0.17565 -0.282237 -0.571 151 101 104
0.177357 -0.283226 -0.573 153 99 99
0.179071 -0.284214 -0.575 152 98 98
0.180793 -0.285203 -0.577 150 95 92
0.182523 -0.286191 -0.579 147 92 89
0.184577 -0.287674 -0.582 139 89 88
0.186643 -0.289157 -0.585 133 83 82
0.18872 -0.29064 -0.588 123 81 85
0.191454 -0.293111 -0.593 127 85 89
0.194532 -0.296077 -0.599 127 93 109
0.197633 -0.299043 -0.605 122 88 104
0.220043 -0.312883 -0.633 172 119 125
0.21985 -0.310906 -0.629 176 123 129
0.218589 -0.307446 -0.622 181 131 130
0.216947 -0.303491 -0.614 189 139 138
0.215274 -0.299537 -0.606 198 143 140
0.213929 -0.296077 -0.599 199 144 141
0.21507 -0.296077 -0.599 199 144 141
0.214767 -0.2941 -0.595 199 141 139
0.214811 -0.292617 -0.592 196 138 136
0.215574 -0.292123 -0.591 197 136 135
0.215967 -0.291134 -0.589 196 135 134
0.217089 -0.291134 -0.589 193 132 131
0.21821 -0.291134 -0.589 188 127 126
0.219332 -0.291134 -0.589 186 125 122
0.220829 -0.291629 -0.59 178 117 114
0.222329 -0.292123 -0.591 167 108 102
0.223832 -0.292617 -0.592 159 100 94
0.22534 -0.293111 -0.593 151 94 87
0.226851 -0.293606 -0.594 147 90 83
0.229134 -0.295089 -0.597 140 87 81
0.231043 -0.296077 -0.599 136 83 77
0.232959 -0.297066 -0.601 128 87 85
0.235662 -0.299043 -0.605 126 85 83
0.237989 -0.300526 -0.608 117 85 90
0.24072 -0.302503 -0.612 114 82 87
0.243071 -0.303986 -0.615 117 93 106
0.246229 -0.306457 -0.62 157 133 146
0.249405 -0.308929 -0.625 125 129 167
0.252199 -0.310906 -0.629 92 96 134
0.254606 -0.312389 -0.632 82 93 138
0.425941 -0.315354 -0.638 223 213 224
0.425817 -0.314366 -0.636 219 208 216
0.358537 -0.260983 -0.528 214 192 204
0.356138 -0.258511 -0.523 213 190 200
0.355769 -0.257523 -0.521 212 189 199
0.354707 -0.25604 -0.518 208 186 198
0.35432 -0.255051 -0.516 198 176 188
0.354614 -0.254557 -0.515 189 169 181
0.355595 -0.254557 -0.515 185 165 177
0.355884 -0.254063 -0.514 181 164 182
0.356863 -0.254063 -0.514 179 162 180
0.357842 -0.254063 -0.514 179 166 186
0.360217 -0.255051 -0.516 193 180 200
0.3619 -0.255546 -0.517 184 172 196
0.362885 -0.255546 -0.517 173 161 185
0.365277 -0.256534 -0.519 169 153 182
0.367677 -0.257523 -0.521 169 153 182
0.36867 -0.257523 -0.521 169 153 182
0.475766 -0.315354 -0.638 237 246 251
0.478476 -0.316343 -0.64 236 245 254
0.481194 -0.317331 -0.642 233 242 251
-0.118494 -0.307142 -0.619 118 119 123
-0.117126 -0.306646 -0.618 113 114 118
-0.115949 -0.306646 -0.618 114 115 119
-0.114586 -0.30615 -0.617 115 116 120
-0.113227 -0.305653 -0.616 114 115 119
-0.112053 -0.305653 -0.616 110 111 115
-0.11088 -0.305653 -0.616 113 112 117
-0.109529 -0.305157 -0.615 113 112 117
-0.108357 -0.305157 -0.615 114 113 118
-0.107186 -0.305157 -0.615 114 113 118
-0.106014 -0.305157 -0.615 112 111 117
-0.104843 -0.305157 -0.615 111 110 116
-0.103671 -0.305157 -0.615 110 109 115
-0.102667 -0.305653 -0.616 110 109 115
-0.101493 -0.305653 -0.616 108 109 113
-0.100483 -0.30615 -0.617 108 109 113
-0.0993076 -0.30615 -0.617 104 105 109
-0.0982914 -0.306646 -0.618 99 100 104
-0.0971143 -0.306646 -0.618 98 97 102
-0.0960924 -0.307142 -0.619 97 96 101
-0.0950667 -0.307638 -0.62 99 98 103
-0.0938857 -0.307638 -0.62 103 102 107
-0.0927048 -0.307638 -0.62 85 84 89
-0.0916714 -0.308134 -0.621 84 83 88
0.111131 -0.309623 -0.624 193 141 128
0.11142 -0.307142 -0.619 188 135 127
0.111144 -0.303172 -0.611 189 136 128
0.111021 -0.299699 -0.604 191 138 132
0.111243 -0.297218 -0.599 191 138 132
0.112384 -0.297218 -0.599 191 138 132
0.112388 -0.294241 -0.593 196 137 129
0.112751 -0.292256 -0.589 197 138 130
0.112907 -0.289775 -0.584 197 140 133
0.113629 -0.288783 -0.582 196 139 132
0.114146 -0.287294 -0.579 188 140 138
0.11485 -0.286302 -0.577 190 142 140
0.115548 -0.28531 -0.575 195 140 133
0.116237 -0.284317 -0.573 193 138 131
0.116919 -0.283325 -0.571 193 135 131
0.117593 -0.282332 -0.569 192 134 130
0.11826 -0.28134 -0.567 190 132 128
0.11913 -0.280844 -0.566 189 131 127
0.119995 -0.280348 -0.565 191 134 127
0.120857 -0.279851 -0.564 194 137 130
0.121715 -0.279355 -0.563 187 130 121
0.122788 -0.279355 -0.563 189 132 123
0.12364 -0.278859 -0.562 188 129 123
0.12471 -0.278859 -0.562 185 126 120
0.125781 -0.278859 -0.562 186 125 120
0.126626 -0.278363 -0.561 186 125 120
0.127694 -0.278363 -0.561 185 126 118
0.128763 -0.278363 -0.561 187 128 120
0.1296 -0.277867 -0.56 182 123 115
0.130667 -0.277867 -0.56 181 122 114
0.131733 -0.277867 -0.56 180 121 113
0.132563 -0.27737 -0.559 176 117 109
0.133628 -0.27737 -0.559 177 118 110
0.134692 -0.27737 -0.559 174 115 107
0.135757 -0.27737 -0.559 176 116 108
0.136822 -0.27737 -0.559 173 113 105
0.13764 -0.276874 -0.558 173 113 103
0.138951 -0.27737 -0.559 175 115 105
0.140016 -0.27737 -0.559 177 117 107
0.141081 -0.27737 -0.559 178 118 108
0.142146 -0.27737 -0.559 177 117 107
0.14321 -0.27737 -0.559 176 116 106
0.144275 -0.27737 -0.559 177 117 107
0.1456 -0.277867 -0.56 178 118 108
0.146667 -0.277867 -0.56 176 119 108
0.147733 -0.277867 -0.56 173 116 105
0.1488 -0.277867 -0.56 170 113 104
0.149867 -0.277867 -0.56 170 113 104
0.150933 -0.277867 -0.56 169 111 100
0.152 -0.277867 -0.56 169 111 100
0.153067 -0.277867 -0.56 169 109 98
0.154133 -0.277867 -0.56 159 99 88
0.1552 -0.277867 -0.56 159 101 90
0.156546 -0.278363 -0.561 156 98 87
0.157614 -0.278363 -0.561 149 96 90
0.158683 -0.278363 -0.561 145 92 86
0.160036 -0.278859 -0.562 139 90 86
0.161107 -0.278859 -0.562 139 90 86
0.162177 -0.278859 -0.562 140 91 87
0.163538 -0.279355 -0.563 140 90 89
0.16461 -0.279355 -0.563 139 89 88
0.165683 -0.279355 -0.563 139 90 83
0.167348 -0.280348 -0.565 141 92 85
0.168424 -0.280348 -0.565 142 93 89
0.1698 -0.280844 -0.566 142 93 89
0.17118 -0.28134 -0.567 143 93 96
0.172564 -0.281836 -0.568 144 94 97
0.174257 -0.282829 -0.57 147 96 101
0.17565 -0.283325 -0.571 150 99 104
0.177048 -0.283821 -0.572 150 95 98
0.17876 -0.284813 -0.574 150 95 98
0.18048 -0.285806 -0.576 151 95 94
0.182208 -0.286798 -0.578 144 88 87
0.18426 -0.288287 -0.581 138 86 88
0.186005 -0.289279 -0.583 136 84 86
0.188399 -0.291264 -0.587 128 83 88
0.191131 -0.293745 -0.592 130 85 90
0.193558 -0.29573 -0.596 132 89 99
0.196653 -0.298707 -0.602 135 92 102
0.212136 -0.313096 -0.631 92 88 125
0.218652 -0.312104 -0.629 175 119 120
0.218103 -0.309623 -0.624 183 127 128
0.21648 -0.305653 -0.616 193 140 136
0.21518 -0.30218 -0.609 200 147 143
0.213853 -0.298707 -0.602 199 144 141
0.215 -0.298707 -0.602 199 144 141
0.213992 -0.29573 -0.596 199 144 141
0.214406 -0.294737 -0.594 201 143 141
0.214086 -0.292752 -0.59 196 138 136
0.21521 -0.292752 -0.59 192 132 132
0.2156 -0.29176 -0.588 192 132 132
0.217089 -0.292256 -0.589 189 129 129
0.21821 -0.292256 -0.589 184 124 124
0.219332 -0.292256 -0.589 181 121 120
0.220829 -0.292752 -0.59 174 114 113
0.222329 -0.293249 -0.591 166 107 103
0.223832 -0.293745 -0.592 159 100 96
0.22534 -0.294241 -0.593 148 93 88
0.227233 -0.295233 -0.595 144 89 84
0.229134 -0.296226 -0.597 138 87 83
0.231043 -0.297218 -0.599 136 83 77
0.232959 -0.29821 -0.601 128 87 85
0.235662 -0.300195 -0.605 126 85 83
0.237989 -0.301684 -0.608 117 85 90
0.24072 -0.303669 -0.612 114 82 87
0.243467 -0.305653 -0.616 124 103 122
0.246626 -0.308134 -0.621 161 140 159
0.249804 -0.310615 -0.626 125 134 175
0.252199 -0.312104 -0.629 88 97 138
0.255009 -0.314089 -0.633 78 92 139
0.420523 -0.317066 -0.639 187 184 205
0.42174 -0.317066 -0.639 187 184 205
0.422295 -0.31657 -0.638 202 191 208
0.422847 -0.316073 -0.637 207 196 213
0.423394 -0.315577 -0.636 210 197 207
0.422603 -0.314089 -0.633 206 193 203
0.4218 -0.3126 -0.63 208 193 200
0.356177 -0.260996 -0.526 207 184 194
0.354463 -0.259011 -0.522 209 186 196
0.352733 -0.257027 -0.518 205 179 190
0.352354 -0.256034 -0.516 207 181 192
0.352652 -0.255538 -0.515 213 187 198
0.35226 -0.254546 -0.513 208 182 193
0.352549 -0.25405 -0.512 197 173 186
0.352833 -0.253553 -0.511 176 152 165
0.353807 -0.253553 -0.511 177 154 172
0.35478 -0.253553 -0.511 181 158 176
0.355753 -0.253553 -0.511 173 154 174
0.356727 -0.253553 -0.511 183 164 184
0.3577 -0.253553 -0.511 179 164 185
0.358673 -0.253553 -0.511 176 161 182
0.36035 -0.25405 -0.512 167 149 175
0.362031 -0.254546 -0.513 167 149 175
0.363009 -0.254546 -0.513 167 149 175
0.365405 -0.255538 -0.515 168 152 178
0.47399 -0.314585 -0.634 224 230 246
0.477447 -0.316073 -0.637 223 229 245
0.480914 -0.317562 -0.64 216 222 244
-0.118686 -0.308819 -0.62 203 205 204
-0.117505 -0.308819 -0.62 188 190 189
-0.116136 -0.308321 -0.619 169 171 170
-0.114771 -0.307823 -0.618 153 155 154
-0.113594 -0.307823 -0.618 146 147 149
-0.112235 -0.307325 -0.617 143 144 146
-0.11106 -0.307325 -0.617 138 138 140
-0.109885 -0.307325 -0.617 135 135 137
-0.10871 -0.307325 -0.617 132 132 134
-0.107534 -0.307325 -0.617 131 131 133
-0.106187 -0.306827 -0.616 131 130 135
-0.105013 -0.306827 -0.616 132 131 136
-0.10384 -0.306827 -0.616 135 134 139
-0.102833 -0.307325 -0.617 138 137 142
-0.101658 -0.307325 -0.617 141 142 144
-0.100483 -0.307325 -0.617 145 146 148
-0.0994686 -0.307823 -0.618 151 152 154
-0.0982914 -0.307823 -0.618 159 160 162
-0.0972714 -0.308321 -0.619 169 169 171
-0.0960924 -0.308321 -0.619 180 180 182
-0.0950667 -0.308819 -0.62 192 192 194
-0.0938857 -0.308819 -0.62 103 102 107
-0.0928543 -0.309317 -0.621 126 126 128
0.110471 -0.312306 -0.627 192 145 137
0.110775 -0.309815 -0.622 187 140 132
0.11088 -0.306827 -0.616 188 135 129
0.110598 -0.302842 -0.608 192 139 133
0.110653 -0.299853 -0.602 190 135 128
0.1118 -0.299853 -0.602 190 135 128
0.111821 -0.296865 -0.596 193 138 131
0.112009 -0.294374 -0.591 195 141 131
0.112369 -0.292382 -0.587 192 138 128
0.112713 -0.29039 -0.583 191 136 129
0.113433 -0.289393 -0.581 194 139 132
0.113949 -0.287899 -0.578 191 140 137
0.114651 -0.286903 -0.576 191 140 137
0.115347 -0.285907 -0.574 195 142 134
0.116034 -0.28491 -0.572 190 137 129
0.116714 -0.283914 -0.57 194 141 135
0.117387 -0.282918 -0.568 191 138 132
0.11826 -0.28242 -0.567 195 140 133
0.118919 -0.281424 -0.565 186 131 124
0.119783 -0.280926 -0.564 187 132 125
0.120857 -0.280926 -0.564 187 132 125
0.121715 -0.280428 -0.563 187 130 123
0.12257 -0.27993 -0.562 187 130 123
0.12364 -0.27993 -0.562 186 129 122
0.12471 -0.27993 -0.562 184 127 120
0.125557 -0.279431 -0.561 185 126 120
0.126626 -0.279431 -0.561 187 128 122
0.127694 -0.279431 -0.561 187 128 120
0.128763 -0.279431 -0.561 184 125 117
0.1296 -0.278933 -0.56 180 122 111
0.130667 -0.278933 -0.56 180 122 111
0.131498 -0.278435 -0.559 176 118 107
0.132563 -0.278435 -0.559 175 117 106
0.133628 -0.278435 -0.559 176 118 107
0.134692 -0.278435 -0.559 175 117 106
0.135757 -0.278435 -0.559 179 121 110
0.136822 -0.278435 -0.559 183 125 114
0.137887 -0.278435 -0.559 182 122 112
0.138951 -0.278435 -0.559 181 121 111
0.140016 -0.278435 -0.559 179 119 109
0.141081 -0.278435 -0.559 179 119 109
0.142146 -0.278435 -0.559 178 118 108
0.14321 -0.278435 -0.559 180 120 110
0.144275 -0.278435 -0.559 180 120 112
0.14534 -0.278435 -0.559 174 114 106
0.146667 -0.278933 -0.56 177 119 108
0.14747 -0.278435 -0.559 175 117 106
0.148534 -0.278435 -0.559 173 115 104
0.149867 -0.278933 -0.56 170 112 101
0.150933 -0.278933 -0.56 169 111 99
0.152 -0.278933 -0.56 168 110 98
0.153067 -0.278933 -0.56 164 106 92
0.154133 -0.278933 -0.56 158 100 86
0.1552 -0.278933 -0.56 155 99 86
0.156546 -0.279431 -0.561 148 92 79
0.157614 -0.279431 -0.561 143 90 82
0.158683 -0.279431 -0.561 142 89 81
0.160036 -0.27993 -0.562 136 87 80
0.161107 -0.27993 -0.562 136 87 80
0.162177 -0.27993 -0.562 136 87 80
0.163538 -0.280428 -0.563 136 91 85
0.16461 -0.280428 -0.563 140 95 89
0.165683 -0.280428 -0.563 143 94 90
0.167051 -0.280926 -0.564 143 94 90
0.168722 -0.281922 -0.566 144 95 91
0.1698 -0.281922 -0.566 145 96 92
0.17118 -0.28242 -0.567 144 94 93
0.172564 -0.282918 -0.568 145 95 94
0.173951 -0.283416 -0.569 144 96 94
0.17565 -0.284412 -0.571 144 96 94
0.177048 -0.28491 -0.572 144 96 96
0.17876 -0.285907 -0.574 143 95 95
0.180167 -0.286405 -0.575 140 94 94
0.181892 -0.287401 -0.577 137 91 91
0.183943 -0.288895 -0.58 133 87 89
0.186005 -0.29039 -0.583 130 84 86
0.187757 -0.291386 -0.585 131 85 87
0.190486 -0.293876 -0.59 133 87 89
0.193233 -0.296367 -0.595 134 92 96
0.196 -0.298857 -0.6 136 94 98
0.210791 -0.312306 -0.627 104 94 128
0.213 -0.3138 -0.63 122 112 146
0.2178 -0.3138 -0.63 159 114 119
0.217262 -0.31131 -0.625 171 116 113
0.216355 -0.308321 -0.619 184 129 126
0.214723 -0.304336 -0.611 195 140 135
0.213413 -0.30085 -0.604 196 141 136
0.212432 -0.297861 -0.598 198 144 144
0.213571 -0.297861 -0.598 198 144 144
0.213274 -0.295869 -0.594 198 144 144
0.213323 -0.294374 -0.591 200 141 137
0.213723 -0.293378 -0.589 194 135 131
0.214845 -0.293378 -0.589 191 126 122
0.2156 -0.29288 -0.588 189 124 120
0.21672 -0.29288 -0.588 190 125 121
0.21821 -0.293378 -0.589 184 119 115
0.219332 -0.293378 -0.589 184 120 118
0.220829 -0.293876 -0.59 179 115 113
0.222329 -0.294374 -0.591 167 108 104
0.223832 -0.294872 -0.592 159 100 96
0.22534 -0.29537 -0.593 148 93 88
0.227233 -0.296367 -0.595 144 89 84
0.229134 -0.297363 -0.597 138 87 83
0.231043 -0.298359 -0.599 131 80 76
0.233347 -0.299853 -0.602 121 81 81
0.236051 -0.301846 -0.606 124 84 84
0.23838 -0.30334 -0.609 118 87 95
0.241113 -0.305332 -0.613 122 91 99
0.243862 -0.307325 -0.617 148 130 152
0.247023 -0.309815 -0.622 168 150 172
0.249804 -0.311808 -0.626 118 131 175
0.2526 -0.3138 -0.63 94 107 151
0.255009 -0.315294 -0.633 82 99 145
0.358213 -0.264987 -0.532 207 179 191
0.35585 -0.262496 -0.527 205 177 189
0.353469 -0.260006 -0.522 198 171 180
0.352426 -0.258511 -0.519 197 170 179
0.351371 -0.257017 -0.516 198 171 180
0.350989 -0.256021 -0.514 198 171 180
0.350598 -0.255025 -0.512 201 171 181
0.350887 -0.254527 -0.511 199 169 179
0.351171 -0.254029 -0.51 195 165 177
0.352143 -0.254029 -0.51 186 156 168
0.352422 -0.25353 -0.509 177 148 166
0.353391 -0.25353 -0.509 180 151 169
0.353665 -0.253032 -0.508 174 151 171
0.354632 -0.253032 -0.508 178 155 175
0.3556 -0.253032 -0.508 173 154 174
0.356568 -0.253032 -0.508 166 147 167
0.357535 -0.253032 -0.508 166 148 172
0.359209 -0.25353 -0.509 161 143 167
0.360178 -0.25353 -0.509 161 143 167
0.361857 -0.254029 -0.51 161 145 171
0.36354 -0.254527 -0.511 163 147 173
0.36594 -0.255523 -0.513 165 151 176
0.367632 -0.256021 -0.514 168 154 179
0.47295 -0.314298 -0.631 212 217 237
0.477157 -0.31629 -0.635 207 213 237
0.480627 -0.317785 -0.638 198 204 228
0.483352 -0.318781 -0.64 185 191 215
-0.114957 -0.3095 -0.619 227 229 228
-0.113594 -0.309 -0.618 225 227 226
-0.112417 -0.309 -0.618 223 225 224
-0.11124 -0.309 -0.618 225 225 227
-0.110063 -0.309 -0.618 223 223 225
-0.108886 -0.309 -0.618 222 222 224
-0.107709 -0.309 -0.618 223 223 225
-0.106531 -0.309 -0.618 223 223 225
-0.105354 -0.309 -0.618 224 224 226
-0.104177 -0.309 -0.618 224 224 226
-0.103 -0.309 -0.618 225 225 227
-0.101823 -0.309 -0.618 223 224 226
-0.100646 -0.309 -0.618 222 223 225
-0.0996295 -0.3095 -0.619 222 223 225
-0.0984505 -0.3095 -0.619 222 223 225
-0.0974286 -0.31 -0.62 221 221 223
-0.0962476 -0.31 -0.62 219 219 221
-0.0950667 -0.31 -0.62 192 192 194
-0.0938857 -0.31 -0.62 202 202 204
0.109943 -0.312 -0.624 194 144 137
0.110241 -0.3095 -0.619 190 140 133
0.11034 -0.3065 -0.613 189 134 129
0.110052 -0.3025 -0.605 189 134 129
0.111205 -0.3025 -0.605 189 134 129
0.111243 -0.2995 -0.599 191 136 129
0.111258 -0.2965 -0.593 191 136 129
0.11163 -0.2945 -0.589 192 137 130
0.112177 -0.293 -0.586 191 136 129
0.11252 -0.291 -0.582 191 136 129
0.113043 -0.2895 -0.579 192 137 130
0.113751 -0.2885 -0.577 189 136 132
0.114452 -0.2875 -0.575 189 136 132
0.115146 -0.2865 -0.573 189 134 127
0.115831 -0.2855 -0.571 188 133 126
0.11651 -0.2845 -0.569 193 138 131
0.11718 -0.2835 -0.567 192 137 130
0.118051 -0.283 -0.566 196 141 134
0.118919 -0.2825 -0.565 185 130 123
0.119783 -0.282 -0.564 183 126 117
0.120643 -0.2815 -0.563 181 124 115
0.121499 -0.281 -0.562 185 128 119
0.12257 -0.281 -0.562 186 129 120
0.12342 -0.2805 -0.561 187 128 122
0.124489 -0.2805 -0.561 185 126 120
0.125557 -0.2805 -0.561 186 127 121
0.1264 -0.28 -0.56 188 129 123
0.127467 -0.28 -0.56 189 130 122
0.128533 -0.28 -0.56 188 129 121
0.1296 -0.28 -0.56 182 123 115
0.130667 -0.28 -0.56 181 122 114
