ply
format ascii 1.0
comment Created by Open3D
element vertex 1297
property double x
property double y
property double z
property uchar red
property uchar green
property uchar blue
end_header
0.504366 -0.323337 -0.528 182 141 119
0.506329 -0.32395 -0.529 177 136 114
0.508295 -0.324562 -0.53 171 130 108
0.510266 -0.325174 -0.531 170 129 107
0.513203 -0.326399 -0.533 167 129 108
0.515183 -0.327011 -0.534 164 126 105
0.518133 -0.328236 -0.536 162 126 104
0.523029 -0.330686 -0.54 160 124 102
0.527939 -0.333135 -0.544 160 125 105
0.532865 -0.335585 -0.548 159 124 104
0.604771 -0.373552 -0.61 214 201 192
1.08816 -0.387637 -0.633 205 208 189
1.08936 -0.387637 -0.633 205 208 189
1.09057 -0.387637 -0.633 205 208 189
1.09177 -0.387637 -0.633 205 208 191
1.09298 -0.387637 -0.633 205 208 191
1.09419 -0.387637 -0.633 205 208 191
1.09539 -0.387637 -0.633 204 207 190
1.1092 -0.38825 -0.634 204 207 190
1.11041 -0.38825 -0.634 205 208 191
1.11161 -0.38825 -0.634 204 207 190
1.11282 -0.38825 -0.634 204 207 190
1.11403 -0.38825 -0.634 204 207 190
1.11524 -0.38825 -0.634 204 207 190
1.11644 -0.38825 -0.634 203 206 189
1.13998 -0.388862 -0.635 203 205 191
1.14119 -0.388862 -0.635 203 205 191
1.1424 -0.388862 -0.635 203 205 191
1.1436 -0.388862 -0.635 203 205 191
1.14481 -0.388862 -0.635 203 205 191
1.14422 -0.38825 -0.634 203 205 191
1.14543 -0.38825 -0.634 202 204 190
1.14663 -0.38825 -0.634 203 205 191
1.14784 -0.38825 -0.634 203 205 191
1.14724 -0.387637 -0.633 203 205 191
1.14663 -0.387025 -0.632 202 204 190
1.14783 -0.387025 -0.632 203 205 191
1.14722 -0.386412 -0.631 202 204 190
1.1466 -0.3858 -0.63 202 204 190
1.14416 -0.384575 -0.628 201 203 189
1.14353 -0.383963 -0.627 201 203 189
1.1429 -0.38335 -0.626 201 203 189
1.14043 -0.382126 -0.624 202 204 190
0.090659 -0.358743 -0.584 198 150 140
0.0909857 -0.355671 -0.579 198 150 140
0.0912933 -0.3526 -0.574 196 148 144
0.0915819 -0.349529 -0.569 195 147 143
0.0918514 -0.346457 -0.564 197 150 144
0.0924314 -0.344614 -0.561 197 150 144
0.0928333 -0.342157 -0.557 194 148 135
0.0938943 -0.342157 -0.557 192 146 133
0.0946143 -0.340929 -0.555 194 144 135
0.0956714 -0.340929 -0.555 193 143 134
0.0965543 -0.340314 -0.554 195 145 136
0.0976095 -0.340314 -0.554 196 146 137
0.0986648 -0.340314 -0.554 195 145 136
0.09954 -0.3397 -0.553 197 147 138
0.100593 -0.3397 -0.553 199 149 140
0.101647 -0.3397 -0.553 196 146 137
0.1027 -0.3397 -0.553 201 148 140
0.103753 -0.3397 -0.553 200 147 139
0.104617 -0.339086 -0.552 197 145 134
0.105669 -0.339086 -0.552 194 142 131
0.106527 -0.338471 -0.551 192 138 128
0.107576 -0.338471 -0.551 190 136 126
0.108429 -0.337857 -0.55 188 134 124
0.109476 -0.337857 -0.55 186 132 122
0.110524 -0.337857 -0.55 188 136 122
0.111369 -0.337243 -0.549 191 139 125
0.112619 -0.337857 -0.55 193 141 127
0.113667 -0.337857 -0.55 193 141 127
0.114714 -0.337857 -0.55 193 141 127
0.115762 -0.337857 -0.55 192 140 126
0.11681 -0.337857 -0.55 191 138 124
0.117857 -0.337857 -0.55 191 138 124
0.118905 -0.337857 -0.55 188 135 121
0.119952 -0.337857 -0.55 185 132 118
0.121 -0.337857 -0.55 185 132 118
0.122048 -0.337857 -0.55 183 127 112
0.123319 -0.338471 -0.551 183 127 112
0.124369 -0.338471 -0.551 182 126 111
0.125418 -0.338471 -0.551 179 123 108
0.126697 -0.339086 -0.552 180 124 109
0.127749 -0.339086 -0.552 178 122 107
0.1288 -0.339086 -0.552 172 119 103
0.130087 -0.3397 -0.553 171 118 102
0.13114 -0.3397 -0.553 169 116 100
0.132432 -0.340314 -0.554 162 109 93
0.133729 -0.340929 -0.555 158 107 90
0.135029 -0.341543 -0.556 158 107 90
0.136332 -0.342157 -0.557 153 101 87
0.13764 -0.342771 -0.558 153 101 87
0.138951 -0.343386 -0.559 147 97 86
0.140267 -0.344 -0.56 145 95 84
0.141586 -0.344614 -0.561 144 94 85
0.142909 -0.345229 -0.562 143 93 84
0.143979 -0.345229 -0.562 142 94 84
0.145308 -0.345843 -0.563 141 93 83
0.14664 -0.346457 -0.564 140 92 82
0.147976 -0.347071 -0.565 139 91 81
0.149316 -0.347686 -0.566 136 89 79
0.15066 -0.3483 -0.567 134 87 77
0.152008 -0.348914 -0.568 135 88 78
0.15309 -0.348914 -0.568 136 89 79
0.154443 -0.349529 -0.569 133 86 78
0.1558 -0.350143 -0.57 131 84 76
0.156886 -0.350143 -0.57 128 83 77
0.158249 -0.350757 -0.571 126 81 75
0.159336 -0.350757 -0.571 128 83 77
0.160705 -0.351371 -0.572 127 82 76
0.162077 -0.351986 -0.573 127 84 78
0.163453 -0.3526 -0.574 128 85 79
0.164833 -0.353214 -0.575 128 85 79
0.166217 -0.353829 -0.576 127 84 78
0.167605 -0.354443 -0.577 126 82 79
0.168996 -0.355057 -0.578 125 81 78
0.170391 -0.355671 -0.579 124 84 76
0.171198 -0.355057 -0.578 125 84 78
0.172597 -0.355671 -0.579 124 83 77
0.174 -0.356286 -0.58 124 83 77
0.175407 -0.3569 -0.581 123 84 77
0.176817 -0.357514 -0.582 123 84 77
0.178231 -0.358129 -0.583 122 83 78
0.17965 -0.358743 -0.584 122 83 78
0.181071 -0.359357 -0.585 122 85 79
0.182497 -0.359971 -0.586 121 84 78
0.18424 -0.3612 -0.588 121 83 80
0.185675 -0.361814 -0.589 121 83 80
0.186797 -0.361814 -0.589 121 83 80
0.188557 -0.363043 -0.591 121 83 80
0.210886 -0.374714 -0.61 153 150 177
0.212048 -0.374714 -0.61 154 151 178
0.213559 -0.375329 -0.611 106 111 143
0.215074 -0.375943 -0.612 67 72 104
0.21624 -0.375943 -0.612 52 60 99
0.217761 -0.376557 -0.613 82 90 129
0.218929 -0.376557 -0.613 110 113 146
0.220096 -0.376557 -0.613 114 117 150
0.221264 -0.376557 -0.613 150 152 175
0.222431 -0.376557 -0.613 150 152 175
0.223599 -0.376557 -0.613 107 119 157
0.225133 -0.377171 -0.614 60 72 110
0.226303 -0.377171 -0.614 33 53 103
0.227472 -0.377171 -0.614 62 82 132
0.228642 -0.377171 -0.614 126 140 177
0.229811 -0.377171 -0.614 148 162 199
0.230981 -0.377171 -0.614 129 138 177
0.23215 -0.377171 -0.614 107 116 155
0.23332 -0.377171 -0.614 99 113 162
0.23449 -0.377171 -0.614 67 81 130
0.235659 -0.377171 -0.614 60 79 122
0.236829 -0.377171 -0.614 79 98 141
0.237998 -0.377171 -0.614 162 171 200
0.239168 -0.377171 -0.614 162 171 200
0.240337 -0.377171 -0.614 174 183 212
0.241507 -0.377171 -0.614 187 185 206
0.242676 -0.377171 -0.614 189 187 208
0.243846 -0.377171 -0.614 188 189 210
0.244616 -0.376557 -0.613 190 191 212
0.245784 -0.376557 -0.613 196 192 207
0.246951 -0.376557 -0.613 201 197 212
0.248119 -0.376557 -0.613 198 196 218
0.249287 -0.376557 -0.613 204 202 224
0.250454 -0.376557 -0.613 192 194 217
0.251622 -0.376557 -0.613 150 152 175
0.25279 -0.376557 -0.613 127 147 182
0.253957 -0.376557 -0.613 116 136 171
0.255125 -0.376557 -0.613 123 141 179
0.256292 -0.376557 -0.613 143 161 199
0.25746 -0.376557 -0.613 149 171 210
0.258628 -0.376557 -0.613 152 174 213
0.259795 -0.376557 -0.613 158 181 222
0.260963 -0.376557 -0.613 146 169 210
0.26213 -0.376557 -0.613 135 157 196
0.263298 -0.376557 -0.613 133 155 194
0.264466 -0.376557 -0.613 159 173 208
0.265633 -0.376557 -0.613 191 205 240
0.266801 -0.376557 -0.613 213 220 248
0.267969 -0.376557 -0.613 218 225 253
0.269136 -0.376557 -0.613 226 226 250
0.270304 -0.376557 -0.613 226 226 250
0.271471 -0.376557 -0.613 228 229 250
0.272639 -0.376557 -0.613 228 229 250
0.273807 -0.376557 -0.613 228 228 252
0.359035 -0.379014 -0.617 210 216 250
0.36021 -0.379014 -0.617 230 236 255
0.361386 -0.379014 -0.617 241 245 255
0.362561 -0.379014 -0.617 229 233 244
0.363736 -0.379014 -0.617 221 229 248
0.364911 -0.379014 -0.617 200 208 227
0.366087 -0.379014 -0.617 163 177 203
0.367262 -0.379014 -0.617 148 162 188
0.368437 -0.379014 -0.617 189 196 224
0.369612 -0.379014 -0.617 230 237 255
0.370788 -0.379014 -0.617 253 253 255
0.434 -0.380857 -0.62 250 251 253
0.435181 -0.380857 -0.62 249 250 252
0.436362 -0.380857 -0.62 252 249 255
0.445346 -0.381471 -0.621 214 214 224
0.446529 -0.381471 -0.621 171 189 229
0.447711 -0.381471 -0.621 171 189 229
0.448894 -0.381471 -0.621 166 184 224
0.450077 -0.381471 -0.621 164 181 225
0.45126 -0.381471 -0.621 178 195 239
0.452443 -0.381471 -0.621 189 208 251
0.453626 -0.381471 -0.621 188 207 250
0.454809 -0.381471 -0.621 186 208 247
0.455991 -0.381471 -0.621 176 198 237
0.457174 -0.381471 -0.621 163 178 221
0.458357 -0.381471 -0.621 166 181 224
0.468573 -0.382086 -0.622 216 213 220
0.469758 -0.382086 -0.622 227 230 239
0.470943 -0.382086 -0.622 240 243 252
0.472128 -0.382086 -0.622 240 237 254
0.473312 -0.382086 -0.622 205 202 219
0.474497 -0.382086 -0.622 133 144 164
0.475682 -0.382086 -0.622 128 139 159
0.477633 -0.3827 -0.623 163 173 208
0.47882 -0.3827 -0.623 195 205 240
0.480007 -0.3827 -0.623 196 208 234
0.481193 -0.3827 -0.623 213 225 251
0.48238 -0.3827 -0.623 216 223 251
0.483567 -0.3827 -0.623 193 200 228
0.484753 -0.3827 -0.623 193 200 228
0.48594 -0.3827 -0.623 134 156 197
0.487909 -0.383314 -0.624 95 117 158
0.489097 -0.383314 -0.624 137 155 205
0.490286 -0.383314 -0.624 179 197 247
0.491474 -0.383314 -0.624 210 217 236
0.492663 -0.383314 -0.624 207 214 233
0.493851 -0.383314 -0.624 184 195 217
0.49504 -0.383314 -0.624 187 198 220
0.496229 -0.383314 -0.624 144 157 191
0.497417 -0.383314 -0.624 109 122 156
0.498606 -0.383314 -0.624 92 107 146
0.499794 -0.383314 -0.624 160 175 214
0.500983 -0.383314 -0.624 198 200 215
0.502171 -0.383314 -0.624 171 173 188
0.504167 -0.383929 -0.625 176 180 189
0.505357 -0.383929 -0.625 210 214 223
0.506548 -0.383929 -0.625 205 208 215
0.507738 -0.383929 -0.625 204 207 214
0.508929 -0.383929 -0.625 199 206 224
0.510119 -0.383929 -0.625 200 207 225
0.51131 -0.383929 -0.625 189 197 216
0.5125 -0.383929 -0.625 153 161 180
0.512869 -0.383314 -0.624 102 122 159
0.514057 -0.383314 -0.624 99 119 156
0.507094 -0.370414 -0.603 174 145 141
0.508243 -0.370414 -0.603 174 145 141
0.506012 -0.367957 -0.599 175 146 142
0.503767 -0.3655 -0.595 178 145 138
0.501506 -0.363043 -0.591 178 145 138
0.49923 -0.360586 -0.587 180 147 140
0.496938 -0.358129 -0.583 183 150 143
0.494631 -0.355671 -0.579 183 150 145
0.493166 -0.353829 -0.576 182 149 144
0.491689 -0.351986 -0.573 184 147 138
0.48934 -0.349529 -0.569 185 148 139
0.487838 -0.347686 -0.566 183 149 139
0.486325 -0.345843 -0.563 184 150 140
0.4848 -0.344 -0.56 184 150 140
0.483264 -0.342157 -0.557 185 151 141
0.482586 -0.340929 -0.555 188 152 140
0.4819 -0.3397 -0.553 188 152 140
0.481207 -0.338471 -0.551 189 153 139
0.480506 -0.337243 -0.549 190 154 140
0.479797 -0.336014 -0.547 193 155 142
0.479081 -0.334786 -0.545 191 153 140
0.478357 -0.333557 -0.543 186 149 133
0.478509 -0.332943 -0.542 191 154 138
0.478656 -0.332329 -0.541 194 155 138
0.479687 -0.332329 -0.541 198 159 142
0.479829 -0.331714 -0.54 196 157 140
0.479967 -0.3311 -0.539 201 162 145
0.480101 -0.330486 -0.538 199 158 140
0.481126 -0.330486 -0.538 195 154 136
0.481254 -0.329871 -0.537 199 158 140
0.482277 -0.329871 -0.537 203 162 144
0.4824 -0.329257 -0.536 200 159 141
0.482519 -0.328643 -0.535 199 158 140
0.483538 -0.328643 -0.535 198 157 137
0.484557 -0.328643 -0.535 196 155 135
0.484669 -0.328029 -0.534 197 154 135
0.485686 -0.328029 -0.534 197 154 135
0.485791 -0.327414 -0.533 199 156 137
0.485893 -0.3268 -0.532 200 157 138
0.486907 -0.3268 -0.532 199 157 135
0.487003 -0.326186 -0.531 198 156 134
0.488014 -0.326186 -0.531 198 156 134
0.488105 -0.325571 -0.53 198 153 132
0.489114 -0.325571 -0.53 198 153 132
0.489199 -0.324957 -0.529 200 155 134
0.490207 -0.324957 -0.529 203 158 137
0.490286 -0.324343 -0.528 201 156 135
0.491291 -0.324343 -0.528 197 152 131
0.492297 -0.324343 -0.528 196 151 130
0.492369 -0.323729 -0.527 192 147 126
0.492436 -0.323114 -0.526 188 146 122
0.493438 -0.323114 -0.526 192 150 126
0.49444 -0.323114 -0.526 190 148 123
0.495442 -0.323114 -0.526 189 147 122
0.496444 -0.323114 -0.526 189 147 122
0.497446 -0.323114 -0.526 188 146 121
0.498448 -0.323114 -0.526 189 147 122
0.49945 -0.323114 -0.526 189 147 122
0.500451 -0.323114 -0.526 187 146 118
0.501453 -0.323114 -0.526 183 142 114
0.50341 -0.323729 -0.527 181 141 116
0.505371 -0.324343 -0.528 177 137 112
0.506377 -0.324343 -0.528 170 133 107
0.508344 -0.324957 -0.529 170 133 107
0.510314 -0.325571 -0.53 169 131 108
0.513253 -0.3268 -0.532 167 129 106
0.5162 -0.328029 -0.534 164 128 106
0.520123 -0.329871 -0.537 163 127 105
0.525028 -0.332329 -0.541 161 126 106
0.529948 -0.334786 -0.545 162 127 107
0.601797 -0.372871 -0.607 207 189 177
0.605933 -0.374714 -0.61 208 203 199
1.0386 -0.387 -0.63 207 210 193
1.0398 -0.387 -0.63 207 210 193
1.07922 -0.388229 -0.632 206 209 190
1.08042 -0.388229 -0.632 206 209 190
1.08162 -0.388229 -0.632 205 208 191
1.08283 -0.388229 -0.632 205 208 191
1.08403 -0.388229 -0.632 205 208 191
1.08523 -0.388229 -0.632 206 209 192
1.08644 -0.388229 -0.632 206 209 190
1.10142 -0.388843 -0.633 205 208 189
1.10263 -0.388843 -0.633 205 208 189
1.10383 -0.388843 -0.633 205 208 189
1.10504 -0.388843 -0.633 205 208 189
1.10624 -0.388843 -0.633 205 208 191
1.10745 -0.388843 -0.633 205 208 191
1.10865 -0.388843 -0.633 205 208 191
1.10986 -0.388843 -0.633 204 207 190
1.11107 -0.388843 -0.633 204 207 190
1.11227 -0.388843 -0.633 204 207 190
1.11348 -0.388843 -0.633 204 207 190
1.1249 -0.389457 -0.634 203 205 191
1.1261 -0.389457 -0.634 203 205 191
1.13939 -0.389457 -0.634 203 205 191
1.1406 -0.389457 -0.634 203 205 191
1.1418 -0.389457 -0.634 202 204 190
1.14301 -0.389457 -0.634 203 205 191
1.14422 -0.389457 -0.634 203 205 191
1.14362 -0.388843 -0.633 202 204 190
1.14483 -0.388843 -0.633 202 204 190
1.14603 -0.388843 -0.633 202 204 190
1.14724 -0.388843 -0.633 202 204 190
1.14663 -0.388229 -0.632 202 204 190
1.14602 -0.387614 -0.631 204 206 192
1.1454 -0.387 -0.63 203 205 191
1.1466 -0.387 -0.63 202 204 190
1.14598 -0.386386 -0.629 201 203 189
1.14353 -0.385157 -0.627 200 202 188
1.1429 -0.384543 -0.626 201 203 189
1.14043 -0.383314 -0.624 201 203 189
0.0897 -0.360471 -0.585 191 145 132
0.0900381 -0.35739 -0.58 197 149 139
0.0902 -0.353693 -0.574 197 149 139
0.0906571 -0.351229 -0.57 196 147 142
0.0909381 -0.348148 -0.565 196 147 142
0.0913629 -0.345683 -0.561 197 150 142
0.0921019 -0.34445 -0.559 196 149 141
0.0926667 -0.342602 -0.556 194 147 137
0.0935571 -0.341986 -0.555 195 148 138
0.0944438 -0.34137 -0.554 198 148 137
0.0953267 -0.340753 -0.553 195 145 134
0.09638 -0.340753 -0.553 196 146 135
0.0974333 -0.340753 -0.553 198 148 137
0.0984867 -0.340753 -0.553 198 148 137
0.09936 -0.340137 -0.552 200 150 139
0.100411 -0.340137 -0.552 201 151 140
0.101463 -0.340137 -0.552 197 147 136
0.102514 -0.340137 -0.552 196 147 133
0.103566 -0.340137 -0.552 193 144 130
0.104428 -0.339521 -0.551 192 140 127
0.105477 -0.339521 -0.551 192 140 127
0.106527 -0.339521 -0.551 192 140 127
0.107381 -0.338905 -0.55 192 140 127
0.108429 -0.338905 -0.55 191 139 126
0.109277 -0.338289 -0.549 188 136 123
0.110323 -0.338289 -0.549 190 138 125
0.111369 -0.338289 -0.549 193 141 128
0.112414 -0.338289 -0.549 193 141 128
0.11346 -0.338289 -0.549 192 140 127
0.114714 -0.338905 -0.55 193 140 126
0.115762 -0.338905 -0.55 191 138 124
0.11681 -0.338905 -0.55 188 135 121
0.117857 -0.338905 -0.55 188 135 121
0.118905 -0.338905 -0.55 186 133 119
0.119952 -0.338905 -0.55 186 133 119
0.121 -0.338905 -0.55 184 131 117
0.122048 -0.338905 -0.55 183 127 112
0.123095 -0.338905 -0.55 184 128 113
0.124369 -0.339521 -0.551 183 127 112
0.125418 -0.339521 -0.551 180 124 109
0.126468 -0.339521 -0.551 177 121 106
0.127749 -0.340137 -0.552 173 117 102
0.1288 -0.340137 -0.552 169 116 100
0.130087 -0.340753 -0.553 170 117 101
0.13114 -0.340753 -0.553 168 115 99
0.132432 -0.34137 -0.554 161 108 92
0.133729 -0.341986 -0.555 157 104 88
0.135029 -0.342602 -0.556 154 101 85
0.136332 -0.343218 -0.557 149 97 83
0.13764 -0.343834 -0.558 151 99 85
0.138951 -0.34445 -0.559 151 99 86
0.140267 -0.345067 -0.56 148 96 83
0.141586 -0.345683 -0.561 144 94 83
0.142909 -0.346299 -0.562 143 93 82
0.144235 -0.346915 -0.563 142 92 83
0.145566 -0.347531 -0.564 142 92 83
0.1469 -0.348148 -0.565 141 91 82
0.148238 -0.348764 -0.566 139 89 80
0.14958 -0.34938 -0.567 134 87 77
0.15066 -0.34938 -0.567 133 86 76
0.152008 -0.349996 -0.568 133 87 74
0.153359 -0.350612 -0.569 134 88 75
0.154714 -0.351229 -0.57 133 86 76
0.1558 -0.351229 -0.57 131 84 74
0.157161 -0.351845 -0.571 127 83 74
0.158526 -0.352461 -0.572 126 82 73
0.159615 -0.352461 -0.572 127 82 76
0.160986 -0.353077 -0.573 126 81 75
0.16236 -0.353693 -0.574 126 83 76
0.163738 -0.35431 -0.575 126 83 76
0.16512 -0.354926 -0.576 126 83 76
0.166506 -0.355542 -0.577 127 84 77
0.167895 -0.356158 -0.578 127 84 78
0.169289 -0.356774 -0.579 126 83 77
0.170391 -0.356774 -0.579 124 84 76
0.17179 -0.35739 -0.58 123 83 75
0.173193 -0.358007 -0.581 123 83 75
0.1746 -0.358623 -0.582 124 84 76
0.17601 -0.359239 -0.583 124 83 77
0.177425 -0.359855 -0.584 125 84 78
0.178843 -0.360471 -0.585 124 85 80
0.180265 -0.361088 -0.586 123 84 79
0.182 -0.36232 -0.588 122 85 79
0.183431 -0.362936 -0.589 122 85 79
0.184867 -0.363552 -0.59 121 83 80
0.18599 -0.363552 -0.59 121 83 80
0.210886 -0.375876 -0.61 158 156 180
0.212395 -0.376492 -0.611 150 148 172
0.213559 -0.376492 -0.611 97 100 133
0.215074 -0.377109 -0.612 69 72 105
0.21624 -0.377109 -0.612 53 61 100
0.217761 -0.377725 -0.613 64 72 111
0.218929 -0.377725 -0.613 91 96 126
0.220096 -0.377725 -0.613 92 97 127
0.221264 -0.377725 -0.613 154 158 183
0.222431 -0.377725 -0.613 138 142 167
0.223599 -0.377725 -0.613 95 109 148
0.224767 -0.377725 -0.613 51 65 104
0.225934 -0.377725 -0.613 36 56 107
0.227102 -0.377725 -0.613 67 87 138
0.22827 -0.377725 -0.613 120 134 169
0.229437 -0.377725 -0.613 146 160 195
0.230981 -0.378341 -0.614 116 126 162
0.23215 -0.378341 -0.614 99 109 145
0.23332 -0.378341 -0.614 84 100 149
0.23449 -0.378341 -0.614 52 68 117
0.235659 -0.378341 -0.614 67 85 131
0.236443 -0.377725 -0.613 98 116 162
0.23761 -0.377725 -0.613 98 116 162
0.238778 -0.377725 -0.613 157 166 195
0.239946 -0.377725 -0.613 171 180 209
0.241113 -0.377725 -0.613 187 186 204
0.242281 -0.377725 -0.613 188 187 205
0.243449 -0.377725 -0.613 187 189 210
0.244616 -0.377725 -0.613 193 195 216
0.245784 -0.377725 -0.613 195 191 208
0.246549 -0.377109 -0.612 201 197 214
0.247714 -0.377109 -0.612 197 198 218
0.24888 -0.377109 -0.612 200 201 221
0.250046 -0.377109 -0.612 183 189 213
0.251211 -0.377109 -0.612 153 159 183
0.252377 -0.377109 -0.612 121 143 184
0.253543 -0.377109 -0.612 117 139 180
0.254709 -0.377109 -0.612 129 151 190
0.255874 -0.377109 -0.612 137 159 198
0.25704 -0.377109 -0.612 140 162 201
0.258206 -0.377109 -0.612 148 170 209
0.259371 -0.377109 -0.612 157 179 218
0.260537 -0.377109 -0.612 142 164 203
0.261703 -0.377109 -0.612 138 160 199
0.262869 -0.377109 -0.612 143 165 204
0.264034 -0.377109 -0.612 169 185 218
0.2652 -0.377109 -0.612 197 213 246
0.266366 -0.377109 -0.612 214 221 249
0.267531 -0.377109 -0.612 219 226 254
0.268697 -0.377109 -0.612 225 226 247
0.269863 -0.377109 -0.612 226 227 248
0.271029 -0.377109 -0.612 228 229 250
0.272194 -0.377109 -0.612 228 229 250
0.27336 -0.377109 -0.612 226 228 249
0.349067 -0.379573 -0.616 186 196 231
0.35024 -0.379573 -0.616 197 207 242
0.351413 -0.379573 -0.616 219 226 254
0.352587 -0.379573 -0.616 238 245 255
0.35376 -0.379573 -0.616 221 227 251
0.354933 -0.379573 -0.616 187 193 217
0.356107 -0.379573 -0.616 127 149 196
0.35728 -0.379573 -0.616 141 163 210
0.358453 -0.379573 -0.616 199 207 244
0.359627 -0.379573 -0.616 227 235 255
0.3608 -0.379573 -0.616 233 240 255
0.362561 -0.38019 -0.617 207 214 232
0.363736 -0.38019 -0.617 198 214 240
0.364911 -0.38019 -0.617 169 185 211
0.366087 -0.38019 -0.617 140 159 191
0.367262 -0.38019 -0.617 141 160 192
0.368437 -0.38019 -0.617 214 221 249
0.369612 -0.38019 -0.617 238 245 255
0.370788 -0.38019 -0.617 255 254 255
0.371963 -0.38019 -0.617 253 252 255
0.373138 -0.38019 -0.617 254 252 255
0.374313 -0.38019 -0.617 253 251 255
0.375489 -0.38019 -0.617 253 254 255
0.376664 -0.38019 -0.617 251 252 255
0.383715 -0.38019 -0.617 184 193 226
0.426226 -0.381422 -0.619 189 194 224
0.427405 -0.381422 -0.619 181 186 216
0.444629 -0.382038 -0.62 230 230 240
0.44581 -0.382038 -0.62 181 200 240
0.44699 -0.382038 -0.62 181 200 240
0.448171 -0.382038 -0.62 170 189 229
0.450077 -0.382654 -0.621 168 186 232
0.45126 -0.382654 -0.621 183 201 247
0.452443 -0.382654 -0.621 192 213 255
0.453626 -0.382654 -0.621 186 207 254
0.454809 -0.382654 -0.621 190 211 254
0.455991 -0.382654 -0.621 184 205 248
0.457174 -0.382654 -0.621 166 183 226
0.458357 -0.382654 -0.621 166 183 226
0.45954 -0.382654 -0.621 176 196 233
0.460723 -0.382654 -0.621 203 223 255
0.461906 -0.382654 -0.621 237 244 252
0.463089 -0.382654 -0.621 248 255 255
0.464271 -0.382654 -0.621 250 250 255
0.465454 -0.382654 -0.621 237 237 247
0.466637 -0.382654 -0.621 241 235 245
0.46782 -0.382654 -0.621 244 238 248
0.469003 -0.382654 -0.621 242 245 252
0.470186 -0.382654 -0.621 238 241 248
0.471369 -0.382654 -0.621 241 240 254
0.473312 -0.38327 -0.622 232 231 245
0.474497 -0.38327 -0.622 159 173 200
0.475682 -0.38327 -0.622 114 128 155
0.476867 -0.38327 -0.622 117 130 174
0.478051 -0.38327 -0.622 159 172 216
0.479236 -0.38327 -0.622 167 180 212
0.480421 -0.38327 -0.622 188 201 233
0.481606 -0.38327 -0.622 208 219 247
0.483567 -0.383887 -0.623 189 200 228
0.484753 -0.383887 -0.623 126 152 189
0.48594 -0.383887 -0.623 126 152 189
0.487127 -0.383887 -0.623 76 102 139
0.488313 -0.383887 -0.623 114 135 188
0.4895 -0.383887 -0.623 164 185 238
0.490687 -0.383887 -0.623 205 213 232
0.491873 -0.383887 -0.623 197 205 224
0.49306 -0.383887 -0.623 157 171 197
0.494247 -0.383887 -0.623 155 169 195
0.495433 -0.383887 -0.623 107 121 166
0.49662 -0.383887 -0.623 81 95 140
0.497807 -0.383887 -0.623 100 121 166
0.498993 -0.383887 -0.623 180 201 246
0.500983 -0.384503 -0.624 209 212 227
0.502171 -0.384503 -0.624 207 210 225
0.50336 -0.384503 -0.624 192 195 200
0.504549 -0.384503 -0.624 196 199 204
0.505737 -0.384503 -0.624 201 205 208
0.506926 -0.384503 -0.624 206 210 213
0.508114 -0.384503 -0.624 200 209 218
0.509303 -0.384503 -0.624 200 209 218
0.510491 -0.384503 -0.624 196 203 219
0.51168 -0.384503 -0.624 160 167 183
0.512869 -0.384503 -0.624 117 139 180
0.513233 -0.383887 -0.623 100 122 163
0.51442 -0.383887 -0.623 89 110 163
0.507094 -0.371563 -0.603 173 144 140
0.508243 -0.371563 -0.603 173 144 140
0.506012 -0.369098 -0.599 175 146 142
0.504613 -0.36725 -0.596 175 144 139
0.502354 -0.364785 -0.592 176 145 140
0.50008 -0.36232 -0.588 177 146 141
0.49779 -0.359855 -0.584 180 149 144
0.495486 -0.35739 -0.58 181 150 145
0.494022 -0.355542 -0.577 180 149 144
0.492547 -0.353693 -0.574 183 146 137
0.4902 -0.351229 -0.57 182 145 136
0.4887 -0.34938 -0.567 183 149 139
0.487189 -0.347531 -0.564 183 149 139
0.485666 -0.345683 -0.561 184 150 140
0.484131 -0.343834 -0.558 185 151 141
0.482586 -0.341986 -0.555 187 151 139
0.4819 -0.340753 -0.553 188 152 140
0.481207 -0.339521 -0.551 189 153 139
0.480506 -0.338289 -0.549 189 153 139
0.479797 -0.337056 -0.547 191 153 140
0.479081 -0.335824 -0.545 188 150 137
0.478357 -0.334591 -0.543 182 145 129
0.478509 -0.333975 -0.542 189 152 136
0.478656 -0.333359 -0.541 194 155 138
0.4788 -0.332743 -0.54 198 159 142
0.479829 -0.332743 -0.54 196 157 140
0.479967 -0.332127 -0.539 199 160 143
0.480101 -0.33151 -0.538 200 159 141
0.480231 -0.330894 -0.537 194 153 135
0.481254 -0.330894 -0.537 198 157 139
0.482277 -0.330894 -0.537 201 160 142
0.4824 -0.330278 -0.536 198 157 137
0.482519 -0.329662 -0.535 197 156 136
0.483538 -0.329662 -0.535 197 154 135
0.483651 -0.329046 -0.534 194 151 132
0.484669 -0.329046 -0.534 196 153 134
0.484776 -0.32843 -0.533 198 155 136
0.485791 -0.32843 -0.533 201 159 137
0.485893 -0.327813 -0.532 202 160 138
0.485991 -0.327197 -0.531 202 160 138
0.487003 -0.327197 -0.531 198 156 134
0.488014 -0.327197 -0.531 198 156 134
0.488105 -0.326581 -0.53 198 153 132
0.488191 -0.325965 -0.529 196 151 130
0.489199 -0.325965 -0.529 202 157 136
0.48928 -0.325349 -0.528 202 157 136
0.490286 -0.325349 -0.528 197 154 135
0.491291 -0.325349 -0.528 193 150 131
0.491365 -0.324732 -0.527 186 144 122
0.492369 -0.324732 -0.527 173 131 109
0.492436 -0.324116 -0.526 174 132 108
0.4925 -0.3235 -0.525 192 150 126
0.4935 -0.3235 -0.525 188 146 122
0.4945 -0.3235 -0.525 189 147 123
0.4955 -0.3235 -0.525 190 148 124
0.4965 -0.3235 -0.525 190 148 124
0.4975 -0.3235 -0.525 190 148 123
0.4985 -0.3235 -0.525 190 148 123
0.4995 -0.3235 -0.525 188 146 121
0.5005 -0.3235 -0.525 184 142 117
0.5015 -0.3235 -0.525 181 141 116
0.503457 -0.324116 -0.526 180 140 115
0.505418 -0.324732 -0.527 176 136 111
0.507383 -0.325349 -0.528 174 134 109
0.509351 -0.325965 -0.529 171 133 110
0.511324 -0.326581 -0.53 168 130 107
0.514267 -0.327813 -0.532 166 130 108
0.517217 -0.329046 -0.534 165 129 107
0.521146 -0.330894 -0.537 163 128 106
0.59684 -0.370947 -0.602 189 166 152
0.602953 -0.374028 -0.607 203 194 189
1.09246 -0.389432 -0.632 205 208 191
1.09366 -0.389432 -0.632 204 207 190
1.09486 -0.389432 -0.632 204 207 188
1.09607 -0.389432 -0.632 204 207 188
1.09727 -0.389432 -0.632 204 207 188
1.09848 -0.389432 -0.632 205 208 189
1.09968 -0.389432 -0.632 205 208 189
1.10088 -0.389432 -0.632 204 207 188
1.11468 -0.390049 -0.633 204 207 190
1.11589 -0.390049 -0.633 203 206 189
1.11709 -0.390049 -0.633 203 205 191
1.13697 -0.390665 -0.634 203 205 191
1.13818 -0.390665 -0.634 203 205 191
1.13939 -0.390665 -0.634 203 205 191
1.1388 -0.390049 -0.633 203 205 191
1.14 -0.390049 -0.633 202 204 190
1.14121 -0.390049 -0.633 202 204 190
1.14241 -0.390049 -0.633 203 205 191
1.14181 -0.389432 -0.632 202 204 190
1.14302 -0.389432 -0.632 202 204 190
1.14422 -0.389432 -0.632 202 204 190
1.14542 -0.389432 -0.632 202 204 190
1.14481 -0.388816 -0.631 202 204 190
1.14602 -0.388816 -0.631 203 205 191
1.1454 -0.3882 -0.63 203 205 191
1.14478 -0.387584 -0.629 202 204 190
1.14416 -0.386968 -0.628 201 203 189
1.14353 -0.386351 -0.627 201 203 189
1.1429 -0.385735 -0.626 201 203 189
1.14043 -0.384503 -0.624 201 203 189
0.0884343 -0.360968 -0.584 189 141 127
0.0890867 -0.359113 -0.581 192 144 130
0.0892619 -0.355405 -0.575 196 148 138
0.0895714 -0.352314 -0.57 195 147 137
0.0900209 -0.349842 -0.566 196 146 137
0.0904552 -0.34737 -0.562 197 147 138
0.0910371 -0.345515 -0.559 198 150 140
0.0916076 -0.343661 -0.556 197 149 139
0.0923333 -0.342425 -0.554 195 148 138
0.09322 -0.341807 -0.553 197 150 140
0.0942733 -0.341807 -0.553 202 153 139
0.0951543 -0.341189 -0.552 198 149 135
0.0962057 -0.341189 -0.552 196 147 133
0.0972571 -0.341189 -0.552 198 149 135
0.0983086 -0.341189 -0.552 199 150 136
0.09936 -0.341189 -0.552 202 153 139
0.10023 -0.34057 -0.551 202 153 139
0.101279 -0.34057 -0.551 199 150 136
0.102329 -0.34057 -0.551 196 147 133
0.103378 -0.34057 -0.551 192 143 129
0.104428 -0.34057 -0.551 193 141 127
0.105286 -0.339952 -0.55 194 142 128
0.106333 -0.339952 -0.55 195 143 129
0.107186 -0.339334 -0.549 194 142 128
0.108231 -0.339334 -0.549 193 141 127
0.109277 -0.339334 -0.549 192 140 126
0.110323 -0.339334 -0.549 192 139 125
0.111166 -0.338716 -0.548 193 140 126
0.11221 -0.338716 -0.548 193 140 126
0.11346 -0.339334 -0.549 193 140 126
0.114506 -0.339334 -0.549 194 141 127
0.115551 -0.339334 -0.549 193 140 126
0.116597 -0.339334 -0.549 192 139 125
0.117643 -0.339334 -0.549 191 138 124
0.118689 -0.339334 -0.549 191 138 124
0.119734 -0.339334 -0.549 187 134 118
0.12078 -0.339334 -0.549 184 131 115
0.122048 -0.339952 -0.55 185 129 114
0.123095 -0.339952 -0.55 184 128 113
0.124143 -0.339952 -0.55 183 127 110
0.125418 -0.34057 -0.551 180 124 107
0.126468 -0.34057 -0.551 175 119 102
0.127517 -0.34057 -0.551 170 114 97
0.1288 -0.341189 -0.552 164 111 95
0.130087 -0.341807 -0.553 165 112 96
0.13114 -0.341807 -0.553 160 108 94
0.132432 -0.342425 -0.554 156 104 90
0.133729 -0.343043 -0.555 154 102 89
0.135029 -0.343661 -0.556 150 98 85
0.136332 -0.344279 -0.557 149 97 84
0.13764 -0.344897 -0.558 150 98 85
0.138951 -0.345515 -0.559 148 98 87
0.140267 -0.346133 -0.56 145 95 84
0.141586 -0.346751 -0.561 142 94 82
0.142909 -0.34737 -0.562 140 92 80
0.144235 -0.347988 -0.563 139 91 81
0.145566 -0.348606 -0.564 139 91 81
0.1469 -0.349224 -0.565 138 89 82
0.148238 -0.349842 -0.566 137 88 81
0.14958 -0.35046 -0.567 135 88 78
0.150926 -0.351078 -0.568 132 85 75
0.152275 -0.351696 -0.569 133 86 76
0.153629 -0.352314 -0.57 133 86 76
0.154714 -0.352314 -0.57 130 86 75
0.156073 -0.352932 -0.571 129 85 74
0.157436 -0.35355 -0.572 129 84 78
0.158526 -0.35355 -0.572 128 83 77
0.159894 -0.354169 -0.573 127 84 77
0.161267 -0.354787 -0.574 126 83 76
0.162643 -0.355405 -0.575 123 83 75
0.164023 -0.356023 -0.576 123 83 75
0.165407 -0.356641 -0.577 124 83 77
0.166794 -0.357259 -0.578 126 85 79
0.167895 -0.357259 -0.578 127 84 78
0.169289 -0.357877 -0.579 126 83 77
0.170686 -0.358495 -0.58 122 84 75
0.172087 -0.359113 -0.581 122 84 75
0.173491 -0.359731 -0.582 123 83 75
0.1752 -0.360968 -0.584 124 84 76
0.176614 -0.361586 -0.585 124 83 77
0.178032 -0.362204 -0.586 124 83 77
0.179454 -0.362822 -0.587 123 83 81
0.18088 -0.36344 -0.588 122 82 80
0.182619 -0.364676 -0.59 123 85 84
0.20706 -0.37642 -0.609 155 147 170
0.208562 -0.377038 -0.61 153 150 171
0.209724 -0.377038 -0.61 151 148 169
0.210886 -0.377038 -0.61 159 159 183
0.212395 -0.377656 -0.611 140 140 164
0.213559 -0.377656 -0.611 82 85 116
0.214723 -0.377656 -0.611 52 55 86
0.21624 -0.378274 -0.612 68 72 110
0.217406 -0.378274 -0.612 83 87 125
0.218571 -0.378274 -0.612 108 113 145
0.219737 -0.378274 -0.612 126 131 163
0.220903 -0.378274 -0.612 153 157 186
0.222069 -0.378274 -0.612 137 141 170
0.223234 -0.378274 -0.612 91 104 146
0.2244 -0.378274 -0.612 51 64 106
0.225566 -0.378274 -0.612 33 53 103
0.226731 -0.378274 -0.612 87 107 157
0.227897 -0.378274 -0.612 135 149 186
0.229437 -0.378892 -0.613 152 166 203
0.230605 -0.378892 -0.613 131 141 176
0.231772 -0.378892 -0.613 120 130 165
0.23294 -0.378892 -0.613 108 122 167
0.233726 -0.378274 -0.612 69 83 128
0.234891 -0.378274 -0.612 55 72 118
0.236443 -0.378892 -0.613 85 102 148
0.23761 -0.378892 -0.613 85 102 148
0.238778 -0.378892 -0.613 159 168 197
0.239946 -0.378892 -0.613 177 186 215
0.241113 -0.378892 -0.613 186 185 201
0.242281 -0.378892 -0.613 193 192 208
0.243449 -0.378892 -0.613 190 192 215
0.244217 -0.378274 -0.612 194 196 219
0.245383 -0.378274 -0.612 201 198 219
0.246549 -0.378274 -0.612 198 195 216
0.247714 -0.378274 -0.612 197 198 218
0.24888 -0.378274 -0.612 204 205 225
0.250046 -0.378274 -0.612 177 183 209
0.251211 -0.378274 -0.612 140 146 172
0.252377 -0.378274 -0.612 120 143 187
0.253543 -0.378274 -0.612 111 134 178
0.254292 -0.377656 -0.611 128 152 190
0.255456 -0.377656 -0.611 139 163 201
0.25662 -0.377656 -0.611 131 151 188
0.257784 -0.377656 -0.611 139 159 196
0.258948 -0.377656 -0.611 153 173 210
0.260111 -0.377656 -0.611 141 161 198
0.261275 -0.377656 -0.611 134 154 191
0.262439 -0.377656 -0.611 143 163 200
0.263603 -0.377656 -0.611 147 162 195
0.264767 -0.377656 -0.611 198 213 246
0.3485 -0.380129 -0.615 168 181 216
0.349671 -0.380129 -0.615 183 196 231
0.350843 -0.380129 -0.615 205 214 243
0.352014 -0.380129 -0.615 227 236 255
0.353186 -0.380129 -0.615 215 221 245
0.3608 -0.380747 -0.616 226 232 255
0.361973 -0.380747 -0.616 189 195 219
0.363147 -0.380747 -0.616 182 198 232
0.36432 -0.380747 -0.616 149 165 199
0.365493 -0.380747 -0.616 138 158 193
0.366667 -0.380747 -0.616 156 176 211
0.36784 -0.380747 -0.616 212 222 247
0.369013 -0.380747 -0.616 237 247 255
0.370187 -0.380747 -0.616 245 246 248
0.37136 -0.380747 -0.616 254 255 255
0.372533 -0.380747 -0.616 249 250 255
0.373707 -0.380747 -0.616 253 254 255
0.37488 -0.380747 -0.616 254 255 255
0.434479 -0.382601 -0.619 241 249 251
0.435658 -0.382601 -0.619 249 248 254
0.436837 -0.382601 -0.619 248 247 253
0.438016 -0.382601 -0.619 253 254 255
0.439195 -0.382601 -0.619 244 245 247
0.440374 -0.382601 -0.619 221 225 228
0.448171 -0.383219 -0.62 169 188 228
0.449352 -0.383219 -0.62 166 184 230
0.450533 -0.383219 -0.62 178 196 242
0.451714 -0.383219 -0.62 187 208 255
0.452895 -0.383219 -0.62 181 202 249
0.454076 -0.383219 -0.62 184 207 249
0.455257 -0.383219 -0.62 179 202 244
0.456438 -0.383219 -0.62 165 186 229
0.457619 -0.383219 -0.62 164 185 228
0.4588 -0.383219 -0.62 174 193 233
0.459981 -0.383219 -0.62 200 219 255
0.461162 -0.383219 -0.62 244 249 255
0.462343 -0.383219 -0.62 247 252 255
0.463524 -0.383219 -0.62 240 240 248
0.472551 -0.383837 -0.621 232 231 245
0.473734 -0.383837 -0.621 172 187 220
0.474917 -0.383837 -0.621 129 144 177
0.476867 -0.384455 -0.622 101 118 164
0.477283 -0.383837 -0.621 142 159 205
0.478466 -0.383837 -0.621 156 169 203
0.479649 -0.383837 -0.621 175 188 222
0.481606 -0.384455 -0.622 204 218 245
0.48279 -0.384455 -0.622 191 205 232
0.483975 -0.384455 -0.622 132 157 188
0.48516 -0.384455 -0.622 132 157 188
0.486345 -0.384455 -0.622 72 97 128
0.48753 -0.384455 -0.622 89 116 169
0.488714 -0.384455 -0.622 146 173 226
0.489899 -0.384455 -0.622 197 205 224
0.491084 -0.384455 -0.622 192 200 219
0.49306 -0.385073 -0.623 146 162 188
0.494247 -0.385073 -0.623 134 150 176
0.495433 -0.385073 -0.623 91 107 156
0.49662 -0.385073 -0.623 84 100 149
0.497807 -0.385073 -0.623 107 129 176
0.498993 -0.385073 -0.623 171 193 240
0.50018 -0.385073 -0.623 204 207 222
0.501367 -0.385073 -0.623 209 212 227
0.502553 -0.385073 -0.623 211 216 222
0.504549 -0.385691 -0.624 197 202 208
0.505737 -0.385691 -0.624 185 189 192
0.506926 -0.385691 -0.624 201 205 208
0.508114 -0.385691 -0.624 201 211 213
0.509303 -0.385691 -0.624 196 206 208
0.510491 -0.385691 -0.624 201 205 216
0.51168 -0.385691 -0.624 180 184 195
0.512047 -0.385073 -0.623 131 150 192
0.507935 -0.37333 -0.604 173 145 141
0.505714 -0.370857 -0.6 175 147 143
0.506857 -0.370857 -0.6 175 147 143
0.504613 -0.368385 -0.596 173 145 141
0.503203 -0.36653 -0.593 174 146 142
0.50093 -0.364058 -0.589 175 146 140
0.498643 -0.361586 -0.585 177 148 142
0.49634 -0.359113 -0.581 179 150 144
0.494022 -0.356641 -0.577 179 150 144
0.492547 -0.354787 -0.574 179 145 135
0.49106 -0.352932 -0.571 177 143 133
0.4887 -0.35046 -0.567 182 148 138
0.487189 -0.348606 -0.564 181 147 137
0.485666 -0.346751 -0.561 183 149 139
0.484131 -0.344897 -0.558 184 150 140
0.482586 -0.343043 -0.555 184 150 138
0.4819 -0.341807 -0.553 185 151 139
0.481207 -0.34057 -0.551 188 152 140
0.480506 -0.339334 -0.549 189 153 141
0.479797 -0.338098 -0.547 191 153 140
0.479081 -0.336862 -0.545 187 149 136
0.478357 -0.335626 -0.543 182 145 129
0.478509 -0.335008 -0.542 186 149 133
0.478656 -0.33439 -0.541 194 155 140
0.4788 -0.333771 -0.54 198 159 144
0.479829 -0.333771 -0.54 197 158 141
0.479967 -0.333153 -0.539 200 161 144
0.480101 -0.332535 -0.538 200 159 141
0.480231 -0.331917 -0.537 194 153 135
0.481254 -0.331917 -0.537 198 157 137
0.481379 -0.331299 -0.536 200 159 139
0.4824 -0.331299 -0.536 194 153 133
0.482519 -0.330681 -0.535 195 154 134
0.482634 -0.330063 -0.534 197 154 135
0.483651 -0.330063 -0.534 194 151 132
0.483761 -0.329445 -0.533 196 153 134
0.484776 -0.329445 -0.533 199 156 137
0.48488 -0.328827 -0.532 200 158 136
0.485893 -0.328827 -0.532 201 159 137
0.485991 -0.328209 -0.531 201 159 137
0.486086 -0.32759 -0.53 198 156 134
0.487095 -0.32759 -0.53 196 151 130
0.488105 -0.32759 -0.53 196 151 130
0.488191 -0.326972 -0.529 196 151 130
0.488274 -0.326354 -0.528 198 156 134
0.48928 -0.326354 -0.528 199 157 135
0.489357 -0.325736 -0.527 196 153 134
0.490361 -0.325736 -0.527 192 149 130
0.490432 -0.325118 -0.526 183 141 119
0.491434 -0.325118 -0.526 169 127 105
0.492436 -0.325118 -0.526 171 129 105
0.4925 -0.3245 -0.525 189 147 123
0.49256 -0.323882 -0.524 189 147 123
0.493558 -0.323882 -0.524 190 148 124
0.494556 -0.323882 -0.524 191 149 125
0.495554 -0.323882 -0.524 191 149 125
0.496552 -0.323882 -0.524 191 149 125
0.49755 -0.323882 -0.524 191 149 125
0.498549 -0.323882 -0.524 189 147 122
0.499547 -0.323882 -0.524 186 144 119
0.500545 -0.323882 -0.524 185 143 119
0.5025 -0.3245 -0.525 186 144 120
0.504459 -0.325118 -0.526 180 140 115
0.505461 -0.325118 -0.526 176 136 111
0.507426 -0.325736 -0.527 172 135 109
0.509394 -0.326354 -0.528 171 134 108
0.512333 -0.32759 -0.53 170 132 111
0.51528 -0.328827 -0.532 168 130 109
0.519205 -0.330681 -0.535 166 130 108
0.522169 -0.331917 -0.537 163 127 105
0.527089 -0.33439 -0.541 163 128 108
0.532024 -0.336862 -0.545 162 127 107
0.536974 -0.339334 -0.549 159 127 106
0.591883 -0.369003 -0.597 164 135 119
0.597987 -0.372093 -0.602 198 183 178
0.60411 -0.375184 -0.607 209 194 189
1.08472 -0.390018 -0.631 205 208 191
1.08592 -0.390018 -0.631 207 210 193
1.08712 -0.390018 -0.631 206 209 192
1.08832 -0.390018 -0.631 206 209 192
1.08953 -0.390018 -0.631 206 209 192
1.09073 -0.390018 -0.631 206 209 192
1.09193 -0.390018 -0.631 205 208 191
1.1069 -0.390636 -0.632 205 208 191
1.10811 -0.390636 -0.632 205 208 191
1.10931 -0.390636 -0.632 205 208 191
1.11051 -0.390636 -0.632 204 206 192
1.11172 -0.390636 -0.632 204 206 192
1.11292 -0.390636 -0.632 203 205 191
1.11413 -0.390636 -0.632 203 205 191
1.12795 -0.391254 -0.633 203 205 191
1.12915 -0.391254 -0.633 202 204 190
1.13036 -0.391254 -0.633 203 205 191
1.13156 -0.391254 -0.633 203 205 191
1.13277 -0.391254 -0.633 203 205 191
1.13397 -0.391254 -0.633 202 204 190
1.13518 -0.391254 -0.633 203 205 191
1.13639 -0.391254 -0.633 203 205 191
1.13759 -0.391254 -0.633 203 205 191
1.1388 -0.391254 -0.633 203 205 191
1.1382 -0.390636 -0.632 202 204 190
1.13941 -0.390636 -0.632 202 204 190
1.14061 -0.390636 -0.632 202 204 190
1.14001 -0.390018 -0.631 202 204 190
1.14121 -0.390018 -0.631 202 204 190
1.14241 -0.390018 -0.631 202 204 190
1.14361 -0.390018 -0.631 201 203 189
1.143 -0.3894 -0.63 202 204 190
1.1442 -0.3894 -0.63 202 204 190
1.14358 -0.388782 -0.629 202 204 190
1.14478 -0.388782 -0.629 202 204 190
1.14416 -0.388164 -0.628 201 203 189
1.14353 -0.387546 -0.627 201 203 189
1.1429 -0.386928 -0.626 201 203 189
1.14043 -0.385691 -0.624 201 203 189
0.0873219 -0.36208 -0.584 188 148 138
0.0878286 -0.3596 -0.58 194 146 132
0.08832 -0.35712 -0.576 189 141 127
0.0886409 -0.35402 -0.571 194 146 134
0.0889429 -0.35092 -0.566 193 145 133
0.0895438 -0.34906 -0.563 197 145 134
0.0898114 -0.34596 -0.558 200 148 137
0.0907114 -0.34534 -0.557 200 150 139
0.0914429 -0.3441 -0.555 199 149 138
0.0921667 -0.34286 -0.553 196 149 139
0.09322 -0.34286 -0.553 196 149 139
0.0941029 -0.34224 -0.552 202 153 139
0.0951543 -0.34224 -0.552 197 148 134
0.0962057 -0.34224 -0.552 193 144 130
0.0972571 -0.34224 -0.552 195 146 132
0.0981305 -0.34162 -0.551 198 149 135
0.09918 -0.34162 -0.551 201 152 138
0.100048 -0.341 -0.55 200 151 136
0.101095 -0.341 -0.55 198 149 134
0.102143 -0.341 -0.55 196 147 132
0.10319 -0.341 -0.55 193 144 129
0.104238 -0.341 -0.55 193 144 129
0.105094 -0.34038 -0.549 194 145 130
0.10614 -0.34038 -0.549 192 143 128
0.107186 -0.34038 -0.549 190 141 126
0.108034 -0.33976 -0.548 190 141 126
0.109078 -0.33976 -0.548 190 141 126
0.110122 -0.33976 -0.548 193 140 124
0.111166 -0.33976 -0.548 192 139 123
0.11221 -0.33976 -0.548 193 140 124
0.113253 -0.33976 -0.548 194 141 125
0.114297 -0.33976 -0.548 195 142 126
0.115341 -0.33976 -0.548 194 141 125
0.116385 -0.33976 -0.548 192 139 121
0.117429 -0.33976 -0.548 192 139 121
0.118472 -0.33976 -0.548 190 137 119
0.119734 -0.34038 -0.549 188 135 117
0.12078 -0.34038 -0.549 185 132 114
0.121826 -0.34038 -0.549 188 133 113
0.122871 -0.34038 -0.549 186 131 111
0.124143 -0.341 -0.55 183 128 108
0.12519 -0.341 -0.55 180 125 105
0.126468 -0.34162 -0.551 172 117 96
0.127517 -0.34162 -0.551 167 112 91
0.1288 -0.34224 -0.552 162 110 96
0.129851 -0.34224 -0.552 160 108 94
0.13114 -0.34286 -0.553 153 104 90
0.132432 -0.34348 -0.554 152 103 89
0.133729 -0.3441 -0.555 151 103 91
0.135271 -0.34534 -0.557 146 98 86
0.136577 -0.34596 -0.558 145 95 84
0.137887 -0.34658 -0.559 144 94 83
0.1392 -0.3472 -0.56 143 95 83
0.140517 -0.34782 -0.561 140 92 80
0.141838 -0.34844 -0.562 137 91 78
0.143163 -0.34906 -0.563 135 89 76
0.144491 -0.34968 -0.564 131 87 76
0.145824 -0.3503 -0.565 131 87 76
0.14716 -0.35092 -0.566 133 86 78
0.1485 -0.35154 -0.567 132 85 77
0.149844 -0.35216 -0.568 131 87 78
0.151191 -0.35278 -0.569 130 86 77
0.152275 -0.35278 -0.569 131 87 78
0.153629 -0.3534 -0.57 132 88 79
0.154986 -0.35402 -0.571 129 85 76
0.156347 -0.35464 -0.572 128 84 75
0.157711 -0.35526 -0.573 127 84 78
0.158803 -0.35526 -0.573 126 83 77
0.160173 -0.35588 -0.574 126 85 79
0.161548 -0.3565 -0.575 125 84 78
0.162926 -0.35712 -0.576 122 83 76
0.164308 -0.35774 -0.577 122 83 76
0.16598 -0.35898 -0.579 125 86 81
0.166794 -0.35836 -0.578 126 85 79
0.168186 -0.35898 -0.579 126 85 81
0.169581 -0.3596 -0.58 125 84 80
0.17098 -0.36022 -0.581 121 84 76
0.172383 -0.36084 -0.582 121 84 76
0.174088 -0.36208 -0.584 123 84 77
0.1755 -0.3627 -0.585 123 84 77
0.177218 -0.36394 -0.587 123 83 81
0.17864 -0.36456 -0.588 123 83 81
0.180066 -0.36518 -0.589 122 83 84
0.205562 -0.37696 -0.608 156 151 174
0.20706 -0.37758 -0.609 157 152 175
0.208562 -0.3782 -0.61 157 155 177
0.209724 -0.3782 -0.61 156 154 176
0.210886 -0.3782 -0.61 145 145 169
0.212048 -0.3782 -0.61 109 109 133
0.213559 -0.37882 -0.611 64 65 93
0.214723 -0.37882 -0.611 66 67 95
0.215887 -0.37882 -0.611 82 82 116
0.21705 -0.37882 -0.611 110 110 144
0.218214 -0.37882 -0.611 127 134 163
0.219378 -0.37882 -0.611 145 152 181
0.220542 -0.37882 -0.611 154 157 190
0.221706 -0.37882 -0.611 142 145 178
0.22287 -0.37882 -0.611 104 116 158
0.224033 -0.37882 -0.611 63 75 117
0.225566 -0.37944 -0.612 58 77 120
0.226731 -0.37944 -0.612 103 122 165
0.227897 -0.37944 -0.612 138 150 188
0.229063 -0.37944 -0.612 154 166 204
0.230229 -0.37944 -0.612 146 155 186
0.231394 -0.37944 -0.612 145 154 185
0.23256 -0.37944 -0.612 125 139 174
0.233726 -0.37944 -0.612 99 113 148
0.234508 -0.37882 -0.611 79 92 136
0.235671 -0.37882 -0.611 59 72 116
0.236835 -0.37882 -0.611 59 72 116
0.238389 -0.37944 -0.612 138 147 178
0.239554 -0.37944 -0.612 177 186 217
0.24072 -0.37944 -0.612 188 187 203
0.241886 -0.37944 -0.612 192 191 207
0.243051 -0.37944 -0.612 189 191 216
0.243818 -0.37882 -0.611 190 192 217
0.244982 -0.37882 -0.611 198 195 216
0.246146 -0.37882 -0.611 196 193 214
0.24731 -0.37882 -0.611 197 198 218
0.248473 -0.37882 -0.611 206 207 227
0.249637 -0.37882 -0.611 175 182 208
0.251211 -0.37944 -0.612 128 135 161
0.251965 -0.37882 -0.611 119 143 189
0.253129 -0.37882 -0.611 110 134 180
0.254292 -0.37882 -0.611 127 151 189
0.255456 -0.37882 -0.611 142 166 204
0.25662 -0.37882 -0.611 146 164 200
0.257784 -0.37882 -0.611 141 159 195
0.258948 -0.37882 -0.611 146 164 200
0.260111 -0.37882 -0.611 138 156 192
0.261275 -0.37882 -0.611 135 153 189
0.262439 -0.37882 -0.611 141 159 195
0.263603 -0.37882 -0.611 149 162 194
0.264767 -0.37882 -0.611 202 215 247
0.26593 -0.37882 -0.611 217 223 249
0.267094 -0.37882 -0.611 222 228 254
0.268258 -0.37882 -0.611 225 226 247
0.339747 -0.38068 -0.614 232 237 243
0.340916 -0.38068 -0.614 211 216 222
0.342086 -0.38068 -0.614 205 211 233
0.343255 -0.38068 -0.614 182 188 210
0.354357 -0.3813 -0.615 186 192 214
0.355529 -0.3813 -0.615 127 151 195
0.3567 -0.3813 -0.615 137 161 205
0.357871 -0.3813 -0.615 192 201 240
0.359043 -0.3813 -0.615 224 233 255
0.360214 -0.3813 -0.615 232 238 255
0.361386 -0.3813 -0.615 204 210 234
0.362557 -0.3813 -0.615 201 214 248
0.363729 -0.3813 -0.615 170 183 217
0.3649 -0.3813 -0.615 137 156 188
0.366071 -0.3813 -0.615 143 162 194
0.427891 -0.38316 -0.618 175 188 220
0.429069 -0.38316 -0.618 140 153 185
0.430246 -0.38316 -0.618 141 155 182
0.431423 -0.38316 -0.618 203 217 244
0.4326 -0.38316 -0.618 244 251 255
0.44627 -0.38378 -0.619 163 183 220
0.447449 -0.38378 -0.619 163 183 220
0.448628 -0.38378 -0.619 165 184 227
0.449807 -0.38378 -0.619 172 191 234
0.450986 -0.38378 -0.619 180 201 246
0.452165 -0.38378 -0.619 175 196 241
0.453344 -0.38378 -0.619 181 203 242
0.454523 -0.38378 -0.619 181 203 242
0.464705 -0.3844 -0.62 219 218 224
0.465886 -0.3844 -0.62 251 245 255
0.467067 -0.3844 -0.62 253 247 255
0.468248 -0.3844 -0.62 239 242 247
0.469429 -0.3844 -0.62 242 245 250
0.47061 -0.3844 -0.62 241 240 254
0.47179 -0.3844 -0.62 230 229 243
0.472971 -0.3844 -0.62 167 181 218
0.474917 -0.38502 -0.621 107 121 158
0.4761 -0.38502 -0.621 122 139 182
0.477283 -0.38502 -0.621 160 177 220
0.478466 -0.38502 -0.621 182 190 226
0.480831 -0.38502 -0.621 210 221 249
0.482014 -0.38502 -0.621 201 212 240
0.483975 -0.38564 -0.622 146 170 198
0.48516 -0.38564 -0.622 146 170 198
0.486345 -0.38564 -0.622 77 101 129
0.48753 -0.38564 -0.622 91 118 173
0.488714 -0.38564 -0.622 149 176 231
0.489899 -0.38564 -0.622 204 211 230
0.491084 -0.38564 -0.622 203 210 229
0.492269 -0.38564 -0.622 158 174 199
0.493453 -0.38564 -0.622 162 178 203
0.494638 -0.38564 -0.622 124 138 185
0.495823 -0.38564 -0.622 75 89 136
0.497008 -0.38564 -0.622 78 101 142
0.498192 -0.38564 -0.622 161 184 225
0.499377 -0.38564 -0.622 203 207 219
0.500562 -0.38564 -0.622 204 208 220
0.501747 -0.38564 -0.622 210 214 226
0.50374 -0.38626 -0.623 207 211 223
0.504927 -0.38626 -0.623 180 183 190
0.506113 -0.38626 -0.623 173 176 183
0.5073 -0.38626 -0.623 201 207 207
0.508487 -0.38626 -0.623 201 207 207
0.509673 -0.38626 -0.623 204 203 211
0.51086 -0.38626 -0.623 187 186 194
0.512047 -0.38626 -0.623 121 136 175
0.51241 -0.38564 -0.622 107 122 161
0.506557 -0.37262 -0.601 173 145 142
0.507702 -0.37262 -0.601 173 145 142
0.50546 -0.37014 -0.597 172 144 140
0.503203 -0.36766 -0.593 173 145 141
0.501781 -0.3658 -0.59 174 147 140
0.499495 -0.36332 -0.586 175 148 141
0.497194 -0.36084 -0.582 177 150 143
0.494878 -0.35836 -0.578 177 150 143
0.493405 -0.3565 -0.575 178 146 135
0.49106 -0.35402 -0.571 175 143 132
0.489562 -0.35216 -0.568 179 146 137
0.488052 -0.3503 -0.565 179 146 137
0.486531 -0.34844 -0.562 180 147 138
0.484999 -0.34658 -0.559 182 149 140
0.483455 -0.34472 -0.556 183 149 139
0.4819 -0.34286 -0.553 184 150 140
0.481207 -0.34162 -0.551 188 152 140
0.480506 -0.34038 -0.549 188 152 140
0.479797 -0.33914 -0.547 194 156 143
0.479081 -0.3379 -0.545 189 151 138
0.478357 -0.33666 -0.543 184 146 133
0.478509 -0.33604 -0.542 185 147 134
0.478656 -0.33542 -0.541 194 157 141
0.4788 -0.3348 -0.54 196 159 143
0.479829 -0.3348 -0.54 198 159 144
0.479967 -0.33418 -0.539 201 162 147
0.480101 -0.33356 -0.538 200 159 141
0.480231 -0.33294 -0.537 194 153 135
0.481254 -0.33294 -0.537 198 157 137
0.481379 -0.33232 -0.536 199 158 138
0.4815 -0.3317 -0.535 193 152 132
0.482519 -0.3317 -0.535 195 154 134
0.482634 -0.33108 -0.534 199 156 137
0.482746 -0.33046 -0.533 197 154 135
0.483761 -0.33046 -0.533 197 154 135
0.484776 -0.33046 -0.533 198 155 136
0.48488 -0.32984 -0.532 198 156 134
0.48498 -0.32922 -0.531 198 156 134
0.485991 -0.32922 -0.531 198 156 134
0.486086 -0.3286 -0.53 197 155 133
0.486176 -0.32798 -0.529 196 151 130
0.487184 -0.32798 -0.529 194 149 128
0.488191 -0.32798 -0.529 194 149 128
0.488274 -0.32736 -0.528 198 156 134
0.48928 -0.32736 -0.528 199 157 135
0.489357 -0.32674 -0.527 200 158 136
0.48943 -0.32612 -0.526 195 153 131
0.490432 -0.32612 -0.526 190 148 126
0.4905 -0.3255 -0.525 181 139 117
0.4915 -0.3255 -0.525 180 138 114
0.491562 -0.32488 -0.524 188 146 122
0.49256 -0.32488 -0.524 189 147 123
0.492616 -0.32426 -0.523 191 149 125
0.493612 -0.32426 -0.523 191 149 125
0.494609 -0.32426 -0.523 191 149 125
0.495605 -0.32426 -0.523 195 150 127
0.496601 -0.32426 -0.523 195 150 127
0.497597 -0.32426 -0.523 192 148 123
0.498593 -0.32426 -0.523 190 146 121
0.49959 -0.32426 -0.523 190 145 122
0.501543 -0.32488 -0.524 191 146 123
0.502541 -0.32488 -0.524 183 141 116
0.5045 -0.3255 -0.525 178 136 111
0.506463 -0.32612 -0.526 175 135 110
0.50843 -0.32674 -0.527 175 135 110
0.5104 -0.32736 -0.528 174 133 111
0.513343 -0.3286 -0.53 170 129 107
0.516293 -0.32984 -0.532 165 129 107
0.519251 -0.33108 -0.534 160 124 102
0.523191 -0.33294 -0.537 163 128 106
0.528119 -0.33542 -0.541 162 127 105
0.533062 -0.3379 -0.545 158 126 105
1.083 -0.3906 -0.63 205 208 191
1.09794 -0.39122 -0.631 205 208 191
1.09914 -0.39122 -0.631 205 208 191
1.10756 -0.39122 -0.631 204 207 190
1.10876 -0.39122 -0.631 204 206 192
1.10996 -0.39122 -0.631 204 206 192
1.12014 -0.39184 -0.632 203 205 191
1.12255 -0.39184 -0.632 203 205 191
1.12376 -0.39184 -0.632 203 205 191
1.12496 -0.39184 -0.632 204 206 192
1.12616 -0.39184 -0.632 204 206 192
1.12737 -0.39184 -0.632 203 205 191
1.12857 -0.39184 -0.632 203 205 191
1.12978 -0.39184 -0.632 203 205 191
1.13098 -0.39184 -0.632 203 205 191
1.13218 -0.39184 -0.632 203 205 191
