ply
format ascii 1.0
comment Created by Open3D
element vertex 1277
property double x
property double y
property double z
property uchar red
property uchar green
property uchar blue
end_header
0.460546 -0.345089 -0.449 177 138 109
0.460373 -0.34432 -0.448 177 138 109
0.460197 -0.343551 -0.447 177 136 108
0.461049 -0.343551 -0.447 175 134 106
0.460867 -0.342783 -0.446 175 134 106
0.461716 -0.342783 -0.446 178 137 109
0.462566 -0.342783 -0.446 179 138 108
0.462376 -0.342014 -0.445 178 137 107
0.462183 -0.341246 -0.444 179 135 106
0.463029 -0.341246 -0.444 180 136 107
0.46283 -0.340477 -0.443 181 138 106
0.462627 -0.339709 -0.442 181 138 106
0.463469 -0.339709 -0.442 181 138 106
0.46431 -0.339709 -0.442 182 139 107
0.465152 -0.339709 -0.442 182 139 105
0.46494 -0.33894 -0.441 183 140 106
0.464724 -0.338171 -0.44 184 139 106
0.465562 -0.338171 -0.44 183 138 105
0.46534 -0.337403 -0.439 182 138 103
0.466176 -0.337403 -0.439 182 138 103
0.467012 -0.337403 -0.439 182 138 103
0.466783 -0.336634 -0.438 183 137 103
0.467617 -0.336634 -0.438 182 136 102
0.467382 -0.335866 -0.437 180 134 98
0.468214 -0.335866 -0.437 179 133 97
0.469047 -0.335866 -0.437 179 133 97
0.468804 -0.335097 -0.436 179 133 97
0.469634 -0.335097 -0.436 180 134 100
0.470465 -0.335097 -0.436 180 134 100
0.470214 -0.334329 -0.435 179 135 100
0.46996 -0.33356 -0.434 178 134 99
0.470787 -0.33356 -0.434 178 134 97
0.471613 -0.33356 -0.434 177 133 96
0.47244 -0.33356 -0.434 177 131 97
0.472176 -0.332791 -0.433 176 130 96
0.473001 -0.332791 -0.433 175 129 95
0.47492 -0.33356 -0.434 176 130 96
0.47465 -0.332791 -0.433 175 131 94
0.475475 -0.332791 -0.433 175 131 94
0.4763 -0.332791 -0.433 175 131 94
0.477125 -0.332791 -0.433 174 130 93
0.476846 -0.332023 -0.432 174 128 94
0.477669 -0.332023 -0.432 175 129 95
0.478491 -0.332023 -0.432 175 129 93
0.479314 -0.332023 -0.432 174 128 92
0.480137 -0.332023 -0.432 174 128 94
0.48096 -0.332023 -0.432 173 127 93
0.481783 -0.332023 -0.432 171 125 91
0.482606 -0.332023 -0.432 170 124 90
0.483429 -0.332023 -0.432 168 124 89
0.484251 -0.332023 -0.432 166 122 87
0.485074 -0.332023 -0.432 166 121 88
0.487022 -0.332791 -0.433 166 121 88
0.487847 -0.332791 -0.433 166 121 88
0.488671 -0.332791 -0.433 166 121 88
0.489496 -0.332791 -0.433 165 120 89
0.491453 -0.33356 -0.434 163 118 87
0.49228 -0.33356 -0.434 162 117 86
0.493107 -0.33356 -0.434 162 117 86
0.495071 -0.334329 -0.435 162 118 83
0.49476 -0.33356 -0.434 162 116 82
0.496729 -0.334329 -0.435 158 114 79
0.497557 -0.334329 -0.435 156 112 77
0.499531 -0.335097 -0.436 155 112 78
0.500362 -0.335097 -0.436 156 113 79
0.502342 -0.335866 -0.437 153 112 80
0.504326 -0.336634 -0.438 151 110 78
0.50516 -0.336634 -0.438 150 111 80
0.50715 -0.337403 -0.439 149 110 79
0.509143 -0.338171 -0.44 145 108 79
0.512299 -0.339709 -0.442 143 106 77
0.966548 -0.441929 -0.575 205 207 193
0.980786 -0.441929 -0.575 204 206 193
0.981881 -0.441929 -0.575 204 206 193
0.982976 -0.441929 -0.575 204 206 193
1.00334 -0.442697 -0.576 204 206 192
1.00443 -0.442697 -0.576 204 206 192
1.00553 -0.442697 -0.576 204 208 193
1.00663 -0.442697 -0.576 204 208 193
0.03294 -0.422991 -0.549 196 148 125
0.0338619 -0.42145 -0.547 195 145 120
0.0347124 -0.419139 -0.544 198 148 123
0.0355514 -0.416828 -0.541 197 153 124
0.0363114 -0.413746 -0.537 199 155 126
0.0370562 -0.410664 -0.533 199 156 124
0.0378571 -0.408352 -0.53 197 154 122
0.03872 -0.406811 -0.528 198 155 123
0.0395752 -0.40527 -0.526 199 156 124
0.0404229 -0.40373 -0.524 198 157 127
0.0413419 -0.402959 -0.523 200 159 129
0.0422571 -0.402189 -0.522 199 158 130
0.0432514 -0.402189 -0.522 201 157 128
0.0442457 -0.402189 -0.522 202 157 126
0.0451533 -0.401418 -0.521 202 157 126
0.0460571 -0.400648 -0.52 202 157 126
0.0470476 -0.400648 -0.52 203 158 127
0.0479457 -0.399877 -0.519 203 159 130
0.0489343 -0.399877 -0.519 204 160 131
0.0498267 -0.399107 -0.518 202 157 128
0.0508133 -0.399107 -0.518 205 160 131
0.0518 -0.399107 -0.518 207 162 131
0.0527867 -0.399107 -0.518 206 161 130
0.0536695 -0.398336 -0.517 203 158 127
0.0546543 -0.398336 -0.517 200 155 124
0.055639 -0.398336 -0.517 199 154 123
0.0565143 -0.397566 -0.516 200 155 124
0.0574971 -0.397566 -0.516 201 158 126
0.05848 -0.397566 -0.516 200 157 125
0.0594629 -0.397566 -0.516 200 155 126
0.0604457 -0.397566 -0.516 199 154 125
0.0614286 -0.397566 -0.516 198 153 124
0.0624114 -0.397566 -0.516 196 151 122
0.0633943 -0.397566 -0.516 194 149 120
0.0643771 -0.397566 -0.516 193 148 119
0.06536 -0.397566 -0.516 194 149 120
0.0663429 -0.397566 -0.516 194 149 120
0.0673257 -0.397566 -0.516 196 149 123
0.068441 -0.398336 -0.517 193 146 120
0.0694257 -0.398336 -0.517 192 142 119
0.0705467 -0.399107 -0.518 191 141 118
0.0715333 -0.399107 -0.518 188 141 115
0.07252 -0.399107 -0.518 189 142 116
0.0736486 -0.399877 -0.519 189 139 116
0.0746371 -0.399877 -0.519 189 139 116
0.0757714 -0.400648 -0.52 188 140 117
0.0767619 -0.400648 -0.52 187 139 116
0.0777524 -0.400648 -0.52 186 138 115
0.0788943 -0.401418 -0.521 186 138 115
0.0798867 -0.401418 -0.521 186 138 115
0.0810343 -0.402189 -0.522 184 136 113
0.0820286 -0.402189 -0.522 186 138 116
0.0831819 -0.402959 -0.523 185 137 115
0.0841781 -0.402959 -0.523 185 137 115
0.0853371 -0.40373 -0.524 185 137 115
0.0863352 -0.40373 -0.524 184 136 114
0.0875 -0.4045 -0.525 183 135 113
0.0886686 -0.40527 -0.526 183 135 113
0.089841 -0.406041 -0.527 182 134 112
0.0908448 -0.406041 -0.527 176 134 112
0.0920229 -0.406811 -0.528 174 132 110
0.0932048 -0.407582 -0.529 175 130 109
0.0943905 -0.408352 -0.53 173 128 107
0.09558 -0.409123 -0.531 171 124 106
0.0969552 -0.410664 -0.533 168 121 103
0.0981543 -0.411434 -0.534 162 119 103
0.0993571 -0.412205 -0.535 158 115 99
0.100564 -0.412975 -0.536 156 114 102
0.101585 -0.412975 -0.536 156 114 102
0.102989 -0.414516 -0.538 154 112 100
0.104207 -0.415287 -0.539 153 111 99
0.105624 -0.416828 -0.541 150 108 96
0.107049 -0.418369 -0.543 146 108 97
0.108282 -0.419139 -0.544 144 106 95
0.10972 -0.42068 -0.546 136 102 92
0.111166 -0.422221 -0.548 134 100 90
0.112619 -0.423762 -0.55 126 102 102
0.127124 -0.43763 -0.568 41 37 60
0.128206 -0.43763 -0.568 54 50 73
0.129515 -0.438401 -0.569 66 68 89
0.130599 -0.438401 -0.569 83 85 106
0.131683 -0.438401 -0.569 84 92 105
0.132767 -0.438401 -0.569 98 106 119
0.13385 -0.438401 -0.569 127 133 149
0.134934 -0.438401 -0.569 133 139 155
0.136018 -0.438401 -0.569 106 123 153
0.137102 -0.438401 -0.569 71 88 118
0.138186 -0.438401 -0.569 48 70 109
0.13927 -0.438401 -0.569 81 103 142
0.140353 -0.438401 -0.569 124 141 171
0.141437 -0.438401 -0.569 157 174 204
0.142521 -0.438401 -0.569 164 178 205
0.143605 -0.438401 -0.569 146 160 187
0.144689 -0.438401 -0.569 148 164 198
0.145772 -0.438401 -0.569 136 152 186
0.146856 -0.438401 -0.569 107 122 165
0.464348 -0.444565 -0.577 166 184 208
0.465447 -0.444565 -0.577 191 209 233
0.466546 -0.444565 -0.577 169 190 211
0.467645 -0.444565 -0.577 137 158 179
0.468744 -0.444565 -0.577 127 151 187
0.469843 -0.444565 -0.577 84 108 144
0.470942 -0.444565 -0.577 75 108 151
0.472041 -0.444565 -0.577 93 126 169
0.47314 -0.444565 -0.577 156 175 208
0.5264 -0.431467 -0.56 142 123 116
0.521815 -0.426844 -0.554 148 121 114
0.517208 -0.422221 -0.548 148 121 114
0.508794 -0.414516 -0.538 148 121 110
0.500343 -0.406811 -0.528 148 121 110
0.493752 -0.400648 -0.52 149 120 116
0.488083 -0.395254 -0.513 148 119 115
0.484293 -0.391402 -0.508 148 122 109
0.48144 -0.38832 -0.504 150 124 111
0.478571 -0.385238 -0.5 151 125 110
0.475688 -0.382156 -0.496 153 127 112
0.47375 -0.379845 -0.493 154 126 112
0.470837 -0.376763 -0.489 154 126 112
0.469839 -0.375222 -0.487 155 126 110
0.467867 -0.37291 -0.484 155 126 110
0.465883 -0.370599 -0.481 159 128 110
0.464858 -0.369058 -0.479 159 128 110
0.464798 -0.368288 -0.478 159 126 109
0.46376 -0.366747 -0.476 160 127 110
0.46369 -0.365976 -0.475 163 130 111
0.462639 -0.364435 -0.473 164 131 112
0.46256 -0.363665 -0.472 165 130 111
0.461495 -0.362124 -0.47 166 131 112
0.461407 -0.361353 -0.469 163 131 110
0.460329 -0.359812 -0.467 164 132 111
0.46023 -0.359042 -0.466 167 132 112
0.460129 -0.358271 -0.465 168 133 113
0.461014 -0.358271 -0.465 168 133 113
0.460907 -0.357501 -0.464 168 133 113
0.460795 -0.35673 -0.463 168 133 111
0.46068 -0.35596 -0.462 168 133 111
0.460561 -0.35519 -0.461 170 134 112
0.460438 -0.354419 -0.46 170 134 112
0.460311 -0.353649 -0.459 170 134 110
0.460181 -0.352878 -0.458 170 134 110
0.460047 -0.352108 -0.457 171 133 110
0.460917 -0.352108 -0.457 171 133 110
0.460777 -0.351337 -0.456 171 133 110
0.460633 -0.350567 -0.455 172 134 111
0.460486 -0.349796 -0.454 174 134 108
0.460334 -0.349026 -0.453 174 134 108
0.460179 -0.348255 -0.452 174 134 109
0.46002 -0.347485 -0.451 175 135 110
0.459857 -0.346714 -0.45 175 135 109
0.45969 -0.345944 -0.449 176 136 110
0.460546 -0.345944 -0.449 176 137 108
0.460373 -0.345173 -0.448 176 137 108
0.460197 -0.344403 -0.447 177 136 108
0.461049 -0.344403 -0.447 175 134 106
0.460867 -0.343632 -0.446 174 133 105
0.461716 -0.343632 -0.446 177 136 108
0.461529 -0.342862 -0.445 179 138 108
0.462376 -0.342862 -0.445 179 138 108
0.462183 -0.342091 -0.444 179 135 106
0.463029 -0.342091 -0.444 178 134 105
0.46283 -0.341321 -0.443 180 137 105
0.462627 -0.34055 -0.442 180 137 105
0.463469 -0.34055 -0.442 181 138 104
0.46326 -0.33978 -0.441 181 138 104
0.4641 -0.33978 -0.441 183 138 105
0.46494 -0.33978 -0.441 183 138 105
0.464724 -0.33901 -0.44 183 138 105
0.464504 -0.338239 -0.439 183 138 105
0.46534 -0.338239 -0.439 182 137 104
0.465114 -0.337469 -0.438 182 137 104
0.465949 -0.337469 -0.438 183 137 101
0.465717 -0.336698 -0.437 182 136 100
0.46655 -0.336698 -0.437 180 134 98
0.467382 -0.336698 -0.437 180 134 98
0.468214 -0.336698 -0.437 180 134 98
0.467973 -0.335928 -0.436 180 134 100
0.468804 -0.335928 -0.436 179 133 99
0.469634 -0.335928 -0.436 180 134 100
0.469386 -0.335157 -0.435 180 134 100
0.470214 -0.335157 -0.435 178 134 97
0.46996 -0.334387 -0.434 178 134 97
0.470787 -0.334387 -0.434 178 134 97
0.470527 -0.333616 -0.433 177 133 96
0.471351 -0.333616 -0.433 177 131 97
0.472176 -0.333616 -0.433 177 131 97
0.473001 -0.333616 -0.433 177 131 97
0.473826 -0.333616 -0.433 177 131 97
0.47465 -0.333616 -0.433 176 132 95
0.474377 -0.332846 -0.432 176 132 95
0.4752 -0.332846 -0.432 176 132 95
0.476023 -0.332846 -0.432 176 132 95
0.476846 -0.332846 -0.432 176 130 94
0.477669 -0.332846 -0.432 177 131 95
0.477384 -0.332075 -0.431 175 131 94
0.478205 -0.332075 -0.431 173 129 92
0.479026 -0.332075 -0.431 173 129 94
0.479847 -0.332075 -0.431 172 128 93
0.481783 -0.332846 -0.432 170 126 91
0.482606 -0.332846 -0.432 169 125 90
0.483429 -0.332846 -0.432 169 125 90
0.484251 -0.332846 -0.432 168 124 89
0.485074 -0.332846 -0.432 166 122 87
0.485897 -0.332846 -0.432 166 122 87
0.48672 -0.332846 -0.432 166 121 88
0.487543 -0.332846 -0.432 166 121 88
0.489496 -0.333616 -0.433 165 120 87
0.490321 -0.333616 -0.433 163 118 85
0.491146 -0.333616 -0.433 162 117 84
0.493107 -0.334387 -0.434 162 117 84
0.493933 -0.334387 -0.434 164 118 84
0.49476 -0.334387 -0.434 164 116 80
0.495587 -0.334387 -0.434 158 114 79
0.496413 -0.334387 -0.434 156 112 77
0.498386 -0.335157 -0.435 155 112 78
0.499214 -0.335157 -0.435 154 111 77
0.501192 -0.335928 -0.436 154 111 79
0.503174 -0.336698 -0.437 153 110 78
0.504007 -0.336698 -0.437 150 109 79
0.505994 -0.337469 -0.438 151 110 80
0.507986 -0.338239 -0.439 145 108 79
0.509981 -0.33901 -0.44 143 106 77
0.957213 -0.442253 -0.574 205 208 191
0.958307 -0.442253 -0.574 204 207 190
0.987357 -0.443024 -0.575 204 206 193
0.988452 -0.443024 -0.575 205 207 194
0.989548 -0.443024 -0.575 205 207 194
0.990643 -0.443024 -0.575 204 206 193
0.991738 -0.443024 -0.575 204 206 193
0.992833 -0.443024 -0.575 204 206 192
1.0005 -0.443024 -0.575 205 207 193
1.0016 -0.443024 -0.575 205 207 193
1.00269 -0.443024 -0.575 204 206 192
1.00379 -0.443024 -0.575 203 207 192
0.03282 -0.422492 -0.547 191 154 127
0.0337381 -0.420948 -0.545 192 155 129
0.034521 -0.417858 -0.541 192 155 129
0.0352886 -0.414769 -0.537 194 154 129
0.0361086 -0.412451 -0.534 194 154 129
0.0368476 -0.409362 -0.53 196 154 129
0.0376429 -0.407045 -0.527 198 156 131
0.0385733 -0.406272 -0.526 200 156 129
0.0394248 -0.404728 -0.524 200 156 129
0.0402686 -0.403183 -0.522 202 158 129
0.0412629 -0.403183 -0.522 205 161 132
0.0421762 -0.40241 -0.521 205 159 133
0.0431686 -0.40241 -0.521 200 159 131
0.0440762 -0.401638 -0.52 203 159 132
0.0450667 -0.401638 -0.52 201 157 130
0.0459686 -0.400866 -0.519 200 156 127
0.0469571 -0.400866 -0.519 200 156 127
0.0478533 -0.400093 -0.518 202 158 131
0.04884 -0.400093 -0.518 204 160 133
0.0497305 -0.399321 -0.517 202 158 131
0.0507152 -0.399321 -0.517 204 160 133
0.0517 -0.399321 -0.517 206 161 132
0.0526848 -0.399321 -0.517 205 160 131
0.0536695 -0.399321 -0.517 204 159 128
0.0545486 -0.398549 -0.516 201 156 125
0.0555314 -0.398549 -0.516 199 154 125
0.0565143 -0.398549 -0.516 200 155 126
0.0574971 -0.398549 -0.516 203 158 129
0.05848 -0.398549 -0.516 202 157 128
0.0594629 -0.398549 -0.516 202 155 129
0.0604457 -0.398549 -0.516 199 152 126
0.0614286 -0.398549 -0.516 197 150 124
0.0624114 -0.398549 -0.516 195 148 122
0.0633943 -0.398549 -0.516 194 149 120
0.0643771 -0.398549 -0.516 193 148 119
0.06536 -0.398549 -0.516 195 148 122
0.0663429 -0.398549 -0.516 195 148 122
0.0673257 -0.398549 -0.516 197 147 124
0.0683086 -0.398549 -0.516 194 144 121
0.0694257 -0.399321 -0.517 191 141 118
0.0705467 -0.400093 -0.518 191 141 118
0.0715333 -0.400093 -0.518 188 141 115
0.07252 -0.400093 -0.518 188 141 115
0.0736486 -0.400866 -0.519 188 140 117
0.0746371 -0.400866 -0.519 188 140 117
0.0756257 -0.400866 -0.519 189 141 118
0.0767619 -0.401638 -0.52 187 139 116
0.0777524 -0.401638 -0.52 185 137 114
0.0788943 -0.40241 -0.521 185 137 114
0.0798867 -0.40241 -0.521 186 138 115
0.0810343 -0.403183 -0.522 185 137 114
0.0820286 -0.403183 -0.522 187 141 118
0.0830229 -0.403183 -0.522 185 139 116
0.0841781 -0.403955 -0.523 184 138 115
0.0851743 -0.403955 -0.523 183 137 114
0.0863352 -0.404728 -0.524 182 136 113
0.0875 -0.4055 -0.525 181 135 112
0.0886686 -0.406272 -0.526 180 134 111
0.089841 -0.407045 -0.527 180 134 111
0.0908448 -0.407045 -0.527 175 134 112
0.0920229 -0.407817 -0.528 172 131 109
0.0932048 -0.40859 -0.529 172 130 108
0.0943905 -0.409362 -0.53 171 129 107
0.09558 -0.410134 -0.531 168 125 108
0.0969552 -0.411679 -0.533 164 121 104
0.0981543 -0.412451 -0.534 160 118 104
0.0993571 -0.413224 -0.535 156 114 100
0.100376 -0.413224 -0.535 156 114 100
0.101585 -0.413996 -0.536 149 111 100
0.102989 -0.415541 -0.538 147 109 98
0.104207 -0.416313 -0.539 147 109 98
0.105624 -0.417858 -0.541 145 107 96
0.107049 -0.419403 -0.543 141 107 98
0.108481 -0.420948 -0.545 139 105 96
0.109921 -0.422492 -0.547 131 102 94
0.111369 -0.424037 -0.549 129 100 92
0.127124 -0.438712 -0.568 39 39 63
0.128206 -0.438712 -0.568 40 40 64
0.129515 -0.439485 -0.569 54 58 83
0.130599 -0.439485 -0.569 76 80 105
0.131683 -0.439485 -0.569 70 82 98
0.132767 -0.439485 -0.569 80 92 108
0.13385 -0.439485 -0.569 115 120 139
0.134934 -0.439485 -0.569 132 137 156
0.136018 -0.439485 -0.569 92 108 142
0.137102 -0.439485 -0.569 57 73 107
0.138186 -0.439485 -0.569 42 64 105
0.139025 -0.438712 -0.568 82 104 145
0.140107 -0.438712 -0.568 124 141 171
0.141189 -0.438712 -0.568 161 178 208
0.14227 -0.438712 -0.568 158 175 203
0.143352 -0.438712 -0.568 122 139 167
0.144434 -0.438712 -0.568 116 138 177
0.145516 -0.438712 -0.568 103 125 164
0.146598 -0.438712 -0.568 73 95 144
0.14768 -0.438712 -0.568 68 90 139
0.148762 -0.438712 -0.568 114 128 175
0.149844 -0.438712 -0.568 174 188 235
0.150926 -0.438712 -0.568 207 206 220
0.152008 -0.438712 -0.568 206 205 219
0.15309 -0.438712 -0.568 206 214 227
0.454766 -0.444891 -0.576 156 176 209
0.455863 -0.444891 -0.576 166 186 219
0.472041 -0.445664 -0.577 78 107 149
0.47314 -0.445664 -0.577 150 169 202
0.474239 -0.445664 -0.577 188 207 240
0.475338 -0.445664 -0.577 212 214 226
0.476437 -0.445664 -0.577 210 212 224
0.477536 -0.445664 -0.577 210 212 224
0.478635 -0.445664 -0.577 202 202 212
0.479734 -0.445664 -0.577 189 189 199
0.480833 -0.445664 -0.577 197 202 205
0.52734 -0.433306 -0.561 141 123 123
0.522757 -0.428671 -0.555 148 120 117
0.518151 -0.424037 -0.549 147 119 116
0.510686 -0.417086 -0.54 148 120 109
0.503186 -0.410134 -0.531 148 120 109
0.495651 -0.403183 -0.522 146 121 116
0.489986 -0.397776 -0.515 146 121 116
0.485247 -0.393142 -0.509 148 122 109
0.48144 -0.38928 -0.504 149 123 110
0.478571 -0.38619 -0.5 151 125 112
0.475688 -0.383101 -0.496 152 126 113
0.47375 -0.380784 -0.493 154 126 112
0.4718 -0.378467 -0.49 154 126 112
0.469839 -0.37615 -0.487 156 127 111
0.467867 -0.373832 -0.484 155 126 110
0.466851 -0.372288 -0.482 158 126 111
0.465829 -0.370743 -0.48 159 127 112
0.464798 -0.369198 -0.478 160 127 110
0.46376 -0.367653 -0.476 160 127 110
0.46369 -0.366881 -0.475 161 128 109
0.462639 -0.365336 -0.473 163 130 111
0.46256 -0.364564 -0.472 166 131 112
0.461495 -0.363019 -0.47 165 130 111
0.461407 -0.362247 -0.469 165 130 110
0.461314 -0.361474 -0.468 165 130 110
0.46023 -0.35993 -0.466 167 132 112
0.460129 -0.359157 -0.465 168 133 113
0.461014 -0.359157 -0.465 168 133 113
0.460907 -0.358385 -0.464 167 132 112
0.460795 -0.357612 -0.463 168 132 110
0.46068 -0.35684 -0.462 169 133 111
0.460561 -0.356068 -0.461 169 133 111
0.460438 -0.355295 -0.46 168 132 110
0.460311 -0.354523 -0.459 170 132 109
0.460181 -0.35375 -0.458 171 133 110
0.460047 -0.352978 -0.457 171 133 110
0.460917 -0.352978 -0.457 170 132 109
0.460777 -0.352206 -0.456 170 132 109
0.460633 -0.351433 -0.455 170 132 109
0.460486 -0.350661 -0.454 170 133 106
0.460334 -0.349889 -0.453 171 134 107
0.460179 -0.349116 -0.452 173 133 108
0.46104 -0.349116 -0.452 174 134 109
0.460879 -0.348344 -0.451 174 134 108
0.45969 -0.346799 -0.449 175 135 109
0.460546 -0.346799 -0.449 175 136 107
0.460373 -0.346027 -0.448 175 136 107
0.460197 -0.345254 -0.447 176 135 107
0.461049 -0.345254 -0.447 174 133 105
0.460867 -0.344482 -0.446 174 133 105
0.460681 -0.34371 -0.445 176 135 107
0.461529 -0.34371 -0.445 178 137 107
0.462376 -0.34371 -0.445 177 136 106
0.462183 -0.342937 -0.444 176 135 105
0.463029 -0.342937 -0.444 175 134 104
0.46283 -0.342165 -0.443 180 135 104
0.462627 -0.341392 -0.442 181 136 105
0.463469 -0.341392 -0.442 182 137 104
0.46326 -0.34062 -0.441 183 138 105
0.4641 -0.34062 -0.441 183 138 105
0.46494 -0.34062 -0.441 182 137 104
0.464724 -0.339848 -0.44 182 137 104
0.465562 -0.339848 -0.44 182 137 104
0.46534 -0.339075 -0.439 182 138 103
0.465114 -0.338303 -0.438 182 138 103
0.465949 -0.338303 -0.438 181 137 100
0.465717 -0.33753 -0.437 181 137 100
0.46655 -0.33753 -0.437 181 135 99
0.466312 -0.336758 -0.436 181 135 99
0.467143 -0.336758 -0.436 181 135 101
0.467973 -0.336758 -0.436 181 135 101
0.468804 -0.336758 -0.436 180 134 100
0.468557 -0.335986 -0.435 179 133 99
0.469386 -0.335986 -0.435 179 133 99
0.469133 -0.335213 -0.434 179 133 97
0.46996 -0.335213 -0.434 179 133 97
0.469702 -0.334441 -0.433 178 132 96
0.470527 -0.334441 -0.433 178 132 96
0.471351 -0.334441 -0.433 177 131 95
0.472176 -0.334441 -0.433 177 131 95
0.473001 -0.334441 -0.433 176 130 94
0.473826 -0.334441 -0.433 176 130 94
0.47465 -0.334441 -0.433 175 130 91
0.474377 -0.333669 -0.432 175 130 91
0.4752 -0.333669 -0.432 176 131 92
0.474921 -0.332896 -0.431 176 131 92
0.475742 -0.332896 -0.431 175 129 93
0.476563 -0.332896 -0.431 176 130 94
0.477384 -0.332896 -0.431 176 132 93
0.478205 -0.332896 -0.431 174 130 91
0.479026 -0.332896 -0.431 173 129 92
0.479847 -0.332896 -0.431 173 129 92
0.480668 -0.332896 -0.431 170 126 89
0.481489 -0.332896 -0.431 168 124 87
0.48231 -0.332896 -0.431 168 124 87
0.48313 -0.332896 -0.431 168 124 87
0.483951 -0.332896 -0.431 166 122 85
0.484772 -0.332896 -0.431 166 122 85
0.485593 -0.332896 -0.431 166 122 87
0.486414 -0.332896 -0.431 166 122 87
0.488366 -0.333669 -0.432 166 122 87
0.489189 -0.333669 -0.432 164 120 85
0.491146 -0.334441 -0.433 163 119 82
0.49197 -0.334441 -0.433 163 119 82
0.492795 -0.334441 -0.433 166 118 82
0.49362 -0.334441 -0.433 163 117 81
0.494445 -0.334441 -0.433 160 114 78
0.496413 -0.335213 -0.434 159 113 77
0.49724 -0.335213 -0.434 156 112 77
0.498067 -0.335213 -0.434 154 110 75
0.500043 -0.335986 -0.435 154 111 79
0.502023 -0.336758 -0.436 153 110 78
0.502853 -0.336758 -0.436 152 111 81
0.504839 -0.33753 -0.437 150 109 79
0.506829 -0.338303 -0.438 149 108 78
0.508822 -0.339075 -0.439 149 108 78
0.67531 -0.436395 -0.565 199 204 197
0.983453 -0.443347 -0.574 203 205 191
0.984547 -0.443347 -0.574 204 206 192
0.98564 -0.443347 -0.574 204 206 192
0.0318362 -0.424309 -0.548 193 153 128
0.0327 -0.421986 -0.545 192 152 127
0.0335524 -0.419663 -0.542 192 152 127
0.0343295 -0.416566 -0.538 193 153 128
0.0350914 -0.413469 -0.534 192 152 126
0.0359057 -0.411146 -0.531 192 152 126
0.0367086 -0.408823 -0.528 198 154 125
0.0375 -0.4065 -0.525 200 156 127
0.0384267 -0.405726 -0.524 201 157 128
0.0392743 -0.404177 -0.522 201 157 128
0.0401914 -0.403403 -0.521 204 160 133
0.0411838 -0.403403 -0.521 207 163 136
0.0420952 -0.402629 -0.52 205 160 131
0.0430857 -0.402629 -0.52 205 159 133
0.0439914 -0.401854 -0.519 205 159 133
0.04498 -0.401854 -0.519 203 157 131
0.04588 -0.40108 -0.518 202 157 128
0.0468667 -0.40108 -0.518 201 156 127
0.047761 -0.400306 -0.517 202 156 130
0.0487457 -0.400306 -0.517 204 158 132
0.0497305 -0.400306 -0.517 203 159 130
0.0506171 -0.399531 -0.516 204 160 131
0.0516 -0.399531 -0.516 204 161 129
0.0525829 -0.399531 -0.516 203 160 128
0.0535657 -0.399531 -0.516 203 160 128
0.0545486 -0.399531 -0.516 202 159 127
0.0555314 -0.399531 -0.516 200 156 127
0.0564048 -0.398757 -0.515 198 154 125
0.0573857 -0.398757 -0.515 201 154 128
0.0583667 -0.398757 -0.515 201 154 128
0.0593476 -0.398757 -0.515 200 155 126
0.0603286 -0.398757 -0.515 198 153 124
0.0613095 -0.398757 -0.515 195 148 120
0.0622905 -0.398757 -0.515 195 148 120
0.0633943 -0.399531 -0.516 197 150 124
0.0643771 -0.399531 -0.516 197 150 124
0.06536 -0.399531 -0.516 197 147 122
0.0663429 -0.399531 -0.516 195 145 120
0.0673257 -0.399531 -0.516 191 144 118
0.0683086 -0.399531 -0.516 191 144 118
0.0694257 -0.400306 -0.517 189 142 116
0.0704105 -0.400306 -0.517 189 142 116
0.0715333 -0.40108 -0.518 190 140 117
0.07252 -0.40108 -0.518 189 139 116
0.0735067 -0.40108 -0.518 189 142 116
0.0746371 -0.401854 -0.519 187 140 114
0.0756257 -0.401854 -0.519 188 140 117
0.0766143 -0.401854 -0.519 186 138 115
0.0777524 -0.402629 -0.52 184 136 113
0.0787429 -0.402629 -0.52 186 138 115
0.0798867 -0.403403 -0.521 187 139 116
0.0810343 -0.404177 -0.522 187 139 116
0.0820286 -0.404177 -0.522 185 137 114
0.0830229 -0.404177 -0.522 186 138 115
0.0841781 -0.404951 -0.523 183 135 113
0.0851743 -0.404951 -0.523 183 135 113
0.0863352 -0.405726 -0.524 183 135 113
0.0875 -0.4065 -0.525 180 132 110
0.0886686 -0.407274 -0.526 181 133 111
0.089841 -0.408049 -0.527 180 132 110
0.0908448 -0.408049 -0.527 176 132 107
0.0920229 -0.408823 -0.528 175 131 106
0.0932048 -0.409597 -0.529 174 130 105
0.0943905 -0.410371 -0.53 174 130 105
0.09576 -0.41192 -0.532 171 126 103
0.0969552 -0.412694 -0.533 165 120 97
0.0979705 -0.412694 -0.533 165 120 97
0.0991714 -0.413469 -0.534 158 116 100
0.100376 -0.414243 -0.535 155 113 97
0.101585 -0.415017 -0.536 147 109 98
0.102989 -0.416566 -0.538 146 108 97
0.104207 -0.41734 -0.539 142 108 98
0.105624 -0.418889 -0.541 141 107 97
0.107049 -0.420437 -0.543 137 107 99
0.108481 -0.421986 -0.545 134 104 96
0.109921 -0.423534 -0.547 130 103 96
0.111369 -0.425083 -0.549 129 102 95
0.12582 -0.43902 -0.567 61 59 72
0.127124 -0.439794 -0.568 42 42 68
0.128206 -0.439794 -0.568 41 41 67
0.129288 -0.439794 -0.568 47 53 79
0.13037 -0.439794 -0.568 74 80 106
0.131451 -0.439794 -0.568 71 84 101
0.132533 -0.439794 -0.568 77 90 107
0.133615 -0.439794 -0.568 106 111 131
0.134697 -0.439794 -0.568 119 124 144
0.135779 -0.439794 -0.568 82 98 134
0.136861 -0.439794 -0.568 48 64 100
0.137943 -0.439794 -0.568 40 62 103
0.139025 -0.439794 -0.568 75 97 138
0.140107 -0.439794 -0.568 127 146 176
0.14094 -0.43902 -0.567 158 177 207
0.14202 -0.43902 -0.567 139 159 184
0.1431 -0.43902 -0.567 108 128 153
0.470126 -0.445989 -0.576 100 126 161
0.471223 -0.445989 -0.576 77 103 138
0.47232 -0.445989 -0.576 110 129 161
0.473417 -0.445989 -0.576 170 189 221
0.474514 -0.445989 -0.576 207 211 223
0.476437 -0.446763 -0.577 203 207 219
0.477536 -0.446763 -0.577 203 207 219
0.478635 -0.446763 -0.577 191 191 199
0.479734 -0.446763 -0.577 204 204 212
0.52734 -0.434374 -0.561 139 123 124
0.523699 -0.430503 -0.556 149 119 117
0.520039 -0.426631 -0.551 149 119 117
0.512577 -0.419663 -0.542 149 121 109
0.505081 -0.412694 -0.533 148 120 108
0.49755 -0.405726 -0.524 144 121 113
0.490937 -0.399531 -0.516 144 121 113
0.487153 -0.39566 -0.511 148 121 110
0.482395 -0.391014 -0.505 148 121 110
0.479529 -0.387917 -0.501 149 123 110
0.476647 -0.38482 -0.497 150 124 111
0.47375 -0.381723 -0.493 153 125 113
0.4718 -0.3794 -0.49 154 126 114
0.469839 -0.377077 -0.487 156 127 113
0.468833 -0.375529 -0.485 155 126 112
0.466851 -0.373206 -0.482 157 125 110
0.465829 -0.371657 -0.48 159 127 112
0.464798 -0.370109 -0.478 161 128 111
0.46376 -0.36856 -0.476 160 127 110
0.46369 -0.367786 -0.475 162 127 108
0.462639 -0.366237 -0.473 164 129 110
0.46256 -0.365463 -0.472 166 129 111
0.462477 -0.364689 -0.471 166 129 111
0.461407 -0.36314 -0.469 165 130 110
0.461314 -0.362366 -0.468 164 129 109
0.461218 -0.361591 -0.467 165 130 110
0.461118 -0.360817 -0.466 167 132 112
0.461014 -0.360043 -0.465 168 133 113
0.460907 -0.359269 -0.464 167 132 112
0.460795 -0.358494 -0.463 168 132 110
0.46068 -0.35772 -0.462 168 132 110
0.460561 -0.356946 -0.461 168 132 110
0.460438 -0.356171 -0.46 168 132 110
0.460311 -0.355397 -0.459 169 131 108
0.460181 -0.354623 -0.458 170 132 109
0.460047 -0.353849 -0.457 170 132 109
0.460917 -0.353849 -0.457 170 132 109
0.460777 -0.353074 -0.456 172 131 109
0.460633 -0.3523 -0.455 172 131 109
0.460486 -0.351526 -0.454 170 133 106
0.460334 -0.350751 -0.453 170 133 106
0.460179 -0.349977 -0.452 173 133 108
0.46104 -0.349977 -0.452 173 133 108
0.460879 -0.349203 -0.451 174 134 108
0.460714 -0.348429 -0.45 174 134 108
0.460546 -0.347654 -0.449 175 136 107
0.460373 -0.34688 -0.448 174 134 108
0.460197 -0.346106 -0.447 174 135 106
0.461049 -0.346106 -0.447 174 135 106
0.460867 -0.345331 -0.446 175 134 104
0.460681 -0.344557 -0.445 175 134 104
0.461529 -0.344557 -0.445 176 135 105
0.461337 -0.343783 -0.444 176 135 105
0.462183 -0.343783 -0.444 177 136 106
0.463029 -0.343783 -0.444 178 137 107
0.46283 -0.343009 -0.443 178 134 105
0.462627 -0.342234 -0.442 179 135 106
0.463469 -0.342234 -0.442 180 136 107
0.46326 -0.34146 -0.441 181 137 108
0.463048 -0.340686 -0.44 182 139 107
0.463886 -0.340686 -0.44 182 139 107
0.464724 -0.340686 -0.44 181 138 104
0.465562 -0.340686 -0.44 181 138 104
0.46534 -0.339911 -0.439 183 138 105
0.465114 -0.339137 -0.438 182 137 104
0.465949 -0.339137 -0.438 180 136 101
0.465717 -0.338363 -0.437 181 137 102
0.465482 -0.337589 -0.436 182 138 101
0.466312 -0.337589 -0.436 181 137 100
0.467143 -0.337589 -0.436 181 135 99
0.4669 -0.336814 -0.435 182 136 100
0.467729 -0.336814 -0.435 181 135 99
0.468557 -0.336814 -0.435 181 135 99
0.469386 -0.336814 -0.435 181 135 99
0.470214 -0.336814 -0.435 181 135 99
0.46996 -0.33604 -0.434 179 133 97
0.469702 -0.335266 -0.433 178 132 96
0.470527 -0.335266 -0.433 177 131 95
0.471351 -0.335266 -0.433 177 131 95
0.471086 -0.334491 -0.432 178 132 96
0.471909 -0.334491 -0.432 177 131 95
0.472731 -0.334491 -0.432 177 131 95
0.473554 -0.334491 -0.432 176 130 94
0.474377 -0.334491 -0.432 174 128 92
0.4741 -0.333717 -0.431 175 129 93
0.474921 -0.333717 -0.431 174 128 92
0.475742 -0.333717 -0.431 173 127 91
0.476563 -0.333717 -0.431 173 127 91
0.477384 -0.333717 -0.431 173 127 91
0.478205 -0.333717 -0.431 174 128 92
0.477914 -0.332943 -0.43 174 128 92
0.478733 -0.332943 -0.43 173 127 91
0.479552 -0.332943 -0.43 172 126 90
0.480371 -0.332943 -0.43 170 124 88
0.48119 -0.332943 -0.43 170 124 90
0.48201 -0.332943 -0.43 170 124 90
0.482829 -0.332943 -0.43 169 123 89
0.484772 -0.333717 -0.431 168 122 88
0.485593 -0.333717 -0.431 167 123 88
0.486414 -0.333717 -0.431 166 122 87
0.487235 -0.333717 -0.431 164 119 86
0.488056 -0.333717 -0.431 164 119 86
0.490011 -0.334491 -0.432 164 118 85
0.490834 -0.334491 -0.432 165 119 86
0.491657 -0.334491 -0.432 164 118 82
0.49248 -0.334491 -0.432 162 118 81
0.493303 -0.334491 -0.432 159 115 78
0.49527 -0.335266 -0.433 158 114 77
0.496094 -0.335266 -0.433 158 114 79
0.496919 -0.335266 -0.433 155 111 76
0.498893 -0.33604 -0.434 151 110 78
0.49972 -0.33604 -0.434 151 110 78
0.5017 -0.336814 -0.435 150 111 80
0.503684 -0.337589 -0.436 149 110 79
0.505671 -0.338363 -0.437 149 110 79
0.507663 -0.339137 -0.438 148 109 78
0.508497 -0.339137 -0.438 144 107 78
0.51282 -0.34146 -0.441 143 106 77
0.517154 -0.343783 -0.444 140 105 77
0.5215 -0.346106 -0.447 140 105 77
0.525857 -0.348429 -0.45 137 102 70
0.671724 -0.435149 -0.562 201 204 197
0.676386 -0.437471 -0.565 201 204 197
0.95882 -0.443666 -0.573 204 207 190
0.959911 -0.443666 -0.573 204 207 190
0.961003 -0.443666 -0.573 204 207 190
0.990013 -0.44444 -0.574 204 206 192
0.991107 -0.44444 -0.574 204 207 190
0.9922 -0.44444 -0.574 204 207 190
0.993293 -0.44444 -0.574 204 207 190
0.994387 -0.44444 -0.574 204 207 190
0.99548 -0.44444 -0.574 204 206 192
0.996573 -0.44444 -0.574 204 206 192
1.00095 -0.44444 -0.574 204 206 192
0.0316619 -0.423024 -0.545 192 152 127
0.03252 -0.420695 -0.542 191 151 126
0.0333667 -0.418367 -0.539 190 148 124
0.0341381 -0.415262 -0.535 191 149 125
0.0348943 -0.412157 -0.531 190 149 121
0.0357705 -0.410605 -0.529 192 151 123
0.0365 -0.4075 -0.525 198 155 123
0.0374286 -0.406724 -0.524 200 157 125
0.03828 -0.405171 -0.522 202 157 128
0.039199 -0.404395 -0.521 203 158 129
0.0401143 -0.403619 -0.52 204 160 133
0.0411048 -0.403619 -0.52 206 162 135
0.0420143 -0.402843 -0.519 207 162 131
0.0430029 -0.402843 -0.519 206 161 132
0.0439914 -0.402843 -0.519 205 160 129
0.0448933 -0.402067 -0.518 204 159 128
0.0457914 -0.40129 -0.517 204 159 128
0.0467762 -0.40129 -0.517 203 158 127
0.047761 -0.40129 -0.517 202 157 126
0.0487457 -0.40129 -0.517 203 158 127
0.0496343 -0.400514 -0.516 204 159 128
0.0506171 -0.400514 -0.516 204 159 128
0.0516 -0.400514 -0.516 203 158 127
0.0525829 -0.400514 -0.516 202 157 126
0.0535657 -0.400514 -0.516 204 159 126
0.0545486 -0.400514 -0.516 203 158 125
0.0554238 -0.399738 -0.515 200 155 124
0.0564048 -0.399738 -0.515 198 153 122
0.0573857 -0.399738 -0.515 201 154 128
0.0583667 -0.399738 -0.515 201 154 128
0.0593476 -0.399738 -0.515 200 155 126
0.0603286 -0.399738 -0.515 197 152 123
0.0613095 -0.399738 -0.515 193 148 119
0.0622905 -0.399738 -0.515 193 148 119
0.0632714 -0.399738 -0.515 196 149 123
0.0642524 -0.399738 -0.515 197 150 124
0.06536 -0.400514 -0.516 193 145 122
0.0663429 -0.400514 -0.516 192 144 121
0.0673257 -0.400514 -0.516 192 145 119
0.0683086 -0.400514 -0.516 192 145 119
0.0692914 -0.400514 -0.516 191 144 118
0.0704105 -0.40129 -0.517 190 143 117
0.0715333 -0.402067 -0.518 190 142 119
0.07252 -0.402067 -0.518 189 141 118
0.0735067 -0.402067 -0.518 190 144 118
0.0744933 -0.402067 -0.518 187 141 115
0.0756257 -0.402843 -0.519 186 138 115
0.0766143 -0.402843 -0.519 185 137 114
0.0776029 -0.402843 -0.519 184 136 113
0.0787429 -0.403619 -0.52 185 137 114
0.0798867 -0.404395 -0.521 185 139 115
0.0808791 -0.404395 -0.521 185 139 115
0.0820286 -0.405171 -0.522 183 137 113
0.0830229 -0.405171 -0.522 182 136 112
0.0841781 -0.405948 -0.523 180 132 110
0.0851743 -0.405948 -0.523 180 132 110
0.0863352 -0.406724 -0.524 180 132 110
0.0875 -0.4075 -0.525 179 131 109
0.0886686 -0.408276 -0.526 178 132 109
0.089841 -0.409052 -0.527 177 131 108
0.0908448 -0.409052 -0.527 177 131 107
0.0920229 -0.409829 -0.528 177 131 107
0.0932048 -0.410605 -0.529 177 129 106
0.0943905 -0.411381 -0.53 177 129 106
0.0954 -0.411381 -0.53 177 129 106
0.0967733 -0.412933 -0.532 171 124 104
0.0979705 -0.41371 -0.533 164 117 97
0.0991714 -0.414486 -0.534 158 115 99
0.100376 -0.415262 -0.535 155 112 96
0.101774 -0.416814 -0.537 150 110 98
0.102989 -0.41759 -0.538 149 109 97
0.1044 -0.419143 -0.54 144 110 101
0.105819 -0.420695 -0.542 143 109 100
0.107049 -0.421471 -0.543 134 105 97
0.108481 -0.423024 -0.545 132 103 95
0.109921 -0.424576 -0.547 126 103 95
0.111369 -0.426129 -0.549 124 101 93
0.12452 -0.439324 -0.566 75 76 94
0.12582 -0.4401 -0.567 54 55 73
0.1269 -0.4401 -0.567 34 41 67
0.128206 -0.440876 -0.568 33 40 66
0.129288 -0.440876 -0.568 52 58 84
0.13037 -0.440876 -0.568 73 79 105
0.131451 -0.440876 -0.568 86 88 109
0.132533 -0.440876 -0.568 109 111 132
0.133615 -0.440876 -0.568 105 113 134
0.134697 -0.440876 -0.568 109 117 138
0.135779 -0.440876 -0.568 77 92 131
0.136861 -0.440876 -0.568 46 61 100
0.137943 -0.440876 -0.568 51 67 118
0.139025 -0.440876 -0.568 95 111 162
0.13986 -0.4401 -0.567 144 159 182
0.14094 -0.4401 -0.567 167 182 205
0.14202 -0.4401 -0.567 147 163 188
0.1431 -0.4401 -0.567 120 136 161
0.14418 -0.4401 -0.567 116 143 172
0.14526 -0.4401 -0.567 85 112 141
0.14634 -0.4401 -0.567 69 93 139
0.14742 -0.4401 -0.567 78 102 148
0.1485 -0.4401 -0.567 136 154 194
0.14958 -0.4401 -0.567 181 199 239
0.15066 -0.4401 -0.567 212 211 217
0.455071 -0.44631 -0.575 192 204 228
0.456167 -0.44631 -0.575 203 219 234
0.457262 -0.44631 -0.575 192 208 223
0.458357 -0.44631 -0.575 181 198 224
0.459452 -0.44631 -0.575 128 145 171
0.47232 -0.447086 -0.576 110 127 155
0.473417 -0.447086 -0.576 137 154 182
0.474514 -0.447086 -0.576 198 202 213
0.475611 -0.447086 -0.576 175 179 190
0.476709 -0.447086 -0.576 182 180 191
0.477806 -0.447086 -0.576 182 180 191
0.478903 -0.447086 -0.576 207 205 216
0.48 -0.447086 -0.576 205 210 214
0.481097 -0.447086 -0.576 206 211 215
0.525583 -0.433114 -0.558 140 120 113
0.520983 -0.428457 -0.552 141 121 114
0.515414 -0.423024 -0.545 147 118 112
0.506976 -0.415262 -0.535 148 119 113
0.49945 -0.408276 -0.526 148 119 111
0.49284 -0.402067 -0.518 149 120 112
0.488107 -0.39741 -0.512 148 122 109
0.48335 -0.392752 -0.506 148 122 109
0.480486 -0.389648 -0.502 147 124 110
0.476647 -0.385767 -0.497 148 125 111
0.47471 -0.383438 -0.494 151 125 110
0.4718 -0.380333 -0.49 152 126 111
0.470804 -0.378781 -0.488 156 127 113
0.468833 -0.376452 -0.485 157 128 114
0.46782 -0.3749 -0.483 155 126 110
0.466799 -0.373348 -0.481 156 127 111
0.464798 -0.371019 -0.478 159 128 110
0.46376 -0.369467 -0.476 159 128 110
0.46369 -0.36869 -0.475 160 129 111
0.463617 -0.367914 -0.474 161 130 112
0.46256 -0.366362 -0.472 162 129 110
0.462477 -0.365586 -0.471 161 128 109
0.461407 -0.364033 -0.469 164 129 110
0.461314 -0.363257 -0.468 166 131 112
0.461218 -0.362481 -0.467 166 129 110
0.461118 -0.361705 -0.466 166 129 110
0.461014 -0.360929 -0.465 168 131 112
0.460907 -0.360152 -0.464 170 133 114
0.460795 -0.359376 -0.463 169 133 111
0.46068 -0.3586 -0.462 168 132 110
0.460561 -0.357824 -0.461 169 133 111
0.460438 -0.357048 -0.46 168 132 110
0.460311 -0.356271 -0.459 169 131 108
0.460181 -0.355495 -0.458 169 131 108
0.460047 -0.354719 -0.457 170 132 109
0.460917 -0.354719 -0.457 169 131 108
0.460777 -0.353943 -0.456 170 133 107
0.460633 -0.353167 -0.455 171 134 108
0.460486 -0.35239 -0.454 172 135 109
0.460334 -0.351614 -0.453 170 133 107
0.460179 -0.350838 -0.452 171 134 107
0.46104 -0.350838 -0.452 172 135 108
0.460879 -0.350062 -0.451 174 134 108
0.460714 -0.349286 -0.45 175 135 109
0.460546 -0.34851 -0.449 175 135 109
0.460373 -0.347733 -0.448 175 135 109
0.460197 -0.346957 -0.447 174 135 106
0.461049 -0.346957 -0.447 174 135 106
0.460867 -0.346181 -0.446 176 135 105
0.460681 -0.345405 -0.445 175 134 104
0.461529 -0.345405 -0.445 176 135 105
0.461337 -0.344629 -0.444 177 136 106
0.462183 -0.344629 -0.444 178 137 107
0.461986 -0.343852 -0.443 179 138 108
0.46283 -0.343852 -0.443 179 135 106
0.462627 -0.343076 -0.442 179 135 106
0.463469 -0.343076 -0.442 180 137 105
0.46326 -0.3423 -0.441 181 138 106
0.463048 -0.341524 -0.44 182 139 107
0.463886 -0.341524 -0.44 182 139 107
0.464724 -0.341524 -0.44 182 139 105
0.464504 -0.340748 -0.439 182 139 105
0.46534 -0.340748 -0.439 181 136 103
0.465114 -0.339971 -0.438 181 136 103
0.465949 -0.339971 -0.438 181 137 102
0.465717 -0.339195 -0.437 181 137 102
0.465482 -0.338419 -0.436 182 138 103
0.466312 -0.338419 -0.436 181 137 102
0.466071 -0.337643 -0.435 182 136 100
0.4669 -0.337643 -0.435 183 137 101
0.467729 -0.337643 -0.435 182 136 102
0.468557 -0.337643 -0.435 181 135 101
0.468307 -0.336867 -0.434 180 134 98
0.469133 -0.336867 -0.434 178 132 96
0.468877 -0.33609 -0.433 179 133 97
0.469702 -0.33609 -0.433 179 133 97
0.470527 -0.33609 -0.433 179 133 97
0.470263 -0.335314 -0.432 178 132 96
0.471086 -0.335314 -0.432 179 133 97
0.471909 -0.335314 -0.432 176 130 94
0.472731 -0.335314 -0.432 177 131 95
0.473554 -0.335314 -0.432 177 131 95
0.473279 -0.334538 -0.431 176 130 94
0.4741 -0.334538 -0.431 175 129 93
0.473819 -0.333762 -0.43 174 128 92
0.474638 -0.333762 -0.43 173 127 91
0.475457 -0.333762 -0.43 173 127 91
0.476276 -0.333762 -0.43 174 128 92
0.477095 -0.333762 -0.43 174 128 92
0.477914 -0.333762 -0.43 174 128 92
0.478733 -0.333762 -0.43 173 127 91
0.478437 -0.332986 -0.429 172 128 91
0.480371 -0.333762 -0.43 170 126 89
0.48119 -0.333762 -0.43 170 124 90
0.48201 -0.333762 -0.43 170 124 90
0.482829 -0.333762 -0.43 168 122 88
0.483648 -0.333762 -0.43 168 122 88
0.484467 -0.333762 -0.43 167 123 88
0.485286 -0.333762 -0.43 166 122 87
0.486105 -0.333762 -0.43 165 121 86
0.486924 -0.333762 -0.43 164 120 85
0.488877 -0.334538 -0.431 165 119 85
0.489698 -0.334538 -0.431 164 118 84
0.490519 -0.334538 -0.431 163 119 82
0.49134 -0.334538 -0.431 162 120 82
0.492161 -0.334538 -0.431 158 116 78
0.494126 -0.335314 -0.432 157 115 77
0.494949 -0.335314 -0.432 156 113 78
0.495771 -0.335314 -0.432 154 111 76
0.497744 -0.33609 -0.433 150 109 77
0.498569 -0.33609 -0.433 150 109 77
0.500547 -0.336867 -0.434 150 111 80
0.501373 -0.336867 -0.434 149 110 79
0.503357 -0.337643 -0.435 146 109 80
0.505345 -0.338419 -0.436 144 107 78
0.507336 -0.339195 -0.437 142 107 79
0.509331 -0.339971 -0.438 142 107 79
0.512495 -0.341524 -0.44 141 105 79
0.516833 -0.343852 -0.443 141 105 79
0.521183 -0.346181 -0.446 138 103 71
0.666943 -0.433114 -0.558 201 204 197
0.672794 -0.436219 -0.562 201 204 197
0.677462 -0.438548 -0.565 201 202 194
0.0306238 -0.424062 -0.545 193 153 127
0.0314876 -0.421728 -0.542 193 151 127
0.03234 -0.419393 -0.539 191 149 125
0.033119 -0.416281 -0.535 189 147 122
0.0338829 -0.413169 -0.531 189 147 122
0.0346971 -0.410834 -0.528 192 148 121
0.0355676 -0.409278 -0.526 195 151 124
0.036361 -0.406944 -0.523 198 154 125
0.0372857 -0.406166 -0.522 200 156 127
0.0382067 -0.405388 -0.521 202 157 128
0.0391238 -0.40461 -0.52 203 158 129
0.0400371 -0.403831 -0.519 205 159 133
0.0410257 -0.403831 -0.519 206 160 134
0.0419333 -0.403053 -0.518 206 162 133
0.04292 -0.403053 -0.518 208 163 132
0.0439067 -0.403053 -0.518 206 161 130
0.0448067 -0.402275 -0.517 204 159 128
0.0457914 -0.402275 -0.517 204 159 128
0.0466857 -0.401497 -0.516 202 157 126
0.0476686 -0.401497 -0.516 202 157 126
0.0486514 -0.401497 -0.516 203 158 127
0.0496343 -0.401497 -0.516 204 159 128
0.0506171 -0.401497 -0.516 204 159 128
0.0516 -0.401497 -0.516 202 157 124
0.0525829 -0.401497 -0.516 201 156 123
0.0535657 -0.401497 -0.516 203 158 125
0.0544429 -0.400719 -0.515 201 156 123
0.0554238 -0.400719 -0.515 197 152 121
0.0564048 -0.400719 -0.515 195 150 119
0.0573857 -0.400719 -0.515 200 155 126
0.0583667 -0.400719 -0.515 199 154 125
0.0593476 -0.400719 -0.515 198 153 124
0.0603286 -0.400719 -0.515 195 150 121
0.0613095 -0.400719 -0.515 192 147 118
0.0622905 -0.400719 -0.515 192 147 118
0.0632714 -0.400719 -0.515 194 148 122
0.0642524 -0.400719 -0.515 194 148 122
0.0652333 -0.400719 -0.515 194 147 121
0.0662143 -0.400719 -0.515 192 145 119
0.0671952 -0.400719 -0.515 191 145 119
0.0683086 -0.401497 -0.516 190 144 118
0.0692914 -0.401497 -0.516 191 144 118
0.0704105 -0.402275 -0.517 192 145 119
0.0713952 -0.402275 -0.517 192 144 121
0.07238 -0.402275 -0.517 191 143 120
0.0735067 -0.403053 -0.518 190 143 117
0.0744933 -0.403053 -0.518 188 141 115
0.07548 -0.403053 -0.518 184 136 113
0.0766143 -0.403831 -0.519 185 137 114
0.0776029 -0.403831 -0.519 186 138 115
0.0787429 -0.40461 -0.52 186 138 115
0.0797333 -0.40461 -0.52 186 138 115
0.0808791 -0.405388 -0.521 183 135 112
0.0820286 -0.406166 -0.522 184 136 113
0.0830229 -0.406166 -0.522 181 133 110
0.0841781 -0.406944 -0.523 181 133 111
0.0851743 -0.406944 -0.523 180 132 110
0.0863352 -0.407722 -0.524 180 132 110
0.0875 -0.4085 -0.525 181 133 111
0.0886686 -0.409278 -0.526 179 131 109
0.089841 -0.410056 -0.527 177 129 107
0.0910171 -0.410834 -0.528 177 131 107
0.0920229 -0.410834 -0.528 176 130 106
0.0930286 -0.410834 -0.528 176 130 106
0.0942124 -0.411612 -0.529 177 129 107
0.0954 -0.41239 -0.53 175 127 105
0.0967733 -0.413947 -0.532 168 121 103
0.0979705 -0.414725 -0.533 163 116 98
0.0991714 -0.415503 -0.534 158 115 99
0.100376 -0.416281 -0.535 154 111 95
0.101774 -0.417837 -0.537 150 110 98
0.102989 -0.418615 -0.538 149 109 97
0.1044 -0.420171 -0.54 144 110 100
0.105819 -0.421728 -0.542 141 107 97
0.107246 -0.423284 -0.544 134 105 97
0.10868 -0.42484 -0.546 131 102 94
0.110122 -0.426396 -0.548 125 100 93
0.125598 -0.440402 -0.566 40 42 57
0.1269 -0.44118 -0.567 32 38 62
0.12798 -0.44118 -0.567 45 51 75
0.12906 -0.44118 -0.567 72 78 102
0.13014 -0.44118 -0.567 95 101 125
0.13122 -0.44118 -0.567 111 113 134
0.1323 -0.44118 -0.567 135 137 158
0.13338 -0.44118 -0.567 126 134 155
0.13446 -0.44118 -0.567 115 123 144
0.13554 -0.44118 -0.567 78 92 127
0.13662 -0.44118 -0.567 52 66 101
0.1377 -0.44118 -0.567 67 81 126
0.13878 -0.44118 -0.567 115 129 174
0.13986 -0.44118 -0.567 157 169 191
0.140691 -0.440402 -0.566 170 182 204
0.14177 -0.440402 -0.566 160 175 196
0.142848 -0.440402 -0.566 146 161 182
0.143926 -0.440402 -0.566 140 164 188
0.145004 -0.440402 -0.566 111 135 159
0.463833 -0.447405 -0.575 191 208 234
0.464929 -0.447405 -0.575 205 207 228
0.466024 -0.447405 -0.575 202 204 225
0.467119 -0.447405 -0.575 197 211 224
0.468214 -0.447405 -0.575 191 205 218
0.46931 -0.447405 -0.575 180 191 211
0.470405 -0.447405 -0.575 190 201 221
0.4715 -0.447405 -0.575 177 176 192
0.472595 -0.447405 -0.575 163 162 178
0.474514 -0.448183 -0.576 160 163 178
0.475611 -0.448183 -0.576 155 158 173
0.476709 -0.448183 -0.576 191 196 200
0.477806 -0.448183 -0.576 191 196 200
0.478903 -0.448183 -0.576 202 207 211
0.479167 -0.447405 -0.575 206 211 215
0.525583 -0.434177 -0.558 143 123 116
0.521927 -0.430287 -0.553 141 121 114
0.517306 -0.425618 -0.547 147 118 110
0.509819 -0.418615 -0.538 147 118 110
0.501349 -0.410834 -0.528 148 119 111
0.493791 -0.403831 -0.519 148 119 111
0.48906 -0.399163 -0.513 147 121 108
0.484306 -0.394494 -0.507 148 122 109
0.481443 -0.391382 -0.503 148 122 109
0.477606 -0.387491 -0.498 150 124 111
0.47471 -0.384379 -0.494 151 125 110
0.472763 -0.382045 -0.491 153 127 112
0.470804 -0.37971 -0.488 155 126 112
0.468833 -0.377376 -0.485 155 126 112
0.46782 -0.37582 -0.483 155 126 110
0.466799 -0.374264 -0.481 156 127 111
0.46577 -0.372708 -0.479 158 127 109
0.464734 -0.371151 -0.477 158 127 109
0.46369 -0.369595 -0.475 159 128 110
0.463617 -0.368817 -0.474 160 129 111
0.46256 -0.367261 -0.472 162 129 110
0.462477 -0.366483 -0.471 161 128 109
0.46239 -0.365705 -0.47 163 128 109
0.461314 -0.364149 -0.468 164 129 110
0.461218 -0.36337 -0.467 167 130 112
0.461118 -0.362592 -0.466 167 130 112
0.461014 -0.361814 -0.465 168 131 112
0.460907 -0.361036 -0.464 169 132 113
0.460795 -0.360258 -0.463 169 132 113
0.46068 -0.35948 -0.462 169 132 113
0.460561 -0.358702 -0.461 169 133 111
0.460438 -0.357924 -0.46 168 132 110
0.460311 -0.357146 -0.459 170 132 109
0.460181 -0.356368 -0.458 170 132 109
0.460047 -0.35559 -0.457 170 132 109
0.460917 -0.35559 -0.457 170 132 109
0.460777 -0.354811 -0.456 170 132 109
0.460633 -0.354033 -0.455 170 132 109
0.460486 -0.353255 -0.454 171 134 108
0.460334 -0.352477 -0.453 171 134 108
0.460179 -0.351699 -0.452 172 135 108
0.46104 -0.351699 -0.452 172 135 108
0.460879 -0.350921 -0.451 173 133 107
0.460714 -0.350143 -0.45 174 134 108
0.460546 -0.349365 -0.449 175 135 109
0.460373 -0.348587 -0.448 174 134 108
0.460197 -0.347809 -0.447 174 135 106
0.461049 -0.347809 -0.447 174 135 106
0.460867 -0.34703 -0.446 175 134 104
0.460681 -0.346252 -0.445 175 134 104
0.461529 -0.346252 -0.445 175 134 104
0.461337 -0.345474 -0.444 177 136 106
0.461142 -0.344696 -0.443 178 137 107
0.461986 -0.344696 -0.443 178 137 107
0.46283 -0.344696 -0.443 178 137 105
0.462627 -0.343918 -0.442 178 137 105
0.46242 -0.34314 -0.441 181 138 106
0.46326 -0.34314 -0.441 181 138 106
0.463048 -0.342362 -0.44 182 139 107
0.463886 -0.342362 -0.44 182 139 107
0.463668 -0.341584 -0.439 182 139 105
0.464504 -0.341584 -0.439 182 139 105
0.46534 -0.341584 -0.439 180 135 102
0.465114 -0.340806 -0.438 181 136 103
0.464885 -0.340028 -0.437 182 138 103
0.465717 -0.340028 -0.437 182 138 103
0.465482 -0.33925 -0.436 182 138 103
0.466312 -0.33925 -0.436 182 138 103
0.466071 -0.338471 -0.435 182 138 103
0.4669 -0.338471 -0.435 182 138 103
0.466653 -0.337693 -0.434 181 137 102
0.46748 -0.337693 -0.434 181 137 102
0.468307 -0.337693 -0.434 179 135 100
0.469133 -0.337693 -0.434 177 133 98
0.468877 -0.336915 -0.433 179 135 100
0.469702 -0.336915 -0.433 179 135 100
0.46944 -0.336137 -0.432 177 133 98
0.470263 -0.336137 -0.432 178 134 99
0.471086 -0.336137 -0.432 178 134 99
0.470816 -0.335359 -0.431 176 132 97
0.471637 -0.335359 -0.431 176 132 97
0.472458 -0.335359 -0.431 176 132 97
0.473279 -0.335359 -0.431 175 131 96
0.4741 -0.335359 -0.431 174 130 95
0.473819 -0.334581 -0.43 173 129 94
0.474638 -0.334581 -0.43 173 129 92
0.474351 -0.333803 -0.429 173 129 92
0.475169 -0.333803 -0.429 174 128 92
0.477095 -0.334581 -0.43 173 127 91
0.477914 -0.334581 -0.43 173 127 91
0.47762 -0.333803 -0.429 173 127 91
0.478437 -0.333803 -0.429 172 128 91
0.479254 -0.333803 -0.429 172 128 91
0.480071 -0.333803 -0.429 171 125 89
0.480889 -0.333803 -0.429 170 124 88
0.481706 -0.333803 -0.429 168 122 86
0.482523 -0.333803 -0.429 167 121 85
0.48334 -0.333803 -0.429 166 122 85
0.484157 -0.333803 -0.429 166 122 85
0.484974 -0.333803 -0.429 165 121 84
0.485791 -0.333803 -0.429 164 120 83
0.487743 -0.334581 -0.43 163 119 82
0.488562 -0.334581 -0.43 163 119 82
0.489381 -0.334581 -0.43 161 119 81
0.4902 -0.334581 -0.43 161 119 81
0.491019 -0.334581 -0.43 159 117 79
0.492982 -0.335359 -0.431 157 115 77
0.493803 -0.335359 -0.431 153 113 77
0.494624 -0.335359 -0.431 149 109 73
0.496594 -0.336137 -0.432 148 109 76
0.497417 -0.336137 -0.432 148 109 76
0.49824 -0.336137 -0.432 147 111 79
0.500218 -0.336915 -0.433 147 111 79
0.5022 -0.337693 -0.434 144 109 79
0.503027 -0.337693 -0.434 142 107 77
0.505014 -0.338471 -0.435 141 106 78
0.508169 -0.340028 -0.437 141 106 78
0.510166 -0.340806 -0.438 140 106 79
0.513333 -0.342362 -0.44 139 105 78
0.517677 -0.344696 -0.443 136 103 72
0.956057 -0.44507 -0.572 204 207 190
0.957147 -0.44507 -0.572 205 208 191
0.958236 -0.44507 -0.572 205 208 191
0.959326 -0.44507 -0.572 205 208 191
0.960415 -0.44507 -0.572 205 208 191
0.961505 -0.44507 -0.572 205 208 191
0.962594 -0.44507 -0.572 204 206 192
0.963684 -0.44507 -0.572 205 207 193
0.992654 -0.445849 -0.573 204 206 192
0.993746 -0.445849 -0.573 203 205 191
0.994837 -0.445849 -0.573 202 204 190
0.995929 -0.445849 -0.573 203 205 192
0.99702 -0.445849 -0.573 203 205 192
0.998111 -0.445849 -0.573 204 206 192
0.999203 -0.445849 -0.573 204 206 192
0.0295857 -0.4251 -0.545 193 153 127
0.0305114 -0.42354 -0.543 192 152 126
0.0313133 -0.42042 -0.539 192 151 123
0.03216 -0.41808 -0.536 191 150 122
0.0329333 -0.41496 -0.532 191 150 122
0.0336914 -0.41184 -0.528 191 150 122
0.0345657 -0.41028 -0.526 195 151 124
0.0354324 -0.40872 -0.524 196 152 125
0.0362914 -0.40716 -0.522 197 153 126
0.0372143 -0.40638 -0.521 197 153 126
0.0381333 -0.4056 -0.52 200 155 126
