ply
format ascii 1.0
comment Created by Open3D
element vertex 1311
property double x
property double y
property double z
property uchar red
property uchar green
property uchar blue
end_header
0.0690229 -0.398962 -0.514 192 148 121
0.0700019 -0.398962 -0.514 195 151 124
0.071119 -0.399738 -0.515 195 149 123
0.0721 -0.399738 -0.515 194 148 122
0.073081 -0.399738 -0.515 194 147 119
0.0742057 -0.400514 -0.516 195 148 120
0.0751886 -0.400514 -0.516 193 146 120
0.0763191 -0.40129 -0.517 192 145 119
0.0773038 -0.40129 -0.517 191 143 120
0.0782886 -0.40129 -0.517 190 142 119
0.0794267 -0.402067 -0.518 191 143 120
0.0805686 -0.402843 -0.519 191 143 120
0.0815571 -0.402843 -0.519 188 140 117
0.0827048 -0.403619 -0.52 187 139 116
0.0836952 -0.403619 -0.52 186 138 116
0.0848486 -0.404395 -0.521 185 137 115
0.0860057 -0.405171 -0.522 187 136 117
0.087 -0.405171 -0.522 188 137 118
0.0881629 -0.405948 -0.523 183 132 111
0.0893295 -0.406724 -0.524 176 125 104
0.0905 -0.4075 -0.525 176 127 110
0.0916743 -0.408276 -0.526 175 126 109
0.0928524 -0.409052 -0.527 175 127 107
0.0940343 -0.409829 -0.528 171 123 103
0.09504 -0.409829 -0.528 171 123 103
0.0962276 -0.410605 -0.529 164 117 97
0.097419 -0.411381 -0.53 161 114 94
0.0986143 -0.412157 -0.531 157 114 98
0.100001 -0.41371 -0.533 154 111 95
0.101206 -0.414486 -0.534 151 113 100
0.102606 -0.416038 -0.536 148 110 97
0.10382 -0.416814 -0.537 141 109 98
0.105233 -0.418367 -0.539 140 108 97
0.106654 -0.419919 -0.541 133 106 99
0.108083 -0.421471 -0.543 129 102 95
0.109519 -0.423024 -0.545 123 102 99
0.122788 -0.436995 -0.563 49 43 47
0.12386 -0.436995 -0.563 76 73 80
0.125154 -0.437771 -0.564 96 93 100
0.126229 -0.437771 -0.564 109 107 112
0.127529 -0.438548 -0.565 115 113 118
0.128605 -0.438548 -0.565 127 125 130
0.129681 -0.438548 -0.565 140 138 143
0.130757 -0.438548 -0.565 148 147 153
0.131833 -0.438548 -0.565 156 155 161
0.13291 -0.438548 -0.565 146 152 164
0.133986 -0.438548 -0.565 150 156 168
0.135062 -0.438548 -0.565 142 148 162
0.136138 -0.438548 -0.565 93 99 113
0.137214 -0.438548 -0.565 96 99 116
0.13829 -0.438548 -0.565 124 127 144
0.139367 -0.438548 -0.565 146 145 159
0.140443 -0.438548 -0.565 176 175 189
0.141519 -0.438548 -0.565 188 191 200
0.142595 -0.438548 -0.565 191 194 203
0.143417 -0.437771 -0.564 196 200 212
0.144491 -0.437771 -0.564 195 199 211
0.145566 -0.437771 -0.564 196 203 221
0.14664 -0.437771 -0.564 199 206 224
0.147714 -0.437771 -0.564 201 207 229
0.148789 -0.437771 -0.564 194 200 222
0.149863 -0.437771 -0.564 126 127 158
0.150937 -0.437771 -0.564 105 106 137
0.152011 -0.437771 -0.564 144 154 181
0.153086 -0.437771 -0.564 185 195 222
0.15416 -0.437771 -0.564 201 214 233
0.155234 -0.437771 -0.564 208 221 240
0.188537 -0.437771 -0.564 179 184 213
0.189611 -0.437771 -0.564 220 228 249
0.190686 -0.437771 -0.564 234 242 255
0.19176 -0.437771 -0.564 224 234 244
0.192834 -0.437771 -0.564 218 228 238
0.230843 -0.438548 -0.565 178 192 219
0.4218 -0.442429 -0.57 154 175 202
0.422886 -0.442429 -0.57 157 180 212
0.423971 -0.442429 -0.57 162 185 217
0.425057 -0.442429 -0.57 167 195 234
0.431241 -0.443205 -0.571 153 177 211
0.432329 -0.443205 -0.571 142 166 200
0.433416 -0.443205 -0.571 154 179 209
0.434504 -0.443205 -0.571 174 199 229
0.435591 -0.443205 -0.571 213 216 225
0.436679 -0.443205 -0.571 221 224 233
0.437767 -0.443205 -0.571 218 220 235
0.438854 -0.443205 -0.571 215 217 232
0.439942 -0.443205 -0.571 220 222 235
0.44103 -0.443205 -0.571 214 216 229
0.442117 -0.443205 -0.571 205 207 220
0.443205 -0.443205 -0.571 175 177 190
0.444292 -0.443205 -0.571 159 162 179
0.44616 -0.443981 -0.572 142 145 162
0.44725 -0.443981 -0.572 169 175 191
0.448339 -0.443981 -0.572 210 216 232
0.449429 -0.443981 -0.572 212 218 230
0.450518 -0.443981 -0.572 211 217 229
0.451608 -0.443981 -0.572 201 209 220
0.452697 -0.443981 -0.572 210 218 229
0.453787 -0.443981 -0.572 211 218 234
0.455671 -0.444757 -0.573 206 213 229
0.456763 -0.444757 -0.573 204 212 223
0.457854 -0.444757 -0.573 192 200 211
0.458946 -0.444757 -0.573 167 178 200
0.460037 -0.444757 -0.573 102 113 135
0.461129 -0.444757 -0.573 107 135 174
0.46222 -0.444757 -0.573 161 189 228
0.463311 -0.444757 -0.573 191 199 218
0.464403 -0.444757 -0.573 199 207 226
0.465494 -0.444757 -0.573 204 212 223
0.466586 -0.444757 -0.573 202 210 221
0.467677 -0.444757 -0.573 200 210 220
0.468769 -0.444757 -0.573 190 200 210
0.46986 -0.444757 -0.573 200 206 220
0.470951 -0.444757 -0.573 202 208 222
0.472043 -0.444757 -0.573 176 183 201
0.473134 -0.444757 -0.573 128 135 153
0.474226 -0.444757 -0.573 136 143 161
0.475317 -0.444757 -0.573 136 143 161
0.476409 -0.444757 -0.573 165 172 190
0.4775 -0.444757 -0.573 182 192 202
0.478591 -0.444757 -0.573 196 206 216
0.479683 -0.444757 -0.573 193 201 220
0.480774 -0.444757 -0.573 193 201 220
0.481866 -0.444757 -0.573 195 201 223
0.482957 -0.444757 -0.573 195 201 223
0.484049 -0.444757 -0.573 195 199 211
0.48514 -0.444757 -0.573 191 195 207
0.486231 -0.444757 -0.573 149 173 201
0.487323 -0.444757 -0.573 111 135 163
0.488414 -0.444757 -0.573 112 132 165
0.489506 -0.444757 -0.573 126 146 179
0.490597 -0.444757 -0.573 131 160 200
0.491689 -0.444757 -0.573 138 167 207
0.49278 -0.444757 -0.573 138 168 206
0.493871 -0.444757 -0.573 131 161 199
0.494963 -0.444757 -0.573 127 153 202
0.495189 -0.443981 -0.572 124 150 199
0.496278 -0.443981 -0.572 109 137 177
0.497368 -0.443981 -0.572 94 122 162
0.498457 -0.443981 -0.572 131 150 183
0.50042 -0.444757 -0.573 157 176 209
0.501511 -0.444757 -0.573 185 189 192
0.502603 -0.444757 -0.573 186 190 193
0.503694 -0.444757 -0.573 191 191 191
0.504786 -0.444757 -0.573 148 148 148
0.51099 -0.431562 -0.556 133 110 104
0.462429 -0.386543 -0.498 144 118 117
0.455003 -0.379557 -0.489 148 121 114
0.45034 -0.3749 -0.483 146 119 112
0.446589 -0.371019 -0.478 148 121 112
0.443754 -0.367914 -0.474 148 121 112
0.441843 -0.365586 -0.471 150 125 118
0.44086 -0.364033 -0.469 150 125 118
0.438928 -0.361705 -0.466 152 125 118
0.437928 -0.360152 -0.464 152 125 118
0.43692 -0.3586 -0.462 153 122 119
0.436852 -0.357824 -0.461 150 119 116
0.435831 -0.356271 -0.459 152 118 116
0.434803 -0.354719 -0.457 145 111 109
0.433767 -0.353167 -0.455 140 119 116
0.433678 -0.35239 -0.454 140 119 116
0.432629 -0.350838 -0.452 127 109 105
0.431571 -0.349286 -0.45 102 84 80
0.431468 -0.34851 -0.449 72 56 56
0.43136 -0.347733 -0.448 60 44 44
0.431249 -0.346957 -0.447 56 41 44
0.431133 -0.346181 -0.446 48 33 36
0.430046 -0.344629 -0.444 36 25 31
0.429921 -0.343852 -0.443 38 27 33
0.429792 -0.343076 -0.442 29 24 31
0.42966 -0.3423 -0.441 26 21 28
0.429524 -0.341524 -0.44 25 22 31
0.430362 -0.341524 -0.44 23 20 29
0.42924 -0.339971 -0.438 25 22 33
0.429092 -0.339195 -0.437 24 21 32
0.429925 -0.339195 -0.437 26 20 30
0.429771 -0.338419 -0.436 26 20 30
0.429614 -0.337643 -0.435 23 17 27
0.430443 -0.337643 -0.435 26 20 30
0.43028 -0.336867 -0.434 32 26 36
0.430113 -0.33609 -0.433 29 23 33
0.430938 -0.33609 -0.433 26 20 30
0.430766 -0.335314 -0.432 30 24 34
0.431589 -0.335314 -0.432 29 23 33
0.432411 -0.335314 -0.432 26 20 30
0.432231 -0.334538 -0.431 28 22 32
0.433052 -0.334538 -0.431 26 20 30
0.432867 -0.333762 -0.43 23 17 27
0.432677 -0.332986 -0.429 25 19 29
0.433494 -0.332986 -0.429 28 22 32
0.434311 -0.332986 -0.429 28 22 32
0.434114 -0.33221 -0.428 26 20 30
0.43493 -0.33221 -0.428 26 20 30
0.435745 -0.33221 -0.428 28 22 32
0.43554 -0.331433 -0.427 26 20 30
0.435331 -0.330657 -0.426 26 20 30
0.436143 -0.330657 -0.426 28 22 32
0.435929 -0.329881 -0.425 26 20 30
0.43571 -0.329105 -0.424 26 20 30
0.436518 -0.329105 -0.424 27 21 31
0.436294 -0.328329 -0.423 30 24 34
0.4371 -0.328329 -0.423 26 20 30
0.43687 -0.327552 -0.422 27 21 31
0.437674 -0.327552 -0.422 28 22 32
0.437439 -0.326776 -0.421 27 21 31
0.438241 -0.326776 -0.421 24 18 28
0.439043 -0.326776 -0.421 31 25 35
0.4388 -0.326 -0.42 34 28 38
0.4396 -0.326 -0.42 30 24 34
0.439351 -0.325224 -0.419 26 20 30
0.439099 -0.324448 -0.418 26 20 30
0.439895 -0.324448 -0.418 26 20 30
0.440691 -0.324448 -0.418 24 18 28
0.441488 -0.324448 -0.418 25 19 29
0.441226 -0.323671 -0.417 31 25 35
0.44202 -0.323671 -0.417 29 23 33
0.442814 -0.323671 -0.417 28 22 32
0.442545 -0.322895 -0.416 30 24 34
0.443337 -0.322895 -0.416 31 25 35
0.44413 -0.322895 -0.416 27 21 31
0.444922 -0.322895 -0.416 26 20 30
0.445714 -0.322895 -0.416 27 24 33
0.446507 -0.322895 -0.416 27 24 33
0.447299 -0.322895 -0.416 23 20 29
0.447014 -0.322119 -0.415 22 19 28
0.447805 -0.322119 -0.415 25 22 31
0.448595 -0.322119 -0.415 26 23 32
0.448303 -0.321343 -0.414 21 18 27
0.449091 -0.321343 -0.414 21 18 27
0.450967 -0.322119 -0.415 21 18 27
0.451757 -0.322119 -0.415 26 23 32
0.451457 -0.321343 -0.414 26 23 32
0.452246 -0.321343 -0.414 27 24 33
0.453034 -0.321343 -0.414 27 24 33
0.453823 -0.321343 -0.414 24 21 30
0.454611 -0.321343 -0.414 21 18 27
0.4554 -0.321343 -0.414 23 20 29
0.456189 -0.321343 -0.414 25 22 31
0.456977 -0.321343 -0.414 26 23 32
0.457766 -0.321343 -0.414 24 21 30
0.458554 -0.321343 -0.414 31 28 37
0.459343 -0.321343 -0.414 28 25 34
0.460131 -0.321343 -0.414 20 17 26
0.46092 -0.321343 -0.414 25 22 31
0.461709 -0.321343 -0.414 28 25 34
0.462497 -0.321343 -0.414 24 21 30
0.463286 -0.321343 -0.414 29 26 35
0.464074 -0.321343 -0.414 30 27 36
0.464863 -0.321343 -0.414 27 24 33
0.465651 -0.321343 -0.414 27 24 33
0.467567 -0.322119 -0.415 26 23 32
0.468357 -0.322119 -0.415 27 24 33
0.469148 -0.322119 -0.415 29 26 35
0.47107 -0.322895 -0.416 27 24 33
0.471863 -0.322895 -0.416 25 22 31
0.472655 -0.322895 -0.416 28 25 34
0.474586 -0.323671 -0.417 28 26 31
0.47538 -0.323671 -0.417 26 23 30
0.477316 -0.324448 -0.418 27 24 33
0.478112 -0.324448 -0.418 28 25 34
0.480054 -0.325224 -0.419 30 27 38
0.482 -0.326 -0.42 30 27 38
0.48395 -0.326776 -0.421 29 28 36
0.0283381 -0.42095 -0.541 195 149 123
0.02926 -0.419393 -0.539 195 149 123
0.0300619 -0.416281 -0.535 194 148 122
0.0308486 -0.413169 -0.531 194 148 122
0.03168 -0.410834 -0.528 193 147 121
0.0325 -0.4085 -0.525 195 148 122
0.0333086 -0.406166 -0.522 195 148 122
0.0342371 -0.405388 -0.521 194 147 119
0.0350943 -0.403831 -0.519 194 147 119
0.0360133 -0.403053 -0.518 198 148 121
0.0369286 -0.402275 -0.517 201 151 124
0.03784 -0.401497 -0.516 201 151 124
0.0388229 -0.401497 -0.516 199 149 122
0.0397286 -0.400719 -0.515 203 153 126
0.0407095 -0.400719 -0.515 206 156 129
0.0416095 -0.399941 -0.514 205 158 130
0.0425886 -0.399941 -0.514 207 162 133
0.0435676 -0.399941 -0.514 205 160 131
0.0445467 -0.399941 -0.514 204 159 130
0.0455257 -0.399941 -0.514 203 158 129
0.0465048 -0.399941 -0.514 203 158 129
0.0474838 -0.399941 -0.514 203 158 129
0.0484629 -0.399941 -0.514 203 158 129
0.0494419 -0.399941 -0.514 203 158 129
0.050421 -0.399941 -0.514 204 159 130
0.0514 -0.399941 -0.514 202 158 129
0.052379 -0.399941 -0.514 200 156 127
0.0533581 -0.399941 -0.514 198 154 125
0.0543371 -0.399941 -0.514 197 153 124
0.0553162 -0.399941 -0.514 196 152 123
0.0562952 -0.399941 -0.514 195 151 122
0.0572743 -0.399941 -0.514 197 151 125
0.0582533 -0.399941 -0.514 194 148 122
0.0591171 -0.399163 -0.513 193 147 121
0.0600943 -0.399163 -0.513 194 148 122
0.0610714 -0.399163 -0.513 195 149 123
0.0620486 -0.399163 -0.513 193 147 121
0.0630257 -0.399163 -0.513 191 145 119
0.0640029 -0.399163 -0.513 192 146 120
0.0651067 -0.399941 -0.514 190 144 118
0.0660857 -0.399941 -0.514 193 147 121
0.0670648 -0.399941 -0.514 190 144 118
0.0680438 -0.399941 -0.514 186 140 114
0.0690229 -0.399941 -0.514 190 144 118
0.0700019 -0.399941 -0.514 195 149 123
0.070981 -0.399941 -0.514 195 149 123
0.0721 -0.400719 -0.515 192 146 120
0.073081 -0.400719 -0.515 193 146 118
0.0740619 -0.400719 -0.515 194 147 119
0.0751886 -0.401497 -0.516 193 146 120
0.0763191 -0.402275 -0.517 193 146 120
0.0773038 -0.402275 -0.517 191 144 118
0.0782886 -0.402275 -0.517 190 143 117
0.0794267 -0.403053 -0.518 191 144 118
0.0804133 -0.403053 -0.518 188 141 115
0.0815571 -0.403831 -0.519 188 140 117
0.0825457 -0.403831 -0.519 188 140 117
0.0836952 -0.40461 -0.52 186 138 115
0.0848486 -0.405388 -0.521 182 134 111
0.085841 -0.405388 -0.521 183 135 113
0.087 -0.406166 -0.522 186 138 116
0.0881629 -0.406944 -0.523 180 132 110
0.0893295 -0.407722 -0.524 170 122 100
0.0905 -0.4085 -0.525 173 126 108
0.0916743 -0.409278 -0.526 173 126 108
0.0926762 -0.409278 -0.526 173 126 108
0.0938562 -0.410056 -0.527 173 126 108
0.09504 -0.410834 -0.528 171 124 106
0.0962276 -0.411612 -0.529 165 120 101
0.097419 -0.41239 -0.53 162 117 98
0.0988 -0.413947 -0.532 157 114 98
0.100001 -0.414725 -0.533 154 111 95
0.101395 -0.416281 -0.535 149 111 100
0.102606 -0.417059 -0.536 146 108 97
0.104013 -0.418615 -0.538 142 110 99
0.105233 -0.419393 -0.539 139 107 96
0.106654 -0.42095 -0.541 129 104 97
0.108083 -0.422506 -0.543 125 100 93
0.121499 -0.43729 -0.562 40 34 38
0.122788 -0.438068 -0.563 62 56 60
0.12386 -0.438068 -0.563 85 82 89
0.125154 -0.438846 -0.564 102 99 106
0.126229 -0.438846 -0.564 117 112 118
0.127303 -0.438846 -0.564 123 118 124
0.128605 -0.439624 -0.565 135 130 134
0.129681 -0.439624 -0.565 148 143 147
0.130757 -0.439624 -0.565 155 153 158
0.1316 -0.438846 -0.564 162 160 165
0.132674 -0.438846 -0.564 152 157 163
0.133749 -0.438846 -0.564 156 161 167
0.134823 -0.438846 -0.564 145 149 160
0.135897 -0.438846 -0.564 98 102 113
0.136971 -0.438846 -0.564 122 122 134
0.138046 -0.438846 -0.564 127 127 139
0.13912 -0.438846 -0.564 130 129 137
0.140194 -0.438846 -0.564 169 168 176
0.141269 -0.438846 -0.564 194 193 199
0.142343 -0.438846 -0.564 201 200 206
0.143417 -0.438846 -0.564 193 196 203
0.144491 -0.438846 -0.564 195 198 205
0.145308 -0.438068 -0.563 199 203 215
0.14638 -0.438068 -0.563 203 207 219
0.147452 -0.438068 -0.563 204 209 228
0.148525 -0.438068 -0.563 194 199 218
0.149863 -0.438846 -0.564 141 147 179
0.15067 -0.438068 -0.563 91 97 129
0.151742 -0.438068 -0.563 105 120 151
0.152814 -0.438068 -0.563 163 178 209
0.153887 -0.438068 -0.563 193 208 231
0.154959 -0.438068 -0.563 201 216 239
0.156031 -0.438068 -0.563 214 221 237
0.157104 -0.438068 -0.563 216 223 239
0.158176 -0.438068 -0.563 218 221 236
0.159249 -0.438068 -0.563 224 227 242
0.160321 -0.438068 -0.563 207 214 230
0.161393 -0.438068 -0.563 186 193 209
0.162466 -0.438068 -0.563 164 176 198
0.163538 -0.438068 -0.563 156 168 190
0.16461 -0.438068 -0.563 157 174 202
0.203577 -0.438846 -0.564 229 233 245
0.204651 -0.438846 -0.564 229 236 255
0.423971 -0.443514 -0.57 160 180 207
0.425057 -0.443514 -0.57 167 187 222
0.426143 -0.443514 -0.57 170 190 225
0.427229 -0.443514 -0.57 166 189 223
0.428314 -0.443514 -0.57 161 184 218
0.4294 -0.443514 -0.57 161 184 218
0.430486 -0.443514 -0.57 159 183 211
0.431571 -0.443514 -0.57 160 184 212
0.432657 -0.443514 -0.57 167 186 216
0.433743 -0.443514 -0.57 181 200 230
0.434829 -0.443514 -0.57 205 221 236
0.435914 -0.443514 -0.57 212 228 243
0.437 -0.443514 -0.57 215 224 239
0.438086 -0.443514 -0.57 213 222 237
0.439171 -0.443514 -0.57 221 223 238
0.440257 -0.443514 -0.57 213 215 230
0.441343 -0.443514 -0.57 199 206 222
0.442429 -0.443514 -0.57 164 171 187
0.443514 -0.443514 -0.57 122 134 158
0.44538 -0.444292 -0.571 107 119 143
0.446468 -0.444292 -0.571 172 179 187
0.447555 -0.444292 -0.571 209 216 224
0.448643 -0.444292 -0.571 212 217 236
0.44973 -0.444292 -0.571 210 215 234
0.450818 -0.444292 -0.571 206 213 229
0.451906 -0.444292 -0.571 207 214 230
0.453787 -0.44507 -0.572 215 215 225
0.454876 -0.44507 -0.572 213 213 223
0.455966 -0.44507 -0.572 210 212 224
0.457055 -0.44507 -0.572 202 204 216
0.458946 -0.445849 -0.573 182 197 220
0.460037 -0.445849 -0.573 129 144 167
0.461129 -0.445849 -0.573 121 141 168
0.46222 -0.445849 -0.573 177 197 224
0.463311 -0.445849 -0.573 196 203 222
0.464403 -0.445849 -0.573 199 206 225
0.465494 -0.445849 -0.573 208 208 220
0.466586 -0.445849 -0.573 207 207 219
0.467677 -0.445849 -0.573 205 208 223
0.468769 -0.445849 -0.573 201 204 219
0.46986 -0.445849 -0.573 193 203 215
0.470951 -0.445849 -0.573 182 192 204
0.472043 -0.445849 -0.573 161 170 177
0.473134 -0.445849 -0.573 150 159 166
0.474226 -0.445849 -0.573 94 100 114
0.475317 -0.445849 -0.573 94 100 114
0.476409 -0.445849 -0.573 116 122 136
0.4775 -0.445849 -0.573 154 165 187
0.477756 -0.44507 -0.572 181 192 214
0.478846 -0.44507 -0.572 192 201 218
0.479935 -0.44507 -0.572 196 205 222
0.481025 -0.44507 -0.572 198 202 214
0.482114 -0.44507 -0.572 199 203 215
0.484049 -0.445849 -0.573 199 204 223
0.484293 -0.44507 -0.572 192 197 216
0.485383 -0.44507 -0.572 162 180 200
0.486472 -0.44507 -0.572 141 159 179
0.487562 -0.44507 -0.572 116 146 172
0.488651 -0.44507 -0.572 121 151 177
0.489741 -0.44507 -0.572 124 154 192
0.49083 -0.44507 -0.572 121 151 189
0.49192 -0.44507 -0.572 132 156 194
0.49301 -0.44507 -0.572 132 156 194
0.494099 -0.44507 -0.572 120 153 194
0.495189 -0.44507 -0.572 113 146 187
0.496278 -0.44507 -0.572 117 143 176
0.498457 -0.44507 -0.572 131 156 186
0.499547 -0.44507 -0.572 153 178 208
0.500636 -0.44507 -0.572 185 192 200
0.501726 -0.44507 -0.572 188 195 203
0.502815 -0.44507 -0.572 188 197 204
0.503905 -0.44507 -0.572 180 189 196
0.504994 -0.44507 -0.572 155 156 161
0.506084 -0.44507 -0.572 151 152 157
0.507173 -0.44507 -0.572 155 158 173
0.508263 -0.44507 -0.572 134 137 152
0.509352 -0.44507 -0.572 98 107 122
0.466143 -0.390604 -0.502 139 115 111
0.456864 -0.382045 -0.491 142 117 112
0.451272 -0.376598 -0.484 143 118 113
0.446589 -0.37193 -0.478 145 120 113
0.443754 -0.368817 -0.474 144 119 112
0.440905 -0.365705 -0.47 150 125 118
0.43992 -0.364149 -0.468 145 120 113
0.437986 -0.361814 -0.465 141 116 111
0.436984 -0.360258 -0.463 143 118 113
0.435974 -0.358702 -0.461 146 118 115
0.435905 -0.357924 -0.46 144 116 113
0.434882 -0.356368 -0.458 146 118 115
0.433851 -0.354811 -0.456 144 116 113
0.432813 -0.353255 -0.454 127 109 109
0.432723 -0.352477 -0.453 112 94 94
0.431671 -0.350921 -0.451 89 73 73
0.431571 -0.350143 -0.45 71 55 55
0.430507 -0.348587 -0.448 53 41 41
0.430397 -0.347809 -0.447 47 35 35
0.430284 -0.34703 -0.446 43 31 35
0.430167 -0.346252 -0.445 34 22 26
0.430046 -0.345474 -0.444 31 21 29
0.429921 -0.344696 -0.443 31 21 29
0.42882 -0.34314 -0.441 26 21 28
0.42966 -0.34314 -0.441 24 19 26
0.429524 -0.342362 -0.44 23 20 29
0.429384 -0.341584 -0.439 23 20 29
0.42924 -0.340806 -0.438 23 20 31
0.429092 -0.340028 -0.437 22 19 30
0.429925 -0.340028 -0.437 26 20 30
0.429771 -0.33925 -0.436 28 22 32
0.429614 -0.338471 -0.435 26 20 30
0.430443 -0.338471 -0.435 26 20 30
0.43028 -0.337693 -0.434 30 24 34
0.430113 -0.336915 -0.433 30 24 34
0.430938 -0.336915 -0.433 27 21 31
0.430766 -0.336137 -0.432 28 22 32
0.43059 -0.335359 -0.431 28 22 32
0.43141 -0.335359 -0.431 25 19 29
0.432231 -0.335359 -0.431 25 19 29
0.432048 -0.334581 -0.43 26 20 30
0.432867 -0.334581 -0.43 26 20 30
0.432677 -0.333803 -0.429 25 19 29
0.432484 -0.333025 -0.428 24 18 28
0.433299 -0.333025 -0.428 27 21 31
0.434114 -0.333025 -0.428 26 20 30
0.43493 -0.333025 -0.428 24 18 28
0.434727 -0.332247 -0.427 26 20 30
0.43554 -0.332247 -0.427 26 20 30
0.435331 -0.331469 -0.426 25 19 29
0.436143 -0.331469 -0.426 27 21 31
0.435929 -0.33069 -0.425 28 22 32
0.43571 -0.329912 -0.424 26 20 30
0.436518 -0.329912 -0.424 27 21 31
0.436294 -0.329134 -0.423 29 23 33
0.436067 -0.328356 -0.422 27 21 31
0.43687 -0.328356 -0.422 30 24 34
0.436637 -0.327578 -0.421 29 23 33
0.437439 -0.327578 -0.421 29 23 33
0.438241 -0.327578 -0.421 25 19 29
0.438 -0.3268 -0.42 27 21 31
0.4388 -0.3268 -0.42 32 26 36
0.4396 -0.3268 -0.42 31 25 35
0.439351 -0.326022 -0.419 26 20 30
0.439099 -0.325244 -0.418 25 19 29
0.439895 -0.325244 -0.418 29 23 33
0.440691 -0.325244 -0.418 25 19 29
0.440431 -0.324466 -0.417 23 17 27
0.441226 -0.324466 -0.417 30 24 34
0.44202 -0.324466 -0.417 32 26 36
0.442814 -0.324466 -0.417 29 23 33
0.442545 -0.323688 -0.416 29 23 33
0.443337 -0.323688 -0.416 32 26 36
0.44413 -0.323688 -0.416 26 23 32
0.444922 -0.323688 -0.416 24 21 30
0.445714 -0.323688 -0.416 27 24 33
0.446507 -0.323688 -0.416 26 23 32
0.446224 -0.32291 -0.415 24 21 30
0.447014 -0.32291 -0.415 22 19 28
0.447805 -0.32291 -0.415 25 22 31
0.448595 -0.32291 -0.415 27 24 33
0.448303 -0.322131 -0.414 20 17 26
0.449091 -0.322131 -0.414 18 15 24
0.44988 -0.322131 -0.414 25 22 31
0.450669 -0.322131 -0.414 26 23 32
0.451457 -0.322131 -0.414 26 23 32
0.452246 -0.322131 -0.414 26 23 32
0.453034 -0.322131 -0.414 27 24 33
0.452727 -0.321353 -0.413 26 23 32
0.453513 -0.321353 -0.413 22 19 28
0.4543 -0.321353 -0.413 24 21 30
0.455087 -0.321353 -0.413 27 24 33
0.456977 -0.322131 -0.414 26 23 32
0.457766 -0.322131 -0.414 24 21 30
0.458554 -0.322131 -0.414 31 28 37
0.459343 -0.322131 -0.414 30 27 36
0.460131 -0.322131 -0.414 23 20 29
0.46092 -0.322131 -0.414 23 20 29
0.461709 -0.322131 -0.414 28 25 34
0.462497 -0.322131 -0.414 25 22 31
0.463286 -0.322131 -0.414 26 23 32
0.464074 -0.322131 -0.414 31 28 37
0.464863 -0.322131 -0.414 26 23 32
0.465651 -0.322131 -0.414 27 24 33
0.46644 -0.322131 -0.414 28 25 34
0.468357 -0.32291 -0.415 25 22 31
0.469148 -0.32291 -0.415 27 24 33
0.469938 -0.32291 -0.415 28 25 34
0.471863 -0.323688 -0.416 25 22 31
0.472655 -0.323688 -0.416 26 23 32
0.473448 -0.323688 -0.416 27 24 31
0.47424 -0.323688 -0.416 25 22 29
0.476174 -0.324466 -0.417 27 24 33
0.478112 -0.325244 -0.418 28 25 34
0.478909 -0.325244 -0.418 28 25 34
0.480852 -0.326022 -0.419 28 25 34
0.4828 -0.3268 -0.42 27 26 34
0.484751 -0.327578 -0.421 31 30 38
0.0273076 -0.42198 -0.541 195 149 125
0.028181 -0.41964 -0.538 194 148 124
0.0290429 -0.4173 -0.535 194 148 122
0.0298933 -0.41496 -0.532 195 149 123
0.0306743 -0.41184 -0.528 196 149 123
0.0315 -0.4095 -0.525 196 149 123
0.0323143 -0.40716 -0.522 196 149 123
0.033181 -0.4056 -0.52 195 148 122
0.0341057 -0.40482 -0.519 195 148 120
0.0350267 -0.40404 -0.518 196 149 121
0.0359438 -0.40326 -0.517 197 147 120
0.0368571 -0.40248 -0.516 198 148 121
0.0377667 -0.4017 -0.515 201 151 124
0.0387476 -0.4017 -0.515 203 153 126
0.0396514 -0.40092 -0.514 205 155 128
0.0406305 -0.40092 -0.514 205 155 128
0.0416095 -0.40092 -0.514 203 156 126
0.0425886 -0.40092 -0.514 204 157 129
0.0435676 -0.40092 -0.514 204 157 129
0.0445467 -0.40092 -0.514 204 157 129
0.0454371 -0.40014 -0.513 203 158 129
0.0464143 -0.40014 -0.513 202 157 128
0.0473914 -0.40014 -0.513 203 156 128
0.0483686 -0.40014 -0.513 203 156 128
0.0493457 -0.40014 -0.513 202 157 128
0.0503229 -0.40014 -0.513 203 158 129
0.0513 -0.40014 -0.513 202 157 128
0.0522771 -0.40014 -0.513 200 155 126
0.0532543 -0.40014 -0.513 199 154 125
0.0542314 -0.40014 -0.513 197 152 123
0.0552086 -0.40014 -0.513 196 151 122
0.0561857 -0.40014 -0.513 195 150 121
0.0571629 -0.40014 -0.513 196 150 124
0.05814 -0.40014 -0.513 194 148 122
0.0591171 -0.40014 -0.513 193 147 121
0.0600943 -0.40014 -0.513 194 148 122
0.0610714 -0.40014 -0.513 195 149 123
0.0620486 -0.40014 -0.513 193 147 121
0.0630257 -0.40014 -0.513 192 146 120
0.0640029 -0.40014 -0.513 194 148 122
0.06498 -0.40014 -0.513 191 145 119
0.0659571 -0.40014 -0.513 192 146 120
0.0670648 -0.40092 -0.514 190 144 118
0.0680438 -0.40092 -0.514 187 141 115
0.0690229 -0.40092 -0.514 190 144 118
0.0700019 -0.40092 -0.514 195 149 123
0.070981 -0.40092 -0.514 195 149 123
0.07196 -0.40092 -0.514 191 145 119
0.073081 -0.4017 -0.515 192 145 117
0.0740619 -0.4017 -0.515 193 146 118
0.0751886 -0.40248 -0.516 192 145 119
0.0761714 -0.40248 -0.516 192 145 119
0.0773038 -0.40326 -0.517 191 144 118
0.0782886 -0.40326 -0.517 190 143 117
0.0792733 -0.40326 -0.517 189 142 116
0.0804133 -0.40404 -0.518 185 138 112
0.0815571 -0.40482 -0.519 184 137 111
0.0825457 -0.40482 -0.519 186 139 113
0.0836952 -0.4056 -0.52 185 137 114
0.0848486 -0.40638 -0.521 182 134 111
0.085841 -0.40638 -0.521 182 134 111
0.087 -0.40716 -0.522 184 136 113
0.0881629 -0.40794 -0.523 180 132 109
0.0893295 -0.40872 -0.524 174 126 103
0.0903276 -0.40872 -0.524 174 126 103
0.0915 -0.4095 -0.525 174 129 110
0.0926762 -0.41028 -0.526 173 128 109
0.0938562 -0.41106 -0.527 171 126 107
0.09504 -0.41184 -0.528 168 123 104
0.0962276 -0.41262 -0.529 166 120 104
0.097419 -0.4134 -0.53 164 118 102
0.0988 -0.41496 -0.532 157 115 99
0.100001 -0.41574 -0.533 153 111 95
0.101395 -0.4173 -0.535 146 110 98
0.102797 -0.41886 -0.537 144 108 96
0.104013 -0.41964 -0.538 139 109 99
0.105429 -0.4212 -0.54 136 106 96
0.106851 -0.42276 -0.542 127 102 97
0.108282 -0.42432 -0.544 124 99 94
0.121499 -0.43836 -0.562 49 43 47
0.122788 -0.43914 -0.563 81 75 79
0.12386 -0.43914 -0.563 98 93 99
0.125154 -0.43992 -0.564 110 105 111
0.126229 -0.43992 -0.564 121 116 120
0.127303 -0.43992 -0.564 130 125 129
0.128377 -0.43992 -0.564 141 136 140
0.129451 -0.43992 -0.564 152 147 151
0.130526 -0.43992 -0.564 160 155 159
0.1316 -0.43992 -0.564 167 162 166
0.132674 -0.43992 -0.564 162 166 169
0.133511 -0.43914 -0.563 164 168 171
0.134823 -0.43992 -0.564 156 156 164
0.135897 -0.43992 -0.564 112 112 120
0.136971 -0.43992 -0.564 156 155 163
0.138046 -0.43992 -0.564 159 158 166
0.13912 -0.43992 -0.564 134 131 138
0.140194 -0.43992 -0.564 138 135 142
0.141269 -0.43992 -0.564 183 181 184
0.14209 -0.43914 -0.563 203 201 204
0.143163 -0.43914 -0.563 199 200 204
0.144235 -0.43914 -0.563 203 204 208
0.145308 -0.43914 -0.563 202 206 215
0.14638 -0.43914 -0.563 202 206 215
0.147452 -0.43914 -0.563 209 212 227
0.148525 -0.43914 -0.563 199 202 217
0.149597 -0.43914 -0.563 160 171 199
0.15067 -0.43914 -0.563 109 120 148
0.151742 -0.43914 -0.563 87 109 146
0.152814 -0.43914 -0.563 130 152 189
0.153887 -0.43914 -0.563 170 185 216
0.154959 -0.43914 -0.563 191 206 237
0.156031 -0.43914 -0.563 218 221 236
0.157104 -0.43914 -0.563 218 221 236
0.189275 -0.43914 -0.563 229 236 255
0.190348 -0.43914 -0.563 230 237 255
0.19142 -0.43914 -0.563 239 242 255
0.192492 -0.43914 -0.563 233 236 251
0.193565 -0.43914 -0.563 237 240 255
0.194637 -0.43914 -0.563 236 239 254
0.19571 -0.43914 -0.563 235 239 251
0.419976 -0.44382 -0.569 183 198 227
0.42106 -0.44382 -0.569 176 191 220
0.422144 -0.44382 -0.569 155 176 203
0.423228 -0.44382 -0.569 149 170 197
0.424311 -0.44382 -0.569 154 176 213
0.425395 -0.44382 -0.569 167 189 226
0.426479 -0.44382 -0.569 161 183 220
0.427563 -0.44382 -0.569 151 173 210
0.441343 -0.4446 -0.57 186 194 213
0.442429 -0.4446 -0.57 133 141 160
0.443514 -0.4446 -0.57 102 110 133
0.4446 -0.4446 -0.57 127 135 158
0.445686 -0.4446 -0.57 157 158 162
0.447555 -0.44538 -0.571 198 199 203
0.448643 -0.44538 -0.571 214 214 226
0.44973 -0.44538 -0.571 214 214 226
0.450818 -0.44538 -0.571 211 218 228
0.451906 -0.44538 -0.571 211 218 228
0.452993 -0.44538 -0.571 211 215 224
0.454081 -0.44538 -0.571 211 215 224
0.455966 -0.44616 -0.572 212 215 222
0.457055 -0.44616 -0.572 213 216 223
0.458145 -0.44616 -0.572 199 211 227
0.459234 -0.44616 -0.572 152 164 180
0.460324 -0.44616 -0.572 136 149 168
0.461413 -0.44616 -0.572 184 197 216
0.462503 -0.44616 -0.572 201 207 223
0.463592 -0.44616 -0.572 204 210 226
0.464682 -0.44616 -0.572 210 210 220
0.465771 -0.44616 -0.572 206 206 216
0.466861 -0.44616 -0.572 205 209 218
0.46795 -0.44616 -0.572 204 208 217
0.46904 -0.44616 -0.572 191 198 206
0.47013 -0.44616 -0.572 153 160 168
0.471219 -0.44616 -0.572 155 160 164
0.472309 -0.44616 -0.572 174 179 183
0.473398 -0.44616 -0.572 123 135 151
0.474488 -0.44616 -0.572 79 91 107
0.475577 -0.44616 -0.572 79 91 107
0.476667 -0.44616 -0.572 104 116 142
0.477756 -0.44616 -0.572 159 171 197
0.478846 -0.44616 -0.572 177 188 210
0.479935 -0.44616 -0.572 184 195 217
0.481025 -0.44616 -0.572 197 203 219
0.482114 -0.44616 -0.572 196 202 218
0.483204 -0.44616 -0.572 194 202 221
0.484293 -0.44616 -0.572 189 197 216
0.485383 -0.44616 -0.572 162 183 204
0.486472 -0.44616 -0.572 145 166 187
0.487562 -0.44616 -0.572 126 156 182
0.488651 -0.44616 -0.572 121 151 177
0.489741 -0.44616 -0.572 117 147 185
0.49083 -0.44616 -0.572 115 145 183
0.49192 -0.44616 -0.572 102 130 170
0.49301 -0.44616 -0.572 107 135 175
0.494099 -0.44616 -0.572 110 143 186
0.495189 -0.44616 -0.572 113 146 189
0.49541 -0.44538 -0.571 119 145 180
0.496498 -0.44538 -0.571 122 148 183
0.497586 -0.44538 -0.571 135 158 189
0.498673 -0.44538 -0.571 150 173 204
0.500636 -0.44616 -0.572 186 194 205
0.501726 -0.44616 -0.572 186 194 205
0.502815 -0.44616 -0.572 185 195 204
0.503905 -0.44616 -0.572 181 191 200
0.504994 -0.44616 -0.572 180 183 190
0.510208 -0.43212 -0.554 137 116 113
0.500189 -0.42276 -0.542 138 117 114
0.467071 -0.39234 -0.503 135 114 109
0.456864 -0.38298 -0.491 136 116 109
0.45034 -0.37674 -0.483 139 119 112
0.445654 -0.37206 -0.477 139 119 110
0.442818 -0.36894 -0.473 137 117 108
0.439967 -0.36582 -0.469 141 118 110
0.43804 -0.36348 -0.466 145 122 114
0.437044 -0.36192 -0.464 143 120 114
0.43604 -0.36036 -0.462 141 118 112
0.435029 -0.3588 -0.46 138 117 114
0.434957 -0.35802 -0.459 137 116 113
0.433932 -0.35646 -0.457 130 110 109
0.4329 -0.3549 -0.455 118 98 97
0.43186 -0.35334 -0.453 84 72 76
0.431768 -0.35256 -0.452 65 53 57
0.430714 -0.351 -0.45 46 35 39
0.430612 -0.35022 -0.449 43 32 36
0.430507 -0.34944 -0.448 42 31 37
0.429434 -0.34788 -0.446 40 29 35
0.429319 -0.3471 -0.445 36 26 34
0.4292 -0.34632 -0.444 29 19 27
0.429077 -0.34554 -0.443 28 21 29
0.42895 -0.34476 -0.442 26 19 27
0.42882 -0.34398 -0.441 23 20 29
0.428686 -0.3432 -0.44 22 19 28
0.429524 -0.3432 -0.44 21 18 27
0.429384 -0.34242 -0.439 23 20 29
0.42924 -0.34164 -0.438 23 20 31
0.429092 -0.34086 -0.437 25 22 33
0.429925 -0.34086 -0.437 26 20 30
0.429771 -0.34008 -0.436 29 23 33
0.429614 -0.3393 -0.435 29 23 33
0.430443 -0.3393 -0.435 26 20 30
0.43028 -0.33852 -0.434 27 21 31
0.430113 -0.33774 -0.433 30 24 34
0.430938 -0.33774 -0.433 29 23 33
0.430766 -0.33696 -0.432 25 19 29
0.43059 -0.33618 -0.431 28 22 32
0.43141 -0.33618 -0.431 26 20 30
0.432231 -0.33618 -0.431 23 17 27
0.432048 -0.3354 -0.43 24 18 28
0.432867 -0.3354 -0.43 27 21 31
0.432677 -0.33462 -0.429 24 18 28
0.432484 -0.33384 -0.428 21 15 25
0.433299 -0.33384 -0.428 27 21 31
0.434114 -0.33384 -0.428 27 21 31
0.433913 -0.33306 -0.427 24 18 28
0.434727 -0.33306 -0.427 26 20 30
0.43554 -0.33306 -0.427 29 23 33
0.435331 -0.33228 -0.426 26 20 30
0.436143 -0.33228 -0.426 25 19 29
0.435929 -0.3315 -0.425 28 22 32
0.43571 -0.33072 -0.424 27 21 31
0.436518 -0.33072 -0.424 27 21 31
0.436294 -0.32994 -0.423 26 20 30
0.436067 -0.32916 -0.422 26 20 30
0.43687 -0.32916 -0.422 31 25 35
0.436637 -0.32838 -0.421 29 23 33
0.4364 -0.3276 -0.42 30 24 34
0.4372 -0.3276 -0.42 27 21 31
0.438 -0.3276 -0.42 24 18 28
0.4388 -0.3276 -0.42 26 20 30
0.438553 -0.32682 -0.419 29 23 33
0.439351 -0.32682 -0.419 26 20 30
0.439099 -0.32604 -0.418 24 18 28
0.439895 -0.32604 -0.418 28 22 32
0.439637 -0.32526 -0.417 26 20 30
0.440431 -0.32526 -0.417 22 16 26
0.441226 -0.32526 -0.417 27 21 31
0.44202 -0.32526 -0.417 34 28 38
0.442814 -0.32526 -0.417 31 25 35
0.442545 -0.32448 -0.416 25 22 31
0.443337 -0.32448 -0.416 28 25 34
0.44413 -0.32448 -0.416 27 24 33
0.443852 -0.3237 -0.415 23 20 29
0.444643 -0.3237 -0.415 25 22 31
0.445433 -0.3237 -0.415 24 21 30
0.446224 -0.3237 -0.415 25 22 31
0.447014 -0.3237 -0.415 24 21 30
0.447805 -0.3237 -0.415 24 21 30
0.447514 -0.32292 -0.414 27 24 33
0.448303 -0.32292 -0.414 22 19 28
0.449091 -0.32292 -0.414 18 15 24
0.44988 -0.32292 -0.414 24 21 30
0.450669 -0.32292 -0.414 25 22 31
0.451457 -0.32292 -0.414 25 22 31
0.452246 -0.32292 -0.414 25 22 31
0.45194 -0.32214 -0.413 27 24 33
0.452727 -0.32214 -0.413 27 24 33
0.453513 -0.32214 -0.413 23 20 29
0.4543 -0.32214 -0.413 22 19 28
0.455087 -0.32214 -0.413 27 24 33
0.455873 -0.32214 -0.413 26 23 32
0.45666 -0.32214 -0.413 23 20 29
0.457447 -0.32214 -0.413 25 22 31
0.458233 -0.32214 -0.413 28 25 34
0.45902 -0.32214 -0.413 26 23 32
0.459807 -0.32214 -0.413 24 21 30
0.460593 -0.32214 -0.413 29 26 35
0.46138 -0.32214 -0.413 26 23 32
0.462167 -0.32214 -0.413 22 19 28
0.462953 -0.32214 -0.413 30 27 36
0.464863 -0.32292 -0.414 25 22 31
0.465651 -0.32292 -0.414 25 22 31
0.46644 -0.32292 -0.414 26 25 33
0.467229 -0.32292 -0.414 24 23 31
0.469148 -0.3237 -0.415 24 23 31
0.469938 -0.3237 -0.415 25 24 32
0.470729 -0.3237 -0.415 21 20 28
0.472655 -0.32448 -0.416 24 23 31
0.473448 -0.32448 -0.416 28 25 32
0.47424 -0.32448 -0.416 26 23 30
0.475032 -0.32448 -0.416 27 24 33
0.476969 -0.32526 -0.417 28 25 34
0.478909 -0.32604 -0.418 27 26 34
0.479705 -0.32604 -0.418 27 26 34
0.48165 -0.32682 -0.419 27 26 34
0.4836 -0.3276 -0.42 32 31 39
0.48786 -0.32994 -0.423 28 27 33
0.492131 -0.33228 -0.426 33 32 38
0.496414 -0.33462 -0.429 31 31 33
0.501868 -0.33774 -0.433 39 39 41
0.506175 -0.34008 -0.436 39 39 37
0.0263257 -0.423792 -0.542 194 146 123
0.0272067 -0.421447 -0.539 196 150 126
0.0280762 -0.419101 -0.536 193 147 123
0.02888 -0.415973 -0.532 194 147 121
0.0297248 -0.413628 -0.529 196 149 123
0.0305581 -0.411282 -0.526 197 150 124
0.03138 -0.408936 -0.523 196 149 123
0.0321905 -0.40659 -0.52 195 148 122
0.0331171 -0.405809 -0.519 195 148 122
0.03404 -0.405027 -0.518 197 147 120
0.0348914 -0.403463 -0.516 200 150 123
0.0358743 -0.403463 -0.516 199 150 120
0.0367857 -0.402681 -0.515 199 150 120
0.0377667 -0.402681 -0.515 202 153 123
0.0386724 -0.401899 -0.514 205 156 126
0.0396514 -0.401899 -0.514 207 158 128
0.0405514 -0.401117 -0.513 205 156 126
0.0415286 -0.401117 -0.513 203 158 127
0.0425886 -0.401899 -0.514 202 155 125
0.0434829 -0.401117 -0.513 202 155 125
0.04446 -0.401117 -0.513 203 156 126
0.0454371 -0.401117 -0.513 203 156 126
0.0464143 -0.401117 -0.513 202 155 125
0.0473914 -0.401117 -0.513 201 156 125
0.0483686 -0.401117 -0.513 201 156 125
0.0493457 -0.401117 -0.513 200 155 124
0.0503229 -0.401117 -0.513 201 156 125
0.0513 -0.401117 -0.513 202 157 126
0.0522771 -0.401117 -0.513 202 157 126
0.0532543 -0.401117 -0.513 201 156 125
0.0542314 -0.401117 -0.513 199 154 123
0.0552086 -0.401117 -0.513 196 151 120
0.0561857 -0.401117 -0.513 193 148 117
0.0571629 -0.401117 -0.513 194 148 122
0.05814 -0.401117 -0.513 193 147 121
0.0591171 -0.401117 -0.513 193 147 121
0.0600943 -0.401117 -0.513 193 147 121
0.0610714 -0.401117 -0.513 190 144 118
0.0620486 -0.401117 -0.513 187 141 115
0.0630257 -0.401117 -0.513 189 143 117
0.0640029 -0.401117 -0.513 193 147 121
0.06498 -0.401117 -0.513 193 147 121
0.0659571 -0.401117 -0.513 193 147 121
0.0669343 -0.401117 -0.513 194 148 122
0.0680438 -0.401899 -0.514 193 147 121
0.0690229 -0.401899 -0.514 193 147 121
0.0700019 -0.401899 -0.514 193 147 121
0.070981 -0.401899 -0.514 194 148 122
0.07196 -0.401899 -0.514 192 146 120
0.073081 -0.402681 -0.515 192 145 119
0.0740619 -0.402681 -0.515 193 146 120
0.0750429 -0.402681 -0.515 191 144 118
0.0761714 -0.403463 -0.516 191 144 118
0.0773038 -0.404245 -0.517 190 143 117
0.0782886 -0.404245 -0.517 188 141 115
0.0792733 -0.404245 -0.517 186 138 115
0.0804133 -0.405027 -0.518 183 135 112
0.0815571 -0.405809 -0.519 180 132 109
0.0827048 -0.40659 -0.52 182 134 111
0.0836952 -0.40659 -0.52 183 135 113
0.0848486 -0.407372 -0.521 183 135 113
0.0860057 -0.408154 -0.522 182 134 112
0.0871667 -0.408936 -0.523 181 133 111
0.0881629 -0.408936 -0.523 181 133 111
0.0893295 -0.409718 -0.524 178 130 108
0.0903276 -0.409718 -0.524 175 127 105
0.0915 -0.4105 -0.525 173 128 109
0.0926762 -0.411282 -0.526 172 127 108
0.0938562 -0.412064 -0.527 169 123 107
0.09504 -0.412846 -0.528 167 121 105
0.0962276 -0.413628 -0.529 165 122 105
0.097419 -0.41441 -0.53 162 119 102
0.0988 -0.415973 -0.532 154 112 96
0.100189 -0.417537 -0.534 149 107 91
0.101395 -0.418319 -0.535 144 108 96
0.102797 -0.419883 -0.537 144 108 96
0.104013 -0.420665 -0.538 137 107 99
0.105429 -0.422229 -0.54 133 103 95
0.106851 -0.423792 -0.542 126 101 97
0.108282 -0.425356 -0.544 124 99 95
0.121499 -0.43943 -0.562 72 66 70
0.12257 -0.43943 -0.562 89 83 87
0.12386 -0.440212 -0.563 106 101 107
0.125154 -0.440994 -0.564 115 110 116
0.126229 -0.440994 -0.564 125 120 126
0.127303 -0.440994 -0.564 135 130 136
0.128377 -0.440994 -0.564 146 141 145
0.129451 -0.440994 -0.564 155 150 154
0.130526 -0.440994 -0.564 162 158 159
0.1316 -0.440994 -0.564 168 164 165
0.132439 -0.440212 -0.563 164 165 169
0.133511 -0.440212 -0.563 171 172 176
0.134584 -0.440212 -0.563 174 175 180
0.135656 -0.440212 -0.563 148 149 154
0.136971 -0.440994 -0.564 178 177 185
0.137801 -0.440212 -0.563 184 183 191
0.138873 -0.440212 -0.563 156 154 159
0.139946 -0.440212 -0.563 122 120 125
0.141018 -0.440212 -0.563 171 171 173
0.14209 -0.440212 -0.563 194 194 196
0.143163 -0.440212 -0.563 199 200 202
0.143979 -0.43943 -0.562 204 205 207
0.14505 -0.43943 -0.562 201 206 212
0.14612 -0.43943 -0.562 203 208 214
0.14719 -0.43943 -0.562 206 212 224
0.148261 -0.43943 -0.562 201 207 219
0.149331 -0.43943 -0.562 174 186 208
0.150402 -0.43943 -0.562 139 151 173
0.151472 -0.43943 -0.562 93 118 158
0.152543 -0.43943 -0.562 104 129 169
0.153613 -0.43943 -0.562 136 156 193
0.154684 -0.43943 -0.562 169 189 226
0.155754 -0.43943 -0.562 209 211 226
0.156825 -0.43943 -0.562 221 223 238
0.157895 -0.43943 -0.562 219 223 232
0.158966 -0.43943 -0.562 218 222 231
0.160036 -0.43943 -0.562 191 195 206
0.161107 -0.43943 -0.562 166 170 181
0.162177 -0.43943 -0.562 179 185 201
0.163248 -0.43943 -0.562 177 183 199
0.164318 -0.43943 -0.562 132 166 204
0.36774 -0.44334 -0.567 201 211 236
0.36882 -0.44334 -0.567 213 223 248
0.3699 -0.44334 -0.567 226 231 251
0.436233 -0.444904 -0.569 211 223 235
0.437317 -0.444904 -0.569 210 222 234
0.438401 -0.444904 -0.569 198 206 229
0.439485 -0.444904 -0.569 179 187 210
0.440569 -0.444904 -0.569 146 157 185
0.442429 -0.445686 -0.57 107 118 146
0.443514 -0.445686 -0.57 119 126 152
0.4446 -0.445686 -0.57 156 163 189
0.445686 -0.445686 -0.57 158 158 160
0.446771 -0.445686 -0.57 166 166 168
0.447857 -0.445686 -0.57 207 205 210
0.448943 -0.445686 -0.57 219 217 222
0.450029 -0.445686 -0.57 208 213 219
0.451906 -0.446468 -0.571 211 216 222
0.452993 -0.446468 -0.571 208 217 224
0.454081 -0.446468 -0.571 212 221 228
0.455169 -0.446468 -0.571 209 217 220
0.456256 -0.446468 -0.571 210 218 221
0.457344 -0.446468 -0.571 208 215 223
0.458431 -0.446468 -0.571 182 189 197
0.459519 -0.446468 -0.571 167 173 185
0.460607 -0.446468 -0.571 199 205 217
0.461694 -0.446468 -0.571 207 211 222
0.462782 -0.446468 -0.571 206 210 221
0.46387 -0.446468 -0.571 206 209 216
0.464957 -0.446468 -0.571 206 209 216
0.466045 -0.446468 -0.571 209 213 216
0.467132 -0.446468 -0.571 204 208 211
0.46904 -0.44725 -0.572 173 174 176
0.47013 -0.44725 -0.572 144 145 147
0.471219 -0.44725 -0.572 172 173 175
0.472309 -0.44725 -0.572 199 200 202
0.473398 -0.44725 -0.572 167 180 196
0.474488 -0.44725 -0.572 101 114 130
0.475577 -0.44725 -0.572 101 114 130
0.476667 -0.44725 -0.572 81 96 127
0.476921 -0.446468 -0.571 118 133 164
0.478009 -0.446468 -0.571 153 168 197
0.479096 -0.446468 -0.571 173 188 217
0.480184 -0.446468 -0.571 187 198 216
0.481271 -0.446468 -0.571 192 203 221
0.482359 -0.446468 -0.571 194 205 223
0.483447 -0.446468 -0.571 187 198 216
0.484534 -0.446468 -0.571 165 183 205
0.485622 -0.446468 -0.571 151 169 191
0.48671 -0.446468 -0.571 139 165 192
0.487797 -0.446468 -0.571 122 148 175
0.488885 -0.446468 -0.571 108 136 175
0.489972 -0.446468 -0.571 108 136 175
0.49106 -0.446468 -0.571 97 129 176
0.492148 -0.446468 -0.571 90 122 169
0.493235 -0.446468 -0.571 91 125 173
0.494323 -0.446468 -0.571 96 130 178
0.49541 -0.446468 -0.571 112 135 176
0.496498 -0.446468 -0.571 134 157 198
0.497586 -0.446468 -0.571 140 159 189
0.498673 -0.446468 -0.571 144 163 193
0.499761 -0.446468 -0.571 180 188 201
0.500849 -0.446468 -0.571 185 193 206
0.501936 -0.446468 -0.571 181 191 203
0.503024 -0.446468 -0.571 181 191 203
0.504111 -0.446468 -0.571 177 181 193
0.505199 -0.446468 -0.571 150 154 166
0.506287 -0.446468 -0.571 111 114 133
0.507374 -0.446468 -0.571 89 92 111
0.508462 -0.446468 -0.571 83 90 108
0.50955 -0.446468 -0.571 135 142 158
0.510637 -0.446468 -0.571 171 175 187
0.511725 -0.446468 -0.571 180 184 196
0.50388 -0.42692 -0.546 135 114 109
0.470786 -0.396426 -0.507 135 115 108
0.457794 -0.384697 -0.492 137 117 110
0.45034 -0.37766 -0.483 139 119 112
0.44472 -0.372187 -0.476 138 118 111
0.441882 -0.369059 -0.472 135 115 108
0.439029 -0.365931 -0.468 139 119 110
0.4371 -0.363586 -0.465 138 118 109
0.436102 -0.362022 -0.463 135 114 109
0.435096 -0.360458 -0.461 138 117 112
0.434083 -0.358894 -0.459 131 113 111
0.433062 -0.35733 -0.457 118 100 98
0.432983 -0.356549 -0.456 95 81 81
0.431949 -0.354985 -0.454 76 62 62
0.43186 -0.354203 -0.453 54 47 54
0.430812 -0.352639 -0.451 41 34 41
0.430714 -0.351857 -0.45 33 26 33
0.430612 -0.351075 -0.449 34 27 34
0.429546 -0.349511 -0.447 32 25 32
0.429434 -0.34873 -0.446 28 21 28
0.429319 -0.347948 -0.445 26 21 28
0.4292 -0.347166 -0.444 23 18 25
0.429077 -0.346384 -0.443 26 21 28
0.42895 -0.345602 -0.442 25 20 27
0.42882 -0.34482 -0.441 23 20 29
0.428686 -0.344038 -0.44 23 20 29
0.428548 -0.343256 -0.439 21 18 27
0.429384 -0.343256 -0.439 24 21 30
0.42924 -0.342474 -0.438 23 20 31
0.429092 -0.341692 -0.437 27 24 35
0.429925 -0.341692 -0.437 27 21 31
0.429771 -0.34091 -0.436 27 21 31
0.429614 -0.340129 -0.435 28 22 32
0.430443 -0.340129 -0.435 27 21 31
0.43028 -0.339347 -0.434 24 18 28
0.430113 -0.338565 -0.433 28 22 32
0.430938 -0.338565 -0.433 29 23 33
0.430766 -0.337783 -0.432 24 18 28
0.43059 -0.337001 -0.431 26 20 30
0.43141 -0.337001 -0.431 27 21 31
0.432231 -0.337001 -0.431 24 18 28
0.432048 -0.336219 -0.43 23 17 27
0.432867 -0.336219 -0.43 27 21 31
0.432677 -0.335437 -0.429 24 18 28
0.432484 -0.334655 -0.428 21 15 25
0.433299 -0.334655 -0.428 27 21 31
0.434114 -0.334655 -0.428 29 23 33
0.433913 -0.333873 -0.427 27 21 31
0.434727 -0.333873 -0.427 27 21 31
0.43452 -0.333091 -0.426 30 24 34
0.435331 -0.333091 -0.426 28 22 32
0.436143 -0.333091 -0.426 24 18 28
0.435929 -0.33231 -0.425 27 21 31
0.43571 -0.331528 -0.424 29 23 33
0.436518 -0.331528 -0.424 29 23 33
0.436294 -0.330746 -0.423 24 18 28
0.436067 -0.329964 -0.422 26 20 30
0.43687 -0.329964 -0.422 32 26 36
0.436637 -0.329182 -0.421 27 21 31
0.4364 -0.3284 -0.42 30 24 34
0.4372 -0.3284 -0.42 30 24 34
0.438 -0.3284 -0.42 24 18 28
0.437755 -0.327618 -0.419 23 17 27
0.438553 -0.327618 -0.419 28 22 32
0.439351 -0.327618 -0.419 28 22 32
0.44015 -0.327618 -0.419 25 19 29
0.439895 -0.326836 -0.418 27 21 31
0.439637 -0.326054 -0.417 28 22 32
0.440431 -0.326054 -0.417 26 20 30
0.441226 -0.326054 -0.417 24 18 28
0.44202 -0.326054 -0.417 29 26 35
0.442814 -0.326054 -0.417 29 26 35
0.442545 -0.325272 -0.416 24 21 30
0.443337 -0.325272 -0.416 26 23 32
0.44413 -0.325272 -0.416 27 24 33
0.443852 -0.32449 -0.415 22 19 28
0.444643 -0.32449 -0.415 23 20 29
0.445433 -0.32449 -0.415 23 20 29
0.446224 -0.32449 -0.415 27 24 33
0.447014 -0.32449 -0.415 25 22 31
0.446726 -0.323709 -0.414 24 21 30
0.447514 -0.323709 -0.414 28 25 34
0.448303 -0.323709 -0.414 25 22 31
0.448007 -0.322927 -0.413 20 17 26
0.448793 -0.322927 -0.413 24 21 30
0.44958 -0.322927 -0.413 26 23 32
0.451457 -0.323709 -0.414 26 23 32
0.451153 -0.322927 -0.413 24 21 30
0.45194 -0.322927 -0.413 25 24 32
0.452727 -0.322927 -0.413 21 20 28
0.453513 -0.322927 -0.413 19 18 26
0.4543 -0.322927 -0.413 25 24 32
0.455087 -0.322927 -0.413 27 26 34
0.455873 -0.322927 -0.413 27 26 34
0.45666 -0.322927 -0.413 25 24 32
0.457447 -0.322927 -0.413 23 20 29
0.458233 -0.322927 -0.413 26 23 32
0.45902 -0.322927 -0.413 27 24 33
0.459807 -0.322927 -0.413 25 22 31
0.460593 -0.322927 -0.413 28 25 34
0.46138 -0.322927 -0.413 27 24 33
0.462167 -0.322927 -0.413 21 20 28
0.462953 -0.322927 -0.413 27 26 34
0.46374 -0.322927 -0.413 25 24 32
0.464527 -0.322927 -0.413 20 19 27
0.46644 -0.323709 -0.414 24 23 31
0.467229 -0.323709 -0.414 25 24 32
0.468017 -0.323709 -0.414 24 23 31
0.469938 -0.32449 -0.415 24 23 31
0.470729 -0.32449 -0.415 21 20 28
0.471519 -0.32449 -0.415 24 23 31
0.47231 -0.32449 -0.415 31 28 35
0.4731 -0.32449 -0.415 28 25 32
0.475032 -0.325272 -0.416 27 26 32
0.475825 -0.325272 -0.416 28 27 33
0.477763 -0.326054 -0.417 29 28 36
0.479705 -0.326836 -0.418 28 27 35
0.48165 -0.327618 -0.419 29 28 36
0.482449 -0.327618 -0.419 32 31 39
0.486707 -0.329964 -0.422 27 26 32
0.489821 -0.331528 -0.424 28 27 33
0.4941 -0.333873 -0.427 31 32 34
0.49955 -0.337001 -0.431 37 38 40
0.503853 -0.339347 -0.434 37 39 36
0.02618 -0.422473 -0.539 194 148 122
0.0270552 -0.420122 -0.536 196 148 125
0.0278667 -0.416987 -0.532 194 146 123
0.0287171 -0.414635 -0.529 193 146 120
0.0295562 -0.412284 -0.526 196 149 123
0.0303838 -0.409932 -0.523 199 149 122
0.03126 -0.408365 -0.521 196 146 119
0.0320667 -0.406013 -0.518 195 145 118
0.0329895 -0.40523 -0.517 198 148 121
0.0339086 -0.404446 -0.516 197 147 120
0.0348238 -0.403662 -0.515 201 151 124
0.0358048 -0.403662 -0.515 202 151 122
0.0367143 -0.402878 -0.514 203 152 123
0.0376933 -0.402878 -0.514 206 155 124
0.0385971 -0.402094 -0.513 207 156 125
0.0395743 -0.402094 -0.513 208 157 128
0.0405514 -0.402094 -0.513 207 156 127
0.0414476 -0.40131 -0.512 203 158 127
0.0425057 -0.402094 -0.513 202 157 126
0.0434829 -0.402094 -0.513 202 157 126
0.04446 -0.402094 -0.513 202 157 126
0.0454371 -0.402094 -0.513 202 157 126
0.0464143 -0.402094 -0.513 201 156 125
0.0473914 -0.402094 -0.513 200 155 124
0.0483686 -0.402094 -0.513 201 156 125
0.0493457 -0.402094 -0.513 200 157 125
0.0503229 -0.402094 -0.513 200 157 125
0.0513 -0.402094 -0.513 202 157 126
0.0522771 -0.402094 -0.513 203 158 127
0.0531505 -0.40131 -0.512 202 157 126
0.0541257 -0.40131 -0.512 199 154 123
0.055101 -0.40131 -0.512 195 152 120
0.0560762 -0.40131 -0.512 192 149 117
0.0570514 -0.40131 -0.512 193 147 121
0.0580267 -0.40131 -0.512 194 148 122
0.0590019 -0.40131 -0.512 197 150 124
0.0600943 -0.402094 -0.513 196 149 123
0.0610714 -0.402094 -0.513 190 143 117
0.0620486 -0.402094 -0.513 186 139 113
0.0630257 -0.402094 -0.513 187 141 115
0.0640029 -0.402094 -0.513 192 146 120
0.06498 -0.402094 -0.513 194 148 122
0.0659571 -0.402094 -0.513 194 148 122
0.0669343 -0.402094 -0.513 197 150 124
0.0679114 -0.402094 -0.513 197 150 124
0.0688886 -0.402094 -0.513 193 146 120
0.0698657 -0.402094 -0.513 192 145 119
0.070981 -0.402878 -0.514 192 146 120
0.07196 -0.402878 -0.514 193 147 121
0.072939 -0.402878 -0.514 191 145 121
0.0740619 -0.403662 -0.515 192 146 122
0.0750429 -0.403662 -0.515 191 145 121
0.0761714 -0.404446 -0.516 190 144 120
0.0771543 -0.404446 -0.516 188 142 118
0.0782886 -0.40523 -0.517 185 139 115
0.0792733 -0.40523 -0.517 184 136 114
0.0804133 -0.406013 -0.518 183 135 113
0.0815571 -0.406797 -0.519 183 135 113
0.0827048 -0.407581 -0.52 183 135 113
0.0838562 -0.408365 -0.521 183 135 113
0.0848486 -0.408365 -0.521 183 135 113
0.085841 -0.408365 -0.521 183 135 113
0.087 -0.409149 -0.522 182 134 114
0.0881629 -0.409932 -0.523 179 131 111
0.0893295 -0.410716 -0.524 177 129 109
0.0905 -0.4115 -0.525 176 128 108
0.0916743 -0.412284 -0.526 172 127 108
0.0928524 -0.413068 -0.527 171 126 107
0.0940343 -0.413851 -0.528 169 123 107
0.09522 -0.414635 -0.529 168 122 106
0.0964095 -0.415419 -0.53 166 123 107
0.0976029 -0.416203 -0.531 160 117 101
0.0988 -0.416987 -0.532 151 109 93
0.100189 -0.418554 -0.534 146 104 88
0.101585 -0.420122 -0.536 143 107 95
0.102797 -0.420906 -0.537 143 107 95
0.104207 -0.422473 -0.539 136 106 98
0.105624 -0.424041 -0.541 131 101 93
0.106851 -0.424825 -0.542 125 100 96
0.120214 -0.439717 -0.561 70 59 63
0.121499 -0.440501 -0.562 87 81 85
0.12257 -0.440501 -0.562 94 88 92
0.12386 -0.441285 -0.563 111 106 112
0.124932 -0.441285 -0.563 120 115 121
0.126005 -0.441285 -0.563 129 127 132
0.127077 -0.441285 -0.563 138 136 141
0.12815 -0.441285 -0.563 151 146 152
0.129222 -0.441285 -0.563 158 153 159
0.130294 -0.441285 -0.563 164 159 163
0.131367 -0.441285 -0.563 171 166 170
0.132439 -0.441285 -0.563 172 173 178
0.133274 -0.440501 -0.562 171 172 177
0.134345 -0.440501 -0.562 176 175 183
0.135656 -0.441285 -0.563 177 176 184
0.136729 -0.441285 -0.563 185 182 191
0.137801 -0.441285 -0.563 193 190 199
0.138873 -0.441285 -0.563 182 180 185
0.139946 -0.441285 -0.563 150 148 153
0.141018 -0.441285 -0.563 179 177 178
0.141838 -0.440501 -0.562 189 187 188
0.142909 -0.440501 -0.562 204 204 204
0.143979 -0.440501 -0.562 207 207 207
0.14505 -0.440501 -0.562 203 206 211
0.14612 -0.440501 -0.562 210 213 218
0.14719 -0.440501 -0.562 209 213 224
