ply
format ascii 1.0
comment Created by Open3D
element vertex 1313
property double x
property double y
property double z
property uchar red
property uchar green
property uchar blue
end_header
0.0905 -0.4245 -0.525 153 110 94
0.0916743 -0.425309 -0.526 147 109 90
0.0930286 -0.426926 -0.528 145 107 88
0.0943905 -0.428543 -0.53 139 105 93
0.09558 -0.429351 -0.531 135 101 89
0.0969552 -0.430969 -0.533 124 99 94
0.110725 -0.445523 -0.551 103 92 96
0.111977 -0.446331 -0.552 69 58 62
0.113233 -0.44714 -0.553 45 43 54
0.114493 -0.447949 -0.554 60 58 69
0.115549 -0.447949 -0.554 86 83 94
0.116604 -0.447949 -0.554 114 111 122
0.117659 -0.447949 -0.554 126 123 130
0.118714 -0.447949 -0.554 142 139 146
0.11977 -0.447949 -0.554 154 152 155
0.120825 -0.447949 -0.554 161 159 162
0.12188 -0.447949 -0.554 161 159 162
0.122713 -0.44714 -0.553 164 162 165
0.123767 -0.44714 -0.553 176 171 175
0.12482 -0.44714 -0.553 175 170 174
0.125873 -0.44714 -0.553 159 155 156
0.126927 -0.44714 -0.553 181 177 178
0.12798 -0.44714 -0.553 187 186 184
0.129033 -0.44714 -0.553 191 190 188
0.130087 -0.44714 -0.553 184 188 191
0.13114 -0.44714 -0.553 193 197 200
0.132193 -0.44714 -0.553 199 198 204
0.133247 -0.44714 -0.553 203 202 208
0.1343 -0.44714 -0.553 205 202 213
0.135353 -0.44714 -0.553 209 206 217
0.136407 -0.44714 -0.553 208 208 220
0.13746 -0.44714 -0.553 209 209 221
0.138513 -0.44714 -0.553 214 216 228
0.139567 -0.44714 -0.553 211 213 225
0.14062 -0.44714 -0.553 209 213 224
0.141673 -0.44714 -0.553 214 218 229
0.142727 -0.44714 -0.553 208 216 229
0.14378 -0.44714 -0.553 207 215 228
0.144833 -0.44714 -0.553 189 200 220
0.145887 -0.44714 -0.553 166 177 197
0.14694 -0.44714 -0.553 146 161 190
0.147993 -0.44714 -0.553 131 146 175
0.149047 -0.44714 -0.553 131 146 169
0.1501 -0.44714 -0.553 151 166 189
0.151153 -0.44714 -0.553 211 220 237
0.152207 -0.44714 -0.553 221 230 247
0.15326 -0.44714 -0.553 213 222 239
0.154313 -0.44714 -0.553 207 216 233
0.155367 -0.44714 -0.553 199 215 241
0.15642 -0.44714 -0.553 196 212 238
0.157473 -0.44714 -0.553 157 183 220
0.158527 -0.44714 -0.553 133 159 196
0.15958 -0.44714 -0.553 139 171 210
0.160633 -0.44714 -0.553 146 178 217
0.161687 -0.44714 -0.553 146 178 217
0.163793 -0.44714 -0.553 130 163 198
0.164847 -0.44714 -0.553 130 164 199
0.1659 -0.44714 -0.553 133 167 202
0.166953 -0.44714 -0.553 132 164 203
0.168007 -0.44714 -0.553 159 191 230
0.16906 -0.44714 -0.553 198 217 250
0.170113 -0.44714 -0.553 201 220 253
0.171167 -0.44714 -0.553 214 221 239
0.17222 -0.44714 -0.553 226 233 251
0.173273 -0.44714 -0.553 230 239 255
0.174327 -0.44714 -0.553 214 223 240
0.17538 -0.44714 -0.553 157 181 207
0.180973 -0.447949 -0.554 215 231 255
0.182029 -0.447949 -0.554 230 236 250
0.19047 -0.447949 -0.554 222 223 217
0.191526 -0.447949 -0.554 237 238 232
0.192581 -0.447949 -0.554 235 242 248
0.193636 -0.447949 -0.554 235 242 248
0.194691 -0.447949 -0.554 234 242 255
0.195747 -0.447949 -0.554 236 244 255
0.196802 -0.447949 -0.554 240 241 246
0.197857 -0.447949 -0.554 243 244 249
0.198912 -0.447949 -0.554 236 247 251
0.199968 -0.447949 -0.554 236 247 251
0.201023 -0.447949 -0.554 238 242 251
0.202078 -0.447949 -0.554 239 243 252
0.203133 -0.447949 -0.554 237 241 250
0.213014 -0.448757 -0.555 190 197 223
0.214071 -0.448757 -0.555 167 184 212
0.228871 -0.448757 -0.555 155 193 240
0.229929 -0.448757 -0.555 144 188 237
0.230986 -0.448757 -0.555 111 155 204
0.250465 -0.449566 -0.556 237 246 255
0.251524 -0.449566 -0.556 217 220 227
0.252583 -0.449566 -0.556 201 204 211
0.253642 -0.449566 -0.556 220 224 233
0.254701 -0.449566 -0.556 233 237 246
0.258937 -0.449566 -0.556 234 237 246
0.398043 -0.453609 -0.561 227 226 231
0.399111 -0.453609 -0.561 223 231 233
0.423373 -0.454417 -0.562 53 93 152
0.424444 -0.454417 -0.562 57 97 156
0.425514 -0.454417 -0.562 58 107 166
0.426585 -0.454417 -0.562 95 144 203
0.427655 -0.454417 -0.562 95 144 203
0.432706 -0.455226 -0.563 76 116 167
0.433778 -0.455226 -0.563 111 137 170
0.43485 -0.455226 -0.563 177 203 236
0.435923 -0.455226 -0.563 200 212 226
0.436995 -0.455226 -0.563 208 220 234
0.438068 -0.455226 -0.563 206 205 213
0.43914 -0.455226 -0.563 179 178 186
0.440212 -0.455226 -0.563 183 181 186
0.441285 -0.455226 -0.563 203 201 206
0.442357 -0.455226 -0.563 217 216 221
0.444217 -0.456034 -0.564 214 213 218
0.445291 -0.456034 -0.564 215 216 221
0.446366 -0.456034 -0.564 215 216 221
0.44744 -0.456034 -0.564 213 216 225
0.448514 -0.456034 -0.564 204 207 216
0.450386 -0.456843 -0.565 180 188 199
0.451462 -0.456843 -0.565 186 194 205
0.452538 -0.456843 -0.565 182 190 201
0.453614 -0.456843 -0.565 187 195 206
0.45469 -0.456843 -0.565 172 180 191
0.455767 -0.456843 -0.565 155 163 174
0.456843 -0.456843 -0.565 173 182 191
0.457919 -0.456843 -0.565 178 187 196
0.458995 -0.456843 -0.565 176 183 193
0.460071 -0.456843 -0.565 178 185 195
0.461148 -0.456843 -0.565 179 186 194
0.462224 -0.456843 -0.565 187 194 202
0.4633 -0.456843 -0.565 198 205 213
0.464376 -0.456843 -0.565 202 209 217
0.465452 -0.456843 -0.565 186 193 199
0.466529 -0.456843 -0.565 156 163 169
0.467605 -0.456843 -0.565 162 159 154
0.468681 -0.456843 -0.565 201 198 193
0.469757 -0.456843 -0.565 210 209 205
0.470833 -0.456843 -0.565 205 204 200
0.47191 -0.456843 -0.565 205 200 197
0.472986 -0.456843 -0.565 199 194 191
0.474062 -0.456843 -0.565 190 193 208
0.475138 -0.456843 -0.565 169 172 187
0.476214 -0.456843 -0.565 103 131 178
0.47729 -0.456843 -0.565 103 131 178
0.478367 -0.456843 -0.565 61 89 136
0.479443 -0.456843 -0.565 52 93 159
0.480519 -0.456843 -0.565 45 86 152
0.481595 -0.456843 -0.565 37 76 143
0.482671 -0.456843 -0.565 35 74 141
0.483748 -0.456843 -0.565 31 66 130
0.484824 -0.456843 -0.565 31 66 130
0.4859 -0.456843 -0.565 32 71 136
0.486976 -0.456843 -0.565 25 64 129
0.488052 -0.456843 -0.565 24 63 132
0.489129 -0.456843 -0.565 33 72 141
0.490205 -0.456843 -0.565 35 70 134
0.491281 -0.456843 -0.565 32 67 131
0.492357 -0.456843 -0.565 31 66 134
0.493433 -0.456843 -0.565 35 70 138
0.49451 -0.456843 -0.565 32 73 137
0.495586 -0.456843 -0.565 44 85 149
0.496662 -0.456843 -0.565 46 88 146
0.510831 -0.443906 -0.549 108 109 114
0.506283 -0.439054 -0.543 113 104 107
0.499843 -0.432586 -0.535 106 97 100
0.486819 -0.420457 -0.52 92 80 82
0.43898 -0.377603 -0.467 63 52 56
0.436102 -0.374369 -0.463 52 41 45
0.433209 -0.371134 -0.459 37 30 37
0.432191 -0.369517 -0.457 34 27 34
0.430219 -0.367091 -0.454 32 24 35
0.431084 -0.367091 -0.454 32 24 35
0.430997 -0.366283 -0.453 31 23 34
0.429953 -0.364666 -0.451 26 25 31
0.429857 -0.363857 -0.45 25 24 30
0.429757 -0.363049 -0.449 24 23 29
0.428694 -0.361431 -0.447 25 24 30
0.428585 -0.360623 -0.446 25 24 30
0.428471 -0.359814 -0.445 24 23 29
0.428354 -0.359006 -0.444 23 22 28
0.428233 -0.358197 -0.443 25 24 30
0.429077 -0.358197 -0.443 25 22 29
0.42895 -0.357389 -0.442 23 20 27
0.42882 -0.35658 -0.441 24 21 28
0.42966 -0.35658 -0.441 26 23 30
0.429524 -0.355771 -0.44 25 22 29
0.429384 -0.354963 -0.439 24 21 28
0.42924 -0.354154 -0.438 24 21 28
0.430074 -0.354154 -0.438 24 21 28
0.429925 -0.353346 -0.437 25 22 29
0.429771 -0.352537 -0.436 24 21 28
0.430602 -0.352537 -0.436 25 22 29
0.430443 -0.351729 -0.435 22 19 26
0.43028 -0.35092 -0.434 21 18 25
0.431107 -0.35092 -0.434 26 23 30
0.430938 -0.350111 -0.433 26 23 30
0.430766 -0.349303 -0.432 22 19 26
0.43059 -0.348494 -0.431 26 23 30
0.43041 -0.347686 -0.43 24 21 28
0.430226 -0.346877 -0.429 22 19 26
0.431043 -0.346877 -0.429 21 18 25
0.43186 -0.346877 -0.429 21 18 25
0.431669 -0.346069 -0.428 21 18 25
0.431473 -0.34526 -0.427 21 18 25
0.432287 -0.34526 -0.427 23 20 27
0.432086 -0.344451 -0.426 21 18 25
0.431881 -0.343643 -0.425 24 21 28
0.43269 -0.343643 -0.425 24 21 28
0.43248 -0.342834 -0.424 22 19 26
0.433288 -0.342834 -0.424 23 20 27
0.434095 -0.342834 -0.424 24 21 28
0.433877 -0.342026 -0.423 23 20 27
0.434683 -0.342026 -0.423 23 20 27
0.434459 -0.341217 -0.422 23 20 27
0.434231 -0.340409 -0.421 29 26 33
0.435033 -0.340409 -0.421 24 21 28
0.435835 -0.340409 -0.421 19 16 23
0.4356 -0.3396 -0.42 23 20 27
0.4364 -0.3396 -0.42 24 21 28
0.436159 -0.338791 -0.419 21 18 25
0.436957 -0.338791 -0.419 22 19 26
0.43671 -0.337983 -0.418 22 21 27
0.437507 -0.337983 -0.418 23 22 28
0.437254 -0.337174 -0.417 21 20 26
0.438049 -0.337174 -0.417 21 20 26
0.43779 -0.336366 -0.416 26 25 31
0.438583 -0.336366 -0.416 25 24 30
0.439375 -0.336366 -0.416 22 21 27
0.43911 -0.335557 -0.415 23 22 28
0.4399 -0.335557 -0.415 23 22 28
0.439629 -0.334749 -0.414 24 23 29
0.440417 -0.334749 -0.414 24 23 29
0.441206 -0.334749 -0.414 25 24 30
0.441994 -0.334749 -0.414 26 25 31
0.441713 -0.33394 -0.413 25 24 30
0.4425 -0.33394 -0.413 23 22 28
0.443287 -0.33394 -0.413 22 21 27
0.442998 -0.333131 -0.412 22 21 27
0.443783 -0.333131 -0.412 21 20 26
0.444568 -0.333131 -0.412 26 25 31
0.444271 -0.332323 -0.411 27 26 32
0.445054 -0.332323 -0.411 27 26 32
0.445837 -0.332323 -0.411 30 29 35
0.44662 -0.332323 -0.411 27 26 32
0.446314 -0.331514 -0.41 22 21 27
0.447095 -0.331514 -0.41 24 23 29
0.447876 -0.331514 -0.41 25 24 30
0.448657 -0.331514 -0.41 22 23 28
0.448342 -0.330706 -0.409 22 23 28
0.449121 -0.330706 -0.409 25 26 31
0.4499 -0.330706 -0.409 25 26 31
0.450679 -0.330706 -0.409 22 23 28
0.451458 -0.330706 -0.409 22 23 28
0.451131 -0.329897 -0.408 22 21 27
0.451909 -0.329897 -0.408 22 21 27
0.452686 -0.329897 -0.408 22 21 27
0.453463 -0.329897 -0.408 22 21 27
0.45424 -0.329897 -0.408 23 22 28
0.455017 -0.329897 -0.408 22 21 27
0.454677 -0.329089 -0.407 22 21 27
0.455452 -0.329089 -0.407 24 23 29
0.456228 -0.329089 -0.407 23 22 28
0.457003 -0.329089 -0.407 23 22 28
0.457778 -0.329089 -0.407 23 22 28
0.458553 -0.329089 -0.407 23 22 28
0.459329 -0.329089 -0.407 24 23 29
0.460104 -0.329089 -0.407 26 25 31
0.460879 -0.329089 -0.407 27 26 32
0.461654 -0.329089 -0.407 27 26 32
0.46243 -0.329089 -0.407 27 26 32
0.463205 -0.329089 -0.407 29 28 34
0.46398 -0.329089 -0.407 28 27 33
0.465897 -0.329897 -0.408 30 29 35
0.466674 -0.329897 -0.408 29 28 34
0.467451 -0.329897 -0.408 28 27 33
0.469376 -0.330706 -0.409 30 29 35
0.470155 -0.330706 -0.409 28 27 33
0.470934 -0.330706 -0.409 30 29 35
0.472867 -0.331514 -0.41 29 28 34
0.473648 -0.331514 -0.41 29 28 34
0.475586 -0.332323 -0.411 31 30 36
0.476369 -0.332323 -0.411 31 30 36
0.478312 -0.333131 -0.412 31 30 36
0.48026 -0.33394 -0.413 31 30 36
0.481047 -0.33394 -0.413 32 31 37
0.0146105 -0.428742 -0.529 192 152 126
0.0155295 -0.42631 -0.526 191 151 125
0.0164371 -0.423879 -0.523 189 149 123
0.0173333 -0.421448 -0.52 190 148 123
0.0182181 -0.419016 -0.517 191 149 124
0.0190543 -0.415774 -0.513 195 151 124
0.0199924 -0.414964 -0.512 197 153 126
0.0208857 -0.413343 -0.51 199 155 128
0.0217714 -0.411722 -0.508 199 155 128
0.0226943 -0.410911 -0.507 197 153 126
0.0236133 -0.410101 -0.506 197 153 126
0.0245771 -0.410101 -0.506 197 153 128
0.0254905 -0.40929 -0.505 198 154 129
0.0264524 -0.40929 -0.505 197 153 124
0.0274143 -0.40929 -0.505 198 154 125
0.0283762 -0.40929 -0.505 199 155 126
0.0293381 -0.40929 -0.505 198 154 125
0.0303 -0.40929 -0.505 197 153 124
0.0312619 -0.40929 -0.505 198 154 125
0.03216 -0.40848 -0.504 199 154 125
0.03312 -0.40848 -0.504 197 152 123
0.03408 -0.40848 -0.504 198 153 124
0.03504 -0.40848 -0.504 200 155 126
0.036 -0.40848 -0.504 201 156 125
0.0370333 -0.40929 -0.505 201 156 125
0.0379952 -0.40929 -0.505 200 155 124
0.0389571 -0.40929 -0.505 201 156 125
0.039919 -0.40929 -0.505 200 155 124
0.040881 -0.40929 -0.505 199 154 123
0.0418429 -0.40929 -0.505 201 154 126
0.0428048 -0.40929 -0.505 200 153 125
0.0437667 -0.40929 -0.505 197 152 121
0.0447286 -0.40929 -0.505 197 152 121
0.0456905 -0.40929 -0.505 198 153 122
0.0466524 -0.40929 -0.505 198 153 122
0.0476143 -0.40929 -0.505 197 152 121
0.0485762 -0.40929 -0.505 198 153 122
0.0495381 -0.40929 -0.505 197 152 121
0.0505 -0.40929 -0.505 196 151 120
0.0514619 -0.40929 -0.505 195 150 119
0.0524238 -0.40929 -0.505 195 150 119
0.0533857 -0.40929 -0.505 198 153 122
0.0543476 -0.40929 -0.505 200 155 124
0.0553095 -0.40929 -0.505 199 154 123
0.0562714 -0.40929 -0.505 197 152 121
0.0572333 -0.40929 -0.505 199 152 122
0.0581952 -0.40929 -0.505 197 150 120
0.0591571 -0.40929 -0.505 197 150 120
0.060119 -0.40929 -0.505 197 150 120
0.0612019 -0.410101 -0.506 196 149 119
0.0621657 -0.410101 -0.506 196 149 119
0.0631295 -0.410101 -0.506 196 149 119
0.0640933 -0.410101 -0.506 196 149 119
0.0651857 -0.410911 -0.507 195 150 119
0.0661514 -0.410911 -0.507 195 150 119
0.0672495 -0.411722 -0.508 194 149 118
0.0683514 -0.412532 -0.509 193 148 117
0.069321 -0.412532 -0.509 191 146 115
0.0704286 -0.413343 -0.51 189 144 113
0.0714 -0.413343 -0.51 188 143 112
0.0725133 -0.414153 -0.511 188 143 112
0.0736305 -0.414964 -0.512 188 143 112
0.0746057 -0.414964 -0.512 187 142 111
0.0757286 -0.415774 -0.513 186 141 110
0.0768552 -0.416585 -0.514 186 141 110
0.0778343 -0.416585 -0.514 185 140 111
0.0789667 -0.417395 -0.515 181 136 107
0.0801029 -0.418206 -0.516 175 131 106
0.0812429 -0.419016 -0.517 172 128 103
0.0823867 -0.419827 -0.518 171 126 105
0.0835343 -0.420637 -0.519 169 124 103
0.0846857 -0.421448 -0.52 163 118 99
0.085841 -0.422258 -0.521 159 114 95
0.087 -0.423069 -0.522 154 111 94
0.0881629 -0.423879 -0.523 151 108 91
0.0893295 -0.42469 -0.524 152 109 93
0.0905 -0.4255 -0.525 152 109 93
0.0918486 -0.427121 -0.527 146 108 89
0.0930286 -0.427931 -0.528 144 106 87
0.0943905 -0.429552 -0.53 136 104 91
0.09576 -0.431173 -0.532 131 99 86
0.0971371 -0.432794 -0.534 121 97 93
0.110725 -0.446572 -0.551 95 86 91
0.111977 -0.447383 -0.552 53 44 49
0.113233 -0.448193 -0.553 41 40 58
0.114493 -0.449004 -0.554 51 50 68
0.115549 -0.449004 -0.554 72 71 87
0.116604 -0.449004 -0.554 98 97 113
0.117659 -0.449004 -0.554 123 123 133
0.118714 -0.449004 -0.554 144 144 154
0.119553 -0.448193 -0.553 152 152 154
0.120607 -0.448193 -0.553 160 160 162
0.12166 -0.448193 -0.553 165 165 163
0.122713 -0.448193 -0.553 167 167 165
0.123543 -0.447383 -0.552 163 162 160
0.12482 -0.448193 -0.553 125 124 122
0.125873 -0.448193 -0.553 149 147 150
0.126927 -0.448193 -0.553 184 182 185
0.12798 -0.448193 -0.553 187 185 190
0.129033 -0.448193 -0.553 186 184 189
0.130087 -0.448193 -0.553 184 185 189
0.13114 -0.448193 -0.553 195 196 200
0.132193 -0.448193 -0.553 200 201 206
0.133247 -0.448193 -0.553 203 204 209
0.1343 -0.448193 -0.553 203 201 212
0.135353 -0.448193 -0.553 209 207 218
0.136407 -0.448193 -0.553 207 209 222
0.13746 -0.448193 -0.553 205 207 220
0.138513 -0.448193 -0.553 210 214 226
0.139567 -0.448193 -0.553 210 214 226
0.14062 -0.448193 -0.553 208 214 226
0.141673 -0.448193 -0.553 212 218 230
0.142727 -0.448193 -0.553 200 211 231
0.14378 -0.448193 -0.553 183 194 214
0.144571 -0.447383 -0.552 151 167 193
0.145623 -0.447383 -0.552 132 148 174
0.146674 -0.447383 -0.552 118 135 163
0.147726 -0.447383 -0.552 112 129 157
0.148777 -0.447383 -0.552 142 154 178
0.149829 -0.447383 -0.552 185 197 221
0.15088 -0.447383 -0.552 217 226 243
0.151931 -0.447383 -0.552 214 223 240
0.152983 -0.447383 -0.552 213 221 240
0.154034 -0.447383 -0.552 206 214 233
0.155086 -0.447383 -0.552 192 209 237
0.156137 -0.447383 -0.552 180 197 225
0.157189 -0.447383 -0.552 149 175 212
0.15824 -0.447383 -0.552 138 164 201
0.159291 -0.447383 -0.552 147 177 215
0.160343 -0.447383 -0.552 147 177 215
0.161394 -0.447383 -0.552 148 178 216
0.1659 -0.448193 -0.553 142 167 198
0.166953 -0.448193 -0.553 141 167 202
0.168007 -0.448193 -0.553 161 187 222
0.16906 -0.448193 -0.553 195 214 244
0.180647 -0.448193 -0.553 206 222 248
0.1817 -0.448193 -0.553 223 232 249
0.182753 -0.448193 -0.553 233 242 255
0.183807 -0.448193 -0.553 230 240 249
0.18486 -0.448193 -0.553 231 241 250
0.185913 -0.448193 -0.553 240 245 251
0.186967 -0.448193 -0.553 224 229 235
0.18802 -0.448193 -0.553 226 226 228
0.189073 -0.448193 -0.553 235 235 237
0.190127 -0.448193 -0.553 237 239 236
0.205244 -0.449004 -0.554 238 245 255
0.206299 -0.449004 -0.554 238 245 255
0.207354 -0.449004 -0.554 234 240 252
0.20841 -0.449004 -0.554 231 237 249
0.209465 -0.449004 -0.554 224 230 252
0.21052 -0.449004 -0.554 208 214 236
0.211575 -0.449004 -0.554 189 200 228
0.21263 -0.449004 -0.554 166 177 205
0.213686 -0.449004 -0.554 152 171 201
0.214741 -0.449004 -0.554 160 179 209
0.215796 -0.449004 -0.554 208 225 243
0.216851 -0.449004 -0.554 208 225 243
0.217907 -0.449004 -0.554 231 248 255
0.230986 -0.449814 -0.555 129 167 212
0.245786 -0.449814 -0.555 219 231 247
0.259996 -0.450625 -0.556 233 237 246
0.261055 -0.450625 -0.556 235 239 248
0.262114 -0.450625 -0.556 233 240 250
0.263173 -0.450625 -0.556 233 240 250
0.264232 -0.450625 -0.556 235 242 252
0.265291 -0.450625 -0.556 231 237 249
0.26635 -0.450625 -0.556 231 237 249
0.26741 -0.450625 -0.556 229 236 246
0.268469 -0.450625 -0.556 230 237 247
0.269528 -0.450625 -0.556 240 244 255
0.324703 -0.452246 -0.558 228 232 241
0.325766 -0.452246 -0.558 226 230 239
0.326829 -0.452246 -0.558 226 233 239
0.355098 -0.453056 -0.559 112 144 185
0.356163 -0.453056 -0.559 129 166 218
0.357228 -0.453056 -0.559 132 169 221
0.358292 -0.453056 -0.559 116 157 211
0.3824 -0.453867 -0.56 230 231 236
0.383467 -0.453867 -0.56 228 229 234
0.384533 -0.453867 -0.56 228 229 234
0.3856 -0.453867 -0.56 227 230 237
0.428726 -0.455488 -0.562 146 177 224
0.429796 -0.455488 -0.562 141 172 219
0.430867 -0.455488 -0.562 127 160 201
0.431937 -0.455488 -0.562 92 125 166
0.433008 -0.455488 -0.562 109 136 165
0.43485 -0.456298 -0.563 146 173 202
0.435149 -0.455488 -0.562 189 202 219
0.436219 -0.455488 -0.562 191 204 221
0.43729 -0.455488 -0.562 175 175 187
0.43836 -0.455488 -0.562 173 173 185
0.440212 -0.456298 -0.563 211 208 215
0.441285 -0.456298 -0.563 215 212 219
0.442357 -0.456298 -0.563 219 218 223
0.44343 -0.456298 -0.563 215 214 219
0.444502 -0.456298 -0.563 212 215 220
0.446366 -0.457109 -0.564 211 214 219
0.44744 -0.457109 -0.564 215 218 225
0.448514 -0.457109 -0.564 210 213 220
0.449589 -0.457109 -0.564 202 209 219
0.450663 -0.457109 -0.564 204 211 221
0.451737 -0.457109 -0.564 200 207 217
0.452811 -0.457109 -0.564 198 205 215
0.453886 -0.457109 -0.564 181 188 196
0.455767 -0.457919 -0.565 166 173 181
0.456843 -0.457919 -0.565 180 184 193
0.457919 -0.457919 -0.565 191 195 204
0.458995 -0.457919 -0.565 196 200 209
0.460071 -0.457919 -0.565 198 202 211
0.461148 -0.457919 -0.565 196 201 207
0.462224 -0.457919 -0.565 199 204 210
0.4633 -0.457919 -0.565 204 209 215
0.464376 -0.457919 -0.565 207 212 218
0.464629 -0.457109 -0.564 201 206 212
0.465703 -0.457109 -0.564 189 194 200
0.466777 -0.457109 -0.564 176 176 174
0.467851 -0.457109 -0.564 174 174 172
0.468926 -0.457109 -0.564 195 195 195
0.47 -0.457109 -0.564 204 204 204
0.471074 -0.457109 -0.564 202 200 203
0.472149 -0.457109 -0.564 205 203 206
0.473223 -0.457109 -0.564 192 201 218
0.474297 -0.457109 -0.564 172 181 198
0.475371 -0.457109 -0.564 83 114 160
0.476446 -0.457109 -0.564 83 114 160
0.47752 -0.457109 -0.564 60 91 137
0.478594 -0.457109 -0.564 51 91 150
0.479669 -0.457109 -0.564 60 100 159
0.480743 -0.457109 -0.564 74 112 174
0.481817 -0.457109 -0.564 63 101 163
0.483748 -0.457919 -0.565 41 80 145
0.484824 -0.457919 -0.565 34 73 138
0.4859 -0.457919 -0.565 33 73 135
0.486976 -0.457919 -0.565 29 69 131
0.488052 -0.457919 -0.565 29 68 135
0.489129 -0.457919 -0.565 37 76 143
0.490205 -0.457919 -0.565 36 74 137
0.491281 -0.457919 -0.565 35 73 136
0.492357 -0.457919 -0.565 36 71 137
0.49256 -0.457109 -0.564 52 87 153
0.493634 -0.457109 -0.564 58 98 157
0.494709 -0.457109 -0.564 54 94 153
0.495783 -0.457109 -0.564 51 91 142
0.496857 -0.457109 -0.564 45 85 136
0.497931 -0.457109 -0.564 78 99 142
0.509901 -0.444141 -0.548 107 107 115
0.50535 -0.439278 -0.542 98 93 99
0.4371 -0.376871 -0.465 42 35 42
0.434218 -0.37363 -0.461 37 30 37
0.432265 -0.371198 -0.458 31 25 35
0.431246 -0.369577 -0.456 29 23 33
0.429271 -0.367146 -0.453 27 24 35
0.429185 -0.366335 -0.452 27 24 35
0.430046 -0.366335 -0.452 27 24 35
0.429 -0.364714 -0.45 27 26 32
0.428902 -0.363904 -0.449 22 21 27
0.4288 -0.363093 -0.448 27 26 32
0.428694 -0.362283 -0.447 25 24 30
0.428585 -0.361472 -0.446 26 25 31
0.428471 -0.360662 -0.445 26 25 31
0.428354 -0.359851 -0.444 20 19 25
0.428233 -0.359041 -0.443 25 24 30
0.428109 -0.35823 -0.442 26 23 30
0.42895 -0.35823 -0.442 23 20 27
0.42882 -0.35742 -0.441 23 20 27
0.42966 -0.35742 -0.441 26 23 30
0.429524 -0.35661 -0.44 26 23 30
0.429384 -0.355799 -0.439 24 21 28
0.42924 -0.354989 -0.438 23 20 27
0.430074 -0.354989 -0.438 23 20 27
0.429925 -0.354178 -0.437 26 23 30
0.429771 -0.353368 -0.436 24 21 28
0.430602 -0.353368 -0.436 24 21 28
0.430443 -0.352557 -0.435 23 20 27
0.43028 -0.351747 -0.434 22 19 26
0.431107 -0.351747 -0.434 25 22 29
0.430938 -0.350936 -0.433 25 22 29
0.430766 -0.350126 -0.432 21 18 25
0.43059 -0.349315 -0.431 25 22 29
0.43041 -0.348505 -0.43 25 22 29
0.430226 -0.347694 -0.429 22 19 26
0.431043 -0.347694 -0.429 20 17 24
0.430853 -0.346884 -0.428 22 19 26
0.431669 -0.346884 -0.428 22 19 26
0.431473 -0.346073 -0.427 21 18 25
0.432287 -0.346073 -0.427 22 19 26
0.432086 -0.345263 -0.426 23 20 27
0.431881 -0.344452 -0.425 22 19 26
0.43269 -0.344452 -0.425 24 21 28
0.43248 -0.343642 -0.424 24 21 28
0.433288 -0.343642 -0.424 21 18 25
0.434095 -0.343642 -0.424 22 19 26
0.433877 -0.342831 -0.423 24 21 28
0.434683 -0.342831 -0.423 22 19 26
0.434459 -0.342021 -0.422 20 17 24
0.434231 -0.34121 -0.421 28 25 32
0.435033 -0.34121 -0.421 26 23 30
0.435835 -0.34121 -0.421 20 17 24
0.4356 -0.3404 -0.42 21 18 25
0.4364 -0.3404 -0.42 24 21 28
0.436159 -0.33959 -0.419 22 19 26
0.436957 -0.33959 -0.419 22 19 26
0.43671 -0.338779 -0.418 22 19 26
0.437507 -0.338779 -0.418 25 22 29
0.437254 -0.337969 -0.417 21 18 25
0.438049 -0.337969 -0.417 19 16 23
0.43779 -0.337158 -0.416 25 24 30
0.438583 -0.337158 -0.416 26 25 31
0.439375 -0.337158 -0.416 21 20 26
0.43911 -0.336348 -0.415 22 21 27
0.4399 -0.336348 -0.415 23 22 28
0.439629 -0.335537 -0.414 24 23 29
0.440417 -0.335537 -0.414 23 22 28
0.441206 -0.335537 -0.414 24 23 29
0.440927 -0.334727 -0.413 25 24 30
0.441713 -0.334727 -0.413 23 22 28
0.4425 -0.334727 -0.413 21 20 26
0.443287 -0.334727 -0.413 22 21 27
0.442998 -0.333916 -0.412 21 18 25
0.443783 -0.333916 -0.412 20 17 24
0.444568 -0.333916 -0.412 29 28 34
0.444271 -0.333106 -0.411 29 28 34
0.445054 -0.333106 -0.411 23 22 28
0.445837 -0.333106 -0.411 26 25 31
0.445533 -0.332295 -0.41 27 26 32
0.446314 -0.332295 -0.41 24 23 29
0.447095 -0.332295 -0.41 22 21 27
0.447876 -0.332295 -0.41 23 22 28
0.447563 -0.331485 -0.409 21 22 27
0.448342 -0.331485 -0.409 21 22 27
0.449121 -0.331485 -0.409 23 24 29
0.4488 -0.330674 -0.408 23 24 29
0.449577 -0.330674 -0.408 22 23 28
0.450354 -0.330674 -0.408 21 22 27
0.451131 -0.330674 -0.408 22 21 27
0.451909 -0.330674 -0.408 22 21 27
0.452686 -0.330674 -0.408 21 20 26
0.453463 -0.330674 -0.408 22 21 27
0.45424 -0.330674 -0.408 23 22 28
0.453902 -0.329864 -0.407 21 20 26
0.454677 -0.329864 -0.407 20 19 25
0.455452 -0.329864 -0.407 23 22 28
0.456228 -0.329864 -0.407 25 24 30
0.457003 -0.329864 -0.407 24 23 29
0.457778 -0.329864 -0.407 25 24 30
0.458553 -0.329864 -0.407 25 24 30
0.459329 -0.329864 -0.407 24 23 29
0.460104 -0.329864 -0.407 26 25 31
0.460879 -0.329864 -0.407 27 26 32
0.461654 -0.329864 -0.407 26 25 31
0.46243 -0.329864 -0.407 26 25 31
0.463205 -0.329864 -0.407 29 28 34
0.46398 -0.329864 -0.407 28 27 33
0.464755 -0.329864 -0.407 29 28 34
0.466674 -0.330674 -0.408 30 29 35
0.467451 -0.330674 -0.408 30 29 35
0.468229 -0.330674 -0.408 31 30 36
0.470155 -0.331485 -0.409 29 28 34
0.470934 -0.331485 -0.409 28 27 33
0.471713 -0.331485 -0.409 28 27 33
0.473648 -0.332295 -0.41 29 28 34
0.474429 -0.332295 -0.41 30 29 35
0.476369 -0.333106 -0.411 31 30 36
0.477151 -0.333106 -0.411 31 30 36
0.479097 -0.333916 -0.412 32 31 37
0.481047 -0.334727 -0.413 33 32 38
0.0136029 -0.42975 -0.529 192 152 126
0.0145276 -0.427312 -0.526 191 151 125
0.015441 -0.424875 -0.523 189 149 123
0.0163429 -0.422438 -0.52 188 148 122
0.0172333 -0.420001 -0.517 190 148 123
0.0181124 -0.417564 -0.514 193 151 126
0.01898 -0.415127 -0.511 196 152 125
0.0198752 -0.413502 -0.509 196 152 125
0.0208038 -0.41269 -0.508 197 153 126
0.0217286 -0.411877 -0.507 197 153 126
0.0226495 -0.411065 -0.506 196 152 125
0.0235667 -0.410252 -0.505 195 151 124
0.0245286 -0.410252 -0.505 196 150 124
0.0254905 -0.410252 -0.505 195 149 123
0.0264 -0.40944 -0.504 193 149 120
0.02736 -0.40944 -0.504 196 152 123
0.02832 -0.40944 -0.504 199 155 126
0.02928 -0.40944 -0.504 199 155 126
0.03024 -0.40944 -0.504 197 153 124
0.0312 -0.40944 -0.504 197 153 124
0.03216 -0.40944 -0.504 197 153 124
0.03312 -0.40944 -0.504 195 151 122
0.03408 -0.40944 -0.504 197 152 123
0.03504 -0.40944 -0.504 199 154 125
0.036 -0.40944 -0.504 201 156 125
0.03696 -0.40944 -0.504 201 156 125
0.0379952 -0.410252 -0.505 200 155 124
0.0389571 -0.410252 -0.505 201 156 125
0.03984 -0.40944 -0.504 201 156 125
0.0408 -0.40944 -0.504 200 155 124
0.04176 -0.40944 -0.504 200 153 125
0.04272 -0.40944 -0.504 199 152 124
0.0437667 -0.410252 -0.505 198 151 123
0.0447286 -0.410252 -0.505 198 151 123
0.0456 -0.40944 -0.504 199 152 124
0.04656 -0.40944 -0.504 198 151 123
0.04752 -0.40944 -0.504 198 151 123
0.04848 -0.40944 -0.504 198 151 123
0.04944 -0.40944 -0.504 199 152 124
0.0504 -0.40944 -0.504 198 151 123
0.05136 -0.40944 -0.504 197 150 122
0.05232 -0.40944 -0.504 198 151 123
0.05328 -0.40944 -0.504 200 153 125
0.05424 -0.40944 -0.504 202 155 127
0.0553095 -0.410252 -0.505 200 153 125
0.0562714 -0.410252 -0.505 197 150 122
0.0572333 -0.410252 -0.505 197 150 120
0.0581952 -0.410252 -0.505 197 150 120
0.0591571 -0.410252 -0.505 197 150 120
0.060119 -0.410252 -0.505 197 150 120
0.061081 -0.410252 -0.505 197 150 120
0.0621657 -0.411065 -0.506 195 148 118
0.0631295 -0.411065 -0.506 194 149 118
0.0640933 -0.411065 -0.506 195 150 119
0.0651857 -0.411877 -0.507 195 150 119
0.0661514 -0.411877 -0.507 193 148 117
0.0672495 -0.41269 -0.508 192 147 118
0.0682171 -0.41269 -0.508 192 147 118
0.069321 -0.413502 -0.509 189 145 116
0.0702905 -0.413502 -0.509 187 143 114
0.0714 -0.414314 -0.51 187 143 114
0.0725133 -0.415127 -0.511 187 143 114
0.0734867 -0.415127 -0.511 187 142 111
0.0746057 -0.415939 -0.512 188 143 112
0.0757286 -0.416751 -0.513 186 141 112
0.0767057 -0.416751 -0.513 183 138 109
0.0778343 -0.417564 -0.514 180 136 109
0.0789667 -0.418376 -0.515 178 134 107
0.0801029 -0.419189 -0.516 175 131 106
0.0812429 -0.420001 -0.517 170 126 101
0.0823867 -0.420813 -0.518 170 125 104
0.0835343 -0.421626 -0.519 167 122 101
0.0846857 -0.422438 -0.52 160 117 100
0.085841 -0.42325 -0.521 159 116 99
0.087 -0.424063 -0.522 156 113 97
0.0881629 -0.424875 -0.523 153 110 94
0.0893295 -0.425688 -0.524 152 109 93
0.0906724 -0.427312 -0.526 151 108 92
0.0918486 -0.428125 -0.527 145 107 88
0.0932048 -0.42975 -0.529 143 105 86
0.0943905 -0.430562 -0.53 131 101 90
0.09576 -0.432187 -0.532 126 96 85
0.109476 -0.44681 -0.55 102 90 94
0.110725 -0.447622 -0.551 84 77 85
0.111977 -0.448434 -0.552 48 41 49
0.113029 -0.448434 -0.552 36 38 59
0.114287 -0.449247 -0.553 42 44 65
0.11534 -0.449247 -0.553 55 56 74
0.116393 -0.449247 -0.553 79 80 98
0.117447 -0.449247 -0.553 120 122 134
0.1185 -0.449247 -0.553 146 148 160
0.119553 -0.449247 -0.553 150 151 153
0.120607 -0.449247 -0.553 164 165 167
0.12144 -0.448434 -0.552 163 164 159
0.122491 -0.448434 -0.552 152 153 148
0.123543 -0.448434 -0.552 121 122 117
0.124594 -0.448434 -0.552 132 133 128
0.125646 -0.448434 -0.552 174 172 175
0.126927 -0.449247 -0.553 186 184 187
0.12798 -0.449247 -0.553 188 185 192
0.129033 -0.449247 -0.553 183 180 187
0.130087 -0.449247 -0.553 185 186 191
0.130903 -0.448434 -0.552 193 194 199
0.131954 -0.448434 -0.552 198 198 208
0.133006 -0.448434 -0.552 204 204 214
0.134057 -0.448434 -0.552 201 203 215
0.135109 -0.448434 -0.552 204 206 218
0.13616 -0.448434 -0.552 204 208 219
0.137211 -0.448434 -0.552 205 209 220
0.138263 -0.448434 -0.552 208 215 225
0.139314 -0.448434 -0.552 211 218 228
0.140366 -0.448434 -0.552 208 217 232
0.141417 -0.448434 -0.552 197 206 221
0.142469 -0.448434 -0.552 164 178 204
0.14352 -0.448434 -0.552 142 156 182
0.144571 -0.448434 -0.552 116 134 170
0.145623 -0.448434 -0.552 113 131 167
0.146674 -0.448434 -0.552 117 134 162
0.147726 -0.448434 -0.552 154 171 199
0.148777 -0.448434 -0.552 194 206 228
0.149829 -0.448434 -0.552 214 226 248
0.164549 -0.448434 -0.552 140 164 192
0.1656 -0.448434 -0.552 140 164 192
0.166651 -0.448434 -0.552 143 168 199
0.167703 -0.448434 -0.552 150 175 206
0.168754 -0.448434 -0.552 178 195 225
0.169806 -0.448434 -0.552 198 215 245
0.170857 -0.448434 -0.552 221 230 247
0.171909 -0.448434 -0.552 231 240 255
0.17296 -0.448434 -0.552 233 241 254
0.174011 -0.448434 -0.552 229 237 250
0.175063 -0.448434 -0.552 205 223 243
0.176114 -0.448434 -0.552 167 185 205
0.19118 -0.449247 -0.553 239 244 247
0.192233 -0.449247 -0.553 235 242 250
0.193287 -0.449247 -0.553 235 242 250
0.19434 -0.449247 -0.553 233 237 249
0.195393 -0.449247 -0.553 236 240 252
0.196447 -0.449247 -0.553 239 242 249
0.1975 -0.449247 -0.553 237 240 247
0.198553 -0.449247 -0.553 239 244 247
0.199607 -0.449247 -0.553 240 245 248
0.20066 -0.449247 -0.553 236 243 253
0.201713 -0.449247 -0.553 235 242 252
0.202767 -0.449247 -0.553 237 243 255
0.20382 -0.449247 -0.553 236 242 255
0.229514 -0.450059 -0.554 156 189 230
0.23057 -0.450059 -0.554 140 173 214
0.231625 -0.450059 -0.554 142 172 206
0.23268 -0.450059 -0.554 174 204 238
0.257414 -0.450871 -0.555 233 237 246
0.258471 -0.450871 -0.555 231 235 244
0.259529 -0.450871 -0.555 229 233 242
0.260586 -0.450871 -0.555 234 238 247
0.389867 -0.454933 -0.56 225 225 235
0.390933 -0.454933 -0.56 228 228 238
0.392 -0.454933 -0.56 227 227 237
0.393067 -0.454933 -0.56 229 229 239
0.394133 -0.454933 -0.56 231 228 237
0.3952 -0.454933 -0.56 230 227 236
0.396267 -0.454933 -0.56 231 230 236
0.397333 -0.454933 -0.56 227 226 232
0.3984 -0.454933 -0.56 227 230 237
0.399467 -0.454933 -0.56 227 230 237
0.400533 -0.454933 -0.56 221 228 236
0.423689 -0.455746 -0.561 69 108 163
0.424757 -0.455746 -0.561 89 129 181
0.425826 -0.455746 -0.561 140 180 232
0.426894 -0.455746 -0.561 140 180 232
0.427963 -0.455746 -0.561 163 188 218
0.429031 -0.455746 -0.561 162 187 217
0.433008 -0.456558 -0.562 135 157 181
0.434078 -0.456558 -0.562 124 146 170
0.435149 -0.456558 -0.562 141 156 175
0.436219 -0.456558 -0.562 148 163 182
0.43836 -0.456558 -0.562 190 192 207
0.43943 -0.456558 -0.562 217 214 223
0.440501 -0.456558 -0.562 213 210 219
0.441571 -0.456558 -0.562 211 212 216
0.442642 -0.456558 -0.562 212 213 217
0.444502 -0.45737 -0.563 210 215 219
0.445574 -0.45737 -0.563 210 215 219
0.446647 -0.45737 -0.563 215 220 226
0.447719 -0.45737 -0.563 213 218 224
0.448791 -0.45737 -0.563 212 215 224
0.449864 -0.45737 -0.563 209 212 221
0.451737 -0.458183 -0.564 211 214 221
0.452811 -0.458183 -0.564 208 211 218
0.453886 -0.458183 -0.564 196 199 206
0.45496 -0.458183 -0.564 188 191 198
0.456034 -0.458183 -0.564 192 195 202
0.457109 -0.458183 -0.564 206 209 216
0.458183 -0.458183 -0.564 204 207 214
0.460071 -0.458995 -0.565 204 207 214
0.461148 -0.458995 -0.565 204 207 212
0.462224 -0.458995 -0.565 203 206 211
0.4633 -0.458995 -0.565 203 206 211
0.463554 -0.458183 -0.564 203 206 211
0.464629 -0.458183 -0.564 204 207 212
0.465703 -0.458183 -0.564 204 207 212
0.466777 -0.458183 -0.564 199 200 202
0.467851 -0.458183 -0.564 167 168 170
0.468926 -0.458183 -0.564 168 169 171
0.47 -0.458183 -0.564 192 193 195
0.471074 -0.458183 -0.564 206 205 211
0.472149 -0.458183 -0.564 197 196 202
0.473223 -0.458183 -0.564 169 181 203
0.474297 -0.458183 -0.564 143 155 177
0.475371 -0.458183 -0.564 90 122 161
0.476446 -0.458183 -0.564 66 98 137
0.47752 -0.458183 -0.564 66 98 137
0.478594 -0.458183 -0.564 82 119 164
0.479669 -0.458183 -0.564 100 137 182
0.480743 -0.458183 -0.564 109 142 193
0.481817 -0.458183 -0.564 98 131 182
0.482891 -0.458183 -0.564 56 98 158
0.483966 -0.458183 -0.564 35 77 137
0.48504 -0.458183 -0.564 41 81 143
0.486114 -0.458183 -0.564 40 80 142
0.487189 -0.458183 -0.564 39 80 144
0.488263 -0.458183 -0.564 46 87 151
0.489337 -0.458183 -0.564 44 84 145
0.490411 -0.458183 -0.564 37 77 138
0.491486 -0.458183 -0.564 34 72 134
0.49256 -0.458183 -0.564 65 103 165
0.493634 -0.458183 -0.564 87 124 176
0.496857 -0.458183 -0.564 58 91 132
0.50897 -0.444372 -0.547 118 121 130
0.503486 -0.438686 -0.54 89 86 93
0.43616 -0.376945 -0.464 30 25 32
0.434218 -0.374508 -0.461 29 24 31
0.431321 -0.371258 -0.457 26 23 32
0.4303 -0.369633 -0.455 25 22 31
0.429271 -0.368009 -0.453 23 21 32
0.428235 -0.366384 -0.451 23 21 32
0.428143 -0.365571 -0.45 27 26 32
0.429 -0.365571 -0.45 27 26 32
0.427947 -0.363947 -0.448 23 22 28
0.4288 -0.363947 -0.448 26 25 31
0.428694 -0.363134 -0.447 26 25 31
0.428585 -0.362322 -0.446 25 24 30
0.428471 -0.36151 -0.445 24 23 29
0.428354 -0.360697 -0.444 19 18 24
0.428233 -0.359885 -0.443 23 22 28
0.428109 -0.359072 -0.442 25 22 29
0.42895 -0.359072 -0.442 22 19 26
0.42882 -0.35826 -0.441 23 20 27
0.428686 -0.357448 -0.44 25 22 29
0.429524 -0.357448 -0.44 26 23 30
0.429384 -0.356635 -0.439 23 20 27
0.42924 -0.355823 -0.438 22 19 26
0.430074 -0.355823 -0.438 23 20 27
0.429925 -0.35501 -0.437 25 22 29
0.429771 -0.354198 -0.436 25 22 29
0.430602 -0.354198 -0.436 23 20 27
0.430443 -0.353386 -0.435 22 19 26
0.43028 -0.352573 -0.434 22 19 26
0.431107 -0.352573 -0.434 23 20 27
0.430938 -0.351761 -0.433 24 21 28
0.430766 -0.350949 -0.432 21 18 25
0.43059 -0.350136 -0.431 23 20 27
0.43041 -0.349324 -0.43 24 21 28
0.430226 -0.348511 -0.429 23 20 27
0.431043 -0.348511 -0.429 22 19 26
0.430853 -0.347699 -0.428 23 20 27
0.431669 -0.347699 -0.428 23 20 27
0.431473 -0.346887 -0.427 22 19 26
0.431274 -0.346074 -0.426 22 19 26
0.432086 -0.346074 -0.426 24 21 28
0.431881 -0.345262 -0.425 20 17 24
0.431672 -0.34445 -0.424 22 19 26
0.43248 -0.34445 -0.424 24 21 28
0.433288 -0.34445 -0.424 21 18 25
0.433071 -0.343637 -0.423 21 18 25
0.433877 -0.343637 -0.423 24 21 28
0.433655 -0.342825 -0.422 23 20 27
0.434459 -0.342825 -0.422 20 17 24
0.434231 -0.342012 -0.421 26 23 30
0.435033 -0.342012 -0.421 27 24 31
0.4348 -0.3412 -0.42 22 19 26
0.4356 -0.3412 -0.42 21 18 25
0.435361 -0.340388 -0.419 24 21 28
0.436159 -0.340388 -0.419 24 21 28
0.435914 -0.339575 -0.418 22 19 26
0.43671 -0.339575 -0.418 23 20 27
0.437507 -0.339575 -0.418 25 22 29
0.437254 -0.338763 -0.417 22 19 26
0.438049 -0.338763 -0.417 19 16 23
0.43779 -0.33795 -0.416 23 20 27
0.438583 -0.33795 -0.416 25 22 29
0.438319 -0.337138 -0.415 24 21 28
0.43911 -0.337138 -0.415 24 21 28
0.4399 -0.337138 -0.415 25 22 29
0.439629 -0.336326 -0.414 26 23 30
0.440417 -0.336326 -0.414 24 21 28
0.441206 -0.336326 -0.414 24 21 28
0.440927 -0.335513 -0.413 25 24 30
0.441713 -0.335513 -0.413 23 22 28
0.4425 -0.335513 -0.413 21 20 26
0.443287 -0.335513 -0.413 24 23 29
0.442998 -0.334701 -0.412 23 20 27
0.443783 -0.334701 -0.412 20 17 24
0.444568 -0.334701 -0.412 29 28 34
0.444271 -0.333889 -0.411 29 28 34
0.445054 -0.333889 -0.411 21 20 26
0.445837 -0.333889 -0.411 23 22 28
0.445533 -0.333076 -0.41 25 24 30
0.446314 -0.333076 -0.41 24 23 29
0.447095 -0.333076 -0.41 22 21 27
0.447876 -0.333076 -0.41 21 20 26
0.447563 -0.332264 -0.409 20 21 26
0.448342 -0.332264 -0.409 20 21 26
0.449121 -0.332264 -0.409 20 21 26
0.4488 -0.331451 -0.408 22 23 28
0.449577 -0.331451 -0.408 22 23 28
0.450354 -0.331451 -0.408 20 21 26
0.451131 -0.331451 -0.408 22 21 27
0.451909 -0.331451 -0.408 23 22 28
0.452686 -0.331451 -0.408 21 20 26
0.453463 -0.331451 -0.408 22 21 27
0.453127 -0.330639 -0.407 24 23 29
0.453902 -0.330639 -0.407 23 22 28
0.454677 -0.330639 -0.407 21 20 26
0.454333 -0.329827 -0.406 24 23 29
0.455107 -0.329827 -0.406 26 25 31
0.45588 -0.329827 -0.406 23 22 28
0.456653 -0.329827 -0.406 26 25 31
0.458553 -0.330639 -0.407 28 27 33
0.459329 -0.330639 -0.407 25 24 30
0.460104 -0.330639 -0.407 25 24 30
0.460879 -0.330639 -0.407 27 26 32
0.461654 -0.330639 -0.407 25 24 30
0.461293 -0.329827 -0.406 25 24 30
0.462067 -0.329827 -0.406 27 26 32
0.46398 -0.330639 -0.407 27 26 32
0.464755 -0.330639 -0.407 27 26 32
0.46553 -0.330639 -0.407 29 28 34
0.466306 -0.330639 -0.407 31 30 36
0.468229 -0.331451 -0.408 31 30 36
0.469006 -0.331451 -0.408 30 29 35
0.469783 -0.331451 -0.408 26 25 31
0.471713 -0.332264 -0.409 27 26 32
0.472492 -0.332264 -0.409 27 26 32
0.474429 -0.333076 -0.41 28 27 33
0.47521 -0.333076 -0.41 31 30 36
0.477151 -0.333889 -0.411 32 31 37
0.477934 -0.333889 -0.411 33 32 38
0.479882 -0.334701 -0.412 34 33 39
0.0125952 -0.430757 -0.529 191 151 125
0.0135257 -0.428314 -0.526 190 153 126
0.0144448 -0.425871 -0.523 188 151 124
0.0153524 -0.423429 -0.52 188 148 122
0.0162486 -0.420986 -0.517 187 147 121
0.0171333 -0.418543 -0.514 193 149 122
0.0180067 -0.4161 -0.511 196 152 125
0.0189057 -0.414471 -0.509 193 149 122
0.0198362 -0.413657 -0.508 193 149 122
0.0207219 -0.412029 -0.506 192 151 123
0.0216857 -0.412029 -0.506 193 152 124
0.0226048 -0.411214 -0.505 194 150 121
0.0235667 -0.411214 -0.505 193 149 120
0.02448 -0.4104 -0.504 195 148 118
0.02544 -0.4104 -0.504 194 147 117
0.0263476 -0.409586 -0.503 193 149 120
0.0273057 -0.409586 -0.503 196 152 123
0.0282638 -0.409586 -0.503 199 155 126
0.0292219 -0.409586 -0.503 199 155 126
0.03018 -0.409586 -0.503 197 153 124
0.0312 -0.4104 -0.504 196 152 123
0.03216 -0.4104 -0.504 197 154 122
0.03312 -0.4104 -0.504 195 152 120
0.03408 -0.4104 -0.504 198 153 122
0.03504 -0.4104 -0.504 198 153 122
0.036 -0.4104 -0.504 199 154 123
0.03696 -0.4104 -0.504 200 155 124
0.03792 -0.4104 -0.504 200 155 124
0.03888 -0.4104 -0.504 200 155 124
0.03984 -0.4104 -0.504 200 155 124
0.0408 -0.4104 -0.504 199 154 123
0.0416771 -0.409586 -0.503 197 152 121
0.0426352 -0.409586 -0.503 198 153 122
0.0435933 -0.409586 -0.503 199 154 123
0.04464 -0.4104 -0.504 199 152 124
0.0456 -0.4104 -0.504 199 152 124
0.04656 -0.4104 -0.504 199 152 124
0.04752 -0.4104 -0.504 199 152 124
0.04848 -0.4104 -0.504 199 152 124
0.04944 -0.4104 -0.504 200 153 125
0.0504 -0.4104 -0.504 199 152 124
0.05136 -0.4104 -0.504 199 152 124
0.0522162 -0.409586 -0.503 199 152 124
0.05328 -0.4104 -0.504 200 153 125
0.05424 -0.4104 -0.504 200 153 125
0.0552 -0.4104 -0.504 200 153 125
0.05616 -0.4104 -0.504 197 150 122
0.05712 -0.4104 -0.504 195 150 119
0.05808 -0.4104 -0.504 196 151 120
0.05904 -0.4104 -0.504 195 150 119
0.060119 -0.411214 -0.505 195 150 119
0.061081 -0.411214 -0.505 195 150 119
0.0620429 -0.411214 -0.505 194 149 118
0.0631295 -0.412029 -0.506 193 148 117
0.0640933 -0.412029 -0.506 195 150 119
0.0651857 -0.412843 -0.507 195 150 119
0.0661514 -0.412843 -0.507 193 148 117
0.0671171 -0.412843 -0.507 192 147 118
0.0682171 -0.413657 -0.508 191 146 117
0.069321 -0.414471 -0.509 188 144 115
0.0702905 -0.414471 -0.509 186 142 113
0.0714 -0.415286 -0.51 186 142 113
0.0723714 -0.415286 -0.51 186 142 113
0.0734867 -0.4161 -0.511 185 140 109
0.0746057 -0.416914 -0.512 188 143 112
0.075581 -0.416914 -0.512 185 141 112
0.0767057 -0.417729 -0.513 179 135 106
0.0778343 -0.418543 -0.514 176 132 105
0.0789667 -0.419357 -0.515 177 133 106
0.0801029 -0.420171 -0.516 174 130 105
0.0812429 -0.420986 -0.517 170 126 101
0.0823867 -0.4218 -0.518 168 123 102
0.0835343 -0.422614 -0.519 166 121 100
0.0846857 -0.423429 -0.52 160 117 100
0.085841 -0.424243 -0.521 159 116 99
0.087 -0.425057 -0.522 156 113 97
0.0881629 -0.425871 -0.523 152 109 93
0.0895 -0.4275 -0.525 150 107 91
0.0906724 -0.428314 -0.526 149 106 90
0.0918486 -0.429129 -0.527 142 105 87
0.0932048 -0.430757 -0.529 140 103 85
0.0945686 -0.432386 -0.531 129 101 90
0.09594 -0.434014 -0.533 124 96 85
0.109476 -0.447857 -0.55 98 87 91
0.110725 -0.448671 -0.551 81 76 83
0.111774 -0.448671 -0.551 59 54 61
0.113029 -0.449486 -0.552 44 46 67
0.11408 -0.449486 -0.552 40 42 63
0.115131 -0.449486 -0.552 48 51 70
0.116183 -0.449486 -0.552 71 74 93
0.117234 -0.449486 -0.552 117 119 134
0.118286 -0.449486 -0.552 146 148 163
0.119337 -0.449486 -0.552 152 153 158
0.120389 -0.449486 -0.552 162 163 168
0.12144 -0.449486 -0.552 146 148 145
0.12227 -0.448671 -0.551 119 121 118
0.123543 -0.449486 -0.552 119 120 115
0.124594 -0.449486 -0.552 164 165 160
0.125646 -0.449486 -0.552 186 186 188
0.126697 -0.449486 -0.552 183 183 185
0.127749 -0.449486 -0.552 188 185 196
0.1288 -0.449486 -0.552 172 169 180
0.129851 -0.449486 -0.552 176 178 190
0.130903 -0.449486 -0.552 189 191 203
0.131954 -0.449486 -0.552 195 197 210
0.133006 -0.449486 -0.552 200 202 215
0.134057 -0.449486 -0.552 200 204 216
0.135109 -0.449486 -0.552 203 207 219
0.13616 -0.449486 -0.552 205 209 220
0.137211 -0.449486 -0.552 207 211 222
0.138263 -0.449486 -0.552 208 215 223
0.139062 -0.448671 -0.551 206 213 221
0.140111 -0.448671 -0.551 207 219 235
0.141161 -0.448671 -0.551 186 198 214
0.142469 -0.449486 -0.552 133 148 177
0.14352 -0.449486 -0.552 111 126 155
0.144571 -0.449486 -0.552 109 127 167
0.145359 -0.448671 -0.551 123 141 181
0.146409 -0.448671 -0.551 164 180 206
0.147458 -0.448671 -0.551 197 213 239
0.148508 -0.448671 -0.551 213 224 242
0.149557 -0.448671 -0.551 214 225 243
0.150607 -0.448671 -0.551 215 224 239
0.151656 -0.448671 -0.551 222 231 246
0.152706 -0.448671 -0.551 211 224 243
0.153755 -0.448671 -0.551 191 204 223
0.154805 -0.448671 -0.551 165 186 217
0.155854 -0.448671 -0.551 144 165 196
0.156904 -0.448671 -0.551 136 162 199
0.157953 -0.448671 -0.551 136 162 199
0.159003 -0.448671 -0.551 140 166 203
0.160052 -0.448671 -0.551 151 180 214
0.161102 -0.448671 -0.551 163 192 226
0.162151 -0.448671 -0.551 157 184 213
0.163201 -0.448671 -0.551 143 170 199
0.18032 -0.449486 -0.552 156 176 209
0.181371 -0.449486 -0.552 188 204 230
0.182423 -0.449486 -0.552 216 232 255
0.183474 -0.449486 -0.552 232 241 250
0.184526 -0.449486 -0.552 220 229 238
0.185577 -0.449486 -0.552 198 199 203
0.186629 -0.449486 -0.552 210 211 215
0.18768 -0.449486 -0.552 233 236 243
0.188731 -0.449486 -0.552 235 238 245
0.189783 -0.449486 -0.552 237 244 250
0.190834 -0.449486 -0.552 235 242 248
0.205927 -0.4503 -0.553 234 238 247
0.20698 -0.4503 -0.553 213 224 242
0.208033 -0.4503 -0.553 186 197 215
0.209087 -0.4503 -0.553 158 179 210
0.21014 -0.4503 -0.553 137 158 189
0.211193 -0.4503 -0.553 132 152 185
0.246398 -0.451114 -0.554 214 220 236
0.247453 -0.451114 -0.554 212 218 234
0.259529 -0.451929 -0.555 222 229 237
0.260586 -0.451929 -0.555 230 237 245
0.261643 -0.451929 -0.555 230 237 245
0.2627 -0.451929 -0.555 228 235 245
0.263757 -0.451929 -0.555 232 239 249
0.264814 -0.451929 -0.555 232 239 249
0.265871 -0.451929 -0.555 233 240 250
0.266929 -0.451929 -0.555 234 238 249
0.267986 -0.451929 -0.555 233 237 248
0.269043 -0.451929 -0.555 237 241 253
0.325182 -0.453557 -0.557 224 231 241
0.326243 -0.453557 -0.557 228 232 241
0.327304 -0.453557 -0.557 228 232 241
0.328365 -0.453557 -0.557 230 234 243
0.329426 -0.453557 -0.557 229 233 242
0.330487 -0.453557 -0.557 227 233 245
0.331548 -0.453557 -0.557 227 233 245
0.3534 -0.454371 -0.558 151 174 205
0.354463 -0.454371 -0.558 135 158 189
0.355526 -0.454371 -0.558 144 177 218
0.356589 -0.454371 -0.558 146 179 220
0.357651 -0.454371 -0.558 134 168 214
0.358714 -0.454371 -0.558 130 164 210
0.429031 -0.456814 -0.561 188 206 226
0.4301 -0.456814 -0.561 197 209 225
0.431169 -0.456814 -0.561 206 218 234
0.432237 -0.456814 -0.561 175 192 210
0.433306 -0.456814 -0.561 127 144 162
0.434374 -0.456814 -0.561 127 144 164
0.435443 -0.456814 -0.561 133 150 170
0.436511 -0.456814 -0.561 171 177 193
0.43758 -0.456814 -0.561 198 204 220
0.438649 -0.456814 -0.561 211 210 218
0.440501 -0.457629 -0.562 212 211 219
0.441571 -0.457629 -0.562 213 214 218
0.442642 -0.457629 -0.562 215 216 220
0.443712 -0.457629 -0.562 212 217 221
0.444783 -0.457629 -0.562 210 215 219
0.446647 -0.458443 -0.563 212 216 225
0.447719 -0.458443 -0.563 210 214 223
0.448791 -0.458443 -0.563 212 212 220
0.449864 -0.458443 -0.563 209 209 217
0.450936 -0.458443 -0.563 212 212 220
0.452009 -0.458443 -0.563 211 211 219
0.453081 -0.458443 -0.563 207 208 213
0.454153 -0.458443 -0.563 203 204 209
0.456034 -0.459257 -0.564 202 203 208
0.457109 -0.459257 -0.564 208 209 214
0.458183 -0.459257 -0.564 207 208 213
0.459257 -0.459257 -0.564 206 207 212
0.460331 -0.459257 -0.564 206 207 212
0.461406 -0.459257 -0.564 205 206 211
0.46248 -0.459257 -0.564 205 206 211
0.463554 -0.459257 -0.564 205 206 211
0.464629 -0.459257 -0.564 203 204 209
0.464877 -0.458443 -0.563 204 205 210
0.46595 -0.458443 -0.563 206 207 209
0.467022 -0.458443 -0.563 193 194 196
0.468094 -0.458443 -0.563 157 156 161
0.469167 -0.458443 -0.563 157 156 161
0.470239 -0.458443 -0.563 194 192 203
0.471311 -0.458443 -0.563 186 184 195
0.472384 -0.458443 -0.563 133 148 169
0.473456 -0.458443 -0.563 100 115 136
0.475371 -0.459257 -0.564 105 134 166
0.476446 -0.459257 -0.564 118 147 179
0.47752 -0.459257 -0.564 118 147 179
0.478594 -0.459257 -0.564 139 166 196
0.479669 -0.459257 -0.564 132 159 189
0.480743 -0.459257 -0.564 133 159 196
0.481817 -0.459257 -0.564 133 159 196
0.482035 -0.458443 -0.563 82 122 174
0.483108 -0.458443 -0.563 47 87 139
0.48418 -0.458443 -0.563 50 91 153
0.485252 -0.458443 -0.563 51 92 154
0.486325 -0.458443 -0.563 51 95 158
0.487397 -0.458443 -0.563 61 105 168
0.48847 -0.458443 -0.563 58 103 162
0.489542 -0.458443 -0.563 45 90 149
0.491486 -0.459257 -0.564 37 77 136
0.49256 -0.459257 -0.564 78 118 177
0.492759 -0.458443 -0.563 111 145 190
0.493831 -0.458443 -0.563 107 141 186
0.494904 -0.458443 -0.563 117 144 174
0.495976 -0.458443 -0.563 104 131 161
0.497049 -0.458443 -0.563 90 105 134
0.498121 -0.458443 -0.563 95 110 139
0.50897 -0.445414 -0.547 98 98 108
0.503486 -0.439714 -0.54 74 73 81
0.43522 -0.377014 -0.463 29 26 33
0.432334 -0.373757 -0.459 26 23 30
0.430377 -0.371314 -0.456 25 24 30
0.429354 -0.369686 -0.454 26 25 31
0.428324 -0.368057 -0.452 25 24 32
0.428235 -0.367243 -0.451 26 25 33
0.427191 -0.365614 -0.449 27 26 32
0.427093 -0.3648 -0.448 25 24 30
0.427947 -0.3648 -0.448 25 24 30
0.427843 -0.363986 -0.447 25 24 30
0.427735 -0.363171 -0.446 26 25 31
0.427624 -0.362357 -0.445 24 23 29
0.428471 -0.362357 -0.445 21 20 26
0.428354 -0.361543 -0.444 21 20 26
0.428233 -0.360729 -0.443 23 22 28
0.428109 -0.359914 -0.442 24 21 28
0.42895 -0.359914 -0.442 22 19 26
0.42882 -0.3591 -0.441 23 20 27
0.428686 -0.358286 -0.44 25 22 29
0.429524 -0.358286 -0.44 25 22 29
0.429384 -0.357471 -0.439 23 20 27
0.42924 -0.356657 -0.438 22 19 26
0.430074 -0.356657 -0.438 24 21 28
0.429925 -0.355843 -0.437 25 22 29
0.429771 -0.355029 -0.436 26 23 30
0.430602 -0.355029 -0.436 23 20 27
0.430443 -0.354214 -0.435 21 18 25
0.43028 -0.3534 -0.434 22 19 26
0.430113 -0.352586 -0.433 23 20 27
0.430938 -0.352586 -0.433 24 21 28
0.430766 -0.351771 -0.432 24 21 28
0.43059 -0.350957 -0.431 22 19 26
0.43041 -0.350143 -0.43 23 20 27
0.430226 -0.349329 -0.429 25 22 29
0.431043 -0.349329 -0.429 25 22 29
0.430853 -0.348514 -0.428 24 21 28
0.43066 -0.3477 -0.427 24 21 28
0.431473 -0.3477 -0.427 23 20 27
0.431274 -0.346886 -0.426 21 18 25
0.431071 -0.346071 -0.425 23 20 27
0.431881 -0.346071 -0.425 19 16 23
0.431672 -0.345257 -0.424 21 18 25
0.43248 -0.345257 -0.424 25 22 29
0.432266 -0.344443 -0.423 23 20 27
0.433071 -0.344443 -0.423 23 20 27
0.432851 -0.343629 -0.422 25 22 29
0.433655 -0.343629 -0.422 26 23 30
0.434459 -0.343629 -0.422 24 21 28
0.434231 -0.342814 -0.421 25 22 29
0.435033 -0.342814 -0.421 26 23 30
0.4348 -0.342 -0.42 24 21 28
0.4356 -0.342 -0.42 22 19 26
0.435361 -0.341186 -0.419 24 21 28
0.435118 -0.340371 -0.418 25 22 29
0.435914 -0.340371 -0.418 22 19 26
0.43671 -0.340371 -0.418 22 19 26
0.43646 -0.339557 -0.417 24 21 28
0.437254 -0.339557 -0.417 24 21 28
0.438049 -0.339557 -0.417 22 19 26
0.43779 -0.338743 -0.416 21 18 25
0.438583 -0.338743 -0.416 23 20 27
0.438319 -0.337929 -0.415 25 22 29
0.43911 -0.337929 -0.415 25 22 29
0.43884 -0.337114 -0.414 24 21 28
0.439629 -0.337114 -0.414 26 23 30
0.440417 -0.337114 -0.414 24 21 28
0.441206 -0.337114 -0.414 24 21 28
0.440927 -0.3363 -0.413 26 23 30
0.441713 -0.3363 -0.413 25 22 29
0.4425 -0.3363 -0.413 23 20 27
0.443287 -0.3363 -0.413 26 23 30
0.442998 -0.335486 -0.412 25 24 30
0.443783 -0.335486 -0.412 20 19 25
0.444568 -0.335486 -0.412 26 25 31
