ply
format ascii 1.0
comment Created by Open3D
element vertex 1289
property double x
property double y
property double z
property uchar red
property uchar green
property uchar blue
end_header
0.419397 -0.352245 -0.641 218 225 251
0.420618 -0.352245 -0.641 223 234 254
0.422497 -0.352794 -0.642 219 230 250
0.42372 -0.352794 -0.642 214 221 249
0.424943 -0.352794 -0.642 214 221 249
0.426166 -0.352794 -0.642 204 211 239
0.427389 -0.352794 -0.642 211 216 238
0.428611 -0.352794 -0.642 196 201 223
0.429834 -0.352794 -0.642 156 163 192
0.431057 -0.352794 -0.642 145 152 181
0.432953 -0.353344 -0.643 112 141 201
0.434178 -0.353344 -0.643 77 106 166
0.435403 -0.353344 -0.643 51 90 165
0.435949 -0.352794 -0.642 50 89 164
0.437171 -0.352794 -0.642 53 93 165
0.438394 -0.352794 -0.642 48 88 160
0.439617 -0.352794 -0.642 52 91 168
0.441527 -0.353344 -0.643 44 83 160
0.442751 -0.353344 -0.643 52 97 165
0.443976 -0.353344 -0.643 63 108 176
0.445201 -0.353344 -0.643 109 144 210
0.446426 -0.353344 -0.643 136 171 237
0.44765 -0.353344 -0.643 172 187 226
0.448875 -0.353344 -0.643 145 160 199
0.4501 -0.353344 -0.643 143 148 178
0.451325 -0.353344 -0.643 182 187 217
0.45255 -0.353344 -0.643 185 193 216
0.453774 -0.353344 -0.643 197 205 228
0.454999 -0.353344 -0.643 208 213 235
0.456224 -0.353344 -0.643 204 209 231
0.457449 -0.353344 -0.643 201 211 236
0.458673 -0.353344 -0.643 201 211 236
0.459898 -0.353344 -0.643 186 196 221
0.461123 -0.353344 -0.643 171 187 221
0.462348 -0.353344 -0.643 159 175 209
0.463572 -0.353344 -0.643 82 123 177
0.464797 -0.353344 -0.643 80 121 175
0.466022 -0.353344 -0.643 70 114 179
0.467247 -0.353344 -0.643 76 120 185
0.468471 -0.353344 -0.643 60 108 182
0.469696 -0.353344 -0.643 42 90 164
0.470921 -0.353344 -0.643 35 81 158
0.472146 -0.353344 -0.643 43 89 166
0.47337 -0.353344 -0.643 51 103 176
0.474595 -0.353344 -0.643 62 114 187
0.47582 -0.353344 -0.643 61 103 179
0.477045 -0.353344 -0.643 71 113 189
0.47827 -0.353344 -0.643 72 113 179
0.48024 -0.353893 -0.644 120 161 227
0.481467 -0.353893 -0.644 159 175 209
0.482693 -0.353893 -0.644 170 186 220
0.48392 -0.353893 -0.644 184 194 221
0.485147 -0.353893 -0.644 194 204 231
0.486373 -0.353893 -0.644 193 200 218
0.4876 -0.353893 -0.644 176 183 201
0.488827 -0.353893 -0.644 190 194 203
0.490053 -0.353893 -0.644 168 172 181
0.49128 -0.353893 -0.644 144 152 165
0.492507 -0.353893 -0.644 160 168 181
0.493733 -0.353893 -0.644 160 168 181
0.49496 -0.353893 -0.644 169 182 216
0.496187 -0.353893 -0.644 148 161 195
0.498186 -0.354443 -0.645 104 129 193
0.499414 -0.354443 -0.645 60 85 149
0.500643 -0.354443 -0.645 43 74 141
0.501871 -0.354443 -0.645 39 70 137
0.5031 -0.354443 -0.645 39 73 144
0.504329 -0.354443 -0.645 35 69 140
0.505557 -0.354443 -0.645 32 69 139
0.506786 -0.354443 -0.645 37 74 144
0.508014 -0.354443 -0.645 33 67 131
0.509243 -0.354443 -0.645 49 83 147
0.510471 -0.354443 -0.645 84 110 167
0.5117 -0.354443 -0.645 102 128 185
0.512929 -0.354443 -0.645 111 125 151
0.514157 -0.354443 -0.645 139 153 179
0.515386 -0.354443 -0.645 163 176 193
0.516614 -0.354443 -0.645 159 172 189
0.517843 -0.354443 -0.645 169 177 196
0.519071 -0.354443 -0.645 178 186 205
0.5203 -0.354443 -0.645 188 190 213
0.521529 -0.354443 -0.645 191 193 216
0.522757 -0.354443 -0.645 193 195 220
0.523986 -0.354443 -0.645 188 190 215
0.525214 -0.354443 -0.645 169 178 211
0.525627 -0.353893 -0.644 160 169 202
0.526853 -0.353893 -0.644 114 137 181
0.52808 -0.353893 -0.644 104 127 171
0.529307 -0.353893 -0.644 83 116 169
0.530533 -0.353893 -0.644 83 116 169
0.53176 -0.353893 -0.644 88 121 174
0.532987 -0.353893 -0.644 86 119 172
0.534213 -0.353893 -0.644 74 107 160
0.53544 -0.353893 -0.644 68 98 160
0.536667 -0.353893 -0.644 71 101 163
0.53934 -0.342353 -0.623 162 138 134
0.533586 -0.337957 -0.615 162 138 134
0.520845 -0.329165 -0.599 162 138 134
0.507171 -0.319823 -0.582 161 137 133
0.49518 -0.31158 -0.567 161 136 131
0.486632 -0.305535 -0.556 162 137 132
0.479797 -0.30059 -0.547 166 141 136
0.472928 -0.295644 -0.538 166 141 136
0.466905 -0.291248 -0.53 167 140 133
0.461734 -0.287401 -0.523 165 138 131
0.458307 -0.284653 -0.518 166 139 132
0.45486 -0.281906 -0.513 166 139 132
0.453171 -0.280257 -0.51 168 139 131
0.454143 -0.280257 -0.51 168 139 131
0.451545 -0.278059 -0.506 170 141 133
0.45072 -0.27696 -0.504 173 144 130
0.448991 -0.275311 -0.501 177 148 134
0.44815 -0.274212 -0.499 182 150 137
0.4473 -0.273113 -0.497 180 148 135
0.446443 -0.272014 -0.495 175 142 127
0.446482 -0.271465 -0.494 175 142 127
0.445611 -0.270366 -0.492 186 149 133
0.445641 -0.269816 -0.491 190 153 137
0.445667 -0.269267 -0.49 194 152 136
0.445689 -0.268717 -0.489 195 153 137
0.445707 -0.268168 -0.488 197 154 137
0.445721 -0.267618 -0.487 198 155 138
0.446649 -0.267618 -0.487 200 155 136
0.446657 -0.267069 -0.486 200 155 136
0.447583 -0.267069 -0.486 202 155 135
0.447586 -0.266519 -0.485 203 156 136
0.447585 -0.26597 -0.484 202 157 138
0.448507 -0.26597 -0.484 202 157 138
0.4485 -0.26542 -0.483 202 156 140
0.44942 -0.26542 -0.483 201 155 139
0.449408 -0.26487 -0.482 199 153 137
0.449391 -0.264321 -0.481 199 153 137
0.450308 -0.264321 -0.481 201 156 137
0.451224 -0.264321 -0.481 204 159 140
0.4512 -0.263771 -0.48 201 156 137
0.452114 -0.263771 -0.48 201 156 137
0.453029 -0.263771 -0.48 200 155 136
0.452997 -0.263222 -0.479 199 154 135
0.452962 -0.262672 -0.478 197 152 133
0.453872 -0.262672 -0.478 198 153 134
0.454783 -0.262672 -0.478 199 154 133
0.45474 -0.262123 -0.477 198 153 132
0.455649 -0.262123 -0.477 200 155 136
0.4556 -0.261573 -0.476 195 150 131
0.456507 -0.261573 -0.476 193 148 129
0.456452 -0.261024 -0.475 193 148 129
0.457357 -0.261024 -0.475 193 148 129
0.458262 -0.261024 -0.475 195 150 131
0.459167 -0.261024 -0.475 199 154 135
0.459103 -0.260474 -0.474 199 154 135
0.460006 -0.260474 -0.474 196 151 132
0.460909 -0.260474 -0.474 195 150 131
0.461811 -0.260474 -0.474 197 152 133
0.462714 -0.260474 -0.474 200 155 136
0.462639 -0.259925 -0.473 201 156 137
0.46354 -0.259925 -0.473 196 151 132
0.464441 -0.259925 -0.473 193 148 129
0.464358 -0.259375 -0.472 195 150 131
0.465257 -0.259375 -0.472 192 147 128
0.466156 -0.259375 -0.472 192 147 128
0.467055 -0.259375 -0.472 185 140 121
0.467954 -0.259375 -0.472 187 142 121
0.468853 -0.259375 -0.472 189 144 123
0.469752 -0.259375 -0.472 193 148 129
0.470651 -0.259375 -0.472 193 148 129
0.47155 -0.259375 -0.472 187 144 125
0.471449 -0.258826 -0.471 189 146 127
0.472346 -0.258826 -0.471 187 144 125
0.474248 -0.259375 -0.472 177 134 115
0.475147 -0.259375 -0.472 183 142 122
0.476046 -0.259375 -0.472 182 141 121
0.477955 -0.259925 -0.473 175 134 116
0.478856 -0.259925 -0.473 174 133 115
0.480771 -0.260474 -0.474 178 137 119
0.481674 -0.260474 -0.474 179 138 120
0.482577 -0.260474 -0.474 178 136 120
0.4845 -0.261024 -0.475 179 137 121
0.486427 -0.261573 -0.476 176 134 118
0.488357 -0.262123 -0.477 171 129 113
0.490291 -0.262672 -0.478 167 128 113
0.491202 -0.262672 -0.478 168 129 114
0.493142 -0.263222 -0.479 166 126 114
0.495086 -0.263771 -0.48 164 124 112
0.497033 -0.264321 -0.481 161 123 112
0.498985 -0.26487 -0.482 157 119 108
0.50094 -0.26542 -0.483 154 117 108
0.666194 -0.342903 -0.624 212 212 210
1.15736 -0.353893 -0.644 202 204 190
1.15859 -0.353893 -0.644 202 204 191
1.15801 -0.353344 -0.643 201 203 190
1.15563 -0.352245 -0.641 201 203 190
1.15505 -0.351695 -0.64 201 203 190
1.15265 -0.350596 -0.638 202 204 190
1.15206 -0.350047 -0.637 203 205 191
0.112308 -0.336923 -0.611 192 145 139
0.112543 -0.334166 -0.606 198 148 141
0.112759 -0.331409 -0.601 198 148 141
0.112956 -0.328651 -0.596 194 146 142
0.113134 -0.325894 -0.591 193 145 141
0.113293 -0.323137 -0.586 195 147 137
0.113629 -0.320931 -0.582 195 147 137
0.114343 -0.319829 -0.58 194 146 136
0.11485 -0.318174 -0.577 193 145 135
0.115749 -0.317623 -0.576 194 141 135
0.11644 -0.31652 -0.574 193 140 134
0.117124 -0.315417 -0.572 193 140 134
0.118213 -0.315417 -0.572 195 142 136
0.119094 -0.314866 -0.571 195 142 134
0.119971 -0.314314 -0.57 193 140 132
0.120845 -0.313763 -0.569 192 137 130
0.1215 -0.31266 -0.567 191 136 129
0.12258 -0.31266 -0.567 191 137 127
0.12366 -0.31266 -0.567 190 136 126
0.12452 -0.312109 -0.566 190 133 122
0.125598 -0.312109 -0.566 191 134 123
0.126452 -0.311557 -0.565 190 133 122
0.127529 -0.311557 -0.565 188 131 120
0.128605 -0.311557 -0.565 189 133 120
0.129451 -0.311006 -0.564 189 133 120
0.130526 -0.311006 -0.564 183 125 113
0.1316 -0.311006 -0.564 186 128 116
0.132439 -0.310454 -0.563 188 130 119
0.133511 -0.310454 -0.563 185 127 116
0.134584 -0.310454 -0.563 188 130 119
0.135415 -0.309903 -0.562 186 128 117
0.136486 -0.309903 -0.562 186 128 117
0.137556 -0.309903 -0.562 188 130 119
0.138627 -0.309903 -0.562 187 129 118
0.139697 -0.309903 -0.562 186 128 117
0.140768 -0.309903 -0.562 182 124 113
0.141838 -0.309903 -0.562 182 124 113
0.142909 -0.309903 -0.562 180 122 111
0.143979 -0.309903 -0.562 177 119 108
0.14505 -0.309903 -0.562 176 117 109
0.14638 -0.310454 -0.563 176 117 109
0.147452 -0.310454 -0.563 176 117 109
0.148525 -0.310454 -0.563 177 119 107
0.149597 -0.310454 -0.563 177 119 107
0.15067 -0.310454 -0.563 177 119 108
0.151742 -0.310454 -0.563 176 118 107
0.153086 -0.311006 -0.564 170 112 101
0.15416 -0.311006 -0.564 168 110 99
0.155234 -0.311006 -0.564 168 111 102
0.156586 -0.311557 -0.565 167 110 101
0.157662 -0.311557 -0.565 162 105 96
0.158738 -0.311557 -0.565 159 102 93
0.160097 -0.312109 -0.566 153 96 89
0.161175 -0.312109 -0.566 151 94 87
0.162253 -0.312109 -0.566 152 94 90
0.163331 -0.312109 -0.566 151 93 89
0.1647 -0.31266 -0.567 151 93 89
0.166072 -0.313211 -0.568 151 93 89
0.167154 -0.313211 -0.568 144 91 83
0.168532 -0.313763 -0.569 143 90 82
0.169616 -0.313763 -0.569 142 89 81
0.171 -0.314314 -0.57 141 88 80
0.172086 -0.314314 -0.57 140 87 79
0.173475 -0.314866 -0.571 140 87 79
0.174563 -0.314866 -0.571 140 87 79
0.175958 -0.315417 -0.572 140 87 79
0.177048 -0.315417 -0.572 139 86 78
0.178137 -0.315417 -0.572 137 84 76
0.17954 -0.315969 -0.573 140 87 79
0.180947 -0.31652 -0.574 140 87 79
0.18204 -0.31652 -0.574 137 84 76
0.183452 -0.317071 -0.575 136 83 75
0.184548 -0.317071 -0.575 134 81 73
0.185643 -0.317071 -0.575 133 80 72
0.187063 -0.317623 -0.576 133 80 72
0.18816 -0.317623 -0.576 132 79 71
0.189586 -0.318174 -0.577 131 78 70
0.190685 -0.318174 -0.577 129 76 68
0.192116 -0.318726 -0.578 129 76 68
0.193217 -0.318726 -0.578 130 77 69
0.194654 -0.319277 -0.579 129 74 67
0.196095 -0.319829 -0.58 128 73 66
0.19754 -0.32038 -0.581 130 75 70
0.198647 -0.32038 -0.581 130 75 70
0.199753 -0.32038 -0.581 132 77 72
0.20086 -0.32038 -0.581 136 81 78
0.202314 -0.320931 -0.582 141 86 83
0.203772 -0.321483 -0.583 146 88 86
0.204883 -0.321483 -0.583 147 89 87
0.206347 -0.322034 -0.584 147 89 85
0.207459 -0.322034 -0.584 148 90 86
0.208929 -0.322586 -0.585 148 87 86
0.210402 -0.323137 -0.586 149 88 87
0.211879 -0.323689 -0.587 142 86 85
0.21336 -0.32424 -0.588 136 80 79
0.214845 -0.324791 -0.589 129 79 78
0.216333 -0.325343 -0.59 128 78 77
0.217826 -0.325894 -0.591 121 77 76
0.219692 -0.326997 -0.593 117 73 72
0.221567 -0.3281 -0.595 114 76 75
0.223074 -0.328651 -0.596 117 79 78
0.224962 -0.329754 -0.598 115 79 81
0.227235 -0.331409 -0.601 111 75 77
0.22914 -0.332511 -0.603 110 74 78
0.231052 -0.333614 -0.605 111 75 79
0.233356 -0.335269 -0.608 112 76 80
0.235671 -0.336923 -0.611 116 80 84
0.237998 -0.338577 -0.614 97 81 94
0.260652 -0.350157 -0.635 176 173 184
0.34398 -0.35126 -0.637 158 187 247
0.345193 -0.35126 -0.637 168 187 243
0.346407 -0.35126 -0.637 170 189 245
0.34762 -0.35126 -0.637 166 186 236
0.348833 -0.35126 -0.637 168 188 238
0.353027 -0.351811 -0.638 247 254 255
0.354242 -0.351811 -0.638 245 252 255
0.355457 -0.351811 -0.638 249 255 253
0.356672 -0.351811 -0.638 249 255 253
0.357888 -0.351811 -0.638 248 252 255
0.359103 -0.351811 -0.638 252 255 255
0.360318 -0.351811 -0.638 252 255 255
0.363964 -0.351811 -0.638 240 250 252
0.365179 -0.351811 -0.638 228 238 240
0.366394 -0.351811 -0.638 195 210 239
0.36761 -0.351811 -0.638 166 181 210
0.368825 -0.351811 -0.638 143 166 210
0.37004 -0.351811 -0.638 129 152 196
0.371255 -0.351811 -0.638 139 158 216
0.37247 -0.351811 -0.638 131 150 208
0.373686 -0.351811 -0.638 127 146 202
0.374901 -0.351811 -0.638 126 145 201
0.376116 -0.351811 -0.638 131 153 213
0.377331 -0.351811 -0.638 130 152 212
0.378547 -0.351811 -0.638 123 145 202
0.379762 -0.351811 -0.638 150 172 229
0.380977 -0.351811 -0.638 191 208 254
0.385226 -0.352363 -0.639 237 248 255
0.386443 -0.352363 -0.639 243 247 255
0.38766 -0.352363 -0.639 248 252 255
0.388877 -0.352363 -0.639 240 244 255
0.390094 -0.352363 -0.639 228 232 243
0.391311 -0.352363 -0.639 209 212 221
0.392529 -0.352363 -0.639 209 212 221
0.393746 -0.352363 -0.639 222 225 234
0.394963 -0.352363 -0.639 234 240 254
0.39618 -0.352363 -0.639 237 243 255
0.397397 -0.352363 -0.639 205 220 251
0.399238 -0.352914 -0.64 162 177 208
0.400457 -0.352914 -0.64 140 168 216
0.401676 -0.352914 -0.64 137 165 213
0.402895 -0.352914 -0.64 130 166 226
0.404114 -0.352914 -0.64 126 162 222
0.405967 -0.353466 -0.641 114 154 213
0.407188 -0.353466 -0.641 111 151 210
0.408409 -0.353466 -0.641 115 158 213
0.40963 -0.353466 -0.641 120 163 218
0.41021 -0.352914 -0.64 114 156 216
0.411429 -0.352914 -0.64 112 154 214
0.412648 -0.352914 -0.64 136 167 221
0.414513 -0.353466 -0.641 182 213 255
0.415734 -0.353466 -0.641 217 231 255
0.416955 -0.353466 -0.641 219 233 255
0.418176 -0.353466 -0.641 224 228 253
0.419397 -0.353466 -0.641 229 233 255
0.420618 -0.353466 -0.641 221 232 252
0.421839 -0.353466 -0.641 220 231 251
0.42306 -0.353466 -0.641 220 226 252
0.424281 -0.353466 -0.641 220 226 252
0.425502 -0.353466 -0.641 223 229 255
0.426723 -0.353466 -0.641 209 210 230
0.427944 -0.353466 -0.641 184 185 205
0.429165 -0.353466 -0.641 171 176 205
0.430386 -0.353466 -0.641 166 171 200
0.43228 -0.354017 -0.642 116 144 209
0.433503 -0.354017 -0.642 76 104 169
0.434726 -0.354017 -0.642 63 101 172
0.43527 -0.353466 -0.641 61 99 170
0.43649 -0.353466 -0.641 51 92 171
0.437711 -0.353466 -0.641 41 82 161
0.438932 -0.353466 -0.641 56 100 171
0.440153 -0.353466 -0.641 51 95 166
0.442063 -0.354017 -0.642 42 89 157
0.443286 -0.354017 -0.642 52 99 167
0.444509 -0.354017 -0.642 113 149 225
0.445731 -0.354017 -0.642 140 176 252
0.446954 -0.354017 -0.642 185 201 237
0.448177 -0.354017 -0.642 190 206 242
0.4494 -0.354017 -0.642 171 173 194
0.450623 -0.354017 -0.642 167 169 190
0.451846 -0.354017 -0.642 203 204 224
0.453069 -0.354017 -0.642 212 213 233
0.454291 -0.354017 -0.642 207 210 229
0.455514 -0.354017 -0.642 207 210 229
0.456737 -0.354017 -0.642 208 213 235
0.45796 -0.354017 -0.642 208 213 235
0.459183 -0.354017 -0.642 199 204 226
0.460406 -0.354017 -0.642 193 203 228
0.461629 -0.354017 -0.642 170 180 205
0.462851 -0.354017 -0.642 92 132 193
0.464074 -0.354017 -0.642 85 125 186
0.465297 -0.354017 -0.642 75 119 184
0.46652 -0.354017 -0.642 77 121 186
0.467743 -0.354017 -0.642 69 113 188
0.468966 -0.354017 -0.642 50 94 169
0.470189 -0.354017 -0.642 40 87 165
0.472146 -0.354569 -0.643 50 97 175
0.47337 -0.354569 -0.643 57 109 182
0.474595 -0.354569 -0.643 68 120 193
0.47582 -0.354569 -0.643 69 111 187
0.477045 -0.354569 -0.643 74 116 192
0.47827 -0.354569 -0.643 78 118 190
0.479494 -0.354569 -0.643 138 178 250
0.480719 -0.354569 -0.643 178 193 222
0.481944 -0.354569 -0.643 180 195 224
0.483169 -0.354569 -0.643 196 203 222
0.485147 -0.35512 -0.644 190 197 216
0.486373 -0.35512 -0.644 198 201 216
0.4876 -0.35512 -0.644 195 198 213
0.488827 -0.35512 -0.644 190 194 203
0.490053 -0.35512 -0.644 168 172 181
0.49128 -0.35512 -0.644 144 152 165
0.492507 -0.35512 -0.644 160 168 181
0.493733 -0.35512 -0.644 184 187 204
0.494191 -0.354569 -0.643 173 184 212
0.496187 -0.35512 -0.644 150 161 189
0.497413 -0.35512 -0.644 105 134 200
0.49864 -0.35512 -0.644 58 87 153
0.499867 -0.35512 -0.644 40 71 138
0.501093 -0.35512 -0.644 40 71 138
0.50232 -0.35512 -0.644 38 75 145
0.503547 -0.35512 -0.644 32 69 139
0.504773 -0.35512 -0.644 32 71 140
0.506 -0.35512 -0.644 36 75 144
0.507227 -0.35512 -0.644 37 72 138
0.508453 -0.35512 -0.644 37 72 138
0.50968 -0.35512 -0.644 74 106 167
0.510907 -0.35512 -0.644 111 143 204
0.512133 -0.35512 -0.644 132 144 166
0.51336 -0.35512 -0.644 139 151 173
0.514587 -0.35512 -0.644 159 169 181
0.515813 -0.35512 -0.644 178 188 200
0.51704 -0.35512 -0.644 191 197 213
0.518267 -0.35512 -0.644 185 191 207
0.519493 -0.35512 -0.644 191 193 216
0.52072 -0.35512 -0.644 194 196 219
0.521947 -0.35512 -0.644 192 192 218
0.523173 -0.35512 -0.644 189 189 215
0.5244 -0.35512 -0.644 186 191 221
0.525627 -0.35512 -0.644 181 186 216
0.526853 -0.35512 -0.644 124 147 191
0.52808 -0.35512 -0.644 106 129 173
0.529307 -0.35512 -0.644 83 118 172
0.530533 -0.35512 -0.644 83 118 172
0.530934 -0.354569 -0.643 87 122 176
0.532159 -0.354569 -0.643 90 121 176
0.533384 -0.354569 -0.643 87 118 173
0.534609 -0.354569 -0.643 85 115 175
0.535833 -0.354569 -0.643 71 101 161
0.540206 -0.344091 -0.624 162 138 136
0.535321 -0.340231 -0.617 163 139 137
0.523453 -0.33196 -0.602 163 139 135
0.510657 -0.323137 -0.586 161 137 133
0.4978 -0.314314 -0.57 161 136 131
0.489258 -0.308249 -0.559 162 137 132
0.480674 -0.302183 -0.548 165 140 135
0.474686 -0.297771 -0.54 166 141 136
0.468667 -0.29336 -0.532 167 139 135
0.462617 -0.288949 -0.524 166 138 134
0.459191 -0.286191 -0.519 166 139 132
0.455747 -0.283434 -0.514 167 140 133
0.45406 -0.28178 -0.511 168 141 134
0.451471 -0.279574 -0.507 170 143 136
0.452437 -0.279574 -0.507 170 143 136
0.45072 -0.27792 -0.504 176 144 131
0.449888 -0.276817 -0.502 179 147 134
0.44815 -0.275163 -0.499 182 150 135
0.4473 -0.27406 -0.497 182 150 135
0.446443 -0.272957 -0.495 178 145 130
0.446482 -0.272406 -0.494 179 146 131
0.445611 -0.271303 -0.492 188 151 133
0.445641 -0.270751 -0.491 189 152 134
0.445667 -0.2702 -0.49 195 154 136
0.445689 -0.269649 -0.489 195 154 136
0.445707 -0.269097 -0.488 196 153 134
0.445721 -0.268546 -0.487 197 154 135
0.446649 -0.268546 -0.487 201 156 137
0.446657 -0.267994 -0.486 201 156 137
0.446662 -0.267443 -0.485 201 156 135
0.446663 -0.266891 -0.484 201 156 135
0.447585 -0.266891 -0.484 199 156 137
0.44758 -0.26634 -0.483 199 156 137
0.4485 -0.26634 -0.483 199 156 139
0.44849 -0.265789 -0.482 198 155 138
0.449408 -0.265789 -0.482 197 154 135
0.449391 -0.265237 -0.481 197 154 135
0.449371 -0.264686 -0.48 199 156 137
0.450286 -0.264686 -0.48 202 159 140
0.4512 -0.264686 -0.48 198 155 136
0.451172 -0.264134 -0.479 198 155 136
0.452085 -0.264134 -0.479 198 155 136
0.452997 -0.264134 -0.479 197 154 135
0.452962 -0.263583 -0.478 195 153 131
0.452923 -0.263031 -0.477 195 153 131
0.453831 -0.263031 -0.477 195 153 131
0.45474 -0.263031 -0.477 194 152 130
0.454693 -0.26248 -0.476 199 154 135
0.4556 -0.26248 -0.476 194 149 130
0.455548 -0.261929 -0.475 189 144 125
0.456452 -0.261929 -0.475 191 146 127
0.457357 -0.261929 -0.475 194 149 130
0.458262 -0.261929 -0.475 197 152 133
0.459167 -0.261929 -0.475 200 155 136
0.459103 -0.261377 -0.474 197 152 133
0.460006 -0.261377 -0.474 197 152 133
0.460909 -0.261377 -0.474 198 153 134
0.461811 -0.261377 -0.474 200 155 136
0.462714 -0.261377 -0.474 200 155 136
0.462639 -0.260826 -0.473 201 156 137
0.46354 -0.260826 -0.473 196 151 132
0.463459 -0.260274 -0.472 192 147 128
0.464358 -0.260274 -0.472 194 149 130
0.465257 -0.260274 -0.472 192 147 128
0.466156 -0.260274 -0.472 190 145 124
0.467055 -0.260274 -0.472 184 139 118
0.467954 -0.260274 -0.472 186 141 120
0.46786 -0.259723 -0.471 189 144 123
0.468757 -0.259723 -0.471 194 149 130
0.469654 -0.259723 -0.471 194 149 130
0.470551 -0.259723 -0.471 187 144 125
0.471449 -0.259723 -0.471 189 146 127
0.472346 -0.259723 -0.471 187 144 125
0.473243 -0.259723 -0.471 178 135 116
0.47414 -0.259723 -0.471 182 141 121
0.476046 -0.260274 -0.472 178 137 117
0.476945 -0.260274 -0.472 173 132 114
0.477844 -0.260274 -0.472 173 132 114
0.479757 -0.260826 -0.473 176 135 115
0.480658 -0.260826 -0.473 177 136 116
0.481559 -0.260826 -0.473 178 137 119
0.48348 -0.261377 -0.474 178 137 119
0.485405 -0.261929 -0.475 177 135 119
0.487333 -0.26248 -0.476 173 131 115
0.48824 -0.26248 -0.476 169 127 113
0.490174 -0.263031 -0.477 169 127 113
0.492112 -0.263583 -0.478 166 126 114
0.494054 -0.264134 -0.479 164 124 112
0.496 -0.264686 -0.48 162 124 113
0.49795 -0.265237 -0.481 159 121 110
0.499903 -0.265789 -0.482 157 120 111
0.50186 -0.26634 -0.483 156 119 110
0.505903 -0.267994 -0.486 156 119 111
0.508914 -0.269097 -0.488 156 119 111
0.659789 -0.340783 -0.618 213 212 210
0.667383 -0.344091 -0.624 213 212 210
1.15736 -0.35512 -0.644 202 204 190
1.15859 -0.35512 -0.644 203 205 192
1.15801 -0.354569 -0.643 202 204 191
1.15743 -0.354017 -0.642 202 204 190
1.15685 -0.353466 -0.641 201 203 189
1.15446 -0.352363 -0.639 201 203 189
1.15387 -0.351811 -0.638 202 204 190
1.15146 -0.350709 -0.636 202 204 190
0.112124 -0.337533 -0.61 196 148 144
0.112357 -0.334767 -0.605 202 148 138
0.112571 -0.332 -0.6 200 146 136
0.112767 -0.329233 -0.595 193 146 140
0.112943 -0.326467 -0.59 193 146 140
0.1131 -0.3237 -0.585 196 148 136
0.113433 -0.321487 -0.581 197 149 137
0.114146 -0.32038 -0.579 194 148 135
0.114651 -0.31872 -0.576 193 147 134
0.115548 -0.318167 -0.575 191 141 132
0.116237 -0.31706 -0.573 191 141 132
0.117124 -0.316507 -0.572 192 142 131
0.118007 -0.315953 -0.571 192 142 131
0.118886 -0.3154 -0.57 194 142 131
0.119761 -0.314847 -0.569 192 140 129
0.120632 -0.314293 -0.568 191 139 128
0.1215 -0.31374 -0.567 191 139 128
0.12258 -0.31374 -0.567 190 136 124
0.123442 -0.313187 -0.566 189 135 123
0.12452 -0.313187 -0.566 189 136 122
0.125376 -0.312633 -0.565 190 137 123
0.126452 -0.312633 -0.565 192 136 123
0.127529 -0.312633 -0.565 189 133 120
0.128605 -0.312633 -0.565 187 131 118
0.129451 -0.31208 -0.564 186 130 117
0.130526 -0.31208 -0.564 183 125 113
0.1316 -0.31208 -0.564 186 128 116
0.132439 -0.311527 -0.563 188 130 118
0.133511 -0.311527 -0.563 185 127 115
0.134584 -0.311527 -0.563 190 132 120
0.135415 -0.310973 -0.562 189 131 119
0.136486 -0.310973 -0.562 186 128 116
0.137556 -0.310973 -0.562 184 126 114
0.138627 -0.310973 -0.562 187 129 117
0.139697 -0.310973 -0.562 185 127 115
0.140768 -0.310973 -0.562 183 125 114
0.141838 -0.310973 -0.562 183 125 114
0.142909 -0.310973 -0.562 183 125 114
0.143979 -0.310973 -0.562 178 120 109
0.14505 -0.310973 -0.562 176 118 107
0.14612 -0.310973 -0.562 176 118 107
0.147452 -0.311527 -0.563 172 114 103
0.148525 -0.311527 -0.563 173 117 104
0.149597 -0.311527 -0.563 178 122 109
0.15067 -0.311527 -0.563 179 123 110
0.151742 -0.311527 -0.563 172 116 103
0.153086 -0.31208 -0.564 170 114 101
0.15416 -0.31208 -0.564 167 111 98
0.155234 -0.31208 -0.564 166 109 98
0.156309 -0.31208 -0.564 165 108 97
0.157662 -0.312633 -0.565 161 104 95
0.158738 -0.312633 -0.565 155 98 89
0.160097 -0.313187 -0.566 149 95 85
0.161175 -0.313187 -0.566 150 96 86
0.162253 -0.313187 -0.566 150 95 88
0.163331 -0.313187 -0.566 149 94 87
0.1647 -0.31374 -0.567 150 95 88
0.166072 -0.314293 -0.568 148 93 86
0.167154 -0.314293 -0.568 142 89 81
0.168532 -0.314847 -0.569 143 90 82
0.169616 -0.314847 -0.569 143 90 82
0.171 -0.3154 -0.57 142 89 81
0.172086 -0.3154 -0.57 142 89 81
0.173475 -0.315953 -0.571 142 89 81
0.174869 -0.316507 -0.572 142 89 81
0.175958 -0.316507 -0.572 140 87 79
0.177048 -0.316507 -0.572 140 87 79
0.178137 -0.316507 -0.572 136 83 75
0.17954 -0.31706 -0.573 137 84 76
0.180631 -0.31706 -0.573 138 85 77
0.18204 -0.317613 -0.574 137 84 76
0.183452 -0.318167 -0.575 137 84 76
0.184548 -0.318167 -0.575 135 82 74
0.185643 -0.318167 -0.575 133 80 72
0.187063 -0.31872 -0.576 130 82 72
0.18816 -0.31872 -0.576 128 80 70
0.189586 -0.319273 -0.577 130 80 69
0.190685 -0.319273 -0.577 131 81 70
0.192116 -0.319827 -0.578 130 80 69
0.193551 -0.32038 -0.579 127 77 66
0.194654 -0.32038 -0.579 127 77 68
0.196095 -0.320933 -0.58 130 80 71
0.1972 -0.320933 -0.58 130 80 71
0.198647 -0.321487 -0.581 133 80 74
0.200097 -0.32204 -0.582 133 80 74
0.201206 -0.32204 -0.582 135 82 76
0.202314 -0.32204 -0.582 139 86 80
0.203772 -0.322593 -0.583 142 87 82
0.205234 -0.323147 -0.584 143 88 83
0.206347 -0.323147 -0.584 142 87 82
0.207814 -0.3237 -0.585 142 87 82
0.209286 -0.324253 -0.586 142 83 85
0.210761 -0.324807 -0.587 138 79 81
0.211879 -0.324807 -0.587 128 77 76
0.213723 -0.325913 -0.589 124 73 72
0.21521 -0.326467 -0.59 118 74 73
0.2167 -0.32702 -0.591 118 74 73
0.218194 -0.327573 -0.592 114 76 75
0.220063 -0.32868 -0.594 113 75 74
0.221567 -0.329233 -0.595 113 77 77
0.223449 -0.33034 -0.597 114 78 78
0.225338 -0.331447 -0.599 113 77 79
0.227613 -0.333107 -0.602 110 74 76
0.22952 -0.334213 -0.604 111 75 77
0.231816 -0.335873 -0.607 111 75 77
0.234124 -0.337533 -0.61 110 75 79
0.236443 -0.339193 -0.613 114 79 83
0.255411 -0.350813 -0.634 153 154 174
0.256619 -0.350813 -0.634 153 154 174
0.257827 -0.350813 -0.634 162 163 183
0.259034 -0.350813 -0.634 172 169 180
0.260242 -0.350813 -0.634 176 173 184
0.26145 -0.350813 -0.634 185 177 188
0.301776 -0.351367 -0.635 152 166 211
0.302986 -0.351367 -0.635 156 170 215
0.333749 -0.35192 -0.636 174 187 219
0.33496 -0.35192 -0.636 174 197 238
0.336171 -0.35192 -0.636 180 203 244
0.346407 -0.352473 -0.637 177 197 250
0.34762 -0.352473 -0.637 169 190 237
0.348833 -0.352473 -0.637 172 193 240
0.350047 -0.352473 -0.637 213 225 247
0.35126 -0.352473 -0.637 240 252 255
0.352473 -0.352473 -0.637 244 251 255
0.353687 -0.352473 -0.637 245 252 255
0.3549 -0.352473 -0.637 251 255 255
0.356672 -0.353027 -0.638 249 255 255
0.357888 -0.353027 -0.638 252 255 255
0.35854 -0.352473 -0.637 249 253 254
0.359753 -0.352473 -0.637 249 253 254
0.360967 -0.352473 -0.637 254 254 255
0.36218 -0.352473 -0.637 247 247 255
0.363393 -0.352473 -0.637 224 232 243
0.364607 -0.352473 -0.637 207 215 226
0.366394 -0.353027 -0.638 180 194 229
0.36761 -0.353027 -0.638 154 168 203
0.368825 -0.353027 -0.638 149 171 218
0.374901 -0.353027 -0.638 142 161 219
0.376116 -0.353027 -0.638 125 147 205
0.377331 -0.353027 -0.638 128 150 208
0.378547 -0.353027 -0.638 129 151 208
0.379762 -0.353027 -0.638 139 161 218
0.380977 -0.353027 -0.638 177 195 243
0.382192 -0.353027 -0.638 196 214 255
0.383408 -0.353027 -0.638 221 232 254
0.384623 -0.353027 -0.638 232 243 255
0.385838 -0.353027 -0.638 245 250 253
0.38766 -0.35358 -0.639 247 252 255
0.388877 -0.35358 -0.639 244 249 255
0.390094 -0.35358 -0.639 241 246 252
0.391311 -0.35358 -0.639 226 229 234
0.392529 -0.35358 -0.639 226 229 234
0.393746 -0.35358 -0.639 200 203 208
0.394963 -0.35358 -0.639 223 227 238
0.39618 -0.35358 -0.639 236 240 251
0.397397 -0.35358 -0.639 201 215 242
0.398614 -0.35358 -0.639 163 177 204
0.399831 -0.35358 -0.639 144 171 216
0.401676 -0.354133 -0.64 154 181 226
0.402895 -0.354133 -0.64 145 182 237
0.404114 -0.354133 -0.64 134 171 226
0.405333 -0.354133 -0.64 124 163 220
0.406552 -0.354133 -0.64 124 163 220
0.407771 -0.354133 -0.64 130 170 221
0.40899 -0.354133 -0.64 136 176 227
0.41021 -0.354133 -0.64 130 169 226
0.411429 -0.354133 -0.64 116 155 212
0.412648 -0.354133 -0.64 133 161 209
0.413867 -0.354133 -0.64 175 203 251
0.415086 -0.354133 -0.64 216 228 254
0.416305 -0.354133 -0.64 219 231 255
0.417524 -0.354133 -0.64 224 226 249
0.418743 -0.354133 -0.64 230 232 255
0.419962 -0.354133 -0.64 228 235 253
0.421181 -0.354133 -0.64 223 230 248
0.42306 -0.354687 -0.641 226 231 253
0.424281 -0.354687 -0.641 226 231 253
0.425502 -0.354687 -0.641 209 214 236
0.426723 -0.354687 -0.641 179 181 202
0.427944 -0.354687 -0.641 184 186 207
0.429165 -0.354687 -0.641 180 193 225
0.430386 -0.354687 -0.641 161 174 206
0.431607 -0.354687 -0.641 98 130 189
0.432828 -0.354687 -0.641 67 99 158
0.434049 -0.354687 -0.641 63 101 172
0.43527 -0.354687 -0.641 67 105 176
0.43581 -0.354133 -0.64 59 102 180
0.437029 -0.354133 -0.64 52 95 173
0.438248 -0.354133 -0.64 47 95 161
0.439467 -0.354133 -0.64 50 98 164
0.440686 -0.354133 -0.64 46 95 162
0.442595 -0.354687 -0.641 44 93 160
0.443816 -0.354687 -0.641 94 132 205
0.445037 -0.354687 -0.641 139 177 250
0.446258 -0.354687 -0.641 175 194 236
0.447479 -0.354687 -0.641 191 210 252
0.4494 -0.35524 -0.642 206 208 223
0.450623 -0.35524 -0.642 191 193 208
0.451142 -0.354687 -0.641 175 173 187
0.452363 -0.354687 -0.641 194 192 206
0.453584 -0.354687 -0.641 213 216 231
0.455514 -0.35524 -0.642 209 212 227
0.456737 -0.35524 -0.642 208 209 229
0.45796 -0.35524 -0.642 208 209 229
0.458468 -0.354687 -0.641 211 212 232
0.459689 -0.354687 -0.641 197 203 219
0.46091 -0.354687 -0.641 169 175 191
0.46213 -0.354687 -0.641 92 133 195
0.463351 -0.354687 -0.641 81 122 184
0.464572 -0.354687 -0.641 76 122 184
0.465793 -0.354687 -0.641 73 119 181
0.467014 -0.354687 -0.641 73 115 189
0.468235 -0.354687 -0.641 64 106 180
0.469456 -0.354687 -0.641 46 93 171
0.471411 -0.35524 -0.642 46 93 171
0.472634 -0.35524 -0.642 55 109 173
0.473857 -0.35524 -0.642 64 118 182
0.47508 -0.35524 -0.642 73 116 184
0.476303 -0.35524 -0.642 71 114 182
0.477526 -0.35524 -0.642 77 117 187
0.478749 -0.35524 -0.642 125 165 235
0.479971 -0.35524 -0.642 187 202 223
0.481194 -0.35524 -0.642 194 209 230
0.482417 -0.35524 -0.642 194 200 214
0.484393 -0.355793 -0.643 194 200 214
0.485618 -0.355793 -0.643 200 201 222
0.486843 -0.355793 -0.643 197 198 219
0.488068 -0.355793 -0.643 173 175 187
0.489292 -0.355793 -0.643 144 146 158
0.49128 -0.356347 -0.644 167 170 187
0.492507 -0.356347 -0.644 184 187 204
0.493733 -0.356347 -0.644 184 187 204
0.494191 -0.355793 -0.643 173 184 212
0.496187 -0.356347 -0.644 150 161 189
0.497413 -0.356347 -0.644 105 134 200
0.49864 -0.356347 -0.644 54 85 150
0.49909 -0.355793 -0.643 43 76 143
0.500315 -0.355793 -0.643 43 76 143
0.50154 -0.355793 -0.643 37 76 145
0.502765 -0.355793 -0.643 37 76 145
0.50399 -0.355793 -0.643 37 77 147
0.505214 -0.355793 -0.643 35 75 145
0.506439 -0.355793 -0.643 44 81 151
0.507664 -0.355793 -0.643 38 75 145
0.508889 -0.355793 -0.643 56 89 158
0.510113 -0.355793 -0.643 104 137 206
0.511338 -0.355793 -0.643 148 163 196
0.511766 -0.35524 -0.642 158 173 206
0.512989 -0.35524 -0.642 143 154 172
0.514211 -0.35524 -0.642 151 162 180
0.515434 -0.35524 -0.642 180 183 200
0.517462 -0.355793 -0.643 192 195 212
0.518687 -0.355793 -0.643 191 194 213
0.519911 -0.355793 -0.643 193 196 215
0.521136 -0.355793 -0.643 195 197 218
0.522361 -0.355793 -0.643 190 192 213
0.523586 -0.355793 -0.643 191 196 218
0.52481 -0.355793 -0.643 182 187 209
0.526035 -0.355793 -0.643 119 141 182
0.52726 -0.355793 -0.643 102 124 165
0.528485 -0.355793 -0.643 89 124 182
0.52971 -0.355793 -0.643 91 126 184
0.530934 -0.355793 -0.643 91 126 184
0.532159 -0.355793 -0.643 88 118 178
0.533384 -0.355793 -0.643 91 121 181
0.536189 -0.34196 -0.618 163 139 137
0.526931 -0.33532 -0.606 162 138 134
0.514143 -0.326467 -0.59 161 137 133
0.499547 -0.316507 -0.572 162 138 134
0.491009 -0.31042 -0.561 163 139 135
0.483306 -0.304887 -0.551 165 140 136
0.475565 -0.299353 -0.541 165 140 136
0.470429 -0.29548 -0.534 168 140 136
0.464383 -0.291053 -0.526 167 139 135
0.460076 -0.287733 -0.52 166 138 134
0.456633 -0.284967 -0.515 167 139 135
0.45406 -0.282753 -0.511 169 142 135
0.451471 -0.28054 -0.507 171 144 137
0.452437 -0.28054 -0.507 171 144 137
0.45072 -0.27888 -0.504 181 145 133
0.449888 -0.277773 -0.502 182 146 134
0.44815 -0.276113 -0.499 183 147 133
0.4473 -0.275007 -0.497 184 148 134
0.446443 -0.2739 -0.495 183 145 132
0.446482 -0.273347 -0.494 184 146 133
0.445611 -0.27224 -0.492 189 152 136
0.445641 -0.271687 -0.491 187 150 134
0.445667 -0.271133 -0.49 191 152 135
0.445689 -0.27058 -0.489 192 153 136
0.445707 -0.270027 -0.488 195 154 134
0.445721 -0.269473 -0.487 196 155 135
0.445731 -0.26892 -0.486 199 156 137
0.445738 -0.268367 -0.485 200 157 138
0.446662 -0.268367 -0.485 199 157 135
0.446663 -0.267813 -0.484 198 156 134
0.447585 -0.267813 -0.484 197 154 135
0.44758 -0.26726 -0.483 197 154 135
0.447571 -0.266707 -0.482 198 155 136
0.44849 -0.266707 -0.482 199 156 137
0.449408 -0.266707 -0.482 199 156 137
0.449391 -0.266153 -0.481 199 156 137
0.449371 -0.2656 -0.48 199 156 137
0.450286 -0.2656 -0.48 200 157 138
0.45026 -0.265047 -0.479 198 155 136
0.451172 -0.265047 -0.479 198 155 136
0.452085 -0.265047 -0.479 197 155 133
0.452051 -0.264493 -0.478 196 154 132
0.452962 -0.264493 -0.478 196 154 132
0.452923 -0.26394 -0.477 195 153 131
0.45288 -0.263387 -0.476 194 152 130
0.453787 -0.263387 -0.476 194 152 130
0.454693 -0.263387 -0.476 196 151 132
0.454643 -0.262833 -0.475 193 148 129
0.455548 -0.262833 -0.475 188 143 124
0.456452 -0.262833 -0.475 190 145 126
0.457357 -0.262833 -0.475 195 150 131
0.458262 -0.262833 -0.475 196 151 132
0.459167 -0.262833 -0.475 198 153 134
0.459103 -0.26228 -0.474 196 151 132
0.460006 -0.26228 -0.474 199 154 135
0.460909 -0.26228 -0.474 200 155 136
0.460837 -0.261727 -0.473 201 156 137
0.461738 -0.261727 -0.473 201 156 137
0.462639 -0.261727 -0.473 201 156 137
0.46354 -0.261727 -0.473 196 151 132
0.463459 -0.261173 -0.472 192 147 128
0.464358 -0.261173 -0.472 193 148 129
0.464271 -0.26062 -0.471 191 146 127
0.465169 -0.26062 -0.471 190 145 124
0.466066 -0.26062 -0.471 188 143 122
0.466963 -0.26062 -0.471 190 145 124
0.46786 -0.26062 -0.471 193 148 127
0.468757 -0.26062 -0.471 193 150 131
0.468657 -0.260067 -0.47 192 149 130
0.469552 -0.260067 -0.47 188 145 126
0.470448 -0.260067 -0.47 189 146 127
0.471343 -0.260067 -0.47 189 146 127
0.473243 -0.26062 -0.471 182 139 120
0.47414 -0.26062 -0.471 180 139 121
0.475037 -0.26062 -0.471 176 135 117
0.475934 -0.26062 -0.471 177 136 118
0.477844 -0.261173 -0.472 176 135 117
0.478743 -0.261173 -0.472 177 136 118
0.479642 -0.261173 -0.472 177 136 118
0.481559 -0.261727 -0.473 177 134 118
0.48246 -0.261727 -0.473 178 135 119
0.484383 -0.26228 -0.474 177 135 119
0.48631 -0.262833 -0.475 174 132 116
0.487214 -0.262833 -0.475 169 127 113
0.489147 -0.263387 -0.476 169 127 113
0.491083 -0.26394 -0.477 168 128 116
0.491991 -0.26394 -0.477 165 125 113
0.493933 -0.264493 -0.478 162 124 113
0.495879 -0.265047 -0.479 162 124 113
0.498866 -0.266153 -0.481 160 123 114
0.500821 -0.266707 -0.482 159 122 113
0.503821 -0.267813 -0.484 157 120 111
0.506829 -0.26892 -0.486 155 118 109
1.15801 -0.355793 -0.643 202 206 191
1.15743 -0.35524 -0.642 201 205 191
1.15685 -0.354687 -0.641 200 204 190
1.15627 -0.354133 -0.64 200 204 190
1.15568 -0.35358 -0.639 200 204 190
1.15146 -0.35192 -0.636 202 204 190
1.14905 -0.350813 -0.634 202 204 190
1.14663 -0.349707 -0.632 204 207 190
0.111756 -0.337585 -0.608 191 146 141
0.111986 -0.334809 -0.603 202 149 135
0.112196 -0.332032 -0.598 200 147 133
0.112388 -0.329256 -0.593 191 147 138
0.11256 -0.32648 -0.588 192 148 139
0.112907 -0.324259 -0.584 195 149 136
0.113238 -0.322038 -0.58 195 149 136
0.113949 -0.320928 -0.578 191 149 137
0.114651 -0.319817 -0.576 190 148 136
0.115347 -0.318707 -0.574 191 141 130
0.116034 -0.317596 -0.572 191 141 130
0.116919 -0.317041 -0.571 191 142 128
0.1178 -0.316486 -0.57 190 141 127
0.118886 -0.316486 -0.57 192 140 127
0.119761 -0.31593 -0.569 190 138 125
0.120632 -0.315375 -0.568 188 136 123
0.1215 -0.31482 -0.567 190 138 125
0.12258 -0.31482 -0.567 189 135 123
0.123442 -0.314265 -0.566 189 135 123
0.12452 -0.314265 -0.566 189 136 122
0.125376 -0.31371 -0.565 191 138 124
0.126229 -0.313154 -0.564 194 138 123
0.127303 -0.313154 -0.564 190 134 119
0.128377 -0.313154 -0.564 187 131 118
0.129451 -0.313154 -0.564 186 130 117
0.130526 -0.313154 -0.564 182 126 111
0.1316 -0.313154 -0.564 182 126 111
0.132439 -0.312599 -0.563 179 123 110
0.133511 -0.312599 -0.563 173 117 104
0.134345 -0.312044 -0.562 181 125 112
0.135415 -0.312044 -0.562 185 129 116
0.136486 -0.312044 -0.562 185 129 116
0.137311 -0.311489 -0.561 185 129 116
0.13838 -0.311489 -0.561 186 130 117
0.139449 -0.311489 -0.561 183 127 114
0.140517 -0.311489 -0.561 179 123 110
0.141586 -0.311489 -0.561 175 119 106
0.142909 -0.312044 -0.562 177 121 108
0.143979 -0.312044 -0.562 174 118 105
0.14505 -0.312044 -0.562 172 116 103
0.14612 -0.312044 -0.562 172 116 103
0.14719 -0.312044 -0.562 168 112 99
0.148261 -0.312044 -0.562 172 116 103
0.149331 -0.312044 -0.562 178 122 109
0.15067 -0.312599 -0.563 178 122 109
0.151742 -0.312599 -0.563 169 113 100
0.152814 -0.312599 -0.563 167 114 100
0.153887 -0.312599 -0.563 164 111 97
0.154959 -0.312599 -0.563 162 108 96
0.156309 -0.313154 -0.564 161 107 95
0.157662 -0.31371 -0.565 158 104 94
0.158738 -0.31371 -0.565 151 97 87
0.160097 -0.314265 -0.566 146 94 83
0.161175 -0.314265 -0.566 145 93 82
0.162253 -0.314265 -0.566 145 93 82
0.16362 -0.31482 -0.567 147 95 84
0.1647 -0.31482 -0.567 148 95 87
0.166072 -0.315375 -0.568 148 95 87
0.167154 -0.315375 -0.568 142 90 79
0.168532 -0.31593 -0.569 143 91 80
0.169914 -0.316486 -0.57 144 89 82
0.171 -0.316486 -0.57 144 89 82
0.172086 -0.316486 -0.57 144 89 82
0.173475 -0.317041 -0.571 143 88 81
0.174869 -0.317596 -0.572 141 89 78
0.175958 -0.317596 -0.572 138 86 75
0.177048 -0.317596 -0.572 142 90 79
0.178137 -0.317596 -0.572 135 83 72
0.17954 -0.318151 -0.573 133 80 72
0.180631 -0.318151 -0.573 133 80 72
0.18204 -0.318707 -0.574 134 81 73
0.183452 -0.319262 -0.575 137 84 76
0.184548 -0.319262 -0.575 136 83 75
0.185643 -0.319262 -0.575 134 81 73
0.187063 -0.319817 -0.576 132 84 72
0.18816 -0.319817 -0.576 128 80 68
0.189586 -0.320372 -0.577 129 81 67
0.190685 -0.320372 -0.577 131 83 69
0.192116 -0.320928 -0.578 130 81 67
0.193551 -0.321483 -0.579 127 78 64
0.19499 -0.322038 -0.58 126 78 66
0.196433 -0.322593 -0.581 130 82 70
0.19754 -0.322593 -0.581 130 82 70
0.198647 -0.322593 -0.581 131 81 72
0.200097 -0.323149 -0.582 131 81 72
0.201551 -0.323704 -0.583 133 83 74
0.202662 -0.323704 -0.583 134 84 75
0.203772 -0.323704 -0.583 137 84 76
0.205234 -0.324259 -0.584 137 84 76
0.2067 -0.324814 -0.585 135 85 76
0.20817 -0.32537 -0.586 136 86 77
0.209643 -0.325925 -0.587 132 82 83
0.210761 -0.325925 -0.587 124 74 75
0.21224 -0.32648 -0.588 116 70 70
0.213723 -0.327035 -0.589 116 70 70
0.215574 -0.328146 -0.591 114 74 74
0.217067 -0.328701 -0.592 114 74 74
0.218931 -0.329811 -0.594 110 74 74
0.220433 -0.330367 -0.595 111 75 75
0.222311 -0.331477 -0.597 113 77 77
0.224197 -0.332588 -0.599 112 76 76
0.22609 -0.333698 -0.601 110 74 76
0.22837 -0.335364 -0.604 110 74 76
0.23028 -0.336474 -0.606 111 79 80
0.23258 -0.33814 -0.609 109 77 78
0.234891 -0.339806 -0.612 106 77 79
0.255009 -0.351466 -0.633 143 145 168
0.256214 -0.351466 -0.633 143 145 168
0.257827 -0.352021 -0.634 158 160 183
0.259034 -0.352021 -0.634 173 171 184
0.260242 -0.352021 -0.634 179 177 190
0.345863 -0.353131 -0.636 175 195 245
0.347074 -0.353131 -0.636 175 193 239
0.348286 -0.353131 -0.636 188 206 252
0.349497 -0.353131 -0.636 221 234 250
0.350709 -0.353131 -0.636 241 254 255
0.35192 -0.353131 -0.636 248 253 255
0.353131 -0.353131 -0.636 250 255 255
0.3549 -0.353687 -0.637 251 255 253
0.356113 -0.353687 -0.637 250 255 252
0.357327 -0.353687 -0.637 251 255 254
0.36582 -0.353687 -0.637 160 174 219
0.367033 -0.353687 -0.637 151 165 210
0.368247 -0.353687 -0.637 154 175 222
0.36946 -0.353687 -0.637 145 166 213
0.374313 -0.353687 -0.637 160 179 235
0.375527 -0.353687 -0.637 136 159 213
0.37674 -0.353687 -0.637 140 163 217
0.377953 -0.353687 -0.637 135 157 214
0.379167 -0.353687 -0.637 135 157 214
0.38038 -0.353687 -0.637 154 174 225
0.381593 -0.353687 -0.637 159 179 230
0.382807 -0.353687 -0.637 184 198 227
0.38402 -0.353687 -0.637 217 231 255
0.385233 -0.353687 -0.637 244 252 255
0.387053 -0.354242 -0.638 244 252 255
0.388269 -0.354242 -0.638 246 249 254
0.389484 -0.354242 -0.638 249 252 255
0.390699 -0.354242 -0.638 247 248 253
0.391914 -0.354242 -0.638 247 248 253
0.39313 -0.354242 -0.638 231 232 237
0.394345 -0.354242 -0.638 213 217 228
0.39556 -0.354242 -0.638 233 237 248
0.396775 -0.354242 -0.638 206 218 242
0.39799 -0.354242 -0.638 174 186 210
0.399206 -0.354242 -0.638 151 174 216
0.401049 -0.354797 -0.639 161 184 226
0.402266 -0.354797 -0.639 152 185 238
0.403483 -0.354797 -0.639 144 177 230
0.4047 -0.354797 -0.639 139 175 227
0.405917 -0.354797 -0.639 140 176 228
0.407134 -0.354797 -0.639 143 177 223
0.408351 -0.354797 -0.639 145 179 225
0.409569 -0.354797 -0.639 149 181 230
0.410786 -0.354797 -0.639 130 162 211
0.412003 -0.354797 -0.639 142 165 209
0.41322 -0.354797 -0.639 182 205 249
0.414437 -0.354797 -0.639 223 234 255
0.415654 -0.354797 -0.639 226 237 255
0.416871 -0.354797 -0.639 228 230 253
0.418089 -0.354797 -0.639 229 231 254
0.419306 -0.354797 -0.639 226 232 248
0.420523 -0.354797 -0.639 228 234 250
0.4224 -0.355352 -0.64 219 221 242
0.423619 -0.355352 -0.64 194 196 217
0.424838 -0.355352 -0.64 194 196 217
0.426057 -0.355352 -0.64 177 185 208
0.427276 -0.355352 -0.64 179 187 210
0.428495 -0.355352 -0.64 151 176 217
0.429714 -0.355352 -0.64 127 152 193
0.430933 -0.355352 -0.64 90 123 177
0.432152 -0.355352 -0.64 81 114 168
0.433371 -0.355352 -0.64 71 109 180
0.43459 -0.355352 -0.64 66 104 175
0.43581 -0.355352 -0.64 85 129 200
0.436346 -0.354797 -0.639 111 155 226
0.437563 -0.354797 -0.639 69 117 183
0.43878 -0.354797 -0.639 51 99 165
0.439997 -0.354797 -0.639 57 102 170
0.441905 -0.355352 -0.64 54 99 167
0.443124 -0.355352 -0.64 68 107 174
0.444343 -0.355352 -0.64 108 147 214
0.445562 -0.355352 -0.64 148 171 223
0.447479 -0.355908 -0.641 165 188 240
0.4487 -0.355908 -0.641 201 207 223
0.449921 -0.355908 -0.641 208 214 230
0.451142 -0.355908 -0.641 187 183 197
0.452363 -0.355908 -0.641 175 171 185
0.453584 -0.355908 -0.641 195 197 209
0.454805 -0.355908 -0.641 211 213 225
0.456026 -0.355908 -0.641 208 210 223
0.457247 -0.355908 -0.641 208 210 223
0.458468 -0.355908 -0.641 212 214 227
0.459689 -0.355908 -0.641 198 204 216
0.46019 -0.355352 -0.64 163 169 181
0.46141 -0.355352 -0.64 94 134 195
0.462629 -0.355352 -0.64 90 130 191
0.464572 -0.355908 -0.641 103 149 211
0.465793 -0.355908 -0.641 95 141 203
0.467014 -0.355908 -0.641 83 125 197
0.468235 -0.355908 -0.641 74 116 188
0.469456 -0.355908 -0.641 55 103 175
0.470677 -0.355908 -0.641 61 109 181
0.471898 -0.355908 -0.641 67 119 179
0.473857 -0.356463 -0.642 82 134 194
0.47508 -0.356463 -0.642 95 139 202
0.476303 -0.356463 -0.642 88 132 195
0.477526 -0.356463 -0.642 74 113 178
0.478749 -0.356463 -0.642 102 141 206
0.479971 -0.356463 -0.642 178 191 207
0.481194 -0.356463 -0.642 195 208 224
0.482417 -0.356463 -0.642 200 204 213
0.48364 -0.356463 -0.642 199 203 212
0.484863 -0.356463 -0.642 199 200 220
0.486843 -0.357018 -0.643 198 199 219
0.488068 -0.357018 -0.643 167 169 182
0.489292 -0.357018 -0.643 169 171 184
0.490517 -0.357018 -0.643 187 188 209
0.491742 -0.357018 -0.643 184 185 206
0.492967 -0.357018 -0.643 184 185 206
0.494191 -0.357018 -0.643 165 182 212
0.495416 -0.357018 -0.643 143 160 190
0.497413 -0.357573 -0.644 99 130 195
0.49864 -0.357573 -0.644 54 85 150
0.49909 -0.357018 -0.643 43 76 143
0.500315 -0.357018 -0.643 43 76 143
0.50154 -0.357018 -0.643 37 76 145
0.501983 -0.356463 -0.642 74 111 179
0.503206 -0.356463 -0.642 71 110 179
0.504429 -0.356463 -0.642 38 77 146
0.505651 -0.356463 -0.642 38 75 145
0.506874 -0.356463 -0.642 50 87 157
0.508097 -0.356463 -0.642 51 84 155
0.50932 -0.356463 -0.642 79 112 183
0.510543 -0.356463 -0.642 111 133 182
0.511766 -0.356463 -0.642 138 160 209
0.512989 -0.356463 -0.642 153 167 196
0.514211 -0.356463 -0.642 134 148 177
0.515434 -0.356463 -0.642 159 161 176
0.516657 -0.356463 -0.642 192 194 209
0.51788 -0.356463 -0.642 193 197 209
0.519103 -0.356463 -0.642 192 196 208
0.520326 -0.356463 -0.642 192 199 215
0.521549 -0.356463 -0.642 192 199 215
0.522771 -0.356463 -0.642 194 200 216
0.52481 -0.357018 -0.643 178 184 200
0.526035 -0.357018 -0.643 121 141 176
0.52726 -0.357018 -0.643 104 124 159
0.528485 -0.357018 -0.643 101 136 192
0.52971 -0.357018 -0.643 106 141 197
0.530934 -0.357018 -0.643 106 141 197
0.531331 -0.356463 -0.642 101 130 188
0.532554 -0.356463 -0.642 106 135 193
0.537056 -0.343692 -0.619 163 139 137
0.52867 -0.337585 -0.608 162 138 136
0.517629 -0.329811 -0.594 162 138 136
0.50304 -0.319817 -0.576 162 138 136
0.493634 -0.313154 -0.564 162 138 136
0.48506 -0.307047 -0.553 165 140 136
0.477323 -0.301494 -0.543 165 140 136
0.47131 -0.297052 -0.535 169 141 137
0.466149 -0.293166 -0.528 168 140 136
0.461846 -0.289834 -0.522 166 138 134
0.45752 -0.286503 -0.516 167 139 135
0.454949 -0.284282 -0.512 169 141 137
0.452362 -0.282061 -0.508 170 142 138
0.45333 -0.282061 -0.508 170 142 138
0.451614 -0.280395 -0.505 182 144 135
0.449888 -0.27873 -0.502 183 145 136
0.44815 -0.277064 -0.499 185 147 136
0.4473 -0.275953 -0.497 187 149 138
0.446443 -0.274843 -0.495 184 146 133
0.446482 -0.274288 -0.494 185 147 134
0.445611 -0.273177 -0.492 189 150 135
0.445641 -0.272622 -0.491 187 148 133
0.445667 -0.272067 -0.49 189 150 133
0.445689 -0.271511 -0.489 191 152 135
0.444793 -0.270401 -0.487 195 154 136
0.444806 -0.269846 -0.486 196 155 137
0.445731 -0.269846 -0.486 197 156 136
0.445738 -0.26929 -0.485 198 157 137
0.445741 -0.268735 -0.484 198 157 137
0.446663 -0.268735 -0.484 197 156 136
0.447585 -0.268735 -0.484 197 154 135
0.44758 -0.26818 -0.483 196 153 134
0.447571 -0.267625 -0.482 197 154 135
0.44849 -0.267625 -0.482 198 155 136
0.448475 -0.26707 -0.481 201 158 139
0.449391 -0.26707 -0.481 201 158 139
0.449371 -0.266514 -0.48 200 157 138
0.449348 -0.265959 -0.479 199 156 137
0.45026 -0.265959 -0.479 198 155 136
0.451172 -0.265959 -0.479 199 156 137
0.451141 -0.265404 -0.478 197 155 133
0.452051 -0.265404 -0.478 196 154 132
0.452014 -0.264849 -0.477 197 155 133
0.452923 -0.264849 -0.477 196 154 132
0.45288 -0.264293 -0.476 195 153 131
0.453787 -0.264293 -0.476 195 153 131
0.454693 -0.264293 -0.476 194 149 130
0.454643 -0.263738 -0.475 194 149 130
0.455548 -0.263738 -0.475 191 146 127
0.456452 -0.263738 -0.475 192 147 128
0.456394 -0.263183 -0.474 195 150 131
0.457297 -0.263183 -0.474 195 150 131
0.4582 -0.263183 -0.474 196 151 132
0.459103 -0.263183 -0.474 198 153 134
0.460006 -0.263183 -0.474 199 154 135
0.459936 -0.262628 -0.473 198 153 134
0.460837 -0.262628 -0.473 198 153 134
0.461738 -0.262628 -0.473 198 153 134
0.461661 -0.262072 -0.472 196 151 132
0.46256 -0.262072 -0.472 196 151 132
0.463459 -0.262072 -0.472 193 148 129
0.464358 -0.262072 -0.472 193 148 129
0.464271 -0.261517 -0.471 191 146 127
0.465169 -0.261517 -0.471 192 147 126
0.466066 -0.261517 -0.471 193 148 127
0.466963 -0.261517 -0.471 194 149 128
0.46786 -0.261517 -0.471 196 151 130
0.467762 -0.260962 -0.47 196 151 132
0.468657 -0.260962 -0.47 194 149 130
0.469552 -0.260962 -0.47 190 147 128
0.470448 -0.260962 -0.47 190 147 128
0.471343 -0.260962 -0.47 191 148 129
0.472238 -0.260962 -0.47 186 143 124
0.473133 -0.260962 -0.47 183 140 123
0.474029 -0.260962 -0.47 179 136 119
0.474924 -0.260962 -0.47 182 139 123
0.476831 -0.261517 -0.471 181 138 122
0.477729 -0.261517 -0.471 180 137 120
0.478626 -0.261517 -0.471 179 136 119
0.480541 -0.262072 -0.472 178 135 119
0.48144 -0.262072 -0.472 177 134 118
0.483361 -0.262628 -0.473 177 133 120
0.484262 -0.262628 -0.473 174 130 117
0.486189 -0.263183 -0.474 170 128 114
0.488119 -0.263738 -0.475 170 128 114
0.490053 -0.264293 -0.476 168 128 116
0.49096 -0.264293 -0.476 167 127 115
0.4929 -0.264849 -0.477 163 125 114
0.494844 -0.265404 -0.478 163 125 114
0.496791 -0.265959 -0.479 162 124 115
0.499782 -0.26707 -0.481 159 121 112
0.501739 -0.267625 -0.482 157 120 111
0.504743 -0.268735 -0.484 157 120 111
1.15801 -0.357018 -0.643 201 205 190
1.15743 -0.356463 -0.642 200 204 190
1.15685 -0.355908 -0.641 200 204 190
1.15627 -0.355352 -0.64 200 204 190
1.15568 -0.354797 -0.639 200 204 190
1.15327 -0.353687 -0.637 201 203 189
1.15086 -0.352576 -0.635 202 204 190
1.14844 -0.351466 -0.633 209 212 195
1.14602 -0.350355 -0.631 200 203 186
1.14358 -0.349245 -0.629 202 204 191
0.111572 -0.338186 -0.607 191 150 146
0.1118 -0.3354 -0.602 201 150 133
0.112009 -0.332614 -0.597 199 148 131
0.112198 -0.329829 -0.592 190 150 138
0.112369 -0.327043 -0.587 191 151 139
0.112713 -0.324814 -0.583 193 149 136
0.113043 -0.322586 -0.579 192 148 135
0.113751 -0.321471 -0.577 187 149 138
0.114452 -0.320357 -0.575 186 148 137
0.115146 -0.319243 -0.573 192 143 129
0.116034 -0.318686 -0.572 193 144 130
