ply
format ascii 1.0
comment Created by Open3D
element vertex 1292
property double x
property double y
property double z
property uchar red
property uchar green
property uchar blue
end_header
0.156863 -0.272219 -0.566 172 112 104
0.157941 -0.272219 -0.566 170 110 102
0.159019 -0.272219 -0.566 171 112 106
0.160097 -0.272219 -0.566 177 118 112
0.161175 -0.272219 -0.566 180 121 113
0.162253 -0.272219 -0.566 177 118 110
0.16362 -0.2727 -0.567 180 120 112
0.1647 -0.2727 -0.567 180 120 112
0.16578 -0.2727 -0.567 180 120 112
0.16686 -0.2727 -0.567 174 117 108
0.16794 -0.2727 -0.567 170 113 104
0.16902 -0.2727 -0.567 165 106 98
0.1704 -0.273181 -0.568 165 106 98
0.171482 -0.273181 -0.568 160 103 96
0.172564 -0.273181 -0.568 153 96 89
0.173646 -0.273181 -0.568 149 94 89
0.175035 -0.273662 -0.569 149 94 89
0.176429 -0.274143 -0.57 147 92 89
0.177514 -0.274143 -0.57 143 88 85
0.178913 -0.274624 -0.571 142 86 85
0.180316 -0.275105 -0.572 140 84 83
0.181723 -0.275586 -0.573 142 88 86
0.183133 -0.276067 -0.574 146 92 90
0.184548 -0.276548 -0.575 145 91 91
0.186289 -0.27751 -0.577 148 94 94
0.187712 -0.27799 -0.578 149 95 93
0.189793 -0.279433 -0.581 147 93 91
0.191557 -0.280395 -0.583 151 95 94
0.193329 -0.281357 -0.585 142 86 85
0.19544 -0.2828 -0.588 124 75 78
0.197563 -0.284243 -0.591 114 65 68
0.199697 -0.285686 -0.594 104 77 86
0.202181 -0.28761 -0.598 131 104 113
0.2057 -0.290976 -0.605 119 114 137
0.208904 -0.293862 -0.611 123 118 141
0.21213 -0.296748 -0.617 110 114 152
0.21538 -0.299633 -0.623 98 102 140
0.219 -0.303 -0.63 83 86 127
0.222647 -0.306367 -0.637 81 84 125
0.24016 -0.303962 -0.632 189 128 127
0.238309 -0.300114 -0.624 188 127 126
0.236427 -0.296267 -0.616 187 128 130
0.235286 -0.293381 -0.61 192 133 135
0.23451 -0.290976 -0.605 194 130 130
0.234883 -0.290014 -0.603 195 131 131
0.23564 -0.289533 -0.602 196 132 133
0.236393 -0.289052 -0.601 195 131 132
0.237538 -0.289052 -0.601 193 129 129
0.238683 -0.289052 -0.601 192 128 128
0.240227 -0.289533 -0.602 182 123 117
0.241774 -0.290014 -0.603 171 112 106
0.243326 -0.290495 -0.604 164 105 97
0.245286 -0.291457 -0.606 164 105 97
0.247253 -0.292419 -0.608 155 100 97
0.249637 -0.293862 -0.611 148 93 90
0.252032 -0.295305 -0.614 140 95 98
0.254439 -0.296748 -0.617 133 88 91
0.257686 -0.299152 -0.622 120 89 94
0.260535 -0.301076 -0.626 129 98 103
0.263818 -0.303481 -0.631 209 196 205
0.26502 -0.303481 -0.631 209 196 205
0.268331 -0.305886 -0.636 217 204 213
0.270814 -0.307329 -0.639 214 208 222
0.547793 -0.311176 -0.647 162 134 131
0.538843 -0.305405 -0.635 162 134 131
0.480109 -0.270295 -0.562 166 137 133
0.470049 -0.264043 -0.549 169 140 136
0.46423 -0.260195 -0.541 171 141 133
0.45924 -0.256829 -0.534 173 143 135
0.455948 -0.254424 -0.529 173 139 130
0.4535 -0.2525 -0.525 176 142 133
0.451903 -0.251057 -0.522 180 144 132
0.450294 -0.249614 -0.519 186 150 138
0.451283 -0.249614 -0.519 186 150 138
0.449657 -0.248171 -0.516 185 147 136
0.44802 -0.246729 -0.513 180 142 131
0.448122 -0.246248 -0.512 178 140 129
0.447343 -0.245286 -0.51 188 150 139
0.447435 -0.244805 -0.509 186 146 134
0.446643 -0.243843 -0.507 193 153 141
0.446726 -0.243362 -0.506 193 150 134
0.44592 -0.2424 -0.504 196 153 137
0.445993 -0.241919 -0.503 192 149 132
0.446951 -0.241919 -0.503 200 157 140
0.447019 -0.241438 -0.502 196 153 137
0.447975 -0.241438 -0.502 198 155 139
0.448037 -0.240957 -0.501 202 159 140
0.448095 -0.240476 -0.5 197 154 135
0.449048 -0.240476 -0.5 196 150 134
0.4491 -0.239995 -0.499 197 151 135
0.45005 -0.239995 -0.499 199 153 137
0.451001 -0.239995 -0.499 199 153 137
0.451046 -0.239514 -0.498 198 153 134
0.451994 -0.239514 -0.498 198 153 134
0.452943 -0.239514 -0.498 200 155 136
0.453891 -0.239514 -0.498 200 155 136
0.45484 -0.239514 -0.498 201 154 138
0.454873 -0.239033 -0.497 201 154 138
0.45582 -0.239033 -0.497 201 154 138
0.456767 -0.239033 -0.497 200 153 137
0.457713 -0.239033 -0.497 202 155 137
0.45866 -0.239033 -0.497 205 158 140
0.459607 -0.239033 -0.497 200 155 134
0.460553 -0.239033 -0.497 197 152 131
0.4615 -0.239033 -0.497 198 151 131
0.461516 -0.238552 -0.496 199 152 132
0.462461 -0.238552 -0.496 196 150 127
0.463406 -0.238552 -0.496 196 150 127
0.46435 -0.238552 -0.496 197 151 128
0.465295 -0.238552 -0.496 195 149 126
0.4653 -0.238071 -0.495 193 147 123
0.466243 -0.238071 -0.495 193 147 123
0.467186 -0.238071 -0.495 197 151 127
0.468129 -0.238071 -0.495 185 138 112
0.469071 -0.238071 -0.495 185 138 112
0.470014 -0.238071 -0.495 191 144 118
0.470957 -0.238071 -0.495 192 145 119
0.4719 -0.238071 -0.495 195 148 122
0.472843 -0.238071 -0.495 187 140 114
0.473786 -0.238071 -0.495 191 140 111
0.47377 -0.23759 -0.494 191 140 111
0.47471 -0.23759 -0.494 192 142 115
0.475651 -0.23759 -0.494 192 142 115
0.477557 -0.238071 -0.495 187 137 110
0.4785 -0.238071 -0.495 186 136 109
0.479443 -0.238071 -0.495 185 138 112
0.480386 -0.238071 -0.495 179 132 106
0.481329 -0.238071 -0.495 176 130 106
0.482271 -0.238071 -0.495 177 131 107
0.48419 -0.238552 -0.496 177 133 108
0.485135 -0.238552 -0.496 176 132 107
0.48706 -0.239033 -0.497 176 131 108
0.488007 -0.239033 -0.497 176 131 108
0.489937 -0.239514 -0.498 170 128 104
0.492857 -0.240476 -0.5 165 123 99
0.494797 -0.240957 -0.501 163 121 96
0.49773 -0.241919 -0.503 158 116 91
-0.106718 -0.302269 -0.626 90 91 95
-0.105189 -0.301303 -0.624 96 97 102
-0.1035 -0.299854 -0.621 87 88 93
-0.101988 -0.298889 -0.619 88 89 94
-0.100157 -0.296957 -0.615 88 89 94
-0.0985029 -0.295509 -0.612 89 90 95
-0.09686 -0.29406 -0.609 90 91 96
-0.0952286 -0.292611 -0.606 90 91 96
-0.0939191 -0.292129 -0.605 89 90 95
-0.0926133 -0.291646 -0.604 88 89 94
-0.0913114 -0.291163 -0.603 88 89 94
-0.0901629 -0.291163 -0.603 84 85 90
-0.0891619 -0.291646 -0.604 88 89 94
-0.0881571 -0.292129 -0.605 80 81 85
-0.0871486 -0.292611 -0.606 82 83 87
-0.0862781 -0.293577 -0.608 79 80 84
-0.0854 -0.294543 -0.61 84 85 89
-0.0843762 -0.295026 -0.611 75 76 81
-0.0834848 -0.295991 -0.613 197 198 203
-0.0824514 -0.296474 -0.614 138 139 144
-0.0815467 -0.29744 -0.616 85 86 91
-0.0806343 -0.298406 -0.618 68 71 76
-0.0797143 -0.299371 -0.62 64 67 72
-0.0787867 -0.300337 -0.622 60 61 66
-0.0779762 -0.301786 -0.625 51 51 59
-0.0769086 -0.302269 -0.626 51 51 59
-0.0758371 -0.302751 -0.627 47 47 55
-0.0747619 -0.303234 -0.628 54 54 62
0.12941 -0.305166 -0.632 193 140 134
0.12896 -0.301303 -0.624 194 141 135
0.129314 -0.299371 -0.62 192 139 133
0.128601 -0.295026 -0.611 188 135 129
0.128278 -0.291646 -0.604 188 133 126
0.128143 -0.288749 -0.598 188 133 126
0.128201 -0.286334 -0.593 191 136 129
0.128676 -0.284886 -0.59 189 134 127
0.12914 -0.283437 -0.587 187 132 125
0.129814 -0.282471 -0.585 187 132 125
0.130481 -0.281506 -0.583 190 135 128
0.13114 -0.28054 -0.581 191 136 129
0.132019 -0.280057 -0.58 190 136 126
0.132665 -0.279091 -0.578 188 134 124
0.133303 -0.278126 -0.576 189 134 127
0.134167 -0.277643 -0.575 190 135 128
0.135027 -0.27716 -0.574 194 137 130
0.135883 -0.276677 -0.573 194 137 130
0.136735 -0.276194 -0.572 190 133 126
0.137584 -0.275711 -0.571 183 126 119
0.138429 -0.275229 -0.57 183 126 119
0.139514 -0.275229 -0.57 186 129 122
0.140353 -0.274746 -0.569 186 129 122
0.141189 -0.274263 -0.568 187 130 123
0.14227 -0.274263 -0.568 185 126 122
0.1431 -0.27378 -0.567 185 126 122
0.14418 -0.27378 -0.567 190 131 127
0.14526 -0.27378 -0.567 190 131 127
0.14634 -0.27378 -0.567 189 130 126
0.14742 -0.27378 -0.567 190 131 127
0.1485 -0.27378 -0.567 190 131 125
0.14958 -0.27378 -0.567 188 129 123
0.150394 -0.273297 -0.566 186 127 121
0.151472 -0.273297 -0.566 182 123 117
0.15255 -0.273297 -0.566 182 121 116
0.153629 -0.273297 -0.566 177 116 111
0.154707 -0.273297 -0.566 170 109 104
0.155785 -0.273297 -0.566 169 108 103
0.156863 -0.273297 -0.566 171 110 105
0.157941 -0.273297 -0.566 172 111 106
0.159019 -0.273297 -0.566 180 119 114
0.160097 -0.273297 -0.566 179 118 113
0.161175 -0.273297 -0.566 182 119 114
0.162253 -0.273297 -0.566 179 116 111
0.163331 -0.273297 -0.566 178 115 110
0.1647 -0.27378 -0.567 179 116 111
0.16578 -0.27378 -0.567 179 116 111
0.16686 -0.27378 -0.567 173 109 100
0.16794 -0.27378 -0.567 171 107 98
0.16902 -0.27378 -0.567 167 107 99
0.1701 -0.27378 -0.567 168 108 100
0.171482 -0.274263 -0.568 159 102 95
0.172564 -0.274263 -0.568 152 95 88
0.173646 -0.274263 -0.568 148 95 87
0.175035 -0.274746 -0.569 144 91 83
0.176429 -0.275229 -0.57 143 92 88
0.177514 -0.275229 -0.57 139 88 84
0.178913 -0.275711 -0.571 140 89 86
0.180316 -0.276194 -0.572 142 91 88
0.181723 -0.276677 -0.573 143 92 91
0.183133 -0.27716 -0.574 140 89 88
0.184548 -0.277643 -0.575 145 91 91
0.186289 -0.278609 -0.577 147 93 93
0.187712 -0.279091 -0.578 137 91 93
0.189467 -0.280057 -0.58 141 95 97
0.191557 -0.281506 -0.583 145 91 89
0.193329 -0.282471 -0.585 143 89 87
0.19544 -0.28392 -0.588 141 91 90
0.197229 -0.284886 -0.59 135 85 84
0.199361 -0.286334 -0.593 117 85 96
0.202181 -0.288749 -0.598 122 90 101
0.2057 -0.292129 -0.605 112 102 127
0.208904 -0.295026 -0.611 111 101 126
0.21213 -0.297923 -0.617 102 101 133
0.215726 -0.301303 -0.624 97 96 128
0.219 -0.3042 -0.63 86 85 117
0.222647 -0.30758 -0.637 79 78 110
0.240847 -0.30758 -0.637 171 121 124
0.23864 -0.303234 -0.628 188 126 127
0.236781 -0.299371 -0.62 188 126 127
0.234891 -0.295509 -0.612 190 128 129
0.234129 -0.293094 -0.607 193 131 132
0.233734 -0.291163 -0.603 194 128 130
0.234493 -0.29068 -0.602 194 128 130
0.235249 -0.290197 -0.601 199 133 137
0.236 -0.289714 -0.6 196 130 134
0.237143 -0.289714 -0.6 194 128 129
0.238286 -0.289714 -0.6 189 123 124
0.239828 -0.290197 -0.601 188 120 117
0.241774 -0.291163 -0.603 178 110 107
0.243326 -0.291646 -0.604 168 103 99
0.245286 -0.292611 -0.606 157 92 88
0.247253 -0.293577 -0.608 147 91 90
0.249229 -0.294543 -0.61 147 91 90
0.251622 -0.295991 -0.613 130 90 91
0.254439 -0.297923 -0.617 126 86 87
0.257271 -0.299854 -0.621 119 90 92
0.260535 -0.302269 -0.626 119 90 92
0.2634 -0.3042 -0.63 190 184 198
0.2646 -0.3042 -0.63 190 184 198
0.26791 -0.306614 -0.635 205 199 213
0.270814 -0.308546 -0.639 201 200 216
0.541389 -0.308063 -0.638 165 135 127
0.486089 -0.274746 -0.569 166 136 134
0.472617 -0.266537 -0.552 169 139 137
0.465946 -0.262191 -0.543 169 139 139
0.46096 -0.258811 -0.536 171 141 141
0.457671 -0.256397 -0.531 171 138 133
0.454364 -0.253983 -0.526 174 141 136
0.452769 -0.252534 -0.523 182 145 136
0.450294 -0.250603 -0.519 185 148 139
0.451283 -0.250603 -0.519 185 148 139
0.449657 -0.249154 -0.516 190 148 134
0.448893 -0.248189 -0.514 190 148 134
0.448122 -0.247223 -0.512 191 147 134
0.447343 -0.246257 -0.51 191 147 134
0.447435 -0.245774 -0.509 193 149 136
0.447524 -0.245291 -0.508 195 151 138
0.446726 -0.244326 -0.506 197 151 136
0.446805 -0.243843 -0.505 197 151 136
0.445993 -0.242877 -0.503 199 153 138
0.446951 -0.242877 -0.503 199 153 138
0.447019 -0.242394 -0.502 194 150 137
0.447975 -0.242394 -0.502 194 150 137
0.448037 -0.241911 -0.501 198 155 138
0.448095 -0.241429 -0.5 192 149 132
0.449048 -0.241429 -0.5 181 140 120
0.4491 -0.240946 -0.499 182 141 121
0.45005 -0.240946 -0.499 193 150 131
0.451001 -0.240946 -0.499 196 153 134
0.451046 -0.240463 -0.498 197 151 135
0.451994 -0.240463 -0.498 197 151 135
0.452033 -0.23998 -0.497 199 153 137
0.45298 -0.23998 -0.497 199 153 137
0.453927 -0.23998 -0.497 200 155 136
0.454873 -0.23998 -0.497 198 153 134
0.45582 -0.23998 -0.497 202 157 138
0.456767 -0.23998 -0.497 201 156 137
0.456792 -0.239497 -0.496 205 158 142
0.457737 -0.239497 -0.496 204 157 141
0.458682 -0.239497 -0.496 201 156 137
0.459627 -0.239497 -0.496 198 153 134
0.460571 -0.239497 -0.496 198 153 132
0.461516 -0.239497 -0.496 197 152 131
0.461529 -0.239014 -0.495 196 149 129
0.462471 -0.239014 -0.495 195 148 128
0.463414 -0.239014 -0.495 195 149 126
0.464357 -0.239014 -0.495 195 149 126
0.4653 -0.239014 -0.495 191 145 122
0.466243 -0.239014 -0.495 195 149 126
0.467186 -0.239014 -0.495 195 149 126
0.467183 -0.238531 -0.494 191 143 120
0.468124 -0.238531 -0.494 192 144 121
0.469065 -0.238531 -0.494 194 146 123
0.470006 -0.238531 -0.494 191 143 120
0.470947 -0.238531 -0.494 187 139 116
0.471888 -0.238531 -0.494 188 140 117
0.472829 -0.238531 -0.494 191 141 116
0.47377 -0.238531 -0.494 190 140 115
0.47471 -0.238531 -0.494 191 141 116
0.475651 -0.238531 -0.494 191 141 116
0.476592 -0.238531 -0.494 188 141 115
0.4785 -0.239014 -0.495 184 137 111
0.479443 -0.239014 -0.495 183 136 110
0.480386 -0.239014 -0.495 184 137 111
0.481329 -0.239014 -0.495 182 137 108
0.482271 -0.239014 -0.495 183 138 109
0.483214 -0.239014 -0.495 178 133 104
0.485135 -0.239497 -0.496 176 131 102
0.48608 -0.239497 -0.496 176 132 103
0.488007 -0.23998 -0.497 176 132 103
0.488953 -0.23998 -0.497 175 131 102
0.490886 -0.240463 -0.498 172 128 99
0.49381 -0.241429 -0.5 159 124 102
0.495751 -0.241911 -0.501 159 124 102
-0.105357 -0.302976 -0.625 96 97 101
-0.103833 -0.302007 -0.623 97 98 102
-0.102152 -0.300552 -0.62 95 96 101
-0.100483 -0.299098 -0.617 94 95 100
-0.0989857 -0.298129 -0.615 94 95 100
-0.0973371 -0.296674 -0.612 94 95 100
-0.0957 -0.29522 -0.609 94 95 100
-0.0943848 -0.294735 -0.608 93 94 99
-0.0930733 -0.29425 -0.607 93 94 99
-0.0917657 -0.293766 -0.606 93 94 99
-0.0904619 -0.293281 -0.605 88 89 94
-0.0894571 -0.293766 -0.606 91 92 97
-0.0884486 -0.29425 -0.607 91 92 97
-0.0872924 -0.29425 -0.607 85 86 91
-0.08642 -0.29522 -0.609 83 84 89
-0.08554 -0.29619 -0.611 83 84 89
-0.0843762 -0.29619 -0.611 75 76 81
-0.0834848 -0.297159 -0.613 104 105 110
-0.0825857 -0.298129 -0.615 91 92 97
-0.0815467 -0.298613 -0.616 79 80 85
-0.0806343 -0.299583 -0.618 71 72 77
-0.0797143 -0.300552 -0.62 66 67 72
-0.07866 -0.301037 -0.621 62 63 68
-0.0777267 -0.302007 -0.623 58 59 64
-0.0767857 -0.302976 -0.625 53 53 61
-0.0757162 -0.303461 -0.626 55 55 63
0.12941 -0.30637 -0.632 193 140 134
0.12896 -0.302491 -0.624 194 141 135
0.128689 -0.299098 -0.617 190 137 131
0.12818 -0.29522 -0.609 188 135 129
0.127853 -0.291827 -0.602 190 135 128
0.127929 -0.289403 -0.597 190 135 128
0.127985 -0.286979 -0.592 190 135 128
0.128458 -0.285525 -0.589 190 135 128
0.12892 -0.28407 -0.586 188 133 126
0.129592 -0.283101 -0.584 186 131 124
0.130257 -0.282131 -0.582 188 133 126
0.13114 -0.281647 -0.581 189 134 127
0.131791 -0.280677 -0.579 190 133 124
0.132435 -0.279708 -0.577 190 133 124
0.133303 -0.279223 -0.576 194 139 132
0.133933 -0.278253 -0.574 194 139 132
0.134791 -0.277769 -0.573 196 139 132
0.135646 -0.277284 -0.572 194 137 130
0.136496 -0.276799 -0.571 191 134 127
0.137584 -0.276799 -0.571 186 129 122
0.138429 -0.276314 -0.57 185 127 123
0.13927 -0.27583 -0.569 188 130 126
0.140107 -0.275345 -0.568 186 128 124
0.141189 -0.275345 -0.568 187 129 125
0.14202 -0.27486 -0.567 188 129 125
0.1431 -0.27486 -0.567 188 129 125
0.14418 -0.27486 -0.567 189 130 126
0.14526 -0.27486 -0.567 189 130 126
0.14634 -0.27486 -0.567 191 132 128
0.14742 -0.27486 -0.567 194 135 131
0.1485 -0.27486 -0.567 193 134 128
0.14958 -0.27486 -0.567 189 130 124
0.150394 -0.274375 -0.566 182 123 117
0.151472 -0.274375 -0.566 179 120 114
0.15255 -0.274375 -0.566 180 119 114
0.153629 -0.274375 -0.566 177 116 111
0.154707 -0.274375 -0.566 175 114 109
0.155785 -0.274375 -0.566 174 113 108
0.156863 -0.274375 -0.566 173 112 107
0.157941 -0.274375 -0.566 176 115 110
0.159019 -0.274375 -0.566 179 118 113
0.160097 -0.274375 -0.566 177 116 111
0.161175 -0.274375 -0.566 180 117 112
0.162253 -0.274375 -0.566 176 113 108
0.163331 -0.274375 -0.566 174 111 104
0.16441 -0.274375 -0.566 174 111 104
0.165488 -0.274375 -0.566 174 111 104
0.16686 -0.27486 -0.567 168 104 95
0.16794 -0.27486 -0.567 168 104 95
0.16902 -0.27486 -0.567 163 103 95
0.1701 -0.27486 -0.567 162 102 94
0.17118 -0.27486 -0.567 156 99 92
0.172564 -0.275345 -0.568 150 93 86
0.173646 -0.275345 -0.568 144 91 83
0.175035 -0.27583 -0.569 142 89 81
0.176429 -0.276314 -0.57 144 93 89
0.177514 -0.276314 -0.57 140 89 85
0.178913 -0.276799 -0.571 140 89 88
0.180316 -0.277284 -0.572 138 87 86
0.181723 -0.277769 -0.573 139 87 89
0.183133 -0.278253 -0.574 137 85 87
0.184548 -0.278738 -0.575 142 88 88
0.186289 -0.279708 -0.577 143 89 89
0.187712 -0.280192 -0.578 138 89 92
0.189467 -0.281162 -0.58 137 88 91
0.191229 -0.282131 -0.582 136 85 84
0.193329 -0.283586 -0.585 140 89 88
0.195108 -0.284555 -0.587 152 102 103
0.197229 -0.28601 -0.59 152 102 103
0.199361 -0.287464 -0.593 127 94 103
0.201843 -0.289403 -0.597 118 85 94
0.20502 -0.292311 -0.603 100 85 108
0.208562 -0.295705 -0.61 99 84 107
0.211787 -0.298613 -0.616 91 87 120
0.239334 -0.306854 -0.633 173 123 124
0.23674 -0.302007 -0.623 190 129 128
0.235253 -0.298613 -0.616 191 130 129
0.23374 -0.29522 -0.609 195 131 132
0.233743 -0.293766 -0.606 194 130 131
0.233347 -0.291827 -0.602 196 132 133
0.234104 -0.291342 -0.601 195 131 132
0.234857 -0.290857 -0.6 199 135 136
0.236 -0.290857 -0.6 197 133 134
0.237143 -0.290857 -0.6 192 126 127
0.238286 -0.290857 -0.6 184 118 119
0.239828 -0.291342 -0.601 181 116 112
0.241373 -0.291827 -0.602 176 111 107
0.243326 -0.292796 -0.604 166 103 96
0.245286 -0.293766 -0.606 151 88 81
0.247253 -0.294735 -0.608 141 88 84
0.249229 -0.295705 -0.61 139 86 82
0.251622 -0.297159 -0.613 127 87 88
0.254027 -0.298613 -0.616 126 86 87
0.257271 -0.301037 -0.621 114 85 89
0.260119 -0.302976 -0.625 118 89 93
0.26131 -0.302976 -0.625 118 89 93
0.2646 -0.3054 -0.63 182 178 192
0.26791 -0.307824 -0.635 192 188 202
0.27039 -0.309278 -0.638 195 194 210
0.543086 -0.310248 -0.64 164 135 127
0.46852 -0.26468 -0.546 169 139 139
0.46268 -0.260802 -0.538 171 141 141
0.458533 -0.257893 -0.532 171 138 131
0.455228 -0.25547 -0.527 173 140 133
0.452769 -0.25353 -0.523 181 144 135
0.451162 -0.252076 -0.52 184 147 138
0.449544 -0.250622 -0.517 187 147 135
0.450529 -0.250622 -0.517 187 147 135
0.448893 -0.249168 -0.514 188 148 136
0.448122 -0.248198 -0.512 192 148 135
0.44822 -0.247713 -0.511 192 148 135
0.447435 -0.246744 -0.509 195 149 134
0.447524 -0.246259 -0.508 196 150 135
0.447609 -0.245774 -0.507 198 152 136
0.446805 -0.244805 -0.505 198 152 136
0.445993 -0.243835 -0.503 199 153 138
0.446063 -0.24335 -0.502 199 153 138
0.447019 -0.24335 -0.502 194 150 137
0.447083 -0.242866 -0.501 194 150 137
0.448037 -0.242866 -0.501 199 153 138
0.448095 -0.242381 -0.5 196 150 135
0.44815 -0.241896 -0.499 188 145 128
0.4491 -0.241896 -0.499 189 146 129
0.45005 -0.241896 -0.499 194 151 134
0.450097 -0.241411 -0.498 194 151 134
0.451046 -0.241411 -0.498 195 149 133
0.451994 -0.241411 -0.498 195 149 133
0.452033 -0.240927 -0.497 197 150 134
0.45298 -0.240927 -0.497 198 151 135
0.453927 -0.240927 -0.497 201 156 137
0.454873 -0.240927 -0.497 200 155 136
0.45582 -0.240927 -0.497 206 159 141
0.456767 -0.240927 -0.497 205 158 140
0.456792 -0.240442 -0.496 206 159 143
0.457737 -0.240442 -0.496 202 155 139
0.458682 -0.240442 -0.496 199 152 134
0.459627 -0.240442 -0.496 198 151 133
0.460571 -0.240442 -0.496 198 151 131
0.460586 -0.239957 -0.495 197 150 130
0.461529 -0.239957 -0.495 193 146 126
0.462471 -0.239957 -0.495 193 146 126
0.463414 -0.239957 -0.495 197 150 130
0.464357 -0.239957 -0.495 198 151 131
0.4653 -0.239957 -0.495 192 146 123
0.465301 -0.239472 -0.494 197 151 128
0.466242 -0.239472 -0.494 197 151 128
0.467183 -0.239472 -0.494 195 147 125
0.468124 -0.239472 -0.494 196 148 126
0.469065 -0.239472 -0.494 197 149 126
0.470006 -0.239472 -0.494 193 145 122
0.469993 -0.238988 -0.493 191 143 120
0.470932 -0.238988 -0.493 190 142 119
0.471871 -0.238988 -0.493 192 142 117
0.47281 -0.238988 -0.493 192 142 117
0.47375 -0.238988 -0.493 190 143 117
0.474689 -0.238988 -0.493 189 142 116
0.476592 -0.239472 -0.494 188 141 115
0.477533 -0.239472 -0.494 185 138 112
0.478474 -0.239472 -0.494 183 136 110
0.479415 -0.239472 -0.494 184 137 111
0.480356 -0.239472 -0.494 181 135 109
0.481297 -0.239472 -0.494 181 135 109
0.483214 -0.239957 -0.495 177 131 105
0.484157 -0.239957 -0.495 176 130 104
0.48608 -0.240442 -0.496 176 132 105
0.487025 -0.240442 -0.496 176 132 105
0.488953 -0.240927 -0.497 176 132 105
0.4899 -0.240927 -0.497 173 129 102
0.491834 -0.241411 -0.498 167 129 106
-0.105526 -0.304653 -0.626 99 100 104
-0.104 -0.30368 -0.624 100 101 105
-0.102482 -0.302707 -0.622 101 100 106
-0.100809 -0.301247 -0.619 100 99 105
-0.0993076 -0.300273 -0.617 99 98 104
-0.0978143 -0.2993 -0.615 99 98 104
-0.0961714 -0.29784 -0.612 98 97 103
-0.0948505 -0.297353 -0.611 97 96 102
-0.0935333 -0.296867 -0.61 97 96 102
-0.09222 -0.29638 -0.609 97 96 102
-0.0909105 -0.295893 -0.608 97 96 102
-0.0897524 -0.295893 -0.608 92 91 97
-0.08874 -0.29638 -0.609 94 93 99
-0.0877238 -0.296867 -0.61 88 87 93
-0.0865619 -0.296867 -0.61 94 93 99
-0.08554 -0.297353 -0.611 83 84 89
-0.0845143 -0.29784 -0.612 84 85 90
-0.083621 -0.298813 -0.614 80 81 86
-0.0825857 -0.2993 -0.615 83 84 89
-0.0815467 -0.299787 -0.616 79 80 85
-0.0806343 -0.30076 -0.618 71 71 79
-0.0795857 -0.301247 -0.619 68 68 76
-0.0785333 -0.301733 -0.62 64 64 72
-0.0776019 -0.302707 -0.622 59 59 67
-0.0766629 -0.30368 -0.624 59 59 67
-0.0757162 -0.304653 -0.626 55 55 63
-0.0746429 -0.30514 -0.627 57 57 65
0.129 -0.3066 -0.63 191 138 132
0.128547 -0.302707 -0.622 190 137 131
0.128063 -0.298813 -0.614 187 134 128
0.127759 -0.295407 -0.607 188 135 129
0.127429 -0.292 -0.6 192 137 130
0.1275 -0.289567 -0.595 192 137 130
0.127769 -0.28762 -0.591 190 135 128
0.12824 -0.28616 -0.588 191 136 129
0.1287 -0.2847 -0.585 188 133 126
0.12937 -0.283727 -0.583 186 131 124
0.130257 -0.28324 -0.582 189 132 125
0.130914 -0.282267 -0.58 190 133 126
0.131564 -0.281293 -0.578 189 132 125
0.132435 -0.280807 -0.577 189 132 125
0.133071 -0.279833 -0.575 193 138 133
0.133933 -0.279347 -0.574 195 140 135
0.134791 -0.27886 -0.573 196 138 134
0.135646 -0.278373 -0.572 193 135 131
0.136496 -0.277887 -0.571 190 132 128
0.137343 -0.2774 -0.57 187 129 125
0.138186 -0.276913 -0.569 185 127 123
0.13927 -0.276913 -0.569 187 129 125
0.140107 -0.276427 -0.568 186 128 124
0.14094 -0.27594 -0.567 186 128 124
0.14202 -0.27594 -0.567 188 129 125
0.1431 -0.27594 -0.567 191 132 128
0.14418 -0.27594 -0.567 190 131 127
0.14526 -0.27594 -0.567 188 129 125
0.14634 -0.27594 -0.567 191 132 128
0.14742 -0.27594 -0.567 193 134 130
0.1485 -0.27594 -0.567 192 133 127
0.149316 -0.275453 -0.566 189 130 124
0.150394 -0.275453 -0.566 182 123 117
0.151472 -0.275453 -0.566 179 120 114
0.15255 -0.275453 -0.566 178 117 112
0.153629 -0.275453 -0.566 176 115 110
0.154707 -0.275453 -0.566 176 115 110
0.155785 -0.275453 -0.566 175 114 109
0.156863 -0.275453 -0.566 178 117 112
0.157941 -0.275453 -0.566 180 119 114
0.159019 -0.275453 -0.566 180 119 114
0.160097 -0.275453 -0.566 175 114 109
0.161175 -0.275453 -0.566 177 114 107
0.162253 -0.275453 -0.566 173 110 103
0.163331 -0.275453 -0.566 174 111 104
0.16441 -0.275453 -0.566 174 111 104
0.165488 -0.275453 -0.566 173 110 103
0.166566 -0.275453 -0.566 168 104 95
0.167644 -0.275453 -0.566 168 104 95
0.16902 -0.27594 -0.567 164 104 96
0.1701 -0.27594 -0.567 160 100 92
0.17118 -0.27594 -0.567 155 98 91
0.172564 -0.276427 -0.568 150 93 86
0.173646 -0.276427 -0.568 142 89 83
0.175035 -0.276913 -0.569 142 89 83
0.176429 -0.2774 -0.57 141 90 86
0.177514 -0.2774 -0.57 138 87 83
0.178913 -0.277887 -0.571 137 86 85
0.180316 -0.278373 -0.572 134 83 82
0.181723 -0.27886 -0.573 137 85 87
0.183133 -0.279347 -0.574 136 84 86
0.184548 -0.279833 -0.575 140 85 88
0.186289 -0.280807 -0.577 138 83 86
0.187712 -0.281293 -0.578 130 78 80
0.189467 -0.282267 -0.58 138 86 88
0.191229 -0.28324 -0.582 143 91 93
0.192998 -0.284213 -0.584 146 94 96
0.195108 -0.285673 -0.587 148 99 102
0.196894 -0.286647 -0.589 149 100 103
0.199025 -0.288107 -0.592 136 96 104
0.201843 -0.29054 -0.597 133 93 101
0.20468 -0.292973 -0.602 114 93 112
0.207878 -0.295893 -0.608 97 76 95
0.237822 -0.306113 -0.629 180 126 124
0.23522 -0.301247 -0.619 194 130 128
0.234108 -0.298327 -0.613 196 132 130
0.232972 -0.295407 -0.607 197 133 133
0.232971 -0.293947 -0.604 194 130 130
0.232959 -0.292487 -0.601 190 129 128
0.233714 -0.292 -0.6 187 126 125
0.234857 -0.292 -0.6 189 127 128
0.236 -0.292 -0.6 188 126 127
0.237143 -0.292 -0.6 186 122 122
0.238286 -0.292 -0.6 176 112 112
0.239828 -0.292487 -0.601 174 109 105
0.241373 -0.292973 -0.602 173 108 104
0.242923 -0.29346 -0.603 167 104 97
0.244881 -0.294433 -0.605 153 90 83
0.246847 -0.295407 -0.607 142 89 83
0.249229 -0.296867 -0.61 138 85 79
0.251622 -0.298327 -0.613 127 89 88
0.254027 -0.299787 -0.616 125 87 86
0.256857 -0.301733 -0.62 108 82 85
0.260119 -0.304167 -0.625 115 89 92
0.26131 -0.304167 -0.625 115 89 92
0.2646 -0.3066 -0.63 174 170 185
0.267488 -0.308547 -0.634 189 185 200
0.27039 -0.310493 -0.638 194 193 211
0.545631 -0.312927 -0.643 161 136 131
0.537501 -0.307573 -0.632 163 134 128
0.471094 -0.26718 -0.549 168 138 138
0.4644 -0.2628 -0.54 169 139 139
0.460257 -0.25988 -0.534 171 138 133
0.456091 -0.25696 -0.528 172 139 134
0.453634 -0.255013 -0.524 177 143 134
0.451162 -0.253067 -0.52 181 147 138
0.449544 -0.251607 -0.517 184 146 135
0.450529 -0.251607 -0.517 184 146 135
0.449767 -0.250633 -0.515 185 147 136
0.448997 -0.24966 -0.513 190 148 134
0.44822 -0.248687 -0.511 191 149 135
0.448314 -0.2482 -0.51 196 150 134
0.447524 -0.247227 -0.508 195 149 133
0.447609 -0.24674 -0.507 199 152 136
0.446805 -0.245767 -0.505 199 152 136
0.445993 -0.244793 -0.503 198 151 135
0.446063 -0.244307 -0.502 198 151 135
0.446129 -0.24382 -0.501 197 151 136
0.447083 -0.24382 -0.501 198 152 137
0.448037 -0.24382 -0.501 201 153 139
0.448095 -0.243333 -0.5 199 151 137
0.44815 -0.242847 -0.499 195 149 134
0.4491 -0.242847 -0.499 195 149 134
0.449149 -0.24236 -0.498 196 150 134
0.450097 -0.24236 -0.498 196 150 134
0.45014 -0.241873 -0.497 197 150 134
0.451087 -0.241873 -0.497 196 149 133
0.452033 -0.241873 -0.497 196 149 133
0.45298 -0.241873 -0.497 196 149 133
0.453927 -0.241873 -0.497 200 153 135
0.453958 -0.241387 -0.496 201 154 136
0.454903 -0.241387 -0.496 205 158 140
0.455848 -0.241387 -0.496 206 159 141
0.456792 -0.241387 -0.496 206 157 140
0.457737 -0.241387 -0.496 202 153 136
0.457757 -0.2409 -0.495 197 150 132
0.4587 -0.2409 -0.495 196 149 131
0.459643 -0.2409 -0.495 197 150 132
0.460586 -0.2409 -0.495 196 149 131
0.461529 -0.2409 -0.495 192 145 125
0.462471 -0.2409 -0.495 193 146 126
0.462478 -0.240413 -0.494 197 150 130
0.463419 -0.240413 -0.494 198 151 131
0.46436 -0.240413 -0.494 196 149 129
0.465301 -0.240413 -0.494 199 152 132
0.465298 -0.239927 -0.493 197 151 128
0.466237 -0.239927 -0.493 197 151 128
0.467176 -0.239927 -0.493 197 151 128
0.468115 -0.239927 -0.493 196 150 127
0.469054 -0.239927 -0.493 194 148 125
0.469993 -0.239927 -0.493 196 150 127
0.470932 -0.239927 -0.493 194 148 125
0.471871 -0.239927 -0.493 194 146 123
0.47281 -0.239927 -0.493 194 146 123
0.47375 -0.239927 -0.493 193 145 122
0.474689 -0.239927 -0.493 191 143 120
0.475628 -0.239927 -0.493 190 142 119
0.476567 -0.239927 -0.493 187 139 116
0.477506 -0.239927 -0.493 183 137 113
0.478445 -0.239927 -0.493 183 137 113
0.479384 -0.239927 -0.493 180 134 110
0.481297 -0.240413 -0.494 179 133 109
0.482238 -0.240413 -0.494 177 131 107
0.483179 -0.240413 -0.494 177 131 107
0.4851 -0.2409 -0.495 177 133 108
0.486043 -0.2409 -0.495 176 132 107
0.48797 -0.241387 -0.496 175 131 106
0.488914 -0.241387 -0.496 174 130 105
0.490847 -0.241873 -0.497 174 132 108
0.492783 -0.24236 -0.498 170 128 104
0.494723 -0.242847 -0.499 162 124 105
0.498653 -0.244307 -0.502 159 121 102
0.5016 -0.24528 -0.504 157 120 102
-0.102811 -0.304869 -0.624 104 105 109
-0.101134 -0.303403 -0.621 104 105 109
-0.0997905 -0.302914 -0.62 104 103 108
-0.0982914 -0.301937 -0.618 103 102 107
-0.0966429 -0.300471 -0.615 102 101 107
-0.0953162 -0.299983 -0.614 102 101 107
-0.0939933 -0.299494 -0.613 101 102 106
-0.0926743 -0.299006 -0.612 101 102 106
-0.091359 -0.298517 -0.611 96 97 101
-0.0901952 -0.298517 -0.611 98 99 103
-0.0890314 -0.298517 -0.611 94 93 99
-0.0880114 -0.299006 -0.612 95 94 100
-0.0865619 -0.298029 -0.61 94 93 99
-0.08568 -0.299006 -0.612 86 85 91
-0.0846524 -0.299494 -0.613 84 83 89
-0.083621 -0.299983 -0.614 83 82 88
-0.0825857 -0.300471 -0.615 74 74 82
-0.0815467 -0.30096 -0.616 75 75 83
-0.0806343 -0.301937 -0.618 73 73 81
-0.0795857 -0.302426 -0.619 67 67 75
-0.0785333 -0.302914 -0.62 65 64 72
-0.0776019 -0.303891 -0.622 63 62 70
-0.07654 -0.30438 -0.623 58 58 66
-0.0754743 -0.304869 -0.624 57 57 65
-0.0745238 -0.305846 -0.626 58 58 66
0.12859 -0.306823 -0.628 189 136 128
0.128133 -0.302914 -0.62 187 134 126
0.127646 -0.299006 -0.612 186 133 125
0.127128 -0.295097 -0.604 188 135 127
0.127216 -0.292654 -0.599 192 137 130
0.127286 -0.290211 -0.594 193 138 131
0.127552 -0.288257 -0.59 190 135 128
0.128022 -0.286791 -0.587 191 136 129
0.12848 -0.285326 -0.584 191 133 129
0.12937 -0.284837 -0.583 188 130 126
0.130033 -0.28386 -0.581 189 131 127
0.130689 -0.282883 -0.579 190 132 128
0.131564 -0.282394 -0.578 189 132 125
0.132206 -0.281417 -0.576 188 131 124
0.133071 -0.280929 -0.575 191 133 129
0.1337 -0.279951 -0.573 194 136 132
0.134556 -0.279463 -0.572 194 136 132
0.135409 -0.278974 -0.571 191 133 129
0.136496 -0.278974 -0.571 188 130 126
0.137343 -0.278486 -0.57 187 129 125
0.138186 -0.277997 -0.569 186 128 124
0.13927 -0.277997 -0.569 187 129 125
0.140107 -0.277509 -0.568 187 130 123
0.14094 -0.27702 -0.567 187 130 123
0.14202 -0.27702 -0.567 189 130 124
0.1431 -0.27702 -0.567 192 133 127
0.14418 -0.27702 -0.567 194 135 129
0.14526 -0.27702 -0.567 190 131 125
0.14634 -0.27702 -0.567 187 128 122
0.14742 -0.27702 -0.567 186 127 121
0.1485 -0.27702 -0.567 187 128 122
0.149316 -0.276531 -0.566 189 130 124
0.150394 -0.276531 -0.566 184 123 118
0.151472 -0.276531 -0.566 181 120 115
0.15255 -0.276531 -0.566 178 117 112
0.153629 -0.276531 -0.566 173 112 107
0.154707 -0.276531 -0.566 174 113 108
0.155785 -0.276531 -0.566 174 113 108
0.156863 -0.276531 -0.566 178 117 112
0.157941 -0.276531 -0.566 181 120 115
0.159019 -0.276531 -0.566 183 120 113
0.160097 -0.276531 -0.566 179 116 109
0.161175 -0.276531 -0.566 179 116 109
0.162253 -0.276531 -0.566 175 112 105
0.163331 -0.276531 -0.566 177 114 107
0.16441 -0.276531 -0.566 177 114 107
0.165488 -0.276531 -0.566 175 112 105
0.166566 -0.276531 -0.566 169 106 97
0.167644 -0.276531 -0.566 169 106 97
0.168722 -0.276531 -0.566 166 106 96
0.1701 -0.27702 -0.567 160 100 90
0.17118 -0.27702 -0.567 153 96 89
0.17226 -0.27702 -0.567 149 92 85
0.173646 -0.277509 -0.568 141 88 82
0.175035 -0.277997 -0.569 142 89 83
0.176119 -0.277997 -0.569 140 91 86
0.177514 -0.278486 -0.57 138 89 84
0.178913 -0.278974 -0.571 137 87 86
0.180316 -0.279463 -0.572 133 83 82
0.181723 -0.279951 -0.573 137 85 87
0.183133 -0.28044 -0.574 136 84 86
0.184548 -0.280929 -0.575 133 81 83
0.186289 -0.281906 -0.577 126 74 76
0.187712 -0.282394 -0.578 132 81 80
0.189467 -0.283371 -0.58 140 89 88
0.191229 -0.284349 -0.582 143 93 94
0.192998 -0.285326 -0.584 144 94 95
0.194775 -0.286303 -0.586 144 95 98
0.196894 -0.287769 -0.589 143 94 97
0.199025 -0.289234 -0.592 135 94 98
0.201505 -0.291189 -0.596 136 95 99
0.20468 -0.29412 -0.602 130 104 117
0.207536 -0.296563 -0.607 107 81 94
0.238505 -0.309754 -0.634 180 120 119
0.23631 -0.305357 -0.625 190 130 129
0.23408 -0.30096 -0.616 197 133 131
0.232962 -0.298029 -0.61 200 136 134
0.232205 -0.295586 -0.605 199 135 135
0.2322 -0.29412 -0.602 196 132 132
0.232571 -0.293143 -0.6 194 133 128
0.233325 -0.292654 -0.599 187 126 121
0.234466 -0.292654 -0.599 185 125 124
0.235607 -0.292654 -0.599 184 124 123
0.237143 -0.293143 -0.6 184 123 122
0.238286 -0.293143 -0.6 177 116 115
0.239828 -0.293631 -0.601 173 110 105
0.241373 -0.29412 -0.602 166 103 98
0.242923 -0.294609 -0.603 161 101 91
0.244881 -0.295586 -0.605 155 95 85
0.247253 -0.297051 -0.608 144 91 85
0.249229 -0.298029 -0.61 141 88 82
0.251622 -0.299494 -0.613 129 91 90
0.254027 -0.30096 -0.616 125 87 86
0.256857 -0.302914 -0.62 112 85 90
0.260119 -0.305357 -0.625 116 89 94
0.26131 -0.305357 -0.625 116 89 94
0.2646 -0.3078 -0.63 148 145 166
0.267488 -0.309754 -0.634 189 185 200
0.54648 -0.31464 -0.644 160 136 132
0.540052 -0.310243 -0.635 163 134 128
0.473669 -0.269691 -0.552 168 138 136
0.46612 -0.264806 -0.542 168 138 136
0.461981 -0.261874 -0.536 169 138 133
0.457819 -0.258943 -0.53 170 139 134
0.4545 -0.2565 -0.525 175 142 135
0.45203 -0.254546 -0.521 177 144 137
0.450413 -0.25308 -0.518 180 143 134
0.4514 -0.25308 -0.518 180 143 134
0.449767 -0.251614 -0.515 180 143 134
0.448997 -0.250637 -0.513 187 145 131
0.449097 -0.250149 -0.512 189 147 133
0.448314 -0.249171 -0.51 195 149 133
0.447524 -0.248194 -0.508 194 148 132
0.447609 -0.247706 -0.507 197 150 132
0.446805 -0.246729 -0.505 197 150 132
0.445993 -0.245751 -0.503 197 150 134
0.446063 -0.245263 -0.502 197 150 134
0.446129 -0.244774 -0.501 195 152 136
0.447083 -0.244774 -0.501 197 154 138
0.447143 -0.244286 -0.5 201 153 139
0.448095 -0.244286 -0.5 200 152 138
0.44815 -0.243797 -0.499 197 149 135
0.4491 -0.243797 -0.499 197 149 135
0.449149 -0.243309 -0.498 198 151 135
0.449193 -0.24282 -0.497 198 151 135
0.45014 -0.24282 -0.497 198 151 135
0.451087 -0.24282 -0.497 197 150 134
0.452033 -0.24282 -0.497 196 149 133
0.45298 -0.24282 -0.497 196 149 133
0.453927 -0.24282 -0.497 197 150 132
0.453958 -0.242331 -0.496 197 150 132
0.454903 -0.242331 -0.496 200 153 135
0.455848 -0.242331 -0.496 202 155 137
0.456792 -0.242331 -0.496 204 155 138
0.457737 -0.242331 -0.496 202 153 136
0.457757 -0.241843 -0.495 198 149 132
0.4587 -0.241843 -0.495 198 149 132
0.459643 -0.241843 -0.495 197 150 132
0.460586 -0.241843 -0.495 195 148 130
0.461529 -0.241843 -0.495 193 146 126
0.462471 -0.241843 -0.495 194 147 127
0.462478 -0.241354 -0.494 196 149 129
0.463419 -0.241354 -0.494 196 149 129
0.46436 -0.241354 -0.494 197 150 130
0.464359 -0.240866 -0.493 198 151 131
0.465298 -0.240866 -0.493 198 151 131
0.466237 -0.240866 -0.493 198 151 131
0.467176 -0.240866 -0.493 195 148 128
0.468115 -0.240866 -0.493 196 149 129
0.469054 -0.240866 -0.493 195 148 128
0.469993 -0.240866 -0.493 198 152 129
0.469977 -0.240377 -0.492 196 150 127
0.470914 -0.240377 -0.492 195 149 126
0.471851 -0.240377 -0.492 195 149 126
0.472789 -0.240377 -0.492 193 147 124
0.473726 -0.240377 -0.492 192 146 123
0.474663 -0.240377 -0.492 190 144 121
0.4756 -0.240377 -0.492 187 141 118
0.477506 -0.240866 -0.493 183 137 114
0.478445 -0.240866 -0.493 181 135 112
0.479384 -0.240866 -0.493 180 134 111
0.480323 -0.240866 -0.493 180 134 111
0.481262 -0.240866 -0.493 179 133 110
0.482201 -0.240866 -0.493 179 133 110
0.48412 -0.241354 -0.494 177 132 109
0.485061 -0.241354 -0.494 175 130 107
0.486002 -0.241354 -0.494 174 129 106
0.487929 -0.241843 -0.495 173 128 105
0.489859 -0.242331 -0.496 173 129 104
0.490804 -0.242331 -0.496 171 127 102
0.49274 -0.24282 -0.497 165 124 102
0.495673 -0.243797 -0.499 163 122 100
0.498614 -0.244774 -0.501 159 122 103
0.503557 -0.246729 -0.505 159 122 103
-0.102976 -0.306548 -0.625 108 109 111
-0.10146 -0.305567 -0.623 108 109 111
-0.0999514 -0.304586 -0.621 109 108 113
-0.0986095 -0.304095 -0.62 108 107 112
-0.0971143 -0.303114 -0.618 107 106 111
-0.0957819 -0.302624 -0.617 108 107 112
-0.0944533 -0.302133 -0.616 107 108 112
-0.0931286 -0.301643 -0.615 106 107 111
-0.0918076 -0.301152 -0.614 101 102 106
-0.0906381 -0.301152 -0.614 99 100 104
-0.0894686 -0.301152 -0.614 100 99 105
-0.0880114 -0.300171 -0.612 95 94 100
-0.0869876 -0.300662 -0.613 92 91 97
-0.08582 -0.300662 -0.613 91 90 96
-0.0847905 -0.301152 -0.614 91 92 97
-0.0837571 -0.301643 -0.615 83 84 89
-0.08272 -0.302133 -0.616 84 85 90
-0.081679 -0.302624 -0.617 78 79 84
-0.0806343 -0.303114 -0.618 70 70 78
-0.0795857 -0.303605 -0.619 64 64 72
-0.0785333 -0.304095 -0.62 64 64 72
-0.0776019 -0.305076 -0.622 61 61 69
-0.07654 -0.305567 -0.623 56 56 64
-0.0754743 -0.306057 -0.624 60 60 68
-0.0744048 -0.306548 -0.625 66 66 74
0.128206 -0.309981 -0.632 192 139 133
0.127976 -0.306548 -0.625 188 135 127
0.12772 -0.303114 -0.618 185 132 124
0.127229 -0.29919 -0.61 186 133 125
0.126707 -0.295267 -0.602 188 135 127
0.126791 -0.292814 -0.597 191 136 131
0.127071 -0.290852 -0.593 192 137 132
0.127336 -0.28889 -0.589 190 135 130
0.127804 -0.287419 -0.586 190 135 130
0.12848 -0.286438 -0.584 192 134 130
0.129149 -0.285457 -0.582 190 132 128
0.130033 -0.284967 -0.581 189 131 127
0.130689 -0.283986 -0.579 189 131 127
0.131336 -0.283005 -0.577 191 132 128
0.132206 -0.282514 -0.576 190 131 127
0.13284 -0.281533 -0.574 192 135 128
0.133467 -0.280552 -0.572 193 136 129
0.134556 -0.280552 -0.572 194 137 130
0.135409 -0.280062 -0.571 191 134 127
0.136257 -0.279571 -0.57 189 132 125
0.137102 -0.279081 -0.569 190 133 126
0.137943 -0.27859 -0.568 192 133 127
0.139025 -0.27859 -0.568 190 131 125
0.140107 -0.27859 -0.568 190 131 125
0.14094 -0.2781 -0.567 192 133 127
0.14202 -0.2781 -0.567 191 132 126
0.142848 -0.27761 -0.566 193 134 128
0.143926 -0.27761 -0.566 195 136 130
0.145004 -0.27761 -0.566 187 128 122
0.146082 -0.27761 -0.566 180 121 115
0.14716 -0.27761 -0.566 180 121 115
0.148238 -0.27761 -0.566 188 127 122
0.149316 -0.27761 -0.566 190 129 124
0.150394 -0.27761 -0.566 182 121 116
0.151205 -0.277119 -0.565 179 118 113
0.152281 -0.277119 -0.565 177 116 111
0.153357 -0.277119 -0.565 173 112 107
0.154433 -0.277119 -0.565 174 113 108
0.15551 -0.277119 -0.565 175 114 109
0.156586 -0.277119 -0.565 177 117 109
0.157662 -0.277119 -0.565 178 118 110
0.158738 -0.277119 -0.565 181 118 111
0.159814 -0.277119 -0.565 181 118 111
0.16089 -0.277119 -0.565 182 119 112
0.161967 -0.277119 -0.565 179 116 109
0.163043 -0.277119 -0.565 179 116 109
0.164119 -0.277119 -0.565 179 116 109
0.165195 -0.277119 -0.565 173 110 103
0.166271 -0.277119 -0.565 169 106 97
0.167644 -0.27761 -0.566 169 106 97
0.168722 -0.27761 -0.566 166 108 97
0.1701 -0.2781 -0.567 159 101 90
0.17118 -0.2781 -0.567 148 93 86
0.17226 -0.2781 -0.567 144 89 82
0.173646 -0.27859 -0.568 138 88 81
0.175035 -0.279081 -0.569 138 88 81
0.176119 -0.279081 -0.569 139 90 86
0.177514 -0.279571 -0.57 138 89 85
0.178913 -0.280062 -0.571 136 88 86
0.180316 -0.280552 -0.572 133 85 83
0.181723 -0.281043 -0.573 136 86 87
0.183133 -0.281533 -0.574 135 85 86
0.184548 -0.282024 -0.575 130 80 83
0.186289 -0.283005 -0.577 123 73 76
0.187712 -0.283495 -0.578 136 85 84
0.189467 -0.284476 -0.58 139 88 87
0.191229 -0.285457 -0.582 140 92 92
0.192998 -0.286438 -0.584 142 94 94
0.194775 -0.287419 -0.586 143 94 97
0.19656 -0.2884 -0.588 139 90 93
0.198689 -0.289871 -0.591 133 88 91
0.201167 -0.291833 -0.595 135 90 93
0.204 -0.294286 -0.6 127 95 106
0.206852 -0.296738 -0.605 116 84 95
0.237 -0.309 -0.63 189 125 125
0.234797 -0.304586 -0.621 199 135 135
0.23294 -0.300662 -0.613 201 137 137
0.231816 -0.297719 -0.607 204 140 140
0.231437 -0.295757 -0.603 197 139 138
0.231814 -0.294776 -0.601 196 138 137
0.232184 -0.293795 -0.599 189 130 122
0.233325 -0.293795 -0.599 180 121 113
0.234466 -0.293795 -0.599 177 118 114
0.235607 -0.293795 -0.599 174 115 111
0.236748 -0.293795 -0.599 176 115 112
0.238286 -0.294286 -0.6 172 111 108
0.239828 -0.294776 -0.601 168 105 100
0.241373 -0.295267 -0.602 157 94 89
0.243326 -0.296248 -0.604 154 94 86
0.245286 -0.297229 -0.606 153 93 85
0.247253 -0.29821 -0.608 139 89 82
0.249637 -0.299681 -0.611 137 87 80
0.252032 -0.301152 -0.614 126 87 88
0.254027 -0.302133 -0.616 125 87 86
0.256857 -0.304095 -0.62 112 85 90
0.260119 -0.306548 -0.625 116 89 94
0.26131 -0.306548 -0.625 116 89 94
0.2646 -0.309 -0.63 148 145 166
0.267488 -0.310962 -0.634 181 178 199
0.542604 -0.312924 -0.638 162 135 128
0.477101 -0.272705 -0.556 171 140 137
0.4687 -0.26731 -0.545 170 139 136
0.463705 -0.263876 -0.538 169 140 136
0.459547 -0.260933 -0.532 170 141 137
0.456231 -0.258481 -0.527 173 142 137
0.452897 -0.256029 -0.522 173 142 137
0.451283 -0.254557 -0.519 177 143 134
0.452271 -0.254557 -0.519 177 143 134
0.45064 -0.253086 -0.516 177 143 134
0.448997 -0.251614 -0.513 183 143 131
0.449097 -0.251124 -0.512 185 145 133
0.448314 -0.250143 -0.51 194 148 133
0.447524 -0.249162 -0.508 193 147 132
0.447609 -0.248671 -0.507 194 148 132
0.446805 -0.24769 -0.505 195 149 133
0.44688 -0.2472 -0.504 196 150 135
0.446063 -0.246219 -0.502 196 150 135
0.446129 -0.245729 -0.501 193 149 136
0.447083 -0.245729 -0.501 195 151 138
0.447143 -0.245238 -0.5 199 151 137
0.448095 -0.245238 -0.5 200 152 138
0.44815 -0.244748 -0.499 199 151 137
0.4491 -0.244748 -0.499 199 151 137
0.449149 -0.244257 -0.498 199 152 136
0.449193 -0.243767 -0.497 199 152 136
0.45014 -0.243767 -0.497 201 154 138
0.451087 -0.243767 -0.497 200 153 137
0.451124 -0.243276 -0.496 198 151 133
0.452069 -0.243276 -0.496 197 150 132
0.453013 -0.243276 -0.496 196 147 130
0.453958 -0.243276 -0.496 197 148 131
0.454903 -0.243276 -0.496 199 150 133
0.454929 -0.242786 -0.495 201 152 135
0.455871 -0.242786 -0.495 200 153 133
0.456814 -0.242786 -0.495 199 152 132
0.457757 -0.242786 -0.495 199 150 133
0.4587 -0.242786 -0.495 200 151 134
0.458714 -0.242295 -0.494 198 149 132
0.459655 -0.242295 -0.494 196 147 130
0.460596 -0.242295 -0.494 195 147 127
0.461537 -0.242295 -0.494 196 148 128
0.462478 -0.242295 -0.494 197 149 129
0.463419 -0.242295 -0.494 198 150 130
0.46342 -0.241805 -0.493 198 150 130
0.464359 -0.241805 -0.493 198 150 130
0.465298 -0.241805 -0.493 199 151 131
0.466237 -0.241805 -0.493 199 151 131
0.466229 -0.241314 -0.492 196 148 128
0.467166 -0.241314 -0.492 199 151 131
0.468103 -0.241314 -0.492 197 149 129
0.46904 -0.241314 -0.492 198 150 128
0.469977 -0.241314 -0.492 195 147 125
0.470914 -0.241314 -0.492 195 148 128
0.471851 -0.241314 -0.492 193 146 126
0.472789 -0.241314 -0.492 192 145 125
0.473726 -0.241314 -0.492 192 145 125
0.474663 -0.241314 -0.492 190 144 121
0.4756 -0.241314 -0.492 188 142 119
0.476537 -0.241314 -0.492 183 137 114
0.477474 -0.241314 -0.492 178 132 109
0.478411 -0.241314 -0.492 178 133 110
0.479349 -0.241314 -0.492 179 134 111
0.480286 -0.241314 -0.492 180 135 112
0.481223 -0.241314 -0.492 181 136 113
0.48216 -0.241314 -0.492 178 133 110
0.484079 -0.241805 -0.493 174 129 106
0.485018 -0.241805 -0.493 173 128 105
0.486943 -0.242295 -0.494 173 128 105
0.488871 -0.242786 -0.495 170 126 101
0.489814 -0.242786 -0.495 170 126 101
0.491749 -0.243276 -0.496 167 127 102
0.493687 -0.243767 -0.497 166 126 101
0.496624 -0.244748 -0.499 162 126 104
0.501563 -0.24671 -0.503 160 124 102
0.506517 -0.248671 -0.507 157 122 102
0.511487 -0.250633 -0.511 156 121 101
0.665689 -0.318319 -0.649 215 215 217
-0.101623 -0.307246 -0.624 111 110 115
-0.100273 -0.306753 -0.623 112 111 116
-0.0987686 -0.305769 -0.621 108 107 112
-0.0974286 -0.305276 -0.62 104 103 108
-0.0960924 -0.304784 -0.619 104 103 108
-0.09476 -0.304291 -0.618 104 103 108
-0.0934314 -0.303799 -0.617 106 105 110
-0.0921067 -0.303307 -0.616 104 103 108
-0.0909333 -0.303307 -0.616 104 103 108
-0.0894686 -0.302322 -0.614 100 99 105
-0.0882991 -0.302322 -0.614 101 100 106
-0.0872714 -0.302814 -0.615 100 99 105
-0.08624 -0.303307 -0.616 100 99 105
-0.0850667 -0.303307 -0.616 93 94 99
-0.0840295 -0.303799 -0.617 86 87 92
-0.0828543 -0.303799 -0.617 84 87 92
-0.0818114 -0.304291 -0.618 81 84 89
-0.0807648 -0.304784 -0.619 77 77 85
-0.0797143 -0.305276 -0.62 75 75 83
-0.07866 -0.305769 -0.621 68 68 76
-0.0776019 -0.306261 -0.622 61 61 69
-0.0766629 -0.307246 -0.624 65 65 73
-0.0754743 -0.307246 -0.624 62 62 70
-0.0744048 -0.307738 -0.625 68 68 76
0.1278 -0.3102 -0.63 196 143 137
0.127567 -0.306753 -0.623 188 135 129
0.127307 -0.303307 -0.616 183 130 124
0.126811 -0.299368 -0.608 186 131 126
0.126286 -0.295429 -0.6 189 134 129
0.126579 -0.293459 -0.596 190 135 130
0.126857 -0.29149 -0.592 193 138 133
0.127336 -0.290012 -0.589 189 134 129
0.127804 -0.288535 -0.586 189 134 129
0.12826 -0.287058 -0.583 194 137 130
0.129149 -0.286566 -0.582 193 136 129
0.12981 -0.285581 -0.58 190 133 126
0.130463 -0.284596 -0.578 189 132 125
0.131336 -0.284104 -0.577 190 132 128
0.131976 -0.283119 -0.575 190 132 128
0.132609 -0.282134 -0.573 193 136 129
0.133467 -0.281642 -0.572 193 136 129
0.134321 -0.28115 -0.571 194 137 130
0.135171 -0.280657 -0.57 193 136 129
0.136257 -0.280657 -0.57 191 134 127
0.137102 -0.280165 -0.569 192 135 128
0.137943 -0.279672 -0.568 193 134 128
0.139025 -0.279672 -0.568 189 130 124
0.13986 -0.27918 -0.567 191 132 126
0.14094 -0.27918 -0.567 194 135 129
0.14177 -0.278688 -0.566 190 131 125
0.142848 -0.278688 -0.566 189 130 124
0.143926 -0.278688 -0.566 188 129 123
0.145004 -0.278688 -0.566 179 120 114
0.146082 -0.278688 -0.566 175 114 109
0.14716 -0.278688 -0.566 179 118 113
0.148238 -0.278688 -0.566 187 126 121
0.149316 -0.278688 -0.566 187 126 121
0.150394 -0.278688 -0.566 178 117 112
0.151205 -0.278195 -0.565 175 114 109
0.152281 -0.278195 -0.565 177 116 111
0.153357 -0.278195 -0.565 176 115 110
0.154433 -0.278195 -0.565 176 116 108
0.15551 -0.278195 -0.565 177 117 109
0.156586 -0.278195 -0.565 180 117 110
0.157662 -0.278195 -0.565 177 114 107
0.158738 -0.278195 -0.565 179 116 109
0.159814 -0.278195 -0.565 181 118 111
0.16089 -0.278195 -0.565 184 121 114
0.161967 -0.278195 -0.565 181 118 111
0.163043 -0.278195 -0.565 181 118 111
0.164119 -0.278195 -0.565 177 114 107
0.165195 -0.278195 -0.565 169 106 99
0.166271 -0.278195 -0.565 168 108 100
0.167644 -0.278688 -0.566 167 107 99
0.168722 -0.278688 -0.566 166 107 99
0.1701 -0.27918 -0.567 160 101 93
0.17118 -0.27918 -0.567 147 94 86
0.17226 -0.27918 -0.567 144 91 83
0.173646 -0.279672 -0.568 139 90 83
0.175035 -0.280165 -0.569 138 89 82
0.176119 -0.280165 -0.569 139 91 87
0.177514 -0.280657 -0.57 137 89 85
0.178913 -0.28115 -0.571 136 88 86
0.180316 -0.281642 -0.572 132 84 82
0.181723 -0.282134 -0.573 134 86 86
0.183133 -0.282627 -0.574 133 85 85
0.184548 -0.283119 -0.575 134 84 87
0.186289 -0.284104 -0.577 131 81 84
0.187712 -0.284596 -0.578 134 82 84
0.189467 -0.285581 -0.58 140 88 90
0.1909 -0.286073 -0.581 145 95 96
0.192668 -0.287058 -0.583 147 97 98
0.194775 -0.288535 -0.586 143 95 95
0.19656 -0.28952 -0.588 135 87 87
0.198352 -0.290505 -0.59 131 86 89
0.201167 -0.292967 -0.595 137 92 95
0.20366 -0.294936 -0.599 126 90 100
0.20651 -0.297398 -0.604 120 84 94
0.237297 -0.31217 -0.634 183 128 133
0.235495 -0.30823 -0.626 191 130 129
0.232907 -0.303307 -0.616 200 139 138
0.23142 -0.29986 -0.609 200 140 139
0.23067 -0.297398 -0.604 203 143 142
0.23067 -0.295921 -0.601 194 138 137
0.231043 -0.294936 -0.599 192 136 135
0.231796 -0.294444 -0.598 190 131 123
0.232935 -0.294444 -0.598 183 124 116
0.234074 -0.294444 -0.598 179 120 114
0.235213 -0.294444 -0.598 171 112 106
0.236748 -0.294936 -0.599 170 109 104
0.237889 -0.294936 -0.599 168 107 102
0.239828 -0.295921 -0.601 169 106 101
0.241373 -0.296413 -0.602 159 96 91
0.243326 -0.297398 -0.604 154 94 86
0.245286 -0.298383 -0.606 153 93 85
0.247253 -0.299368 -0.608 139 89 82
0.249637 -0.300845 -0.611 137 87 80
0.252032 -0.302322 -0.614 126 87 88
0.254439 -0.303799 -0.617 122 83 84
0.256857 -0.305276 -0.62 114 87 94
0.260119 -0.307738 -0.625 117 90 97
0.26131 -0.307738 -0.625 117 90 97
0.26418 -0.309708 -0.629 114 114 140
0.267488 -0.31217 -0.634 158 158 184
0.545155 -0.315616 -0.641 162 134 130
0.479675 -0.275241 -0.559 170 139 136
0.47128 -0.269825 -0.548 169 138 135
0.465429 -0.265886 -0.54 169 140 136
0.461274 -0.262931 -0.534 171 142 138
0.457097 -0.259977 -0.528 173 142 137
0.453765 -0.257515 -0.523 173 142 137
0.452152 -0.256038 -0.52 178 144 135
0.449657 -0.254069 -0.516 178 144 135
0.45064 -0.254069 -0.516 178 144 135
0.449872 -0.253084 -0.514 183 143 131
0.449097 -0.252099 -0.512 186 146 134
0.448314 -0.251114 -0.51 192 149 133
0.447524 -0.25013 -0.508 191 148 132
0.447609 -0.249637 -0.507 191 148 132
0.446805 -0.248652 -0.505 191 148 132
0.44688 -0.24816 -0.504 192 148 135
0.446951 -0.247668 -0.503 193 149 136
0.447019 -0.247175 -0.502 191 149 135
0.44619 -0.24619 -0.5 192 150 136
0.447143 -0.24619 -0.5 196 150 134
0.448095 -0.24619 -0.5 199 153 137
0.44815 -0.245698 -0.499 200 153 137
0.4482 -0.245206 -0.498 199 152 136
0.449149 -0.245206 -0.498 198 151 135
0.449193 -0.244713 -0.497 198 151 135
0.45014 -0.244713 -0.497 202 155 137
0.450179 -0.244221 -0.496 203 156 138
0.451124 -0.244221 -0.496 199 152 134
0.452069 -0.244221 -0.496 199 152 134
0.453013 -0.244221 -0.496 196 149 131
0.453958 -0.244221 -0.496 198 151 133
