ply
format ascii 1.0
comment Created by Open3D
element vertex 1278
property double x
property double y
property double z
property uchar red
property uchar green
property uchar blue
end_header
0.485746 -0.427209 -0.591 140 156 189
0.486871 -0.427209 -0.591 176 192 225
0.487997 -0.427209 -0.591 202 215 234
0.489123 -0.427209 -0.591 199 212 231
0.490249 -0.427209 -0.591 206 214 225
0.491374 -0.427209 -0.591 206 214 225
0.4925 -0.427209 -0.591 196 212 227
0.493626 -0.427209 -0.591 173 189 204
0.494751 -0.427209 -0.591 141 161 194
0.495877 -0.427209 -0.591 110 130 163
0.497003 -0.427209 -0.591 99 126 169
0.498129 -0.427209 -0.591 98 125 168
0.499254 -0.427209 -0.591 107 136 176
0.50038 -0.427209 -0.591 114 143 183
0.500657 -0.426486 -0.59 121 148 191
0.501781 -0.426486 -0.59 97 124 167
0.502905 -0.426486 -0.59 86 110 154
0.503174 -0.425763 -0.589 86 110 154
0.504296 -0.425763 -0.589 92 116 154
0.498457 -0.413474 -0.572 166 138 127
0.496053 -0.410583 -0.568 166 138 127
0.49451 -0.408414 -0.565 166 137 129
0.492954 -0.406246 -0.562 166 137 129
0.490509 -0.403354 -0.558 165 136 128
0.48981 -0.401909 -0.556 164 135 127
0.48822 -0.39974 -0.553 165 135 125
0.486619 -0.397571 -0.55 167 137 127
0.485007 -0.395403 -0.547 172 140 129
0.486049 -0.395403 -0.547 172 140 129
0.484419 -0.393234 -0.544 174 142 131
0.482778 -0.391066 -0.541 175 143 130
0.481126 -0.388897 -0.538 174 142 129
0.479462 -0.386729 -0.535 176 142 130
0.478685 -0.385283 -0.533 176 142 130
0.477 -0.383114 -0.53 177 143 131
0.476206 -0.381669 -0.528 177 143 131
0.475404 -0.380223 -0.526 176 143 128
0.474594 -0.378777 -0.524 174 141 126
0.47287 -0.376609 -0.521 177 141 127
0.472043 -0.375163 -0.519 176 140 126
0.47212 -0.37444 -0.518 178 142 126
0.47128 -0.372994 -0.516 180 144 128
0.471348 -0.372271 -0.515 181 144 128
0.470494 -0.370826 -0.513 183 146 130
0.470552 -0.370103 -0.512 186 149 133
0.470607 -0.36938 -0.511 188 151 135
0.470657 -0.368657 -0.51 191 150 132
0.469779 -0.367211 -0.508 193 152 134
0.46982 -0.366489 -0.507 190 149 131
0.470786 -0.366489 -0.507 188 147 129
0.470821 -0.365766 -0.506 189 148 130
0.46992 -0.36432 -0.504 188 147 129
0.47088 -0.36432 -0.504 187 146 126
0.470904 -0.363597 -0.503 190 149 129
0.470924 -0.362874 -0.502 192 149 130
0.47094 -0.362151 -0.501 193 150 131
0.470952 -0.361429 -0.5 194 151 132
0.470961 -0.360706 -0.499 192 149 130
0.470966 -0.359983 -0.498 192 149 130
0.471914 -0.359983 -0.498 195 152 133
0.471913 -0.35926 -0.497 194 151 132
0.471909 -0.358537 -0.496 193 150 131
0.472853 -0.358537 -0.496 193 151 127
0.472843 -0.357814 -0.495 192 150 126
0.472829 -0.357091 -0.494 190 148 124
0.47377 -0.357091 -0.494 196 154 130
0.47375 -0.356369 -0.493 194 152 128
0.473726 -0.355646 -0.492 193 151 127
0.474663 -0.355646 -0.492 193 148 125
0.4756 -0.355646 -0.492 195 150 127
0.475569 -0.354923 -0.491 197 152 129
0.476504 -0.354923 -0.491 197 152 129
0.476467 -0.3542 -0.49 192 147 124
0.476426 -0.353477 -0.489 186 141 118
0.477357 -0.353477 -0.489 189 144 121
0.47731 -0.352754 -0.488 196 151 128
0.47824 -0.352754 -0.488 198 152 129
0.478188 -0.352031 -0.487 194 148 125
0.479115 -0.352031 -0.487 191 146 123
0.479057 -0.351309 -0.486 192 147 124
0.479983 -0.351309 -0.486 192 147 124
0.479919 -0.350586 -0.485 190 145 122
0.480843 -0.350586 -0.485 190 146 121
0.480773 -0.349863 -0.484 192 148 123
0.481695 -0.349863 -0.484 192 146 122
0.482617 -0.349863 -0.484 192 146 122
0.484538 -0.350586 -0.485 190 144 120
0.485462 -0.350586 -0.485 188 142 116
0.485383 -0.349863 -0.484 187 141 115
0.486305 -0.349863 -0.484 189 144 115
0.487227 -0.349863 -0.484 188 143 114
0.489157 -0.350586 -0.485 187 142 113
0.490081 -0.350586 -0.485 186 141 112
0.491005 -0.350586 -0.485 180 135 104
0.491929 -0.350586 -0.485 178 133 102
0.491836 -0.349863 -0.484 182 137 106
0.493776 -0.350586 -0.485 182 137 106
0.4947 -0.350586 -0.485 182 136 103
0.495624 -0.350586 -0.485 178 132 99
0.496548 -0.350586 -0.485 182 133 100
0.497471 -0.350586 -0.485 184 135 102
0.499423 -0.351309 -0.486 180 134 101
0.500349 -0.351309 -0.486 177 131 98
0.502306 -0.352031 -0.487 174 129 98
0.504267 -0.352754 -0.488 172 127 96
0.506231 -0.353477 -0.489 168 124 97
0.5082 -0.3542 -0.49 168 124 97
0.510172 -0.354923 -0.491 163 123 98
0.51319 -0.356369 -0.493 160 120 95
0.516214 -0.357814 -0.495 156 120 98
0.520291 -0.359983 -0.498 154 118 96
0.523333 -0.361429 -0.5 148 113 94
-0.312986 -0.394995 -0.545 228 229 223
-0.311948 -0.394995 -0.545 228 229 223
-0.31091 -0.394995 -0.545 228 229 223
-0.309871 -0.394995 -0.545 228 229 223
-0.308833 -0.394995 -0.545 228 229 223
-0.307795 -0.394995 -0.545 228 229 223
-0.306757 -0.394995 -0.545 229 230 224
-0.305719 -0.394995 -0.545 229 230 224
-0.304681 -0.394995 -0.545 229 230 224
-0.303643 -0.394995 -0.545 229 230 224
0.0460686 -0.402968 -0.556 197 156 136
0.0469581 -0.401518 -0.554 195 157 138
0.0480133 -0.401518 -0.554 200 159 141
0.0488029 -0.399344 -0.551 201 158 139
0.0494905 -0.396445 -0.547 201 158 139
0.0502552 -0.39427 -0.544 205 160 139
0.0509143 -0.391371 -0.54 204 159 138
0.0516543 -0.389197 -0.537 203 157 133
0.052481 -0.387748 -0.535 201 155 131
0.0532 -0.385573 -0.532 203 155 132
0.0540095 -0.384124 -0.53 202 154 131
0.0549152 -0.383399 -0.529 202 156 133
0.0557114 -0.38195 -0.527 203 157 134
0.0566076 -0.381225 -0.526 201 159 137
0.0575 -0.3805 -0.525 201 159 137
0.0585 -0.3805 -0.525 205 161 136
0.0593867 -0.379775 -0.524 206 162 137
0.0603848 -0.379775 -0.524 209 164 141
0.0612657 -0.37905 -0.523 210 165 142
0.0622619 -0.37905 -0.523 209 164 141
0.0632581 -0.37905 -0.523 207 162 139
0.0641314 -0.378326 -0.522 206 160 136
0.0651257 -0.378326 -0.522 204 158 134
0.06612 -0.378326 -0.522 204 158 134
0.0671143 -0.378326 -0.522 203 157 133
0.0681086 -0.378326 -0.522 201 155 132
0.0691029 -0.378326 -0.522 202 156 133
0.0699629 -0.377601 -0.521 203 157 134
0.0709552 -0.377601 -0.521 201 155 132
0.0719476 -0.377601 -0.521 199 153 130
0.07294 -0.377601 -0.521 199 153 130
0.0739324 -0.377601 -0.521 199 151 128
0.0749248 -0.377601 -0.521 199 151 128
0.0759171 -0.377601 -0.521 199 149 126
0.0770571 -0.378326 -0.522 196 146 123
0.0780514 -0.378326 -0.522 196 146 123
0.0790457 -0.378326 -0.522 195 145 122
0.08004 -0.378326 -0.522 193 143 120
0.0810343 -0.378326 -0.522 192 142 119
0.0821857 -0.37905 -0.523 190 140 117
0.0831819 -0.37905 -0.523 189 139 116
0.0841781 -0.37905 -0.523 189 137 115
0.0853371 -0.379775 -0.524 187 135 113
0.0865 -0.3805 -0.525 183 131 109
0.0875 -0.3805 -0.525 177 125 103
0.0886686 -0.381225 -0.526 175 123 101
0.089841 -0.38195 -0.527 177 125 103
0.0908448 -0.38195 -0.527 179 124 103
0.0920229 -0.382674 -0.528 180 125 104
0.0932048 -0.383399 -0.529 177 122 101
0.0943905 -0.384124 -0.53 175 120 99
0.09558 -0.384849 -0.531 175 120 100
0.0967733 -0.385573 -0.532 175 120 100
0.0979705 -0.386298 -0.533 175 120 100
0.0989857 -0.386298 -0.533 175 120 100
0.100189 -0.387023 -0.534 171 116 96
0.101395 -0.387748 -0.535 170 115 95
0.102606 -0.388472 -0.536 171 115 98
0.104013 -0.389922 -0.538 170 114 97
0.105233 -0.390647 -0.539 166 113 95
0.106457 -0.391371 -0.54 165 112 94
0.107685 -0.392096 -0.541 165 112 94
0.108916 -0.392821 -0.542 164 111 93
0.110151 -0.393546 -0.543 158 110 96
0.11139 -0.39427 -0.544 154 106 92
0.11284 -0.39572 -0.546 148 104 93
0.114089 -0.396445 -0.547 147 103 92
0.115551 -0.397894 -0.549 141 101 93
0.117022 -0.399344 -0.551 141 101 93
0.1185 -0.400793 -0.553 137 102 96
0.119986 -0.402243 -0.555 134 99 93
0.121261 -0.402968 -0.556 128 98 96
0.12298 -0.405142 -0.559 126 96 94
0.136594 -0.417463 -0.576 109 98 102
0.13793 -0.418188 -0.577 114 103 107
0.13927 -0.418912 -0.578 111 108 115
0.140371 -0.418912 -0.578 108 105 112
0.141472 -0.418912 -0.578 108 105 112
0.142573 -0.418912 -0.578 116 115 123
0.143923 -0.419637 -0.579 128 127 135
0.145026 -0.419637 -0.579 130 129 135
0.146129 -0.419637 -0.579 136 135 141
0.147231 -0.419637 -0.579 143 141 144
0.148078 -0.418912 -0.578 149 147 150
0.149179 -0.418912 -0.578 151 149 154
0.15028 -0.418912 -0.578 159 157 162
0.151119 -0.418188 -0.577 161 162 166
0.152218 -0.418188 -0.577 166 167 171
0.153317 -0.418188 -0.577 158 161 180
0.154416 -0.418188 -0.577 134 137 156
0.155515 -0.418188 -0.577 106 119 151
0.156614 -0.418188 -0.577 75 88 120
0.157713 -0.418188 -0.577 80 100 137
0.158812 -0.418188 -0.577 67 87 124
0.159911 -0.418188 -0.577 109 124 153
0.16101 -0.418188 -0.577 146 161 190
0.16211 -0.418188 -0.577 183 189 201
0.163209 -0.418188 -0.577 191 197 209
0.164308 -0.418188 -0.577 192 194 206
0.165407 -0.418188 -0.577 184 186 198
0.166506 -0.418188 -0.577 160 176 202
0.167605 -0.418188 -0.577 145 161 187
0.426943 -0.42471 -0.586 185 196 224
0.428059 -0.42471 -0.586 157 181 215
0.429175 -0.42471 -0.586 140 164 198
0.430291 -0.42471 -0.586 148 176 213
0.431408 -0.42471 -0.586 163 191 228
0.432524 -0.42471 -0.586 165 197 238
0.43364 -0.42471 -0.586 165 197 238
0.434756 -0.42471 -0.586 167 199 240
0.435872 -0.42471 -0.586 159 183 229
0.436989 -0.42471 -0.586 142 166 212
0.438105 -0.42471 -0.586 140 169 203
0.43997 -0.425435 -0.587 153 182 216
0.441089 -0.425435 -0.587 189 205 228
0.442207 -0.425435 -0.587 209 225 248
0.443325 -0.425435 -0.587 230 231 251
0.444443 -0.425435 -0.587 235 236 255
0.445561 -0.425435 -0.587 230 238 255
0.44744 -0.42616 -0.588 216 224 243
0.44856 -0.42616 -0.588 184 199 222
0.44968 -0.42616 -0.588 153 168 191
0.4508 -0.42616 -0.588 135 151 184
0.45192 -0.42616 -0.588 135 151 184
0.45304 -0.42616 -0.588 160 174 200
0.45416 -0.42616 -0.588 194 208 234
0.45528 -0.42616 -0.588 225 233 252
0.4564 -0.42616 -0.588 227 235 254
0.45752 -0.42616 -0.588 232 238 254
0.45864 -0.42616 -0.588 231 237 253
0.45976 -0.42616 -0.588 234 237 252
0.46088 -0.42616 -0.588 231 234 249
0.462 -0.42616 -0.588 225 228 243
0.463908 -0.426885 -0.589 228 231 246
0.46503 -0.426885 -0.589 229 233 245
0.466151 -0.426885 -0.589 224 228 240
0.467273 -0.426885 -0.589 211 215 227
0.468395 -0.426885 -0.589 219 223 235
0.469517 -0.426885 -0.589 224 227 244
0.470639 -0.426885 -0.589 224 227 244
0.471761 -0.426885 -0.589 218 226 239
0.472883 -0.426885 -0.589 218 226 239
0.474005 -0.426885 -0.589 215 221 233
0.475933 -0.42761 -0.59 218 224 236
0.477057 -0.42761 -0.59 218 224 236
0.478181 -0.42761 -0.59 220 226 240
0.479305 -0.42761 -0.59 215 221 235
0.480429 -0.42761 -0.59 206 216 241
0.481552 -0.42761 -0.59 172 182 207
0.482676 -0.42761 -0.59 125 144 177
0.4838 -0.42761 -0.59 100 119 152
0.484924 -0.42761 -0.59 105 126 157
0.486048 -0.42761 -0.59 125 146 177
0.487171 -0.42761 -0.59 169 185 210
0.488295 -0.42761 -0.59 194 210 235
0.489419 -0.42761 -0.59 207 216 231
0.490543 -0.42761 -0.59 205 214 229
0.491667 -0.42761 -0.59 197 213 228
0.49279 -0.42761 -0.59 172 188 203
0.493914 -0.42761 -0.59 140 161 190
0.495038 -0.42761 -0.59 111 132 161
0.496162 -0.42761 -0.59 96 124 164
0.497286 -0.42761 -0.59 103 131 171
0.49841 -0.42761 -0.59 113 142 184
0.499533 -0.42761 -0.59 107 136 178
0.500657 -0.42761 -0.59 117 146 190
0.50093 -0.426885 -0.589 106 135 179
0.502052 -0.426885 -0.589 88 116 164
0.503174 -0.426885 -0.589 83 111 159
0.50344 -0.42616 -0.588 86 115 155
0.496927 -0.41239 -0.569 166 138 127
0.49451 -0.40949 -0.565 166 139 130
0.492954 -0.407316 -0.562 165 138 129
0.491388 -0.405142 -0.559 163 136 127
0.48981 -0.402968 -0.556 163 136 127
0.48822 -0.400793 -0.553 165 137 126
0.486619 -0.398619 -0.55 166 138 127
0.485007 -0.396445 -0.547 169 139 128
0.483383 -0.39427 -0.544 170 140 129
0.484419 -0.39427 -0.544 170 140 129
0.482778 -0.392096 -0.541 173 141 130
0.48202 -0.390647 -0.539 173 141 130
0.480358 -0.388472 -0.536 174 142 131
0.478685 -0.386298 -0.533 176 144 133
0.477 -0.384124 -0.53 176 144 131
0.476206 -0.382674 -0.528 175 143 130
0.475404 -0.381225 -0.526 176 143 128
0.474594 -0.379775 -0.524 174 141 126
0.473777 -0.378326 -0.522 176 140 126
0.472952 -0.376876 -0.52 177 141 127
0.47212 -0.375427 -0.518 181 145 129
0.47128 -0.373977 -0.516 183 147 131
0.471348 -0.373252 -0.515 182 145 129
0.470494 -0.371803 -0.513 183 146 130
0.470552 -0.371078 -0.512 185 148 130
0.470607 -0.370353 -0.511 186 149 131
0.470657 -0.369629 -0.51 190 149 129
0.469779 -0.368179 -0.508 193 152 132
0.46982 -0.367454 -0.507 191 150 132
0.469857 -0.36673 -0.506 189 148 130
0.470821 -0.36673 -0.506 191 150 130
0.470852 -0.366005 -0.505 189 148 128
0.469946 -0.364555 -0.503 188 147 127
0.470904 -0.364555 -0.503 192 151 131
0.470924 -0.36383 -0.502 191 148 129
0.47094 -0.363106 -0.501 191 148 129
0.470952 -0.362381 -0.5 192 149 130
0.470961 -0.361656 -0.499 190 147 128
0.470966 -0.360931 -0.498 191 148 129
0.470967 -0.360207 -0.497 195 152 133
0.471913 -0.360207 -0.497 195 153 131
0.471909 -0.359482 -0.496 194 152 130
0.4719 -0.358757 -0.495 195 153 129
0.472843 -0.358757 -0.495 193 151 127
0.472829 -0.358032 -0.494 192 150 128
0.47377 -0.358032 -0.494 196 154 132
0.47375 -0.357308 -0.493 194 152 128
0.473726 -0.356583 -0.492 192 150 126
0.474663 -0.356583 -0.492 194 149 126
0.474633 -0.355858 -0.491 194 149 126
0.475569 -0.355858 -0.491 196 151 128
0.475533 -0.355133 -0.49 197 152 129
0.476467 -0.355133 -0.49 192 147 124
0.476426 -0.354409 -0.489 186 141 118
0.476381 -0.353684 -0.488 190 145 122
0.47731 -0.353684 -0.488 195 150 127
0.47726 -0.352959 -0.487 196 150 126
0.478188 -0.352959 -0.487 194 148 124
0.479115 -0.352959 -0.487 193 147 124
0.479057 -0.352234 -0.486 193 147 124
0.478995 -0.35151 -0.485 192 147 124
0.479919 -0.35151 -0.485 190 145 122
0.479851 -0.350785 -0.484 191 147 122
0.480773 -0.350785 -0.484 193 149 124
0.481695 -0.350785 -0.484 191 145 121
0.482617 -0.350785 -0.484 189 143 119
0.483539 -0.350785 -0.484 189 143 119
0.484461 -0.350785 -0.484 189 143 117
0.485383 -0.350785 -0.484 188 142 116
0.486305 -0.350785 -0.484 190 144 118
0.487227 -0.350785 -0.484 190 144 118
0.488149 -0.350785 -0.484 190 145 116
0.48907 -0.350785 -0.484 189 144 115
0.489992 -0.350785 -0.484 185 140 111
0.490914 -0.350785 -0.484 182 137 108
0.491836 -0.350785 -0.484 181 136 105
0.492758 -0.350785 -0.484 180 135 104
0.49368 -0.350785 -0.484 180 134 101
0.495624 -0.35151 -0.485 177 131 98
0.496548 -0.35151 -0.485 178 129 96
0.497471 -0.35151 -0.485 182 133 100
0.498395 -0.35151 -0.485 179 133 100
0.499319 -0.35151 -0.485 177 131 98
0.501274 -0.352234 -0.486 175 130 101
0.5022 -0.352234 -0.486 174 129 100
0.504161 -0.352959 -0.487 169 125 100
0.506126 -0.353684 -0.488 168 124 99
0.509133 -0.355133 -0.49 160 122 99
0.511108 -0.355858 -0.491 157 119 96
0.514129 -0.357308 -0.493 154 119 99
0.517157 -0.358757 -0.495 153 118 98
0.52124 -0.360931 -0.498 149 112 93
0.613907 -0.416013 -0.574 202 202 200
-0.326918 -0.395307 -0.544 227 228 222
-0.325882 -0.395307 -0.544 226 227 221
-0.324846 -0.395307 -0.544 227 228 222
-0.32381 -0.395307 -0.544 227 228 222
0.0459029 -0.402573 -0.554 199 156 139
0.0467886 -0.40112 -0.552 199 156 139
0.0477533 -0.400393 -0.551 199 161 142
0.0485371 -0.398213 -0.548 198 160 141
0.0493095 -0.396033 -0.545 195 157 138
0.0499781 -0.393127 -0.541 199 157 133
0.0507257 -0.390947 -0.538 198 156 132
0.0514619 -0.388767 -0.535 202 156 130
0.0521867 -0.386587 -0.532 200 154 128
0.053 -0.385133 -0.53 202 156 132
0.0539076 -0.384407 -0.529 202 156 132
0.0547076 -0.382953 -0.527 201 156 133
0.0556057 -0.382227 -0.526 203 158 135
0.0565 -0.3815 -0.525 201 159 137
0.0573905 -0.380773 -0.524 201 159 137
0.0583886 -0.380773 -0.524 204 160 135
0.0592733 -0.380047 -0.523 204 160 135
0.0602695 -0.380047 -0.523 205 160 137
0.0612657 -0.380047 -0.523 207 162 139
0.0621429 -0.37932 -0.522 208 163 140
0.0631371 -0.37932 -0.522 208 163 140
0.0641314 -0.37932 -0.522 207 161 137
0.0651257 -0.37932 -0.522 204 158 134
0.0659933 -0.378593 -0.521 202 156 133
0.0669857 -0.378593 -0.521 201 155 132
0.0679781 -0.378593 -0.521 201 155 132
0.0689705 -0.378593 -0.521 203 157 134
0.0699629 -0.378593 -0.521 203 156 136
0.0709552 -0.378593 -0.521 200 153 133
0.0719476 -0.378593 -0.521 198 152 129
0.07294 -0.378593 -0.521 199 153 130
0.0739324 -0.378593 -0.521 202 152 129
0.0749248 -0.378593 -0.521 201 151 128
0.0759171 -0.378593 -0.521 197 146 125
0.0769095 -0.378593 -0.521 193 142 121
0.0779019 -0.378593 -0.521 195 143 122
0.0790457 -0.37932 -0.522 195 143 122
0.08004 -0.37932 -0.522 191 141 118
0.0810343 -0.37932 -0.522 190 140 117
0.0820286 -0.37932 -0.522 188 138 115
0.0831819 -0.380047 -0.523 188 138 115
0.0841781 -0.380047 -0.523 187 135 114
0.0853371 -0.380773 -0.524 185 133 112
0.0863352 -0.380773 -0.524 184 132 111
0.0875 -0.3815 -0.525 175 123 102
0.0886686 -0.382227 -0.526 171 119 97
0.0896705 -0.382227 -0.526 175 123 101
0.0908448 -0.382953 -0.527 178 121 102
0.0920229 -0.38368 -0.528 180 123 104
0.0932048 -0.384407 -0.529 178 121 102
0.0943905 -0.385133 -0.53 177 120 101
0.09558 -0.38586 -0.531 175 120 100
0.0967733 -0.386587 -0.532 174 119 99
0.0979705 -0.387313 -0.533 174 118 101
0.0989857 -0.387313 -0.533 174 118 101
0.100189 -0.38804 -0.534 173 117 100
0.101395 -0.388767 -0.535 172 116 99
0.102606 -0.389493 -0.536 169 116 100
0.10382 -0.39022 -0.537 168 115 99
0.105233 -0.391673 -0.539 166 113 97
0.106457 -0.3924 -0.54 165 112 96
0.107685 -0.393127 -0.541 164 111 95
0.108916 -0.393853 -0.542 163 110 94
0.110151 -0.39458 -0.543 157 111 98
0.11139 -0.395307 -0.544 152 106 93
0.11284 -0.39676 -0.546 149 105 94
0.114089 -0.397487 -0.547 148 104 93
0.115551 -0.39894 -0.549 143 103 95
0.117022 -0.400393 -0.551 141 101 93
0.1185 -0.401847 -0.553 136 101 95
0.119986 -0.4033 -0.555 133 98 92
0.121479 -0.404753 -0.557 126 98 95
0.136594 -0.41856 -0.576 112 101 105
0.13793 -0.419287 -0.577 119 108 112
0.13903 -0.419287 -0.577 116 111 118
0.140129 -0.419287 -0.577 116 111 118
0.141228 -0.419287 -0.577 119 114 121
0.142573 -0.420013 -0.578 124 123 131
0.143674 -0.420013 -0.578 133 132 140
0.144775 -0.420013 -0.578 139 137 142
0.145876 -0.420013 -0.578 145 143 148
0.146977 -0.420013 -0.578 154 148 150
0.148078 -0.420013 -0.578 159 153 155
0.149179 -0.420013 -0.578 161 156 160
0.15002 -0.419287 -0.577 167 162 166
0.151119 -0.419287 -0.577 165 164 169
0.152218 -0.419287 -0.577 174 173 178
0.153317 -0.419287 -0.577 166 164 185
0.154416 -0.419287 -0.577 159 157 178
0.155515 -0.419287 -0.577 135 147 173
0.156614 -0.419287 -0.577 108 120 146
0.420643 -0.4251 -0.585 187 198 220
0.421757 -0.4251 -0.585 223 234 255
0.422871 -0.4251 -0.585 233 239 255
0.423986 -0.4251 -0.585 225 231 253
0.4251 -0.4251 -0.585 207 221 248
0.426214 -0.4251 -0.585 200 214 241
0.427329 -0.4251 -0.585 177 199 236
0.429175 -0.425827 -0.586 147 169 206
0.430291 -0.425827 -0.586 145 177 215
0.431408 -0.425827 -0.586 157 189 227
0.432524 -0.425827 -0.586 166 200 245
0.43364 -0.425827 -0.586 166 200 245
0.434756 -0.425827 -0.586 168 202 247
0.435872 -0.425827 -0.586 159 185 234
0.436989 -0.425827 -0.586 142 168 217
0.438105 -0.425827 -0.586 143 171 210
0.439221 -0.425827 -0.586 173 201 240
0.440337 -0.425827 -0.586 198 216 240
0.441453 -0.425827 -0.586 208 226 250
0.44257 -0.425827 -0.586 225 227 248
0.443686 -0.425827 -0.586 233 235 255
0.445561 -0.426553 -0.587 217 230 249
0.446679 -0.426553 -0.587 176 189 208
0.447797 -0.426553 -0.587 144 161 187
0.448915 -0.426553 -0.587 127 144 170
0.450033 -0.426553 -0.587 145 160 189
0.451151 -0.426553 -0.587 165 180 209
0.45227 -0.426553 -0.587 198 209 231
0.453388 -0.426553 -0.587 215 226 248
0.454506 -0.426553 -0.587 227 234 250
0.455624 -0.426553 -0.587 229 236 252
0.456742 -0.426553 -0.587 230 236 248
0.45786 -0.426553 -0.587 234 240 252
0.458978 -0.426553 -0.587 236 240 251
0.460096 -0.426553 -0.587 218 222 233
0.461214 -0.426553 -0.587 218 222 231
0.46312 -0.42728 -0.588 228 232 241
0.46424 -0.42728 -0.588 229 233 244
0.46536 -0.42728 -0.588 226 230 241
0.46648 -0.42728 -0.588 218 224 238
0.4676 -0.42728 -0.588 219 225 239
0.469517 -0.428007 -0.589 223 226 241
0.470639 -0.428007 -0.589 222 225 240
0.471761 -0.428007 -0.589 220 226 238
0.472883 -0.428007 -0.589 221 227 239
0.474005 -0.428007 -0.589 217 223 235
0.475127 -0.428007 -0.589 213 219 231
0.476249 -0.428007 -0.589 214 220 234
0.47737 -0.428007 -0.589 214 220 234
0.479305 -0.428733 -0.59 215 221 235
0.480429 -0.428733 -0.59 208 216 235
0.481552 -0.428733 -0.59 198 206 225
0.482676 -0.428733 -0.59 171 187 213
0.4838 -0.428733 -0.59 139 155 181
0.484924 -0.428733 -0.59 115 135 162
0.486048 -0.428733 -0.59 94 114 141
0.487171 -0.428733 -0.59 113 133 158
0.488295 -0.428733 -0.59 153 173 198
0.489419 -0.428733 -0.59 195 208 227
0.490543 -0.428733 -0.59 202 215 234
0.491667 -0.428733 -0.59 194 210 226
0.49279 -0.428733 -0.59 180 196 212
0.493914 -0.428733 -0.59 164 185 214
0.495038 -0.428733 -0.59 137 158 187
0.496162 -0.428733 -0.59 98 125 168
0.496443 -0.428007 -0.589 99 126 169
0.497565 -0.428007 -0.589 109 140 186
0.499533 -0.428733 -0.59 98 129 175
0.499809 -0.428007 -0.589 105 135 185
0.50093 -0.428007 -0.589 110 140 190
0.502052 -0.428007 -0.589 95 125 177
0.50232 -0.42728 -0.588 82 112 164
0.50344 -0.42728 -0.588 82 115 158
0.496927 -0.413473 -0.569 166 139 128
0.49451 -0.410567 -0.565 166 139 130
0.492954 -0.408387 -0.562 165 138 129
0.491388 -0.406207 -0.559 164 137 128
0.48981 -0.404027 -0.556 164 137 128
0.48822 -0.401847 -0.553 166 138 127
0.486619 -0.399667 -0.55 167 139 128
0.485007 -0.397487 -0.547 169 139 128
0.483383 -0.395307 -0.544 169 139 128
0.484419 -0.395307 -0.544 169 139 128
0.48367 -0.393853 -0.542 169 139 128
0.48202 -0.391673 -0.539 170 140 129
0.480358 -0.389493 -0.536 175 142 133
0.478685 -0.387313 -0.533 176 143 134
0.477 -0.385133 -0.53 175 143 132
0.476206 -0.38368 -0.528 175 143 132
0.475404 -0.382227 -0.526 176 142 130
0.474594 -0.380773 -0.524 174 140 128
0.473777 -0.37932 -0.522 175 139 125
0.472952 -0.377867 -0.52 177 141 127
0.47212 -0.376413 -0.518 181 145 129
0.47128 -0.37496 -0.516 183 147 131
0.471348 -0.374233 -0.515 183 146 130
0.470494 -0.37278 -0.513 184 147 131
0.470552 -0.372053 -0.512 186 149 131
0.470607 -0.371327 -0.511 186 149 131
0.470657 -0.3706 -0.51 187 149 128
0.469779 -0.369147 -0.508 190 152 131
0.46982 -0.36842 -0.507 189 151 132
0.469857 -0.367693 -0.506 188 150 131
0.46989 -0.366967 -0.505 191 150 130
0.470852 -0.366967 -0.505 190 149 129
0.469946 -0.365513 -0.503 189 148 128
0.469968 -0.364787 -0.502 193 152 132
0.469986 -0.36406 -0.501 190 149 127
0.47 -0.363333 -0.5 189 148 126
0.47001 -0.362607 -0.499 191 150 130
0.470017 -0.36188 -0.498 190 149 129
0.470966 -0.36188 -0.498 192 150 128
0.470967 -0.361153 -0.497 195 153 131
0.470964 -0.360427 -0.496 195 153 131
0.471909 -0.360427 -0.496 195 153 131
0.4719 -0.3597 -0.495 195 153 129
0.471888 -0.358973 -0.494 194 152 128
0.472829 -0.358973 -0.494 194 152 130
0.47281 -0.358247 -0.493 194 152 130
0.47375 -0.358247 -0.493 194 152 128
0.473726 -0.35752 -0.492 192 150 126
0.474663 -0.35752 -0.492 194 152 127
0.474633 -0.356793 -0.491 193 151 126
0.475569 -0.356793 -0.491 197 153 128
0.475533 -0.356067 -0.49 197 153 128
0.475494 -0.35534 -0.489 192 148 123
0.476426 -0.35534 -0.489 188 144 119
0.476381 -0.354613 -0.488 191 147 122
0.476332 -0.353887 -0.487 194 150 125
0.47726 -0.353887 -0.487 193 149 122
0.477206 -0.35316 -0.486 191 147 120
0.478131 -0.35316 -0.486 193 147 123
0.479057 -0.35316 -0.486 193 147 123
0.478995 -0.352433 -0.485 192 148 123
0.47893 -0.351707 -0.484 189 145 120
0.479851 -0.351707 -0.484 188 144 119
0.480773 -0.351707 -0.484 191 147 122
0.4807 -0.35098 -0.483 191 145 119
0.48162 -0.35098 -0.483 189 143 117
0.48254 -0.35098 -0.483 189 143 117
0.48346 -0.35098 -0.483 189 143 117
0.48438 -0.35098 -0.483 188 142 116
0.4853 -0.35098 -0.483 187 143 114
0.48622 -0.35098 -0.483 189 145 116
0.48714 -0.35098 -0.483 188 144 115
0.48806 -0.35098 -0.483 188 144 115
0.489992 -0.351707 -0.484 187 143 114
0.490914 -0.351707 -0.484 184 140 111
0.49082 -0.35098 -0.483 180 135 104
0.49174 -0.35098 -0.483 180 135 104
0.49368 -0.351707 -0.484 184 138 105
0.494602 -0.351707 -0.484 181 135 102
0.495524 -0.351707 -0.484 180 131 99
0.496446 -0.351707 -0.484 181 132 100
0.497368 -0.351707 -0.484 180 133 103
0.499319 -0.352433 -0.485 178 131 101
0.500243 -0.352433 -0.485 179 134 105
0.501167 -0.352433 -0.485 177 132 103
0.503126 -0.35316 -0.486 169 127 102
0.505089 -0.353887 -0.487 165 123 98
0.507055 -0.354613 -0.488 159 121 98
0.510067 -0.356067 -0.49 156 118 95
0.513086 -0.35752 -0.492 153 118 99
0.515068 -0.358247 -0.493 152 117 98
0.519147 -0.360427 -0.496 147 110 91
-0.312411 -0.396343 -0.544 228 229 223
-0.311375 -0.396343 -0.544 228 229 223
-0.310339 -0.396343 -0.544 228 229 223
-0.309303 -0.396343 -0.544 229 230 224
-0.308267 -0.396343 -0.544 228 229 223
-0.30723 -0.396343 -0.544 229 230 224
0.0448476 -0.403629 -0.554 198 155 136
0.0457371 -0.402171 -0.552 199 156 137
0.0465343 -0.399986 -0.549 200 157 138
0.0474933 -0.399257 -0.548 200 157 140
0.0482714 -0.397071 -0.545 200 157 138
0.0490381 -0.394886 -0.542 200 157 138
0.049701 -0.391971 -0.538 200 157 138
0.0504429 -0.389786 -0.535 200 157 138
0.0512695 -0.388329 -0.533 200 155 136
0.0519905 -0.386143 -0.53 199 154 135
0.0529 -0.385414 -0.529 198 153 132
0.0538057 -0.384686 -0.528 202 157 136
0.0546038 -0.383229 -0.526 199 152 132
0.0555 -0.3825 -0.525 205 158 138
0.0563924 -0.381771 -0.524 206 159 139
0.0573905 -0.381771 -0.524 205 158 138
0.0582771 -0.381043 -0.523 202 158 133
0.0592733 -0.381043 -0.523 203 159 134
0.0601543 -0.380314 -0.522 205 161 136
0.0611486 -0.380314 -0.522 206 162 137
0.0621429 -0.380314 -0.522 208 162 138
0.0630162 -0.379586 -0.521 209 163 139
0.0640086 -0.379586 -0.521 207 163 138
0.065001 -0.379586 -0.521 202 158 133
0.0659933 -0.379586 -0.521 198 152 128
0.0669857 -0.379586 -0.521 201 155 131
0.0679781 -0.379586 -0.521 202 154 132
0.0689705 -0.379586 -0.521 204 156 134
0.0698286 -0.378857 -0.52 205 157 135
0.070819 -0.378857 -0.52 202 154 132
0.0718095 -0.378857 -0.52 200 154 131
0.0728 -0.378857 -0.52 198 152 129
0.0737905 -0.378857 -0.52 202 152 129
0.0749248 -0.379586 -0.521 201 151 128
0.0759171 -0.379586 -0.521 196 148 125
0.0769095 -0.379586 -0.521 192 144 121
0.0779019 -0.379586 -0.521 195 145 122
0.0788943 -0.379586 -0.521 194 144 121
0.0798867 -0.379586 -0.521 190 138 116
0.0810343 -0.380314 -0.522 191 139 117
0.0820286 -0.380314 -0.522 191 139 117
0.0830229 -0.380314 -0.522 187 135 113
0.0841781 -0.381043 -0.523 184 132 110
0.0851743 -0.381043 -0.523 187 135 113
0.0863352 -0.381771 -0.524 184 132 111
0.0875 -0.3825 -0.525 176 124 103
0.0885 -0.3825 -0.525 176 121 101
0.0896705 -0.383229 -0.526 180 125 105
0.0908448 -0.383957 -0.527 180 123 104
0.0920229 -0.384686 -0.528 178 121 102
0.0932048 -0.385414 -0.529 178 119 101
0.0943905 -0.386143 -0.53 178 119 101
0.09558 -0.386871 -0.531 176 117 101
0.0965914 -0.386871 -0.531 176 117 101
0.0977867 -0.3876 -0.532 174 118 101
0.0989857 -0.388329 -0.533 172 116 99
0.100189 -0.389057 -0.534 172 119 103
0.101395 -0.389786 -0.535 172 119 103
0.102606 -0.390514 -0.536 170 117 101
0.10382 -0.391243 -0.537 168 115 99
0.105038 -0.391971 -0.538 167 114 100
0.10626 -0.3927 -0.539 164 111 97
0.107685 -0.394157 -0.541 162 110 96
0.108916 -0.394886 -0.542 163 111 97
0.110151 -0.395614 -0.543 154 110 97
0.11139 -0.396343 -0.544 151 107 94
0.11284 -0.3978 -0.546 150 106 95
0.114297 -0.399257 -0.548 150 106 95
0.115551 -0.399986 -0.549 144 104 96
0.117022 -0.401443 -0.551 141 101 93
0.1185 -0.4029 -0.553 134 99 93
0.119986 -0.404357 -0.555 131 96 90
0.121479 -0.405814 -0.557 124 96 93
0.135262 -0.418929 -0.575 118 100 100
0.136594 -0.419657 -0.576 116 104 108
0.137691 -0.419657 -0.576 125 113 117
0.138789 -0.419657 -0.576 125 113 117
0.140129 -0.420386 -0.577 120 114 124
0.141228 -0.420386 -0.577 124 118 128
0.142327 -0.420386 -0.577 128 127 135
0.143426 -0.420386 -0.577 138 137 145
0.144525 -0.420386 -0.577 144 139 143
0.145624 -0.420386 -0.577 152 147 151
0.146723 -0.420386 -0.577 158 149 152
0.147822 -0.420386 -0.577 164 155 158
0.148921 -0.420386 -0.577 166 160 164
0.15002 -0.420386 -0.577 168 162 166
0.150857 -0.419657 -0.576 159 158 163
0.151954 -0.419657 -0.576 172 171 176
0.153051 -0.419657 -0.576 175 174 192
0.154149 -0.419657 -0.576 174 173 191
0.155246 -0.419657 -0.576 158 169 191
0.156343 -0.419657 -0.576 145 156 178
0.15744 -0.419657 -0.576 116 137 168
0.158537 -0.419657 -0.576 105 126 157
0.159634 -0.419657 -0.576 107 123 156
0.160731 -0.419657 -0.576 110 126 159
0.161829 -0.419657 -0.576 182 189 208
0.162926 -0.419657 -0.576 194 201 220
0.164023 -0.419657 -0.576 193 197 209
0.16512 -0.419657 -0.576 183 187 199
0.166217 -0.419657 -0.576 173 190 218
0.167314 -0.419657 -0.576 166 183 211
0.168411 -0.419657 -0.576 110 142 193
0.169509 -0.419657 -0.576 94 126 177
0.4251 -0.426214 -0.585 209 223 252
0.426214 -0.426214 -0.585 208 222 251
0.427329 -0.426214 -0.585 186 208 249
0.428443 -0.426214 -0.585 148 170 211
0.429557 -0.426214 -0.585 135 170 208
0.430671 -0.426214 -0.585 145 180 218
0.431786 -0.426214 -0.585 164 200 248
0.4329 -0.426214 -0.585 162 198 246
0.434014 -0.426214 -0.585 162 198 246
0.435872 -0.426943 -0.586 147 174 229
0.436989 -0.426943 -0.586 135 162 217
0.438105 -0.426943 -0.586 144 171 214
0.439221 -0.426943 -0.586 188 215 255
0.440337 -0.426943 -0.586 202 217 246
0.441453 -0.426943 -0.586 206 221 250
0.44257 -0.426943 -0.586 226 226 250
0.443686 -0.426943 -0.586 235 235 255
0.444802 -0.426943 -0.586 215 227 251
0.445918 -0.426943 -0.586 165 177 201
0.447034 -0.426943 -0.586 149 168 198
0.44815 -0.426943 -0.586 151 170 200
0.449267 -0.426943 -0.586 176 188 212
0.450383 -0.426943 -0.586 195 207 231
0.451499 -0.426943 -0.586 215 224 241
0.452615 -0.426943 -0.586 226 235 252
0.453731 -0.426943 -0.586 233 239 251
0.454848 -0.426943 -0.586 236 242 254
0.455964 -0.426943 -0.586 233 240 248
0.45786 -0.427671 -0.587 233 240 248
0.458978 -0.427671 -0.587 219 224 230
0.460096 -0.427671 -0.587 196 201 207
0.461214 -0.427671 -0.587 215 218 223
0.462332 -0.427671 -0.587 231 234 239
0.46345 -0.427671 -0.587 227 231 240
0.46536 -0.4284 -0.588 226 230 239
0.46648 -0.4284 -0.588 222 229 245
0.4676 -0.4284 -0.588 222 229 245
0.46872 -0.4284 -0.588 222 225 240
0.46984 -0.4284 -0.588 220 223 238
0.47096 -0.4284 -0.588 221 225 234
0.47208 -0.4284 -0.588 222 226 235
0.4732 -0.4284 -0.588 223 227 236
0.47432 -0.4284 -0.588 222 226 235
0.47544 -0.4284 -0.588 220 224 235
0.47656 -0.4284 -0.588 220 224 235
0.478492 -0.429129 -0.589 220 224 235
0.479614 -0.429129 -0.589 216 222 238
0.480736 -0.429129 -0.589 214 220 236
0.481858 -0.429129 -0.589 201 212 230
0.48298 -0.429129 -0.589 175 186 204
0.484102 -0.429129 -0.589 150 166 189
0.485224 -0.429129 -0.589 121 137 160
0.486346 -0.429129 -0.589 110 130 155
0.487468 -0.429129 -0.589 120 140 165
0.48859 -0.429129 -0.589 172 188 214
0.489711 -0.429129 -0.589 201 217 243
0.490833 -0.429129 -0.589 194 210 233
0.491955 -0.429129 -0.589 184 200 223
0.493077 -0.429129 -0.589 169 190 221
0.494199 -0.429129 -0.589 155 176 207
0.495321 -0.429129 -0.589 111 138 183
0.496443 -0.429129 -0.589 97 124 169
0.497565 -0.429129 -0.589 102 134 183
0.498687 -0.429129 -0.589 95 127 176
0.499809 -0.429129 -0.589 98 129 184
0.50093 -0.429129 -0.589 111 142 197
0.5012 -0.4284 -0.588 91 123 180
0.50232 -0.4284 -0.588 76 108 165
0.502584 -0.427671 -0.587 82 119 164
0.503702 -0.427671 -0.587 120 157 202
0.496927 -0.414557 -0.569 167 138 130
0.495385 -0.412371 -0.566 165 138 129
0.492954 -0.409457 -0.562 165 138 129
0.491388 -0.407271 -0.559 165 138 131
0.48981 -0.405086 -0.556 165 138 131
0.48822 -0.4029 -0.553 167 138 130
0.486619 -0.400714 -0.55 167 138 130
0.485007 -0.398529 -0.547 169 139 129
0.484271 -0.397071 -0.545 169 139 129
0.482638 -0.394886 -0.542 168 138 128
0.48367 -0.394886 -0.542 168 138 128
0.48202 -0.3927 -0.539 170 140 130
0.480358 -0.390514 -0.536 175 142 133
0.478685 -0.388329 -0.533 176 143 134
0.4779 -0.386871 -0.531 176 144 133
0.476206 -0.384686 -0.528 176 144 133
0.475404 -0.383229 -0.526 176 142 130
0.473689 -0.381043 -0.523 175 141 129
0.47287 -0.379586 -0.521 175 139 125
0.472043 -0.378129 -0.519 177 141 127
0.47212 -0.3774 -0.518 181 144 128
0.47128 -0.375943 -0.516 182 145 129
0.470432 -0.374486 -0.514 183 146 128
0.470494 -0.373757 -0.513 185 148 130
0.470552 -0.373029 -0.512 188 150 131
0.470607 -0.3723 -0.511 189 151 132
0.470657 -0.371571 -0.51 188 150 129
0.469779 -0.370114 -0.508 190 152 131
0.46982 -0.369386 -0.507 189 151 132
0.469857 -0.368657 -0.506 189 151 132
0.46989 -0.367929 -0.505 190 152 131
0.46992 -0.3672 -0.504 189 151 130
0.469946 -0.366471 -0.503 191 150 128
0.469968 -0.365743 -0.502 194 153 131
0.469986 -0.365014 -0.501 190 149 127
0.47 -0.364286 -0.5 190 149 127
0.47001 -0.363557 -0.499 193 152 132
0.470017 -0.362829 -0.498 193 152 132
0.47002 -0.3621 -0.497 192 151 129
0.470967 -0.3621 -0.497 193 152 130
0.470964 -0.361371 -0.496 194 153 131
0.470957 -0.360643 -0.495 194 153 131
0.4719 -0.360643 -0.495 194 154 129
0.471888 -0.359914 -0.494 192 152 127
0.471871 -0.359186 -0.493 194 152 128
0.47281 -0.359186 -0.493 192 150 126
0.472789 -0.358457 -0.492 194 152 128
0.473726 -0.358457 -0.492 191 149 125
0.474663 -0.358457 -0.492 196 154 129
0.474633 -0.357729 -0.491 194 152 127
0.4746 -0.357 -0.49 195 153 128
0.475533 -0.357 -0.49 195 153 128
0.475494 -0.356271 -0.489 193 149 124
0.475451 -0.355543 -0.488 190 146 121
0.476381 -0.355543 -0.488 191 147 122
0.476332 -0.354814 -0.487 192 148 123
0.47628 -0.354086 -0.486 191 147 120
0.477206 -0.354086 -0.486 189 145 118
0.478131 -0.354086 -0.486 191 145 119
0.478071 -0.353357 -0.485 190 144 118
0.478995 -0.353357 -0.485 190 146 119
0.47893 -0.352629 -0.484 186 142 115
0.479851 -0.352629 -0.484 182 138 111
0.47978 -0.3519 -0.483 185 141 114
0.4807 -0.3519 -0.483 188 144 115
0.48162 -0.3519 -0.483 188 144 115
0.48254 -0.3519 -0.483 186 142 113
0.48346 -0.3519 -0.483 187 143 114
0.48438 -0.3519 -0.483 187 143 114
0.4853 -0.3519 -0.483 185 144 114
0.48622 -0.3519 -0.483 186 145 115
0.48714 -0.3519 -0.483 185 144 112
0.48806 -0.3519 -0.483 184 143 111
0.48898 -0.3519 -0.483 187 144 112
0.4899 -0.3519 -0.483 184 141 109
0.49082 -0.3519 -0.483 180 135 104
0.49174 -0.3519 -0.483 180 136 111
0.49266 -0.3519 -0.483 182 138 113
0.49358 -0.3519 -0.483 182 138 113
0.4945 -0.3519 -0.483 182 136 110
0.49542 -0.3519 -0.483 180 134 108
0.497368 -0.352629 -0.484 180 133 105
0.49829 -0.352629 -0.484 178 131 103
0.499211 -0.352629 -0.484 178 133 104
0.501167 -0.353357 -0.485 178 133 104
0.50209 -0.353357 -0.485 169 128 100
0.504051 -0.354086 -0.486 165 124 96
0.506016 -0.354814 -0.487 162 122 97
0.507985 -0.355543 -0.488 159 119 94
0.511 -0.357 -0.49 156 120 98
0.514023 -0.358457 -0.492 154 118 96
0.517053 -0.359914 -0.494 153 116 89
0.52114 -0.3621 -0.497 154 117 90
0.526289 -0.365014 -0.501 149 118 98
-0.313906 -0.396649 -0.543 228 229 223
-0.312871 -0.396649 -0.543 229 230 224
-0.311837 -0.396649 -0.543 228 229 223
-0.310803 -0.396649 -0.543 228 229 221
-0.309769 -0.396649 -0.543 228 229 221
-0.308734 -0.396649 -0.543 229 230 222
0.0437924 -0.404684 -0.554 193 152 132
0.0446857 -0.403223 -0.552 198 156 134
0.0454886 -0.401031 -0.549 199 157 135
0.0465343 -0.401031 -0.549 200 157 138
0.0472333 -0.39811 -0.545 201 158 139
0.0480057 -0.395918 -0.542 201 158 139
0.0487667 -0.393727 -0.539 201 158 139
0.0494238 -0.390805 -0.535 204 159 138
0.05016 -0.388613 -0.532 204 159 138
0.0510771 -0.387883 -0.531 200 155 134
0.0518924 -0.386422 -0.529 199 154 133
0.0527 -0.384961 -0.527 200 155 134
0.0536019 -0.38423 -0.526 203 158 137
0.0545 -0.3835 -0.525 197 152 129
0.0553943 -0.38277 -0.524 202 157 134
0.0562848 -0.382039 -0.523 205 159 136
0.057281 -0.382039 -0.523 204 158 135
0.0581657 -0.381309 -0.522 202 158 133
0.05916 -0.381309 -0.522 202 158 133
0.0601543 -0.381309 -0.522 205 159 135
0.0610314 -0.380578 -0.521 206 160 136
0.0620238 -0.380578 -0.521 207 161 137
0.0628952 -0.379848 -0.52 208 162 138
0.0638857 -0.379848 -0.52 206 160 136
0.0648762 -0.379848 -0.52 202 156 132
0.0658667 -0.379848 -0.52 198 152 128
0.0668571 -0.379848 -0.52 200 154 130
0.0678476 -0.379848 -0.52 202 154 131
0.0688381 -0.379848 -0.52 205 157 134
0.0698286 -0.379848 -0.52 207 159 137
0.0706829 -0.379117 -0.519 202 154 132
0.0716714 -0.379117 -0.519 197 151 128
0.0728 -0.379848 -0.52 196 150 127
0.0737905 -0.379848 -0.52 202 152 129
0.0747809 -0.379848 -0.52 201 151 128
0.0757714 -0.379848 -0.52 195 147 124
0.0767619 -0.379848 -0.52 192 144 121
0.0777524 -0.379848 -0.52 194 144 121
0.0788943 -0.380578 -0.521 193 143 120
0.0798867 -0.380578 -0.521 189 139 116
0.0808791 -0.380578 -0.521 190 140 117
0.0820286 -0.381309 -0.522 189 137 115
0.0830229 -0.381309 -0.522 188 136 114
0.0840171 -0.381309 -0.522 184 132 110
0.0851743 -0.382039 -0.523 183 131 109
0.0863352 -0.38277 -0.524 181 129 108
0.0873333 -0.38277 -0.524 177 125 104
0.0885 -0.3835 -0.525 178 123 103
0.0896705 -0.38423 -0.526 180 125 105
0.0908448 -0.384961 -0.527 180 123 104
0.0918486 -0.384961 -0.527 178 121 102
0.0930286 -0.385691 -0.528 177 120 101
0.0942124 -0.386422 -0.529 177 120 101
0.0954 -0.387152 -0.53 177 120 101
0.0965914 -0.387883 -0.531 177 120 101
0.0977867 -0.388613 -0.532 175 119 102
0.0989857 -0.389344 -0.533 173 117 100
0.100189 -0.390074 -0.534 171 118 100
0.101395 -0.390805 -0.535 170 117 99
0.102606 -0.391535 -0.536 169 116 100
0.10382 -0.392266 -0.537 168 115 99
0.105038 -0.392996 -0.538 168 115 99
0.10626 -0.393727 -0.539 166 113 97
0.107486 -0.394457 -0.54 163 112 95
0.108916 -0.395918 -0.542 163 111 97
0.110151 -0.396649 -0.543 164 108 93
0.11139 -0.397379 -0.544 162 106 91
0.11284 -0.39884 -0.546 155 106 92
0.114297 -0.400301 -0.548 154 105 91
0.115551 -0.401031 -0.549 144 106 97
0.117022 -0.402492 -0.551 141 103 94
0.1185 -0.403953 -0.553 127 102 98
0.120202 -0.406145 -0.556 125 100 96
0.136357 -0.420024 -0.575 120 110 118
0.137452 -0.420024 -0.575 120 110 118
0.138789 -0.420754 -0.576 120 110 118
0.139886 -0.420754 -0.576 121 115 127
0.141228 -0.421485 -0.577 129 123 135
0.14208 -0.420754 -0.576 132 129 138
0.143177 -0.420754 -0.576 146 143 152
0.144274 -0.420754 -0.576 143 141 146
0.145371 -0.420754 -0.576 148 146 151
0.146469 -0.420754 -0.576 151 149 150
0.147566 -0.420754 -0.576 162 160 161
0.148663 -0.420754 -0.576 163 159 160
0.14976 -0.420754 -0.576 127 123 124
0.150857 -0.420754 -0.576 143 137 139
0.15169 -0.420024 -0.575 181 175 177
0.152786 -0.420024 -0.575 179 181 193
0.153881 -0.420024 -0.575 179 181 193
0.154976 -0.420024 -0.575 175 182 201
0.421036 -0.426598 -0.584 198 211 245
0.422149 -0.426598 -0.584 222 232 255
0.423261 -0.426598 -0.584 224 234 255
0.424373 -0.426598 -0.584 208 222 251
0.425486 -0.426598 -0.584 207 221 250
0.426598 -0.426598 -0.584 185 204 246
0.42771 -0.426598 -0.584 143 162 204
0.428823 -0.426598 -0.584 120 155 195
0.429935 -0.426598 -0.584 129 164 204
0.4329 -0.427329 -0.585 151 188 240
0.434014 -0.427329 -0.585 151 188 240
0.435129 -0.427329 -0.585 128 154 213
0.436243 -0.427329 -0.585 116 142 201
0.437357 -0.427329 -0.585 129 156 203
0.438471 -0.427329 -0.585 178 205 252
0.439586 -0.427329 -0.585 202 217 248
0.4407 -0.427329 -0.585 207 222 253
0.441814 -0.427329 -0.585 227 227 253
0.442929 -0.427329 -0.585 231 231 255
0.444043 -0.427329 -0.585 206 218 244
0.445157 -0.427329 -0.585 158 170 196
0.446271 -0.427329 -0.585 156 175 207
0.447386 -0.427329 -0.585 167 186 218
0.449267 -0.428059 -0.586 203 211 232
0.450383 -0.428059 -0.586 213 221 242
0.451499 -0.428059 -0.586 220 228 241
0.452615 -0.428059 -0.586 230 238 251
0.453731 -0.428059 -0.586 228 235 245
0.454848 -0.428059 -0.586 232 239 249
0.455964 -0.428059 -0.586 234 241 247
0.45708 -0.428059 -0.586 231 238 244
0.458196 -0.428059 -0.586 200 204 207
0.459312 -0.428059 -0.586 180 184 187
0.461214 -0.42879 -0.587 220 221 223
0.462332 -0.42879 -0.587 236 237 239
0.46345 -0.42879 -0.587 226 231 237
0.464569 -0.42879 -0.587 227 232 238
0.465687 -0.42879 -0.587 221 230 247
0.4676 -0.42952 -0.588 222 231 248
0.46872 -0.42952 -0.588 225 228 243
0.46984 -0.42952 -0.588 202 205 220
0.47096 -0.42952 -0.588 208 211 218
0.47208 -0.42952 -0.588 222 225 232
0.4732 -0.42952 -0.588 221 224 229
0.47432 -0.42952 -0.588 219 222 227
0.47544 -0.42952 -0.588 220 224 233
0.47656 -0.42952 -0.588 218 222 231
0.47768 -0.42952 -0.588 218 222 231
0.4788 -0.42952 -0.588 217 220 235
0.47992 -0.42952 -0.588 213 216 231
0.48104 -0.42952 -0.588 207 213 229
0.48216 -0.42952 -0.588 201 207 223
0.48328 -0.42952 -0.588 188 201 218
0.4844 -0.42952 -0.588 163 176 193
0.486346 -0.43025 -0.589 139 161 184
0.487468 -0.43025 -0.589 118 140 163
0.48859 -0.43025 -0.589 148 164 197
0.489711 -0.43025 -0.589 196 212 245
0.490833 -0.43025 -0.589 193 210 236
0.491955 -0.43025 -0.589 185 202 228
0.493077 -0.43025 -0.589 166 186 219
0.494199 -0.43025 -0.589 166 186 219
0.495321 -0.43025 -0.589 122 149 196
0.496443 -0.43025 -0.589 83 110 157
0.49672 -0.42952 -0.588 86 119 172
0.49784 -0.42952 -0.588 85 118 171
0.49896 -0.42952 -0.588 89 121 182
0.50008 -0.42952 -0.588 102 134 195
0.5012 -0.42952 -0.588 73 107 168
0.50232 -0.42952 -0.588 66 100 161
0.502584 -0.42879 -0.587 82 120 167
0.496927 -0.415641 -0.569 171 141 131
0.495385 -0.41345 -0.566 169 135 133
0.492954 -0.410528 -0.562 168 134 132
0.491388 -0.408336 -0.559 164 137 126
0.48981 -0.406145 -0.556 164 137 126
0.48822 -0.403953 -0.553 166 136 128
0.487504 -0.402492 -0.551 168 138 130
0.485893 -0.400301 -0.548 170 136 134
0.484271 -0.39811 -0.545 168 134 132
0.482638 -0.395918 -0.542 168 138 128
0.48367 -0.395918 -0.542 168 138 128
0.48202 -0.393727 -0.539 170 140 130
0.480358 -0.391535 -0.536 173 141 130
0.478685 -0.389344 -0.533 173 141 130
0.4779 -0.387883 -0.531 177 143 133
0.476206 -0.385691 -0.528 179 145 135
0.475404 -0.38423 -0.526 178 144 132
0.474594 -0.38277 -0.524 176 142 130
0.47287 -0.380578 -0.521 178 142 128
0.472043 -0.379117 -0.519 180 144 130
0.471209 -0.377656 -0.517 181 144 128
0.47128 -0.376926 -0.516 181 144 128
0.470432 -0.375465 -0.514 184 145 130
0.470494 -0.374734 -0.513 185 146 131
0.469633 -0.373273 -0.511 186 147 130
0.469686 -0.372543 -0.51 188 149 132
0.469734 -0.371812 -0.509 187 148 131
0.469779 -0.371082 -0.508 186 147 130
0.46982 -0.370351 -0.507 191 149 133
0.469857 -0.369621 -0.506 193 151 135
0.46989 -0.36889 -0.505 194 153 135
0.46992 -0.36816 -0.504 190 149 131
0.469946 -0.36743 -0.503 186 145 127
0.469968 -0.366699 -0.502 192 151 133
0.469986 -0.365969 -0.501 189 148 128
0.47 -0.365238 -0.5 191 150 130
0.47001 -0.364508 -0.499 194 151 132
0.470017 -0.363777 -0.498 194 151 132
0.47002 -0.363047 -0.497 193 151 129
0.470019 -0.362316 -0.496 193 151 129
0.470964 -0.362316 -0.496 194 152 130
0.470957 -0.361586 -0.495 195 153 131
0.4719 -0.361586 -0.495 194 154 128
0.471888 -0.360855 -0.494 190 150 124
0.471871 -0.360125 -0.493 191 151 126
0.471851 -0.359394 -0.492 192 152 127
0.472789 -0.359394 -0.492 190 150 125
0.473726 -0.359394 -0.492 192 152 127
0.473698 -0.358664 -0.491 196 154 129
0.473667 -0.357933 -0.49 194 152 127
0.4746 -0.357933 -0.49 196 154 129
0.474563 -0.357203 -0.489 194 152 127
0.475494 -0.357203 -0.489 192 150 125
0.475451 -0.356472 -0.488 189 147 122
0.475405 -0.355742 -0.487 188 146 121
0.476332 -0.355742 -0.487 188 146 121
0.47628 -0.355011 -0.486 188 147 119
0.477206 -0.355011 -0.486 187 146 118
0.477148 -0.354281 -0.485 189 145 118
0.478071 -0.354281 -0.485 189 145 118
0.478008 -0.35355 -0.484 192 148 121
0.47893 -0.35355 -0.484 190 146 119
0.47886 -0.35282 -0.483 183 139 112
0.47978 -0.35282 -0.483 181 137 110
0.4807 -0.35282 -0.483 186 142 115
0.480623 -0.35209 -0.482 190 146 119
0.481541 -0.35209 -0.482 189 143 117
0.48346 -0.35282 -0.483 189 143 117
0.483377 -0.35209 -0.482 188 142 116
0.484295 -0.35209 -0.482 186 140 114
0.485213 -0.35209 -0.482 186 140 114
0.486131 -0.35209 -0.482 186 140 114
0.48705 -0.35209 -0.482 186 140 114
0.487968 -0.35209 -0.482 186 140 114
0.488886 -0.35209 -0.482 186 140 114
0.489804 -0.35209 -0.482 178 134 109
0.490722 -0.35209 -0.482 180 136 109
0.49164 -0.35209 -0.482 183 137 111
0.49358 -0.35282 -0.483 183 137 111
0.4945 -0.35282 -0.483 184 137 109
0.49542 -0.35282 -0.483 183 136 108
0.49634 -0.35282 -0.483 181 134 104
0.49726 -0.35282 -0.483 179 132 102
0.499211 -0.35355 -0.484 178 133 104
0.500133 -0.35355 -0.484 177 132 103
0.50209 -0.354281 -0.485 171 127 100
0.503014 -0.354281 -0.485 166 122 95
0.504977 -0.355011 -0.486 161 121 96
0.506944 -0.355742 -0.487 160 120 95
0.509957 -0.357203 -0.489 159 121 98
0.511933 -0.357933 -0.49 159 121 98
0.51496 -0.359394 -0.492 160 120 94
0.519043 -0.361586 -0.495 158 118 92
0.523137 -0.363777 -0.498 150 118 97
0.527243 -0.365969 -0.501 147 115 94
0.532414 -0.36889 -0.505 144 113 95
-0.312871 -0.397683 -0.543 228 229 221
-0.311837 -0.397683 -0.543 228 229 221
-0.310803 -0.397683 -0.543 228 229 221
-0.309769 -0.397683 -0.543 228 229 221
-0.308734 -0.397683 -0.543 228 229 221
-0.3077 -0.397683 -0.543 228 229 221
-0.306666 -0.397683 -0.543 226 227 219
-0.305631 -0.397683 -0.543 227 228 220
-0.304597 -0.397683 -0.543 228 229 221
0.0427371 -0.405739 -0.554 198 153 130
0.0436343 -0.404274 -0.552 194 149 126
0.0444429 -0.402077 -0.549 199 154 133
0.0453229 -0.400612 -0.547 200 155 134
0.04628 -0.39988 -0.546 200 158 136
0.0469733 -0.39695 -0.542 201 159 137
0.0476514 -0.394021 -0.538 203 158 137
0.0484048 -0.391824 -0.535 204 159 138
0.0491467 -0.389627 -0.532 204 159 138
0.0499714 -0.388162 -0.53 204 159 138
0.0507886 -0.386697 -0.528 200 155 132
0.0516962 -0.385965 -0.527 198 153 130
0.0526 -0.385232 -0.526 200 155 132
0.0535 -0.3845 -0.525 203 158 135
0.0543962 -0.383768 -0.524 198 153 130
0.0552886 -0.383035 -0.523 202 157 134
0.0562848 -0.383035 -0.523 204 160 135
0.0571714 -0.382303 -0.522 203 159 134
0.0581657 -0.382303 -0.522 204 158 134
0.0590467 -0.38157 -0.521 203 157 133
0.0600391 -0.38157 -0.521 204 158 134
0.0610314 -0.38157 -0.521 205 159 135
0.0619048 -0.380838 -0.52 206 160 136
0.0628952 -0.380838 -0.52 206 160 136
0.0638857 -0.380838 -0.52 204 158 134
0.0648762 -0.380838 -0.52 201 155 131
0.0658667 -0.380838 -0.52 202 156 132
0.0667286 -0.380106 -0.519 201 155 131
0.0677171 -0.380106 -0.519 203 155 133
0.0687057 -0.380106 -0.519 205 157 135
0.0696943 -0.380106 -0.519 207 159 137
0.0706829 -0.380106 -0.519 202 154 132
0.0716714 -0.380106 -0.519 195 149 126
0.07266 -0.380106 -0.519 196 150 127
0.0737905 -0.380838 -0.52 198 150 127
0.0747809 -0.380838 -0.52 198 150 127
0.0757714 -0.380838 -0.52 195 147 124
0.0767619 -0.380838 -0.52 193 145 122
0.0777524 -0.380838 -0.52 192 144 121
0.0787429 -0.380838 -0.52 189 141 118
0.0798867 -0.38157 -0.521 189 139 116
0.0808791 -0.38157 -0.521 189 139 116
0.0818714 -0.38157 -0.521 187 135 113
0.0830229 -0.382303 -0.522 188 136 114
0.0840171 -0.382303 -0.522 184 132 110
0.0851743 -0.383035 -0.523 180 128 106
0.0861705 -0.383035 -0.523 178 126 105
0.0873333 -0.383768 -0.524 178 126 105
0.0885 -0.3845 -0.525 179 127 106
0.0895 -0.3845 -0.525 179 127 106
0.0906724 -0.385232 -0.526 181 126 105
0.0918486 -0.385965 -0.527 179 124 103
0.0930286 -0.386697 -0.528 177 122 101
0.0942124 -0.38743 -0.529 177 122 101
0.0954 -0.388162 -0.53 177 122 102
0.0965914 -0.388894 -0.531 177 122 102
0.0977867 -0.389627 -0.532 174 122 101
0.0989857 -0.390359 -0.533 173 121 100
0.100189 -0.391091 -0.534 171 118 100
0.101395 -0.391824 -0.535 171 118 100
0.102606 -0.392556 -0.536 169 116 98
0.10382 -0.393289 -0.537 168 115 97
0.105038 -0.394021 -0.538 167 116 99
0.10626 -0.394753 -0.539 166 115 98
0.107486 -0.395486 -0.54 162 113 96
0.108916 -0.39695 -0.542 163 112 95
0.110151 -0.397683 -0.543 161 108 94
0.11139 -0.398415 -0.544 160 107 93
0.11284 -0.39988 -0.546 156 107 93
0.114297 -0.401345 -0.548 154 105 91
0.115551 -0.402077 -0.549 144 106 97
0.117234 -0.404274 -0.552 141 103 94
0.118714 -0.405739 -0.554 128 103 99
0.120202 -0.407204 -0.556 126 101 97
0.135027 -0.420387 -0.574 114 103 109
0.13612 -0.420387 -0.574 114 103 109
0.137452 -0.421119 -0.575 121 111 122
0.138548 -0.421119 -0.575 121 111 122
0.139886 -0.421851 -0.576 120 114 128
0.140983 -0.421851 -0.576 127 121 135
0.14208 -0.421851 -0.576 135 132 143
0.143177 -0.421851 -0.576 147 144 155
0.144274 -0.421851 -0.576 149 147 152
0.145371 -0.421851 -0.576 150 148 153
0.146469 -0.421851 -0.576 160 158 161
