ply
format ascii 1.0
comment Created by Open3D
element vertex 1276
property double x
property double y
property double z
property uchar red
property uchar green
property uchar blue
end_header
0.119986 -0.382157 -0.555 147 97 88
0.121479 -0.383534 -0.557 144 95 90
0.12276 -0.384223 -0.558 145 96 91
0.124045 -0.384911 -0.559 143 96 90
0.125557 -0.386289 -0.561 140 93 87
0.126851 -0.386977 -0.562 137 92 87
0.128377 -0.388354 -0.564 137 92 87
0.12991 -0.389731 -0.566 132 88 85
0.131451 -0.391109 -0.568 126 82 79
0.133 -0.392486 -0.57 114 88 91
0.134556 -0.393863 -0.572 111 85 88
0.150029 -0.406257 -0.59 55 67 109
0.151409 -0.406946 -0.591 69 82 124
0.152534 -0.406946 -0.591 88 101 143
0.15366 -0.406946 -0.591 104 113 146
0.154786 -0.406946 -0.591 112 121 154
0.155911 -0.406946 -0.591 111 113 136
0.157037 -0.406946 -0.591 116 118 141
0.158163 -0.406946 -0.591 125 125 153
0.159289 -0.406946 -0.591 135 135 163
0.160414 -0.406946 -0.591 142 139 166
0.16154 -0.406946 -0.591 142 139 166
0.16239 -0.406257 -0.59 144 141 168
0.163514 -0.406257 -0.59 146 147 168
0.164638 -0.406257 -0.59 148 149 170
0.166043 -0.406946 -0.591 142 147 176
0.167169 -0.406946 -0.591 142 147 176
0.168294 -0.406946 -0.591 105 118 160
0.16942 -0.406946 -0.591 67 80 122
0.170546 -0.406946 -0.591 66 88 137
0.171671 -0.406946 -0.591 78 100 149
0.172797 -0.406946 -0.591 76 103 150
0.173923 -0.406946 -0.591 71 98 145
0.175049 -0.406946 -0.591 64 92 142
0.176174 -0.406946 -0.591 48 76 126
0.1773 -0.406946 -0.591 38 71 124
0.178426 -0.406946 -0.591 41 74 127
0.38215 -0.411766 -0.598 225 241 255
0.38329 -0.411766 -0.598 249 247 255
0.384429 -0.411766 -0.598 249 247 255
0.394199 -0.412454 -0.599 243 250 255
0.39534 -0.412454 -0.599 222 239 255
0.396481 -0.412454 -0.599 203 220 238
0.397622 -0.412454 -0.599 171 199 239
0.398763 -0.412454 -0.599 147 175 215
0.399904 -0.412454 -0.599 114 146 207
0.401045 -0.412454 -0.599 106 138 199
0.402186 -0.412454 -0.599 97 131 192
0.403327 -0.412454 -0.599 97 131 192
0.404468 -0.412454 -0.599 101 135 196
0.405609 -0.412454 -0.599 106 141 205
0.40675 -0.412454 -0.599 96 131 195
0.40789 -0.412454 -0.599 94 132 197
0.409031 -0.412454 -0.599 101 139 204
0.410172 -0.412454 -0.599 118 155 210
0.411313 -0.412454 -0.599 151 188 243
0.431429 -0.413143 -0.6 160 188 227
0.432571 -0.413143 -0.6 165 193 232
0.433714 -0.413143 -0.6 157 189 230
0.434857 -0.413143 -0.6 144 176 217
0.436 -0.413143 -0.6 128 162 210
0.437143 -0.413143 -0.6 123 157 205
0.438286 -0.413143 -0.6 128 162 208
0.443595 -0.413831 -0.601 158 189 233
0.44474 -0.413831 -0.601 160 186 223
0.445885 -0.413831 -0.601 165 191 228
0.44703 -0.413831 -0.601 184 198 225
0.448174 -0.413831 -0.601 217 231 255
0.449319 -0.413831 -0.601 248 249 255
0.450464 -0.413831 -0.601 247 248 255
0.451609 -0.413831 -0.601 253 250 255
0.452753 -0.413831 -0.601 249 246 255
0.453898 -0.413831 -0.601 247 245 255
0.4558 -0.41452 -0.602 244 242 253
0.456947 -0.41452 -0.602 243 243 255
0.458093 -0.41452 -0.602 244 244 255
0.45924 -0.41452 -0.602 242 242 252
0.460387 -0.41452 -0.602 243 243 253
0.461533 -0.41452 -0.602 225 240 255
0.46268 -0.41452 -0.602 200 215 238
0.464597 -0.415209 -0.603 162 191 235
0.465746 -0.415209 -0.603 132 161 205
0.466894 -0.415209 -0.603 87 125 187
0.468043 -0.415209 -0.603 79 117 179
0.469191 -0.415209 -0.603 82 119 187
0.47112 -0.415897 -0.604 89 126 194
0.47227 -0.415897 -0.604 98 138 208
0.473421 -0.415897 -0.604 78 118 188
0.474571 -0.415897 -0.604 69 113 184
0.475722 -0.415897 -0.604 70 114 185
0.477662 -0.416586 -0.605 89 129 191
0.478814 -0.416586 -0.605 127 167 229
0.479967 -0.416586 -0.605 153 184 230
0.481119 -0.416586 -0.605 181 212 255
0.482271 -0.416586 -0.605 181 212 255
0.483424 -0.416586 -0.605 215 221 247
0.484576 -0.416586 -0.605 218 224 250
0.485729 -0.416586 -0.605 228 226 239
0.486881 -0.416586 -0.605 228 226 239
0.48884 -0.417274 -0.606 222 222 232
0.489994 -0.417274 -0.606 224 224 234
0.491149 -0.417274 -0.606 222 226 237
0.492303 -0.417274 -0.606 223 227 238
0.493457 -0.417274 -0.606 224 224 232
0.494611 -0.417274 -0.606 224 224 232
0.495766 -0.417274 -0.606 203 215 231
0.49692 -0.417274 -0.606 171 183 199
0.498074 -0.417274 -0.606 131 161 195
0.499229 -0.417274 -0.606 116 146 180
0.500383 -0.417274 -0.606 111 148 192
0.501537 -0.417274 -0.606 111 148 192
0.502691 -0.417274 -0.606 101 136 190
0.503846 -0.417274 -0.606 95 130 184
0.505 -0.417274 -0.606 86 125 180
0.506154 -0.417274 -0.606 78 117 172
0.507309 -0.417274 -0.606 78 118 170
0.508463 -0.417274 -0.606 83 125 183
0.508776 -0.416586 -0.605 97 137 189
0.509929 -0.416586 -0.605 102 142 194
0.511081 -0.416586 -0.605 101 132 178
0.512233 -0.416586 -0.605 100 131 177
0.513386 -0.416586 -0.605 114 130 163
0.513688 -0.415897 -0.604 155 171 204
0.514838 -0.415897 -0.604 183 186 205
0.515134 -0.415209 -0.603 180 183 202
0.5109 -0.402814 -0.585 168 139 131
0.508513 -0.40006 -0.581 166 137 129
0.506989 -0.397994 -0.578 166 137 131
0.505452 -0.395929 -0.575 167 138 132
0.503024 -0.393174 -0.571 168 138 130
0.501463 -0.391109 -0.568 168 138 130
0.499006 -0.388354 -0.564 172 139 130
0.49742 -0.386289 -0.561 172 139 130
0.494934 -0.383534 -0.557 170 140 132
0.493324 -0.381469 -0.554 170 140 132
0.49081 -0.378714 -0.55 170 140 130
0.489174 -0.376649 -0.547 172 142 132
0.487528 -0.374583 -0.544 175 142 133
0.48587 -0.372517 -0.541 176 143 134
0.4842 -0.370451 -0.538 177 143 133
0.482519 -0.368386 -0.535 176 142 132
0.48173 -0.367009 -0.533 180 144 130
0.480029 -0.364943 -0.53 183 147 133
0.48013 -0.364254 -0.529 184 147 131
0.479319 -0.362877 -0.527 184 147 131
0.4785 -0.3615 -0.525 186 147 130
0.478587 -0.360811 -0.524 189 150 133
0.47867 -0.360123 -0.523 192 151 133
0.478749 -0.359434 -0.522 193 152 134
0.478824 -0.358746 -0.521 193 152 132
0.478895 -0.358057 -0.52 193 152 132
0.478963 -0.357369 -0.519 188 150 129
0.479951 -0.357369 -0.519 187 149 128
0.480013 -0.35668 -0.518 191 150 130
0.480071 -0.355991 -0.517 193 152 132
0.480126 -0.355303 -0.516 194 153 133
0.481109 -0.355303 -0.516 193 152 132
0.481157 -0.354614 -0.515 193 152 130
0.481202 -0.353926 -0.514 194 153 131
0.482181 -0.353926 -0.514 193 153 128
0.48222 -0.353237 -0.513 196 156 131
0.482255 -0.352549 -0.512 198 156 132
0.48323 -0.352549 -0.512 198 156 132
0.48326 -0.35186 -0.511 197 155 131
0.484233 -0.35186 -0.511 196 154 130
0.484257 -0.351171 -0.51 196 154 129
0.485229 -0.351171 -0.51 196 154 129
0.485247 -0.350483 -0.509 198 157 129
0.486216 -0.350483 -0.509 197 156 128
0.486229 -0.349794 -0.508 194 153 125
0.487196 -0.349794 -0.508 194 153 125
0.487203 -0.349106 -0.507 195 154 126
0.488169 -0.349106 -0.507 197 156 128
0.48817 -0.348417 -0.506 199 158 130
0.489133 -0.348417 -0.506 199 158 130
0.490097 -0.348417 -0.506 197 156 128
0.49009 -0.347729 -0.505 194 153 125
0.491052 -0.347729 -0.505 193 152 124
0.492014 -0.347729 -0.505 189 148 118
0.492 -0.34704 -0.504 185 144 114
0.491982 -0.346351 -0.503 185 144 114
0.49294 -0.346351 -0.503 186 145 115
0.493898 -0.346351 -0.503 187 146 116
0.493872 -0.345663 -0.502 189 148 118
0.494829 -0.345663 -0.502 191 147 120
0.495785 -0.345663 -0.502 190 146 119
0.496741 -0.345663 -0.502 188 147 119
0.496706 -0.344974 -0.501 187 146 118
0.49766 -0.344974 -0.501 184 143 111
0.498614 -0.344974 -0.501 182 141 109
0.498571 -0.344286 -0.5 179 141 105
0.499524 -0.344286 -0.5 176 138 102
0.500476 -0.344286 -0.5 177 137 101
0.501429 -0.344286 -0.5 178 138 102
0.503386 -0.344974 -0.501 177 137 101
0.50434 -0.344974 -0.501 175 135 99
0.506303 -0.345663 -0.502 174 133 101
0.507259 -0.345663 -0.502 169 128 96
0.509228 -0.346351 -0.503 164 125 94
0.5112 -0.34704 -0.504 164 125 94
0.513176 -0.347729 -0.505 160 125 97
0.516174 -0.349106 -0.507 161 126 98
0.51918 -0.350483 -0.509 161 123 100
0.522193 -0.35186 -0.511 159 121 98
0.525214 -0.353237 -0.513 157 121 99
0.530294 -0.355991 -0.517 157 121 99
0.53539 -0.358746 -0.521 153 121 96
-0.33654 -0.381833 -0.553 230 231 223
-0.335487 -0.381833 -0.553 231 232 224
-0.334433 -0.381833 -0.553 231 232 224
-0.33338 -0.381833 -0.553 232 233 225
-0.332327 -0.381833 -0.553 231 232 224
-0.331273 -0.381833 -0.553 230 231 223
-0.33022 -0.381833 -0.553 231 232 224
-0.329167 -0.381833 -0.553 231 232 224
-0.328113 -0.381833 -0.553 231 232 224
-0.32706 -0.381833 -0.553 230 231 223
-0.326007 -0.381833 -0.553 230 231 223
-0.325541 -0.382524 -0.554 230 231 223
-0.324486 -0.382524 -0.554 229 230 222
-0.322847 -0.381833 -0.553 230 231 223
-0.321793 -0.381833 -0.553 230 231 223
-0.32074 -0.381833 -0.553 231 232 224
-0.319687 -0.381833 -0.553 232 233 225
-0.31921 -0.382524 -0.554 232 233 225
-0.318154 -0.382524 -0.554 231 232 224
-0.317099 -0.382524 -0.554 231 232 224
-0.316044 -0.382524 -0.554 231 232 224
-0.314989 -0.382524 -0.554 231 232 224
-0.313933 -0.382524 -0.554 230 232 221
-0.312878 -0.382524 -0.554 231 233 222
-0.310271 -0.383214 -0.555 230 232 221
-0.309214 -0.383214 -0.555 230 232 221
-0.308157 -0.383214 -0.555 230 232 221
-0.3071 -0.383214 -0.555 231 233 222
-0.306043 -0.383214 -0.555 231 233 222
-0.304986 -0.383214 -0.555 231 233 222
-0.303929 -0.383214 -0.555 230 231 223
-0.302326 -0.382524 -0.554 230 231 223
-0.30127 -0.382524 -0.554 232 233 225
-0.300215 -0.382524 -0.554 232 233 225
-0.29916 -0.382524 -0.554 231 232 224
-0.298643 -0.383214 -0.555 231 232 224
-0.297586 -0.383214 -0.555 233 234 226
-0.296529 -0.383214 -0.555 233 234 226
-0.295471 -0.383214 -0.555 232 234 223
-0.294414 -0.383214 -0.555 233 235 224
-0.293357 -0.383214 -0.555 231 233 222
-0.2923 -0.383214 -0.555 231 233 222
-0.291243 -0.383214 -0.555 232 234 223
-0.290186 -0.383214 -0.555 232 234 223
-0.289129 -0.383214 -0.555 231 233 222
-0.288071 -0.383214 -0.555 231 233 222
-0.287014 -0.383214 -0.555 232 234 223
-0.283843 -0.383214 -0.555 232 234 223
-0.282786 -0.383214 -0.555 231 233 222
-0.281729 -0.383214 -0.555 232 234 223
-0.280671 -0.383214 -0.555 233 235 224
-0.280118 -0.383905 -0.556 233 235 224
-0.279059 -0.383905 -0.556 232 233 225
-0.278 -0.383905 -0.556 232 233 225
-0.276941 -0.383905 -0.556 232 233 225
-0.275882 -0.383905 -0.556 232 233 225
-0.274823 -0.383905 -0.556 232 233 225
-0.273764 -0.383905 -0.556 231 232 224
-0.257281 -0.384595 -0.557 233 234 228
-0.25622 -0.384595 -0.557 233 234 228
-0.255159 -0.384595 -0.557 233 234 228
-0.254098 -0.384595 -0.557 234 235 227
-0.230109 -0.385286 -0.558 236 237 231
-0.229046 -0.385286 -0.558 236 237 231
0.0568 -0.39219 -0.568 202 155 139
0.0576781 -0.39081 -0.566 199 151 129
0.0583409 -0.388048 -0.562 205 157 135
0.0590943 -0.385976 -0.559 201 160 132
0.0597286 -0.383214 -0.555 199 158 130
0.0607857 -0.383214 -0.555 199 158 130
0.0612857 -0.379762 -0.55 202 156 133
0.0619933 -0.37769 -0.547 202 156 133
0.0626895 -0.375619 -0.544 202 156 133
0.0634914 -0.374238 -0.542 201 155 132
0.0644048 -0.373548 -0.541 201 155 132
0.0651933 -0.372167 -0.539 200 154 131
0.0660971 -0.371476 -0.538 199 153 130
0.0671219 -0.371476 -0.538 199 153 130
0.06802 -0.370786 -0.537 201 155 131
0.0689143 -0.370095 -0.536 201 155 131
0.0698048 -0.369405 -0.535 201 157 132
0.0708238 -0.369405 -0.535 202 158 133
0.0717086 -0.368714 -0.534 202 158 133
0.0727257 -0.368714 -0.534 202 158 133
0.0736048 -0.368024 -0.533 204 158 134
0.07462 -0.368024 -0.533 205 159 135
0.0756352 -0.368024 -0.533 208 160 138
0.0766505 -0.368024 -0.533 208 160 138
0.07752 -0.367333 -0.532 207 159 137
0.0785333 -0.367333 -0.532 206 158 136
0.0795467 -0.367333 -0.532 205 157 134
0.08056 -0.367333 -0.532 204 156 133
0.0815733 -0.367333 -0.532 202 154 131
0.0825867 -0.367333 -0.532 200 152 129
0.0836 -0.367333 -0.532 203 155 132
0.0846133 -0.367333 -0.532 201 153 130
0.0856267 -0.367333 -0.532 201 153 130
0.08664 -0.367333 -0.532 200 152 129
0.0878181 -0.368024 -0.533 198 151 125
0.0888333 -0.368024 -0.533 196 149 123
0.0898486 -0.368024 -0.533 195 148 122
0.0910343 -0.368714 -0.534 194 147 121
0.0920514 -0.368714 -0.534 195 145 118
0.0932429 -0.369405 -0.535 194 144 117
0.0942619 -0.369405 -0.535 193 142 113
0.095459 -0.370095 -0.536 191 140 111
0.09648 -0.370095 -0.536 187 136 105
0.0976829 -0.370786 -0.537 182 131 100
0.0988895 -0.371476 -0.538 184 130 102
0.1001 -0.372167 -0.539 185 131 103
0.101127 -0.372167 -0.539 183 129 103
0.102343 -0.372857 -0.54 176 122 96
0.103563 -0.373548 -0.541 177 121 98
0.104787 -0.374238 -0.542 177 121 98
0.106014 -0.374929 -0.543 175 118 101
0.107246 -0.375619 -0.544 174 117 100
0.108481 -0.37631 -0.545 170 112 98
0.10972 -0.377 -0.546 169 111 97
0.110963 -0.37769 -0.547 165 107 96
0.11221 -0.378381 -0.548 163 105 94
0.11346 -0.379071 -0.549 163 106 97
0.114714 -0.379762 -0.55 161 104 95
0.115972 -0.380452 -0.551 154 101 93
0.117234 -0.381143 -0.552 152 99 91
0.118714 -0.382524 -0.554 148 98 91
0.119986 -0.383214 -0.555 148 98 91
0.121479 -0.384595 -0.557 143 95 91
0.12276 -0.385286 -0.558 145 96 91
0.124045 -0.385976 -0.559 140 95 90
0.125557 -0.387357 -0.561 136 91 86
0.127077 -0.388738 -0.563 134 90 87
0.128377 -0.389429 -0.564 133 89 86
0.13014 -0.3915 -0.567 128 87 85
0.131683 -0.392881 -0.569 122 81 79
0.133233 -0.394262 -0.571 110 84 87
0.148652 -0.40669 -0.589 31 44 88
0.149774 -0.40669 -0.589 55 68 112
0.151152 -0.407381 -0.59 67 80 124
0.152534 -0.408071 -0.591 85 98 142
0.15366 -0.408071 -0.591 90 100 136
0.154786 -0.408071 -0.591 92 102 138
0.155911 -0.408071 -0.591 98 103 132
0.156771 -0.407381 -0.59 98 103 132
0.157895 -0.407381 -0.59 108 109 140
0.159019 -0.407381 -0.59 123 124 155
0.160143 -0.407381 -0.59 139 136 165
0.161267 -0.407381 -0.59 139 136 165
0.16239 -0.407381 -0.59 145 142 171
0.163514 -0.407381 -0.59 145 145 169
0.164638 -0.407381 -0.59 146 146 170
0.165762 -0.407381 -0.59 134 141 170
0.167169 -0.408071 -0.591 133 140 169
0.168294 -0.408071 -0.591 99 113 158
0.16942 -0.408071 -0.591 67 81 126
0.170546 -0.408071 -0.591 67 89 139
0.171671 -0.408071 -0.591 73 95 145
0.172797 -0.408071 -0.591 69 95 144
0.173923 -0.408071 -0.591 65 91 140
0.175049 -0.408071 -0.591 51 83 134
0.176174 -0.408071 -0.591 42 74 125
0.177 -0.407381 -0.59 35 71 123
0.178124 -0.407381 -0.59 38 74 126
0.179248 -0.407381 -0.59 50 79 137
0.180371 -0.407381 -0.59 61 90 148
0.393541 -0.412905 -0.598 233 241 252
0.39468 -0.412905 -0.598 224 240 255
0.395819 -0.412905 -0.598 217 233 255
0.396958 -0.412905 -0.598 190 217 255
0.398097 -0.412905 -0.598 162 189 234
0.399236 -0.412905 -0.598 120 154 218
0.405609 -0.413595 -0.599 92 129 197
0.40675 -0.413595 -0.599 89 126 194
0.40789 -0.413595 -0.599 91 130 199
0.409031 -0.413595 -0.599 100 139 208
0.410172 -0.413595 -0.599 124 160 218
0.411313 -0.413595 -0.599 162 198 255
0.412454 -0.413595 -0.599 193 219 255
0.413595 -0.413595 -0.599 210 236 255
0.414736 -0.413595 -0.599 230 241 255
0.420441 -0.413595 -0.599 244 250 255
0.421582 -0.413595 -0.599 237 249 255
0.422723 -0.413595 -0.599 239 251 255
0.423864 -0.413595 -0.599 247 247 255
0.425005 -0.413595 -0.599 244 244 252
0.426146 -0.413595 -0.599 233 240 255
0.432571 -0.414286 -0.6 165 194 234
0.433714 -0.414286 -0.6 159 193 239
0.434857 -0.414286 -0.6 139 173 219
0.436 -0.414286 -0.6 120 160 211
0.437143 -0.414286 -0.6 112 152 203
0.438286 -0.414286 -0.6 118 158 207
0.439429 -0.414286 -0.6 139 179 228
0.440571 -0.414286 -0.6 139 179 228
0.441714 -0.414286 -0.6 155 188 239
0.442857 -0.414286 -0.6 162 195 246
0.444 -0.414286 -0.6 163 190 235
0.445143 -0.414286 -0.6 148 175 220
0.446286 -0.414286 -0.6 166 181 212
0.447429 -0.414286 -0.6 216 231 255
0.448571 -0.414286 -0.6 239 242 255
0.449714 -0.414286 -0.6 240 243 255
0.451609 -0.414976 -0.601 247 247 255
0.452753 -0.414976 -0.601 244 244 255
0.453898 -0.414976 -0.601 244 246 255
0.455043 -0.414976 -0.601 241 243 255
0.456188 -0.414976 -0.601 242 246 255
0.457332 -0.414976 -0.601 239 243 255
0.45924 -0.415667 -0.602 230 232 244
0.460387 -0.415667 -0.602 235 237 249
0.461533 -0.415667 -0.602 233 245 255
0.46268 -0.415667 -0.602 217 229 243
0.463827 -0.415667 -0.602 185 209 253
0.464973 -0.415667 -0.602 156 180 224
0.466894 -0.416357 -0.603 105 140 206
0.468043 -0.416357 -0.603 86 121 187
0.469191 -0.416357 -0.603 79 117 188
0.47034 -0.416357 -0.603 75 113 184
0.471489 -0.416357 -0.603 73 112 187
0.472637 -0.416357 -0.603 70 109 184
0.473786 -0.416357 -0.603 71 114 192
0.474934 -0.416357 -0.603 73 116 194
0.476872 -0.417048 -0.604 95 135 197
0.478023 -0.417048 -0.604 137 177 239
0.479173 -0.417048 -0.604 164 198 236
0.480324 -0.417048 -0.604 188 222 255
0.481474 -0.417048 -0.604 224 226 249
0.482625 -0.417048 -0.604 224 226 249
0.483775 -0.417048 -0.604 221 223 246
0.484926 -0.417048 -0.604 221 219 230
0.486881 -0.417738 -0.605 224 222 233
0.488033 -0.417738 -0.605 223 225 237
0.489186 -0.417738 -0.605 225 227 239
0.490338 -0.417738 -0.605 218 221 238
0.49149 -0.417738 -0.605 216 219 236
0.492643 -0.417738 -0.605 220 222 237
0.493795 -0.417738 -0.605 218 220 235
0.494948 -0.417738 -0.605 205 218 234
0.4961 -0.417738 -0.605 179 192 208
0.497252 -0.417738 -0.605 122 152 186
0.499229 -0.418429 -0.606 117 147 181
0.500383 -0.418429 -0.606 114 154 203
0.501537 -0.418429 -0.606 109 149 198
0.502691 -0.418429 -0.606 103 143 204
0.503846 -0.418429 -0.606 88 128 189
0.505 -0.418429 -0.606 78 120 180
0.506154 -0.418429 -0.606 67 109 169
0.507309 -0.418429 -0.606 73 115 173
0.508463 -0.418429 -0.606 83 125 183
0.508776 -0.417738 -0.605 94 134 195
0.509929 -0.417738 -0.605 103 143 204
0.510236 -0.417048 -0.604 103 135 184
0.511387 -0.417048 -0.604 92 124 173
0.512537 -0.417048 -0.604 93 111 147
0.513688 -0.417048 -0.604 151 169 205
0.513986 -0.416357 -0.603 176 181 201
0.515134 -0.416357 -0.603 179 184 204
0.509786 -0.403929 -0.585 169 140 132
0.5109 -0.403929 -0.585 169 140 132
0.509389 -0.401857 -0.582 166 137 129
0.506989 -0.399095 -0.578 165 138 131
0.505452 -0.397024 -0.575 165 138 131
0.503024 -0.394262 -0.571 168 138 130
0.501463 -0.39219 -0.568 169 139 131
0.49989 -0.390119 -0.565 171 138 131
0.49742 -0.387357 -0.561 171 138 131
0.495823 -0.385286 -0.558 168 137 132
0.493324 -0.382524 -0.554 170 139 134
0.491702 -0.380452 -0.551 170 140 130
0.490069 -0.378381 -0.548 171 141 131
0.487528 -0.375619 -0.544 173 143 133
0.48587 -0.373548 -0.541 174 144 134
0.4842 -0.371476 -0.538 175 143 132
0.482519 -0.369405 -0.535 174 142 131
0.48173 -0.368024 -0.533 177 144 129
0.480029 -0.365952 -0.53 180 147 132
0.48013 -0.365262 -0.529 183 146 130
0.479319 -0.363881 -0.527 183 146 130
0.4785 -0.3625 -0.525 185 147 128
0.478587 -0.36181 -0.524 187 149 130
0.47867 -0.361119 -0.523 190 149 129
0.478749 -0.360429 -0.522 191 150 130
0.477905 -0.359048 -0.52 192 151 131
0.478895 -0.359048 -0.52 194 153 133
0.478963 -0.358357 -0.519 189 151 130
0.479027 -0.357667 -0.518 188 150 129
0.479087 -0.356976 -0.517 191 150 130
0.480071 -0.356976 -0.517 193 152 132
0.480126 -0.356286 -0.516 193 152 132
0.480176 -0.355595 -0.515 193 152 132
0.481157 -0.355595 -0.515 192 151 129
0.481202 -0.354905 -0.514 193 152 130
0.481243 -0.354214 -0.513 193 153 128
0.48222 -0.354214 -0.513 196 156 131
0.482255 -0.353524 -0.512 198 156 132
0.482287 -0.352833 -0.511 197 155 131
0.48326 -0.352833 -0.511 196 154 130
0.483286 -0.352143 -0.51 196 154 130
0.484257 -0.352143 -0.51 195 153 128
0.484277 -0.351452 -0.509 195 153 128
0.485247 -0.351452 -0.509 194 152 127
0.485261 -0.350762 -0.508 195 153 128
0.486229 -0.350762 -0.508 195 153 128
0.486237 -0.350071 -0.507 195 153 128
0.487203 -0.350071 -0.507 197 155 130
0.488169 -0.350071 -0.507 199 157 132
0.48817 -0.349381 -0.506 199 157 132
0.489133 -0.349381 -0.506 199 157 132
0.489129 -0.34869 -0.505 196 154 129
0.49009 -0.34869 -0.505 195 153 128
0.49008 -0.348 -0.504 194 152 127
0.49104 -0.348 -0.504 190 149 121
0.492 -0.348 -0.504 185 144 116
0.491982 -0.34731 -0.503 185 144 116
0.49196 -0.346619 -0.502 187 146 118
0.492916 -0.346619 -0.502 189 148 120
0.493872 -0.346619 -0.502 191 150 122
0.493843 -0.345929 -0.501 190 149 121
0.494797 -0.345929 -0.501 190 149 121
0.495751 -0.345929 -0.501 189 148 120
0.496706 -0.345929 -0.501 188 147 119
0.496667 -0.345238 -0.5 184 145 114
0.497619 -0.345238 -0.5 182 143 112
0.498571 -0.345238 -0.5 179 141 105
0.498525 -0.344548 -0.499 182 143 110
0.499475 -0.344548 -0.499 179 139 104
0.500426 -0.344548 -0.499 179 139 104
0.502381 -0.345238 -0.5 176 136 101
0.503333 -0.345238 -0.5 176 136 101
0.505294 -0.345929 -0.501 175 136 105
0.506249 -0.345929 -0.501 171 132 101
0.508215 -0.346619 -0.502 166 127 98
0.510186 -0.34731 -0.503 164 125 96
0.51216 -0.348 -0.504 161 124 95
0.514138 -0.34869 -0.505 161 124 95
0.51714 -0.350071 -0.507 162 124 101
0.52015 -0.351452 -0.509 161 123 100
0.523167 -0.352833 -0.511 156 121 101
0.527217 -0.354905 -0.514 156 121 101
0.531279 -0.356976 -0.517 153 123 99
-0.335931 -0.382194 -0.552 230 231 223
-0.33488 -0.382194 -0.552 230 231 223
-0.333829 -0.382194 -0.552 230 231 223
-0.33338 -0.382887 -0.553 231 232 224
-0.332327 -0.382887 -0.553 231 232 224
-0.331273 -0.382887 -0.553 230 231 223
-0.33022 -0.382887 -0.553 230 231 223
-0.329167 -0.382887 -0.553 231 232 224
-0.328113 -0.382887 -0.553 230 231 223
-0.32706 -0.382887 -0.553 230 231 223
-0.326007 -0.382887 -0.553 230 231 223
-0.324953 -0.382887 -0.553 230 231 223
-0.3239 -0.382887 -0.553 229 230 222
-0.322847 -0.382887 -0.553 230 231 223
-0.321793 -0.382887 -0.553 231 232 224
-0.32074 -0.382887 -0.553 231 232 224
-0.319687 -0.382887 -0.553 232 233 225
-0.318633 -0.382887 -0.553 232 233 225
-0.31758 -0.382887 -0.553 231 232 224
-0.316527 -0.382887 -0.553 231 232 224
-0.315473 -0.382887 -0.553 231 232 224
-0.31442 -0.382887 -0.553 231 232 224
-0.313933 -0.383579 -0.554 230 231 223
-0.312878 -0.383579 -0.554 230 231 223
-0.311823 -0.383579 -0.554 230 232 221
-0.310768 -0.383579 -0.554 230 232 221
-0.309712 -0.383579 -0.554 230 232 221
-0.308657 -0.383579 -0.554 230 232 221
-0.307602 -0.383579 -0.554 230 232 221
-0.306547 -0.383579 -0.554 231 233 222
-0.305491 -0.383579 -0.554 232 234 223
-0.304436 -0.383579 -0.554 231 233 222
-0.303381 -0.383579 -0.554 231 232 224
-0.302326 -0.383579 -0.554 230 231 223
-0.30127 -0.383579 -0.554 231 232 224
-0.300215 -0.383579 -0.554 231 232 224
-0.29916 -0.383579 -0.554 231 232 224
-0.298105 -0.383579 -0.554 232 233 225
-0.29705 -0.383579 -0.554 232 233 225
-0.295994 -0.383579 -0.554 232 233 225
-0.294939 -0.383579 -0.554 232 233 225
-0.293884 -0.383579 -0.554 233 234 226
-0.292829 -0.383579 -0.554 233 235 224
-0.291773 -0.383579 -0.554 232 234 223
-0.290718 -0.383579 -0.554 232 234 223
-0.289663 -0.383579 -0.554 231 233 222
-0.288608 -0.383579 -0.554 231 233 222
-0.288071 -0.384271 -0.555 232 234 223
-0.287014 -0.384271 -0.555 232 234 223
-0.285957 -0.384271 -0.555 231 233 222
-0.2849 -0.384271 -0.555 231 233 222
-0.283843 -0.384271 -0.555 231 233 222
-0.282786 -0.384271 -0.555 231 233 222
-0.281729 -0.384271 -0.555 232 234 223
-0.280671 -0.384271 -0.555 232 234 223
-0.279614 -0.384271 -0.555 232 234 223
-0.278557 -0.384271 -0.555 232 233 225
-0.2775 -0.384271 -0.555 232 233 225
-0.269528 -0.384964 -0.556 233 234 226
-0.268469 -0.384964 -0.556 233 234 226
-0.26741 -0.384964 -0.556 233 234 226
-0.26635 -0.384964 -0.556 233 234 226
-0.265291 -0.384964 -0.556 233 234 226
-0.264232 -0.384964 -0.556 233 234 226
-0.263173 -0.384964 -0.556 233 234 226
-0.231818 -0.385656 -0.557 235 236 230
0.0557181 -0.393272 -0.568 200 153 137
0.0567 -0.39258 -0.567 198 151 135
0.0574743 -0.390503 -0.564 199 151 129
0.0585486 -0.390503 -0.564 199 151 129
0.0592 -0.387733 -0.56 206 158 136
0.0599438 -0.385656 -0.557 199 160 131
0.0604571 -0.382194 -0.552 201 162 133
0.0610629 -0.379425 -0.548 202 156 132
0.0617667 -0.377348 -0.545 203 157 133
0.062459 -0.37527 -0.542 202 157 134
0.0633743 -0.374578 -0.541 201 156 133
0.0641667 -0.373193 -0.539 200 155 132
0.0650724 -0.372501 -0.538 198 153 130
0.0659743 -0.371809 -0.537 196 150 126
0.0669971 -0.371809 -0.537 195 149 125
0.0678933 -0.371116 -0.536 199 153 129
0.0687857 -0.370424 -0.535 201 155 131
0.0696743 -0.369731 -0.534 201 155 131
0.0706914 -0.369731 -0.534 202 156 132
0.0715743 -0.369039 -0.533 204 158 134
0.0725895 -0.369039 -0.533 205 159 135
0.0736048 -0.369039 -0.533 205 159 135
0.07448 -0.368347 -0.532 207 161 137
0.0754933 -0.368347 -0.532 206 160 137
0.0765067 -0.368347 -0.532 206 160 137
0.07752 -0.368347 -0.532 206 160 137
0.0785333 -0.368347 -0.532 205 159 136
0.0795467 -0.368347 -0.532 206 158 135
0.08056 -0.368347 -0.532 203 155 132
0.0815733 -0.368347 -0.532 200 152 129
0.0824314 -0.367654 -0.531 199 151 128
0.0834429 -0.367654 -0.531 201 153 130
0.0844543 -0.367654 -0.531 199 151 128
0.0856267 -0.368347 -0.532 200 152 129
0.08664 -0.368347 -0.532 200 152 129
0.0876533 -0.368347 -0.532 197 150 124
0.0886667 -0.368347 -0.532 195 148 122
0.0898486 -0.369039 -0.533 195 148 122
0.0908638 -0.369039 -0.533 194 147 121
0.0920514 -0.369731 -0.534 195 145 118
0.0930686 -0.369731 -0.534 193 143 116
0.0942619 -0.370424 -0.535 190 139 110
0.095459 -0.371116 -0.536 189 138 109
0.09648 -0.371116 -0.536 188 137 106
0.0976829 -0.371809 -0.537 183 132 101
0.0988895 -0.372501 -0.538 182 131 102
0.0999143 -0.372501 -0.538 181 130 101
0.101127 -0.373193 -0.539 182 128 102
0.102343 -0.373886 -0.54 177 123 97
0.103563 -0.374578 -0.541 176 122 98
0.104787 -0.37527 -0.542 176 122 98
0.106014 -0.375963 -0.543 176 119 102
0.107246 -0.376655 -0.544 172 115 98
0.108481 -0.377348 -0.545 167 109 97
0.10972 -0.37804 -0.546 165 107 95
0.110963 -0.378732 -0.547 164 105 97
0.11221 -0.379425 -0.548 163 104 96
0.11346 -0.380117 -0.549 160 105 98
0.114714 -0.38081 -0.55 157 102 95
0.115972 -0.381502 -0.551 153 100 94
0.117447 -0.382887 -0.553 151 98 92
0.118714 -0.383579 -0.554 146 97 92
0.119986 -0.384271 -0.555 145 96 91
0.121479 -0.385656 -0.557 143 95 91
0.12276 -0.386349 -0.558 143 95 91
0.124267 -0.387733 -0.56 138 94 91
0.125557 -0.388426 -0.561 133 89 86
0.127077 -0.38981 -0.563 128 88 86
0.128605 -0.391195 -0.565 127 87 85
0.13014 -0.39258 -0.567 123 85 84
0.131683 -0.393965 -0.569 120 82 81
0.133233 -0.39535 -0.571 114 85 87
0.148652 -0.407812 -0.589 20 33 75
0.149774 -0.407812 -0.589 33 46 88
0.151152 -0.408505 -0.59 39 52 94
0.152276 -0.408505 -0.59 56 69 111
0.1534 -0.408505 -0.59 60 72 110
0.154524 -0.408505 -0.59 63 75 113
0.155648 -0.408505 -0.59 58 68 104
0.156506 -0.407812 -0.589 58 68 104
0.157628 -0.407812 -0.589 69 73 108
0.15875 -0.407812 -0.589 93 97 132
0.159871 -0.407812 -0.589 93 97 132
0.160993 -0.407812 -0.589 130 130 158
0.16239 -0.408505 -0.59 147 147 175
0.163514 -0.408505 -0.59 136 141 163
0.164638 -0.408505 -0.59 119 124 146
0.165762 -0.408505 -0.59 98 111 143
0.166886 -0.408505 -0.59 99 112 144
0.16801 -0.408505 -0.59 77 98 145
0.169133 -0.408505 -0.59 62 83 130
0.170257 -0.408505 -0.59 60 85 141
0.171381 -0.408505 -0.59 55 80 136
0.172505 -0.408505 -0.59 50 77 132
0.173629 -0.408505 -0.59 48 75 130
0.174752 -0.408505 -0.59 43 74 131
0.175876 -0.408505 -0.59 45 76 133
0.177 -0.408505 -0.59 41 76 130
0.178124 -0.408505 -0.59 42 77 131
0.384923 -0.413351 -0.597 218 225 244
0.38606 -0.413351 -0.597 217 224 243
0.387197 -0.413351 -0.597 232 240 253
0.395819 -0.414044 -0.598 192 213 244
0.396958 -0.414044 -0.598 167 198 245
0.398097 -0.414044 -0.598 144 175 222
0.399236 -0.414044 -0.598 112 146 210
0.400375 -0.414044 -0.598 97 131 195
0.401514 -0.414044 -0.598 94 128 191
0.402653 -0.414044 -0.598 94 128 191
0.403792 -0.414044 -0.598 96 130 193
0.404931 -0.414044 -0.598 89 126 194
0.40607 -0.414044 -0.598 91 128 196
0.40721 -0.414044 -0.598 90 129 196
0.408349 -0.414044 -0.598 97 136 203
0.409488 -0.414044 -0.598 116 152 212
0.410627 -0.414044 -0.598 146 182 242
0.411766 -0.414044 -0.598 175 204 248
0.412905 -0.414044 -0.598 186 215 255
0.414044 -0.414044 -0.598 203 222 252
0.43071 -0.414736 -0.599 164 197 240
0.43185 -0.414736 -0.599 159 192 235
0.432991 -0.414736 -0.599 151 189 238
0.434132 -0.414736 -0.599 133 171 220
0.435273 -0.414736 -0.599 117 162 217
0.436414 -0.414736 -0.599 105 150 205
0.437555 -0.414736 -0.599 115 158 211
0.438696 -0.414736 -0.599 129 172 225
0.439837 -0.414736 -0.599 129 172 225
0.440978 -0.414736 -0.599 148 185 238
0.447429 -0.415429 -0.6 206 226 255
0.448571 -0.415429 -0.6 215 225 250
0.449714 -0.415429 -0.6 228 238 255
0.450857 -0.415429 -0.6 240 243 255
0.452 -0.415429 -0.6 244 247 255
0.453898 -0.416121 -0.601 244 246 255
0.455043 -0.416121 -0.601 235 237 252
0.456188 -0.416121 -0.601 222 229 248
0.457332 -0.416121 -0.601 218 225 244
0.458477 -0.416121 -0.601 214 221 247
0.459622 -0.416121 -0.601 215 222 248
0.460767 -0.416121 -0.601 214 232 252
0.461911 -0.416121 -0.601 216 234 254
0.463056 -0.416121 -0.601 189 216 255
0.464201 -0.416121 -0.601 155 182 225
0.46612 -0.416813 -0.602 111 145 209
0.467267 -0.416813 -0.602 87 121 185
0.468413 -0.416813 -0.602 78 112 184
0.46956 -0.416813 -0.602 74 108 180
0.470707 -0.416813 -0.602 64 101 179
0.472637 -0.417506 -0.603 70 107 185
0.473786 -0.417506 -0.603 70 112 188
0.474934 -0.417506 -0.603 75 117 193
0.476083 -0.417506 -0.603 98 138 199
0.477231 -0.417506 -0.603 142 182 243
0.47838 -0.417506 -0.603 173 206 247
0.479529 -0.417506 -0.603 189 222 255
0.480677 -0.417506 -0.603 207 217 227
0.481826 -0.417506 -0.603 207 217 227
0.482974 -0.417506 -0.603 203 213 223
0.484123 -0.417506 -0.603 200 208 219
0.486076 -0.418198 -0.604 211 219 230
0.487227 -0.418198 -0.604 214 220 236
0.488377 -0.418198 -0.604 214 220 236
0.489528 -0.418198 -0.604 220 220 244
0.490678 -0.418198 -0.604 221 221 245
0.491829 -0.418198 -0.604 218 216 240
0.493795 -0.41889 -0.605 213 211 235
0.494948 -0.41889 -0.605 209 219 246
0.4961 -0.41889 -0.605 185 195 222
0.497252 -0.41889 -0.605 101 131 169
0.498405 -0.41889 -0.605 108 138 176
0.499557 -0.41889 -0.605 117 158 210
0.50071 -0.41889 -0.605 112 153 205
0.501862 -0.41889 -0.605 100 144 205
0.503014 -0.41889 -0.605 81 125 186
0.504167 -0.41889 -0.605 69 115 177
0.505319 -0.41889 -0.605 55 101 163
0.506471 -0.41889 -0.605 65 110 175
0.507624 -0.41889 -0.605 75 120 185
0.508776 -0.41889 -0.605 94 134 195
0.509086 -0.418198 -0.604 90 133 201
0.510236 -0.418198 -0.604 98 131 185
0.511387 -0.418198 -0.604 81 114 168
0.512537 -0.418198 -0.604 86 106 143
0.512837 -0.417506 -0.603 139 159 196
0.513986 -0.417506 -0.603 163 169 193
0.51428 -0.416813 -0.602 172 178 202
0.515427 -0.416813 -0.602 184 182 196
0.509389 -0.402966 -0.582 166 139 132
0.506989 -0.400196 -0.578 166 138 134
0.505452 -0.398119 -0.575 165 137 133
0.503905 -0.396042 -0.572 167 137 129
0.501463 -0.393272 -0.568 168 138 130
0.49989 -0.391195 -0.565 170 137 130
0.49742 -0.388426 -0.561 170 137 130
0.495823 -0.386349 -0.558 169 138 133
0.494214 -0.384271 -0.555 170 139 134
0.491702 -0.381502 -0.551 171 141 131
0.490069 -0.379425 -0.548 171 141 131
0.487528 -0.376655 -0.544 172 142 132
0.48587 -0.374578 -0.541 173 143 133
0.4851 -0.373193 -0.539 174 142 131
0.483421 -0.371116 -0.536 174 142 131
0.48173 -0.369039 -0.533 177 144 129
0.480029 -0.366962 -0.53 178 145 130
0.479223 -0.365577 -0.528 183 146 130
0.479319 -0.364885 -0.527 183 146 130
0.4785 -0.3635 -0.525 185 147 128
0.478587 -0.362808 -0.524 187 149 130
0.477754 -0.361423 -0.522 190 149 129
0.477831 -0.36073 -0.521 190 149 129
0.477905 -0.360038 -0.52 191 150 130
0.477974 -0.359346 -0.519 192 151 131
0.478963 -0.359346 -0.519 190 152 131
0.479027 -0.358653 -0.518 189 151 130
0.479087 -0.357961 -0.517 189 151 130
0.479143 -0.357269 -0.516 191 153 132
0.480126 -0.357269 -0.516 192 154 133
0.480176 -0.356576 -0.515 192 154 133
0.480223 -0.355884 -0.514 193 152 130
0.481202 -0.355884 -0.514 193 152 130
0.481243 -0.355191 -0.513 193 152 130
0.48128 -0.354499 -0.512 195 154 132
0.482255 -0.354499 -0.512 197 157 132
0.482287 -0.353807 -0.511 196 156 131
0.482314 -0.353114 -0.51 195 155 129
0.483286 -0.353114 -0.51 194 154 128
0.483308 -0.352422 -0.509 195 153 128
0.484277 -0.352422 -0.509 194 152 127
0.484293 -0.35173 -0.508 193 151 127
0.485261 -0.35173 -0.508 196 154 130
0.485271 -0.351037 -0.507 196 154 130
0.486237 -0.351037 -0.507 195 153 129
0.487203 -0.351037 -0.507 194 152 128
0.487206 -0.350345 -0.506 194 152 128
0.48817 -0.350345 -0.506 196 154 130
0.488167 -0.349652 -0.505 195 153 129
0.489129 -0.349652 -0.505 195 153 129
0.48912 -0.34896 -0.504 196 154 129
0.49008 -0.34896 -0.504 194 152 127
0.49104 -0.34896 -0.504 191 149 124
0.491024 -0.348268 -0.503 188 146 121
0.491982 -0.348268 -0.503 187 145 120
0.49196 -0.347575 -0.502 189 147 122
0.492916 -0.347575 -0.502 191 149 124
0.492889 -0.346883 -0.501 190 148 123
0.493843 -0.346883 -0.501 193 151 126
0.494797 -0.346883 -0.501 194 152 127
0.494762 -0.34619 -0.5 191 151 125
0.495714 -0.34619 -0.5 188 148 122
0.496667 -0.34619 -0.5 185 146 117
0.496624 -0.345498 -0.499 183 144 115
0.497574 -0.345498 -0.499 182 143 110
0.497526 -0.344806 -0.498 184 145 114
0.498474 -0.344806 -0.498 179 140 107
0.500426 -0.345498 -0.499 180 141 108
0.501376 -0.345498 -0.499 178 139 108
0.502327 -0.345498 -0.499 176 137 106
0.504286 -0.34619 -0.5 175 136 107
0.505238 -0.34619 -0.5 171 132 103
0.507203 -0.346883 -0.501 165 128 101
0.509171 -0.347575 -0.502 165 128 101
0.511144 -0.348268 -0.503 166 127 98
0.51312 -0.34896 -0.504 164 125 96
0.5151 -0.349652 -0.505 162 125 99
0.518106 -0.351037 -0.507 162 125 99
0.521119 -0.352422 -0.509 158 122 100
0.52414 -0.353807 -0.511 158 122 100
0.528196 -0.355884 -0.514 154 122 99
0.610269 -0.402966 -0.582 209 201 198
0.615579 -0.405735 -0.586 205 200 196
-0.335931 -0.383246 -0.552 230 231 223
-0.33488 -0.383246 -0.552 230 231 223
-0.333829 -0.383246 -0.552 230 231 223
-0.332777 -0.383246 -0.552 230 231 223
-0.331726 -0.383246 -0.552 231 232 224
-0.330674 -0.383246 -0.552 231 232 224
-0.329623 -0.383246 -0.552 229 230 222
-0.329167 -0.38394 -0.553 229 230 222
-0.328113 -0.38394 -0.553 229 230 222
-0.32706 -0.38394 -0.553 230 231 223
-0.326007 -0.38394 -0.553 230 231 223
-0.324366 -0.383246 -0.552 231 232 224
-0.323314 -0.383246 -0.552 230 231 223
-0.322263 -0.383246 -0.552 230 231 223
-0.321211 -0.383246 -0.552 231 232 224
-0.32016 -0.383246 -0.552 232 233 227
-0.319109 -0.383246 -0.552 231 232 226
-0.318057 -0.383246 -0.552 231 232 226
-0.317006 -0.383246 -0.552 230 231 225
-0.316527 -0.38394 -0.553 230 231 225
-0.315473 -0.38394 -0.553 230 231 225
-0.31442 -0.38394 -0.553 230 231 225
-0.313367 -0.38394 -0.553 231 232 226
-0.312313 -0.38394 -0.553 230 231 225
-0.31126 -0.38394 -0.553 231 232 224
-0.310207 -0.38394 -0.553 231 232 224
-0.309712 -0.384634 -0.554 231 232 224
-0.3081 -0.38394 -0.553 230 231 223
-0.307047 -0.38394 -0.553 230 231 223
-0.305993 -0.38394 -0.553 231 232 224
-0.30494 -0.38394 -0.553 231 232 224
-0.303887 -0.38394 -0.553 230 231 223
-0.302833 -0.38394 -0.553 231 232 224
-0.30178 -0.38394 -0.553 231 232 224
-0.300727 -0.38394 -0.553 230 231 223
-0.299673 -0.38394 -0.553 230 231 223
-0.29862 -0.38394 -0.553 232 233 225
-0.297567 -0.38394 -0.553 232 233 225
-0.29705 -0.384634 -0.554 232 233 225
-0.295994 -0.384634 -0.554 231 232 224
-0.294939 -0.384634 -0.554 231 232 224
-0.293884 -0.384634 -0.554 232 233 225
-0.292829 -0.384634 -0.554 232 233 225
-0.291773 -0.384634 -0.554 232 233 225
-0.290718 -0.384634 -0.554 231 232 224
-0.289663 -0.384634 -0.554 231 232 224
-0.288608 -0.384634 -0.554 232 233 225
-0.287552 -0.384634 -0.554 232 233 225
-0.286497 -0.384634 -0.554 231 233 222
-0.285442 -0.384634 -0.554 231 233 222
-0.283331 -0.384634 -0.554 231 233 222
-0.282276 -0.384634 -0.554 231 233 222
-0.281221 -0.384634 -0.554 231 233 222
-0.280671 -0.385329 -0.555 230 232 221
-0.279614 -0.385329 -0.555 230 232 221
-0.278557 -0.385329 -0.555 231 232 224
-0.2775 -0.385329 -0.555 232 233 225
-0.276443 -0.385329 -0.555 232 233 225
-0.275386 -0.385329 -0.555 232 233 225
-0.274329 -0.385329 -0.555 233 234 226
-0.273271 -0.385329 -0.555 233 234 226
-0.272214 -0.385329 -0.555 233 234 226
-0.228635 -0.386717 -0.557 233 234 226
-0.227574 -0.386717 -0.557 233 234 226
0.0566 -0.392966 -0.566 199 152 134
0.0574743 -0.391577 -0.564 197 150 132
0.0582371 -0.389494 -0.561 198 153 134
0.0589886 -0.387411 -0.558 202 157 138
0.059621 -0.384634 -0.554 199 155 126
0.0601286 -0.381163 -0.549 199 155 126
0.06084 -0.37908 -0.546 201 155 131
0.06154 -0.376997 -0.543 202 156 132
0.0623438 -0.375609 -0.541 203 157 133
0.06314 -0.37422 -0.539 203 157 133
0.0640476 -0.373526 -0.538 202 156 132
0.0649514 -0.372831 -0.537 200 154 130
0.0659743 -0.372831 -0.537 199 151 128
0.0668724 -0.372137 -0.536 197 149 126
0.0677667 -0.371443 -0.535 201 153 130
0.0686571 -0.370749 -0.534 202 154 131
0.0696743 -0.370749 -0.534 202 156 132
0.070559 -0.370054 -0.533 203 157 133
0.0715743 -0.370054 -0.533 205 157 134
0.0724533 -0.36936 -0.532 207 159 136
0.0734667 -0.36936 -0.532 208 161 135
0.07434 -0.368666 -0.531 207 160 134
0.0753514 -0.368666 -0.531 206 160 136
0.0763629 -0.368666 -0.531 205 159 135
0.0773743 -0.368666 -0.531 206 158 135
0.0783857 -0.368666 -0.531 206 158 135
0.0793971 -0.368666 -0.531 205 157 134
0.0804086 -0.368666 -0.531 201 153 130
0.08142 -0.368666 -0.531 198 150 127
0.0824314 -0.368666 -0.531 198 150 127
0.0834429 -0.368666 -0.531 198 151 125
0.0844543 -0.368666 -0.531 198 151 125
0.0854657 -0.368666 -0.531 200 153 127
0.0864771 -0.368666 -0.531 200 153 127
0.0876533 -0.36936 -0.532 196 149 123
0.0886667 -0.36936 -0.532 192 145 119
0.08968 -0.36936 -0.532 194 144 119
0.0908638 -0.370054 -0.533 195 145 120
0.0920514 -0.370749 -0.534 197 146 119
0.0930686 -0.370749 -0.534 193 142 115
0.0942619 -0.371443 -0.535 188 137 108
0.095281 -0.371443 -0.535 187 136 107
0.09648 -0.372137 -0.536 187 136 105
0.0976829 -0.372831 -0.537 182 131 100
0.0988895 -0.373526 -0.538 179 128 101
0.0999143 -0.373526 -0.538 178 127 100
0.101127 -0.37422 -0.539 174 120 96
0.102343 -0.374914 -0.54 174 120 96
0.103563 -0.375609 -0.541 174 119 98
0.104787 -0.376303 -0.542 176 121 100
0.106014 -0.376997 -0.543 174 118 101
0.107246 -0.377691 -0.544 170 114 97
0.108481 -0.378386 -0.545 166 109 98
0.10972 -0.37908 -0.546 162 105 94
0.110963 -0.379774 -0.547 162 103 95
0.11221 -0.380469 -0.548 161 102 94
0.11346 -0.381163 -0.549 158 103 96
0.114714 -0.381857 -0.55 155 100 93
0.116183 -0.383246 -0.552 149 99 92
0.117447 -0.38394 -0.553 149 99 92
0.118714 -0.384634 -0.554 144 97 91
0.120202 -0.386023 -0.556 142 95 89
0.121479 -0.386717 -0.557 139 96 90
0.12298 -0.388106 -0.559 139 96 90
0.124267 -0.3888 -0.56 132 94 91
0.125781 -0.390189 -0.562 128 90 87
0.127303 -0.391577 -0.564 124 89 87
0.128605 -0.392271 -0.565 122 87 85
0.13037 -0.394354 -0.568 119 85 83
0.131914 -0.395743 -0.57 117 83 81
0.14728 -0.40824 -0.588 22 31 64
0.1484 -0.40824 -0.588 21 33 73
0.149774 -0.408934 -0.589 26 38 78
0.150896 -0.408934 -0.589 26 40 77
0.152018 -0.408934 -0.589 37 51 88
0.15314 -0.408934 -0.589 40 56 92
0.154262 -0.408934 -0.589 43 59 95
0.155384 -0.408934 -0.589 34 49 88
0.156506 -0.408934 -0.589 41 56 95
0.15736 -0.40824 -0.588 57 63 99
0.15848 -0.40824 -0.588 57 63 99
0.1596 -0.40824 -0.588 77 83 119
0.16072 -0.40824 -0.588 112 113 141
0.162115 -0.408934 -0.589 128 129 157
0.163237 -0.408934 -0.589 107 115 136
0.164359 -0.408934 -0.589 77 85 106
0.165481 -0.408934 -0.589 66 85 117
0.166603 -0.408934 -0.589 68 87 119
0.167725 -0.408934 -0.589 53 79 128
0.168847 -0.408934 -0.589 53 79 128
0.169969 -0.408934 -0.589 45 76 133
0.17109 -0.408934 -0.589 35 66 123
0.172212 -0.408934 -0.589 33 64 121
0.173334 -0.408934 -0.589 31 62 119
0.174456 -0.408934 -0.589 38 70 129
0.175578 -0.408934 -0.589 43 75 134
0.1767 -0.408934 -0.589 37 72 126
0.177822 -0.408934 -0.589 34 69 123
0.178944 -0.408934 -0.589 35 64 120
0.180066 -0.408934 -0.589 35 64 120
0.372926 -0.413794 -0.596 116 153 208
0.374061 -0.413794 -0.596 122 159 214
0.375196 -0.413794 -0.596 120 161 215
0.390609 -0.414489 -0.597 149 156 182
0.391746 -0.414489 -0.597 153 172 205
0.392883 -0.414489 -0.597 163 182 215
0.39402 -0.414489 -0.597 150 177 220
0.395157 -0.414489 -0.597 140 167 210
0.396294 -0.414489 -0.597 125 158 211
0.397431 -0.414489 -0.597 115 148 201
0.398569 -0.414489 -0.597 98 132 195
0.399706 -0.414489 -0.597 90 124 187
0.400843 -0.414489 -0.597 91 129 194
0.40198 -0.414489 -0.597 91 129 194
0.403117 -0.414489 -0.597 94 132 197
0.424295 -0.415183 -0.598 184 184 196
0.425434 -0.415183 -0.598 193 205 227
0.426573 -0.415183 -0.598 192 204 226
0.427712 -0.415183 -0.598 147 177 215
0.428851 -0.415183 -0.598 146 176 214
0.42999 -0.415183 -0.598 143 181 226
0.436414 -0.415877 -0.599 95 141 201
0.437555 -0.415877 -0.599 110 152 212
0.438696 -0.415877 -0.599 115 157 217
0.439837 -0.415877 -0.599 115 157 217
0.440978 -0.415877 -0.599 126 163 218
0.442119 -0.415877 -0.599 133 170 225
0.44326 -0.415877 -0.599 140 176 228
0.444401 -0.415877 -0.599 138 174 226
0.445542 -0.415877 -0.599 146 175 217
0.446683 -0.415877 -0.599 181 210 252
0.447824 -0.415877 -0.599 179 196 224
0.448965 -0.415877 -0.599 183 200 228
0.450106 -0.415877 -0.599 214 219 238
0.452 -0.416571 -0.6 240 245 255
0.453143 -0.416571 -0.6 235 236 254
0.454286 -0.416571 -0.6 207 208 226
0.455429 -0.416571 -0.6 184 191 219
0.456571 -0.416571 -0.6 172 179 207
0.457714 -0.416571 -0.6 166 181 220
0.458857 -0.416571 -0.6 177 192 231
0.46 -0.416571 -0.6 170 199 239
0.461143 -0.416571 -0.6 168 197 237
0.462286 -0.416571 -0.6 144 176 223
0.464201 -0.417266 -0.601 119 151 198
0.465346 -0.417266 -0.601 100 132 193
0.46649 -0.417266 -0.601 86 118 179
0.467635 -0.417266 -0.601 79 111 186
0.46878 -0.417266 -0.601 74 106 181
0.470707 -0.41796 -0.602 71 108 188
0.471853 -0.41796 -0.602 71 108 188
0.473 -0.41796 -0.602 61 103 175
0.474147 -0.41796 -0.602 70 112 184
0.475293 -0.41796 -0.602 81 121 182
0.47644 -0.41796 -0.602 104 144 205
0.477587 -0.41796 -0.602 133 166 217
0.478733 -0.41796 -0.602 147 180 231
0.480677 -0.418654 -0.603 160 184 208
0.481826 -0.418654 -0.603 160 184 208
0.482974 -0.418654 -0.603 163 187 211
0.484123 -0.418654 -0.603 165 186 217
0.485271 -0.418654 -0.603 162 183 214
0.48642 -0.418654 -0.603 172 183 211
0.488377 -0.419349 -0.604 188 199 227
0.489528 -0.419349 -0.604 196 197 217
0.490678 -0.419349 -0.604 189 190 210
0.491829 -0.419349 -0.604 210 211 231
0.492979 -0.419349 -0.604 205 206 226
0.49413 -0.419349 -0.604 191 200 233
0.49528 -0.419349 -0.604 184 193 226
0.49643 -0.419349 -0.604 112 140 187
0.497581 -0.419349 -0.604 110 138 185
0.498731 -0.419349 -0.604 102 147 202
0.50071 -0.420043 -0.605 89 134 189
0.501862 -0.420043 -0.605 91 137 199
0.502183 -0.419349 -0.604 70 116 178
0.503333 -0.419349 -0.604 55 103 169
0.504484 -0.419349 -0.604 43 91 157
0.505634 -0.419349 -0.604 58 105 175
0.506785 -0.419349 -0.604 69 116 186
0.507935 -0.419349 -0.604 84 127 195
0.509086 -0.419349 -0.604 90 133 201
0.510236 -0.419349 -0.604 80 116 174
0.511387 -0.419349 -0.604 78 114 172
0.512537 -0.419349 -0.604 83 106 147
0.512837 -0.418654 -0.603 99 122 163
0.513133 -0.41796 -0.602 137 147 172
0.51428 -0.41796 -0.602 142 152 177
0.509153 -0.404769 -0.583 167 140 133
0.510264 -0.404769 -0.583 167 140 133
0.507866 -0.401991 -0.579 164 139 134
0.505452 -0.399214 -0.575 162 137 132
0.503905 -0.397131 -0.572 166 137 129
0.501463 -0.394354 -0.568 167 138 130
0.49989 -0.392271 -0.565 168 138 130
0.498307 -0.390189 -0.562 168 138 130
0.495823 -0.387411 -0.558 168 139 133
0.494214 -0.385329 -0.555 168 139 133
0.492594 -0.383246 -0.552 171 141 131
0.490069 -0.380469 -0.548 170 140 130
0.488424 -0.378386 -0.545 171 141 130
0.486768 -0.376303 -0.542 172 142 131
0.4851 -0.37422 -0.539 174 142 129
0.483421 -0.372137 -0.536 175 143 130
0.482634 -0.370749 -0.534 176 143 128
0.480934 -0.368666 -0.531 176 143 128
0.48013 -0.367277 -0.529 184 148 132
0.479319 -0.365889 -0.527 184 148 132
0.4785 -0.3645 -0.525 184 147 128
0.478587 -0.363806 -0.524 185 148 129
0.477754 -0.362417 -0.522 187 149 128
0.477831 -0.361723 -0.521 188 150 129
0.477905 -0.361029 -0.52 191 150 130
0.477974 -0.360334 -0.519 192 151 131
0.47804 -0.35964 -0.518 191 153 132
0.479027 -0.35964 -0.518 191 153 132
0.479087 -0.358946 -0.517 190 152 131
0.479143 -0.358251 -0.516 192 154 133
0.480126 -0.358251 -0.516 193 155 132
0.480176 -0.357557 -0.515 192 154 131
0.480223 -0.356863 -0.514 193 152 130
0.480266 -0.356169 -0.513 194 153 131
0.481243 -0.356169 -0.513 195 154 132
0.48128 -0.355474 -0.512 194 153 131
0.481313 -0.35478 -0.511 195 155 130
0.482287 -0.35478 -0.511 195 155 130
0.482314 -0.354086 -0.51 195 155 130
0.482338 -0.353391 -0.509 194 154 129
0.483308 -0.353391 -0.509 195 153 129
0.483326 -0.352697 -0.508 194 152 128
0.484293 -0.352697 -0.508 195 153 129
0.484306 -0.352003 -0.507 198 156 132
0.485271 -0.352003 -0.507 197 155 131
0.486237 -0.352003 -0.507 194 152 128
0.486242 -0.351309 -0.506 189 147 122
0.487206 -0.351309 -0.506 187 145 120
0.487205 -0.350614 -0.505 191 149 124
0.488167 -0.350614 -0.505 194 152 127
0.48816 -0.34992 -0.504 195 153 128
0.48912 -0.34992 -0.504 195 153 128
0.49008 -0.34992 -0.504 193 151 126
0.490066 -0.349226 -0.503 192 150 125
0.491024 -0.349226 -0.503 190 148 123
0.491004 -0.348531 -0.502 188 147 119
0.49196 -0.348531 -0.502 190 149 121
0.491934 -0.347837 -0.501 192 151 123
0.492889 -0.347837 -0.501 191 150 122
0.493843 -0.347837 -0.501 193 151 129
0.49381 -0.347143 -0.5 194 152 130
0.494762 -0.347143 -0.5 193 151 127
0.495714 -0.347143 -0.5 190 148 124
0.495673 -0.346449 -0.499 186 147 118
0.496624 -0.346449 -0.499 183 144 115
0.497574 -0.346449 -0.499 182 143 112
0.497526 -0.345754 -0.498 184 145 114
0.498474 -0.345754 -0.498 181 142 111
0.499423 -0.345754 -0.498 182 143 112
0.500371 -0.345754 -0.498 180 141 112
0.502327 -0.346449 -0.499 176 137 108
0.503277 -0.346449 -0.499 175 135 109
0.504228 -0.346449 -0.499 172 132 106
0.50619 -0.347143 -0.5 169 129 103
0.507143 -0.347143 -0.5 169 129 103
0.509111 -0.347837 -0.501 170 129 99
0.512102 -0.349226 -0.503 167 126 96
0.51408 -0.34992 -0.504 164 124 99
0.516062 -0.350614 -0.505 164 124 99
0.519071 -0.352003 -0.507 159 121 100
0.522089 -0.353391 -0.509 158 120 99
0.606074 -0.401297 -0.578 205 196 191
0.611377 -0.404074 -0.582 207 199 196
0.616695 -0.406851 -0.586 212 204 201
-0.335323 -0.383601 -0.551 230 231 223
-0.334273 -0.383601 -0.551 230 231 223
-0.333224 -0.383601 -0.551 230 231 223
-0.332174 -0.383601 -0.551 230 231 223
-0.331726 -0.384297 -0.552 230 231 223
-0.330674 -0.384297 -0.552 230 231 223
-0.329623 -0.384297 -0.552 229 230 222
-0.328571 -0.384297 -0.552 229 230 222
-0.32752 -0.384297 -0.552 229 230 222
-0.326469 -0.384297 -0.552 229 230 222
-0.325417 -0.384297 -0.552 230 231 223
-0.324366 -0.384297 -0.552 231 232 224
-0.323314 -0.384297 -0.552 231 232 224
-0.322263 -0.384297 -0.552 230 231 223
-0.321211 -0.384297 -0.552 230 231 223
-0.32016 -0.384297 -0.552 231 232 226
-0.319109 -0.384297 -0.552 230 231 225
-0.318057 -0.384297 -0.552 230 231 225
-0.317006 -0.384297 -0.552 230 231 225
-0.315954 -0.384297 -0.552 230 231 225
-0.314903 -0.384297 -0.552 230 231 225
-0.313851 -0.384297 -0.552 230 231 225
-0.3128 -0.384297 -0.552 231 232 226
-0.312313 -0.384993 -0.553 230 231 225
-0.31126 -0.384993 -0.553 231 232 226
-0.310207 -0.384993 -0.553 231 232 226
-0.309153 -0.384993 -0.553 231 232 224
-0.3081 -0.384993 -0.553 230 231 223
-0.307047 -0.384993 -0.553 230 231 223
-0.305993 -0.384993 -0.553 230 231 223
-0.30494 -0.384993 -0.553 230 231 223
-0.303887 -0.384993 -0.553 230 231 223
-0.302833 -0.384993 -0.553 230 231 223
-0.30178 -0.384993 -0.553 231 232 224
-0.300727 -0.384993 -0.553 231 232 224
-0.299673 -0.384993 -0.553 230 231 223
-0.29862 -0.384993 -0.553 231 232 224
-0.297567 -0.384993 -0.553 231 232 224
-0.296513 -0.384993 -0.553 231 232 224
-0.29546 -0.384993 -0.553 232 233 225
-0.294407 -0.384993 -0.553 230 231 223
-0.293353 -0.384993 -0.553 230 231 223
-0.2923 -0.384993 -0.553 230 231 223
-0.291247 -0.384993 -0.553 231 232 224
-0.290193 -0.384993 -0.553 231 232 224
-0.28914 -0.384993 -0.553 231 232 224
-0.288087 -0.384993 -0.553 232 233 225
-0.287033 -0.384993 -0.553 232 233 225
-0.286497 -0.38569 -0.554 231 233 222
-0.285442 -0.38569 -0.554 232 234 223
-0.284387 -0.38569 -0.554 231 233 222
-0.283331 -0.38569 -0.554 231 233 222
-0.282276 -0.38569 -0.554 231 233 222
-0.281221 -0.38569 -0.554 230 232 221
-0.280166 -0.38569 -0.554 229 231 220
-0.27911 -0.38569 -0.554 229 231 220
-0.2627 -0.386386 -0.555 233 235 224
