ply
format ascii 1.0
comment Created by Open3D
element vertex 1296
property double x
property double y
property double z
property uchar red
property uchar green
property uchar blue
end_header
0.354357 -0.1435 -0.615 172 143 148
0.35495 -0.143267 -0.614 173 143 151
0.35612 -0.143267 -0.614 170 140 148
0.35729 -0.143267 -0.614 169 139 147
0.358459 -0.143267 -0.614 168 138 146
0.359629 -0.143267 -0.614 172 142 150
0.360798 -0.143267 -0.614 173 143 151
0.361968 -0.143267 -0.614 174 144 152
0.363137 -0.143267 -0.614 172 142 150
0.364307 -0.143267 -0.614 170 140 148
0.365476 -0.143267 -0.614 170 140 148
0.366646 -0.143267 -0.614 169 139 149
0.368414 -0.1435 -0.615 168 138 148
0.369586 -0.1435 -0.615 168 138 148
0.370757 -0.1435 -0.615 169 139 149
0.371929 -0.1435 -0.615 169 139 149
0.3731 -0.1435 -0.615 169 139 149
0.374271 -0.1435 -0.615 167 137 147
0.375443 -0.1435 -0.615 167 137 147
0.376614 -0.1435 -0.615 167 137 147
0.377786 -0.1435 -0.615 166 136 146
0.379573 -0.143733 -0.616 166 136 146
0.380747 -0.143733 -0.616 166 136 146
0.38192 -0.143733 -0.616 165 135 145
0.383093 -0.143733 -0.616 165 135 145
0.384267 -0.143733 -0.616 165 135 145
0.38544 -0.143733 -0.616 164 134 144
0.386613 -0.143733 -0.616 164 134 144
0.388416 -0.143967 -0.617 162 132 142
0.389591 -0.143967 -0.617 161 131 141
0.390767 -0.143967 -0.617 163 133 143
0.391942 -0.143967 -0.617 163 133 143
0.393117 -0.143967 -0.617 163 131 142
0.394292 -0.143967 -0.617 163 131 142
0.395468 -0.143967 -0.617 163 133 141
0.396643 -0.143967 -0.617 158 128 136
0.397818 -0.143967 -0.617 160 130 140
0.398993 -0.143967 -0.617 160 130 140
0.400169 -0.143967 -0.617 159 131 143
0.401344 -0.143967 -0.617 151 123 135
0.403171 -0.1442 -0.618 182 156 169
0.404349 -0.1442 -0.618 182 156 169
0.405526 -0.1442 -0.618 201 175 188
0.406703 -0.1442 -0.618 199 177 189
0.40854 -0.144433 -0.619 215 193 205
0.409719 -0.144433 -0.619 215 194 203
0.411562 -0.144667 -0.62 170 149 158
0.413409 -0.1449 -0.621 157 130 137
0.415927 -0.145367 -0.623 152 125 132
0.418452 -0.145833 -0.625 160 129 135
0.421657 -0.146533 -0.628 137 106 112
0.42622 -0.1477 -0.633 99 73 82
0.430802 -0.148867 -0.638 65 39 48
0.322524 -0.152905 -0.65 67 60 78
0.322766 -0.152434 -0.648 65 58 74
0.3235 -0.152199 -0.647 51 44 60
0.323729 -0.151729 -0.645 52 43 60
0.32395 -0.151258 -0.643 51 42 59
0.324163 -0.150788 -0.641 52 41 58
0.324876 -0.150552 -0.64 47 36 53
0.325076 -0.150082 -0.638 54 41 59
0.325269 -0.149611 -0.636 51 38 56
0.325967 -0.149376 -0.635 45 38 54
0.326146 -0.148906 -0.633 46 39 55
0.326317 -0.148435 -0.631 47 38 55
0.327 -0.1482 -0.63 47 38 55
0.327679 -0.147965 -0.629 47 39 54
0.328354 -0.14773 -0.628 49 41 56
0.329026 -0.147494 -0.627 59 48 62
0.329693 -0.147259 -0.626 69 58 72
0.330886 -0.147259 -0.626 69 58 72
0.331548 -0.147024 -0.625 74 62 74
0.332738 -0.147024 -0.625 89 77 89
0.333394 -0.146789 -0.624 112 99 109
0.334583 -0.146789 -0.624 134 121 131
0.335233 -0.146553 -0.623 158 142 152
0.33642 -0.146553 -0.623 173 157 167
0.337065 -0.146318 -0.622 173 157 167
0.337706 -0.146083 -0.621 168 152 162
0.338343 -0.145848 -0.62 172 153 157
0.339524 -0.145848 -0.62 169 150 154
0.340705 -0.145848 -0.62 160 139 144
0.341334 -0.145612 -0.619 152 131 136
0.342513 -0.145612 -0.619 138 115 123
0.343137 -0.145377 -0.618 117 94 102
0.344314 -0.145377 -0.618 102 79 85
0.344932 -0.145142 -0.617 89 66 72
0.346108 -0.145142 -0.617 85 63 66
0.347283 -0.145142 -0.617 84 62 65
0.348458 -0.145142 -0.617 79 57 60
0.349633 -0.145142 -0.617 76 54 57
0.35024 -0.144907 -0.616 92 67 71
0.351413 -0.144907 -0.616 92 67 71
0.352587 -0.144907 -0.616 129 104 108
0.353186 -0.144671 -0.615 165 138 145
0.354357 -0.144671 -0.615 173 146 153
0.35495 -0.144436 -0.614 173 143 151
0.35612 -0.144436 -0.614 172 142 150
0.35729 -0.144436 -0.614 169 139 147
0.357875 -0.144201 -0.613 169 139 147
0.359043 -0.144201 -0.613 172 142 150
0.36021 -0.144201 -0.613 170 140 148
0.361378 -0.144201 -0.613 169 139 147
0.362546 -0.144201 -0.613 171 141 149
0.363713 -0.144201 -0.613 171 141 149
0.364881 -0.144201 -0.613 170 140 148
0.366049 -0.144201 -0.613 169 139 147
0.367815 -0.144436 -0.614 168 138 146
0.368985 -0.144436 -0.614 168 138 146
0.370154 -0.144436 -0.614 168 138 146
0.371324 -0.144436 -0.614 168 138 146
0.372493 -0.144436 -0.614 167 137 145
0.373663 -0.144436 -0.614 166 136 146
0.374832 -0.144436 -0.614 167 137 147
0.376002 -0.144436 -0.614 167 137 147
0.377786 -0.144671 -0.615 167 137 147
0.378957 -0.144671 -0.615 167 137 147
0.380129 -0.144671 -0.615 166 136 146
0.3813 -0.144671 -0.615 165 135 145
0.382471 -0.144671 -0.615 164 134 144
0.383643 -0.144671 -0.615 165 135 145
0.384814 -0.144671 -0.615 164 134 144
0.385986 -0.144671 -0.615 164 134 144
0.387787 -0.144907 -0.616 163 133 143
0.38896 -0.144907 -0.616 161 131 141
0.390133 -0.144907 -0.616 161 131 141
0.391307 -0.144907 -0.616 161 131 141
0.39248 -0.144907 -0.616 161 131 141
0.393653 -0.144907 -0.616 163 133 143
0.394827 -0.144907 -0.616 160 131 136
0.396 -0.144907 -0.616 163 134 139
0.397173 -0.144907 -0.616 163 136 143
0.398347 -0.144907 -0.616 160 133 140
0.39952 -0.144907 -0.616 158 132 143
0.401344 -0.145142 -0.617 174 148 159
0.402519 -0.145142 -0.617 237 213 226
0.403694 -0.145142 -0.617 237 213 226
0.40487 -0.145142 -0.617 230 206 219
0.406703 -0.145377 -0.618 209 187 199
0.40788 -0.145377 -0.618 158 136 148
0.409719 -0.145612 -0.619 162 139 149
0.411562 -0.145848 -0.62 155 132 142
0.413409 -0.146083 -0.621 155 128 137
0.416594 -0.146789 -0.624 152 125 134
0.419122 -0.147259 -0.626 148 118 126
0.423 -0.1482 -0.63 113 83 91
0.42824 -0.149611 -0.636 82 56 65
0.432152 -0.150552 -0.64 60 34 43
0.326238 -0.154143 -0.65 57 49 64
0.326469 -0.153669 -0.648 52 44 59
0.326691 -0.153194 -0.646 50 42 55
0.327414 -0.152957 -0.645 51 43 56
0.327624 -0.152483 -0.643 49 41 54
0.327826 -0.152009 -0.641 51 43 56
0.32802 -0.151534 -0.639 53 44 63
0.328722 -0.151297 -0.638 50 41 60
0.328903 -0.150823 -0.636 47 38 57
0.329076 -0.150349 -0.634 47 38 57
0.329763 -0.150111 -0.633 51 40 57
0.330446 -0.149874 -0.632 53 42 59
0.3306 -0.1494 -0.63 52 41 57
0.331273 -0.149163 -0.629 49 38 54
0.332471 -0.149163 -0.629 49 38 54
0.333139 -0.148926 -0.628 49 38 52
0.333803 -0.148689 -0.627 57 46 60
0.334463 -0.148451 -0.626 71 59 71
0.335119 -0.148214 -0.625 78 66 78
0.33631 -0.148214 -0.625 86 74 84
0.33696 -0.147977 -0.624 105 93 103
0.337607 -0.14774 -0.623 133 121 131
0.338793 -0.14774 -0.623 156 144 154
0.339434 -0.147503 -0.622 171 152 156
0.340071 -0.147266 -0.621 173 154 158
0.340705 -0.147029 -0.62 171 150 157
0.341886 -0.147029 -0.62 173 152 159
0.342513 -0.146791 -0.619 174 151 159
0.343692 -0.146791 -0.619 164 141 149
0.344871 -0.146791 -0.619 147 124 132
0.345491 -0.146554 -0.618 127 104 112
0.346108 -0.146317 -0.617 108 87 92
0.347283 -0.146317 -0.617 94 73 78
0.348458 -0.146317 -0.617 81 59 62
0.349067 -0.14608 -0.616 79 57 60
0.35024 -0.14608 -0.616 75 53 56
0.351413 -0.14608 -0.616 75 53 56
0.352587 -0.14608 -0.616 68 46 49
0.353186 -0.145843 -0.615 89 64 70
0.354357 -0.145843 -0.615 124 99 105
0.35495 -0.145606 -0.614 156 126 134
0.35612 -0.145606 -0.614 172 142 150
0.35729 -0.145606 -0.614 176 146 154
0.358459 -0.145606 -0.614 170 140 148
0.359043 -0.145369 -0.613 170 140 148
0.36021 -0.145369 -0.613 172 142 150
0.361378 -0.145369 -0.613 170 140 148
0.362546 -0.145369 -0.613 170 140 148
0.363713 -0.145369 -0.613 170 140 148
0.364881 -0.145369 -0.613 170 140 148
0.366049 -0.145369 -0.613 169 139 147
0.367216 -0.145369 -0.613 168 138 146
0.368985 -0.145606 -0.614 167 137 145
0.370154 -0.145606 -0.614 168 138 146
0.371324 -0.145606 -0.614 168 138 146
0.372493 -0.145606 -0.614 168 138 146
0.373663 -0.145606 -0.614 165 138 147
0.374832 -0.145606 -0.614 165 138 147
0.376002 -0.145606 -0.614 165 138 147
0.377171 -0.145606 -0.614 166 139 148
0.378957 -0.145843 -0.615 165 138 147
0.380129 -0.145843 -0.615 164 137 146
0.3813 -0.145843 -0.615 163 136 145
0.382471 -0.145843 -0.615 164 134 144
0.383643 -0.145843 -0.615 163 133 143
0.384814 -0.145843 -0.615 164 134 144
0.385986 -0.145843 -0.615 163 133 143
0.387157 -0.145843 -0.615 162 132 142
0.388329 -0.145843 -0.615 161 131 141
0.390133 -0.14608 -0.616 160 130 140
0.391307 -0.14608 -0.616 160 130 140
0.39248 -0.14608 -0.616 162 132 142
0.393653 -0.14608 -0.616 163 133 143
0.394827 -0.14608 -0.616 162 132 140
0.396 -0.14608 -0.616 161 131 139
0.397173 -0.14608 -0.616 160 133 142
0.398347 -0.14608 -0.616 160 133 142
0.39952 -0.14608 -0.616 155 132 142
0.400693 -0.14608 -0.616 192 169 179
0.401867 -0.14608 -0.616 226 204 216
0.40304 -0.14608 -0.616 226 204 216
0.40487 -0.146317 -0.617 239 217 229
0.406045 -0.146317 -0.617 227 203 216
0.40788 -0.146554 -0.618 168 144 157
0.409719 -0.146791 -0.619 159 133 144
0.411562 -0.147029 -0.62 156 130 141
0.413409 -0.147266 -0.621 162 135 144
0.416594 -0.147977 -0.624 148 121 130
0.419122 -0.148451 -0.626 126 99 106
0.423671 -0.149637 -0.631 95 68 75
0.429587 -0.151297 -0.638 71 45 54
0.435529 -0.152957 -0.645 62 36 45
0.439466 -0.153906 -0.649 62 36 45
0.329952 -0.155381 -0.65 56 50 64
0.330681 -0.155142 -0.649 47 41 53
0.330383 -0.154425 -0.646 50 44 56
0.330587 -0.153947 -0.644 46 34 54
0.330783 -0.153469 -0.642 49 37 57
0.331489 -0.15323 -0.641 51 39 59
0.331671 -0.152751 -0.639 49 37 57
0.331847 -0.152273 -0.637 49 38 55
0.332537 -0.152034 -0.636 51 40 57
0.332699 -0.151556 -0.634 51 40 56
0.332853 -0.151078 -0.632 49 38 54
0.334057 -0.151078 -0.632 49 38 54
0.33473 -0.150839 -0.631 42 31 45
0.3354 -0.1506 -0.63 44 33 47
0.335531 -0.150122 -0.628 47 36 50
0.336191 -0.149883 -0.627 47 36 50
0.336848 -0.149644 -0.626 55 45 56
0.3375 -0.149405 -0.625 74 64 75
0.33869 -0.149405 -0.625 85 75 86
0.339337 -0.149166 -0.624 87 77 88
0.33998 -0.148927 -0.623 126 111 118
0.340619 -0.148688 -0.622 147 132 139
0.341254 -0.148449 -0.621 164 147 155
0.342437 -0.148449 -0.621 171 154 162
0.343067 -0.14821 -0.62 174 154 163
0.344248 -0.14821 -0.62 170 150 159
0.344871 -0.14797 -0.619 169 149 158
0.34605 -0.14797 -0.619 166 146 155
0.346669 -0.147731 -0.618 148 127 134
0.347283 -0.147492 -0.617 132 111 118
0.348458 -0.147492 -0.617 107 86 91
0.349067 -0.147253 -0.616 91 70 75
0.35024 -0.147253 -0.616 86 63 69
0.351413 -0.147253 -0.616 86 63 69
0.352587 -0.147253 -0.616 79 56 62
0.353186 -0.147014 -0.615 73 50 58
0.354357 -0.147014 -0.615 74 51 59
0.35495 -0.146775 -0.614 90 63 70
0.35612 -0.146775 -0.614 122 95 102
0.35729 -0.146775 -0.614 152 125 132
0.358459 -0.146775 -0.614 167 140 147
0.359629 -0.146775 -0.614 168 141 148
0.36021 -0.146536 -0.613 168 141 148
0.361378 -0.146536 -0.613 165 138 145
0.362546 -0.146536 -0.613 168 141 148
0.363713 -0.146536 -0.613 167 140 147
0.364881 -0.146536 -0.613 167 140 147
0.366049 -0.146536 -0.613 167 140 147
0.367216 -0.146536 -0.613 166 139 146
0.368384 -0.146536 -0.613 167 137 145
0.370154 -0.146775 -0.614 167 137 145
0.371324 -0.146775 -0.614 168 138 146
0.372493 -0.146775 -0.614 169 139 147
0.373663 -0.146775 -0.614 165 138 147
0.374222 -0.146536 -0.613 165 138 147
0.37539 -0.146536 -0.613 165 138 147
0.377171 -0.146775 -0.614 165 138 147
0.378341 -0.146775 -0.614 165 138 147
0.37951 -0.146775 -0.614 165 138 147
0.38068 -0.146775 -0.614 164 137 146
0.38185 -0.146775 -0.614 161 134 143
0.383019 -0.146775 -0.614 159 132 141
0.384189 -0.146775 -0.614 161 134 143
0.385358 -0.146775 -0.614 160 133 142
0.386528 -0.146775 -0.614 161 131 141
0.387697 -0.146775 -0.614 161 131 141
0.3895 -0.147014 -0.615 160 130 140
0.390671 -0.147014 -0.615 161 131 141
0.391843 -0.147014 -0.615 163 133 143
0.393014 -0.147014 -0.615 163 133 143
0.394186 -0.147014 -0.615 164 133 141
0.395357 -0.147014 -0.615 160 129 137
0.396529 -0.147014 -0.615 165 138 147
0.3977 -0.147014 -0.615 159 132 141
0.398871 -0.147014 -0.615 169 148 157
0.400693 -0.147253 -0.616 192 171 180
0.401867 -0.147253 -0.616 200 180 191
0.40304 -0.147253 -0.616 200 180 191
0.404213 -0.147253 -0.616 204 184 195
0.406045 -0.147492 -0.617 225 201 214
0.40722 -0.147492 -0.617 176 152 165
0.409719 -0.14797 -0.619 158 130 142
0.411562 -0.14821 -0.62 156 128 140
0.414074 -0.148688 -0.622 158 131 140
0.417262 -0.149405 -0.625 143 116 125
0.419791 -0.149883 -0.627 118 93 99
0.333153 -0.156378 -0.649 50 39 56
0.333359 -0.155896 -0.647 49 38 55
0.333557 -0.155414 -0.645 47 35 55
0.334267 -0.155173 -0.644 45 33 53
0.334451 -0.154691 -0.642 46 35 52
0.334629 -0.15421 -0.64 48 37 54
0.334798 -0.153728 -0.638 49 38 54
0.335487 -0.153487 -0.637 47 36 52
0.3367 -0.153487 -0.637 47 36 52
0.336852 -0.153005 -0.635 45 34 50
0.33753 -0.152764 -0.634 43 32 48
0.337669 -0.152282 -0.632 42 34 49
0.3378 -0.1518 -0.63 40 32 47
0.338462 -0.151559 -0.629 39 31 44
0.33912 -0.151318 -0.628 44 36 49
0.339774 -0.151077 -0.627 55 47 60
0.340425 -0.150836 -0.626 65 57 70
0.341071 -0.150595 -0.625 89 76 86
0.341714 -0.150354 -0.624 92 79 89
0.342353 -0.150113 -0.623 103 87 97
0.342989 -0.149872 -0.622 122 106 116
0.34362 -0.149631 -0.621 146 131 138
0.344803 -0.149631 -0.621 162 147 154
0.345429 -0.14939 -0.62 169 152 160
0.34661 -0.14939 -0.62 169 152 160
0.34723 -0.14915 -0.619 168 148 157
0.347846 -0.148909 -0.618 164 144 153
0.348458 -0.148668 -0.617 152 131 138
0.349633 -0.148668 -0.617 131 110 117
0.35024 -0.148427 -0.616 108 85 93
0.351413 -0.148427 -0.616 108 85 93
0.352587 -0.148427 -0.616 94 71 79
0.353186 -0.148186 -0.615 88 67 74
0.354357 -0.148186 -0.615 81 60 67
0.355529 -0.148186 -0.615 84 57 62
0.35612 -0.147945 -0.614 76 49 54
0.35729 -0.147945 -0.614 87 60 67
0.358459 -0.147945 -0.614 125 98 105
0.359043 -0.147704 -0.613 155 128 135
0.36021 -0.147704 -0.613 171 144 151
0.361378 -0.147704 -0.613 170 143 150
0.362546 -0.147704 -0.613 166 139 146
0.363713 -0.147704 -0.613 168 141 148
0.364881 -0.147704 -0.613 168 141 148
0.366049 -0.147704 -0.613 169 139 147
0.367216 -0.147704 -0.613 169 139 147
0.368384 -0.147704 -0.613 168 138 146
0.369551 -0.147704 -0.613 167 137 145
0.370719 -0.147704 -0.613 168 138 148
0.372493 -0.147945 -0.614 169 139 149
0.373663 -0.147945 -0.614 165 138 147
0.374222 -0.147704 -0.613 165 138 147
0.37539 -0.147704 -0.613 165 138 147
0.376557 -0.147704 -0.613 166 139 148
0.377725 -0.147704 -0.613 166 139 148
0.378892 -0.147704 -0.613 166 139 148
0.38006 -0.147704 -0.613 164 137 146
0.381228 -0.147704 -0.613 162 135 144
0.382395 -0.147704 -0.613 160 133 142
0.383563 -0.147704 -0.613 160 133 142
0.385358 -0.147945 -0.614 160 133 142
0.386528 -0.147945 -0.614 160 133 142
0.387697 -0.147945 -0.614 160 133 142
0.388867 -0.147945 -0.614 161 131 141
0.390036 -0.147945 -0.614 161 131 141
0.391206 -0.147945 -0.614 162 132 142
0.392375 -0.147945 -0.614 163 133 143
0.393545 -0.147945 -0.614 163 132 140
0.394714 -0.147945 -0.614 161 130 138
0.395884 -0.147945 -0.614 166 140 149
0.397053 -0.147945 -0.614 163 137 146
0.398223 -0.147945 -0.614 214 194 203
0.400043 -0.148186 -0.615 230 210 219
0.401214 -0.148186 -0.615 232 212 223
0.402386 -0.148186 -0.615 232 212 223
0.404213 -0.148427 -0.616 176 156 167
0.406045 -0.148668 -0.617 164 140 153
0.40722 -0.148668 -0.617 154 130 143
0.409719 -0.14915 -0.619 162 135 144
0.411562 -0.14939 -0.62 154 127 136
0.414074 -0.149872 -0.622 150 123 130
0.41793 -0.150836 -0.626 131 104 111
0.4218 -0.1518 -0.63 87 65 68
0.47481 -0.156619 -0.65 210 157 151
0.476048 -0.156619 -0.65 210 156 156
0.477286 -0.156619 -0.65 205 151 151
0.333153 -0.157614 -0.649 50 39 56
0.333359 -0.157129 -0.647 49 38 55
0.333557 -0.156643 -0.645 47 35 55
0.334267 -0.1564 -0.644 45 33 53
0.334451 -0.155914 -0.642 46 35 52
0.334629 -0.155429 -0.64 48 37 54
0.334798 -0.154943 -0.638 49 38 54
0.335487 -0.1547 -0.637 47 36 52
0.3367 -0.1547 -0.637 47 36 52
0.336852 -0.154214 -0.635 45 34 50
0.33753 -0.153971 -0.634 43 32 48
0.337669 -0.153486 -0.632 42 34 49
0.3378 -0.153 -0.63 40 32 47
0.338462 -0.152757 -0.629 39 31 44
0.33912 -0.152514 -0.628 44 36 49
0.339774 -0.152271 -0.627 55 47 60
0.340425 -0.152029 -0.626 65 57 70
0.341071 -0.151786 -0.625 89 76 86
0.341714 -0.151543 -0.624 92 79 89
0.342353 -0.1513 -0.623 103 87 97
0.342989 -0.151057 -0.622 122 106 116
0.34362 -0.150814 -0.621 146 131 138
0.344803 -0.150814 -0.621 162 147 154
0.345429 -0.150571 -0.62 169 152 160
0.34661 -0.150571 -0.62 169 152 160
0.34723 -0.150329 -0.619 168 148 157
0.347846 -0.150086 -0.618 164 144 153
0.348458 -0.149843 -0.617 152 131 138
0.349633 -0.149843 -0.617 131 110 117
0.35024 -0.1496 -0.616 108 85 93
0.351413 -0.1496 -0.616 108 85 93
0.352587 -0.1496 -0.616 94 71 79
0.353186 -0.149357 -0.615 88 67 74
0.354357 -0.149357 -0.615 81 60 67
0.355529 -0.149357 -0.615 84 57 62
0.35612 -0.149114 -0.614 76 49 54
0.35729 -0.149114 -0.614 87 60 67
0.358459 -0.149114 -0.614 125 98 105
0.359043 -0.148871 -0.613 155 128 135
0.36021 -0.148871 -0.613 171 144 151
0.361378 -0.148871 -0.613 170 143 150
0.362546 -0.148871 -0.613 166 139 146
0.363713 -0.148871 -0.613 168 141 148
0.364881 -0.148871 -0.613 168 141 148
0.366049 -0.148871 -0.613 169 139 147
0.367216 -0.148871 -0.613 169 139 147
0.368384 -0.148871 -0.613 168 138 146
0.369551 -0.148871 -0.613 167 137 145
0.370719 -0.148871 -0.613 168 138 148
0.372493 -0.149114 -0.614 169 139 149
0.373663 -0.149114 -0.614 165 138 147
0.374222 -0.148871 -0.613 165 138 147
0.37539 -0.148871 -0.613 165 138 147
0.376557 -0.148871 -0.613 166 139 148
0.377725 -0.148871 -0.613 166 139 148
0.378892 -0.148871 -0.613 166 139 148
0.38006 -0.148871 -0.613 164 137 146
0.381228 -0.148871 -0.613 162 135 144
0.382395 -0.148871 -0.613 160 133 142
0.383563 -0.148871 -0.613 160 133 142
0.385358 -0.149114 -0.614 160 133 142
0.386528 -0.149114 -0.614 160 133 142
0.387697 -0.149114 -0.614 160 133 142
0.388867 -0.149114 -0.614 161 131 141
0.390036 -0.149114 -0.614 161 131 141
0.391206 -0.149114 -0.614 162 132 142
0.392375 -0.149114 -0.614 163 133 143
0.393545 -0.149114 -0.614 163 132 140
0.394714 -0.149114 -0.614 161 130 138
0.395884 -0.149114 -0.614 166 140 149
0.397053 -0.149114 -0.614 163 137 146
0.398223 -0.149114 -0.614 214 194 203
0.400043 -0.149357 -0.615 230 210 219
0.401214 -0.149357 -0.615 232 212 223
0.402386 -0.149357 -0.615 232 212 223
0.404213 -0.1496 -0.616 176 156 167
0.406045 -0.149843 -0.617 164 140 153
0.40722 -0.149843 -0.617 154 130 143
0.409719 -0.150329 -0.619 162 135 144
0.411562 -0.150571 -0.62 154 127 136
0.414074 -0.151057 -0.622 150 123 130
0.41793 -0.152029 -0.626 131 104 111
0.4218 -0.153 -0.63 87 65 68
0.47481 -0.157857 -0.65 210 157 151
0.476048 -0.157857 -0.65 210 156 156
0.477286 -0.157857 -0.65 205 151 151
-0.112048 -0.159095 -0.65 194 193 189
-0.11081 -0.159095 -0.65 194 193 189
-0.109571 -0.159095 -0.65 195 194 190
-0.108167 -0.15885 -0.649 198 195 190
-0.10693 -0.15885 -0.649 198 195 190
-0.105694 -0.15885 -0.649 198 195 190
-0.104458 -0.15885 -0.649 199 196 191
-0.103222 -0.15885 -0.649 200 197 192
-0.102143 -0.159095 -0.65 200 197 192
-0.100905 -0.159095 -0.65 200 197 192
-0.0996667 -0.159095 -0.65 201 198 193
-0.0984286 -0.159095 -0.65 202 199 194
-0.0971905 -0.159095 -0.65 201 198 193
-0.0959524 -0.159095 -0.65 202 198 195
-0.0947143 -0.159095 -0.65 203 199 196
-0.0934762 -0.159095 -0.65 203 199 196
-0.0922381 -0.159095 -0.65 203 199 196
-0.091 -0.159095 -0.65 204 200 197
-0.0897619 -0.159095 -0.65 204 200 197
0.336143 -0.159095 -0.65 47 35 55
0.336343 -0.158606 -0.648 47 35 55
0.336535 -0.158116 -0.646 47 36 53
0.337243 -0.157871 -0.645 46 35 52
0.337422 -0.157382 -0.643 46 35 51
0.337593 -0.156892 -0.641 48 37 53
0.338814 -0.156892 -0.641 48 37 53
0.339505 -0.156648 -0.64 43 35 50
0.339659 -0.156158 -0.638 41 33 48
0.339806 -0.155669 -0.636 43 35 50
0.339945 -0.155179 -0.634 44 36 51
0.340076 -0.15469 -0.632 45 37 52
0.3402 -0.1542 -0.63 45 37 52
0.340858 -0.153955 -0.629 42 34 47
0.341512 -0.15371 -0.628 41 33 46
0.342163 -0.153466 -0.627 55 43 55
0.34281 -0.153221 -0.626 61 49 61
0.342903 -0.152731 -0.624 74 63 71
0.34354 -0.152487 -0.623 87 76 84
0.344727 -0.152487 -0.623 99 86 93
0.345358 -0.152242 -0.622 111 98 105
0.345986 -0.151997 -0.621 130 117 126
0.34661 -0.151752 -0.62 148 135 144
0.34779 -0.151752 -0.62 163 146 156
0.348409 -0.151508 -0.619 169 152 162
0.349023 -0.151263 -0.618 169 148 157
0.3502 -0.151263 -0.618 162 141 150
0.350809 -0.151018 -0.617 155 132 140
0.351984 -0.151018 -0.617 155 132 140
0.352587 -0.150773 -0.616 135 112 120
0.35376 -0.150773 -0.616 111 90 97
0.354357 -0.150529 -0.615 97 76 83
0.355529 -0.150529 -0.615 86 61 65
0.35612 -0.150284 -0.614 83 58 62
0.35729 -0.150284 -0.614 79 54 58
0.358459 -0.150284 -0.614 77 52 56
0.359043 -0.150039 -0.613 82 55 60
0.36021 -0.150039 -0.613 122 95 100
0.361378 -0.150039 -0.613 157 130 137
0.362546 -0.150039 -0.613 165 138 145
0.363713 -0.150039 -0.613 171 144 151
0.364881 -0.150039 -0.613 169 142 149
0.366049 -0.150039 -0.613 169 139 147
0.367216 -0.150039 -0.613 169 139 147
0.368384 -0.150039 -0.613 169 139 149
0.369551 -0.150039 -0.613 168 138 148
0.370719 -0.150039 -0.613 167 137 147
0.371887 -0.150039 -0.613 167 137 147
0.373054 -0.150039 -0.613 164 137 146
0.374222 -0.150039 -0.613 166 139 148
0.37539 -0.150039 -0.613 166 139 148
0.376557 -0.150039 -0.613 167 140 149
0.377109 -0.149794 -0.612 168 141 150
0.378274 -0.149794 -0.612 166 139 148
0.37944 -0.149794 -0.612 164 137 146
0.380606 -0.149794 -0.612 163 136 145
0.381771 -0.149794 -0.612 162 135 144
0.382937 -0.149794 -0.612 158 131 140
0.38473 -0.150039 -0.613 161 134 143
0.385898 -0.150039 -0.613 163 136 145
0.387066 -0.150039 -0.613 162 135 144
0.388233 -0.150039 -0.613 160 133 142
0.389401 -0.150039 -0.613 158 131 140
0.390569 -0.150039 -0.613 159 132 141
0.391736 -0.150039 -0.613 162 135 144
0.392904 -0.150039 -0.613 164 133 141
0.394071 -0.150039 -0.613 164 133 141
0.395239 -0.150039 -0.613 163 137 146
0.396407 -0.150039 -0.613 170 144 153
0.397574 -0.150039 -0.613 224 204 213
0.399392 -0.150284 -0.614 231 211 220
0.401214 -0.150529 -0.615 237 220 228
0.402386 -0.150529 -0.615 237 220 228
0.403557 -0.150529 -0.615 183 166 174
0.405387 -0.150773 -0.616 159 136 146
0.40722 -0.151018 -0.617 157 134 144
0.409719 -0.151508 -0.619 152 125 134
0.411562 -0.151752 -0.62 153 126 135
0.414074 -0.152242 -0.622 146 119 124
0.418597 -0.153466 -0.627 107 80 85
0.42247 -0.154445 -0.631 65 45 46
0.474079 -0.15885 -0.649 207 154 148
0.475315 -0.15885 -0.649 205 154 153
0.476551 -0.15885 -0.649 202 151 150
0.478524 -0.159095 -0.65 197 142 135
0.479762 -0.159095 -0.65 189 134 127
0.481 -0.159095 -0.65 189 134 127
0.482238 -0.159095 -0.65 184 131 117
-0.113286 -0.160333 -0.65 194 193 189
-0.111703 -0.15984 -0.648 194 193 189
-0.110469 -0.15984 -0.648 197 193 190
-0.109234 -0.15984 -0.648 197 193 190
-0.107833 -0.159593 -0.647 198 195 190
-0.106766 -0.15984 -0.648 198 195 190
-0.105531 -0.15984 -0.648 199 196 191
-0.104297 -0.15984 -0.648 199 196 191
-0.103063 -0.15984 -0.648 200 197 192
-0.101829 -0.15984 -0.648 200 197 192
-0.100594 -0.15984 -0.648 201 198 193
-0.09936 -0.15984 -0.648 201 198 193
-0.0982771 -0.160087 -0.649 202 199 194
-0.097041 -0.160087 -0.649 202 199 194
-0.0958048 -0.160087 -0.649 202 199 194
-0.0945686 -0.160087 -0.649 203 200 195
-0.0933324 -0.160087 -0.649 203 200 195
-0.0920962 -0.160087 -0.649 204 201 196
-0.09086 -0.160087 -0.649 204 201 196
-0.0897619 -0.160333 -0.65 204 201 196
-0.0885238 -0.160333 -0.65 204 201 194
0.339334 -0.160087 -0.649 48 39 56
0.340046 -0.15984 -0.648 45 36 53
0.340227 -0.159347 -0.646 49 40 57
0.341457 -0.159347 -0.646 49 40 57
0.342157 -0.1591 -0.645 49 40 59
0.342321 -0.158607 -0.643 46 37 56
0.342477 -0.158113 -0.641 42 33 50
0.342626 -0.15762 -0.639 46 37 54
0.342229 -0.15688 -0.636 42 33 50
0.3429 -0.156633 -0.635 43 34 51
0.343026 -0.15614 -0.633 42 33 50
0.343144 -0.155647 -0.631 44 35 52
0.3438 -0.1554 -0.63 46 37 54
0.343905 -0.154907 -0.628 44 35 52
0.344551 -0.15466 -0.627 46 37 54
0.344643 -0.154167 -0.625 52 43 60
0.345833 -0.154167 -0.625 62 51 65
0.346469 -0.15392 -0.624 76 65 79
0.3471 -0.153673 -0.623 90 77 87
0.347728 -0.153427 -0.622 96 83 93
0.348351 -0.15318 -0.621 113 96 106
0.348971 -0.152933 -0.62 136 119 129
0.349588 -0.152687 -0.619 159 142 150
0.350767 -0.152687 -0.619 166 149 157
0.351377 -0.15244 -0.618 172 151 156
0.352554 -0.15244 -0.618 172 151 156
0.353159 -0.152193 -0.617 175 154 159
0.35376 -0.151947 -0.616 165 143 146
0.354933 -0.151947 -0.616 147 125 128
0.356107 -0.151947 -0.616 123 94 99
0.3567 -0.1517 -0.615 106 77 82
0.357871 -0.1517 -0.615 94 67 72
0.358459 -0.151453 -0.614 90 63 68
0.359043 -0.151207 -0.613 85 58 63
0.36021 -0.151207 -0.613 80 53 58
0.361378 -0.151207 -0.613 92 65 72
0.362546 -0.151207 -0.613 122 95 102
0.363713 -0.151207 -0.613 161 131 139
0.364881 -0.151207 -0.613 173 143 151
0.366049 -0.151207 -0.613 169 139 147
0.367216 -0.151207 -0.613 167 137 145
0.368384 -0.151207 -0.613 169 142 149
0.369551 -0.151207 -0.613 168 141 148
0.370719 -0.151207 -0.613 168 141 148
0.371887 -0.151207 -0.613 165 138 145
0.373054 -0.151207 -0.613 166 141 147
0.374222 -0.151207 -0.613 169 144 150
0.37539 -0.151207 -0.613 169 144 150
0.375943 -0.15096 -0.612 171 146 152
0.377109 -0.15096 -0.612 169 144 150
0.378274 -0.15096 -0.612 168 141 148
0.37944 -0.15096 -0.612 169 142 149
0.380606 -0.15096 -0.612 170 143 150
0.381771 -0.15096 -0.612 168 141 148
0.382937 -0.15096 -0.612 167 137 145
0.384103 -0.15096 -0.612 164 134 142
0.385269 -0.15096 -0.612 164 134 142
0.387066 -0.151207 -0.613 163 133 141
0.388233 -0.151207 -0.613 162 132 140
0.389401 -0.151207 -0.613 163 133 141
0.390569 -0.151207 -0.613 163 132 140
0.391736 -0.151207 -0.613 164 133 141
0.392904 -0.151207 -0.613 162 130 143
0.394071 -0.151207 -0.613 169 137 150
0.395239 -0.151207 -0.613 163 137 148
0.396407 -0.151207 -0.613 163 137 148
0.397574 -0.151207 -0.613 168 148 157
0.398742 -0.151207 -0.613 195 175 184
0.400562 -0.151453 -0.614 218 199 205
0.401731 -0.151453 -0.614 218 199 205
0.403557 -0.1517 -0.615 197 178 184
0.405387 -0.151947 -0.616 161 138 146
0.40722 -0.152193 -0.617 158 135 143
0.409719 -0.152687 -0.619 155 128 137
0.412226 -0.15318 -0.621 151 124 133
0.41474 -0.153673 -0.623 134 104 114
0.419932 -0.155153 -0.629 98 68 78
0.424478 -0.156387 -0.634 66 36 46
0.428371 -0.157373 -0.638 65 35 45
0.473571 -0.160333 -0.65 204 152 141
0.474079 -0.160087 -0.649 204 152 141
0.475315 -0.160087 -0.649 205 150 145
0.476551 -0.160087 -0.649 204 149 144
0.477788 -0.160087 -0.649 196 144 131
0.479024 -0.160087 -0.649 188 136 123
0.48026 -0.160087 -0.649 188 136 123
0.482238 -0.160333 -0.65 184 130 118
0.483476 -0.160333 -0.65 178 124 112
-0.115228 -0.160826 -0.647 195 192 187
-0.113995 -0.160826 -0.647 196 193 188
-0.112763 -0.160826 -0.647 197 194 189
-0.111186 -0.160329 -0.645 197 194 189
-0.109957 -0.160329 -0.645 197 194 189
-0.108729 -0.160329 -0.645 198 195 190
-0.1075 -0.160329 -0.645 199 195 192
-0.106436 -0.160577 -0.646 199 195 192
-0.105206 -0.160577 -0.646 200 196 193
-0.103975 -0.160577 -0.646 200 196 193
-0.102745 -0.160577 -0.646 200 197 192
-0.101671 -0.160826 -0.647 201 198 193
-0.100439 -0.160826 -0.647 202 199 194
-0.0992067 -0.160826 -0.647 201 198 193
-0.0979743 -0.160826 -0.647 202 199 194
-0.0968914 -0.161074 -0.648 203 200 195
-0.0956571 -0.161074 -0.648 202 199 194
-0.0944229 -0.161074 -0.648 202 199 194
-0.0933324 -0.161323 -0.649 204 201 196
-0.0920962 -0.161323 -0.649 204 201 196
-0.09086 -0.161323 -0.649 204 201 196
-0.0897619 -0.161571 -0.65 204 201 196
-0.0885238 -0.161571 -0.65 205 202 195
0.34481 -0.161571 -0.65 43 34 51
0.345515 -0.161323 -0.649 52 43 60
0.345683 -0.160826 -0.647 45 36 53
0.345843 -0.160329 -0.645 42 33 50
0.345457 -0.159583 -0.642 44 36 51
0.3456 -0.159086 -0.64 40 32 47
0.345735 -0.158589 -0.638 46 38 53
0.345863 -0.158091 -0.636 43 35 50
0.345983 -0.157594 -0.634 43 39 54
0.346095 -0.157097 -0.632 42 38 53
0.3462 -0.1566 -0.63 41 37 52
0.346849 -0.156351 -0.629 40 36 51
0.34694 -0.155854 -0.627 43 37 51
0.347579 -0.155606 -0.626 48 42 56
0.348214 -0.155357 -0.625 58 48 59
0.348846 -0.155109 -0.624 63 53 64
0.349473 -0.15486 -0.623 77 65 75
0.350097 -0.154611 -0.622 87 75 85
0.350717 -0.154363 -0.621 101 88 97
0.351333 -0.154114 -0.62 116 103 112
0.351946 -0.153866 -0.619 139 124 131
0.353125 -0.153866 -0.619 139 124 131
0.354304 -0.153866 -0.619 163 148 155
0.354909 -0.153617 -0.618 178 161 167
0.35551 -0.153369 -0.617 179 162 168
0.356685 -0.153369 -0.617 170 145 151
0.35728 -0.15312 -0.616 150 125 131
0.357871 -0.152871 -0.615 127 102 108
0.359043 -0.152871 -0.615 104 79 85
0.359629 -0.152623 -0.614 92 67 73
0.36021 -0.152374 -0.613 89 64 70
0.361378 -0.152374 -0.613 83 58 64
0.362546 -0.152374 -0.613 77 52 58
0.363713 -0.152374 -0.613 90 63 70
0.364881 -0.152374 -0.613 120 93 100
0.366049 -0.152374 -0.613 150 123 130
0.367216 -0.152374 -0.613 167 140 147
0.368384 -0.152374 -0.613 173 146 153
0.368949 -0.152126 -0.612 171 144 151
0.370114 -0.152126 -0.612 170 143 150
0.37128 -0.152126 -0.612 167 140 147
0.372446 -0.152126 -0.612 163 136 143
0.373611 -0.152126 -0.612 168 141 148
0.374777 -0.152126 -0.612 168 141 148
0.375943 -0.152126 -0.612 171 144 151
0.377109 -0.152126 -0.612 172 145 152
0.378274 -0.152126 -0.612 169 142 149
0.37944 -0.152126 -0.612 169 142 149
0.380606 -0.152126 -0.612 168 141 150
0.381148 -0.151877 -0.611 169 142 151
0.382311 -0.151877 -0.611 169 139 149
0.383475 -0.151877 -0.611 165 135 145
0.385269 -0.152126 -0.612 164 134 144
0.386434 -0.152126 -0.612 163 133 143
0.3876 -0.152126 -0.612 162 132 142
0.388766 -0.152126 -0.612 164 134 144
0.389931 -0.152126 -0.612 164 134 144
0.391097 -0.152126 -0.612 164 134 144
0.392263 -0.152126 -0.612 165 135 147
0.393429 -0.152126 -0.612 170 140 152
0.394594 -0.152126 -0.612 191 168 178
0.39576 -0.152126 -0.612 220 197 207
0.396926 -0.152126 -0.612 212 195 203
0.398742 -0.152374 -0.613 204 187 195
0.400562 -0.152623 -0.614 196 177 183
0.401731 -0.152623 -0.614 196 177 183
0.403557 -0.152871 -0.615 168 149 155
0.405387 -0.15312 -0.616 161 138 146
0.40722 -0.153369 -0.617 153 130 138
0.409719 -0.153866 -0.619 155 128 137
0.41289 -0.154611 -0.622 148 121 130
0.415406 -0.155109 -0.624 113 86 95
0.4206 -0.1566 -0.63 79 52 61
0.425817 -0.158091 -0.636 63 36 45
0.431057 -0.159583 -0.642 60 33 42
0.472333 -0.161571 -0.65 204 154 143
0.472843 -0.161323 -0.649 205 152 144
0.473349 -0.161074 -0.648 204 151 143
0.474583 -0.161074 -0.648 204 149 144
0.475817 -0.161074 -0.648 204 149 144
0.477051 -0.161074 -0.648 199 145 133
0.478286 -0.161074 -0.648 192 138 126
0.47952 -0.161074 -0.648 192 138 126
0.481496 -0.161323 -0.649 184 130 118
0.482732 -0.161323 -0.649 175 121 109
0.484714 -0.161571 -0.65 167 113 103
-0.120343 -0.162309 -0.648 190 189 184
-0.118925 -0.162058 -0.647 191 190 185
-0.11751 -0.161808 -0.646 192 191 186
-0.11592 -0.161307 -0.644 192 191 186
-0.114693 -0.161307 -0.644 193 192 187
-0.113467 -0.161307 -0.644 194 193 188
-0.11224 -0.161307 -0.644 195 194 189
-0.111013 -0.161307 -0.644 196 195 190
-0.109787 -0.161307 -0.644 196 196 188
-0.10856 -0.161307 -0.644 196 196 188
-0.107333 -0.161307 -0.644 199 195 192
-0.106107 -0.161307 -0.644 200 196 193
-0.105043 -0.161557 -0.645 200 196 193
-0.103814 -0.161557 -0.645 200 196 193
-0.102586 -0.161557 -0.645 200 197 192
-0.101514 -0.161808 -0.646 201 198 193
-0.100284 -0.161808 -0.646 202 199 194
-0.0990533 -0.161808 -0.646 201 198 193
-0.0979743 -0.162058 -0.647 202 199 194
-0.0967419 -0.162058 -0.647 203 200 195
-0.0955095 -0.162058 -0.647 203 200 193
-0.0944229 -0.162309 -0.648 203 200 193
-0.0931886 -0.162309 -0.648 204 201 194
-0.0920962 -0.162559 -0.649 204 201 194
-0.09086 -0.162559 -0.649 204 201 194
-0.0897619 -0.16281 -0.65 205 202 195
-0.0885238 -0.16281 -0.65 205 202 197
0.348524 -0.16281 -0.65 46 38 53
0.348686 -0.162309 -0.648 45 37 52
0.34884 -0.161808 -0.646 46 38 53
0.348987 -0.161307 -0.644 45 37 52
0.348582 -0.160555 -0.641 42 34 49
0.348711 -0.160054 -0.639 45 41 58
0.348833 -0.159553 -0.637 45 41 58
0.348948 -0.159052 -0.635 44 40 57
0.348503 -0.158301 -0.632 42 38 55
0.349153 -0.15805 -0.631 42 38 53
0.349245 -0.15755 -0.629 43 39 54
0.349329 -0.157049 -0.627 47 41 55
0.349964 -0.156798 -0.626 49 43 57
0.350595 -0.156548 -0.625 46 38 49
0.351223 -0.156297 -0.624 58 50 61
0.351847 -0.156047 -0.623 71 63 74
0.352467 -0.155796 -0.622 79 71 82
0.353083 -0.155546 -0.621 88 78 87
0.354266 -0.155546 -0.621 88 78 87
0.354876 -0.155295 -0.62 101 91 100
0.355483 -0.155045 -0.619 122 112 120
0.356086 -0.154794 -0.618 140 130 138
0.357263 -0.154794 -0.618 165 144 149
0.35786 -0.154544 -0.617 175 154 159
0.358453 -0.154293 -0.616 171 150 155
0.359627 -0.154293 -0.616 151 130 135
0.360214 -0.154043 -0.615 128 105 111
0.360798 -0.153792 -0.614 105 82 88
0.361968 -0.153792 -0.614 89 66 72
0.363137 -0.153792 -0.614 85 62 68
0.364307 -0.153792 -0.614 78 55 61
0.364881 -0.153542 -0.613 71 48 54
0.366049 -0.153542 -0.613 88 63 69
0.367216 -0.153542 -0.613 120 95 101
0.368384 -0.153542 -0.613 154 127 134
0.368949 -0.153291 -0.612 173 146 153
0.370114 -0.153291 -0.612 172 145 152
0.37128 -0.153291 -0.612 164 137 144
0.372446 -0.153291 -0.612 167 140 147
0.373611 -0.153291 -0.612 171 144 151
0.374777 -0.153291 -0.612 171 144 151
0.375943 -0.153291 -0.612 168 141 148
0.377109 -0.153291 -0.612 168 141 148
0.378274 -0.153291 -0.612 167 140 149
0.37944 -0.153291 -0.612 169 142 151
0.379984 -0.153041 -0.611 169 139 149
0.381148 -0.153041 -0.611 171 141 151
0.382311 -0.153041 -0.611 171 141 151
0.383475 -0.153041 -0.611 167 137 147
0.384639 -0.153041 -0.611 166 136 146
0.386434 -0.153291 -0.612 166 136 146
0.3876 -0.153291 -0.612 164 134 144
0.388766 -0.153291 -0.612 165 135 145
0.389294 -0.153041 -0.611 167 137 147
0.390458 -0.153041 -0.611 163 133 143
0.391622 -0.153041 -0.611 168 138 150
0.392786 -0.153041 -0.611 159 129 141
0.394594 -0.153291 -0.612 188 165 175
0.39576 -0.153291 -0.612 234 211 221
0.396926 -0.153291 -0.612 239 219 228
0.398091 -0.153291 -0.612 227 207 216
0.39991 -0.153542 -0.613 189 170 176
0.401077 -0.153542 -0.613 189 170 176
0.402901 -0.153792 -0.614 154 135 141
0.405387 -0.154293 -0.616 162 139 147
0.40722 -0.154544 -0.617 159 136 144
0.411043 -0.155546 -0.621 155 128 137
0.413553 -0.156047 -0.623 132 105 114
0.416737 -0.156798 -0.626 93 68 74
0.471607 -0.162559 -0.649 204 151 143
0.472114 -0.162309 -0.648 205 152 144
0.473349 -0.162309 -0.648 206 153 145
0.474583 -0.162309 -0.648 205 150 145
0.475817 -0.162309 -0.648 203 148 143
0.477051 -0.162309 -0.648 195 142 128
0.478286 -0.162309 -0.648 189 136 122
0.47952 -0.162309 -0.648 189 136 122
0.480754 -0.162309 -0.648 184 127 116
0.481989 -0.162309 -0.648 177 120 109
0.483969 -0.162559 -0.649 168 114 102
0.485952 -0.16281 -0.65 157 103 91
-0.121765 -0.163795 -0.649 189 188 184
-0.119786 -0.162786 -0.645 189 188 183
-0.118373 -0.162533 -0.644 190 189 184
-0.116965 -0.162281 -0.643 193 192 187
-0.11556 -0.162029 -0.642 193 192 187
-0.114337 -0.162029 -0.642 193 192 187
-0.11329 -0.162281 -0.643 194 193 188
-0.112066 -0.162281 -0.643 195 194 189
-0.110841 -0.162281 -0.643 196 195 190
-0.109616 -0.162281 -0.643 197 196 191
-0.108391 -0.162281 -0.643 197 196 191
-0.107167 -0.162281 -0.643 199 196 191
-0.106107 -0.162533 -0.644 200 197 192
-0.10488 -0.162533 -0.644 200 197 192
-0.103653 -0.162533 -0.644 200 197 192
-0.102586 -0.162786 -0.645 201 198 193
-0.101357 -0.162786 -0.645 202 199 194
-0.100284 -0.163038 -0.646 202 199 194
-0.0990533 -0.163038 -0.646 202 199 194
-0.0979743 -0.16329 -0.647 203 200 193
-0.0967419 -0.16329 -0.647 202 199 192
-0.0955095 -0.16329 -0.647 203 200 193
-0.0944229 -0.163543 -0.648 204 201 194
-0.0931886 -0.163543 -0.648 204 201 194
-0.0920962 -0.163795 -0.649 204 201 194
-0.091 -0.164048 -0.65 205 202 195
-0.0897619 -0.164048 -0.65 205 202 195
0.351696 -0.163795 -0.649 51 42 59
0.351845 -0.16329 -0.647 47 38 55
0.351986 -0.162786 -0.645 45 38 56
0.352119 -0.162281 -0.643 44 37 55
0.351695 -0.161524 -0.64 44 37 53
0.351811 -0.161019 -0.638 44 37 53
0.35192 -0.160514 -0.636 45 38 54
0.352021 -0.16001 -0.634 45 38 54
0.352114 -0.159505 -0.632 45 39 53
0.3522 -0.159 -0.63 45 39 53
0.352839 -0.158748 -0.629 47 39 54
0.353474 -0.158495 -0.628 44 36 51
0.354106 -0.158243 -0.627 43 37 49
0.354167 -0.157738 -0.625 49 43 55
0.354789 -0.157486 -0.624 60 52 65
0.355977 -0.157486 -0.624 60 52 65
0.356021 -0.156981 -0.622 69 61 74
0.356631 -0.156729 -0.621 78 70 83
0.357814 -0.156729 -0.621 86 78 91
0.358419 -0.156476 -0.62 100 88 92
0.35902 -0.156224 -0.619 119 107 111
0.359617 -0.155971 -0.618 145 130 135
0.36021 -0.155719 -0.617 162 147 152
0.3608 -0.155467 -0.616 166 147 153
0.361973 -0.155467 -0.616 149 130 136
0.362557 -0.155214 -0.615 125 104 111
0.363729 -0.155214 -0.615 104 83 90
0.364307 -0.154962 -0.614 90 69 74
0.365476 -0.154962 -0.614 84 63 68
0.366049 -0.15471 -0.613 82 59 65
0.367216 -0.15471 -0.613 75 52 58
0.368384 -0.15471 -0.613 86 61 67
0.368949 -0.154457 -0.612 119 94 100
0.370114 -0.154457 -0.612 152 125 132
0.37128 -0.154457 -0.612 175 148 155
0.372446 -0.154457 -0.612 172 142 150
0.373611 -0.154457 -0.612 170 140 148
0.374777 -0.154457 -0.612 170 140 148
0.375329 -0.154205 -0.611 165 135 143
0.376492 -0.154205 -0.611 169 139 147
0.377656 -0.154205 -0.611 166 136 144
0.37882 -0.154205 -0.611 171 141 149
0.379984 -0.154205 -0.611 169 139 147
0.381148 -0.154205 -0.611 170 140 148
0.381686 -0.153952 -0.61 171 141 151
0.382848 -0.153952 -0.61 169 139 149
0.384639 -0.154205 -0.611 167 137 147
0.385803 -0.154205 -0.611 168 138 148
0.386967 -0.154205 -0.611 167 137 147
0.38813 -0.154205 -0.611 166 136 146
0.389294 -0.154205 -0.611 167 137 147
0.390458 -0.154205 -0.611 161 131 141
0.391622 -0.154205 -0.611 157 127 139
0.392786 -0.154205 -0.611 178 148 160
0.39395 -0.154205 -0.611 167 144 154
0.395113 -0.154205 -0.611 185 162 172
0.396277 -0.154205 -0.611 220 200 209
0.398091 -0.154457 -0.612 215 195 204
0.39991 -0.15471 -0.613 164 143 150
0.401077 -0.15471 -0.613 164 143 150
0.402901 -0.154962 -0.614 154 133 140
0.405387 -0.155467 -0.616 161 135 144
0.40788 -0.155971 -0.618 165 139 148
0.411043 -0.156729 -0.621 147 120 127
0.415545 -0.15799 -0.626 111 84 91
0.418734 -0.158748 -0.629 78 53 59
0.471095 -0.164048 -0.65 207 154 146
0.47088 -0.163543 -0.648 206 153 145
0.471386 -0.16329 -0.647 207 154 148
0.472618 -0.16329 -0.647 208 155 149
0.47385 -0.16329 -0.647 205 152 146
0.475083 -0.16329 -0.647 200 147 141
0.476315 -0.16329 -0.647 197 141 128
0.477548 -0.16329 -0.647 192 136 123
0.47878 -0.16329 -0.647 192 136 123
0.480012 -0.16329 -0.647 186 130 117
0.481989 -0.163543 -0.648 179 123 110
0.483223 -0.163543 -0.648 169 115 103
0.485952 -0.164048 -0.65 156 102 90
-0.126905 -0.165286 -0.65 189 188 184
-0.1247 -0.164014 -0.645 189 188 184
-0.12328 -0.16376 -0.644 189 188 184
-0.121864 -0.163506 -0.643 190 189 185
-0.120639 -0.163506 -0.643 190 189 185
-0.119229 -0.163251 -0.642 190 189 184
-0.117822 -0.162997 -0.641 193 192 187
-0.116601 -0.162997 -0.641 193 192 187
-0.1152 -0.162743 -0.64 193 192 187
-0.114159 -0.162997 -0.641 193 192 187
-0.112938 -0.162997 -0.641 194 193 188
-0.111717 -0.162997 -0.641 195 194 189
-0.110496 -0.162997 -0.641 196 195 190
-0.109446 -0.163251 -0.642 197 196 191
-0.108223 -0.163251 -0.642 198 197 192
-0.107 -0.163251 -0.642 198 195 190
-0.105942 -0.163506 -0.643 198 195 190
-0.104717 -0.163506 -0.643 199 196 191
-0.103653 -0.16376 -0.644 200 197 192
-0.102427 -0.16376 -0.644 201 198 193
-0.101357 -0.164014 -0.645 202 199 194
-0.100284 -0.164269 -0.646 203 200 193
-0.0990533 -0.164269 -0.646 203 200 193
-0.0979743 -0.164523 -0.647 203 200 193
-0.0967419 -0.164523 -0.647 203 200 193
-0.0956571 -0.164777 -0.648 203 200 193
-0.0944229 -0.164777 -0.648 204 201 194
-0.0933324 -0.165031 -0.649 204 201 194
-0.0920962 -0.165031 -0.649 204 201 194
-0.091 -0.165286 -0.65 205 202 195
-0.0897619 -0.165286 -0.65 205 202 195
0.354857 -0.164777 -0.648 47 38 55
0.354992 -0.164269 -0.646 46 37 54
0.35512 -0.16376 -0.644 46 37 54
0.35524 -0.163251 -0.642 47 38 55
0.354797 -0.162489 -0.639 48 39 56
0.3549 -0.16198 -0.637 47 40 56
0.354995 -0.161471 -0.635 46 39 55
0.355083 -0.160963 -0.633 45 39 53
0.355726 -0.160709 -0.632 45 39 53
0.3558 -0.1602 -0.63 46 40 54
0.356433 -0.159946 -0.629 46 40 54
0.357063 -0.159691 -0.628 44 38 52
0.358259 -0.159691 -0.628 44 38 52
0.35831 -0.159183 -0.626 47 41 55
0.358354 -0.158674 -0.624 54 48 62
0.358967 -0.15842 -0.623 60 54 68
0.359575 -0.158166 -0.622 78 68 76
0.36018 -0.157911 -0.621 89 79 87
0.360781 -0.157657 -0.62 93 82 88
0.361378 -0.157403 -0.619 98 87 93
0.361971 -0.157149 -0.618 124 111 118
0.362561 -0.156894 -0.617 152 139 146
0.363147 -0.15664 -0.616 157 142 147
0.363729 -0.156386 -0.615 142 127 132
0.3649 -0.156386 -0.615 124 107 113
0.366071 -0.156386 -0.615 105 88 94
0.366646 -0.156131 -0.614 93 74 78
0.367815 -0.156131 -0.614 83 64 68
0.368384 -0.155877 -0.613 78 56 59
0.369551 -0.155877 -0.613 77 55 58
0.370114 -0.155623 -0.612 92 67 71
0.370673 -0.155369 -0.611 120 95 99
0.371837 -0.155369 -0.611 165 136 141
0.373001 -0.155369 -0.611 182 153 158
0.374165 -0.155369 -0.611 182 153 158
0.375329 -0.155369 -0.611 175 146 151
0.376492 -0.155369 -0.611 166 137 142
0.377656 -0.155369 -0.611 169 139 147
0.37882 -0.155369 -0.611 172 142 150
0.379362 -0.155114 -0.61 166 136 144
0.380524 -0.155114 -0.61 172 142 150
0.381686 -0.155114 -0.61 170 140 148
0.382848 -0.155114 -0.61 169 139 147
0.38401 -0.155114 -0.61 167 137 145
0.385803 -0.155369 -0.611 168 138 146
0.386967 -0.155369 -0.611 166 136 146
0.38813 -0.155369 -0.611 165 135 145
0.388657 -0.155114 -0.61 166 136 146
0.389819 -0.155114 -0.61 160 130 140
0.390981 -0.155114 -0.61 177 147 159
0.392143 -0.155114 -0.61 221 191 203
0.393305 -0.155114 -0.61 172 146 157
0.394467 -0.155114 -0.61 154 128 139
0.396277 -0.155369 -0.611 182 159 169
0.398091 -0.155623 -0.612 184 161 171
0.39991 -0.155877 -0.613 163 140 148
0.401077 -0.155877 -0.613 163 140 148
0.402901 -0.156131 -0.614 158 135 143
0.405387 -0.15664 -0.616 161 134 143
0.40788 -0.157149 -0.618 156 129 138
0.411705 -0.158166 -0.622 130 103 110
0.415545 -0.159183 -0.626 94 67 74
0.420066 -0.160454 -0.631 62 39 45
0.47037 -0.165031 -0.649 203 153 144
0.470153 -0.164523 -0.647 202 152 143
0.470657 -0.164269 -0.646 202 152 145
0.471888 -0.164269 -0.646 203 153 146
0.473118 -0.164269 -0.646 201 151 144
0.474349 -0.164269 -0.646 196 146 139
0.475579 -0.164269 -0.646 195 139 124
0.47681 -0.164269 -0.646 191 135 120
0.47804 -0.164269 -0.646 191 135 120
0.47927 -0.164269 -0.646 185 132 118
0.481245 -0.164523 -0.647 177 124 110
0.482477 -0.164523 -0.647 169 115 103
0.485205 -0.165031 -0.649 158 104 92
0.48719 -0.165286 -0.65 160 108 95
-0.126319 -0.165755 -0.647 188 187 182
-0.124313 -0.16473 -0.643 188 187 182
-0.122897 -0.164474 -0.642 188 187 182
-0.121485 -0.164218 -0.641 189 188 183
-0.120264 -0.164218 -0.641 189 188 183
-0.119043 -0.164218 -0.641 189 188 183
-0.117822 -0.164218 -0.641 192 191 186
-0.116419 -0.163962 -0.64 195 192 187
-0.1152 -0.163962 -0.64 196 193 188
-0.113981 -0.163962 -0.64 196 193 188
-0.112762 -0.163962 -0.64 197 194 189
-0.111543 -0.163962 -0.64 198 195 190
-0.110496 -0.164218 -0.641 199 196 191
-0.109446 -0.164474 -0.642 200 197 192
-0.108223 -0.164474 -0.642 200 197 192
-0.107 -0.164474 -0.642 198 195 188
-0.105942 -0.16473 -0.643 198 195 188
-0.104717 -0.16473 -0.643 199 196 189
-0.103653 -0.164987 -0.644 200 197 190
-0.102586 -0.165243 -0.645 201 198 191
-0.101357 -0.165243 -0.645 202 199 192
-0.100284 -0.165499 -0.646 203 200 193
-0.0990533 -0.165499 -0.646 203 200 193
-0.0979743 -0.165755 -0.647 203 200 193
-0.0967419 -0.165755 -0.647 203 200 193
-0.0956571 -0.166011 -0.648 203 200 193
-0.0944229 -0.166011 -0.648 204 201 194
-0.0933324 -0.166268 -0.649 204 201 194
-0.0920962 -0.166268 -0.649 204 201 194
-0.091 -0.166524 -0.65 205 202 195
-0.0897619 -0.166524 -0.65 205 202 195
0.358429 -0.166524 -0.65 46 38 53
0.35856 -0.166011 -0.648 44 38 52
0.358129 -0.165243 -0.645 45 39 53
0.358243 -0.16473 -0.643 47 40 56
0.35835 -0.164218 -0.641 48 41 57
0.358449 -0.163706 -0.639 40 36 51
0.35854 -0.163193 -0.637 41 37 52
0.359189 -0.162937 -0.636 42 38 52
0.3587 -0.162169 -0.633 42 38 52
0.359337 -0.161912 -0.632 43 39 53
0.360541 -0.161912 -0.632 43 39 53
0.3606 -0.1614 -0.63 43 39 53
0.360651 -0.160888 -0.628 41 39 53
0.360695 -0.160375 -0.626 38 36 50
0.36131 -0.160119 -0.625 41 35 45
0.36192 -0.159863 -0.624 54 48 58
0.362527 -0.159607 -0.623 63 55 66
0.362546 -0.159094 -0.621 68 60 71
0.363143 -0.158838 -0.62 80 70 79
0.363736 -0.158582 -0.619 87 77 86
0.364326 -0.158326 -0.618 105 92 101
0.364911 -0.15807 -0.617 131 118 127
0.365493 -0.157813 -0.616 148 133 140
0.366667 -0.157813 -0.616 153 138 145
0.367243 -0.157557 -0.615 141 124 130
0.368414 -0.157557 -0.615 112 95 101
0.368985 -0.157301 -0.614 95 74 79
0.369551 -0.157045 -0.613 87 66 71
0.370719 -0.157045 -0.613 77 55 58
0.37128 -0.156789 -0.612 70 48 51
0.372446 -0.156789 -0.612 81 54 59
0.373611 -0.156789 -0.612 119 92 97
0.374777 -0.156789 -0.612 119 92 97
0.375329 -0.156532 -0.611 167 140 145
0.376492 -0.156532 -0.611 183 156 161
0.377038 -0.156276 -0.61 170 143 148
0.3782 -0.156276 -0.61 162 135 140
0.379362 -0.156276 -0.61 168 141 148
0.380524 -0.156276 -0.61 169 142 149
0.38106 -0.15602 -0.609 168 138 146
0.38222 -0.15602 -0.609 167 137 145
0.38401 -0.156276 -0.61 166 136 144
0.385171 -0.156276 -0.61 167 137 145
0.386333 -0.156276 -0.61 165 135 143
0.387495 -0.156276 -0.61 165 135 143
0.388657 -0.156276 -0.61 165 135 143
0.38918 -0.15602 -0.609 161 131 139
0.39034 -0.15602 -0.609 185 155 167
0.3915 -0.15602 -0.609 240 210 222
0.393305 -0.156276 -0.61 194 166 178
0.394467 -0.156276 -0.61 194 166 178
0.395629 -0.156276 -0.61 209 183 192
0.398091 -0.156789 -0.612 168 142 151
0.39991 -0.157045 -0.613 154 128 137
0.401077 -0.157045 -0.613 154 128 137
0.403557 -0.157557 -0.615 161 135 144
0.406045 -0.15807 -0.617 163 136 145
0.40854 -0.158582 -0.619 147 120 129
0.469857 -0.166524 -0.65 202 149 141
0.469646 -0.166011 -0.648 201 153 143
0.469427 -0.165499 -0.646 201 153 143
0.469929 -0.165243 -0.645 200 150 143
0.471157 -0.165243 -0.645 200 150 143
0.472386 -0.165243 -0.645 201 148 142
0.473614 -0.165243 -0.645 197 144 138
0.474843 -0.165243 -0.645 190 137 121
0.476071 -0.165243 -0.645 189 136 120
0.4773 -0.165243 -0.645 189 136 120
0.478529 -0.165243 -0.645 187 134 118
0.480501 -0.165499 -0.646 176 123 107
0.482477 -0.165755 -0.647 164 112 98
0.484457 -0.166011 -0.648 155 103 89
0.486441 -0.166268 -0.649 162 110 97
0.488429 -0.166524 -0.65 169 117 104
-0.128784 -0.166988 -0.647 182 183 178
-0.127354 -0.16673 -0.646 188 188 180
-0.125733 -0.166213 -0.644 189 189 181
-0.123733 -0.165181 -0.64 189 189 181
-0.122514 -0.165181 -0.64 190 190 182
-0.121295 -0.165181 -0.64 192 192 184
-0.119889 -0.164923 -0.639 191 191 183
-0.118671 -0.164923 -0.639 191 188 181
-0.117454 -0.164923 -0.639 194 191 184
-0.116237 -0.164923 -0.639 195 192 185
-0.11502 -0.164923 -0.639 196 193 186
-0.113803 -0.164923 -0.639 197 194 187
-0.112762 -0.165181 -0.64 198 195 188
-0.111543 -0.165181 -0.64 200 195 189
-0.110496 -0.165439 -0.641 201 196 190
-0.109446 -0.165697 -0.642 200 197 192
-0.108223 -0.165697 -0.642 200 197 192
-0.107 -0.165697 -0.642 198 195 188
-0.105942 -0.165955 -0.643 198 195 188
-0.104717 -0.165955 -0.643 199 196 189
-0.103653 -0.166213 -0.644 200 197 190
-0.102586 -0.166471 -0.645 201 198 191
-0.101357 -0.166471 -0.645 202 199 192
-0.100284 -0.16673 -0.646 203 200 193
-0.0990533 -0.16673 -0.646 203 200 193
-0.0979743 -0.166988 -0.647 203 200 193
-0.0967419 -0.166988 -0.647 203 200 193
-0.0956571 -0.167246 -0.648 204 201 194
-0.0945686 -0.167504 -0.649 204 201 194
-0.0933324 -0.167504 -0.649 204 201 194
-0.0922381 -0.167762 -0.65 205 202 195
-0.091 -0.167762 -0.65 205 202 195
0.361586 -0.167504 -0.649 44 40 55
0.362263 -0.167246 -0.648 45 41 56
0.362375 -0.16673 -0.646 41 37 52
0.36248 -0.166213 -0.644 41 37 52
0.362577 -0.165697 -0.642 39 35 50
0.362667 -0.165181 -0.64 38 34 49
0.36218 -0.164407 -0.637 40 36 51
0.363393 -0.164407 -0.637 40 36 51
0.364034 -0.164149 -0.636 43 39 54
0.363523 -0.163374 -0.633 43 41 55
0.363576 -0.162858 -0.631 42 40 54
0.363622 -0.162342 -0.629 48 44 59
0.36424 -0.162084 -0.628 43 39 54
