ply
format ascii 1.0
comment Created by Open3D
element vertex 1310
property double x
property double y
property double z
property uchar red
property uchar green
property uchar blue
end_header
0.34992 -0.3528 -0.504 123 76 66
0.35088 -0.3528 -0.504 118 78 68
0.352538 -0.3535 -0.505 122 82 72
0.3535 -0.3535 -0.505 123 85 72
0.355164 -0.3542 -0.506 123 85 72
0.356128 -0.3542 -0.506 127 84 75
0.357797 -0.3549 -0.507 127 84 75
0.358763 -0.3549 -0.507 128 84 73
0.360438 -0.3556 -0.508 123 79 68
0.361406 -0.3556 -0.508 119 75 64
0.363087 -0.3563 -0.509 120 76 65
0.364056 -0.3563 -0.509 118 75 66
0.365743 -0.357 -0.51 119 76 67
0.367433 -0.3577 -0.511 121 78 69
0.368407 -0.3577 -0.511 122 79 70
0.370103 -0.3584 -0.512 122 78 67
0.371078 -0.3584 -0.512 122 78 67
0.37278 -0.3591 -0.513 124 80 71
0.373757 -0.3591 -0.513 125 81 72
0.374734 -0.3591 -0.513 124 81 72
0.376444 -0.3598 -0.514 125 82 73
0.378157 -0.3605 -0.515 126 82 71
0.379138 -0.3605 -0.515 126 82 71
0.380119 -0.3605 -0.515 127 83 72
0.38184 -0.3612 -0.516 126 84 72
0.382823 -0.3612 -0.516 123 81 69
0.38455 -0.3619 -0.517 122 80 68
0.385534 -0.3619 -0.517 125 83 71
0.387267 -0.3626 -0.518 128 84 73
0.389003 -0.3633 -0.519 127 83 72
0.389991 -0.3633 -0.519 127 83 72
0.391733 -0.364 -0.52 127 83 72
0.392724 -0.364 -0.52 125 81 70
0.394471 -0.3647 -0.521 125 81 70
0.395464 -0.3647 -0.521 127 83 72
0.397217 -0.3654 -0.522 127 83 72
0.398211 -0.3654 -0.522 129 82 74
0.39997 -0.3661 -0.523 130 83 75
0.401733 -0.3668 -0.524 131 84 74
0.402731 -0.3668 -0.524 131 84 74
0.4045 -0.3675 -0.525 136 89 79
0.406272 -0.3682 -0.526 136 89 79
0.408049 -0.3689 -0.527 140 93 83
0.409052 -0.3689 -0.527 139 92 82
0.410834 -0.3696 -0.528 142 95 85
0.41262 -0.3703 -0.529 142 95 85
0.413628 -0.3703 -0.529 139 92 82
0.415419 -0.371 -0.53 138 91 81
0.417214 -0.3717 -0.531 143 96 86
0.419013 -0.3724 -0.532 144 97 87
0.420816 -0.3731 -0.533 147 99 89
0.422623 -0.3738 -0.534 140 92 82
0.42364 -0.3738 -0.534 140 92 82
0.425452 -0.3745 -0.535 144 96 86
0.426471 -0.3745 -0.535 143 95 83
0.42829 -0.3752 -0.536 140 92 80
0.42931 -0.3752 -0.536 140 92 80
0.430331 -0.3752 -0.536 140 92 82
0.432157 -0.3759 -0.537 140 92 82
0.433987 -0.3766 -0.538 142 94 84
0.435011 -0.3766 -0.538 138 90 80
0.436847 -0.3773 -0.539 138 90 78
0.437873 -0.3773 -0.539 134 86 74
0.439714 -0.378 -0.54 136 88 76
0.440743 -0.378 -0.54 138 90 78
0.44259 -0.3787 -0.541 142 94 84
0.44362 -0.3787 -0.541 140 92 82
0.445472 -0.3794 -0.542 138 90 80
0.447329 -0.3801 -0.543 138 90 80
0.449189 -0.3808 -0.544 140 92 80
0.451052 -0.3815 -0.545 146 98 86
0.45375 -0.3829 -0.547 139 104 82
0.456454 -0.3843 -0.549 143 108 86
0.46 -0.3864 -0.552 145 107 94
0.462722 -0.3878 -0.554 145 107 94
0.466289 -0.3899 -0.557 151 111 99
0.469867 -0.392 -0.56 151 111 99
0.473456 -0.3941 -0.563 153 114 99
0.477057 -0.3962 -0.566 154 115 100
0.48067 -0.3983 -0.569 149 113 101
0.484293 -0.4004 -0.572 158 122 110
0.0500429 -0.396576 -0.565 199 158 140
0.0508476 -0.39447 -0.562 198 157 139
0.0518257 -0.393769 -0.561 201 156 133
0.0525171 -0.390961 -0.557 202 157 134
0.0531933 -0.388153 -0.553 211 157 129
0.0538543 -0.385346 -0.549 211 157 129
0.0546 -0.38324 -0.546 206 158 136
0.0554362 -0.381836 -0.544 204 156 134
0.0560571 -0.379029 -0.54 199 155 128
0.05698 -0.378327 -0.539 201 157 130
0.057899 -0.377625 -0.538 203 161 139
0.0588143 -0.376923 -0.537 205 163 141
0.0597257 -0.376221 -0.536 207 161 137
0.0607467 -0.376221 -0.536 208 162 138
0.0616524 -0.375519 -0.535 207 161 137
0.0626714 -0.375519 -0.535 206 160 136
0.0636905 -0.375519 -0.535 207 161 137
0.0645886 -0.374817 -0.534 206 160 136
0.0656057 -0.374817 -0.534 205 159 133
0.0664981 -0.374115 -0.533 206 160 134
0.0675133 -0.374115 -0.533 209 163 137
0.0685286 -0.374115 -0.533 208 162 136
0.0695438 -0.374115 -0.533 208 162 136
0.070559 -0.374115 -0.533 207 161 135
0.0715743 -0.374115 -0.533 205 159 133
0.0724533 -0.373413 -0.532 205 159 133
0.0734667 -0.373413 -0.532 205 159 133
0.07448 -0.373413 -0.532 203 157 131
0.0754933 -0.373413 -0.532 201 160 130
0.0765067 -0.373413 -0.532 198 157 127
0.07752 -0.373413 -0.532 201 157 128
0.0785333 -0.373413 -0.532 203 159 130
0.0795467 -0.373413 -0.532 200 155 126
0.08056 -0.373413 -0.532 197 152 123
0.0815733 -0.373413 -0.532 196 150 124
0.0825867 -0.373413 -0.532 191 145 119
0.0837571 -0.374115 -0.533 194 147 121
0.0847724 -0.374115 -0.533 193 146 120
0.0859486 -0.374817 -0.534 192 140 116
0.0871286 -0.375519 -0.535 188 136 112
0.0881476 -0.375519 -0.535 184 132 108
0.0893333 -0.376221 -0.536 181 129 105
0.0903543 -0.376221 -0.536 180 128 106
0.0915457 -0.376923 -0.537 181 129 107
0.092741 -0.377625 -0.538 183 125 103
0.09394 -0.378327 -0.539 180 122 100
0.0951429 -0.379029 -0.54 179 122 102
0.0963495 -0.37973 -0.541 180 123 103
0.09756 -0.380432 -0.542 179 123 106
0.0987743 -0.381134 -0.543 172 116 99
0.0999924 -0.381836 -0.544 165 112 96
0.101214 -0.382538 -0.545 165 112 96
0.10244 -0.38324 -0.546 164 112 98
0.10367 -0.383942 -0.547 160 108 94
0.104711 -0.383942 -0.547 154 106 94
0.105947 -0.384644 -0.548 153 105 93
0.107186 -0.385346 -0.549 150 103 93
0.108429 -0.386048 -0.55 149 102 92
0.109874 -0.387451 -0.552 148 101 93
0.111127 -0.388153 -0.553 145 98 90
0.112383 -0.388855 -0.554 148 98 89
0.113848 -0.390259 -0.556 148 98 89
0.115113 -0.390961 -0.557 143 98 92
0.116591 -0.392365 -0.559 139 94 88
0.117867 -0.393067 -0.56 131 93 92
0.119358 -0.39447 -0.562 130 92 91
0.120857 -0.395874 -0.564 124 92 93
0.122364 -0.397278 -0.566 124 92 93
0.137614 -0.410614 -0.585 29 34 56
0.138966 -0.411316 -0.586 27 36 65
0.140321 -0.412018 -0.587 26 35 64
0.141439 -0.412018 -0.587 25 39 74
0.142557 -0.412018 -0.587 47 61 96
0.14392 -0.41272 -0.588 72 82 117
0.144793 -0.412018 -0.587 90 100 135
0.145911 -0.412018 -0.587 108 112 139
0.14703 -0.412018 -0.587 119 123 150
0.148148 -0.412018 -0.587 129 130 150
0.149266 -0.412018 -0.587 135 136 156
0.150384 -0.412018 -0.587 145 147 162
0.151502 -0.412018 -0.587 149 151 166
0.15262 -0.412018 -0.587 149 151 166
0.153738 -0.412018 -0.587 149 151 166
0.154856 -0.412018 -0.587 149 151 166
0.155709 -0.411316 -0.586 147 153 167
0.156825 -0.411316 -0.586 150 156 170
0.157941 -0.411316 -0.586 146 152 166
0.159057 -0.411316 -0.586 135 141 155
0.160173 -0.411316 -0.586 86 97 127
0.16129 -0.411316 -0.586 71 82 112
0.162406 -0.411316 -0.586 61 85 129
0.163522 -0.411316 -0.586 84 108 152
0.164357 -0.410614 -0.585 70 102 149
0.165471 -0.410614 -0.585 65 97 144
0.166586 -0.410614 -0.585 56 89 140
0.1677 -0.410614 -0.585 54 87 138
0.168814 -0.410614 -0.585 64 100 158
0.169929 -0.410614 -0.585 81 117 175
0.171043 -0.410614 -0.585 75 120 175
0.172157 -0.410614 -0.585 72 117 172
0.173271 -0.410614 -0.585 86 129 180
0.174386 -0.410614 -0.585 84 127 178
0.1755 -0.410614 -0.585 70 110 161
0.176614 -0.410614 -0.585 76 116 167
0.31213 -0.398682 -0.568 191 127 127
0.311006 -0.395874 -0.564 190 126 126
0.31042 -0.393769 -0.561 190 120 122
0.311489 -0.393769 -0.561 190 120 122
0.311443 -0.392365 -0.559 180 110 112
0.311949 -0.391663 -0.558 181 101 102
0.31189 -0.390259 -0.556 173 93 94
0.312386 -0.389557 -0.555 162 81 80
0.312878 -0.388855 -0.554 149 68 67
0.313933 -0.388855 -0.554 127 57 57
0.314989 -0.388855 -0.554 121 51 51
0.315473 -0.388153 -0.553 109 50 52
0.317099 -0.388855 -0.554 106 47 49
0.318154 -0.388855 -0.554 102 47 50
0.31921 -0.388855 -0.554 102 47 50
0.321421 -0.390259 -0.556 98 54 55
0.32248 -0.390259 -0.556 105 61 62
0.323539 -0.390259 -0.556 105 65 73
0.325182 -0.390961 -0.557 121 81 89
0.325657 -0.390259 -0.556 149 116 127
0.326716 -0.390259 -0.556 193 160 171
0.327186 -0.389557 -0.555 191 159 162
0.32706 -0.388153 -0.553 184 152 155
0.32752 -0.387451 -0.552 160 121 114
0.327381 -0.386048 -0.55 148 109 102
0.326637 -0.383942 -0.547 157 108 101
0.326481 -0.382538 -0.545 154 105 98
0.325716 -0.380432 -0.542 156 103 97
0.32494 -0.378327 -0.539 155 102 96
0.323548 -0.375519 -0.535 152 102 93
0.323353 -0.374115 -0.533 153 103 94
0.322543 -0.37201 -0.53 161 111 102
0.322331 -0.370606 -0.528 159 109 100
0.322112 -0.369202 -0.526 166 114 103
0.323114 -0.369202 -0.526 166 114 103
0.322884 -0.367798 -0.524 166 114 103
0.322646 -0.366394 -0.522 167 113 101
0.32302 -0.365692 -0.521 168 114 102
0.32339 -0.36499 -0.52 168 111 100
0.323757 -0.364289 -0.519 170 113 102
0.32412 -0.363587 -0.518 173 116 105
0.323851 -0.362183 -0.516 172 115 104
0.324205 -0.361481 -0.515 171 114 103
0.324554 -0.360779 -0.514 169 112 101
0.3249 -0.360077 -0.513 168 110 98
0.325877 -0.360077 -0.513 169 111 99
0.326217 -0.359375 -0.512 169 111 99
0.326553 -0.358673 -0.511 169 111 99
0.326886 -0.357971 -0.51 170 113 104
0.327857 -0.357971 -0.51 170 113 104
0.328184 -0.35727 -0.509 171 114 103
0.329153 -0.35727 -0.509 172 115 104
0.329474 -0.356568 -0.508 170 112 101
0.330442 -0.356568 -0.508 168 110 99
0.330757 -0.355866 -0.507 167 109 98
0.331723 -0.355866 -0.507 166 108 97
0.332032 -0.355164 -0.506 166 108 96
0.332996 -0.355164 -0.506 166 108 96
0.3333 -0.354462 -0.505 159 101 87
0.334262 -0.354462 -0.505 157 99 85
0.335224 -0.354462 -0.505 163 104 90
0.336186 -0.354462 -0.505 168 109 95
0.33648 -0.35376 -0.504 169 110 96
0.33744 -0.35376 -0.504 170 111 97
0.3384 -0.35376 -0.504 170 114 99
0.33936 -0.35376 -0.504 170 114 99
0.34032 -0.35376 -0.504 164 108 93
0.34128 -0.35376 -0.504 160 103 86
0.34224 -0.35376 -0.504 153 96 79
0.3432 -0.35376 -0.504 149 91 77
0.34416 -0.35376 -0.504 149 91 77
0.34512 -0.35376 -0.504 143 89 77
0.346767 -0.354462 -0.505 136 82 70
0.347729 -0.354462 -0.505 128 78 69
0.34869 -0.354462 -0.505 126 76 67
0.349652 -0.354462 -0.505 123 79 70
0.350614 -0.354462 -0.505 122 78 69
0.351576 -0.354462 -0.505 121 78 71
0.352538 -0.354462 -0.505 123 80 73
0.3535 -0.354462 -0.505 122 84 75
0.355164 -0.355164 -0.506 124 86 77
0.356128 -0.355164 -0.506 128 85 76
0.357797 -0.355866 -0.507 128 85 76
0.35947 -0.356568 -0.508 124 81 72
0.360438 -0.356568 -0.508 120 77 68
0.361406 -0.356568 -0.508 119 76 67
0.363087 -0.35727 -0.509 117 74 65
0.364771 -0.357971 -0.51 117 74 65
0.365743 -0.357971 -0.51 120 77 68
0.367433 -0.358673 -0.511 120 77 68
0.369128 -0.359375 -0.512 120 77 68
0.370103 -0.359375 -0.512 121 78 69
0.371803 -0.360077 -0.513 121 78 69
0.37278 -0.360077 -0.513 122 79 70
0.373757 -0.360077 -0.513 122 79 70
0.375465 -0.360779 -0.514 122 82 72
0.376444 -0.360779 -0.514 123 83 73
0.378157 -0.361481 -0.515 125 82 73
0.379138 -0.361481 -0.515 125 82 73
0.380119 -0.361481 -0.515 123 80 71
0.38184 -0.362183 -0.516 123 80 71
0.382823 -0.362183 -0.516 124 81 72
0.38455 -0.362885 -0.517 124 81 72
0.385534 -0.362885 -0.517 124 81 72
0.387267 -0.363587 -0.518 126 83 74
0.389003 -0.364289 -0.519 127 84 75
0.389991 -0.364289 -0.519 124 81 72
0.39098 -0.364289 -0.519 124 81 72
0.392724 -0.36499 -0.52 126 83 74
0.394471 -0.365692 -0.521 126 83 74
0.395464 -0.365692 -0.521 125 82 73
0.397217 -0.366394 -0.522 124 81 72
0.398211 -0.366394 -0.522 124 81 72
0.39997 -0.367096 -0.523 125 82 73
0.400967 -0.367096 -0.523 127 83 72
0.402731 -0.367798 -0.524 129 85 74
0.4045 -0.3685 -0.525 131 87 76
0.4055 -0.3685 -0.525 136 92 81
0.407274 -0.369202 -0.526 141 94 84
0.409052 -0.369904 -0.527 140 93 83
0.410056 -0.369904 -0.527 137 93 82
0.41184 -0.370606 -0.528 137 93 82
0.413628 -0.371308 -0.529 137 93 80
0.415419 -0.37201 -0.53 139 95 82
0.416429 -0.37201 -0.53 142 96 83
0.418226 -0.372711 -0.531 143 97 84
0.420027 -0.373413 -0.532 144 96 84
0.421831 -0.374115 -0.533 143 95 83
0.42364 -0.374817 -0.534 141 95 82
0.424657 -0.374817 -0.534 142 96 83
0.426471 -0.375519 -0.535 143 95 85
0.42749 -0.375519 -0.535 142 94 84
0.42931 -0.376221 -0.536 142 95 85
0.430331 -0.376221 -0.536 142 95 85
0.432157 -0.376923 -0.537 141 94 84
0.43318 -0.376923 -0.537 138 92 79
0.435011 -0.377625 -0.538 137 91 78
0.436036 -0.377625 -0.538 136 88 76
0.437873 -0.378327 -0.539 133 85 73
0.4389 -0.378327 -0.539 135 87 75
0.439927 -0.378327 -0.539 137 89 77
0.441771 -0.379029 -0.54 138 92 79
0.4428 -0.379029 -0.54 140 94 81
0.443829 -0.379029 -0.54 139 93 80
0.445681 -0.37973 -0.541 136 90 77
0.447537 -0.380432 -0.542 139 93 80
0.449397 -0.381134 -0.543 147 101 88
0.45209 -0.382538 -0.545 142 107 87
0.454791 -0.383942 -0.547 145 110 90
0.4575 -0.385346 -0.549 145 110 91
0.460216 -0.38675 -0.551 148 113 94
0.463777 -0.388855 -0.554 150 112 99
0.46651 -0.390259 -0.556 151 113 100
0.470092 -0.392365 -0.559 153 115 104
0.473686 -0.39447 -0.562 151 113 102
0.47729 -0.396576 -0.565 154 116 105
0.480907 -0.398682 -0.568 158 120 109
0.484534 -0.400788 -0.571 153 120 111
0.488414 -0.402191 -0.573 156 131 126
0.0489667 -0.397652 -0.565 202 158 133
0.0498657 -0.396245 -0.563 196 158 137
0.0505762 -0.39343 -0.559 196 158 137
0.0515486 -0.392726 -0.558 202 156 133
0.0522343 -0.38991 -0.554 203 157 134
0.0529048 -0.387095 -0.55 212 158 130
0.05356 -0.38428 -0.546 211 157 129
0.0543 -0.382169 -0.543 203 157 134
0.0551305 -0.380761 -0.541 200 154 131
0.0559533 -0.379353 -0.539 198 154 129
0.0568743 -0.37865 -0.538 200 156 131
0.0577914 -0.377946 -0.537 203 161 136
0.0587048 -0.377242 -0.536 206 164 139
0.0596143 -0.376538 -0.535 208 162 136
0.0606333 -0.376538 -0.535 208 162 136
0.0616524 -0.376538 -0.535 207 161 135
0.0625543 -0.375834 -0.534 207 161 135
0.0635714 -0.375834 -0.534 207 161 135
0.0644676 -0.37513 -0.533 206 160 134
0.0654829 -0.37513 -0.533 206 160 134
0.0664981 -0.37513 -0.533 207 161 135
0.0675133 -0.37513 -0.533 208 162 136
0.0685286 -0.37513 -0.533 208 162 136
0.0694133 -0.374427 -0.532 207 161 135
0.0704267 -0.374427 -0.532 206 160 134
0.07144 -0.374427 -0.532 204 158 132
0.0724533 -0.374427 -0.532 203 157 131
0.0733286 -0.373723 -0.531 203 157 131
0.07434 -0.373723 -0.531 202 156 130
0.0753514 -0.373723 -0.531 200 159 129
0.0765067 -0.374427 -0.532 198 157 127
0.07752 -0.374427 -0.532 199 155 128
0.0785333 -0.374427 -0.532 202 158 131
0.0795467 -0.374427 -0.532 200 154 128
0.08056 -0.374427 -0.532 195 149 123
0.0815733 -0.374427 -0.532 195 148 122
0.0825867 -0.374427 -0.532 191 144 118
0.0836 -0.374427 -0.532 193 143 118
0.0847724 -0.37513 -0.533 192 142 117
0.0859486 -0.375834 -0.534 190 138 116
0.0869657 -0.375834 -0.534 185 133 111
0.0881476 -0.376538 -0.535 185 130 109
0.0891667 -0.376538 -0.535 184 129 108
0.0903543 -0.377242 -0.536 183 128 107
0.0915457 -0.377946 -0.537 181 126 105
0.092741 -0.37865 -0.538 181 124 104
0.09394 -0.379353 -0.539 179 122 102
0.0951429 -0.380057 -0.54 177 120 101
0.0963495 -0.380761 -0.541 177 120 101
0.09756 -0.381465 -0.542 175 119 102
0.0987743 -0.382169 -0.543 170 114 97
0.0999924 -0.382872 -0.544 166 113 97
0.101214 -0.383576 -0.545 166 113 97
0.10244 -0.38428 -0.546 160 111 97
0.10367 -0.384984 -0.547 158 109 95
0.104711 -0.384984 -0.547 155 107 97
0.105947 -0.385688 -0.548 153 105 95
0.107186 -0.386391 -0.549 150 103 95
0.108429 -0.387095 -0.55 148 101 93
0.109874 -0.388503 -0.552 144 100 91
0.111127 -0.389207 -0.553 142 98 89
0.112383 -0.38991 -0.554 147 99 87
0.113848 -0.391318 -0.556 146 98 86
0.115113 -0.392022 -0.557 140 97 90
0.116591 -0.39343 -0.559 138 95 88
0.118077 -0.394837 -0.561 130 95 93
0.119358 -0.395541 -0.562 130 92 91
0.120857 -0.396949 -0.564 124 92 93
0.122364 -0.398356 -0.566 124 92 93
0.136267 -0.411025 -0.584 33 37 64
0.137379 -0.411025 -0.584 28 32 59
0.138729 -0.411729 -0.585 32 39 68
0.140082 -0.412432 -0.586 35 42 71
0.141198 -0.412432 -0.586 30 41 73
0.142557 -0.413136 -0.587 45 56 88
0.143675 -0.413136 -0.587 64 73 104
0.144793 -0.413136 -0.587 77 86 117
0.145663 -0.412432 -0.586 96 100 129
0.146779 -0.412432 -0.586 117 121 150
0.147895 -0.412432 -0.586 136 137 158
0.149011 -0.412432 -0.586 139 140 161
0.150128 -0.412432 -0.586 144 143 159
0.151244 -0.412432 -0.586 150 149 165
0.15236 -0.412432 -0.586 152 150 163
0.153476 -0.412432 -0.586 152 150 163
0.154592 -0.412432 -0.586 154 152 165
0.155709 -0.412432 -0.586 154 156 169
0.156825 -0.412432 -0.586 153 155 168
0.157941 -0.412432 -0.586 160 162 174
0.158786 -0.411729 -0.585 119 121 133
0.1599 -0.411729 -0.585 81 91 118
0.161014 -0.411729 -0.585 76 86 113
0.162129 -0.411729 -0.585 70 93 135
0.163243 -0.411729 -0.585 85 108 150
0.164357 -0.411729 -0.585 72 105 150
0.165471 -0.411729 -0.585 65 98 143
0.166586 -0.411729 -0.585 62 95 146
0.311595 -0.400468 -0.569 190 129 124
0.310481 -0.397652 -0.565 190 129 128
0.309903 -0.395541 -0.562 188 127 126
0.30876 -0.392726 -0.558 190 122 123
0.309823 -0.392726 -0.558 190 122 123
0.309771 -0.391318 -0.556 181 113 114
0.310271 -0.390614 -0.555 182 104 104
0.310207 -0.389207 -0.553 175 97 97
0.31126 -0.389207 -0.553 166 86 85
0.311749 -0.388503 -0.552 154 74 73
0.3128 -0.388503 -0.552 133 63 61
0.313851 -0.388503 -0.552 123 53 51
0.314903 -0.388503 -0.552 107 47 47
0.316527 -0.389207 -0.553 100 40 40
0.31758 -0.389207 -0.553 93 38 41
0.31921 -0.38991 -0.554 93 38 41
0.321421 -0.391318 -0.556 84 44 45
0.32306 -0.392022 -0.557 92 52 53
0.324703 -0.392726 -0.558 101 68 75
0.32635 -0.39343 -0.559 146 113 120
0.327414 -0.39343 -0.559 182 156 167
0.328479 -0.39343 -0.559 210 184 195
0.329544 -0.39343 -0.559 205 180 186
0.330017 -0.392726 -0.558 203 178 184
0.330487 -0.392022 -0.557 185 157 156
0.330357 -0.390614 -0.555 163 135 134
0.33022 -0.389207 -0.553 159 121 120
0.329476 -0.387095 -0.55 149 111 110
0.328721 -0.384984 -0.547 150 105 100
0.327954 -0.382872 -0.544 145 100 95
0.327176 -0.380761 -0.541 147 99 89
0.32578 -0.377946 -0.537 148 100 90
0.324977 -0.375834 -0.534 161 109 98
0.324773 -0.374427 -0.532 160 108 97
0.324562 -0.373019 -0.53 164 111 103
0.325571 -0.373019 -0.53 164 111 103
0.324732 -0.370908 -0.527 165 112 104
0.325118 -0.370204 -0.526 165 112 104
0.32488 -0.368796 -0.524 166 113 105
0.324634 -0.367389 -0.522 164 111 103
0.325005 -0.366685 -0.521 165 112 104
0.325371 -0.365981 -0.52 168 111 102
0.325734 -0.365277 -0.519 166 109 100
0.326093 -0.364573 -0.518 167 109 98
0.325817 -0.363166 -0.516 165 107 96
0.326167 -0.362462 -0.515 164 106 94
0.326512 -0.361758 -0.514 165 107 95
0.326854 -0.361054 -0.513 167 107 96
0.327831 -0.361054 -0.513 165 105 94
0.328168 -0.36035 -0.512 166 108 97
0.3285 -0.359647 -0.511 167 109 98
0.328829 -0.358943 -0.51 169 111 100
0.3298 -0.358943 -0.51 171 113 102
0.330123 -0.358239 -0.509 168 110 98
0.330442 -0.357535 -0.508 165 107 95
0.330757 -0.356831 -0.507 165 107 96
0.331723 -0.356831 -0.507 165 107 96
0.332032 -0.356128 -0.506 164 106 94
0.332996 -0.356128 -0.506 166 108 96
0.33396 -0.356128 -0.506 160 101 87
0.334262 -0.355424 -0.505 155 96 82
0.335224 -0.355424 -0.505 159 100 86
0.336186 -0.355424 -0.505 161 102 88
0.337148 -0.355424 -0.505 162 103 89
0.33811 -0.355424 -0.505 162 103 89
0.339071 -0.355424 -0.505 162 106 91
0.340033 -0.355424 -0.505 158 102 87
0.340995 -0.355424 -0.505 158 102 87
0.341957 -0.355424 -0.505 152 96 81
0.34224 -0.35472 -0.504 145 89 74
0.3432 -0.35472 -0.504 139 86 70
0.34416 -0.35472 -0.504 139 86 70
0.345805 -0.355424 -0.505 133 84 70
0.346767 -0.355424 -0.505 128 79 65
0.347729 -0.355424 -0.505 122 75 65
0.34869 -0.355424 -0.505 121 74 64
0.349652 -0.355424 -0.505 122 78 69
0.350614 -0.355424 -0.505 121 77 68
0.351576 -0.355424 -0.505 119 76 67
0.353236 -0.356128 -0.506 122 79 70
0.3542 -0.356128 -0.506 123 80 73
0.355164 -0.356128 -0.506 125 82 75
0.356831 -0.356831 -0.507 127 83 74
0.357797 -0.356831 -0.507 127 83 74
0.35947 -0.357535 -0.508 122 79 70
0.360438 -0.357535 -0.508 119 76 67
0.362117 -0.358239 -0.509 118 75 66
0.363087 -0.358239 -0.509 118 75 66
0.364771 -0.358943 -0.51 118 75 66
0.36646 -0.359647 -0.511 121 78 69
0.367433 -0.359647 -0.511 118 75 66
0.369128 -0.36035 -0.512 120 77 68
0.370826 -0.361054 -0.513 121 78 69
0.371803 -0.361054 -0.513 122 79 70
0.37278 -0.361054 -0.513 122 79 70
0.374486 -0.361758 -0.514 122 79 70
0.375465 -0.361758 -0.514 123 80 71
0.376444 -0.361758 -0.514 124 81 72
0.378157 -0.362462 -0.515 125 82 73
0.379138 -0.362462 -0.515 125 82 73
0.380857 -0.363166 -0.516 124 81 72
0.38184 -0.363166 -0.516 124 81 72
0.382823 -0.363166 -0.516 125 82 73
0.38455 -0.36387 -0.517 125 82 73
0.385534 -0.36387 -0.517 124 81 72
0.387267 -0.364573 -0.518 124 81 72
0.389003 -0.365277 -0.519 125 82 73
0.389991 -0.365277 -0.519 124 81 72
0.39098 -0.365277 -0.519 124 81 72
0.392724 -0.365981 -0.52 126 82 73
0.393714 -0.365981 -0.52 127 83 74
0.395464 -0.366685 -0.521 125 81 72
0.397217 -0.367389 -0.522 125 81 72
0.398211 -0.367389 -0.522 125 81 72
0.399206 -0.367389 -0.522 125 81 72
0.400967 -0.368092 -0.523 125 81 70
0.402731 -0.368796 -0.524 127 83 72
0.40373 -0.368796 -0.524 131 84 74
0.4055 -0.3695 -0.525 136 89 79
0.407274 -0.370204 -0.526 140 93 83
0.408276 -0.370204 -0.526 139 92 82
0.410056 -0.370908 -0.527 138 91 81
0.41184 -0.371611 -0.528 136 89 79
0.412846 -0.371611 -0.528 140 94 81
0.414635 -0.372315 -0.529 141 95 82
0.416429 -0.373019 -0.53 142 94 82
0.418226 -0.373723 -0.531 142 94 82
0.420027 -0.374427 -0.532 144 96 84
0.421831 -0.37513 -0.533 144 96 84
0.422847 -0.37513 -0.533 143 97 84
0.424657 -0.375834 -0.534 144 98 85
0.425674 -0.375834 -0.534 143 95 85
0.42749 -0.376538 -0.535 143 95 85
0.42851 -0.376538 -0.535 142 95 85
0.429529 -0.376538 -0.535 142 95 85
0.431352 -0.377242 -0.536 141 94 84
0.43318 -0.377946 -0.537 139 93 80
0.434203 -0.377946 -0.537 137 91 78
0.436036 -0.37865 -0.538 136 88 76
0.437061 -0.37865 -0.538 134 86 74
0.438086 -0.37865 -0.538 134 86 74
0.439927 -0.379353 -0.539 137 89 77
0.440953 -0.379353 -0.539 137 91 78
0.44198 -0.379353 -0.539 138 92 79
0.443007 -0.379353 -0.539 140 94 81
0.444857 -0.380057 -0.54 139 93 80
0.446711 -0.380761 -0.541 141 95 82
0.44857 -0.381465 -0.542 148 102 89
0.450431 -0.382169 -0.543 144 107 88
0.452297 -0.382872 -0.544 145 108 89
0.455 -0.38428 -0.546 147 110 92
0.45771 -0.385688 -0.548 150 113 95
0.460429 -0.387095 -0.55 150 112 99
0.463993 -0.389207 -0.553 150 112 99
0.46757 -0.391318 -0.556 152 112 100
0.471157 -0.39343 -0.559 151 111 99
0.474756 -0.395541 -0.562 160 120 108
0.478367 -0.397652 -0.565 152 112 100
0.481989 -0.399764 -0.568 155 121 111
0.485622 -0.401875 -0.571 160 126 116
0.0487933 -0.397317 -0.563 202 158 133
0.0496 -0.3952 -0.56 197 159 136
0.0503048 -0.392377 -0.556 197 159 136
0.0512714 -0.391671 -0.555 202 156 133
0.0520457 -0.389554 -0.552 203 157 134
0.0527124 -0.386731 -0.548 209 157 133
0.0533638 -0.383909 -0.544 209 157 133
0.0542 -0.382497 -0.542 201 159 137
0.0549267 -0.38038 -0.539 199 157 135
0.0558495 -0.379674 -0.538 199 157 133
0.0567686 -0.378969 -0.537 200 158 134
0.0576838 -0.378263 -0.536 201 161 135
0.0585952 -0.377557 -0.535 203 163 137
0.0596143 -0.377557 -0.535 206 162 135
0.06052 -0.376851 -0.534 206 162 135
0.0615371 -0.376851 -0.534 207 161 135
0.0624371 -0.376146 -0.533 207 161 135
0.0634524 -0.376146 -0.533 205 159 133
0.0644676 -0.376146 -0.533 206 160 134
0.06536 -0.37544 -0.532 207 163 136
0.0663733 -0.37544 -0.532 207 163 136
0.0673867 -0.37544 -0.532 206 162 135
0.0684 -0.37544 -0.532 207 163 136
0.0694133 -0.37544 -0.532 206 160 134
0.0704267 -0.37544 -0.532 205 159 133
0.07144 -0.37544 -0.532 204 158 132
0.0723171 -0.374734 -0.531 203 157 131
0.0733286 -0.374734 -0.531 201 157 130
0.07434 -0.374734 -0.531 201 157 130
0.0753514 -0.374734 -0.531 202 158 131
0.0763629 -0.374734 -0.531 201 157 130
0.0773743 -0.374734 -0.531 201 155 129
0.0783857 -0.374734 -0.531 202 156 130
0.0793971 -0.374734 -0.531 197 151 125
0.0804086 -0.374734 -0.531 192 146 120
0.08142 -0.374734 -0.531 195 145 122
0.0825867 -0.37544 -0.532 192 142 119
0.0836 -0.37544 -0.532 191 139 117
0.0847724 -0.376146 -0.533 191 139 117
0.0857876 -0.376146 -0.533 190 135 114
0.0869657 -0.376851 -0.534 187 132 111
0.0881476 -0.377557 -0.535 184 129 108
0.0891667 -0.377557 -0.535 184 129 108
0.0903543 -0.378263 -0.536 183 126 107
0.0915457 -0.378969 -0.537 179 122 103
0.092741 -0.379674 -0.538 179 122 102
0.09394 -0.38038 -0.539 179 122 102
0.0949667 -0.38038 -0.539 179 122 103
0.0961714 -0.381086 -0.54 177 120 101
0.09738 -0.381791 -0.541 173 117 100
0.0987743 -0.383203 -0.543 171 115 98
0.0999924 -0.383909 -0.544 166 114 100
0.101214 -0.384614 -0.545 163 111 97
0.10244 -0.38532 -0.546 158 109 95
0.10367 -0.386026 -0.547 157 108 94
0.104711 -0.386026 -0.547 154 106 96
0.105947 -0.386731 -0.548 152 104 94
0.107186 -0.387437 -0.549 150 103 95
0.108429 -0.388143 -0.55 148 101 93
0.109874 -0.389554 -0.552 144 99 93
0.111127 -0.39026 -0.553 143 98 92
0.112586 -0.391671 -0.555 146 100 87
0.113848 -0.392377 -0.556 143 97 84
0.11532 -0.393789 -0.558 136 96 88
0.116591 -0.394494 -0.559 134 94 86
0.118077 -0.395906 -0.561 130 95 91
0.11957 -0.397317 -0.563 129 94 92
0.120857 -0.398023 -0.564 125 94 92
0.122364 -0.399434 -0.566 124 93 91
0.136267 -0.412137 -0.584 44 48 77
0.137379 -0.412137 -0.584 32 36 65
0.138729 -0.412843 -0.585 35 40 69
0.139843 -0.412843 -0.585 43 48 77
0.141198 -0.413549 -0.586 41 46 76
0.142314 -0.413549 -0.586 44 49 79
0.14343 -0.413549 -0.586 51 56 86
0.144547 -0.413549 -0.586 57 62 92
0.145663 -0.413549 -0.586 73 77 106
0.146779 -0.413549 -0.586 106 110 139
0.147643 -0.412843 -0.585 134 136 159
0.148757 -0.412843 -0.585 137 139 162
0.149871 -0.412843 -0.585 146 144 158
0.150986 -0.412843 -0.585 153 151 165
0.1521 -0.412843 -0.585 154 151 160
0.153214 -0.412843 -0.585 154 151 160
0.154329 -0.412843 -0.585 154 151 160
0.155443 -0.412843 -0.585 155 155 165
0.156557 -0.412843 -0.585 159 159 169
0.157671 -0.412843 -0.585 145 145 153
0.158786 -0.412843 -0.585 108 108 116
0.1599 -0.412843 -0.585 89 97 120
0.161014 -0.412843 -0.585 83 91 114
0.162129 -0.412843 -0.585 74 96 137
0.163243 -0.412843 -0.585 77 99 140
0.164357 -0.412843 -0.585 77 108 154
0.165471 -0.412843 -0.585 78 109 155
0.166301 -0.412137 -0.584 87 119 166
0.167413 -0.412137 -0.584 93 125 172
0.168526 -0.412137 -0.584 107 139 190
0.169638 -0.412137 -0.584 126 158 209
0.17075 -0.412137 -0.584 95 132 177
0.171863 -0.412137 -0.584 84 121 166
0.172975 -0.412137 -0.584 80 116 164
0.174088 -0.412137 -0.584 82 118 166
0.1752 -0.412137 -0.584 96 127 173
0.3105 -0.40014 -0.567 191 130 127
0.309382 -0.397317 -0.563 191 131 131
0.308249 -0.394494 -0.559 188 128 128
0.307653 -0.392377 -0.556 190 126 127
0.308712 -0.392377 -0.556 190 126 127
0.3081 -0.39026 -0.553 181 117 118
0.308594 -0.389554 -0.552 183 109 110
0.309085 -0.388849 -0.551 176 102 103
0.309571 -0.388143 -0.55 171 93 89
0.310054 -0.387437 -0.549 162 84 80
0.311667 -0.388143 -0.55 145 74 70
0.312714 -0.388143 -0.55 135 64 60
0.314332 -0.388849 -0.551 117 56 55
0.315954 -0.389554 -0.552 107 46 45
0.317006 -0.389554 -0.552 97 43 43
0.31921 -0.390966 -0.554 96 42 42
0.321421 -0.392377 -0.556 84 43 47
0.32306 -0.393083 -0.557 93 52 56
0.325285 -0.394494 -0.559 121 94 103
0.326933 -0.3952 -0.56 186 159 168
0.328586 -0.395906 -0.561 201 185 198
0.330242 -0.396611 -0.562 216 200 213
0.331312 -0.396611 -0.562 219 203 214
0.332383 -0.396611 -0.562 214 198 209
0.33286 -0.395906 -0.561 200 180 189
0.333333 -0.3952 -0.56 184 164 173
0.333206 -0.393789 -0.558 176 154 157
0.332471 -0.391671 -0.555 161 139 142
0.332327 -0.39026 -0.553 156 122 120
0.331571 -0.388143 -0.55 144 110 108
0.330805 -0.386026 -0.547 147 104 95
0.32942 -0.383203 -0.543 147 104 95
0.32802 -0.38038 -0.539 160 106 96
0.327826 -0.378969 -0.537 160 106 96
0.327011 -0.376851 -0.534 160 110 103
0.328029 -0.376851 -0.534 160 110 103
0.327813 -0.37544 -0.532 163 113 106
0.32759 -0.374029 -0.53 160 111 106
0.32736 -0.372617 -0.528 159 110 105
0.327122 -0.371206 -0.526 159 109 102
0.326876 -0.369794 -0.524 158 108 101
0.327249 -0.369089 -0.523 160 105 98
0.327617 -0.368383 -0.522 159 104 97
0.327982 -0.367677 -0.521 162 104 93
0.327711 -0.366266 -0.519 162 104 93
0.328067 -0.36556 -0.518 161 103 92
0.328418 -0.364854 -0.517 161 103 92
0.328129 -0.363443 -0.515 161 103 92
0.32847 -0.362737 -0.514 159 101 90
0.328809 -0.362031 -0.513 160 103 94
0.329143 -0.361326 -0.512 162 105 96
0.330118 -0.361326 -0.512 164 107 96
0.330447 -0.36062 -0.511 166 109 98
0.330771 -0.359914 -0.51 164 107 96
0.331092 -0.359209 -0.509 161 104 93
0.33141 -0.358503 -0.508 163 105 94
0.331723 -0.357797 -0.507 163 105 94
0.332689 -0.357797 -0.507 162 104 93
0.332996 -0.357091 -0.506 164 106 95
0.33396 -0.357091 -0.506 157 99 87
0.334924 -0.357091 -0.506 153 95 83
0.335224 -0.356386 -0.505 155 97 85
0.336186 -0.356386 -0.505 155 97 85
0.337148 -0.356386 -0.505 153 95 83
0.33811 -0.356386 -0.505 151 93 81
0.339071 -0.356386 -0.505 154 98 85
0.340033 -0.356386 -0.505 151 95 82
0.340995 -0.356386 -0.505 151 95 82
0.341957 -0.356386 -0.505 142 90 76
0.342919 -0.356386 -0.505 136 84 70
0.343881 -0.356386 -0.505 131 83 69
0.344843 -0.356386 -0.505 130 82 68
0.345805 -0.356386 -0.505 123 79 66
0.346767 -0.356386 -0.505 118 74 61
0.347729 -0.356386 -0.505 118 74 63
0.349381 -0.357091 -0.506 117 73 62
0.350345 -0.357091 -0.506 121 77 66
0.351309 -0.357091 -0.506 121 77 66
0.352272 -0.357091 -0.506 120 76 67
0.353236 -0.357091 -0.506 121 77 68
0.3549 -0.357797 -0.507 123 78 72
0.355866 -0.357797 -0.507 125 80 74
0.356831 -0.357797 -0.507 126 82 73
0.358503 -0.358503 -0.508 125 81 72
0.35947 -0.358503 -0.508 122 78 69
0.360438 -0.358503 -0.508 119 75 66
0.362117 -0.359209 -0.509 119 75 66
0.363087 -0.359209 -0.509 119 75 66
0.364771 -0.359914 -0.51 119 75 66
0.36646 -0.36062 -0.511 120 76 67
0.367433 -0.36062 -0.511 118 74 65
0.369128 -0.361326 -0.512 120 76 67
0.370826 -0.362031 -0.513 122 78 69
0.371803 -0.362031 -0.513 123 79 70
0.37278 -0.362031 -0.513 122 79 70
0.374486 -0.362737 -0.514 122 79 70
0.375465 -0.362737 -0.514 122 79 70
0.376444 -0.362737 -0.514 123 80 71
0.378157 -0.363443 -0.515 124 81 72
0.379138 -0.363443 -0.515 124 81 72
0.380857 -0.364149 -0.516 124 81 72
0.38184 -0.364149 -0.516 123 80 71
0.382823 -0.364149 -0.516 125 82 73
0.38455 -0.364854 -0.517 125 82 73
0.385534 -0.364854 -0.517 123 80 71
0.387267 -0.36556 -0.518 123 79 70
0.388253 -0.36556 -0.518 124 80 71
0.389991 -0.366266 -0.519 125 81 72
0.39098 -0.366266 -0.519 125 81 72
0.392724 -0.366971 -0.52 127 83 74
0.393714 -0.366971 -0.52 127 83 74
0.395464 -0.367677 -0.521 125 81 72
0.397217 -0.368383 -0.522 125 81 72
0.398211 -0.368383 -0.522 126 82 73
0.399206 -0.368383 -0.522 126 82 73
0.400967 -0.369089 -0.523 127 80 70
0.402731 -0.369794 -0.524 128 81 71
0.40373 -0.369794 -0.524 128 81 71
0.4055 -0.3705 -0.525 132 85 75
0.4065 -0.3705 -0.525 136 89 79
0.408276 -0.371206 -0.526 138 91 81
0.410056 -0.371911 -0.527 137 90 80
0.41184 -0.372617 -0.528 135 88 78
0.412846 -0.372617 -0.528 139 93 80
0.414635 -0.373323 -0.529 140 94 81
0.415643 -0.373323 -0.529 141 93 81
0.417438 -0.374029 -0.53 142 94 82
0.419237 -0.374734 -0.531 144 96 84
0.42104 -0.37544 -0.532 144 96 84
0.422847 -0.376146 -0.533 144 96 84
0.423862 -0.376146 -0.533 144 96 84
0.425674 -0.376851 -0.534 143 95 85
0.426691 -0.376851 -0.534 143 95 85
0.42851 -0.377557 -0.535 143 95 85
0.429529 -0.377557 -0.535 143 95 85
0.431352 -0.378263 -0.536 143 95 85
0.432373 -0.378263 -0.536 140 92 80
0.434203 -0.378969 -0.537 138 90 78
0.435226 -0.378969 -0.537 136 88 76
0.436249 -0.378969 -0.537 135 87 75
0.438086 -0.379674 -0.538 134 86 74
0.43911 -0.379674 -0.538 137 89 77
0.440135 -0.379674 -0.538 136 90 77
0.44116 -0.379674 -0.538 137 91 78
0.442185 -0.379674 -0.538 142 96 83
0.444033 -0.38038 -0.539 143 97 84
0.445886 -0.381086 -0.54 145 99 86
0.446914 -0.381086 -0.54 151 105 92
0.448772 -0.381791 -0.541 147 109 90
0.450634 -0.382497 -0.542 146 108 89
0.453333 -0.383909 -0.544 149 110 93
0.455205 -0.384614 -0.545 150 111 94
0.457917 -0.386026 -0.547 149 109 97
0.460637 -0.387437 -0.549 150 110 98
0.464206 -0.389554 -0.552 153 111 99
0.467786 -0.391671 -0.555 152 110 98
0.471377 -0.393789 -0.558 156 114 100
0.47498 -0.395906 -0.561 159 117 103
0.478594 -0.398023 -0.564 157 119 108
0.48222 -0.40014 -0.567 156 118 107
0.485857 -0.402257 -0.57 150 121 113
0.489741 -0.403669 -0.572 161 132 128
0.0478057 -0.399097 -0.564 204 158 135
0.04862 -0.396974 -0.561 203 157 134
0.0494229 -0.394851 -0.558 199 159 133
0.0503048 -0.393436 -0.556 197 159 136
0.0509943 -0.390606 -0.552 202 156 133
0.0517629 -0.388483 -0.549 202 156 133
0.05252 -0.38636 -0.546 204 158 134
0.0531676 -0.38353 -0.542 206 160 136
0.054 -0.382114 -0.54 203 162 140
0.0548248 -0.380699 -0.538 202 161 139
0.0556419 -0.379284 -0.536 205 160 137
0.0566629 -0.379284 -0.536 203 158 135
0.0575762 -0.378576 -0.535 200 158 133
0.0584857 -0.377869 -0.534 201 159 134
0.0595029 -0.377869 -0.534 205 161 134
0.0604067 -0.377161 -0.533 205 161 134
0.0614219 -0.377161 -0.533 207 161 135
0.0624371 -0.377161 -0.533 207 161 135
0.0633333 -0.376453 -0.532 205 159 133
0.0643467 -0.376453 -0.532 206 160 134
0.0652371 -0.375746 -0.531 207 163 136
0.0662486 -0.375746 -0.531 207 163 136
0.06726 -0.375746 -0.531 206 162 135
0.0682714 -0.375746 -0.531 206 162 135
0.0692829 -0.375746 -0.531 206 160 134
0.0702943 -0.375746 -0.531 205 159 133
0.0713057 -0.375746 -0.531 205 159 133
0.0723171 -0.375746 -0.531 204 158 132
0.0733286 -0.375746 -0.531 201 157 130
0.0742 -0.375038 -0.53 203 159 132
0.0752095 -0.375038 -0.53 203 157 133
0.076219 -0.375038 -0.53 203 157 133
0.0773743 -0.375746 -0.531 203 157 133
0.0783857 -0.375746 -0.531 200 154 130
0.0793971 -0.375746 -0.531 195 147 124
0.0804086 -0.375746 -0.531 191 143 120
0.08142 -0.375746 -0.531 192 142 119
0.0824314 -0.375746 -0.531 191 141 118
0.0836 -0.376453 -0.532 189 137 115
0.0847724 -0.377161 -0.533 189 137 115
0.0857876 -0.377161 -0.533 189 134 114
0.0869657 -0.377869 -0.534 186 131 111
0.0881476 -0.378576 -0.535 183 128 108
0.0891667 -0.378576 -0.535 181 126 106
0.0903543 -0.379284 -0.536 180 123 104
0.0915457 -0.379991 -0.537 177 120 101
0.0925686 -0.379991 -0.537 176 119 100
0.0937657 -0.380699 -0.538 178 121 102
0.0949667 -0.381407 -0.539 178 123 103
0.0961714 -0.382114 -0.54 174 119 99
0.09738 -0.382822 -0.541 169 116 98
0.0985924 -0.38353 -0.542 168 115 97
0.0999924 -0.384945 -0.544 164 112 98
0.101214 -0.385652 -0.545 160 108 94
0.10244 -0.38636 -0.546 155 107 95
0.10367 -0.387068 -0.547 155 107 95
0.104711 -0.387068 -0.547 153 105 95
0.105947 -0.387775 -0.548 151 103 93
0.107186 -0.388483 -0.549 150 103 95
0.108429 -0.38919 -0.55 148 101 93
0.109874 -0.390606 -0.552 144 99 93
0.111127 -0.391313 -0.553 144 99 93
0.112586 -0.392729 -0.555 142 100 88
0.113848 -0.393436 -0.556 140 98 86
0.11532 -0.394851 -0.558 135 96 89
0.1168 -0.396267 -0.56 133 94 87
0.118077 -0.396974 -0.561 130 95 91
0.11957 -0.39839 -0.563 129 94 90
0.121071 -0.399805 -0.565 126 92 90
0.136267 -0.41325 -0.584 47 52 81
0.137379 -0.41325 -0.584 43 48 77
0.138491 -0.41325 -0.584 46 50 77
0.139843 -0.413957 -0.585 49 53 80
0.140957 -0.413957 -0.585 50 51 79
0.142071 -0.413957 -0.585 47 48 76
0.14343 -0.414665 -0.586 46 50 79
0.1443 -0.413957 -0.585 49 53 82
0.145414 -0.413957 -0.585 62 66 95
0.146529 -0.413957 -0.585 100 104 133
0.147643 -0.413957 -0.585 132 134 157
0.148503 -0.41325 -0.584 141 143 166
0.149615 -0.41325 -0.584 149 147 161
0.150728 -0.41325 -0.584 150 148 162
0.15184 -0.41325 -0.584 150 148 162
0.152952 -0.41325 -0.584 156 149 156
0.154065 -0.41325 -0.584 160 153 160
0.155177 -0.41325 -0.584 162 159 168
0.15629 -0.41325 -0.584 160 157 166
0.157402 -0.41325 -0.584 107 106 112
0.158514 -0.41325 -0.584 122 121 127
0.159627 -0.41325 -0.584 112 118 140
0.160739 -0.41325 -0.584 98 104 126
0.161851 -0.41325 -0.584 75 97 138
0.162964 -0.41325 -0.584 79 101 142
0.164076 -0.41325 -0.584 89 120 164
0.165189 -0.41325 -0.584 103 134 178
0.166301 -0.41325 -0.584 110 139 183
0.309405 -0.399805 -0.565 190 130 129
0.308283 -0.396974 -0.561 192 132 132
0.307697 -0.394851 -0.558 190 130 130
0.306547 -0.392021 -0.554 191 129 132
0.307602 -0.392021 -0.554 191 129 132
0.307543 -0.390606 -0.552 183 121 124
0.307476 -0.38919 -0.55 184 114 114
0.307963 -0.388483 -0.549 176 106 106
0.308446 -0.387775 -0.548 171 96 91
0.30949 -0.387775 -0.548 164 89 84
0.310533 -0.387775 -0.548 154 81 74
0.311577 -0.387775 -0.548 145 72 65
0.313191 -0.388483 -0.549 129 66 61
0.31481 -0.38919 -0.55 118 55 50
0.316431 -0.389898 -0.551 104 48 47
0.318633 -0.391313 -0.553 101 45 44
0.321421 -0.393436 -0.556 86 45 51
0.32306 -0.394144 -0.557 88 47 53
0.325285 -0.395559 -0.559 123 103 115
0.328101 -0.397682 -0.562 201 181 193
0.329757 -0.39839 -0.563 211 204 222
0.331417 -0.399097 -0.564 226 219 237
0.333081 -0.399805 -0.565 227 218 235
0.334157 -0.399805 -0.565 217 208 225
0.335233 -0.399805 -0.565 209 195 208
0.335714 -0.399097 -0.564 199 185 198
0.335594 -0.397682 -0.562 190 177 184
0.336066 -0.396974 -0.561 179 166 173
0.335331 -0.394851 -0.558 175 155 156
0.334586 -0.392729 -0.555 161 141 142
0.333829 -0.390606 -0.552 155 124 121
0.33306 -0.388483 -0.549 139 108 105
0.33228 -0.38636 -0.546 154 109 104
0.331489 -0.384237 -0.543 154 109 104
0.330686 -0.382114 -0.54 157 109 105
0.331714 -0.382114 -0.54 157 109 105
0.330894 -0.379991 -0.537 159 111 107
0.330681 -0.378576 -0.535 158 109 104
0.33046 -0.377161 -0.533 155 106 101
0.330231 -0.375746 -0.531 154 104 97
0.329995 -0.37433 -0.529 151 101 94
0.329751 -0.372915 -0.527 154 99 92
0.330128 -0.372208 -0.526 154 99 92
0.32987 -0.370792 -0.524 158 101 92
0.330237 -0.370085 -0.523 157 100 91
0.329967 -0.36867 -0.521 156 99 88
0.329689 -0.367254 -0.519 156 99 88
0.33004 -0.366547 -0.518 158 100 89
0.329749 -0.365131 -0.516 158 100 89
0.330731 -0.365131 -0.516 156 102 92
0.330429 -0.363716 -0.514 157 103 93
0.330763 -0.363009 -0.513 158 104 94
0.331093 -0.362301 -0.512 160 106 96
0.33142 -0.361593 -0.511 160 106 96
0.331743 -0.360886 -0.51 158 104 94
0.332062 -0.360178 -0.509 160 103 94
0.332377 -0.35947 -0.508 160 103 94
0.332689 -0.358763 -0.507 160 103 92
0.333654 -0.358763 -0.507 161 104 93
0.33462 -0.358763 -0.507 154 97 86
0.334924 -0.358055 -0.506 151 94 83
0.335888 -0.358055 -0.506 153 96 85
0.336186 -0.357348 -0.505 152 95 84
0.337148 -0.357348 -0.505 149 91 80
0.33811 -0.357348 -0.505 144 86 75
0.339071 -0.357348 -0.505 139 90 76
0.340033 -0.357348 -0.505 138 89 75
0.340995 -0.357348 -0.505 138 89 75
0.341957 -0.357348 -0.505 133 85 73
0.342919 -0.357348 -0.505 128 80 68
0.343881 -0.357348 -0.505 126 79 69
0.344843 -0.357348 -0.505 125 78 68
0.345805 -0.357348 -0.505 120 76 65
0.346767 -0.357348 -0.505 116 72 61
0.348417 -0.358055 -0.506 117 73 62
0.349381 -0.358055 -0.506 117 73 62
0.350345 -0.358055 -0.506 121 77 64
0.351309 -0.358055 -0.506 121 77 64
0.352272 -0.358055 -0.506 120 76 65
0.353934 -0.358763 -0.507 121 77 66
0.3549 -0.358763 -0.507 122 79 70
0.356568 -0.35947 -0.508 125 82 73
0.357535 -0.35947 -0.508 125 81 72
0.358503 -0.35947 -0.508 125 81 72
0.360178 -0.360178 -0.509 121 77 68
0.361148 -0.360178 -0.509 117 73 64
0.362117 -0.360178 -0.509 118 74 65
0.3638 -0.360886 -0.51 119 75 66
0.365487 -0.361593 -0.511 118 74 65
0.36646 -0.361593 -0.511 119 75 66
0.368152 -0.362301 -0.512 118 74 65
0.369128 -0.362301 -0.512 120 76 67
0.370826 -0.363009 -0.513 123 79 70
0.371803 -0.363009 -0.513 123 79 70
0.373507 -0.363716 -0.514 122 79 70
0.374486 -0.363716 -0.514 121 78 69
0.375465 -0.363716 -0.514 121 78 69
0.377176 -0.364424 -0.515 122 79 70
0.378157 -0.364424 -0.515 123 80 71
0.379138 -0.364424 -0.515 123 80 71
0.380857 -0.365131 -0.516 123 80 71
0.38258 -0.365839 -0.517 123 80 71
0.383565 -0.365839 -0.517 124 81 72
0.38455 -0.365839 -0.517 124 81 72
0.385534 -0.365839 -0.517 122 79 70
0.387267 -0.366547 -0.518 122 78 69
0.388253 -0.366547 -0.518 122 78 69
0.389991 -0.367254 -0.519 123 79 70
0.39098 -0.367254 -0.519 125 81 72
0.392724 -0.367962 -0.52 128 84 75
0.393714 -0.367962 -0.52 128 84 75
0.395464 -0.36867 -0.521 128 81 73
0.397217 -0.369377 -0.522 127 80 72
0.398211 -0.369377 -0.522 128 81 73
0.399206 -0.369377 -0.522 128 81 73
0.400967 -0.370085 -0.523 128 81 71
0.401963 -0.370085 -0.523 129 82 72
0.40373 -0.370792 -0.524 127 80 70
0.4055 -0.3715 -0.525 129 82 72
0.4065 -0.3715 -0.525 134 87 77
0.4075 -0.3715 -0.525 136 89 79
0.409278 -0.372208 -0.526 136 89 79
0.41106 -0.372915 -0.527 135 88 78
0.412846 -0.373623 -0.528 137 90 80
0.414635 -0.37433 -0.529 138 91 81
0.415643 -0.37433 -0.529 140 92 80
0.417438 -0.375038 -0.53 141 93 81
0.419237 -0.375746 -0.531 143 95 83
0.42104 -0.376453 -0.532 144 96 84
0.422847 -0.377161 -0.533 143 95 83
0.423862 -0.377161 -0.533 143 95 83
0.424877 -0.377161 -0.533 143 95 85
0.426691 -0.377869 -0.534 143 95 85
0.42851 -0.378576 -0.535 143 95 85
0.429529 -0.378576 -0.535 143 95 85
0.430548 -0.378576 -0.535 143 95 85
0.432373 -0.379284 -0.536 141 93 81
0.433394 -0.379284 -0.536 138 90 78
0.435226 -0.379991 -0.537 136 88 76
0.436249 -0.379991 -0.537 135 87 75
0.437271 -0.379991 -0.537 134 86 74
0.43911 -0.380699 -0.538 137 89 77
0.439317 -0.379991 -0.537 136 90 77
0.44034 -0.379991 -0.537 137 91 78
0.441363 -0.379991 -0.537 143 97 84
0.44321 -0.380699 -0.538 146 100 87
0.44506 -0.381407 -0.539 149 103 90
0.446087 -0.381407 -0.539 154 108 95
0.447943 -0.382114 -0.54 151 108 92
0.449803 -0.382822 -0.541 149 106 90
0.450833 -0.382822 -0.541 151 109 95
0.453534 -0.384237 -0.543 151 109 95
0.456243 -0.385652 -0.545 151 109 97
0.45812 -0.38636 -0.546 152 110 98
0.461683 -0.388483 -0.549 150 108 94
0.465257 -0.390606 -0.552 152 110 96
0.468843 -0.392729 -0.555 154 111 95
0.47244 -0.394851 -0.558 161 118 102
0.476049 -0.396974 -0.561 158 116 102
0.479669 -0.399097 -0.564 160 118 104
0.4833 -0.40122 -0.567 161 127 118
0.486089 -0.402635 -0.569 157 123 114
0.489972 -0.40405 -0.571 166 131 127
0.0476362 -0.398752 -0.562 203 156 136
0.0484467 -0.396624 -0.559 202 155 135
0.0491571 -0.393786 -0.555 198 157 129
0.0500333 -0.392367 -0.553 200 160 134
0.0507171 -0.389529 -0.549 203 159 134
0.05148 -0.3874 -0.546 201 157 132
0.0522314 -0.385271 -0.543 203 161 137
0.0529714 -0.383143 -0.54 203 161 137
0.0538 -0.381724 -0.538 201 164 138
0.054621 -0.380305 -0.536 201 164 138
0.0555381 -0.379595 -0.535 206 160 137
0.0565571 -0.379595 -0.535 204 158 135
0.0574686 -0.378886 -0.534 201 159 135
0.0583762 -0.378176 -0.533 202 160 136
0.0593914 -0.378176 -0.533 204 160 135
0.0604067 -0.378176 -0.533 204 160 135
0.0613067 -0.377467 -0.532 206 160 136
0.06232 -0.377467 -0.532 206 160 136
0.0633333 -0.377467 -0.532 206 160 136
0.0642257 -0.376757 -0.531 207 161 137
0.0652371 -0.376757 -0.531 206 162 137
0.0662486 -0.376757 -0.531 205 161 136
0.06726 -0.376757 -0.531 204 160 133
0.0682714 -0.376757 -0.531 205 161 134
0.0692829 -0.376757 -0.531 205 159 133
0.0702943 -0.376757 -0.531 205 159 133
0.0713057 -0.376757 -0.531 205 159 133
0.0723171 -0.376757 -0.531 204 158 132
0.0733286 -0.376757 -0.531 202 158 131
0.0742 -0.376048 -0.53 203 159 132
0.0752095 -0.376048 -0.53 204 156 133
0.076219 -0.376048 -0.53 204 156 133
0.0772286 -0.376048 -0.53 203 157 133
0.0782381 -0.376048 -0.53 198 152 128
0.0792476 -0.376048 -0.53 192 144 121
0.0802571 -0.376048 -0.53 190 142 119
0.08142 -0.376757 -0.531 192 142 119
0.0824314 -0.376757 -0.531 189 139 116
0.0834429 -0.376757 -0.531 188 136 114
0.0846133 -0.377467 -0.532 186 134 112
0.0857876 -0.378176 -0.533 185 133 112
0.0869657 -0.378886 -0.534 182 130 109
0.0881476 -0.379595 -0.535 180 125 105
0.0891667 -0.379595 -0.535 178 123 103
0.0903543 -0.380305 -0.536 178 121 102
0.0915457 -0.381014 -0.537 177 120 101
0.0925686 -0.381014 -0.537 175 120 100
0.0937657 -0.381724 -0.538 176 121 101
0.0949667 -0.382433 -0.539 175 120 100
0.0961714 -0.383143 -0.54 172 117 97
0.09738 -0.383852 -0.541 167 114 96
0.0985924 -0.384562 -0.542 165 112 94
0.0998086 -0.385271 -0.543 159 110 96
0.101214 -0.38669 -0.545 157 108 94
0.102252 -0.38669 -0.545 154 106 94
0.10348 -0.3874 -0.546 153 105 93
0.104711 -0.38811 -0.547 151 104 94
0.105947 -0.388819 -0.548 149 102 92
0.107186 -0.389529 -0.549 145 101 92
0.108429 -0.390238 -0.55 144 100 91
0.109874 -0.391657 -0.552 143 100 94
0.111127 -0.392367 -0.553 143 100 94
0.112586 -0.393786 -0.555 138 100 91
0.114052 -0.395205 -0.557 136 98 89
0.11532 -0.395914 -0.558 132 97 91
0.1168 -0.397333 -0.56 130 95 89
0.118077 -0.398043 -0.561 128 93 89
0.11957 -0.399462 -0.563 126 91 87
0.121071 -0.400881 -0.565 124 91 86
0.136033 -0.413652 -0.583 57 62 91
0.137379 -0.414362 -0.584 66 71 100
0.138491 -0.414362 -0.584 65 69 94
0.139604 -0.414362 -0.584 56 60 85
0.140716 -0.414362 -0.584 54 56 81
0.142071 -0.415071 -0.585 49 51 76
0.143186 -0.415071 -0.585 51 55 84
0.1443 -0.415071 -0.585 50 54 83
0.145414 -0.415071 -0.585 62 67 96
0.146529 -0.415071 -0.585 91 96 125
0.14739 -0.414362 -0.584 112 114 137
0.148503 -0.414362 -0.584 130 132 155
0.149615 -0.414362 -0.584 150 148 161
0.150728 -0.414362 -0.584 150 148 161
0.15184 -0.414362 -0.584 154 152 165
0.152952 -0.414362 -0.584 162 155 162
0.153801 -0.413652 -0.583 162 155 162
0.154911 -0.413652 -0.583 144 141 148
0.156022 -0.413652 -0.583 145 142 149
0.157132 -0.413652 -0.583 133 132 138
0.158243 -0.413652 -0.583 157 156 162
0.159353 -0.413652 -0.583 130 138 161
0.160464 -0.413652 -0.583 107 115 138
0.161574 -0.413652 -0.583 82 105 147
0.162685 -0.413652 -0.583 95 118 160
0.163795 -0.413652 -0.583 113 144 188
0.164906 -0.413652 -0.583 129 160 204
0.166016 -0.413652 -0.583 119 146 189
0.167127 -0.413652 -0.583 125 152 195
0.168237 -0.413652 -0.583 143 167 211
0.169348 -0.413652 -0.583 148 172 216
0.170458 -0.413652 -0.583 141 166 206
0.171569 -0.413652 -0.583 128 153 193
0.172679 -0.413652 -0.583 100 129 171
0.17379 -0.413652 -0.583 104 133 175
0.1749 -0.413652 -0.583 134 156 193
0.17601 -0.413652 -0.583 168 190 227
0.308857 -0.400171 -0.564 188 128 128
0.307733 -0.397333 -0.56 192 132 134
0.306594 -0.394495 -0.556 191 131 133
0.30544 -0.391657 -0.552 191 129 132
0.306491 -0.391657 -0.552 191 129 132
0.306429 -0.390238 -0.55 185 123 126
0.306358 -0.388819 -0.548 185 117 116
0.306841 -0.38811 -0.547 178 110 109
0.307883 -0.38811 -0.547 177 104 98
0.30836 -0.3874 -0.546 170 97 91
0.3094 -0.3874 -0.546 161 87 78
0.311009 -0.38811 -0.547 153 79 70
0.31205 -0.38811 -0.547 138 71 65
0.314237 -0.389529 -0.549 126 59 53
0.315857 -0.390238 -0.55 110 50 49
0.318057 -0.391657 -0.552 105 45 44
0.320843 -0.393786 -0.555 90 47 54
0.32306 -0.395205 -0.557 92 49 56
0.325285 -0.396624 -0.559 121 104 120
0.328101 -0.398752 -0.562 196 179 195
0.330343 -0.400171 -0.564 209 209 233
0.332005 -0.400881 -0.565 226 226 250
0.33367 -0.40159 -0.566 227 224 245
0.33534 -0.4023 -0.567 234 231 252
0.33642 -0.4023 -0.567 223 212 226
0.3375 -0.4023 -0.567 214 203 217
0.337983 -0.40159 -0.566 204 194 203
0.338462 -0.400881 -0.565 196 186 195
0.338336 -0.399462 -0.563 187 177 185
0.338203 -0.398043 -0.561 168 158 166
0.337457 -0.395914 -0.558 155 138 146
0.3367 -0.393786 -0.555 136 119 127
0.335931 -0.391657 -0.552 145 112 119
0.335151 -0.389529 -0.549 145 112 119
0.33436 -0.3874 -0.546 150 110 111
0.3354 -0.3874 -0.546 150 110 111
0.334591 -0.385271 -0.543 151 111 112
0.333771 -0.383143 -0.54 156 107 102
0.33356 -0.381724 -0.538 151 102 97
0.333341 -0.380305 -0.536 151 97 87
0.333114 -0.378886 -0.534 149 95 85
0.33288 -0.377467 -0.532 148 94 84
0.332638 -0.376048 -0.53 148 94 84
0.332389 -0.374629 -0.528 147 92 85
0.332763 -0.373919 -0.527 147 92 85
0.3325 -0.3725 -0.525 148 93 86
0.33223 -0.371081 -0.523 149 94 87
0.331951 -0.369662 -0.521 151 97 87
0.331666 -0.368243 -0.519 154 100 90
0.332013 -0.367533 -0.518 156 102 92
0.331714 -0.366114 -0.516 157 103 93
0.331408 -0.364695 -0.514 156 102 92
0.33174 -0.363986 -0.513 157 103 93
0.332069 -0.363276 -0.512 157 103 93
0.332393 -0.362567 -0.511 156 102 92
0.332714 -0.361857 -0.51 157 103 93
0.333031 -0.361148 -0.509 157 103 93
0.333345 -0.360438 -0.508 159 102 91
0.334312 -0.360438 -0.508 160 103 92
0.33462 -0.359729 -0.507 153 96 87
0.335586 -0.359729 -0.507 149 92 83
0.336551 -0.359729 -0.507 149 92 81
0.336851 -0.359019 -0.506 147 90 79
0.337815 -0.359019 -0.506 143 86 75
0.338779 -0.359019 -0.506 138 81 70
0.339743 -0.359019 -0.506 128 82 69
0.340707 -0.359019 -0.506 127 81 68
0.34167 -0.359019 -0.506 127 81 68
0.342634 -0.359019 -0.506 123 79 68
0.343598 -0.359019 -0.506 119 75 64
0.344562 -0.359019 -0.506 117 73 64
0.345526 -0.359019 -0.506 117 73 64
0.34649 -0.359019 -0.506 118 71 61
0.347453 -0.359019 -0.506 116 69 59
0.348417 -0.359019 -0.506 117 70 60
0.349381 -0.359019 -0.506 119 72 62
