ply
format ascii 1.0
comment Created by Open3D
element vertex 1296
property double x
property double y
property double z
property uchar red
property uchar green
property uchar blue
end_header
0.102153 -0.4697 -0.539 135 139 150
0.10318 -0.4697 -0.539 136 140 151
0.104013 -0.468829 -0.538 131 140 155
0.105038 -0.468829 -0.538 128 137 152
0.105866 -0.467957 -0.537 124 140 155
0.106889 -0.467957 -0.537 125 141 156
0.107911 -0.467957 -0.537 135 152 168
0.108731 -0.467086 -0.536 140 157 173
0.109752 -0.467086 -0.536 144 166 190
0.110773 -0.467086 -0.536 137 159 183
0.112003 -0.467957 -0.537 115 152 197
0.113026 -0.467957 -0.537 87 124 169
0.114049 -0.467957 -0.537 50 94 159
0.115071 -0.467957 -0.537 36 77 143
0.116094 -0.467957 -0.537 37 74 145
0.117117 -0.467957 -0.537 37 74 145
0.11814 -0.467957 -0.537 41 78 149
0.119163 -0.467957 -0.537 44 77 148
0.120186 -0.467957 -0.537 46 79 150
0.121209 -0.467957 -0.537 47 82 148
0.122231 -0.467957 -0.537 50 85 151
0.123254 -0.467957 -0.537 53 91 153
0.124277 -0.467957 -0.537 60 98 160
0.1253 -0.467957 -0.537 91 126 184
0.126323 -0.467957 -0.537 123 158 216
0.127346 -0.467957 -0.537 139 171 209
0.128369 -0.467957 -0.537 144 176 214
0.129391 -0.467957 -0.537 159 183 211
0.130414 -0.467957 -0.537 163 187 215
0.131437 -0.467957 -0.537 166 183 203
0.13246 -0.467957 -0.537 171 188 208
0.133483 -0.467957 -0.537 176 189 208
0.134506 -0.467957 -0.537 184 197 216
0.135529 -0.467957 -0.537 206 218 234
0.136551 -0.467957 -0.537 214 226 242
0.137574 -0.467957 -0.537 221 227 241
0.138597 -0.467957 -0.537 221 227 241
0.13962 -0.467957 -0.537 214 222 235
0.140643 -0.467957 -0.537 205 213 226
0.141666 -0.467957 -0.537 204 217 233
0.142689 -0.467957 -0.537 178 191 207
0.201366 -0.468829 -0.538 222 237 255
0.20239 -0.468829 -0.538 229 237 250
0.213033 -0.4697 -0.539 135 178 229
0.21406 -0.4697 -0.539 130 173 224
0.215087 -0.4697 -0.539 110 161 218
0.216113 -0.4697 -0.539 93 144 201
0.21714 -0.4697 -0.539 74 128 190
0.218571 -0.470571 -0.54 83 137 199
0.2196 -0.470571 -0.54 109 159 220
0.220629 -0.470571 -0.54 126 176 237
0.221657 -0.470571 -0.54 135 181 233
0.223098 -0.471443 -0.541 143 189 241
0.224129 -0.471443 -0.541 136 179 222
0.225159 -0.471443 -0.541 119 162 205
0.22619 -0.471443 -0.541 127 162 200
0.22722 -0.471443 -0.541 190 225 255
0.228672 -0.472314 -0.542 211 227 250
0.229705 -0.472314 -0.542 215 231 254
0.230737 -0.472314 -0.542 228 235 251
0.23177 -0.472314 -0.542 228 235 251
0.233231 -0.473186 -0.543 232 236 248
0.234266 -0.473186 -0.543 233 237 249
0.2353 -0.473186 -0.543 220 232 248
0.23677 -0.474057 -0.544 214 226 242
0.237806 -0.474057 -0.544 208 224 239
0.238842 -0.474057 -0.544 200 216 231
0.239878 -0.474057 -0.544 202 218 233
0.240914 -0.474057 -0.544 204 220 235
0.24195 -0.474057 -0.544 204 226 250
0.242987 -0.474057 -0.544 196 218 242
0.244023 -0.474057 -0.544 175 204 244
0.245059 -0.474057 -0.544 146 175 215
0.245643 -0.473186 -0.543 95 136 198
0.246677 -0.473186 -0.543 95 136 198
0.247711 -0.473186 -0.543 75 116 178
0.248746 -0.473186 -0.543 64 102 167
0.24978 -0.473186 -0.543 69 107 172
0.250814 -0.473186 -0.543 63 97 168
0.251849 -0.473186 -0.543 68 102 173
0.252883 -0.473186 -0.543 67 104 175
0.253917 -0.473186 -0.543 67 104 175
0.254951 -0.473186 -0.543 69 110 176
0.255986 -0.473186 -0.543 87 128 194
0.257493 -0.474057 -0.544 133 170 222
0.25853 -0.474057 -0.544 163 200 252
0.259566 -0.474057 -0.544 190 216 243
0.260602 -0.474057 -0.544 201 227 254
0.261638 -0.474057 -0.544 209 222 230
0.262674 -0.474057 -0.544 207 220 228
0.264195 -0.474929 -0.545 205 217 233
0.265233 -0.474929 -0.545 209 221 237
0.266271 -0.474929 -0.545 216 225 240
0.26731 -0.474929 -0.545 220 229 244
0.268348 -0.474929 -0.545 224 230 242
0.269386 -0.474929 -0.545 224 230 242
0.270424 -0.474929 -0.545 223 229 241
0.271462 -0.474929 -0.545 223 229 241
0.272 -0.474057 -0.544 215 228 245
0.273036 -0.474057 -0.544 212 225 242
0.274072 -0.474057 -0.544 193 219 246
0.275109 -0.474057 -0.544 139 165 192
0.276145 -0.474057 -0.544 124 159 197
0.276671 -0.473186 -0.543 134 169 207
0.277706 -0.473186 -0.543 137 180 223
0.27874 -0.473186 -0.543 135 178 221
0.279774 -0.473186 -0.543 133 171 218
0.280291 -0.472314 -0.542 114 152 199
0.281324 -0.472314 -0.542 83 133 186
0.282356 -0.472314 -0.542 77 127 180
0.283389 -0.472314 -0.542 85 137 194
0.284421 -0.472314 -0.542 101 153 210
0.284927 -0.471443 -0.541 124 170 219
0.285957 -0.471443 -0.541 135 181 230
0.287518 -0.472314 -0.542 135 177 217
0.28855 -0.472314 -0.542 126 168 208
0.289583 -0.472314 -0.542 122 160 196
0.290079 -0.471443 -0.541 131 169 205
0.29111 -0.471443 -0.541 131 169 205
0.29214 -0.471443 -0.541 192 218 243
0.29317 -0.471443 -0.541 200 226 251
0.294201 -0.471443 -0.541 214 227 236
0.31849 -0.472314 -0.542 66 115 182
0.319522 -0.472314 -0.542 89 134 193
0.320554 -0.472314 -0.542 131 176 235
0.321587 -0.472314 -0.542 170 199 231
0.322619 -0.472314 -0.542 189 218 250
0.323651 -0.472314 -0.542 211 227 243
0.325283 -0.473186 -0.543 208 224 240
0.326317 -0.473186 -0.543 209 221 235
0.327351 -0.473186 -0.543 212 224 238
0.328386 -0.473186 -0.543 210 229 236
0.32942 -0.473186 -0.543 211 230 237
0.330454 -0.473186 -0.543 215 227 249
0.331489 -0.473186 -0.543 216 228 250
0.332523 -0.473186 -0.543 220 229 244
0.333557 -0.473186 -0.543 217 226 241
0.334591 -0.473186 -0.543 217 226 241
0.335626 -0.473186 -0.543 216 226 238
0.33666 -0.473186 -0.543 213 223 235
0.337694 -0.473186 -0.543 201 222 241
0.338729 -0.473186 -0.543 162 183 202
0.339763 -0.473186 -0.543 125 160 192
0.340797 -0.473186 -0.543 127 162 194
0.341831 -0.473186 -0.543 127 172 214
0.342866 -0.473186 -0.543 130 175 217
0.3439 -0.473186 -0.543 123 167 212
0.344934 -0.473186 -0.543 95 139 184
0.346606 -0.474057 -0.544 89 130 174
0.347642 -0.474057 -0.544 104 145 189
0.348678 -0.474057 -0.544 121 168 212
0.349714 -0.474057 -0.544 128 175 219
0.35075 -0.474057 -0.544 135 177 219
0.352433 -0.474929 -0.545 128 170 212
0.353471 -0.474929 -0.545 123 153 187
0.35451 -0.474929 -0.545 123 153 187
0.355548 -0.474929 -0.545 183 201 221
0.356586 -0.474929 -0.545 206 224 244
0.357624 -0.474929 -0.545 212 225 234
0.358662 -0.474929 -0.545 215 228 237
0.3597 -0.474929 -0.545 218 228 238
0.360738 -0.474929 -0.545 218 228 238
0.361776 -0.474929 -0.545 219 228 245
0.362814 -0.474929 -0.545 218 227 244
0.363852 -0.474929 -0.545 216 222 244
0.36489 -0.474929 -0.545 214 220 242
0.365929 -0.474929 -0.545 211 217 231
0.366967 -0.474929 -0.545 212 218 232
0.368005 -0.474929 -0.545 216 223 231
0.369043 -0.474929 -0.545 211 218 226
0.370081 -0.474929 -0.545 183 204 223
0.371119 -0.474929 -0.545 163 184 203
0.372157 -0.474929 -0.545 113 154 200
0.37251 -0.474057 -0.544 74 115 161
0.373547 -0.474057 -0.544 58 105 173
0.374583 -0.474057 -0.544 53 100 168
0.375619 -0.474057 -0.544 52 95 164
0.376655 -0.474057 -0.544 60 103 172
0.378386 -0.474929 -0.545 53 93 162
0.379424 -0.474929 -0.545 53 93 162
0.380462 -0.474929 -0.545 53 93 162
0.3815 -0.474929 -0.545 55 102 172
0.382538 -0.474929 -0.545 61 108 178
0.383576 -0.474929 -0.545 79 125 185
0.384614 -0.474929 -0.545 125 171 231
0.385652 -0.474929 -0.545 164 191 212
0.38669 -0.474929 -0.545 187 214 235
0.387729 -0.474929 -0.545 211 220 229
0.388767 -0.474929 -0.545 213 222 231
0.389805 -0.474929 -0.545 210 219 236
0.390843 -0.474929 -0.545 210 219 236
0.391881 -0.474929 -0.545 210 225 232
0.392919 -0.474929 -0.545 211 226 233
0.393957 -0.474929 -0.545 216 226 236
0.394995 -0.474929 -0.545 217 227 237
0.396033 -0.474929 -0.545 219 225 247
0.397071 -0.474929 -0.545 218 224 246
0.39811 -0.474929 -0.545 209 225 238
0.399148 -0.474929 -0.545 208 224 237
0.400186 -0.474929 -0.545 199 216 232
0.401224 -0.474929 -0.545 156 173 189
0.402262 -0.474929 -0.545 122 160 199
0.4033 -0.474929 -0.545 123 161 200
0.404338 -0.474929 -0.545 127 169 211
0.40612 -0.4758 -0.546 124 166 208
0.40716 -0.4758 -0.546 123 161 200
0.4082 -0.4758 -0.546 109 147 186
0.40924 -0.4758 -0.546 84 129 186
0.41028 -0.4758 -0.546 75 120 177
0.41132 -0.4758 -0.546 83 132 191
0.41236 -0.4758 -0.546 97 146 205
0.4134 -0.4758 -0.546 120 160 211
0.415199 -0.476671 -0.547 124 164 215
0.416241 -0.476671 -0.547 133 166 219
0.417283 -0.476671 -0.547 126 159 212
0.418325 -0.476671 -0.547 117 159 197
0.419367 -0.476671 -0.547 125 167 205
0.420409 -0.476671 -0.547 186 207 228
0.42145 -0.476671 -0.547 198 219 240
0.422492 -0.476671 -0.547 214 218 227
0.423534 -0.476671 -0.547 216 220 229
0.424576 -0.476671 -0.547 217 224 234
0.425618 -0.476671 -0.547 218 225 235
0.42744 -0.477543 -0.548 212 224 238
0.428484 -0.477543 -0.548 212 224 238
0.429528 -0.477543 -0.548 211 223 237
0.430571 -0.477543 -0.548 212 222 232
0.431615 -0.477543 -0.548 209 219 229
0.432659 -0.477543 -0.548 206 214 225
0.433703 -0.477543 -0.548 210 218 229
0.434747 -0.477543 -0.548 209 223 236
0.436586 -0.478414 -0.549 201 215 228
0.437631 -0.478414 -0.549 165 186 213
0.438677 -0.478414 -0.549 143 164 191
0.438922 -0.477543 -0.548 92 131 188
0.439966 -0.477543 -0.548 66 105 162
0.44101 -0.477543 -0.548 58 96 161
0.442053 -0.477543 -0.548 55 93 158
0.443097 -0.477543 -0.548 54 89 153
0.444141 -0.477543 -0.548 56 91 155
0.445185 -0.477543 -0.548 57 92 156
0.446229 -0.477543 -0.548 56 91 155
0.447272 -0.477543 -0.548 56 95 160
0.449134 -0.478414 -0.549 61 100 165
0.45018 -0.478414 -0.549 97 136 191
0.451226 -0.478414 -0.549 132 171 226
0.452271 -0.478414 -0.549 161 185 209
0.453317 -0.478414 -0.549 180 204 228
0.454363 -0.478414 -0.549 205 215 227
0.455409 -0.478414 -0.549 199 209 221
0.457286 -0.479286 -0.55 197 206 215
0.458333 -0.479286 -0.55 199 208 217
0.459381 -0.479286 -0.55 199 209 218
0.460429 -0.479286 -0.55 198 208 217
0.460637 -0.478414 -0.549 198 210 222
0.461683 -0.478414 -0.549 197 209 221
0.463571 -0.479286 -0.55 201 210 219
0.464619 -0.479286 -0.55 197 206 215
0.465667 -0.479286 -0.55 196 200 209
0.466714 -0.479286 -0.55 189 193 202
0.467762 -0.479286 -0.55 165 181 204
0.46881 -0.479286 -0.55 115 131 154
0.469857 -0.479286 -0.55 99 132 173
0.470905 -0.479286 -0.55 97 130 171
0.47281 -0.480157 -0.551 110 132 192
0.47386 -0.480157 -0.551 101 123 183
0.47491 -0.480157 -0.551 79 116 168
0.475959 -0.480157 -0.551 68 105 157
0.477009 -0.480157 -0.551 56 98 158
0.478058 -0.480157 -0.551 41 83 143
0.479108 -0.480157 -0.551 46 85 144
0.480157 -0.480157 -0.551 58 99 151
0.481207 -0.480157 -0.551 73 115 157
0.482256 -0.480157 -0.551 82 124 166
0.483306 -0.480157 -0.551 80 118 167
0.484355 -0.480157 -0.551 76 114 163
0.485405 -0.480157 -0.551 76 114 163
0.486454 -0.480157 -0.551 83 111 158
0.487504 -0.480157 -0.551 87 115 162
0.488553 -0.480157 -0.551 136 154 178
0.489603 -0.480157 -0.551 152 170 194
0.490652 -0.480157 -0.551 159 163 172
0.491702 -0.480157 -0.551 160 164 173
0.491857 -0.479286 -0.55 161 164 169
0.492009 -0.478414 -0.549 163 166 171
0.492156 -0.477543 -0.548 159 157 160
0.482957 -0.462729 -0.531 131 110 105
0.479411 -0.458371 -0.526 135 114 109
0.473107 -0.4514 -0.518 138 113 106
0.469517 -0.447043 -0.513 139 114 107
0.466826 -0.443557 -0.509 143 116 109
0.464119 -0.440071 -0.505 144 117 110
0.462318 -0.437457 -0.502 148 120 116
0.460506 -0.434843 -0.499 146 118 114
0.458682 -0.432229 -0.496 142 117 112
0.456847 -0.429614 -0.493 144 119 114
0.455929 -0.427871 -0.491 141 118 112
0.455003 -0.426129 -0.489 134 111 105
0.453137 -0.423514 -0.486 106 87 83
0.452194 -0.421771 -0.484 79 60 56
0.45218 -0.4209 -0.483 58 44 43
0.451224 -0.419157 -0.481 44 30 29
0.45026 -0.417414 -0.479 32 26 28
0.45023 -0.416543 -0.478 31 25 27
0.449253 -0.4148 -0.476 23 22 27
0.449214 -0.413929 -0.475 23 22 27
0.448224 -0.412186 -0.473 22 22 30
0.448175 -0.411314 -0.472 21 21 29
0.448123 -0.410443 -0.471 24 22 27
0.448067 -0.409571 -0.47 25 23 28
0.448007 -0.4087 -0.469 26 24 29
0.447943 -0.407829 -0.468 28 26 31
0.447875 -0.406957 -0.467 29 27 32
0.448765 -0.406957 -0.467 29 27 32
0.448691 -0.406086 -0.466 27 25 30
0.448614 -0.405214 -0.465 28 26 31
0.448533 -0.404343 -0.464 25 23 28
0.448449 -0.403471 -0.463 25 23 28
0.44933 -0.403471 -0.463 24 22 27
0.44924 -0.4026 -0.462 24 22 27
0.45012 -0.4026 -0.462 24 22 27
0.450024 -0.401729 -0.461 25 23 28
0.449924 -0.400857 -0.46 25 23 28
0.4508 -0.400857 -0.46 26 24 29
0.450694 -0.399986 -0.459 26 25 30
0.451569 -0.399986 -0.459 24 23 28
0.451457 -0.399114 -0.458 26 25 30
0.45233 -0.399114 -0.458 27 26 31
0.452212 -0.398243 -0.457 25 24 29
0.453083 -0.398243 -0.457 25 24 29
0.45296 -0.397371 -0.456 24 23 28
0.453829 -0.397371 -0.456 25 24 29
0.454697 -0.397371 -0.456 25 24 29
0.454567 -0.3965 -0.455 24 23 28
0.454432 -0.395629 -0.454 26 25 30
0.455297 -0.395629 -0.454 25 24 29
0.455157 -0.394757 -0.453 22 21 26
0.45602 -0.394757 -0.453 25 24 29
0.455874 -0.393886 -0.452 25 26 30
0.455725 -0.393014 -0.451 21 22 26
0.455571 -0.392143 -0.45 23 23 25
0.456429 -0.392143 -0.45 21 21 23
0.45627 -0.391271 -0.449 22 22 24
0.457125 -0.391271 -0.449 23 23 25
0.45696 -0.3904 -0.448 23 23 25
0.456791 -0.389529 -0.447 24 24 26
0.457643 -0.389529 -0.447 24 23 28
0.457469 -0.388657 -0.446 25 24 29
0.458318 -0.388657 -0.446 24 23 28
0.459168 -0.388657 -0.446 24 23 28
0.458986 -0.387786 -0.445 26 25 30
0.459833 -0.387786 -0.445 29 28 33
0.460681 -0.387786 -0.445 21 20 26
0.461529 -0.387786 -0.445 28 27 33
0.461337 -0.386914 -0.444 24 23 29
0.462183 -0.386914 -0.444 24 23 29
0.463029 -0.386914 -0.444 24 23 29
0.463874 -0.386914 -0.444 25 24 30
0.463673 -0.386043 -0.443 24 23 29
0.464517 -0.386043 -0.443 26 25 30
0.46431 -0.385171 -0.442 24 23 28
0.465152 -0.385171 -0.442 25 24 29
0.46494 -0.3843 -0.441 28 27 32
0.46578 -0.3843 -0.441 26 25 30
0.46662 -0.3843 -0.441 29 28 33
0.46746 -0.3843 -0.441 28 27 32
0.4683 -0.3843 -0.441 24 23 28
0.46914 -0.3843 -0.441 25 24 29
0.46998 -0.3843 -0.441 27 26 31
0.469752 -0.383429 -0.44 25 24 29
0.47059 -0.383429 -0.44 26 25 30
0.471429 -0.383429 -0.44 27 26 31
0.472267 -0.383429 -0.44 25 24 29
0.473105 -0.383429 -0.44 24 23 29
0.473943 -0.383429 -0.44 26 25 31
0.474781 -0.383429 -0.44 29 28 34
0.475619 -0.383429 -0.44 29 28 34
0.476457 -0.383429 -0.44 39 38 44
0.477295 -0.383429 -0.44 34 33 39
0.478133 -0.383429 -0.44 26 25 31
0.478971 -0.383429 -0.44 30 29 35
0.47981 -0.383429 -0.44 29 28 34
0.480648 -0.383429 -0.44 27 26 32
0.481486 -0.383429 -0.44 29 28 34
0.482324 -0.383429 -0.44 26 25 31
0.483162 -0.383429 -0.44 25 24 30
0.484 -0.383429 -0.44 28 27 33
0.48594 -0.3843 -0.441 27 26 32
0.48678 -0.3843 -0.441 28 27 33
0.48762 -0.3843 -0.441 26 27 31
0.48846 -0.3843 -0.441 24 25 29
0.4893 -0.3843 -0.441 30 31 35
0.491251 -0.385171 -0.442 25 26 30
0.493207 -0.386043 -0.443 28 29 33
0.492935 -0.385171 -0.442 27 28 32
0.494894 -0.386043 -0.443 27 28 32
0.496857 -0.386914 -0.444 28 29 33
0.498824 -0.387786 -0.445 26 27 31
0.501917 -0.389529 -0.447 30 31 35
0.506143 -0.392143 -0.45 31 32 36
0.509253 -0.393886 -0.452 34 35 39
0.892791 -0.488871 -0.561 205 208 191
0.89386 -0.488871 -0.561 205 208 191
0.896524 -0.489743 -0.562 205 208 191
0.897594 -0.489743 -0.562 205 208 191
0.898665 -0.489743 -0.562 207 210 193
0.901336 -0.490614 -0.563 206 209 192
0.904011 -0.491486 -0.564 205 208 191
0.905086 -0.491486 -0.564 204 207 190
0.904553 -0.490614 -0.563 203 206 189
0.905626 -0.490614 -0.563 204 207 190
0.905088 -0.489743 -0.562 205 208 191
0.906158 -0.489743 -0.562 206 209 192
0.905614 -0.488871 -0.561 202 206 191
0.925427 -0.489743 -0.562 203 206 189
0.928146 -0.490614 -0.563 203 206 189
0.929218 -0.490614 -0.563 204 207 190
0.930291 -0.490614 -0.563 204 207 190
0.929709 -0.489743 -0.562 204 207 190
0.930779 -0.489743 -0.562 203 205 191
-0.0083381 -0.449767 -0.515 190 146 117
-0.00732857 -0.44802 -0.513 186 147 116
-0.00627714 -0.44278 -0.507 179 144 116
-0.00528 -0.44016 -0.504 180 145 117
-0.00429429 -0.43754 -0.501 189 148 118
-0.00332667 -0.435793 -0.499 191 150 120
-0.00236667 -0.434047 -0.497 192 151 121
-0.00141429 -0.4323 -0.495 193 152 122
-0.000469524 -0.430553 -0.493 195 154 124
0.000468571 -0.42968 -0.492 194 153 123
0.00140286 -0.428807 -0.491 192 151 121
0.00233333 -0.427933 -0.49 192 151 121
0.00326667 -0.427933 -0.49 193 150 118
0.00419143 -0.42706 -0.489 193 150 118
0.00512286 -0.42706 -0.489 192 149 117
0.0060419 -0.426187 -0.488 192 149 117
0.00697143 -0.426187 -0.488 192 149 117
0.00790095 -0.426187 -0.488 193 150 118
0.00883048 -0.426187 -0.488 196 153 119
0.00976 -0.426187 -0.488 198 155 121
0.0106895 -0.426187 -0.488 199 156 124
0.011619 -0.426187 -0.488 199 156 124
0.0125486 -0.426187 -0.488 198 155 123
0.0134781 -0.426187 -0.488 194 151 119
0.0144076 -0.426187 -0.488 192 147 116
0.0153371 -0.426187 -0.488 191 146 115
0.0162667 -0.426187 -0.488 193 148 115
0.0171962 -0.426187 -0.488 195 150 117
0.0181257 -0.426187 -0.488 195 150 117
0.0190552 -0.426187 -0.488 193 148 115
0.0200257 -0.42706 -0.489 194 149 116
0.0209571 -0.42706 -0.489 196 151 118
0.0218886 -0.42706 -0.489 198 154 119
0.02282 -0.42706 -0.489 196 152 117
0.0238 -0.427933 -0.49 193 149 114
0.0247333 -0.427933 -0.49 192 148 113
0.0256667 -0.427933 -0.49 194 151 117
0.0266 -0.427933 -0.49 196 153 119
0.0275333 -0.427933 -0.49 195 152 118
0.0284667 -0.427933 -0.49 196 153 119
0.0294 -0.427933 -0.49 197 152 119
0.0303333 -0.427933 -0.49 195 150 117
0.0312667 -0.427933 -0.49 196 151 118
0.0322 -0.427933 -0.49 197 152 119
0.0331333 -0.427933 -0.49 198 153 120
0.0340667 -0.427933 -0.49 200 155 122
0.0350714 -0.428807 -0.491 201 156 125
0.0360067 -0.428807 -0.491 200 155 124
0.0369419 -0.428807 -0.491 199 154 123
0.0378771 -0.428807 -0.491 195 150 119
0.0388124 -0.428807 -0.491 192 147 116
0.0397476 -0.428807 -0.491 192 147 116
0.0406829 -0.428807 -0.491 196 149 121
0.0416181 -0.428807 -0.491 197 150 122
0.0425533 -0.428807 -0.491 193 148 119
0.0434886 -0.428807 -0.491 191 146 117
0.0444238 -0.428807 -0.491 194 149 120
0.045359 -0.428807 -0.491 195 150 121
0.0463886 -0.42968 -0.492 195 150 121
0.0473257 -0.42968 -0.492 193 148 119
0.0482629 -0.42968 -0.492 193 148 119
0.0493 -0.430553 -0.493 193 148 119
0.050341 -0.431427 -0.494 191 145 119
0.0512819 -0.431427 -0.494 188 142 116
0.0523286 -0.4323 -0.495 184 138 112
0.0532714 -0.4323 -0.495 183 137 111
0.0543238 -0.433173 -0.496 185 139 113
0.05538 -0.434047 -0.497 185 139 113
0.0563267 -0.434047 -0.497 182 137 114
0.0573886 -0.43492 -0.498 182 137 114
0.0583371 -0.43492 -0.498 180 135 112
0.0594048 -0.435793 -0.499 178 133 110
0.0604762 -0.436667 -0.5 178 133 110
0.0615514 -0.43754 -0.501 177 132 109
0.0626305 -0.438413 -0.502 170 128 106
0.0635867 -0.438413 -0.502 164 122 100
0.0646714 -0.439287 -0.503 165 122 103
0.06576 -0.44016 -0.504 164 121 102
0.0668524 -0.441033 -0.505 161 118 101
0.0679486 -0.441907 -0.506 158 115 98
0.0690486 -0.44278 -0.507 154 113 95
0.0702905 -0.444527 -0.509 151 110 92
0.0714 -0.4454 -0.51 147 105 89
0.0725133 -0.446273 -0.511 144 102 86
0.0736305 -0.447147 -0.512 137 101 85
0.0747514 -0.44802 -0.513 134 98 82
0.0760238 -0.449767 -0.515 129 97 84
0.0773038 -0.451513 -0.517 125 93 80
0.07844 -0.452387 -0.518 116 89 80
0.0901857 -0.467233 -0.535 93 79 78
0.0915457 -0.46898 -0.537 94 80 79
0.092741 -0.469853 -0.538 94 80 79
0.09394 -0.470727 -0.539 92 81 77
0.0951429 -0.4716 -0.54 90 79 75
0.0961714 -0.4716 -0.54 90 79 77
0.0972 -0.4716 -0.54 94 83 81
0.0982286 -0.4716 -0.54 99 91 89
0.0990733 -0.470727 -0.539 117 109 107
0.1001 -0.470727 -0.539 128 126 127
0.101127 -0.470727 -0.539 138 136 137
0.101964 -0.469853 -0.538 144 149 153
0.102989 -0.469853 -0.538 149 154 158
0.104013 -0.469853 -0.538 151 160 169
0.104843 -0.46898 -0.537 149 158 167
0.105866 -0.46898 -0.537 152 162 172
0.10669 -0.468107 -0.536 150 160 170
0.10771 -0.468107 -0.536 161 171 181
0.108731 -0.468107 -0.536 163 173 183
0.109752 -0.468107 -0.536 159 177 197
0.110773 -0.468107 -0.536 145 163 183
0.111794 -0.468107 -0.536 113 150 194
0.112815 -0.468107 -0.536 85 122 166
0.113836 -0.468107 -0.536 51 96 161
0.115071 -0.46898 -0.537 50 94 159
0.116094 -0.46898 -0.537 36 80 145
0.117117 -0.46898 -0.537 36 73 143
0.11814 -0.46898 -0.537 39 76 146
0.119163 -0.46898 -0.537 44 77 146
0.120186 -0.46898 -0.537 48 81 150
0.121209 -0.46898 -0.537 46 85 152
0.122231 -0.46898 -0.537 48 87 154
0.123254 -0.46898 -0.537 58 98 160
0.124046 -0.468107 -0.536 79 119 181
0.125067 -0.468107 -0.536 123 158 212
0.126088 -0.468107 -0.536 151 186 240
0.127109 -0.468107 -0.536 177 201 227
0.12813 -0.468107 -0.536 183 207 233
0.12915 -0.468107 -0.536 189 202 219
0.130171 -0.468107 -0.536 187 200 217
0.131192 -0.468107 -0.536 193 200 210
0.132213 -0.468107 -0.536 203 210 220
0.133234 -0.468107 -0.536 210 218 229
0.134255 -0.468107 -0.536 213 221 232
0.135276 -0.468107 -0.536 215 223 236
0.136297 -0.468107 -0.536 217 225 238
0.137318 -0.468107 -0.536 222 228 240
0.138339 -0.468107 -0.536 221 227 239
0.13936 -0.468107 -0.536 219 225 237
0.140643 -0.46898 -0.537 212 218 230
0.141402 -0.468107 -0.536 208 218 230
0.142423 -0.468107 -0.536 171 181 193
0.143444 -0.468107 -0.536 118 156 201
0.144465 -0.468107 -0.536 127 165 210
0.145486 -0.468107 -0.536 140 177 221
0.146507 -0.468107 -0.536 145 182 226
0.147528 -0.468107 -0.536 136 177 223
0.148549 -0.468107 -0.536 126 167 213
0.14957 -0.468107 -0.536 103 153 206
0.15059 -0.468107 -0.536 83 133 186
0.151611 -0.468107 -0.536 83 135 192
0.152632 -0.468107 -0.536 91 143 200
0.153653 -0.468107 -0.536 107 154 208
0.154674 -0.468107 -0.536 121 168 222
0.155695 -0.468107 -0.536 135 178 229
0.208539 -0.469853 -0.538 135 166 195
0.209564 -0.469853 -0.538 125 156 185
0.210589 -0.469853 -0.538 135 183 232
0.211613 -0.469853 -0.538 143 191 240
0.212638 -0.469853 -0.538 141 182 236
0.213663 -0.469853 -0.538 134 175 229
0.215087 -0.470727 -0.539 110 163 217
0.216113 -0.470727 -0.539 90 143 197
0.21714 -0.470727 -0.539 73 133 187
0.218167 -0.470727 -0.539 87 147 201
0.2196 -0.4716 -0.54 116 163 219
0.220629 -0.4716 -0.54 129 176 232
0.221657 -0.4716 -0.54 140 183 234
0.222686 -0.4716 -0.54 144 187 238
0.224129 -0.472473 -0.541 137 180 223
0.225159 -0.472473 -0.541 123 166 209
0.22619 -0.472473 -0.541 136 165 207
0.22722 -0.472473 -0.541 197 226 255
0.228672 -0.473347 -0.542 224 233 250
0.229705 -0.473347 -0.542 226 235 252
0.230737 -0.473347 -0.542 231 235 247
0.23177 -0.473347 -0.542 229 233 245
0.232802 -0.473347 -0.542 229 233 245
0.234266 -0.47422 -0.543 231 235 247
0.2353 -0.47422 -0.543 224 236 250
0.236334 -0.47422 -0.543 222 234 248
0.237806 -0.475093 -0.544 219 233 244
0.238842 -0.475093 -0.544 215 229 240
0.239878 -0.475093 -0.544 218 228 237
0.240914 -0.475093 -0.544 218 228 237
0.24195 -0.475093 -0.544 212 228 244
0.242987 -0.475093 -0.544 196 212 228
0.244023 -0.475093 -0.544 171 194 225
0.244609 -0.47422 -0.543 145 168 199
0.245643 -0.47422 -0.543 93 135 195
0.246677 -0.47422 -0.543 93 135 195
0.247711 -0.47422 -0.543 76 118 178
0.248746 -0.47422 -0.543 66 106 168
0.24978 -0.47422 -0.543 66 106 168
0.250814 -0.47422 -0.543 69 108 177
0.251849 -0.47422 -0.543 68 107 176
0.252883 -0.47422 -0.543 67 107 179
0.253917 -0.47422 -0.543 68 108 180
0.254951 -0.47422 -0.543 70 113 182
0.255986 -0.47422 -0.543 82 125 194
0.25702 -0.47422 -0.543 127 164 219
0.25853 -0.475093 -0.544 156 193 248
0.259566 -0.475093 -0.544 187 210 242
0.260602 -0.475093 -0.544 206 229 255
0.261638 -0.475093 -0.544 220 232 244
0.262674 -0.475093 -0.544 219 231 243
0.26371 -0.475093 -0.544 218 228 240
0.265233 -0.475967 -0.545 221 231 243
0.266271 -0.475967 -0.545 225 233 244
0.26731 -0.475967 -0.545 226 234 245
0.268348 -0.475967 -0.545 225 231 243
0.269386 -0.475967 -0.545 224 230 242
0.270424 -0.475967 -0.545 225 231 243
0.271462 -0.475967 -0.545 225 231 243
0.272 -0.475093 -0.544 220 231 249
0.273036 -0.475093 -0.544 217 228 246
0.274072 -0.475093 -0.544 194 215 242
0.275109 -0.475093 -0.544 150 171 198
0.276145 -0.475093 -0.544 132 166 201
0.276671 -0.47422 -0.543 136 170 205
0.277706 -0.47422 -0.543 138 180 220
0.27874 -0.47422 -0.543 134 176 216
0.279259 -0.473347 -0.542 127 171 216
0.280291 -0.473347 -0.542 110 154 199
0.281324 -0.473347 -0.542 86 137 190
0.282356 -0.473347 -0.542 84 135 188
0.283389 -0.473347 -0.542 93 146 200
0.284421 -0.473347 -0.542 107 160 214
0.284927 -0.472473 -0.541 128 172 219
0.285957 -0.472473 -0.541 137 181 228
0.286988 -0.472473 -0.541 138 176 215
0.28855 -0.473347 -0.542 133 171 210
0.289583 -0.473347 -0.542 140 173 206
0.290079 -0.472473 -0.541 144 177 210
0.29111 -0.472473 -0.541 144 177 210
0.29214 -0.472473 -0.541 197 220 238
0.29317 -0.472473 -0.541 212 235 253
0.294201 -0.472473 -0.541 220 229 234
0.295231 -0.472473 -0.541 225 234 239
0.296262 -0.472473 -0.541 222 233 239
0.297292 -0.472473 -0.541 222 233 239
0.298323 -0.472473 -0.541 218 232 241
0.299353 -0.472473 -0.541 217 231 240
0.300384 -0.472473 -0.541 216 233 243
0.301414 -0.472473 -0.541 215 232 242
0.302445 -0.472473 -0.541 217 230 239
0.303475 -0.472473 -0.541 217 230 239
0.304506 -0.472473 -0.541 217 225 238
0.305536 -0.472473 -0.541 207 215 228
0.306567 -0.472473 -0.541 176 192 218
0.307597 -0.472473 -0.541 162 178 204
0.308628 -0.472473 -0.541 110 146 194
0.309658 -0.472473 -0.541 73 109 157
0.319522 -0.473347 -0.542 84 122 184
0.320554 -0.473347 -0.542 126 164 226
0.321587 -0.473347 -0.542 155 178 212
0.322619 -0.473347 -0.542 181 204 238
0.323651 -0.473347 -0.542 213 220 238
0.324684 -0.473347 -0.542 215 222 240
0.326317 -0.47422 -0.543 216 222 236
0.327351 -0.47422 -0.543 219 225 239
0.328386 -0.47422 -0.543 216 229 238
0.32942 -0.47422 -0.543 215 228 237
0.330454 -0.47422 -0.543 215 228 236
0.331489 -0.47422 -0.543 215 228 236
0.332523 -0.47422 -0.543 219 228 233
0.333557 -0.47422 -0.543 218 227 232
0.334591 -0.47422 -0.543 218 227 232
0.335626 -0.47422 -0.543 218 229 235
0.33666 -0.47422 -0.543 219 230 236
0.337694 -0.47422 -0.543 207 226 241
0.338729 -0.47422 -0.543 168 187 202
0.339763 -0.47422 -0.543 140 173 204
0.340797 -0.47422 -0.543 135 168 199
0.341831 -0.47422 -0.543 129 170 214
0.342866 -0.47422 -0.543 134 175 219
0.3439 -0.47422 -0.543 125 166 218
0.344934 -0.47422 -0.543 97 138 190
0.345969 -0.47422 -0.543 93 130 183
0.347642 -0.475093 -0.544 105 142 195
0.348678 -0.475093 -0.544 118 159 211
0.349714 -0.475093 -0.544 125 166 218
0.35075 -0.475093 -0.544 129 167 214
0.351787 -0.475093 -0.544 129 167 214
0.353471 -0.475967 -0.545 136 166 202
0.35451 -0.475967 -0.545 139 169 205
0.355548 -0.475967 -0.545 184 202 222
0.356586 -0.475967 -0.545 204 222 242
0.357624 -0.475967 -0.545 212 227 232
0.358662 -0.475967 -0.545 213 228 233
0.3597 -0.475967 -0.545 217 228 232
0.360738 -0.475967 -0.545 217 228 232
0.361776 -0.475967 -0.545 218 228 238
0.362814 -0.475967 -0.545 218 228 238
0.363852 -0.475967 -0.545 218 225 241
0.36489 -0.475967 -0.545 218 225 241
0.365929 -0.475967 -0.545 215 225 237
0.366967 -0.475967 -0.545 214 224 236
0.36733 -0.475093 -0.544 212 225 231
0.368366 -0.475093 -0.544 198 211 217
0.369402 -0.475093 -0.544 168 191 209
0.370438 -0.475093 -0.544 150 173 191
0.371474 -0.475093 -0.544 104 145 189
0.37251 -0.475093 -0.544 69 110 154
0.373547 -0.475093 -0.544 59 104 171
0.374583 -0.475093 -0.544 59 104 171
0.375619 -0.475093 -0.544 60 98 173
0.376655 -0.475093 -0.544 81 119 194
0.377691 -0.475093 -0.544 71 107 181
0.378728 -0.475093 -0.544 71 107 181
0.380462 -0.475967 -0.545 58 94 168
0.3815 -0.475967 -0.545 58 100 176
0.382538 -0.475967 -0.545 57 99 175
0.383576 -0.475967 -0.545 74 120 182
0.384614 -0.475967 -0.545 111 157 219
0.385652 -0.475967 -0.545 148 174 197
0.38669 -0.475967 -0.545 170 196 219
0.387729 -0.475967 -0.545 205 212 222
0.388767 -0.475967 -0.545 218 225 235
0.389805 -0.475967 -0.545 217 223 235
0.390843 -0.475967 -0.545 218 224 236
0.391881 -0.475967 -0.545 213 226 234
0.392919 -0.475967 -0.545 213 226 234
0.393957 -0.475967 -0.545 216 226 238
0.394995 -0.475967 -0.545 216 226 238
0.396033 -0.475967 -0.545 218 225 244
0.3978 -0.47684 -0.546 218 225 244
0.39884 -0.47684 -0.546 213 225 237
0.39988 -0.47684 -0.546 211 223 235
0.40092 -0.47684 -0.546 207 221 230
0.401224 -0.475967 -0.545 170 184 193
0.402262 -0.475967 -0.545 135 168 199
0.4033 -0.475967 -0.545 127 160 191
0.404338 -0.475967 -0.545 122 166 201
0.40612 -0.47684 -0.546 124 168 203
0.40716 -0.47684 -0.546 122 168 204
0.4082 -0.47684 -0.546 107 153 189
0.40924 -0.47684 -0.546 83 136 190
0.41028 -0.47684 -0.546 75 128 182
0.41132 -0.47684 -0.546 80 136 193
0.41236 -0.47684 -0.546 91 147 204
0.4134 -0.47684 -0.546 112 159 205
0.41444 -0.47684 -0.546 116 163 209
0.416241 -0.477713 -0.547 127 164 209
0.417283 -0.477713 -0.547 121 158 203
0.418325 -0.477713 -0.547 126 166 201
0.419367 -0.477713 -0.547 130 170 205
0.420409 -0.477713 -0.547 183 204 221
0.42145 -0.477713 -0.547 203 224 241
0.422492 -0.477713 -0.547 218 223 227
0.423534 -0.477713 -0.547 217 222 226
0.424576 -0.477713 -0.547 215 222 230
0.425618 -0.477713 -0.547 216 223 231
0.42666 -0.477713 -0.547 214 226 238
0.427702 -0.477713 -0.547 214 226 238
0.429528 -0.478587 -0.548 214 226 238
0.430571 -0.478587 -0.548 216 226 236
0.431615 -0.478587 -0.548 214 224 234
0.432659 -0.478587 -0.548 212 221 230
0.433703 -0.478587 -0.548 213 222 231
0.434747 -0.478587 -0.548 209 219 229
0.43579 -0.478587 -0.548 194 204 214
0.436834 -0.478587 -0.548 161 180 210
0.437878 -0.478587 -0.548 140 159 189
0.438922 -0.478587 -0.548 87 126 183
0.439966 -0.478587 -0.548 63 102 159
0.44101 -0.478587 -0.548 55 95 164
0.442053 -0.478587 -0.548 51 91 160
0.443097 -0.478587 -0.548 57 97 166
0.444141 -0.478587 -0.548 75 115 184
0.445185 -0.478587 -0.548 58 97 166
0.446229 -0.478587 -0.548 53 92 161
0.447272 -0.478587 -0.548 59 96 164
0.448316 -0.478587 -0.548 58 95 163
0.45018 -0.47946 -0.549 78 117 172
0.451226 -0.47946 -0.549 115 154 209
0.452271 -0.47946 -0.549 146 172 199
0.453317 -0.47946 -0.549 169 195 222
0.454363 -0.47946 -0.549 201 211 220
0.455409 -0.47946 -0.549 203 213 222
0.456454 -0.47946 -0.549 203 210 218
0.458333 -0.480333 -0.55 203 210 218
0.459381 -0.480333 -0.55 203 211 222
0.460429 -0.480333 -0.55 201 209 220
0.461476 -0.480333 -0.55 196 208 220
0.462524 -0.480333 -0.55 196 208 220
0.463571 -0.480333 -0.55 201 210 217
0.464619 -0.480333 -0.55 199 208 215
0.465667 -0.480333 -0.55 199 204 210
0.466714 -0.480333 -0.55 192 197 203
0.467762 -0.480333 -0.55 170 185 206
0.46881 -0.480333 -0.55 131 146 167
0.470711 -0.481207 -0.551 109 139 177
0.470905 -0.480333 -0.55 97 127 165
0.471952 -0.480333 -0.55 103 135 182
0.47386 -0.481207 -0.551 96 128 175
0.47491 -0.481207 -0.551 78 121 164
0.475959 -0.481207 -0.551 68 111 154
0.477009 -0.481207 -0.551 59 106 158
0.478058 -0.481207 -0.551 43 90 142
0.479108 -0.481207 -0.551 45 86 138
0.481029 -0.48208 -0.552 68 105 157
0.48208 -0.48208 -0.552 84 118 156
0.483131 -0.48208 -0.552 90 124 162
0.483306 -0.481207 -0.551 88 116 155
0.484355 -0.481207 -0.551 85 113 152
0.485405 -0.481207 -0.551 93 112 145
0.486454 -0.481207 -0.551 93 112 145
0.487504 -0.481207 -0.551 91 110 143
0.488553 -0.481207 -0.551 131 140 155
0.489603 -0.481207 -0.551 159 168 183
0.490652 -0.481207 -0.551 163 166 173
0.491702 -0.481207 -0.551 165 168 175
0.491857 -0.480333 -0.55 166 167 172
0.492905 -0.480333 -0.55 165 166 171
0.493054 -0.47946 -0.549 165 163 166
0.4932 -0.478587 -0.548 138 136 139
0.493342 -0.477713 -0.547 112 103 104
0.480323 -0.460247 -0.527 131 112 108
0.47402 -0.45326 -0.519 136 113 107
0.469517 -0.44802 -0.513 137 114 108
0.466826 -0.444527 -0.509 139 114 107
0.464119 -0.441033 -0.505 140 115 108
0.461397 -0.43754 -0.501 143 119 115
0.45866 -0.434047 -0.497 143 119 115
0.457757 -0.4323 -0.495 138 114 110
0.456847 -0.430553 -0.493 141 117 113
0.455 -0.427933 -0.49 124 103 100
0.454072 -0.426187 -0.488 98 77 74
0.453137 -0.42444 -0.486 65 49 49
0.452194 -0.422693 -0.484 52 36 36
0.451244 -0.420947 -0.482 42 32 33
0.450286 -0.4192 -0.48 31 21 22
0.45026 -0.418327 -0.479 22 20 23
0.449289 -0.41658 -0.477 21 19 22
0.449253 -0.415707 -0.476 19 18 23
0.448269 -0.41396 -0.474 22 21 26
0.448224 -0.413087 -0.473 22 22 30
0.448175 -0.412213 -0.472 22 22 30
0.448123 -0.41134 -0.471 24 22 27
0.448067 -0.410467 -0.47 25 23 28
0.448007 -0.409593 -0.469 26 24 29
0.447943 -0.40872 -0.468 28 26 31
0.447875 -0.407847 -0.467 29 27 32
0.447804 -0.406973 -0.466 28 26 31
0.448691 -0.406973 -0.466 26 24 29
0.448614 -0.4061 -0.465 26 24 29
0.448533 -0.405227 -0.464 24 22 27
0.448449 -0.404353 -0.463 24 22 27
0.44836 -0.40348 -0.462 24 22 27
0.44924 -0.40348 -0.462 22 20 25
0.45012 -0.40348 -0.462 22 20 25
0.450024 -0.402607 -0.461 23 21 26
0.449924 -0.401733 -0.46 24 22 27
0.4508 -0.401733 -0.46 26 24 29
0.450694 -0.40086 -0.459 27 25 30
0.450585 -0.399987 -0.458 27 25 30
0.451457 -0.399987 -0.458 26 24 29
0.45233 -0.399987 -0.458 25 23 28
0.452212 -0.399113 -0.457 26 25 30
0.453083 -0.399113 -0.457 26 25 30
0.45296 -0.39824 -0.456 23 22 27
0.453829 -0.39824 -0.456 27 26 31
0.4537 -0.397367 -0.455 26 25 30
0.454567 -0.397367 -0.455 21 20 25
0.454432 -0.396493 -0.454 22 23 27
0.454294 -0.39562 -0.453 22 23 27
0.455157 -0.39562 -0.453 20 21 25
0.455013 -0.394747 -0.452 24 25 29
0.454866 -0.393873 -0.451 25 26 30
0.455725 -0.393873 -0.451 25 26 30
0.455571 -0.393 -0.45 21 21 23
0.455414 -0.392127 -0.449 21 21 23
0.45627 -0.392127 -0.449 23 23 25
0.456107 -0.391253 -0.448 23 23 25
0.45696 -0.391253 -0.448 24 23 28
0.456791 -0.39038 -0.447 25 24 29
0.456619 -0.389507 -0.446 24 23 28
0.457469 -0.389507 -0.446 25 24 29
0.458318 -0.389507 -0.446 25 24 29
0.458138 -0.388633 -0.445 23 22 27
0.458986 -0.388633 -0.445 25 24 30
0.459833 -0.388633 -0.445 31 30 36
0.459646 -0.38776 -0.444 22 21 27
0.460491 -0.38776 -0.444 25 24 30
0.461337 -0.38776 -0.444 22 21 27
0.462183 -0.38776 -0.444 23 22 28
0.461986 -0.386887 -0.443 24 23 29
0.46283 -0.386887 -0.443 22 21 27
0.463673 -0.386887 -0.443 22 21 27
0.463469 -0.386013 -0.442 25 24 30
0.46431 -0.386013 -0.442 23 22 28
0.4641 -0.38514 -0.441 23 22 28
0.46494 -0.38514 -0.441 27 26 32
0.46578 -0.38514 -0.441 26 25 31
0.46662 -0.38514 -0.441 27 26 32
0.46746 -0.38514 -0.441 26 25 31
0.4683 -0.38514 -0.441 24 23 29
0.46914 -0.38514 -0.441 25 24 30
0.468914 -0.384267 -0.44 27 26 32
0.469752 -0.384267 -0.44 26 25 31
0.47059 -0.384267 -0.44 25 24 30
0.471429 -0.384267 -0.44 26 25 31
0.471193 -0.383393 -0.439 26 25 31
0.47203 -0.383393 -0.439 22 21 27
0.472866 -0.383393 -0.439 27 26 32
0.473702 -0.383393 -0.439 32 31 37
0.474538 -0.383393 -0.439 28 27 33
0.475374 -0.383393 -0.439 36 35 41
0.47621 -0.383393 -0.439 36 35 41
0.477047 -0.383393 -0.439 28 27 33
0.477883 -0.383393 -0.439 29 28 34
0.478719 -0.383393 -0.439 30 29 35
0.479555 -0.383393 -0.439 25 24 30
0.481486 -0.384267 -0.44 29 28 34
0.482324 -0.384267 -0.44 27 26 32
0.483162 -0.384267 -0.44 23 22 28
0.484 -0.384267 -0.44 26 25 31
0.484838 -0.384267 -0.44 26 25 31
0.485676 -0.384267 -0.44 25 24 30
0.486514 -0.384267 -0.44 25 26 31
0.487352 -0.384267 -0.44 23 24 29
0.4893 -0.38514 -0.441 28 29 34
0.49014 -0.38514 -0.441 24 25 30
0.492093 -0.386013 -0.442 27 28 32
0.49182 -0.38514 -0.441 26 27 32
0.493777 -0.386013 -0.442 25 26 31
0.495738 -0.386887 -0.443 26 27 32
0.497703 -0.38776 -0.444 25 26 30
0.500794 -0.389507 -0.446 26 27 31
0.502769 -0.39038 -0.447 28 29 33
0.507 -0.393 -0.45 32 33 37
0.843824 -0.488193 -0.559 204 208 191
0.844889 -0.488193 -0.559 203 207 190
0.850212 -0.488193 -0.559 205 209 192
0.851277 -0.488193 -0.559 205 209 192
0.852342 -0.488193 -0.559 207 209 195
0.854933 -0.489067 -0.56 200 202 188
0.854471 -0.488193 -0.559 200 202 188
0.855536 -0.488193 -0.559 200 202 188
0.856601 -0.488193 -0.559 201 203 189
0.857666 -0.488193 -0.559 201 203 189
0.85873 -0.488193 -0.559 200 202 188
0.859795 -0.488193 -0.559 199 201 187
0.86086 -0.488193 -0.559 200 202 188
0.881037 -0.48994 -0.561 199 203 186
0.880533 -0.489067 -0.56 199 203 186
0.8816 -0.489067 -0.56 199 203 186
0.882667 -0.489067 -0.56 200 204 187
0.883733 -0.489067 -0.56 199 203 186
0.895453 -0.490813 -0.562 199 202 185
0.898119 -0.491687 -0.563 198 201 184
0.899191 -0.491687 -0.563 197 200 183
0.901863 -0.49256 -0.564 199 202 185
0.902937 -0.49256 -0.564 199 202 185
0.905614 -0.493433 -0.565 198 201 184
0.908295 -0.494307 -0.566 197 200 183
0.909373 -0.494307 -0.566 198 199 183
0.910451 -0.494307 -0.566 198 199 183
0.909919 -0.493433 -0.565 198 199 183
0.910995 -0.493433 -0.565 198 199 183
0.919506 -0.48994 -0.561 197 200 183
0.920574 -0.48994 -0.561 196 199 182
0.921643 -0.48994 -0.561 196 199 182
0.927073 -0.491687 -0.563 197 198 184
0.929794 -0.49256 -0.564 197 198 184
0.932519 -0.493433 -0.565 197 198 184
0.933595 -0.493433 -0.565 198 199 185
0.934671 -0.493433 -0.565 198 199 185
0.934091 -0.49256 -0.564 197 198 184
0.938272 -0.490813 -0.562 196 198 185
0.939343 -0.490813 -0.562 196 198 185
0.940413 -0.490813 -0.562 196 198 185
0.943159 -0.491687 -0.563 196 198 185
0.947586 -0.493433 -0.565 196 198 184
0.946983 -0.49256 -0.564 195 197 183
0.946376 -0.491687 -0.563 195 197 183
0.947449 -0.491687 -0.563 195 197 183
0.952189 -0.490813 -0.562 195 197 184
0.956028 -0.491687 -0.563 194 196 182
0.9571 -0.491687 -0.563 194 196 182
0.958172 -0.491687 -0.563 193 195 181
0.982837 -0.491687 -0.563 197 199 186
0.985657 -0.49256 -0.564 196 198 185
0.988481 -0.493433 -0.565 195 197 184
0.989557 -0.493433 -0.565 194 196 183
0.98888 -0.49256 -0.564 193 195 182
1.02184 -0.493433 -0.565 191 191 181
1.0283 -0.493433 -0.565 190 192 179
1.02938 -0.493433 -0.565 190 192 179
1.03045 -0.493433 -0.565 190 192 181
1.03153 -0.493433 -0.565 190 192 181
1.0326 -0.493433 -0.565 190 192 181
-0.0083219 -0.449872 -0.514 189 145 116
-0.0073 -0.447247 -0.511 185 146 115
-0.00628952 -0.444621 -0.508 180 141 110
-0.00529048 -0.441995 -0.505 177 142 114
-0.00427714 -0.436744 -0.499 190 149 121
-0.00330667 -0.434118 -0.496 192 151 123
-0.00235714 -0.433243 -0.495 194 153 123
-0.00141143 -0.432368 -0.494 195 154 124
-0.000468571 -0.430617 -0.492 196 155 125
0.000467619 -0.429742 -0.491 194 153 123
0.0014 -0.428867 -0.49 191 150 120
0.00232857 -0.427991 -0.489 191 150 120
0.00326 -0.427991 -0.489 194 150 121
0.00418286 -0.427116 -0.488 194 150 121
0.00511238 -0.427116 -0.488 193 150 118
0.00602952 -0.426241 -0.487 192 149 117
0.00695714 -0.426241 -0.487 193 150 118
0.00788476 -0.426241 -0.487 192 149 117
0.00881238 -0.426241 -0.487 195 152 120
0.00974 -0.426241 -0.487 198 155 123
0.0106676 -0.426241 -0.487 198 155 123
0.0115952 -0.426241 -0.487 199 156 124
0.0125229 -0.426241 -0.487 198 155 123
0.0134505 -0.426241 -0.487 196 153 121
0.0144076 -0.427116 -0.488 192 149 117
0.0153371 -0.427116 -0.488 190 147 115
0.0162667 -0.427116 -0.488 192 149 117
0.0171962 -0.427116 -0.488 194 151 119
0.0181257 -0.427116 -0.488 194 151 117
0.0190552 -0.427116 -0.488 194 151 117
0.0199848 -0.427116 -0.488 196 151 118
0.0209571 -0.427991 -0.489 198 153 120
0.0218886 -0.427991 -0.489 200 155 122
0.02282 -0.427991 -0.489 197 152 119
0.0237514 -0.427991 -0.489 192 147 114
0.0246829 -0.427991 -0.489 190 145 112
0.0256143 -0.427991 -0.489 193 148 115
0.0265457 -0.427991 -0.489 195 150 117
0.0275333 -0.428867 -0.49 196 151 118
0.0284667 -0.428867 -0.49 196 151 118
0.0294 -0.428867 -0.49 196 151 118
0.0303333 -0.428867 -0.49 194 149 116
0.0312667 -0.428867 -0.49 194 149 116
0.0322 -0.428867 -0.49 195 150 117
0.0331333 -0.428867 -0.49 196 151 118
0.0340667 -0.428867 -0.49 199 154 121
0.035 -0.428867 -0.49 201 156 125
0.0359333 -0.428867 -0.49 201 156 125
0.0368667 -0.428867 -0.49 199 154 123
0.0378 -0.428867 -0.49 197 152 121
0.0387333 -0.428867 -0.49 194 149 118
0.0396667 -0.428867 -0.49 193 148 117
0.0406829 -0.429742 -0.491 195 148 118
0.0416181 -0.429742 -0.491 195 148 118
0.0425533 -0.429742 -0.491 192 147 118
0.0434886 -0.429742 -0.491 192 147 118
0.0444238 -0.429742 -0.491 193 148 119
0.045359 -0.429742 -0.491 194 149 120
0.0462943 -0.429742 -0.491 194 149 120
0.0473257 -0.430617 -0.492 192 147 118
0.0482629 -0.430617 -0.492 191 146 117
0.0493 -0.431492 -0.493 191 146 117
0.050239 -0.431492 -0.493 188 144 117
0.0512819 -0.432368 -0.494 186 142 115
0.0523286 -0.433243 -0.495 184 140 113
0.0532714 -0.433243 -0.495 182 138 111
0.0543238 -0.434118 -0.496 183 137 111
0.05538 -0.434993 -0.497 184 138 112
0.0563267 -0.434993 -0.497 181 136 113
0.0573886 -0.435869 -0.498 182 137 114
0.0583371 -0.435869 -0.498 180 135 112
0.0594048 -0.436744 -0.499 177 132 109
0.0604762 -0.437619 -0.5 176 131 108
0.0615514 -0.438494 -0.501 173 128 105
0.0626305 -0.43937 -0.502 167 124 105
0.0635867 -0.43937 -0.502 163 120 101
0.0646714 -0.440245 -0.503 164 121 102
0.06576 -0.44112 -0.504 162 119 100
0.0668524 -0.441995 -0.505 157 116 98
0.0679486 -0.44287 -0.506 154 113 95
0.0690486 -0.443746 -0.507 153 112 94
0.0702905 -0.445496 -0.509 150 109 91
0.0714 -0.446371 -0.51 145 103 87
0.0725133 -0.447247 -0.511 142 100 84
0.0736305 -0.448122 -0.512 136 100 84
0.0748971 -0.449872 -0.514 132 96 80
0.0760238 -0.450748 -0.515 127 95 82
0.0773038 -0.452498 -0.517 125 93 80
0.0901857 -0.468252 -0.535 93 79 78
0.0915457 -0.470003 -0.537 94 80 79
0.092741 -0.470878 -0.538 93 79 78
0.09394 -0.471753 -0.539 92 78 78
0.0951429 -0.472629 -0.54 93 79 79
0.0961714 -0.472629 -0.54 90 80 81
0.0972 -0.472629 -0.54 95 85 86
0.0980467 -0.471753 -0.539 103 97 97
0.0990733 -0.471753 -0.539 119 113 113
0.1001 -0.471753 -0.539 130 128 129
0.100939 -0.470878 -0.538 141 139 140
0.101964 -0.470878 -0.538 148 152 155
0.102797 -0.470003 -0.537 154 158 161
0.10382 -0.470003 -0.537 159 166 172
0.104648 -0.469128 -0.536 161 168 174
0.105669 -0.469128 -0.536 168 175 185
0.10669 -0.469128 -0.536 170 177 187
0.10771 -0.469128 -0.536 179 183 194
0.108529 -0.468252 -0.535 177 181 192
0.109548 -0.468252 -0.535 150 168 192
0.110773 -0.469128 -0.536 133 151 175
0.111794 -0.469128 -0.536 98 131 176
0.112815 -0.469128 -0.536 98 131 176
0.113836 -0.469128 -0.536 71 104 149
0.114857 -0.469128 -0.536 43 87 150
0.115878 -0.469128 -0.536 43 88 153
0.116899 -0.469128 -0.536 42 81 150
0.11792 -0.469128 -0.536 38 77 146
0.118941 -0.469128 -0.536 40 77 147
0.119962 -0.469128 -0.536 43 80 150
0.120983 -0.469128 -0.536 47 90 159
0.122004 -0.469128 -0.536 50 93 162
0.123025 -0.469128 -0.536 55 99 162
0.124046 -0.469128 -0.536 76 120 183
0.125067 -0.469128 -0.536 124 160 212
0.126088 -0.469128 -0.536 145 181 233
0.127109 -0.469128 -0.536 183 198 219
0.12813 -0.469128 -0.536 202 217 238
0.12915 -0.469128 -0.536 211 219 232
0.130171 -0.469128 -0.536 209 217 230
0.131192 -0.469128 -0.536 209 213 222
0.132213 -0.469128 -0.536 213 217 226
0.133234 -0.469128 -0.536 215 223 236
0.134255 -0.469128 -0.536 217 225 238
0.135276 -0.469128 -0.536 216 225 240
0.136297 -0.469128 -0.536 216 225 240
0.137318 -0.469128 -0.536 222 228 242
0.138339 -0.469128 -0.536 220 226 240
0.13936 -0.469128 -0.536 220 226 238
0.140381 -0.469128 -0.536 217 223 235
0.141402 -0.469128 -0.536 210 220 232
0.142423 -0.469128 -0.536 167 177 189
0.143444 -0.469128 -0.536 137 169 210
0.144465 -0.469128 -0.536 137 169 210
0.145486 -0.469128 -0.536 143 175 213
0.146507 -0.469128 -0.536 148 180 218
0.147528 -0.469128 -0.536 138 175 217
0.148549 -0.469128 -0.536 126 163 205
0.14957 -0.469128 -0.536 106 152 202
0.15059 -0.469128 -0.536 91 137 187
0.151611 -0.469128 -0.536 91 141 194
0.152632 -0.469128 -0.536 100 150 203
0.153653 -0.469128 -0.536 115 157 205
0.199969 -0.470003 -0.537 227 236 251
0.200991 -0.470003 -0.537 226 235 250
0.202014 -0.470003 -0.537 231 239 250
0.209564 -0.470878 -0.538 143 170 199
0.210589 -0.470878 -0.538 134 175 221
0.211613 -0.470878 -0.538 143 184 230
0.212638 -0.470878 -0.538 145 177 226
0.213663 -0.470878 -0.538 139 171 220
0.214688 -0.470878 -0.538 115 163 209
0.216113 -0.471753 -0.539 100 148 194
0.21714 -0.471753 -0.539 86 143 188
0.218167 -0.471753 -0.539 98 155 200
0.2196 -0.472629 -0.54 125 165 214
0.220629 -0.472629 -0.54 136 176 225
0.221657 -0.472629 -0.54 144 181 225
0.222686 -0.472629 -0.54 142 179 223
0.223714 -0.472629 -0.54 142 178 214
0.225159 -0.473504 -0.541 143 179 215
0.22619 -0.473504 -0.541 162 178 212
0.22722 -0.473504 -0.541 208 224 255
0.228672 -0.474379 -0.542 222 231 246
0.229705 -0.474379 -0.542 225 234 249
0.230737 -0.474379 -0.542 228 234 248
0.23177 -0.474379 -0.542 228 234 248
0.232802 -0.474379 -0.542 227 234 250
0.233834 -0.474379 -0.542 227 234 250
0.2353 -0.475254 -0.543 224 236 252
0.236334 -0.475254 -0.543 222 234 250
0.237369 -0.475254 -0.543 223 235 247
0.238842 -0.47613 -0.544 224 236 248
0.239878 -0.47613 -0.544 227 236 245
0.240914 -0.47613 -0.544 222 231 240
0.24195 -0.47613 -0.544 208 221 240
0.242987 -0.47613 -0.544 188 201 220
0.244023 -0.47613 -0.544 161 184 216
0.244609 -0.475254 -0.543 133 156 188
0.245643 -0.475254 -0.543 84 123 182
0.246677 -0.475254 -0.543 84 123 182
0.247711 -0.475254 -0.543 77 116 175
0.248746 -0.475254 -0.543 74 112 174
0.24978 -0.475254 -0.543 70 108 170
0.250814 -0.475254 -0.543 102 141 206
0.251849 -0.475254 -0.543 86 125 190
0.252883 -0.475254 -0.543 75 115 185
0.253917 -0.475254 -0.543 72 112 182
0.254951 -0.475254 -0.543 79 118 185
0.255986 -0.475254 -0.543 81 120 187
0.25702 -0.475254 -0.543 121 151 205
0.258054 -0.475254 -0.543 150 180 234
0.259566 -0.47613 -0.544 183 198 229
0.260602 -0.47613 -0.544 206 221 252
0.261638 -0.47613 -0.544 226 230 242
0.262674 -0.47613 -0.544 229 233 245
0.26371 -0.47613 -0.544 221 230 239
0.265233 -0.477005 -0.545 222 231 240
0.266271 -0.477005 -0.545 223 232 241
0.26731 -0.477005 -0.545 223 232 241
0.268348 -0.477005 -0.545 223 232 241
0.269386 -0.477005 -0.545 223 232 241
0.270424 -0.477005 -0.545 224 232 243
0.271462 -0.477005 -0.545 224 232 243
0.272 -0.47613 -0.544 222 234 248
0.273036 -0.47613 -0.544 219 231 245
0.274072 -0.47613 -0.544 197 218 239
0.275109 -0.47613 -0.544 164 185 206
0.276145 -0.47613 -0.544 146 177 208
0.277181 -0.47613 -0.544 141 172 203
0.277706 -0.475254 -0.543 140 178 215
0.27874 -0.475254 -0.543 133 171 208
0.279774 -0.475254 -0.543 116 166 215
0.280291 -0.474379 -0.542 105 155 204
0.281324 -0.474379 -0.542 88 143 197
0.282356 -0.474379 -0.542 88 143 197
0.283389 -0.474379 -0.542 95 150 204
0.284421 -0.474379 -0.542 104 159 213
0.284927 -0.473504 -0.541 124 168 213
0.285957 -0.473504 -0.541 131 175 220
0.286988 -0.473504 -0.541 135 171 207
0.28855 -0.474379 -0.542 135 171 207
0.289583 -0.474379 -0.542 145 175 203
0.290615 -0.474379 -0.542 152 182 210
0.291648 -0.474379 -0.542 152 182 210
0.29214 -0.473504 -0.541 200 219 236
0.29317 -0.473504 -0.541 216 235 252
0.294201 -0.473504 -0.541 227 232 238
0.295231 -0.473504 -0.541 228 233 239
0.296262 -0.473504 -0.541 225 235 244
0.297292 -0.473504 -0.541 224 234 243
0.298323 -0.473504 -0.541 221 234 242
0.299353 -0.473504 -0.541 220 233 241
0.300384 -0.473504 -0.541 222 233 239
0.301414 -0.473504 -0.541 221 232 238
0.302445 -0.473504 -0.541 222 230 233
0.303475 -0.473504 -0.541 222 230 233
0.304506 -0.473504 -0.541 218 225 235
0.305536 -0.473504 -0.541 206 213 223
0.306567 -0.473504 -0.541 175 189 216
0.307597 -0.473504 -0.541 154 168 195
0.308628 -0.473504 -0.541 103 134 188
0.309658 -0.473504 -0.541 71 102 156
0.310689 -0.473504 -0.541 58 104 179
0.311719 -0.473504 -0.541 59 105 180
0.31275 -0.473504 -0.541 65 112 180
0.31378 -0.473504 -0.541 94 141 209
0.31481 -0.473504 -0.541 75 126 192
0.315841 -0.473504 -0.541 61 112 178
0.316871 -0.473504 -0.541 56 107 172
0.317902 -0.473504 -0.541 53 104 169
0.319522 -0.474379 -0.542 73 116 169
0.320554 -0.474379 -0.542 111 154 207
0.321587 -0.474379 -0.542 151 177 210
0.322619 -0.474379 -0.542 175 201 234
0.323651 -0.474379 -0.542 207 223 239
0.324684 -0.474379 -0.542 215 231 247
0.326317 -0.475254 -0.543 221 231 241
0.327351 -0.475254 -0.543 222 232 242
0.328386 -0.475254 -0.543 220 233 241
0.32942 -0.475254 -0.543 218 231 239
0.330454 -0.475254 -0.543 227 231 242
0.331489 -0.475254 -0.543 227 231 242
0.332523 -0.475254 -0.543 229 232 241
0.333557 -0.475254 -0.543 228 231 240
0.334591 -0.475254 -0.543 228 231 240
0.335626 -0.475254 -0.543 225 232 242
0.33666 -0.475254 -0.543 222 229 239
0.337694 -0.475254 -0.543 204 222 236
0.338729 -0.475254 -0.543 172 190 204
0.339763 -0.475254 -0.543 144 174 200
0.340797 -0.475254 -0.543 140 170 196
0.341831 -0.475254 -0.543 130 170 206
0.342866 -0.475254 -0.543 133 173 209
0.3439 -0.475254 -0.543 122 165 208
0.344934 -0.475254 -0.543 100 143 186
