ply
format ascii 1.0
comment Created by Open3D
element vertex 1282
property double x
property double y
property double z
property uchar red
property uchar green
property uchar blue
end_header
0.328685 -0.442357 -0.563 190 188 201
0.329757 -0.442357 -0.563 184 185 189
0.33083 -0.442357 -0.563 177 178 182
0.42145 -0.429786 -0.547 100 63 54
0.422492 -0.429786 -0.547 100 63 54
0.42276 -0.429 -0.546 100 63 54
0.4238 -0.429 -0.546 101 64 55
0.424062 -0.428214 -0.545 103 65 54
0.42432 -0.427429 -0.544 105 67 56
0.424574 -0.426643 -0.543 108 65 56
0.425609 -0.426643 -0.543 111 68 59
0.425857 -0.425857 -0.542 116 69 59
0.42689 -0.425857 -0.542 117 70 60
0.427132 -0.425071 -0.541 119 72 62
0.427371 -0.424286 -0.54 121 74 64
0.4284 -0.424286 -0.54 121 75 62
0.428633 -0.4235 -0.539 121 75 62
0.428863 -0.422714 -0.538 123 77 64
0.429089 -0.421929 -0.537 124 78 65
0.42931 -0.421143 -0.536 126 78 64
0.429529 -0.420357 -0.535 128 80 66
0.430548 -0.420357 -0.535 131 82 67
0.43076 -0.419571 -0.534 133 84 69
0.430969 -0.418786 -0.533 140 89 70
0.431173 -0.418 -0.532 144 93 74
0.432187 -0.418 -0.532 148 96 74
0.432386 -0.417214 -0.531 153 101 79
0.432581 -0.416429 -0.53 160 104 79
0.432772 -0.415643 -0.529 162 106 81
0.43378 -0.415643 -0.529 162 105 76
0.433966 -0.414857 -0.528 166 109 80
0.434971 -0.414857 -0.528 173 116 86
0.435977 -0.414857 -0.528 171 114 84
0.436155 -0.414071 -0.527 169 114 84
0.43633 -0.413286 -0.526 169 114 84
0.437331 -0.413286 -0.526 172 117 87
0.438333 -0.413286 -0.526 172 117 87
0.4385 -0.4125 -0.525 173 118 88
0.4395 -0.4125 -0.525 181 126 96
0.4405 -0.4125 -0.525 173 118 88
0.440659 -0.411714 -0.524 156 101 71
0.441657 -0.411714 -0.524 167 112 82
0.442655 -0.411714 -0.524 172 117 87
0.442807 -0.410929 -0.523 173 118 88
0.443803 -0.410929 -0.523 175 119 92
0.444799 -0.410929 -0.523 178 122 95
0.444943 -0.410143 -0.522 179 125 97
0.445937 -0.410143 -0.522 181 127 99
0.446931 -0.410143 -0.522 182 128 100
0.447926 -0.410143 -0.522 183 129 101
0.44892 -0.410143 -0.522 184 130 102
0.449052 -0.409357 -0.521 184 130 102
0.450045 -0.409357 -0.521 183 129 101
0.451037 -0.409357 -0.521 182 128 100
0.45203 -0.409357 -0.521 180 129 100
0.453022 -0.409357 -0.521 181 130 101
0.454014 -0.409357 -0.521 181 130 101
0.455007 -0.409357 -0.521 180 129 100
0.455124 -0.408571 -0.52 178 128 101
0.456114 -0.408571 -0.52 176 126 99
0.457105 -0.408571 -0.52 176 126 99
0.458095 -0.408571 -0.52 178 128 101
0.459086 -0.408571 -0.52 176 129 101
0.460076 -0.408571 -0.52 174 127 99
0.461067 -0.408571 -0.52 172 125 97
0.462057 -0.408571 -0.52 170 123 95
0.463048 -0.408571 -0.52 171 124 98
0.464038 -0.408571 -0.52 174 127 101
0.465029 -0.408571 -0.52 176 128 105
0.466019 -0.408571 -0.52 174 126 103
0.46701 -0.408571 -0.52 168 120 97
0.468 -0.408571 -0.52 166 118 95
0.46899 -0.408571 -0.52 167 121 97
0.470885 -0.409357 -0.521 169 123 99
0.471877 -0.409357 -0.521 170 124 100
0.47287 -0.409357 -0.521 168 122 98
0.474771 -0.410143 -0.522 168 123 100
0.475766 -0.410143 -0.522 169 124 101
0.477673 -0.410929 -0.523 165 120 99
0.47867 -0.410929 -0.523 163 118 97
0.480583 -0.411714 -0.524 164 119 96
0.4825 -0.4125 -0.525 165 120 97
0.484421 -0.413286 -0.526 168 121 105
0.487269 -0.414857 -0.528 168 121 105
0.489199 -0.415643 -0.529 172 121 92
0.49206 -0.417214 -0.531 172 121 92
0.494929 -0.418786 -0.533 166 121 116
0.495944 -0.418786 -0.533 166 121 116
0.498824 -0.420357 -0.535 165 120 115
0.501711 -0.421929 -0.537 163 122 102
0.504607 -0.4235 -0.539 163 122 102
0.50751 -0.425071 -0.541 164 123 101
0.51042 -0.426643 -0.543 163 122 100
0.51428 -0.429 -0.546 159 130 114
0.517208 -0.430571 -0.548 160 131 115
0.0149419 -0.426102 -0.541 194 150 125
0.0159429 -0.425314 -0.54 193 149 124
0.0168457 -0.422164 -0.536 193 149 122
0.0177333 -0.419013 -0.532 195 151 124
0.018641 -0.41665 -0.529 194 149 120
0.0195 -0.4135 -0.525 194 149 120
0.0203438 -0.41035 -0.521 196 149 123
0.0212543 -0.408774 -0.519 198 151 125
0.0222 -0.407987 -0.518 198 151 123
0.0230971 -0.406411 -0.516 199 152 124
0.0240333 -0.405624 -0.515 200 153 125
0.0249657 -0.404836 -0.514 199 152 124
0.0258943 -0.404049 -0.513 204 157 129
0.0268714 -0.404049 -0.513 207 160 132
0.0277943 -0.403261 -0.512 209 162 134
0.0287695 -0.403261 -0.512 208 161 133
0.0296867 -0.402473 -0.511 205 158 130
0.03066 -0.402473 -0.511 204 157 129
0.0316333 -0.402473 -0.511 204 157 129
0.0325429 -0.401686 -0.51 205 158 130
0.0335143 -0.401686 -0.51 206 159 131
0.0344857 -0.401686 -0.51 205 158 130
0.0354571 -0.401686 -0.51 204 157 129
0.0364286 -0.401686 -0.51 203 156 128
0.0374 -0.401686 -0.51 203 156 126
0.0383714 -0.401686 -0.51 203 156 126
0.0393429 -0.401686 -0.51 203 156 126
0.0402352 -0.400898 -0.509 203 156 126
0.0412048 -0.400898 -0.509 202 155 125
0.0421743 -0.400898 -0.509 202 155 125
0.0431438 -0.400898 -0.509 201 154 124
0.0441133 -0.400898 -0.509 199 152 122
0.0450829 -0.400898 -0.509 196 149 119
0.0460524 -0.400898 -0.509 195 148 118
0.0470219 -0.400898 -0.509 194 147 117
0.0480857 -0.401686 -0.51 191 144 114
0.0490571 -0.401686 -0.51 191 144 114
0.0500286 -0.401686 -0.51 193 146 116
0.051 -0.401686 -0.51 194 147 119
0.0519714 -0.401686 -0.51 194 147 119
0.0529429 -0.401686 -0.51 193 146 118
0.0539143 -0.401686 -0.51 192 145 117
0.0549933 -0.402473 -0.511 194 147 119
0.0559667 -0.402473 -0.511 197 150 122
0.0570514 -0.403261 -0.512 198 148 123
0.05814 -0.404049 -0.513 199 149 124
0.0591171 -0.404049 -0.513 196 146 121
0.0600943 -0.404049 -0.513 195 145 120
0.0610714 -0.404049 -0.513 195 145 120
0.0621695 -0.404836 -0.514 195 145 120
0.0631486 -0.404836 -0.514 195 145 120
0.0641276 -0.404836 -0.514 194 144 119
0.0652333 -0.405624 -0.515 194 144 119
0.0662143 -0.405624 -0.515 195 145 120
0.0671952 -0.405624 -0.515 192 142 117
0.0683086 -0.406411 -0.516 189 139 114
0.0692914 -0.406411 -0.516 189 139 114
0.0704105 -0.407199 -0.517 189 139 114
0.0715333 -0.407987 -0.518 187 137 112
0.07252 -0.407987 -0.518 187 137 112
0.0736486 -0.408774 -0.519 185 137 115
0.0747809 -0.409562 -0.52 181 133 111
0.0757714 -0.409562 -0.52 176 130 107
0.0769095 -0.41035 -0.521 174 128 105
0.0780514 -0.411137 -0.522 173 128 107
0.0791971 -0.411925 -0.523 171 126 105
0.0803467 -0.412712 -0.524 164 121 104
0.0813448 -0.412712 -0.524 164 121 104
0.0825 -0.4135 -0.525 160 117 100
0.0836591 -0.414288 -0.526 157 115 99
0.0848219 -0.415075 -0.527 158 116 100
0.0861514 -0.41665 -0.529 155 116 101
0.0873238 -0.417438 -0.53 151 112 97
0.0885 -0.418226 -0.531 148 110 97
0.0898486 -0.419801 -0.533 145 107 94
0.0912048 -0.421376 -0.535 141 105 93
0.0925686 -0.422951 -0.537 137 101 89
0.09394 -0.424527 -0.539 126 101 94
0.095319 -0.426102 -0.541 125 100 93
0.110203 -0.440279 -0.559 112 106 106
0.111467 -0.441067 -0.56 124 118 118
0.112533 -0.441067 -0.56 135 125 133
0.1136 -0.441067 -0.56 141 131 139
0.114667 -0.441067 -0.56 151 142 145
0.115733 -0.441067 -0.56 159 150 153
0.1168 -0.441067 -0.56 163 161 166
0.117867 -0.441067 -0.56 168 166 171
0.118933 -0.441067 -0.56 170 171 176
0.12 -0.441067 -0.56 169 170 175
0.121067 -0.441067 -0.56 151 149 154
0.122133 -0.441067 -0.56 171 169 174
0.1232 -0.441067 -0.56 183 179 180
0.124267 -0.441067 -0.56 162 158 159
0.125333 -0.441067 -0.56 127 123 124
0.1264 -0.441067 -0.56 159 155 156
0.127239 -0.440279 -0.559 196 196 198
0.128304 -0.440279 -0.559 204 204 206
0.129369 -0.440279 -0.559 198 199 203
0.130433 -0.440279 -0.559 211 212 216
0.131498 -0.440279 -0.559 200 207 213
0.132563 -0.440279 -0.559 205 212 218
0.133628 -0.440279 -0.559 206 208 223
0.134692 -0.440279 -0.559 191 193 208
0.316326 -0.442642 -0.562 126 140 166
0.317396 -0.442642 -0.562 143 157 183
0.318467 -0.442642 -0.562 152 164 186
0.319537 -0.442642 -0.562 164 176 198
0.320608 -0.442642 -0.562 163 169 185
0.321678 -0.442642 -0.562 159 165 181
0.322749 -0.442642 -0.562 180 180 190
0.323819 -0.442642 -0.562 192 192 202
0.32489 -0.442642 -0.562 194 190 207
0.32596 -0.442642 -0.562 191 187 204
0.32703 -0.442642 -0.562 185 187 199
0.328101 -0.442642 -0.562 180 182 194
0.329171 -0.442642 -0.562 176 181 187
0.330242 -0.442642 -0.562 178 183 189
0.331312 -0.442642 -0.562 141 147 145
0.332383 -0.442642 -0.562 105 111 109
0.333453 -0.442642 -0.562 141 149 152
0.334524 -0.442642 -0.562 159 167 170
0.424576 -0.430828 -0.547 100 66 57
0.42484 -0.43004 -0.546 103 66 57
0.4251 -0.429252 -0.545 104 67 58
0.425356 -0.428465 -0.544 107 67 57
0.426392 -0.428465 -0.544 109 69 59
0.426643 -0.427677 -0.543 112 69 60
0.42689 -0.42689 -0.542 113 70 61
0.427922 -0.42689 -0.542 116 72 61
0.428163 -0.426102 -0.541 118 74 63
0.4284 -0.425314 -0.54 118 74 63
0.428633 -0.424527 -0.539 117 73 62
0.42966 -0.424527 -0.539 121 78 62
0.429888 -0.423739 -0.538 121 78 62
0.430111 -0.422951 -0.537 124 78 62
0.430331 -0.422164 -0.536 126 80 64
0.430548 -0.421376 -0.535 130 83 65
0.43076 -0.420589 -0.534 132 85 67
0.430969 -0.419801 -0.533 139 91 69
0.431984 -0.419801 -0.533 146 98 76
0.432187 -0.419013 -0.532 153 101 77
0.432386 -0.418226 -0.531 156 104 80
0.433397 -0.418226 -0.531 163 107 80
0.43359 -0.417438 -0.53 166 110 83
0.43378 -0.41665 -0.529 168 111 82
0.433966 -0.415863 -0.528 170 113 84
0.434971 -0.415863 -0.528 172 115 85
0.435977 -0.415863 -0.528 172 115 85
0.436155 -0.415075 -0.527 172 117 87
0.43633 -0.414288 -0.526 172 117 87
0.437331 -0.414288 -0.526 172 117 87
0.438333 -0.414288 -0.526 172 117 87
0.439335 -0.414288 -0.526 176 121 91
0.4395 -0.4135 -0.525 185 130 100
0.4405 -0.4135 -0.525 177 122 92
0.440659 -0.412712 -0.524 162 107 77
0.441657 -0.412712 -0.524 170 115 85
0.44181 -0.411925 -0.523 172 117 87
0.442807 -0.411925 -0.523 173 118 88
0.443803 -0.411925 -0.523 174 118 91
0.443949 -0.411137 -0.522 177 121 94
0.444943 -0.411137 -0.522 180 124 97
0.445937 -0.411137 -0.522 182 126 99
0.446931 -0.411137 -0.522 182 128 100
0.447926 -0.411137 -0.522 183 129 101
0.44892 -0.411137 -0.522 182 131 102
0.449052 -0.41035 -0.521 182 131 102
0.450045 -0.41035 -0.521 183 132 103
0.451037 -0.41035 -0.521 183 132 103
0.451162 -0.409562 -0.52 182 131 102
0.452152 -0.409562 -0.52 182 131 102
0.453143 -0.409562 -0.52 182 133 103
0.454133 -0.409562 -0.52 183 134 104
0.455124 -0.409562 -0.52 178 129 99
0.456114 -0.409562 -0.52 175 126 96
0.456226 -0.408774 -0.519 176 127 97
0.457214 -0.408774 -0.519 180 131 101
0.459086 -0.409562 -0.52 177 130 102
0.460076 -0.409562 -0.52 175 128 100
0.461067 -0.409562 -0.52 174 127 99
0.462057 -0.409562 -0.52 174 127 99
0.463048 -0.409562 -0.52 173 126 100
0.463146 -0.408774 -0.519 175 128 100
0.464134 -0.408774 -0.519 177 130 104
0.465123 -0.408774 -0.519 176 129 103
0.466111 -0.408774 -0.519 171 124 98
0.4671 -0.408774 -0.519 167 120 94
0.46899 -0.409562 -0.52 167 121 95
0.469981 -0.409562 -0.52 169 123 97
0.470971 -0.409562 -0.52 172 126 102
0.47287 -0.41035 -0.521 171 125 101
0.473862 -0.41035 -0.521 172 126 103
0.474854 -0.41035 -0.521 172 126 103
0.47676 -0.411137 -0.522 168 123 102
0.477754 -0.411137 -0.522 167 122 101
0.479666 -0.411925 -0.523 168 123 100
0.481581 -0.412712 -0.524 168 123 100
0.4835 -0.4135 -0.525 167 121 105
0.485423 -0.414288 -0.526 168 122 106
0.48735 -0.415075 -0.527 168 123 92
0.490207 -0.41665 -0.529 168 123 92
0.492143 -0.417438 -0.53 165 121 108
0.495013 -0.419013 -0.532 165 121 108
0.496027 -0.419013 -0.532 165 121 108
0.498909 -0.420589 -0.534 166 121 100
0.501798 -0.422164 -0.536 165 120 99
0.505633 -0.424527 -0.539 160 124 98
0.50854 -0.426102 -0.541 160 124 98
0.511454 -0.427677 -0.543 164 128 104
0.51532 -0.43004 -0.546 161 125 101
0.518251 -0.431615 -0.548 158 131 122
0.0139114 -0.427132 -0.541 194 150 125
0.0148867 -0.425553 -0.539 194 150 123
0.0158543 -0.423974 -0.537 192 148 121
0.0167514 -0.420816 -0.533 193 148 119
0.0176333 -0.417658 -0.529 193 148 119
0.0185 -0.4145 -0.525 194 147 119
0.0193886 -0.412131 -0.522 194 147 119
0.0202657 -0.409763 -0.519 196 149 121
0.0211724 -0.408184 -0.517 198 151 123
0.0221143 -0.407394 -0.516 200 150 123
0.0230524 -0.406605 -0.515 200 150 123
0.0239867 -0.405815 -0.514 201 152 122
0.0249171 -0.405026 -0.513 200 151 121
0.0258438 -0.404236 -0.512 203 156 128
0.026819 -0.404236 -0.512 207 160 132
0.02774 -0.403447 -0.511 210 163 135
0.0287133 -0.403447 -0.511 208 161 133
0.0296867 -0.403447 -0.511 206 159 131
0.0306 -0.402657 -0.51 204 157 129
0.0315714 -0.402657 -0.51 204 157 127
0.0325429 -0.402657 -0.51 206 159 129
0.0335143 -0.402657 -0.51 207 160 130
0.0344857 -0.402657 -0.51 206 159 129
0.0354571 -0.402657 -0.51 203 156 126
0.0364286 -0.402657 -0.51 202 155 125
0.0373267 -0.401868 -0.509 204 157 127
0.0382962 -0.401868 -0.509 203 156 126
0.0392657 -0.401868 -0.509 201 154 124
0.0402352 -0.401868 -0.509 201 154 124
0.0412048 -0.401868 -0.509 196 149 119
0.0421743 -0.401868 -0.509 201 154 124
0.0431438 -0.401868 -0.509 198 153 120
0.0441133 -0.401868 -0.509 199 154 121
0.0450829 -0.401868 -0.509 194 149 116
0.0460524 -0.401868 -0.509 194 149 116
0.0470219 -0.401868 -0.509 193 146 116
0.0479914 -0.401868 -0.509 191 144 114
0.0490571 -0.402657 -0.51 189 144 113
0.0499305 -0.401868 -0.509 191 146 115
0.0509 -0.401868 -0.509 193 148 115
0.0519714 -0.402657 -0.51 193 148 115
0.0529429 -0.402657 -0.51 191 146 113
0.0539143 -0.402657 -0.51 190 145 112
0.0549933 -0.403447 -0.511 192 147 114
0.0559667 -0.403447 -0.511 195 150 117
0.0570514 -0.404236 -0.512 196 152 117
0.0580267 -0.404236 -0.512 195 151 116
0.0591171 -0.405026 -0.513 194 149 116
0.0600943 -0.405026 -0.513 193 148 115
0.0610714 -0.405026 -0.513 193 147 114
0.0620486 -0.405026 -0.513 193 147 114
0.0631486 -0.405815 -0.514 193 146 116
0.0641276 -0.405815 -0.514 193 146 116
0.0652333 -0.406605 -0.515 192 145 117
0.0662143 -0.406605 -0.515 191 144 116
0.0671952 -0.406605 -0.515 192 142 117
0.0683086 -0.407394 -0.516 192 142 117
0.0692914 -0.407394 -0.516 191 141 116
0.0704105 -0.408184 -0.517 188 138 113
0.0713952 -0.408184 -0.517 186 136 113
0.07252 -0.408973 -0.518 186 136 113
0.0736486 -0.409763 -0.519 184 139 106
0.0746371 -0.409763 -0.519 177 132 99
0.0757714 -0.410552 -0.52 174 128 104
0.0769095 -0.411342 -0.521 174 128 104
0.0780514 -0.412131 -0.522 172 123 106
0.0790457 -0.412131 -0.522 172 123 106
0.0801933 -0.412921 -0.523 171 122 105
0.0813448 -0.41371 -0.524 169 122 104
0.0825 -0.4145 -0.525 165 118 100
0.0836591 -0.41529 -0.526 163 117 101
0.0848219 -0.416079 -0.527 161 115 99
0.0861514 -0.417658 -0.529 155 113 99
0.0873238 -0.418448 -0.53 152 110 96
0.0886667 -0.420027 -0.532 145 108 99
0.0898486 -0.420816 -0.533 142 105 96
0.0912048 -0.422395 -0.535 137 103 94
0.0925686 -0.423974 -0.537 134 100 91
0.09394 -0.425553 -0.539 126 98 97
0.0954952 -0.427922 -0.542 123 95 94
0.110203 -0.441344 -0.559 114 109 106
0.111467 -0.442133 -0.56 126 121 118
0.112533 -0.442133 -0.56 140 131 134
0.1136 -0.442133 -0.56 144 135 138
0.114667 -0.442133 -0.56 156 147 148
0.115733 -0.442133 -0.56 164 155 156
0.1168 -0.442133 -0.56 168 163 167
0.117656 -0.441344 -0.559 174 169 173
0.118721 -0.441344 -0.559 171 170 175
0.119786 -0.441344 -0.559 174 173 178
0.12085 -0.441344 -0.559 172 170 173
0.121915 -0.441344 -0.559 183 181 184
0.12298 -0.441344 -0.559 191 185 187
0.124045 -0.441344 -0.559 184 178 180
0.12511 -0.441344 -0.559 152 148 149
0.126174 -0.441344 -0.559 170 166 167
0.127239 -0.441344 -0.559 182 180 183
0.128304 -0.441344 -0.559 198 196 199
0.323819 -0.443712 -0.562 183 183 195
0.32489 -0.443712 -0.562 189 185 200
0.32596 -0.443712 -0.562 189 185 200
0.32703 -0.443712 -0.562 185 189 200
0.328101 -0.443712 -0.562 181 185 196
0.329171 -0.443712 -0.562 174 181 191
0.330242 -0.443712 -0.562 176 183 193
0.42588 -0.43108 -0.546 103 69 57
0.42692 -0.43108 -0.546 106 70 58
0.427176 -0.43029 -0.545 106 70 58
0.427429 -0.429501 -0.544 108 70 57
0.427677 -0.428711 -0.543 108 70 57
0.427922 -0.427922 -0.542 112 73 58
0.428954 -0.427922 -0.542 114 75 60
0.429193 -0.427132 -0.541 117 75 61
0.429429 -0.426343 -0.54 117 75 61
0.42966 -0.425553 -0.539 122 80 58
0.430687 -0.425553 -0.539 121 79 57
0.430111 -0.423974 -0.537 124 79 58
0.430331 -0.423185 -0.536 127 82 61
0.430548 -0.422395 -0.535 130 84 61
0.431567 -0.422395 -0.535 135 89 66
0.431777 -0.421606 -0.534 143 95 72
0.431984 -0.420816 -0.533 148 100 77
0.432187 -0.420027 -0.532 155 104 77
0.4332 -0.420027 -0.532 158 107 80
0.433397 -0.419237 -0.531 165 109 82
0.43359 -0.418448 -0.53 168 112 85
0.43378 -0.417658 -0.529 171 114 85
0.434788 -0.417658 -0.529 171 114 85
0.434971 -0.416869 -0.528 170 113 83
0.435977 -0.416869 -0.528 173 116 86
0.436155 -0.416079 -0.527 172 115 85
0.437159 -0.416079 -0.527 173 116 86
0.437331 -0.41529 -0.526 171 114 85
0.438333 -0.41529 -0.526 174 117 88
0.439335 -0.41529 -0.526 174 117 88
0.4395 -0.4145 -0.525 181 124 95
0.4405 -0.4145 -0.525 177 120 91
0.4415 -0.4145 -0.525 171 116 86
0.441657 -0.41371 -0.524 174 119 89
0.44181 -0.412921 -0.523 174 119 89
0.442807 -0.412921 -0.523 174 119 89
0.443803 -0.412921 -0.523 176 120 93
0.443949 -0.412131 -0.522 178 122 95
0.444943 -0.412131 -0.522 180 124 97
0.445937 -0.412131 -0.522 182 126 99
0.446931 -0.412131 -0.522 183 128 98
0.447926 -0.412131 -0.522 182 127 97
0.44806 -0.411342 -0.521 181 130 101
0.449052 -0.411342 -0.521 182 131 102
0.450045 -0.411342 -0.521 184 133 104
0.451037 -0.411342 -0.521 185 134 105
0.451162 -0.410552 -0.52 185 134 105
0.452152 -0.410552 -0.52 184 133 104
0.453143 -0.410552 -0.52 184 133 104
0.454133 -0.410552 -0.52 184 133 104
0.455124 -0.410552 -0.52 181 131 104
0.456114 -0.410552 -0.52 178 128 101
0.456226 -0.409763 -0.519 179 129 102
0.457214 -0.409763 -0.519 182 132 105
0.458203 -0.409763 -0.519 181 131 104
0.459191 -0.409763 -0.519 177 127 100
0.46018 -0.409763 -0.519 177 127 100
0.461169 -0.409763 -0.519 179 129 102
0.462157 -0.409763 -0.519 176 129 101
0.463146 -0.409763 -0.519 175 128 98
0.464134 -0.409763 -0.519 176 129 101
0.465123 -0.409763 -0.519 177 130 102
0.466111 -0.409763 -0.519 174 127 101
0.4671 -0.409763 -0.519 169 122 96
0.468089 -0.409763 -0.519 168 121 95
0.469981 -0.410552 -0.52 171 124 98
0.470971 -0.410552 -0.52 171 125 101
0.471962 -0.410552 -0.52 173 127 103
0.473862 -0.411342 -0.521 172 126 103
0.474854 -0.411342 -0.521 170 124 101
0.475847 -0.411342 -0.521 168 121 101
0.477754 -0.412131 -0.522 169 122 102
0.478749 -0.412131 -0.522 169 124 101
0.480662 -0.412921 -0.523 168 123 100
0.481658 -0.412921 -0.523 169 124 103
0.483577 -0.41371 -0.524 169 124 103
0.4855 -0.4145 -0.525 162 124 101
0.488353 -0.416079 -0.527 160 122 99
0.490286 -0.416869 -0.528 164 123 91
0.493152 -0.418448 -0.53 164 123 91
0.494162 -0.418448 -0.53 164 123 91
0.49704 -0.420027 -0.532 167 118 101
0.499926 -0.421606 -0.534 167 118 101
0.502819 -0.423185 -0.536 161 126 98
0.50572 -0.424764 -0.538 161 126 98
0.50957 -0.427132 -0.541 168 129 100
0.512489 -0.428711 -0.543 164 125 96
0.51636 -0.43108 -0.546 162 121 103
0.519295 -0.432659 -0.548 166 125 107
0.01386 -0.42658 -0.539 195 149 123
0.0148314 -0.424997 -0.537 196 149 123
0.0157657 -0.422623 -0.534 195 148 122
0.0166571 -0.419457 -0.53 195 148 120
0.0175333 -0.416291 -0.526 194 147 119
0.0184295 -0.413917 -0.523 196 147 117
0.0193143 -0.411543 -0.52 196 147 117
0.0201876 -0.409169 -0.517 197 148 118
0.0211314 -0.408377 -0.516 199 150 120
0.0220714 -0.407586 -0.515 199 150 120
0.0230076 -0.406794 -0.514 199 150 120
0.02394 -0.406003 -0.513 199 150 118
0.0248686 -0.405211 -0.512 199 150 118
0.0257933 -0.40442 -0.511 204 155 125
0.0267667 -0.40442 -0.511 208 159 129
0.02774 -0.40442 -0.511 211 162 132
0.0286571 -0.403629 -0.51 210 161 131
0.0296286 -0.403629 -0.51 208 159 129
0.03054 -0.402837 -0.509 206 157 127
0.0315095 -0.402837 -0.509 205 156 126
0.032479 -0.402837 -0.509 207 158 128
0.0334486 -0.402837 -0.509 206 160 127
0.0344181 -0.402837 -0.509 204 158 125
0.0353876 -0.402837 -0.509 202 156 123
0.0363571 -0.402837 -0.509 202 156 123
0.0373267 -0.402837 -0.509 203 157 124
0.0382962 -0.402837 -0.509 202 156 123
0.0392657 -0.402837 -0.509 200 154 121
0.0402352 -0.402837 -0.509 200 154 121
0.0412048 -0.402837 -0.509 196 150 117
0.0421743 -0.402837 -0.509 197 151 118
0.0431438 -0.402837 -0.509 196 151 118
0.0441133 -0.402837 -0.509 197 152 119
0.0450829 -0.402837 -0.509 192 147 114
0.0460524 -0.402837 -0.509 193 148 115
0.0470219 -0.402837 -0.509 192 145 115
0.0479914 -0.402837 -0.509 192 145 115
0.048961 -0.402837 -0.509 190 145 114
0.0499305 -0.402837 -0.509 191 146 115
0.0509 -0.402837 -0.509 193 148 115
0.0518695 -0.402837 -0.509 192 147 114
0.0529429 -0.403629 -0.51 188 143 110
0.0539143 -0.403629 -0.51 187 142 109
0.0548857 -0.403629 -0.51 190 145 112
0.0559667 -0.40442 -0.511 192 147 114
0.05694 -0.40442 -0.511 195 149 115
0.0580267 -0.405211 -0.512 194 148 114
0.0590019 -0.405211 -0.512 193 147 113
0.0599771 -0.405211 -0.512 192 146 112
0.0610714 -0.406003 -0.513 192 146 113
0.0620486 -0.406003 -0.513 192 146 113
0.0630257 -0.406003 -0.513 192 145 115
0.0641276 -0.406794 -0.514 192 145 115
0.0651067 -0.406794 -0.514 191 144 114
0.0662143 -0.407586 -0.515 189 142 112
0.0671952 -0.407586 -0.515 187 140 112
0.0683086 -0.408377 -0.516 187 140 112
0.0692914 -0.408377 -0.516 189 139 114
0.0702743 -0.408377 -0.516 188 138 113
0.0713952 -0.409169 -0.517 186 136 111
0.07252 -0.40996 -0.518 185 135 110
0.0735067 -0.40996 -0.518 180 137 105
0.0746371 -0.410751 -0.519 174 131 99
0.0756257 -0.410751 -0.519 174 131 99
0.0767619 -0.411543 -0.52 173 127 103
0.0779019 -0.412334 -0.521 173 127 103
0.0790457 -0.413126 -0.522 171 124 106
0.0801933 -0.413917 -0.523 170 123 105
0.0813448 -0.414709 -0.524 170 123 107
0.0825 -0.4155 -0.525 166 119 103
0.0836591 -0.416291 -0.526 162 119 102
0.0848219 -0.417083 -0.527 159 116 99
0.0861514 -0.418666 -0.529 153 114 99
0.0873238 -0.419457 -0.53 149 110 95
0.0886667 -0.42104 -0.532 144 107 98
0.0900171 -0.422623 -0.534 141 104 95
0.0913752 -0.424206 -0.536 134 101 94
0.092741 -0.425789 -0.538 132 99 92
0.0941143 -0.427371 -0.54 125 99 98
0.108943 -0.441617 -0.558 110 102 100
0.110006 -0.441617 -0.558 116 110 110
0.111268 -0.442409 -0.559 127 121 121
0.112332 -0.442409 -0.559 141 135 135
0.113397 -0.442409 -0.559 147 141 141
0.114462 -0.442409 -0.559 151 149 154
0.115527 -0.442409 -0.559 162 160 165
0.116591 -0.442409 -0.559 169 167 172
0.117656 -0.442409 -0.559 170 168 173
0.118721 -0.442409 -0.559 170 169 174
0.119786 -0.442409 -0.559 177 176 181
0.12085 -0.442409 -0.559 174 175 179
0.121915 -0.442409 -0.559 187 188 192
0.12298 -0.442409 -0.559 184 182 185
0.124045 -0.442409 -0.559 187 185 188
0.124886 -0.441617 -0.558 183 177 177
0.125949 -0.441617 -0.558 163 157 157
0.127011 -0.441617 -0.558 147 142 146
0.128074 -0.441617 -0.558 192 187 191
0.129137 -0.441617 -0.558 205 206 210
0.1302 -0.441617 -0.558 206 207 211
0.131263 -0.441617 -0.558 201 210 219
0.132326 -0.441617 -0.558 202 211 220
0.133389 -0.441617 -0.558 206 209 224
0.134451 -0.441617 -0.558 207 210 225
0.135514 -0.441617 -0.558 200 204 216
0.136577 -0.441617 -0.558 179 183 195
0.323243 -0.443991 -0.561 188 187 201
0.324311 -0.443991 -0.561 192 189 200
0.32538 -0.443991 -0.561 193 190 201
0.326449 -0.443991 -0.561 187 191 202
0.327517 -0.443991 -0.561 185 189 200
0.328586 -0.443991 -0.561 181 187 199
0.329654 -0.443991 -0.561 181 187 199
0.330723 -0.443991 -0.561 182 181 187
0.331791 -0.443991 -0.561 157 156 162
0.33286 -0.443991 -0.561 123 122 127
0.333929 -0.443991 -0.561 120 119 124
0.334997 -0.443991 -0.561 109 118 149
0.336066 -0.443991 -0.561 72 81 112
0.337134 -0.443991 -0.561 49 72 124
0.338203 -0.443991 -0.561 43 66 118
0.339271 -0.443991 -0.561 38 72 118
0.34034 -0.443991 -0.561 34 68 114
0.341409 -0.443991 -0.561 37 63 114
0.42692 -0.43212 -0.546 103 70 53
0.42796 -0.43212 -0.546 104 71 54
0.428214 -0.431329 -0.545 107 72 53
0.428465 -0.430537 -0.544 107 72 53
0.428711 -0.429746 -0.543 110 73 54
0.428954 -0.428954 -0.542 112 75 56
0.429193 -0.428163 -0.541 115 77 58
0.430224 -0.428163 -0.541 117 79 60
0.430457 -0.427371 -0.54 120 80 55
0.430687 -0.42658 -0.539 120 80 55
0.430912 -0.425789 -0.538 125 81 56
0.431134 -0.424997 -0.537 126 82 57
0.431352 -0.424206 -0.536 129 83 57
0.431567 -0.423414 -0.535 136 90 64
0.431777 -0.422623 -0.534 145 98 70
0.431984 -0.421831 -0.533 147 100 72
0.432187 -0.42104 -0.532 154 103 74
0.4332 -0.42104 -0.532 161 110 81
0.433397 -0.420249 -0.531 168 113 83
0.43359 -0.419457 -0.53 165 110 80
0.4346 -0.419457 -0.53 169 112 83
0.434788 -0.418666 -0.529 171 114 85
0.434971 -0.417874 -0.528 170 113 83
0.435977 -0.417874 -0.528 174 117 87
0.436155 -0.417083 -0.527 175 118 88
0.437159 -0.417083 -0.527 178 121 91
0.437331 -0.416291 -0.526 176 119 90
0.438333 -0.416291 -0.526 175 118 89
0.439335 -0.416291 -0.526 175 118 89
0.440337 -0.416291 -0.526 176 119 90
0.4405 -0.4155 -0.525 175 118 89
0.4415 -0.4155 -0.525 176 119 89
0.4425 -0.4155 -0.525 175 118 88
0.442655 -0.414709 -0.524 176 119 89
0.442807 -0.413917 -0.523 177 120 90
0.443803 -0.413917 -0.523 181 124 95
0.443949 -0.413126 -0.522 183 126 97
0.444943 -0.413126 -0.522 182 127 97
0.445937 -0.413126 -0.522 183 128 98
0.446075 -0.412334 -0.521 183 128 98
0.447068 -0.412334 -0.521 181 126 96
0.44806 -0.412334 -0.521 181 130 103
0.449052 -0.412334 -0.521 182 131 104
0.449181 -0.411543 -0.52 182 131 104
0.450171 -0.411543 -0.52 184 133 106
0.451162 -0.411543 -0.52 187 136 109
0.452152 -0.411543 -0.52 185 134 107
0.453143 -0.411543 -0.52 183 132 105
0.454133 -0.411543 -0.52 184 133 106
0.455124 -0.411543 -0.52 185 134 107
0.456114 -0.411543 -0.52 183 132 105
0.456226 -0.410751 -0.519 182 132 105
0.457214 -0.410751 -0.519 185 135 108
0.458203 -0.410751 -0.519 184 134 107
0.459191 -0.410751 -0.519 178 128 101
0.46018 -0.410751 -0.519 176 126 99
0.461169 -0.410751 -0.519 179 129 102
0.462157 -0.410751 -0.519 178 131 101
0.463146 -0.410751 -0.519 175 128 100
0.464134 -0.410751 -0.519 176 129 101
0.465123 -0.410751 -0.519 176 129 101
0.466111 -0.410751 -0.519 173 126 100
0.4671 -0.410751 -0.519 169 122 96
0.468089 -0.410751 -0.519 168 122 96
0.469077 -0.410751 -0.519 171 125 99
0.470066 -0.410751 -0.519 172 126 100
0.471962 -0.411543 -0.52 171 125 99
0.472952 -0.411543 -0.52 172 126 100
0.474854 -0.412334 -0.521 169 123 97
0.475847 -0.412334 -0.521 167 121 95
0.476839 -0.412334 -0.521 168 122 96
0.477831 -0.412334 -0.521 169 123 97
0.479743 -0.413126 -0.522 170 124 98
0.480737 -0.413126 -0.522 170 125 102
0.482654 -0.413917 -0.523 170 125 102
0.484575 -0.414709 -0.524 169 124 101
0.4865 -0.4155 -0.525 168 123 100
0.488429 -0.416291 -0.526 168 123 100
0.491291 -0.417874 -0.528 167 122 99
0.49323 -0.418666 -0.529 162 121 101
0.494237 -0.418666 -0.529 162 121 101
0.497117 -0.420249 -0.531 162 121 101
0.500005 -0.421831 -0.533 161 123 102
0.50384 -0.424206 -0.536 160 122 101
0.506745 -0.425789 -0.538 160 122 101
0.510601 -0.428163 -0.541 161 123 102
0.513523 -0.429746 -0.543 161 123 104
0.5174 -0.43212 -0.546 162 124 105
0.0128571 -0.4284 -0.54 196 149 123
0.0137829 -0.425227 -0.536 196 149 123
0.0147486 -0.42364 -0.534 198 148 123
0.0156476 -0.420467 -0.53 196 146 121
0.0165314 -0.417293 -0.526 197 147 120
0.0174333 -0.414913 -0.523 198 148 121
0.0183238 -0.412533 -0.52 197 148 118
0.0192029 -0.410153 -0.517 196 147 117
0.0201486 -0.40936 -0.516 197 146 117
0.0210905 -0.408567 -0.515 198 147 118
0.0219857 -0.40698 -0.513 198 147 116
0.0229629 -0.40698 -0.513 198 147 116
0.0238933 -0.406187 -0.512 199 148 117
0.02482 -0.405393 -0.511 201 150 119
0.0257933 -0.405393 -0.511 204 155 125
0.0267143 -0.4046 -0.51 206 157 127
0.0276857 -0.4046 -0.51 208 159 127
0.0286571 -0.4046 -0.51 208 159 127
0.0295705 -0.403807 -0.509 207 158 126
0.03054 -0.403807 -0.509 205 156 124
0.0315095 -0.403807 -0.509 204 155 123
0.032479 -0.403807 -0.509 204 155 123
0.0334486 -0.403807 -0.509 202 156 122
0.0344181 -0.403807 -0.509 202 156 122
0.0353876 -0.403807 -0.509 201 155 121
0.0363571 -0.403807 -0.509 201 155 121
0.0373267 -0.403807 -0.509 202 156 120
0.0382962 -0.403807 -0.509 201 155 119
0.0392657 -0.403807 -0.509 199 153 117
0.0402352 -0.403807 -0.509 200 154 118
0.0412048 -0.403807 -0.509 197 151 118
0.0421743 -0.403807 -0.509 198 152 119
0.0431438 -0.403807 -0.509 195 150 117
0.0441133 -0.403807 -0.509 195 150 117
0.0450829 -0.403807 -0.509 191 146 113
0.0460524 -0.403807 -0.509 193 148 115
0.0470219 -0.403807 -0.509 193 147 114
0.0479914 -0.403807 -0.509 193 147 114
0.048961 -0.403807 -0.509 192 147 114
0.0499305 -0.403807 -0.509 192 147 114
0.0509 -0.403807 -0.509 194 149 116
0.0518695 -0.403807 -0.509 193 148 115
0.052839 -0.403807 -0.509 189 144 111
0.0538086 -0.403807 -0.509 189 144 111
0.0548857 -0.4046 -0.51 192 147 116
0.0559667 -0.405393 -0.511 193 148 117
0.05694 -0.405393 -0.511 195 149 116
0.0580267 -0.406187 -0.512 195 149 116
0.0590019 -0.406187 -0.512 194 148 115
0.0599771 -0.406187 -0.512 193 147 114
0.0609524 -0.406187 -0.512 192 146 113
0.0620486 -0.40698 -0.513 191 145 112
0.0630257 -0.40698 -0.513 192 145 115
0.0640029 -0.40698 -0.513 192 145 115
0.0651067 -0.407773 -0.514 190 143 113
0.0662143 -0.408567 -0.515 187 140 110
0.0671952 -0.408567 -0.515 185 138 110
0.0681762 -0.408567 -0.515 184 137 109
0.0692914 -0.40936 -0.516 184 137 109
0.0702743 -0.40936 -0.516 185 138 110
0.0713952 -0.410153 -0.517 184 137 111
0.07238 -0.410153 -0.517 184 137 111
0.0733648 -0.410153 -0.517 182 135 109
0.0744933 -0.410947 -0.518 178 134 105
0.0756257 -0.41174 -0.519 173 129 100
0.0767619 -0.412533 -0.52 172 127 104
0.0779019 -0.413327 -0.521 172 127 104
0.0790457 -0.41412 -0.522 171 124 108
0.0801933 -0.414913 -0.523 170 123 107
0.0813448 -0.415707 -0.524 169 123 108
0.0825 -0.4165 -0.525 165 119 104
0.0836591 -0.417293 -0.526 161 118 102
0.0849829 -0.41888 -0.528 158 115 99
0.0861514 -0.419673 -0.529 150 113 97
0.0874886 -0.42126 -0.531 146 109 93
0.0886667 -0.422053 -0.532 140 106 96
0.0900171 -0.42364 -0.534 137 103 93
0.0913752 -0.425227 -0.536 131 101 93
0.092741 -0.426813 -0.538 128 98 90
0.0941143 -0.4284 -0.54 123 99 97
0.110006 -0.44268 -0.558 121 115 115
0.111268 -0.443473 -0.559 130 124 124
0.112332 -0.443473 -0.559 140 134 134
0.113397 -0.443473 -0.559 148 142 142
0.114462 -0.443473 -0.559 155 154 159
0.11532 -0.44268 -0.558 162 161 166
0.116383 -0.44268 -0.558 166 165 171
0.117446 -0.44268 -0.558 171 170 176
0.118721 -0.443473 -0.559 172 172 180
0.119786 -0.443473 -0.559 167 167 175
0.12085 -0.443473 -0.559 165 165 173
0.121915 -0.443473 -0.559 185 185 193
0.12298 -0.443473 -0.559 185 183 188
0.123823 -0.44268 -0.558 190 188 193
0.124886 -0.44268 -0.558 195 189 191
0.125949 -0.44268 -0.558 163 157 159
0.127011 -0.44268 -0.558 137 133 134
0.128074 -0.44268 -0.558 187 183 184
0.429 -0.43316 -0.546 103 69 57
0.429252 -0.432367 -0.545 105 71 59
0.429501 -0.431573 -0.544 111 72 55
0.429746 -0.43078 -0.543 114 75 58
0.429987 -0.429987 -0.542 121 76 55
0.430224 -0.429193 -0.541 124 79 58
0.430457 -0.4284 -0.54 117 79 56
0.430687 -0.427607 -0.539 117 79 56
0.430912 -0.426813 -0.538 123 81 59
0.431134 -0.42602 -0.537 127 85 63
0.431352 -0.425227 -0.536 135 89 66
0.431567 -0.424433 -0.535 138 92 69
0.431777 -0.42364 -0.534 147 95 73
0.432794 -0.42364 -0.534 153 101 79
0.432187 -0.422053 -0.532 161 105 82
0.4332 -0.422053 -0.532 162 106 83
0.433397 -0.42126 -0.531 166 110 85
0.43359 -0.420467 -0.53 164 108 83
0.43378 -0.419673 -0.529 169 113 86
0.434788 -0.419673 -0.529 169 113 86
0.434971 -0.41888 -0.528 173 118 88
0.435977 -0.41888 -0.528 173 118 88
0.436155 -0.418087 -0.527 176 120 93
0.437159 -0.418087 -0.527 174 118 91
0.437331 -0.417293 -0.526 176 120 93
0.438333 -0.417293 -0.526 175 119 92
0.439335 -0.417293 -0.526 173 117 90
0.440337 -0.417293 -0.526 173 117 90
0.4405 -0.4165 -0.525 175 119 92
0.4415 -0.4165 -0.525 175 119 92
0.4425 -0.4165 -0.525 178 122 95
0.442655 -0.415707 -0.524 178 122 95
0.442807 -0.414913 -0.523 178 122 95
0.443803 -0.414913 -0.523 181 127 99
0.443949 -0.41412 -0.522 182 128 100
0.444943 -0.41412 -0.522 183 129 101
0.445937 -0.41412 -0.522 184 130 102
0.446075 -0.413327 -0.521 181 127 99
0.447068 -0.413327 -0.521 181 127 99
0.44806 -0.413327 -0.521 182 128 102
0.44819 -0.412533 -0.52 185 131 105
0.449181 -0.412533 -0.52 183 129 101
0.450171 -0.412533 -0.52 184 130 102
0.451162 -0.412533 -0.52 184 133 104
0.452152 -0.412533 -0.52 182 131 102
0.452271 -0.41174 -0.519 182 131 104
0.45326 -0.41174 -0.519 183 132 105
0.454249 -0.41174 -0.519 183 132 105
0.455237 -0.41174 -0.519 183 132 105
0.456226 -0.41174 -0.519 184 134 107
0.457214 -0.41174 -0.519 181 131 104
0.45732 -0.410947 -0.518 183 133 106
0.458307 -0.410947 -0.518 177 127 100
0.459293 -0.410947 -0.518 176 126 101
0.46028 -0.410947 -0.518 174 124 99
0.461267 -0.410947 -0.518 175 128 100
0.462253 -0.410947 -0.518 172 125 97
0.464134 -0.41174 -0.519 174 127 99
0.465123 -0.41174 -0.519 175 128 100
0.466111 -0.41174 -0.519 171 124 96
0.4671 -0.41174 -0.519 169 122 94
0.468089 -0.41174 -0.519 170 124 98
0.469077 -0.41174 -0.519 172 126 100
0.470066 -0.41174 -0.519 171 125 99
0.471054 -0.41174 -0.519 170 124 98
0.472952 -0.412533 -0.52 170 124 98
0.473943 -0.412533 -0.52 168 122 96
0.474933 -0.412533 -0.52 166 122 95
0.475924 -0.412533 -0.52 167 123 96
0.477831 -0.413327 -0.521 167 123 96
0.478824 -0.413327 -0.521 168 124 97
0.479816 -0.413327 -0.521 170 125 102
0.481731 -0.41412 -0.522 170 125 102
0.48365 -0.414913 -0.523 169 125 100
0.484647 -0.414913 -0.523 167 123 98
0.4875 -0.4165 -0.525 167 122 99
0.48943 -0.417293 -0.526 166 121 98
0.491365 -0.418087 -0.527 163 121 99
0.494237 -0.419673 -0.529 163 121 99
0.495245 -0.419673 -0.529 163 121 99
0.498129 -0.42126 -0.531 161 120 98
0.50102 -0.422847 -0.533 161 120 98
0.504861 -0.425227 -0.536 161 120 98
0.508713 -0.427607 -0.539 163 122 100
0.511631 -0.429193 -0.541 163 122 102
0.514557 -0.43078 -0.543 163 122 102
0.51844 -0.43316 -0.546 160 122 101
0.0127857 -0.427043 -0.537 198 148 123
0.0137314 -0.424657 -0.534 198 148 123
0.0146657 -0.422271 -0.531 198 148 121
0.015559 -0.41909 -0.527 197 147 120
0.0164371 -0.41591 -0.523 197 147 120
0.0173333 -0.413524 -0.52 197 147 120
0.0182533 -0.411933 -0.518 198 147 118
0.0191286 -0.409548 -0.515 197 146 117
0.0200705 -0.408752 -0.514 197 146 115
0.0210086 -0.407957 -0.513 197 146 115
0.0219429 -0.407162 -0.512 197 146 115
0.0229181 -0.407162 -0.512 198 147 116
0.0238467 -0.406367 -0.511 201 150 119
0.0247714 -0.405571 -0.51 204 153 122
0.0257429 -0.405571 -0.51 205 156 124
0.0267143 -0.405571 -0.51 204 155 123
0.0276857 -0.405571 -0.51 205 156 123
0.028601 -0.404776 -0.509 206 157 124
0.0295705 -0.404776 -0.509 205 156 123
0.03054 -0.404776 -0.509 205 156 123
0.0314476 -0.403981 -0.508 202 156 122
0.0324152 -0.403981 -0.508 201 155 121
0.0333829 -0.403981 -0.508 201 155 119
0.0343505 -0.403981 -0.508 200 154 118
0.0353181 -0.403981 -0.508 201 155 119
0.0362857 -0.403981 -0.508 202 156 120
0.0372533 -0.403981 -0.508 202 156 120
0.038221 -0.403981 -0.508 201 155 119
0.0391886 -0.403981 -0.508 199 155 116
0.0401562 -0.403981 -0.508 198 154 115
0.0411238 -0.403981 -0.508 197 151 117
0.0420914 -0.403981 -0.508 196 150 116
0.0431438 -0.404776 -0.509 195 149 116
0.0440267 -0.403981 -0.508 195 149 116
0.0449943 -0.403981 -0.508 193 147 114
0.0459619 -0.403981 -0.508 195 149 116
0.0469295 -0.403981 -0.508 193 147 114
0.0478971 -0.403981 -0.508 192 146 113
0.0488648 -0.403981 -0.508 191 146 113
0.0498324 -0.403981 -0.508 192 147 114
0.0508 -0.403981 -0.508 194 149 116
0.0518695 -0.404776 -0.509 193 148 115
0.052839 -0.404776 -0.509 192 147 114
0.0538086 -0.404776 -0.509 193 148 115
0.0548857 -0.405571 -0.51 194 149 118
0.0558571 -0.405571 -0.51 194 149 118
0.05694 -0.406367 -0.511 194 148 115
0.0579133 -0.406367 -0.511 194 148 115
0.0590019 -0.407162 -0.512 195 149 116
0.0599771 -0.407162 -0.512 194 148 115
0.0609524 -0.407162 -0.512 192 145 115
0.0620486 -0.407957 -0.513 190 143 113
0.0630257 -0.407957 -0.513 190 143 113
0.0640029 -0.407957 -0.513 190 143 113
0.0651067 -0.408752 -0.514 188 141 113
0.0660857 -0.408752 -0.514 187 140 112
0.0671952 -0.409548 -0.515 184 137 109
0.0681762 -0.409548 -0.515 184 137 109
0.0691571 -0.409548 -0.515 183 136 108
0.0702743 -0.410343 -0.516 183 136 108
0.0712571 -0.410343 -0.516 184 137 109
0.07238 -0.411138 -0.517 183 136 110
0.0733648 -0.411138 -0.517 181 134 108
0.0744933 -0.411933 -0.518 177 133 106
0.0756257 -0.412729 -0.519 173 129 102
0.0767619 -0.413524 -0.52 173 128 107
0.0779019 -0.414319 -0.521 173 128 107
0.0790457 -0.415114 -0.522 170 124 109
0.0801933 -0.41591 -0.523 169 123 108
0.0813448 -0.416705 -0.524 167 121 108
0.0826571 -0.418295 -0.526 163 117 104
0.0838181 -0.41909 -0.527 157 115 101
0.0849829 -0.419886 -0.528 155 113 99
0.0863143 -0.421476 -0.53 147 111 97
0.0874886 -0.422271 -0.531 143 107 93
0.0888333 -0.423862 -0.533 137 105 94
0.0900171 -0.424657 -0.534 135 103 92
0.0913752 -0.426248 -0.536 129 100 94
0.092741 -0.427838 -0.538 126 97 91
0.108748 -0.442948 -0.557 119 110 111
0.109809 -0.442948 -0.557 129 123 123
0.111069 -0.443743 -0.558 137 131 131
0.112131 -0.443743 -0.558 144 140 141
0.113194 -0.443743 -0.558 154 150 151
0.114257 -0.443743 -0.558 156 157 161
0.11532 -0.443743 -0.558 164 165 169
0.116174 -0.442948 -0.557 167 170 179
0.117446 -0.443743 -0.558 167 170 179
0.118509 -0.443743 -0.558 164 167 182
0.119571 -0.443743 -0.558 147 150 165
0.120634 -0.443743 -0.558 151 153 168
0.121697 -0.443743 -0.558 176 178 193
0.12276 -0.443743 -0.558 191 188 197
0.123823 -0.443743 -0.558 190 187 196
0.124662 -0.442948 -0.557 202 196 200
0.125723 -0.442948 -0.557 192 186 190
0.126784 -0.442948 -0.557 167 163 162
0.127845 -0.442948 -0.557 186 182 181
0.128906 -0.442948 -0.557 210 212 211
0.129967 -0.442948 -0.557 212 214 213
0.131028 -0.442948 -0.557 210 209 214
0.132089 -0.442948 -0.557 212 211 216
0.13315 -0.442948 -0.557 210 213 222
0.13421 -0.442948 -0.557 207 210 219
0.135271 -0.442948 -0.557 211 214 223
0.136332 -0.442948 -0.557 210 213 222
0.317333 -0.445333 -0.56 191 193 205
0.3184 -0.445333 -0.56 193 195 207
0.319467 -0.445333 -0.56 188 191 200
0.320533 -0.445333 -0.56 190 193 202
0.3216 -0.445333 -0.56 192 195 202
0.322667 -0.445333 -0.56 193 196 203
0.323733 -0.445333 -0.56 197 197 209
0.3248 -0.445333 -0.56 198 198 210
0.325867 -0.445333 -0.56 189 191 203
0.326933 -0.445333 -0.56 190 192 204
0.328 -0.445333 -0.56 185 187 199
0.329067 -0.445333 -0.56 185 187 199
0.330133 -0.445333 -0.56 182 185 192
0.3312 -0.445333 -0.56 177 180 187
0.332267 -0.445333 -0.56 165 171 183
0.333333 -0.445333 -0.56 142 148 160
0.3344 -0.445333 -0.56 88 100 126
0.335467 -0.445333 -0.56 70 82 108
0.336533 -0.445333 -0.56 66 84 122
0.3376 -0.445333 -0.56 84 102 140
0.338667 -0.445333 -0.56 94 112 158
0.339733 -0.445333 -0.56 94 112 158
0.3408 -0.445333 -0.56 78 101 145
0.341867 -0.445333 -0.56 45 68 112
0.342933 -0.445333 -0.56 42 69 122
0.344 -0.445333 -0.56 51 78 131
0.345067 -0.445333 -0.56 51 78 131
0.346133 -0.445333 -0.56 46 77 134
0.3472 -0.445333 -0.56 38 69 126
0.429501 -0.43261 -0.544 108 72 58
0.429746 -0.431814 -0.543 111 75 61
0.43078 -0.431814 -0.543 117 76 58
0.431019 -0.431019 -0.542 120 79 61
0.431254 -0.430224 -0.541 119 78 56
0.431486 -0.429429 -0.54 122 81 59
0.431713 -0.428633 -0.539 126 84 60
0.431134 -0.427043 -0.537 129 87 63
0.431352 -0.426248 -0.536 136 88 65
0.431567 -0.425452 -0.535 141 93 70
0.432586 -0.425452 -0.535 150 98 74
0.432794 -0.424657 -0.534 154 102 78
0.432999 -0.423862 -0.533 160 104 79
0.4332 -0.423067 -0.532 162 106 81
0.433397 -0.422271 -0.531 166 111 81
0.43359 -0.421476 -0.53 165 110 80
0.43378 -0.420681 -0.529 169 114 84
0.434788 -0.420681 -0.529 169 114 84
0.435795 -0.420681 -0.529 172 117 86
0.435977 -0.419886 -0.528 174 119 88
0.436155 -0.41909 -0.527 173 117 84
0.437159 -0.41909 -0.527 174 118 85
0.437331 -0.418295 -0.526 175 119 86
0.438333 -0.418295 -0.526 175 119 86
0.439335 -0.418295 -0.526 175 121 87
0.440337 -0.418295 -0.526 175 121 87
0.4405 -0.4175 -0.525 175 121 87
0.4415 -0.4175 -0.525 176 122 88
0.4425 -0.4175 -0.525 179 125 91
0.442655 -0.416705 -0.524 179 125 91
0.442807 -0.41591 -0.523 180 126 92
0.443803 -0.41591 -0.523 182 128 94
0.443949 -0.415114 -0.522 182 128 94
0.444943 -0.415114 -0.522 182 129 95
0.445937 -0.415114 -0.522 182 129 95
0.446075 -0.414319 -0.521 182 129 95
0.447068 -0.414319 -0.521 182 129 95
0.44806 -0.414319 -0.521 183 129 101
0.44819 -0.413524 -0.52 185 131 103
0.449181 -0.413524 -0.52 184 131 100
0.450171 -0.413524 -0.52 185 132 101
0.451162 -0.413524 -0.52 185 131 103
0.452152 -0.413524 -0.52 184 130 102
0.452271 -0.412729 -0.519 183 132 103
0.45326 -0.412729 -0.519 183 132 103
0.454249 -0.412729 -0.519 184 133 106
0.455237 -0.412729 -0.519 183 132 105
0.456226 -0.412729 -0.519 182 133 103
0.457214 -0.412729 -0.519 179 130 100
0.45732 -0.411933 -0.518 180 131 101
0.458307 -0.411933 -0.518 176 127 97
0.459293 -0.411933 -0.518 175 125 98
0.46028 -0.411933 -0.518 174 124 97
0.461267 -0.411933 -0.518 171 124 96
0.462253 -0.411933 -0.518 170 123 95
0.46324 -0.411933 -0.518 173 126 98
0.465123 -0.412729 -0.519 174 127 99
0.466111 -0.412729 -0.519 171 124 96
0.4671 -0.412729 -0.519 171 124 96
0.468089 -0.412729 -0.519 171 125 99
0.469077 -0.412729 -0.519 171 125 99
0.470066 -0.412729 -0.519 171 125 99
0.471054 -0.412729 -0.519 171 125 99
0.472043 -0.412729 -0.519 169 125 98
0.473943 -0.413524 -0.52 168 124 97
0.474933 -0.413524 -0.52 169 125 100
0.475924 -0.413524 -0.52 168 124 99
0.476914 -0.413524 -0.52 165 121 96
0.477905 -0.413524 -0.52 165 121 96
0.479816 -0.414319 -0.521 170 126 101
0.480809 -0.414319 -0.521 170 126 101
0.482726 -0.415114 -0.522 168 124 99
0.48372 -0.415114 -0.522 166 122 97
0.485643 -0.41591 -0.523 166 122 97
0.48757 -0.416705 -0.524 165 121 96
0.490432 -0.418295 -0.526 163 121 97
0.492369 -0.41909 -0.527 163 121 97
0.495245 -0.420681 -0.529 163 121 97
0.496252 -0.420681 -0.529 163 121 97
0.49914 -0.422271 -0.531 164 122 98
0.502977 -0.424657 -0.534 164 122 98
0.505882 -0.426248 -0.536 165 123 99
0.50974 -0.428633 -0.539 165 123 99
0.512662 -0.430224 -0.541 164 122 98
0.515591 -0.431814 -0.543 162 121 99
0.518529 -0.433405 -0.545 160 119 97
0.0128333 -0.42966 -0.539 196 149 123
0.0137571 -0.426471 -0.535 196 149 121
0.0145829 -0.420891 -0.528 199 149 122
0.0154705 -0.417703 -0.524 200 150 123
0.0163429 -0.414514 -0.52 198 148 121
0.0173 -0.413717 -0.519 198 148 121
0.0181829 -0.411326 -0.516 197 146 117
0.0190914 -0.409731 -0.514 198 147 118
0.0200314 -0.408934 -0.513 198 147 116
0.0209676 -0.408137 -0.512 197 146 115
0.0219 -0.40734 -0.511 197 146 115
0.0228733 -0.40734 -0.511 199 148 117
0.0238 -0.406543 -0.51 205 152 121
0.0247714 -0.406543 -0.51 209 156 125
0.0257429 -0.406543 -0.51 204 155 122
0.0266619 -0.405746 -0.509 203 154 121
0.0276314 -0.405746 -0.509 205 156 123
0.028601 -0.405746 -0.509 206 157 124
0.0295124 -0.404949 -0.508 203 157 123
0.03048 -0.404949 -0.508 202 156 122
0.0314476 -0.404949 -0.508 202 156 120
0.0324152 -0.404949 -0.508 201 155 119
0.0333829 -0.404949 -0.508 202 156 120
0.0343505 -0.404949 -0.508 201 155 119
0.0353181 -0.404949 -0.508 202 156 120
0.0362857 -0.404949 -0.508 203 157 121
0.0372533 -0.404949 -0.508 202 156 120
0.038221 -0.404949 -0.508 202 156 120
0.0391886 -0.404949 -0.508 200 155 116
0.0401562 -0.404949 -0.508 197 152 113
0.0411238 -0.404949 -0.508 197 151 117
0.0420914 -0.404949 -0.508 196 150 116
0.043059 -0.404949 -0.508 193 147 114
0.0440267 -0.404949 -0.508 194 148 115
0.0449943 -0.404949 -0.508 193 147 114
0.0459619 -0.404949 -0.508 194 148 115
0.0469295 -0.404949 -0.508 190 144 111
0.0478971 -0.404949 -0.508 189 143 110
0.0488648 -0.404949 -0.508 189 144 111
0.0498324 -0.404949 -0.508 191 146 113
0.0508 -0.404949 -0.508 194 148 115
0.0517676 -0.404949 -0.508 194 148 115
0.052839 -0.405746 -0.509 194 149 116
0.0538086 -0.405746 -0.509 194 149 116
0.0547781 -0.405746 -0.509 194 149 116
0.0558571 -0.406543 -0.51 193 148 115
0.05694 -0.40734 -0.511 193 146 116
0.0579133 -0.40734 -0.511 194 147 117
0.0588867 -0.40734 -0.511 195 148 118
0.05986 -0.40734 -0.511 194 147 117
0.0609524 -0.408137 -0.512 193 146 116
0.0620486 -0.408934 -0.513 190 143 113
0.0630257 -0.408934 -0.513 188 141 113
0.0640029 -0.408934 -0.513 188 141 113
0.06498 -0.408934 -0.513 186 139 111
0.0659571 -0.408934 -0.513 185 138 110
0.0670648 -0.409731 -0.514 185 138 110
0.0681762 -0.410529 -0.515 185 138 112
0.0691571 -0.410529 -0.515 184 137 111
0.0702743 -0.411326 -0.516 184 137 111
0.0712571 -0.411326 -0.516 183 136 110
0.07238 -0.412123 -0.517 181 134 108
0.0733648 -0.412123 -0.517 179 132 106
0.0744933 -0.41292 -0.518 178 132 108
0.0756257 -0.413717 -0.519 175 129 105
0.0767619 -0.414514 -0.52 175 128 108
0.0779019 -0.415311 -0.521 175 128 108
0.0790457 -0.416109 -0.522 172 124 110
0.0803467 -0.417703 -0.524 169 121 107
0.0815 -0.4185 -0.525 165 119 106
0.0826571 -0.419297 -0.526 161 115 102
0.0838181 -0.420094 -0.527 152 113 98
0.0849829 -0.420891 -0.528 150 111 96
0.0863143 -0.422486 -0.53 143 110 95
0.0874886 -0.423283 -0.531 140 107 92
0.0888333 -0.424877 -0.533 135 105 94
0.0901857 -0.426471 -0.535 132 102 91
0.0915457 -0.428066 -0.537 127 100 93
0.0929133 -0.42966 -0.539 124 97 90
0.109809 -0.444009 -0.557 132 126 130
0.11087 -0.444009 -0.557 139 133 137
0.11193 -0.444009 -0.557 144 139 143
0.113194 -0.444806 -0.558 155 150 154
0.114052 -0.444009 -0.557 154 157 162
0.115113 -0.444009 -0.557 159 162 167
0.116174 -0.444009 -0.557 158 165 175
0.117235 -0.444009 -0.557 158 165 175
0.118296 -0.444009 -0.557 144 151 170
0.119571 -0.444806 -0.558 113 120 139
0.120418 -0.444009 -0.557 127 132 152
0.121479 -0.444009 -0.557 160 165 185
0.12254 -0.444009 -0.557 183 181 195
0.123601 -0.444009 -0.557 181 179 193
0.124662 -0.444009 -0.557 191 186 192
0.125723 -0.444009 -0.557 198 193 199
0.43029 -0.434443 -0.545 102 70 57
0.430537 -0.433646 -0.544 105 73 60
0.43078 -0.432849 -0.543 112 76 60
0.431814 -0.432849 -0.543 115 79 63
0.431254 -0.431254 -0.541 122 80 56
0.431486 -0.430457 -0.54 125 83 59
0.431713 -0.42966 -0.539 131 87 62
0.431937 -0.428863 -0.538 133 89 64
0.432157 -0.428066 -0.537 139 89 64
0.432373 -0.427269 -0.536 146 96 71
0.432586 -0.426471 -0.535 154 100 74
0.432794 -0.425674 -0.534 155 101 75
0.432999 -0.424877 -0.533 158 102 75
0.4332 -0.42408 -0.532 162 106 79
0.433397 -0.423283 -0.531 167 110 80
0.43359 -0.422486 -0.53 167 110 80
0.4346 -0.422486 -0.53 170 116 82
0.434788 -0.421689 -0.529 169 115 81
0.435795 -0.421689 -0.529 170 116 82
0.435977 -0.420891 -0.528 172 118 84
0.436983 -0.420891 -0.528 170 114 77
0.437159 -0.420094 -0.527 174 118 81
0.437331 -0.419297 -0.526 174 118 81
0.438333 -0.419297 -0.526 175 119 82
0.439335 -0.419297 -0.526 178 122 85
0.4395 -0.4185 -0.525 177 121 84
0.4405 -0.4185 -0.525 177 121 84
0.4415 -0.4185 -0.525 177 123 87
0.4425 -0.4185 -0.525 180 126 90
0.442655 -0.417703 -0.524 182 128 92
0.442807 -0.416906 -0.523 181 127 91
0.443803 -0.416906 -0.523 181 127 91
0.443949 -0.416109 -0.522 182 128 92
0.444943 -0.416109 -0.522 183 129 93
0.445937 -0.416109 -0.522 183 129 93
0.446075 -0.415311 -0.521 185 131 95
0.447068 -0.415311 -0.521 185 131 95
0.4472 -0.414514 -0.52 185 132 101
0.44819 -0.414514 -0.52 185 132 101
0.449181 -0.414514 -0.52 184 131 100
0.449306 -0.413717 -0.519 186 133 102
0.450294 -0.413717 -0.519 185 132 101
0.451283 -0.413717 -0.519 184 131 100
0.452271 -0.413717 -0.519 183 132 103
0.45326 -0.413717 -0.519 183 132 103
0.454249 -0.413717 -0.519 184 133 104
0.45436 -0.41292 -0.518 182 131 102
0.455347 -0.41292 -0.518 181 130 101
0.456333 -0.41292 -0.518 179 128 99
0.45732 -0.41292 -0.518 178 129 99
0.458307 -0.41292 -0.518 174 125 95
0.459293 -0.41292 -0.518 174 124 97
0.46028 -0.41292 -0.518 173 123 96
0.461267 -0.41292 -0.518 170 123 95
0.462253 -0.41292 -0.518 175 125 98
0.46324 -0.41292 -0.518 175 125 98
0.464227 -0.41292 -0.518 175 125 98
0.465213 -0.41292 -0.518 174 127 101
0.4662 -0.41292 -0.518 174 127 101
0.467187 -0.41292 -0.518 173 126 100
0.468173 -0.41292 -0.518 171 124 98
0.46916 -0.41292 -0.518 172 126 102
0.471054 -0.413717 -0.519 171 125 101
0.472043 -0.413717 -0.519 171 125 101
0.473031 -0.413717 -0.519 170 124 100
0.47402 -0.413717 -0.519 168 124 99
0.475009 -0.413717 -0.519 166 122 97
0.475997 -0.413717 -0.519 162 118 93
0.476986 -0.413717 -0.519 160 116 91
