ply
format ascii 1.0
comment Created by Open3D
element vertex 1288
property double x
property double y
property double z
property uchar red
property uchar green
property uchar blue
end_header
0.44444 -0.449907 -0.574 154 157 164
0.445533 -0.449907 -0.574 143 146 153
0.447405 -0.45069 -0.575 139 144 150
0.4485 -0.45069 -0.575 154 159 165
0.449595 -0.45069 -0.575 154 159 165
0.45069 -0.45069 -0.575 155 160 166
0.451786 -0.45069 -0.575 155 158 163
0.452881 -0.45069 -0.575 151 154 159
0.453976 -0.45069 -0.575 152 152 152
0.455071 -0.45069 -0.575 135 135 135
0.456167 -0.45069 -0.575 96 92 89
0.457262 -0.45069 -0.575 126 122 119
0.459154 -0.451474 -0.576 145 148 153
0.460251 -0.451474 -0.576 144 147 152
0.461349 -0.451474 -0.576 125 132 151
0.462446 -0.451474 -0.576 95 102 121
0.463543 -0.451474 -0.576 59 70 100
0.46464 -0.451474 -0.576 56 67 97
0.465737 -0.451474 -0.576 79 88 117
0.466834 -0.451474 -0.576 102 111 140
0.467931 -0.451474 -0.576 135 140 159
0.469029 -0.451474 -0.576 141 146 165
0.470126 -0.451474 -0.576 137 143 157
0.471223 -0.451474 -0.576 126 132 146
0.47232 -0.451474 -0.576 113 121 142
0.473417 -0.451474 -0.576 114 122 143
0.474514 -0.451474 -0.576 105 120 151
0.475611 -0.451474 -0.576 72 87 118
0.476709 -0.451474 -0.576 63 83 120
0.476976 -0.45069 -0.575 60 80 117
0.471806 -0.435798 -0.556 130 114 114
0.467762 -0.431095 -0.55 129 113 113
0.464548 -0.427176 -0.545 130 107 99
0.461314 -0.423257 -0.54 128 105 97
0.458062 -0.419338 -0.535 130 106 96
0.455649 -0.416203 -0.531 132 108 98
0.45408 -0.413851 -0.528 138 109 95
0.4525 -0.4115 -0.525 140 111 97
0.451772 -0.409932 -0.523 148 111 95
0.450171 -0.407581 -0.52 148 111 95
0.449427 -0.406013 -0.518 156 110 94
0.449544 -0.40523 -0.517 159 113 97
0.449657 -0.404446 -0.516 163 115 93
0.449767 -0.403662 -0.515 164 116 94
0.449872 -0.402878 -0.514 165 118 92
0.449974 -0.402094 -0.513 166 119 93
0.450072 -0.40131 -0.512 169 119 94
0.450167 -0.400527 -0.511 167 117 92
0.450257 -0.399743 -0.51 167 115 91
0.450344 -0.398959 -0.509 167 115 91
0.450427 -0.398175 -0.508 170 114 91
0.451394 -0.398175 -0.508 172 116 93
0.451471 -0.397391 -0.507 175 121 95
0.452437 -0.397391 -0.507 177 123 97
0.452509 -0.396608 -0.506 180 126 100
0.452576 -0.395824 -0.505 180 126 100
0.45264 -0.39504 -0.504 180 126 100
0.4536 -0.39504 -0.504 179 125 99
0.45456 -0.39504 -0.504 177 123 97
0.454616 -0.394256 -0.503 176 122 96
0.455574 -0.394256 -0.503 175 121 95
0.456532 -0.394256 -0.503 176 122 96
0.45749 -0.394256 -0.503 178 124 98
0.458449 -0.394256 -0.503 179 125 99
0.458493 -0.393472 -0.502 180 126 98
0.45945 -0.393472 -0.502 180 126 98
0.460406 -0.393472 -0.502 179 125 97
0.460443 -0.392689 -0.501 179 125 97
0.461397 -0.392689 -0.501 178 124 96
0.462351 -0.392689 -0.501 178 124 96
0.463306 -0.392689 -0.501 178 124 96
0.46426 -0.392689 -0.501 179 125 97
0.465214 -0.392689 -0.501 179 125 97
0.466169 -0.392689 -0.501 178 127 98
0.46619 -0.391905 -0.5 178 127 98
0.467143 -0.391905 -0.5 177 126 95
0.468095 -0.391905 -0.5 176 125 94
0.469048 -0.391905 -0.5 175 126 94
0.47 -0.391905 -0.5 176 127 95
0.471894 -0.392689 -0.501 177 128 96
0.472849 -0.392689 -0.501 177 128 96
0.473803 -0.392689 -0.501 176 127 95
0.474757 -0.392689 -0.501 175 126 94
0.475711 -0.392689 -0.501 176 127 94
0.475714 -0.391905 -0.5 177 128 95
0.476667 -0.391905 -0.5 179 129 94
0.477619 -0.391905 -0.5 178 128 93
0.479529 -0.392689 -0.501 174 125 92
0.480483 -0.392689 -0.501 173 124 91
0.481437 -0.392689 -0.501 171 122 89
0.483354 -0.393472 -0.502 170 121 88
0.48431 -0.393472 -0.502 168 122 89
0.485267 -0.393472 -0.502 168 122 89
0.487191 -0.394256 -0.503 167 120 90
0.48912 -0.39504 -0.504 167 120 90
0.49008 -0.39504 -0.504 166 121 92
0.492014 -0.395824 -0.505 164 119 90
0.492976 -0.395824 -0.505 163 118 89
0.494916 -0.396608 -0.506 163 118 89
0.49686 -0.397391 -0.507 164 118 92
0.49979 -0.398959 -0.509 165 119 93
0.501743 -0.399743 -0.51 163 118 87
0.504686 -0.40131 -0.512 161 116 85
0.508624 -0.403662 -0.515 159 115 88
0.512573 -0.406013 -0.518 160 116 89
0.548563 -0.428744 -0.547 157 118 89
0.554629 -0.432663 -0.552 160 121 92
0.559707 -0.435798 -0.556 158 132 107
0.563791 -0.43815 -0.559 170 144 119
0.566877 -0.439717 -0.561 173 156 136
0.01074 -0.421929 -0.537 194 151 119
0.0116971 -0.419571 -0.534 193 150 118
0.0126429 -0.417214 -0.531 192 149 115
0.0135514 -0.414071 -0.527 191 148 114
0.0144448 -0.410929 -0.523 193 148 115
0.0153524 -0.408571 -0.52 194 149 116
0.0162486 -0.406214 -0.517 195 149 116
0.0171667 -0.404643 -0.515 195 149 116
0.0181124 -0.403857 -0.514 198 149 116
0.0190171 -0.402286 -0.512 198 149 116
0.0199533 -0.4015 -0.511 196 150 114
0.0209267 -0.4015 -0.511 196 150 114
0.0218571 -0.400714 -0.51 199 149 114
0.0228286 -0.400714 -0.51 200 150 115
0.0237533 -0.399929 -0.509 206 153 119
0.0247229 -0.399929 -0.509 212 159 125
0.0256924 -0.399929 -0.509 206 160 126
0.0266095 -0.399143 -0.508 206 160 126
0.0275771 -0.399143 -0.508 204 158 124
0.0285448 -0.399143 -0.508 203 157 123
0.0295124 -0.399143 -0.508 204 158 124
0.03048 -0.399143 -0.508 206 160 126
0.0313857 -0.398357 -0.507 204 158 124
0.0323514 -0.398357 -0.507 201 155 121
0.0333171 -0.398357 -0.507 201 155 121
0.0342829 -0.398357 -0.507 202 156 122
0.0352486 -0.398357 -0.507 203 157 123
0.0362143 -0.398357 -0.507 202 156 122
0.03718 -0.398357 -0.507 201 155 121
0.0381457 -0.398357 -0.507 199 153 119
0.0391114 -0.398357 -0.507 197 151 117
0.0400771 -0.398357 -0.507 197 151 117
0.0410429 -0.398357 -0.507 197 150 120
0.0420086 -0.398357 -0.507 196 149 119
0.043059 -0.399143 -0.508 194 147 117
0.0440267 -0.399143 -0.508 191 144 114
0.0449943 -0.399143 -0.508 191 144 114
0.0458714 -0.398357 -0.507 190 143 113
0.0469295 -0.399143 -0.508 187 140 110
0.0478971 -0.399143 -0.508 190 143 113
0.0488648 -0.399143 -0.508 191 144 114
0.0498324 -0.399143 -0.508 194 147 117
0.0508 -0.399143 -0.508 190 143 113
0.0517676 -0.399143 -0.508 185 138 108
0.052839 -0.399929 -0.509 190 143 113
0.0538086 -0.399929 -0.509 194 147 117
0.0547781 -0.399929 -0.509 192 145 115
0.0558571 -0.400714 -0.51 193 146 116
0.0568286 -0.400714 -0.51 192 145 115
0.0579133 -0.4015 -0.511 191 144 114
0.0588867 -0.4015 -0.511 193 144 114
0.05986 -0.4015 -0.511 195 146 116
0.0609524 -0.402286 -0.512 195 145 118
0.0619276 -0.402286 -0.512 194 144 117
0.0630257 -0.403071 -0.513 190 143 113
0.0640029 -0.403071 -0.513 189 142 112
0.06498 -0.403071 -0.513 190 143 115
0.0660857 -0.403857 -0.514 186 139 111
0.0671952 -0.404643 -0.515 187 137 112
0.0681762 -0.404643 -0.515 186 136 111
0.0692914 -0.405429 -0.516 187 137 112
0.0702743 -0.405429 -0.516 186 136 111
0.0713952 -0.406214 -0.517 183 136 108
0.07252 -0.407 -0.518 177 130 102
0.0736486 -0.407786 -0.519 174 126 106
0.0747809 -0.408571 -0.52 174 126 106
0.0757714 -0.408571 -0.52 174 125 108
0.0769095 -0.409357 -0.521 172 123 106
0.0780514 -0.410143 -0.522 169 120 103
0.0791971 -0.410929 -0.523 167 118 101
0.0803467 -0.411714 -0.524 162 117 98
0.0816552 -0.413286 -0.526 159 114 95
0.0828143 -0.414071 -0.527 152 115 99
0.0841362 -0.415643 -0.529 149 112 96
0.0851438 -0.415643 -0.529 149 112 96
0.0863143 -0.416429 -0.53 142 109 100
0.0876533 -0.418 -0.532 140 107 98
0.089 -0.419571 -0.534 132 107 100
0.0903543 -0.421143 -0.536 128 103 96
0.0917162 -0.422714 -0.538 125 102 96
0.0930857 -0.424286 -0.54 123 100 94
0.0944629 -0.425857 -0.542 116 101 96
0.109138 -0.439214 -0.559 129 123 123
0.110203 -0.439214 -0.559 139 135 136
0.111268 -0.439214 -0.559 148 144 145
0.112332 -0.439214 -0.559 153 153 155
0.113397 -0.439214 -0.559 162 162 164
0.114462 -0.439214 -0.559 170 164 174
0.115527 -0.439214 -0.559 172 166 176
0.116591 -0.439214 -0.559 167 166 174
0.12298 -0.439214 -0.559 119 118 114
0.124045 -0.439214 -0.559 171 170 166
0.375114 -0.447857 -0.57 185 190 194
0.3762 -0.447857 -0.57 190 197 203
0.377286 -0.447857 -0.57 185 192 198
0.378371 -0.447857 -0.57 185 190 196
0.379457 -0.447857 -0.57 182 187 193
0.380543 -0.447857 -0.57 180 183 190
0.381629 -0.447857 -0.57 189 192 199
0.382714 -0.447857 -0.57 188 191 198
0.3838 -0.447857 -0.57 183 186 193
0.384886 -0.447857 -0.57 186 190 201
0.385971 -0.447857 -0.57 184 188 199
0.387057 -0.447857 -0.57 179 184 188
0.388143 -0.447857 -0.57 165 170 174
0.40405 -0.448643 -0.571 168 173 195
0.405138 -0.448643 -0.571 142 147 169
0.406226 -0.448643 -0.571 128 139 167
0.407313 -0.448643 -0.571 143 154 182
0.408401 -0.448643 -0.571 105 127 168
0.409489 -0.448643 -0.571 69 91 132
0.410576 -0.448643 -0.571 66 93 140
0.412385 -0.449429 -0.572 64 91 138
0.413474 -0.449429 -0.572 63 95 144
0.414564 -0.449429 -0.572 64 96 145
0.415653 -0.449429 -0.572 66 95 139
0.416743 -0.449429 -0.572 107 136 180
0.417832 -0.449429 -0.572 128 145 173
0.418922 -0.449429 -0.572 121 138 166
0.420011 -0.449429 -0.572 138 148 175
0.421101 -0.449429 -0.572 153 163 190
0.42219 -0.449429 -0.572 155 161 183
0.42328 -0.449429 -0.572 148 154 176
0.42437 -0.449429 -0.572 107 119 143
0.425459 -0.449429 -0.572 63 75 99
0.427294 -0.450214 -0.573 33 54 83
0.428386 -0.450214 -0.573 63 84 113
0.429477 -0.450214 -0.573 102 118 143
0.430569 -0.450214 -0.573 135 151 176
0.43166 -0.450214 -0.573 148 151 160
0.432751 -0.450214 -0.573 148 151 160
0.433843 -0.450214 -0.573 128 131 140
0.434934 -0.450214 -0.573 136 131 135
0.436026 -0.450214 -0.573 134 129 133
0.437117 -0.450214 -0.573 144 145 150
0.438209 -0.450214 -0.573 155 156 161
0.4393 -0.450214 -0.573 154 157 164
0.440391 -0.450214 -0.573 156 159 166
0.441483 -0.450214 -0.573 153 156 161
0.442574 -0.450214 -0.573 152 155 160
0.44444 -0.451 -0.574 149 152 157
0.445533 -0.451 -0.574 150 153 158
0.446627 -0.451 -0.574 148 153 159
0.44772 -0.451 -0.574 147 152 158
0.448813 -0.451 -0.574 153 158 164
0.449907 -0.451 -0.574 151 156 162
0.451 -0.451 -0.574 152 156 159
0.452093 -0.451 -0.574 152 156 159
0.453976 -0.451786 -0.575 134 133 131
0.455071 -0.451786 -0.575 122 121 119
0.456167 -0.451786 -0.575 119 115 112
0.457262 -0.451786 -0.575 153 149 146
0.458357 -0.451786 -0.575 148 151 156
0.459452 -0.451786 -0.575 146 149 154
0.460548 -0.451786 -0.575 138 145 161
0.462446 -0.452571 -0.576 117 124 140
0.463543 -0.452571 -0.576 81 92 120
0.46464 -0.452571 -0.576 55 66 94
0.465737 -0.452571 -0.576 49 58 89
0.466834 -0.452571 -0.576 77 86 117
0.467931 -0.452571 -0.576 124 129 151
0.469029 -0.452571 -0.576 137 142 164
0.470126 -0.452571 -0.576 140 143 162
0.471223 -0.452571 -0.576 132 135 154
0.47232 -0.452571 -0.576 111 119 142
0.473417 -0.452571 -0.576 111 119 142
0.474514 -0.452571 -0.576 107 122 153
0.475611 -0.452571 -0.576 81 96 127
0.476709 -0.452571 -0.576 52 76 114
0.476976 -0.451786 -0.575 47 71 109
0.47724 -0.451 -0.574 40 68 108
0.478333 -0.451 -0.574 40 68 108
0.471164 -0.435286 -0.554 124 115 118
0.467105 -0.430571 -0.548 124 105 98
0.463877 -0.426643 -0.543 120 101 94
0.46063 -0.422714 -0.538 129 105 93
0.458223 -0.419571 -0.534 130 106 94
0.4558 -0.416429 -0.53 132 104 92
0.454224 -0.414071 -0.527 136 108 96
0.452636 -0.411714 -0.524 146 110 96
0.451903 -0.410143 -0.522 147 111 97
0.451162 -0.408571 -0.52 154 111 95
0.450413 -0.407 -0.518 155 112 96
0.450529 -0.406214 -0.517 160 112 92
0.45064 -0.405429 -0.516 160 112 92
0.450748 -0.404643 -0.515 165 117 94
0.450851 -0.403857 -0.514 165 117 94
0.450072 -0.402286 -0.512 167 119 96
0.450167 -0.4015 -0.511 166 118 95
0.450257 -0.400714 -0.51 166 116 93
0.450344 -0.399929 -0.509 165 115 92
0.451313 -0.399929 -0.509 168 113 92
0.451394 -0.399143 -0.508 169 114 93
0.451471 -0.398357 -0.507 174 120 94
0.452437 -0.398357 -0.507 176 125 98
0.452509 -0.397571 -0.506 179 128 101
0.452576 -0.396786 -0.505 178 127 100
0.453538 -0.396786 -0.505 178 127 100
0.4536 -0.396 -0.504 177 126 99
0.45456 -0.396 -0.504 177 123 97
0.45552 -0.396 -0.504 176 122 96
0.455574 -0.395214 -0.503 177 123 95
0.456532 -0.395214 -0.503 178 124 96
0.45749 -0.395214 -0.503 179 125 97
0.458449 -0.395214 -0.503 180 126 98
0.458493 -0.394429 -0.502 180 126 98
0.45945 -0.394429 -0.502 180 126 98
0.459489 -0.393643 -0.501 179 125 97
0.460443 -0.393643 -0.501 178 124 96
0.461397 -0.393643 -0.501 177 126 97
0.462351 -0.393643 -0.501 177 126 97
0.463306 -0.393643 -0.501 177 126 97
0.46426 -0.393643 -0.501 178 127 98
0.465214 -0.393643 -0.501 178 127 96
0.466169 -0.393643 -0.501 178 127 96
0.46619 -0.392857 -0.5 178 127 96
0.467143 -0.392857 -0.5 176 127 95
0.468095 -0.392857 -0.5 175 126 94
0.469048 -0.392857 -0.5 176 127 95
0.47 -0.392857 -0.5 177 128 96
0.470952 -0.392857 -0.5 178 129 97
0.471905 -0.392857 -0.5 178 129 97
0.472857 -0.392857 -0.5 176 130 97
0.47381 -0.392857 -0.5 175 129 96
0.474762 -0.392857 -0.5 175 129 95
0.475714 -0.392857 -0.5 176 130 96
0.476667 -0.392857 -0.5 179 129 94
0.477619 -0.392857 -0.5 178 128 93
0.478571 -0.392857 -0.5 173 124 91
0.479524 -0.392857 -0.5 173 124 91
0.481437 -0.393643 -0.501 173 124 91
0.482391 -0.393643 -0.501 172 123 90
0.483346 -0.393643 -0.501 172 123 91
0.485267 -0.394429 -0.502 171 122 90
0.486223 -0.394429 -0.502 169 122 92
0.48815 -0.395214 -0.503 168 121 91
0.489108 -0.395214 -0.503 166 121 90
0.49104 -0.396 -0.504 165 120 89
0.492 -0.396 -0.504 164 119 90
0.493938 -0.396786 -0.505 164 119 90
0.49588 -0.397571 -0.506 165 120 91
0.497826 -0.398357 -0.507 167 122 93
0.500759 -0.399929 -0.509 166 123 89
0.502714 -0.400714 -0.51 162 119 85
0.505661 -0.402286 -0.512 160 116 87
0.509605 -0.404643 -0.515 160 116 87
0.51356 -0.407 -0.518 160 116 91
0.560766 -0.436857 -0.556 166 134 109
0.564856 -0.439214 -0.559 169 147 124
0.567946 -0.440786 -0.561 176 154 131
0.00971714 -0.422951 -0.537 190 149 129
0.01068 -0.420589 -0.534 195 150 119
0.0116314 -0.418226 -0.531 194 149 118
0.0125476 -0.415075 -0.527 196 150 117
0.0134743 -0.412712 -0.524 195 149 116
0.0143619 -0.409562 -0.52 191 145 112
0.0152933 -0.407987 -0.518 193 147 114
0.0161857 -0.405624 -0.515 195 149 116
0.0171 -0.404049 -0.513 197 151 118
0.0180419 -0.403261 -0.512 194 148 115
0.01898 -0.402473 -0.511 195 149 116
0.0199143 -0.401686 -0.51 198 148 115
0.0208857 -0.401686 -0.51 197 147 114
0.0218571 -0.401686 -0.51 197 147 114
0.0227838 -0.400898 -0.509 200 150 117
0.0237533 -0.400898 -0.509 204 155 122
0.0246743 -0.40011 -0.508 207 158 125
0.0256419 -0.40011 -0.508 205 159 125
0.0266095 -0.40011 -0.508 205 159 125
0.0275229 -0.399323 -0.507 204 158 124
0.0284886 -0.399323 -0.507 203 157 123
0.0294543 -0.399323 -0.507 203 157 123
0.03042 -0.399323 -0.507 202 156 122
0.0313857 -0.399323 -0.507 201 155 122
0.0323514 -0.399323 -0.507 201 155 122
0.0332514 -0.398535 -0.506 200 154 121
0.0342152 -0.398535 -0.506 204 158 125
0.035179 -0.398535 -0.506 201 157 122
0.0361429 -0.398535 -0.506 202 158 123
0.0371067 -0.398535 -0.506 196 152 117
0.0380705 -0.398535 -0.506 198 154 119
0.0390343 -0.398535 -0.506 196 151 118
0.0399981 -0.398535 -0.506 193 148 115
0.0409619 -0.398535 -0.506 196 151 118
0.0420086 -0.399323 -0.507 195 148 118
0.0429743 -0.399323 -0.507 193 146 116
0.04394 -0.399323 -0.507 191 144 114
0.0449057 -0.399323 -0.507 191 144 114
0.0458714 -0.399323 -0.507 191 144 114
0.0468371 -0.399323 -0.507 189 142 112
0.0478029 -0.399323 -0.507 190 143 113
0.0488648 -0.40011 -0.508 190 143 113
0.0498324 -0.40011 -0.508 193 146 116
0.0508 -0.40011 -0.508 190 143 113
0.0517676 -0.40011 -0.508 185 138 108
0.0527352 -0.40011 -0.508 190 143 113
0.0538086 -0.400898 -0.509 194 147 117
0.0547781 -0.400898 -0.509 192 147 116
0.0558571 -0.401686 -0.51 191 146 115
0.0568286 -0.401686 -0.51 192 146 113
0.0579133 -0.402473 -0.511 191 145 112
0.0588867 -0.402473 -0.511 195 146 116
0.05986 -0.402473 -0.511 195 146 116
0.0609524 -0.403261 -0.512 194 145 115
0.0619276 -0.403261 -0.512 193 144 114
0.0629029 -0.403261 -0.512 190 143 113
0.0640029 -0.404049 -0.513 188 141 111
0.06498 -0.404049 -0.513 188 141 113
0.0660857 -0.404836 -0.514 185 138 110
0.0670648 -0.404836 -0.514 186 136 111
0.0681762 -0.405624 -0.515 183 133 108
0.0692914 -0.406411 -0.516 186 136 111
0.0702743 -0.406411 -0.516 186 136 111
0.0713952 -0.407199 -0.517 183 136 108
0.07252 -0.407987 -0.518 177 130 102
0.0736486 -0.408774 -0.519 171 124 108
0.0747809 -0.409562 -0.52 172 125 109
0.0757714 -0.409562 -0.52 174 125 108
0.0769095 -0.41035 -0.521 173 124 107
0.0780514 -0.411137 -0.522 169 120 103
0.0793486 -0.412712 -0.524 167 118 101
0.0805 -0.4135 -0.525 163 117 101
0.0815 -0.4135 -0.525 163 117 101
0.0826571 -0.414288 -0.526 159 113 97
0.0839771 -0.415863 -0.528 151 113 100
0.0851438 -0.41665 -0.529 148 110 97
0.0864771 -0.418226 -0.531 138 108 100
0.0878181 -0.419801 -0.533 136 106 98
0.089 -0.420589 -0.534 130 105 100
0.0903543 -0.422164 -0.536 127 102 97
0.0917162 -0.423739 -0.538 123 100 94
0.0932581 -0.426102 -0.541 122 99 93
0.10788 -0.439491 -0.558 125 119 119
0.108943 -0.439491 -0.558 132 126 126
0.110006 -0.439491 -0.558 140 136 137
0.111268 -0.440279 -0.559 152 148 149
0.112332 -0.440279 -0.559 156 156 158
0.371205 -0.448155 -0.569 144 140 139
0.372289 -0.448155 -0.569 148 144 143
0.373372 -0.448155 -0.569 185 189 192
0.374456 -0.448155 -0.569 190 194 197
0.37554 -0.448155 -0.569 187 194 200
0.376624 -0.448155 -0.569 183 190 196
0.393571 -0.448943 -0.57 178 186 188
0.394657 -0.448943 -0.57 164 172 191
0.395743 -0.448943 -0.57 149 157 176
0.396829 -0.448943 -0.57 119 130 160
0.397914 -0.448943 -0.57 66 77 107
0.399 -0.448943 -0.57 51 64 98
0.400086 -0.448943 -0.57 92 105 139
0.408401 -0.44973 -0.571 101 125 169
0.409489 -0.44973 -0.571 59 83 127
0.410576 -0.44973 -0.571 55 85 135
0.411664 -0.44973 -0.571 53 83 133
0.412751 -0.44973 -0.571 51 86 140
0.414564 -0.450518 -0.572 50 85 139
0.415653 -0.450518 -0.572 55 88 133
0.416743 -0.450518 -0.572 97 130 175
0.417832 -0.450518 -0.572 123 142 172
0.418922 -0.450518 -0.572 113 132 162
0.420011 -0.450518 -0.572 126 141 170
0.421101 -0.450518 -0.572 151 166 195
0.42219 -0.450518 -0.572 158 170 196
0.42328 -0.450518 -0.572 128 140 166
0.42437 -0.450518 -0.572 69 83 109
0.425459 -0.450518 -0.572 41 55 81
0.426549 -0.450518 -0.572 46 63 89
0.427638 -0.450518 -0.572 90 107 133
0.428728 -0.450518 -0.572 120 135 156
0.429817 -0.450518 -0.572 137 152 173
0.430907 -0.450518 -0.572 150 154 163
0.431996 -0.450518 -0.572 150 154 163
0.433086 -0.450518 -0.572 154 158 167
0.434175 -0.450518 -0.572 130 128 131
0.436026 -0.451306 -0.573 96 94 97
0.437117 -0.451306 -0.573 128 128 130
0.438209 -0.451306 -0.573 160 160 162
0.4393 -0.451306 -0.573 155 158 165
0.440391 -0.451306 -0.573 155 158 165
0.441483 -0.451306 -0.573 154 157 162
0.442574 -0.451306 -0.573 155 158 163
0.443666 -0.451306 -0.573 151 154 161
0.444757 -0.451306 -0.573 146 149 156
0.445849 -0.451306 -0.573 143 150 158
0.44694 -0.451306 -0.573 144 151 159
0.448031 -0.451306 -0.573 146 153 159
0.449123 -0.451306 -0.573 147 154 160
0.450214 -0.451306 -0.573 152 156 159
0.452093 -0.452093 -0.574 149 153 156
0.453187 -0.452093 -0.574 102 102 100
0.45428 -0.452093 -0.574 103 103 101
0.455373 -0.452093 -0.574 141 140 138
0.456467 -0.452093 -0.574 152 151 149
0.45756 -0.452093 -0.574 154 158 161
0.459452 -0.452881 -0.575 149 153 156
0.460548 -0.452881 -0.575 147 154 164
0.461643 -0.452881 -0.575 135 142 152
0.462738 -0.452881 -0.575 108 119 139
0.463833 -0.452881 -0.575 80 91 111
0.464929 -0.452881 -0.575 47 56 85
0.466024 -0.452881 -0.575 50 59 88
0.467119 -0.452881 -0.575 91 98 126
0.468214 -0.452881 -0.575 130 137 165
0.46931 -0.452881 -0.575 147 153 175
0.470405 -0.452881 -0.575 136 142 164
0.4715 -0.452881 -0.575 107 118 140
0.472595 -0.452881 -0.575 106 117 139
0.47369 -0.452881 -0.575 104 121 149
0.474786 -0.452881 -0.575 77 94 122
0.475881 -0.452881 -0.575 53 76 117
0.476976 -0.452881 -0.575 44 67 108
0.47724 -0.452093 -0.574 38 65 108
0.478333 -0.452093 -0.574 38 65 108
0.472865 -0.437916 -0.556 122 121 129
0.470514 -0.434766 -0.552 122 107 104
0.467294 -0.430828 -0.547 113 98 95
0.464055 -0.42689 -0.542 124 100 90
0.460797 -0.422951 -0.537 126 102 92
0.45838 -0.419801 -0.533 131 101 90
0.455948 -0.41665 -0.529 135 105 94
0.454364 -0.414288 -0.526 145 109 95
0.452769 -0.411925 -0.523 146 110 96
0.45203 -0.41035 -0.521 152 109 93
0.451283 -0.408774 -0.519 154 111 95
0.450529 -0.407199 -0.517 158 111 91
0.45064 -0.406411 -0.516 159 112 92
0.450748 -0.405624 -0.515 162 116 93
0.450851 -0.404836 -0.514 162 116 93
0.450951 -0.404049 -0.513 165 119 95
0.451048 -0.403261 -0.512 164 118 94
0.45114 -0.402473 -0.511 164 116 93
0.451229 -0.401686 -0.51 164 116 93
0.451313 -0.400898 -0.509 167 115 94
0.451394 -0.40011 -0.508 168 116 95
0.452362 -0.40011 -0.508 171 120 93
0.452437 -0.399323 -0.507 173 123 96
0.452509 -0.398535 -0.506 177 127 100
0.453472 -0.398535 -0.506 176 126 99
0.453538 -0.397748 -0.505 176 126 99
0.4545 -0.397748 -0.505 176 126 99
0.45456 -0.39696 -0.504 175 125 98
0.45552 -0.39696 -0.504 174 124 97
0.455574 -0.396172 -0.503 177 126 97
0.456532 -0.396172 -0.503 177 126 97
0.45749 -0.396172 -0.503 177 126 97
0.458449 -0.396172 -0.503 177 126 97
0.458493 -0.395385 -0.502 178 127 98
0.45945 -0.395385 -0.502 179 128 99
0.459489 -0.394597 -0.501 178 127 98
0.460443 -0.394597 -0.501 178 127 98
0.460476 -0.39381 -0.5 177 126 97
0.461429 -0.39381 -0.5 177 126 97
0.462381 -0.39381 -0.5 177 126 97
0.463333 -0.39381 -0.5 179 128 99
0.465214 -0.394597 -0.501 179 130 98
0.465238 -0.39381 -0.5 179 130 98
0.46619 -0.39381 -0.5 179 130 98
0.467143 -0.39381 -0.5 177 128 96
0.468095 -0.39381 -0.5 176 127 95
0.469048 -0.39381 -0.5 178 129 97
0.46906 -0.393022 -0.499 180 131 99
0.47001 -0.393022 -0.499 180 131 99
0.470961 -0.393022 -0.499 179 130 98
0.471911 -0.393022 -0.499 178 129 96
0.47381 -0.39381 -0.5 178 129 96
0.474762 -0.39381 -0.5 178 129 96
0.475714 -0.39381 -0.5 179 130 97
0.475713 -0.393022 -0.499 179 129 96
0.476664 -0.393022 -0.499 178 128 95
0.477614 -0.393022 -0.499 174 125 92
0.479524 -0.39381 -0.5 173 124 91
0.480476 -0.39381 -0.5 175 126 93
0.481429 -0.39381 -0.5 174 125 92
0.483346 -0.394597 -0.501 173 124 92
0.4843 -0.394597 -0.501 171 122 90
0.485254 -0.394597 -0.501 171 124 94
0.487179 -0.395385 -0.502 169 122 92
0.488135 -0.395385 -0.502 167 122 91
0.490066 -0.396172 -0.503 165 120 89
0.491024 -0.396172 -0.503 165 120 91
0.49296 -0.39696 -0.504 166 121 92
0.4949 -0.397748 -0.505 167 122 93
0.496844 -0.398535 -0.506 168 123 94
0.498791 -0.399323 -0.507 165 127 91
0.501729 -0.400898 -0.509 159 121 85
0.504673 -0.402473 -0.511 160 117 85
0.506636 -0.403261 -0.512 161 118 86
0.510586 -0.405624 -0.515 162 116 90
0.561825 -0.437916 -0.556 163 135 111
0.565921 -0.440279 -0.559 170 142 118
0.569014 -0.441854 -0.561 172 153 136
0.00869429 -0.423974 -0.537 194 150 125
0.00966286 -0.421606 -0.534 194 150 125
0.01062 -0.419237 -0.531 197 150 120
0.0115657 -0.416869 -0.528 196 149 119
0.0124762 -0.41371 -0.524 197 151 118
0.0133971 -0.411342 -0.521 197 151 118
0.0143067 -0.408973 -0.518 198 149 117
0.0152048 -0.406605 -0.515 195 146 114
0.0161229 -0.405026 -0.513 194 148 115
0.0170667 -0.404236 -0.512 195 149 116
0.0180067 -0.403447 -0.511 197 148 116
0.0189429 -0.402657 -0.51 197 148 116
0.0198752 -0.401868 -0.509 198 148 115
0.0208448 -0.401868 -0.509 197 147 114
0.0218143 -0.401868 -0.509 198 148 113
0.022739 -0.401078 -0.508 202 152 117
0.0237067 -0.401078 -0.508 204 155 122
0.0246743 -0.401078 -0.508 204 155 122
0.0256419 -0.401078 -0.508 203 157 123
0.0265571 -0.400289 -0.507 204 158 124
0.0275229 -0.400289 -0.507 203 157 121
0.0284886 -0.400289 -0.507 202 156 120
0.0294543 -0.400289 -0.507 203 157 123
0.03042 -0.400289 -0.507 202 156 122
0.0313238 -0.399499 -0.506 200 156 121
0.0322876 -0.399499 -0.506 200 156 121
0.0332514 -0.399499 -0.506 199 155 120
0.0342152 -0.399499 -0.506 203 159 124
0.035179 -0.399499 -0.506 202 158 123
0.0361429 -0.399499 -0.506 202 158 123
0.0371067 -0.399499 -0.506 198 154 119
0.0380705 -0.399499 -0.506 198 154 119
0.0390343 -0.399499 -0.506 196 151 118
0.0399981 -0.399499 -0.506 195 150 117
0.0409619 -0.399499 -0.506 195 148 118
0.0420086 -0.400289 -0.507 193 148 115
0.0429743 -0.400289 -0.507 190 145 114
0.04394 -0.400289 -0.507 191 146 115
0.0449057 -0.400289 -0.507 192 147 116
0.0458714 -0.400289 -0.507 191 146 115
0.0468371 -0.400289 -0.507 190 145 114
0.0478029 -0.400289 -0.507 191 146 115
0.0487686 -0.400289 -0.507 190 145 114
0.0497343 -0.400289 -0.507 193 148 117
0.0507 -0.400289 -0.507 194 149 118
0.0517676 -0.401078 -0.508 192 147 116
0.0527352 -0.401078 -0.508 192 147 116
0.0537029 -0.401078 -0.508 190 145 114
0.0547781 -0.401868 -0.509 190 145 114
0.0557476 -0.401868 -0.509 192 147 116
0.0568286 -0.402657 -0.51 193 148 115
0.0578 -0.402657 -0.51 192 147 114
0.0588867 -0.403447 -0.511 191 147 112
0.05986 -0.403447 -0.511 191 147 112
0.0608333 -0.403447 -0.511 191 145 112
0.0619276 -0.404236 -0.512 190 144 111
0.0629029 -0.404236 -0.512 189 142 114
0.0640029 -0.405026 -0.513 188 141 113
0.06498 -0.405026 -0.513 185 138 112
0.0660857 -0.405815 -0.514 182 135 109
0.0670648 -0.405815 -0.514 182 135 109
0.0681762 -0.406605 -0.515 183 136 110
0.0692914 -0.407394 -0.516 184 136 113
0.0702743 -0.407394 -0.516 181 133 110
0.0713952 -0.408184 -0.517 181 133 111
0.07252 -0.408973 -0.518 175 127 105
0.0736486 -0.409763 -0.519 172 125 105
0.0747809 -0.410552 -0.52 171 124 104
0.0757714 -0.410552 -0.52 172 124 102
0.0769095 -0.411342 -0.521 171 123 101
0.0780514 -0.412131 -0.522 168 121 101
0.0790457 -0.412131 -0.522 168 121 101
0.0803467 -0.41371 -0.524 167 120 100
0.0815 -0.4145 -0.525 161 118 101
0.0828143 -0.416079 -0.527 157 114 97
0.0839771 -0.416869 -0.528 149 111 98
0.0853048 -0.418448 -0.53 146 108 95
0.0864771 -0.419237 -0.531 140 107 98
0.0878181 -0.420816 -0.533 138 105 96
0.0891667 -0.422395 -0.535 129 104 99
0.0905229 -0.423974 -0.537 125 100 95
0.0918867 -0.425553 -0.539 120 101 97
0.110006 -0.440554 -0.558 147 143 144
0.111069 -0.440554 -0.558 157 153 154
0.112131 -0.440554 -0.558 159 159 161
0.113194 -0.440554 -0.558 166 166 168
0.114257 -0.440554 -0.558 175 169 179
0.11532 -0.440554 -0.558 177 171 181
0.116383 -0.440554 -0.558 181 180 186
0.117446 -0.440554 -0.558 178 177 183
0.118509 -0.440554 -0.558 183 184 188
0.119571 -0.440554 -0.558 185 186 190
0.388546 -0.449239 -0.569 115 123 125
0.404429 -0.450029 -0.57 126 139 174
0.405514 -0.450029 -0.57 106 125 168
0.4066 -0.450029 -0.57 116 135 178
0.407686 -0.450029 -0.57 93 123 173
0.408771 -0.450029 -0.57 52 82 132
0.409857 -0.450029 -0.57 51 84 137
0.410943 -0.450029 -0.57 52 85 138
0.412751 -0.450818 -0.571 42 81 136
0.413839 -0.450818 -0.571 39 78 133
0.414927 -0.450818 -0.571 45 81 131
0.416014 -0.450818 -0.571 80 116 166
0.417102 -0.450818 -0.571 110 134 168
0.41819 -0.450818 -0.571 94 118 152
0.419277 -0.450818 -0.571 112 132 165
0.420365 -0.450818 -0.571 140 160 193
0.421452 -0.450818 -0.571 147 163 196
0.42254 -0.450818 -0.571 111 127 160
0.423628 -0.450818 -0.571 48 64 90
0.424715 -0.450818 -0.571 44 60 86
0.425803 -0.450818 -0.571 82 97 118
0.42689 -0.450818 -0.571 116 131 152
0.428728 -0.451608 -0.572 135 147 163
0.429817 -0.451608 -0.572 148 160 176
0.430907 -0.451608 -0.572 149 156 164
0.431996 -0.451608 -0.572 149 156 164
0.433086 -0.451608 -0.572 158 165 173
0.434175 -0.451608 -0.572 145 146 150
0.435265 -0.451608 -0.572 110 111 115
0.436354 -0.451608 -0.572 122 122 122
0.438209 -0.452397 -0.573 158 158 158
0.4393 -0.452397 -0.573 155 158 167
0.439623 -0.451608 -0.572 153 156 165
0.440712 -0.451608 -0.572 154 157 164
0.442574 -0.452397 -0.573 156 159 166
0.443666 -0.452397 -0.573 151 155 164
0.444757 -0.452397 -0.573 134 138 147
0.445849 -0.452397 -0.573 123 131 142
0.44694 -0.452397 -0.573 131 139 150
0.448031 -0.452397 -0.573 145 152 162
0.449123 -0.452397 -0.573 149 156 166
0.450214 -0.452397 -0.573 157 158 163
0.451306 -0.452397 -0.573 142 143 148
0.452397 -0.452397 -0.573 100 100 102
0.453489 -0.452397 -0.573 117 117 119
0.455373 -0.453187 -0.574 152 152 154
0.456467 -0.453187 -0.574 149 149 151
0.45756 -0.453187 -0.574 149 154 158
0.458653 -0.453187 -0.574 150 155 159
0.459747 -0.453187 -0.574 148 155 161
0.46084 -0.453187 -0.574 140 147 153
0.461933 -0.453187 -0.574 129 138 155
0.463833 -0.453976 -0.575 114 123 140
0.464929 -0.453976 -0.575 71 80 109
0.466024 -0.453976 -0.575 46 55 84
0.467119 -0.453976 -0.575 59 68 101
0.4674 -0.453187 -0.574 112 121 154
0.468493 -0.453187 -0.574 137 146 175
0.469587 -0.453187 -0.574 126 135 164
0.47068 -0.453187 -0.574 97 111 137
0.471773 -0.453187 -0.574 97 111 137
0.47369 -0.453976 -0.575 97 117 144
0.47396 -0.453187 -0.574 75 95 122
0.475053 -0.453187 -0.574 52 77 118
0.476147 -0.453187 -0.574 41 66 107
0.47724 -0.453187 -0.574 37 66 108
0.4775 -0.452397 -0.573 36 65 107
0.478591 -0.452397 -0.573 36 65 107
0.473071 -0.438186 -0.555 119 108 112
0.469857 -0.434238 -0.55 103 92 96
0.466624 -0.43029 -0.545 118 95 89
0.463371 -0.426343 -0.54 124 101 95
0.4601 -0.422395 -0.535 131 102 88
0.457671 -0.419237 -0.531 135 106 92
0.456091 -0.416869 -0.528 143 107 91
0.4545 -0.4145 -0.525 143 107 91
0.452897 -0.412131 -0.522 149 106 89
0.452152 -0.410552 -0.52 153 110 93
0.452271 -0.409763 -0.519 158 111 91
0.451513 -0.408184 -0.517 158 111 91
0.451623 -0.407394 -0.516 158 114 89
0.450851 -0.405815 -0.514 158 114 89
0.450951 -0.405026 -0.513 162 118 93
0.451048 -0.404236 -0.512 163 119 94
0.45114 -0.403447 -0.511 163 117 93
0.451229 -0.402657 -0.51 164 118 94
0.451313 -0.401868 -0.509 167 117 94
0.452283 -0.401868 -0.509 168 118 95
0.452362 -0.401078 -0.508 169 119 92
0.452437 -0.400289 -0.507 170 123 97
0.453403 -0.400289 -0.507 173 126 98
0.453472 -0.399499 -0.506 172 125 97
0.453538 -0.39871 -0.505 172 125 97
0.4545 -0.39871 -0.505 174 127 99
0.45456 -0.39792 -0.504 175 128 100
0.45552 -0.39792 -0.504 174 127 99
0.45648 -0.39792 -0.504 175 126 96
0.456532 -0.39713 -0.503 176 127 97
0.45749 -0.39713 -0.503 177 128 98
0.458449 -0.39713 -0.503 177 128 98
0.458493 -0.396341 -0.502 178 129 97
0.45945 -0.396341 -0.502 178 129 97
0.459489 -0.395551 -0.501 178 129 97
0.459524 -0.394762 -0.5 178 129 97
0.460476 -0.394762 -0.5 176 125 96
0.461429 -0.394762 -0.5 176 125 96
0.462381 -0.394762 -0.5 175 126 94
0.463333 -0.394762 -0.5 178 129 97
0.464286 -0.394762 -0.5 181 132 100
0.465238 -0.394762 -0.5 181 132 100
0.46619 -0.394762 -0.5 181 132 100
0.467143 -0.394762 -0.5 179 130 98
0.467159 -0.393972 -0.499 176 127 95
0.46811 -0.393972 -0.499 181 132 100
0.46906 -0.393972 -0.499 183 134 102
0.47001 -0.393972 -0.499 182 133 101
0.470961 -0.393972 -0.499 180 131 99
0.471911 -0.393972 -0.499 179 130 97
0.472862 -0.393972 -0.499 179 130 97
0.473812 -0.393972 -0.499 178 129 96
0.474763 -0.393972 -0.499 179 130 97
0.475713 -0.393972 -0.499 178 128 95
0.476664 -0.393972 -0.499 179 129 96
0.477614 -0.393972 -0.499 175 126 93
0.478565 -0.393972 -0.499 174 125 92
0.479515 -0.393972 -0.499 175 126 93
0.481429 -0.394762 -0.5 175 126 93
0.482381 -0.394762 -0.5 174 125 93
0.483333 -0.394762 -0.5 171 122 90
0.485254 -0.395551 -0.501 173 127 94
0.486209 -0.395551 -0.501 170 124 91
0.487163 -0.395551 -0.501 167 122 91
0.489091 -0.396341 -0.502 166 121 90
0.490048 -0.396341 -0.502 166 121 90
0.491982 -0.39713 -0.503 167 122 91
0.49294 -0.39713 -0.503 167 122 91
0.495862 -0.39871 -0.505 168 123 92
0.497808 -0.399499 -0.506 164 126 89
0.499757 -0.400289 -0.507 159 121 84
0.502698 -0.401868 -0.509 162 119 85
0.505647 -0.403447 -0.511 163 120 86
0.508603 -0.405026 -0.513 162 117 88
0.552697 -0.432659 -0.548 161 120 92
0.557783 -0.435817 -0.552 158 127 99
0.562884 -0.438975 -0.556 166 135 107
0.565971 -0.440554 -0.558 166 145 126
0.569067 -0.442133 -0.56 178 157 138
0.00866191 -0.423414 -0.535 194 147 119
0.00962667 -0.42104 -0.532 196 149 121
0.01056 -0.417874 -0.528 195 148 118
0.0115 -0.4155 -0.525 194 147 117
0.0124048 -0.412334 -0.521 198 149 117
0.01332 -0.40996 -0.518 198 149 117
0.0142514 -0.408377 -0.516 200 151 119
0.0151752 -0.406794 -0.514 193 144 112
0.0160914 -0.405211 -0.512 198 149 117
0.0170333 -0.40442 -0.511 199 150 118
0.0179714 -0.403629 -0.51 198 149 117
0.0189057 -0.402837 -0.509 198 149 117
0.0198752 -0.402837 -0.509 199 149 116
0.0208038 -0.402046 -0.508 199 149 116
0.0217714 -0.402046 -0.508 201 151 118
0.022739 -0.402046 -0.508 205 155 122
0.02366 -0.401254 -0.507 206 157 124
0.0246257 -0.401254 -0.507 203 154 121
0.0255914 -0.401254 -0.507 201 155 121
0.0265571 -0.401254 -0.507 202 156 122
0.0274686 -0.400463 -0.506 202 156 122
0.0284324 -0.400463 -0.506 202 156 122
0.0293962 -0.400463 -0.506 202 156 122
0.03036 -0.400463 -0.506 201 155 121
0.0313238 -0.400463 -0.506 199 155 120
0.0322876 -0.400463 -0.506 199 155 120
0.0331857 -0.399671 -0.505 200 156 121
0.0342152 -0.400463 -0.506 202 158 123
0.035179 -0.400463 -0.506 202 158 123
0.0361429 -0.400463 -0.506 201 157 122
0.0371067 -0.400463 -0.506 201 157 122
0.0380705 -0.400463 -0.506 197 153 118
0.0390343 -0.400463 -0.506 197 152 119
0.0399981 -0.400463 -0.506 196 151 118
0.0409619 -0.400463 -0.506 193 146 116
0.0419257 -0.400463 -0.506 195 148 118
0.0428895 -0.400463 -0.506 193 146 116
0.0438533 -0.400463 -0.506 193 146 116
0.0448171 -0.400463 -0.506 192 145 115
0.045781 -0.400463 -0.506 190 143 113
0.0467448 -0.400463 -0.506 189 142 112
0.0477086 -0.400463 -0.506 191 144 114
0.0487686 -0.401254 -0.507 192 147 116
0.0497343 -0.401254 -0.507 194 149 118
0.0507 -0.401254 -0.507 195 150 119
0.0517676 -0.402046 -0.508 194 149 118
0.0527352 -0.402046 -0.508 194 149 118
0.0537029 -0.402046 -0.508 193 148 117
0.0547781 -0.402837 -0.509 193 148 117
0.0557476 -0.402837 -0.509 193 148 117
0.0568286 -0.403629 -0.51 193 148 117
0.0578 -0.403629 -0.51 193 148 117
0.0588867 -0.40442 -0.511 192 147 114
0.05986 -0.40442 -0.511 191 146 113
0.0608333 -0.40442 -0.511 189 144 113
0.0619276 -0.405211 -0.512 186 141 110
0.0629029 -0.405211 -0.512 185 140 111
0.0638781 -0.405211 -0.512 184 139 110
0.06498 -0.406003 -0.513 183 136 110
0.0660857 -0.406794 -0.514 182 135 109
0.0670648 -0.406794 -0.514 182 134 111
0.0681762 -0.407586 -0.515 181 133 110
0.0692914 -0.408377 -0.516 183 135 112
0.0702743 -0.408377 -0.516 180 132 109
0.0713952 -0.409169 -0.517 180 132 110
0.07252 -0.40996 -0.518 175 127 105
0.0736486 -0.410751 -0.519 173 126 106
0.0747809 -0.411543 -0.52 172 125 105
0.0757714 -0.411543 -0.52 172 125 105
0.0767619 -0.411543 -0.52 171 123 101
0.0779019 -0.412334 -0.521 170 122 100
0.0790457 -0.413126 -0.522 168 121 101
0.0803467 -0.414709 -0.524 166 119 99
0.0815 -0.4155 -0.525 158 115 98
0.0828143 -0.417083 -0.527 154 111 94
0.0839771 -0.417874 -0.528 146 110 96
0.0853048 -0.419457 -0.53 144 108 94
0.08664 -0.42104 -0.532 137 107 97
0.0878181 -0.421831 -0.533 135 105 95
0.0891667 -0.423414 -0.535 128 103 98
0.0905229 -0.424997 -0.537 124 99 94
0.0918867 -0.42658 -0.539 119 99 98
0.107687 -0.440826 -0.557 132 126 126
0.108748 -0.440826 -0.557 142 136 136
0.109809 -0.440826 -0.557 149 145 146
0.11087 -0.440826 -0.557 157 153 154
0.11193 -0.440826 -0.557 159 157 162
0.391797 -0.450323 -0.569 169 178 185
0.392881 -0.450323 -0.569 172 181 188
0.393965 -0.450323 -0.569 176 182 194
0.395049 -0.450323 -0.569 170 176 188
0.396132 -0.450323 -0.569 166 173 192
0.397216 -0.450323 -0.569 138 145 164
0.3983 -0.450323 -0.569 77 91 117
0.399384 -0.450323 -0.569 60 74 100
0.400468 -0.450323 -0.569 88 110 151
0.408771 -0.451114 -0.57 48 81 135
0.409857 -0.451114 -0.57 38 75 130
0.410943 -0.451114 -0.57 42 79 134
0.412029 -0.451114 -0.57 28 71 126
0.413114 -0.451114 -0.57 29 72 127
0.4142 -0.451114 -0.57 38 78 129
0.415286 -0.451114 -0.57 64 104 155
0.416371 -0.451114 -0.57 97 125 164
0.417457 -0.451114 -0.57 78 106 145
0.418543 -0.451114 -0.57 82 106 144
0.419629 -0.451114 -0.57 102 126 164
0.420714 -0.451114 -0.57 100 123 157
0.4218 -0.451114 -0.57 85 108 142
0.423628 -0.451906 -0.571 50 67 95
0.424715 -0.451906 -0.571 54 71 99
0.425803 -0.451906 -0.571 100 113 132
0.42689 -0.451906 -0.571 128 141 160
0.427978 -0.451906 -0.571 147 157 169
0.429066 -0.451906 -0.571 153 163 175
0.430153 -0.451906 -0.571 154 163 172
0.431241 -0.451906 -0.571 154 163 172
0.432329 -0.451906 -0.571 151 160 169
0.433416 -0.451906 -0.571 153 158 162
0.434504 -0.451906 -0.571 147 152 156
0.436354 -0.452697 -0.572 132 134 133
0.437444 -0.452697 -0.572 144 146 145
0.438533 -0.452697 -0.572 156 156 168
0.439623 -0.452697 -0.572 153 153 165
0.440712 -0.452697 -0.572 156 156 168
0.441802 -0.452697 -0.572 153 153 165
0.442891 -0.452697 -0.572 146 149 164
0.443981 -0.452697 -0.572 120 123 138
0.44507 -0.452697 -0.572 95 102 118
0.44616 -0.452697 -0.572 107 114 130
0.44725 -0.452697 -0.572 143 149 163
0.448339 -0.452697 -0.572 145 151 165
0.449429 -0.452697 -0.572 150 150 158
0.450518 -0.452697 -0.572 128 128 136
0.451608 -0.452697 -0.572 123 122 128
0.453489 -0.453489 -0.573 153 152 158
0.45458 -0.453489 -0.573 150 150 158
0.455671 -0.453489 -0.573 147 147 155
0.45756 -0.45428 -0.574 147 154 160
0.458653 -0.45428 -0.574 150 157 163
0.459747 -0.45428 -0.574 151 156 162
0.46084 -0.45428 -0.574 146 151 157
0.461933 -0.45428 -0.574 137 144 160
0.463027 -0.45428 -0.574 137 144 160
0.46412 -0.45428 -0.574 103 114 144
0.465213 -0.45428 -0.574 60 71 101
0.466307 -0.45428 -0.574 45 57 95
0.4674 -0.45428 -0.574 83 95 133
0.468493 -0.45428 -0.574 102 115 150
0.469587 -0.45428 -0.574 103 116 151
0.47068 -0.45428 -0.574 78 93 124
0.471773 -0.45428 -0.574 71 86 117
0.472867 -0.45428 -0.574 77 96 126
0.47396 -0.45428 -0.574 74 93 123
0.474226 -0.453489 -0.573 38 65 108
0.475317 -0.453489 -0.573 28 55 98
0.476409 -0.453489 -0.573 28 57 101
0.4775 -0.453489 -0.573 29 58 102
0.478591 -0.453489 -0.573 29 58 102
0.473274 -0.438451 -0.554 90 83 90
0.470049 -0.434494 -0.549 111 90 85
0.466804 -0.430537 -0.544 122 101 96
0.46354 -0.42658 -0.539 133 101 86
0.460257 -0.422623 -0.534 137 105 90
0.457819 -0.419457 -0.53 142 107 88
0.456231 -0.417083 -0.527 141 106 87
0.454632 -0.414709 -0.524 148 105 86
0.453891 -0.413126 -0.522 152 109 90
0.453143 -0.411543 -0.52 156 110 87
0.452387 -0.40996 -0.518 156 110 87
0.451623 -0.408377 -0.516 156 112 87
0.451729 -0.407586 -0.515 157 113 88
0.45183 -0.406794 -0.514 159 118 90
0.451048 -0.405211 -0.512 161 120 92
0.45114 -0.40442 -0.511 162 118 93
0.451229 -0.403629 -0.51 163 119 94
0.4522 -0.403629 -0.51 165 117 94
0.452283 -0.402837 -0.509 166 118 95
0.452362 -0.402046 -0.508 167 120 94
0.45333 -0.402046 -0.508 169 122 96
0.453403 -0.401254 -0.507 170 124 98
0.453472 -0.400463 -0.506 171 125 99
0.453538 -0.399671 -0.505 172 125 99
0.4545 -0.399671 -0.505 172 125 99
0.45456 -0.39888 -0.504 176 126 99
0.45552 -0.39888 -0.504 177 127 100
0.455574 -0.398089 -0.503 176 125 98
0.456532 -0.398089 -0.503 177 126 99
0.45749 -0.398089 -0.503 178 129 99
0.457537 -0.397297 -0.502 178 129 99
0.458493 -0.397297 -0.502 179 128 99
0.45945 -0.397297 -0.502 180 129 100
0.459489 -0.396506 -0.501 182 128 100
0.459524 -0.395714 -0.5 181 127 99
0.460476 -0.395714 -0.5 178 127 98
0.461429 -0.395714 -0.5 177 126 97
0.462381 -0.395714 -0.5 176 125 96
0.463333 -0.395714 -0.5 176 125 96
0.464286 -0.395714 -0.5 179 128 99
0.465238 -0.395714 -0.5 179 128 99
0.46619 -0.395714 -0.5 179 128 99
0.467143 -0.395714 -0.5 179 128 99
0.467159 -0.394923 -0.499 179 128 99
0.46811 -0.394923 -0.499 180 129 98
0.46906 -0.394923 -0.499 182 131 100
0.469069 -0.394131 -0.498 182 131 100
0.470017 -0.394131 -0.498 180 129 98
0.470966 -0.394131 -0.498 181 130 99
0.471914 -0.394131 -0.498 181 130 99
0.472863 -0.394131 -0.498 180 129 98
0.473811 -0.394131 -0.498 180 129 98
0.47476 -0.394131 -0.498 178 129 97
0.475709 -0.394131 -0.498 178 129 97
0.476657 -0.394131 -0.498 177 128 96
0.477606 -0.394131 -0.498 176 127 95
0.479515 -0.394923 -0.499 175 126 94
0.480466 -0.394923 -0.499 177 128 96
0.481416 -0.394923 -0.499 175 126 94
0.483333 -0.395714 -0.5 171 122 90
0.484286 -0.395714 -0.5 169 123 90
0.485238 -0.395714 -0.5 169 123 90
0.487163 -0.396506 -0.501 169 122 92
0.488117 -0.396506 -0.501 168 121 91
0.489071 -0.396506 -0.501 168 121 91
0.491004 -0.397297 -0.502 169 122 92
0.49196 -0.397297 -0.502 168 121 91
0.493898 -0.398089 -0.503 169 122 92
0.49584 -0.39888 -0.504 168 121 93
0.498771 -0.400463 -0.506 165 118 90
0.500723 -0.401254 -0.507 164 117 89
0.503668 -0.402837 -0.509 163 116 88
0.50662 -0.40442 -0.511 163 116 88
0.50958 -0.406003 -0.513 165 118 90
0.513543 -0.408377 -0.516 165 120 91
0.517517 -0.410751 -0.519 163 118 89
0.521503 -0.413126 -0.522 162 116 90
0.548663 -0.430537 -0.544 160 116 89
0.553741 -0.433703 -0.548 160 119 91
0.558834 -0.436869 -0.552 165 124 96
0.563943 -0.440034 -0.556 164 132 117
0.567034 -0.441617 -0.558 176 144 129
0.570133 -0.4432 -0.56 180 158 144
0.00764286 -0.424433 -0.535 194 145 113
0.00862952 -0.422847 -0.533 193 146 116
0.00957238 -0.419673 -0.529 195 148 118
0.0105 -0.4165 -0.525 196 149 119
0.0114124 -0.413327 -0.521 195 148 118
0.0123333 -0.410947 -0.518 198 149 119
0.0132429 -0.408567 -0.515 196 147 117
0.0141962 -0.407773 -0.514 197 148 116
0.0151162 -0.406187 -0.512 186 137 105
0.0160286 -0.4046 -0.51 196 147 115
0.017 -0.4046 -0.51 201 152 120
0.0179362 -0.403807 -0.509 199 150 118
0.0188686 -0.403013 -0.508 200 151 119
0.0198362 -0.403013 -0.508 201 152 119
0.0208038 -0.403013 -0.508 200 151 118
0.0217286 -0.40222 -0.507 202 153 120
0.0226943 -0.40222 -0.507 205 156 123
0.0236133 -0.401427 -0.506 206 157 124
0.0245771 -0.401427 -0.506 204 155 122
0.025541 -0.401427 -0.506 201 155 121
0.0265048 -0.401427 -0.506 202 156 122
0.0274686 -0.401427 -0.506 202 156 122
0.0284324 -0.401427 -0.506 202 156 122
0.0293962 -0.401427 -0.506 201 155 121
0.03036 -0.401427 -0.506 201 155 121
0.0313238 -0.401427 -0.506 200 154 120
0.0322876 -0.401427 -0.506 200 154 120
0.0331857 -0.400633 -0.505 201 155 122
0.0341476 -0.400633 -0.505 201 155 122
0.035179 -0.401427 -0.506 202 158 123
0.0361429 -0.401427 -0.506 200 156 121
0.0371067 -0.401427 -0.506 201 156 123
0.0380705 -0.401427 -0.506 195 150 117
0.0390343 -0.401427 -0.506 196 151 118
0.0399981 -0.401427 -0.506 196 151 118
0.0409619 -0.401427 -0.506 191 144 114
0.0419257 -0.401427 -0.506 193 146 116
0.0428895 -0.401427 -0.506 194 147 117
0.0438533 -0.401427 -0.506 192 145 115
0.0448171 -0.401427 -0.506 192 145 115
0.045781 -0.401427 -0.506 190 143 113
0.0467448 -0.401427 -0.506 190 143 113
0.0477086 -0.401427 -0.506 192 145 115
0.0487686 -0.40222 -0.507 194 147 117
0.0497343 -0.40222 -0.507 195 148 118
0.0507 -0.40222 -0.507 196 149 121
0.0517676 -0.403013 -0.508 196 149 121
0.0527352 -0.403013 -0.508 195 148 120
0.0537029 -0.403013 -0.508 194 147 119
0.0547781 -0.403807 -0.509 194 147 119
0.0557476 -0.403807 -0.509 194 147 119
0.0567171 -0.403807 -0.509 194 149 120
0.0578 -0.4046 -0.51 194 149 120
0.0588867 -0.405393 -0.511 193 148 119
0.05986 -0.405393 -0.511 192 147 118
0.0608333 -0.405393 -0.511 189 144 115
0.0619276 -0.406187 -0.512 185 140 111
0.0629029 -0.406187 -0.512 183 137 111
0.0638781 -0.406187 -0.512 182 136 110
0.06498 -0.40698 -0.513 181 135 111
0.0660857 -0.407773 -0.514 181 135 111
0.0670648 -0.407773 -0.514 182 136 113
0.0681762 -0.408567 -0.515 178 132 109
0.0692914 -0.40936 -0.516 181 133 113
0.0702743 -0.40936 -0.516 180 132 112
0.0713952 -0.410153 -0.517 178 130 110
0.07238 -0.410153 -0.517 178 130 110
0.0735067 -0.410947 -0.518 176 128 108
0.0746371 -0.41174 -0.519 175 127 107
0.0757714 -0.412533 -0.52 174 126 106
0.0767619 -0.412533 -0.52 171 123 103
0.0779019 -0.413327 -0.521 170 122 102
0.0791971 -0.414913 -0.523 168 121 101
0.0803467 -0.415707 -0.524 163 116 96
0.0816552 -0.417293 -0.526 154 113 95
0.0828143 -0.418087 -0.527 151 110 92
0.0841362 -0.419673 -0.529 145 109 95
0.0854657 -0.42126 -0.531 143 107 93
0.08664 -0.422053 -0.532 137 107 97
0.0879829 -0.42364 -0.534 134 104 94
0.0893333 -0.425227 -0.536 125 101 97
0.0906914 -0.426813 -0.538 123 99 95
0.109809 -0.441887 -0.557 147 145 150
0.11087 -0.441887 -0.557 156 154 159
0.11193 -0.441887 -0.557 162 161 167
0.112991 -0.441887 -0.557 168 167 173
0.114052 -0.441887 -0.557 169 169 177
0.115113 -0.441887 -0.557 174 174 182
0.116174 -0.441887 -0.557 163 165 178
0.117235 -0.441887 -0.557 153 155 168
0.118296 -0.441887 -0.557 163 162 180
0.119357 -0.441887 -0.557 182 181 199
0.120418 -0.441887 -0.557 195 193 204
0.121479 -0.441887 -0.557 196 194 205
0.12254 -0.441887 -0.557 197 197 197
0.40697 -0.451407 -0.569 77 110 161
0.408054 -0.451407 -0.569 46 79 130
0.409138 -0.451407 -0.569 34 71 123
0.410222 -0.451407 -0.569 29 66 118
0.412029 -0.4522 -0.57 23 63 115
0.413114 -0.4522 -0.57 25 65 117
0.4142 -0.4522 -0.57 35 72 125
0.415286 -0.4522 -0.57 63 100 153
0.416371 -0.4522 -0.57 80 118 167
0.417457 -0.4522 -0.57 59 97 146
0.418543 -0.4522 -0.57 53 83 133
0.419629 -0.4522 -0.57 53 83 133
0.420714 -0.4522 -0.57 45 72 117
0.4218 -0.4522 -0.57 52 79 124
0.422886 -0.4522 -0.57 58 81 112
0.423971 -0.4522 -0.57 87 110 141
0.425803 -0.452993 -0.571 134 145 177
0.42689 -0.452993 -0.571 150 161 193
0.427978 -0.452993 -0.571 155 157 169
0.429066 -0.452993 -0.571 158 160 172
0.430153 -0.452993 -0.571 160 159 165
0.431241 -0.452993 -0.571 151 150 156
0.432329 -0.452993 -0.571 151 150 156
0.433416 -0.452993 -0.571 131 136 132
0.434504 -0.452993 -0.571 157 162 158
0.435591 -0.452993 -0.571 149 156 164
0.436679 -0.452993 -0.571 150 157 165
0.438533 -0.453787 -0.572 151 154 159
0.439623 -0.453787 -0.572 144 147 152
0.439942 -0.452993 -0.571 141 145 156
0.44103 -0.452993 -0.571 130 134 145
0.442117 -0.452993 -0.571 128 133 153
0.443205 -0.452993 -0.571 112 117 137
0.444292 -0.452993 -0.571 77 83 109
0.44616 -0.453787 -0.572 100 106 132
0.44725 -0.453787 -0.572 124 130 154
0.448339 -0.453787 -0.572 128 134 158
0.449429 -0.453787 -0.572 127 132 151
0.450518 -0.453787 -0.572 129 134 153
0.451608 -0.453787 -0.572 136 140 149
0.452697 -0.453787 -0.572 149 153 162
0.453787 -0.453787 -0.572 127 131 134
0.455671 -0.45458 -0.573 133 137 140
0.456763 -0.45458 -0.573 144 153 162
0.457854 -0.45458 -0.573 145 154 163
0.458946 -0.45458 -0.573 151 151 159
0.460037 -0.45458 -0.573 155 155 163
0.461129 -0.45458 -0.573 150 148 159
0.46222 -0.45458 -0.573 152 150 161
0.46412 -0.455373 -0.574 131 137 153
0.465213 -0.455373 -0.574 103 109 125
0.466307 -0.455373 -0.574 70 84 110
0.466586 -0.45458 -0.573 58 72 98
0.467677 -0.45458 -0.573 52 71 104
0.468769 -0.45458 -0.573 55 74 107
0.46986 -0.45458 -0.573 56 78 117
0.470951 -0.45458 -0.573 49 71 110
0.472043 -0.45458 -0.573 72 97 138
0.473134 -0.45458 -0.573 60 85 126
0.474226 -0.45458 -0.573 39 67 107
0.475317 -0.45458 -0.573 25 53 93
0.475577 -0.453787 -0.572 21 53 100
0.476667 -0.453787 -0.572 22 54 101
0.477756 -0.453787 -0.572 21 52 99
0.478846 -0.453787 -0.572 21 52 99
0.472617 -0.43792 -0.552 103 91 93
0.469378 -0.433953 -0.547 115 103 105
0.46612 -0.429987 -0.542 135 101 89
0.462843 -0.42602 -0.537 141 107 95
0.46041 -0.422847 -0.533 137 103 93
0.457963 -0.419673 -0.529 139 105 95
0.456368 -0.417293 -0.526 142 104 91
0.454761 -0.414913 -0.523 145 107 94
0.454014 -0.413327 -0.521 152 111 91
0.45326 -0.41174 -0.519 152 111 91
0.453373 -0.410947 -0.518 153 111 87
0.452606 -0.40936 -0.516 155 113 89
0.45271 -0.408567 -0.515 157 115 90
0.451929 -0.40698 -0.513 159 117 92
0.452023 -0.406187 -0.512 164 119 90
0.452113 -0.405393 -0.511 163 118 89
0.4522 -0.4046 -0.51 166 117 85
0.452283 -0.403807 -0.509 168 119 87
0.453252 -0.403807 -0.509 167 120 94
0.45333 -0.403013 -0.508 168 121 95
0.453403 -0.40222 -0.507 169 123 97
0.453472 -0.401427 -0.506 171 125 99
0.453538 -0.400633 -0.505 171 125 99
0.4536 -0.39984 -0.504 171 125 99
0.45456 -0.39984 -0.504 173 126 100
0.45552 -0.39984 -0.504 174 127 101
0.455574 -0.399047 -0.503 175 125 98
0.456532 -0.399047 -0.503 176 126 99
0.45749 -0.399047 -0.503 177 127 100
0.457537 -0.398253 -0.502 178 128 101
0.458493 -0.398253 -0.502 178 128 101
0.45945 -0.398253 -0.502 178 128 101
0.459489 -0.39746 -0.501 179 128 99
0.459524 -0.396667 -0.5 178 127 98
0.460476 -0.396667 -0.5 178 129 99
0.461429 -0.396667 -0.5 176 127 97
0.462381 -0.396667 -0.5 175 126 96
0.463333 -0.396667 -0.5 175 126 96
0.463357 -0.395873 -0.499 176 127 97
0.464308 -0.395873 -0.499 177 128 98
0.465258 -0.395873 -0.499 178 129 99
0.466209 -0.395873 -0.499 178 129 99
0.467159 -0.395873 -0.499 178 129 99
0.46811 -0.395873 -0.499 179 128 99
0.46812 -0.39508 -0.498 181 130 101
0.469069 -0.39508 -0.498 181 130 99
