ply
format ascii 1.0
comment Created by Open3D
element vertex 1280
property double x
property double y
property double z
property uchar red
property uchar green
property uchar blue
end_header
0.025981 -0.418057 -0.496 198 153 120
0.0269257 -0.418057 -0.496 204 159 126
0.0278705 -0.418057 -0.496 199 154 121
0.0288733 -0.4189 -0.497 191 146 113
0.02982 -0.4189 -0.497 198 153 120
0.0307667 -0.4189 -0.497 200 155 122
0.0317133 -0.4189 -0.497 198 153 120
0.03266 -0.4189 -0.497 198 153 120
0.0336067 -0.4189 -0.497 199 154 123
0.0345533 -0.4189 -0.497 199 154 123
0.0355 -0.4189 -0.497 197 152 121
0.0364467 -0.4189 -0.497 194 149 118
0.0373933 -0.4189 -0.497 193 150 118
0.03834 -0.4189 -0.497 193 150 118
0.0392867 -0.4189 -0.497 193 150 118
0.0402333 -0.4189 -0.497 195 152 120
0.04118 -0.4189 -0.497 196 151 120
0.0421267 -0.4189 -0.497 196 151 120
0.0430733 -0.4189 -0.497 197 150 122
0.0441086 -0.419743 -0.498 196 149 121
0.0450571 -0.419743 -0.498 195 150 121
0.0460057 -0.419743 -0.498 193 148 119
0.0470486 -0.420586 -0.499 191 146 117
0.047999 -0.420586 -0.499 192 147 118
0.0490476 -0.421429 -0.5 193 148 119
0.05 -0.421429 -0.5 192 147 118
0.0510543 -0.422271 -0.501 192 147 118
0.0520086 -0.422271 -0.501 190 145 116
0.0530686 -0.423114 -0.502 187 143 114
0.0541324 -0.423957 -0.503 184 140 111
0.0550905 -0.423957 -0.503 182 138 109
0.05616 -0.4248 -0.504 181 137 108
0.05712 -0.4248 -0.504 183 137 111
0.0581952 -0.425643 -0.505 182 136 110
0.0592743 -0.426486 -0.506 179 133 107
0.0602381 -0.426486 -0.506 175 129 103
0.0613229 -0.427329 -0.507 172 128 103
0.0624114 -0.428171 -0.508 172 128 103
0.0635038 -0.429014 -0.509 168 126 104
0.0646 -0.429857 -0.51 165 123 101
0.0657 -0.4307 -0.511 162 121 101
0.0668038 -0.431543 -0.512 155 114 94
0.0680438 -0.433229 -0.514 148 110 91
0.0691571 -0.434071 -0.515 147 109 90
0.0702743 -0.434914 -0.516 147 108 91
0.0713952 -0.435757 -0.517 144 105 88
0.07266 -0.437443 -0.519 138 101 85
0.0737905 -0.438286 -0.52 135 98 82
0.0750686 -0.439971 -0.522 125 97 86
0.0762086 -0.440814 -0.523 123 95 84
0.0775 -0.4425 -0.525 115 92 86
0.078799 -0.444186 -0.527 112 89 83
0.0801057 -0.445871 -0.529 107 89 89
0.08142 -0.447557 -0.531 106 88 88
0.456171 -0.455143 -0.54 92 79 86
0.45466 -0.452614 -0.537 108 83 76
0.453986 -0.450929 -0.535 110 85 78
0.452453 -0.4484 -0.532 118 86 71
0.451762 -0.446714 -0.53 124 92 77
0.451063 -0.445029 -0.528 130 95 76
0.450356 -0.443343 -0.526 130 95 76
0.449642 -0.441657 -0.524 138 97 77
0.44892 -0.439971 -0.522 141 100 80
0.449914 -0.439971 -0.522 141 100 80
0.450045 -0.439129 -0.521 146 104 82
0.450171 -0.438286 -0.52 147 105 83
0.450294 -0.437443 -0.519 150 104 81
0.450413 -0.4366 -0.518 152 106 83
0.450529 -0.435757 -0.517 155 107 84
0.45064 -0.434914 -0.516 154 106 83
0.450748 -0.434071 -0.515 159 109 84
0.451729 -0.434071 -0.515 161 111 86
0.45183 -0.433229 -0.514 164 115 85
0.451929 -0.432386 -0.513 165 116 86
0.452023 -0.431543 -0.512 163 117 84
0.452998 -0.431543 -0.512 164 117 87
0.453087 -0.4307 -0.511 165 120 87
0.453171 -0.429857 -0.51 166 121 88
0.453252 -0.429014 -0.509 170 121 91
0.45333 -0.428171 -0.508 171 122 92
0.453403 -0.427329 -0.507 172 123 93
0.454369 -0.427329 -0.507 172 123 93
0.454436 -0.426486 -0.506 172 123 93
0.4545 -0.425643 -0.505 171 122 92
0.455462 -0.425643 -0.505 171 122 90
0.456424 -0.425643 -0.505 171 122 90
0.45648 -0.4248 -0.504 169 120 88
0.456532 -0.423957 -0.503 170 121 89
0.45749 -0.423957 -0.503 172 121 90
0.457537 -0.423114 -0.502 174 123 92
0.458493 -0.423114 -0.502 175 124 93
0.45945 -0.423114 -0.502 176 125 94
0.459489 -0.422271 -0.501 177 126 95
0.460443 -0.422271 -0.501 177 126 95
0.461397 -0.422271 -0.501 177 128 96
0.461429 -0.421429 -0.5 180 131 99
0.462381 -0.421429 -0.5 179 130 98
0.463333 -0.421429 -0.5 174 125 93
0.464286 -0.421429 -0.5 173 124 92
0.464308 -0.420586 -0.499 177 128 96
0.465258 -0.420586 -0.499 181 132 100
0.466209 -0.420586 -0.499 181 132 100
0.466223 -0.419743 -0.498 179 130 98
0.467171 -0.419743 -0.498 178 129 97
0.46812 -0.419743 -0.498 178 129 96
0.469069 -0.419743 -0.498 179 130 97
0.470017 -0.419743 -0.498 179 130 97
0.470966 -0.419743 -0.498 177 128 95
0.471914 -0.419743 -0.498 175 126 93
0.473812 -0.420586 -0.499 173 124 91
0.474763 -0.420586 -0.499 171 127 92
0.475713 -0.420586 -0.499 170 126 91
0.476664 -0.420586 -0.499 170 126 91
0.478571 -0.421429 -0.5 171 127 92
0.479524 -0.421429 -0.5 171 127 92
0.480476 -0.421429 -0.5 170 126 91
0.481429 -0.421429 -0.5 168 124 89
0.483346 -0.422271 -0.501 167 123 88
0.4843 -0.422271 -0.501 168 123 90
0.485254 -0.422271 -0.501 167 122 89
0.486209 -0.422271 -0.501 167 122 89
0.488135 -0.423114 -0.502 166 121 88
0.489091 -0.423114 -0.502 166 121 88
0.491024 -0.423957 -0.503 165 120 87
0.491982 -0.423957 -0.503 163 118 87
0.49294 -0.423957 -0.503 163 118 87
0.49488 -0.4248 -0.504 164 118 85
0.49584 -0.4248 -0.504 163 117 84
0.497786 -0.425643 -0.505 162 117 84
0.499735 -0.426486 -0.506 161 116 83
0.500699 -0.426486 -0.506 161 116 83
0.502654 -0.427329 -0.507 160 115 84
0.504613 -0.428171 -0.508 159 114 83
0.506576 -0.429014 -0.509 159 116 84
0.508543 -0.429857 -0.51 159 116 84
0.511512 -0.431543 -0.512 159 115 86
0.51449 -0.433229 -0.514 159 115 86
0.517474 -0.434914 -0.516 155 114 84
0.521471 -0.437443 -0.519 154 113 83
0.524473 -0.439129 -0.521 153 112 82
0.528491 -0.441657 -0.524 153 112 82
0.532521 -0.444186 -0.527 154 113 83
0.53555 -0.445871 -0.529 155 114 84
0.5396 -0.4484 -0.532 159 113 87
0.543662 -0.450929 -0.535 159 113 87
0.546717 -0.452614 -0.537 154 120 95
0.54672 -0.451771 -0.536 156 116 90
0.550807 -0.4543 -0.539 158 132 107
0.553881 -0.455986 -0.541 173 147 122
0.555937 -0.456829 -0.542 179 168 148
0.557997 -0.457671 -0.543 194 183 163
0.560061 -0.458514 -0.544 191 192 176
0.868673 -0.479586 -0.569 179 183 168
0.874343 -0.482114 -0.572 180 182 169
0.878493 -0.4838 -0.574 179 181 168
0.879587 -0.4838 -0.574 179 181 168
0.879146 -0.482957 -0.573 179 181 168
1.00676 -0.493071 -0.585 119 119 117
1.00787 -0.493071 -0.585 119 119 117
1.00899 -0.493071 -0.585 118 120 117
1.00837 -0.492229 -0.584 117 119 116
-0.316457 -0.439276 -0.52 222 223 215
-0.315467 -0.439276 -0.52 221 222 214
-0.314476 -0.439276 -0.52 221 222 214
-0.313486 -0.439276 -0.52 222 223 215
-0.312495 -0.439276 -0.52 221 222 214
-0.311505 -0.439276 -0.52 222 223 215
-0.310514 -0.439276 -0.52 223 224 216
-0.309524 -0.439276 -0.52 224 225 217
-0.308533 -0.439276 -0.52 225 226 218
-0.307543 -0.439276 -0.52 225 226 218
-0.306552 -0.439276 -0.52 226 227 219
-0.305562 -0.439276 -0.52 226 227 219
-0.304571 -0.439276 -0.52 225 226 218
-0.296226 -0.440121 -0.521 226 227 219
-0.295233 -0.440121 -0.521 226 227 219
-0.294241 -0.440121 -0.521 226 227 219
-0.293249 -0.440121 -0.521 225 226 218
-0.292256 -0.440121 -0.521 225 226 218
-0.291264 -0.440121 -0.521 226 227 219
-0.282332 -0.440121 -0.521 225 226 218
-0.28134 -0.440121 -0.521 225 226 218
-0.280348 -0.440121 -0.521 225 226 218
-0.279355 -0.440121 -0.521 225 226 218
-0.278363 -0.440121 -0.521 226 227 219
-0.27737 -0.440121 -0.521 226 227 219
-0.276378 -0.440121 -0.521 226 227 219
-0.275386 -0.440121 -0.521 226 227 219
-0.0115657 -0.446034 -0.528 182 155 128
-0.01052 -0.444345 -0.526 189 152 126
-0.0094819 -0.442655 -0.524 188 151 125
-0.00845143 -0.440966 -0.522 191 146 123
-0.00741429 -0.438431 -0.519 188 143 120
-0.00637619 -0.435052 -0.515 189 142 116
-0.00536381 -0.432518 -0.512 191 144 118
-0.00436286 -0.429984 -0.509 191 150 122
-0.00337333 -0.42745 -0.506 190 149 121
-0.0024 -0.42576 -0.504 188 149 120
-0.00143429 -0.42407 -0.502 190 151 122
-0.00047619 -0.422381 -0.5 194 153 125
0.000475238 -0.421536 -0.499 194 153 125
0.00142857 -0.422381 -0.5 195 151 122
0.00237619 -0.421536 -0.499 196 152 123
0.00332 -0.420691 -0.498 199 155 126
0.00426 -0.419847 -0.497 199 155 126
0.00519619 -0.419002 -0.496 199 155 126
0.00614095 -0.419002 -0.496 197 153 124
0.00708571 -0.419002 -0.496 197 154 122
0.00803048 -0.419002 -0.496 198 155 123
0.00897524 -0.419002 -0.496 200 155 124
0.00992 -0.419002 -0.496 200 155 124
0.0108648 -0.419002 -0.496 199 154 121
0.0118095 -0.419002 -0.496 198 153 120
0.0127543 -0.419002 -0.496 198 153 120
0.0136714 -0.418157 -0.495 198 153 120
0.0146143 -0.418157 -0.495 199 154 121
0.0155571 -0.418157 -0.495 198 153 120
0.0165 -0.418157 -0.495 198 153 120
0.0174429 -0.418157 -0.495 198 153 120
0.0184229 -0.419002 -0.496 197 152 121
0.0193676 -0.419002 -0.496 199 154 123
0.0203124 -0.419002 -0.496 198 153 122
0.0212571 -0.419002 -0.496 199 154 123
0.0222019 -0.419002 -0.496 202 155 125
0.0231467 -0.419002 -0.496 200 153 123
0.0240914 -0.419002 -0.496 199 152 122
0.0250362 -0.419002 -0.496 200 153 123
0.025981 -0.419002 -0.496 200 155 122
0.0269257 -0.419002 -0.496 199 154 121
0.0278705 -0.419002 -0.496 191 146 113
0.0288152 -0.419002 -0.496 185 140 107
0.02976 -0.419002 -0.496 197 152 121
0.0307048 -0.419002 -0.496 198 153 122
0.0316495 -0.419002 -0.496 198 153 122
0.0325943 -0.419002 -0.496 200 155 124
0.033539 -0.419002 -0.496 200 155 124
0.0345533 -0.419847 -0.497 200 155 124
0.0355 -0.419847 -0.497 198 153 122
0.0364467 -0.419847 -0.497 195 150 119
0.0373933 -0.419847 -0.497 194 149 118
0.03834 -0.419847 -0.497 195 150 119
0.0392867 -0.419847 -0.497 195 150 119
0.0401524 -0.419002 -0.496 197 152 121
0.04118 -0.419847 -0.497 198 153 122
0.0421267 -0.419847 -0.497 197 152 121
0.0430733 -0.419847 -0.497 196 151 120
0.04402 -0.419847 -0.497 194 149 118
0.0450571 -0.420691 -0.498 193 148 117
0.0460057 -0.420691 -0.498 193 148 117
0.0469543 -0.420691 -0.498 191 147 118
0.047999 -0.421536 -0.499 191 146 117
0.0490476 -0.422381 -0.5 194 149 120
0.05 -0.422381 -0.5 193 148 119
0.0510543 -0.423226 -0.501 191 146 117
0.0520086 -0.423226 -0.501 189 144 115
0.0530686 -0.42407 -0.502 185 140 111
0.0540248 -0.42407 -0.502 183 138 109
0.0550905 -0.424915 -0.503 182 138 109
0.05616 -0.42576 -0.504 181 137 108
0.05712 -0.42576 -0.504 182 136 110
0.0581952 -0.426605 -0.505 180 134 108
0.0592743 -0.42745 -0.506 178 132 106
0.0602381 -0.42745 -0.506 175 129 103
0.0613229 -0.428294 -0.507 172 128 103
0.0624114 -0.429139 -0.508 171 127 102
0.0635038 -0.429984 -0.509 166 124 102
0.0646 -0.430829 -0.51 162 120 98
0.0657 -0.431673 -0.511 158 117 97
0.0669343 -0.433363 -0.513 152 111 91
0.0680438 -0.434208 -0.514 147 109 90
0.0691571 -0.435052 -0.515 147 109 90
0.0702743 -0.435897 -0.516 145 106 89
0.0713952 -0.436742 -0.517 143 104 87
0.07266 -0.438431 -0.519 138 101 85
0.0737905 -0.439276 -0.52 134 97 81
0.0750686 -0.440966 -0.522 123 96 85
0.0763543 -0.442655 -0.524 120 93 82
0.0776476 -0.444345 -0.526 113 89 85
0.078799 -0.44519 -0.527 110 86 82
0.0801057 -0.446879 -0.529 105 87 87
0.08142 -0.448569 -0.531 104 86 86
0.456353 -0.455327 -0.539 100 83 76
0.455683 -0.453637 -0.537 102 85 78
0.454154 -0.451103 -0.534 112 86 69
0.453467 -0.449413 -0.532 117 91 74
0.451917 -0.446879 -0.529 126 95 75
0.451212 -0.44519 -0.527 127 96 76
0.4505 -0.4435 -0.525 131 95 73
0.44978 -0.44181 -0.523 134 98 76
0.449914 -0.440966 -0.522 141 100 78
0.450909 -0.440966 -0.522 141 100 78
0.451037 -0.440121 -0.521 143 102 80
0.451162 -0.439276 -0.52 149 103 80
0.451283 -0.438431 -0.519 151 105 82
0.4514 -0.437587 -0.518 154 106 83
0.451513 -0.436742 -0.517 154 106 83
0.451623 -0.435897 -0.516 155 108 82
0.451729 -0.435052 -0.515 157 110 84
0.45183 -0.434208 -0.514 159 112 84
0.451929 -0.433363 -0.513 161 114 86
0.452023 -0.432518 -0.512 162 115 85
0.452998 -0.432518 -0.512 163 116 86
0.453087 -0.431673 -0.511 165 119 86
0.453171 -0.430829 -0.51 166 120 87
0.453252 -0.429984 -0.509 168 119 89
0.45333 -0.429139 -0.508 169 120 90
0.454297 -0.429139 -0.508 170 121 91
0.454369 -0.428294 -0.507 171 122 92
0.454436 -0.42745 -0.506 171 122 92
0.4554 -0.42745 -0.506 171 122 92
0.455462 -0.426605 -0.505 171 122 92
0.456424 -0.426605 -0.505 172 123 93
0.45648 -0.42576 -0.504 171 122 92
0.456532 -0.424915 -0.503 171 122 92
0.45749 -0.424915 -0.503 171 122 90
0.457537 -0.42407 -0.502 172 123 91
0.458493 -0.42407 -0.502 174 125 93
0.45945 -0.42407 -0.502 175 126 94
0.459489 -0.423226 -0.501 177 126 95
0.460443 -0.423226 -0.501 177 126 95
0.461397 -0.423226 -0.501 177 128 95
0.461429 -0.422381 -0.5 180 131 98
0.462381 -0.422381 -0.5 175 126 93
0.463333 -0.422381 -0.5 170 121 88
0.463357 -0.421536 -0.499 175 126 93
0.464308 -0.421536 -0.499 180 131 98
0.465258 -0.421536 -0.499 181 132 99
0.465274 -0.420691 -0.498 182 133 100
0.466223 -0.420691 -0.498 178 129 96
0.467171 -0.420691 -0.498 178 129 96
0.46812 -0.420691 -0.498 176 130 96
0.469069 -0.420691 -0.498 177 131 97
0.470017 -0.420691 -0.498 178 132 98
0.470966 -0.420691 -0.498 176 130 96
0.471914 -0.420691 -0.498 174 128 94
0.472863 -0.420691 -0.498 172 126 92
0.473811 -0.420691 -0.498 174 129 90
0.47476 -0.420691 -0.498 173 128 89
0.476664 -0.421536 -0.499 173 128 89
0.477614 -0.421536 -0.499 173 128 89
0.478565 -0.421536 -0.499 172 126 90
0.480476 -0.422381 -0.5 171 125 89
0.481429 -0.422381 -0.5 170 124 88
0.482381 -0.422381 -0.5 170 124 88
0.483333 -0.422381 -0.5 170 124 90
0.484286 -0.422381 -0.5 169 123 89
0.486209 -0.423226 -0.501 168 122 88
0.487163 -0.423226 -0.501 168 122 88
0.488117 -0.423226 -0.501 168 122 88
0.490048 -0.42407 -0.502 168 122 88
0.491004 -0.42407 -0.502 168 122 88
0.49196 -0.42407 -0.502 167 121 87
0.493898 -0.424915 -0.503 166 120 87
0.494856 -0.424915 -0.503 165 119 86
0.4968 -0.42576 -0.504 164 118 85
0.49776 -0.42576 -0.504 163 117 84
0.49971 -0.426605 -0.505 162 117 84
0.500671 -0.426605 -0.505 162 117 84
0.502627 -0.42745 -0.506 162 117 84
0.504586 -0.428294 -0.507 162 117 86
0.506549 -0.429139 -0.508 162 117 86
0.509514 -0.430829 -0.51 160 117 85
0.511487 -0.431673 -0.511 159 116 84
0.514466 -0.433363 -0.513 157 113 84
0.517452 -0.435052 -0.515 155 111 82
0.521453 -0.437587 -0.518 152 111 81
0.525466 -0.440121 -0.521 152 111 81
0.528479 -0.44181 -0.523 152 111 81
0.532512 -0.444345 -0.526 153 112 82
0.536557 -0.446879 -0.529 157 110 84
0.540613 -0.449413 -0.532 159 112 86
0.540609 -0.448569 -0.531 155 114 86
0.54468 -0.451103 -0.534 156 115 87
0.547741 -0.452792 -0.536 152 121 93
0.55081 -0.454482 -0.538 157 126 98
0.554911 -0.457016 -0.541 161 145 122
0.55697 -0.457861 -0.542 184 168 145
0.559031 -0.458706 -0.543 189 183 167
0.561097 -0.459551 -0.544 193 187 171
0.8343 -0.47898 -0.567 169 168 163
0.83538 -0.47898 -0.567 170 170 162
0.83646 -0.47898 -0.567 170 170 162
0.83754 -0.47898 -0.567 170 170 162
0.83862 -0.47898 -0.567 169 169 161
0.841181 -0.479825 -0.568 170 170 160
0.842263 -0.479825 -0.568 170 170 160
0.843345 -0.479825 -0.568 169 169 159
0.844427 -0.479825 -0.568 169 169 159
0.845509 -0.479825 -0.568 169 169 159
0.846591 -0.479825 -0.568 170 170 160
0.847672 -0.479825 -0.568 170 170 160
0.848754 -0.479825 -0.568 170 170 160
0.849836 -0.479825 -0.568 170 170 160
0.850918 -0.479825 -0.568 168 168 158
0.852 -0.479825 -0.568 167 167 157
0.853082 -0.479825 -0.568 167 167 157
0.854164 -0.479825 -0.568 166 166 154
0.866065 -0.479825 -0.568 161 163 150
0.8702 -0.481514 -0.57 160 162 149
0.874343 -0.483204 -0.572 160 162 151
0.880024 -0.485738 -0.575 160 162 151
0.884184 -0.487428 -0.577 160 160 150
1.01873 -0.49841 -0.59 105 106 108
-0.316457 -0.440267 -0.52 223 224 216
-0.315467 -0.440267 -0.52 222 223 215
-0.314476 -0.440267 -0.52 221 222 214
-0.313486 -0.440267 -0.52 220 221 213
-0.312495 -0.440267 -0.52 220 221 213
-0.311505 -0.440267 -0.52 221 222 214
-0.310514 -0.440267 -0.52 223 224 216
-0.308929 -0.43942 -0.519 224 225 217
-0.30794 -0.43942 -0.519 225 226 218
-0.306951 -0.43942 -0.519 225 226 218
-0.306552 -0.440267 -0.52 225 226 218
-0.305562 -0.440267 -0.52 225 226 218
-0.304571 -0.440267 -0.52 224 225 217
-0.303581 -0.440267 -0.52 224 225 217
-0.30259 -0.440267 -0.52 224 225 217
-0.3016 -0.440267 -0.52 225 226 218
-0.30061 -0.440267 -0.52 225 226 218
-0.295657 -0.440267 -0.52 226 227 219
-0.294667 -0.440267 -0.52 226 227 219
-0.293676 -0.440267 -0.52 225 226 218
-0.280348 -0.441113 -0.521 226 227 219
-0.279355 -0.441113 -0.521 227 228 220
-0.278363 -0.441113 -0.521 225 226 218
-0.27737 -0.441113 -0.521 225 226 218
-0.276378 -0.441113 -0.521 225 226 220
-0.275386 -0.441113 -0.521 225 226 220
-0.274393 -0.441113 -0.521 225 226 220
-0.273401 -0.441113 -0.521 225 226 220
-0.272409 -0.441113 -0.521 225 226 220
-0.271416 -0.441113 -0.521 225 226 220
-0.0135771 -0.44704 -0.528 179 153 130
-0.0125714 -0.44704 -0.528 188 151 122
-0.0115438 -0.446193 -0.527 189 152 123
-0.01048 -0.443653 -0.524 189 152 125
-0.00944571 -0.44196 -0.522 188 151 124
-0.00841905 -0.440267 -0.52 187 150 124
-0.00737143 -0.43688 -0.516 186 149 123
-0.00633905 -0.433493 -0.512 186 149 122
-0.00533238 -0.430953 -0.509 189 152 125
-0.00433714 -0.428413 -0.506 192 151 123
-0.00335333 -0.425873 -0.503 190 149 121
-0.00239048 -0.425027 -0.502 188 147 119
-0.00142857 -0.423333 -0.5 190 149 121
-0.000475238 -0.422487 -0.499 195 154 126
0.000474286 -0.42164 -0.498 197 156 128
0.00142 -0.420793 -0.497 197 153 124
0.00237143 -0.42164 -0.498 196 152 123
0.00331333 -0.420793 -0.497 199 155 126
0.00425143 -0.419947 -0.496 199 155 126
0.00518571 -0.4191 -0.495 199 156 124
0.00612857 -0.4191 -0.495 197 154 122
0.00707143 -0.4191 -0.495 196 153 121
0.00801429 -0.4191 -0.495 196 153 121
0.00895714 -0.4191 -0.495 199 154 123
0.0099 -0.4191 -0.495 199 154 123
0.0108429 -0.4191 -0.495 199 154 121
0.0117857 -0.4191 -0.495 198 153 120
0.0127286 -0.4191 -0.495 197 152 119
0.0136714 -0.4191 -0.495 198 153 120
0.0146143 -0.4191 -0.495 199 154 121
0.0155571 -0.4191 -0.495 199 154 121
0.0165 -0.4191 -0.495 199 153 120
0.0174429 -0.4191 -0.495 198 152 119
0.0183857 -0.4191 -0.495 197 150 120
0.0193676 -0.419947 -0.496 200 153 123
0.0203124 -0.419947 -0.496 200 153 123
0.0212571 -0.419947 -0.496 202 155 125
0.0222019 -0.419947 -0.496 202 155 125
0.0231467 -0.419947 -0.496 200 153 123
0.0240914 -0.419947 -0.496 199 152 122
0.0250362 -0.419947 -0.496 200 153 123
0.025981 -0.419947 -0.496 201 154 124
0.0269257 -0.419947 -0.496 194 147 117
0.0278705 -0.419947 -0.496 183 138 107
0.0288152 -0.419947 -0.496 181 136 105
0.02976 -0.419947 -0.496 197 152 121
0.0306429 -0.4191 -0.495 198 153 122
0.0315857 -0.4191 -0.495 196 151 120
0.0325943 -0.419947 -0.496 200 155 124
0.033539 -0.419947 -0.496 200 155 124
0.0344838 -0.419947 -0.496 199 154 123
0.0354286 -0.419947 -0.496 197 152 121
0.0363733 -0.419947 -0.496 195 150 119
0.0373181 -0.419947 -0.496 194 149 118
0.0382629 -0.419947 -0.496 195 150 119
0.0392076 -0.419947 -0.496 196 151 120
0.0401524 -0.419947 -0.496 196 151 120
0.0410971 -0.419947 -0.496 197 154 122
0.0420419 -0.419947 -0.496 196 153 121
0.0430733 -0.420793 -0.497 195 150 119
0.04402 -0.420793 -0.497 193 148 117
0.0449667 -0.420793 -0.497 192 147 116
0.0460057 -0.42164 -0.498 193 148 117
0.0469543 -0.42164 -0.498 193 150 118
0.0479029 -0.42164 -0.498 191 148 116
0.0489495 -0.422487 -0.499 193 149 120
0.05 -0.423333 -0.5 191 147 118
0.0509524 -0.423333 -0.5 190 146 117
0.0520086 -0.42418 -0.501 187 143 114
0.0530686 -0.425027 -0.502 183 139 110
0.0540248 -0.425027 -0.502 183 139 110
0.0550905 -0.425873 -0.503 183 139 110
0.0560486 -0.425873 -0.503 181 137 108
0.05712 -0.42672 -0.504 179 135 108
0.0581952 -0.427567 -0.505 177 133 106
0.0592743 -0.428413 -0.506 175 131 104
0.0602381 -0.428413 -0.506 173 129 102
0.0613229 -0.42926 -0.507 171 127 102
0.0624114 -0.430107 -0.508 169 125 100
0.0635038 -0.430953 -0.509 163 122 100
0.0646 -0.4318 -0.51 159 118 96
0.0657 -0.432647 -0.511 154 116 97
0.0669343 -0.43434 -0.513 148 110 91
0.0680438 -0.435187 -0.514 145 106 89
0.0691571 -0.436033 -0.515 145 106 89
0.0702743 -0.43688 -0.516 142 105 89
0.0713952 -0.437727 -0.517 139 102 86
0.07266 -0.43942 -0.519 134 98 84
0.0737905 -0.440267 -0.52 130 94 80
0.0750686 -0.44196 -0.522 119 95 85
0.0763543 -0.443653 -0.524 116 92 82
0.0776476 -0.445347 -0.526 110 89 84
0.0789486 -0.44704 -0.528 107 86 81
0.0802571 -0.448733 -0.53 104 85 87
0.456531 -0.455507 -0.538 93 82 80
0.455855 -0.453813 -0.536 104 82 68
0.455171 -0.45212 -0.534 108 86 72
0.453626 -0.44958 -0.531 118 89 71
0.452925 -0.447887 -0.529 121 92 74
0.452216 -0.446193 -0.527 129 94 72
0.4515 -0.4445 -0.525 131 96 74
0.450776 -0.442807 -0.523 135 97 76
0.450909 -0.44196 -0.522 136 98 77
0.451903 -0.44196 -0.522 136 98 77
0.45203 -0.441113 -0.521 145 100 79
0.452152 -0.440267 -0.52 148 103 82
0.452271 -0.43942 -0.519 151 105 81
0.451513 -0.437727 -0.517 151 105 81
0.451623 -0.43688 -0.516 153 106 80
0.451729 -0.436033 -0.515 154 107 81
0.45183 -0.435187 -0.514 156 109 81
0.451929 -0.43434 -0.513 158 111 83
0.452023 -0.433493 -0.512 160 113 83
0.452998 -0.433493 -0.512 160 113 85
0.453087 -0.432647 -0.511 161 114 84
0.453171 -0.4318 -0.51 163 116 86
0.453252 -0.430953 -0.509 165 116 86
0.454222 -0.430953 -0.509 166 117 87
0.454297 -0.430107 -0.508 167 118 88
0.454369 -0.42926 -0.507 169 120 90
0.455334 -0.42926 -0.507 171 122 92
0.4554 -0.428413 -0.506 172 123 93
0.455462 -0.427567 -0.505 172 123 93
0.456424 -0.427567 -0.505 172 123 93
0.45648 -0.42672 -0.504 171 122 92
0.456532 -0.425873 -0.503 171 122 92
0.45749 -0.425873 -0.503 171 122 90
0.457537 -0.425027 -0.502 172 123 91
0.458493 -0.425027 -0.502 173 124 92
0.45945 -0.425027 -0.502 174 125 93
0.459489 -0.42418 -0.501 175 126 94
0.460443 -0.42418 -0.501 175 126 94
0.461397 -0.42418 -0.501 174 125 92
0.461429 -0.423333 -0.5 175 126 93
0.462381 -0.423333 -0.5 167 118 86
0.463333 -0.423333 -0.5 163 114 82
0.463357 -0.422487 -0.499 173 124 91
0.464308 -0.422487 -0.499 179 130 97
0.465258 -0.422487 -0.499 177 128 95
0.465274 -0.42164 -0.498 179 130 97
0.466223 -0.42164 -0.498 179 130 97
0.467171 -0.42164 -0.498 178 129 96
0.46812 -0.42164 -0.498 175 129 95
0.469069 -0.42164 -0.498 176 130 96
0.470017 -0.42164 -0.498 178 132 98
0.470966 -0.42164 -0.498 177 131 97
0.471914 -0.42164 -0.498 175 129 93
0.472863 -0.42164 -0.498 173 127 91
0.473811 -0.42164 -0.498 175 127 89
0.47476 -0.42164 -0.498 175 127 89
0.475709 -0.42164 -0.498 174 129 90
0.476657 -0.42164 -0.498 173 128 89
0.478565 -0.422487 -0.499 171 126 87
0.479515 -0.422487 -0.499 170 125 86
0.480466 -0.422487 -0.499 171 125 89
0.481416 -0.422487 -0.499 172 126 90
0.482367 -0.422487 -0.499 172 126 90
0.484286 -0.423333 -0.5 170 124 88
0.485238 -0.423333 -0.5 168 122 88
0.48619 -0.423333 -0.5 168 122 88
0.488117 -0.42418 -0.501 169 123 89
0.489071 -0.42418 -0.501 170 124 90
0.490026 -0.42418 -0.501 170 124 90
0.49098 -0.42418 -0.501 169 123 89
0.492916 -0.425027 -0.502 166 120 87
0.493872 -0.425027 -0.502 165 119 86
0.495814 -0.425873 -0.503 164 118 85
0.496772 -0.425873 -0.503 163 117 84
0.49872 -0.42672 -0.504 163 116 86
0.500671 -0.427567 -0.505 163 116 86
0.502627 -0.428413 -0.506 162 117 86
0.50359 -0.428413 -0.506 162 117 86
0.505551 -0.42926 -0.507 163 118 87
0.507516 -0.430107 -0.508 161 116 85
0.509485 -0.430953 -0.509 160 115 84
0.51246 -0.432647 -0.511 157 113 84
0.515443 -0.43434 -0.513 154 110 81
0.518433 -0.436033 -0.515 153 109 80
0.52244 -0.438573 -0.518 152 108 79
0.525448 -0.440267 -0.52 152 108 79
0.529475 -0.442807 -0.523 153 109 80
0.533514 -0.445347 -0.526 154 108 82
0.536549 -0.44704 -0.528 156 110 84
0.537554 -0.44704 -0.528 155 110 81
0.54162 -0.44958 -0.531 158 113 84
0.544675 -0.451273 -0.533 156 117 88
0.548762 -0.453813 -0.536 156 117 88
0.551834 -0.455507 -0.538 156 130 107
0.554914 -0.4572 -0.54 174 148 125
0.556972 -0.458047 -0.541 181 169 153
0.559034 -0.458893 -0.542 191 179 163
0.5611 -0.45974 -0.543 191 189 177
0.805876 -0.479213 -0.566 174 174 166
0.806954 -0.479213 -0.566 173 175 164
0.808032 -0.479213 -0.566 173 175 164
0.81054 -0.48006 -0.567 174 176 165
0.81162 -0.48006 -0.567 175 177 166
0.8127 -0.48006 -0.567 175 177 166
0.81378 -0.48006 -0.567 176 178 167
0.813423 -0.479213 -0.566 174 176 163
0.814501 -0.479213 -0.566 174 176 163
0.81702 -0.48006 -0.567 174 176 163
0.8181 -0.48006 -0.567 174 176 163
0.81918 -0.48006 -0.567 175 175 163
0.82026 -0.48006 -0.567 174 174 162
0.82134 -0.48006 -0.567 174 174 162
0.82242 -0.48006 -0.567 174 174 162
0.8289 -0.48006 -0.567 149 149 139
0.82998 -0.48006 -0.567 150 150 140
0.832526 -0.480907 -0.568 150 151 145
0.833608 -0.480907 -0.568 150 151 145
0.83469 -0.480907 -0.568 150 151 145
0.835771 -0.480907 -0.568 149 150 144
0.838327 -0.481753 -0.569 148 149 143
0.83941 -0.481753 -0.569 147 148 142
0.840494 -0.481753 -0.569 148 149 143
0.841578 -0.481753 -0.569 148 149 143
0.842662 -0.481753 -0.569 149 149 141
0.845229 -0.4826 -0.57 149 149 141
0.846314 -0.4826 -0.57 149 149 141
0.8474 -0.4826 -0.57 148 148 140
0.848486 -0.4826 -0.57 148 148 140
0.849571 -0.4826 -0.57 149 149 141
0.850657 -0.4826 -0.57 149 149 139
0.851743 -0.4826 -0.57 149 149 139
0.852829 -0.4826 -0.57 151 151 141
0.853914 -0.4826 -0.57 149 149 139
0.855 -0.4826 -0.57 147 147 137
0.856086 -0.4826 -0.57 146 146 136
0.857171 -0.4826 -0.57 145 145 135
0.856751 -0.481753 -0.569 146 146 136
0.857835 -0.481753 -0.569 146 146 136
0.858919 -0.481753 -0.569 146 146 136
0.860003 -0.481753 -0.569 147 147 135
0.861087 -0.481753 -0.569 147 147 135
0.86217 -0.481753 -0.569 145 145 133
0.863254 -0.481753 -0.569 145 145 133
0.865857 -0.4826 -0.57 145 145 133
0.868464 -0.483447 -0.571 144 144 132
0.868029 -0.4826 -0.57 143 143 131
0.869114 -0.4826 -0.57 140 140 130
0.873253 -0.484293 -0.572 140 140 130
0.878929 -0.486833 -0.575 140 140 130
0.883085 -0.488527 -0.577 139 139 129
-0.315849 -0.440409 -0.519 224 225 217
-0.31486 -0.440409 -0.519 224 225 217
-0.313871 -0.440409 -0.519 223 224 216
-0.312883 -0.440409 -0.519 221 222 214
-0.311894 -0.440409 -0.519 221 222 214
-0.310906 -0.440409 -0.519 221 222 214
-0.309917 -0.440409 -0.519 223 224 216
-0.308929 -0.440409 -0.519 224 225 217
-0.30794 -0.440409 -0.519 224 225 217
-0.306951 -0.440409 -0.519 224 225 217
-0.305963 -0.440409 -0.519 224 225 217
-0.304974 -0.440409 -0.519 224 225 217
-0.303986 -0.440409 -0.519 224 225 217
-0.302997 -0.440409 -0.519 225 226 218
-0.30259 -0.441257 -0.52 225 226 218
-0.3016 -0.441257 -0.52 225 226 218
-0.30061 -0.441257 -0.52 225 226 218
-0.299619 -0.441257 -0.52 225 226 218
-0.298629 -0.441257 -0.52 225 226 218
-0.297638 -0.441257 -0.52 224 225 217
-0.296648 -0.441257 -0.52 224 225 217
-0.295657 -0.441257 -0.52 226 227 219
-0.294667 -0.441257 -0.52 225 226 218
-0.293676 -0.441257 -0.52 225 226 218
-0.292686 -0.441257 -0.52 225 226 218
-0.291695 -0.441257 -0.52 225 226 218
-0.290705 -0.441257 -0.52 226 227 219
-0.2808 -0.441257 -0.52 226 228 217
-0.27981 -0.441257 -0.52 226 228 217
-0.26447 -0.442106 -0.521 227 228 220
-0.263477 -0.442106 -0.521 226 227 219
-0.262485 -0.442106 -0.521 226 227 219
-0.261492 -0.442106 -0.521 226 227 219
-0.2605 -0.442106 -0.521 226 227 219
-0.0135514 -0.447197 -0.527 178 150 126
-0.0125238 -0.446349 -0.526 188 151 122
-0.0115 -0.4455 -0.525 189 152 123
-0.01044 -0.442954 -0.522 191 151 125
-0.00940952 -0.441257 -0.52 190 150 124
-0.00837048 -0.438711 -0.517 188 148 122
-0.00732857 -0.435317 -0.513 189 149 123
-0.0063019 -0.431923 -0.509 191 152 123
-0.00531143 -0.430226 -0.507 193 154 125
-0.00432 -0.42768 -0.504 193 152 122
-0.00334667 -0.425983 -0.502 191 150 120
-0.00238095 -0.424286 -0.5 189 148 120
-0.00142571 -0.423437 -0.499 191 150 122
-0.000474286 -0.422589 -0.498 195 154 126
0.000473333 -0.42174 -0.497 197 156 128
0.00141714 -0.420891 -0.496 196 155 123
0.00236667 -0.42174 -0.497 196 152 123
0.00330667 -0.420891 -0.496 198 155 123
0.00424286 -0.420043 -0.495 197 154 122
0.00518571 -0.420043 -0.495 198 153 122
0.00612857 -0.420043 -0.495 198 153 122
0.00707143 -0.420043 -0.495 198 153 122
0.00801429 -0.420043 -0.495 199 154 123
0.00893905 -0.419194 -0.494 201 156 123
0.00988 -0.419194 -0.494 201 156 123
0.010821 -0.419194 -0.494 197 152 121
0.0117619 -0.419194 -0.494 198 153 122
0.0127286 -0.420043 -0.495 196 151 122
0.0136714 -0.420043 -0.495 196 151 122
0.0146143 -0.420043 -0.495 199 154 125
0.0155571 -0.420043 -0.495 198 153 124
0.0165 -0.420043 -0.495 196 149 121
0.0174429 -0.420043 -0.495 194 147 119
0.0183857 -0.420043 -0.495 194 147 119
0.0193286 -0.420043 -0.495 198 151 123
0.0202714 -0.420043 -0.495 202 155 127
0.0212143 -0.420043 -0.495 203 156 128
0.0221571 -0.420043 -0.495 201 154 126
0.0231 -0.420043 -0.495 199 152 124
0.0240429 -0.420043 -0.495 199 152 124
0.0249857 -0.420043 -0.495 199 152 124
0.0259286 -0.420043 -0.495 195 148 118
0.0268714 -0.420043 -0.495 195 148 118
0.0278143 -0.420043 -0.495 193 146 116
0.0287571 -0.420043 -0.495 194 147 117
0.0297 -0.420043 -0.495 197 150 120
0.0306429 -0.420043 -0.495 199 152 122
0.0315857 -0.420043 -0.495 198 151 121
0.0325286 -0.420043 -0.495 196 149 119
0.033539 -0.420891 -0.496 200 153 125
0.0344838 -0.420891 -0.496 198 151 123
0.0354286 -0.420891 -0.496 199 152 124
0.0363733 -0.420891 -0.496 200 153 125
0.0373181 -0.420891 -0.496 198 151 123
0.0382629 -0.420891 -0.496 198 151 123
0.0392076 -0.420891 -0.496 199 152 124
0.0401524 -0.420891 -0.496 198 151 123
0.0410971 -0.420891 -0.496 199 152 122
0.0420419 -0.420891 -0.496 196 149 119
0.0429867 -0.420891 -0.496 195 150 119
0.04402 -0.42174 -0.497 196 151 120
0.0449667 -0.42174 -0.497 195 150 121
0.0459133 -0.42174 -0.497 194 149 120
0.0469543 -0.422589 -0.498 194 149 120
0.0479029 -0.422589 -0.498 191 146 117
0.0489495 -0.423437 -0.499 192 149 117
0.05 -0.424286 -0.5 190 147 115
0.0509524 -0.424286 -0.5 188 145 113
0.0520086 -0.425134 -0.501 186 143 111
0.0529629 -0.425134 -0.501 185 141 112
0.0540248 -0.425983 -0.502 185 141 112
0.0550905 -0.426831 -0.503 181 140 110
0.0560486 -0.426831 -0.503 178 137 107
0.05712 -0.42768 -0.504 177 133 106
0.0581952 -0.428529 -0.505 176 132 105
0.0592743 -0.429377 -0.506 175 131 104
0.0602381 -0.429377 -0.506 173 129 102
0.0613229 -0.430226 -0.507 167 125 101
0.0624114 -0.431074 -0.508 165 123 99
0.0635038 -0.431923 -0.509 161 120 100
0.0646 -0.432771 -0.51 158 117 97
0.0657 -0.43362 -0.511 153 114 97
0.0669343 -0.435317 -0.513 146 107 90
0.0680438 -0.436166 -0.514 142 105 87
0.0691571 -0.437014 -0.515 142 105 87
0.0702743 -0.437863 -0.516 140 102 89
0.0715333 -0.43956 -0.518 137 99 86
0.07266 -0.440409 -0.519 131 95 83
0.0739324 -0.442106 -0.521 126 90 78
0.0750686 -0.442954 -0.522 116 94 83
0.0763543 -0.444651 -0.524 114 92 81
0.0776476 -0.446349 -0.526 109 88 83
0.0789486 -0.448046 -0.528 107 86 81
0.0802571 -0.449743 -0.53 104 85 87
0.457556 -0.456531 -0.538 96 77 70
0.456024 -0.453986 -0.535 100 81 74
0.455334 -0.452289 -0.533 111 83 71
0.453781 -0.449743 -0.53 114 86 74
0.453074 -0.448046 -0.528 123 91 70
0.45236 -0.446349 -0.526 126 94 73
0.451638 -0.444651 -0.524 130 95 75
0.451772 -0.443803 -0.523 132 97 77
0.452769 -0.443803 -0.523 132 97 77
0.45203 -0.442106 -0.521 139 98 78
0.452152 -0.441257 -0.52 143 102 82
0.452271 -0.440409 -0.519 149 103 80
0.452387 -0.43956 -0.518 149 103 80
0.452498 -0.438711 -0.517 150 102 79
0.452606 -0.437863 -0.516 152 104 81
0.45271 -0.437014 -0.515 154 107 81
0.45281 -0.436166 -0.514 156 109 83
0.452906 -0.435317 -0.513 157 109 86
0.452998 -0.434469 -0.512 158 110 87
0.453087 -0.43362 -0.511 159 112 86
0.453171 -0.432771 -0.51 159 112 86
0.454143 -0.432771 -0.51 163 113 86
0.454222 -0.431923 -0.509 164 114 87
0.454297 -0.431074 -0.508 165 115 88
0.455265 -0.431074 -0.508 167 117 90
0.455334 -0.430226 -0.507 169 119 92
0.4554 -0.429377 -0.506 171 121 94
0.455462 -0.428529 -0.505 172 123 93
0.456424 -0.428529 -0.505 171 122 92
0.45648 -0.42768 -0.504 170 121 91
0.456532 -0.426831 -0.503 170 121 91
0.45749 -0.426831 -0.503 170 121 91
0.457537 -0.425983 -0.502 171 122 92
0.458493 -0.425983 -0.502 173 124 94
0.45945 -0.425983 -0.502 175 126 96
0.459489 -0.425134 -0.501 175 126 96
0.460443 -0.425134 -0.501 174 125 95
0.461397 -0.425134 -0.501 172 123 91
0.461429 -0.424286 -0.5 172 123 91
0.462381 -0.424286 -0.5 165 116 86
0.463333 -0.424286 -0.5 163 114 84
0.463357 -0.423437 -0.499 172 123 93
0.464308 -0.423437 -0.499 176 127 97
0.465258 -0.423437 -0.499 174 125 93
0.465274 -0.422589 -0.498 176 127 95
0.466223 -0.422589 -0.498 178 129 96
0.467171 -0.422589 -0.498 178 129 96
0.46718 -0.42174 -0.497 177 128 96
0.468127 -0.42174 -0.497 177 128 96
0.469073 -0.42174 -0.497 179 130 97
0.47002 -0.42174 -0.497 179 130 97
0.470967 -0.42174 -0.497 177 128 95
0.471913 -0.42174 -0.497 175 126 93
0.47286 -0.42174 -0.497 174 126 90
0.473807 -0.42174 -0.497 175 127 91
0.474753 -0.42174 -0.497 174 128 92
0.476657 -0.422589 -0.498 173 127 91
0.477606 -0.422589 -0.498 171 125 89
0.478554 -0.422589 -0.498 171 125 89
0.479503 -0.422589 -0.498 174 125 92
0.481416 -0.423437 -0.499 176 127 94
0.482367 -0.423437 -0.499 173 127 93
0.483317 -0.423437 -0.499 170 124 90
0.484268 -0.423437 -0.499 168 122 88
0.48619 -0.424286 -0.5 168 122 88
0.487143 -0.424286 -0.5 168 123 90
0.488095 -0.424286 -0.5 169 124 91
0.489048 -0.424286 -0.5 170 124 91
0.49 -0.424286 -0.5 169 123 90
0.491934 -0.425134 -0.501 166 120 87
0.492889 -0.425134 -0.501 164 118 85
0.494829 -0.425983 -0.502 164 117 87
0.495785 -0.425983 -0.502 163 116 86
0.49773 -0.426831 -0.503 163 116 86
0.498689 -0.426831 -0.503 163 116 86
0.50064 -0.42768 -0.504 163 118 87
0.502595 -0.428529 -0.505 164 119 88
0.503557 -0.428529 -0.505 164 119 88
0.505518 -0.429377 -0.506 161 116 85
0.507483 -0.430226 -0.507 159 114 83
0.510454 -0.431923 -0.509 157 112 81
0.512429 -0.432771 -0.51 155 110 79
0.515413 -0.434469 -0.512 152 109 77
0.518406 -0.436166 -0.514 150 107 75
0.522416 -0.438711 -0.517 150 106 77
0.526438 -0.441257 -0.52 150 106 77
0.529457 -0.442954 -0.522 151 107 80
0.5335 -0.4455 -0.525 151 107 80
0.5345 -0.4455 -0.525 153 108 77
0.53856 -0.448046 -0.528 154 109 78
0.542631 -0.450591 -0.531 157 114 82
0.54569 -0.452289 -0.533 160 117 85
0.549783 -0.454834 -0.536 153 121 96
0.552859 -0.456531 -0.538 161 129 104
0.555943 -0.458229 -0.54 167 150 134
0.558003 -0.459077 -0.541 183 166 150
0.560067 -0.459926 -0.542 188 182 170
0.562134 -0.460774 -0.543 193 187 175
0.799071 -0.479443 -0.565 149 148 144
0.804798 -0.480291 -0.566 146 147 141
0.8073 -0.48114 -0.567 147 148 142
0.80838 -0.48114 -0.567 147 148 142
0.810888 -0.481989 -0.568 148 149 143
0.81197 -0.481989 -0.568 150 151 143
0.813051 -0.481989 -0.568 153 154 146
0.815567 -0.482837 -0.569 153 154 146
0.81665 -0.482837 -0.569 154 155 147
0.816297 -0.481989 -0.568 151 153 142
0.817379 -0.481989 -0.568 151 153 142
0.818461 -0.481989 -0.568 151 153 142
0.819543 -0.481989 -0.568 152 154 143
0.82207 -0.482837 -0.569 151 153 142
0.821707 -0.481989 -0.568 151 153 142
0.822789 -0.481989 -0.568 150 152 141
0.823871 -0.481989 -0.568 151 153 142
0.824952 -0.481989 -0.568 150 152 141
0.826034 -0.481989 -0.568 151 151 141
0.827116 -0.481989 -0.568 150 150 140
0.82674 -0.48114 -0.567 149 149 139
0.83074 -0.482837 -0.569 128 129 121
0.831824 -0.482837 -0.569 129 130 122
0.832908 -0.482837 -0.569 129 130 122
0.833991 -0.482837 -0.569 131 132 127
0.835075 -0.482837 -0.569 131 132 127
0.837629 -0.483686 -0.57 131 132 127
0.838714 -0.483686 -0.57 129 130 125
0.8398 -0.483686 -0.57 128 129 123
0.842361 -0.484534 -0.571 128 129 123
0.843449 -0.484534 -0.571 128 129 123
0.844536 -0.484534 -0.571 129 130 124
0.845624 -0.484534 -0.571 131 132 126
0.846711 -0.484534 -0.571 133 134 128
0.849284 -0.485383 -0.572 133 134 126
0.850373 -0.485383 -0.572 133 134 126
0.851463 -0.485383 -0.572 132 133 125
0.852552 -0.485383 -0.572 133 134 126
0.853642 -0.485383 -0.572 133 134 126
0.854731 -0.485383 -0.572 133 134 126
0.855821 -0.485383 -0.572 131 132 124
0.856911 -0.485383 -0.572 129 130 122
0.858 -0.485383 -0.572 126 127 119
0.85909 -0.485383 -0.572 124 125 117
0.860179 -0.485383 -0.572 123 125 114
0.861269 -0.485383 -0.572 124 126 115
0.86085 -0.484534 -0.571 125 127 116
0.861938 -0.484534 -0.571 126 128 117
0.863026 -0.484534 -0.571 129 131 120
0.864113 -0.484534 -0.571 128 130 119
0.865201 -0.484534 -0.571 127 129 118
0.866289 -0.484534 -0.571 126 128 115
0.868895 -0.485383 -0.572 126 128 115
0.871506 -0.486231 -0.573 125 127 114
0.872597 -0.486231 -0.573 123 125 112
0.873689 -0.486231 -0.573 125 125 117
0.877833 -0.487929 -0.575 124 124 116
0.881986 -0.489626 -0.577 122 122 114
-0.315849 -0.441397 -0.519 224 225 217
-0.31486 -0.441397 -0.519 224 225 217
-0.313871 -0.441397 -0.519 224 225 217
-0.312883 -0.441397 -0.519 223 224 216
-0.311894 -0.441397 -0.519 222 223 215
-0.310906 -0.441397 -0.519 222 223 215
-0.309917 -0.441397 -0.519 223 224 216
-0.308929 -0.441397 -0.519 223 224 216
-0.30794 -0.441397 -0.519 224 225 217
-0.306951 -0.441397 -0.519 224 225 217
-0.305963 -0.441397 -0.519 224 225 217
-0.304974 -0.441397 -0.519 224 225 217
-0.303986 -0.441397 -0.519 224 225 217
-0.302997 -0.441397 -0.519 225 226 218
-0.302009 -0.441397 -0.519 225 226 218
-0.30102 -0.441397 -0.519 225 226 218
-0.300031 -0.441397 -0.519 224 225 217
-0.299043 -0.441397 -0.519 224 225 217
-0.298054 -0.441397 -0.519 224 225 217
-0.297066 -0.441397 -0.519 224 225 217
-0.296077 -0.441397 -0.519 224 225 217
-0.295089 -0.441397 -0.519 226 227 219
-0.2941 -0.441397 -0.519 226 227 219
-0.293111 -0.441397 -0.519 226 227 219
-0.292123 -0.441397 -0.519 226 227 219
-0.286743 -0.442248 -0.52 226 228 217
-0.282781 -0.442248 -0.52 225 227 216
-0.28179 -0.442248 -0.52 225 227 216
-0.2808 -0.442248 -0.52 226 228 217
-0.27981 -0.442248 -0.52 226 227 219
-0.278819 -0.442248 -0.52 226 227 219
-0.277829 -0.442248 -0.52 226 227 219
-0.276838 -0.442248 -0.52 226 227 219
-0.275848 -0.442248 -0.52 226 227 219
-0.274857 -0.442248 -0.52 226 227 219
-0.273867 -0.442248 -0.52 226 227 219
-0.272876 -0.442248 -0.52 226 227 219
-0.271886 -0.442248 -0.52 225 226 218
-0.270895 -0.442248 -0.52 225 226 218
-0.269905 -0.442248 -0.52 226 227 219
-0.0145552 -0.448201 -0.527 182 151 123
-0.0135257 -0.44735 -0.526 183 152 124
-0.0125 -0.4465 -0.525 189 152 123
-0.0114562 -0.444799 -0.523 188 151 122
-0.0104 -0.442248 -0.52 190 150 124
-0.00935524 -0.439696 -0.517 189 149 123
-0.0083219 -0.437145 -0.514 188 147 119
-0.00728571 -0.433743 -0.51 190 149 121
-0.00627714 -0.431191 -0.507 196 152 123
-0.00529048 -0.42949 -0.505 198 154 125
-0.00430286 -0.426939 -0.502 195 154 124
-0.00333333 -0.425238 -0.5 193 152 122
-0.00237619 -0.424388 -0.499 191 150 120
-0.00142286 -0.423537 -0.498 191 150 120
-0.000473333 -0.422687 -0.497 195 154 124
0.000472381 -0.421836 -0.496 196 155 125
0.00141429 -0.420986 -0.495 196 155 123
0.0023619 -0.421836 -0.496 195 154 122
0.0033 -0.420986 -0.495 198 155 123
0.00424286 -0.420986 -0.495 197 154 122
0.00517524 -0.420135 -0.494 197 154 122
0.00611619 -0.420135 -0.494 198 155 123
0.00705714 -0.420135 -0.494 198 155 123
0.0079981 -0.420135 -0.494 200 157 125
0.00893905 -0.420135 -0.494 201 156 123
0.00988 -0.420135 -0.494 200 155 122
0.010821 -0.420135 -0.494 196 151 120
0.0117619 -0.420135 -0.494 196 151 120
0.0127029 -0.420135 -0.494 195 150 119
0.0136438 -0.420135 -0.494 195 150 119
0.0145848 -0.420135 -0.494 198 153 122
0.0155257 -0.420135 -0.494 198 153 122
0.0164667 -0.420135 -0.494 195 150 119
0.0174076 -0.420135 -0.494 193 148 117
0.0183857 -0.420986 -0.495 192 147 118
0.0193286 -0.420986 -0.495 197 152 123
0.0202714 -0.420986 -0.495 202 155 127
0.0212143 -0.420986 -0.495 203 156 128
0.0221571 -0.420986 -0.495 200 153 125
0.0231 -0.420986 -0.495 198 151 123
0.0240429 -0.420986 -0.495 197 150 122
0.0249857 -0.420986 -0.495 197 150 122
0.0259286 -0.420986 -0.495 193 146 116
0.0268714 -0.420986 -0.495 195 148 118
0.0278143 -0.420986 -0.495 196 149 119
0.0287571 -0.420986 -0.495 197 150 120
0.0297 -0.420986 -0.495 199 152 122
0.0306429 -0.420986 -0.495 198 151 121
0.0315857 -0.420986 -0.495 197 150 120
0.0325286 -0.420986 -0.495 197 150 120
0.0334714 -0.420986 -0.495 198 151 123
0.0344838 -0.421836 -0.496 198 151 123
0.0354286 -0.421836 -0.496 200 153 125
0.0363733 -0.421836 -0.496 200 153 125
0.0372429 -0.420986 -0.495 199 152 124
0.0381857 -0.420986 -0.495 198 151 123
0.0391286 -0.420986 -0.495 197 150 122
0.0400714 -0.420986 -0.495 197 150 122
0.0410971 -0.421836 -0.496 196 151 120
0.0420419 -0.421836 -0.496 195 150 119
0.0429867 -0.421836 -0.496 195 150 119
0.0439314 -0.421836 -0.496 195 150 119
0.0449667 -0.422687 -0.497 194 149 118
0.0459133 -0.422687 -0.497 194 149 118
0.0469543 -0.423537 -0.498 193 148 119
0.0479029 -0.423537 -0.498 191 146 117
0.0489495 -0.424388 -0.499 192 147 118
0.0499 -0.424388 -0.499 190 145 116
0.0509524 -0.425238 -0.5 188 143 114
0.0520086 -0.426089 -0.501 187 142 113
0.0529629 -0.426089 -0.501 184 140 111
0.0540248 -0.426939 -0.502 184 140 111
0.0549809 -0.426939 -0.502 182 138 109
0.0560486 -0.42779 -0.503 178 134 105
0.05712 -0.42864 -0.504 174 133 105
0.0581952 -0.42949 -0.505 172 131 103
0.0592743 -0.430341 -0.506 171 131 105
0.0602381 -0.430341 -0.506 171 131 105
0.0613229 -0.431191 -0.507 169 127 102
0.0624114 -0.432042 -0.508 165 123 98
0.0635038 -0.432892 -0.509 164 120 95
0.0646 -0.433743 -0.51 159 115 90
0.0658286 -0.435444 -0.512 154 112 90
0.0669343 -0.436294 -0.513 151 109 87
0.0680438 -0.437145 -0.514 143 106 90
0.0691571 -0.437995 -0.515 138 101 85
0.0702743 -0.438846 -0.516 131 97 87
0.0715333 -0.440547 -0.518 130 96 86
0.07266 -0.441397 -0.519 129 96 87
0.0739324 -0.443098 -0.521 125 92 83
0.0752124 -0.444799 -0.523 111 91 90
0.0765 -0.4465 -0.525 110 90 89
0.0777952 -0.448201 -0.527 107 89 89
0.0790981 -0.449902 -0.529 105 87 87
0.459257 -0.459257 -0.54 88 74 73
0.457729 -0.456706 -0.537 92 78 77
0.456189 -0.454154 -0.534 105 81 71
0.455493 -0.452453 -0.532 107 83 73
0.453932 -0.449902 -0.529 114 86 65
0.45322 -0.448201 -0.527 119 91 70
0.453362 -0.44735 -0.526 125 94 74
0.452636 -0.44565 -0.524 127 96 76
0.451903 -0.443949 -0.522 133 96 77
0.452897 -0.443949 -0.522 133 96 77
0.453022 -0.443098 -0.521 137 100 81
0.453143 -0.442248 -0.52 144 101 82
0.45326 -0.441397 -0.519 144 101 82
0.452498 -0.439696 -0.517 148 100 78
0.452606 -0.438846 -0.516 150 102 80
0.45271 -0.437995 -0.515 152 104 82
0.45281 -0.437145 -0.514 154 106 84
0.452906 -0.436294 -0.513 157 109 87
0.452998 -0.435444 -0.512 159 111 89
0.453973 -0.435444 -0.512 158 110 87
0.45406 -0.434593 -0.511 157 109 86
0.454143 -0.433743 -0.51 162 112 87
0.454222 -0.432892 -0.509 163 113 88
0.454297 -0.432042 -0.508 165 115 90
0.455265 -0.432042 -0.508 167 117 92
0.455334 -0.431191 -0.507 168 118 91
0.4554 -0.430341 -0.506 170 120 93
0.455462 -0.42949 -0.505 170 120 93
0.456424 -0.42949 -0.505 170 120 93
0.45648 -0.42864 -0.504 170 120 93
0.45744 -0.42864 -0.504 169 119 92
0.45749 -0.42779 -0.503 168 119 89
0.457537 -0.426939 -0.502 170 121 91
0.458493 -0.426939 -0.502 174 125 95
0.45945 -0.426939 -0.502 176 127 97
0.459489 -0.426089 -0.501 175 126 96
0.460443 -0.426089 -0.501 173 124 94
0.461397 -0.426089 -0.501 173 122 93
0.461429 -0.425238 -0.5 174 123 94
0.462381 -0.425238 -0.5 171 120 93
0.463333 -0.425238 -0.5 170 119 92
0.463357 -0.424388 -0.499 176 125 96
0.464308 -0.424388 -0.499 177 126 97
0.465258 -0.424388 -0.499 174 125 93
0.465274 -0.423537 -0.498 176 127 95
0.466223 -0.423537 -0.498 176 127 95
0.467171 -0.423537 -0.498 178 129 97
0.46718 -0.422687 -0.497 179 130 98
0.468127 -0.422687 -0.497 178 129 97
0.469073 -0.422687 -0.497 179 130 98
0.47002 -0.422687 -0.497 179 130 98
0.470967 -0.422687 -0.497 176 127 94
0.471913 -0.422687 -0.497 174 125 92
0.47286 -0.422687 -0.497 174 125 92
0.473807 -0.422687 -0.497 175 126 93
0.474753 -0.422687 -0.497 174 128 94
0.4757 -0.422687 -0.497 172 126 92
0.476647 -0.422687 -0.497 171 125 91
0.478554 -0.423537 -0.498 172 126 92
0.479503 -0.423537 -0.498 174 128 95
0.480451 -0.423537 -0.498 175 129 96
0.4814 -0.423537 -0.498 172 126 93
0.482349 -0.423537 -0.498 171 125 92
0.484268 -0.424388 -0.499 168 123 90
0.485218 -0.424388 -0.499 167 122 89
0.486169 -0.424388 -0.499 168 123 92
0.487119 -0.424388 -0.499 168 123 92
0.48807 -0.424388 -0.499 167 122 91
0.49 -0.425238 -0.5 168 123 92
0.490952 -0.425238 -0.5 167 120 90
0.491905 -0.425238 -0.5 165 118 88
0.493843 -0.426089 -0.501 166 119 89
0.494797 -0.426089 -0.501 167 120 90
0.495751 -0.426089 -0.501 165 118 88
0.497697 -0.426939 -0.502 165 118 88
0.499647 -0.42779 -0.503 165 120 89
0.5016 -0.42864 -0.504 165 120 89
0.50256 -0.42864 -0.504 161 116 85
0.504519 -0.42949 -0.505 159 114 83
0.505481 -0.42949 -0.505 159 114 83
0.508449 -0.431191 -0.507 156 111 80
0.510419 -0.432042 -0.508 154 109 78
0.5134 -0.433743 -0.51 152 107 76
0.516389 -0.435444 -0.512 150 105 74
0.519385 -0.437145 -0.514 150 105 74
0.523401 -0.439696 -0.517 150 105 74
0.526414 -0.441397 -0.519 151 107 80
0.527403 -0.441397 -0.519 151 115 83
0.530428 -0.443098 -0.521 153 114 81
0.53448 -0.44565 -0.524 152 113 80
0.538544 -0.448201 -0.527 154 114 79
0.542619 -0.450752 -0.53 156 116 81
0.546706 -0.453304 -0.533 156 117 84
0.549776 -0.455005 -0.535 155 116 83
0.552854 -0.456706 -0.537 154 126 102
0.55594 -0.458407 -0.539 177 149 125
0.558 -0.459257 -0.54 186 173 157
0.560064 -0.460108 -0.541 195 182 166
0.80406 -0.48222 -0.567 122 123 118
0.80656 -0.48307 -0.568 122 123 118
0.807642 -0.48307 -0.568 121 122 117
0.808724 -0.48307 -0.568 121 122 117
0.811231 -0.483921 -0.569 122 123 118
0.812315 -0.483921 -0.569 124 125 120
0.814829 -0.484771 -0.57 127 128 122
0.815914 -0.484771 -0.57 132 133 127
0.817 -0.484771 -0.57 134 137 130
0.818086 -0.484771 -0.57 133 136 129
0.819171 -0.484771 -0.57 132 135 126
0.820257 -0.484771 -0.57 133 136 127
0.821343 -0.484771 -0.57 133 136 127
0.822429 -0.484771 -0.57 134 137 128
0.823514 -0.484771 -0.57 133 136 127
0.8246 -0.484771 -0.57 133 136 127
0.825686 -0.484771 -0.57 132 133 125
0.826771 -0.484771 -0.57 129 130 122
0.827857 -0.484771 -0.57 129 130 122
0.828943 -0.484771 -0.57 128 129 121
0.830029 -0.484771 -0.57 127 128 120
0.834031 -0.486472 -0.572 115 116 110
0.83512 -0.486472 -0.572 117 118 112
0.834748 -0.485622 -0.571 118 119 113
0.835835 -0.485622 -0.571 119 120 114
0.836923 -0.485622 -0.571 119 121 116
0.83801 -0.485622 -0.571 119 121 116
0.839098 -0.485622 -0.571 118 121 114
0.841657 -0.486472 -0.572 117 120 113
0.842747 -0.486472 -0.572 118 119 113
0.843836 -0.486472 -0.572 118 119 113
0.846403 -0.487323 -0.573 118 119 113
0.847494 -0.487323 -0.573 118 119 113
0.848586 -0.487323 -0.573 117 118 112
0.849677 -0.487323 -0.573 118 119 113
0.850769 -0.487323 -0.573 120 121 113
0.85186 -0.487323 -0.573 120 121 113
0.852951 -0.487323 -0.573 120 121 113
0.855533 -0.488173 -0.574 121 122 114
0.856627 -0.488173 -0.574 121 122 114
0.85772 -0.488173 -0.574 121 122 114
0.858813 -0.488173 -0.574 122 123 115
0.859907 -0.488173 -0.574 121 122 114
0.861 -0.488173 -0.574 117 118 110
0.862093 -0.488173 -0.574 114 115 107
0.863187 -0.488173 -0.574 114 115 107
0.86428 -0.488173 -0.574 114 115 107
0.865373 -0.488173 -0.574 115 117 106
0.864957 -0.487323 -0.573 118 120 109
0.866049 -0.487323 -0.573 121 123 112
0.868653 -0.488173 -0.574 122 124 113
0.869747 -0.488173 -0.574 121 123 112
0.87084 -0.488173 -0.574 119 121 110
0.871933 -0.488173 -0.574 119 121 110
0.874548 -0.489024 -0.575 118 120 109
0.875643 -0.489024 -0.575 117 119 108
0.878263 -0.489874 -0.576 122 119 112
-0.31524 -0.441533 -0.518 224 225 217
-0.314253 -0.441533 -0.518 224 225 217
-0.313267 -0.441533 -0.518 224 225 217
-0.31228 -0.441533 -0.518 223 224 216
-0.30794 -0.442386 -0.519 224 225 217
-0.30636 -0.441533 -0.518 225 227 216
-0.305373 -0.441533 -0.518 225 227 216
-0.304387 -0.441533 -0.518 224 226 215
-0.3034 -0.441533 -0.518 224 226 215
-0.302413 -0.441533 -0.518 225 226 218
-0.301427 -0.441533 -0.518 225 226 218
-0.30102 -0.442386 -0.519 225 226 218
-0.300031 -0.442386 -0.519 224 225 217
-0.299043 -0.442386 -0.519 225 226 218
-0.298054 -0.442386 -0.519 224 225 217
-0.297066 -0.442386 -0.519 224 225 217
-0.296077 -0.442386 -0.519 224 225 217
-0.295089 -0.442386 -0.519 226 227 219
-0.2941 -0.442386 -0.519 226 227 219
-0.293111 -0.442386 -0.519 226 227 219
-0.292123 -0.442386 -0.519 226 227 219
-0.291134 -0.442386 -0.519 226 227 219
-0.290146 -0.442386 -0.519 226 227 219
-0.289157 -0.442386 -0.519 226 227 219
-0.279271 -0.442386 -0.519 225 226 218
-0.278283 -0.442386 -0.519 225 226 218
-0.270895 -0.443238 -0.52 226 227 219
-0.269905 -0.443238 -0.52 225 226 218
-0.268914 -0.443238 -0.52 226 227 219
-0.267924 -0.443238 -0.52 226 227 219
