ply
format ascii 1.0
comment Created by Open3D
element vertex 1286
property double x
property double y
property double z
property uchar red
property uchar green
property uchar blue
end_header
0.442981 -0.299758 -0.482 179 143 131
0.442057 -0.298514 -0.48 179 143 131
0.442971 -0.298514 -0.48 179 143 131
0.442036 -0.29727 -0.478 184 145 130
0.44202 -0.296649 -0.477 186 147 132
0.441071 -0.295405 -0.475 190 148 132
0.441046 -0.294783 -0.474 189 147 133
0.441016 -0.294161 -0.473 193 151 135
0.440983 -0.293539 -0.472 189 147 131
0.440946 -0.292917 -0.471 186 144 130
0.441843 -0.292917 -0.471 191 149 135
0.4418 -0.292295 -0.47 191 149 133
0.441753 -0.291673 -0.469 192 150 134
0.441703 -0.291051 -0.468 190 147 130
0.442594 -0.291051 -0.468 189 146 129
0.442538 -0.29043 -0.467 191 148 129
0.443428 -0.29043 -0.467 189 146 127
0.444317 -0.29043 -0.467 184 143 125
0.444253 -0.289808 -0.466 184 143 125
0.445141 -0.289808 -0.466 186 143 124
0.445071 -0.289186 -0.465 194 151 132
0.445957 -0.289186 -0.465 196 153 134
0.445882 -0.288564 -0.464 194 151 132
0.446766 -0.288564 -0.464 192 149 130
0.446685 -0.287942 -0.463 190 147 128
0.447567 -0.287942 -0.463 193 148 127
0.44748 -0.28732 -0.462 194 149 128
0.44739 -0.286698 -0.461 192 147 126
0.448268 -0.286698 -0.461 193 148 127
0.449146 -0.286698 -0.461 191 146 127
0.449048 -0.286076 -0.46 187 142 123
0.449924 -0.286076 -0.46 191 146 127
0.4508 -0.286076 -0.46 196 151 132
0.450694 -0.285454 -0.459 196 151 130
0.451569 -0.285454 -0.459 195 150 129
0.452443 -0.285454 -0.459 189 146 127
0.45233 -0.284832 -0.458 191 148 129
0.452212 -0.28421 -0.457 191 148 129
0.453083 -0.28421 -0.457 193 150 131
0.45296 -0.283589 -0.456 194 151 132
0.453829 -0.283589 -0.456 192 149 130
0.454697 -0.283589 -0.456 188 145 126
0.454567 -0.282967 -0.455 183 140 121
0.455433 -0.282967 -0.455 187 144 125
0.4563 -0.282967 -0.455 186 143 124
0.457167 -0.282967 -0.455 187 144 125
0.457027 -0.282345 -0.454 190 147 128
0.457891 -0.282345 -0.454 193 150 131
0.458756 -0.282345 -0.454 193 150 131
0.458609 -0.281723 -0.453 188 145 126
0.459471 -0.281723 -0.453 185 142 123
0.460334 -0.281723 -0.453 188 142 126
0.460179 -0.281101 -0.452 189 143 127
0.46104 -0.281101 -0.452 189 144 125
0.461901 -0.281101 -0.452 188 143 124
0.462762 -0.281101 -0.452 186 141 122
0.463623 -0.281101 -0.452 185 140 121
0.464484 -0.281101 -0.452 184 141 124
0.465345 -0.281101 -0.452 186 143 126
0.466206 -0.281101 -0.452 186 143 124
0.467067 -0.281101 -0.452 186 143 124
0.467928 -0.281101 -0.452 183 140 121
0.468789 -0.281101 -0.452 183 140 121
0.46861 -0.280479 -0.451 183 140 121
0.46947 -0.280479 -0.451 182 140 118
0.471371 -0.281101 -0.452 179 137 115
0.472232 -0.281101 -0.452 175 132 113
0.473093 -0.281101 -0.452 177 134 115
0.473954 -0.281101 -0.452 179 137 115
0.474815 -0.281101 -0.452 178 136 114
0.475676 -0.281101 -0.452 175 134 116
0.476537 -0.281101 -0.452 174 133 115
0.477398 -0.281101 -0.452 175 132 116
0.478259 -0.281101 -0.452 173 130 114
0.48018 -0.281723 -0.453 174 127 111
0.481043 -0.281723 -0.453 174 127 111
0.481906 -0.281723 -0.453 168 123 104
0.483834 -0.282345 -0.454 163 118 99
0.484699 -0.282345 -0.454 155 116 99
0.486633 -0.282967 -0.455 156 117 100
0.4875 -0.282967 -0.455 154 118 102
0.48944 -0.283589 -0.456 150 114 98
0.491384 -0.28421 -0.457 148 113 94
0.492254 -0.28421 -0.457 146 113 94
0.495283 -0.285454 -0.459 143 114 96
0.498319 -0.286698 -0.461 147 118 100
0.675793 -0.377496 -0.607 208 208 206
0.0858257 -0.367424 -0.589 198 162 148
0.0866524 -0.366176 -0.587 199 162 146
0.0871724 -0.363681 -0.583 198 161 145
0.0875257 -0.360562 -0.578 198 158 146
0.0880133 -0.358067 -0.574 197 157 145
0.0883305 -0.354948 -0.569 200 158 146
0.0887857 -0.352452 -0.565 200 158 146
0.0893848 -0.350581 -0.562 205 157 143
0.0899724 -0.34871 -0.559 205 157 143
0.0907114 -0.347462 -0.557 206 157 142
0.0916076 -0.346838 -0.556 205 156 141
0.0925 -0.346214 -0.555 205 156 141
0.0933886 -0.34559 -0.554 204 155 140
0.0944438 -0.34559 -0.554 203 156 140
0.0954991 -0.34559 -0.554 203 156 140
0.09638 -0.344967 -0.553 202 155 137
0.0974333 -0.344967 -0.553 201 154 136
0.0984867 -0.344967 -0.553 201 154 136
0.09954 -0.344967 -0.553 201 154 136
0.100593 -0.344967 -0.553 202 153 136
0.101647 -0.344967 -0.553 203 154 137
0.1027 -0.344967 -0.553 203 154 137
0.103753 -0.344967 -0.553 200 151 134
0.104807 -0.344967 -0.553 197 149 129
0.10586 -0.344967 -0.553 195 147 127
0.10672 -0.344343 -0.552 197 146 127
0.107771 -0.344343 -0.552 198 147 128
0.108823 -0.344343 -0.552 198 147 130
0.109675 -0.343719 -0.551 197 146 129
0.110725 -0.343719 -0.551 195 147 127
0.111774 -0.343719 -0.551 196 148 128
0.112824 -0.343719 -0.551 194 146 124
0.113873 -0.343719 -0.551 193 145 123
0.114923 -0.343719 -0.551 197 146 125
0.115972 -0.343719 -0.551 198 147 126
0.117022 -0.343719 -0.551 198 147 126
0.118071 -0.343719 -0.551 198 147 126
0.119121 -0.343719 -0.551 198 147 126
0.120389 -0.344343 -0.552 198 146 125
0.12144 -0.344343 -0.552 194 142 121
0.122713 -0.344967 -0.553 192 140 118
0.12399 -0.34559 -0.554 192 140 118
0.125046 -0.34559 -0.554 188 136 114
0.126329 -0.346214 -0.555 185 133 111
0.127615 -0.346838 -0.556 182 130 108
0.128674 -0.346838 -0.556 174 122 100
0.129967 -0.347462 -0.557 166 114 93
0.131263 -0.348086 -0.558 160 108 87
0.132563 -0.34871 -0.559 156 103 89
0.133867 -0.349333 -0.56 153 100 86
0.135174 -0.349957 -0.561 147 95 84
0.136486 -0.350581 -0.562 147 95 84
0.137801 -0.351205 -0.563 145 95 86
0.139367 -0.352452 -0.565 143 93 84
0.140691 -0.353076 -0.566 142 94 84
0.14202 -0.3537 -0.567 138 90 80
0.143352 -0.354324 -0.568 136 87 80
0.144689 -0.354948 -0.569 136 87 80
0.146029 -0.355571 -0.57 132 84 82
0.147372 -0.356195 -0.571 129 81 79
0.14872 -0.356819 -0.572 127 81 83
0.150071 -0.357443 -0.573 128 82 84
0.151427 -0.358067 -0.574 123 85 82
0.152786 -0.35869 -0.575 123 85 82
0.154416 -0.359938 -0.577 124 86 85
0.155785 -0.360562 -0.578 125 87 86
0.157157 -0.361186 -0.579 125 85 85
0.158533 -0.36181 -0.58 124 84 84
0.159913 -0.362433 -0.581 124 82 83
0.161574 -0.363681 -0.583 122 80 81
0.162964 -0.364305 -0.584 123 81 82
0.164638 -0.365552 -0.586 122 80 81
0.165754 -0.365552 -0.586 124 85 86
0.167155 -0.366176 -0.587 123 84 85
0.168847 -0.367424 -0.589 120 84 84
0.170257 -0.368048 -0.59 119 83 83
0.196943 -0.380524 -0.61 65 68 101
0.198105 -0.380524 -0.61 69 72 105
0.199267 -0.380524 -0.61 71 72 100
0.200757 -0.381148 -0.611 99 100 128
0.201921 -0.381148 -0.611 119 122 153
0.203085 -0.381148 -0.611 117 120 151
0.204583 -0.381771 -0.612 132 137 169
0.205749 -0.381771 -0.612 151 156 188
0.206914 -0.381771 -0.612 148 154 186
0.20808 -0.381771 -0.612 141 147 179
0.209246 -0.381771 -0.612 113 121 157
0.210411 -0.381771 -0.612 92 100 136
0.211577 -0.381771 -0.612 74 82 119
0.212743 -0.381771 -0.612 56 64 101
0.213909 -0.381771 -0.612 89 93 128
0.215426 -0.382395 -0.613 131 135 170
0.21624 -0.381771 -0.612 159 160 190
0.217406 -0.381771 -0.612 164 165 195
0.218571 -0.381771 -0.612 171 163 178
0.219737 -0.381771 -0.612 161 153 168
0.220903 -0.381771 -0.612 103 93 104
0.222069 -0.381771 -0.612 130 120 131
0.223234 -0.381771 -0.612 166 159 167
0.2244 -0.381771 -0.612 178 171 179
0.225566 -0.381771 -0.612 173 171 185
0.226731 -0.381771 -0.612 179 177 191
0.227897 -0.381771 -0.612 162 163 183
0.229063 -0.381771 -0.612 157 158 178
0.230229 -0.381771 -0.612 175 176 197
0.231394 -0.381771 -0.612 183 184 205
0.23256 -0.381771 -0.612 183 188 208
0.233726 -0.381771 -0.612 184 189 209
0.234891 -0.381771 -0.612 185 193 212
0.236057 -0.381771 -0.612 185 193 212
0.237223 -0.381771 -0.612 187 195 214
0.238389 -0.381771 -0.612 188 191 206
0.239554 -0.381771 -0.612 190 193 208
0.24072 -0.381771 -0.612 192 193 213
0.241886 -0.381771 -0.612 195 196 216
0.247714 -0.381771 -0.612 133 145 185
0.499327 -0.386138 -0.619 208 211 230
0.500506 -0.386138 -0.619 197 200 219
0.501685 -0.386138 -0.619 135 141 167
0.502864 -0.386138 -0.619 86 92 118
0.504043 -0.386138 -0.619 132 136 161
0.505222 -0.386138 -0.619 189 193 218
0.507219 -0.386762 -0.62 196 198 213
0.5084 -0.386762 -0.62 185 187 202
0.508759 -0.386138 -0.619 176 180 192
0.509938 -0.386138 -0.619 194 198 210
0.52681 -0.373038 -0.598 166 137 139
0.518237 -0.366176 -0.587 166 137 139
0.506084 -0.356819 -0.572 166 137 133
0.492987 -0.346838 -0.556 167 138 134
0.484271 -0.339976 -0.545 168 139 125
0.478186 -0.334986 -0.537 165 136 122
0.473854 -0.331243 -0.531 166 137 131
0.4695 -0.3275 -0.525 165 136 130
0.466019 -0.324381 -0.52 165 135 127
0.462519 -0.321262 -0.515 167 137 129
0.459 -0.318143 -0.51 174 141 132
0.456364 -0.315648 -0.506 175 142 133
0.454616 -0.313776 -0.503 175 142 133
0.451951 -0.311281 -0.499 176 143 134
0.450179 -0.30941 -0.496 175 141 132
0.448395 -0.307538 -0.493 177 143 134
0.447511 -0.30629 -0.491 178 141 132
0.445707 -0.304419 -0.488 177 140 131
0.444806 -0.303171 -0.486 178 140 129
0.443897 -0.301924 -0.484 179 141 130
0.442981 -0.300676 -0.482 180 142 131
0.442057 -0.299429 -0.48 181 143 132
0.441126 -0.298181 -0.478 181 141 129
0.442036 -0.298181 -0.478 181 141 129
0.44202 -0.297557 -0.477 186 146 134
0.442 -0.296933 -0.476 188 146 132
0.441046 -0.295686 -0.474 189 147 133
0.441016 -0.295062 -0.473 193 151 135
0.440983 -0.294438 -0.472 188 146 132
0.440946 -0.293814 -0.471 184 145 130
0.441843 -0.293814 -0.471 189 150 135
0.4418 -0.29319 -0.47 188 146 130
0.441753 -0.292567 -0.469 190 148 132
0.441703 -0.291943 -0.468 190 147 130
0.442594 -0.291943 -0.468 189 146 129
0.442538 -0.291319 -0.467 191 148 131
0.442478 -0.290695 -0.466 188 145 128
0.443366 -0.290695 -0.466 185 144 126
0.444253 -0.290695 -0.466 188 147 129
0.444186 -0.290071 -0.465 186 143 124
0.445071 -0.290071 -0.465 194 151 132
0.444998 -0.289448 -0.464 196 153 136
0.444921 -0.288824 -0.463 195 152 135
0.445803 -0.288824 -0.463 192 149 132
0.446685 -0.288824 -0.463 190 147 130
0.447567 -0.288824 -0.463 191 148 129
0.44748 -0.2882 -0.462 191 148 129
0.44739 -0.287576 -0.461 192 147 128
0.448268 -0.287576 -0.461 193 148 129
0.448171 -0.286952 -0.46 191 146 127
0.449048 -0.286952 -0.46 187 142 123
0.449924 -0.286952 -0.46 190 145 126
0.44982 -0.286329 -0.459 195 150 131
0.450694 -0.286329 -0.459 194 149 128
0.451569 -0.286329 -0.459 193 148 127
0.451457 -0.285705 -0.458 192 147 128
0.45233 -0.285705 -0.458 194 149 130
0.452212 -0.285081 -0.457 195 150 131
0.453083 -0.285081 -0.457 195 150 131
0.45296 -0.284457 -0.456 195 150 131
0.453829 -0.284457 -0.456 194 149 130
0.4537 -0.283833 -0.455 190 145 126
0.454567 -0.283833 -0.455 186 141 122
0.455433 -0.283833 -0.455 191 146 127
0.455297 -0.28321 -0.454 190 145 126
0.456162 -0.28321 -0.454 191 146 127
0.457027 -0.28321 -0.454 193 148 129
0.456883 -0.282586 -0.453 195 150 131
0.457746 -0.282586 -0.453 196 151 132
0.458609 -0.282586 -0.453 191 146 127
0.459471 -0.282586 -0.453 188 143 124
0.459318 -0.281962 -0.452 188 143 124
0.460179 -0.281962 -0.452 189 144 125
0.46104 -0.281962 -0.452 189 144 125
0.461901 -0.281962 -0.452 188 143 124
0.462762 -0.281962 -0.452 188 143 124
0.463623 -0.281962 -0.452 187 142 123
0.463456 -0.281338 -0.451 185 142 123
0.464315 -0.281338 -0.451 185 142 123
0.465174 -0.281338 -0.451 185 143 121
0.466033 -0.281338 -0.451 182 140 118
0.466892 -0.281338 -0.451 182 140 118
0.467751 -0.281338 -0.451 183 141 119
0.46861 -0.281338 -0.451 184 142 120
0.46947 -0.281338 -0.451 183 141 117
0.470329 -0.281338 -0.451 180 138 114
0.471188 -0.281338 -0.451 178 136 114
0.472047 -0.281338 -0.451 177 135 113
0.472906 -0.281338 -0.451 176 134 110
0.474815 -0.281962 -0.452 177 135 111
0.474624 -0.281338 -0.451 175 134 114
0.475483 -0.281338 -0.451 174 133 113
0.476342 -0.281338 -0.451 175 132 115
0.478259 -0.281962 -0.452 173 130 113
0.47912 -0.281962 -0.452 173 128 109
0.479981 -0.281962 -0.452 172 127 108
0.480842 -0.281962 -0.452 164 121 102
0.482769 -0.282586 -0.453 160 117 98
0.483631 -0.282586 -0.453 154 117 99
0.485564 -0.28321 -0.454 154 117 99
0.4875 -0.283833 -0.455 151 118 101
0.488367 -0.283833 -0.455 149 116 99
0.490309 -0.284457 -0.456 146 113 94
0.492254 -0.285081 -0.457 146 113 94
0.494204 -0.285705 -0.458 147 114 97
0.496157 -0.286329 -0.459 147 114 97
0.0855343 -0.367294 -0.587 200 161 144
0.0860619 -0.364791 -0.583 202 160 146
0.0865743 -0.362289 -0.579 202 160 146
0.08692 -0.35916 -0.574 202 160 148
0.0874 -0.356657 -0.57 202 160 148
0.0877095 -0.353529 -0.565 206 159 149
0.0883143 -0.351651 -0.562 203 156 146
0.0889076 -0.349774 -0.559 204 156 142
0.0896505 -0.348523 -0.557 204 156 142
0.0905486 -0.347897 -0.556 205 156 139
0.0912781 -0.346646 -0.554 206 157 140
0.0923333 -0.346646 -0.554 204 157 139
0.0933886 -0.346646 -0.554 203 156 138
0.0942733 -0.34602 -0.553 202 156 140
0.0953267 -0.34602 -0.553 202 156 140
0.0962057 -0.345394 -0.552 201 154 136
0.0972571 -0.345394 -0.552 201 154 136
0.0983086 -0.345394 -0.552 201 154 136
0.09936 -0.345394 -0.552 201 154 136
0.100411 -0.345394 -0.552 201 154 136
0.101463 -0.345394 -0.552 202 155 137
0.1027 -0.34602 -0.553 204 155 138
0.103566 -0.345394 -0.552 200 151 134
0.104617 -0.345394 -0.552 198 150 130
0.105669 -0.345394 -0.552 196 148 128
0.106527 -0.344769 -0.551 194 146 126
0.107576 -0.344769 -0.551 195 147 127
0.108626 -0.344769 -0.551 195 147 127
0.109675 -0.344769 -0.551 195 147 127
0.110725 -0.344769 -0.551 197 149 127
0.111571 -0.344143 -0.55 197 149 127
0.112619 -0.344143 -0.55 198 147 126
0.113667 -0.344143 -0.55 198 147 126
0.114714 -0.344143 -0.55 198 147 126
0.115762 -0.344143 -0.55 198 147 126
0.11681 -0.344143 -0.55 198 147 126
0.117857 -0.344143 -0.55 196 145 124
0.119121 -0.344769 -0.551 195 144 123
0.120389 -0.345394 -0.552 196 145 124
0.12144 -0.345394 -0.552 192 141 120
0.122713 -0.34602 -0.553 190 138 116
0.12399 -0.346646 -0.554 189 137 115
0.125271 -0.347271 -0.555 183 131 109
0.126329 -0.347271 -0.555 179 127 105
0.127615 -0.347897 -0.556 176 124 102
0.128906 -0.348523 -0.557 169 117 95
0.129967 -0.348523 -0.557 161 112 95
0.131263 -0.349149 -0.558 154 105 88
0.132563 -0.349774 -0.559 149 99 88
0.133867 -0.3504 -0.56 147 97 86
0.135415 -0.351651 -0.562 144 94 87
0.136729 -0.352277 -0.563 144 94 87
0.138046 -0.352903 -0.564 144 95 88
0.139367 -0.353529 -0.565 143 94 87
0.140691 -0.354154 -0.566 142 95 85
0.14202 -0.35478 -0.567 138 91 81
0.143352 -0.355406 -0.568 136 89 81
0.144689 -0.356031 -0.569 136 89 81
0.146029 -0.356657 -0.57 132 87 82
0.147372 -0.357283 -0.571 128 83 78
0.14872 -0.357909 -0.572 127 81 81
0.150071 -0.358534 -0.573 128 82 82
0.15169 -0.359786 -0.575 123 85 82
0.153051 -0.360411 -0.576 122 84 81
0.154416 -0.361037 -0.577 123 85 84
0.155785 -0.361663 -0.578 124 86 85
0.157429 -0.362914 -0.58 123 83 83
0.158807 -0.36354 -0.581 123 83 83
0.160189 -0.364166 -0.582 123 81 82
0.161851 -0.365417 -0.584 122 80 81
0.163243 -0.366043 -0.585 122 82 82
0.164638 -0.366669 -0.586 122 80 81
0.166037 -0.367294 -0.587 123 84 85
0.16744 -0.36792 -0.588 123 84 85
0.169133 -0.369171 -0.59 118 84 83
0.196943 -0.381686 -0.61 62 64 102
0.198105 -0.381686 -0.61 66 68 106
0.199267 -0.381686 -0.61 69 78 109
0.200757 -0.382311 -0.611 103 112 143
0.201921 -0.382311 -0.611 121 127 159
0.203085 -0.382311 -0.611 118 124 156
0.204249 -0.382311 -0.611 131 136 168
0.205412 -0.382311 -0.611 148 153 185
0.206576 -0.382311 -0.611 151 157 189
0.20774 -0.382311 -0.611 130 136 168
0.208904 -0.382311 -0.611 83 93 128
0.210068 -0.382311 -0.611 48 58 93
0.211231 -0.382311 -0.611 47 57 93
0.212395 -0.382311 -0.611 81 91 127
0.213909 -0.382937 -0.612 129 134 166
0.215074 -0.382937 -0.612 146 151 183
0.21624 -0.382937 -0.612 165 163 187
0.21705 -0.382311 -0.611 168 166 190
0.218214 -0.382311 -0.611 171 163 176
0.219378 -0.382311 -0.611 179 171 184
0.220542 -0.382311 -0.611 156 149 157
0.221706 -0.382311 -0.611 107 100 108
0.22287 -0.382311 -0.611 138 133 139
0.224033 -0.382311 -0.611 178 173 179
0.225197 -0.382311 -0.611 174 174 186
0.226731 -0.382937 -0.612 175 175 187
0.227897 -0.382937 -0.612 179 180 198
0.228689 -0.382311 -0.611 176 177 195
0.229852 -0.382311 -0.611 180 183 202
0.231016 -0.382311 -0.611 179 182 201
0.23218 -0.382311 -0.611 184 189 208
0.233344 -0.382311 -0.611 188 193 212
0.234508 -0.382311 -0.611 188 197 212
0.235671 -0.382311 -0.611 188 197 212
0.236835 -0.382311 -0.611 189 198 213
0.237999 -0.382311 -0.611 190 196 210
0.239163 -0.382311 -0.611 193 199 213
0.240327 -0.382311 -0.611 192 195 212
0.24149 -0.382311 -0.611 191 194 211
0.242654 -0.382311 -0.611 188 193 222
0.243818 -0.382311 -0.611 173 178 207
0.246146 -0.382311 -0.611 86 98 136
0.24731 -0.382311 -0.611 101 115 154
0.248473 -0.382311 -0.611 143 157 196
0.249637 -0.382311 -0.611 192 201 230
0.457755 -0.386066 -0.617 144 169 209
0.45893 -0.386066 -0.617 174 192 230
0.460106 -0.386066 -0.617 188 206 244
0.461281 -0.386066 -0.617 194 203 232
0.462456 -0.386066 -0.617 204 213 242
0.463631 -0.386066 -0.617 220 223 240
0.494989 -0.386691 -0.618 207 210 227
0.496166 -0.386691 -0.618 210 212 227
0.497343 -0.386691 -0.618 211 213 228
0.504043 -0.387317 -0.619 97 101 126
0.505222 -0.387317 -0.619 141 145 170
0.506401 -0.387317 -0.619 158 161 178
0.50758 -0.387317 -0.619 143 146 163
0.508759 -0.387317 -0.619 164 167 182
0.52769 -0.374803 -0.599 166 138 135
0.520003 -0.368546 -0.589 165 137 134
0.509623 -0.360411 -0.576 167 137 135
0.495647 -0.349774 -0.559 167 137 135
0.486049 -0.342266 -0.547 166 138 127
0.479076 -0.336634 -0.538 164 136 125
0.474747 -0.33288 -0.532 165 136 130
0.470394 -0.329126 -0.526 165 136 130
0.466019 -0.325371 -0.52 166 136 128
0.462519 -0.322243 -0.515 169 139 131
0.4599 -0.31974 -0.511 175 142 135
0.457266 -0.317237 -0.507 176 143 136
0.454616 -0.314734 -0.503 175 142 133
0.452857 -0.312857 -0.5 175 142 133
0.451087 -0.31098 -0.497 176 142 133
0.449305 -0.309103 -0.494 178 144 135
0.447511 -0.307226 -0.491 179 143 131
0.44662 -0.305974 -0.489 179 143 131
0.444806 -0.304097 -0.486 178 140 129
0.44298 -0.30222 -0.483 178 140 129
0.442062 -0.300969 -0.481 179 141 130
0.442057 -0.300343 -0.48 179 141 130
0.441126 -0.299091 -0.478 179 139 127
0.442036 -0.299091 -0.478 179 139 127
0.44202 -0.298466 -0.477 183 143 131
0.442 -0.29784 -0.476 184 145 130
0.441046 -0.296589 -0.474 185 146 131
0.441016 -0.295963 -0.473 190 148 134
0.440983 -0.295337 -0.472 188 146 132
0.440946 -0.294711 -0.471 185 146 131
0.440905 -0.294086 -0.47 187 148 133
0.4418 -0.294086 -0.47 186 147 132
0.441753 -0.29346 -0.469 187 148 133
0.441703 -0.292834 -0.468 188 146 130
0.442594 -0.292834 -0.468 187 145 129
0.442538 -0.292209 -0.467 190 147 130
0.442478 -0.291583 -0.466 187 144 127
0.443366 -0.291583 -0.466 185 144 126
0.4433 -0.290957 -0.465 190 149 131
0.444186 -0.290957 -0.465 190 147 130
0.444114 -0.290331 -0.464 193 150 133
0.444998 -0.290331 -0.464 194 151 134
0.444921 -0.289706 -0.463 194 151 134
0.445803 -0.289706 -0.463 192 149 132
0.44572 -0.28908 -0.462 191 148 131
0.4466 -0.28908 -0.462 193 150 131
0.44748 -0.28908 -0.462 191 148 129
0.44739 -0.288454 -0.461 192 147 128
0.448268 -0.288454 -0.461 190 145 126
0.448171 -0.287829 -0.46 190 145 126
0.448071 -0.287203 -0.459 188 143 124
0.448946 -0.287203 -0.459 189 144 125
0.44982 -0.287203 -0.459 193 148 129
0.450694 -0.287203 -0.459 193 148 127
0.450585 -0.286577 -0.458 192 147 126
0.451457 -0.286577 -0.458 193 148 127
0.45233 -0.286577 -0.458 194 149 128
0.452212 -0.285951 -0.457 197 152 131
0.452091 -0.285326 -0.456 195 150 129
0.45296 -0.285326 -0.456 195 150 129
0.452833 -0.2847 -0.455 195 150 129
0.4537 -0.2847 -0.455 189 144 123
0.454567 -0.2847 -0.455 187 142 121
0.454432 -0.284074 -0.454 191 146 125
0.455297 -0.284074 -0.454 192 147 126
0.456162 -0.284074 -0.454 194 149 128
0.45602 -0.283449 -0.453 194 149 128
0.456883 -0.283449 -0.453 196 151 130
0.457746 -0.283449 -0.453 197 152 131
0.457596 -0.282823 -0.452 192 147 126
0.458457 -0.282823 -0.452 187 142 121
0.459318 -0.282823 -0.452 188 145 126
0.460179 -0.282823 -0.452 187 144 125
0.46002 -0.282197 -0.451 186 144 122
0.460879 -0.282197 -0.451 186 144 122
0.461738 -0.282197 -0.451 186 144 122
0.462597 -0.282197 -0.451 186 144 122
0.463456 -0.282197 -0.451 188 143 122
0.464315 -0.282197 -0.451 187 142 121
0.464143 -0.281571 -0.45 187 142 119
0.465 -0.281571 -0.45 185 140 117
0.465857 -0.281571 -0.45 185 141 116
0.466714 -0.281571 -0.45 185 141 116
0.467571 -0.281571 -0.45 186 142 117
0.468429 -0.281571 -0.45 182 138 113
0.469286 -0.281571 -0.45 180 136 111
0.471188 -0.282197 -0.451 179 135 110
0.472047 -0.282197 -0.451 176 132 107
0.472906 -0.282197 -0.451 176 134 109
0.473765 -0.282197 -0.451 176 134 109
0.474624 -0.282197 -0.451 175 133 109
0.474429 -0.281571 -0.45 174 132 108
0.475286 -0.281571 -0.45 176 131 110
0.477201 -0.282197 -0.451 175 130 109
0.47806 -0.282197 -0.451 172 127 106
0.478919 -0.282197 -0.451 170 125 104
0.479778 -0.282197 -0.451 164 121 102
0.481703 -0.282823 -0.452 160 117 98
0.482564 -0.282823 -0.452 153 116 98
0.484494 -0.283449 -0.453 152 115 97
0.486429 -0.284074 -0.454 150 117 100
0.487293 -0.284074 -0.454 149 116 99
0.489233 -0.2847 -0.455 146 115 95
0.491177 -0.285326 -0.456 144 113 93
0.494204 -0.286577 -0.458 147 114 97
0.495076 -0.286577 -0.458 146 110 94
0.0844162 -0.368412 -0.587 202 160 144
0.0850971 -0.36653 -0.584 201 159 143
0.085619 -0.364019 -0.58 201 159 147
0.0859762 -0.360881 -0.575 202 160 148
0.0863143 -0.357743 -0.57 203 161 149
0.0867867 -0.355232 -0.566 203 161 149
0.0870886 -0.352094 -0.561 206 160 147
0.0878429 -0.350839 -0.559 203 157 144
0.0885895 -0.349584 -0.557 203 155 141
0.0893286 -0.348329 -0.555 203 155 141
0.0902229 -0.347701 -0.554 203 156 140
0.0911133 -0.347073 -0.553 203 156 140
0.0921667 -0.347073 -0.553 203 157 142
0.09322 -0.347073 -0.553 203 157 142
0.0941029 -0.346446 -0.552 202 156 140
0.0951543 -0.346446 -0.552 201 155 139
0.0962057 -0.346446 -0.552 201 154 138
0.097081 -0.345818 -0.551 200 153 137
0.0981305 -0.345818 -0.551 200 153 137
0.09918 -0.345818 -0.551 200 153 137
0.10023 -0.345818 -0.551 199 152 134
0.101463 -0.346446 -0.552 199 152 134
0.102514 -0.346446 -0.552 197 148 131
0.103566 -0.346446 -0.552 195 146 129
0.104428 -0.345818 -0.551 195 147 127
0.105477 -0.345818 -0.551 195 147 127
0.106527 -0.345818 -0.551 196 148 128
0.107381 -0.34519 -0.55 197 149 129
0.108429 -0.34519 -0.55 198 150 130
0.109476 -0.34519 -0.55 199 151 131
0.110524 -0.34519 -0.55 200 149 130
0.111571 -0.34519 -0.55 199 148 129
0.112619 -0.34519 -0.55 198 147 128
0.113667 -0.34519 -0.55 197 146 127
0.114714 -0.34519 -0.55 197 146 127
0.115762 -0.34519 -0.55 198 147 128
0.11681 -0.34519 -0.55 198 147 128
0.117857 -0.34519 -0.55 195 144 125
0.119121 -0.345818 -0.551 192 141 122
0.12017 -0.345818 -0.551 193 142 123
0.12144 -0.346446 -0.552 191 140 121
0.122713 -0.347073 -0.553 191 138 120
0.12399 -0.347701 -0.554 188 135 117
0.125271 -0.348329 -0.555 180 127 109
0.126556 -0.348956 -0.556 173 120 102
0.127615 -0.348956 -0.556 169 116 98
0.128906 -0.349584 -0.557 164 111 93
0.1302 -0.350211 -0.558 156 108 94
0.131498 -0.350839 -0.559 150 102 88
0.1328 -0.351467 -0.56 146 98 88
0.134106 -0.352094 -0.561 144 96 86
0.135415 -0.352722 -0.562 141 92 87
0.136729 -0.35335 -0.563 140 91 86
0.13829 -0.354605 -0.565 141 94 88
0.139613 -0.355232 -0.566 140 93 87
0.14094 -0.35586 -0.567 136 92 81
0.14227 -0.356488 -0.568 133 89 78
0.143605 -0.357115 -0.569 132 88 77
0.144943 -0.357743 -0.57 133 89 78
0.146285 -0.35837 -0.571 131 88 81
0.14763 -0.358998 -0.572 128 85 78
0.14898 -0.359626 -0.573 127 83 80
0.150333 -0.360253 -0.574 127 83 80
0.15169 -0.360881 -0.575 122 85 79
0.153051 -0.361509 -0.576 122 85 79
0.154416 -0.362136 -0.577 124 85 80
0.156054 -0.363391 -0.579 124 85 80
0.157429 -0.364019 -0.58 124 83 81
0.158807 -0.364647 -0.581 122 81 79
0.160464 -0.365902 -0.583 122 81 79
0.161851 -0.36653 -0.584 122 80 81
0.163243 -0.367157 -0.585 122 82 82
0.164919 -0.368412 -0.587 119 79 79
0.16632 -0.36904 -0.588 118 82 82
0.16801 -0.370295 -0.59 119 83 83
0.19314 -0.38222 -0.609 52 63 95
0.1943 -0.38222 -0.609 56 64 101
0.195781 -0.382848 -0.61 55 63 100
0.196943 -0.382848 -0.61 59 64 104
0.198105 -0.382848 -0.61 61 66 106
0.199267 -0.382848 -0.61 71 85 124
0.200757 -0.383475 -0.611 105 119 158
0.201921 -0.383475 -0.611 109 119 155
0.203085 -0.383475 -0.611 110 120 156
0.204249 -0.383475 -0.611 135 141 175
0.205412 -0.383475 -0.611 155 161 195
0.206576 -0.383475 -0.611 148 157 190
0.20774 -0.383475 -0.611 98 107 140
0.208904 -0.383475 -0.611 46 59 93
0.210068 -0.383475 -0.611 39 52 86
0.211231 -0.383475 -0.611 91 101 136
0.212395 -0.383475 -0.611 126 136 171
0.213559 -0.383475 -0.611 150 154 181
0.214723 -0.383475 -0.611 159 163 190
0.215887 -0.383475 -0.611 167 162 182
0.21705 -0.383475 -0.611 174 169 189
0.218214 -0.383475 -0.611 173 167 179
0.219378 -0.383475 -0.611 170 164 176
0.220542 -0.383475 -0.611 175 170 177
0.221706 -0.383475 -0.611 157 152 159
0.22287 -0.383475 -0.611 120 117 124
0.224033 -0.383475 -0.611 161 158 165
0.225197 -0.383475 -0.611 180 180 190
0.226361 -0.383475 -0.611 179 179 189
0.227525 -0.383475 -0.611 171 174 191
0.228689 -0.383475 -0.611 174 177 194
0.229852 -0.383475 -0.611 181 184 203
0.231016 -0.383475 -0.611 181 184 203
0.23218 -0.383475 -0.611 182 188 204
0.233344 -0.383475 -0.611 185 191 207
0.234508 -0.383475 -0.611 187 196 211
0.235671 -0.383475 -0.611 187 196 211
0.236835 -0.383475 -0.611 190 199 214
0.237999 -0.383475 -0.611 189 196 212
0.239163 -0.383475 -0.611 190 197 213
0.239933 -0.382848 -0.61 194 200 216
0.241095 -0.382848 -0.61 193 199 215
0.242257 -0.382848 -0.61 191 199 222
0.243419 -0.382848 -0.61 184 192 215
0.244581 -0.382848 -0.61 154 167 201
0.245743 -0.382848 -0.61 116 129 163
0.246905 -0.382848 -0.61 83 97 134
0.497343 -0.387869 -0.618 211 214 229
0.49852 -0.387869 -0.618 204 205 223
0.499697 -0.387869 -0.618 209 210 228
0.500874 -0.387869 -0.618 198 200 221
0.502051 -0.387869 -0.618 168 170 191
0.503229 -0.387869 -0.618 113 118 140
0.504406 -0.387869 -0.618 104 109 131
0.505583 -0.387869 -0.618 122 127 147
0.50676 -0.387869 -0.618 143 148 168
0.507937 -0.387869 -0.618 190 195 214
0.509114 -0.387869 -0.618 202 207 226
0.510291 -0.387869 -0.618 199 206 222
0.52769 -0.375944 -0.599 166 138 134
0.521769 -0.370923 -0.591 165 137 133
0.511392 -0.362764 -0.578 166 137 133
0.498307 -0.352722 -0.562 167 138 134
0.487826 -0.344563 -0.549 166 137 129
0.479967 -0.338287 -0.539 165 136 128
0.475639 -0.334521 -0.533 165 136 130
0.471289 -0.330755 -0.527 164 135 129
0.466915 -0.32699 -0.521 167 137 129
0.463417 -0.323851 -0.516 169 139 131
0.4608 -0.321341 -0.512 173 140 133
0.458168 -0.31883 -0.508 174 141 134
0.45552 -0.31632 -0.504 174 141 132
0.452857 -0.31381 -0.5 174 141 132
0.451087 -0.311927 -0.497 176 142 132
0.449305 -0.310044 -0.494 177 143 133
0.447511 -0.308161 -0.491 180 144 132
0.445707 -0.306278 -0.488 180 144 132
0.444806 -0.305023 -0.486 179 141 130
0.443897 -0.303768 -0.484 177 139 128
0.442062 -0.301885 -0.481 179 141 130
0.441136 -0.30063 -0.479 179 141 130
0.441126 -0.300002 -0.478 176 138 125
0.441111 -0.299374 -0.477 180 142 129
0.44202 -0.299374 -0.477 180 142 129
0.441071 -0.298119 -0.475 183 143 131
0.441046 -0.297491 -0.474 185 145 133
0.441016 -0.296864 -0.473 187 148 133
0.440983 -0.296236 -0.472 186 147 132
0.440946 -0.295609 -0.471 185 146 131
0.440905 -0.294981 -0.47 187 148 133
0.44086 -0.294353 -0.469 191 149 133
0.441753 -0.294353 -0.469 190 148 132
0.441703 -0.293726 -0.468 187 145 129
0.442594 -0.293726 -0.468 188 146 130
0.442538 -0.293098 -0.467 190 147 130
0.442478 -0.29247 -0.466 185 142 125
0.442414 -0.291843 -0.465 184 141 124
0.4433 -0.291843 -0.465 189 146 129
0.444186 -0.291843 -0.465 192 149 132
0.444114 -0.291215 -0.464 193 150 133
0.444998 -0.291215 -0.464 192 149 132
0.444921 -0.290588 -0.463 193 150 133
0.44484 -0.28996 -0.462 193 150 133
0.44572 -0.28996 -0.462 193 150 133
0.4466 -0.28996 -0.462 193 150 131
0.446511 -0.289332 -0.461 191 148 129
0.44739 -0.289332 -0.461 188 145 126
0.448268 -0.289332 -0.461 187 144 125
0.448171 -0.288705 -0.46 189 144 125
0.448071 -0.288077 -0.459 189 144 125
0.448946 -0.288077 -0.459 190 145 124
0.44884 -0.28745 -0.458 192 147 126
0.449712 -0.28745 -0.458 192 147 126
0.450585 -0.28745 -0.458 193 148 127
0.451457 -0.28745 -0.458 195 150 129
0.451342 -0.286822 -0.457 195 150 129
0.452212 -0.286822 -0.457 197 152 131
0.452091 -0.286194 -0.456 194 149 128
0.451967 -0.285567 -0.455 195 150 129
0.452833 -0.285567 -0.455 195 150 129
0.4537 -0.285567 -0.455 188 143 122
0.453568 -0.284939 -0.454 187 142 121
0.454432 -0.284939 -0.454 190 145 124
0.455297 -0.284939 -0.454 192 147 126
0.455157 -0.284311 -0.453 195 150 129
0.45602 -0.284311 -0.453 194 149 128
0.456883 -0.284311 -0.453 195 150 129
0.456735 -0.283684 -0.452 197 152 131
0.457596 -0.283684 -0.452 192 147 126
0.458457 -0.283684 -0.452 187 142 121
0.458302 -0.283056 -0.451 188 146 124
0.459161 -0.283056 -0.451 187 145 123
0.46002 -0.283056 -0.451 185 143 121
0.460879 -0.283056 -0.451 185 143 121
0.461738 -0.283056 -0.451 185 143 119
0.462597 -0.283056 -0.451 185 143 119
0.463456 -0.283056 -0.451 186 141 118
0.463286 -0.282429 -0.45 184 139 116
0.464143 -0.282429 -0.45 183 139 114
0.465 -0.282429 -0.45 185 141 116
0.465857 -0.282429 -0.45 184 140 115
0.466714 -0.282429 -0.45 183 139 114
0.467571 -0.282429 -0.45 183 139 114
0.468429 -0.282429 -0.45 180 136 109
0.469286 -0.282429 -0.45 179 135 108
0.470143 -0.282429 -0.45 182 138 111
0.471 -0.282429 -0.45 180 136 109
0.471857 -0.282429 -0.45 179 135 110
0.472714 -0.282429 -0.45 178 134 109
0.473571 -0.282429 -0.45 175 131 106
0.474429 -0.282429 -0.45 174 130 105
0.47423 -0.281801 -0.449 176 130 106
0.475085 -0.281801 -0.449 176 130 106
0.477 -0.282429 -0.45 171 126 103
0.477857 -0.282429 -0.45 168 123 100
0.479778 -0.283056 -0.451 164 121 102
0.480637 -0.283056 -0.451 161 118 99
0.481496 -0.283056 -0.451 154 117 99
0.483425 -0.283684 -0.452 153 116 98
0.484286 -0.283684 -0.452 151 118 99
0.48622 -0.284311 -0.453 151 118 99
0.488158 -0.284939 -0.454 147 116 96
0.4901 -0.285567 -0.455 144 113 93
0.492046 -0.286194 -0.456 152 116 100
0.495076 -0.28745 -0.458 146 110 94
0.0839848 -0.367642 -0.584 201 157 146
0.0845143 -0.365124 -0.58 200 156 145
0.0850286 -0.362606 -0.576 200 158 146
0.0853781 -0.359458 -0.571 203 161 149
0.0857086 -0.35631 -0.566 205 162 146
0.0861733 -0.353792 -0.562 203 160 144
0.0866229 -0.351274 -0.558 205 159 143
0.0873714 -0.350015 -0.556 204 158 142
0.0881124 -0.348756 -0.554 202 156 141
0.0890067 -0.348127 -0.553 201 155 140
0.09006 -0.348127 -0.553 201 155 142
0.0909486 -0.347497 -0.552 200 154 141
0.092 -0.347497 -0.552 199 155 142
0.0930514 -0.347497 -0.552 201 157 144
0.0941029 -0.347497 -0.552 203 155 141
0.0949819 -0.346868 -0.551 202 154 140
0.0960314 -0.346868 -0.551 201 153 139
0.097081 -0.346868 -0.551 200 152 138
0.0981305 -0.346868 -0.551 199 152 136
0.09918 -0.346868 -0.551 199 152 136
0.10023 -0.346868 -0.551 198 151 135
0.101279 -0.346868 -0.551 198 151 135
0.102329 -0.346868 -0.551 195 146 129
0.103378 -0.346868 -0.551 194 145 128
0.104428 -0.346868 -0.551 193 144 127
0.105477 -0.346868 -0.551 195 146 129
0.106333 -0.346238 -0.55 199 148 131
0.107381 -0.346238 -0.55 201 150 133
0.108429 -0.346238 -0.55 202 151 132
0.109476 -0.346238 -0.55 203 152 133
0.110524 -0.346238 -0.55 201 150 133
0.111571 -0.346238 -0.55 199 148 131
0.112619 -0.346238 -0.55 197 146 129
0.113667 -0.346238 -0.55 197 146 129
0.114714 -0.346238 -0.55 197 146 129
0.115762 -0.346238 -0.55 197 146 129
0.11681 -0.346238 -0.55 196 145 128
0.117857 -0.346238 -0.55 194 143 126
0.119121 -0.346868 -0.551 192 141 124
0.12017 -0.346868 -0.551 191 140 121
0.12144 -0.347497 -0.552 190 139 120
0.122713 -0.348127 -0.553 192 139 121
0.12399 -0.348756 -0.554 190 137 119
0.125271 -0.349386 -0.555 180 127 109
0.126556 -0.350015 -0.556 169 116 98
0.127615 -0.350015 -0.556 163 110 92
0.128906 -0.350645 -0.557 156 103 85
0.1302 -0.351274 -0.558 149 101 89
0.131498 -0.351904 -0.559 144 96 84
0.1328 -0.352533 -0.56 142 94 84
0.134106 -0.353163 -0.561 141 93 83
0.135415 -0.353792 -0.562 138 91 85
0.136971 -0.355051 -0.564 137 90 84
0.13829 -0.355681 -0.565 136 89 83
0.139613 -0.35631 -0.566 133 86 80
0.14094 -0.35694 -0.567 130 86 75
0.14227 -0.35757 -0.568 129 85 74
0.143857 -0.358829 -0.57 130 86 73
0.145197 -0.359458 -0.571 131 87 74
0.146541 -0.360088 -0.572 129 86 77
0.147889 -0.360717 -0.573 127 84 75
0.14924 -0.361347 -0.574 125 82 76
0.150595 -0.361976 -0.575 125 82 76
0.151954 -0.362606 -0.576 123 85 76
0.153317 -0.363235 -0.577 124 86 77
0.154684 -0.363865 -0.578 124 84 76
0.156054 -0.364494 -0.579 123 83 75
0.1577 -0.365753 -0.581 123 82 76
0.15908 -0.366383 -0.582 122 81 75
0.160464 -0.367012 -0.583 122 81 79
0.161851 -0.367642 -0.584 121 80 78
0.163522 -0.368901 -0.586 121 81 79
0.164919 -0.36953 -0.587 118 78 76
0.166603 -0.37079 -0.589 116 81 79
0.189349 -0.38275 -0.608 86 95 126
0.190507 -0.38275 -0.608 85 94 125
0.19198 -0.38338 -0.609 58 71 103
0.19314 -0.38338 -0.609 45 58 90
0.194619 -0.38401 -0.61 51 63 101
0.195781 -0.38401 -0.61 48 60 98
0.196943 -0.38401 -0.61 46 57 102
0.198105 -0.38401 -0.61 45 56 101
0.199267 -0.38401 -0.61 60 77 123
0.200429 -0.38401 -0.61 96 113 159
0.201921 -0.384639 -0.611 95 110 153
0.203085 -0.384639 -0.611 99 114 157
0.204249 -0.384639 -0.611 132 144 184
0.205412 -0.384639 -0.611 142 154 194
0.206576 -0.384639 -0.611 121 134 169
0.20774 -0.384639 -0.611 61 74 109
0.208904 -0.384639 -0.611 36 46 81
0.210068 -0.384639 -0.611 85 95 130
0.210886 -0.38401 -0.61 128 135 164
0.212048 -0.38401 -0.61 142 149 178
0.21321 -0.38401 -0.61 162 162 186
0.214371 -0.38401 -0.61 167 167 191
0.215533 -0.38401 -0.61 174 167 183
0.216695 -0.38401 -0.61 172 165 181
0.217857 -0.38401 -0.61 173 166 182
0.219019 -0.38401 -0.61 175 168 184
0.220181 -0.38401 -0.61 176 170 182
0.221343 -0.38401 -0.61 179 173 185
0.222505 -0.38401 -0.61 129 126 135
0.223667 -0.38401 -0.61 132 129 138
0.224829 -0.38401 -0.61 172 172 184
0.22599 -0.38401 -0.61 168 168 180
0.227152 -0.38401 -0.61 153 154 172
0.228314 -0.38401 -0.61 161 162 180
0.229476 -0.38401 -0.61 175 177 198
0.230638 -0.38401 -0.61 185 187 208
0.2318 -0.38401 -0.61 184 189 208
0.232962 -0.38401 -0.61 186 191 210
0.234124 -0.38401 -0.61 186 191 210
0.235286 -0.38401 -0.61 191 198 214
0.236448 -0.38401 -0.61 190 197 213
0.23761 -0.38401 -0.61 195 202 220
0.238771 -0.38401 -0.61 190 197 215
0.437529 -0.387157 -0.615 148 155 183
0.458187 -0.387787 -0.616 162 190 237
0.45936 -0.387787 -0.616 184 212 255
0.460533 -0.387787 -0.616 191 202 232
0.461707 -0.387787 -0.616 198 209 239
0.46288 -0.387787 -0.616 217 219 242
0.464053 -0.387787 -0.616 218 220 243
0.496538 -0.388416 -0.617 212 215 230
0.497713 -0.388416 -0.617 211 212 230
0.498889 -0.388416 -0.617 206 207 225
0.500064 -0.388416 -0.617 203 205 220
0.501239 -0.388416 -0.617 195 197 212
0.502414 -0.388416 -0.617 145 150 169
0.50359 -0.388416 -0.617 111 116 135
0.504765 -0.388416 -0.617 101 107 131
0.528571 -0.377714 -0.6 167 139 135
0.522651 -0.372678 -0.592 165 137 133
0.513162 -0.365124 -0.58 167 136 133
0.50008 -0.355051 -0.564 167 136 133
0.488714 -0.346238 -0.55 166 137 129
0.480857 -0.339943 -0.54 166 137 129
0.476531 -0.336166 -0.534 164 135 129
0.471289 -0.331759 -0.527 164 135 129
0.467811 -0.328611 -0.522 166 135 130
0.464315 -0.325464 -0.517 168 137 132
0.4608 -0.322316 -0.512 171 138 131
0.458168 -0.319798 -0.508 172 139 132
0.45552 -0.31728 -0.504 172 139 130
0.452857 -0.314762 -0.5 173 140 131
0.451087 -0.312873 -0.497 174 140 130
0.449305 -0.310985 -0.494 176 142 132
0.447511 -0.309096 -0.491 179 143 131
0.445707 -0.307208 -0.488 180 144 132
0.444806 -0.305949 -0.486 179 143 131
0.443897 -0.30469 -0.484 177 141 129
0.442062 -0.302801 -0.481 180 142 129
0.441136 -0.301542 -0.479 180 142 129
0.441126 -0.300912 -0.478 177 139 126
0.440187 -0.299653 -0.476 180 142 129
0.441093 -0.299653 -0.476 180 142 129
0.441071 -0.299024 -0.475 182 144 131
0.441046 -0.298394 -0.474 183 145 132
0.441016 -0.297765 -0.473 187 148 133
0.440983 -0.297135 -0.472 186 147 132
0.440946 -0.296506 -0.471 185 146 131
0.440905 -0.295876 -0.47 187 148 133
0.44086 -0.295247 -0.469 191 149 133
0.441753 -0.295247 -0.469 190 148 132
0.441703 -0.294617 -0.468 188 146 130
0.442594 -0.294617 -0.468 188 146 130
0.442538 -0.293988 -0.467 189 146 129
0.442478 -0.293358 -0.466 185 142 125
0.442414 -0.292729 -0.465 184 141 124
0.4433 -0.292729 -0.465 188 145 128
0.44323 -0.292099 -0.464 191 148 131
0.444114 -0.292099 -0.464 192 149 132
0.444998 -0.292099 -0.464 191 148 131
0.444921 -0.29147 -0.463 193 150 133
0.44484 -0.29084 -0.462 194 151 132
0.44572 -0.29084 -0.462 193 150 131
0.445633 -0.29021 -0.461 192 149 130
0.446511 -0.29021 -0.461 191 148 129
0.44739 -0.29021 -0.461 188 145 126
0.447295 -0.289581 -0.46 187 144 125
0.448171 -0.289581 -0.46 188 146 124
0.448071 -0.288951 -0.459 188 146 124
0.448946 -0.288951 -0.459 189 147 125
0.44884 -0.288322 -0.458 191 149 127
0.449712 -0.288322 -0.458 193 148 127
0.449601 -0.287692 -0.457 194 149 128
0.450471 -0.287692 -0.457 194 149 130
0.451342 -0.287692 -0.457 195 150 131
0.451223 -0.287063 -0.456 197 152 133
0.452091 -0.287063 -0.456 194 149 130
0.451967 -0.286433 -0.455 194 149 130
0.452833 -0.286433 -0.455 193 148 129
0.452703 -0.285804 -0.454 187 142 123
0.453568 -0.285804 -0.454 189 144 125
0.454432 -0.285804 -0.454 191 146 127
0.454294 -0.285174 -0.453 194 149 130
0.455157 -0.285174 -0.453 196 151 132
0.45602 -0.285174 -0.453 193 148 129
0.455874 -0.284545 -0.452 192 147 128
0.456735 -0.284545 -0.452 194 149 130
0.457596 -0.284545 -0.452 191 146 127
0.457443 -0.283915 -0.451 187 142 123
0.458302 -0.283915 -0.451 187 145 123
0.459161 -0.283915 -0.451 186 144 122
0.459 -0.283286 -0.45 185 143 121
0.459857 -0.283286 -0.45 185 143 121
0.460714 -0.283286 -0.45 186 141 120
0.461571 -0.283286 -0.45 184 139 118
0.462429 -0.283286 -0.45 182 137 114
0.463286 -0.283286 -0.45 179 134 111
0.464143 -0.283286 -0.45 180 136 111
0.465 -0.283286 -0.45 184 140 115
0.465857 -0.283286 -0.45 183 139 114
0.466714 -0.283286 -0.45 182 138 113
0.467571 -0.283286 -0.45 182 138 113
0.468429 -0.283286 -0.45 182 138 113
0.469286 -0.283286 -0.45 182 138 113
0.470143 -0.283286 -0.45 184 140 113
0.471 -0.283286 -0.45 184 140 113
0.471857 -0.283286 -0.45 179 133 109
0.472714 -0.283286 -0.45 177 131 107
0.473571 -0.283286 -0.45 175 129 103
0.473374 -0.282656 -0.449 175 129 103
0.47423 -0.282656 -0.449 178 130 107
0.475085 -0.282656 -0.449 178 130 107
0.47594 -0.282656 -0.449 174 128 105
0.477857 -0.283286 -0.45 170 124 101
0.478714 -0.283286 -0.45 166 123 104
0.479571 -0.283286 -0.45 164 121 102
0.481496 -0.283915 -0.451 159 121 102
0.482355 -0.283915 -0.451 158 120 101
0.484286 -0.284545 -0.452 157 122 103
0.485147 -0.284545 -0.452 156 121 102
0.487083 -0.285174 -0.453 148 117 97
0.489023 -0.285804 -0.454 143 112 92
0.490967 -0.286433 -0.455 148 115 98
0.493995 -0.287692 -0.457 148 115 98
0.673637 -0.379603 -0.603 208 208 206
0.0830143 -0.369386 -0.585 203 156 148
0.0835533 -0.36686 -0.581 199 155 146
0.0840771 -0.364334 -0.577 198 154 145
0.0844381 -0.361177 -0.572 200 156 145
0.08478 -0.35802 -0.567 203 159 148
0.0854057 -0.356126 -0.564 206 160 144
0.0858667 -0.3536 -0.56 206 160 144
0.0864676 -0.351706 -0.557 205 159 143
0.0872143 -0.350443 -0.555 205 159 143
0.0879533 -0.34918 -0.553 203 157 142
0.0890067 -0.34918 -0.553 201 155 140
0.0898971 -0.348549 -0.552 198 154 141
0.0907838 -0.347917 -0.551 197 153 140
0.0918333 -0.347917 -0.551 200 154 141
0.0928829 -0.347917 -0.551 202 156 143
0.0939324 -0.347917 -0.551 203 156 140
0.0949819 -0.347917 -0.551 202 155 139
0.0960314 -0.347917 -0.551 201 153 139
0.0969048 -0.347286 -0.55 200 152 138
0.0979524 -0.347286 -0.55 199 152 136
0.099 -0.347286 -0.55 199 152 136
0.100048 -0.347286 -0.55 199 152 136
0.101095 -0.347286 -0.55 198 151 135
0.102329 -0.347917 -0.551 197 148 131
0.103378 -0.347917 -0.551 197 148 131
0.104238 -0.347286 -0.55 196 147 130
0.105286 -0.347286 -0.55 197 148 131
0.106333 -0.347286 -0.55 202 151 134
0.107186 -0.346654 -0.549 202 151 134
0.108231 -0.346654 -0.549 201 150 133
0.109277 -0.346654 -0.549 201 150 133
0.110323 -0.346654 -0.549 199 150 133
0.111369 -0.346654 -0.549 197 148 131
0.112414 -0.346654 -0.549 197 148 131
0.11346 -0.346654 -0.549 198 147 130
0.114506 -0.346654 -0.549 197 146 129
0.115551 -0.346654 -0.549 196 145 126
0.11681 -0.347286 -0.55 195 144 125
0.117857 -0.347286 -0.55 193 142 123
0.119121 -0.347917 -0.551 192 141 122
0.12017 -0.347917 -0.551 192 141 122
0.12144 -0.348549 -0.552 189 138 119
0.122713 -0.34918 -0.553 187 134 116
0.12399 -0.349811 -0.554 184 131 113
0.125271 -0.350443 -0.555 176 123 105
0.126556 -0.351074 -0.556 166 113 95
0.127845 -0.351706 -0.557 159 106 88
0.129137 -0.352337 -0.558 151 98 80
0.130433 -0.352969 -0.559 145 96 82
0.131733 -0.3536 -0.56 141 92 78
0.133037 -0.354231 -0.561 139 91 81
0.134345 -0.354863 -0.562 139 91 81
0.135656 -0.355494 -0.563 137 88 81
0.136971 -0.356126 -0.564 138 89 82
0.13829 -0.356757 -0.565 136 89 81
0.13986 -0.35802 -0.567 132 85 77
0.141189 -0.358651 -0.568 132 86 73
0.142521 -0.359283 -0.569 132 86 73
0.143857 -0.359914 -0.57 129 87 71
0.145197 -0.360546 -0.571 130 88 72
0.146541 -0.361177 -0.572 129 87 75
0.147889 -0.361809 -0.573 126 84 72
0.14924 -0.36244 -0.574 125 82 75
0.150595 -0.363071 -0.575 126 83 76
0.151954 -0.363703 -0.576 122 82 72
0.153317 -0.364334 -0.577 124 84 74
0.154951 -0.365597 -0.579 123 83 75
0.156324 -0.366229 -0.58 122 82 74
0.1577 -0.36686 -0.581 122 81 75
0.15908 -0.367491 -0.582 122 81 75
0.160464 -0.368123 -0.583 121 80 76
0.162129 -0.369386 -0.585 121 80 76
0.163801 -0.370649 -0.587 119 79 77
0.165481 -0.371911 -0.589 118 78 76
0.190507 -0.383909 -0.608 72 81 112
0.191665 -0.383909 -0.608 54 65 97
0.19314 -0.38454 -0.609 47 58 90
0.1943 -0.38454 -0.609 45 58 100
0.19546 -0.38454 -0.609 39 52 94
0.19662 -0.38454 -0.609 36 52 103
0.19778 -0.38454 -0.609 37 53 104
0.19894 -0.38454 -0.609 58 74 126
0.2001 -0.38454 -0.609 82 98 150
0.20159 -0.385171 -0.61 68 86 136
0.202752 -0.385171 -0.61 67 85 135
0.203914 -0.385171 -0.61 94 110 159
0.205076 -0.385171 -0.61 94 110 159
0.206238 -0.385171 -0.61 80 95 138
0.2074 -0.385171 -0.61 55 70 113
0.208562 -0.385171 -0.61 64 72 108
0.209724 -0.385171 -0.61 122 130 166
0.210886 -0.385171 -0.61 152 153 181
0.212048 -0.385171 -0.61 157 158 186
0.21321 -0.385171 -0.61 172 169 190
0.214371 -0.385171 -0.61 168 165 186
0.21518 -0.38454 -0.609 171 167 184
0.21634 -0.38454 -0.609 172 168 185
0.2175 -0.38454 -0.609 172 168 185
0.21866 -0.38454 -0.609 173 169 186
0.21982 -0.38454 -0.609 171 167 182
0.22098 -0.38454 -0.609 170 166 181
0.22214 -0.38454 -0.609 156 154 167
0.223667 -0.385171 -0.61 120 118 131
0.224829 -0.385171 -0.61 127 126 140
0.22599 -0.385171 -0.61 136 135 149
0.22678 -0.38454 -0.609 121 119 140
0.22794 -0.38454 -0.609 146 144 165
0.2291 -0.38454 -0.609 169 171 192
0.23026 -0.38454 -0.609 184 186 207
0.23142 -0.38454 -0.609 186 189 208
0.23258 -0.38454 -0.609 187 190 209
0.23374 -0.38454 -0.609 187 190 209
0.2349 -0.38454 -0.609 192 195 212
0.23606 -0.38454 -0.609 194 197 214
0.23722 -0.38454 -0.609 192 199 215
0.23838 -0.38454 -0.609 193 200 216
0.4551 -0.388329 -0.615 106 146 207
0.456271 -0.388329 -0.615 103 143 204
0.457443 -0.388329 -0.615 145 177 228
0.458614 -0.388329 -0.615 171 203 254
0.48048 -0.38896 -0.616 215 220 239
0.481653 -0.38896 -0.616 216 219 236
0.482827 -0.38896 -0.616 216 219 236
0.484 -0.38896 -0.616 216 219 236
0.485173 -0.38896 -0.616 210 213 228
0.486347 -0.38896 -0.616 207 210 225
0.48752 -0.38896 -0.616 205 208 223
0.488693 -0.38896 -0.616 215 218 233
0.489867 -0.38896 -0.616 212 218 234
0.49104 -0.38896 -0.616 209 215 231
0.492213 -0.38896 -0.616 212 218 230
0.504765 -0.389591 -0.617 106 112 138
0.50594 -0.389591 -0.617 76 82 108
0.507115 -0.389591 -0.617 128 137 168
0.50829 -0.389591 -0.617 187 196 227
0.509466 -0.389591 -0.617 196 208 234
0.528571 -0.378857 -0.6 167 139 135
0.523534 -0.374437 -0.593 166 138 134
0.514931 -0.367491 -0.582 167 136 131
0.50274 -0.35802 -0.567 167 136 131
0.490491 -0.348549 -0.552 166 138 127
0.481748 -0.341603 -0.541 167 139 128
0.476531 -0.337183 -0.534 164 135 129
0.472183 -0.333394 -0.528 165 136 130
0.468708 -0.330237 -0.523 166 135 130
0.464315 -0.326449 -0.517 167 136 131
0.4617 -0.323923 -0.513 167 137 129
0.45907 -0.321397 -0.509 168 138 130
0.456424 -0.318871 -0.505 171 138 129
0.453763 -0.316346 -0.501 172 139 130
0.451087 -0.31382 -0.497 174 140 130
0.449305 -0.311926 -0.494 176 142 132
0.447511 -0.310031 -0.491 178 142 130
0.445707 -0.308137 -0.488 180 144 132
0.44389 -0.306243 -0.485 179 143 131
0.44298 -0.30498 -0.483 177 141 129
0.442062 -0.303717 -0.481 179 141 128
0.441136 -0.302454 -0.479 180 142 129
0.440203 -0.301191 -0.477 180 142 129
0.440187 -0.30056 -0.476 182 144 131
0.440167 -0.299929 -0.475 182 144 131
0.441071 -0.299929 -0.475 182 144 131
0.441046 -0.299297 -0.474 181 143 130
0.441016 -0.298666 -0.473 185 146 131
0.440983 -0.298034 -0.472 185 146 131
0.440946 -0.297403 -0.471 185 146 131
0.440905 -0.296771 -0.47 188 149 134
0.44086 -0.29614 -0.469 193 151 135
0.441753 -0.29614 -0.469 190 148 132
0.441703 -0.295509 -0.468 188 146 130
0.442594 -0.295509 -0.468 189 147 131
0.442538 -0.294877 -0.467 189 148 130
0.442478 -0.294246 -0.466 186 145 127
0.442414 -0.293614 -0.465 187 144 127
0.4433 -0.293614 -0.465 190 147 130
0.44323 -0.292983 -0.464 191 148 131
0.444114 -0.292983 -0.464 191 148 131
0.444039 -0.292351 -0.463 190 147 128
0.444921 -0.292351 -0.463 192 149 130
0.44484 -0.29172 -0.462 192 149 130
0.444755 -0.291089 -0.461 191 148 129
0.445633 -0.291089 -0.461 192 149 130
0.446511 -0.291089 -0.461 193 150 131
0.446419 -0.290457 -0.46 190 147 128
0.447295 -0.290457 -0.46 190 147 128
0.448171 -0.290457 -0.46 191 149 127
0.448071 -0.289826 -0.459 190 148 126
0.448946 -0.289826 -0.459 191 149 127
0.44884 -0.289194 -0.458 193 151 129
0.449712 -0.289194 -0.458 191 149 127
0.449601 -0.288563 -0.457 191 149 127
0.450471 -0.288563 -0.457 191 148 129
0.450354 -0.287931 -0.456 193 150 131
0.451223 -0.287931 -0.456 194 151 132
0.452091 -0.287931 -0.456 192 149 130
0.451967 -0.2873 -0.455 191 148 129
0.451838 -0.286669 -0.454 188 145 126
0.452703 -0.286669 -0.454 184 141 122
0.452569 -0.286037 -0.453 188 145 126
0.453431 -0.286037 -0.453 190 147 128
0.454294 -0.286037 -0.453 193 150 131
0.455157 -0.286037 -0.453 194 151 132
0.455013 -0.285406 -0.452 190 147 128
0.455874 -0.285406 -0.452 189 146 127
0.456735 -0.285406 -0.452 190 147 128
0.456584 -0.284774 -0.451 187 144 125
0.457443 -0.284774 -0.451 184 141 122
0.458302 -0.284774 -0.451 189 144 123
0.458143 -0.284143 -0.45 189 144 123
0.459 -0.284143 -0.45 188 143 122
0.459857 -0.284143 -0.45 187 142 121
0.460714 -0.284143 -0.45 185 140 119
0.461571 -0.284143 -0.45 182 137 116
0.462429 -0.284143 -0.45 180 135 112
0.463286 -0.284143 -0.45 179 134 111
0.463111 -0.283511 -0.449 176 131 108
0.463967 -0.283511 -0.449 181 136 113
0.464822 -0.283511 -0.449 180 135 112
0.465677 -0.283511 -0.449 180 135 112
0.466532 -0.283511 -0.449 183 139 114
0.467388 -0.283511 -0.449 183 139 114
0.468243 -0.283511 -0.449 182 138 113
0.469098 -0.283511 -0.449 182 138 113
0.469953 -0.283511 -0.449 182 138 113
0.470809 -0.283511 -0.449 177 133 108
0.471664 -0.283511 -0.449 175 131 106
0.472519 -0.283511 -0.449 176 130 104
0.473374 -0.283511 -0.449 176 130 104
0.47423 -0.283511 -0.449 178 130 107
0.475085 -0.283511 -0.449 178 130 107
0.47594 -0.283511 -0.449 176 130 107
0.476795 -0.283511 -0.449 174 128 105
0.478714 -0.284143 -0.45 170 125 106
0.479571 -0.284143 -0.45 170 125 106
0.480429 -0.284143 -0.45 166 125 105
0.482355 -0.284774 -0.451 164 123 103
0.483214 -0.284774 -0.451 160 124 102
0.485147 -0.285406 -0.452 159 123 101
0.486008 -0.285406 -0.452 151 119 98
0.487946 -0.286037 -0.453 147 115 94
0.489888 -0.286669 -0.454 145 112 95
0.492914 -0.287931 -0.456 149 116 99
0.08204 -0.371133 -0.586 203 156 146
0.0827305 -0.369233 -0.583 202 155 145
0.0831219 -0.366067 -0.578 198 154 143
0.08364 -0.363533 -0.574 199 155 144
0.0838476 -0.359733 -0.568 202 158 145
0.0841819 -0.356567 -0.563 203 159 146
