ply
format ascii 1.0
comment Created by Open3D
element vertex 1278
property double x
property double y
property double z
property uchar red
property uchar green
property uchar blue
end_header
0.4665 -0.1795 -0.525 173 126 110
0.46839 -0.179842 -0.526 173 126 110
0.470285 -0.180184 -0.527 170 123 107
0.472183 -0.180526 -0.528 168 124 111
0.473189 -0.180526 -0.528 165 121 108
0.475092 -0.180868 -0.529 165 121 110
0.4761 -0.180868 -0.529 165 121 110
0.478911 -0.181551 -0.531 163 119 110
0.482634 -0.182577 -0.534 160 116 107
0.485463 -0.183261 -0.536 157 117 107
0.486484 -0.183261 -0.536 157 117 107
0.487505 -0.183261 -0.536 157 117 107
0.489437 -0.183603 -0.537 156 116 108
-0.290333 -0.223476 -0.65 252 254 243
-0.28865 -0.223132 -0.649 252 254 243
-0.286971 -0.222789 -0.648 252 254 243
-0.284855 -0.222101 -0.646 252 254 243
-0.283625 -0.222101 -0.646 252 254 243
-0.281957 -0.221757 -0.645 251 253 242
-0.280293 -0.221413 -0.644 251 253 242
-0.279067 -0.221413 -0.644 251 253 242
-0.277409 -0.22107 -0.643 252 254 243
-0.276184 -0.22107 -0.643 252 254 243
-0.275387 -0.221413 -0.644 252 254 243
-0.27416 -0.221413 -0.644 252 254 243
-0.272933 -0.221413 -0.644 252 254 243
-0.271707 -0.221413 -0.644 252 254 243
-0.2709 -0.221757 -0.645 252 254 243
-0.269671 -0.221757 -0.645 252 254 243
-0.268443 -0.221757 -0.645 252 254 243
-0.267214 -0.221757 -0.645 252 254 243
-0.265161 -0.22107 -0.643 252 253 245
-0.264347 -0.221413 -0.644 253 254 246
-0.263529 -0.221757 -0.645 253 254 246
-0.262707 -0.222101 -0.646 253 254 246
-0.261881 -0.222445 -0.647 252 253 245
-0.260649 -0.222445 -0.647 250 253 244
-0.259817 -0.222789 -0.648 254 255 248
-0.258982 -0.223132 -0.649 247 250 241
-0.258143 -0.223476 -0.65 251 254 245
-0.143794 -0.222789 -0.648 197 197 185
-0.14102 -0.220382 -0.641 189 189 177
-0.138927 -0.219007 -0.637 187 188 170
-0.137497 -0.218663 -0.636 186 187 169
-0.136286 -0.218663 -0.636 185 187 166
-0.135074 -0.218663 -0.636 184 186 165
-0.133863 -0.218663 -0.636 188 189 171
-0.13286 -0.219007 -0.637 189 190 172
-0.131853 -0.21935 -0.638 192 191 173
-0.130843 -0.219694 -0.639 193 192 174
-0.129829 -0.220038 -0.64 194 192 177
-0.12881 -0.220382 -0.641 194 192 177
-0.127789 -0.220726 -0.642 193 191 176
-0.12696 -0.221413 -0.644 192 190 175
-0.125929 -0.221757 -0.645 191 192 176
-0.125087 -0.222445 -0.647 191 192 176
-0.124046 -0.222789 -0.648 191 192 176
-0.12319 -0.223476 -0.65 189 190 174
-0.0451905 -0.223476 -0.65 78 79 74
-0.0436819 -0.222101 -0.646 70 69 74
-0.0421886 -0.220726 -0.642 67 65 78
-0.0407743 -0.219694 -0.639 67 65 78
-0.0394333 -0.219007 -0.637 65 64 78
-0.03804 -0.217975 -0.634 65 64 78
-0.0367162 -0.217288 -0.632 66 65 79
-0.0355124 -0.217288 -0.632 66 65 79
-0.0342543 -0.216944 -0.631 66 66 78
-0.0330524 -0.216944 -0.631 66 66 78
-0.0318505 -0.216944 -0.631 67 67 79
-0.0306 -0.2166 -0.63 67 67 79
-0.0294 -0.2166 -0.63 67 67 79
-0.0282895 -0.217288 -0.632 67 67 79
-0.0270857 -0.217288 -0.632 66 68 80
-0.0259229 -0.217631 -0.633 66 68 80
-0.0247952 -0.218319 -0.635 69 69 81
-0.0236229 -0.218663 -0.636 70 70 82
-0.0224819 -0.21935 -0.638 70 70 82
-0.0213333 -0.220038 -0.64 71 71 83
-0.0201457 -0.220382 -0.641 73 73 85
-0.0190133 -0.221413 -0.644 73 73 85
-0.0178419 -0.222101 -0.646 74 74 86
-0.0166371 -0.222445 -0.647 74 74 86
-0.0154524 -0.223132 -0.649 74 74 86
-0.0142381 -0.223476 -0.65 75 75 87
0.461129 -0.197003 -0.573 160 125 121
0.45496 -0.193909 -0.564 162 127 123
0.450374 -0.191502 -0.557 174 136 127
0.446572 -0.189439 -0.551 178 140 131
0.445185 -0.188408 -0.548 181 137 124
0.442971 -0.187032 -0.544 182 138 125
0.442375 -0.186345 -0.542 186 139 123
0.441771 -0.185657 -0.54 187 140 124
0.44116 -0.18497 -0.538 192 145 127
0.441363 -0.184626 -0.537 193 146 128
0.440738 -0.183938 -0.535 194 147 129
0.441757 -0.183938 -0.535 196 149 131
0.441949 -0.183594 -0.534 196 147 130
0.442136 -0.18325 -0.533 195 146 129
0.44232 -0.182907 -0.532 196 149 133
0.4425 -0.182563 -0.531 198 151 135
0.443511 -0.182563 -0.531 196 149 131
0.443686 -0.182219 -0.53 191 144 126
0.443856 -0.181875 -0.529 196 149 131
0.444864 -0.181875 -0.529 196 149 131
0.445029 -0.181531 -0.528 197 150 132
0.446034 -0.181531 -0.528 197 150 132
0.44704 -0.181531 -0.528 199 152 134
0.447197 -0.181188 -0.527 200 153 135
0.448201 -0.181188 -0.527 201 154 136
0.449205 -0.181188 -0.527 203 155 135
0.450209 -0.181188 -0.527 200 152 132
0.450356 -0.180844 -0.526 198 150 130
0.451358 -0.180844 -0.526 197 149 129
0.45236 -0.180844 -0.526 199 150 133
0.453362 -0.180844 -0.526 198 149 132
0.454364 -0.180844 -0.526 193 145 125
0.4545 -0.1805 -0.525 195 147 127
0.4555 -0.1805 -0.525 195 147 127
0.4565 -0.1805 -0.525 192 144 124
0.4575 -0.1805 -0.525 189 140 123
0.4585 -0.1805 -0.525 189 140 123
0.458625 -0.180156 -0.524 190 141 124
0.459623 -0.180156 -0.524 190 141 124
0.460621 -0.180156 -0.524 188 139 122
0.461619 -0.180156 -0.524 186 137 120
0.462617 -0.180156 -0.524 181 134 116
0.4645 -0.1805 -0.525 178 131 113
0.4655 -0.1805 -0.525 176 129 113
0.4665 -0.1805 -0.525 176 129 113
0.4675 -0.1805 -0.525 174 127 111
0.469392 -0.180844 -0.526 171 124 108
0.471289 -0.181188 -0.527 167 123 110
0.472292 -0.181188 -0.527 165 121 108
0.473296 -0.181188 -0.527 166 122 111
0.4752 -0.181531 -0.528 166 122 111
0.478009 -0.182219 -0.53 164 120 111
0.480827 -0.182907 -0.532 160 116 107
0.483651 -0.183594 -0.534 157 117 107
0.484669 -0.183594 -0.534 157 117 107
0.487505 -0.184282 -0.536 157 117 107
0.489437 -0.184626 -0.537 156 116 108
-0.286178 -0.224369 -0.649 252 254 243
-0.284503 -0.224023 -0.648 252 254 243
-0.283269 -0.224023 -0.648 251 253 242
-0.281599 -0.223677 -0.647 251 252 244
-0.279933 -0.223331 -0.646 252 253 245
-0.278703 -0.223331 -0.646 251 253 242
-0.277472 -0.223331 -0.646 251 253 242
-0.276242 -0.223331 -0.646 252 254 243
-0.275011 -0.223331 -0.646 252 254 243
-0.274205 -0.223677 -0.647 252 254 243
-0.272972 -0.223677 -0.647 252 254 243
-0.27174 -0.223677 -0.647 252 254 243
-0.270508 -0.223677 -0.647 252 254 243
-0.269275 -0.223677 -0.647 253 255 244
-0.267214 -0.222986 -0.645 252 254 243
-0.266398 -0.223331 -0.646 252 254 243
-0.265578 -0.223677 -0.647 252 254 243
-0.264346 -0.223677 -0.647 253 255 244
-0.26352 -0.224023 -0.648 253 254 246
-0.26269 -0.224369 -0.649 252 253 245
-0.261857 -0.224714 -0.65 254 255 246
-0.1419 -0.222986 -0.645 198 200 189
-0.139363 -0.220911 -0.639 192 193 177
-0.137281 -0.219529 -0.635 188 189 173
-0.136071 -0.219529 -0.635 188 189 171
-0.134862 -0.219529 -0.635 189 190 172
-0.133652 -0.219529 -0.635 189 190 172
-0.132651 -0.219874 -0.636 189 190 172
-0.131647 -0.22022 -0.637 190 191 173
-0.130638 -0.220566 -0.638 191 192 174
-0.129626 -0.220911 -0.639 192 193 175
-0.12861 -0.221257 -0.64 192 193 175
-0.127789 -0.221949 -0.642 194 193 175
-0.126763 -0.222294 -0.643 194 193 175
-0.125733 -0.22264 -0.644 191 192 176
-0.124893 -0.223331 -0.646 192 193 177
-0.123854 -0.223677 -0.647 194 193 175
-0.123001 -0.224369 -0.649 192 191 173
-0.121952 -0.224714 -0.65 190 189 171
-0.0476667 -0.224714 -0.65 99 101 98
-0.0462143 -0.223677 -0.647 72 73 77
-0.0447038 -0.222294 -0.643 69 70 74
-0.0432086 -0.220911 -0.639 63 63 73
-0.0417943 -0.219874 -0.636 64 63 77
-0.0404552 -0.219183 -0.634 64 63 77
-0.0391857 -0.218837 -0.633 65 64 78
-0.03786 -0.218146 -0.631 65 64 78
-0.0366 -0.2178 -0.63 66 66 78
-0.0353438 -0.217454 -0.629 66 66 78
-0.0341457 -0.217454 -0.629 66 66 78
-0.0329476 -0.217454 -0.629 66 66 78
-0.0317495 -0.217454 -0.629 67 67 79
-0.0305514 -0.217454 -0.629 67 67 79
-0.0293533 -0.217454 -0.629 68 68 78
-0.0282448 -0.218146 -0.631 68 68 78
-0.0270857 -0.218491 -0.632 67 70 79
-0.0259229 -0.218837 -0.633 67 70 79
-0.0247952 -0.219529 -0.635 69 69 81
-0.02366 -0.22022 -0.637 69 69 81
-0.0225171 -0.220911 -0.639 70 70 82
-0.0213667 -0.221603 -0.641 70 70 82
-0.0201771 -0.221949 -0.642 72 72 84
-0.0190133 -0.22264 -0.644 72 72 84
-0.0178419 -0.223331 -0.646 73 73 85
-0.0166371 -0.223677 -0.647 73 73 85
-0.0154524 -0.224369 -0.649 74 74 86
-0.0142381 -0.224714 -0.65 75 75 87
0.465152 -0.199823 -0.578 159 124 118
0.458187 -0.196366 -0.568 159 124 118
0.451991 -0.193254 -0.559 172 132 124
0.448193 -0.19118 -0.553 176 136 128
0.445185 -0.189451 -0.548 181 135 122
0.443786 -0.188414 -0.545 184 138 125
0.442375 -0.187377 -0.542 186 139 123
0.441771 -0.186686 -0.54 187 140 124
0.44116 -0.185994 -0.538 192 143 126
0.441363 -0.185649 -0.537 194 145 128
0.440738 -0.184957 -0.535 195 146 129
0.441757 -0.184957 -0.535 197 148 131
0.441949 -0.184611 -0.534 197 148 131
0.442136 -0.184266 -0.533 195 146 129
0.44232 -0.18392 -0.532 195 148 132
0.4425 -0.183574 -0.531 196 149 133
0.443511 -0.183574 -0.531 189 142 124
0.443686 -0.183229 -0.53 179 132 114
0.443856 -0.182883 -0.529 187 140 122
0.444023 -0.182537 -0.528 192 145 127
0.445029 -0.182537 -0.528 195 148 132
0.446034 -0.182537 -0.528 195 148 132
0.44704 -0.182537 -0.528 197 150 134
0.447197 -0.182191 -0.527 198 151 135
0.44735 -0.181846 -0.526 197 150 134
0.448352 -0.181846 -0.526 198 151 133
0.449354 -0.181846 -0.526 197 150 132
0.450356 -0.181846 -0.526 198 149 132
0.4505 -0.1815 -0.525 202 153 136
0.4515 -0.1815 -0.525 197 148 131
0.4525 -0.1815 -0.525 194 145 128
0.4535 -0.1815 -0.525 192 143 126
0.4545 -0.1815 -0.525 193 144 127
0.454632 -0.181154 -0.524 194 145 128
0.45563 -0.181154 -0.524 192 143 126
0.456629 -0.181154 -0.524 188 139 122
0.457627 -0.181154 -0.524 188 139 122
0.458625 -0.181154 -0.524 189 140 123
0.459623 -0.181154 -0.524 189 140 123
0.459742 -0.180809 -0.523 189 140 123
0.461619 -0.181154 -0.524 187 138 121
0.462617 -0.181154 -0.524 184 135 118
0.463615 -0.181154 -0.524 182 133 116
0.464613 -0.181154 -0.524 181 132 115
0.465611 -0.181154 -0.524 179 130 113
0.4675 -0.1815 -0.525 177 128 111
0.4685 -0.1815 -0.525 176 127 110
0.470394 -0.181846 -0.526 170 126 113
0.472292 -0.182191 -0.527 167 123 110
0.473296 -0.182191 -0.527 166 122 111
0.4752 -0.182537 -0.528 166 122 111
0.477108 -0.182883 -0.529 164 120 111
0.479923 -0.183574 -0.531 160 116 107
0.482746 -0.184266 -0.533 158 115 106
0.483761 -0.184266 -0.533 158 115 106
0.485686 -0.184611 -0.534 159 116 107
0.488526 -0.185303 -0.536 158 118 110
-0.284143 -0.225952 -0.65 251 252 244
-0.282905 -0.225952 -0.65 251 252 244
-0.281233 -0.225605 -0.649 252 253 245
-0.279566 -0.225257 -0.648 251 253 242
-0.278331 -0.225257 -0.648 251 253 242
-0.277097 -0.225257 -0.648 252 254 243
-0.275863 -0.225257 -0.648 252 254 243
-0.275052 -0.225605 -0.649 252 254 243
-0.273816 -0.225605 -0.649 252 254 243
-0.27258 -0.225605 -0.649 252 254 243
-0.271344 -0.225605 -0.649 253 255 244
-0.270524 -0.225952 -0.65 253 254 246
-0.268457 -0.225257 -0.648 252 254 243
-0.267223 -0.225257 -0.648 252 254 243
-0.266399 -0.225605 -0.649 251 253 242
-0.265571 -0.225952 -0.65 252 254 243
-0.264333 -0.225952 -0.65 253 255 244
-0.14256 -0.225257 -0.648 212 213 205
-0.139799 -0.222824 -0.641 198 200 187
-0.137497 -0.221086 -0.636 189 191 178
-0.136071 -0.220738 -0.635 188 189 171
-0.134862 -0.220738 -0.635 191 192 174
-0.133652 -0.220738 -0.635 189 190 172
-0.132443 -0.220738 -0.635 190 191 173
-0.13144 -0.221086 -0.636 191 192 174
-0.130433 -0.221433 -0.637 192 193 175
-0.129423 -0.221781 -0.638 192 193 175
-0.128409 -0.222129 -0.639 192 193 175
-0.12759 -0.222824 -0.641 195 194 176
-0.126566 -0.223171 -0.642 196 195 177
-0.125538 -0.223519 -0.643 193 194 178
-0.1247 -0.224214 -0.645 192 193 177
-0.123663 -0.224562 -0.646 194 193 175
-0.122811 -0.225257 -0.648 193 192 174
-0.121765 -0.225605 -0.649 192 191 173
-0.120714 -0.225952 -0.65 190 189 169
-0.0501429 -0.225952 -0.65 124 124 116
-0.0487543 -0.225257 -0.648 88 89 94
-0.0473733 -0.224562 -0.646 73 74 79
-0.0458571 -0.223171 -0.642 74 74 82
-0.0443562 -0.221781 -0.638 71 71 79
-0.0430057 -0.221086 -0.636 65 65 77
-0.0414657 -0.219348 -0.631 64 64 76
-0.0402 -0.219 -0.63 61 61 73
-0.0389381 -0.218652 -0.629 66 66 78
-0.03768 -0.218305 -0.628 66 66 78
-0.0364838 -0.218305 -0.628 66 66 76
-0.0352876 -0.218305 -0.628 66 66 76
-0.0340371 -0.217957 -0.627 66 66 76
-0.0328952 -0.218305 -0.628 66 66 76
-0.031699 -0.218305 -0.628 67 67 77
-0.0305029 -0.218305 -0.628 67 67 77
-0.0293533 -0.218652 -0.629 66 69 78
-0.0282448 -0.219348 -0.631 66 69 78
-0.0270857 -0.219695 -0.632 67 70 79
-0.0259638 -0.22039 -0.634 67 70 79
-0.0247952 -0.220738 -0.635 69 69 79
-0.02366 -0.221433 -0.637 69 69 79
-0.0225171 -0.222129 -0.639 68 71 80
-0.0213667 -0.222824 -0.641 68 71 80
-0.0202086 -0.223519 -0.643 71 71 81
-0.0190429 -0.224214 -0.645 71 71 81
-0.0178419 -0.224562 -0.646 72 72 82
-0.0166629 -0.225257 -0.648 72 72 82
-0.0154524 -0.225605 -0.649 74 74 86
-0.0142381 -0.225952 -0.65 75 75 87
0.460607 -0.19849 -0.571 161 124 118
0.454417 -0.195362 -0.562 172 129 122
0.449814 -0.192929 -0.555 176 133 126
0.44681 -0.19119 -0.55 181 135 122
0.4446 -0.1898 -0.546 185 139 126
0.443191 -0.188757 -0.543 186 137 122
0.44259 -0.188062 -0.541 188 139 124
0.44116 -0.187019 -0.538 194 143 126
0.441363 -0.186671 -0.537 195 144 127
0.440738 -0.185976 -0.535 197 146 129
0.441757 -0.185976 -0.535 199 148 131
0.441949 -0.185629 -0.534 197 148 131
0.442136 -0.185281 -0.533 197 148 131
0.441489 -0.184586 -0.531 196 149 133
0.4425 -0.184586 -0.531 196 149 133
0.442676 -0.184238 -0.53 189 142 124
0.443686 -0.184238 -0.53 179 132 114
0.443856 -0.18389 -0.529 185 138 120
0.444023 -0.183543 -0.528 190 143 125
0.445029 -0.183543 -0.528 195 148 132
0.44519 -0.183195 -0.527 198 151 135
0.446193 -0.183195 -0.527 198 151 135
0.447197 -0.183195 -0.527 196 147 132
0.44735 -0.182848 -0.526 195 146 131
0.448352 -0.182848 -0.526 197 148 131
0.449354 -0.182848 -0.526 199 150 133
0.4495 -0.1825 -0.525 195 146 131
0.4505 -0.1825 -0.525 200 151 136
0.4515 -0.1825 -0.525 195 146 131
0.4525 -0.1825 -0.525 198 149 134
0.4535 -0.1825 -0.525 191 142 127
0.453634 -0.182152 -0.524 192 143 128
0.454632 -0.182152 -0.524 193 144 129
0.45563 -0.182152 -0.524 191 142 127
0.456629 -0.182152 -0.524 190 141 126
0.457627 -0.182152 -0.524 188 139 124
0.45775 -0.181805 -0.523 188 139 122
0.458746 -0.181805 -0.523 187 138 121
0.459742 -0.181805 -0.523 188 139 122
0.460738 -0.181805 -0.523 187 138 121
0.462617 -0.182152 -0.524 185 136 119
0.463615 -0.182152 -0.524 183 134 117
0.464613 -0.182152 -0.524 182 133 116
0.465611 -0.182152 -0.524 180 131 114
0.46661 -0.182152 -0.524 179 130 113
0.4685 -0.1825 -0.525 180 131 114
0.470394 -0.182848 -0.526 174 128 113
0.471396 -0.182848 -0.526 170 124 109
0.472398 -0.182848 -0.526 166 122 109
0.4743 -0.183195 -0.527 166 122 109
0.476206 -0.183543 -0.528 164 120 107
0.479019 -0.184238 -0.53 160 116 103
0.48184 -0.184933 -0.532 157 115 103
0.482853 -0.184933 -0.532 157 115 103
0.484776 -0.185281 -0.533 158 116 104
0.486703 -0.185629 -0.534 156 116 106
-0.270524 -0.22719 -0.65 253 254 246
-0.269286 -0.22719 -0.65 252 253 245
-0.140235 -0.224744 -0.643 214 216 205
-0.13793 -0.222996 -0.638 199 201 190
-0.136286 -0.222297 -0.636 189 190 174
-0.13465 -0.221598 -0.634 187 188 172
-0.133442 -0.221598 -0.634 190 192 171
-0.132443 -0.221948 -0.635 191 193 172
-0.131233 -0.221948 -0.635 192 194 173
-0.130229 -0.222297 -0.636 193 195 174
-0.12922 -0.222647 -0.637 194 195 177
-0.128208 -0.222996 -0.638 194 195 177
-0.12739 -0.223695 -0.64 196 195 177
-0.126369 -0.224045 -0.641 197 196 178
-0.125343 -0.224394 -0.642 194 195 179
-0.124507 -0.225093 -0.644 193 194 178
-0.123471 -0.225443 -0.645 195 194 176
-0.122432 -0.225792 -0.646 194 193 175
-0.121577 -0.226491 -0.648 192 191 173
-0.120529 -0.226841 -0.649 190 189 171
-0.119476 -0.22719 -0.65 189 188 170
-0.052619 -0.22719 -0.65 140 139 134
-0.0511438 -0.226142 -0.647 95 94 92
-0.04968 -0.225093 -0.644 64 63 61
-0.0483029 -0.224394 -0.642 69 69 79
-0.0469333 -0.223695 -0.64 68 68 78
-0.0455 -0.222647 -0.637 71 71 83
-0.0440781 -0.221598 -0.634 66 66 78
-0.0428029 -0.221249 -0.633 62 62 74
-0.0414657 -0.22055 -0.631 62 62 74
-0.0400724 -0.219501 -0.628 60 60 72
-0.0388143 -0.219151 -0.627 66 66 76
-0.03756 -0.218802 -0.626 66 66 76
-0.0364257 -0.219151 -0.627 64 67 76
-0.0352314 -0.219151 -0.627 64 67 76
-0.0340371 -0.219151 -0.627 65 68 75
-0.0328429 -0.219151 -0.627 65 68 75
-0.031699 -0.219501 -0.628 65 68 75
-0.0305514 -0.21985 -0.629 65 68 75
-0.0294 -0.2202 -0.63 66 69 78
-0.0282895 -0.220899 -0.632 66 69 78
-0.0271286 -0.221249 -0.633 67 70 79
-0.0260048 -0.221948 -0.635 67 70 79
-0.0248343 -0.222297 -0.636 70 70 80
-0.0236971 -0.222996 -0.638 70 70 80
-0.0225524 -0.223695 -0.64 69 72 81
-0.0214 -0.224394 -0.642 69 72 81
-0.0202086 -0.224744 -0.643 70 70 80
-0.0190429 -0.225443 -0.645 71 71 81
-0.0178419 -0.225792 -0.646 71 71 81
-0.0166629 -0.226491 -0.648 72 72 82
-0.0154524 -0.226841 -0.649 74 74 84
-0.0142381 -0.22719 -0.65 75 75 85
0.456843 -0.197481 -0.565 169 129 121
0.452246 -0.195034 -0.558 173 133 125
0.447622 -0.192588 -0.551 181 135 122
0.445414 -0.19119 -0.547 183 137 124
0.443191 -0.189791 -0.543 184 137 121
0.44259 -0.189092 -0.541 188 141 125
0.44198 -0.188393 -0.539 193 144 127
0.441363 -0.187694 -0.537 193 144 127
0.440738 -0.186995 -0.535 194 145 130
0.440931 -0.186646 -0.534 196 147 132
0.441949 -0.186646 -0.534 196 147 132
0.442136 -0.186296 -0.533 197 148 133
0.441489 -0.185597 -0.531 198 149 132
0.441667 -0.185248 -0.53 196 147 130
0.442676 -0.185248 -0.53 192 143 128
0.442849 -0.184898 -0.529 185 136 121
0.443856 -0.184898 -0.529 186 137 122
0.444023 -0.184549 -0.528 188 139 124
0.444186 -0.184199 -0.527 195 146 129
0.44519 -0.184199 -0.527 198 149 132
0.446193 -0.184199 -0.527 198 149 132
0.446349 -0.18385 -0.526 201 152 135
0.44735 -0.18385 -0.526 199 150 133
0.448352 -0.18385 -0.526 200 151 136
0.4485 -0.1835 -0.525 203 154 139
0.4495 -0.1835 -0.525 198 149 134
0.449642 -0.18315 -0.524 195 146 131
0.45064 -0.18315 -0.524 185 136 121
0.451638 -0.18315 -0.524 187 138 123
0.452636 -0.18315 -0.524 192 143 128
0.453634 -0.18315 -0.524 193 144 129
0.454632 -0.18315 -0.524 194 145 130
0.454761 -0.182801 -0.523 194 145 130
0.455757 -0.182801 -0.523 194 145 128
0.456753 -0.182801 -0.523 191 142 125
0.45775 -0.182801 -0.523 189 140 123
0.458746 -0.182801 -0.523 189 140 123
0.458863 -0.182451 -0.522 189 140 123
0.460738 -0.182801 -0.523 187 138 121
0.461734 -0.182801 -0.523 185 136 119
0.46273 -0.182801 -0.523 184 135 118
0.463727 -0.182801 -0.523 183 134 117
0.464723 -0.182801 -0.523 182 133 116
0.46661 -0.18315 -0.524 181 132 115
0.467608 -0.18315 -0.524 180 131 114
0.4695 -0.1835 -0.525 174 128 112
0.4705 -0.1835 -0.525 171 125 109
0.472398 -0.18385 -0.526 166 123 106
0.4734 -0.18385 -0.526 167 124 107
0.476206 -0.184549 -0.528 165 122 106
0.478115 -0.184898 -0.529 161 118 102
0.480029 -0.185248 -0.53 158 114 101
0.481038 -0.185248 -0.53 158 114 101
0.483867 -0.185947 -0.532 159 115 102
0.485791 -0.186296 -0.533 157 115 103
0.488633 -0.186995 -0.535 157 115 103
-0.141108 -0.227374 -0.647 233 236 227
-0.138362 -0.224914 -0.64 216 219 210
-0.136714 -0.224211 -0.638 200 201 187
-0.135074 -0.223509 -0.636 191 192 178
-0.133442 -0.222806 -0.634 191 193 172
-0.132234 -0.222806 -0.634 192 194 173
-0.131233 -0.223157 -0.635 193 195 174
-0.130024 -0.223157 -0.635 195 197 176
-0.129017 -0.223509 -0.636 198 197 179
-0.128007 -0.22386 -0.637 198 197 179
-0.126992 -0.224211 -0.638 198 197 179
-0.126171 -0.224914 -0.64 198 197 179
-0.125148 -0.225266 -0.641 194 195 179
-0.12412 -0.225617 -0.642 194 195 179
-0.12328 -0.22632 -0.644 196 195 177
-0.122243 -0.226671 -0.645 195 194 176
-0.12139 -0.227374 -0.647 192 191 173
-0.120343 -0.227726 -0.648 191 190 172
-0.119292 -0.228077 -0.649 191 190 172
-0.118238 -0.228429 -0.65 194 193 175
-0.0550105 -0.228077 -0.649 158 159 153
-0.0536086 -0.227374 -0.647 108 108 110
-0.0522143 -0.226671 -0.645 68 68 70
-0.0507486 -0.225617 -0.642 66 65 71
-0.0492943 -0.224563 -0.639 65 64 70
-0.0478514 -0.223509 -0.636 70 69 83
-0.0464933 -0.222806 -0.634 67 66 80
-0.0451429 -0.222103 -0.632 65 64 78
-0.0437305 -0.221049 -0.629 63 62 76
-0.0425324 -0.221049 -0.629 60 60 72
-0.0412686 -0.220697 -0.628 59 59 71
-0.0399448 -0.219994 -0.626 63 63 73
-0.0386905 -0.219643 -0.625 64 67 76
-0.0375 -0.219643 -0.625 64 67 76
-0.0363095 -0.219643 -0.625 64 67 76
-0.0351752 -0.219994 -0.626 64 67 76
-0.0339829 -0.219994 -0.626 65 68 75
-0.0328429 -0.220346 -0.627 65 68 75
-0.031699 -0.220697 -0.628 65 68 75
-0.0305514 -0.221049 -0.629 65 68 75
-0.0294 -0.2214 -0.63 66 69 78
-0.0282895 -0.222103 -0.632 66 69 78
-0.0271714 -0.222806 -0.634 68 68 78
-0.0260457 -0.223509 -0.636 69 69 79
-0.0248733 -0.22386 -0.637 70 70 80
-0.0237343 -0.224563 -0.639 70 70 80
-0.0225524 -0.224914 -0.64 71 71 81
-0.0214 -0.225617 -0.642 71 71 81
-0.0202086 -0.225969 -0.643 70 70 80
-0.0190429 -0.226671 -0.645 71 71 81
-0.0178419 -0.227023 -0.646 71 71 81
-0.0166629 -0.227726 -0.648 72 72 82
-0.0154524 -0.228077 -0.649 75 73 86
-0.0142381 -0.228429 -0.65 75 73 86
0.453867 -0.1968 -0.56 171 132 125
0.449247 -0.19434 -0.553 178 136 124
0.447043 -0.192934 -0.549 179 137 125
0.444008 -0.191177 -0.544 182 136 121
0.44259 -0.190123 -0.541 188 142 127
0.44198 -0.18942 -0.539 192 145 129
0.442185 -0.189069 -0.538 189 142 126
0.441562 -0.188366 -0.536 189 142 126
0.441757 -0.188014 -0.535 192 145 129
0.441949 -0.187663 -0.534 192 146 130
0.442136 -0.187311 -0.533 196 150 134
0.441489 -0.186609 -0.531 198 149 134
0.441667 -0.186257 -0.53 194 145 130
0.441841 -0.185906 -0.529 189 140 125
0.442849 -0.185906 -0.529 181 132 117
0.443017 -0.185554 -0.528 181 132 117
0.444023 -0.185554 -0.528 183 134 119
0.444186 -0.185203 -0.527 192 143 126
0.444345 -0.184851 -0.526 197 148 131
0.445347 -0.184851 -0.526 197 148 131
0.446349 -0.184851 -0.526 199 150 133
0.44735 -0.184851 -0.526 199 150 133
0.448352 -0.184851 -0.526 199 150 135
0.4485 -0.1845 -0.525 194 145 130
0.4495 -0.1845 -0.525 185 133 119
0.449642 -0.184149 -0.524 179 127 113
0.45064 -0.184149 -0.524 179 128 111
0.451638 -0.184149 -0.524 189 138 121
0.452636 -0.184149 -0.524 191 142 125
0.453634 -0.184149 -0.524 193 144 127
0.454632 -0.184149 -0.524 194 145 128
0.454761 -0.183797 -0.523 194 145 128
0.455757 -0.183797 -0.523 194 145 128
0.456753 -0.183797 -0.523 191 142 125
0.45775 -0.183797 -0.523 190 141 124
0.458746 -0.183797 -0.523 191 142 125
0.458863 -0.183446 -0.522 192 143 126
0.459857 -0.183446 -0.522 188 139 122
0.461734 -0.183797 -0.523 185 136 119
0.46273 -0.183797 -0.523 184 135 118
0.463727 -0.183797 -0.523 184 135 118
0.464723 -0.183797 -0.523 183 134 117
0.465719 -0.183797 -0.523 182 133 116
0.467608 -0.184149 -0.524 181 132 115
0.468606 -0.184149 -0.524 175 130 111
0.4705 -0.1845 -0.525 172 127 108
0.4715 -0.1845 -0.525 170 125 106
0.4725 -0.1845 -0.525 169 124 105
0.475304 -0.185203 -0.527 165 122 105
0.477211 -0.185554 -0.528 161 118 101
0.479123 -0.185906 -0.529 160 117 101
0.481038 -0.186257 -0.53 161 118 102
0.482048 -0.186257 -0.53 161 118 102
0.483969 -0.186609 -0.531 159 117 103
0.486807 -0.187311 -0.533 159 117 103
0.490568 -0.188366 -0.536 157 118 103
-0.139443 -0.2279 -0.645 233 236 227
-0.136714 -0.225427 -0.638 221 223 210
-0.135074 -0.22472 -0.636 203 205 192
-0.133442 -0.224013 -0.634 197 199 185
-0.132026 -0.22366 -0.633 191 193 179
-0.13082 -0.22366 -0.633 192 193 177
-0.129819 -0.224013 -0.634 198 199 183
-0.128611 -0.224013 -0.634 201 202 184
-0.127806 -0.22472 -0.636 199 200 182
-0.126793 -0.225073 -0.637 199 198 178
-0.125777 -0.225427 -0.638 201 200 180
-0.124757 -0.22578 -0.639 197 195 182
-0.123733 -0.226133 -0.64 196 194 181
-0.122897 -0.22684 -0.642 196 194 179
-0.121864 -0.227193 -0.643 195 193 178
-0.121014 -0.2279 -0.645 191 190 170
-0.120157 -0.228607 -0.647 189 186 167
-0.119109 -0.22896 -0.648 192 189 170
-0.118056 -0.229313 -0.649 199 196 177
-0.117 -0.229667 -0.65 213 210 191
-0.115762 -0.229667 -0.65 216 214 191
-0.0588095 -0.229667 -0.65 198 199 191
-0.0573943 -0.22896 -0.648 164 165 157
-0.0560733 -0.228607 -0.647 118 118 118
-0.0546714 -0.2279 -0.645 75 75 75
-0.0531943 -0.22684 -0.642 67 67 75
-0.0518095 -0.226133 -0.64 62 62 70
-0.0503533 -0.225073 -0.637 63 63 75
-0.0489086 -0.224013 -0.634 62 62 74
-0.0475505 -0.223307 -0.632 66 65 81
-0.0462 -0.2226 -0.63 66 65 81
-0.0448571 -0.221893 -0.628 63 62 76
-0.0435914 -0.22154 -0.627 62 61 75
-0.0423295 -0.221187 -0.626 59 59 69
-0.0411371 -0.221187 -0.626 60 60 70
-0.039881 -0.220833 -0.625 57 60 69
-0.0386286 -0.22048 -0.624 63 66 75
-0.03744 -0.22048 -0.624 63 66 75
-0.0363095 -0.220833 -0.625 63 66 75
-0.0351752 -0.221187 -0.626 64 67 76
-0.0339829 -0.221187 -0.626 65 68 77
-0.0328952 -0.221893 -0.628 65 68 77
-0.0317495 -0.222247 -0.629 65 68 75
-0.0306 -0.2226 -0.63 65 68 75
-0.0294467 -0.222953 -0.631 68 68 78
-0.0282895 -0.223307 -0.632 68 68 78
-0.0271714 -0.224013 -0.634 68 68 78
-0.0260457 -0.22472 -0.636 69 69 79
-0.0249124 -0.225427 -0.638 70 68 79
-0.0237343 -0.22578 -0.639 71 69 80
-0.0225876 -0.226487 -0.641 70 70 80
-0.0214 -0.22684 -0.642 70 70 80
-0.02024 -0.227547 -0.644 71 71 83
-0.0190429 -0.2279 -0.645 71 71 83
-0.0178419 -0.228253 -0.646 73 71 84
-0.0166371 -0.228607 -0.647 73 71 84
-0.0154524 -0.229313 -0.649 75 73 86
-0.0142381 -0.229667 -0.65 75 73 86
0.457109 -0.19928 -0.564 168 130 127
0.451684 -0.196453 -0.556 174 134 126
0.447857 -0.194333 -0.55 176 136 128
0.44564 -0.19292 -0.546 179 137 125
0.444226 -0.19186 -0.543 184 142 130
0.4428 -0.1908 -0.54 190 144 131
0.442185 -0.190093 -0.538 186 140 127
0.441562 -0.189387 -0.536 186 140 125
0.441757 -0.189033 -0.535 190 144 129
0.441949 -0.18868 -0.534 191 147 134
0.441307 -0.187973 -0.532 193 149 136
0.441489 -0.18762 -0.531 200 151 136
0.441667 -0.187267 -0.53 197 148 133
0.441841 -0.186913 -0.529 191 142 128
0.442011 -0.18656 -0.528 182 133 119
0.443017 -0.18656 -0.528 185 136 122
0.444023 -0.18656 -0.528 189 140 126
0.444186 -0.186207 -0.527 196 147 132
0.444345 -0.185853 -0.526 200 151 136
0.445347 -0.185853 -0.526 200 151 136
0.4455 -0.1855 -0.525 199 150 135
0.4465 -0.1855 -0.525 199 150 135
0.4475 -0.1855 -0.525 198 149 134
0.4485 -0.1855 -0.525 192 143 128
0.4495 -0.1855 -0.525 190 141 126
0.449642 -0.185147 -0.524 187 138 123
0.45064 -0.185147 -0.524 191 142 125
0.451638 -0.185147 -0.524 195 146 129
0.451772 -0.184793 -0.523 194 143 126
0.452769 -0.184793 -0.523 193 142 125
0.453765 -0.184793 -0.523 193 142 125
0.454761 -0.184793 -0.523 193 142 125
0.455757 -0.184793 -0.523 191 140 123
0.45588 -0.18444 -0.522 189 138 121
0.456874 -0.18444 -0.522 190 139 122
0.457869 -0.18444 -0.522 192 141 124
0.458863 -0.18444 -0.522 194 142 128
0.459857 -0.18444 -0.522 191 139 125
0.460851 -0.18444 -0.522 187 135 121
0.461846 -0.18444 -0.522 185 133 119
0.46284 -0.18444 -0.522 184 135 120
0.463834 -0.18444 -0.522 184 135 120
0.465719 -0.184793 -0.523 184 135 120
0.466715 -0.184793 -0.523 183 134 119
0.467711 -0.184793 -0.523 179 132 114
0.469604 -0.185147 -0.524 177 130 112
0.470602 -0.185147 -0.524 172 127 108
0.4725 -0.1855 -0.525 168 123 104
0.474402 -0.185853 -0.526 164 121 102
0.476308 -0.186207 -0.527 161 118 99
0.478217 -0.18656 -0.528 161 118 102
0.48013 -0.186913 -0.529 164 121 105
0.481138 -0.186913 -0.529 164 121 105
0.483057 -0.187267 -0.53 163 119 106
0.485893 -0.187973 -0.532 161 117 104
0.489652 -0.189033 -0.535 158 119 104
0.493423 -0.190093 -0.538 152 113 98
-0.138 -0.228773 -0.644 238 240 229
-0.135074 -0.225931 -0.636 225 227 216
-0.133442 -0.225221 -0.634 209 211 197
-0.132026 -0.224866 -0.633 202 204 190
-0.130613 -0.22451 -0.632 198 199 183
-0.12941 -0.22451 -0.632 195 196 180
-0.128409 -0.224866 -0.633 195 196 178
-0.127404 -0.225221 -0.634 198 199 181
-0.126395 -0.225576 -0.635 200 201 183
-0.125383 -0.225931 -0.636 199 200 182
-0.124367 -0.226287 -0.637 198 196 183
-0.12354 -0.226997 -0.639 198 196 183
-0.122514 -0.227352 -0.64 197 196 178
-0.121485 -0.227708 -0.641 195 194 176
-0.120451 -0.228063 -0.642 194 193 173
-0.119786 -0.229129 -0.645 190 189 169
-0.118741 -0.229484 -0.646 192 191 171
-0.117692 -0.229839 -0.647 204 203 182
-0.11664 -0.230194 -0.648 214 213 192
-0.115584 -0.23055 -0.649 216 214 191
-0.114524 -0.230905 -0.65 214 212 189
-0.0625238 -0.230905 -0.65 218 219 201
-0.0611914 -0.23055 -0.649 207 209 198
-0.0597705 -0.229839 -0.647 180 182 171
-0.0582667 -0.228773 -0.644 127 127 127
-0.0569514 -0.228418 -0.643 86 86 86
-0.0555533 -0.227708 -0.641 70 71 76
-0.0540781 -0.226642 -0.638 72 73 78
-0.0526971 -0.225931 -0.636 68 68 80
-0.0513238 -0.225221 -0.634 68 68 80
-0.0500371 -0.224866 -0.633 67 69 81
-0.0486 -0.2238 -0.63 66 68 80
-0.0472495 -0.22309 -0.628 67 67 77
-0.04598 -0.222734 -0.627 66 66 76
-0.0447143 -0.222379 -0.626 66 66 76
-0.0434524 -0.222024 -0.625 67 67 77
-0.0421943 -0.221669 -0.624 66 66 76
-0.0410057 -0.221669 -0.624 66 66 76
-0.0398171 -0.221669 -0.624 66 66 74
-0.0386286 -0.221669 -0.624 66 66 74
-0.03744 -0.221669 -0.624 65 65 73
-0.0363095 -0.222024 -0.625 65 65 73
-0.0351752 -0.222379 -0.626 66 66 74
-0.0339829 -0.222379 -0.626 67 67 75
-0.0328952 -0.22309 -0.628 67 67 75
-0.0318 -0.2238 -0.63 67 67 75
-0.0306486 -0.224155 -0.631 67 67 75
-0.0294933 -0.22451 -0.632 67 67 75
-0.028379 -0.225221 -0.634 67 67 75
-0.0272143 -0.225576 -0.635 68 68 76
-0.0260867 -0.226287 -0.637 68 68 76
-0.0249124 -0.226642 -0.638 68 68 78
-0.0237714 -0.227352 -0.64 69 69 79
-0.0225876 -0.227708 -0.641 70 70 80
-0.0214 -0.228063 -0.642 69 69 79
-0.02024 -0.228773 -0.644 70 70 80
-0.0190429 -0.229129 -0.645 70 70 80
-0.0178695 -0.229839 -0.647 73 71 82
-0.0166629 -0.230194 -0.648 74 72 83
-0.0154524 -0.23055 -0.649 74 72 85
-0.0142381 -0.230905 -0.65 75 73 86
0.46035 -0.201775 -0.568 167 129 128
0.453309 -0.198223 -0.558 171 130 124
0.449486 -0.196091 -0.552 175 134 128
0.446456 -0.194315 -0.547 177 134 125
0.445044 -0.19325 -0.544 182 139 130
0.4428 -0.191829 -0.54 188 142 129
0.442185 -0.191118 -0.538 185 139 126
0.442386 -0.190763 -0.537 186 140 127
0.441757 -0.190052 -0.535 192 146 133
0.441949 -0.189697 -0.534 192 148 135
0.442136 -0.189342 -0.533 192 148 135
0.44232 -0.188987 -0.532 196 148 134
0.441667 -0.188276 -0.53 197 149 135
0.441841 -0.187921 -0.529 194 145 131
0.442849 -0.187921 -0.529 186 137 123
0.443017 -0.187566 -0.528 192 143 129
0.443182 -0.18721 -0.527 197 148 134
0.444186 -0.18721 -0.527 200 151 136
0.444345 -0.186855 -0.526 199 150 135
0.445347 -0.186855 -0.526 199 150 135
0.4455 -0.1865 -0.525 197 148 133
0.4465 -0.1865 -0.525 199 150 135
0.4475 -0.1865 -0.525 198 149 134
0.4485 -0.1865 -0.525 191 142 127
0.448644 -0.186145 -0.524 194 145 130
0.449642 -0.186145 -0.524 193 144 129
0.45064 -0.186145 -0.524 196 147 130
0.450776 -0.18579 -0.523 193 144 127
0.451772 -0.18579 -0.523 197 144 128
0.451903 -0.185434 -0.522 194 141 125
0.452897 -0.185434 -0.522 193 140 124
0.453891 -0.185434 -0.522 192 139 123
0.454886 -0.185434 -0.522 189 136 120
0.45588 -0.185434 -0.522 187 134 118
0.455999 -0.185079 -0.521 188 136 122
0.456991 -0.185079 -0.521 191 139 125
0.457984 -0.185079 -0.521 190 138 124
0.459857 -0.185434 -0.522 191 139 125
0.460851 -0.185434 -0.522 188 136 123
0.461846 -0.185434 -0.522 186 134 121
0.46284 -0.185434 -0.522 187 135 122
0.463834 -0.185434 -0.522 187 135 122
0.464829 -0.185434 -0.522 184 135 121
0.465823 -0.185434 -0.522 185 136 122
0.467711 -0.18579 -0.523 182 135 117
0.468708 -0.18579 -0.523 179 132 114
0.469704 -0.18579 -0.523 173 128 107
0.4716 -0.186145 -0.524 169 124 103
0.4735 -0.1865 -0.525 164 121 102
0.475404 -0.186855 -0.526 162 119 100
0.476406 -0.186855 -0.526 161 118 102
0.478315 -0.18721 -0.527 163 120 104
0.479319 -0.18721 -0.527 163 120 104
0.481234 -0.187566 -0.528 164 120 107
0.484067 -0.188276 -0.53 161 117 104
0.486907 -0.188987 -0.532 157 118 103
0.490671 -0.190052 -0.535 153 114 99
-0.139071 -0.231786 -0.649 247 249 238
-0.136349 -0.229286 -0.642 238 240 229
-0.133652 -0.226786 -0.635 234 236 223
-0.132026 -0.226071 -0.633 221 223 210
-0.13082 -0.226071 -0.633 209 211 197
-0.12941 -0.225714 -0.632 200 202 188
-0.128003 -0.225357 -0.631 196 197 181
-0.127002 -0.225714 -0.632 197 198 182
-0.125997 -0.226071 -0.633 199 200 184
-0.124989 -0.226429 -0.634 197 198 182
-0.123976 -0.226786 -0.635 197 198 184
-0.12296 -0.227143 -0.636 197 198 184
-0.122131 -0.227857 -0.638 197 198 182
-0.121106 -0.228214 -0.639 195 196 180
-0.120076 -0.228571 -0.64 195 196 178
-0.119414 -0.229643 -0.643 196 195 177
-0.118373 -0.23 -0.644 196 195 177
-0.117329 -0.230357 -0.645 210 209 188
-0.11628 -0.230714 -0.646 217 216 195
-0.115228 -0.231071 -0.647 218 218 194
-0.114171 -0.231429 -0.648 217 217 193
-0.113111 -0.231786 -0.649 219 219 193
-0.111875 -0.231786 -0.649 219 219 193
-0.11081 -0.232143 -0.65 220 218 193
-0.0662381 -0.232143 -0.65 237 240 223
-0.0649 -0.231786 -0.649 216 219 202
-0.0634676 -0.231071 -0.647 204 206 193
-0.0621391 -0.230714 -0.646 175 177 164
-0.0608143 -0.230357 -0.645 127 128 123
-0.059401 -0.229643 -0.643 84 85 80
-0.0579048 -0.228571 -0.64 66 67 69
-0.05642 -0.2275 -0.637 67 68 70
-0.0550333 -0.226786 -0.635 77 77 85
-0.0535695 -0.225714 -0.632 75 75 83
-0.0522 -0.225 -0.63 65 65 77
-0.0508381 -0.224286 -0.628 65 65 77
-0.0495629 -0.223929 -0.627 65 67 80
-0.0482143 -0.223214 -0.625 63 65 78
-0.0469486 -0.222857 -0.624 67 67 75
-0.04576 -0.222857 -0.624 67 67 75
-0.0445 -0.2225 -0.623 67 67 75
-0.0433133 -0.2225 -0.623 67 67 75
-0.042059 -0.222143 -0.622 67 67 75
-0.0408743 -0.222143 -0.622 66 66 74
-0.0396895 -0.222143 -0.622 66 66 74
-0.0385048 -0.222143 -0.622 67 67 75
-0.03738 -0.2225 -0.623 67 67 75
-0.0362514 -0.222857 -0.624 67 67 75
-0.0351752 -0.223571 -0.626 67 67 75
-0.0340371 -0.223929 -0.627 67 67 75
-0.0328952 -0.224286 -0.628 67 67 75
-0.0318 -0.225 -0.63 68 68 76
-0.0306971 -0.225714 -0.632 68 68 76
-0.02954 -0.226071 -0.633 69 69 79
-0.0284238 -0.226786 -0.635 69 69 79
-0.0272571 -0.227143 -0.636 69 69 79
-0.0261276 -0.227857 -0.638 68 68 78
-0.0249514 -0.228214 -0.639 68 68 78
-0.0237714 -0.228571 -0.64 68 68 78
-0.0225876 -0.228929 -0.641 68 68 78
-0.0214333 -0.229643 -0.643 68 68 78
-0.02024 -0.23 -0.644 69 69 79
-0.0190724 -0.230714 -0.646 70 70 80
-0.0178695 -0.231071 -0.647 71 71 83
-0.0166629 -0.231429 -0.648 72 72 84
-0.0154524 -0.231786 -0.649 74 72 85
-0.0142381 -0.232143 -0.65 75 73 86
0.464403 -0.204643 -0.573 170 132 129
0.456558 -0.200714 -0.562 169 128 126
0.451114 -0.197857 -0.554 173 132 130
0.448089 -0.196071 -0.549 180 135 130
0.445862 -0.194643 -0.545 179 134 129
0.44362 -0.193214 -0.541 188 138 129
0.443007 -0.1925 -0.539 188 138 129
0.442386 -0.191786 -0.537 188 140 126
0.441757 -0.191071 -0.535 192 144 130
0.441949 -0.190714 -0.534 189 145 132
0.442136 -0.190357 -0.533 191 147 134
0.44232 -0.19 -0.532 195 147 133
0.4425 -0.189643 -0.531 198 150 136
0.442676 -0.189286 -0.53 193 145 131
0.442849 -0.188929 -0.529 188 140 126
0.443017 -0.188571 -0.528 191 143 129
0.443182 -0.188214 -0.527 196 148 134
0.444186 -0.188214 -0.527 200 151 137
0.444345 -0.187857 -0.526 202 153 139
0.445347 -0.187857 -0.526 202 153 139
0.4455 -0.1875 -0.525 200 151 137
0.4465 -0.1875 -0.525 200 151 137
0.446648 -0.187143 -0.524 199 147 134
0.447646 -0.187143 -0.524 195 143 130
0.448644 -0.187143 -0.524 196 144 131
0.448784 -0.186786 -0.523 197 145 132
0.44978 -0.186786 -0.523 196 144 131
0.450776 -0.186786 -0.523 198 146 133
0.450909 -0.186429 -0.522 195 143 130
0.451903 -0.186429 -0.522 193 141 128
0.45203 -0.186071 -0.521 190 138 125
0.453891 -0.186429 -0.522 191 139 126
0.454886 -0.186429 -0.522 188 136 123
0.455007 -0.186071 -0.521 183 131 118
0.455999 -0.186071 -0.521 187 135 121
0.456991 -0.186071 -0.521 190 138 124
0.457984 -0.186071 -0.521 193 141 127
0.458976 -0.186071 -0.521 190 138 124
0.459969 -0.186071 -0.521 186 135 118
0.460961 -0.186071 -0.521 184 133 116
0.461953 -0.186071 -0.521 186 135 118
0.462946 -0.186071 -0.521 186 135 118
0.464829 -0.186429 -0.522 184 133 116
0.465823 -0.186429 -0.522 183 132 115
0.466817 -0.186429 -0.522 179 132 112
0.467811 -0.186429 -0.522 181 134 114
0.468806 -0.186429 -0.522 177 130 110
0.4707 -0.186786 -0.523 167 120 100
0.472598 -0.187143 -0.524 163 116 98
0.473596 -0.187143 -0.524 166 119 101
0.4755 -0.1875 -0.525 166 120 104
0.477408 -0.187857 -0.526 165 119 103
0.47841 -0.187857 -0.526 165 119 103
0.480323 -0.188214 -0.527 161 118 102
0.48224 -0.188571 -0.528 162 119 103
0.485076 -0.189286 -0.53 161 119 105
0.488837 -0.190357 -0.533 155 113 99
-0.137623 -0.232663 -0.648 238 239 231
-0.134915 -0.23015 -0.641 240 242 231
-0.132443 -0.227995 -0.635 236 238 227
-0.130613 -0.226918 -0.632 231 233 220
-0.12941 -0.226918 -0.632 223 225 212
-0.128003 -0.226559 -0.631 210 212 198
-0.1266 -0.2262 -0.63 200 202 188
-0.125599 -0.226559 -0.631 197 199 185
-0.124594 -0.226918 -0.632 198 200 186
-0.123586 -0.227277 -0.633 200 201 187
-0.122573 -0.227636 -0.634 198 199 185
-0.121557 -0.227995 -0.635 197 198 184
-0.120537 -0.228354 -0.636 196 197 183
-0.119701 -0.229072 -0.638 197 198 182
-0.118857 -0.22979 -0.64 195 194 176
-0.117822 -0.23015 -0.641 198 197 179
-0.116783 -0.230509 -0.642 210 209 189
-0.11574 -0.230868 -0.643 216 215 195
-0.114871 -0.231586 -0.645 217 217 193
-0.113643 -0.231586 -0.645 218 218 194
-0.112589 -0.231945 -0.646 220 220 196
-0.11153 -0.232304 -0.647 220 220 196
-0.110469 -0.232663 -0.648 220 220 196
-0.109403 -0.233022 -0.649 221 221 197
-0.108167 -0.233022 -0.649 219 219 193
-0.107095 -0.233381 -0.65 219 219 193
-0.105857 -0.233381 -0.65 219 219 193
-0.0724286 -0.233381 -0.65 247 246 226
-0.071081 -0.233022 -0.649 247 246 226
-0.0697371 -0.232663 -0.648 241 240 220
-0.0683971 -0.232304 -0.647 231 234 223
-0.067061 -0.231945 -0.646 215 218 207
-0.0657286 -0.231586 -0.645 200 203 194
-0.0644 -0.231227 -0.644 170 173 164
-0.0629771 -0.230509 -0.642 120 122 117
-0.0615619 -0.22979 -0.64 76 78 73
-0.0602486 -0.229431 -0.639 76 78 77
-0.0588467 -0.228713 -0.637 77 79 78
-0.0574524 -0.227995 -0.635 73 74 78
-0.0559771 -0.226918 -0.632 70 71 75
-0.0546867 -0.226559 -0.631 69 69 77
-0.0532305 -0.225482 -0.628 69 69 77
-0.0518686 -0.224764 -0.626 70 70 82
-0.0506762 -0.224764 -0.626 70 70 82
-0.0494048 -0.224405 -0.625 70 69 83
-0.04806 -0.223687 -0.623 69 68 82
-0.0468733 -0.223687 -0.623 68 68 76
-0.0456867 -0.223687 -0.623 68 68 76
-0.0444286 -0.223328 -0.622 68 68 76
-0.0432438 -0.223328 -0.622 68 68 76
-0.042059 -0.223328 -0.622 68 68 76
-0.0408743 -0.223328 -0.622 68 68 76
-0.0396895 -0.223328 -0.622 68 68 76
-0.0385667 -0.223687 -0.623 68 68 76
-0.03744 -0.224046 -0.624 67 67 75
-0.0363676 -0.224764 -0.626 68 68 76
-0.0352314 -0.225123 -0.627 68 68 76
-0.0340914 -0.225482 -0.628 68 68 76
-0.0329476 -0.225841 -0.629 68 68 76
-0.0318505 -0.226559 -0.631 69 69 77
-0.0306971 -0.226918 -0.632 69 69 77
-0.0295867 -0.227636 -0.634 69 69 79
-0.0284238 -0.227995 -0.635 70 70 80
-0.0273 -0.228713 -0.637 69 69 79
-0.0261276 -0.229072 -0.638 68 68 78
-0.0249905 -0.22979 -0.64 69 69 79
-0.0238086 -0.23015 -0.641 68 68 78
-0.0226229 -0.230509 -0.642 67 67 77
-0.0214333 -0.230868 -0.643 68 68 78
-0.0202714 -0.231586 -0.645 70 70 82
-0.0190724 -0.231945 -0.646 71 71 83
-0.0178695 -0.232304 -0.647 71 71 83
-0.0166629 -0.232663 -0.648 72 72 84
-0.0154524 -0.233022 -0.649 74 72 85
-0.0142381 -0.233381 -0.65 75 73 86
0.453557 -0.19999 -0.557 176 136 134
0.449721 -0.197835 -0.551 178 135 129
0.44668 -0.19604 -0.546 178 135 129
0.44444 -0.194604 -0.542 186 138 128
0.443829 -0.193886 -0.54 187 139 129
0.44321 -0.193168 -0.538 188 140 126
0.442583 -0.19245 -0.536 191 143 129
0.441949 -0.191731 -0.534 189 145 132
0.441307 -0.191013 -0.532 192 148 135
0.44232 -0.191013 -0.532 193 145 131
0.4425 -0.190654 -0.531 197 149 135
0.442676 -0.190295 -0.53 193 145 131
0.442849 -0.189936 -0.529 189 141 127
0.443017 -0.189577 -0.528 192 144 130
0.444023 -0.189577 -0.528 196 148 134
0.444186 -0.189218 -0.527 198 150 136
0.444345 -0.188859 -0.526 201 153 139
0.445347 -0.188859 -0.526 201 153 139
0.4455 -0.1885 -0.525 200 151 137
0.4465 -0.1885 -0.525 200 151 137
0.446648 -0.188141 -0.524 200 151 137
0.447646 -0.188141 -0.524 196 147 133
0.447788 -0.187782 -0.523 195 146 132
0.448784 -0.187782 -0.523 196 147 133
0.44978 -0.187782 -0.523 193 144 130
0.449914 -0.187423 -0.522 193 144 130
0.450909 -0.187423 -0.522 197 145 131
0.451903 -0.187423 -0.522 193 141 127
0.45203 -0.187064 -0.521 190 138 124
0.453022 -0.187064 -0.521 191 139 125
0.454014 -0.187064 -0.521 190 138 124
0.455007 -0.187064 -0.521 188 136 122
0.455999 -0.187064 -0.521 192 141 124
0.456114 -0.186705 -0.52 194 143 126
0.457105 -0.186705 -0.52 194 143 126
0.458095 -0.186705 -0.52 188 137 120
0.459969 -0.187064 -0.521 184 133 116
0.460961 -0.187064 -0.521 184 133 116
0.461953 -0.187064 -0.521 186 135 118
0.462946 -0.187064 -0.521 187 136 119
0.463938 -0.187064 -0.521 185 134 117
0.464931 -0.187064 -0.521 182 131 114
0.466817 -0.187423 -0.522 179 132 112
0.467811 -0.187423 -0.522 181 134 114
0.468806 -0.187423 -0.522 177 130 110
0.4698 -0.187423 -0.522 169 122 102
0.471696 -0.187782 -0.523 166 121 102
0.472692 -0.187782 -0.523 168 123 104
0.474594 -0.188141 -0.524 168 122 106
0.4765 -0.1885 -0.525 167 121 105
0.4775 -0.1885 -0.525 167 121 105
0.4785 -0.1885 -0.525 162 119 103
0.481327 -0.189218 -0.527 161 118 102
0.484161 -0.189936 -0.529 159 117 101
0.487003 -0.190654 -0.531 157 115 99
-0.136178 -0.233536 -0.647 229 230 222
-0.133694 -0.23137 -0.641 237 238 230
-0.131233 -0.229205 -0.635 243 245 234
-0.129205 -0.227761 -0.631 241 243 232
-0.1278 -0.2274 -0.63 235 237 226
-0.1266 -0.2274 -0.63 225 227 216
-0.125201 -0.227039 -0.629 214 216 205
-0.1242 -0.2274 -0.63 208 210 199
-0.123195 -0.227761 -0.631 208 209 193
-0.122187 -0.228122 -0.632 203 204 188
-0.121174 -0.228483 -0.633 198 199 185
-0.120158 -0.228844 -0.634 197 198 184
-0.119138 -0.229205 -0.635 199 200 186
-0.118486 -0.230288 -0.638 197 196 178
-0.117454 -0.230649 -0.639 206 205 187
-0.116419 -0.23101 -0.64 216 215 194
-0.11538 -0.23137 -0.641 220 219 198
-0.114337 -0.231731 -0.642 220 220 196
-0.11329 -0.232092 -0.643 220 220 196
-0.11224 -0.232453 -0.644 222 222 198
-0.111013 -0.232453 -0.644 221 221 197
-0.109957 -0.232814 -0.645 221 221 197
-0.108897 -0.233175 -0.646 222 222 198
-0.107833 -0.233536 -0.647 222 222 196
-0.106766 -0.233897 -0.648 222 222 196
-0.105531 -0.233897 -0.648 222 222 196
-0.104458 -0.234258 -0.649 222 222 196
-0.103222 -0.234258 -0.649 223 223 197
-0.102143 -0.234619 -0.65 223 223 197
-0.100905 -0.234619 -0.65 224 224 200
-0.0996667 -0.234619 -0.65 225 225 201
-0.0773809 -0.234619 -0.65 242 241 223
-0.0760257 -0.234258 -0.649 242 240 225
-0.0746743 -0.233897 -0.648 244 242 227
-0.0733267 -0.233536 -0.647 238 239 225
-0.0719829 -0.233175 -0.646 232 233 219
-0.0706429 -0.232814 -0.645 223 223 211
-0.0693067 -0.232453 -0.644 209 209 197
-0.0679743 -0.232092 -0.643 190 192 187
-0.0665419 -0.23137 -0.641 156 158 153
-0.065219 -0.23101 -0.64 116 118 115
-0.0638 -0.230288 -0.638 78 80 77
-0.0623886 -0.229566 -0.636 71 72 74
-0.0609848 -0.228844 -0.634 72 73 75
-0.0596829 -0.228483 -0.633 69 70 72
-0.0582924 -0.227761 -0.631 70 71 73
-0.0569095 -0.227039 -0.629 67 68 72
-0.0555343 -0.226317 -0.627 71 72 76
-0.0542533 -0.225956 -0.626 70 71 76
-0.0529762 -0.225595 -0.625 69 70 75
-0.05162 -0.224873 -0.623 69 69 77
-0.0504333 -0.224873 -0.623 67 67 75
-0.0492467 -0.224873 -0.623 66 66 76
-0.0479829 -0.224512 -0.622 68 68 78
-0.0467981 -0.224512 -0.622 69 69 77
-0.0456133 -0.224512 -0.622 68 68 76
-0.0443571 -0.224151 -0.621 68 68 76
-0.0431743 -0.224151 -0.621 68 68 76
-0.042059 -0.224512 -0.622 68 68 76
-0.0408743 -0.224512 -0.622 68 68 76
-0.0396895 -0.224512 -0.622 68 68 76
-0.0386286 -0.225234 -0.624 68 68 76
-0.0375 -0.225595 -0.625 68 68 76
-0.0363095 -0.225595 -0.625 68 68 76
-0.0352876 -0.226678 -0.628 68 68 76
-0.0341457 -0.227039 -0.629 68 68 76
-0.0330524 -0.227761 -0.631 69 69 77
-0.031901 -0.228122 -0.632 68 68 78
-0.0307457 -0.228483 -0.633 68 68 78
-0.0296333 -0.229205 -0.635 68 68 78
-0.0284686 -0.229566 -0.636 69 69 79
-0.0273 -0.229927 -0.637 68 68 78
-0.0261276 -0.230288 -0.638 68 68 78
-0.0249905 -0.23101 -0.64 69 69 79
-0.0238086 -0.23137 -0.641 68 68 78
-0.0226581 -0.232092 -0.643 68 68 78
-0.0214667 -0.232453 -0.644 68 68 78
-0.0202714 -0.232814 -0.645 70 70 80
-0.0190724 -0.233175 -0.646 71 71 81
-0.0178971 -0.233897 -0.648 71 71 83
-0.0166886 -0.234258 -0.649 72 72 84
-0.0154762 -0.234619 -0.65 73 73 85
0.456 -0.202133 -0.56 175 135 133
0.451353 -0.199607 -0.553 178 135 129
0.448316 -0.197802 -0.548 178 135 129
0.44526 -0.195997 -0.543 184 137 127
0.443829 -0.194914 -0.54 186 139 129
0.44321 -0.194192 -0.538 187 139 125
0.442583 -0.19347 -0.536 189 141 127
0.441949 -0.192749 -0.534 189 146 130
0.442136 -0.192388 -0.533 192 149 133
0.44232 -0.192027 -0.532 193 145 131
0.4425 -0.191666 -0.531 196 148 134
0.442676 -0.191305 -0.53 194 146 132
0.442849 -0.190944 -0.529 191 143 129
0.443017 -0.190583 -0.528 194 146 132
0.444023 -0.190583 -0.528 197 149 135
0.444186 -0.190222 -0.527 198 150 136
0.444345 -0.189861 -0.526 201 153 139
0.445347 -0.189861 -0.526 201 153 139
0.4455 -0.1895 -0.525 201 153 139
0.4465 -0.1895 -0.525 200 152 138
0.446648 -0.189139 -0.524 200 152 138
0.447646 -0.189139 -0.524 195 147 133
0.447788 -0.188778 -0.523 193 144 130
0.447926 -0.188417 -0.522 194 145 131
0.44892 -0.188417 -0.522 194 145 131
0.449914 -0.188417 -0.522 193 144 130
0.450045 -0.188056 -0.521 197 148 131
0.451037 -0.188056 -0.521 193 144 127
0.45203 -0.188056 -0.521 191 140 123
0.453022 -0.188056 -0.521 194 143 126
0.453143 -0.187695 -0.52 194 143 126
0.454133 -0.187695 -0.52 193 142 125
0.455124 -0.187695 -0.52 197 146 129
0.456114 -0.187695 -0.52 196 145 128
0.457105 -0.187695 -0.52 193 142 125
0.458095 -0.187695 -0.52 186 135 118
0.459086 -0.187695 -0.52 183 132 115
0.460076 -0.187695 -0.52 184 133 116
0.461067 -0.187695 -0.52 184 133 114
0.462057 -0.187695 -0.52 185 134 115
0.463048 -0.187695 -0.52 183 132 113
0.464038 -0.187695 -0.52 178 127 108
0.465923 -0.188056 -0.521 178 131 111
0.466915 -0.188056 -0.521 181 134 114
0.467908 -0.188056 -0.521 178 131 111
0.4689 -0.188056 -0.521 172 125 105
0.470794 -0.188417 -0.522 170 123 105
0.472692 -0.188778 -0.523 171 124 106
0.473689 -0.188778 -0.523 170 124 108
0.475592 -0.189139 -0.524 170 124 108
0.47659 -0.189139 -0.524 170 124 108
0.4785 -0.1895 -0.525 166 123 106
0.480413 -0.189861 -0.526 162 119 102
0.48233 -0.190222 -0.527 158 116 100
0.485169 -0.190944 -0.529 158 116 100
0.488933 -0.192027 -0.532 157 115 101
0.49363 -0.19347 -0.536 154 112 98
-0.134737 -0.234406 -0.646 213 214 208
-0.132267 -0.232229 -0.64 231 232 226
-0.130024 -0.230414 -0.635 238 239 233
-0.1278 -0.2286 -0.63 245 246 240
-0.126399 -0.228237 -0.629 247 248 242
-0.125201 -0.228237 -0.629 242 243 237
-0.123806 -0.227874 -0.628 236 237 231
-0.12261 -0.227874 -0.628 226 227 213
-0.121607 -0.228237 -0.629 218 219 205
-0.1206 -0.2286 -0.63 209 210 196
-0.11959 -0.228963 -0.631 204 205 191
-0.118575 -0.229326 -0.632 202 203 187
-0.117743 -0.230051 -0.634 196 197 181
-0.116903 -0.230777 -0.636 204 203 185
-0.115873 -0.23114 -0.637 217 216 196
-0.11484 -0.231503 -0.638 220 219 199
-0.113803 -0.231866 -0.639 219 218 197
-0.112762 -0.232229 -0.64 220 219 198
-0.111717 -0.232591 -0.641 223 223 199
-0.110669 -0.232954 -0.642 222 222 198
-0.109616 -0.233317 -0.643 222 222 198
-0.10856 -0.23368 -0.644 222 222 198
-0.107333 -0.23368 -0.644 222 224 200
-0.106271 -0.234043 -0.645 222 224 200
-0.105043 -0.234043 -0.645 222 224 200
-0.103975 -0.234406 -0.646 222 224 200
-0.102904 -0.234769 -0.647 224 224 200
-0.101671 -0.234769 -0.647 224 224 200
-0.100439 -0.234769 -0.647 224 224 200
-0.0992067 -0.234769 -0.647 225 225 201
-0.0981257 -0.235131 -0.648 225 224 203
-0.0968914 -0.235131 -0.648 226 225 204
-0.0956571 -0.235131 -0.648 228 227 206
-0.0885238 -0.235857 -0.65 235 234 213
-0.0872857 -0.235857 -0.65 235 234 213
-0.0860476 -0.235857 -0.65 236 235 215
-0.084679 -0.235494 -0.649 237 236 216
-0.0834429 -0.235494 -0.649 236 237 219
-0.0822067 -0.235494 -0.649 236 237 219
-0.0808457 -0.235131 -0.648 237 238 224
-0.0796114 -0.235131 -0.648 238 239 225
-0.0782562 -0.234769 -0.647 243 244 230
-0.0769048 -0.234406 -0.646 241 242 228
-0.0755571 -0.234043 -0.645 233 233 221
-0.0742133 -0.23368 -0.644 224 224 212
-0.0728733 -0.233317 -0.643 215 216 208
