ply
format ascii 1.0
comment Created by Open3D
element vertex 1303
property double x
property double y
property double z
property uchar red
property uchar green
property uchar blue
end_header
0.118627 -0.282627 -0.574 186 131 126
0.119303 -0.281642 -0.572 189 134 129
0.119971 -0.280657 -0.57 193 138 133
0.120632 -0.279672 -0.568 193 135 131
0.1215 -0.27918 -0.567 191 133 129
0.122364 -0.278688 -0.566 193 136 129
0.123224 -0.278195 -0.565 191 134 127
0.12408 -0.277703 -0.564 192 135 128
0.124932 -0.27721 -0.563 190 133 126
0.125781 -0.276718 -0.562 187 130 123
0.126851 -0.276718 -0.562 188 131 124
0.127694 -0.276226 -0.561 189 130 124
0.128763 -0.276226 -0.561 189 130 124
0.1296 -0.275733 -0.56 188 129 123
0.130667 -0.275733 -0.56 186 127 121
0.131733 -0.275733 -0.56 182 123 117
0.132563 -0.275241 -0.559 177 118 112
0.133628 -0.275241 -0.559 177 118 110
0.134692 -0.275241 -0.559 180 121 113
0.135757 -0.275241 -0.559 182 122 114
0.136577 -0.274749 -0.558 179 119 111
0.13764 -0.274749 -0.558 175 115 107
0.138703 -0.274749 -0.558 172 112 104
0.139766 -0.274749 -0.558 177 114 105
0.140829 -0.274749 -0.558 181 118 109
0.141891 -0.274749 -0.558 178 115 106
0.142954 -0.274749 -0.558 177 114 105
0.144017 -0.274749 -0.558 178 115 106
0.14508 -0.274749 -0.558 177 114 105
0.146143 -0.274749 -0.558 179 119 111
0.147206 -0.274749 -0.558 179 119 111
0.148269 -0.274749 -0.558 180 120 109
0.149331 -0.274749 -0.558 177 117 106
0.150394 -0.274749 -0.558 173 111 100
0.151457 -0.274749 -0.558 170 108 97
0.152793 -0.275241 -0.559 170 108 97
0.153858 -0.275241 -0.559 169 107 96
0.1552 -0.275733 -0.56 162 104 93
0.156267 -0.275733 -0.56 160 102 91
0.157333 -0.275733 -0.56 151 97 87
0.158683 -0.276226 -0.561 145 91 81
0.159751 -0.276226 -0.561 141 92 85
0.16082 -0.276226 -0.561 141 92 85
0.161889 -0.276226 -0.561 141 92 85
0.163248 -0.276718 -0.562 140 92 88
0.164318 -0.276718 -0.562 141 93 89
0.165683 -0.27721 -0.563 139 88 87
0.167051 -0.277703 -0.564 136 85 84
0.168424 -0.278195 -0.565 132 84 84
0.1698 -0.278688 -0.566 133 85 85
0.170878 -0.278688 -0.566 133 88 85
0.17226 -0.27918 -0.567 134 89 86
0.173951 -0.280165 -0.569 138 90 88
0.175343 -0.280657 -0.57 141 93 91
0.176738 -0.28115 -0.571 145 95 94
0.178449 -0.282134 -0.573 149 99 98
0.180167 -0.283119 -0.575 145 96 99
0.181892 -0.284104 -0.577 142 93 96
0.183626 -0.285089 -0.579 138 94 95
0.185686 -0.286566 -0.582 135 91 92
0.187757 -0.288043 -0.585 128 87 85
0.190486 -0.290505 -0.59 126 85 83
0.193233 -0.292967 -0.595 113 88 94
0.196 -0.295429 -0.6 114 89 95
0.212472 -0.311185 -0.632 53 49 82
0.222103 -0.311185 -0.632 163 118 121
0.221187 -0.30823 -0.626 173 128 131
0.219537 -0.304291 -0.618 191 132 134
0.2175 -0.29986 -0.609 200 141 143
0.21866 -0.29986 -0.609 200 141 143
0.217654 -0.296906 -0.603 202 144 143
0.216626 -0.293951 -0.597 200 142 141
0.216669 -0.292474 -0.594 200 140 139
0.217067 -0.29149 -0.592 201 141 140
0.217826 -0.290997 -0.591 199 140 136
0.218581 -0.290505 -0.59 195 136 132
0.219705 -0.290505 -0.59 191 132 126
0.221203 -0.290997 -0.591 187 128 122
0.222329 -0.290997 -0.591 181 121 113
0.223832 -0.29149 -0.592 170 110 102
0.22496 -0.29149 -0.592 160 100 92
0.22647 -0.291982 -0.593 154 94 86
0.228367 -0.292967 -0.595 150 90 80
0.230271 -0.293951 -0.597 144 84 74
0.232184 -0.294936 -0.599 131 84 90
0.234104 -0.295921 -0.601 133 86 92
0.236423 -0.297398 -0.604 133 87 89
0.238753 -0.298875 -0.607 134 88 90
0.241886 -0.301337 -0.612 115 82 89
0.24464 -0.303307 -0.616 124 91 98
0.24741 -0.305276 -0.62 145 132 158
0.250194 -0.307246 -0.624 137 124 150
0.252994 -0.309215 -0.628 111 115 153
0.256214 -0.311677 -0.633 127 131 169
0.402266 -0.314631 -0.639 184 166 192
0.401589 -0.313154 -0.636 173 155 181
0.398367 -0.309708 -0.629 195 168 183
0.331314 -0.256038 -0.52 197 165 170
0.327192 -0.252099 -0.512 191 159 164
0.325604 -0.25013 -0.508 194 142 144
0.324 -0.24816 -0.504 187 135 137
0.32367 -0.247175 -0.502 183 132 129
0.323333 -0.24619 -0.5 184 133 130
0.323637 -0.245698 -0.499 184 134 127
0.323937 -0.245206 -0.498 180 130 123
0.323581 -0.244221 -0.496 179 129 120
0.323871 -0.243729 -0.495 180 130 121
0.324158 -0.243236 -0.494 181 131 122
0.324441 -0.242744 -0.493 182 132 123
0.32538 -0.242744 -0.493 182 132 123
0.326319 -0.242744 -0.493 184 134 127
0.326594 -0.242251 -0.492 184 134 127
0.326866 -0.241759 -0.491 186 131 126
0.327133 -0.241267 -0.49 187 132 127
0.327397 -0.240774 -0.489 191 133 129
0.328329 -0.240774 -0.489 190 132 128
0.328587 -0.240282 -0.488 188 133 128
0.329516 -0.240282 -0.488 188 133 128
0.329769 -0.23979 -0.487 188 135 129
0.330696 -0.23979 -0.487 187 134 128
0.330943 -0.239297 -0.486 186 133 127
0.331869 -0.239297 -0.486 185 132 126
0.33211 -0.238805 -0.485 185 132 124
0.332347 -0.238312 -0.484 184 131 123
0.333269 -0.238312 -0.484 184 131 123
0.33419 -0.238312 -0.484 184 131 123
0.335112 -0.238312 -0.484 183 130 122
0.336034 -0.238312 -0.484 183 130 122
0.336956 -0.238312 -0.484 183 130 122
0.337878 -0.238312 -0.484 184 131 123
0.3388 -0.238312 -0.484 185 133 122
0.340424 -0.238805 -0.485 186 134 123
0.341348 -0.238805 -0.485 186 134 123
0.342977 -0.239297 -0.486 187 135 124
0.343903 -0.239297 -0.486 187 135 124
0.345538 -0.23979 -0.487 187 135 124
0.347177 -0.240282 -0.488 186 134 123
0.348107 -0.240282 -0.488 185 133 122
0.349751 -0.240774 -0.489 184 132 121
0.3514 -0.241267 -0.49 184 132 121
0.353052 -0.241759 -0.491 185 133 122
0.353988 -0.241759 -0.491 184 131 123
0.355646 -0.242251 -0.492 184 131 123
0.357308 -0.242744 -0.493 182 129 121
0.358973 -0.243236 -0.494 181 128 120
0.359914 -0.243236 -0.494 182 129 121
0.360855 -0.243236 -0.494 183 130 122
0.361796 -0.243236 -0.494 182 129 121
0.362737 -0.243236 -0.494 181 128 120
0.363678 -0.243236 -0.494 180 125 120
0.364619 -0.243236 -0.494 186 131 126
0.36482 -0.242744 -0.493 187 138 131
0.365759 -0.242744 -0.493 188 139 132
0.366698 -0.242744 -0.493 190 147 140
0.366891 -0.242251 -0.492 198 155 148
0.367829 -0.242251 -0.492 198 160 157
0.368766 -0.242251 -0.492 204 166 163
0.368951 -0.241759 -0.491 200 165 169
0.369887 -0.241759 -0.491 200 165 169
0.370067 -0.241267 -0.49 200 169 177
0.371 -0.241267 -0.49 200 169 177
0.371933 -0.241267 -0.49 200 169 177
0.372867 -0.241267 -0.49 204 183 192
0.374563 -0.241759 -0.491 206 185 194
0.375498 -0.241759 -0.491 207 191 201
0.376433 -0.241759 -0.491 209 193 203
0.378137 -0.242251 -0.492 206 201 208
0.379845 -0.242744 -0.493 207 202 209
0.381556 -0.243236 -0.494 205 202 213
0.384046 -0.244221 -0.496 207 204 215
0.386543 -0.245206 -0.498 211 207 222
-0.117315 -0.305963 -0.619 116 115 120
-0.116136 -0.305963 -0.619 115 114 119
-0.114771 -0.305469 -0.618 114 113 118
-0.11341 -0.304974 -0.617 114 113 118
-0.112053 -0.30448 -0.616 111 110 115
-0.11088 -0.30448 -0.616 110 109 114
-0.109529 -0.303986 -0.615 111 110 115
-0.108181 -0.303491 -0.614 111 110 115
-0.107011 -0.303491 -0.614 111 110 115
-0.105842 -0.303491 -0.614 111 110 116
-0.104672 -0.303491 -0.614 110 109 115
-0.103503 -0.303491 -0.614 108 107 113
-0.102333 -0.303491 -0.614 106 105 111
-0.101164 -0.303491 -0.614 104 103 108
-0.100157 -0.303986 -0.615 102 101 106
-0.0989857 -0.303986 -0.615 100 99 104
-0.0979733 -0.30448 -0.616 100 99 104
-0.0968 -0.30448 -0.616 99 98 103
-0.0957819 -0.304974 -0.617 94 93 98
-0.0946067 -0.304974 -0.617 90 89 94
-0.0935829 -0.305469 -0.618 92 91 96
-0.0925552 -0.305963 -0.619 81 80 85
-0.0913762 -0.305963 -0.619 76 75 80
-0.0901971 -0.305963 -0.619 80 79 84
-0.0891619 -0.306457 -0.62 82 81 86
0.111666 -0.309917 -0.627 194 140 138
0.11232 -0.308434 -0.624 189 138 137
0.112781 -0.306457 -0.62 183 133 132
0.112675 -0.302997 -0.613 189 134 127
0.112729 -0.300031 -0.607 189 134 127
0.112571 -0.296571 -0.6 189 135 125
0.113714 -0.296571 -0.6 189 135 125
0.1139 -0.2941 -0.595 192 138 128
0.114067 -0.291629 -0.59 192 139 135
0.114605 -0.290146 -0.587 190 137 133
0.115131 -0.288663 -0.584 195 138 131
0.115647 -0.28718 -0.581 197 140 133
0.116351 -0.286191 -0.579 193 138 133
0.117049 -0.285203 -0.577 194 139 134
0.117738 -0.284214 -0.575 193 138 133
0.11842 -0.283226 -0.573 187 132 127
0.119094 -0.282237 -0.571 188 133 128
0.119761 -0.281249 -0.569 191 136 131
0.12042 -0.28026 -0.567 191 133 129
0.121286 -0.279766 -0.566 191 133 129
0.122148 -0.279271 -0.565 193 136 129
0.123006 -0.278777 -0.564 191 134 127
0.12386 -0.278283 -0.563 191 134 127
0.124932 -0.278283 -0.563 190 133 126
0.125781 -0.277789 -0.562 187 130 123
0.126626 -0.277294 -0.561 187 130 123
0.127694 -0.277294 -0.561 187 128 122
0.128763 -0.277294 -0.561 188 129 123
0.1296 -0.2768 -0.56 188 129 121
0.130667 -0.2768 -0.56 185 126 118
0.131733 -0.2768 -0.56 182 123 115
0.132563 -0.276306 -0.559 180 121 113
0.133628 -0.276306 -0.559 179 119 111
0.134692 -0.276306 -0.559 180 120 112
0.135757 -0.276306 -0.559 179 119 111
0.136822 -0.276306 -0.559 177 117 109
0.13764 -0.275811 -0.558 175 115 107
0.138703 -0.275811 -0.558 172 112 104
0.139766 -0.275811 -0.558 177 114 105
0.140829 -0.275811 -0.558 180 117 108
0.141891 -0.275811 -0.558 178 115 106
0.142954 -0.275811 -0.558 178 115 106
0.144017 -0.275811 -0.558 180 117 108
0.14508 -0.275811 -0.558 180 117 108
0.146143 -0.275811 -0.558 181 121 113
0.147206 -0.275811 -0.558 180 120 112
0.148269 -0.275811 -0.558 179 119 109
0.149331 -0.275811 -0.558 176 116 106
0.150394 -0.275811 -0.558 171 111 100
0.151457 -0.275811 -0.558 170 110 99
0.152793 -0.276306 -0.559 172 109 100
0.153858 -0.276306 -0.559 169 106 97
0.154923 -0.276306 -0.559 162 104 93
0.156267 -0.2768 -0.56 160 102 91
0.157333 -0.2768 -0.56 151 98 90
0.158683 -0.277294 -0.561 146 93 85
0.159751 -0.277294 -0.561 141 92 85
0.16082 -0.277294 -0.561 141 92 85
0.161889 -0.277294 -0.561 142 93 86
0.163248 -0.277789 -0.562 141 93 89
0.164318 -0.277789 -0.562 141 93 89
0.165683 -0.278283 -0.563 143 88 85
0.167051 -0.278777 -0.564 142 87 84
0.168424 -0.279271 -0.565 136 86 85
0.1698 -0.279766 -0.566 137 87 86
0.170878 -0.279766 -0.566 135 91 90
0.17226 -0.28026 -0.567 137 93 92
0.173646 -0.280754 -0.568 141 93 91
0.175343 -0.281743 -0.57 142 94 92
0.176738 -0.282237 -0.571 147 97 96
0.178449 -0.283226 -0.573 149 99 98
0.179853 -0.28372 -0.574 146 96 97
0.181577 -0.284709 -0.576 144 94 95
0.183309 -0.285697 -0.578 140 94 94
0.185367 -0.28718 -0.581 134 88 88
0.187436 -0.288663 -0.584 129 85 82
0.18984 -0.29064 -0.588 128 84 81
0.192584 -0.293111 -0.593 123 87 87
0.195347 -0.295583 -0.598 129 93 93
0.2118 -0.3114 -0.63 60 56 89
0.220697 -0.310411 -0.628 173 125 125
0.219773 -0.307446 -0.622 179 131 131
0.218116 -0.303491 -0.614 194 136 134
0.216071 -0.299043 -0.605 201 143 141
0.217224 -0.299043 -0.605 201 143 141
0.216571 -0.296571 -0.6 203 145 143
0.2159 -0.2941 -0.595 200 142 140
0.216304 -0.293111 -0.593 196 138 136
0.2167 -0.292123 -0.591 193 135 133
0.217457 -0.291629 -0.59 194 135 131
0.218581 -0.291629 -0.59 193 134 130
0.219705 -0.291629 -0.59 190 131 127
0.220829 -0.291629 -0.59 185 126 122
0.222329 -0.292123 -0.591 178 119 113
0.223832 -0.292617 -0.592 169 110 104
0.22534 -0.293111 -0.593 159 100 94
0.22647 -0.293111 -0.593 152 93 87
0.22875 -0.294594 -0.596 148 89 81
0.230271 -0.295089 -0.597 145 86 78
0.232184 -0.296077 -0.599 126 83 90
0.234883 -0.298054 -0.603 127 84 91
0.236814 -0.299043 -0.605 129 87 88
0.239147 -0.300526 -0.608 128 86 87
0.241886 -0.302503 -0.612 115 82 89
0.24464 -0.30448 -0.616 124 91 98
0.24741 -0.306457 -0.62 145 132 158
0.250194 -0.308434 -0.624 137 124 150
0.253397 -0.310906 -0.629 84 87 130
0.256214 -0.312883 -0.633 90 93 136
0.400457 -0.316343 -0.64 178 169 198
0.396655 -0.312389 -0.632 174 165 194
0.3966 -0.3114 -0.63 184 162 185
0.394643 -0.308929 -0.625 190 168 191
0.326217 -0.253074 -0.512 192 156 158
0.323358 -0.250109 -0.506 181 145 147
0.32304 -0.24912 -0.504 189 134 129
0.322071 -0.247637 -0.501 186 131 126
0.322381 -0.247143 -0.5 185 132 126
0.322687 -0.246649 -0.499 186 133 127
0.322989 -0.246154 -0.498 183 133 126
0.323287 -0.24566 -0.497 180 130 123
0.323581 -0.245166 -0.496 180 130 123
0.323871 -0.244671 -0.495 181 131 124
0.324158 -0.244177 -0.494 183 133 126
0.324441 -0.243683 -0.493 184 134 127
0.32538 -0.243683 -0.493 184 134 127
0.325657 -0.243189 -0.492 187 134 128
0.326594 -0.243189 -0.492 186 133 127
0.326866 -0.242694 -0.491 187 130 123
0.327801 -0.242694 -0.491 188 131 124
0.328067 -0.2422 -0.49 192 133 125
0.328329 -0.241706 -0.489 191 132 124
0.328587 -0.241211 -0.488 186 133 125
0.329516 -0.241211 -0.488 186 133 125
0.330446 -0.241211 -0.488 186 133 127
0.330696 -0.240717 -0.487 186 133 127
0.331624 -0.240717 -0.487 186 133 127
0.331869 -0.240223 -0.486 186 133 127
0.33211 -0.239729 -0.485 185 132 124
0.333033 -0.239729 -0.485 184 131 123
0.333269 -0.239234 -0.484 184 131 123
0.33419 -0.239234 -0.484 184 131 123
0.335112 -0.239234 -0.484 182 129 121
0.336034 -0.239234 -0.484 182 129 121
0.33626 -0.23874 -0.483 184 129 122
0.33718 -0.23874 -0.483 185 130 123
0.3381 -0.23874 -0.483 185 131 121
0.33902 -0.23874 -0.483 187 133 123
0.340644 -0.239234 -0.484 185 133 122
0.341566 -0.239234 -0.484 186 134 123
0.342488 -0.239234 -0.484 186 134 123
0.344119 -0.239729 -0.485 186 134 123
0.345754 -0.240223 -0.486 185 133 122
0.34668 -0.240223 -0.486 185 133 122
0.348321 -0.240717 -0.487 184 132 121
0.349966 -0.241211 -0.488 184 132 121
0.350895 -0.241211 -0.488 185 133 122
0.352546 -0.241706 -0.489 183 131 120
0.3542 -0.2422 -0.49 184 132 121
0.355133 -0.2422 -0.49 183 131 120
0.356793 -0.242694 -0.491 181 129 118
0.358457 -0.243189 -0.492 181 128 120
0.359394 -0.243189 -0.492 181 128 120
0.360331 -0.243189 -0.492 181 128 120
0.361269 -0.243189 -0.492 182 129 121
0.362206 -0.243189 -0.492 182 124 120
0.363143 -0.243189 -0.492 189 131 127
0.36408 -0.243189 -0.492 186 136 127
0.365017 -0.243189 -0.492 183 133 124
0.365954 -0.243189 -0.492 186 139 131
0.366146 -0.242694 -0.491 193 146 138
0.367081 -0.242694 -0.491 194 151 145
0.368016 -0.242694 -0.491 199 156 150
0.3682 -0.2422 -0.49 196 156 156
0.369133 -0.2422 -0.49 193 153 153
0.370067 -0.2422 -0.49 192 156 160
0.371 -0.2422 -0.49 192 156 160
0.371933 -0.2422 -0.49 194 158 162
0.372867 -0.2422 -0.49 199 172 179
0.3738 -0.2422 -0.49 203 176 183
0.374733 -0.2422 -0.49 202 182 191
0.376433 -0.242694 -0.491 206 186 195
0.377369 -0.242694 -0.491 205 194 200
0.379074 -0.243189 -0.492 211 200 206
0.380011 -0.243189 -0.492 207 200 208
0.381723 -0.243683 -0.493 208 201 209
0.384214 -0.244671 -0.495 213 207 221
0.386713 -0.24566 -0.497 214 208 222
-0.113594 -0.306646 -0.618 112 111 116
-0.112417 -0.306646 -0.618 113 112 117
-0.11106 -0.30615 -0.617 117 116 121
-0.109885 -0.30615 -0.617 114 113 118
-0.108533 -0.305653 -0.616 114 113 119
-0.10736 -0.305653 -0.616 113 112 118
-0.106187 -0.305653 -0.616 113 112 118
-0.105013 -0.305653 -0.616 114 113 119
-0.10384 -0.305653 -0.616 114 113 119
-0.102667 -0.305653 -0.616 113 112 118
-0.101493 -0.305653 -0.616 113 112 117
-0.10032 -0.305653 -0.616 108 107 112
-0.0993076 -0.30615 -0.617 104 103 108
-0.0981324 -0.30615 -0.617 104 103 108
-0.0969571 -0.30615 -0.617 102 101 106
-0.0959371 -0.306646 -0.618 96 95 100
-0.0949133 -0.307142 -0.619 96 95 100
-0.0937343 -0.307142 -0.619 102 101 106
-0.0925552 -0.307142 -0.619 81 80 85
0.111666 -0.311111 -0.627 194 140 138
0.11232 -0.309623 -0.624 189 138 137
0.112235 -0.30615 -0.617 185 134 133
0.112308 -0.303172 -0.611 191 136 129
0.112171 -0.299699 -0.604 192 137 130
0.113322 -0.299699 -0.604 192 137 130
0.113335 -0.296722 -0.598 191 137 127
0.113517 -0.294241 -0.593 193 139 129
0.11368 -0.29176 -0.588 192 139 135
0.114214 -0.290271 -0.585 189 136 132
0.114934 -0.289279 -0.583 196 137 131
0.115448 -0.28779 -0.58 197 138 132
0.11615 -0.286798 -0.578 197 139 135
0.116846 -0.285806 -0.576 197 139 135
0.117533 -0.284813 -0.574 197 142 137
0.118213 -0.283821 -0.572 191 136 131
0.118886 -0.282829 -0.57 189 134 129
0.11955 -0.281836 -0.568 190 135 130
0.12042 -0.28134 -0.567 188 130 126
0.121286 -0.280844 -0.566 191 133 129
0.122148 -0.280348 -0.565 192 135 128
0.123006 -0.279851 -0.564 189 132 125
0.12386 -0.279355 -0.563 189 132 125
0.12471 -0.278859 -0.562 189 132 125
0.125557 -0.278363 -0.561 188 131 124
0.126626 -0.278363 -0.561 186 129 122
0.127467 -0.277867 -0.56 184 125 119
0.128533 -0.277867 -0.56 184 125 119
0.1296 -0.277867 -0.56 187 127 119
0.130667 -0.277867 -0.56 184 124 116
0.131733 -0.277867 -0.56 183 123 115
0.132563 -0.27737 -0.559 180 120 112
0.133628 -0.27737 -0.559 176 116 108
0.134692 -0.27737 -0.559 174 114 106
0.135757 -0.27737 -0.559 176 116 108
0.136822 -0.27737 -0.559 177 117 109
0.13764 -0.276874 -0.558 175 115 107
0.138951 -0.27737 -0.559 174 114 106
0.140016 -0.27737 -0.559 176 116 108
0.140829 -0.276874 -0.558 179 119 111
0.141891 -0.276874 -0.558 180 117 108
0.142954 -0.276874 -0.558 179 116 107
0.144017 -0.276874 -0.558 180 117 108
0.14508 -0.276874 -0.558 180 117 108
0.146143 -0.276874 -0.558 179 118 113
0.147206 -0.276874 -0.558 178 117 112
0.148269 -0.276874 -0.558 177 117 107
0.149331 -0.276874 -0.558 174 114 104
0.150394 -0.276874 -0.558 171 111 101
0.151457 -0.276874 -0.558 172 112 102
0.152793 -0.27737 -0.559 173 110 101
0.153858 -0.27737 -0.559 169 106 97
0.154923 -0.27737 -0.559 162 103 95
0.156267 -0.277867 -0.56 161 102 94
0.157333 -0.277867 -0.56 152 99 91
0.158683 -0.278363 -0.561 147 94 86
0.159751 -0.278363 -0.561 141 92 87
0.16082 -0.278363 -0.561 141 92 87
0.161889 -0.278363 -0.561 141 92 87
0.163248 -0.278859 -0.562 140 92 90
0.164318 -0.278859 -0.562 138 90 88
0.165683 -0.279355 -0.563 146 87 83
0.167051 -0.279851 -0.564 148 89 85
0.168424 -0.280348 -0.565 142 93 89
0.1698 -0.280844 -0.566 144 95 91
0.170878 -0.280844 -0.566 142 98 97
0.17226 -0.28134 -0.567 142 98 97
0.173646 -0.281836 -0.568 143 95 93
0.175035 -0.282332 -0.569 140 92 90
0.176738 -0.283325 -0.571 148 97 94
0.178137 -0.283821 -0.572 150 99 96
0.179853 -0.284813 -0.574 146 96 95
0.181262 -0.28531 -0.575 144 94 93
0.182991 -0.286302 -0.577 137 91 91
0.185048 -0.28779 -0.58 130 84 84
0.187115 -0.289279 -0.583 127 83 80
0.189194 -0.290768 -0.586 128 84 81
0.19161 -0.292752 -0.59 131 86 83
0.194367 -0.295233 -0.595 133 88 85
0.207257 -0.307638 -0.62 62 52 79
0.210455 -0.310615 -0.626 69 66 97
0.213 -0.3126 -0.63 97 94 125
0.219695 -0.313592 -0.632 157 115 119
0.21985 -0.312104 -0.629 164 122 126
0.21894 -0.309127 -0.623 179 128 125
0.217653 -0.305653 -0.616 186 135 132
0.21634 -0.30218 -0.609 196 138 134
0.2175 -0.30218 -0.609 196 138 134
0.215788 -0.29821 -0.601 203 145 141
0.215489 -0.296226 -0.597 206 148 144
0.215174 -0.294241 -0.593 204 146 142
0.215574 -0.293249 -0.591 195 137 133
0.216333 -0.292752 -0.59 187 129 125
0.217089 -0.292256 -0.589 187 129 125
0.21821 -0.292256 -0.589 189 131 127
0.219332 -0.292256 -0.589 187 129 125
0.220829 -0.292752 -0.59 180 122 118
0.222329 -0.293249 -0.591 174 116 112
0.223832 -0.293745 -0.592 168 110 106
0.22534 -0.294241 -0.593 159 101 97
0.226851 -0.294737 -0.594 151 93 89
0.22875 -0.29573 -0.596 146 88 84
0.230271 -0.296226 -0.597 145 86 78
0.232184 -0.297218 -0.599 126 83 90
0.234883 -0.299203 -0.603 127 84 91
0.236814 -0.300195 -0.605 129 87 88
0.239147 -0.301684 -0.608 128 86 87
0.241886 -0.303669 -0.612 114 83 89
0.245037 -0.30615 -0.617 132 101 107
0.247809 -0.308134 -0.621 143 134 163
0.250595 -0.310119 -0.625 130 121 150
0.253397 -0.312104 -0.629 90 97 143
0.398614 -0.317066 -0.639 168 162 198
0.397954 -0.315577 -0.636 164 151 179
0.393517 -0.311111 -0.627 163 150 178
0.390305 -0.307638 -0.62 186 161 182
0.322066 -0.251569 -0.507 191 156 163
0.32112 -0.25008 -0.504 185 145 143
0.320163 -0.248591 -0.501 175 135 133
0.320476 -0.248095 -0.5 189 135 125
0.320786 -0.247599 -0.499 188 134 124
0.321091 -0.247103 -0.498 187 134 128
0.321393 -0.246607 -0.497 186 133 127
0.321691 -0.24611 -0.496 182 129 125
0.321986 -0.245614 -0.495 180 127 123
0.322929 -0.245614 -0.495 182 127 122
0.323217 -0.245118 -0.494 182 127 122
0.323502 -0.244622 -0.493 186 131 126
0.324441 -0.244622 -0.493 188 133 128
0.32538 -0.244622 -0.493 188 133 128
0.325657 -0.244126 -0.492 189 134 129
0.326594 -0.244126 -0.492 187 132 127
0.326866 -0.24363 -0.491 189 132 125
0.327801 -0.24363 -0.491 189 132 125
0.328067 -0.243133 -0.49 191 132 124
0.328329 -0.242637 -0.489 192 133 125
0.32926 -0.242637 -0.489 186 133 125
0.329516 -0.242141 -0.488 187 134 126
0.330446 -0.242141 -0.488 187 134 126
0.331375 -0.242141 -0.488 186 133 125
0.331624 -0.241645 -0.487 187 134 126
0.331869 -0.241149 -0.486 186 133 125
0.33211 -0.240652 -0.485 186 132 122
0.333033 -0.240652 -0.485 185 131 121
0.333957 -0.240652 -0.485 184 130 120
0.33419 -0.240156 -0.484 184 130 120
0.335112 -0.240156 -0.484 183 129 119
0.33534 -0.23966 -0.483 183 129 119
0.33626 -0.23966 -0.483 183 129 119
0.33718 -0.23966 -0.483 184 130 120
0.3374 -0.239164 -0.482 185 131 121
0.338318 -0.239164 -0.482 185 131 121
0.339236 -0.239164 -0.482 186 132 122
0.34086 -0.23966 -0.483 186 132 122
0.34178 -0.23966 -0.483 186 132 122
0.3427 -0.23966 -0.483 186 132 122
0.344331 -0.240156 -0.484 186 132 122
0.345253 -0.240156 -0.484 186 132 122
0.346175 -0.240156 -0.484 186 132 122
0.347814 -0.240652 -0.485 186 132 122
0.349457 -0.241149 -0.486 185 131 121
0.351104 -0.241645 -0.487 185 130 123
0.352031 -0.241645 -0.487 184 129 122
0.353684 -0.242141 -0.488 183 128 121
0.354613 -0.242141 -0.488 182 127 120
0.356271 -0.242637 -0.489 181 126 119
0.357933 -0.243133 -0.49 182 127 120
0.358867 -0.243133 -0.49 184 129 122
0.360534 -0.24363 -0.491 185 130 123
0.36147 -0.24363 -0.491 184 127 120
0.361667 -0.243133 -0.49 189 132 125
0.3626 -0.243133 -0.49 187 133 123
0.363533 -0.243133 -0.49 186 132 122
0.364467 -0.243133 -0.49 185 135 126
0.366146 -0.24363 -0.491 188 138 129
0.366333 -0.243133 -0.49 191 142 135
0.367267 -0.243133 -0.49 194 145 138
0.3682 -0.243133 -0.49 193 145 143
0.369133 -0.243133 -0.49 192 144 142
0.369311 -0.242637 -0.489 188 146 147
0.370243 -0.242637 -0.489 188 146 147
0.371174 -0.242637 -0.489 189 147 148
0.372106 -0.242637 -0.489 191 159 164
0.373037 -0.242637 -0.489 198 166 171
0.373969 -0.242637 -0.489 195 172 180
0.375667 -0.243133 -0.49 197 174 182
0.3766 -0.243133 -0.49 203 184 186
0.377533 -0.243133 -0.49 211 192 194
0.379239 -0.24363 -0.491 211 196 203
0.380949 -0.244126 -0.492 210 195 202
0.382662 -0.244622 -0.493 209 199 210
0.385157 -0.245614 -0.495 213 203 214
0.38766 -0.246607 -0.497 214 203 219
-0.110063 -0.307823 -0.618 152 152 154
-0.108886 -0.307823 -0.618 147 147 149
-0.107709 -0.307823 -0.618 145 145 147
-0.106359 -0.307325 -0.617 146 145 150
-0.105184 -0.307325 -0.617 148 147 152
-0.104009 -0.307325 -0.617 149 148 153
-0.102833 -0.307325 -0.617 150 149 154
-0.101658 -0.307325 -0.617 153 152 157
-0.100483 -0.307325 -0.617 153 152 157
-0.0994686 -0.307823 -0.618 158 157 162
-0.0982914 -0.307823 -0.618 167 166 171
-0.0971143 -0.307823 -0.618 175 174 179
-0.0960924 -0.308321 -0.619 181 180 185
-0.0949133 -0.308321 -0.619 191 191 193
-0.0937343 -0.308321 -0.619 102 101 106
0.111488 -0.311808 -0.626 193 142 139
0.11196 -0.309815 -0.622 192 139 135
0.111871 -0.306329 -0.615 191 138 134
0.111756 -0.302842 -0.608 195 139 138
0.112914 -0.302842 -0.608 195 139 138
0.112947 -0.299853 -0.602 190 134 133
0.112956 -0.296865 -0.596 195 133 134
0.113134 -0.294374 -0.591 195 133 134
0.113487 -0.292382 -0.587 194 136 134
0.114019 -0.290888 -0.584 192 134 132
0.114737 -0.289891 -0.582 189 140 133
0.115249 -0.288397 -0.579 189 140 133
0.11595 -0.287401 -0.577 194 139 132
0.116643 -0.286405 -0.575 194 139 132
0.117329 -0.285409 -0.573 194 139 134
0.118007 -0.284412 -0.571 192 137 132
0.118677 -0.283416 -0.569 191 136 131
0.11955 -0.282918 -0.568 191 136 131
0.120208 -0.281922 -0.566 190 133 126
0.121071 -0.281424 -0.565 189 132 125
0.121931 -0.280926 -0.564 191 132 126
0.122788 -0.280428 -0.563 190 131 125
0.12364 -0.27993 -0.562 188 129 123
0.12471 -0.27993 -0.562 187 128 122
0.125557 -0.279431 -0.561 189 130 124
0.1264 -0.278933 -0.56 186 127 121
0.127467 -0.278933 -0.56 184 124 116
0.128533 -0.278933 -0.56 189 129 121
0.1296 -0.278933 -0.56 186 126 118
0.130667 -0.278933 -0.56 183 123 115
0.131498 -0.278435 -0.559 182 119 112
0.132563 -0.278435 -0.559 181 118 111
0.133628 -0.278435 -0.559 179 116 109
0.134692 -0.278435 -0.559 177 114 107
0.135757 -0.278435 -0.559 176 116 108
0.136822 -0.278435 -0.559 177 117 109
0.137887 -0.278435 -0.559 182 119 112
0.138951 -0.278435 -0.559 183 120 113
0.140016 -0.278435 -0.559 181 118 111
0.141081 -0.278435 -0.559 180 117 110
0.141891 -0.277937 -0.558 181 116 110
0.142954 -0.277937 -0.558 182 117 111
0.144017 -0.277937 -0.558 182 119 112
0.14508 -0.277937 -0.558 179 116 109
0.146143 -0.277937 -0.558 179 119 109
0.147206 -0.277937 -0.558 179 119 109
0.148269 -0.277937 -0.558 177 117 109
0.149331 -0.277937 -0.558 173 113 105
0.150394 -0.277937 -0.558 172 112 104
0.151457 -0.277937 -0.558 171 111 103
0.152793 -0.278435 -0.559 170 107 100
0.153858 -0.278435 -0.559 169 106 99
0.154923 -0.278435 -0.559 163 104 96
0.156267 -0.278933 -0.56 157 98 90
0.157333 -0.278933 -0.56 149 94 87
0.1584 -0.278933 -0.56 146 91 84
0.159751 -0.279431 -0.561 140 91 84
0.16082 -0.279431 -0.561 140 91 84
0.161889 -0.279431 -0.561 142 93 86
0.163248 -0.27993 -0.562 135 87 77
0.164318 -0.27993 -0.562 141 93 83
0.165683 -0.280428 -0.563 139 91 89
0.167051 -0.280926 -0.564 141 93 91
0.168424 -0.281424 -0.565 143 93 92
0.1698 -0.281922 -0.566 142 92 91
0.170878 -0.281922 -0.566 143 93 92
0.17226 -0.28242 -0.567 143 93 92
0.173646 -0.282918 -0.568 141 93 93
0.175035 -0.283416 -0.569 145 97 97
0.176429 -0.283914 -0.57 143 95 95
0.178137 -0.28491 -0.572 143 95 95
0.17954 -0.285409 -0.573 143 93 94
0.181262 -0.286405 -0.575 142 92 93
0.182991 -0.287401 -0.577 138 88 89
0.184729 -0.288397 -0.579 134 84 85
0.186473 -0.289393 -0.581 131 82 85
0.188871 -0.291386 -0.585 132 83 86
0.191285 -0.293378 -0.589 130 85 90
0.20592 -0.306827 -0.616 69 47 60
0.208774 -0.309317 -0.621 69 59 86
0.211986 -0.312306 -0.627 107 97 124
0.21454 -0.314298 -0.631 124 111 137
0.218146 -0.314298 -0.631 138 108 120
0.218305 -0.312804 -0.628 161 112 115
0.218103 -0.310811 -0.624 172 123 126
0.216831 -0.307325 -0.617 185 129 130
0.215533 -0.303838 -0.61 194 138 139
0.214209 -0.300351 -0.603 198 145 139
0.215357 -0.300351 -0.603 198 145 139
0.21471 -0.297861 -0.598 200 147 141
0.214406 -0.295869 -0.594 204 145 141
0.214449 -0.294374 -0.591 201 142 138
0.21521 -0.293876 -0.59 194 133 130
0.215967 -0.293378 -0.589 187 126 123
0.217089 -0.293378 -0.589 185 125 124
0.21821 -0.293378 -0.589 186 126 125
0.219332 -0.293378 -0.589 183 125 123
0.220829 -0.293876 -0.59 179 121 119
0.222329 -0.294374 -0.591 173 116 109
0.223832 -0.294872 -0.592 168 110 106
0.22534 -0.29537 -0.593 159 101 97
0.226851 -0.295869 -0.594 151 93 89
0.22875 -0.296865 -0.596 146 88 84
0.230657 -0.297861 -0.598 143 85 81
0.232571 -0.298857 -0.6 121 84 91
0.234883 -0.300351 -0.603 122 85 92
0.237597 -0.302344 -0.607 127 88 89
0.239933 -0.303838 -0.61 123 84 85
0.242676 -0.30583 -0.614 118 91 98
0.245434 -0.307823 -0.618 152 125 132
0.248208 -0.309815 -0.622 155 150 180
0.250996 -0.311808 -0.626 133 128 158
0.2538 -0.3138 -0.63 88 98 147
0.387241 -0.307325 -0.617 167 151 178
0.324205 -0.256519 -0.515 184 155 173
0.32266 -0.254527 -0.511 189 160 178
0.320467 -0.252036 -0.506 193 154 159
0.319525 -0.250542 -0.503 183 144 149
0.319209 -0.249546 -0.501 179 136 130
0.318885 -0.24855 -0.499 177 134 128
0.318553 -0.247553 -0.497 186 134 123
0.318857 -0.247055 -0.496 185 133 122
0.319802 -0.247055 -0.496 183 133 126
0.3201 -0.246557 -0.495 181 131 124
0.321043 -0.246557 -0.495 181 128 124
0.321335 -0.246059 -0.494 181 128 124
0.322276 -0.246059 -0.494 185 127 123
0.322563 -0.245561 -0.493 186 128 124
0.323502 -0.245561 -0.493 186 127 123
0.324441 -0.245561 -0.493 191 132 128
0.32538 -0.245561 -0.493 191 132 128
0.325657 -0.245063 -0.492 190 133 126
0.326594 -0.245063 -0.492 189 132 125
0.326866 -0.244565 -0.491 189 134 127
0.327801 -0.244565 -0.491 189 134 127
0.328067 -0.244067 -0.49 188 134 124
0.329 -0.244067 -0.49 189 135 125
0.32926 -0.243569 -0.489 188 136 125
0.330191 -0.243569 -0.489 190 138 127
0.330446 -0.24307 -0.488 189 136 128
0.331375 -0.24307 -0.488 187 134 126
0.331624 -0.242572 -0.487 189 134 127
0.332551 -0.242572 -0.487 187 132 125
0.332794 -0.242074 -0.486 185 131 121
0.333033 -0.241576 -0.485 186 132 122
0.333269 -0.241078 -0.484 184 130 120
0.33419 -0.241078 -0.484 183 129 119
0.335112 -0.241078 -0.484 185 128 119
0.33534 -0.24058 -0.483 185 128 119
0.33626 -0.24058 -0.483 184 127 118
0.336482 -0.240082 -0.482 185 128 119
0.3374 -0.240082 -0.482 185 128 117
0.338318 -0.240082 -0.482 185 128 117
0.339236 -0.240082 -0.482 186 131 124
0.340154 -0.240082 -0.482 185 130 123
0.341072 -0.240082 -0.482 185 130 123
0.34199 -0.240082 -0.482 185 130 123
0.342909 -0.240082 -0.482 185 130 123
0.34454 -0.24058 -0.483 185 130 123
0.34546 -0.24058 -0.483 186 131 124
0.34638 -0.24058 -0.483 185 130 123
0.348019 -0.241078 -0.484 184 129 122
0.348941 -0.241078 -0.484 185 130 123
0.350586 -0.241576 -0.485 183 128 121
0.35151 -0.241576 -0.485 182 127 120
0.35316 -0.242074 -0.486 183 128 121
0.354086 -0.242074 -0.486 183 128 121
0.355742 -0.242572 -0.487 184 129 122
0.357402 -0.24307 -0.488 186 131 124
0.358331 -0.24307 -0.488 186 131 124
0.359261 -0.24307 -0.488 184 125 117
0.36019 -0.24307 -0.488 188 129 121
0.36112 -0.24307 -0.488 187 130 119
0.36205 -0.24307 -0.488 189 132 121
0.363723 -0.243569 -0.489 185 133 122
0.364654 -0.243569 -0.489 184 132 121
0.365586 -0.243569 -0.489 186 136 127
0.366517 -0.243569 -0.489 188 138 129
0.367449 -0.243569 -0.489 186 135 131
0.36838 -0.243569 -0.489 189 138 134
0.369311 -0.243569 -0.489 186 141 138
0.370243 -0.243569 -0.489 187 142 139
0.371174 -0.243569 -0.489 187 142 139
0.372106 -0.243569 -0.489 185 149 151
0.373037 -0.243569 -0.489 191 155 157
0.373969 -0.243569 -0.489 187 160 165
0.3749 -0.243569 -0.489 188 161 166
0.375831 -0.243569 -0.489 198 174 174
0.377533 -0.244067 -0.49 207 183 183
0.378467 -0.244067 -0.49 204 185 189
0.380174 -0.244565 -0.491 207 188 192
0.38111 -0.244565 -0.491 209 196 206
0.383601 -0.245561 -0.493 210 197 207
0.38532 -0.246059 -0.494 209 197 211
0.387825 -0.247055 -0.496 210 198 212
-0.105354 -0.309 -0.618 228 228 230
-0.104177 -0.309 -0.618 228 228 230
-0.103 -0.309 -0.618 228 228 230
-0.101823 -0.309 -0.618 229 229 231
-0.100646 -0.309 -0.618 227 227 229
0.110953 -0.3115 -0.623 195 142 138
0.11142 -0.3095 -0.619 193 138 133
0.111326 -0.306 -0.612 190 135 130
0.112491 -0.306 -0.612 190 135 130
0.112357 -0.3025 -0.605 192 134 132
0.112384 -0.2995 -0.599 190 132 130
0.112388 -0.2965 -0.593 195 134 133
0.112943 -0.295 -0.59 195 134 133
0.1131 -0.2925 -0.585 195 136 132
0.113824 -0.2915 -0.583 193 134 130
0.11454 -0.2905 -0.581 190 140 133
0.115249 -0.2895 -0.579 189 139 132
0.11595 -0.2885 -0.577 192 134 130
0.116643 -0.2875 -0.575 192 134 130
0.117329 -0.2865 -0.573 192 137 132
0.118007 -0.2855 -0.571 192 137 132
0.118677 -0.2845 -0.569 195 137 133
0.11934 -0.2835 -0.567 194 136 132
0.120208 -0.283 -0.566 188 129 123
0.121071 -0.2825 -0.565 184 125 119
0.121715 -0.2815 -0.563 184 125 119
0.122788 -0.2815 -0.563 188 129 123
0.12364 -0.281 -0.562 188 129 123
0.124489 -0.2805 -0.561 184 125 119
0.125557 -0.2805 -0.561 185 126 120
0.1264 -0.28 -0.56 183 124 118
0.127467 -0.28 -0.56 184 124 116
0.128533 -0.28 -0.56 191 131 123
0.1296 -0.28 -0.56 187 127 119
0.130667 -0.28 -0.56 184 124 116
0.131498 -0.2795 -0.559 178 118 110
0.132563 -0.2795 -0.559 179 119 111
0.133628 -0.2795 -0.559 181 118 111
0.134692 -0.2795 -0.559 177 114 107
0.135757 -0.2795 -0.559 175 115 107
0.136822 -0.2795 -0.559 177 117 109
0.137887 -0.2795 -0.559 184 124 116
0.138951 -0.2795 -0.559 183 123 115
0.140016 -0.2795 -0.559 182 119 112
0.141081 -0.2795 -0.559 181 118 111
0.142146 -0.2795 -0.559 180 117 110
0.142954 -0.279 -0.558 182 119 112
0.144017 -0.279 -0.558 182 122 114
0.14508 -0.279 -0.558 180 120 112
0.146143 -0.279 -0.558 178 118 108
0.147206 -0.279 -0.558 177 117 107
0.148269 -0.279 -0.558 174 115 107
0.149331 -0.279 -0.558 171 112 104
0.150394 -0.279 -0.558 172 112 104
0.151457 -0.279 -0.558 170 110 102
0.152793 -0.2795 -0.559 166 106 98
0.153858 -0.2795 -0.559 163 103 95
0.154923 -0.2795 -0.559 161 102 94
0.156267 -0.28 -0.56 155 96 88
0.157333 -0.28 -0.56 145 92 84
0.1584 -0.28 -0.56 142 89 81
0.159467 -0.28 -0.56 142 89 81
0.16082 -0.2805 -0.561 137 89 79
0.161889 -0.2805 -0.561 139 91 81
0.162957 -0.2805 -0.561 133 86 76
0.164318 -0.281 -0.562 138 91 81
0.165389 -0.281 -0.562 140 92 88
0.166755 -0.2815 -0.563 141 93 89
0.168126 -0.282 -0.564 144 95 91
0.1695 -0.2825 -0.565 144 95 91
0.170878 -0.283 -0.566 144 95 91
0.17226 -0.2835 -0.567 143 94 90
0.173646 -0.284 -0.568 141 93 91
0.175035 -0.2845 -0.569 144 96 94
0.176429 -0.285 -0.57 143 95 93
0.177826 -0.2855 -0.571 142 94 92
0.17954 -0.2865 -0.573 141 93 91
0.180947 -0.287 -0.574 139 91 89
0.182674 -0.288 -0.576 137 89 89
0.18441 -0.289 -0.578 134 86 86
0.186152 -0.29 -0.58 129 83 83
0.188549 -0.292 -0.584 128 82 82
0.190635 -0.2935 -0.587 133 87 90
0.19306 -0.2955 -0.591 136 90 93
0.195829 -0.298 -0.596 131 90 94
0.198947 -0.301 -0.602 125 84 88
0.201755 -0.3035 -0.607 111 83 97
0.21318 -0.3135 -0.627 107 92 115
0.214716 -0.314 -0.628 120 105 128
0.215912 -0.314 -0.628 140 104 114
0.216417 -0.313 -0.626 151 115 125
0.216567 -0.3115 -0.623 172 120 122
0.216006 -0.309 -0.618 178 126 128
0.215074 -0.306 -0.612 190 132 131
0.21412 -0.303 -0.606 201 143 142
0.213143 -0.3 -0.6 199 144 141
0.214286 -0.3 -0.6 199 144 141
0.213992 -0.298 -0.596 199 144 141
0.213684 -0.296 -0.592 201 141 140
0.214086 -0.295 -0.59 196 136 135
0.214845 -0.2945 -0.589 191 130 129
0.2156 -0.294 -0.588 189 128 127
0.21672 -0.294 -0.588 186 126 125
0.21821 -0.2945 -0.589 186 126 125
0.219332 -0.2945 -0.589 183 125 123
0.220829 -0.295 -0.59 179 121 119
0.222329 -0.2955 -0.591 173 116 109
0.223832 -0.296 -0.592 165 108 101
0.22534 -0.2965 -0.593 158 104 94
0.226851 -0.297 -0.594 153 99 89
0.22875 -0.298 -0.596 146 93 85
0.231043 -0.2995 -0.599 139 86 78
0.232959 -0.3005 -0.601 129 84 91
0.235272 -0.302 -0.604 124 79 86
0.237989 -0.304 -0.608 110 80 90
0.240327 -0.3055 -0.611 112 82 92
0.243071 -0.3075 -0.615 120 107 127
0.245831 -0.3095 -0.619 162 149 169
0.248607 -0.3115 -0.623 157 156 188
0.251397 -0.3135 -0.627 116 115 147
0.254203 -0.3155 -0.631 97 104 146
0.39494 -0.3185 -0.637 167 160 193
0.382937 -0.306 -0.612 167 153 170
0.320086 -0.255 -0.51 165 151 168
0.31791 -0.2525 -0.505 186 154 159
0.317609 -0.2515 -0.503 187 155 160
0.316667 -0.25 -0.5 191 143 143
0.316349 -0.249 -0.498 186 138 138
0.31666 -0.2485 -0.497 187 136 133
0.316329 -0.2475 -0.495 185 134 131
0.317271 -0.2475 -0.495 186 131 126
0.317571 -0.247 -0.494 187 132 127
0.318512 -0.247 -0.494 187 132 125
0.319453 -0.247 -0.494 185 130 123
0.319746 -0.2465 -0.493 183 128 121
0.320685 -0.2465 -0.493 182 127 120
0.320971 -0.246 -0.492 185 130 125
0.321909 -0.246 -0.492 185 130 125
0.322846 -0.246 -0.492 187 132 125
0.323783 -0.246 -0.492 187 132 125
0.32472 -0.246 -0.492 187 132 125
0.325657 -0.246 -0.492 188 134 124
0.326594 -0.246 -0.492 189 135 125
0.326866 -0.2455 -0.491 189 135 125
0.327801 -0.2455 -0.491 189 135 125
0.328067 -0.245 -0.49 189 134 127
0.329 -0.245 -0.49 189 134 127
0.32926 -0.2445 -0.489 190 136 126
0.330191 -0.2445 -0.489 191 137 127
0.331123 -0.2445 -0.489 189 137 126
0.331375 -0.244 -0.488 188 136 125
0.332305 -0.244 -0.488 188 136 125
0.332551 -0.2435 -0.487 186 134 123
0.332794 -0.243 -0.486 184 132 121
0.333033 -0.2425 -0.485 184 132 121
0.333269 -0.242 -0.484 182 130 119
0.33419 -0.242 -0.484 182 130 119
0.335112 -0.242 -0.484 182 130 119
0.33534 -0.2415 -0.483 181 129 118
0.33626 -0.2415 -0.483 181 129 118
0.336482 -0.241 -0.482 182 130 119
0.3374 -0.241 -0.482 183 131 120
0.338318 -0.241 -0.482 182 130 119
0.338532 -0.2405 -0.481 186 132 122
0.339449 -0.2405 -0.481 185 131 121
0.340365 -0.2405 -0.481 185 131 121
0.341281 -0.2405 -0.481 184 130 120
0.342197 -0.2405 -0.481 185 131 121
0.343827 -0.241 -0.482 184 130 120
0.344745 -0.241 -0.482 184 130 120
0.345663 -0.241 -0.482 185 131 121
0.345862 -0.2405 -0.481 185 131 121
0.347499 -0.241 -0.482 183 128 121
0.348417 -0.241 -0.482 183 128 121
0.35006 -0.2415 -0.483 183 128 121
0.35098 -0.2415 -0.483 183 128 121
0.352629 -0.242 -0.484 184 129 122
0.35355 -0.242 -0.484 184 129 122
0.355205 -0.2425 -0.485 184 129 122
0.356129 -0.2425 -0.485 185 130 123
0.357789 -0.243 -0.486 184 129 122
0.358714 -0.243 -0.486 185 130 123
0.35964 -0.243 -0.486 189 132 123
0.361308 -0.2435 -0.487 191 134 125
0.362235 -0.2435 -0.487 190 135 128
0.363909 -0.244 -0.488 189 134 127
0.364838 -0.244 -0.488 184 135 128
0.365768 -0.244 -0.488 184 135 128
0.366697 -0.244 -0.488 182 135 129
0.36838 -0.2445 -0.489 183 136 130
0.369311 -0.2445 -0.489 185 136 131
0.370243 -0.2445 -0.489 187 138 133
0.371174 -0.2445 -0.489 187 138 133
0.372106 -0.2445 -0.489 190 142 138
0.373037 -0.2445 -0.489 196 148 144
0.373969 -0.2445 -0.489 195 151 148
0.3749 -0.2445 -0.489 194 150 147
0.375831 -0.2445 -0.489 199 162 169
0.376763 -0.2445 -0.489 206 169 176
0.377694 -0.2445 -0.489 207 184 192
0.3794 -0.245 -0.49 211 188 196
0.380333 -0.245 -0.49 200 190 201
0.382045 -0.2455 -0.491 203 193 204
0.38376 -0.246 -0.492 203 195 208
0.386261 -0.247 -0.494 203 195 208
0.389553 -0.2485 -0.497 197 187 198
0.110119 -0.31369 -0.625 195 142 136
0.110597 -0.311683 -0.621 194 141 135
0.11088 -0.309173 -0.616 193 138 133
0.11078 -0.30566 -0.609 190 135 130
0.11194 -0.30566 -0.609 190 135 130
0.1118 -0.302147 -0.602 192 134 132
0.111821 -0.299135 -0.596 191 133 131
0.112009 -0.296626 -0.591 196 135 134
0.11256 -0.29512 -0.588 195 134 133
0.112907 -0.293112 -0.584 197 136 133
0.113629 -0.292109 -0.582 195 134 131
0.114343 -0.291105 -0.58 192 139 131
0.11505 -0.290101 -0.578 191 138 130
0.115749 -0.289097 -0.576 191 131 130
0.11644 -0.288093 -0.574 190 130 129
0.117124 -0.28709 -0.572 191 133 131
0.1178 -0.286086 -0.57 193 135 133
0.118469 -0.285082 -0.568 195 135 134
0.11934 -0.28458 -0.567 194 134 133
0.119995 -0.283576 -0.565 189 130 126
0.120857 -0.283074 -0.564 184 125 121
0.121715 -0.282572 -0.563 189 128 125
0.12257 -0.28207 -0.562 193 132 129
0.12342 -0.281569 -0.561 190 129 126
0.124489 -0.281569 -0.561 183 122 119
0.125333 -0.281067 -0.56 184 123 120
0.1264 -0.281067 -0.56 186 125 122
0.127467 -0.281067 -0.56 188 127 122
0.128533 -0.281067 -0.56 196 135 130
0.1296 -0.281067 -0.56 190 129 124
0.130667 -0.281067 -0.56 186 125 120
0.131498 -0.280565 -0.559 179 118 113
0.132563 -0.280565 -0.559 180 119 114
0.133628 -0.280565 -0.559 180 119 114
0.134692 -0.280565 -0.559 175 114 109
0.135757 -0.280565 -0.559 175 114 109
0.136822 -0.280565 -0.559 180 119 114
0.137887 -0.280565 -0.559 187 126 121
0.138951 -0.280565 -0.559 185 124 119
0.140016 -0.280565 -0.559 185 122 117
0.141081 -0.280565 -0.559 185 122 117
0.141891 -0.280063 -0.558 183 120 115
0.142954 -0.280063 -0.558 184 121 116
0.144017 -0.280063 -0.558 182 121 116
0.14508 -0.280063 -0.558 179 118 113
0.146143 -0.280063 -0.558 176 118 107
0.147206 -0.280063 -0.558 174 116 105
0.148269 -0.280063 -0.558 173 113 103
0.149331 -0.280063 -0.558 172 112 102
0.150394 -0.280063 -0.558 172 112 104
0.151457 -0.280063 -0.558 169 109 101
0.15252 -0.280063 -0.558 164 104 96
0.153858 -0.280565 -0.559 162 102 94
0.154923 -0.280565 -0.559 165 106 98
0.156267 -0.281067 -0.56 160 101 93
0.157333 -0.281067 -0.56 151 96 89
0.1584 -0.281067 -0.56 148 93 86
0.159467 -0.281067 -0.56 148 93 86
0.16082 -0.281569 -0.561 143 95 85
0.161889 -0.281569 -0.561 143 95 85
0.162957 -0.281569 -0.561 138 91 81
0.164318 -0.28207 -0.562 140 93 83
0.165389 -0.28207 -0.562 142 93 89
0.166755 -0.282572 -0.563 141 92 88
0.168126 -0.283074 -0.564 142 93 88
0.1695 -0.283576 -0.565 143 94 89
0.170878 -0.284078 -0.566 143 94 90
0.171956 -0.284078 -0.566 144 95 91
0.17334 -0.28458 -0.567 143 95 91
0.174728 -0.285082 -0.568 143 95 91
0.176119 -0.285584 -0.569 144 96 94
0.177826 -0.286588 -0.571 143 95 93
0.179227 -0.28709 -0.572 142 94 92
0.180947 -0.288093 -0.574 139 91 89
0.182674 -0.289097 -0.576 135 90 87
0.18409 -0.289599 -0.577 131 86 83
0.186152 -0.291105 -0.58 128 82 82
0.188226 -0.29261 -0.583 125 79 79
0.19031 -0.294116 -0.586 124 79 82
0.192733 -0.296124 -0.59 128 83 86
0.195171 -0.298131 -0.594 130 85 90
0.197625 -0.300139 -0.598 124 79 84
0.200758 -0.30315 -0.604 116 83 94
0.21148 -0.312185 -0.622 89 70 89
0.213007 -0.312687 -0.623 112 93 112
0.214537 -0.313189 -0.624 145 103 113
0.214689 -0.311683 -0.621 160 118 128
0.214481 -0.309675 -0.617 179 123 124
0.213909 -0.307166 -0.612 185 129 130
0.212966 -0.304154 -0.606 193 135 134
0.212353 -0.301645 -0.601 200 142 141
0.211722 -0.299135 -0.596 199 143 142
0.212857 -0.299135 -0.596 199 143 142
0.212915 -0.29763 -0.593 200 144 143
0.212962 -0.296124 -0.59 201 141 141
0.213723 -0.295622 -0.589 194 134 134
0.214845 -0.295622 -0.589 191 130 129
0.2156 -0.29512 -0.588 189 128 127
0.21672 -0.29512 -0.588 186 126 125
0.21821 -0.295622 -0.589 183 123 122
0.219332 -0.295622 -0.589 181 123 121
0.220829 -0.296124 -0.59 174 116 114
0.222329 -0.296626 -0.591 166 108 104
0.223832 -0.297128 -0.592 160 102 98
0.22572 -0.298131 -0.594 152 97 90
0.227233 -0.298633 -0.595 147 92 85
0.229134 -0.299637 -0.597 141 91 82
0.231429 -0.301143 -0.6 138 88 79
0.233347 -0.302147 -0.602 124 81 88
0.236051 -0.304154 -0.606 127 84 91
0.23838 -0.30566 -0.609 111 83 95
0.241113 -0.307668 -0.613 116 88 100
0.243862 -0.309675 -0.617 133 121 143
0.246626 -0.311683 -0.621 147 135 157
0.249405 -0.31369 -0.625 122 123 154
0.251798 -0.315196 -0.628 113 114 145
0.393727 -0.319713 -0.637 167 158 189
0.39246 -0.317706 -0.633 176 167 198
0.317237 -0.254466 -0.507 180 157 173
0.315692 -0.252458 -0.503 172 149 165
0.314132 -0.25045 -0.499 183 144 147
0.31382 -0.249447 -0.497 181 142 145
0.3135 -0.248443 -0.495 186 137 133
0.313808 -0.247941 -0.494 185 136 132
0.314749 -0.247941 -0.494 186 135 131
0.31505 -0.247439 -0.493 186 135 131
0.315349 -0.246937 -0.492 185 130 125
0.316286 -0.246937 -0.492 187 132 127
0.317223 -0.246937 -0.492 187 132 125
0.31816 -0.246937 -0.492 186 131 124
0.319097 -0.246937 -0.492 183 128 121
0.319384 -0.246435 -0.491 184 129 122
0.320319 -0.246435 -0.491 187 132 125
0.321254 -0.246435 -0.491 187 132 125
0.32219 -0.246435 -0.491 188 133 126
0.323125 -0.246435 -0.491 188 133 126
0.32406 -0.246435 -0.491 188 133 126
0.324995 -0.246435 -0.491 189 135 125
0.32593 -0.246435 -0.491 189 135 125
0.326866 -0.246435 -0.491 190 136 126
0.327133 -0.245933 -0.49 190 136 126
0.328067 -0.245933 -0.49 190 135 128
0.329 -0.245933 -0.49 189 134 127
0.329933 -0.245933 -0.49 188 136 125
0.330191 -0.245431 -0.489 189 137 126
0.331123 -0.245431 -0.489 189 137 126
0.331375 -0.24493 -0.488 189 137 126
0.332305 -0.24493 -0.488 188 136 125
0.332551 -0.244428 -0.487 186 134 123
0.333479 -0.244428 -0.487 185 133 122
0.33372 -0.243926 -0.486 185 133 122
0.333957 -0.243424 -0.485 184 130 120
0.33419 -0.242922 -0.484 183 129 119
0.335112 -0.242922 -0.484 183 129 119
0.33534 -0.24242 -0.483 182 128 118
0.33626 -0.24242 -0.483 182 128 118
0.336482 -0.241918 -0.482 182 128 118
0.3374 -0.241918 -0.482 183 129 119
0.337616 -0.241416 -0.481 183 129 119
0.338532 -0.241416 -0.481 185 128 117
0.339449 -0.241416 -0.481 186 129 118
0.340365 -0.241416 -0.481 186 129 118
0.340571 -0.240914 -0.48 186 129 120
0.341486 -0.240914 -0.48 186 129 120
0.3424 -0.240914 -0.48 186 129 120
0.34403 -0.241416 -0.481 186 129 120
0.344229 -0.240914 -0.48 185 128 119
0.345143 -0.240914 -0.48 185 128 119
0.346057 -0.240914 -0.48 183 126 117
0.346971 -0.240914 -0.48 183 126 117
0.34861 -0.241416 -0.481 183 126 117
0.349527 -0.241416 -0.481 184 127 118
0.350443 -0.241416 -0.481 185 128 119
0.35209 -0.241918 -0.482 186 129 120
0.353008 -0.241918 -0.482 187 130 123
0.35466 -0.24242 -0.483 187 130 123
0.35558 -0.24242 -0.483 186 131 124
0.357238 -0.242922 -0.484 187 132 125
0.35816 -0.242922 -0.484 189 135 125
0.359824 -0.243424 -0.485 189 135 125
0.360748 -0.243424 -0.485 189 134 127
0.362417 -0.243926 -0.486 188 133 126
0.36409 -0.244428 -0.487 184 134 127
0.365018 -0.244428 -0.487 184 134 127
0.365946 -0.244428 -0.487 180 131 124
0.367627 -0.24493 -0.488 181 132 125
0.368556 -0.24493 -0.488 183 133 126
0.369486 -0.24493 -0.488 184 134 127
0.370415 -0.24493 -0.488 184 134 127
0.371345 -0.24493 -0.488 187 138 133
0.372274 -0.24493 -0.488 193 144 139
0.373204 -0.24493 -0.488 197 150 144
0.374133 -0.24493 -0.488 199 152 146
0.375063 -0.24493 -0.488 198 162 164
0.375992 -0.24493 -0.488 202 166 168
0.376922 -0.24493 -0.488 201 176 182
0.378626 -0.245431 -0.489 204 179 185
0.379557 -0.245431 -0.489 200 184 194
0.381267 -0.245933 -0.49 207 191 201
0.38298 -0.246435 -0.491 206 194 204
0.384697 -0.246937 -0.492 201 189 199
0.387986 -0.248443 -0.495 177 167 178
0.391286 -0.249949 -0.498 179 169 180
0.394597 -0.251454 -0.501 186 181 201
0.109767 -0.313873 -0.623 193 143 136
0.110241 -0.311858 -0.619 189 139 132
0.11016 -0.308331 -0.612 192 139 131
0.111326 -0.308331 -0.612 192 139 131
0.111205 -0.304805 -0.605 190 137 129
0.111429 -0.302286 -0.6 192 137 132
0.111446 -0.299263 -0.594 190 135 130
0.111819 -0.297248 -0.59 195 135 134
0.112177 -0.295232 -0.586 194 134 133
0.112713 -0.293721 -0.583 194 135 131
0.113433 -0.292713 -0.581 193 134 130
0.114146 -0.291706 -0.579 191 136 129
0.11485 -0.290698 -0.577 188 133 126
0.115548 -0.28969 -0.575 189 129 128
0.116237 -0.288683 -0.573 189 129 128
0.116919 -0.287675 -0.571 192 132 131
0.117593 -0.286668 -0.569 193 133 132
0.118469 -0.286164 -0.568 193 133 132
0.11913 -0.285156 -0.566 194 134 133
0.119995 -0.284652 -0.565 192 131 128
0.120857 -0.284149 -0.564 191 130 127
0.121715 -0.283645 -0.563 190 129 126
0.12257 -0.283141 -0.562 190 129 126
0.12342 -0.282637 -0.561 187 126 123
0.124489 -0.282637 -0.561 183 122 119
0.125333 -0.282133 -0.56 185 124 121
0.1264 -0.282133 -0.56 187 126 123
0.127467 -0.282133 -0.56 186 125 120
0.128533 -0.282133 -0.56 190 129 124
0.1296 -0.282133 -0.56 190 130 122
0.130667 -0.282133 -0.56 188 128 120
0.131733 -0.282133 -0.56 183 123 115
0.132563 -0.28163 -0.559 181 121 113
0.133628 -0.28163 -0.559 180 120 112
0.134692 -0.28163 -0.559 177 117 109
0.135757 -0.28163 -0.559 179 119 111
0.136822 -0.28163 -0.559 184 124 116
0.137887 -0.28163 -0.559 187 127 119
0.138951 -0.28163 -0.559 187 127 119
0.140016 -0.28163 -0.559 185 125 117
0.141081 -0.28163 -0.559 185 125 117
0.141891 -0.281126 -0.558 186 123 116
0.142954 -0.281126 -0.558 183 120 113
0.144017 -0.281126 -0.558 179 119 111
0.14508 -0.281126 -0.558 175 115 107
0.146143 -0.281126 -0.558 175 115 105
0.147206 -0.281126 -0.558 174 114 104
0.148269 -0.281126 -0.558 173 113 103
0.149331 -0.281126 -0.558 172 112 102
0.150394 -0.281126 -0.558 172 112 104
0.151457 -0.281126 -0.558 169 109 101
0.15252 -0.281126 -0.558 166 106 98
0.153858 -0.28163 -0.559 165 105 97
0.154923 -0.28163 -0.559 165 106 98
0.155988 -0.28163 -0.559 162 103 95
0.157333 -0.282133 -0.56 154 99 92
0.1584 -0.282133 -0.56 152 97 90
0.159467 -0.282133 -0.56 152 97 90
0.16082 -0.282637 -0.561 146 96 87
0.161889 -0.282637 -0.561 144 94 85
0.162957 -0.282637 -0.561 141 93 83
0.164318 -0.283141 -0.562 141 93 83
0.165389 -0.283141 -0.562 145 96 91
0.166755 -0.283645 -0.563 143 94 89
0.168126 -0.284149 -0.564 142 93 88
0.1692 -0.284149 -0.564 142 93 88
0.170576 -0.284652 -0.565 143 94 89
0.171956 -0.285156 -0.566 143 94 89
0.17334 -0.28566 -0.567 139 91 87
0.174728 -0.286164 -0.568 138 90 86
0.176119 -0.286668 -0.569 140 92 90
0.177826 -0.287675 -0.571 140 92 90
0.179227 -0.288179 -0.572 138 93 90
0.180631 -0.288683 -0.573 137 92 89
0.182357 -0.28969 -0.575 136 91 88
0.18409 -0.290698 -0.577 135 90 87
0.185831 -0.291706 -0.579 133 87 87
0.187903 -0.293217 -0.582 131 85 85
0.189986 -0.294729 -0.585 131 89 93
0.19208 -0.29624 -0.588 130 88 92
0.194514 -0.298255 -0.592 128 81 87
0.197294 -0.300774 -0.597 123 76 82
0.199761 -0.30279 -0.601 106 68 79
0.202243 -0.304805 -0.605 124 86 97
0.205076 -0.307324 -0.61 107 86 103
0.207929 -0.309843 -0.615 82 61 78
0.20978 -0.31085 -0.617 90 66 82
