ply
format ascii 1.0
comment Created by Open3D
element vertex 1289
property double x
property double y
property double z
property uchar red
property uchar green
property uchar blue
end_header
0.201724 -0.257914 -0.59 139 89 88
0.203879 -0.259226 -0.593 135 89 91
0.206046 -0.260537 -0.596 132 86 88
0.208571 -0.262286 -0.6 124 83 87
0.211112 -0.264034 -0.604 122 81 85
0.21402 -0.26622 -0.609 110 75 79
0.216947 -0.268406 -0.614 108 73 77
0.232229 -0.279771 -0.64 83 47 61
0.234907 -0.28152 -0.644 85 49 63
0.237967 -0.283706 -0.649 88 56 69
0.491575 -0.282394 -0.646 165 120 115
0.489754 -0.280646 -0.642 168 123 118
0.487918 -0.278897 -0.638 169 120 113
0.486067 -0.277149 -0.634 171 122 115
0.484969 -0.275837 -0.631 171 122 115
0.483859 -0.274526 -0.628 173 124 117
0.482738 -0.273214 -0.625 175 126 121
0.48238 -0.27234 -0.623 176 127 122
0.481238 -0.271029 -0.62 179 129 120
0.480863 -0.270154 -0.618 184 134 125
0.48048 -0.26928 -0.616 191 138 124
0.48009 -0.268406 -0.614 193 140 126
0.478908 -0.267094 -0.611 196 140 123
0.4785 -0.26622 -0.609 196 140 123
0.478085 -0.265346 -0.607 196 140 123
0.478451 -0.264909 -0.606 198 142 125
0.477231 -0.263597 -0.603 202 145 126
0.477587 -0.26316 -0.602 207 150 131
0.477143 -0.262286 -0.6 209 151 127
0.477489 -0.261849 -0.599 207 149 125
0.47783 -0.261411 -0.598 201 148 130
0.478169 -0.260974 -0.597 206 153 135
0.479306 -0.260974 -0.597 206 153 135
0.479638 -0.260537 -0.596 210 154 137
0.480773 -0.260537 -0.596 211 155 138
0.4811 -0.2601 -0.595 211 155 138
0.482233 -0.2601 -0.595 208 152 135
0.483367 -0.2601 -0.595 207 151 134
0.4845 -0.2601 -0.595 209 153 136
0.484817 -0.259663 -0.594 208 152 135
0.485949 -0.259663 -0.594 206 150 133
0.48708 -0.259663 -0.594 206 149 130
0.488211 -0.259663 -0.594 205 148 129
0.489343 -0.259663 -0.594 206 149 130
0.4913 -0.2601 -0.595 206 149 130
0.492433 -0.2601 -0.595 201 146 126
0.494396 -0.260537 -0.596 201 146 126
0.4947 -0.2601 -0.595 202 147 127
0.496667 -0.260537 -0.596 205 150 130
0.498637 -0.260974 -0.597 197 145 123
0.500611 -0.261411 -0.598 189 137 115
0.50175 -0.261411 -0.598 185 135 112
0.504571 -0.262286 -0.6 182 132 109
0.508243 -0.263597 -0.603 178 130 108
0.511081 -0.264471 -0.605 181 133 111
0.514773 -0.265783 -0.608 175 128 110
0.519326 -0.267531 -0.612 173 126 108
0.523043 -0.268843 -0.615 167 124 108
-0.125186 -0.278795 -0.635 94 94 102
-0.123 -0.2766 -0.63 99 99 107
-0.12064 -0.273966 -0.624 99 99 107
-0.118111 -0.270892 -0.617 99 99 107
-0.115041 -0.266502 -0.607 97 97 105
-0.111821 -0.261672 -0.596 97 97 105
-0.1092 -0.25816 -0.588 97 97 105
-0.106977 -0.255526 -0.582 96 96 104
-0.104777 -0.252891 -0.576 95 95 103
-0.10332 -0.252013 -0.574 95 96 101
-0.10187 -0.251135 -0.572 96 97 102
-0.100429 -0.250257 -0.57 95 96 101
-0.0995171 -0.250696 -0.571 94 95 100
-0.0986019 -0.251135 -0.572 93 94 99
-0.0976829 -0.251574 -0.573 89 90 95
-0.09676 -0.252013 -0.574 82 83 88
-0.096 -0.252891 -0.576 78 79 84
-0.0950676 -0.25333 -0.577 72 73 78
-0.0942943 -0.254209 -0.579 70 71 76
-0.0935133 -0.255087 -0.581 87 87 95
-0.0928838 -0.256404 -0.584 95 95 103
-0.0920857 -0.257282 -0.586 94 94 102
-0.0914352 -0.258599 -0.589 92 92 100
-0.0907733 -0.259916 -0.592 90 91 96
-0.0905543 -0.26255 -0.598 87 88 93
-0.0898638 -0.263868 -0.601 87 88 93
-0.0893095 -0.265624 -0.605 82 85 92
-0.0885943 -0.266941 -0.608 77 80 87
-0.0878676 -0.268258 -0.611 74 77 84
-0.0872714 -0.270014 -0.615 74 77 84
-0.08652 -0.271331 -0.618 72 75 80
-0.085619 -0.27221 -0.62 67 70 75
-0.0847105 -0.273088 -0.622 68 67 75
-0.0837943 -0.273966 -0.624 65 64 72
-0.0827381 -0.274405 -0.625 61 60 68
-0.0815476 -0.274405 -0.625 58 57 65
-0.0803571 -0.274405 -0.625 57 56 64
-0.0791667 -0.274405 -0.625 55 54 62
-0.078101 -0.274844 -0.626 53 52 60
-0.0769086 -0.274844 -0.626 51 50 58
-0.0757162 -0.274844 -0.626 51 50 58
-0.0745238 -0.274844 -0.626 52 51 59
-0.0733314 -0.274844 -0.626 53 52 60
-0.072139 -0.274844 -0.626 54 53 61
-0.0709467 -0.274844 -0.626 57 56 64
-0.0698657 -0.275283 -0.627 59 58 66
-0.068781 -0.275722 -0.628 60 59 67
-0.0675848 -0.275722 -0.628 62 61 69
-0.0663886 -0.275722 -0.628 66 65 73
-0.0652962 -0.276161 -0.629 66 65 73
-0.0640981 -0.276161 -0.629 67 66 74
-0.0629 -0.276161 -0.629 69 68 76
-0.0618 -0.2766 -0.63 70 69 77
-0.0606 -0.2766 -0.63 71 70 78
-0.0594943 -0.277039 -0.631 72 71 79
-0.0583848 -0.277478 -0.632 71 70 78
-0.0572714 -0.277917 -0.633 73 72 80
-0.0561543 -0.278356 -0.634 73 72 80
-0.0549467 -0.278356 -0.634 73 72 80
-0.0538238 -0.278795 -0.635 73 72 80
-0.0526971 -0.279234 -0.636 74 73 81
-0.0514857 -0.279234 -0.636 74 73 81
-0.0502743 -0.279234 -0.636 74 73 81
-0.04914 -0.279673 -0.637 75 74 82
-0.0479267 -0.279673 -0.637 75 74 82
-0.0467867 -0.280112 -0.638 75 74 82
-0.0456429 -0.280551 -0.639 74 73 81
0.147042 -0.283625 -0.646 199 148 131
0.146436 -0.280112 -0.638 201 150 133
0.146263 -0.277478 -0.632 195 145 136
0.1456 -0.273966 -0.624 192 142 133
0.144907 -0.270453 -0.616 192 142 133
0.144657 -0.267819 -0.61 194 144 135
0.144146 -0.264746 -0.603 197 145 134
0.14433 -0.26299 -0.599 196 144 133
0.144257 -0.260794 -0.594 198 146 135
0.144654 -0.259477 -0.591 199 147 136
0.14504 -0.25816 -0.588 200 146 136
0.145663 -0.257282 -0.586 198 144 134
0.146278 -0.256404 -0.584 196 142 130
0.146886 -0.255526 -0.582 193 139 127
0.147486 -0.254648 -0.58 192 135 124
0.147822 -0.25333 -0.577 193 136 125
0.148663 -0.252891 -0.576 196 142 130
0.1495 -0.252452 -0.575 194 140 128
0.150333 -0.252013 -0.574 192 135 124
0.151163 -0.251574 -0.573 192 135 124
0.151989 -0.251135 -0.572 189 136 122
0.15281 -0.250696 -0.571 193 140 126
0.153629 -0.250257 -0.57 195 142 128
0.154714 -0.250257 -0.57 194 141 127
0.155527 -0.249818 -0.569 197 140 129
0.15661 -0.249818 -0.569 195 138 127
0.157417 -0.249379 -0.568 196 139 128
0.158499 -0.249379 -0.568 194 137 126
0.159581 -0.249379 -0.568 193 140 126
0.160663 -0.249379 -0.568 194 141 127
0.161745 -0.249379 -0.568 195 139 126
0.16254 -0.24894 -0.567 194 138 125
0.16362 -0.24894 -0.567 194 138 125
0.1647 -0.24894 -0.567 192 136 123
0.165488 -0.248501 -0.566 195 137 125
0.166566 -0.248501 -0.566 194 136 124
0.167348 -0.248062 -0.565 194 136 124
0.168424 -0.248062 -0.565 193 135 123
0.1695 -0.248062 -0.565 194 136 124
0.170576 -0.248062 -0.565 194 136 124
0.171652 -0.248062 -0.565 191 133 122
0.172729 -0.248062 -0.565 191 133 122
0.173805 -0.248062 -0.565 196 138 127
0.174881 -0.248062 -0.565 196 139 128
0.175957 -0.248062 -0.565 200 143 132
0.177033 -0.248062 -0.565 200 143 132
0.178425 -0.248501 -0.566 191 134 123
0.17982 -0.24894 -0.567 184 127 118
0.181219 -0.249379 -0.568 183 126 117
0.182622 -0.249818 -0.569 183 126 117
0.184029 -0.250257 -0.57 182 125 116
0.185439 -0.250696 -0.571 179 125 115
0.18718 -0.251574 -0.573 177 123 113
0.1886 -0.252013 -0.574 179 122 113
0.190354 -0.252891 -0.576 177 120 111
0.192116 -0.25377 -0.578 176 117 111
0.193886 -0.254648 -0.58 166 107 101
0.195663 -0.255526 -0.582 160 102 100
0.197786 -0.256843 -0.585 156 98 96
0.19992 -0.25816 -0.588 148 96 98
0.202066 -0.259477 -0.591 147 95 97
0.204567 -0.261233 -0.595 129 84 89
0.207083 -0.26299 -0.599 128 83 88
0.209267 -0.264307 -0.602 123 86 94
0.233317 -0.282308 -0.643 87 53 67
0.236366 -0.284503 -0.648 92 58 72
0.494619 -0.285381 -0.65 163 119 118
0.492043 -0.283186 -0.645 164 120 119
0.489448 -0.28099 -0.64 167 119 115
0.4876 -0.279234 -0.636 170 122 118
0.485737 -0.277478 -0.632 171 124 118
0.4854 -0.2766 -0.63 173 126 120
0.484283 -0.275283 -0.627 173 126 120
0.483154 -0.273966 -0.624 173 126 120
0.48279 -0.273088 -0.622 177 128 121
0.481641 -0.27177 -0.619 181 132 125
0.48126 -0.270892 -0.617 189 137 124
0.480871 -0.270014 -0.615 192 140 127
0.479691 -0.268697 -0.612 191 138 122
0.479286 -0.267819 -0.61 191 138 122
0.478872 -0.266941 -0.608 194 141 123
0.478451 -0.266063 -0.606 196 143 125
0.478023 -0.265185 -0.604 201 146 126
0.477587 -0.264307 -0.602 204 149 129
0.477938 -0.263868 -0.601 206 150 127
0.477489 -0.26299 -0.599 204 148 125
0.47783 -0.26255 -0.598 202 149 131
0.478169 -0.262111 -0.597 206 153 135
0.479306 -0.262111 -0.597 206 153 135
0.479638 -0.261672 -0.596 208 155 137
0.479967 -0.261233 -0.595 208 155 137
0.4811 -0.261233 -0.595 209 156 138
0.482233 -0.261233 -0.595 206 153 135
0.483367 -0.261233 -0.595 203 150 132
0.4845 -0.261233 -0.595 204 151 133
0.484817 -0.260794 -0.594 207 154 136
0.485949 -0.260794 -0.594 205 152 134
0.48708 -0.260794 -0.594 205 149 132
0.488211 -0.260794 -0.594 204 148 131
0.489343 -0.260794 -0.594 205 150 130
0.490474 -0.260794 -0.594 205 150 130
0.491606 -0.260794 -0.594 202 147 127
0.493567 -0.261233 -0.595 202 147 127
0.4947 -0.261233 -0.595 202 147 127
0.496667 -0.261672 -0.596 205 150 130
0.498637 -0.262111 -0.597 197 145 123
0.500611 -0.26255 -0.598 189 137 115
0.50175 -0.26255 -0.598 185 135 112
0.504571 -0.263429 -0.6 182 132 109
0.506557 -0.263868 -0.601 182 134 112
0.509391 -0.264746 -0.603 180 132 110
0.512233 -0.265624 -0.605 180 133 115
0.51678 -0.26738 -0.609 177 130 112
0.520491 -0.268697 -0.612 172 126 111
-0.12261 -0.276918 -0.628 98 98 106
-0.12006 -0.273831 -0.621 98 98 106
-0.117537 -0.270745 -0.614 98 98 106
-0.114662 -0.266776 -0.605 97 97 105
-0.111446 -0.261926 -0.594 97 97 105
-0.109014 -0.258839 -0.587 97 97 105
-0.106793 -0.256193 -0.581 97 97 105
-0.104777 -0.253989 -0.576 97 97 105
-0.10332 -0.253107 -0.574 96 97 102
-0.10187 -0.252225 -0.572 98 99 104
-0.100429 -0.251343 -0.57 97 98 103
-0.0995171 -0.251784 -0.571 95 96 101
-0.0986019 -0.252225 -0.572 94 95 100
-0.0976829 -0.252666 -0.573 89 90 95
-0.09676 -0.253107 -0.574 82 83 88
-0.096 -0.253989 -0.576 77 78 83
-0.0950676 -0.25443 -0.577 69 70 75
-0.0942943 -0.255311 -0.579 70 71 76
-0.0935133 -0.256193 -0.581 91 91 99
-0.0928838 -0.257516 -0.584 96 96 104
-0.0922429 -0.258839 -0.587 95 95 103
-0.0914352 -0.259721 -0.589 94 94 102
-0.0907733 -0.261044 -0.592 91 92 97
-0.0905543 -0.26369 -0.598 88 89 94
-0.0900133 -0.265453 -0.602 87 88 93
-0.0893095 -0.266776 -0.605 85 85 93
-0.0885943 -0.268099 -0.608 81 81 89
-0.0878676 -0.269422 -0.611 76 79 86
-0.0872714 -0.271186 -0.615 76 79 86
-0.08652 -0.272509 -0.618 75 75 83
-0.085619 -0.27339 -0.62 71 71 79
-0.0847105 -0.274272 -0.622 70 69 77
-0.0837943 -0.275154 -0.624 67 66 74
-0.0827381 -0.275595 -0.625 64 63 71
-0.0815476 -0.275595 -0.625 60 59 67
-0.0803571 -0.275595 -0.625 56 55 63
-0.0791667 -0.275595 -0.625 54 53 61
-0.078101 -0.276036 -0.626 52 51 59
-0.0769086 -0.276036 -0.626 51 50 58
-0.0757162 -0.276036 -0.626 51 50 58
-0.0745238 -0.276036 -0.626 52 51 59
-0.0733314 -0.276036 -0.626 52 51 59
-0.072139 -0.276036 -0.626 53 52 60
-0.0709467 -0.276036 -0.626 55 54 62
-0.0698657 -0.276477 -0.627 56 55 63
-0.068781 -0.276918 -0.628 57 56 64
-0.0675848 -0.276918 -0.628 59 58 66
-0.0664943 -0.277359 -0.629 65 64 72
-0.0652962 -0.277359 -0.629 65 64 72
-0.0640981 -0.277359 -0.629 66 65 73
-0.063 -0.2778 -0.63 68 67 75
-0.0618 -0.2778 -0.63 69 68 76
-0.0606962 -0.278241 -0.631 71 70 78
-0.0594943 -0.278241 -0.631 71 70 78
-0.0583848 -0.278682 -0.632 71 70 78
-0.0572714 -0.279123 -0.633 72 71 79
-0.0561543 -0.279564 -0.634 73 72 80
-0.0550333 -0.280005 -0.635 72 71 79
-0.0538238 -0.280005 -0.635 73 72 80
-0.0526971 -0.280446 -0.636 74 73 81
-0.0514857 -0.280446 -0.636 74 73 81
-0.0503533 -0.280887 -0.637 74 73 81
-0.04914 -0.280887 -0.637 75 74 82
-0.0479267 -0.280887 -0.637 75 74 82
-0.0467867 -0.281328 -0.638 75 74 82
0.145811 -0.284855 -0.646 193 141 130
0.145904 -0.28265 -0.641 200 143 132
0.145289 -0.279123 -0.633 200 143 132
0.144643 -0.275595 -0.625 196 144 133
0.143967 -0.272068 -0.617 197 145 134
0.143495 -0.268981 -0.61 197 145 134
0.143234 -0.266335 -0.604 195 143 132
0.14295 -0.26369 -0.598 195 143 132
0.143126 -0.261926 -0.594 199 147 136
0.143286 -0.260162 -0.59 200 148 137
0.143675 -0.258839 -0.587 198 146 135
0.144053 -0.257516 -0.584 197 143 133
0.144669 -0.256634 -0.582 199 145 135
0.145276 -0.255752 -0.58 200 143 132
0.146129 -0.255311 -0.579 195 138 127
0.146723 -0.25443 -0.577 192 135 124
0.14731 -0.253548 -0.575 190 133 122
0.148147 -0.253107 -0.574 192 138 126
0.14872 -0.252225 -0.572 189 135 123
0.14981 -0.252225 -0.572 191 135 122
0.150635 -0.251784 -0.571 191 135 122
0.151457 -0.251343 -0.57 189 133 120
0.152543 -0.251343 -0.57 193 137 124
0.153359 -0.250902 -0.569 194 138 125
0.154171 -0.250461 -0.568 192 136 123
0.155253 -0.250461 -0.568 194 138 125
0.15606 -0.25002 -0.567 193 137 124
0.15714 -0.25002 -0.567 195 139 126
0.15822 -0.25002 -0.567 196 140 127
0.159019 -0.249579 -0.566 197 141 128
0.160097 -0.249579 -0.566 196 140 127
0.161175 -0.249579 -0.566 194 138 125
0.162253 -0.249579 -0.566 194 138 125
0.163331 -0.249579 -0.566 193 136 125
0.164119 -0.249138 -0.565 191 134 123
0.165195 -0.249138 -0.565 190 132 120
0.166271 -0.249138 -0.565 191 133 121
0.167051 -0.248697 -0.564 195 137 125
0.168126 -0.248697 -0.564 194 136 124
0.1692 -0.248697 -0.564 196 138 126
0.170274 -0.248697 -0.564 194 136 124
0.171349 -0.248697 -0.564 192 134 123
0.172423 -0.248697 -0.564 192 134 123
0.173497 -0.248697 -0.564 194 136 125
0.174571 -0.248697 -0.564 198 141 130
0.175646 -0.248697 -0.564 197 140 129
0.177033 -0.249138 -0.565 195 138 129
0.17811 -0.249138 -0.565 187 130 121
0.179503 -0.249579 -0.566 182 125 116
0.1809 -0.25002 -0.567 183 126 117
0.182301 -0.250461 -0.568 181 124 115
0.184029 -0.251343 -0.57 180 123 114
0.185764 -0.252225 -0.572 178 125 117
0.18718 -0.252666 -0.573 175 122 114
0.188929 -0.253548 -0.575 173 118 111
0.190354 -0.253989 -0.576 170 115 108
0.192116 -0.25487 -0.578 169 114 111
0.19422 -0.256193 -0.581 161 106 103
0.195999 -0.257075 -0.583 157 103 103
0.198124 -0.258398 -0.586 154 100 100
0.20026 -0.259721 -0.589 144 95 99
0.202408 -0.261044 -0.592 139 90 94
0.20491 -0.262808 -0.596 128 85 94
0.207774 -0.265012 -0.601 124 81 90
0.21031 -0.266776 -0.605 119 83 93
0.233317 -0.283532 -0.643 87 53 67
0.236366 -0.285737 -0.648 92 58 72
0.494331 -0.285737 -0.648 160 121 122
0.492507 -0.283973 -0.644 165 120 117
0.4899 -0.281769 -0.639 167 122 119
0.488043 -0.280005 -0.635 172 124 120
0.48617 -0.278241 -0.631 173 125 121
0.485828 -0.277359 -0.629 173 125 121
0.484703 -0.276036 -0.626 174 126 122
0.483567 -0.274713 -0.623 176 129 123
0.482419 -0.27339 -0.62 180 133 127
0.48204 -0.272509 -0.618 187 137 126
0.481653 -0.271627 -0.616 190 140 129
0.481259 -0.270745 -0.614 191 139 125
0.480071 -0.269422 -0.611 191 139 125
0.478872 -0.268099 -0.608 194 143 126
0.479241 -0.267658 -0.607 199 148 131
0.478814 -0.266776 -0.605 201 148 130
0.477587 -0.265453 -0.602 203 150 132
0.477938 -0.265012 -0.601 205 150 129
0.477489 -0.26413 -0.599 203 148 127
0.47783 -0.26369 -0.598 202 151 132
0.478169 -0.263249 -0.597 206 155 136
0.479306 -0.263249 -0.597 206 155 136
0.479638 -0.262808 -0.596 209 156 138
0.479967 -0.262367 -0.595 209 156 138
0.480291 -0.261926 -0.594 210 157 139
0.481423 -0.261926 -0.594 207 154 136
0.482554 -0.261926 -0.594 202 149 131
0.483686 -0.261926 -0.594 203 150 132
0.484001 -0.261485 -0.593 208 155 137
0.48513 -0.261485 -0.593 207 154 136
0.48626 -0.261485 -0.593 205 149 132
0.48739 -0.261485 -0.593 204 148 131
0.488519 -0.261485 -0.593 204 148 131
0.489649 -0.261485 -0.593 204 148 131
0.490778 -0.261485 -0.593 203 148 128
0.491908 -0.261485 -0.593 203 148 128
0.493869 -0.261926 -0.594 200 147 129
0.495833 -0.262367 -0.595 202 149 131
0.497802 -0.262808 -0.596 198 146 125
0.499774 -0.263249 -0.597 189 137 116
0.500911 -0.263249 -0.597 184 133 112
0.50289 -0.26369 -0.598 184 133 112
0.506557 -0.265012 -0.601 182 134 112
0.509391 -0.265894 -0.603 180 132 110
0.512233 -0.266776 -0.605 180 133 115
0.51678 -0.26854 -0.609 177 130 112
0.520491 -0.269863 -0.612 172 126 111
-0.124989 -0.280771 -0.634 93 93 101
-0.122414 -0.277671 -0.627 97 97 105
-0.119867 -0.274571 -0.62 97 97 105
-0.117154 -0.271029 -0.612 97 97 105
-0.114093 -0.2666 -0.602 97 97 105
-0.11107 -0.262171 -0.592 97 97 105
-0.108829 -0.259514 -0.586 97 97 105
-0.106426 -0.256414 -0.579 97 97 105
-0.104595 -0.254643 -0.575 98 98 106
-0.10314 -0.253757 -0.573 98 99 104
-0.101692 -0.252871 -0.571 100 101 106
-0.100429 -0.252429 -0.57 99 100 105
-0.0995171 -0.252871 -0.571 96 97 102
-0.0986019 -0.253314 -0.572 94 95 100
-0.0976829 -0.253757 -0.573 89 90 95
-0.09676 -0.2542 -0.574 82 83 88
-0.096 -0.255086 -0.576 76 77 82
-0.0950676 -0.255529 -0.577 70 71 76
-0.0942943 -0.256414 -0.579 72 73 78
-0.0936743 -0.257743 -0.582 95 98 103
-0.0928838 -0.258629 -0.584 97 100 105
-0.0922429 -0.259957 -0.587 95 98 103
-0.0914352 -0.260843 -0.589 95 98 103
-0.0909267 -0.262614 -0.593 93 94 99
-0.0902514 -0.263943 -0.596 95 96 101
-0.0900133 -0.2666 -0.602 89 90 95
-0.0893095 -0.267929 -0.605 85 88 95
-0.08874 -0.2697 -0.609 81 84 91
-0.0880114 -0.271029 -0.612 79 82 89
-0.0872714 -0.272357 -0.615 77 80 87
-0.08652 -0.273686 -0.618 76 76 84
-0.085619 -0.274571 -0.62 73 73 81
-0.0847105 -0.275457 -0.622 72 71 79
-0.0837943 -0.276343 -0.624 68 67 75
-0.0827381 -0.276786 -0.625 64 63 71
-0.0815476 -0.276786 -0.625 61 60 68
-0.0803571 -0.276786 -0.625 56 55 63
-0.0791667 -0.276786 -0.625 53 52 60
-0.0779762 -0.276786 -0.625 52 51 59
-0.0769086 -0.277229 -0.626 50 49 57
-0.0757162 -0.277229 -0.626 50 49 57
-0.0745238 -0.277229 -0.626 50 49 57
-0.0733314 -0.277229 -0.626 51 50 58
-0.0722543 -0.277671 -0.627 52 51 59
-0.07106 -0.277671 -0.627 53 52 60
-0.0698657 -0.277671 -0.627 54 53 61
-0.068781 -0.278114 -0.628 56 55 63
-0.0675848 -0.278114 -0.628 57 56 64
-0.0664943 -0.278557 -0.629 62 61 69
-0.0652962 -0.278557 -0.629 63 62 70
-0.0640981 -0.278557 -0.629 65 64 72
-0.063 -0.279 -0.63 67 66 74
-0.0618981 -0.279443 -0.631 69 68 76
-0.0606962 -0.279443 -0.631 70 69 77
-0.0595886 -0.279886 -0.632 71 70 78
-0.0584771 -0.280329 -0.633 71 70 78
-0.0572714 -0.280329 -0.633 72 71 79
-0.0561543 -0.280771 -0.634 72 71 79
-0.0550333 -0.281214 -0.635 72 71 79
-0.0539086 -0.281657 -0.636 72 71 79
-0.0526971 -0.281657 -0.636 73 72 80
-0.0514857 -0.281657 -0.636 74 73 81
-0.0503533 -0.2821 -0.637 74 73 81
-0.04914 -0.2821 -0.637 75 74 82
-0.0479267 -0.2821 -0.637 75 74 82
0.144357 -0.285643 -0.645 190 133 122
0.144457 -0.283429 -0.64 192 135 124
0.14431 -0.280771 -0.634 196 139 132
0.143682 -0.277229 -0.626 199 142 135
0.143254 -0.274129 -0.619 200 146 136
0.142567 -0.270586 -0.611 200 146 136
0.142084 -0.267486 -0.604 198 146 135
0.141811 -0.264829 -0.598 197 145 134
0.141994 -0.263057 -0.594 199 147 136
0.142162 -0.261286 -0.59 201 149 138
0.142314 -0.259514 -0.586 202 148 138
0.142941 -0.258629 -0.584 200 146 136
0.143313 -0.2573 -0.581 201 144 133
0.143674 -0.255971 -0.578 203 146 135
0.144274 -0.255086 -0.576 199 142 131
0.145119 -0.254643 -0.575 193 136 125
0.14596 -0.2542 -0.574 194 137 126
0.146541 -0.253314 -0.572 192 135 124
0.147372 -0.252871 -0.571 193 136 125
0.1482 -0.252429 -0.57 189 132 121
0.149286 -0.252429 -0.57 194 136 124
0.150108 -0.251986 -0.569 194 136 124
0.150926 -0.251543 -0.568 190 132 120
0.152008 -0.251543 -0.568 191 133 121
0.15282 -0.2511 -0.567 191 133 121
0.1539 -0.2511 -0.567 188 130 118
0.15498 -0.2511 -0.567 193 135 123
0.155785 -0.250657 -0.566 194 136 124
0.156863 -0.250657 -0.566 197 139 127
0.157662 -0.250214 -0.565 200 142 130
0.158738 -0.250214 -0.565 201 143 131
0.159814 -0.250214 -0.565 199 141 129
0.16089 -0.250214 -0.565 197 139 127
0.161967 -0.250214 -0.565 196 138 126
0.162754 -0.249771 -0.564 193 137 124
0.163829 -0.249771 -0.564 191 135 122
0.164903 -0.249771 -0.564 189 131 119
0.165977 -0.249771 -0.564 190 132 120
0.166755 -0.249329 -0.563 197 139 127
0.167828 -0.249329 -0.563 196 138 126
0.1689 -0.249329 -0.563 196 138 126
0.169972 -0.249329 -0.563 195 137 125
0.171045 -0.249329 -0.563 195 137 125
0.172117 -0.249329 -0.563 193 136 125
0.17319 -0.249329 -0.563 194 137 126
0.174571 -0.249771 -0.564 196 139 128
0.175646 -0.249771 -0.564 194 137 126
0.17672 -0.249771 -0.564 192 135 126
0.17811 -0.250214 -0.565 185 128 119
0.179503 -0.250657 -0.566 182 125 116
0.1809 -0.2511 -0.567 182 125 116
0.182301 -0.251543 -0.568 175 121 111
0.184029 -0.252429 -0.57 173 119 109
0.185439 -0.252871 -0.571 176 122 112
0.18718 -0.253757 -0.573 173 119 109
0.188929 -0.254643 -0.575 169 114 109
0.190685 -0.255529 -0.577 164 109 104
0.192449 -0.256414 -0.579 161 107 107
0.19422 -0.2573 -0.581 154 100 100
0.195999 -0.258186 -0.583 150 100 103
0.198124 -0.259514 -0.586 147 97 100
0.2006 -0.261286 -0.59 136 91 98
0.20275 -0.262614 -0.593 131 86 93
0.205254 -0.264386 -0.597 119 79 88
0.20812 -0.2666 -0.602 118 78 87
0.211005 -0.268814 -0.607 117 81 93
0.234769 -0.286529 -0.647 92 60 75
0.237095 -0.287857 -0.65 94 62 77
0.494801 -0.286529 -0.647 162 122 120
0.4922 -0.284314 -0.642 163 123 121
0.490349 -0.282543 -0.638 169 124 121
0.488482 -0.280771 -0.634 170 125 122
0.487372 -0.279443 -0.631 172 127 122
0.485477 -0.277671 -0.627 173 128 123
0.484343 -0.276343 -0.624 176 129 123
0.483975 -0.275457 -0.622 180 133 127
0.48282 -0.274129 -0.619 186 138 128
0.482435 -0.273243 -0.617 189 141 131
0.482043 -0.272357 -0.615 189 140 126
0.480857 -0.271029 -0.612 190 141 127
0.480448 -0.270143 -0.61 193 144 127
0.479241 -0.268814 -0.607 199 150 133
0.478814 -0.267929 -0.605 202 151 132
0.47838 -0.267043 -0.603 202 151 132
0.477938 -0.266157 -0.601 202 151 130
0.477489 -0.265271 -0.599 201 150 129
0.47783 -0.264829 -0.598 203 152 133
0.478169 -0.264386 -0.597 207 156 137
0.479306 -0.264386 -0.597 207 156 137
0.478833 -0.2635 -0.595 208 157 138
0.479967 -0.2635 -0.595 209 158 139
0.480291 -0.263057 -0.594 211 160 141
0.480612 -0.262614 -0.593 208 157 138
0.481742 -0.262614 -0.593 204 151 133
0.482871 -0.262614 -0.593 205 152 134
0.483185 -0.262171 -0.592 206 153 135
0.484312 -0.262171 -0.592 206 153 135
0.48544 -0.262171 -0.592 202 149 131
0.486568 -0.262171 -0.592 201 148 130
0.487695 -0.262171 -0.592 201 148 130
0.488823 -0.262171 -0.592 199 146 128
0.48995 -0.262171 -0.592 201 148 130
0.491078 -0.262171 -0.592 200 147 129
0.493037 -0.262614 -0.593 199 146 130
0.495 -0.263057 -0.594 198 145 129
0.496967 -0.2635 -0.595 198 145 127
0.4981 -0.2635 -0.595 193 140 122
0.500072 -0.263943 -0.596 187 136 115
0.502049 -0.264386 -0.597 187 136 115
0.504871 -0.265271 -0.599 183 135 115
0.507702 -0.266157 -0.601 179 131 111
0.51054 -0.267043 -0.603 179 132 114
0.513386 -0.267929 -0.605 178 131 113
0.51794 -0.2697 -0.609 175 129 114
-0.124791 -0.281534 -0.633 93 93 101
-0.122219 -0.278421 -0.626 98 99 104
-0.119673 -0.275308 -0.619 97 98 103
-0.116771 -0.271305 -0.61 97 98 103
-0.113904 -0.267302 -0.601 98 99 104
-0.110883 -0.262854 -0.591 98 99 104
-0.108643 -0.260186 -0.585 97 98 103
-0.106426 -0.257517 -0.579 97 97 105
-0.104595 -0.255738 -0.575 98 98 106
-0.10314 -0.254849 -0.573 98 98 106
-0.101692 -0.253959 -0.571 101 101 109
-0.100429 -0.253514 -0.57 101 101 109
-0.0995171 -0.253959 -0.571 98 98 106
-0.0986019 -0.254404 -0.572 94 94 102
-0.0976829 -0.254849 -0.573 89 89 97
-0.09676 -0.255293 -0.574 81 81 89
-0.0958333 -0.255738 -0.575 74 74 82
-0.0950676 -0.256628 -0.577 69 73 76
-0.0942943 -0.257517 -0.579 73 77 80
-0.0935133 -0.258407 -0.581 100 103 108
-0.0928838 -0.259741 -0.584 100 103 108
-0.0922429 -0.261075 -0.587 97 100 105
-0.0914352 -0.261965 -0.589 96 99 104
-0.0907733 -0.263299 -0.592 94 95 99
-0.0902514 -0.265078 -0.596 95 96 100
-0.0900133 -0.267747 -0.602 91 92 97
-0.0893095 -0.269081 -0.605 86 89 96
-0.08874 -0.27086 -0.609 82 85 92
-0.0880114 -0.272194 -0.612 81 84 91
-0.0874133 -0.273973 -0.616 78 81 88
-0.08652 -0.274863 -0.618 77 78 83
-0.085619 -0.275752 -0.62 74 75 80
-0.0847105 -0.276642 -0.622 73 72 80
-0.0837943 -0.277531 -0.624 68 67 75
-0.0827381 -0.277976 -0.625 63 62 70
-0.0816781 -0.278421 -0.626 59 58 66
-0.0804857 -0.278421 -0.626 56 55 63
-0.0792933 -0.278421 -0.626 54 53 61
-0.078101 -0.278421 -0.626 52 51 59
-0.0769086 -0.278421 -0.626 50 49 57
-0.0757162 -0.278421 -0.626 49 48 56
-0.0745238 -0.278421 -0.626 48 47 55
-0.0734486 -0.278866 -0.627 49 48 56
-0.0722543 -0.278866 -0.627 51 50 58
-0.07106 -0.278866 -0.627 52 51 59
-0.0698657 -0.278866 -0.627 54 53 61
-0.068781 -0.27931 -0.628 56 55 63
-0.0675848 -0.27931 -0.628 57 56 64
-0.0664943 -0.279755 -0.629 60 59 67
-0.0652962 -0.279755 -0.629 62 61 69
-0.0642 -0.2802 -0.63 64 63 71
-0.063 -0.2802 -0.63 67 66 74
-0.0618981 -0.280645 -0.631 69 68 76
-0.0607924 -0.28109 -0.632 70 69 77
-0.0596829 -0.281534 -0.633 71 70 78
-0.0584771 -0.281534 -0.633 71 70 78
-0.0573619 -0.281979 -0.634 72 71 79
-0.0562429 -0.282424 -0.635 71 70 78
-0.0550333 -0.282424 -0.635 72 71 79
-0.0539086 -0.282869 -0.636 72 71 79
-0.0526971 -0.282869 -0.636 73 72 80
0.143462 -0.285092 -0.641 193 139 129
0.143103 -0.281979 -0.634 197 143 133
0.142717 -0.278866 -0.627 198 143 136
0.142075 -0.275308 -0.619 202 147 140
0.141634 -0.272194 -0.612 203 149 139
0.141167 -0.269081 -0.605 197 143 133
0.140908 -0.266412 -0.599 194 142 131
0.140389 -0.263299 -0.592 199 147 136
0.140799 -0.261965 -0.589 205 151 141
0.140957 -0.260186 -0.585 203 149 139
0.141586 -0.259296 -0.583 203 146 135
0.141962 -0.257962 -0.58 207 150 139
0.142327 -0.256628 -0.577 204 147 136
0.142929 -0.255738 -0.575 201 144 133
0.143523 -0.254849 -0.573 195 138 127
0.144362 -0.254404 -0.572 186 129 118
0.145197 -0.253959 -0.571 194 136 124
0.146029 -0.253514 -0.57 194 136 124
0.146856 -0.25307 -0.569 195 137 125
0.14768 -0.252625 -0.568 190 132 120
0.148762 -0.252625 -0.568 194 136 124
0.14958 -0.25218 -0.567 195 137 125
0.15066 -0.25218 -0.567 193 135 123
0.151472 -0.251735 -0.566 191 133 121
0.15255 -0.251735 -0.566 189 131 119
0.153629 -0.251735 -0.566 188 130 118
0.154433 -0.25129 -0.565 193 135 123
0.15551 -0.25129 -0.565 196 138 126
0.156586 -0.25129 -0.565 197 139 127
0.157383 -0.250846 -0.564 200 142 130
0.158457 -0.250846 -0.564 200 142 130
0.159531 -0.250846 -0.564 198 140 128
0.160606 -0.250846 -0.564 200 142 130
0.16168 -0.250846 -0.564 198 140 128
0.162466 -0.250401 -0.563 193 135 123
0.163538 -0.250401 -0.563 190 132 120
0.16461 -0.250401 -0.563 188 130 118
0.165683 -0.250401 -0.563 189 131 119
0.166755 -0.250401 -0.563 194 136 124
0.16753 -0.249956 -0.562 193 135 123
0.1686 -0.249956 -0.562 190 133 122
0.16967 -0.249956 -0.562 193 136 125
0.170741 -0.249956 -0.562 193 136 125
0.171811 -0.249956 -0.562 194 137 126
0.17319 -0.250401 -0.563 195 138 127
0.174262 -0.250401 -0.563 195 138 127
0.175646 -0.250846 -0.564 193 136 125
0.17672 -0.250846 -0.564 190 133 124
0.17811 -0.25129 -0.565 185 128 119
0.179503 -0.251735 -0.566 181 124 115
0.1809 -0.25218 -0.567 178 121 112
0.182301 -0.252625 -0.568 175 118 109
0.184029 -0.253514 -0.57 173 116 107
0.185764 -0.254404 -0.572 176 118 107
0.187507 -0.255293 -0.574 174 116 105
0.189257 -0.256183 -0.576 169 114 107
0.190685 -0.256628 -0.577 162 107 100
0.192781 -0.257962 -0.58 156 105 104
0.194554 -0.258851 -0.582 149 98 97
0.196335 -0.259741 -0.584 142 95 101
0.1988 -0.26152 -0.588 137 90 96
0.20094 -0.262854 -0.591 132 90 100
0.20275 -0.263744 -0.593 131 86 93
0.205254 -0.265523 -0.597 119 79 88
0.20812 -0.267747 -0.602 118 78 87
0.211005 -0.26997 -0.607 117 81 93
0.497095 -0.289095 -0.65 156 125 123
0.4945 -0.286871 -0.645 157 126 124
0.492654 -0.285092 -0.641 168 124 121
0.490023 -0.282869 -0.636 169 125 122
0.488917 -0.281534 -0.633 172 127 122
0.487026 -0.279755 -0.629 173 128 123
0.485895 -0.278421 -0.626 174 129 123
0.484753 -0.277087 -0.623 177 132 126
0.4836 -0.275752 -0.62 184 137 129
0.483217 -0.274863 -0.618 187 140 132
0.482043 -0.273529 -0.615 186 138 126
0.481643 -0.272639 -0.613 187 139 127
0.481235 -0.27175 -0.611 192 143 128
0.48003 -0.270415 -0.608 197 148 133
0.478814 -0.269081 -0.605 202 151 132
0.47838 -0.268191 -0.603 202 151 132
0.477938 -0.267302 -0.601 201 150 131
0.478286 -0.266857 -0.6 202 151 132
0.47783 -0.265968 -0.598 205 154 135
0.478169 -0.265523 -0.597 207 156 137
0.479306 -0.265523 -0.597 207 156 137
0.478833 -0.264633 -0.595 209 158 139
0.479967 -0.264633 -0.595 209 158 139
0.480291 -0.264189 -0.594 210 159 140
0.480612 -0.263744 -0.593 208 157 138
0.481742 -0.263744 -0.593 206 153 135
0.482057 -0.263299 -0.592 207 154 136
0.483185 -0.263299 -0.592 204 151 133
0.483494 -0.262854 -0.591 205 152 134
0.48462 -0.262854 -0.591 202 149 131
0.485746 -0.262854 -0.591 201 148 130
0.486871 -0.262854 -0.591 200 147 129
0.487997 -0.262854 -0.591 198 145 127
0.489123 -0.262854 -0.591 203 147 130
0.490249 -0.262854 -0.591 202 146 129
0.492206 -0.263299 -0.592 204 148 133
0.493333 -0.263299 -0.592 201 145 130
0.495296 -0.263744 -0.593 200 144 127
0.497263 -0.264189 -0.594 199 143 126
0.499233 -0.264633 -0.595 193 141 120
0.501208 -0.265078 -0.596 190 138 117
0.503186 -0.265523 -0.597 187 136 115
0.506012 -0.266412 -0.599 185 134 113
0.508847 -0.267302 -0.601 181 133 113
0.511689 -0.268191 -0.603 182 134 114
0.514538 -0.269081 -0.605 179 132 116
0.519952 -0.271305 -0.61 175 128 112
0.525386 -0.273529 -0.615 172 126 111
0.531694 -0.276197 -0.621 171 125 110
-0.124397 -0.281847 -0.631 94 97 104
-0.122024 -0.279167 -0.625 98 98 106
-0.11948 -0.27604 -0.618 100 100 108
-0.11658 -0.27202 -0.609 98 98 108
-0.113714 -0.268 -0.6 98 98 108
-0.110883 -0.26398 -0.591 98 101 108
-0.108457 -0.260853 -0.584 98 101 108
-0.106242 -0.258173 -0.578 98 101 106
-0.104595 -0.256833 -0.575 100 103 108
-0.10314 -0.25594 -0.573 99 102 107
-0.10187 -0.255493 -0.572 97 100 105
-0.100605 -0.255047 -0.571 97 100 107
-0.0995171 -0.255047 -0.571 97 100 107
-0.0986019 -0.255493 -0.572 97 100 105
-0.0975124 -0.255493 -0.572 90 93 98
-0.09676 -0.256387 -0.574 76 80 83
-0.0958333 -0.256833 -0.575 68 72 75
-0.0950676 -0.257727 -0.577 66 67 72
-0.0942943 -0.25862 -0.579 78 79 84
-0.0935133 -0.259513 -0.581 96 99 106
-0.0928838 -0.260853 -0.584 99 102 109
-0.0922429 -0.262193 -0.587 97 100 107
-0.0914352 -0.263087 -0.589 94 97 104
-0.0907733 -0.264427 -0.592 97 98 103
-0.0902514 -0.266213 -0.596 94 95 100
-0.0895648 -0.267553 -0.599 92 93 98
-0.0894571 -0.27068 -0.606 86 89 96
-0.08874 -0.27202 -0.609 83 86 93
-0.0881552 -0.273807 -0.613 80 83 90
-0.0874133 -0.275147 -0.616 78 81 88
-0.08666 -0.276487 -0.619 77 78 83
-0.0857571 -0.27738 -0.621 73 74 79
-0.0848467 -0.278273 -0.623 73 74 79
-0.0837943 -0.27872 -0.624 70 71 76
-0.0827381 -0.279167 -0.625 64 65 70
-0.0815476 -0.279167 -0.625 58 59 64
-0.0804857 -0.279613 -0.626 53 54 59
-0.0792933 -0.279613 -0.626 48 49 54
-0.078101 -0.279613 -0.626 46 46 54
-0.0769086 -0.279613 -0.626 48 48 56
-0.0757162 -0.279613 -0.626 47 47 55
-0.0745238 -0.279613 -0.626 47 47 55
-0.0734486 -0.28006 -0.627 48 48 56
-0.0722543 -0.28006 -0.627 50 50 58
-0.07106 -0.28006 -0.627 52 52 60
-0.0698657 -0.28006 -0.627 52 52 60
-0.068781 -0.280507 -0.628 53 53 61
-0.0675848 -0.280507 -0.628 53 53 61
-0.0664943 -0.280953 -0.629 57 56 64
-0.0652962 -0.280953 -0.629 61 60 68
-0.0642 -0.2814 -0.63 64 63 71
-0.0631 -0.281847 -0.631 65 64 72
-0.0618981 -0.281847 -0.631 67 66 74
-0.0607924 -0.282293 -0.632 70 69 77
-0.0596829 -0.28274 -0.633 71 70 78
-0.0585695 -0.283187 -0.634 72 71 79
-0.0573619 -0.283187 -0.634 71 70 78
-0.0562429 -0.283633 -0.635 70 69 77
-0.0550333 -0.283633 -0.635 72 71 79
-0.0539086 -0.28408 -0.636 72 71 79
-0.0526971 -0.28408 -0.636 72 71 79
0.142685 -0.287207 -0.643 197 144 140
0.142119 -0.283633 -0.635 198 146 135
0.141523 -0.28006 -0.627 198 146 135
0.141124 -0.276933 -0.62 195 144 127
0.140469 -0.27336 -0.612 195 144 127
0.140014 -0.270233 -0.605 200 147 139
0.139767 -0.267553 -0.599 193 140 132
0.139731 -0.26532 -0.594 193 141 130
0.13944 -0.26264 -0.588 201 149 138
0.140082 -0.261747 -0.586 205 151 141
0.140234 -0.25996 -0.582 202 148 138
0.140857 -0.259067 -0.58 204 147 138
0.141228 -0.257727 -0.577 209 152 143
0.141833 -0.256833 -0.575 203 146 135
0.142431 -0.25594 -0.573 197 140 129
0.143022 -0.255047 -0.571 192 135 124
0.14411 -0.255047 -0.571 182 125 114
0.144689 -0.254153 -0.569 191 133 121
0.145516 -0.253707 -0.568 192 134 122
0.146598 -0.253707 -0.568 195 135 124
0.14742 -0.25326 -0.567 192 132 121
0.148238 -0.252813 -0.566 191 134 123
0.149316 -0.252813 -0.566 192 135 124
0.150394 -0.252813 -0.566 193 135 124
0.151205 -0.252367 -0.565 192 134 123
0.152281 -0.252367 -0.565 190 132 121
0.153357 -0.252367 -0.565 193 135 124
0.154433 -0.252367 -0.565 198 140 128
0.155234 -0.25192 -0.564 200 142 130
0.156309 -0.25192 -0.564 196 138 126
0.157104 -0.251473 -0.563 196 138 126
0.158176 -0.251473 -0.563 196 136 126
0.159249 -0.251473 -0.563 196 136 126
0.160321 -0.251473 -0.563 199 139 128
0.161393 -0.251473 -0.563 198 138 127
0.162177 -0.251027 -0.562 194 136 124
0.163248 -0.251027 -0.562 191 133 121
0.164318 -0.251027 -0.562 185 127 116
0.165389 -0.251027 -0.562 185 127 116
0.166459 -0.251027 -0.562 187 129 118
0.16753 -0.251027 -0.562 189 131 120
0.1686 -0.251027 -0.562 186 128 117
0.16967 -0.251027 -0.562 195 137 126
0.170741 -0.251027 -0.562 195 137 126
0.171811 -0.251027 -0.562 193 135 124
0.172882 -0.251027 -0.562 194 136 125
0.174262 -0.251473 -0.563 191 134 125
0.175334 -0.251473 -0.563 189 132 123
0.17672 -0.25192 -0.564 186 129 120
0.17811 -0.252367 -0.565 183 126 117
0.179503 -0.252813 -0.566 179 122 113
0.1809 -0.25326 -0.567 175 118 109
0.182622 -0.254153 -0.569 174 117 108
0.184029 -0.2546 -0.57 174 117 108
0.185764 -0.255493 -0.572 175 117 105
0.187507 -0.256387 -0.574 175 117 105
0.189257 -0.25728 -0.576 168 113 106
0.191015 -0.258173 -0.578 161 106 99
0.192781 -0.259067 -0.58 156 105 104
0.194554 -0.25996 -0.582 149 98 97
0.196335 -0.260853 -0.584 142 95 101
0.1988 -0.26264 -0.588 137 90 96
0.20094 -0.26398 -0.591 132 90 100
0.203433 -0.265767 -0.595 116 74 84
0.205942 -0.267553 -0.599 104 70 84
0.209157 -0.270233 -0.605 120 86 100
0.212048 -0.272467 -0.61 106 75 90
0.214957 -0.2747 -0.615 73 42 57
0.227857 -0.284973 -0.638 84 61 71
0.230509 -0.28676 -0.642 83 57 70
0.233897 -0.28944 -0.648 87 61 74
0.4968 -0.28944 -0.648 153 124 128
0.494191 -0.287207 -0.643 166 125 123
0.492334 -0.28542 -0.639 167 126 124
0.490462 -0.283633 -0.635 171 127 124
0.488574 -0.281847 -0.631 173 129 126
0.486671 -0.28006 -0.627 174 131 124
0.485531 -0.27872 -0.624 175 132 125
0.48516 -0.277827 -0.622 179 135 126
0.483999 -0.276487 -0.619 181 137 128
0.482827 -0.275147 -0.616 182 135 125
0.482429 -0.274253 -0.614 186 139 129
0.481235 -0.272913 -0.611 191 144 128
0.48082 -0.27202 -0.609 195 148 132
0.479606 -0.27068 -0.606 201 152 135
0.479173 -0.269787 -0.604 201 152 135
0.478733 -0.268893 -0.602 201 152 135
0.478286 -0.268 -0.6 203 154 137
0.47783 -0.267107 -0.598 205 154 137
0.478169 -0.26666 -0.597 208 157 140
0.479306 -0.26666 -0.597 208 157 140
0.478833 -0.265767 -0.595 209 158 139
0.479967 -0.265767 -0.595 208 157 138
0.480291 -0.26532 -0.594 208 157 138
0.480612 -0.264873 -0.593 206 155 136
0.48093 -0.264427 -0.592 206 153 135
0.482057 -0.264427 -0.592 207 154 136
0.482369 -0.26398 -0.591 204 151 133
0.483494 -0.26398 -0.591 204 151 133
0.48462 -0.26398 -0.591 204 151 133
0.484924 -0.263533 -0.59 203 150 132
0.486048 -0.263533 -0.59 200 147 129
0.487171 -0.263533 -0.59 198 145 127
0.488295 -0.263533 -0.59 200 147 129
0.489419 -0.263533 -0.59 200 147 129
0.491374 -0.26398 -0.591 205 148 131
0.4925 -0.26398 -0.591 203 146 129
0.494461 -0.264427 -0.592 200 144 127
0.495589 -0.264427 -0.592 199 143 126
0.497555 -0.264873 -0.593 194 142 121
0.499526 -0.26532 -0.594 189 137 116
0.5015 -0.265767 -0.595 186 136 113
0.504323 -0.26666 -0.597 189 139 116
0.506307 -0.267107 -0.598 186 138 115
0.509143 -0.268 -0.6 184 136 113
0.512837 -0.26934 -0.603 180 133 113
0.516543 -0.27068 -0.606 177 130 110
0.521114 -0.272467 -0.61 174 129 110
0.526557 -0.2747 -0.615 171 126 107
-0.1242 -0.2826 -0.63 96 96 106
-0.121829 -0.279909 -0.624 99 99 107
-0.119287 -0.276769 -0.617 100 100 108
-0.116389 -0.272731 -0.608 99 99 107
-0.113335 -0.268246 -0.598 100 100 108
-0.110695 -0.264657 -0.59 100 103 110
-0.108457 -0.261966 -0.584 101 104 111
-0.106058 -0.258826 -0.577 100 103 108
-0.104413 -0.25748 -0.574 101 104 109
-0.10314 -0.257031 -0.573 101 104 109
-0.101692 -0.256134 -0.571 100 103 108
-0.100605 -0.256134 -0.571 100 103 108
-0.0996914 -0.256583 -0.572 99 102 107
-0.0986019 -0.256583 -0.572 98 101 106
-0.0976829 -0.257031 -0.573 90 93 98
-0.09676 -0.25748 -0.574 75 78 83
-0.096 -0.258377 -0.576 66 69 74
-0.0950676 -0.258826 -0.577 67 68 73
-0.0942943 -0.259723 -0.579 83 84 89
-0.0935133 -0.26062 -0.581 100 103 110
-0.0928838 -0.261966 -0.584 101 104 111
-0.0922429 -0.263311 -0.587 100 103 110
-0.0914352 -0.264209 -0.589 97 100 107
-0.0909267 -0.266003 -0.593 97 98 103
-0.0902514 -0.267349 -0.596 92 93 98
-0.0897143 -0.269143 -0.6 93 94 99
-0.0894571 -0.271834 -0.606 86 89 96
-0.0888857 -0.273629 -0.61 82 85 92
-0.0881552 -0.274974 -0.613 80 83 90
-0.0875552 -0.276769 -0.617 78 81 88
-0.08666 -0.277666 -0.619 77 78 83
-0.0857571 -0.278563 -0.621 74 75 80
-0.0848467 -0.27946 -0.623 70 71 76
-0.0839286 -0.280357 -0.625 69 70 75
-0.0827381 -0.280357 -0.625 64 65 70
-0.0816781 -0.280806 -0.626 58 59 64
-0.0804857 -0.280806 -0.626 54 55 60
-0.0792933 -0.280806 -0.626 51 52 57
-0.078101 -0.280806 -0.626 49 50 55
-0.0769086 -0.280806 -0.626 50 51 56
-0.0757162 -0.280806 -0.626 49 49 57
-0.0745238 -0.280806 -0.626 48 48 56
-0.0733314 -0.280806 -0.626 47 47 55
-0.0722543 -0.281254 -0.627 47 47 55
-0.07106 -0.281254 -0.627 49 48 56
-0.0698657 -0.281254 -0.627 50 49 57
-0.068781 -0.281703 -0.628 51 50 58
-0.0675848 -0.281703 -0.628 52 51 59
-0.0664943 -0.282151 -0.629 57 56 64
-0.0652962 -0.282151 -0.629 60 59 67
-0.0642 -0.2826 -0.63 62 61 69
-0.063 -0.2826 -0.63 63 62 70
-0.0618981 -0.283049 -0.631 65 64 72
-0.0607924 -0.283497 -0.632 69 68 76
-0.0596829 -0.283946 -0.633 71 70 78
-0.0585695 -0.284394 -0.634 72 71 79
-0.0573619 -0.284394 -0.634 71 70 78
-0.0562429 -0.284843 -0.635 70 69 77
0.14102 -0.287534 -0.641 196 143 139
0.141131 -0.285291 -0.636 200 147 143
0.140329 -0.281254 -0.627 196 146 135
0.139943 -0.278114 -0.62 193 143 132
0.13953 -0.274974 -0.613 192 145 119
0.138862 -0.271386 -0.605 192 145 119
0.138626 -0.268694 -0.599 192 142 133
0.138367 -0.266003 -0.593 191 141 132
0.138555 -0.264209 -0.589 197 144 136
0.138491 -0.261966 -0.584 202 149 141
0.139126 -0.261069 -0.582 204 149 142
0.139511 -0.259723 -0.579 202 147 140
0.140129 -0.258826 -0.577 205 148 139
0.140738 -0.257929 -0.575 207 150 141
0.14134 -0.257031 -0.573 200 143 134
0.141934 -0.256134 -0.571 196 139 130
0.142771 -0.255686 -0.57 193 139 127
0.143605 -0.255237 -0.569 182 128 116
0.144434 -0.254789 -0.568 191 133 122
0.14526 -0.25434 -0.567 191 133 122
0.146082 -0.253891 -0.566 194 134 123
0.14716 -0.253891 -0.566 193 133 122
0.147976 -0.253443 -0.565 194 137 126
0.149052 -0.253443 -0.565 192 135 124
0.149863 -0.252994 -0.564 192 135 126
0.150937 -0.252994 -0.564 190 133 124
0.152011 -0.252994 -0.564 191 132 124
0.153086 -0.252994 -0.564 195 136 128
0.153887 -0.252546 -0.563 198 141 130
0.154959 -0.252546 -0.563 198 141 130
0.156031 -0.252546 -0.563 197 141 128
0.156825 -0.252097 -0.562 196 140 127
0.157895 -0.252097 -0.562 196 138 127
0.158966 -0.252097 -0.562 195 137 126
0.160036 -0.252097 -0.562 195 135 125
0.161107 -0.252097 -0.562 194 134 124
0.161889 -0.251649 -0.561 190 132 120
0.162957 -0.251649 -0.561 188 130 118
0.164026 -0.251649 -0.561 183 124 116
0.165094 -0.251649 -0.561 183 124 116
0.166163 -0.251649 -0.561 183 124 116
0.167231 -0.251649 -0.561 188 129 121
0.1683 -0.251649 -0.561 187 128 120
0.169369 -0.251649 -0.561 187 128 120
0.170437 -0.251649 -0.561 198 139 131
0.171811 -0.252097 -0.562 193 134 126
0.172882 -0.252097 -0.562 191 132 124
0.173952 -0.252097 -0.562 186 127 119
0.175334 -0.252546 -0.563 184 125 117
0.17672 -0.252994 -0.564 180 121 113
0.177794 -0.252994 -0.564 180 121 113
0.179503 -0.253891 -0.566 178 119 111
0.1809 -0.25434 -0.567 175 116 108
0.182622 -0.255237 -0.569 175 116 108
0.184029 -0.255686 -0.57 174 117 108
0.185764 -0.256583 -0.572 175 117 105
0.187507 -0.25748 -0.574 175 117 105
0.189257 -0.258377 -0.576 168 113 106
0.191015 -0.259274 -0.578 161 106 99
0.192781 -0.260171 -0.58 155 104 103
0.194889 -0.261517 -0.583 148 97 96
0.196671 -0.262414 -0.585 139 94 99
0.199138 -0.264209 -0.589 132 87 92
0.20162 -0.266003 -0.593 121 85 97
0.204117 -0.267797 -0.597 114 78 90
0.20663 -0.269591 -0.601 162 137 156
0.209849 -0.272283 -0.607 217 192 211
0.21309 -0.274974 -0.613 202 187 210
0.216006 -0.277217 -0.618 168 153 176
0.229643 -0.288431 -0.643 101 90 106
0.231945 -0.289777 -0.646 116 102 117
0.26269 -0.291123 -0.649 168 116 120
0.26352 -0.290674 -0.648 165 108 115
0.265163 -0.291123 -0.649 165 108 115
0.497266 -0.290226 -0.647 164 126 125
0.494646 -0.287983 -0.642 165 127 126
0.492779 -0.286189 -0.638 168 129 124
0.490123 -0.283946 -0.633 170 131 126
0.488224 -0.282151 -0.629 172 131 125
0.487088 -0.280806 -0.626 173 132 126
0.48594 -0.27946 -0.623 176 133 127
0.484781 -0.278114 -0.62 178 135 129
0.484394 -0.277217 -0.618 178 134 125
0.483214 -0.275871 -0.615 183 139 130
0.482023 -0.274526 -0.612 191 145 130
0.48161 -0.273629 -0.61 195 149 134
0.480397 -0.272283 -0.607 199 152 134
0.479173 -0.270937 -0.604 200 153 135
0.478733 -0.27004 -0.602 201 154 138
0.478286 -0.269143 -0.6 202 155 139
0.47863 -0.268694 -0.599 206 155 138
0.478169 -0.267797 -0.597 209 158 141
0.4777 -0.2669 -0.595 207 158 141
0.478833 -0.2669 -0.595 207 158 141
0.47916 -0.266451 -0.594 205 156 139
0.480291 -0.266451 -0.594 205 156 139
0.480612 -0.266003 -0.593 203 154 137
0.48093 -0.265554 -0.592 204 153 134
0.481243 -0.265106 -0.591 207 156 137
0.482369 -0.265106 -0.591 204 153 134
0.482676 -0.264657 -0.59 204 153 134
0.4838 -0.264657 -0.59 205 154 135
0.484924 -0.264657 -0.59 203 152 133
0.485224 -0.264209 -0.589 199 148 129
0.486346 -0.264209 -0.589 198 147 128
0.487468 -0.264209 -0.589 199 146 128
0.48859 -0.264209 -0.589 200 147 129
0.490543 -0.264657 -0.59 202 144 130
0.491667 -0.264657 -0.59 205 147 133
0.493626 -0.265106 -0.591 202 146 129
0.494751 -0.265106 -0.591 200 144 127
0.495877 -0.265106 -0.591 199 144 124
0.497844 -0.265554 -0.592 193 138 118
0.500657 -0.266451 -0.594 186 136 113
0.502633 -0.2669 -0.595 190 140 117
0.504613 -0.267349 -0.596 186 138 115
0.507446 -0.268246 -0.598 182 134 111
0.510286 -0.269143 -0.6 179 132 112
0.513986 -0.270489 -0.603 178 131 111
0.517697 -0.271834 -0.606 175 130 111
0.522276 -0.273629 -0.61 174 129 110
-0.124003 -0.28335 -0.629 96 96 106
-0.121438 -0.280196 -0.622 101 102 107
-0.119093 -0.277493 -0.616 101 102 107
-0.116197 -0.273439 -0.607 100 100 108
-0.113335 -0.269385 -0.598 101 101 109
-0.110695 -0.265781 -0.59 101 104 111
-0.108271 -0.262628 -0.583 104 107 114
-0.106058 -0.259925 -0.577 104 107 112
-0.104595 -0.259024 -0.575 104 107 112
-0.10314 -0.258123 -0.573 105 108 113
-0.10187 -0.257672 -0.572 105 108 113
-0.100605 -0.257222 -0.571 104 107 112
-0.0996914 -0.257672 -0.572 103 106 111
-0.0986019 -0.257672 -0.572 102 105 110
-0.0976829 -0.258123 -0.573 92 95 100
-0.0969286 -0.259024 -0.575 76 79 84
-0.096 -0.259474 -0.576 66 69 74
-0.0952324 -0.260375 -0.578 64 67 74
-0.0942943 -0.260826 -0.579 86 89 96
-0.0936743 -0.262177 -0.582 106 109 116
-0.0930429 -0.263529 -0.585 102 105 112
-0.0922429 -0.26443 -0.587 99 102 109
-0.0915905 -0.265781 -0.59 98 101 108
-0.0909267 -0.267132 -0.593 101 102 107
-0.0904029 -0.268934 -0.597 100 101 106
-0.0897143 -0.270286 -0.6 94 95 100
-0.0891619 -0.272088 -0.604 92 93 98
-0.0888857 -0.27479 -0.61 85 86 91
-0.0882991 -0.276592 -0.614 83 84 89
-0.0875552 -0.277944 -0.617 82 83 88
-0.0868 -0.279295 -0.62 79 80 85
-0.0858952 -0.280196 -0.622 76 77 82
-0.0849829 -0.281097 -0.624 72 73 78
-0.0840629 -0.281998 -0.626 69 70 75
-0.0828705 -0.281998 -0.626 62 63 68
-0.0816781 -0.281998 -0.626 55 56 61
-0.0804857 -0.281998 -0.626 51 52 57
-0.0792933 -0.281998 -0.626 48 49 54
-0.078101 -0.281998 -0.626 48 47 53
-0.0769086 -0.281998 -0.626 46 45 51
-0.0757162 -0.281998 -0.626 48 47 55
-0.0745238 -0.281998 -0.626 48 47 55
-0.0733314 -0.281998 -0.626 47 46 54
-0.0722543 -0.282449 -0.627 47 46 54
-0.07106 -0.282449 -0.627 48 47 55
-0.0698657 -0.282449 -0.627 50 49 57
-0.068781 -0.282899 -0.628 52 51 59
-0.0675848 -0.282899 -0.628 53 52 60
-0.0663886 -0.282899 -0.628 54 53 61
-0.0652962 -0.28335 -0.629 56 55 63
-0.0642 -0.2838 -0.63 60 59 67
-0.063 -0.2838 -0.63 63 62 70
-0.0618981 -0.28425 -0.631 65 64 72
-0.0607924 -0.284701 -0.632 67 66 74
-0.0596829 -0.285151 -0.633 71 70 78
-0.0585695 -0.285602 -0.634 72 71 79
0.140017 -0.289206 -0.642 201 148 142
0.14014 -0.286953 -0.637 198 147 144
0.139578 -0.28335 -0.629 202 151 148
0.138137 -0.275691 -0.612 197 150 144
0.13771 -0.272538 -0.605 192 145 129
0.137485 -0.269835 -0.599 193 146 130
0.137237 -0.267132 -0.593 194 144 135
0.137433 -0.26533 -0.589 190 140 131
0.137379 -0.263078 -0.584 193 140 132
0.13778 -0.261727 -0.581 200 147 139
0.138409 -0.260826 -0.579 206 153 145
0.13903 -0.259925 -0.577 206 153 145
0.139643 -0.259024 -0.575 204 152 141
0.140249 -0.258123 -0.573 204 152 141
0.140847 -0.257222 -0.571 197 143 133
0.141437 -0.256321 -0.569 194 140 130
0.14227 -0.25587 -0.568 192 135 126
0.143352 -0.25587 -0.568 190 133 124
0.14418 -0.25542 -0.567 191 134 123
0.145004 -0.25497 -0.566 192 135 124
0.145824 -0.254519 -0.565 192 135 124
0.1469 -0.254519 -0.565 191 134 123
0.147714 -0.254069 -0.564 193 137 124
0.148789 -0.254069 -0.564 191 135 122
0.149863 -0.254069 -0.564 191 138 124
0.15067 -0.253618 -0.563 190 137 123
0.151742 -0.253618 -0.563 190 134 121
0.152814 -0.253618 -0.563 194 138 125
0.153887 -0.253618 -0.563 198 140 129
0.154959 -0.253618 -0.563 197 139 128
0.155754 -0.253168 -0.562 197 139 128
0.156825 -0.253168 -0.562 198 140 129
0.157895 -0.253168 -0.562 197 140 129
0.158966 -0.253168 -0.562 193 136 125
0.160036 -0.253168 -0.562 192 134 123
0.16082 -0.252717 -0.561 189 131 120
0.161889 -0.252717 -0.561 185 127 116
0.162957 -0.252717 -0.561 183 125 114
0.164026 -0.252717 -0.561 186 128 117
0.165094 -0.252717 -0.561 183 125 114
0.165867 -0.252267 -0.56 186 128 117
0.166933 -0.252267 -0.56 186 128 117
0.1683 -0.252717 -0.561 185 126 118
0.169369 -0.252717 -0.561 185 126 118
0.170437 -0.252717 -0.561 192 133 125
0.171506 -0.252717 -0.561 190 132 121
0.172574 -0.252717 -0.561 183 125 114
0.173952 -0.253168 -0.562 178 119 111
0.175334 -0.253618 -0.563 180 121 113
0.17672 -0.254069 -0.564 179 120 114
0.177794 -0.254069 -0.564 180 121 113
0.179503 -0.25497 -0.566 178 119 111
0.1809 -0.25542 -0.567 175 116 108
0.182622 -0.256321 -0.569 175 116 108
0.184351 -0.257222 -0.571 174 115 107
0.185764 -0.257672 -0.572 174 118 105
0.187507 -0.258573 -0.574 173 117 104
0.189257 -0.259474 -0.576 163 110 102
0.191346 -0.260826 -0.579 154 101 93
0.193113 -0.261727 -0.581 150 100 99
0.195223 -0.263078 -0.584 146 96 95
0.197008 -0.263979 -0.586 136 94 98
0.199476 -0.265781 -0.59 130 88 92
0.20196 -0.267583 -0.594 116 85 100
0.204459 -0.269385 -0.598 173 142 157
0.259015 -0.291008 -0.646 173 129 130
0.259843 -0.290557 -0.645 166 120 123
0.260667 -0.290107 -0.644 157 111 114
0.261487 -0.289656 -0.643 164 107 113
0.263529 -0.290557 -0.645 153 96 102
0.265168 -0.291008 -0.646 152 102 114
0.26681 -0.291458 -0.647 147 97 109
0.499571 -0.29281 -0.65 162 126 126
0.496187 -0.290107 -0.644 163 127 127
0.494324 -0.288305 -0.64 167 129 126
0.491671 -0.286052 -0.635 169 131 128
0.489776 -0.28425 -0.631 171 132 127
0.487866 -0.282449 -0.627 171 132 127
0.48672 -0.281097 -0.624 174 133 127
0.486345 -0.280196 -0.622 176 135 129
0.485178 -0.278845 -0.619 174 131 122
0.484 -0.277493 -0.616 181 138 129
0.48281 -0.276142 -0.613 190 144 129
0.482399 -0.275241 -0.611 193 147 132
0.481189 -0.27389 -0.608 196 149 133
0.479967 -0.272538 -0.605 198 151 135
0.479529 -0.271637 -0.603 199 152 136
0.478286 -0.270286 -0.6 200 153 137
0.47863 -0.269835 -0.599 204 155 138
0.478169 -0.268934 -0.597 208 159 142
0.4777 -0.268033 -0.595 207 158 141
0.478833 -0.268033 -0.595 207 158 141
0.47916 -0.267583 -0.594 205 156 139
0.479483 -0.267132 -0.593 206 157 140
0.479802 -0.266682 -0.592 204 155 138
0.48093 -0.266682 -0.592 205 154 135
0.481243 -0.266231 -0.591 208 157 138
0.481552 -0.265781 -0.59 206 155 136
0.482676 -0.265781 -0.59 204 153 134
0.4838 -0.265781 -0.59 206 155 136
0.484102 -0.26533 -0.589 203 152 133
