ply
format ascii 1.0
comment Created by Open3D
element vertex 1313
property double x
property double y
property double z
property uchar red
property uchar green
property uchar blue
end_header
0.229695 -0.366686 -0.62 174 171 190
0.230504 -0.366094 -0.619 168 166 188
0.231683 -0.366094 -0.619 173 171 193
0.232862 -0.366094 -0.619 174 174 198
0.234041 -0.366094 -0.619 178 178 202
0.23522 -0.366094 -0.619 179 181 206
0.236399 -0.366094 -0.619 173 175 200
0.237578 -0.366094 -0.619 148 149 177
0.238757 -0.366094 -0.619 112 113 141
0.239936 -0.366094 -0.619 89 95 129
0.241115 -0.366094 -0.619 96 102 136
0.242294 -0.366094 -0.619 135 140 170
0.243473 -0.366094 -0.619 173 178 208
0.244652 -0.366094 -0.619 173 178 208
0.245831 -0.366094 -0.619 165 167 190
0.246611 -0.365503 -0.618 183 185 208
0.257622 -0.366094 -0.619 131 153 202
0.258801 -0.366094 -0.619 134 156 205
0.25998 -0.366094 -0.619 179 199 234
0.261159 -0.366094 -0.619 186 206 241
0.262338 -0.366094 -0.619 192 201 232
0.263517 -0.366094 -0.619 207 216 247
0.264696 -0.366094 -0.619 219 223 252
0.265875 -0.366094 -0.619 223 227 255
0.267054 -0.366094 -0.619 211 215 250
0.268233 -0.366094 -0.619 177 181 216
0.269412 -0.366094 -0.619 140 150 186
0.270591 -0.366094 -0.619 134 144 180
0.27177 -0.366094 -0.619 170 176 208
0.341711 -0.355449 -0.601 180 139 145
0.295757 -0.304586 -0.515 199 159 170
0.293281 -0.301037 -0.509 202 162 173
0.29136 -0.29808 -0.504 192 170 183
0.29058 -0.296306 -0.501 192 170 183
0.290952 -0.295714 -0.5 194 170 184
0.291321 -0.295123 -0.499 193 169 183
0.291686 -0.294531 -0.498 197 173 186
0.292634 -0.294531 -0.498 201 177 190
0.293583 -0.294531 -0.498 192 170 183
0.294531 -0.294531 -0.498 181 159 172
0.296073 -0.295123 -0.499 163 145 161
0.298571 -0.295714 -0.5 170 155 178
0.300123 -0.296306 -0.501 190 175 198
0.403723 -0.356631 -0.603 156 101 94
0.400843 -0.353083 -0.597 154 99 92
0.34167 -0.299263 -0.506 157 104 96
0.335186 -0.292757 -0.495 158 105 97
0.332054 -0.289209 -0.489 156 103 95
0.330262 -0.286843 -0.485 156 103 95
0.329137 -0.285069 -0.482 156 103 95
0.328001 -0.283294 -0.479 154 101 93
0.326853 -0.28152 -0.476 151 98 90
0.327071 -0.280929 -0.475 155 100 93
0.327286 -0.280337 -0.474 152 97 90
0.327496 -0.279746 -0.473 147 93 83
0.327703 -0.279154 -0.472 146 92 82
0.327906 -0.278563 -0.471 148 94 84
0.328803 -0.278563 -0.471 147 93 83
0.329 -0.277971 -0.47 144 90 80
0.329895 -0.277971 -0.47 143 89 79
0.33079 -0.277971 -0.47 139 87 76
0.331686 -0.277971 -0.47 137 85 74
0.332581 -0.277971 -0.47 131 83 73
0.333476 -0.277971 -0.47 129 81 71
0.335083 -0.278563 -0.471 124 80 71
0.33598 -0.278563 -0.471 121 77 68
0.336877 -0.278563 -0.471 117 77 65
0.337774 -0.278563 -0.471 117 77 65
0.338671 -0.278563 -0.471 118 78 66
0.338848 -0.277971 -0.47 115 77 66
0.339743 -0.277971 -0.47 115 77 66
0.340638 -0.277971 -0.47 115 78 69
0.341533 -0.277971 -0.47 116 79 70
0.342429 -0.277971 -0.47 116 78 69
0.343324 -0.277971 -0.47 116 78 69
0.344219 -0.277971 -0.47 116 76 68
0.345114 -0.277971 -0.47 114 74 66
0.34601 -0.277971 -0.47 113 73 65
0.347643 -0.278563 -0.471 113 73 65
0.34854 -0.278563 -0.471 113 73 63
0.349437 -0.278563 -0.471 112 72 62
0.351078 -0.279154 -0.472 111 71 61
0.351977 -0.279154 -0.472 111 71 61
0.352876 -0.279154 -0.472 110 72 61
0.353775 -0.279154 -0.472 110 72 61
0.355426 -0.279746 -0.473 110 72 61
0.356327 -0.279746 -0.473 111 73 62
0.357228 -0.279746 -0.473 111 73 60
0.358129 -0.279746 -0.473 110 72 59
0.359789 -0.280337 -0.474 110 74 60
0.360691 -0.280337 -0.474 111 75 61
0.361594 -0.280337 -0.474 111 75 61
0.362497 -0.280337 -0.474 113 77 63
0.3634 -0.280337 -0.474 115 77 68
0.364303 -0.280337 -0.474 114 76 67
0.365976 -0.280929 -0.475 114 76 67
0.366881 -0.280929 -0.475 114 76 67
0.367786 -0.280929 -0.475 114 76 67
0.36869 -0.280929 -0.475 113 75 66
0.370373 -0.28152 -0.476 112 74 65
0.37128 -0.28152 -0.476 114 74 66
0.372969 -0.282111 -0.477 114 74 66
0.374661 -0.282703 -0.478 116 76 68
0.375571 -0.282703 -0.478 117 77 69
0.37727 -0.283294 -0.479 119 79 71
0.378182 -0.283294 -0.479 120 80 72
0.379094 -0.283294 -0.479 123 80 73
0.380007 -0.283294 -0.479 124 81 74
0.380919 -0.283294 -0.479 125 82 75
0.381831 -0.283294 -0.479 123 80 73
0.383543 -0.283886 -0.48 123 80 71
0.384457 -0.283886 -0.48 124 81 72
0.385371 -0.283886 -0.48 122 82 72
0.38709 -0.284477 -0.481 123 83 73
0.388007 -0.284477 -0.481 125 85 75
0.389731 -0.285069 -0.482 125 85 75
0.39146 -0.28566 -0.483 127 84 75
0.39238 -0.28566 -0.483 129 86 77
0.3933 -0.28566 -0.483 130 87 78
0.395036 -0.286251 -0.484 131 88 79
0.395958 -0.286251 -0.484 128 88 78
0.39688 -0.286251 -0.484 128 88 78
0.398624 -0.286843 -0.485 128 88 78
0.400371 -0.287434 -0.486 128 88 78
0.401297 -0.287434 -0.486 131 88 79
0.40305 -0.288026 -0.487 133 90 81
0.403978 -0.288026 -0.487 135 91 80
0.404906 -0.288026 -0.487 134 90 79
0.406667 -0.288617 -0.488 135 91 78
0.407596 -0.288617 -0.488 135 91 78
0.409363 -0.289209 -0.489 134 90 77
0.411133 -0.2898 -0.49 132 90 76
0.412067 -0.2898 -0.49 133 91 77
0.413843 -0.290391 -0.491 133 91 79
0.415623 -0.290983 -0.492 132 90 78
0.41656 -0.290983 -0.492 132 90 78
0.417497 -0.290983 -0.492 133 91 79
0.419285 -0.291574 -0.493 134 92 78
0.421076 -0.292166 -0.494 133 91 77
0.422017 -0.292166 -0.494 132 90 76
0.423814 -0.292757 -0.495 134 92 78
0.424757 -0.292757 -0.495 134 92 80
0.42656 -0.293349 -0.496 132 90 78
0.427505 -0.293349 -0.496 135 91 78
0.429313 -0.29394 -0.497 136 92 79
0.431126 -0.294531 -0.498 137 100 91
0.432942 -0.295123 -0.499 150 113 104
0.434762 -0.295714 -0.5 154 126 122
0.436586 -0.296306 -0.501 161 133 129
0.439287 -0.297489 -0.503 175 154 153
0.44112 -0.29808 -0.504 169 148 147
0.443834 -0.299263 -0.506 172 156 156
1.14723 -0.375557 -0.635 202 204 191
1.14844 -0.375557 -0.635 202 204 191
1.14784 -0.374966 -0.634 201 203 190
0.0904667 -0.350067 -0.59 193 144 137
0.0909695 -0.347693 -0.586 195 142 138
0.0911429 -0.344133 -0.58 196 143 139
0.0911343 -0.33998 -0.573 197 142 139
0.0915819 -0.337607 -0.569 197 142 139
0.0920143 -0.335233 -0.565 196 143 135
0.0925962 -0.333453 -0.562 196 143 135
0.0935 -0.33286 -0.561 193 145 131
0.0942314 -0.331673 -0.559 193 145 131
0.0952962 -0.331673 -0.559 195 142 136
0.096361 -0.331673 -0.559 195 142 136
0.0974257 -0.331673 -0.559 194 144 135
0.0984905 -0.331673 -0.559 194 144 135
0.0993771 -0.33108 -0.558 197 144 136
0.10044 -0.33108 -0.558 198 145 137
0.101503 -0.33108 -0.558 198 145 137
0.102382 -0.330487 -0.557 198 145 137
0.103443 -0.330487 -0.557 200 145 138
0.104316 -0.329893 -0.556 199 144 137
0.105375 -0.329893 -0.556 196 144 133
0.106434 -0.329893 -0.556 193 141 130
0.107493 -0.329893 -0.556 192 138 128
0.108552 -0.329893 -0.556 193 139 129
0.109611 -0.329893 -0.556 192 138 128
0.110471 -0.3293 -0.555 191 137 127
0.111529 -0.3293 -0.555 191 134 125
0.112586 -0.3293 -0.555 194 137 128
0.113643 -0.3293 -0.555 198 141 132
0.114493 -0.328707 -0.554 194 137 128
0.115549 -0.328707 -0.554 188 131 120
0.116604 -0.328707 -0.554 188 131 120
0.117659 -0.328707 -0.554 188 130 119
0.118714 -0.328707 -0.554 185 127 116
0.11977 -0.328707 -0.554 184 126 115
0.120825 -0.328707 -0.554 182 124 113
0.12188 -0.328707 -0.554 179 121 109
0.122935 -0.328707 -0.554 177 119 107
0.12399 -0.328707 -0.554 173 115 103
0.125271 -0.3293 -0.555 171 113 101
0.126329 -0.3293 -0.555 176 116 105
0.127386 -0.3293 -0.555 179 119 108
0.128443 -0.3293 -0.555 177 119 108
0.129733 -0.329893 -0.556 172 114 103
0.130792 -0.329893 -0.556 172 114 103
0.131851 -0.329893 -0.556 166 108 96
0.13315 -0.330487 -0.557 162 104 92
0.134451 -0.33108 -0.558 162 104 93
0.135757 -0.331673 -0.559 158 100 89
0.136822 -0.331673 -0.559 153 96 87
0.138133 -0.332267 -0.56 154 97 88
0.139449 -0.33286 -0.561 154 97 88
0.140517 -0.33286 -0.561 154 97 88
0.141838 -0.333453 -0.562 149 95 85
0.143163 -0.334047 -0.563 148 94 84
0.144491 -0.33464 -0.564 150 95 88
0.145824 -0.335233 -0.565 147 92 85
0.14716 -0.335827 -0.566 144 91 83
0.1485 -0.33642 -0.567 144 91 83
0.14958 -0.33642 -0.567 138 89 84
0.150926 -0.337013 -0.568 136 87 82
0.152275 -0.337607 -0.569 134 87 81
0.153629 -0.3382 -0.57 133 86 80
0.154714 -0.3382 -0.57 130 83 77
0.156073 -0.338793 -0.571 130 83 77
0.157436 -0.339387 -0.572 132 84 80
0.158526 -0.339387 -0.572 131 83 79
0.159894 -0.33998 -0.573 126 78 74
0.160986 -0.33998 -0.573 119 71 67
0.16236 -0.340573 -0.574 123 78 73
0.163738 -0.341167 -0.575 128 83 78
0.16512 -0.34176 -0.576 126 82 79
0.166217 -0.34176 -0.576 126 82 79
0.167605 -0.342353 -0.577 126 81 78
0.168996 -0.342947 -0.578 124 79 76
0.170391 -0.34354 -0.579 126 82 79
0.171494 -0.34354 -0.579 125 81 78
0.172895 -0.344133 -0.58 122 81 77
0.1743 -0.344727 -0.581 120 79 75
0.175709 -0.34532 -0.582 120 79 77
0.177121 -0.345913 -0.583 119 78 76
0.178231 -0.345913 -0.583 119 78 76
0.17965 -0.346507 -0.584 119 78 76
0.181381 -0.347693 -0.586 118 77 75
0.182809 -0.348287 -0.587 119 78 76
0.18424 -0.34888 -0.588 118 78 76
0.18599 -0.350067 -0.59 118 78 76
0.187431 -0.35066 -0.591 118 78 76
0.188876 -0.351253 -0.592 118 78 76
0.190646 -0.35244 -0.594 120 79 77
0.192423 -0.353627 -0.596 122 81 79
0.193558 -0.353627 -0.596 122 81 79
0.195347 -0.354813 -0.598 117 82 80
0.219182 -0.366087 -0.617 175 170 192
0.220357 -0.366087 -0.617 168 159 180
0.221891 -0.36668 -0.618 146 137 158
0.223069 -0.36668 -0.618 107 100 116
0.224246 -0.36668 -0.618 130 123 139
0.225788 -0.367273 -0.619 167 158 179
0.226967 -0.367273 -0.619 176 167 188
0.228146 -0.367273 -0.619 180 172 196
0.229325 -0.367273 -0.619 177 169 193
0.230504 -0.367273 -0.619 170 169 187
0.231683 -0.367273 -0.619 172 171 189
0.232862 -0.367273 -0.619 179 175 192
0.234041 -0.367273 -0.619 179 175 192
0.23522 -0.367273 -0.619 177 174 203
0.236399 -0.367273 -0.619 156 153 182
0.237578 -0.367273 -0.619 98 114 148
0.238757 -0.367273 -0.619 77 93 127
0.239936 -0.367273 -0.619 114 123 156
0.241115 -0.367273 -0.619 141 150 183
0.241903 -0.36668 -0.618 165 170 200
0.24308 -0.36668 -0.618 178 183 213
0.244257 -0.36668 -0.618 178 183 213
0.245434 -0.36668 -0.618 152 152 178
0.246611 -0.36668 -0.618 145 145 171
0.247789 -0.36668 -0.618 184 184 208
0.248966 -0.36668 -0.618 167 167 191
0.250143 -0.36668 -0.618 168 175 204
0.25132 -0.36668 -0.618 158 165 194
0.252497 -0.36668 -0.618 131 149 185
0.253674 -0.36668 -0.618 142 160 196
0.254851 -0.36668 -0.618 156 179 220
0.256029 -0.36668 -0.618 153 176 217
0.257206 -0.36668 -0.618 148 171 212
0.258383 -0.36668 -0.618 141 164 205
0.25956 -0.36668 -0.618 170 180 216
0.260737 -0.36668 -0.618 182 192 228
0.261914 -0.36668 -0.618 187 196 227
0.342849 -0.35778 -0.603 175 129 142
0.338863 -0.35244 -0.594 181 134 144
0.296906 -0.306753 -0.517 196 150 160
0.293857 -0.3026 -0.51 198 152 162
0.291938 -0.299633 -0.505 193 160 177
0.29116 -0.297853 -0.502 193 160 177
0.290952 -0.296667 -0.5 194 163 181
0.291321 -0.296073 -0.499 196 165 183
0.291686 -0.29548 -0.498 194 163 181
0.292047 -0.294887 -0.497 202 171 189
0.292993 -0.294887 -0.497 188 159 177
0.29394 -0.294887 -0.497 158 129 147
0.29548 -0.29548 -0.498 152 129 147
0.296429 -0.29548 -0.498 166 143 161
0.297974 -0.296073 -0.499 177 162 181
0.299524 -0.296667 -0.5 208 193 212
0.301077 -0.29726 -0.501 213 204 221
0.302634 -0.297853 -0.502 215 206 223
0.3048 -0.29904 -0.504 212 208 222
0.30758 -0.30082 -0.507 203 199 213
0.403723 -0.35778 -0.603 151 101 90
0.400843 -0.35422 -0.597 152 102 91
0.343021 -0.301413 -0.508 156 103 97
0.33654 -0.294887 -0.497 158 103 98
0.333412 -0.291327 -0.491 158 103 98
0.331624 -0.288953 -0.487 158 103 96
0.32982 -0.28658 -0.483 155 100 93
0.328686 -0.2848 -0.48 151 98 90
0.328227 -0.283613 -0.478 148 95 87
0.32776 -0.282427 -0.476 150 97 89
0.327976 -0.281833 -0.475 148 95 87
0.327496 -0.280647 -0.473 147 93 83
0.328397 -0.280647 -0.473 146 92 82
0.328602 -0.280053 -0.472 145 91 79
0.328803 -0.27946 -0.471 145 91 79
0.3297 -0.27946 -0.471 142 90 79
0.330597 -0.27946 -0.471 139 87 76
0.331494 -0.27946 -0.471 131 84 74
0.332391 -0.27946 -0.471 132 85 75
0.333289 -0.27946 -0.471 128 84 75
0.334186 -0.27946 -0.471 125 81 72
0.335083 -0.27946 -0.471 123 80 71
0.33598 -0.27946 -0.471 120 77 68
0.337592 -0.280053 -0.472 117 75 63
0.337774 -0.27946 -0.471 117 75 63
0.338671 -0.27946 -0.471 117 75 63
0.339569 -0.27946 -0.471 117 74 65
0.340466 -0.27946 -0.471 118 75 66
0.341363 -0.27946 -0.471 116 76 66
0.34226 -0.27946 -0.471 117 77 67
0.343157 -0.27946 -0.471 117 79 70
0.344054 -0.27946 -0.471 115 77 68
0.344951 -0.27946 -0.471 115 75 65
0.345849 -0.27946 -0.471 116 76 66
0.346746 -0.27946 -0.471 112 72 64
0.347643 -0.27946 -0.471 113 73 65
0.34854 -0.27946 -0.471 113 73 65
0.350179 -0.280053 -0.472 111 71 63
0.351078 -0.280053 -0.472 110 72 63
0.351977 -0.280053 -0.472 110 72 63
0.353624 -0.280647 -0.473 110 72 63
0.354525 -0.280647 -0.473 109 71 62
0.355426 -0.280647 -0.473 110 72 63
0.356327 -0.280647 -0.473 112 74 65
0.357228 -0.280647 -0.473 111 74 65
0.358886 -0.28124 -0.474 110 73 64
0.359789 -0.28124 -0.474 110 73 64
0.360691 -0.28124 -0.474 110 73 64
0.361594 -0.28124 -0.474 111 74 65
0.362497 -0.28124 -0.474 113 76 67
0.3634 -0.28124 -0.474 114 77 68
0.365071 -0.281833 -0.475 113 76 67
0.365976 -0.281833 -0.475 112 75 66
0.366881 -0.281833 -0.475 112 75 66
0.367786 -0.281833 -0.475 112 75 66
0.369467 -0.282427 -0.476 113 75 66
0.370373 -0.282427 -0.476 112 74 65
0.37206 -0.28302 -0.477 113 75 66
0.372969 -0.28302 -0.477 114 76 67
0.374661 -0.283613 -0.478 117 77 67
0.375571 -0.283613 -0.478 116 76 66
0.37727 -0.284207 -0.479 118 78 68
0.378182 -0.284207 -0.479 120 80 70
0.379094 -0.284207 -0.479 121 81 71
0.380007 -0.284207 -0.479 121 81 71
0.380919 -0.284207 -0.479 122 82 72
0.382629 -0.2848 -0.48 122 82 72
0.383543 -0.2848 -0.48 126 82 73
0.384457 -0.2848 -0.48 125 81 72
0.386174 -0.285393 -0.481 126 82 73
0.38709 -0.285393 -0.481 126 82 73
0.388813 -0.285987 -0.482 125 81 72
0.389731 -0.285987 -0.482 127 83 74
0.39146 -0.28658 -0.483 129 85 76
0.39238 -0.28658 -0.483 130 86 77
0.3933 -0.28658 -0.483 130 86 77
0.395036 -0.287173 -0.484 130 86 77
0.395958 -0.287173 -0.484 129 86 77
0.3977 -0.287767 -0.485 128 85 76
0.398624 -0.287767 -0.485 129 86 77
0.400371 -0.28836 -0.486 130 87 78
0.401297 -0.28836 -0.486 132 89 80
0.40305 -0.288953 -0.487 133 90 81
0.403978 -0.288953 -0.487 134 90 79
0.405737 -0.289547 -0.488 133 89 78
0.406667 -0.289547 -0.488 133 89 78
0.408431 -0.29014 -0.489 134 90 79
0.409363 -0.29014 -0.489 134 90 79
0.411133 -0.290733 -0.49 134 90 79
0.412067 -0.290733 -0.49 132 88 77
0.413843 -0.291327 -0.491 132 88 77
0.414778 -0.291327 -0.491 133 89 78
0.41656 -0.29192 -0.492 134 90 79
0.417497 -0.29192 -0.492 133 89 78
0.418434 -0.29192 -0.492 132 88 75
0.420224 -0.292513 -0.493 131 87 74
0.422017 -0.293107 -0.494 133 89 76
0.422958 -0.293107 -0.494 134 90 77
0.424757 -0.2937 -0.495 135 91 80
0.4257 -0.2937 -0.495 137 93 82
0.427505 -0.294293 -0.496 137 92 87
0.42845 -0.294293 -0.496 139 94 89
0.43026 -0.294887 -0.497 140 97 88
0.432074 -0.29548 -0.498 145 102 93
0.433892 -0.296073 -0.499 151 114 105
0.435714 -0.296667 -0.5 163 126 117
0.43754 -0.29726 -0.501 171 144 135
0.440245 -0.298447 -0.503 182 155 146
0.44208 -0.29904 -0.504 186 167 161
0.450257 -0.3026 -0.51 195 180 175
0.453883 -0.30438 -0.513 204 192 192
1.14602 -0.376767 -0.635 201 204 187
1.14723 -0.376767 -0.635 201 203 189
1.14663 -0.376173 -0.634 201 203 189
1.14784 -0.376173 -0.634 202 204 191
1.14724 -0.37558 -0.633 202 204 191
1.14844 -0.37558 -0.633 202 204 191
0.0896457 -0.352381 -0.592 194 145 138
0.0900067 -0.349405 -0.587 194 145 138
0.0905038 -0.347024 -0.583 194 143 139
0.0905143 -0.342857 -0.576 195 144 140
0.0906571 -0.339286 -0.57 198 143 140
0.09126 -0.3375 -0.567 198 143 140
0.0916886 -0.335119 -0.563 198 143 136
0.0924314 -0.333929 -0.561 197 142 135
0.0933333 -0.333333 -0.56 193 144 130
0.0940629 -0.332143 -0.558 193 144 130
0.0952962 -0.332738 -0.559 195 142 136
0.096361 -0.332738 -0.559 195 142 136
0.0972514 -0.332143 -0.558 196 143 135
0.0983143 -0.332143 -0.558 197 144 136
0.0993771 -0.332143 -0.558 197 144 136
0.10044 -0.332143 -0.558 196 143 135
0.101321 -0.331548 -0.557 197 142 135
0.102382 -0.331548 -0.557 198 143 136
0.103257 -0.330952 -0.556 199 144 137
0.104316 -0.330952 -0.556 197 142 135
0.105375 -0.330952 -0.556 196 142 132
0.106434 -0.330952 -0.556 194 140 130
0.107493 -0.330952 -0.556 193 139 129
0.108357 -0.330357 -0.555 193 139 129
0.109414 -0.330357 -0.555 194 137 130
0.110471 -0.330357 -0.555 193 136 129
0.111529 -0.330357 -0.555 187 130 121
0.112586 -0.330357 -0.555 195 138 129
0.113643 -0.330357 -0.555 200 143 134
0.114493 -0.329762 -0.554 195 138 129
0.115549 -0.329762 -0.554 190 133 124
0.116604 -0.329762 -0.554 191 134 125
0.117659 -0.329762 -0.554 190 132 121
0.118714 -0.329762 -0.554 184 126 115
0.11977 -0.329762 -0.554 182 124 113
0.120825 -0.329762 -0.554 179 121 110
0.12188 -0.329762 -0.554 180 122 110
0.122935 -0.329762 -0.554 177 119 107
0.12399 -0.329762 -0.554 173 115 103
0.125271 -0.330357 -0.555 172 114 102
0.126329 -0.330357 -0.555 173 115 103
0.127386 -0.330357 -0.555 175 117 105
0.128443 -0.330357 -0.555 176 116 105
0.129733 -0.330952 -0.556 169 109 98
0.130792 -0.330952 -0.556 169 109 98
0.131851 -0.330952 -0.556 166 108 96
0.13315 -0.331548 -0.557 161 103 91
0.134451 -0.332143 -0.558 164 106 94
0.135757 -0.332738 -0.559 157 99 87
0.137067 -0.333333 -0.56 153 96 87
0.138133 -0.333333 -0.56 153 96 87
0.139449 -0.333929 -0.561 152 95 86
0.140768 -0.334524 -0.562 153 96 87
0.14209 -0.335119 -0.563 147 92 85
0.143417 -0.335714 -0.564 147 92 85
0.144491 -0.335714 -0.564 148 95 87
0.145824 -0.33631 -0.565 146 93 85
0.14716 -0.336905 -0.566 143 90 84
0.1485 -0.3375 -0.567 142 89 83
0.149844 -0.338095 -0.568 135 88 82
0.151191 -0.33869 -0.569 134 87 81
0.152543 -0.339286 -0.57 133 86 80
0.153629 -0.339286 -0.57 132 85 79
0.154986 -0.339881 -0.571 130 82 78
0.156347 -0.340476 -0.572 130 82 78
0.157436 -0.340476 -0.572 131 83 79
0.158803 -0.341071 -0.573 130 82 78
0.160173 -0.341667 -0.574 122 77 72
0.161267 -0.341667 -0.574 118 73 68
0.162643 -0.342262 -0.575 122 77 74
0.164023 -0.342857 -0.576 127 82 79
0.165407 -0.343452 -0.577 126 82 79
0.166506 -0.343452 -0.577 125 81 78
0.167895 -0.344048 -0.578 126 81 78
0.169289 -0.344643 -0.579 123 78 75
0.170686 -0.345238 -0.58 123 82 80
0.17179 -0.345238 -0.58 122 81 79
0.173193 -0.345833 -0.581 120 80 78
0.1746 -0.346429 -0.582 119 79 77
0.17601 -0.347024 -0.583 120 79 77
0.177425 -0.347619 -0.584 120 79 77
0.178843 -0.348214 -0.585 120 79 77
0.180265 -0.34881 -0.586 120 79 77
0.18169 -0.349405 -0.587 122 81 79
0.183431 -0.350595 -0.589 120 79 77
0.184867 -0.35119 -0.59 119 79 77
0.186306 -0.351786 -0.591 119 79 77
0.188066 -0.352976 -0.593 119 79 79
0.189514 -0.353571 -0.594 119 79 79
0.191288 -0.354762 -0.596 121 81 81
0.21648 -0.366667 -0.616 171 162 189
0.217653 -0.366667 -0.616 170 165 188
0.219182 -0.367262 -0.617 172 167 190
0.220357 -0.367262 -0.617 152 142 166
0.221532 -0.367262 -0.617 105 95 119
0.222708 -0.367262 -0.617 97 94 113
0.224246 -0.367857 -0.618 141 138 157
0.225423 -0.367857 -0.618 166 161 184
0.226967 -0.368452 -0.619 176 171 194
0.228146 -0.368452 -0.619 174 169 192
0.229325 -0.368452 -0.619 176 171 194
0.230131 -0.367857 -0.618 168 166 187
0.231309 -0.367857 -0.618 173 171 192
0.232486 -0.367857 -0.618 182 179 200
0.233663 -0.367857 -0.618 182 179 200
0.23484 -0.367857 -0.618 174 174 202
0.236399 -0.368452 -0.619 113 113 141
0.237578 -0.368452 -0.619 69 84 117
0.238757 -0.368452 -0.619 96 111 144
0.239549 -0.367857 -0.618 155 159 186
0.240726 -0.367857 -0.618 175 179 206
0.241903 -0.367857 -0.618 191 193 218
0.24308 -0.367857 -0.618 197 199 224
0.244257 -0.367857 -0.618 197 199 224
0.245434 -0.367857 -0.618 176 174 198
0.246611 -0.367857 -0.618 142 140 164
0.247789 -0.367857 -0.618 147 147 171
0.248966 -0.367857 -0.618 163 163 187
0.249738 -0.367262 -0.617 156 163 192
0.250913 -0.367262 -0.617 153 160 189
0.252089 -0.367262 -0.617 140 156 190
0.341715 -0.356548 -0.599 175 125 134
0.334843 -0.348214 -0.585 184 134 143
0.294433 -0.304167 -0.511 191 144 150
0.292516 -0.30119 -0.506 187 153 167
0.29116 -0.29881 -0.502 187 153 167
0.290952 -0.297619 -0.5 188 156 171
0.291321 -0.297024 -0.499 189 157 172
0.291686 -0.296429 -0.498 192 161 176
0.292047 -0.295833 -0.497 190 159 174
0.292993 -0.295833 -0.497 161 133 147
0.29394 -0.295833 -0.497 149 121 135
0.294887 -0.295833 -0.497 162 139 155
0.295833 -0.295833 -0.497 184 161 177
0.297377 -0.296429 -0.498 167 153 168
0.298326 -0.296429 -0.498 193 179 194
0.299875 -0.297024 -0.499 219 213 225
0.302031 -0.298214 -0.501 220 214 226
0.30359 -0.29881 -0.502 212 209 220
0.30576 -0.3 -0.504 202 199 210
0.308546 -0.301786 -0.507 192 188 215
0.385212 -0.357738 -0.601 167 162 184
0.387643 -0.358929 -0.603 148 143 165
0.40391 -0.360119 -0.605 144 104 105
0.402384 -0.357738 -0.601 149 101 91
0.396814 -0.351786 -0.591 148 100 90
0.343696 -0.302976 -0.509 153 102 98
0.337217 -0.296429 -0.498 155 102 96
0.33477 -0.293452 -0.493 155 102 96
0.332305 -0.290476 -0.488 156 103 97
0.331186 -0.28869 -0.485 153 100 94
0.330055 -0.286905 -0.482 147 97 90
0.328913 -0.285119 -0.479 145 95 88
0.328449 -0.283929 -0.477 144 94 85
0.328667 -0.283333 -0.476 143 93 84
0.328881 -0.282738 -0.475 144 92 81
0.328397 -0.281548 -0.473 142 90 79
0.328602 -0.280952 -0.472 140 88 77
0.329501 -0.280952 -0.472 139 87 76
0.3304 -0.280952 -0.472 136 86 75
0.330597 -0.280357 -0.471 135 85 74
0.331494 -0.280357 -0.471 127 83 72
0.332391 -0.280357 -0.471 127 83 72
0.333289 -0.280357 -0.471 124 81 72
0.334186 -0.280357 -0.471 122 79 70
0.335083 -0.280357 -0.471 121 78 69
0.336693 -0.280952 -0.472 119 76 67
0.337592 -0.280952 -0.472 117 74 65
0.338491 -0.280952 -0.472 116 73 64
0.33939 -0.280952 -0.472 116 73 64
0.34029 -0.280952 -0.472 114 74 64
0.340466 -0.280357 -0.471 114 74 64
0.341363 -0.280357 -0.471 114 76 65
0.34226 -0.280357 -0.471 114 76 65
0.343157 -0.280357 -0.471 114 76 67
0.344054 -0.280357 -0.471 113 75 66
0.344951 -0.280357 -0.471 114 74 64
0.345849 -0.280357 -0.471 114 74 64
0.346746 -0.280357 -0.471 110 72 63
0.347643 -0.280357 -0.471 110 72 63
0.34928 -0.280952 -0.472 110 72 63
0.350179 -0.280952 -0.472 109 71 62
0.351822 -0.281548 -0.473 109 71 62
0.352723 -0.281548 -0.473 110 72 63
0.353624 -0.281548 -0.473 110 72 63
0.355274 -0.282143 -0.474 109 71 62
0.356177 -0.282143 -0.474 110 73 64
0.35708 -0.282143 -0.474 111 74 65
0.357983 -0.282143 -0.474 111 74 65
0.358886 -0.282143 -0.474 110 73 64
0.359789 -0.282143 -0.474 110 73 64
0.360691 -0.282143 -0.474 110 73 64
0.362357 -0.282738 -0.475 110 73 64
0.363262 -0.282738 -0.475 112 75 66
0.364167 -0.282738 -0.475 113 76 67
0.365071 -0.282738 -0.475 112 75 66
0.365976 -0.282738 -0.475 111 74 65
0.367653 -0.283333 -0.476 111 74 65
0.36856 -0.283333 -0.476 111 74 65
0.369467 -0.283333 -0.476 113 75 66
0.370373 -0.283333 -0.476 113 75 66
0.37206 -0.283929 -0.477 114 76 67
0.372969 -0.283929 -0.477 114 76 67
0.374661 -0.284524 -0.478 114 76 65
0.376357 -0.285119 -0.479 114 76 65
0.37727 -0.285119 -0.479 117 77 67
0.378182 -0.285119 -0.479 119 79 69
0.379094 -0.285119 -0.479 120 80 70
0.380007 -0.285119 -0.479 121 81 71
0.381714 -0.285714 -0.48 121 81 71
0.382629 -0.285714 -0.48 122 82 72
0.383543 -0.285714 -0.48 123 80 71
0.385258 -0.28631 -0.481 123 80 71
0.386174 -0.28631 -0.481 125 82 73
0.38709 -0.28631 -0.481 126 83 74
0.388813 -0.286905 -0.482 125 82 73
0.39054 -0.2875 -0.483 126 83 74
0.39146 -0.2875 -0.483 128 85 76
0.39238 -0.2875 -0.483 128 85 76
0.3933 -0.2875 -0.483 129 85 76
0.395036 -0.288095 -0.484 130 86 77
0.395958 -0.288095 -0.484 130 86 75
0.3977 -0.28869 -0.485 130 86 75
0.398624 -0.28869 -0.485 130 86 75
0.400371 -0.289286 -0.486 132 88 77
0.401297 -0.289286 -0.486 132 88 77
0.40305 -0.289881 -0.487 133 89 78
0.403978 -0.289881 -0.487 133 89 78
0.405737 -0.290476 -0.488 133 89 78
0.4075 -0.291071 -0.489 133 89 78
0.408431 -0.291071 -0.489 134 90 79
0.409363 -0.291071 -0.489 134 90 79
0.411133 -0.291667 -0.49 134 90 79
0.412067 -0.291667 -0.49 134 90 79
0.413843 -0.292262 -0.491 133 89 78
0.414778 -0.292262 -0.491 133 89 78
0.41656 -0.292857 -0.492 134 90 79
0.417497 -0.292857 -0.492 133 89 78
0.418434 -0.292857 -0.492 132 88 75
0.420224 -0.293452 -0.493 132 88 75
0.421163 -0.293452 -0.493 132 88 75
0.422958 -0.294048 -0.494 133 89 76
0.423899 -0.294048 -0.494 134 90 79
0.4257 -0.294643 -0.495 135 91 80
0.426643 -0.294643 -0.495 137 92 86
0.42845 -0.295238 -0.496 138 93 87
0.43026 -0.295833 -0.497 139 96 87
0.431207 -0.295833 -0.497 143 100 91
0.433023 -0.296429 -0.498 144 108 96
0.434843 -0.297024 -0.499 153 117 105
0.436667 -0.297619 -0.5 163 134 126
0.43937 -0.29881 -0.502 177 148 140
0.441203 -0.299405 -0.503 181 161 154
0.44304 -0.3 -0.504 168 148 141
0.446643 -0.301786 -0.507 160 145 140
0.450257 -0.303571 -0.51 195 180 175
0.453883 -0.305357 -0.513 204 192 192
0.456633 -0.306548 -0.515 208 194 194
1.14543 -0.377381 -0.634 203 205 192
1.14663 -0.377381 -0.634 203 205 192
1.14784 -0.377381 -0.634 202 204 191
1.14724 -0.376786 -0.633 201 203 190
1.14844 -0.376786 -0.633 201 203 190
1.14783 -0.37619 -0.632 202 204 193
0.0891914 -0.351717 -0.589 193 146 138
0.0895467 -0.348731 -0.584 193 146 138
0.0898829 -0.345746 -0.579 196 147 142
0.0900429 -0.342163 -0.573 195 146 141
0.0903391 -0.339177 -0.568 197 144 140
0.0909381 -0.337386 -0.565 196 143 139
0.0913629 -0.334997 -0.561 197 142 137
0.0922667 -0.3344 -0.56 197 142 137
0.0933333 -0.3344 -0.56 193 144 130
0.0940629 -0.333206 -0.558 193 144 130
0.0951257 -0.333206 -0.558 195 142 136
0.0960162 -0.332609 -0.557 195 142 136
0.0970771 -0.332609 -0.557 197 144 136
0.0981381 -0.332609 -0.557 198 145 137
0.099199 -0.332609 -0.557 197 144 136
0.10026 -0.332609 -0.557 195 142 134
0.101139 -0.332011 -0.556 197 142 135
0.102198 -0.332011 -0.556 198 143 136
0.103257 -0.332011 -0.556 198 143 136
0.104316 -0.332011 -0.556 196 141 134
0.105186 -0.331414 -0.555 195 140 133
0.106243 -0.331414 -0.555 193 138 131
0.1073 -0.331414 -0.555 193 138 131
0.108357 -0.331414 -0.555 192 137 130
0.109414 -0.331414 -0.555 191 136 129
0.110272 -0.330817 -0.554 191 136 129
0.111328 -0.330817 -0.554 192 135 126
0.112383 -0.330817 -0.554 198 141 132
0.113438 -0.330817 -0.554 201 144 135
0.114493 -0.330817 -0.554 195 138 129
0.11534 -0.33022 -0.553 191 134 123
0.116393 -0.33022 -0.553 192 135 124
0.117447 -0.33022 -0.553 189 132 121
0.1185 -0.33022 -0.553 184 127 116
0.119553 -0.33022 -0.553 179 121 109
0.120825 -0.330817 -0.554 179 121 109
0.12188 -0.330817 -0.554 181 123 111
0.122935 -0.330817 -0.554 177 119 107
0.12399 -0.330817 -0.554 172 114 100
0.125271 -0.331414 -0.555 172 114 100
0.126329 -0.331414 -0.555 171 113 99
0.127386 -0.331414 -0.555 173 115 101
0.128443 -0.331414 -0.555 169 111 99
0.1295 -0.331414 -0.555 169 111 99
0.130792 -0.332011 -0.556 161 103 91
0.131851 -0.332011 -0.556 164 106 94
0.13315 -0.332609 -0.557 158 100 88
0.134451 -0.333206 -0.558 162 105 94
0.135757 -0.333803 -0.559 155 98 87
0.137067 -0.3344 -0.56 153 96 87
0.13838 -0.334997 -0.561 153 96 87
0.139449 -0.334997 -0.561 150 95 88
0.140768 -0.335594 -0.562 150 95 88
0.14209 -0.336191 -0.563 145 92 86
0.143417 -0.336789 -0.564 144 91 85
0.144748 -0.337386 -0.565 143 93 86
0.146082 -0.337983 -0.566 142 92 85
0.14742 -0.33858 -0.567 141 90 86
0.148762 -0.339177 -0.568 139 88 84
0.150108 -0.339774 -0.569 132 87 82
0.151191 -0.339774 -0.569 131 86 81
0.152543 -0.340371 -0.57 130 85 80
0.153898 -0.340969 -0.571 128 83 78
0.155257 -0.341566 -0.572 128 83 78
0.156347 -0.341566 -0.572 128 83 78
0.157711 -0.342163 -0.573 129 84 79
0.15908 -0.34276 -0.574 127 82 77
0.160452 -0.343357 -0.575 125 80 75
0.161548 -0.343357 -0.575 122 77 72
0.162926 -0.343954 -0.576 123 80 74
0.164308 -0.344551 -0.577 127 84 78
0.165693 -0.345149 -0.578 125 81 78
0.166794 -0.345149 -0.578 124 80 77
0.168186 -0.345746 -0.579 125 81 78
0.169581 -0.346343 -0.58 122 78 75
0.17098 -0.34694 -0.581 120 81 76
0.172087 -0.34694 -0.581 120 81 76
0.173491 -0.347537 -0.582 120 81 76
0.1749 -0.348134 -0.583 119 80 75
0.176312 -0.348731 -0.584 120 79 75
0.177729 -0.349329 -0.585 121 80 76
0.179149 -0.349926 -0.586 124 80 77
0.180572 -0.350523 -0.587 125 81 78
0.18231 -0.351717 -0.589 123 82 78
0.183743 -0.352314 -0.59 121 80 76
0.185493 -0.353509 -0.592 120 80 78
0.186936 -0.354106 -0.593 123 83 81
0.1887 -0.3553 -0.595 123 85 82
0.190152 -0.355897 -0.596 122 84 81
0.213786 -0.367243 -0.615 168 160 183
0.214957 -0.367243 -0.615 169 163 189
0.21648 -0.36784 -0.616 172 166 192
0.218007 -0.368437 -0.617 165 161 186
0.219182 -0.368437 -0.617 148 144 169
0.220357 -0.368437 -0.617 121 111 136
0.221532 -0.368437 -0.617 79 69 94
0.222708 -0.368437 -0.617 98 98 124
0.223883 -0.368437 -0.617 146 146 172
0.225423 -0.369034 -0.618 154 151 178
0.2266 -0.369034 -0.618 170 167 194
0.227777 -0.369034 -0.618 175 170 193
0.228954 -0.369034 -0.618 181 176 199
0.230131 -0.369034 -0.618 172 170 192
0.231309 -0.369034 -0.618 169 167 189
0.23211 -0.368437 -0.617 182 180 204
0.233285 -0.368437 -0.617 182 180 204
0.23484 -0.369034 -0.618 151 151 179
0.236017 -0.369034 -0.618 95 95 123
0.237194 -0.369034 -0.618 107 116 145
0.238371 -0.369034 -0.618 144 153 182
0.239549 -0.369034 -0.618 182 180 202
0.240336 -0.368437 -0.617 191 189 211
0.241511 -0.368437 -0.617 191 189 211
0.242687 -0.368437 -0.617 191 189 211
0.243862 -0.368437 -0.617 195 193 215
0.245037 -0.368437 -0.617 196 194 216
0.246212 -0.368437 -0.617 173 171 193
0.247388 -0.368437 -0.617 145 147 172
0.248563 -0.368437 -0.617 144 146 171
0.249738 -0.368437 -0.617 142 151 182
0.250913 -0.368437 -0.617 150 159 190
0.252089 -0.368437 -0.617 155 169 204
0.253264 -0.368437 -0.617 164 178 213
0.254439 -0.368437 -0.617 168 182 217
0.255614 -0.368437 -0.617 166 180 215
0.25679 -0.368437 -0.617 165 176 208
0.257965 -0.368437 -0.617 162 173 205
0.25914 -0.368437 -0.617 158 168 203
0.260315 -0.368437 -0.617 167 177 212
0.26149 -0.368437 -0.617 192 199 228
0.262666 -0.368437 -0.617 213 220 249
0.263841 -0.368437 -0.617 222 227 249
0.265016 -0.368437 -0.617 223 228 250
0.266191 -0.368437 -0.617 227 229 252
0.267367 -0.368437 -0.617 231 233 255
0.342856 -0.358883 -0.601 170 117 125
0.338277 -0.352911 -0.591 177 124 132
0.296162 -0.306931 -0.514 187 136 141
0.292516 -0.302154 -0.506 185 145 156
0.29174 -0.300363 -0.503 184 144 155
0.290952 -0.298571 -0.5 183 145 158
0.291321 -0.297974 -0.499 188 150 163
0.291686 -0.297377 -0.498 190 154 166
0.292047 -0.29678 -0.497 182 146 158
0.292993 -0.29678 -0.497 162 130 143
0.29394 -0.29678 -0.497 170 138 151
0.294887 -0.29678 -0.497 183 160 170
0.295833 -0.29678 -0.497 205 182 192
0.29678 -0.29678 -0.497 186 170 180
0.297727 -0.29678 -0.497 181 165 175
0.299274 -0.297377 -0.498 197 190 198
0.300826 -0.297974 -0.499 216 209 217
0.302381 -0.298571 -0.5 214 211 220
0.304547 -0.299766 -0.502 205 202 211
0.30672 -0.30096 -0.504 188 184 209
0.309511 -0.302751 -0.507 180 176 201
0.381857 -0.354703 -0.594 165 157 178
0.386212 -0.357689 -0.599 147 144 161
0.390587 -0.360674 -0.604 188 185 202
0.402574 -0.360077 -0.603 143 103 103
0.401045 -0.357689 -0.599 150 101 94
0.392786 -0.349329 -0.585 147 98 91
0.343021 -0.303349 -0.508 152 101 98
0.337894 -0.297974 -0.499 152 101 97
0.33545 -0.294989 -0.494 152 101 97
0.333667 -0.2926 -0.49 153 102 98
0.331869 -0.290211 -0.486 150 99 95
0.33074 -0.28842 -0.483 145 94 90
0.3296 -0.286629 -0.48 142 91 87
0.329137 -0.285434 -0.478 143 93 86
0.329357 -0.284837 -0.477 140 90 83
0.329573 -0.28424 -0.476 140 90 81
0.329091 -0.283046 -0.474 139 89 80
0.329298 -0.282449 -0.473 135 85 74
0.330199 -0.282449 -0.473 134 84 73
0.3304 -0.281851 -0.472 133 83 72
0.331299 -0.281851 -0.472 131 81 70
0.332198 -0.281851 -0.472 124 81 72
0.333097 -0.281851 -0.472 122 79 70
0.333996 -0.281851 -0.472 121 78 69
0.334895 -0.281851 -0.472 121 78 69
0.335794 -0.281851 -0.472 119 76 67
0.336693 -0.281851 -0.472 117 74 65
0.337592 -0.281851 -0.472 115 72 63
0.338491 -0.281851 -0.472 114 71 62
0.33939 -0.281851 -0.472 114 71 62
0.34029 -0.281851 -0.472 112 72 62
0.341189 -0.281851 -0.472 112 72 62
0.342088 -0.281851 -0.472 113 73 63
0.34226 -0.281254 -0.471 113 73 63
0.343157 -0.281254 -0.471 112 74 65
0.344054 -0.281254 -0.471 112 74 65
0.344951 -0.281254 -0.471 114 74 64
0.346583 -0.281851 -0.472 113 73 63
0.347482 -0.281851 -0.472 110 72 63
0.348381 -0.281851 -0.472 109 71 62
0.34928 -0.281851 -0.472 108 70 61
0.350921 -0.282449 -0.473 108 70 61
0.351822 -0.282449 -0.473 108 70 61
0.352723 -0.282449 -0.473 109 71 62
0.354371 -0.283046 -0.474 110 72 63
0.355274 -0.283046 -0.474 110 72 63
0.356177 -0.283046 -0.474 111 73 64
0.357833 -0.283643 -0.475 112 74 65
0.358738 -0.283643 -0.475 110 73 64
0.359643 -0.283643 -0.475 110 73 64
0.360548 -0.283643 -0.475 109 72 63
0.361452 -0.283643 -0.475 109 72 63
0.362357 -0.283643 -0.475 110 73 64
0.363262 -0.283643 -0.475 112 75 66
0.364933 -0.28424 -0.476 113 75 66
0.36584 -0.28424 -0.476 112 74 65
0.366747 -0.28424 -0.476 112 74 65
0.367653 -0.28424 -0.476 111 73 64
0.36856 -0.28424 -0.476 111 73 64
0.369467 -0.28424 -0.476 112 74 65
0.371151 -0.284837 -0.477 113 75 66
0.37206 -0.284837 -0.477 113 75 66
0.372969 -0.284837 -0.477 113 75 66
0.374661 -0.285434 -0.478 113 75 64
0.376357 -0.286031 -0.479 114 76 65
0.37727 -0.286031 -0.479 115 77 66
0.378971 -0.286629 -0.48 116 78 67
0.379886 -0.286629 -0.48 119 79 69
0.3808 -0.286629 -0.48 120 80 70
0.381714 -0.286629 -0.48 120 80 70
0.382629 -0.286629 -0.48 120 80 70
0.383543 -0.286629 -0.48 121 78 69
0.385258 -0.287226 -0.481 122 79 70
0.386174 -0.287226 -0.481 125 82 73
0.387895 -0.287823 -0.482 126 83 74
0.388813 -0.287823 -0.482 125 82 73
0.39054 -0.28842 -0.483 125 82 73
0.39146 -0.28842 -0.483 127 84 75
0.393192 -0.289017 -0.484 127 84 75
0.394114 -0.289017 -0.484 129 85 74
0.395036 -0.289017 -0.484 129 85 74
0.395958 -0.289017 -0.484 129 85 74
0.3977 -0.289614 -0.485 129 85 74
0.399446 -0.290211 -0.486 130 86 75
0.400371 -0.290211 -0.486 131 87 76
0.401297 -0.290211 -0.486 132 88 77
0.40305 -0.290809 -0.487 132 88 77
0.403978 -0.290809 -0.487 134 90 79
0.405737 -0.291406 -0.488 134 90 79
0.4075 -0.292003 -0.489 133 89 78
0.408431 -0.292003 -0.489 133 89 78
0.409363 -0.292003 -0.489 133 89 78
0.411133 -0.2926 -0.49 133 89 78
0.412908 -0.293197 -0.491 133 89 78
0.413843 -0.293197 -0.491 134 90 79
0.414778 -0.293197 -0.491 134 90 79
0.41656 -0.293794 -0.492 133 89 78
0.417497 -0.293794 -0.492 132 88 77
0.418434 -0.293794 -0.492 132 88 75
0.420224 -0.294391 -0.493 132 88 75
0.421163 -0.294391 -0.493 131 87 74
0.422102 -0.294391 -0.493 132 88 75
0.423899 -0.294989 -0.494 134 90 79
0.42484 -0.294989 -0.494 133 89 78
0.426643 -0.295586 -0.495 138 91 83
0.427586 -0.295586 -0.495 138 91 83
0.429394 -0.296183 -0.496 137 93 82
0.431207 -0.29678 -0.497 143 99 88
0.433023 -0.297377 -0.498 142 102 90
0.433971 -0.297377 -0.498 145 105 93
0.435793 -0.297974 -0.499 155 122 113
0.437619 -0.298571 -0.5 170 137 128
0.440326 -0.299766 -0.502 174 149 142
0.442161 -0.300363 -0.503 186 161 154
0.444881 -0.301557 -0.505 165 146 142
0.447609 -0.302751 -0.507 169 150 146
0.452113 -0.30514 -0.511 190 176 176
0.456633 -0.307529 -0.515 208 194 194
1.14603 -0.377991 -0.633 202 204 191
1.14724 -0.377991 -0.633 202 204 191
1.14844 -0.377991 -0.633 202 204 191
1.14783 -0.377394 -0.632 202 204 193
1.14904 -0.377394 -0.632 200 202 191
0.0883686 -0.354037 -0.591 193 146 138
0.0887371 -0.351042 -0.586 197 150 140
0.0890867 -0.348047 -0.581 193 146 136
0.0894171 -0.345051 -0.576 197 148 143
0.0895714 -0.341457 -0.57 195 146 141
0.0900209 -0.339061 -0.566 198 143 140
0.0906162 -0.337264 -0.563 197 142 139
0.0912 -0.335467 -0.56 198 140 136
0.0922667 -0.335467 -0.56 197 142 137
0.0931667 -0.334868 -0.559 196 144 133
0.0938943 -0.33367 -0.557 195 143 132
0.0949552 -0.33367 -0.557 196 143 137
0.0960162 -0.33367 -0.557 195 142 136
0.0969029 -0.33307 -0.556 196 143 137
0.0979619 -0.33307 -0.556 197 144 138
0.099021 -0.33307 -0.556 197 144 138
0.10008 -0.33307 -0.556 196 143 137
0.101139 -0.33307 -0.556 196 143 135
0.102014 -0.332471 -0.555 196 143 135
0.103071 -0.332471 -0.555 196 143 135
0.104129 -0.332471 -0.555 194 141 133
0.105186 -0.332471 -0.555 193 138 131
0.106051 -0.331872 -0.554 192 137 130
0.107107 -0.331872 -0.554 190 135 128
0.108162 -0.331872 -0.554 190 135 128
0.109217 -0.331872 -0.554 191 136 129
0.110272 -0.331872 -0.554 193 138 131
0.111127 -0.331273 -0.553 194 140 128
0.11218 -0.331273 -0.553 195 141 129
0.113233 -0.331273 -0.553 198 141 130
0.114287 -0.331273 -0.553 194 137 126
0.11534 -0.331273 -0.553 193 136 125
0.116393 -0.331273 -0.553 191 134 123
0.117447 -0.331273 -0.553 186 130 117
0.1185 -0.331273 -0.553 184 128 115
0.119553 -0.331273 -0.553 182 126 113
0.120607 -0.331273 -0.553 182 126 113
0.12188 -0.331872 -0.554 182 124 110
0.122935 -0.331872 -0.554 175 117 103
0.12399 -0.331872 -0.554 172 114 100
0.125271 -0.332471 -0.555 172 114 100
0.126329 -0.332471 -0.555 171 114 97
0.127386 -0.332471 -0.555 173 116 99
0.128443 -0.332471 -0.555 173 116 99
0.129733 -0.33307 -0.556 163 107 94
0.130792 -0.33307 -0.556 156 100 87
0.131851 -0.33307 -0.556 161 105 92
0.13315 -0.33367 -0.557 156 100 87
0.134451 -0.334269 -0.558 159 102 91
0.135757 -0.334868 -0.559 153 96 85
0.137067 -0.335467 -0.56 151 97 87
0.13838 -0.336066 -0.561 151 97 87
0.139697 -0.336665 -0.562 150 97 89
0.141018 -0.337264 -0.563 148 95 87
0.142343 -0.337863 -0.564 142 92 85
0.143671 -0.338462 -0.565 141 91 84
0.145004 -0.339061 -0.566 139 88 84
0.146082 -0.339061 -0.566 139 88 84
0.14742 -0.33966 -0.567 138 89 84
0.148762 -0.340259 -0.568 135 86 81
0.150108 -0.340858 -0.569 130 85 79
0.151457 -0.341457 -0.57 130 85 79
0.15281 -0.342056 -0.571 128 83 77
0.154168 -0.342655 -0.572 126 81 75
0.155257 -0.342655 -0.572 126 81 76
0.15662 -0.343254 -0.573 128 83 78
0.157987 -0.343853 -0.574 127 84 78
0.15908 -0.343853 -0.574 128 85 79
0.160452 -0.344452 -0.575 127 84 78
0.161829 -0.345051 -0.576 125 82 76
0.163209 -0.34565 -0.577 124 81 75
0.164592 -0.34625 -0.578 126 83 77
0.16598 -0.346849 -0.579 125 82 76
0.167083 -0.346849 -0.579 125 82 76
0.168476 -0.347448 -0.58 126 82 79
0.169873 -0.348047 -0.581 123 79 76
0.171274 -0.348646 -0.582 119 82 74
0.172383 -0.348646 -0.582 119 82 74
0.17379 -0.349245 -0.583 120 81 74
0.1752 -0.349844 -0.584 120 81 74
0.176614 -0.350443 -0.585 122 79 73
0.178032 -0.351042 -0.586 123 80 74
0.17976 -0.35224 -0.588 124 80 77
0.181188 -0.352839 -0.589 125 81 78
0.182619 -0.353438 -0.59 124 80 79
0.184366 -0.354636 -0.592 123 79 78
0.185807 -0.355235 -0.593 123 83 81
0.187567 -0.356433 -0.595 127 87 85
0.189017 -0.357032 -0.596 124 89 87
0.213786 -0.368414 -0.615 161 157 182
0.214957 -0.368414 -0.615 166 162 189
0.21648 -0.369013 -0.616 170 166 193
0.217653 -0.369013 -0.616 156 153 180
0.218827 -0.369013 -0.616 131 128 155
0.220357 -0.369612 -0.617 106 100 128
0.221532 -0.369612 -0.617 72 66 94
0.222708 -0.369612 -0.617 78 81 114
0.223883 -0.369612 -0.617 132 135 168
0.225058 -0.369612 -0.617 152 153 183
0.226233 -0.369612 -0.617 166 167 197
0.227409 -0.369612 -0.617 172 167 190
0.228584 -0.369612 -0.617 172 167 190
0.229759 -0.369612 -0.617 160 157 184
0.230934 -0.369612 -0.617 173 170 197
0.23211 -0.369612 -0.617 175 175 203
0.233285 -0.369612 -0.617 153 153 181
0.23446 -0.369612 -0.617 139 139 165
0.235635 -0.369612 -0.617 161 161 187
0.23681 -0.369612 -0.617 164 168 193
0.237986 -0.369612 -0.617 177 181 206
0.239161 -0.369612 -0.617 188 189 210
0.239947 -0.369013 -0.616 193 194 215
0.24112 -0.369013 -0.616 191 192 212
0.242293 -0.369013 -0.616 191 192 212
0.243467 -0.369013 -0.616 193 194 214
0.24464 -0.369013 -0.616 197 198 219
0.245813 -0.369013 -0.616 196 197 218
0.246987 -0.369013 -0.616 168 172 199
0.24816 -0.369013 -0.616 132 136 163
0.249333 -0.369013 -0.616 131 142 174
0.250507 -0.369013 -0.616 145 156 188
0.25168 -0.369013 -0.616 160 176 212
0.252853 -0.369013 -0.616 165 181 217
0.254027 -0.369013 -0.616 166 180 217
0.2552 -0.369013 -0.616 170 184 221
0.256373 -0.369013 -0.616 166 179 213
0.257547 -0.369013 -0.616 156 169 203
0.263841 -0.369612 -0.617 222 227 249
0.339994 -0.355834 -0.594 170 115 121
0.296738 -0.30851 -0.515 180 128 132
0.293094 -0.303717 -0.507 176 131 138
0.29174 -0.301321 -0.503 176 131 138
0.290952 -0.299524 -0.5 172 129 138
0.291321 -0.298925 -0.499 181 138 147
0.291686 -0.298326 -0.498 173 131 143
0.292047 -0.297727 -0.497 170 128 140
0.292993 -0.297727 -0.497 181 145 155
0.293349 -0.297128 -0.496 194 158 168
0.294293 -0.297128 -0.496 202 175 184
0.295238 -0.297128 -0.496 207 180 189
0.29678 -0.297727 -0.497 209 192 200
0.297727 -0.297727 -0.497 199 182 190
0.298673 -0.297727 -0.497 181 171 179
0.300223 -0.298326 -0.498 203 193 201
0.301776 -0.298925 -0.499 220 215 222
0.303333 -0.299524 -0.5 205 200 207
0.305503 -0.300722 -0.502 180 180 206
0.30829 -0.302519 -0.505 171 171 197
0.310477 -0.303717 -0.507 180 179 210
0.311443 -0.303717 -0.507 180 179 210
0.400571 -0.359429 -0.6 142 102 102
0.343696 -0.304915 -0.509 150 100 99
0.338571 -0.299524 -0.5 150 101 97
0.336129 -0.296529 -0.495 151 102 98
0.334348 -0.294132 -0.491 151 102 98
0.333234 -0.292335 -0.488 147 98 94
0.33211 -0.290538 -0.485 142 93 88
0.330973 -0.288741 -0.482 139 90 85
0.329826 -0.286944 -0.479 141 92 85
0.330048 -0.286345 -0.478 138 89 82
0.330266 -0.285746 -0.477 136 88 78
0.33048 -0.285147 -0.476 135 87 77
0.329994 -0.283949 -0.474 133 85 75
0.330199 -0.28335 -0.473 131 83 73
0.3311 -0.28335 -0.473 128 80 68
0.332001 -0.28335 -0.473 126 78 66
0.332902 -0.28335 -0.473 122 79 70
0.333803 -0.28335 -0.473 121 78 69
0.334704 -0.28335 -0.473 120 77 68
0.335605 -0.28335 -0.473 119 76 67
0.336506 -0.28335 -0.473 116 73 64
0.337407 -0.28335 -0.473 114 71 62
0.338308 -0.28335 -0.473 113 70 61
0.339209 -0.28335 -0.473 113 70 61
0.34011 -0.28335 -0.473 113 70 61
0.34101 -0.28335 -0.473 110 70 60
0.341911 -0.28335 -0.473 111 71 61
0.342088 -0.28275 -0.472 112 72 62
0.342987 -0.28275 -0.472 112 72 62
0.343886 -0.28275 -0.472 113 73 65
0.344785 -0.28275 -0.472 114 74 66
0.345684 -0.28275 -0.472 114 74 64
0.346583 -0.28275 -0.472 113 73 63
0.347482 -0.28275 -0.472 110 72 63
0.349119 -0.28335 -0.473 108 70 61
0.35002 -0.28335 -0.473 107 69 60
0.350921 -0.28335 -0.473 107 69 60
0.352566 -0.283949 -0.474 108 70 61
0.353469 -0.283949 -0.474 108 70 61
0.354371 -0.283949 -0.474 109 71 62
0.356024 -0.284548 -0.475 110 72 63
0.356929 -0.284548 -0.475 110 72 63
0.357833 -0.284548 -0.475 111 73 64
0.358738 -0.284548 -0.475 111 73 64
0.359643 -0.284548 -0.475 110 72 63
0.360548 -0.284548 -0.475 110 72 63
0.361452 -0.284548 -0.475 110 72 63
0.362357 -0.284548 -0.475 111 73 64
0.364027 -0.285147 -0.476 113 75 66
0.364933 -0.285147 -0.476 113 75 64
0.36584 -0.285147 -0.476 113 75 64
0.367517 -0.285746 -0.477 113 75 64
0.368426 -0.285746 -0.477 111 73 62
0.369334 -0.285746 -0.477 111 73 62
0.370243 -0.285746 -0.477 111 73 62
0.371151 -0.285746 -0.477 112 74 63
0.37206 -0.285746 -0.477 112 74 63
0.37375 -0.286345 -0.478 112 74 63
0.374661 -0.286345 -0.478 113 75 64
0.376357 -0.286944 -0.479 115 77 66
0.37727 -0.286944 -0.479 117 77 67
0.378971 -0.287543 -0.48 117 77 67
0.379886 -0.287543 -0.48 118 78 68
0.3808 -0.287543 -0.48 119 79 69
0.381714 -0.287543 -0.48 119 79 69
0.382629 -0.287543 -0.48 119 79 69
0.384342 -0.288142 -0.481 120 77 70
0.385258 -0.288142 -0.481 122 79 72
0.386174 -0.288142 -0.481 125 82 73
0.387895 -0.288741 -0.482 125 82 73
0.388813 -0.288741 -0.482 125 82 73
0.39054 -0.28934 -0.483 125 82 73
0.39227 -0.289939 -0.484 125 82 73
0.393192 -0.289939 -0.484 126 83 74
0.394114 -0.289939 -0.484 127 83 72
0.395036 -0.289939 -0.484 127 83 72
0.396776 -0.290538 -0.485 128 84 73
0.3977 -0.290538 -0.485 128 84 73
0.399446 -0.291137 -0.486 129 85 72
0.400371 -0.291137 -0.486 131 87 74
0.402123 -0.291736 -0.487 131 87 74
0.40305 -0.291736 -0.487 132 88 75
0.404808 -0.292335 -0.488 134 90 79
0.405737 -0.292335 -0.488 134 90 79
0.4075 -0.292934 -0.489 134 90 79
0.408431 -0.292934 -0.489 133 89 78
0.409363 -0.292934 -0.489 133 89 78
0.411133 -0.293533 -0.49 132 88 77
0.412067 -0.293533 -0.49 132 88 77
0.413843 -0.294132 -0.491 133 89 78
0.414778 -0.294132 -0.491 133 89 78
0.415713 -0.294132 -0.491 133 89 78
0.417497 -0.294731 -0.492 132 88 77
0.418434 -0.294731 -0.492 132 88 77
0.419371 -0.294731 -0.492 131 87 76
0.421163 -0.29533 -0.493 131 87 76
0.422102 -0.29533 -0.493 132 88 77
0.423041 -0.29533 -0.493 133 89 78
0.42484 -0.29593 -0.494 134 90 79
0.425781 -0.29593 -0.494 136 92 81
0.427586 -0.296529 -0.495 136 92 81
0.429394 -0.297128 -0.496 136 92 79
0.430339 -0.297128 -0.496 141 97 84
0.432153 -0.297727 -0.497 142 102 90
0.433971 -0.298326 -0.498 144 104 92
0.435793 -0.298925 -0.499 149 115 105
0.437619 -0.299524 -0.5 160 126 116
0.439449 -0.300123 -0.501 167 138 132
0.441282 -0.300722 -0.502 182 153 147
0.444 -0.30192 -0.504 178 157 154
0.445843 -0.302519 -0.505 166 145 142
0.450344 -0.304915 -0.509 167 151 152
0.45486 -0.307311 -0.513 196 180 181
0.458503 -0.309109 -0.516 206 193 200
1.14603 -0.379197 -0.633 201 203 190
1.14724 -0.379197 -0.633 202 204 191
1.14844 -0.379197 -0.633 202 204 191
1.14783 -0.378598 -0.632 204 206 195
1.14904 -0.378598 -0.632 202 204 193
0.0872429 -0.355163 -0.591 196 149 139
0.08792 -0.35336 -0.588 192 145 135
0.0882829 -0.350355 -0.583 196 149 139
0.0884733 -0.34675 -0.577 191 144 134
0.0887962 -0.343745 -0.572 196 147 140
0.0891 -0.34074 -0.567 195 146 139
0.0895438 -0.338336 -0.563 201 143 139
0.0902943 -0.337134 -0.561 200 142 138
0.0912 -0.336533 -0.56 198 140 136
0.0921019 -0.335932 -0.559 198 140 136
0.093 -0.335331 -0.558 194 144 135
0.0938943 -0.33473 -0.557 193 143 134
0.0947848 -0.33413 -0.556 194 144 135
0.0958438 -0.33413 -0.556 193 143 134
0.0969029 -0.33413 -0.556 195 142 134
0.0979619 -0.33413 -0.556 196 143 135
0.099021 -0.33413 -0.556 198 145 137
0.0999 -0.333529 -0.555 198 145 137
0.100957 -0.333529 -0.555 196 143 135
0.10183 -0.332928 -0.554 194 141 133
0.102886 -0.332928 -0.554 194 141 133
0.103941 -0.332928 -0.554 192 139 131
0.104996 -0.332928 -0.554 192 137 130
0.106051 -0.332928 -0.554 190 135 128
0.106913 -0.332327 -0.553 189 134 127
0.107967 -0.332327 -0.553 189 134 127
0.10902 -0.332327 -0.553 191 137 127
0.110073 -0.332327 -0.553 193 139 129
0.111127 -0.332327 -0.553 194 140 128
0.11218 -0.332327 -0.553 194 140 128
0.113029 -0.331726 -0.552 195 141 129
0.11408 -0.331726 -0.552 195 141 129
0.115131 -0.331726 -0.552 194 141 127
0.116183 -0.331726 -0.552 189 136 122
0.117234 -0.331726 -0.552 183 127 114
0.118286 -0.331726 -0.552 181 125 112
0.119553 -0.332327 -0.553 184 128 113
0.120607 -0.332327 -0.553 184 128 113
0.12166 -0.332327 -0.553 181 125 110
0.122935 -0.332928 -0.554 176 120 105
0.12399 -0.332928 -0.554 174 118 103
0.125271 -0.333529 -0.555 172 116 101
0.126329 -0.333529 -0.555 169 112 95
0.127386 -0.333529 -0.555 169 112 95
0.128443 -0.333529 -0.555 169 112 95
0.129733 -0.33413 -0.556 163 107 94
0.130792 -0.33413 -0.556 159 103 90
0.132089 -0.33473 -0.557 160 106 94
0.133389 -0.335331 -0.558 156 102 90
0.134692 -0.335932 -0.559 155 101 91
0.136 -0.336533 -0.56 150 96 86
0.137311 -0.337134 -0.561 149 97 86
0.138627 -0.337735 -0.562 150 98 87
0.139697 -0.337735 -0.562 149 99 90
0.141018 -0.338336 -0.563 145 95 86
0.142343 -0.338937 -0.564 141 91 84
0.143671 -0.339538 -0.565 139 89 82
0.145004 -0.340139 -0.566 135 86 81
0.14634 -0.34074 -0.567 135 86 81
0.14768 -0.341341 -0.568 136 87 82
0.148762 -0.341341 -0.568 132 83 78
0.150108 -0.341942 -0.569 127 84 77
0.151457 -0.342543 -0.57 127 84 77
0.15281 -0.343144 -0.571 127 82 76
0.154168 -0.343745 -0.572 125 80 74
0.155529 -0.344346 -0.573 125 82 75
0.156893 -0.344947 -0.574 125 82 75
0.157987 -0.344947 -0.574 127 84 78
0.159357 -0.345548 -0.575 129 86 80
0.160731 -0.346149 -0.576 126 85 79
0.16211 -0.34675 -0.577 123 82 76
0.163491 -0.34735 -0.578 121 80 74
0.164877 -0.347951 -0.579 122 81 75
0.16598 -0.347951 -0.579 123 82 78
0.167371 -0.348552 -0.58 124 83 79
0.168767 -0.349153 -0.581 123 82 78
0.170166 -0.349754 -0.582 122 81 77
0.171274 -0.349754 -0.582 121 84 76
0.172679 -0.350355 -0.583 120 83 75
0.174088 -0.350956 -0.584 121 80 74
