ply
format ascii 1.0
comment Created by Open3D
element vertex 1301
property double x
property double y
property double z
property uchar red
property uchar green
property uchar blue
end_header
0.486631 -0.357346 -0.543 180 142 129
0.48587 -0.35603 -0.541 182 144 131
0.4851 -0.354713 -0.539 183 146 130
0.485225 -0.354055 -0.538 184 147 131
0.484442 -0.352739 -0.536 186 147 130
0.483651 -0.351423 -0.534 186 147 130
0.483761 -0.350765 -0.533 188 147 129
0.483867 -0.350107 -0.532 187 146 128
0.483969 -0.349449 -0.531 191 148 129
0.484067 -0.34879 -0.53 191 148 129
0.484161 -0.348132 -0.529 192 149 130
0.484251 -0.347474 -0.528 194 151 132
0.484338 -0.346816 -0.527 195 150 129
0.485342 -0.346816 -0.527 196 151 130
0.485423 -0.346158 -0.526 197 152 131
0.486425 -0.346158 -0.526 198 153 132
0.487427 -0.346158 -0.526 196 154 132
0.4875 -0.3455 -0.525 195 153 131
0.48757 -0.344842 -0.524 195 153 129
0.488568 -0.344842 -0.524 195 153 129
0.488631 -0.344184 -0.523 196 151 128
0.489628 -0.344184 -0.523 197 152 129
0.490624 -0.344184 -0.523 197 152 129
0.49068 -0.343526 -0.522 198 153 130
0.490732 -0.342868 -0.521 196 152 127
0.491725 -0.342868 -0.521 196 152 127
0.492717 -0.342868 -0.521 196 152 127
0.49371 -0.342868 -0.521 198 154 129
0.493752 -0.34221 -0.52 198 154 129
0.494743 -0.34221 -0.52 197 153 128
0.49478 -0.341551 -0.519 197 153 128
0.495769 -0.341551 -0.519 198 152 128
0.4958 -0.340893 -0.518 194 148 124
0.496787 -0.340893 -0.518 194 150 125
0.497773 -0.340893 -0.518 195 151 126
0.497797 -0.340235 -0.517 195 151 126
0.498782 -0.340235 -0.517 195 151 126
0.499767 -0.340235 -0.517 193 149 122
0.499783 -0.339577 -0.516 191 147 120
0.500766 -0.339577 -0.516 187 143 116
0.500776 -0.338919 -0.515 187 143 116
0.501757 -0.338919 -0.515 187 143 114
0.502738 -0.338919 -0.515 188 144 115
0.502741 -0.338261 -0.514 187 143 114
0.50372 -0.338261 -0.514 185 141 112
0.504699 -0.338261 -0.514 184 140 111
0.505678 -0.338261 -0.514 181 137 108
0.506657 -0.338261 -0.514 179 135 110
0.508624 -0.338919 -0.515 176 132 107
0.510594 -0.339577 -0.516 172 130 105
0.512569 -0.340235 -0.517 171 129 104
0.514547 -0.340893 -0.518 167 130 104
0.516529 -0.341551 -0.519 164 127 101
0.519511 -0.342868 -0.521 159 125 100
0.522502 -0.344184 -0.523 158 124 99
0.526501 -0.346158 -0.526 154 124 100
0.530511 -0.348132 -0.529 154 124 100
0.613262 -0.394199 -0.599 204 195 188
0.618506 -0.396831 -0.603 212 203 196
1.13577 -0.417232 -0.634 202 205 188
1.13697 -0.417232 -0.634 202 205 188
1.13639 -0.416574 -0.633 202 205 188
1.13759 -0.416574 -0.633 202 205 188
1.1388 -0.416574 -0.633 202 205 188
1.14 -0.416574 -0.633 202 205 188
1.13941 -0.415916 -0.632 202 205 188
1.14061 -0.415916 -0.632 202 205 186
1.14001 -0.415258 -0.631 202 205 186
1.1394 -0.4146 -0.63 202 205 186
1.13879 -0.413942 -0.629 201 204 185
0.0626476 -0.37752 -0.572 196 154 132
0.0632914 -0.37488 -0.568 195 153 131
0.0641467 -0.37356 -0.566 195 153 131
0.0647638 -0.37092 -0.562 196 154 132
0.0652486 -0.36762 -0.557 198 156 134
0.0657143 -0.36432 -0.552 199 157 135
0.0665238 -0.363 -0.55 200 158 136
0.0672029 -0.36102 -0.547 201 159 137
0.06812 -0.36036 -0.546 203 158 137
0.0690333 -0.3597 -0.545 203 158 137
0.0698143 -0.35838 -0.543 203 158 135
0.0708486 -0.35838 -0.543 203 158 135
0.0717505 -0.35772 -0.542 203 158 135
0.0726486 -0.35706 -0.541 204 159 136
0.073679 -0.35706 -0.541 205 160 137
0.0747095 -0.35706 -0.541 205 160 137
0.0756 -0.3564 -0.54 201 159 135
0.0766286 -0.3564 -0.54 200 158 134
0.0776571 -0.3564 -0.54 201 156 133
0.0786857 -0.3564 -0.54 201 156 133
0.0797143 -0.3564 -0.54 200 156 131
0.0807429 -0.3564 -0.54 199 155 130
0.0817714 -0.3564 -0.54 200 154 130
0.0828 -0.3564 -0.54 201 155 131
0.0838286 -0.3564 -0.54 201 155 131
0.0848571 -0.3564 -0.54 198 152 128
0.0858857 -0.3564 -0.54 200 152 129
0.0869143 -0.3564 -0.54 201 153 130
0.0879429 -0.3564 -0.54 201 154 128
0.0889714 -0.3564 -0.54 200 153 127
0.09 -0.3564 -0.54 200 153 127
0.0911971 -0.35706 -0.541 199 152 126
0.0922276 -0.35706 -0.541 199 152 126
0.0932581 -0.35706 -0.541 200 154 131
0.0942886 -0.35706 -0.541 201 155 132
0.0954952 -0.35772 -0.542 204 156 133
0.0965276 -0.35772 -0.542 202 154 131
0.09756 -0.35772 -0.542 197 150 124
0.0987743 -0.35838 -0.543 192 145 119
0.0998086 -0.35838 -0.543 189 139 112
0.100843 -0.35838 -0.543 184 134 107
0.102065 -0.35904 -0.544 183 133 106
0.10329 -0.3597 -0.545 177 127 100
0.10452 -0.36036 -0.546 170 118 94
0.10556 -0.36036 -0.546 167 115 91
0.106795 -0.36102 -0.547 167 112 92
0.108034 -0.36168 -0.548 162 107 87
0.109277 -0.36234 -0.549 160 104 87
0.110524 -0.363 -0.55 161 105 88
0.111774 -0.36366 -0.551 160 104 89
0.113029 -0.36432 -0.552 157 101 86
0.114287 -0.36498 -0.553 154 98 83
0.115549 -0.36564 -0.554 153 97 82
0.116814 -0.3663 -0.555 150 97 83
0.118084 -0.36696 -0.556 149 96 82
0.119357 -0.36762 -0.557 146 94 81
0.120634 -0.36828 -0.558 145 93 80
0.121915 -0.36894 -0.559 143 93 82
0.1232 -0.3696 -0.56 143 93 82
0.124489 -0.37026 -0.561 140 92 82
0.125781 -0.37092 -0.562 138 90 80
0.127303 -0.37224 -0.564 137 90 80
0.128605 -0.3729 -0.565 136 89 79
0.13014 -0.37422 -0.567 133 86 78
0.131451 -0.37488 -0.568 131 84 76
0.133 -0.3762 -0.57 122 84 81
0.134321 -0.37686 -0.571 122 84 81
0.135883 -0.37818 -0.573 119 86 79
0.137452 -0.3795 -0.575 118 85 78
0.13903 -0.38082 -0.577 114 85 81
0.140371 -0.38148 -0.578 118 84 82
0.156095 -0.39336 -0.596 106 92 105
0.157758 -0.39468 -0.598 97 98 118
0.158897 -0.39468 -0.598 95 96 116
0.160304 -0.39534 -0.599 87 91 116
0.161714 -0.396 -0.6 78 82 107
0.162857 -0.396 -0.6 66 71 100
0.164 -0.396 -0.6 67 72 101
0.165418 -0.39666 -0.601 91 93 118
0.166563 -0.39666 -0.601 117 119 144
0.167708 -0.39666 -0.601 116 115 133
0.168852 -0.39666 -0.601 111 110 128
0.169997 -0.39666 -0.601 112 114 135
0.171142 -0.39666 -0.601 112 114 135
0.172287 -0.39666 -0.601 78 92 129
0.173431 -0.39666 -0.601 60 74 111
0.174576 -0.39666 -0.601 55 80 134
0.175721 -0.39666 -0.601 55 80 134
0.176866 -0.39666 -0.601 61 86 140
0.17801 -0.39666 -0.601 47 79 136
0.179155 -0.39666 -0.601 49 81 138
0.1806 -0.39732 -0.602 48 79 136
0.181747 -0.39732 -0.602 48 79 136
0.182893 -0.39732 -0.602 74 100 151
0.18404 -0.39732 -0.602 103 129 180
0.185187 -0.39732 -0.602 127 143 179
0.186024 -0.39666 -0.601 135 151 187
0.187169 -0.39666 -0.601 148 162 191
0.188313 -0.39666 -0.601 151 165 194
0.189458 -0.39666 -0.601 123 138 169
0.190603 -0.39666 -0.601 86 101 132
0.191748 -0.39666 -0.601 92 105 140
0.192892 -0.39666 -0.601 98 111 146
0.194037 -0.39666 -0.601 124 130 166
0.195182 -0.39666 -0.601 146 152 188
0.196327 -0.39666 -0.601 163 163 187
0.197471 -0.39666 -0.601 166 166 190
0.198616 -0.39666 -0.601 167 170 185
0.199761 -0.39666 -0.601 169 172 187
0.200906 -0.39666 -0.601 173 176 185
0.20205 -0.39666 -0.601 175 178 187
0.203195 -0.39666 -0.601 176 178 191
0.20434 -0.39666 -0.601 179 181 194
0.205485 -0.39666 -0.601 179 181 196
0.20663 -0.39666 -0.601 185 187 202
0.207774 -0.39666 -0.601 180 182 195
0.208919 -0.39666 -0.601 182 184 197
0.210064 -0.39666 -0.601 186 188 200
0.211209 -0.39666 -0.601 183 185 197
0.212353 -0.39666 -0.601 189 188 202
0.213498 -0.39666 -0.601 183 182 196
0.214643 -0.39666 -0.601 178 179 184
0.215788 -0.39666 -0.601 193 194 199
0.217293 -0.39732 -0.602 195 199 210
0.21844 -0.39732 -0.602 195 199 210
0.219587 -0.39732 -0.602 194 201 217
0.220733 -0.39732 -0.602 196 203 219
0.22188 -0.39732 -0.602 195 204 221
0.223027 -0.39732 -0.602 195 204 221
0.224173 -0.39732 -0.602 195 203 222
0.22532 -0.39732 -0.602 195 203 222
0.226467 -0.39732 -0.602 186 194 213
0.227613 -0.39732 -0.602 178 186 205
0.22876 -0.39732 -0.602 155 163 182
0.229907 -0.39732 -0.602 141 147 169
0.23067 -0.39666 -0.601 151 157 179
0.231814 -0.39666 -0.601 185 191 215
0.232959 -0.39666 -0.601 204 210 234
0.234104 -0.39666 -0.601 209 215 237
0.235249 -0.39666 -0.601 204 210 232
0.236393 -0.39666 -0.601 195 207 231
0.237538 -0.39666 -0.601 185 197 221
0.238683 -0.39666 -0.601 148 167 207
0.239828 -0.39666 -0.601 132 151 191
0.240972 -0.39666 -0.601 131 159 199
0.242117 -0.39666 -0.601 148 176 216
0.243262 -0.39666 -0.601 151 179 229
0.244407 -0.39666 -0.601 149 177 227
0.245551 -0.39666 -0.601 141 166 206
0.246696 -0.39666 -0.601 150 175 215
0.247841 -0.39666 -0.601 183 203 240
0.250547 -0.39732 -0.602 203 219 253
0.336474 -0.39996 -0.606 253 252 255
0.38686 -0.40194 -0.609 185 199 226
0.38802 -0.40194 -0.609 219 232 249
0.38918 -0.40194 -0.609 234 247 255
0.393305 -0.4026 -0.61 250 251 255
0.394467 -0.4026 -0.61 252 253 255
0.395629 -0.4026 -0.61 250 249 254
0.39679 -0.4026 -0.61 242 241 246
0.397952 -0.4026 -0.61 221 219 224
0.399114 -0.4026 -0.61 214 212 217
0.400276 -0.4026 -0.61 238 236 241
0.401438 -0.4026 -0.61 254 252 255
0.4026 -0.4026 -0.61 251 250 255
0.403762 -0.4026 -0.61 244 243 249
0.404924 -0.4026 -0.61 238 241 246
0.406086 -0.4026 -0.61 242 245 250
0.407248 -0.4026 -0.61 245 249 252
0.41257 -0.40326 -0.611 248 247 252
0.413734 -0.40326 -0.611 249 249 251
0.414898 -0.40326 -0.611 249 249 251
0.416062 -0.40326 -0.611 219 217 220
0.417226 -0.40326 -0.611 208 206 209
0.41839 -0.40326 -0.611 231 231 233
0.419553 -0.40326 -0.611 247 247 249
0.420717 -0.40326 -0.611 247 248 253
0.421881 -0.40326 -0.611 249 250 255
0.423045 -0.40326 -0.611 237 240 255
0.424209 -0.40326 -0.611 213 216 231
0.427234 -0.40392 -0.612 166 178 202
0.4284 -0.40392 -0.612 178 197 229
0.429566 -0.40392 -0.612 195 214 246
0.430731 -0.40392 -0.612 195 215 250
0.431897 -0.40392 -0.612 195 215 250
0.433063 -0.40392 -0.612 182 205 249
0.434229 -0.40392 -0.612 144 167 211
0.435394 -0.40392 -0.612 118 148 200
0.43656 -0.40392 -0.612 136 166 218
0.438441 -0.40458 -0.613 147 182 236
0.439609 -0.40458 -0.613 140 175 229
0.440776 -0.40458 -0.613 116 151 205
0.442665 -0.40524 -0.614 102 137 191
0.443834 -0.40524 -0.614 128 158 210
0.445004 -0.40524 -0.614 168 198 250
0.446173 -0.40524 -0.614 184 207 249
0.447343 -0.40524 -0.614 184 207 249
0.449243 -0.4059 -0.615 187 210 252
0.450414 -0.4059 -0.615 186 206 239
0.451586 -0.4059 -0.615 171 191 224
0.452757 -0.4059 -0.615 171 184 218
0.453929 -0.4059 -0.615 179 192 226
0.4551 -0.4059 -0.615 213 219 241
0.456271 -0.4059 -0.615 229 235 255
0.458187 -0.40656 -0.616 243 246 255
0.45936 -0.40656 -0.616 241 244 253
0.460533 -0.40656 -0.616 244 245 249
0.461707 -0.40656 -0.616 242 243 247
0.46288 -0.40656 -0.616 217 215 220
0.464807 -0.40722 -0.617 196 194 199
0.465982 -0.40722 -0.617 212 210 215
0.467157 -0.40722 -0.617 238 236 241
0.468332 -0.40722 -0.617 240 238 249
0.469508 -0.40722 -0.617 238 236 247
0.470683 -0.40722 -0.617 232 235 250
0.471858 -0.40722 -0.617 228 231 246
0.473033 -0.40722 -0.617 218 220 233
0.474209 -0.40722 -0.617 212 214 227
0.475384 -0.40722 -0.617 218 222 234
0.476559 -0.40722 -0.617 222 226 238
0.477734 -0.40722 -0.617 223 227 236
0.479686 -0.40788 -0.618 229 233 242
0.480863 -0.40788 -0.618 215 215 217
0.48204 -0.40788 -0.618 183 183 185
0.483217 -0.40788 -0.618 195 191 190
0.484394 -0.40788 -0.618 223 219 218
0.485571 -0.40788 -0.618 227 225 228
0.486749 -0.40788 -0.618 226 224 227
0.487926 -0.40788 -0.618 226 224 227
0.489103 -0.40788 -0.618 225 225 233
0.491073 -0.40854 -0.619 226 226 234
0.492252 -0.40854 -0.619 222 226 237
0.493431 -0.40854 -0.619 209 213 224
0.49461 -0.40854 -0.619 157 168 196
0.49579 -0.40854 -0.619 130 141 169
0.496969 -0.40854 -0.619 139 157 193
0.498148 -0.40854 -0.619 167 185 221
0.499327 -0.40854 -0.619 175 195 230
0.500506 -0.40854 -0.619 162 182 217
0.501685 -0.40854 -0.619 153 182 216
0.502864 -0.40854 -0.619 138 167 201
0.504043 -0.40854 -0.619 79 125 175
0.505222 -0.40854 -0.619 68 114 164
0.506401 -0.40854 -0.619 68 117 183
0.50758 -0.40854 -0.619 71 120 186
0.508759 -0.40854 -0.619 85 129 194
0.509938 -0.40854 -0.619 81 125 190
0.511117 -0.40854 -0.619 60 106 166
0.512296 -0.40854 -0.619 72 118 178
0.513475 -0.40854 -0.619 117 153 203
0.514654 -0.40854 -0.619 131 167 217
0.515833 -0.40854 -0.619 141 169 206
0.517012 -0.40854 -0.619 139 167 204
0.517354 -0.40788 -0.618 128 148 183
0.518531 -0.40788 -0.618 107 127 162
0.519709 -0.40788 -0.618 104 119 150
0.520886 -0.40788 -0.618 143 158 189
0.521218 -0.40722 -0.617 175 183 196
0.522393 -0.40722 -0.617 182 190 203
0.517697 -0.39468 -0.598 163 136 127
0.515366 -0.39204 -0.594 165 138 129
0.51215 -0.38874 -0.589 167 139 128
0.509786 -0.3861 -0.585 166 138 127
0.507407 -0.38346 -0.581 166 138 127
0.505012 -0.38082 -0.577 166 138 127
0.502603 -0.37818 -0.573 166 136 126
0.500178 -0.37554 -0.569 168 138 128
0.498619 -0.37356 -0.566 167 137 126
0.496166 -0.37092 -0.562 169 139 128
0.494582 -0.36894 -0.559 169 137 126
0.492987 -0.36696 -0.556 173 141 130
0.492269 -0.36564 -0.554 173 141 130
0.490652 -0.36366 -0.551 174 142 131
0.489917 -0.36234 -0.549 178 142 128
0.48828 -0.36036 -0.546 177 141 127
0.487528 -0.35904 -0.544 181 145 131
0.48587 -0.35706 -0.541 181 145 131
0.4851 -0.35574 -0.539 182 145 129
0.485225 -0.35508 -0.538 183 146 130
0.484442 -0.35376 -0.536 183 144 127
0.484557 -0.3531 -0.535 185 146 129
0.483761 -0.35178 -0.533 187 146 128
0.483867 -0.35112 -0.532 186 145 127
0.483969 -0.35046 -0.531 189 148 128
0.483153 -0.34914 -0.529 190 149 129
0.484161 -0.34914 -0.529 193 150 131
0.484251 -0.34848 -0.528 195 152 133
0.484338 -0.34782 -0.527 193 151 129
0.485342 -0.34782 -0.527 194 152 130
0.485423 -0.34716 -0.526 194 152 130
0.4855 -0.3465 -0.525 196 154 132
0.4865 -0.3465 -0.525 196 154 132
0.4875 -0.3465 -0.525 195 153 131
0.48757 -0.34584 -0.524 194 152 128
0.487635 -0.34518 -0.523 193 151 127
0.488631 -0.34518 -0.523 195 150 127
0.488691 -0.34452 -0.522 194 149 126
0.489686 -0.34452 -0.522 198 153 130
0.49068 -0.34452 -0.522 198 153 130
0.490732 -0.34386 -0.521 197 153 128
0.490781 -0.3432 -0.52 196 152 127
0.491771 -0.3432 -0.52 196 152 127
0.492762 -0.3432 -0.52 197 153 128
0.493752 -0.3432 -0.52 196 152 127
0.493791 -0.34254 -0.519 196 152 127
0.49478 -0.34254 -0.519 196 152 127
0.494813 -0.34188 -0.518 197 153 126
0.4958 -0.34188 -0.518 195 151 124
0.495828 -0.34122 -0.517 197 153 126
0.496812 -0.34122 -0.517 195 151 124
0.497797 -0.34122 -0.517 193 149 122
0.497817 -0.34056 -0.516 196 152 125
0.4988 -0.34056 -0.516 194 150 123
0.499783 -0.34056 -0.516 192 148 121
0.499795 -0.3399 -0.515 188 144 117
0.500776 -0.3399 -0.515 187 143 116
0.500783 -0.33924 -0.514 186 145 115
0.501762 -0.33924 -0.514 187 146 116
0.502741 -0.33924 -0.514 188 147 117
0.50372 -0.33924 -0.514 186 145 115
0.504699 -0.33924 -0.514 184 143 113
0.505678 -0.33924 -0.514 184 143 113
0.506657 -0.33924 -0.514 184 140 115
0.507636 -0.33924 -0.514 179 135 110
0.508615 -0.33924 -0.514 172 130 105
0.510586 -0.3399 -0.515 171 129 104
0.51256 -0.34056 -0.516 168 131 105
0.515533 -0.34188 -0.518 165 128 102
0.517517 -0.34254 -0.519 162 128 103
0.520504 -0.34386 -0.521 161 127 102
0.523498 -0.34518 -0.523 158 126 103
1.13335 -0.41844 -0.634 202 205 188
1.13456 -0.41844 -0.634 202 205 188
1.13577 -0.41844 -0.634 203 206 189
1.13697 -0.41844 -0.634 202 205 188
1.13818 -0.41844 -0.634 202 205 188
1.13759 -0.41778 -0.633 202 205 188
1.1388 -0.41778 -0.633 202 205 188
1.1382 -0.41712 -0.632 203 206 189
1.13941 -0.41712 -0.632 203 206 189
1.14061 -0.41712 -0.632 203 206 187
1.14001 -0.41646 -0.631 202 205 186
1.14121 -0.41646 -0.631 202 205 186
1.1406 -0.4158 -0.63 202 205 186
0.0616657 -0.379271 -0.573 190 153 127
0.0624286 -0.377286 -0.57 197 152 131
0.0632914 -0.375962 -0.568 195 153 131
0.0638067 -0.372652 -0.563 194 152 130
0.0644181 -0.370005 -0.559 195 153 131
0.0648971 -0.366695 -0.554 199 157 135
0.0654762 -0.364048 -0.55 200 158 136
0.0662819 -0.362724 -0.548 200 158 136
0.06708 -0.3614 -0.546 201 159 137
0.0679952 -0.360738 -0.545 204 159 136
0.0689067 -0.360076 -0.544 203 158 135
0.0698143 -0.359414 -0.543 202 157 134
0.0707181 -0.358752 -0.542 203 158 135
0.0716181 -0.35809 -0.541 203 158 135
0.0726486 -0.35809 -0.541 204 159 136
0.073679 -0.35809 -0.541 205 160 137
0.0745714 -0.357429 -0.54 204 159 136
0.0756 -0.357429 -0.54 204 159 136
0.0764867 -0.356767 -0.539 203 158 135
0.0775133 -0.356767 -0.539 201 157 132
0.07854 -0.356767 -0.539 200 156 131
0.0795667 -0.356767 -0.539 200 156 131
0.0805933 -0.356767 -0.539 199 155 130
0.08162 -0.356767 -0.539 200 154 130
0.0826467 -0.356767 -0.539 201 155 131
0.0836733 -0.356767 -0.539 200 154 130
0.0847 -0.356767 -0.539 198 152 128
0.0858857 -0.357429 -0.54 198 152 126
0.0869143 -0.357429 -0.54 200 154 128
0.0879429 -0.357429 -0.54 200 153 127
0.0889714 -0.357429 -0.54 200 153 127
0.09 -0.357429 -0.54 201 154 128
0.0910286 -0.357429 -0.54 201 154 128
0.0920571 -0.357429 -0.54 201 154 128
0.0930857 -0.357429 -0.54 200 154 131
0.0942886 -0.35809 -0.541 200 154 131
0.095319 -0.35809 -0.541 202 154 131
0.0963495 -0.35809 -0.541 200 152 129
0.09756 -0.358752 -0.542 194 147 121
0.0985924 -0.358752 -0.542 188 141 115
0.0998086 -0.359414 -0.543 185 135 108
0.100843 -0.359414 -0.543 181 131 104
0.102065 -0.360076 -0.544 179 129 102
0.10329 -0.360738 -0.545 175 125 98
0.10452 -0.3614 -0.546 171 119 95
0.105753 -0.362062 -0.547 168 116 92
0.106795 -0.362062 -0.547 168 113 92
0.108034 -0.362724 -0.548 163 108 87
0.109277 -0.363386 -0.549 159 103 86
0.110524 -0.364048 -0.55 160 104 87
0.111774 -0.36471 -0.551 159 103 88
0.113029 -0.365371 -0.552 156 100 85
0.114287 -0.366033 -0.553 154 98 83
0.115549 -0.366695 -0.554 153 97 82
0.116814 -0.367357 -0.555 151 98 84
0.118084 -0.368019 -0.556 150 97 83
0.119357 -0.368681 -0.557 147 95 82
0.120634 -0.369343 -0.558 145 93 80
0.121915 -0.370005 -0.559 144 94 83
0.1232 -0.370667 -0.56 143 93 82
0.124489 -0.371329 -0.561 140 92 80
0.125781 -0.37199 -0.562 139 91 79
0.127303 -0.373314 -0.564 139 91 81
0.128832 -0.374638 -0.566 139 91 81
0.13014 -0.3753 -0.567 136 89 81
0.131683 -0.376624 -0.569 134 87 79
0.133 -0.377286 -0.57 126 86 84
0.134556 -0.37861 -0.572 124 84 82
0.13612 -0.379933 -0.574 120 85 79
0.137691 -0.381257 -0.576 119 84 78
0.13903 -0.381919 -0.577 114 85 81
0.15496 -0.394495 -0.596 102 94 109
0.156357 -0.395157 -0.597 101 93 108
0.157758 -0.395819 -0.598 86 90 115
0.159163 -0.396481 -0.599 79 83 108
0.160304 -0.396481 -0.599 67 72 101
0.161714 -0.397143 -0.6 55 60 89
0.162857 -0.397143 -0.6 52 57 86
0.164 -0.397143 -0.6 69 74 103
0.165143 -0.397143 -0.6 104 106 127
0.166286 -0.397143 -0.6 128 130 151
0.167429 -0.397143 -0.6 127 126 142
0.168571 -0.397143 -0.6 116 115 131
0.169714 -0.397143 -0.6 102 107 129
0.170857 -0.397143 -0.6 96 101 123
0.172 -0.397143 -0.6 75 89 128
0.173143 -0.397143 -0.6 67 81 120
0.174286 -0.397143 -0.6 64 87 139
0.175429 -0.397143 -0.6 64 87 139
0.176571 -0.397143 -0.6 63 86 138
0.177714 -0.397143 -0.6 53 79 128
0.178857 -0.397143 -0.6 60 86 135
0.1803 -0.397805 -0.601 62 88 139
0.181445 -0.397805 -0.601 62 88 139
0.18259 -0.397805 -0.601 83 104 151
0.183734 -0.397805 -0.601 106 127 174
0.184879 -0.397805 -0.601 129 142 177
0.186024 -0.397805 -0.601 142 155 190
0.186857 -0.397143 -0.6 148 158 185
0.188 -0.397143 -0.6 152 162 189
0.189143 -0.397143 -0.6 127 141 170
0.190286 -0.397143 -0.6 86 100 129
0.191429 -0.397143 -0.6 74 90 124
0.192571 -0.397143 -0.6 71 87 121
0.193714 -0.397143 -0.6 93 107 146
0.194857 -0.397143 -0.6 117 131 170
0.196327 -0.397805 -0.601 148 149 179
0.197471 -0.397805 -0.601 160 161 191
0.198616 -0.397805 -0.601 169 170 188
0.199761 -0.397805 -0.601 171 172 190
0.200906 -0.397805 -0.601 173 176 185
0.20205 -0.397805 -0.601 175 178 187
0.203195 -0.397805 -0.601 176 178 190
0.20434 -0.397805 -0.601 179 181 193
0.205485 -0.397805 -0.601 178 180 193
0.20663 -0.397805 -0.601 181 183 196
0.207774 -0.397805 -0.601 183 185 197
0.208919 -0.397805 -0.601 186 188 200
0.210064 -0.397805 -0.601 170 170 180
0.211209 -0.397805 -0.601 155 155 165
0.212353 -0.397805 -0.601 175 174 188
0.213143 -0.397143 -0.6 193 192 206
0.214286 -0.397143 -0.6 191 194 203
0.215788 -0.397805 -0.601 194 197 206
0.216932 -0.397805 -0.601 196 200 211
0.218077 -0.397805 -0.601 197 201 212
0.219222 -0.397805 -0.601 195 201 215
0.220367 -0.397805 -0.601 198 204 218
0.221511 -0.397805 -0.601 199 207 226
0.222656 -0.397805 -0.601 193 201 220
0.223801 -0.397805 -0.601 193 201 220
0.224946 -0.397805 -0.601 176 188 212
0.22609 -0.397805 -0.601 152 164 188
0.227235 -0.397805 -0.601 136 148 174
0.22838 -0.397805 -0.601 119 131 157
0.229525 -0.397805 -0.601 126 134 157
0.23067 -0.397805 -0.601 156 164 187
0.231429 -0.397143 -0.6 187 194 213
0.232571 -0.397143 -0.6 182 189 208
0.233714 -0.397143 -0.6 193 198 217
0.234857 -0.397143 -0.6 205 210 229
0.236 -0.397143 -0.6 193 205 227
0.237143 -0.397143 -0.6 176 188 210
0.238286 -0.397143 -0.6 150 170 207
0.239429 -0.397143 -0.6 145 165 202
0.242117 -0.397805 -0.601 160 185 225
0.243262 -0.397805 -0.601 160 187 234
0.244407 -0.397805 -0.601 154 181 228
0.245551 -0.397805 -0.601 148 172 210
0.246696 -0.397805 -0.601 155 179 217
0.247841 -0.397805 -0.601 183 201 237
0.248986 -0.397805 -0.601 197 217 254
0.25013 -0.397805 -0.601 207 222 251
0.251275 -0.397805 -0.601 221 236 255
0.25242 -0.397805 -0.601 223 234 254
0.253565 -0.397805 -0.601 209 220 240
0.25471 -0.397805 -0.601 171 185 214
0.255854 -0.397805 -0.601 167 181 210
0.256999 -0.397805 -0.601 183 194 226
0.342246 -0.401114 -0.606 249 247 252
0.3434 -0.401114 -0.606 252 247 251
0.344554 -0.401114 -0.606 252 247 251
0.345709 -0.401114 -0.606 253 251 255
0.363622 -0.401776 -0.607 238 247 255
0.38918 -0.4031 -0.609 217 233 255
0.39034 -0.4031 -0.609 240 242 254
0.3915 -0.4031 -0.609 244 246 255
0.39266 -0.4031 -0.609 245 248 255
0.39382 -0.4031 -0.609 248 251 255
0.39498 -0.4031 -0.609 251 250 255
0.39614 -0.4031 -0.609 251 250 255
0.3973 -0.4031 -0.609 240 238 241
0.39846 -0.4031 -0.609 226 224 227
0.401438 -0.403762 -0.61 251 249 252
0.4026 -0.403762 -0.61 251 249 254
0.403762 -0.403762 -0.61 250 248 253
0.404924 -0.403762 -0.61 248 249 253
0.406086 -0.403762 -0.61 249 250 254
0.407248 -0.403762 -0.61 249 250 252
0.40841 -0.403762 -0.61 250 251 253
0.409571 -0.403762 -0.61 250 251 253
0.410733 -0.403762 -0.61 250 251 253
0.411895 -0.403762 -0.61 248 249 251
0.413057 -0.403762 -0.61 251 250 255
0.414219 -0.403762 -0.61 245 244 249
0.415381 -0.403762 -0.61 225 223 228
0.416543 -0.403762 -0.61 230 228 233
0.424209 -0.404424 -0.611 197 204 223
0.425372 -0.404424 -0.611 173 185 211
0.426536 -0.404424 -0.611 182 194 220
0.4277 -0.404424 -0.611 212 228 254
0.428864 -0.404424 -0.611 226 242 255
0.430028 -0.404424 -0.611 216 232 255
0.431191 -0.404424 -0.611 211 227 252
0.433063 -0.405086 -0.612 200 220 255
0.434229 -0.405086 -0.612 170 190 225
0.435394 -0.405086 -0.612 139 167 214
0.43656 -0.405086 -0.612 154 182 229
0.437726 -0.405086 -0.612 162 198 246
0.438891 -0.405086 -0.612 162 198 246
0.440776 -0.405748 -0.613 132 168 216
0.441944 -0.405748 -0.613 119 155 203
0.443111 -0.405748 -0.613 146 175 219
0.444279 -0.405748 -0.613 185 214 255
0.445447 -0.405748 -0.613 203 222 255
0.446614 -0.405748 -0.613 203 222 255
0.448512 -0.40641 -0.614 211 230 255
0.449682 -0.40641 -0.614 226 241 255
0.450851 -0.40641 -0.614 216 231 252
0.452021 -0.40641 -0.614 185 198 230
0.45319 -0.40641 -0.614 167 180 212
0.45436 -0.40641 -0.614 185 195 220
0.45553 -0.40641 -0.614 205 215 240
0.457443 -0.407071 -0.615 232 238 254
0.458614 -0.407071 -0.615 237 243 255
0.459786 -0.407071 -0.615 242 245 254
0.460957 -0.407071 -0.615 240 243 252
0.462129 -0.407071 -0.615 231 232 237
0.464053 -0.407733 -0.616 206 207 212
0.465227 -0.407733 -0.616 212 211 217
0.4664 -0.407733 -0.616 233 232 238
0.467573 -0.407733 -0.616 237 237 247
0.468747 -0.407733 -0.616 236 236 246
0.46992 -0.407733 -0.616 234 236 248
0.471093 -0.407733 -0.616 232 234 246
0.472267 -0.407733 -0.616 230 232 244
0.47344 -0.407733 -0.616 225 227 239
0.475384 -0.408395 -0.617 230 232 244
0.476559 -0.408395 -0.617 228 230 242
0.477734 -0.408395 -0.617 227 230 237
0.47891 -0.408395 -0.617 229 232 239
0.480085 -0.408395 -0.617 213 213 215
0.48126 -0.408395 -0.617 185 185 187
0.482435 -0.408395 -0.617 204 202 205
0.48361 -0.408395 -0.617 224 222 225
0.485571 -0.409057 -0.618 226 225 230
0.486749 -0.409057 -0.618 224 223 228
0.487926 -0.409057 -0.618 220 222 234
0.489103 -0.409057 -0.618 220 222 234
0.49028 -0.409057 -0.618 218 220 232
0.491457 -0.409057 -0.618 213 219 235
0.493431 -0.409719 -0.619 199 205 221
0.49461 -0.409719 -0.619 157 168 196
0.49579 -0.409719 -0.619 130 141 169
0.496166 -0.409057 -0.618 168 183 214
0.497343 -0.409057 -0.618 199 214 245
0.49852 -0.409057 -0.618 203 217 243
0.499697 -0.409057 -0.618 192 206 232
0.500874 -0.409057 -0.618 176 202 229
0.502051 -0.409057 -0.618 159 185 212
0.503229 -0.409057 -0.618 107 151 198
0.504406 -0.409057 -0.618 88 132 179
0.505583 -0.409057 -0.618 83 133 194
0.50676 -0.409057 -0.618 83 133 194
0.507937 -0.409057 -0.618 96 137 199
0.509114 -0.409057 -0.618 98 139 201
0.510291 -0.409057 -0.618 84 126 186
0.511469 -0.409057 -0.618 90 132 192
0.512646 -0.409057 -0.618 138 166 213
0.513823 -0.409057 -0.618 159 187 234
0.515 -0.409057 -0.618 168 189 218
0.516177 -0.409057 -0.618 176 197 226
0.517354 -0.409057 -0.618 177 192 221
0.518531 -0.409057 -0.618 140 155 184
0.519709 -0.409057 -0.618 101 116 147
0.520886 -0.409057 -0.618 119 134 165
0.521218 -0.408395 -0.617 153 164 182
0.521547 -0.407733 -0.616 165 176 194
0.52272 -0.407733 -0.616 187 185 196
0.516233 -0.393833 -0.595 163 136 127
0.513019 -0.390524 -0.59 166 137 129
0.510657 -0.387876 -0.586 166 137 129
0.50828 -0.385229 -0.582 165 137 126
0.505888 -0.382581 -0.578 165 137 126
0.504357 -0.380595 -0.575 167 137 127
0.501936 -0.377948 -0.571 169 139 129
0.4995 -0.3753 -0.567 168 138 128
0.497931 -0.373314 -0.564 169 139 129
0.495467 -0.370667 -0.56 169 137 126
0.493873 -0.368681 -0.557 172 140 129
0.492269 -0.366695 -0.554 172 140 129
0.491543 -0.365371 -0.552 173 141 130
0.489917 -0.363386 -0.549 179 143 129
0.489174 -0.362062 -0.547 179 143 129
0.487528 -0.360076 -0.544 181 145 131
0.486768 -0.358752 -0.542 181 145 131
0.486 -0.357429 -0.54 182 145 129
0.485225 -0.356105 -0.538 183 146 130
0.484442 -0.354781 -0.536 181 144 126
0.484557 -0.354119 -0.535 183 146 128
0.483761 -0.352795 -0.533 183 145 126
0.483867 -0.352133 -0.532 184 146 127
0.483969 -0.351471 -0.531 190 149 131
0.484067 -0.35081 -0.53 191 150 132
0.483246 -0.349486 -0.528 194 151 132
0.484251 -0.349486 -0.528 195 152 133
0.484338 -0.348824 -0.527 192 150 128
0.484421 -0.348162 -0.526 193 151 129
0.4845 -0.3475 -0.525 195 153 131
0.4855 -0.3475 -0.525 195 153 131
0.4865 -0.3475 -0.525 196 154 132
0.486571 -0.346838 -0.524 195 153 131
0.48757 -0.346838 -0.524 194 152 128
0.487635 -0.346176 -0.523 193 151 127
0.487697 -0.345514 -0.522 192 150 126
0.488691 -0.345514 -0.522 190 148 124
0.489686 -0.345514 -0.522 197 155 131
0.48974 -0.344852 -0.521 195 153 129
0.490732 -0.344852 -0.521 197 153 128
0.490781 -0.34419 -0.52 196 152 127
0.491771 -0.34419 -0.52 196 152 127
0.491814 -0.343529 -0.519 195 151 126
0.492803 -0.343529 -0.519 195 151 126
0.493791 -0.343529 -0.519 196 152 127
0.493827 -0.342867 -0.518 196 152 127
0.493858 -0.342205 -0.517 197 153 126
0.494843 -0.342205 -0.517 196 152 125
0.495828 -0.342205 -0.517 197 153 126
0.495851 -0.341543 -0.516 191 147 120
0.496834 -0.341543 -0.516 189 145 118
0.497817 -0.341543 -0.516 194 150 123
0.497833 -0.340881 -0.515 194 150 123
0.498814 -0.340881 -0.515 190 146 119
0.499795 -0.340881 -0.515 192 148 121
0.499804 -0.340219 -0.514 190 146 119
0.500783 -0.340219 -0.514 186 145 115
0.500786 -0.339557 -0.513 187 146 118
0.501763 -0.339557 -0.513 189 148 120
0.50274 -0.339557 -0.513 188 147 119
0.503717 -0.339557 -0.513 186 145 117
0.504694 -0.339557 -0.513 187 146 118
0.505671 -0.339557 -0.513 187 142 119
0.506649 -0.339557 -0.513 180 135 112
0.507626 -0.339557 -0.513 173 131 106
0.509594 -0.340219 -0.514 172 130 105
0.511567 -0.340881 -0.515 168 131 105
0.513543 -0.341543 -0.516 166 129 103
0.515523 -0.342205 -0.517 162 128 103
0.518506 -0.343529 -0.519 162 128 103
0.520495 -0.34419 -0.52 159 127 104
1.13397 -0.418986 -0.633 203 206 189
1.13518 -0.418986 -0.633 202 205 188
1.13639 -0.418986 -0.633 202 205 188
1.13759 -0.418986 -0.633 202 205 188
1.1388 -0.418986 -0.633 202 205 188
1.1382 -0.418324 -0.632 202 204 190
1.13941 -0.418324 -0.632 202 204 190
1.14061 -0.418324 -0.632 203 206 189
1.14001 -0.417662 -0.631 202 205 186
1.14121 -0.417662 -0.631 202 205 186
1.14241 -0.417662 -0.631 202 205 186
0.0614505 -0.379035 -0.571 186 151 123
0.0624286 -0.378371 -0.57 197 152 131
0.0629571 -0.375052 -0.565 197 152 131
0.06358 -0.372397 -0.561 197 152 131
0.0640724 -0.369078 -0.556 199 154 133
0.0646629 -0.366423 -0.552 202 157 136
0.0653571 -0.364431 -0.549 204 159 138
0.066161 -0.363104 -0.547 203 158 135
0.0669571 -0.361776 -0.545 202 157 134
0.0678705 -0.361112 -0.544 201 156 133
0.06878 -0.360449 -0.543 200 155 132
0.0696857 -0.359785 -0.542 201 156 133
0.0707181 -0.359785 -0.542 202 157 134
0.0716181 -0.359121 -0.541 203 158 135
0.0725143 -0.358457 -0.54 204 159 136
0.0735429 -0.358457 -0.54 205 161 136
0.0745714 -0.358457 -0.54 204 160 135
0.07546 -0.357793 -0.539 205 160 137
0.0764867 -0.357793 -0.539 204 159 136
0.0775133 -0.357793 -0.539 202 158 133
0.07854 -0.357793 -0.539 201 157 132
0.0795667 -0.357793 -0.539 201 157 132
0.0804438 -0.35713 -0.538 200 156 131
0.0814686 -0.35713 -0.538 202 156 132
0.0824933 -0.35713 -0.538 203 157 133
0.0836733 -0.357793 -0.539 201 155 131
0.0847 -0.357793 -0.539 198 152 128
0.0857267 -0.357793 -0.539 198 152 126
0.0867533 -0.357793 -0.539 199 153 127
0.08778 -0.357793 -0.539 199 153 127
0.0888067 -0.357793 -0.539 200 154 128
0.0898333 -0.357793 -0.539 200 154 128
0.09086 -0.357793 -0.539 201 154 128
0.0920571 -0.358457 -0.54 201 154 128
0.0930857 -0.358457 -0.54 200 152 130
0.0941143 -0.358457 -0.54 198 150 128
0.095319 -0.359121 -0.541 196 149 123
0.0963495 -0.359121 -0.541 193 146 120
0.09756 -0.359785 -0.542 190 140 113
0.0985924 -0.359785 -0.542 185 135 108
0.0998086 -0.360449 -0.543 182 132 105
0.100843 -0.360449 -0.543 180 130 103
0.102065 -0.361112 -0.544 180 129 102
0.10329 -0.361776 -0.545 177 126 99
0.10452 -0.36244 -0.546 175 121 95
0.105753 -0.363104 -0.547 172 118 92
0.10699 -0.363768 -0.548 169 114 93
0.108034 -0.363768 -0.548 164 109 88
0.109277 -0.364431 -0.549 159 103 86
0.110524 -0.365095 -0.55 159 103 86
0.111774 -0.365759 -0.551 157 101 86
0.113029 -0.366423 -0.552 156 100 85
0.114287 -0.367087 -0.553 155 99 84
0.115549 -0.36775 -0.554 154 98 83
0.116814 -0.368414 -0.555 152 99 85
0.118084 -0.369078 -0.556 150 97 83
0.119357 -0.369742 -0.557 147 95 82
0.120634 -0.370406 -0.558 145 93 80
0.121915 -0.37107 -0.559 144 94 83
0.12342 -0.372397 -0.561 143 93 82
0.12471 -0.373061 -0.562 142 92 81
0.126005 -0.373725 -0.563 141 91 80
0.127303 -0.374389 -0.564 141 93 81
0.128832 -0.375716 -0.566 139 91 79
0.13037 -0.377044 -0.568 136 89 79
0.131683 -0.377708 -0.569 134 87 77
0.133233 -0.379035 -0.571 129 88 86
0.134791 -0.380363 -0.573 126 85 83
0.13612 -0.381027 -0.574 120 85 79
0.137691 -0.382354 -0.576 119 84 78
0.153567 -0.394967 -0.595 103 90 97
0.15496 -0.39563 -0.596 97 90 106
0.156357 -0.396294 -0.597 88 81 97
0.157758 -0.396958 -0.598 67 71 98
0.159163 -0.397622 -0.599 56 60 87
0.160304 -0.397622 -0.599 47 52 81
0.161714 -0.398286 -0.6 53 58 87
0.162857 -0.398286 -0.6 74 78 105
0.164 -0.398286 -0.6 101 105 132
0.165143 -0.398286 -0.6 120 123 142
0.166286 -0.398286 -0.6 125 128 147
0.167429 -0.398286 -0.6 128 131 148
0.168571 -0.398286 -0.6 107 110 127
0.169714 -0.398286 -0.6 82 89 115
0.170857 -0.398286 -0.6 77 84 110
0.172 -0.398286 -0.6 69 83 120
0.173143 -0.398286 -0.6 70 84 121
0.174286 -0.398286 -0.6 70 84 121
0.175429 -0.398286 -0.6 73 89 138
0.176571 -0.398286 -0.6 74 90 139
0.177714 -0.398286 -0.6 65 84 127
0.178857 -0.398286 -0.6 73 92 135
0.18 -0.398286 -0.6 74 95 142
0.181143 -0.398286 -0.6 71 92 139
0.182286 -0.398286 -0.6 81 98 144
0.183429 -0.398286 -0.6 98 115 161
0.184571 -0.398286 -0.6 122 135 167
0.185714 -0.398286 -0.6 142 155 187
0.186857 -0.398286 -0.6 151 161 186
0.188 -0.398286 -0.6 157 167 192
0.189143 -0.398286 -0.6 147 157 184
0.190286 -0.398286 -0.6 117 127 154
0.191429 -0.398286 -0.6 89 103 138
0.192571 -0.398286 -0.6 67 81 116
0.193714 -0.398286 -0.6 70 85 124
0.194857 -0.398286 -0.6 84 99 138
0.196 -0.398286 -0.6 123 123 159
0.197143 -0.398286 -0.6 149 149 185
0.198616 -0.39895 -0.601 169 170 191
0.199761 -0.39895 -0.601 172 173 194
0.200906 -0.39895 -0.601 173 175 187
0.20205 -0.39895 -0.601 175 177 189
0.203195 -0.39895 -0.601 175 179 191
0.20434 -0.39895 -0.601 179 183 195
0.205485 -0.39895 -0.601 182 184 199
0.20663 -0.39895 -0.601 185 187 202
0.207774 -0.39895 -0.601 187 187 197
0.208571 -0.398286 -0.6 172 172 182
0.209714 -0.398286 -0.6 138 138 148
0.210857 -0.398286 -0.6 143 143 153
0.212 -0.398286 -0.6 175 177 192
0.213143 -0.398286 -0.6 191 193 208
0.214286 -0.398286 -0.6 191 197 209
0.215429 -0.398286 -0.6 189 195 207
0.216571 -0.398286 -0.6 193 200 210
0.218077 -0.39895 -0.601 195 202 212
0.218857 -0.398286 -0.6 194 200 212
0.22 -0.398286 -0.6 195 201 213
0.221143 -0.398286 -0.6 190 201 219
0.222286 -0.398286 -0.6 171 182 200
0.223429 -0.398286 -0.6 171 182 200
0.224571 -0.398286 -0.6 142 156 183
0.225714 -0.398286 -0.6 114 128 155
0.226857 -0.398286 -0.6 108 122 149
0.228 -0.398286 -0.6 128 142 169
0.229143 -0.398286 -0.6 162 173 195
0.230286 -0.398286 -0.6 189 200 222
0.231429 -0.398286 -0.6 192 199 215
0.232571 -0.398286 -0.6 164 171 187
0.240571 -0.398286 -0.6 157 181 217
0.241714 -0.398286 -0.6 164 188 224
0.242857 -0.398286 -0.6 163 187 233
0.244 -0.398286 -0.6 156 180 226
0.245143 -0.398286 -0.6 151 173 210
0.246696 -0.39895 -0.601 155 179 217
0.247841 -0.39895 -0.601 183 201 237
0.248986 -0.39895 -0.601 199 217 253
0.25013 -0.39895 -0.601 210 224 251
0.251275 -0.39895 -0.601 219 233 255
0.25242 -0.39895 -0.601 224 233 248
0.253565 -0.39895 -0.601 212 221 236
0.25471 -0.39895 -0.601 174 188 214
0.255854 -0.39895 -0.601 153 167 193
0.256999 -0.39895 -0.601 151 164 198
0.258144 -0.39895 -0.601 168 181 215
0.259289 -0.39895 -0.601 194 199 228
0.260433 -0.39895 -0.601 214 219 248
0.261578 -0.39895 -0.601 227 230 247
0.262723 -0.39895 -0.601 236 239 255
0.263868 -0.39895 -0.601 240 242 255
0.265012 -0.39895 -0.601 240 242 255
0.266157 -0.39895 -0.601 239 241 254
0.267302 -0.39895 -0.601 241 243 255
0.388541 -0.403596 -0.608 191 212 233
0.389699 -0.403596 -0.608 216 221 240
0.390857 -0.403596 -0.608 237 242 255
0.39846 -0.40426 -0.609 248 248 248
0.39962 -0.40426 -0.609 247 245 250
0.40078 -0.40426 -0.609 253 251 255
0.40194 -0.40426 -0.609 250 247 254
0.4031 -0.40426 -0.609 252 249 255
0.40426 -0.40426 -0.609 250 249 254
0.40542 -0.40426 -0.609 249 248 253
0.40658 -0.40426 -0.609 248 249 251
0.40774 -0.40426 -0.609 250 251 253
0.4089 -0.40426 -0.609 250 251 253
0.411895 -0.404924 -0.61 254 255 255
0.413057 -0.404924 -0.61 255 254 255
0.414219 -0.404924 -0.61 249 248 254
0.415381 -0.404924 -0.61 247 244 251
0.416543 -0.404924 -0.61 250 247 254
0.417705 -0.404924 -0.61 239 238 244
0.418867 -0.404924 -0.61 234 233 239
0.420029 -0.404924 -0.61 234 238 250
0.42119 -0.404924 -0.61 218 222 234
0.422352 -0.404924 -0.61 192 200 223
0.423514 -0.404924 -0.61 178 186 209
0.424676 -0.404924 -0.61 173 183 210
0.426536 -0.405588 -0.611 196 206 233
0.4277 -0.405588 -0.611 227 238 255
0.428864 -0.405588 -0.611 231 242 255
0.430028 -0.405588 -0.611 229 241 255
0.431191 -0.405588 -0.611 220 232 248
0.432355 -0.405588 -0.611 208 225 255
0.433519 -0.405588 -0.611 185 202 232
0.434683 -0.405588 -0.611 154 181 224
0.435847 -0.405588 -0.611 161 188 231
0.43701 -0.405588 -0.611 163 197 242
0.438174 -0.405588 -0.611 163 197 242
0.439338 -0.405588 -0.611 154 188 233
0.441223 -0.406251 -0.612 144 178 223
0.442389 -0.406251 -0.612 161 189 229
0.443554 -0.406251 -0.612 190 218 255
0.44472 -0.406251 -0.612 210 227 255
0.445886 -0.406251 -0.612 210 227 255
0.447051 -0.406251 -0.612 215 232 255
0.44895 -0.406915 -0.613 235 244 255
0.450117 -0.406915 -0.613 236 245 255
0.451285 -0.406915 -0.613 210 224 251
0.452452 -0.406915 -0.613 178 192 219
0.45362 -0.406915 -0.613 179 191 217
0.45553 -0.407579 -0.614 187 199 225
0.456699 -0.407579 -0.614 211 219 240
0.457869 -0.407579 -0.614 223 231 252
0.459038 -0.407579 -0.614 238 241 255
0.460208 -0.407579 -0.614 239 242 255
0.462129 -0.408243 -0.615 236 239 248
0.4633 -0.408243 -0.615 227 230 239
0.464471 -0.408243 -0.615 229 229 237
0.465643 -0.408243 -0.615 236 236 244
0.466814 -0.408243 -0.615 237 237 247
0.468747 -0.408907 -0.616 236 236 246
0.46992 -0.408907 -0.616 237 237 249
0.471093 -0.408907 -0.616 238 238 250
0.472267 -0.408907 -0.616 234 237 246
0.47344 -0.408907 -0.616 231 234 243
0.474613 -0.408907 -0.616 232 235 244
0.475787 -0.408907 -0.616 229 232 241
0.47696 -0.408907 -0.616 227 230 237
0.478133 -0.408907 -0.616 227 230 237
0.479307 -0.408907 -0.616 218 219 223
0.48126 -0.40957 -0.617 208 209 213
0.482435 -0.40957 -0.617 224 223 228
0.48361 -0.40957 -0.617 222 221 226
0.484786 -0.40957 -0.617 224 224 232
0.485961 -0.40957 -0.617 226 226 234
0.487136 -0.40957 -0.617 219 222 239
0.488311 -0.40957 -0.617 219 222 239
0.489487 -0.40957 -0.617 215 218 235
0.491457 -0.410234 -0.618 201 209 230
0.492634 -0.410234 -0.618 182 190 211
0.493811 -0.410234 -0.618 156 171 202
0.494989 -0.410234 -0.618 134 149 180
0.496166 -0.410234 -0.618 168 183 214
0.496538 -0.40957 -0.617 203 218 247
0.497713 -0.40957 -0.617 203 214 234
0.498889 -0.40957 -0.617 197 208 228
0.500064 -0.40957 -0.617 181 205 231
0.501239 -0.40957 -0.617 168 192 218
0.502414 -0.40957 -0.617 123 167 212
0.50359 -0.40957 -0.617 105 149 194
0.504765 -0.40957 -0.617 98 147 205
0.50594 -0.40957 -0.617 92 141 199
0.507115 -0.40957 -0.617 99 139 198
0.509114 -0.410234 -0.618 107 147 206
0.510291 -0.410234 -0.618 101 143 201
0.511469 -0.410234 -0.618 102 144 202
0.512646 -0.410234 -0.618 141 166 207
0.513823 -0.410234 -0.618 163 188 229
0.515 -0.410234 -0.618 173 190 218
0.515342 -0.40957 -0.617 180 197 225
0.516517 -0.40957 -0.617 188 200 224
0.517692 -0.40957 -0.617 165 177 201
0.518868 -0.40957 -0.617 123 137 163
0.520043 -0.40957 -0.617 111 125 151
0.521218 -0.40957 -0.617 122 133 155
0.521547 -0.408907 -0.616 138 149 171
0.517101 -0.39563 -0.596 163 136 127
0.513889 -0.392311 -0.591 165 136 128
0.511529 -0.389656 -0.587 165 136 128
0.509153 -0.387001 -0.583 164 137 128
0.506763 -0.384346 -0.579 163 136 127
0.505234 -0.382354 -0.576 167 138 130
0.502815 -0.379699 -0.572 169 140 132
0.500381 -0.377044 -0.568 170 140 130
0.498814 -0.375052 -0.565 170 140 130
0.496351 -0.372397 -0.561 169 137 126
0.49476 -0.370406 -0.558 171 139 128
0.493157 -0.368414 -0.555 169 139 129
0.491543 -0.366423 -0.552 172 142 132
0.49081 -0.365095 -0.55 176 143 128
0.489174 -0.363104 -0.547 176 143 128
0.488424 -0.361776 -0.545 179 143 129
0.486768 -0.359785 -0.542 179 143 129
0.486 -0.358457 -0.54 182 146 130
0.485225 -0.35713 -0.538 183 147 131
0.484442 -0.355802 -0.536 183 146 128
0.484557 -0.355138 -0.535 184 147 129
0.483761 -0.35381 -0.533 180 142 123
0.483867 -0.353147 -0.532 183 145 126
0.483969 -0.352483 -0.531 191 150 132
0.484067 -0.351819 -0.53 192 151 133
0.483246 -0.350491 -0.528 193 152 132
0.483334 -0.349828 -0.527 193 152 132
0.483419 -0.349164 -0.526 190 149 129
0.484421 -0.349164 -0.526 192 151 131
0.4845 -0.3485 -0.525 194 152 130
0.4855 -0.3485 -0.525 194 152 130
0.485573 -0.347836 -0.524 195 153 131
0.486571 -0.347836 -0.524 195 153 131
0.486639 -0.347172 -0.523 194 152 128
0.487635 -0.347172 -0.523 193 151 127
0.487697 -0.346509 -0.522 192 150 126
0.488691 -0.346509 -0.522 191 149 125
0.488748 -0.345845 -0.521 196 154 130
0.48974 -0.345845 -0.521 195 153 129
0.490732 -0.345845 -0.521 197 153 128
0.490781 -0.345181 -0.52 197 153 128
0.490826 -0.344517 -0.519 195 151 126
0.491814 -0.344517 -0.519 195 151 126
0.492803 -0.344517 -0.519 195 151 126
0.49284 -0.343853 -0.518 195 153 128
0.493827 -0.343853 -0.518 196 154 129
0.493858 -0.34319 -0.517 198 154 129
0.493886 -0.342526 -0.516 197 153 128
0.494869 -0.342526 -0.516 195 151 126
0.495851 -0.342526 -0.516 188 144 119
0.495871 -0.341862 -0.515 184 140 115
0.496852 -0.341862 -0.515 190 146 121
0.497833 -0.341862 -0.515 190 149 121
0.498814 -0.341862 -0.515 185 144 116
0.498825 -0.341198 -0.514 189 148 120
0.499804 -0.341198 -0.514 188 147 119
0.500783 -0.341198 -0.514 187 146 118
0.500786 -0.340534 -0.513 187 146 118
0.501763 -0.340534 -0.513 189 147 122
0.50176 -0.33987 -0.512 188 146 121
0.502735 -0.33987 -0.512 186 144 119
0.503711 -0.33987 -0.512 186 144 119
0.504686 -0.33987 -0.512 189 144 121
0.505661 -0.33987 -0.512 182 137 114
0.506636 -0.33987 -0.512 175 133 108
0.508603 -0.340534 -0.513 174 132 107
0.50958 -0.340534 -0.513 170 133 107
0.511552 -0.341198 -0.514 167 130 104
0.513529 -0.341862 -0.515 164 130 105
0.516508 -0.34319 -0.517 164 130 105
0.519494 -0.344517 -0.519 159 127 102
0.521486 -0.345181 -0.52 159 127 102
0.526495 -0.347836 -0.524 158 126 101
0.53152 -0.350491 -0.528 156 124 99
0.53656 -0.353147 -0.532 157 122 100
1.13277 -0.420191 -0.633 203 206 189
1.13397 -0.420191 -0.633 202 205 188
1.13339 -0.419528 -0.632 202 205 188
1.13459 -0.419528 -0.632 202 205 188
1.13579 -0.419528 -0.632 202 205 188
1.137 -0.419528 -0.632 202 205 188
1.1382 -0.419528 -0.632 202 204 191
1.13941 -0.419528 -0.632 202 204 191
1.1388 -0.418864 -0.631 202 204 190
1.14001 -0.418864 -0.631 202 205 188
1.14121 -0.418864 -0.631 202 205 186
1.14241 -0.418864 -0.631 202 205 186
1.1418 -0.4182 -0.63 202 205 186
0.0604686 -0.380789 -0.572 202 156 130
0.0612352 -0.378791 -0.569 199 153 127
0.0622095 -0.378126 -0.568 198 153 132
0.0627343 -0.374797 -0.563 198 153 132
0.06324 -0.371469 -0.558 199 154 133
0.0638419 -0.368806 -0.554 200 155 134
0.0644286 -0.366143 -0.55 201 156 133
0.065119 -0.364146 -0.547 203 158 135
0.065919 -0.362814 -0.545 204 159 136
0.0668343 -0.362149 -0.544 203 158 135
0.0677457 -0.361483 -0.543 198 152 129
0.0686533 -0.360817 -0.542 199 153 130
0.0696857 -0.360817 -0.542 201 155 132
0.0705876 -0.360151 -0.541 203 157 134
0.0714857 -0.359486 -0.54 203 157 133
0.0725143 -0.359486 -0.54 204 158 134
0.0735429 -0.359486 -0.54 206 160 136
0.0744333 -0.35882 -0.539 206 160 136
0.07546 -0.35882 -0.539 203 159 134
0.0763448 -0.358154 -0.538 203 159 134
0.0773695 -0.358154 -0.538 202 158 131
0.0783943 -0.358154 -0.538 201 157 130
0.079419 -0.358154 -0.538 202 158 131
0.0804438 -0.358154 -0.538 201 157 130
0.0814686 -0.358154 -0.538 202 156 132
0.0824933 -0.358154 -0.538 204 158 134
0.0835181 -0.358154 -0.538 202 156 130
0.0845429 -0.358154 -0.538 199 153 127
0.0857267 -0.35882 -0.539 198 153 124
0.0867533 -0.35882 -0.539 199 154 125
0.08778 -0.35882 -0.539 199 154 125
0.0888067 -0.35882 -0.539 201 156 127
0.0898333 -0.35882 -0.539 201 156 127
0.09086 -0.35882 -0.539 199 153 127
0.0918867 -0.35882 -0.539 198 152 126
0.0930857 -0.359486 -0.54 198 150 127
0.0941143 -0.359486 -0.54 194 146 123
0.0951429 -0.359486 -0.54 190 140 115
0.0963495 -0.360151 -0.541 187 137 112
0.09738 -0.360151 -0.541 185 135 108
0.0985924 -0.360817 -0.542 182 132 105
0.0998086 -0.361483 -0.543 180 131 101
0.100843 -0.361483 -0.543 180 131 101
0.102065 -0.362149 -0.544 180 129 102
0.10329 -0.362814 -0.545 176 125 98
0.10452 -0.36348 -0.546 173 119 93
0.105753 -0.364146 -0.547 170 116 90
0.10699 -0.364811 -0.548 168 112 89
0.108034 -0.364811 -0.548 164 108 85
0.109277 -0.365477 -0.549 160 105 85
0.110524 -0.366143 -0.55 159 104 84
0.111774 -0.366809 -0.551 154 101 85
0.113029 -0.367474 -0.552 155 102 86
0.114287 -0.36814 -0.553 155 99 84
0.115549 -0.368806 -0.554 154 98 83
0.116814 -0.369471 -0.555 152 99 83
0.118084 -0.370137 -0.556 151 98 82
0.119357 -0.370803 -0.557 147 95 82
0.120634 -0.371469 -0.558 146 94 81
0.121915 -0.372134 -0.559 146 97 83
0.12342 -0.373466 -0.561 144 95 81
0.12471 -0.374131 -0.562 142 93 79
0.126005 -0.374797 -0.563 142 93 79
0.127529 -0.376129 -0.565 142 92 81
0.128832 -0.376794 -0.566 139 89 78
0.13037 -0.378126 -0.568 135 87 77
0.131914 -0.379457 -0.57 135 87 77
0.133467 -0.380789 -0.572 129 87 88
0.134791 -0.381454 -0.573 126 84 85
0.13612 -0.38212 -0.574 120 85 79
0.137691 -0.383451 -0.576 119 84 78
0.152177 -0.395434 -0.594 101 91 100
0.153567 -0.3961 -0.595 103 93 102
0.15496 -0.396766 -0.596 87 82 104
0.156357 -0.397431 -0.597 68 63 85
0.157758 -0.398097 -0.598 52 54 79
0.158897 -0.398097 -0.598 45 47 72
0.160304 -0.398763 -0.599 51 55 82
0.161714 -0.399429 -0.6 78 82 109
0.162857 -0.399429 -0.6 106 108 131
0.164 -0.399429 -0.6 120 122 145
0.165143 -0.399429 -0.6 128 131 150
0.166286 -0.399429 -0.6 133 136 155
0.167429 -0.399429 -0.6 128 135 154
0.168571 -0.399429 -0.6 109 116 135
0.169714 -0.399429 -0.6 79 91 117
0.170572 -0.398763 -0.599 69 81 107
0.171713 -0.398763 -0.599 66 78 116
0.172854 -0.398763 -0.599 66 78 116
0.173995 -0.398763 -0.599 70 82 120
0.175136 -0.398763 -0.599 82 90 136
0.176277 -0.398763 -0.599 89 97 143
0.177418 -0.398763 -0.599 78 93 136
0.178559 -0.398763 -0.599 79 94 137
0.1797 -0.398763 -0.599 79 95 144
0.181143 -0.399429 -0.6 75 91 140
0.182286 -0.399429 -0.6 78 95 139
0.183429 -0.399429 -0.6 93 110 154
0.184571 -0.399429 -0.6 120 135 164
0.185405 -0.398763 -0.599 143 158 187
0.186546 -0.398763 -0.599 159 170 188
0.187687 -0.398763 -0.599 159 170 188
0.188828 -0.398763 -0.599 161 167 189
0.189969 -0.398763 -0.599 152 158 180
0.19111 -0.398763 -0.599 125 134 167
0.19225 -0.398763 -0.599 92 101 134
0.193391 -0.398763 -0.599 69 83 122
0.194532 -0.398763 -0.599 66 80 119
0.195673 -0.398763 -0.599 93 95 136
0.197143 -0.399429 -0.6 133 135 176
0.198286 -0.399429 -0.6 165 167 190
0.199429 -0.399429 -0.6 171 173 196
0.200571 -0.399429 -0.6 172 176 188
0.201714 -0.399429 -0.6 174 178 190
0.202857 -0.399429 -0.6 176 179 194
0.204 -0.399429 -0.6 178 181 196
0.205143 -0.399429 -0.6 178 181 196
0.206286 -0.399429 -0.6 185 188 203
0.207429 -0.399429 -0.6 173 173 183
0.208571 -0.399429 -0.6 143 143 153
0.209714 -0.399429 -0.6 124 124 134
0.210857 -0.399429 -0.6 166 166 176
0.212 -0.399429 -0.6 193 194 212
0.212788 -0.398763 -0.599 189 190 208
0.213929 -0.398763 -0.599 190 198 209
0.21507 -0.398763 -0.599 190 198 209
0.216571 -0.399429 -0.6 194 200 212
0.217714 -0.399429 -0.6 196 202 214
0.218857 -0.399429 -0.6 198 204 220
0.22 -0.399429 -0.6 196 202 218
0.221143 -0.399429 -0.6 180 188 211
0.222286 -0.399429 -0.6 142 150 173
0.223429 -0.399429 -0.6 142 150 173
0.224571 -0.399429 -0.6 113 127 154
0.225714 -0.399429 -0.6 110 124 151
0.226857 -0.399429 -0.6 129 143 170
0.228 -0.399429 -0.6 163 177 204
0.229143 -0.399429 -0.6 192 203 223
0.230286 -0.399429 -0.6 209 220 240
0.231043 -0.398763 -0.599 206 212 224
0.232184 -0.398763 -0.599 186 192 204
0.233325 -0.398763 -0.599 177 179 192
0.234466 -0.398763 -0.599 180 182 195
0.235607 -0.398763 -0.599 170 178 197
0.236748 -0.398763 -0.599 158 166 185
0.237889 -0.398763 -0.599 144 160 194
0.23903 -0.398763 -0.599 145 161 195
0.24017 -0.398763 -0.599 151 174 208
0.241311 -0.398763 -0.599 164 187 221
0.244 -0.399429 -0.6 156 180 226
0.245143 -0.399429 -0.6 151 173 210
0.246286 -0.399429 -0.6 153 175 212
0.247429 -0.399429 -0.6 172 188 222
0.248571 -0.399429 -0.6 191 207 241
0.249714 -0.399429 -0.6 212 224 248
0.250857 -0.399429 -0.6 224 236 255
0.252 -0.399429 -0.6 227 235 246
0.253143 -0.399429 -0.6 224 232 243
0.254286 -0.399429 -0.6 205 217 239
0.255429 -0.399429 -0.6 175 187 209
0.256571 -0.399429 -0.6 151 164 196
0.257714 -0.399429 -0.6 152 165 197
0.258857 -0.399429 -0.6 166 175 208
0.390857 -0.404754 -0.608 210 218 241
0.392015 -0.404754 -0.608 233 239 251
0.393173 -0.404754 -0.608 242 248 255
0.394331 -0.404754 -0.608 220 224 227
0.39549 -0.404754 -0.608 206 210 213
0.396648 -0.404754 -0.608 229 230 232
0.397806 -0.404754 -0.608 250 251 253
0.398964 -0.404754 -0.608 251 250 255
0.400122 -0.404754 -0.608 252 251 255
0.40194 -0.40542 -0.609 249 247 255
0.4031 -0.40542 -0.609 252 250 255
0.40426 -0.40542 -0.609 247 246 254
0.40542 -0.40542 -0.609 247 246 254
0.40658 -0.40542 -0.609 248 249 253
0.40774 -0.40542 -0.609 249 250 254
0.4089 -0.40542 -0.609 249 250 254
0.41006 -0.40542 -0.609 252 255 255
0.41122 -0.40542 -0.609 248 252 253
