ply
format ascii 1.0
comment Created by Open3D
element vertex 1271
property double x
property double y
property double z
property uchar red
property uchar green
property uchar blue
end_header
0.39928 -0.113467 -0.644 186 180 192
0.400507 -0.113467 -0.644 155 138 144
0.401733 -0.113467 -0.644 154 137 143
0.403586 -0.113643 -0.645 155 132 138
0.404814 -0.113643 -0.645 204 181 187
0.406043 -0.113643 -0.645 222 202 214
0.407271 -0.113643 -0.645 222 202 214
0.409133 -0.113819 -0.646 203 183 194
0.410364 -0.113819 -0.646 163 143 154
0.411594 -0.113819 -0.646 155 130 134
0.412825 -0.113819 -0.646 154 129 133
0.414055 -0.113819 -0.646 152 127 133
0.414643 -0.113643 -0.645 154 129 135
0.415871 -0.113643 -0.645 153 126 133
0.4171 -0.113643 -0.645 157 130 137
0.418977 -0.113819 -0.646 150 124 133
0.420208 -0.113819 -0.646 189 163 172
0.421438 -0.113819 -0.646 254 241 248
0.422669 -0.113819 -0.646 254 241 248
0.423899 -0.113819 -0.646 255 245 252
0.42513 -0.113819 -0.646 252 247 254
0.42636 -0.113819 -0.646 253 248 255
0.42759 -0.113819 -0.646 245 244 250
0.428821 -0.113819 -0.646 249 248 254
0.430051 -0.113819 -0.646 250 244 254
0.431282 -0.113819 -0.646 251 245 255
0.433182 -0.113995 -0.647 252 244 255
0.434414 -0.113995 -0.647 248 240 253
0.435647 -0.113995 -0.647 232 219 229
0.436879 -0.113995 -0.647 182 169 179
0.438111 -0.113995 -0.647 150 129 136
0.439344 -0.113995 -0.647 145 124 131
0.440576 -0.113995 -0.647 153 124 129
0.440443 -0.113643 -0.645 153 124 129
0.440987 -0.113467 -0.644 157 122 128
0.43878 -0.112586 -0.639 155 120 126
0.435866 -0.111529 -0.633 157 122 129
0.391631 -0.0988429 -0.561 169 129 130
0.3878 -0.0976095 -0.554 171 131 132
0.385346 -0.0967286 -0.549 178 133 130
0.38428 -0.0962 -0.546 180 135 132
0.383203 -0.0956714 -0.543 196 137 131
0.382114 -0.0951429 -0.54 196 137 131
0.381724 -0.0947905 -0.538 196 137 131
0.381326 -0.0944381 -0.536 196 137 131
0.38092 -0.0940857 -0.534 195 138 131
0.381222 -0.0939095 -0.533 195 138 131
0.38152 -0.0937333 -0.532 194 137 130
0.381814 -0.0935571 -0.531 193 136 129
0.382105 -0.0933809 -0.53 193 136 127
0.382391 -0.0932048 -0.529 193 136 127
0.383399 -0.0932048 -0.529 192 135 126
0.384407 -0.0932048 -0.529 192 135 126
0.385414 -0.0932048 -0.529 191 134 123
0.386422 -0.0932048 -0.529 190 133 122
0.38743 -0.0932048 -0.529 189 132 123
0.388437 -0.0932048 -0.529 189 132 123
0.390181 -0.0933809 -0.53 190 132 121
0.39119 -0.0933809 -0.53 187 129 118
0.39294 -0.0935571 -0.531 187 129 118
0.393951 -0.0935571 -0.531 187 129 118
0.395707 -0.0937333 -0.532 188 130 119
0.39672 -0.0937333 -0.532 189 130 122
0.398481 -0.0939095 -0.533 189 130 122
0.400246 -0.0940857 -0.534 187 130 119
0.402014 -0.0942619 -0.535 183 126 115
0.403033 -0.0942619 -0.535 184 127 118
0.404808 -0.0944381 -0.536 181 124 115
0.405829 -0.0944381 -0.536 181 124 115
0.40685 -0.0944381 -0.536 182 125 116
0.40787 -0.0944381 -0.536 180 123 114
0.408891 -0.0944381 -0.536 184 127 118
0.409912 -0.0944381 -0.536 194 137 128
0.410167 -0.0942619 -0.535 197 140 131
0.411186 -0.0942619 -0.535 201 144 137
0.411434 -0.0940857 -0.534 201 144 137
0.412451 -0.0940857 -0.534 202 145 136
0.412694 -0.0939095 -0.533 201 144 135
0.41371 -0.0939095 -0.533 196 139 130
0.413947 -0.0937333 -0.532 193 136 127
0.41496 -0.0937333 -0.532 190 136 126
0.415973 -0.0937333 -0.532 189 135 125
0.41777 -0.0939095 -0.533 191 137 125
0.418786 -0.0939095 -0.533 188 134 122
0.419801 -0.0939095 -0.533 184 132 119
0.420816 -0.0939095 -0.533 184 132 119
0.422623 -0.0940857 -0.534 182 130 117
0.42364 -0.0940857 -0.534 182 130 116
0.425452 -0.0942619 -0.535 182 130 116
0.427269 -0.0944381 -0.536 181 129 115
0.429089 -0.0946143 -0.537 181 129 115
0.431713 -0.0949667 -0.539 183 129 117
0.433543 -0.0951429 -0.54 181 127 115
0.434571 -0.0951429 -0.54 179 127 114
0.436407 -0.095319 -0.541 179 127 114
0.438246 -0.0954952 -0.542 178 126 115
0.440089 -0.0956714 -0.543 178 126 115
0.441123 -0.0956714 -0.543 178 126 115
0.442971 -0.0958476 -0.544 178 126 115
0.444008 -0.0958476 -0.544 177 127 118
0.445862 -0.0960238 -0.545 173 123 114
0.44772 -0.0962 -0.546 167 118 111
0.449582 -0.0963762 -0.547 164 115 108
0.452271 -0.0967286 -0.549 165 116 111
0.45662 -0.0974333 -0.553 167 118 113
0.31881 -0.115762 -0.65 159 124 131
0.31857 -0.115228 -0.647 159 124 131
0.319309 -0.11505 -0.646 160 125 132
0.319547 -0.114693 -0.644 160 125 132
0.320773 -0.114693 -0.644 161 126 132
0.3215 -0.114515 -0.643 161 126 132
0.322223 -0.114337 -0.642 161 126 132
0.323446 -0.114337 -0.642 162 127 133
0.324163 -0.114159 -0.641 162 127 133
0.325384 -0.114159 -0.641 162 127 133
0.326605 -0.114159 -0.641 163 128 134
0.327826 -0.114159 -0.641 163 128 134
0.329047 -0.114159 -0.641 164 129 135
0.330268 -0.114159 -0.641 164 129 135
0.331489 -0.114159 -0.641 164 129 133
0.33271 -0.114159 -0.641 163 128 132
0.33393 -0.114159 -0.641 164 129 135
0.335151 -0.114159 -0.641 165 130 136
0.336372 -0.114159 -0.641 165 130 137
0.337593 -0.114159 -0.641 166 131 138
0.338814 -0.114159 -0.641 166 131 138
0.340035 -0.114159 -0.641 166 131 138
0.341789 -0.114337 -0.642 166 131 138
0.343011 -0.114337 -0.642 166 131 137
0.344234 -0.114337 -0.642 165 130 136
0.345995 -0.114515 -0.643 163 130 137
0.34722 -0.114515 -0.643 163 130 137
0.348987 -0.114693 -0.644 164 131 138
0.350213 -0.114693 -0.644 165 132 139
0.351986 -0.114871 -0.645 165 130 137
0.353214 -0.114871 -0.645 168 133 140
0.354443 -0.114871 -0.645 166 130 140
0.355671 -0.114871 -0.645 172 136 146
0.3569 -0.114871 -0.645 167 134 143
0.357573 -0.114693 -0.644 168 135 144
0.358243 -0.114515 -0.643 163 130 139
0.359468 -0.114515 -0.643 165 132 141
0.360692 -0.114515 -0.643 165 132 141
0.361354 -0.114337 -0.642 166 133 142
0.362012 -0.114159 -0.641 165 132 141
0.363233 -0.114159 -0.641 165 132 141
0.364454 -0.114159 -0.641 164 131 140
0.365675 -0.114159 -0.641 164 131 140
0.366896 -0.114159 -0.641 164 131 140
0.368117 -0.114159 -0.641 164 131 142
0.369338 -0.114159 -0.641 163 130 141
0.370559 -0.114159 -0.641 154 124 132
0.37178 -0.114159 -0.641 159 129 137
0.373583 -0.114337 -0.642 140 129 133
0.374806 -0.114337 -0.642 108 97 101
0.376029 -0.114337 -0.642 89 94 97
0.377251 -0.114337 -0.642 86 91 94
0.379064 -0.114515 -0.643 160 169 176
0.380289 -0.114515 -0.643 178 187 194
0.381513 -0.114515 -0.643 167 176 185
0.382738 -0.114515 -0.643 186 195 204
0.383963 -0.114515 -0.643 194 202 213
0.385188 -0.114515 -0.643 190 198 209
0.386412 -0.114515 -0.643 198 207 216
0.387637 -0.114515 -0.643 199 208 217
0.388862 -0.114515 -0.643 223 230 240
0.390087 -0.114515 -0.643 236 243 253
0.391311 -0.114515 -0.643 246 247 252
0.392536 -0.114515 -0.643 244 245 250
0.393761 -0.114515 -0.643 244 245 250
0.394986 -0.114515 -0.643 237 235 246
0.39621 -0.114515 -0.643 235 233 244
0.397435 -0.114515 -0.643 228 222 234
0.39928 -0.114693 -0.644 191 185 197
0.400507 -0.114693 -0.644 152 136 146
0.401733 -0.114693 -0.644 143 127 137
0.40296 -0.114693 -0.644 182 162 171
0.404187 -0.114693 -0.644 204 184 193
0.406043 -0.114871 -0.645 232 212 224
0.407271 -0.114871 -0.645 225 205 217
0.4085 -0.114871 -0.645 169 147 159
0.409729 -0.114871 -0.645 153 131 143
0.410957 -0.114871 -0.645 157 134 140
0.412186 -0.114871 -0.645 152 129 135
0.413414 -0.114871 -0.645 149 128 135
0.414643 -0.114871 -0.645 151 130 137
0.415871 -0.114871 -0.645 149 126 134
0.4171 -0.114871 -0.645 148 125 133
0.418329 -0.114871 -0.645 150 129 136
0.419557 -0.114871 -0.645 236 215 222
0.420786 -0.114871 -0.645 255 248 255
0.422014 -0.114871 -0.645 255 248 255
0.423243 -0.114871 -0.645 255 244 252
0.42513 -0.11505 -0.646 253 251 255
0.42636 -0.11505 -0.646 255 254 255
0.42759 -0.11505 -0.646 249 246 253
0.428821 -0.11505 -0.646 246 243 250
0.430051 -0.11505 -0.646 252 245 253
0.431282 -0.11505 -0.646 251 244 252
0.432512 -0.11505 -0.646 250 242 253
0.434414 -0.115228 -0.647 253 245 255
0.435647 -0.115228 -0.647 255 245 255
0.436879 -0.115228 -0.647 244 232 244
0.438111 -0.115228 -0.647 212 195 203
0.439344 -0.115228 -0.647 164 147 155
0.440576 -0.115228 -0.647 147 120 127
0.441126 -0.11505 -0.646 152 125 132
0.440987 -0.114693 -0.644 149 116 123
0.44084 -0.114337 -0.642 155 122 129
0.437931 -0.113269 -0.636 156 121 128
0.394424 -0.100624 -0.565 168 127 131
0.3892 -0.099021 -0.556 166 125 129
0.38675 -0.0981305 -0.551 166 124 125
0.384984 -0.0974181 -0.547 173 131 132
0.383909 -0.0968838 -0.544 190 132 128
0.382822 -0.0963495 -0.541 193 135 131
0.382433 -0.0959933 -0.539 195 137 133
0.382037 -0.0956371 -0.537 195 137 133
0.38092 -0.0951029 -0.534 194 137 130
0.381222 -0.0949248 -0.533 194 137 130
0.38152 -0.0947467 -0.532 193 136 129
0.381814 -0.0945686 -0.531 193 136 129
0.382826 -0.0945686 -0.531 193 136 129
0.383114 -0.0943905 -0.53 193 136 129
0.383399 -0.0942124 -0.529 194 137 128
0.384407 -0.0942124 -0.529 193 136 127
0.385414 -0.0942124 -0.529 192 135 126
0.386422 -0.0942124 -0.529 191 134 125
0.38743 -0.0942124 -0.529 189 132 123
0.388437 -0.0942124 -0.529 188 131 122
0.389445 -0.0942124 -0.529 189 132 121
0.390452 -0.0942124 -0.529 187 130 119
0.3922 -0.0943905 -0.53 187 129 118
0.39321 -0.0943905 -0.53 187 129 118
0.394219 -0.0943905 -0.53 188 130 119
0.395974 -0.0945686 -0.531 188 129 121
0.397733 -0.0947467 -0.532 189 130 122
0.399496 -0.0949248 -0.533 189 132 121
0.400511 -0.0949248 -0.533 187 130 119
0.40228 -0.0951029 -0.534 186 129 120
0.403297 -0.0951029 -0.534 182 125 116
0.405071 -0.095281 -0.535 182 123 117
0.40609 -0.095281 -0.535 184 125 119
0.40711 -0.095281 -0.535 181 122 116
0.408129 -0.095281 -0.535 183 124 118
0.409148 -0.095281 -0.535 191 134 125
0.4094 -0.0951029 -0.534 195 138 129
0.410417 -0.0951029 -0.534 199 142 133
0.410664 -0.0949248 -0.533 199 142 133
0.411679 -0.0949248 -0.533 201 144 135
0.412694 -0.0949248 -0.533 200 143 134
0.41371 -0.0949248 -0.533 197 140 131
0.413947 -0.0947467 -0.532 195 138 129
0.41496 -0.0947467 -0.532 191 137 127
0.415973 -0.0947467 -0.532 189 135 125
0.416987 -0.0947467 -0.532 191 137 127
0.418 -0.0947467 -0.532 188 134 124
0.419801 -0.0949248 -0.533 184 132 119
0.420816 -0.0949248 -0.533 184 132 119
0.421831 -0.0949248 -0.533 182 130 117
0.42364 -0.0951029 -0.534 182 130 116
0.424657 -0.0951029 -0.534 182 130 116
0.426471 -0.095281 -0.535 181 129 116
0.42829 -0.095459 -0.536 181 129 116
0.430111 -0.0956371 -0.537 183 131 118
0.431937 -0.0958152 -0.538 182 130 117
0.433767 -0.0959933 -0.539 179 127 114
0.4356 -0.0961714 -0.54 177 125 112
0.437437 -0.0963495 -0.541 175 125 114
0.438468 -0.0963495 -0.541 175 125 114
0.44031 -0.0965276 -0.542 175 125 116
0.442157 -0.0967057 -0.543 175 125 116
0.443191 -0.0967057 -0.543 174 124 115
0.445044 -0.0968838 -0.544 173 123 114
0.4469 -0.0970619 -0.545 169 120 113
0.44876 -0.09724 -0.546 166 117 110
0.452271 -0.0977743 -0.549 166 117 112
0.455794 -0.0983086 -0.552 167 118 113
0.460156 -0.099021 -0.556 166 117 112
0.317571 -0.117 -0.65 160 125 132
0.317338 -0.11646 -0.647 160 125 132
0.317586 -0.1161 -0.645 161 126 133
0.31832 -0.11592 -0.644 161 126 133
0.31905 -0.11574 -0.643 159 124 131
0.319777 -0.11556 -0.642 162 127 134
0.3205 -0.11538 -0.641 161 126 133
0.321721 -0.11538 -0.641 160 125 132
0.322942 -0.11538 -0.641 160 125 132
0.323657 -0.1152 -0.64 161 126 132
0.324876 -0.1152 -0.64 162 127 133
0.326095 -0.1152 -0.64 163 128 134
0.327314 -0.1152 -0.64 163 128 134
0.328533 -0.1152 -0.64 164 129 135
0.329752 -0.1152 -0.64 164 129 135
0.330971 -0.1152 -0.64 164 129 135
0.33219 -0.1152 -0.64 164 129 135
0.33341 -0.1152 -0.64 164 129 135
0.334629 -0.1152 -0.64 165 130 136
0.335848 -0.1152 -0.64 166 131 138
0.337067 -0.1152 -0.64 166 131 138
0.338286 -0.1152 -0.64 166 131 138
0.339505 -0.1152 -0.64 166 131 138
0.340724 -0.1152 -0.64 165 130 137
0.342477 -0.11538 -0.641 165 130 137
0.343698 -0.11538 -0.641 165 130 137
0.344919 -0.11538 -0.641 165 132 139
0.34614 -0.11538 -0.641 166 133 140
0.347903 -0.11556 -0.642 166 133 142
0.349126 -0.11556 -0.642 165 132 141
0.350349 -0.11556 -0.642 164 131 138
0.352119 -0.11574 -0.643 165 132 139
0.353344 -0.11574 -0.643 163 130 137
0.354569 -0.11574 -0.643 164 131 138
0.35524 -0.11556 -0.642 159 126 133
0.355908 -0.11538 -0.641 177 144 151
0.357129 -0.11538 -0.641 178 145 154
0.35835 -0.11538 -0.641 165 132 141
0.35957 -0.11538 -0.641 164 131 140
0.360229 -0.1152 -0.64 165 132 141
0.361448 -0.1152 -0.64 166 133 142
0.362667 -0.1152 -0.64 166 133 142
0.363886 -0.1152 -0.64 166 133 144
0.365105 -0.1152 -0.64 166 133 144
0.366324 -0.1152 -0.64 166 133 144
0.367543 -0.1152 -0.64 165 132 143
0.368762 -0.1152 -0.64 164 131 142
0.369981 -0.1152 -0.64 160 130 138
0.37178 -0.11538 -0.641 158 128 136
0.373001 -0.11538 -0.641 145 130 135
0.374222 -0.11538 -0.641 127 112 117
0.375443 -0.11538 -0.641 135 136 140
0.376664 -0.11538 -0.641 187 188 192
0.378474 -0.11556 -0.642 222 231 238
0.379697 -0.11556 -0.642 214 223 230
0.38092 -0.11556 -0.642 125 133 144
0.382143 -0.11556 -0.642 125 133 144
0.383366 -0.11556 -0.642 143 151 164
0.384589 -0.11556 -0.642 180 188 201
0.385811 -0.11556 -0.642 194 202 213
0.387034 -0.11556 -0.642 192 200 211
0.388257 -0.11556 -0.642 197 204 214
0.38948 -0.11556 -0.642 199 206 216
0.390703 -0.11556 -0.642 208 208 216
0.391926 -0.11556 -0.642 212 212 220
0.393149 -0.11556 -0.642 212 212 220
0.394371 -0.11556 -0.642 226 224 235
0.395594 -0.11556 -0.642 252 250 255
0.397435 -0.11574 -0.643 247 239 252
0.39866 -0.11574 -0.643 194 186 199
0.399885 -0.11574 -0.643 153 139 152
0.40111 -0.11574 -0.643 150 136 149
0.40296 -0.11592 -0.644 203 185 197
0.404187 -0.11592 -0.644 224 206 218
0.405413 -0.11592 -0.644 233 213 225
0.40664 -0.11592 -0.644 220 200 212
0.407867 -0.11592 -0.644 161 140 149
0.409729 -0.1161 -0.645 156 135 144
0.410957 -0.1161 -0.645 152 129 137
0.412186 -0.1161 -0.645 151 128 136
0.413414 -0.1161 -0.645 148 131 139
0.414643 -0.1161 -0.645 146 129 137
0.415871 -0.1161 -0.645 151 130 137
0.4171 -0.1161 -0.645 151 130 137
0.418329 -0.1161 -0.645 191 171 180
0.419557 -0.1161 -0.645 255 242 251
0.420786 -0.1161 -0.645 255 246 254
0.422014 -0.1161 -0.645 255 246 254
0.423243 -0.1161 -0.645 255 249 255
0.42513 -0.11628 -0.646 253 251 255
0.42636 -0.11628 -0.646 252 250 255
0.42759 -0.11628 -0.646 255 250 255
0.428821 -0.11628 -0.646 253 248 254
0.430051 -0.11628 -0.646 253 246 254
0.431282 -0.11628 -0.646 249 242 250
0.432512 -0.11628 -0.646 254 246 255
0.434414 -0.11646 -0.647 252 244 255
0.435647 -0.11646 -0.647 254 242 254
0.436879 -0.11646 -0.647 254 242 254
0.438111 -0.11646 -0.647 255 238 248
0.439344 -0.11646 -0.647 207 190 200
0.440576 -0.11646 -0.647 153 127 136
0.441126 -0.11628 -0.646 149 123 132
0.442356 -0.11628 -0.646 141 108 117
0.441527 -0.11574 -0.643 140 107 116
0.440686 -0.1152 -0.64 154 117 125
0.392 -0.1008 -0.56 159 118 126
0.388153 -0.09954 -0.553 156 115 119
0.386391 -0.09882 -0.549 166 125 129
0.384614 -0.0981 -0.545 184 126 124
0.38353 -0.09756 -0.542 191 133 131
0.383143 -0.0972 -0.54 195 137 133
0.382037 -0.09666 -0.537 194 136 132
0.381633 -0.0963 -0.535 194 136 132
0.381937 -0.09612 -0.534 193 135 131
0.382237 -0.09594 -0.533 193 135 131
0.382533 -0.09576 -0.532 195 137 133
0.382826 -0.09558 -0.531 193 136 129
0.383114 -0.0954 -0.53 194 137 130
0.383399 -0.09522 -0.529 194 137 128
0.384407 -0.09522 -0.529 193 136 127
0.385414 -0.09522 -0.529 192 135 126
0.386422 -0.09522 -0.529 191 134 125
0.38743 -0.09522 -0.529 190 133 124
0.388437 -0.09522 -0.529 188 131 122
0.389445 -0.09522 -0.529 189 132 121
0.390452 -0.09522 -0.529 188 131 120
0.39146 -0.09522 -0.529 188 130 119
0.392468 -0.09522 -0.529 188 130 119
0.393475 -0.09522 -0.529 187 129 118
0.395229 -0.0954 -0.53 188 129 121
0.396986 -0.09558 -0.531 189 130 122
0.397997 -0.09558 -0.531 190 133 122
0.39976 -0.09576 -0.532 191 134 123
0.401527 -0.09594 -0.533 186 129 120
0.402542 -0.09594 -0.533 183 126 117
0.403557 -0.09594 -0.533 183 124 118
0.405331 -0.09612 -0.534 184 125 119
0.406349 -0.09612 -0.534 181 122 116
0.407366 -0.09612 -0.534 182 123 117
0.408383 -0.09612 -0.534 190 133 126
0.408633 -0.09594 -0.533 196 139 132
0.409649 -0.09594 -0.533 198 141 132
0.410664 -0.09594 -0.533 199 142 133
0.410907 -0.09576 -0.532 201 144 135
0.41192 -0.09576 -0.532 200 143 134
0.412933 -0.09576 -0.532 198 141 130
0.413947 -0.09576 -0.532 195 138 127
0.41496 -0.09576 -0.532 191 137 127
0.415191 -0.09558 -0.531 190 136 126
0.416203 -0.09558 -0.531 190 136 126
0.418 -0.09576 -0.532 187 133 123
0.419013 -0.09576 -0.532 185 131 119
0.420027 -0.09576 -0.532 185 131 119
0.42104 -0.09576 -0.532 183 129 117
0.422847 -0.09594 -0.533 182 130 117
0.423862 -0.09594 -0.533 182 130 117
0.425674 -0.09612 -0.534 182 130 117
0.42749 -0.0963 -0.535 182 130 117
0.42931 -0.09648 -0.536 183 131 120
0.431134 -0.09666 -0.537 183 131 120
0.432962 -0.09684 -0.538 178 128 119
0.434793 -0.09702 -0.539 174 124 115
0.43582 -0.09702 -0.539 174 124 115
0.437657 -0.0972 -0.54 174 124 115
0.439498 -0.09738 -0.541 173 123 116
0.441343 -0.09756 -0.542 174 124 117
0.443191 -0.09774 -0.543 174 124 117
0.444226 -0.09774 -0.543 175 125 118
0.44608 -0.09792 -0.544 171 122 117
0.44876 -0.09828 -0.546 168 119 114
0.450624 -0.09846 -0.547 167 120 114
0.453317 -0.09882 -0.549 167 120 114
0.456846 -0.09936 -0.552 166 117 113
0.316333 -0.118238 -0.65 160 123 131
0.316106 -0.117692 -0.647 160 123 131
0.316357 -0.117329 -0.645 159 122 130
0.316601 -0.116965 -0.643 160 123 131
0.317826 -0.116965 -0.643 161 126 133
0.318058 -0.116601 -0.641 160 125 132
0.319279 -0.116601 -0.641 161 126 133
0.32 -0.116419 -0.64 160 125 132
0.321219 -0.116419 -0.64 161 126 132
0.322438 -0.116419 -0.64 162 127 133
0.323151 -0.116237 -0.639 161 129 134
0.324369 -0.116237 -0.639 161 129 134
0.325586 -0.116237 -0.639 161 129 134
0.326803 -0.116237 -0.639 162 130 135
0.32802 -0.116237 -0.639 163 128 134
0.329237 -0.116237 -0.639 164 129 135
0.330454 -0.116237 -0.639 164 129 135
0.331671 -0.116237 -0.639 164 129 135
0.332889 -0.116237 -0.639 164 129 135
0.334106 -0.116237 -0.639 164 129 135
0.335323 -0.116237 -0.639 165 130 137
0.33654 -0.116237 -0.639 165 130 137
0.337757 -0.116237 -0.639 165 130 137
0.338974 -0.116237 -0.639 163 130 137
0.340724 -0.116419 -0.64 164 131 138
0.341943 -0.116419 -0.64 164 131 138
0.343162 -0.116419 -0.64 163 130 137
0.344381 -0.116419 -0.64 165 132 139
0.3456 -0.116419 -0.64 165 132 139
0.346819 -0.116419 -0.64 164 131 138
0.348038 -0.116419 -0.64 166 133 140
0.349257 -0.116419 -0.64 163 132 140
0.350476 -0.116419 -0.64 166 135 143
0.351695 -0.116419 -0.64 160 127 136
0.352914 -0.116419 -0.64 167 134 143
0.354133 -0.116419 -0.64 157 124 133
0.355352 -0.116419 -0.64 151 118 127
0.356014 -0.116237 -0.639 190 158 169
0.357231 -0.116237 -0.639 169 137 148
0.358449 -0.116237 -0.639 163 131 142
0.359666 -0.116237 -0.639 165 133 144
0.360318 -0.116055 -0.638 167 134 143
0.361533 -0.116055 -0.638 167 134 143
0.363317 -0.116237 -0.639 166 133 142
0.364534 -0.116237 -0.639 166 133 142
0.365751 -0.116237 -0.639 164 131 140
0.366969 -0.116237 -0.639 163 131 142
0.368186 -0.116237 -0.639 164 132 143
0.369403 -0.116237 -0.639 165 129 139
0.3712 -0.116419 -0.64 168 132 142
0.372419 -0.116419 -0.64 155 132 140
0.373638 -0.116419 -0.64 151 128 136
0.375443 -0.116601 -0.641 118 113 117
0.376664 -0.116601 -0.641 173 168 172
0.377885 -0.116601 -0.641 227 237 239
0.379106 -0.116601 -0.641 212 222 224
0.380327 -0.116601 -0.641 171 184 190
0.381548 -0.116601 -0.641 103 116 122
0.382769 -0.116601 -0.641 91 99 110
0.384589 -0.116783 -0.642 112 120 131
0.385811 -0.116783 -0.642 189 191 206
0.387034 -0.116783 -0.642 193 195 210
0.388257 -0.116783 -0.642 200 197 216
0.38948 -0.116783 -0.642 194 191 210
0.390703 -0.116783 -0.642 194 197 204
0.391926 -0.116783 -0.642 201 204 211
0.393149 -0.116783 -0.642 201 204 211
0.394371 -0.116783 -0.642 201 200 206
0.395594 -0.116783 -0.642 209 208 214
0.396817 -0.116783 -0.642 224 212 222
0.39866 -0.116965 -0.643 164 152 162
0.399885 -0.116965 -0.643 156 134 147
0.40111 -0.116965 -0.643 216 194 207
0.402334 -0.116965 -0.643 236 214 226
0.403559 -0.116965 -0.643 226 204 216
0.405413 -0.117147 -0.644 197 177 186
0.40664 -0.117147 -0.644 161 141 150
0.407867 -0.117147 -0.644 151 130 137
0.409093 -0.117147 -0.644 152 131 138
0.41032 -0.117147 -0.644 157 130 139
0.412186 -0.117329 -0.645 155 128 137
0.413414 -0.117329 -0.645 155 129 142
0.414643 -0.117329 -0.645 158 132 145
0.415871 -0.117329 -0.645 154 128 139
0.4171 -0.117329 -0.645 160 134 145
0.418329 -0.117329 -0.645 226 204 216
0.419557 -0.117329 -0.645 255 240 252
0.420786 -0.117329 -0.645 255 246 255
0.422014 -0.117329 -0.645 255 246 255
0.423243 -0.117329 -0.645 255 244 254
0.42513 -0.11751 -0.646 254 247 255
0.42636 -0.11751 -0.646 255 248 255
0.42759 -0.11751 -0.646 255 250 255
0.428821 -0.11751 -0.646 255 250 255
0.430051 -0.11751 -0.646 254 248 255
0.431282 -0.11751 -0.646 252 246 255
0.432512 -0.11751 -0.646 252 246 255
0.433743 -0.11751 -0.646 253 247 255
0.435647 -0.117692 -0.647 248 246 251
0.436879 -0.117692 -0.647 247 245 250
0.438111 -0.117692 -0.647 247 234 241
0.439344 -0.117692 -0.647 183 170 177
0.440576 -0.117692 -0.647 153 130 136
0.441126 -0.11751 -0.646 146 123 129
0.442356 -0.11751 -0.646 121 90 98
0.4429 -0.117329 -0.645 126 95 103
0.441374 -0.116601 -0.641 152 115 123
0.3955 -0.102776 -0.565 154 109 114
0.389557 -0.100957 -0.555 153 106 112
0.387799 -0.10023 -0.551 162 115 121
0.386026 -0.0995019 -0.547 173 124 128
0.384945 -0.0989562 -0.544 180 131 135
0.383852 -0.0984105 -0.541 192 139 135
0.38346 -0.0980467 -0.539 191 138 134
0.382347 -0.097501 -0.536 193 134 126
0.382652 -0.0973191 -0.535 195 136 128
0.382237 -0.0969552 -0.533 198 138 130
0.382533 -0.0967733 -0.532 198 138 130
0.382826 -0.0965914 -0.531 194 137 130
0.383114 -0.0964095 -0.53 194 137 130
0.384124 -0.0964095 -0.53 192 135 128
0.384407 -0.0962276 -0.529 193 136 129
0.384686 -0.0960457 -0.528 193 136 127
0.385691 -0.0960457 -0.528 191 134 125
0.386697 -0.0960457 -0.528 192 133 127
0.387703 -0.0960457 -0.528 190 131 125
0.388709 -0.0960457 -0.528 189 130 124
0.389714 -0.0960457 -0.528 188 129 123
0.39072 -0.0960457 -0.528 188 129 123
0.391726 -0.0960457 -0.528 188 129 123
0.392731 -0.0960457 -0.528 188 129 123
0.394483 -0.0962276 -0.529 187 130 121
0.396238 -0.0964095 -0.53 189 132 123
0.397248 -0.0964095 -0.53 190 133 124
0.399009 -0.0965914 -0.531 192 135 126
0.40002 -0.0965914 -0.531 189 132 123
0.401787 -0.0967733 -0.532 186 129 120
0.4028 -0.0967733 -0.532 184 127 118
0.404572 -0.0969552 -0.533 183 126 117
0.405588 -0.0969552 -0.533 180 123 112
0.407366 -0.0971371 -0.534 180 123 112
0.407618 -0.0969552 -0.533 186 129 118
0.408633 -0.0969552 -0.533 193 136 125
0.409649 -0.0969552 -0.533 198 141 132
0.409893 -0.0967733 -0.532 199 142 133
0.410907 -0.0967733 -0.532 200 143 132
0.411146 -0.0965914 -0.531 200 143 132
0.412157 -0.0965914 -0.531 196 142 130
0.413169 -0.0965914 -0.531 193 139 127
0.41418 -0.0965914 -0.531 189 135 123
0.415191 -0.0965914 -0.531 187 133 121
0.416203 -0.0965914 -0.531 189 135 123
0.417214 -0.0965914 -0.531 188 134 122
0.418226 -0.0965914 -0.531 187 134 120
0.419237 -0.0965914 -0.531 187 134 120
0.42104 -0.0967733 -0.532 186 133 119
0.422053 -0.0967733 -0.532 183 131 117
0.423862 -0.0969552 -0.533 182 130 116
0.424877 -0.0969552 -0.533 182 130 116
0.426691 -0.0971371 -0.534 183 131 117
0.42851 -0.0973191 -0.535 189 129 121
0.430331 -0.097501 -0.536 189 129 121
0.432157 -0.0976829 -0.537 183 126 117
0.43318 -0.0976829 -0.537 179 122 113
0.435011 -0.0978648 -0.538 175 123 112
0.436847 -0.0980467 -0.539 175 123 112
0.438686 -0.0982286 -0.54 173 123 112
0.440529 -0.0984105 -0.541 173 123 112
0.442375 -0.0985924 -0.542 173 125 115
0.444226 -0.0987743 -0.543 173 125 115
0.44608 -0.0989562 -0.544 171 123 113
0.447938 -0.0991381 -0.545 168 120 110
0.4498 -0.09932 -0.546 169 119 110
0.451666 -0.0995019 -0.547 169 119 110
0.454363 -0.0998657 -0.549 171 118 112
0.313857 -0.119476 -0.65 159 122 130
0.315095 -0.119476 -0.65 159 122 130
0.314873 -0.118925 -0.647 159 122 130
0.315129 -0.118557 -0.645 160 123 131
0.315376 -0.11819 -0.643 161 124 132
0.316109 -0.118006 -0.642 162 125 133
0.316837 -0.117822 -0.641 162 127 134
0.317562 -0.117638 -0.64 161 126 133
0.318781 -0.117638 -0.64 161 126 133
0.3195 -0.117454 -0.639 161 126 133
0.320717 -0.117454 -0.639 161 126 133
0.321934 -0.117454 -0.639 161 126 133
0.322646 -0.11727 -0.638 162 127 133
0.323861 -0.11727 -0.638 163 128 134
0.325076 -0.11727 -0.638 163 128 134
0.326291 -0.11727 -0.638 166 131 137
0.327507 -0.11727 -0.638 164 129 135
0.328722 -0.11727 -0.638 164 129 135
0.329937 -0.11727 -0.638 164 129 135
0.331152 -0.11727 -0.638 164 129 135
0.332368 -0.11727 -0.638 165 130 137
0.333583 -0.11727 -0.638 165 130 137
0.334798 -0.11727 -0.638 165 130 137
0.336013 -0.11727 -0.638 165 130 137
0.337229 -0.11727 -0.638 165 130 137
0.338444 -0.11727 -0.638 164 131 138
0.339659 -0.11727 -0.638 165 132 139
0.341409 -0.117454 -0.639 164 131 138
0.342626 -0.117454 -0.639 164 131 138
0.343843 -0.117454 -0.639 165 132 139
0.34506 -0.117454 -0.639 165 132 139
0.346277 -0.117454 -0.639 165 132 139
0.347494 -0.117454 -0.639 165 132 139
0.348711 -0.117454 -0.639 163 130 139
0.349929 -0.117454 -0.639 163 130 139
0.351146 -0.117454 -0.639 169 133 143
0.352363 -0.117454 -0.639 168 132 142
0.35358 -0.117454 -0.639 169 136 145
0.354242 -0.11727 -0.638 149 116 125
0.355457 -0.11727 -0.638 152 119 130
0.356672 -0.11727 -0.638 181 148 159
0.357888 -0.11727 -0.638 168 136 147
0.359103 -0.11727 -0.638 167 135 146
0.359753 -0.117087 -0.637 167 134 143
0.360967 -0.117087 -0.637 167 134 143
0.362749 -0.11727 -0.638 166 133 142
0.363964 -0.11727 -0.638 166 133 142
0.365179 -0.11727 -0.638 165 132 141
0.366394 -0.11727 -0.638 163 131 142
0.36761 -0.11727 -0.638 162 130 141
0.368825 -0.11727 -0.638 162 129 138
0.37062 -0.117454 -0.639 166 133 142
0.371837 -0.117454 -0.639 159 133 142
0.373054 -0.117454 -0.639 160 134 143
0.374857 -0.117638 -0.64 150 135 142
0.376076 -0.117638 -0.64 130 115 122
0.377295 -0.117638 -0.64 174 172 177
0.378514 -0.117638 -0.64 202 200 205
0.379733 -0.117638 -0.64 205 210 216
0.380952 -0.117638 -0.64 177 182 188
0.382769 -0.117822 -0.641 122 129 137
0.38399 -0.117822 -0.641 90 97 105
0.38521 -0.117822 -0.641 135 139 151
0.386431 -0.117822 -0.641 207 211 223
0.387652 -0.117822 -0.641 204 206 219
0.388873 -0.117822 -0.641 148 150 163
0.390094 -0.117822 -0.641 176 176 184
0.391315 -0.117822 -0.641 200 200 208
0.392536 -0.117822 -0.641 200 200 208
0.393757 -0.117822 -0.641 194 189 196
0.394978 -0.117822 -0.641 186 181 188
0.396817 -0.118006 -0.642 156 140 150
0.39804 -0.118006 -0.642 146 130 140
0.399263 -0.118006 -0.642 176 156 167
0.400486 -0.118006 -0.642 243 223 234
0.401709 -0.118006 -0.642 251 231 242
0.403559 -0.11819 -0.643 254 234 245
0.404784 -0.11819 -0.643 204 184 193
0.406009 -0.11819 -0.643 160 140 149
0.407233 -0.11819 -0.643 154 133 140
0.408458 -0.11819 -0.643 147 126 133
0.41032 -0.118373 -0.644 154 128 139
0.411547 -0.118373 -0.644 151 125 136
0.412773 -0.118373 -0.644 149 126 136
0.414 -0.118373 -0.644 152 129 139
0.415227 -0.118373 -0.644 150 127 135
0.416453 -0.118373 -0.644 147 124 132
0.41768 -0.118373 -0.644 180 159 168
0.418907 -0.118373 -0.644 201 180 189
0.420133 -0.118373 -0.644 218 201 211
0.42136 -0.118373 -0.644 218 201 211
0.423243 -0.118557 -0.645 238 221 231
0.424471 -0.118557 -0.645 248 235 244
0.4257 -0.118557 -0.645 255 244 253
0.426929 -0.118557 -0.645 255 249 255
0.428157 -0.118557 -0.645 255 247 255
0.429386 -0.118557 -0.645 254 247 254
0.430614 -0.118557 -0.645 255 248 255
0.432512 -0.118741 -0.646 253 248 255
0.433743 -0.118741 -0.646 251 246 253
0.434973 -0.118741 -0.646 250 244 248
0.436204 -0.118741 -0.646 253 247 251
0.437434 -0.118741 -0.646 216 204 208
0.438665 -0.118741 -0.646 147 135 139
0.439895 -0.118741 -0.646 151 128 134
0.441126 -0.118741 -0.646 141 118 124
0.442356 -0.118741 -0.646 130 100 108
0.443587 -0.118741 -0.646 136 106 114
0.44344 -0.118373 -0.644 156 119 127
0.441905 -0.117638 -0.64 158 121 129
0.392365 -0.10275 -0.559 145 103 107
0.389207 -0.101647 -0.553 156 114 118
0.387437 -0.100911 -0.549 164 118 121
0.385652 -0.100176 -0.545 174 128 131
0.384562 -0.0996248 -0.542 189 136 132
0.384171 -0.0992571 -0.54 190 137 133
0.383773 -0.0988895 -0.538 193 134 126
0.383368 -0.0985219 -0.536 195 136 128
0.382954 -0.0981543 -0.534 195 136 128
0.383252 -0.0979705 -0.533 195 136 128
0.383547 -0.0977867 -0.532 194 137 130
0.383837 -0.0976029 -0.531 194 137 130
0.384124 -0.097419 -0.53 193 136 129
0.384407 -0.0972352 -0.529 193 136 129
0.385414 -0.0972352 -0.529 192 135 126
0.385691 -0.0970514 -0.528 191 134 125
0.386697 -0.0970514 -0.528 192 133 125
0.387703 -0.0970514 -0.528 191 132 124
0.388709 -0.0970514 -0.528 189 132 123
0.389714 -0.0970514 -0.528 188 131 122
0.39072 -0.0970514 -0.528 187 130 121
0.391726 -0.0970514 -0.528 187 130 121
0.392731 -0.0970514 -0.528 187 130 121
0.393737 -0.0970514 -0.528 187 130 121
0.39549 -0.0972352 -0.529 189 132 123
0.396498 -0.0972352 -0.529 190 133 124
0.398257 -0.097419 -0.53 192 135 126
0.399267 -0.097419 -0.53 190 133 124
0.400276 -0.097419 -0.53 188 131 122
0.402043 -0.0976029 -0.531 186 129 118
0.403813 -0.0977867 -0.532 184 127 116
0.404827 -0.0977867 -0.532 180 123 112
0.406603 -0.0979705 -0.533 179 122 111
0.407618 -0.0979705 -0.533 184 127 116
0.407867 -0.0977867 -0.532 191 134 123
0.40888 -0.0977867 -0.532 193 139 129
0.409893 -0.0977867 -0.532 194 140 130
0.410134 -0.0976029 -0.531 195 141 129
0.411146 -0.0976029 -0.531 196 142 130
0.411381 -0.097419 -0.53 196 142 130
0.41239 -0.097419 -0.53 193 139 127
0.4134 -0.097419 -0.53 189 135 123
0.415191 -0.0976029 -0.531 187 133 121
0.416203 -0.0976029 -0.531 188 134 122
0.417214 -0.0976029 -0.531 187 133 121
0.418226 -0.0976029 -0.531 185 133 119
0.419237 -0.0976029 -0.531 185 133 119
0.420249 -0.0976029 -0.531 184 132 118
0.422053 -0.0977867 -0.532 183 131 117
0.423067 -0.0977867 -0.532 182 130 116
0.42408 -0.0977867 -0.532 183 131 118
0.425892 -0.0979705 -0.533 183 131 118
0.427709 -0.0981543 -0.534 186 127 119
0.429529 -0.0983381 -0.535 187 128 120
0.430548 -0.0983381 -0.535 182 127 120
0.432373 -0.0985219 -0.536 177 122 115
0.434203 -0.0987057 -0.537 172 122 113
0.436036 -0.0988895 -0.538 172 122 113
0.437873 -0.0990733 -0.539 171 123 113
0.439714 -0.0992571 -0.54 172 124 114
0.441559 -0.099441 -0.541 170 123 115
0.443408 -0.0996248 -0.542 171 124 116
0.44526 -0.0998086 -0.543 169 122 114
0.447116 -0.0999924 -0.544 167 120 112
0.448976 -0.100176 -0.545 168 119 112
0.45084 -0.10036 -0.546 168 119 112
0.452708 -0.100544 -0.547 169 119 112
0.312619 -0.120714 -0.65 160 123 131
0.312891 -0.120343 -0.648 161 124 132
0.314126 -0.120343 -0.648 161 124 132
0.3139 -0.119786 -0.645 160 123 131
0.314151 -0.119414 -0.643 161 124 132
0.314395 -0.119043 -0.641 163 126 134
0.315124 -0.118857 -0.64 164 127 135
0.315849 -0.118671 -0.639 164 127 135
0.317066 -0.118671 -0.639 164 127 135
0.318283 -0.118671 -0.639 162 125 133
0.319 -0.118486 -0.638 163 126 134
0.320215 -0.118486 -0.638 161 126 133
0.32143 -0.118486 -0.638 161 126 133
0.32214 -0.1183 -0.637 163 128 135
0.323353 -0.1183 -0.637 163 128 135
0.324567 -0.1183 -0.637 163 128 134
0.32578 -0.1183 -0.637 166 131 137
0.326993 -0.1183 -0.637 164 129 135
0.328207 -0.1183 -0.637 164 129 135
0.32942 -0.1183 -0.637 164 129 136
0.330633 -0.1183 -0.637 164 129 136
0.331847 -0.1183 -0.637 165 130 137
0.33306 -0.1183 -0.637 165 130 137
0.334273 -0.1183 -0.637 165 130 137
0.335487 -0.1183 -0.637 165 130 137
0.3367 -0.1183 -0.637 165 130 137
0.337913 -0.1183 -0.637 165 132 139
0.339127 -0.1183 -0.637 165 132 139
0.34034 -0.1183 -0.637 165 132 139
0.341553 -0.1183 -0.637 165 132 139
0.342767 -0.1183 -0.637 165 132 139
0.34452 -0.118486 -0.638 165 132 139
0.345735 -0.118486 -0.638 165 132 139
0.34695 -0.118486 -0.638 165 132 139
0.34762 -0.1183 -0.637 169 133 143
0.348833 -0.1183 -0.637 164 128 138
0.350047 -0.1183 -0.637 167 131 141
0.35126 -0.1183 -0.637 163 127 137
0.353027 -0.118486 -0.638 170 134 144
0.354242 -0.118486 -0.638 164 128 138
0.3549 -0.1183 -0.637 156 123 132
0.356113 -0.1183 -0.637 160 127 136
0.357327 -0.1183 -0.637 172 139 148
0.35854 -0.1183 -0.637 168 135 144
0.359753 -0.1183 -0.637 167 134 143
0.3604 -0.118114 -0.636 166 133 142
0.36218 -0.1183 -0.637 166 133 142
0.363393 -0.1183 -0.637 166 133 142
0.364607 -0.1183 -0.637 165 132 141
0.36582 -0.1183 -0.637 164 132 143
0.36761 -0.118486 -0.638 162 130 141
0.368825 -0.118486 -0.638 165 134 142
0.37004 -0.118486 -0.638 159 128 136
0.371837 -0.118671 -0.639 160 130 140
0.373054 -0.118671 -0.639 162 132 142
0.374271 -0.118671 -0.639 157 131 140
0.375489 -0.118671 -0.639 158 132 141
0.377295 -0.118857 -0.64 142 125 133
0.378514 -0.118857 -0.64 173 156 164
0.379733 -0.118857 -0.64 210 203 210
0.380952 -0.118857 -0.64 200 193 200
0.382171 -0.118857 -0.64 183 184 189
0.38399 -0.119043 -0.641 173 174 179
0.38521 -0.119043 -0.641 153 153 161
0.386431 -0.119043 -0.641 211 211 219
0.387652 -0.119043 -0.641 212 212 220
0.388873 -0.119043 -0.641 143 143 151
0.390094 -0.119043 -0.641 161 156 162
0.391315 -0.119043 -0.641 188 183 189
0.392536 -0.119043 -0.641 188 183 189
0.393757 -0.119043 -0.641 176 163 172
0.394978 -0.119043 -0.641 156 143 152
0.396199 -0.119043 -0.641 151 131 142
0.39742 -0.119043 -0.641 153 133 144
0.398641 -0.119043 -0.641 184 164 175
0.399862 -0.119043 -0.641 207 187 198
0.401083 -0.119043 -0.641 227 207 218
0.402931 -0.119229 -0.642 226 206 217
0.404154 -0.119229 -0.642 181 160 169
0.405377 -0.119229 -0.642 150 129 138
0.4066 -0.119229 -0.642 154 131 141
0.407823 -0.119229 -0.642 149 126 136
0.409683 -0.119414 -0.643 153 130 140
0.410908 -0.119414 -0.643 150 127 137
0.412773 -0.1196 -0.644 149 126 134
0.414 -0.1196 -0.644 151 128 136
0.415227 -0.1196 -0.644 153 130 138
0.416453 -0.1196 -0.644 149 126 134
0.41768 -0.1196 -0.644 151 128 136
0.418907 -0.1196 -0.644 145 122 130
0.420133 -0.1196 -0.644 148 125 135
0.42136 -0.1196 -0.644 148 125 135
0.422587 -0.1196 -0.644 157 134 144
0.424471 -0.119786 -0.645 166 145 154
0.4257 -0.119786 -0.645 185 164 173
0.426929 -0.119786 -0.645 207 188 194
0.428157 -0.119786 -0.645 226 207 213
0.429386 -0.119786 -0.645 239 224 231
0.430614 -0.119786 -0.645 251 236 243
0.431843 -0.119786 -0.645 254 243 249
0.433071 -0.119786 -0.645 255 247 253
0.434973 -0.119971 -0.646 255 246 250
0.436204 -0.119971 -0.646 240 228 232
0.437434 -0.119971 -0.646 179 162 168
0.438665 -0.119971 -0.646 144 127 133
0.439895 -0.119971 -0.646 135 112 118
0.441126 -0.119971 -0.646 116 93 99
0.442356 -0.119971 -0.646 123 94 99
0.443587 -0.119971 -0.646 143 114 119
0.444129 -0.119786 -0.645 156 121 127
0.443286 -0.119229 -0.642 154 119 125
0.441047 -0.1183 -0.637 158 119 124
0.391318 -0.103257 -0.556 148 107 111
0.388849 -0.102329 -0.551 159 113 116
0.387068 -0.101586 -0.547 169 123 126
0.385981 -0.101029 -0.544 184 133 130
0.384883 -0.100471 -0.541 187 136 133
0.384487 -0.1001 -0.539 193 134 126
0.384083 -0.0997286 -0.537 195 136 128
0.383671 -0.0993571 -0.535 195 136 128
0.383252 -0.0989857 -0.533 196 137 129
0.383547 -0.0988 -0.532 195 138 131
0.383837 -0.0986143 -0.531 194 137 130
0.384124 -0.0984286 -0.53 194 137 130
0.384407 -0.0982429 -0.529 193 136 129
0.385414 -0.0982429 -0.529 193 134 126
0.385691 -0.0980571 -0.528 193 134 126
0.386697 -0.0980571 -0.528 192 133 125
0.386969 -0.0978714 -0.527 192 133 125
0.387972 -0.0978714 -0.527 190 133 124
0.388976 -0.0978714 -0.527 188 131 122
0.38998 -0.0978714 -0.527 186 129 120
0.390984 -0.0978714 -0.527 186 129 120
0.391988 -0.0978714 -0.527 186 129 120
0.393737 -0.0980571 -0.528 187 130 121
0.394743 -0.0980571 -0.528 188 131 122
0.395749 -0.0980571 -0.528 190 133 124
0.397506 -0.0982429 -0.529 192 135 126
0.398513 -0.0982429 -0.529 192 135 124
0.399521 -0.0982429 -0.529 190 133 122
0.401286 -0.0984286 -0.53 188 131 120
0.402295 -0.0984286 -0.53 185 128 117
0.404066 -0.0986143 -0.531 182 125 114
0.405077 -0.0986143 -0.531 180 123 112
0.406089 -0.0986143 -0.531 183 126 115
0.4071 -0.0986143 -0.531 189 132 121
0.408111 -0.0986143 -0.531 192 135 124
0.409123 -0.0986143 -0.531 193 136 125
0.410134 -0.0986143 -0.531 193 139 127
0.410371 -0.0984286 -0.53 194 140 128
0.411381 -0.0984286 -0.53 194 140 128
0.41239 -0.0984286 -0.53 192 138 126
0.4134 -0.0984286 -0.53 189 135 123
0.41441 -0.0984286 -0.53 187 133 121
0.415419 -0.0984286 -0.53 187 133 121
0.416429 -0.0984286 -0.53 187 133 121
0.417438 -0.0984286 -0.53 185 133 120
0.418448 -0.0984286 -0.53 185 133 120
0.420249 -0.0986143 -0.531 184 132 119
0.42126 -0.0986143 -0.531 184 132 119
0.423067 -0.0988 -0.532 183 131 118
0.42408 -0.0988 -0.532 183 131 118
0.425093 -0.0988 -0.532 182 130 117
0.426908 -0.0989857 -0.533 184 127 120
0.428726 -0.0991714 -0.534 185 128 121
0.430548 -0.0993571 -0.535 181 128 122
0.431567 -0.0993571 -0.535 177 124 118
0.433394 -0.0995429 -0.536 170 121 114
0.435226 -0.0997286 -0.537 169 120 113
0.437061 -0.0999143 -0.538 169 122 114
0.4389 -0.1001 -0.539 170 123 115
0.440743 -0.100286 -0.54 167 122 116
0.44259 -0.100471 -0.541 167 122 116
0.44444 -0.100657 -0.542 165 120 114
0.446294 -0.100843 -0.543 164 119 113
0.448152 -0.101029 -0.544 166 119 113
0.450014 -0.101214 -0.545 167 120 114
0.45188 -0.1014 -0.546 168 119 115
0.454579 -0.101771 -0.548 168 119 115
0.457286 -0.102143 -0.55 167 119 117
0.310902 -0.121765 -0.649 163 125 138
0.310695 -0.121202 -0.646 159 124 131
0.31096 -0.120827 -0.644 160 125 132
0.312187 -0.120827 -0.644 160 125 132
0.312927 -0.120639 -0.643 161 126 133
0.313174 -0.120264 -0.641 161 126 133
0.313905 -0.120076 -0.64 162 127 134
0.314631 -0.119889 -0.639 162 127 134
0.315354 -0.119701 -0.638 162 127 134
0.31657 -0.119701 -0.638 163 128 135
0.317785 -0.119701 -0.638 161 126 133
0.319 -0.119701 -0.638 162 127 134
0.319713 -0.119513 -0.637 163 128 135
0.320927 -0.119513 -0.637 163 128 135
0.321634 -0.119326 -0.636 164 129 136
0.322846 -0.119326 -0.636 164 129 136
0.324057 -0.119326 -0.636 163 128 135
0.325269 -0.119326 -0.636 164 129 136
0.326993 -0.119513 -0.637 162 129 136
0.327691 -0.119326 -0.636 162 129 136
0.328903 -0.119326 -0.636 163 130 137
0.330114 -0.119326 -0.636 163 130 137
0.331326 -0.119326 -0.636 163 130 137
0.332537 -0.119326 -0.636 163 130 137
0.333749 -0.119326 -0.636 164 131 138
0.33496 -0.119326 -0.636 164 131 138
0.336171 -0.119326 -0.636 164 131 138
0.337383 -0.119326 -0.636 164 131 138
0.338594 -0.119326 -0.636 165 132 139
0.339806 -0.119326 -0.636 165 132 139
0.341017 -0.119326 -0.636 165 132 139
0.342229 -0.119326 -0.636 165 132 139
0.34344 -0.119326 -0.636 164 131 138
0.345193 -0.119513 -0.637 165 132 139
0.346407 -0.119513 -0.637 166 133 140
0.347074 -0.119326 -0.636 167 131 141
0.348286 -0.119326 -0.636 169 133 143
0.349497 -0.119326 -0.636 165 130 137
0.350709 -0.119326 -0.636 164 129 136
0.35192 -0.119326 -0.636 166 133 142
0.353687 -0.119513 -0.637 164 131 140
0.3549 -0.119513 -0.637 169 136 145
0.355554 -0.119326 -0.636 160 127 136
0.356766 -0.119326 -0.636 168 137 145
0.357977 -0.119326 -0.636 166 135 143
0.359189 -0.119326 -0.636 165 134 142
0.3604 -0.119326 -0.636 165 134 142
0.361611 -0.119326 -0.636 164 133 141
0.362823 -0.119326 -0.636 164 133 141
0.364034 -0.119326 -0.636 163 132 140
0.36582 -0.119513 -0.637 163 132 140
0.367033 -0.119513 -0.637 164 133 141
0.368247 -0.119513 -0.637 157 127 135
0.37004 -0.119701 -0.638 165 135 143
0.371255 -0.119701 -0.638 161 130 138
0.37247 -0.119701 -0.638 165 134 142
0.373686 -0.119701 -0.638 162 132 142
0.374901 -0.119701 -0.638 163 133 143
0.376706 -0.119889 -0.639 162 136 145
0.377923 -0.119889 -0.639 160 134 143
0.37914 -0.119889 -0.639 174 154 163
0.380357 -0.119889 -0.639 181 161 170
0.382171 -0.120076 -0.64 174 161 168
0.38339 -0.120076 -0.64 186 173 180
0.38461 -0.120076 -0.64 185 175 183
0.385829 -0.120076 -0.64 191 181 189
0.387048 -0.120076 -0.64 180 173 180
0.388267 -0.120076 -0.64 162 155 162
0.389486 -0.120076 -0.64 157 146 152
0.390705 -0.120076 -0.64 144 133 139
0.391924 -0.120076 -0.64 144 133 139
0.393143 -0.120076 -0.64 144 124 133
0.394362 -0.120076 -0.64 159 139 148
0.395581 -0.120076 -0.64 151 128 138
0.3968 -0.120076 -0.64 200 177 187
0.398019 -0.120076 -0.64 238 218 227
0.399238 -0.120076 -0.64 239 219 228
0.400457 -0.120076 -0.64 214 194 203
0.402304 -0.120264 -0.641 182 162 171
0.403525 -0.120264 -0.641 161 138 148
0.404746 -0.120264 -0.641 149 126 136
0.405967 -0.120264 -0.641 153 127 138
0.407823 -0.120451 -0.642 153 127 138
0.409046 -0.120451 -0.642 149 128 137
0.410269 -0.120451 -0.642 149 128 137
0.412132 -0.120639 -0.643 154 127 136
0.413357 -0.120639 -0.643 154 127 136
0.414582 -0.120639 -0.643 152 126 135
0.415807 -0.120639 -0.643 154 128 137
0.417031 -0.120639 -0.643 158 132 141
0.418256 -0.120639 -0.643 160 134 143
0.419481 -0.120639 -0.643 159 133 142
0.420706 -0.120639 -0.643 159 133 142
0.422587 -0.120827 -0.644 155 129 138
0.423813 -0.120827 -0.644 152 125 134
0.42504 -0.120827 -0.644 148 121 130
0.426267 -0.120827 -0.644 146 121 127
0.427493 -0.120827 -0.644 150 125 131
0.42872 -0.120827 -0.644 156 133 139
0.429947 -0.120827 -0.644 167 144 150
0.431843 -0.121014 -0.645 182 163 167
0.433071 -0.121014 -0.645 198 179 183
0.4343 -0.121014 -0.645 213 194 198
0.435529 -0.121014 -0.645 194 175 179
0.436757 -0.121014 -0.645 150 129 136
0.437986 -0.121014 -0.645 145 124 131
0.439214 -0.121014 -0.645 122 99 107
0.441126 -0.121202 -0.646 115 92 100
0.442356 -0.121202 -0.646 134 105 110
0.443587 -0.121202 -0.646 144 115 120
0.444817 -0.121202 -0.646 150 118 123
0.445357 -0.121014 -0.645 151 119 124
0.442431 -0.119889 -0.639 153 114 119
0.394133 -0.105067 -0.56 140 101 106
0.390966 -0.103941 -0.554 152 106 109
0.388483 -0.103003 -0.549 162 116 119
0.38669 -0.102252 -0.545 180 129 126
0.385594 -0.10169 -0.542 186 135 132
0.3852 -0.101314 -0.54 191 134 127
0.384083 -0.100751 -0.537 193 136 129
0.383671 -0.100376 -0.535 195 136 128
0.383971 -0.100189 -0.534 196 137 129
0.383547 -0.0998133 -0.532 194 137 130
0.383837 -0.0996257 -0.531 193 136 129
0.384124 -0.0994381 -0.53 196 139 132
0.384407 -0.0992505 -0.529 194 137 130
0.384686 -0.0990629 -0.528 194 135 127
0.385691 -0.0990629 -0.528 193 134 126
0.385965 -0.0988752 -0.527 192 132 122
0.386969 -0.0988752 -0.527 193 133 123
0.387972 -0.0988752 -0.527 190 133 124
0.388976 -0.0988752 -0.527 188 131 122
0.38998 -0.0988752 -0.527 186 129 120
0.390984 -0.0988752 -0.527 186 129 120
0.391988 -0.0988752 -0.527 186 129 120
0.392991 -0.0988752 -0.527 187 130 121
0.393995 -0.0988752 -0.527 188 131 122
0.394999 -0.0988752 -0.527 190 133 124
0.396754 -0.0990629 -0.528 193 136 127
0.39776 -0.0990629 -0.528 193 136 127
0.399521 -0.0992505 -0.529 190 133 124
0.400529 -0.0992505 -0.529 189 131 120
0.401536 -0.0992505 -0.529 187 129 118
0.403305 -0.0994381 -0.53 186 128 117
0.404314 -0.0994381 -0.53 184 126 115
0.405324 -0.0994381 -0.53 185 127 116
0.406333 -0.0994381 -0.53 189 131 120
0.407343 -0.0994381 -0.53 189 132 121
0.408352 -0.0994381 -0.53 191 134 123
0.409362 -0.0994381 -0.53 194 137 126
0.410371 -0.0994381 -0.53 195 138 127
0.410605 -0.0992505 -0.529 194 137 126
0.411612 -0.0992505 -0.529 192 135 124
0.41262 -0.0992505 -0.529 188 134 122
0.41441 -0.0994381 -0.53 187 133 121
0.415419 -0.0994381 -0.53 186 132 120
0.416429 -0.0994381 -0.53 186 132 120
0.417438 -0.0994381 -0.53 186 132 120
0.418448 -0.0994381 -0.53 186 132 120
0.419457 -0.0994381 -0.53 184 130 118
0.42126 -0.0996257 -0.531 184 130 118
0.422271 -0.0996257 -0.531 184 130 118
0.42408 -0.0998133 -0.532 184 130 120
0.425093 -0.0998133 -0.532 182 128 118
0.426107 -0.0998133 -0.532 182 127 122
0.427923 -0.100001 -0.533 182 127 122
0.429743 -0.100189 -0.534 180 127 121
0.43076 -0.100189 -0.534 176 123 117
0.432586 -0.100376 -0.535 169 120 113
0.434415 -0.100564 -0.536 167 118 111
0.436249 -0.100751 -0.537 164 119 113
0.438086 -0.100939 -0.538 165 120 114
0.439927 -0.101127 -0.539 166 121 115
0.441771 -0.101314 -0.54 166 121 115
0.44362 -0.101502 -0.541 164 119 114
0.445472 -0.10169 -0.542 163 118 113
0.447329 -0.101877 -0.543 166 118 114
0.449189 -0.102065 -0.544 166 118 114
0.450225 -0.102065 -0.544 168 119 115
0.45292 -0.10244 -0.546 168 119 115
0.455623 -0.102815 -0.548 163 115 113
0.310143 -0.12319 -0.65 162 124 135
0.309944 -0.122622 -0.647 159 121 132
0.309733 -0.122053 -0.644 159 124 131
0.309994 -0.121674 -0.642 160 125 132
0.311217 -0.121674 -0.642 160 125 132
0.311953 -0.121485 -0.641 162 127 134
0.312686 -0.121295 -0.64 163 128 135
0.312924 -0.120916 -0.638 162 127 134
0.314139 -0.120916 -0.638 162 127 134
0.31486 -0.120727 -0.637 163 128 135
0.316073 -0.120727 -0.637 163 128 135
0.316789 -0.120537 -0.636 163 128 135
0.318 -0.120537 -0.636 163 128 135
0.319211 -0.120537 -0.636 164 129 136
0.320423 -0.120537 -0.636 164 129 136
0.321129 -0.120348 -0.635 164 129 136
0.322338 -0.120348 -0.635 164 129 136
0.323548 -0.120348 -0.635 164 129 136
0.324757 -0.120348 -0.635 163 128 135
0.325967 -0.120348 -0.635 163 130 137
0.327176 -0.120348 -0.635 163 130 137
0.328386 -0.120348 -0.635 164 131 138
0.329595 -0.120348 -0.635 164 131 138
0.330805 -0.120348 -0.635 163 130 137
0.332014 -0.120348 -0.635 163 130 137
0.333224 -0.120348 -0.635 164 131 138
0.334433 -0.120348 -0.635 164 131 138
0.335643 -0.120348 -0.635 164 131 138
0.336852 -0.120348 -0.635 164 131 138
0.338062 -0.120348 -0.635 164 131 138
0.339271 -0.120348 -0.635 165 132 139
0.339945 -0.120158 -0.634 165 132 139
0.34169 -0.120348 -0.635 165 132 139
0.3429 -0.120348 -0.635 165 132 139
0.34411 -0.120348 -0.635 165 132 139
0.345319 -0.120348 -0.635 166 133 140
0.346529 -0.120348 -0.635 165 130 137
0.347738 -0.120348 -0.635 167 132 139
0.348948 -0.120348 -0.635 166 133 140
0.350157 -0.120348 -0.635 163 130 137
0.351367 -0.120348 -0.635 165 132 141
0.353131 -0.120537 -0.636 163 130 139
0.354343 -0.120537 -0.636 165 132 139
0.355554 -0.120537 -0.636 172 139 146
0.356205 -0.120348 -0.635 165 134 142
0.357414 -0.120348 -0.635 165 134 142
0.358624 -0.120348 -0.635 165 134 142
0.359833 -0.120348 -0.635 164 133 141
0.361043 -0.120348 -0.635 162 132 140
0.362252 -0.120348 -0.635 162 132 140
0.363462 -0.120348 -0.635 162 132 140
0.365246 -0.120537 -0.636 162 132 140
0.366457 -0.120537 -0.636 163 133 141
0.367669 -0.120537 -0.636 165 132 141
0.36946 -0.120727 -0.637 162 129 138
0.370673 -0.120727 -0.637 167 136 144
0.371887 -0.120727 -0.637 156 125 133
0.3731 -0.120727 -0.637 166 136 144
0.374313 -0.120727 -0.637 164 134 142
0.376116 -0.120916 -0.638 163 136 143
0.377331 -0.120916 -0.638 162 135 142
0.378547 -0.120916 -0.638 158 131 140
0.379762 -0.120916 -0.638 158 131 140
0.381574 -0.121106 -0.639 157 131 140
0.382791 -0.121106 -0.639 162 136 145
0.384009 -0.121106 -0.639 161 138 146
0.385226 -0.121106 -0.639 156 133 141
0.386443 -0.121106 -0.639 158 139 145
0.38766 -0.121106 -0.639 155 136 142
0.388877 -0.121106 -0.639 156 135 144
0.390094 -0.121106 -0.639 152 131 140
0.391311 -0.121106 -0.639 152 131 140
0.392529 -0.121106 -0.639 160 134 145
0.393746 -0.121106 -0.639 159 133 144
0.394963 -0.121106 -0.639 157 131 142
0.39618 -0.121106 -0.639 224 198 209
0.397397 -0.121106 -0.639 243 223 232
0.398614 -0.121106 -0.639 250 230 239
0.399831 -0.121106 -0.639 215 195 204
0.401676 -0.121295 -0.64 165 145 154
0.402895 -0.121295 -0.64 159 133 144
0.404746 -0.121485 -0.641 157 131 142
0.405967 -0.121485 -0.641 152 124 136
0.407188 -0.121485 -0.641 153 125 137
0.408409 -0.121485 -0.641 148 125 135
0.410269 -0.121674 -0.642 149 126 136
0.411491 -0.121674 -0.642 155 124 132
0.412714 -0.121674 -0.642 158 127 135
0.413937 -0.121674 -0.642 152 125 134
0.415807 -0.121864 -0.643 152 125 134
0.417031 -0.121864 -0.643 153 127 136
0.418256 -0.121864 -0.643 158 132 141
0.419481 -0.121864 -0.643 156 131 137
0.420706 -0.121864 -0.643 156 131 137
0.42193 -0.121864 -0.643 153 128 134
0.423813 -0.122053 -0.644 155 128 135
0.42504 -0.122053 -0.644 151 124 131
0.426267 -0.122053 -0.644 152 125 132
0.427493 -0.122053 -0.644 156 129 136
0.42872 -0.122053 -0.644 154 127 134
0.429947 -0.122053 -0.644 150 123 130
0.431173 -0.122053 -0.644 150 123 130
0.4324 -0.122053 -0.644 152 125 132
0.4343 -0.122243 -0.645 154 127 136
0.435529 -0.122243 -0.645 154 127 136
