ply
format ascii 1.0
comment Created by Open3D
element vertex 1289
property double x
property double y
property double z
property uchar red
property uchar green
property uchar blue
end_header
-0.0277714 -0.268457 -0.648 72 71 79
-0.0265781 -0.268871 -0.649 72 71 79
-0.025381 -0.269286 -0.65 73 72 80
0.13681 -0.269286 -0.65 210 154 153
0.133822 -0.256443 -0.619 203 155 151
0.133692 -0.253957 -0.613 207 149 145
0.1342 -0.252714 -0.61 204 146 142
0.134918 -0.251886 -0.608 196 137 131
0.135629 -0.251057 -0.606 185 126 120
0.136557 -0.250643 -0.605 181 116 112
0.13771 -0.250643 -0.605 175 110 106
0.138632 -0.250229 -0.604 167 97 97
0.139783 -0.250229 -0.604 167 97 97
0.1407 -0.249814 -0.603 189 119 119
0.141849 -0.249814 -0.603 209 148 147
0.14276 -0.2494 -0.602 206 145 144
0.143668 -0.248986 -0.601 208 153 150
0.14433 -0.248157 -0.599 203 148 145
0.145229 -0.247743 -0.598 206 151 148
0.145878 -0.246914 -0.596 204 149 146
0.14652 -0.246086 -0.594 208 150 148
0.147403 -0.245671 -0.593 208 150 148
0.148282 -0.245257 -0.592 206 148 144
0.149157 -0.244843 -0.591 201 143 139
0.150029 -0.244429 -0.59 190 136 126
0.151152 -0.244429 -0.59 185 131 121
0.152018 -0.244014 -0.589 182 129 115
0.15314 -0.244014 -0.589 173 120 106
0.154262 -0.244014 -0.589 196 137 133
0.15512 -0.2436 -0.588 216 157 153
0.15624 -0.2436 -0.588 215 155 154
0.15736 -0.2436 -0.588 213 153 152
0.15848 -0.2436 -0.588 212 152 151
0.159329 -0.243186 -0.587 211 151 150
0.160173 -0.242771 -0.586 209 149 148
0.161014 -0.242357 -0.585 204 144 143
0.162129 -0.242357 -0.585 206 148 144
0.162964 -0.241943 -0.584 203 145 141
0.164076 -0.241943 -0.584 201 144 135
0.164906 -0.241529 -0.583 199 142 133
0.166016 -0.241529 -0.583 195 139 126
0.167127 -0.241529 -0.583 192 136 123
0.168237 -0.241529 -0.583 188 132 117
0.169638 -0.241943 -0.584 184 128 113
0.17075 -0.241943 -0.584 184 129 109
0.171863 -0.241943 -0.584 187 132 112
0.173271 -0.242357 -0.585 181 122 106
0.174386 -0.242357 -0.585 178 119 103
0.1758 -0.242771 -0.586 176 114 101
0.176916 -0.242771 -0.586 169 107 94
0.178032 -0.242771 -0.586 167 103 91
0.179149 -0.242771 -0.586 158 94 82
0.180265 -0.242771 -0.586 160 96 86
0.181381 -0.242771 -0.586 202 138 128
0.182497 -0.242771 -0.586 202 138 128
0.183613 -0.242771 -0.586 212 149 140
0.18473 -0.242771 -0.586 208 145 136
0.185846 -0.242771 -0.586 206 146 138
0.186962 -0.242771 -0.586 208 148 140
0.187757 -0.242357 -0.585 205 146 138
0.188549 -0.241943 -0.584 207 148 140
0.189661 -0.241943 -0.584 203 143 135
0.190773 -0.241943 -0.584 203 143 135
0.191886 -0.241943 -0.584 201 142 134
0.192998 -0.241943 -0.584 200 141 133
0.194443 -0.242357 -0.585 198 139 131
0.195557 -0.242357 -0.585 193 134 126
0.197008 -0.242771 -0.586 188 129 121
0.198462 -0.243186 -0.587 185 126 118
0.19992 -0.2436 -0.588 185 127 116
0.201382 -0.244014 -0.589 180 122 111
0.202848 -0.244429 -0.59 178 120 109
0.204663 -0.245257 -0.592 170 112 101
0.206138 -0.245671 -0.593 166 108 97
0.207967 -0.2465 -0.595 160 102 91
0.209803 -0.247329 -0.597 157 100 89
0.211647 -0.248157 -0.599 156 99 88
0.213853 -0.2494 -0.602 150 97 93
0.216071 -0.250643 -0.605 143 90 86
0.217942 -0.251471 -0.607 136 86 85
0.220542 -0.253129 -0.611 133 83 82
0.222794 -0.254371 -0.614 126 80 82
0.225423 -0.256029 -0.618 124 78 80
0.228067 -0.257686 -0.622 118 73 78
0.230357 -0.258929 -0.625 112 67 72
0.23303 -0.260586 -0.629 113 70 77
0.235345 -0.261829 -0.632 115 72 79
0.236549 -0.261829 -0.632 115 72 79
0.239257 -0.263486 -0.636 117 74 83
0.241603 -0.264729 -0.639 120 77 86
0.24396 -0.265971 -0.642 121 78 87
0.246329 -0.267214 -0.645 120 77 86
0.248709 -0.268457 -0.648 118 73 80
0.250714 -0.269286 -0.65 113 68 75
0.471566 -0.228686 -0.552 179 139 127
0.472617 -0.228686 -0.552 179 139 127
0.46423 -0.224129 -0.541 180 140 128
0.45924 -0.221229 -0.534 181 144 128
0.455086 -0.218743 -0.528 181 144 128
0.4535 -0.2175 -0.525 182 145 127
0.451903 -0.216257 -0.522 182 145 127
0.449427 -0.2146 -0.518 183 144 127
0.448674 -0.213771 -0.516 184 145 128
0.447914 -0.212943 -0.514 184 145 128
0.447147 -0.212114 -0.512 184 145 128
0.446371 -0.211286 -0.51 184 146 127
0.446466 -0.210871 -0.509 184 146 127
0.445677 -0.210043 -0.507 186 148 127
0.445762 -0.209629 -0.506 188 150 129
0.445843 -0.209214 -0.505 193 152 132
0.44592 -0.2088 -0.504 194 153 133
0.445993 -0.208386 -0.503 193 150 131
0.446063 -0.207971 -0.502 191 148 129
0.446129 -0.207557 -0.501 192 151 129
0.44619 -0.207143 -0.5 192 151 129
0.447143 -0.207143 -0.5 194 152 130
0.447199 -0.206729 -0.499 194 152 130
0.44815 -0.206729 -0.499 193 151 129
0.4482 -0.206314 -0.498 192 150 128
0.448247 -0.2059 -0.497 191 149 127
0.449193 -0.2059 -0.497 188 146 124
0.449234 -0.205486 -0.496 187 145 123
0.450179 -0.205486 -0.496 189 147 125
0.450214 -0.205071 -0.495 192 147 126
0.451157 -0.205071 -0.495 193 148 127
0.4521 -0.205071 -0.495 193 148 127
0.452128 -0.204657 -0.494 192 147 126
0.453069 -0.204657 -0.494 192 147 126
0.45401 -0.204657 -0.494 192 147 126
0.45495 -0.204657 -0.494 192 147 126
0.454969 -0.204243 -0.493 193 148 127
0.455908 -0.204243 -0.493 192 147 126
0.456847 -0.204243 -0.493 192 146 123
0.457786 -0.204243 -0.493 190 144 121
0.458725 -0.204243 -0.493 190 144 121
0.459664 -0.204243 -0.493 192 146 123
0.460603 -0.204243 -0.493 191 146 123
0.461542 -0.204243 -0.493 189 144 121
0.462481 -0.204243 -0.493 188 143 122
0.46342 -0.204243 -0.493 183 138 117
0.464359 -0.204243 -0.493 181 136 115
0.466242 -0.204657 -0.494 179 134 113
0.467183 -0.204657 -0.494 173 131 109
0.469071 -0.205071 -0.495 172 130 108
0.470964 -0.205486 -0.496 172 130 108
0.471909 -0.205486 -0.496 171 129 107
0.473807 -0.2059 -0.497 171 129 107
0.475709 -0.206314 -0.498 170 128 106
0.476657 -0.206314 -0.498 162 124 101
0.478565 -0.206729 -0.499 159 121 98
0.480476 -0.207143 -0.5 162 120 98
0.482391 -0.207557 -0.501 162 120 98
0.485275 -0.208386 -0.503 163 117 101
0.4872 -0.2088 -0.504 161 115 99
0.490097 -0.209629 -0.506 155 113 99
0.492031 -0.210043 -0.507 154 112 98
0.494942 -0.210871 -0.509 150 111 94
0.49786 -0.2117 -0.511 149 110 93
-0.385157 -0.268443 -0.645 248 250 237
-0.383929 -0.268443 -0.645 248 250 237
-0.3827 -0.268443 -0.645 247 249 236
-0.381471 -0.268443 -0.645 248 250 237
-0.380243 -0.268443 -0.645 248 250 237
-0.379014 -0.268443 -0.645 249 251 238
-0.377786 -0.268443 -0.645 249 251 238
-0.377141 -0.268859 -0.646 250 252 239
-0.37591 -0.268859 -0.646 250 252 239
-0.37468 -0.268859 -0.646 250 252 239
-0.37345 -0.268859 -0.646 250 252 239
-0.372219 -0.268859 -0.646 250 252 239
-0.370989 -0.268859 -0.646 250 252 241
-0.369758 -0.268859 -0.646 249 251 240
-0.368528 -0.268859 -0.646 249 251 240
-0.367297 -0.268859 -0.646 249 251 240
-0.366067 -0.268859 -0.646 249 251 240
-0.364836 -0.268859 -0.646 249 251 240
-0.363606 -0.268859 -0.646 250 252 241
-0.362375 -0.268859 -0.646 250 252 241
-0.361145 -0.268859 -0.646 249 250 242
-0.359914 -0.268859 -0.646 248 249 241
-0.358684 -0.268859 -0.646 247 248 240
-0.357453 -0.268859 -0.646 247 248 240
-0.356774 -0.269275 -0.647 248 249 241
-0.355542 -0.269275 -0.647 248 249 241
-0.35431 -0.269275 -0.647 249 250 242
-0.353077 -0.269275 -0.647 249 250 242
-0.351845 -0.269275 -0.647 250 251 243
-0.350612 -0.269275 -0.647 250 251 243
-0.34938 -0.269275 -0.647 251 252 246
-0.348148 -0.269275 -0.647 252 253 247
-0.346915 -0.269275 -0.647 252 253 247
-0.345683 -0.269275 -0.647 252 253 247
-0.34445 -0.269275 -0.647 252 253 247
-0.343218 -0.269275 -0.647 252 253 247
-0.341986 -0.269275 -0.647 252 253 247
-0.340753 -0.269275 -0.647 252 253 247
-0.339521 -0.269275 -0.647 253 254 249
-0.337577 -0.269691 -0.648 253 254 249
-0.336343 -0.269691 -0.648 253 254 249
-0.335109 -0.269691 -0.648 253 254 249
-0.333874 -0.269691 -0.648 253 254 249
-0.315847 -0.270108 -0.649 252 253 248
-0.31461 -0.270108 -0.649 252 253 248
-0.313374 -0.270108 -0.649 252 253 248
-0.312138 -0.270108 -0.649 252 253 248
-0.310902 -0.270108 -0.649 252 253 247
-0.309666 -0.270108 -0.649 252 253 247
-0.30843 -0.270108 -0.649 253 254 248
-0.307193 -0.270108 -0.649 252 253 247
-0.305957 -0.270108 -0.649 252 253 247
-0.304721 -0.270108 -0.649 251 252 246
-0.303485 -0.270108 -0.649 252 253 247
-0.302249 -0.270108 -0.649 252 253 247
-0.301012 -0.270108 -0.649 252 253 247
-0.299776 -0.270108 -0.649 252 253 247
-0.29854 -0.270108 -0.649 252 253 248
-0.297304 -0.270108 -0.649 252 253 248
-0.296068 -0.270108 -0.649 252 253 247
-0.294831 -0.270108 -0.649 252 253 247
-0.293595 -0.270108 -0.649 252 253 247
-0.292359 -0.270108 -0.649 252 253 247
-0.291571 -0.270524 -0.65 252 253 247
-0.290333 -0.270524 -0.65 252 253 247
-0.289095 -0.270524 -0.65 251 252 246
-0.287857 -0.270524 -0.65 251 252 246
-0.286619 -0.270524 -0.65 251 252 244
-0.123001 -0.270108 -0.649 114 114 114
-0.121202 -0.268859 -0.646 111 111 113
-0.118671 -0.265946 -0.639 110 110 112
-0.115984 -0.262616 -0.631 111 112 114
-0.113145 -0.25887 -0.622 108 109 111
-0.10998 -0.254292 -0.611 108 109 111
-0.106857 -0.249714 -0.6 111 112 114
-0.104657 -0.247217 -0.594 113 113 115
-0.102654 -0.245136 -0.589 112 112 114
-0.100843 -0.243471 -0.585 112 111 116
-0.0993876 -0.242639 -0.583 110 109 114
-0.0981086 -0.242223 -0.582 108 109 113
-0.0968333 -0.241807 -0.581 110 111 115
-0.0958914 -0.242223 -0.582 105 108 113
-0.0949457 -0.242639 -0.583 103 106 111
-0.0939962 -0.243055 -0.584 101 104 109
-0.0930429 -0.243471 -0.585 94 97 102
-0.0922429 -0.244304 -0.587 73 76 81
-0.0914352 -0.245136 -0.589 68 69 74
-0.09062 -0.245969 -0.591 67 68 73
-0.0897971 -0.246801 -0.593 73 74 79
-0.0889667 -0.247633 -0.595 73 74 79
-0.0881286 -0.248466 -0.597 72 73 78
-0.0874286 -0.249714 -0.6 68 69 74
-0.0865733 -0.250547 -0.602 66 67 72
-0.0858524 -0.251795 -0.605 65 66 71
-0.08512 -0.253044 -0.608 65 64 70
-0.0842381 -0.253876 -0.61 63 62 68
-0.0834848 -0.255125 -0.613 64 63 69
-0.0825857 -0.255957 -0.615 63 62 68
-0.081679 -0.25679 -0.617 61 60 66
-0.0806343 -0.257206 -0.618 60 59 65
-0.0797143 -0.258038 -0.62 61 60 66
-0.0787867 -0.25887 -0.622 62 61 67
-0.0777267 -0.259287 -0.623 61 60 68
-0.0766629 -0.259703 -0.624 61 60 68
-0.0754743 -0.259703 -0.624 63 62 70
-0.0742857 -0.259703 -0.624 64 63 71
-0.0730971 -0.259703 -0.624 66 65 73
-0.0720238 -0.260119 -0.625 67 66 74
-0.0708333 -0.260119 -0.625 70 68 79
-0.0697543 -0.260535 -0.626 72 70 81
-0.0686714 -0.260951 -0.627 73 71 82
-0.0674771 -0.260951 -0.627 74 72 83
-0.0662829 -0.260951 -0.627 74 72 83
-0.0651924 -0.261368 -0.628 73 71 82
-0.0639962 -0.261368 -0.628 74 72 83
-0.0629 -0.261784 -0.629 76 74 85
-0.0617019 -0.261784 -0.629 76 74 85
-0.0606 -0.2622 -0.63 76 74 85
-0.0594943 -0.262616 -0.631 76 74 85
-0.0582924 -0.262616 -0.631 75 73 84
-0.057181 -0.263032 -0.632 76 74 85
-0.0559771 -0.263032 -0.632 77 75 86
-0.05486 -0.263449 -0.633 77 75 86
-0.0536543 -0.263449 -0.633 76 74 85
-0.0525314 -0.263865 -0.634 76 74 85
-0.0514048 -0.264281 -0.635 75 73 84
-0.0501952 -0.264281 -0.635 75 73 84
-0.0490629 -0.264697 -0.636 76 74 85
-0.0478514 -0.264697 -0.636 74 72 83
-0.0467133 -0.265113 -0.637 74 72 83
-0.0455714 -0.26553 -0.638 74 72 83
-0.0443562 -0.26553 -0.638 73 71 82
-0.0432086 -0.265946 -0.639 73 71 82
-0.0419914 -0.265946 -0.639 73 71 82
-0.0407743 -0.265946 -0.639 73 71 82
-0.039619 -0.266362 -0.64 73 71 82
-0.0384 -0.266362 -0.64 72 70 81
-0.037239 -0.266778 -0.641 72 70 81
-0.0360743 -0.267194 -0.642 72 70 81
-0.0349057 -0.26761 -0.643 72 70 81
-0.0337333 -0.268027 -0.644 73 71 82
-0.0325571 -0.268443 -0.645 74 72 83
-0.0313771 -0.268859 -0.646 74 72 83
-0.0301933 -0.269275 -0.647 74 72 83
-0.0290057 -0.269691 -0.648 71 71 81
-0.0277714 -0.269691 -0.648 70 70 80
-0.0265781 -0.270108 -0.649 70 70 80
-0.025381 -0.270524 -0.65 71 71 81
0.135757 -0.268443 -0.645 210 152 151
0.133173 -0.256373 -0.616 204 156 154
0.133038 -0.253876 -0.61 205 149 148
0.13376 -0.253044 -0.608 199 143 142
0.134474 -0.252211 -0.606 198 136 125
0.135181 -0.251379 -0.604 189 127 116
0.136331 -0.251379 -0.604 177 117 109
0.137482 -0.251379 -0.604 168 108 100
0.138632 -0.251379 -0.604 168 108 100
0.139551 -0.250963 -0.603 171 101 101
0.140467 -0.250547 -0.602 203 133 133
0.141378 -0.25013 -0.601 203 142 141
0.142286 -0.249714 -0.6 210 149 148
0.143429 -0.249714 -0.6 206 152 150
0.14409 -0.248882 -0.598 208 154 152
0.144743 -0.24805 -0.596 207 152 149
0.145633 -0.247633 -0.595 206 151 148
0.146273 -0.246801 -0.593 206 148 144
0.146906 -0.245969 -0.591 204 146 142
0.148031 -0.245969 -0.591 197 142 135
0.148905 -0.245552 -0.59 196 141 134
0.149774 -0.245136 -0.589 191 137 125
0.150896 -0.245136 -0.589 180 126 114
0.15176 -0.24472 -0.588 182 129 115
0.15288 -0.24472 -0.588 195 142 128
0.154 -0.24472 -0.588 209 150 146
0.154856 -0.244304 -0.587 208 149 145
0.155974 -0.244304 -0.587 213 153 152
0.157092 -0.244304 -0.587 211 151 150
0.15821 -0.244304 -0.587 205 145 144
0.159057 -0.243888 -0.586 208 148 147
0.1599 -0.243471 -0.585 203 143 142
0.160739 -0.243055 -0.584 207 147 146
0.161574 -0.242639 -0.583 203 145 141
0.162685 -0.242639 -0.583 201 143 139
0.163795 -0.242639 -0.583 199 142 133
0.164623 -0.242223 -0.582 196 139 130
0.166016 -0.242639 -0.583 192 136 123
0.167127 -0.242639 -0.583 190 134 121
0.168237 -0.242639 -0.583 186 130 113
0.169348 -0.242639 -0.583 181 125 108
0.17075 -0.243055 -0.584 183 127 110
0.171863 -0.243055 -0.584 182 126 109
0.172975 -0.243055 -0.584 177 119 105
0.174386 -0.243471 -0.585 169 111 97
0.1755 -0.243471 -0.585 170 108 95
0.176614 -0.243471 -0.585 162 100 87
0.177729 -0.243471 -0.585 155 93 82
0.178843 -0.243471 -0.585 164 102 91
0.179957 -0.243471 -0.585 195 131 121
0.181071 -0.243471 -0.585 215 151 141
0.182186 -0.243471 -0.585 215 151 141
0.1833 -0.243471 -0.585 214 149 143
0.184414 -0.243471 -0.585 210 145 139
0.185211 -0.243055 -0.584 206 146 138
0.186324 -0.243055 -0.584 211 151 143
0.187436 -0.243055 -0.584 206 147 139
0.188226 -0.242639 -0.583 206 147 139
0.189336 -0.242639 -0.583 202 144 133
0.190447 -0.242639 -0.583 200 142 131
0.191557 -0.242639 -0.583 197 139 128
0.192998 -0.243055 -0.584 196 138 127
0.19411 -0.243055 -0.584 195 137 126
0.195557 -0.243471 -0.585 188 130 119
0.197008 -0.243888 -0.586 181 123 112
0.198462 -0.244304 -0.587 180 122 111
0.19992 -0.24472 -0.588 183 125 114
0.201724 -0.245552 -0.59 179 121 110
0.203191 -0.245969 -0.591 174 116 105
0.205009 -0.246801 -0.593 166 108 97
0.206486 -0.247217 -0.594 163 105 94
0.208316 -0.24805 -0.596 157 99 88
0.210154 -0.248882 -0.598 156 98 87
0.212 -0.249714 -0.6 152 94 83
0.214209 -0.250963 -0.603 142 91 90
0.216429 -0.252211 -0.606 136 85 84
0.218301 -0.253044 -0.608 132 83 86
0.220903 -0.254709 -0.612 129 80 83
0.22352 -0.256373 -0.616 123 78 83
0.226152 -0.258038 -0.62 121 76 81
0.2288 -0.259703 -0.624 113 70 79
0.231463 -0.261368 -0.628 108 65 74
0.23377 -0.262616 -0.631 112 70 80
0.236462 -0.264281 -0.635 114 72 82
0.237671 -0.264281 -0.635 114 72 82
0.24001 -0.26553 -0.638 116 74 86
0.242737 -0.267194 -0.642 118 76 88
0.2451 -0.268443 -0.645 119 76 86
0.247474 -0.269691 -0.648 116 73 83
0.476691 -0.232234 -0.558 180 140 130
0.477754 -0.232234 -0.558 180 140 130
0.466804 -0.226408 -0.544 181 141 131
0.46182 -0.223494 -0.537 180 144 130
0.456809 -0.220581 -0.53 180 144 130
0.454364 -0.218916 -0.526 182 145 127
0.452769 -0.217668 -0.523 182 145 127
0.450294 -0.216003 -0.519 183 144 127
0.448674 -0.214754 -0.516 183 144 127
0.447914 -0.213922 -0.514 184 145 128
0.447147 -0.21309 -0.512 184 145 128
0.447247 -0.212673 -0.511 184 146 127
0.446466 -0.211841 -0.509 185 147 128
0.445677 -0.211009 -0.507 185 147 126
0.445762 -0.210592 -0.506 188 150 129
0.445843 -0.210176 -0.505 194 153 135
0.44592 -0.20976 -0.504 194 153 135
0.445993 -0.209344 -0.503 191 150 130
0.446063 -0.208928 -0.502 189 148 128
0.446129 -0.208511 -0.501 189 148 128
0.44619 -0.208095 -0.5 191 150 130
0.446249 -0.207679 -0.499 194 151 132
0.447199 -0.207679 -0.499 193 150 131
0.44815 -0.207679 -0.499 192 150 128
0.4482 -0.207263 -0.498 191 149 127
0.448247 -0.206847 -0.497 190 148 126
0.449193 -0.206847 -0.497 189 147 125
0.449234 -0.20643 -0.496 191 146 127
0.450179 -0.20643 -0.496 191 146 127
0.450214 -0.206014 -0.495 194 149 128
0.450246 -0.205598 -0.494 194 149 128
0.451187 -0.205598 -0.494 194 149 128
0.452128 -0.205598 -0.494 193 148 127
0.452151 -0.205182 -0.493 193 148 127
0.45309 -0.205182 -0.493 193 148 127
0.45403 -0.205182 -0.493 193 146 126
0.454969 -0.205182 -0.493 193 146 126
0.455908 -0.205182 -0.493 195 148 128
0.45592 -0.204766 -0.492 194 147 127
0.456857 -0.204766 -0.492 192 145 125
0.457794 -0.204766 -0.492 190 144 121
0.458731 -0.204766 -0.492 192 146 123
0.459669 -0.204766 -0.492 193 147 124
0.460606 -0.204766 -0.492 192 146 123
0.461543 -0.204766 -0.492 189 144 123
0.46248 -0.204766 -0.492 183 138 117
0.463417 -0.204766 -0.492 177 135 113
0.465298 -0.205182 -0.493 177 135 113
0.466237 -0.205182 -0.493 175 133 111
0.468124 -0.205598 -0.494 173 131 109
0.470014 -0.206014 -0.495 172 131 109
0.471909 -0.20643 -0.496 170 129 107
0.472853 -0.20643 -0.496 170 129 109
0.474753 -0.206847 -0.497 169 128 108
0.476657 -0.207263 -0.498 163 122 100
0.477606 -0.207263 -0.498 159 118 96
0.479515 -0.207679 -0.499 162 117 96
0.481429 -0.208095 -0.5 163 118 97
0.48431 -0.208928 -0.502 164 117 101
0.486233 -0.209344 -0.503 163 116 100
0.489129 -0.210176 -0.505 159 115 102
0.491061 -0.210592 -0.506 158 114 101
0.49397 -0.211425 -0.508 149 110 93
0.496886 -0.212257 -0.51 149 110 93
0.49981 -0.21309 -0.512 151 113 90
0.504697 -0.214754 -0.516 152 114 91
-0.386386 -0.269671 -0.645 248 250 237
-0.385157 -0.269671 -0.645 248 250 237
-0.383333 -0.269253 -0.644 248 250 237
-0.382107 -0.269253 -0.644 247 249 236
-0.38088 -0.269253 -0.644 248 250 237
-0.379653 -0.269253 -0.644 248 250 237
-0.378427 -0.269253 -0.644 249 251 238
-0.3772 -0.269253 -0.644 249 251 238
-0.376557 -0.269671 -0.645 250 252 239
-0.375329 -0.269671 -0.645 250 252 239
-0.3741 -0.269671 -0.645 250 252 239
-0.372871 -0.269671 -0.645 250 252 239
-0.371643 -0.269671 -0.645 250 252 239
-0.370414 -0.269671 -0.645 250 252 241
-0.369186 -0.269671 -0.645 249 251 240
-0.367957 -0.269671 -0.645 249 251 240
-0.366729 -0.269671 -0.645 249 251 240
-0.3655 -0.269671 -0.645 249 251 240
-0.364271 -0.269671 -0.645 249 251 240
-0.363043 -0.269671 -0.645 250 252 241
-0.361814 -0.269671 -0.645 249 251 240
-0.360586 -0.269671 -0.645 248 249 241
-0.359357 -0.269671 -0.645 248 249 241
-0.358129 -0.269671 -0.645 247 248 240
-0.357453 -0.27009 -0.646 247 248 240
-0.356223 -0.27009 -0.646 248 249 241
-0.354992 -0.27009 -0.646 248 249 241
-0.353762 -0.27009 -0.646 250 251 243
-0.352531 -0.27009 -0.646 250 251 243
-0.351301 -0.27009 -0.646 251 252 244
-0.35007 -0.27009 -0.646 251 252 244
-0.34884 -0.27009 -0.646 251 252 246
-0.34761 -0.27009 -0.646 251 252 246
-0.346379 -0.27009 -0.646 251 252 246
-0.345149 -0.27009 -0.646 252 253 247
-0.343918 -0.27009 -0.646 252 253 247
-0.342688 -0.27009 -0.646 252 253 247
-0.341457 -0.27009 -0.646 252 253 247
-0.340227 -0.27009 -0.646 252 253 247
-0.339521 -0.270508 -0.647 252 253 248
-0.338289 -0.270508 -0.647 253 254 249
-0.337056 -0.270508 -0.647 253 254 249
-0.335824 -0.270508 -0.647 253 254 249
-0.29854 -0.271344 -0.649 253 254 249
-0.297304 -0.271344 -0.649 253 254 249
-0.296068 -0.271344 -0.649 253 254 249
-0.294831 -0.271344 -0.649 253 254 249
-0.293595 -0.271344 -0.649 253 254 249
-0.292359 -0.271344 -0.649 253 254 249
-0.291123 -0.271344 -0.649 253 254 248
-0.289887 -0.271344 -0.649 253 254 248
-0.28865 -0.271344 -0.649 252 253 247
-0.287414 -0.271344 -0.649 252 253 247
-0.122811 -0.270926 -0.648 111 111 113
-0.121202 -0.27009 -0.646 110 110 112
-0.118857 -0.267581 -0.64 109 109 111
-0.115984 -0.263818 -0.631 109 110 112
-0.113145 -0.260055 -0.622 108 109 111
-0.1098 -0.255038 -0.61 108 109 113
-0.106679 -0.250439 -0.599 110 111 115
-0.104481 -0.24793 -0.593 110 111 115
-0.10248 -0.24584 -0.588 109 110 114
-0.10067 -0.244168 -0.584 107 108 112
-0.0993876 -0.24375 -0.583 105 106 110
-0.09794 -0.242913 -0.581 105 106 110
-0.0966667 -0.242495 -0.58 106 107 111
-0.0957267 -0.242913 -0.581 106 107 112
-0.0949457 -0.24375 -0.583 100 103 108
-0.0939962 -0.244168 -0.584 96 99 104
-0.0932019 -0.245004 -0.586 87 90 95
-0.0924 -0.24584 -0.588 69 72 77
-0.0914352 -0.246258 -0.589 67 68 73
-0.09062 -0.247094 -0.591 71 72 77
-0.0897971 -0.24793 -0.593 77 78 83
-0.0891162 -0.249185 -0.596 76 77 82
-0.0882762 -0.250021 -0.598 73 74 79
-0.0874286 -0.250857 -0.6 70 71 76
-0.0867171 -0.252111 -0.603 68 69 74
-0.0859943 -0.253366 -0.606 66 67 72
-0.08526 -0.25462 -0.609 65 64 70
-0.0843762 -0.255456 -0.611 63 62 68
-0.0834848 -0.256292 -0.613 64 63 69
-0.08272 -0.257547 -0.616 63 62 68
-0.0818114 -0.258383 -0.618 60 59 65
-0.0807648 -0.258801 -0.619 58 57 63
-0.0798429 -0.259637 -0.621 60 59 65
-0.0787867 -0.260055 -0.622 61 60 66
-0.0778514 -0.260891 -0.624 61 60 68
-0.0766629 -0.260891 -0.624 61 60 68
-0.0755952 -0.26131 -0.625 62 61 69
-0.0744048 -0.26131 -0.625 63 62 70
-0.0732143 -0.26131 -0.625 64 63 71
-0.072139 -0.261728 -0.626 66 65 73
-0.0709467 -0.261728 -0.626 68 67 75
-0.0698657 -0.262146 -0.627 70 69 77
-0.068781 -0.262564 -0.628 72 71 79
-0.0675848 -0.262564 -0.628 73 72 80
-0.0663886 -0.262564 -0.628 72 70 81
-0.0652962 -0.262982 -0.629 73 71 82
-0.0640981 -0.262982 -0.629 74 72 83
-0.063 -0.2634 -0.63 75 73 84
-0.0618 -0.2634 -0.63 75 73 84
-0.0606962 -0.263818 -0.631 75 73 84
-0.0594943 -0.263818 -0.631 75 73 84
-0.0583848 -0.264236 -0.632 75 73 84
-0.057181 -0.264236 -0.632 76 74 85
-0.0560657 -0.264654 -0.633 77 75 86
-0.05486 -0.264654 -0.633 76 74 85
-0.053739 -0.265072 -0.634 76 74 85
-0.0525314 -0.265072 -0.634 77 75 86
-0.0514048 -0.26549 -0.635 77 75 86
-0.0501952 -0.26549 -0.635 76 74 85
-0.0490629 -0.265909 -0.636 76 74 85
-0.0479267 -0.266327 -0.637 73 72 80
-0.0467133 -0.266327 -0.637 74 73 81
-0.0455714 -0.266745 -0.638 74 73 81
-0.0443562 -0.266745 -0.638 73 72 80
-0.0432086 -0.267163 -0.639 73 71 82
-0.0419914 -0.267163 -0.639 73 71 82
-0.0408381 -0.267581 -0.64 72 70 81
-0.039619 -0.267581 -0.64 71 69 80
-0.03846 -0.267999 -0.641 73 71 82
-0.0372971 -0.268417 -0.642 72 70 81
-0.0360743 -0.268417 -0.642 72 70 81
-0.0349057 -0.268835 -0.643 73 71 82
-0.0337333 -0.269253 -0.644 73 71 82
-0.0325571 -0.269671 -0.645 74 72 83
-0.0313771 -0.27009 -0.646 74 72 83
-0.0301933 -0.270508 -0.647 73 71 82
-0.0290057 -0.270926 -0.648 71 71 81
-0.0278143 -0.271344 -0.649 71 71 81
-0.026619 -0.271762 -0.65 71 71 81
0.134915 -0.267999 -0.641 207 147 146
0.1338 -0.2634 -0.63 211 151 150
0.132429 -0.258383 -0.618 206 156 157
0.132741 -0.25671 -0.614 207 157 158
0.132602 -0.254202 -0.608 203 148 151
0.13354 -0.253784 -0.607 194 139 142
0.134252 -0.252948 -0.605 198 135 120
0.134957 -0.252111 -0.603 191 128 113
0.136106 -0.252111 -0.603 174 118 105
0.137254 -0.252111 -0.603 161 105 92
0.138403 -0.252111 -0.603 161 105 92
0.13932 -0.251693 -0.602 190 120 118
0.140233 -0.251275 -0.601 211 141 139
0.141143 -0.250857 -0.6 207 147 146
0.142049 -0.250439 -0.599 209 149 148
0.14295 -0.250021 -0.598 206 152 150
0.143849 -0.249603 -0.597 208 154 152
0.1445 -0.248767 -0.595 209 156 152
0.145144 -0.24793 -0.593 205 152 148
0.146027 -0.247512 -0.592 208 150 146
0.146906 -0.247094 -0.591 204 146 142
0.147781 -0.246676 -0.59 199 145 135
0.148652 -0.246258 -0.589 194 140 130
0.14952 -0.24584 -0.588 181 127 115
0.15064 -0.24584 -0.588 176 122 110
0.15176 -0.24584 -0.588 193 140 126
0.15262 -0.245422 -0.587 212 159 145
0.153738 -0.245422 -0.587 206 147 143
0.154592 -0.245004 -0.586 209 150 146
0.155443 -0.244586 -0.585 207 148 144
0.156557 -0.244586 -0.585 206 147 143
0.157671 -0.244586 -0.585 201 141 140
0.158514 -0.244168 -0.584 204 144 143
0.159627 -0.244168 -0.584 205 145 144
0.160464 -0.24375 -0.583 199 139 138
0.161297 -0.243331 -0.582 199 142 135
0.162406 -0.243331 -0.582 197 140 133
0.163514 -0.243331 -0.582 193 136 125
0.164623 -0.243331 -0.582 191 134 123
0.165731 -0.243331 -0.582 189 133 118
0.16684 -0.243331 -0.582 188 132 117
0.167949 -0.243331 -0.582 185 129 112
0.169348 -0.24375 -0.583 182 126 109
0.170458 -0.24375 -0.583 183 127 112
0.171863 -0.244168 -0.584 178 122 107
0.172975 -0.244168 -0.584 175 117 105
0.174088 -0.244168 -0.584 166 108 96
0.1752 -0.244168 -0.584 167 107 96
0.176312 -0.244168 -0.584 158 98 87
0.177425 -0.244168 -0.584 157 95 84
0.178537 -0.244168 -0.584 193 131 120
0.17965 -0.244168 -0.584 208 144 135
0.180762 -0.244168 -0.584 209 145 136
0.181874 -0.244168 -0.584 209 145 136
0.182987 -0.244168 -0.584 212 147 141
0.183784 -0.24375 -0.583 213 148 142
0.184894 -0.24375 -0.583 212 149 142
0.186005 -0.24375 -0.583 208 145 138
0.186794 -0.243331 -0.582 206 147 139
0.187903 -0.243331 -0.582 206 147 139
0.189011 -0.243331 -0.582 201 143 132
0.19012 -0.243331 -0.582 198 140 129
0.191557 -0.24375 -0.583 193 135 123
0.192668 -0.24375 -0.583 191 133 121
0.19411 -0.244168 -0.584 190 132 120
0.195557 -0.244586 -0.585 183 125 113
0.197008 -0.245004 -0.586 177 119 107
0.198462 -0.245422 -0.587 177 119 107
0.19992 -0.24584 -0.588 179 121 110
0.201724 -0.246676 -0.59 175 117 106
0.203191 -0.247094 -0.591 170 111 103
0.205009 -0.24793 -0.593 163 104 96
0.206833 -0.248767 -0.595 160 102 91
0.208666 -0.249603 -0.597 153 95 84
0.210506 -0.250439 -0.599 153 95 84
0.212353 -0.251275 -0.601 146 88 77
0.214564 -0.25253 -0.604 135 85 86
0.216786 -0.253784 -0.607 131 81 82
0.21866 -0.25462 -0.609 126 80 83
0.221264 -0.256292 -0.613 123 77 80
0.223883 -0.257965 -0.617 121 76 83
0.226517 -0.259637 -0.621 120 75 82
0.229167 -0.26131 -0.625 112 69 79
0.2322 -0.2634 -0.63 109 66 76
0.234882 -0.265072 -0.634 116 74 86
0.237207 -0.266327 -0.637 117 75 87
0.23842 -0.266327 -0.637 117 75 87
0.241138 -0.267999 -0.641 118 76 90
0.243871 -0.269671 -0.645 117 75 89
0.24624 -0.270926 -0.648 115 71 84
0.46354 -0.225353 -0.539 181 144 128
0.458533 -0.222427 -0.532 181 144 128
0.456091 -0.220754 -0.528 181 144 126
0.453634 -0.219082 -0.524 182 145 127
0.451162 -0.21741 -0.52 182 143 126
0.449544 -0.216155 -0.517 182 143 126
0.447914 -0.214901 -0.514 184 145 128
0.44802 -0.214483 -0.513 185 146 129
0.447247 -0.213647 -0.511 185 147 128
0.446466 -0.21281 -0.509 186 148 129
0.446556 -0.212392 -0.508 184 146 127
0.445762 -0.211556 -0.506 188 150 131
0.445843 -0.211138 -0.505 194 153 135
0.44592 -0.21072 -0.504 192 151 133
0.445993 -0.210302 -0.503 191 150 132
0.446063 -0.209884 -0.502 190 149 131
0.446129 -0.209466 -0.501 186 148 127
0.44619 -0.209048 -0.5 188 150 129
0.446249 -0.20863 -0.499 192 149 132
0.447199 -0.20863 -0.499 191 148 131
0.44815 -0.20863 -0.499 191 148 129
0.4482 -0.208211 -0.498 190 147 128
0.448247 -0.207793 -0.497 190 147 128
0.44829 -0.207375 -0.496 191 148 129
0.449234 -0.207375 -0.496 193 148 129
0.450179 -0.207375 -0.496 191 146 127
0.450214 -0.206957 -0.495 192 147 128
0.450246 -0.206539 -0.494 194 149 130
0.451187 -0.206539 -0.494 196 149 129
0.451212 -0.206121 -0.493 192 145 125
0.452151 -0.206121 -0.493 193 146 126
0.45309 -0.206121 -0.493 196 149 129
0.45403 -0.206121 -0.493 193 146 126
0.454969 -0.206121 -0.493 193 146 126
0.455908 -0.206121 -0.493 193 146 126
0.45592 -0.205703 -0.492 194 146 126
0.456857 -0.205703 -0.492 193 145 125
0.457794 -0.205703 -0.492 191 145 122
0.458731 -0.205703 -0.492 192 146 123
0.459669 -0.205703 -0.492 193 146 126
0.460606 -0.205703 -0.492 193 146 126
0.461543 -0.205703 -0.492 189 144 125
0.46248 -0.205703 -0.492 184 139 120
0.463417 -0.205703 -0.492 178 135 116
0.464354 -0.205703 -0.492 178 135 116
0.466237 -0.206121 -0.493 176 134 112
0.467176 -0.206121 -0.493 174 132 110
0.469065 -0.206539 -0.494 171 130 110
0.470957 -0.206957 -0.495 170 129 109
0.4719 -0.206957 -0.495 170 129 109
0.473798 -0.207375 -0.496 168 127 107
0.4757 -0.207793 -0.497 165 123 99
0.477606 -0.208211 -0.498 162 120 96
0.479515 -0.20863 -0.499 164 118 95
0.481429 -0.209048 -0.5 165 119 96
0.483346 -0.209466 -0.501 165 116 99
0.485267 -0.209884 -0.502 163 114 97
0.487191 -0.210302 -0.503 160 114 99
0.49009 -0.211138 -0.505 160 114 99
0.492997 -0.211974 -0.507 154 113 95
0.495911 -0.21281 -0.509 151 110 92
0.498833 -0.213647 -0.511 149 109 84
0.503719 -0.215319 -0.515 153 113 88
0.50764 -0.216573 -0.518 151 113 90
-0.39192 -0.27048 -0.644 248 250 237
-0.390693 -0.27048 -0.644 248 250 237
-0.389467 -0.27048 -0.644 248 250 239
-0.38824 -0.27048 -0.644 248 250 239
-0.387013 -0.27048 -0.644 248 250 239
-0.385787 -0.27048 -0.644 248 250 239
-0.38456 -0.27048 -0.644 248 250 237
-0.383333 -0.27048 -0.644 248 250 237
-0.382107 -0.27048 -0.644 248 250 237
-0.38088 -0.27048 -0.644 248 250 237
-0.379653 -0.27048 -0.644 248 250 239
-0.378427 -0.27048 -0.644 249 251 240
-0.3772 -0.27048 -0.644 249 251 240
-0.375973 -0.27048 -0.644 250 252 241
-0.374747 -0.27048 -0.644 250 252 239
-0.37352 -0.27048 -0.644 251 253 240
-0.372293 -0.27048 -0.644 250 252 241
-0.370414 -0.2709 -0.645 250 252 241
-0.369186 -0.2709 -0.645 250 252 241
-0.367957 -0.2709 -0.645 250 252 241
-0.366729 -0.2709 -0.645 250 252 241
-0.3655 -0.2709 -0.645 250 252 241
-0.364271 -0.2709 -0.645 250 252 241
-0.363043 -0.2709 -0.645 251 252 244
-0.361814 -0.2709 -0.645 251 252 244
-0.360586 -0.2709 -0.645 250 251 243
-0.359357 -0.2709 -0.645 250 251 243
-0.358129 -0.2709 -0.645 250 251 243
-0.3569 -0.2709 -0.645 250 251 243
-0.355671 -0.2709 -0.645 250 251 243
-0.354443 -0.2709 -0.645 251 252 244
-0.34761 -0.27132 -0.646 251 252 246
-0.346379 -0.27132 -0.646 251 252 246
-0.345149 -0.27132 -0.646 251 252 246
-0.343918 -0.27132 -0.646 251 252 246
-0.342688 -0.27132 -0.646 251 252 246
-0.341457 -0.27132 -0.646 252 253 247
-0.340227 -0.27132 -0.646 252 253 247
-0.338996 -0.27132 -0.646 252 253 248
-0.337766 -0.27132 -0.646 252 253 248
-0.336535 -0.27132 -0.646 252 253 248
-0.291909 -0.27216 -0.648 253 254 249
-0.290674 -0.27216 -0.648 253 254 249
-0.28944 -0.27216 -0.648 253 254 249
-0.124429 -0.273 -0.65 111 112 114
-0.122811 -0.27216 -0.648 106 107 109
-0.121014 -0.2709 -0.645 107 108 112
-0.118671 -0.26838 -0.639 106 107 111
-0.116168 -0.26544 -0.632 106 107 111
-0.113145 -0.26124 -0.622 106 107 111
-0.1098 -0.2562 -0.61 107 108 112
-0.106679 -0.25158 -0.599 107 108 112
-0.104481 -0.24906 -0.593 106 107 111
-0.102306 -0.24654 -0.587 104 105 109
-0.100498 -0.24486 -0.583 102 103 108
-0.0992171 -0.24444 -0.582 101 102 107
-0.0977714 -0.2436 -0.58 101 102 107
-0.0965 -0.24318 -0.579 102 103 108
-0.0955619 -0.2436 -0.58 103 104 109
-0.0949457 -0.24486 -0.583 97 98 103
-0.0939962 -0.24528 -0.584 90 91 96
-0.0932019 -0.24612 -0.586 83 84 89
-0.0924 -0.24696 -0.588 68 69 74
-0.0915905 -0.2478 -0.59 66 67 72
-0.0907733 -0.24864 -0.592 76 77 82
-0.0899486 -0.24948 -0.594 80 81 86
-0.0891162 -0.25032 -0.596 79 80 85
-0.0882762 -0.25116 -0.598 77 77 85
-0.0875743 -0.25242 -0.601 75 75 83
-0.0868609 -0.25368 -0.604 72 72 80
-0.0859943 -0.25452 -0.606 69 69 77
-0.08526 -0.25578 -0.609 66 66 74
-0.0845143 -0.25704 -0.612 64 64 72
-0.083621 -0.25788 -0.614 65 64 72
-0.0828543 -0.25914 -0.617 63 62 70
-0.0819438 -0.25998 -0.619 60 59 67
-0.0808952 -0.2604 -0.62 59 58 66
-0.0799714 -0.26124 -0.622 60 59 67
-0.0789133 -0.26166 -0.623 60 59 67
-0.0778514 -0.26208 -0.624 59 58 66
-0.0767857 -0.2625 -0.625 59 58 66
-0.0757162 -0.26292 -0.626 62 61 69
-0.0745238 -0.26292 -0.626 62 61 69
-0.0734486 -0.26334 -0.627 62 61 69
-0.0722543 -0.26334 -0.627 63 62 70
-0.07106 -0.26334 -0.627 65 64 72
-0.0699771 -0.26376 -0.628 68 67 75
-0.068781 -0.26376 -0.628 70 69 77
-0.0676924 -0.26418 -0.629 70 69 77
-0.0664943 -0.26418 -0.629 70 68 79
-0.0654 -0.2646 -0.63 72 70 81
-0.0642 -0.2646 -0.63 73 71 82
-0.063 -0.2646 -0.63 74 72 83
-0.0618981 -0.26502 -0.631 74 72 83
-0.0606962 -0.26502 -0.631 74 72 83
-0.0595886 -0.26544 -0.632 74 72 83
-0.0583848 -0.26544 -0.632 75 73 84
-0.0572714 -0.26586 -0.633 75 73 84
-0.0560657 -0.26586 -0.633 76 74 85
-0.05486 -0.26586 -0.633 77 75 86
-0.053739 -0.26628 -0.634 77 75 86
-0.0525314 -0.26628 -0.634 78 76 87
-0.0514048 -0.2667 -0.635 78 76 87
-0.0502743 -0.26712 -0.636 76 74 85
-0.0490629 -0.26712 -0.636 76 74 85
-0.0479267 -0.26754 -0.637 74 73 81
-0.0467133 -0.26754 -0.637 74 73 81
-0.0455714 -0.26796 -0.638 74 73 81
-0.0444257 -0.26838 -0.639 73 72 80
-0.0432086 -0.26838 -0.639 73 71 82
-0.0420571 -0.2688 -0.64 72 70 81
-0.0408381 -0.2688 -0.64 72 70 81
-0.039681 -0.26922 -0.641 72 70 81
-0.03846 -0.26922 -0.641 73 71 82
-0.0372971 -0.26964 -0.642 73 71 82
-0.0361305 -0.27006 -0.643 73 71 82
-0.03496 -0.27048 -0.644 73 71 82
-0.0337857 -0.2709 -0.645 73 71 82
-0.0325571 -0.2709 -0.645 73 71 82
-0.0313771 -0.27132 -0.646 72 70 81
-0.0301933 -0.27174 -0.647 72 70 81
-0.0290057 -0.27216 -0.648 72 72 82
-0.0278143 -0.27258 -0.649 72 72 82
-0.026619 -0.273 -0.65 71 71 81
0.134946 -0.27174 -0.647 204 149 146
0.134073 -0.26754 -0.637 213 155 151
0.13295 -0.26292 -0.626 211 153 149
0.131786 -0.2583 -0.615 200 151 147
0.132092 -0.25662 -0.611 203 154 150
0.132384 -0.25494 -0.607 200 150 143
0.1331 -0.2541 -0.605 191 141 134
0.133809 -0.25326 -0.603 198 135 126
0.134957 -0.25326 -0.603 189 126 117
0.13588 -0.25284 -0.602 179 111 108
0.137027 -0.25284 -0.602 179 111 108
0.138173 -0.25284 -0.602 176 108 105
0.139089 -0.25242 -0.601 201 146 143
0.14 -0.252 -0.6 205 150 147
0.140908 -0.25158 -0.599 205 150 147
0.141811 -0.25116 -0.598 206 151 148
0.142711 -0.25074 -0.597 208 153 150
0.143367 -0.2499 -0.595 208 153 150
0.144014 -0.24906 -0.593 209 151 147
0.144899 -0.24864 -0.592 209 151 147
0.14578 -0.24822 -0.591 209 151 147
0.146657 -0.2478 -0.59 206 148 144
0.14753 -0.24738 -0.589 199 142 135
0.1484 -0.24696 -0.588 189 132 125
0.149266 -0.24654 -0.587 190 131 125
0.150384 -0.24654 -0.587 204 145 139
0.151502 -0.24654 -0.587 211 152 146
0.15236 -0.24612 -0.586 205 146 140
0.153476 -0.24612 -0.586 207 149 145
0.154329 -0.2457 -0.585 208 150 146
0.155177 -0.24528 -0.584 202 145 138
0.15629 -0.24528 -0.584 190 133 126
0.157132 -0.24486 -0.583 189 130 124
0.158243 -0.24486 -0.583 198 139 133
0.15908 -0.24444 -0.582 200 143 136
0.159913 -0.24402 -0.581 199 142 135
0.16102 -0.24402 -0.581 198 141 132
0.162127 -0.24402 -0.581 194 137 128
0.163233 -0.24402 -0.581 192 133 125
0.16434 -0.24402 -0.581 187 128 120
0.165447 -0.24402 -0.581 189 129 121
0.16684 -0.24444 -0.582 191 131 123
0.167949 -0.24444 -0.582 183 124 116
0.169057 -0.24444 -0.582 180 121 113
0.170458 -0.24486 -0.583 179 119 108
0.171569 -0.24486 -0.583 173 113 102
0.172679 -0.24486 -0.583 169 109 98
0.17379 -0.24486 -0.583 167 107 96
0.1749 -0.24486 -0.583 159 99 88
0.17601 -0.24486 -0.583 163 103 92
0.177121 -0.24486 -0.583 190 130 120
0.178231 -0.24486 -0.583 204 144 134
0.179342 -0.24486 -0.583 209 151 140
0.180452 -0.24486 -0.583 209 151 140
0.181563 -0.24486 -0.583 210 152 141
0.18236 -0.24444 -0.582 206 146 138
0.183469 -0.24444 -0.582 204 144 136
0.18426 -0.24402 -0.581 207 147 139
0.185367 -0.24402 -0.581 201 141 133
0.186473 -0.24402 -0.581 196 137 129
0.187257 -0.2436 -0.58 199 140 132
0.188687 -0.24402 -0.581 200 143 132
0.189793 -0.24402 -0.581 200 143 132
0.191229 -0.24444 -0.582 194 136 124
0.192668 -0.24486 -0.583 192 134 122
0.193778 -0.24486 -0.583 189 130 116
0.195557 -0.2457 -0.585 182 123 109
0.197008 -0.24612 -0.586 179 117 104
0.198462 -0.24654 -0.587 176 114 101
0.19992 -0.24696 -0.588 178 116 103
0.201724 -0.2478 -0.59 175 113 100
0.203535 -0.24864 -0.592 167 109 98
0.205354 -0.24948 -0.594 160 102 91
0.206833 -0.2499 -0.595 156 99 90
0.209015 -0.25116 -0.598 154 97 88
0.210857 -0.252 -0.6 148 93 86
0.212707 -0.25284 -0.602 142 87 80
0.214919 -0.2541 -0.605 123 73 74
0.217143 -0.25536 -0.608 121 71 72
0.219378 -0.25662 -0.611 113 66 76
0.221986 -0.2583 -0.615 116 69 79
0.224609 -0.25998 -0.619 113 75 88
0.227247 -0.26166 -0.623 119 81 94
0.2299 -0.26334 -0.627 97 70 77
0.232937 -0.26544 -0.632 98 71 78
0.235623 -0.26712 -0.636 101 76 82
0.238324 -0.2688 -0.64 106 81 87
0.239543 -0.2688 -0.64 106 81 87
0.242267 -0.27048 -0.644 115 87 99
0.245006 -0.27216 -0.648 103 75 87
0.46526 -0.22722 -0.541 180 145 139
0.460257 -0.22428 -0.534 177 142 136
0.456955 -0.22218 -0.529 185 143 131
0.4545 -0.2205 -0.525 183 141 129
0.45203 -0.21882 -0.521 184 142 130
0.450413 -0.21756 -0.518 186 144 132
0.448786 -0.2163 -0.515 186 144 130
0.44802 -0.21546 -0.513 186 144 130
0.447247 -0.21462 -0.511 187 145 129
0.446466 -0.21378 -0.509 188 146 130
0.446556 -0.21336 -0.508 188 147 129
0.445762 -0.21252 -0.506 190 149 131
0.445843 -0.2121 -0.505 193 150 133
0.44592 -0.21168 -0.504 193 150 133
0.445993 -0.21126 -0.503 190 147 128
0.446063 -0.21084 -0.502 189 146 127
0.446129 -0.21042 -0.501 191 148 129
0.44619 -0.21 -0.5 190 147 128
0.446249 -0.20958 -0.499 193 150 131
0.447199 -0.20958 -0.499 189 146 127
0.44815 -0.20958 -0.499 189 146 127
0.4482 -0.20916 -0.498 190 147 128
0.448247 -0.20874 -0.497 192 147 128
0.44829 -0.20832 -0.496 193 148 129
0.449234 -0.20832 -0.496 194 149 130
0.449271 -0.2079 -0.495 193 148 129
0.450214 -0.2079 -0.495 193 148 129
0.450246 -0.20748 -0.494 193 148 129
0.451187 -0.20748 -0.494 192 147 128
0.451212 -0.20706 -0.493 191 146 127
0.452151 -0.20706 -0.493 192 145 127
0.452171 -0.20664 -0.492 192 145 127
0.453109 -0.20664 -0.492 192 145 127
0.454046 -0.20664 -0.492 192 145 127
0.454983 -0.20664 -0.492 192 145 127
0.45592 -0.20664 -0.492 188 145 128
0.456857 -0.20664 -0.492 189 146 129
0.456864 -0.20622 -0.491 188 146 124
0.457799 -0.20622 -0.491 187 145 123
0.458734 -0.20622 -0.491 189 144 123
0.45967 -0.20622 -0.491 189 144 123
0.460605 -0.20622 -0.491 190 145 124
0.46154 -0.20622 -0.491 187 142 121
0.462475 -0.20622 -0.491 179 136 117
0.464354 -0.20664 -0.492 178 135 116
0.465291 -0.20664 -0.492 175 133 111
0.467176 -0.20706 -0.493 174 132 110
0.468115 -0.20706 -0.493 175 130 109
0.470006 -0.20748 -0.494 174 129 108
0.4719 -0.2079 -0.495 174 129 108
0.472843 -0.2079 -0.495 173 128 107
0.474743 -0.20832 -0.496 168 126 104
0.476647 -0.20874 -0.497 164 122 100
0.478554 -0.20916 -0.498 159 118 96
0.480466 -0.20958 -0.499 159 118 96
0.482381 -0.21 -0.5 160 119 99
0.4843 -0.21042 -0.501 161 120 100
0.486223 -0.21084 -0.502 160 119 97
0.48912 -0.21168 -0.504 158 117 95
0.491052 -0.2121 -0.505 159 118 96
0.493963 -0.21294 -0.507 156 115 93
0.496881 -0.21378 -0.509 154 116 95
0.500785 -0.21504 -0.512 152 114 93
0.50568 -0.21672 -0.516 152 114 93
0.509609 -0.21798 -0.519 153 115 94
-0.391311 -0.271285 -0.643 247 249 236
-0.390087 -0.271285 -0.643 248 250 237
-0.388862 -0.271285 -0.643 248 250 239
-0.387637 -0.271285 -0.643 248 250 239
-0.386412 -0.271285 -0.643 248 250 239
-0.385188 -0.271285 -0.643 248 250 239
-0.383963 -0.271285 -0.643 248 250 237
-0.382738 -0.271285 -0.643 248 250 237
-0.381513 -0.271285 -0.643 248 250 237
-0.380289 -0.271285 -0.643 248 250 237
-0.375973 -0.271707 -0.644 250 252 241
-0.374747 -0.271707 -0.644 250 252 241
-0.37352 -0.271707 -0.644 251 253 242
-0.372293 -0.271707 -0.644 251 253 242
-0.371067 -0.271707 -0.644 251 253 242
-0.36984 -0.271707 -0.644 251 253 242
-0.368613 -0.271707 -0.644 251 253 242
-0.367387 -0.271707 -0.644 251 253 242
-0.36616 -0.271707 -0.644 251 253 242
-0.364933 -0.271707 -0.644 251 253 242
-0.363707 -0.271707 -0.644 251 253 242
-0.36248 -0.271707 -0.644 250 251 243
-0.361253 -0.271707 -0.644 250 251 243
-0.360027 -0.271707 -0.644 250 251 243
-0.3588 -0.271707 -0.644 250 251 243
-0.357573 -0.271707 -0.644 250 251 243
-0.356347 -0.271707 -0.644 250 251 243
-0.35512 -0.271707 -0.644 251 252 244
-0.353214 -0.272129 -0.645 251 252 244
-0.351986 -0.272129 -0.645 251 252 244
-0.350757 -0.272129 -0.645 251 252 244
-0.349529 -0.272129 -0.645 251 252 244
-0.3483 -0.272129 -0.645 251 252 246
-0.347071 -0.272129 -0.645 251 252 246
-0.345843 -0.272129 -0.645 251 252 246
-0.344614 -0.272129 -0.645 251 252 246
-0.343386 -0.272129 -0.645 251 252 246
-0.342157 -0.272129 -0.645 251 252 246
-0.340929 -0.272129 -0.645 252 253 247
-0.3397 -0.272129 -0.645 252 253 247
-0.338471 -0.272129 -0.645 252 253 248
-0.286971 -0.273394 -0.648 252 253 248
-0.285737 -0.273394 -0.648 252 253 247
-0.124237 -0.273816 -0.649 109 110 114
-0.122622 -0.272972 -0.647 103 104 108
-0.121014 -0.272129 -0.645 106 107 111
-0.118486 -0.269175 -0.638 104 105 109
-0.115984 -0.266222 -0.631 103 104 108
-0.113327 -0.262847 -0.623 102 103 107
-0.1098 -0.257362 -0.61 102 103 107
-0.106679 -0.252721 -0.599 102 103 107
-0.104481 -0.25019 -0.593 101 102 107
-0.102306 -0.247658 -0.587 99 100 105
-0.100498 -0.24597 -0.583 98 99 104
-0.0990467 -0.245127 -0.581 98 99 104
-0.0977714 -0.244705 -0.58 98 99 104
-0.0965 -0.244283 -0.579 99 100 105
-0.0955619 -0.244705 -0.58 99 100 104
-0.09462 -0.245127 -0.581 98 99 103
-0.0939962 -0.246392 -0.584 83 84 89
-0.0932019 -0.247236 -0.586 79 80 85
-0.0924 -0.24808 -0.588 67 68 73
-0.0915905 -0.248924 -0.59 67 68 73
-0.0907733 -0.249768 -0.592 80 81 86
-0.0899486 -0.250611 -0.594 81 82 87
-0.0892657 -0.251877 -0.597 81 82 87
-0.0884238 -0.252721 -0.599 80 80 88
-0.0875743 -0.253565 -0.601 78 78 86
-0.0868609 -0.25483 -0.604 74 74 82
-0.0861362 -0.256096 -0.607 71 71 79
-0.0854 -0.257362 -0.61 69 69 77
-0.0846524 -0.258628 -0.613 68 68 76
-0.0837571 -0.259471 -0.615 66 65 73
-0.0828543 -0.260315 -0.617 63 62 70
-0.0820762 -0.261581 -0.62 61 60 68
-0.0810257 -0.262003 -0.621 60 59 67
-0.0801 -0.262847 -0.623 60 59 67
-0.07904 -0.263269 -0.624 59 58 66
-0.0779762 -0.26369 -0.625 58 57 65
-0.0769086 -0.264112 -0.626 57 56 64
-0.0757162 -0.264112 -0.626 61 60 68
-0.0746429 -0.264534 -0.627 61 60 68
-0.0734486 -0.264534 -0.627 61 60 68
-0.0723695 -0.264956 -0.628 61 60 68
-0.0711733 -0.264956 -0.628 63 62 70
-0.0699771 -0.264956 -0.628 65 64 72
-0.0688905 -0.265378 -0.629 67 66 74
-0.0676924 -0.265378 -0.629 68 67 75
-0.0666 -0.2658 -0.63 70 68 79
-0.0654 -0.2658 -0.63 71 69 80
-0.0643019 -0.266222 -0.631 72 70 81
-0.0631 -0.266222 -0.631 73 71 82
-0.0618981 -0.266222 -0.631 74 72 83
-0.0607924 -0.266644 -0.632 74 72 83
-0.0595886 -0.266644 -0.632 74 72 83
-0.0584771 -0.267066 -0.633 74 72 83
-0.0572714 -0.267066 -0.633 75 73 84
-0.0560657 -0.267066 -0.633 75 73 84
-0.0549467 -0.267488 -0.634 76 74 85
-0.053739 -0.267488 -0.634 77 75 86
-0.0525314 -0.267488 -0.634 78 76 87
-0.0514048 -0.26791 -0.635 77 75 86
-0.0502743 -0.268331 -0.636 76 74 85
-0.0490629 -0.268331 -0.636 75 73 84
-0.0479267 -0.268753 -0.637 75 74 82
-0.0467133 -0.268753 -0.637 74 73 81
-0.0455714 -0.269175 -0.638 74 73 81
-0.0444257 -0.269597 -0.639 73 72 80
-0.0432086 -0.269597 -0.639 73 72 80
-0.0420571 -0.270019 -0.64 73 72 80
-0.0409019 -0.270441 -0.641 73 71 82
-0.039681 -0.270441 -0.641 73 71 82
-0.03852 -0.270863 -0.642 72 70 81
-0.0372971 -0.270863 -0.642 72 70 81
-0.0361305 -0.271285 -0.643 73 71 82
-0.03496 -0.271707 -0.644 73 71 82
-0.0337857 -0.272129 -0.645 72 70 81
-0.0326076 -0.27255 -0.646 71 69 80
-0.0314257 -0.272972 -0.647 71 69 80
-0.03024 -0.273394 -0.648 72 70 81
-0.0290057 -0.273394 -0.648 71 71 79
-0.0278143 -0.273816 -0.649 71 71 79
-0.026619 -0.274238 -0.65 70 70 78
0.134111 -0.271285 -0.643 203 150 146
0.133021 -0.266644 -0.632 209 154 151
0.131889 -0.262003 -0.621 208 153 150
0.131357 -0.258628 -0.613 203 154 150
0.13166 -0.25694 -0.609 196 147 143
0.132166 -0.255674 -0.606 200 147 141
0.13288 -0.25483 -0.604 199 146 140
0.133587 -0.253987 -0.602 196 134 123
0.134733 -0.253987 -0.602 186 124 113
0.135654 -0.253565 -0.601 172 109 102
0.136799 -0.253565 -0.601 172 109 102
0.137944 -0.253565 -0.601 192 129 122
0.138857 -0.253143 -0.6 204 146 144
0.139767 -0.252721 -0.599 203 145 143
0.140672 -0.252299 -0.598 202 144 142
0.141574 -0.251877 -0.597 204 146 144
0.142233 -0.251033 -0.595 207 149 147
0.143126 -0.250611 -0.594 207 149 147
0.143771 -0.249768 -0.592 207 149 145
0.144654 -0.249346 -0.591 208 150 146
0.145533 -0.248924 -0.59 211 153 149
0.146409 -0.248502 -0.589 202 144 140
0.14728 -0.24808 -0.588 199 140 136
0.148148 -0.247658 -0.587 202 143 139
0.149266 -0.247658 -0.587 208 149 143
0.150128 -0.247236 -0.586 213 154 148
0.151244 -0.247236 -0.586 211 152 146
0.1521 -0.246814 -0.585 206 147 141
0.153214 -0.246814 -0.585 205 148 141
0.154065 -0.246392 -0.584 205 148 141
0.154911 -0.24597 -0.583 202 143 137
0.155754 -0.245549 -0.582 195 136 130
0.156863 -0.245549 -0.582 194 135 127
0.1577 -0.245127 -0.581 196 137 129
0.158807 -0.245127 -0.581 196 137 129
0.159638 -0.244705 -0.58 196 137 129
0.160743 -0.244705 -0.58 197 138 130
0.161848 -0.244705 -0.58 195 136 128
0.162952 -0.244705 -0.58 193 133 123
0.164057 -0.244705 -0.58 187 127 117
0.165162 -0.244705 -0.58 188 128 118
0.166553 -0.245127 -0.581 189 129 119
0.16766 -0.245127 -0.581 183 125 114
0.169057 -0.245549 -0.582 180 122 111
0.170166 -0.245549 -0.582 174 114 103
0.171274 -0.245549 -0.582 169 109 98
0.172383 -0.245549 -0.582 165 105 94
0.17379 -0.24597 -0.583 158 98 87
0.1749 -0.24597 -0.583 156 96 85
0.17601 -0.24597 -0.583 192 132 121
0.176817 -0.245549 -0.582 214 156 145
0.177926 -0.245549 -0.582 210 152 141
0.179034 -0.245549 -0.582 210 152 141
0.180143 -0.245549 -0.582 210 152 141
0.18094 -0.245127 -0.581 207 149 138
0.182047 -0.245127 -0.581 204 144 134
0.183153 -0.245127 -0.581 203 143 133
0.183943 -0.244705 -0.58 204 144 136
0.185048 -0.244705 -0.58 199 139 131
0.186152 -0.244705 -0.58 191 132 124
0.187257 -0.244705 -0.58 192 133 125
0.188362 -0.244705 -0.58 197 140 131
0.189793 -0.245127 -0.581 197 140 131
0.1909 -0.245127 -0.581 194 136 125
0.192337 -0.245549 -0.582 189 131 120
0.193778 -0.24597 -0.583 189 129 118
0.195223 -0.246392 -0.584 181 121 110
0.197008 -0.247236 -0.586 177 115 102
0.198462 -0.247658 -0.587 174 112 99
0.20026 -0.248502 -0.589 171 111 100
0.201724 -0.248924 -0.59 170 110 99
0.203535 -0.249768 -0.592 165 107 96
0.205354 -0.250611 -0.594 161 103 92
0.207181 -0.251455 -0.596 157 100 93
0.209365 -0.252721 -0.599 154 97 90
0.211209 -0.253565 -0.601 145 92 86
0.21306 -0.254409 -0.603 139 86 80
0.215274 -0.255674 -0.606 123 78 83
0.217857 -0.257362 -0.61 116 71 76
0.220096 -0.258628 -0.613 113 67 78
0.222708 -0.260315 -0.617 113 67 78
0.225334 -0.262003 -0.621 104 70 86
0.228341 -0.264112 -0.626 133 99 115
0.231 -0.2658 -0.63 137 123 138
0.234043 -0.26791 -0.635 144 130 145
0.236734 -0.269597 -0.639 142 141 159
0.239813 -0.271707 -0.644 148 147 165
0.24104 -0.271707 -0.644 148 147 165
0.243395 -0.272972 -0.647 135 129 155
0.4687 -0.229938 -0.545 181 143 134
0.462843 -0.226563 -0.537 178 140 131
0.458683 -0.224031 -0.531 182 142 130
0.455366 -0.221922 -0.526 181 141 129
0.452897 -0.220234 -0.522 182 142 130
0.451283 -0.218969 -0.519 184 144 132
0.449657 -0.217703 -0.516 183 144 129
0.44802 -0.216437 -0.513 183 144 129
0.447247 -0.215593 -0.511 188 146 132
0.446466 -0.21475 -0.509 191 149 135
0.446556 -0.214328 -0.508 189 147 131
0.445762 -0.213484 -0.506 190 148 132
0.445843 -0.213062 -0.505 192 151 133
0.44592 -0.21264 -0.504 191 150 132
0.445993 -0.212218 -0.503 191 148 131
0.446063 -0.211796 -0.502 190 147 130
0.446129 -0.211374 -0.501 190 147 128
0.44619 -0.210952 -0.5 189 146 127
0.446249 -0.21053 -0.499 193 150 131
0.447199 -0.21053 -0.499 190 147 128
0.44815 -0.21053 -0.499 189 146 127
0.4482 -0.210109 -0.498 190 147 128
0.448247 -0.209687 -0.497 190 147 128
0.44829 -0.209265 -0.496 190 147 128
0.449234 -0.209265 -0.496 190 147 128
0.449271 -0.208843 -0.495 190 147 128
0.449305 -0.208421 -0.494 192 147 128
0.450246 -0.208421 -0.494 194 149 130
0.450273 -0.207999 -0.493 194 149 128
0.451212 -0.207999 -0.493 192 147 126
0.452151 -0.207999 -0.493 192 147 126
0.452171 -0.207577 -0.492 191 146 125
0.453109 -0.207577 -0.492 190 145 124
0.454046 -0.207577 -0.492 190 145 124
0.454983 -0.207577 -0.492 190 145 124
0.454993 -0.207155 -0.491 186 143 124
0.455929 -0.207155 -0.491 188 145 126
0.456864 -0.207155 -0.491 190 145 124
0.457799 -0.207155 -0.491 189 144 123
0.458734 -0.207155 -0.491 188 143 122
0.45967 -0.207155 -0.491 189 144 123
0.460605 -0.207155 -0.491 188 143 122
0.46154 -0.207155 -0.491 184 139 118
0.462475 -0.207155 -0.491 183 138 117
0.46341 -0.207155 -0.491 181 136 115
0.465291 -0.207577 -0.492 179 134 111
0.466229 -0.207577 -0.492 178 133 110
0.468115 -0.207999 -0.493 176 131 108
0.470006 -0.208421 -0.494 175 130 107
0.470947 -0.208421 -0.494 176 130 107
0.472843 -0.208843 -0.495 175 129 106
