ply
format ascii 1.0
comment Created by Open3D
element vertex 1273
property double x
property double y
property double z
property uchar red
property uchar green
property uchar blue
end_header
-0.259047 -0.2093 -0.637 239 241 238
-0.258238 -0.209629 -0.638 169 171 168
-0.257426 -0.209957 -0.639 125 125 123
-0.256209 -0.209957 -0.639 173 173 171
-0.254991 -0.209957 -0.639 171 171 169
-0.254171 -0.210286 -0.64 216 216 214
-0.253348 -0.210614 -0.641 249 249 247
-0.25252 -0.210943 -0.642 253 253 251
-0.251689 -0.211271 -0.643 255 255 253
-0.250853 -0.2116 -0.644 255 255 253
-0.250402 -0.212257 -0.646 252 252 250
-0.250329 -0.213243 -0.649 251 251 249
-0.145811 -0.212257 -0.646 189 187 175
-0.143462 -0.210614 -0.641 190 188 176
-0.141575 -0.209629 -0.638 190 188 176
-0.14036 -0.209629 -0.638 190 188 176
-0.138927 -0.2093 -0.637 190 188 176
-0.137713 -0.2093 -0.637 191 189 177
-0.136286 -0.208971 -0.636 191 189 177
-0.135074 -0.208971 -0.636 190 188 176
-0.133863 -0.208971 -0.636 192 190 178
-0.132651 -0.208971 -0.636 192 190 178
-0.131853 -0.209629 -0.638 193 191 179
-0.131048 -0.210286 -0.64 193 191 179
-0.130234 -0.210943 -0.642 193 191 179
-0.129212 -0.211271 -0.643 193 191 179
-0.128187 -0.2116 -0.644 193 191 179
-0.127354 -0.212257 -0.646 193 191 179
-0.126319 -0.212586 -0.647 193 191 179
-0.125473 -0.213243 -0.649 193 191 179
-0.124429 -0.213571 -0.65 193 191 179
-0.0338905 -0.212586 -0.647 67 67 79
-0.0325571 -0.211929 -0.645 63 62 76
-0.0312314 -0.211271 -0.643 68 67 81
-0.0299133 -0.210614 -0.641 69 69 81
-0.0286029 -0.209957 -0.639 69 69 81
-0.0273429 -0.209629 -0.638 69 68 82
-0.0260867 -0.2093 -0.637 70 69 83
-0.0248343 -0.208971 -0.636 71 70 84
-0.02366 -0.2093 -0.637 72 71 85
-0.0224467 -0.2093 -0.637 72 71 85
-0.0212333 -0.2093 -0.637 73 72 86
-0.0200829 -0.209957 -0.639 73 72 86
-0.0189248 -0.210614 -0.641 75 74 88
-0.0177314 -0.210943 -0.642 77 76 92
-0.01656 -0.2116 -0.644 77 76 92
-0.015381 -0.212257 -0.646 77 76 92
-0.0142162 -0.213243 -0.649 78 77 93
0.46035 -0.186629 -0.568 158 117 115
0.454933 -0.184 -0.56 163 122 116
0.4503 -0.1817 -0.553 169 128 122
0.446456 -0.179729 -0.547 169 127 115
0.443408 -0.178086 -0.542 172 130 118
0.44116 -0.176771 -0.538 176 133 116
0.438897 -0.175457 -0.534 179 136 119
0.437443 -0.174471 -0.531 184 139 120
0.437629 -0.174143 -0.53 187 142 123
0.436983 -0.173486 -0.528 192 144 124
0.437159 -0.173157 -0.527 193 145 125
0.4365 -0.1725 -0.525 191 143 123
0.436667 -0.172171 -0.524 193 145 125
0.437665 -0.172171 -0.524 192 145 125
0.437826 -0.171843 -0.523 193 146 126
0.437983 -0.171514 -0.522 194 147 127
0.438136 -0.171186 -0.521 193 146 126
0.439129 -0.171186 -0.521 193 145 125
0.440121 -0.171186 -0.521 193 145 125
0.440267 -0.170857 -0.52 194 146 126
0.441257 -0.170857 -0.52 197 149 129
0.441397 -0.170529 -0.519 197 149 129
0.441533 -0.1702 -0.518 197 149 129
0.44252 -0.1702 -0.518 196 148 128
0.44265 -0.169871 -0.517 198 150 128
0.443635 -0.169871 -0.517 199 151 129
0.44462 -0.169871 -0.517 202 151 130
0.444743 -0.169543 -0.516 203 152 131
0.445726 -0.169543 -0.516 203 155 133
0.446709 -0.169543 -0.516 204 156 134
0.447691 -0.169543 -0.516 201 153 131
0.448674 -0.169543 -0.516 198 150 128
0.448786 -0.169214 -0.515 196 148 126
0.449767 -0.169214 -0.515 199 151 129
0.450748 -0.169214 -0.515 201 153 131
0.451729 -0.169214 -0.515 199 151 129
0.45271 -0.169214 -0.515 198 150 128
0.45369 -0.169214 -0.515 196 148 126
0.454671 -0.169214 -0.515 197 146 125
0.455652 -0.169214 -0.515 196 145 124
0.456633 -0.169214 -0.515 193 142 121
0.457614 -0.169214 -0.515 192 141 120
0.458595 -0.169214 -0.515 191 140 119
0.459576 -0.169214 -0.515 189 138 117
0.460557 -0.169214 -0.515 179 131 108
0.462434 -0.169543 -0.516 170 122 99
0.463417 -0.169543 -0.516 173 125 103
0.4653 -0.169871 -0.517 175 127 105
0.467187 -0.1702 -0.518 173 125 103
0.468173 -0.1702 -0.518 169 121 99
0.46916 -0.1702 -0.518 169 121 99
0.471054 -0.170529 -0.519 168 121 101
0.472952 -0.170857 -0.52 165 118 98
0.474854 -0.171186 -0.521 163 116 98
0.47676 -0.171514 -0.522 164 117 99
0.47867 -0.171843 -0.523 164 119 100
0.4815 -0.1725 -0.525 163 118 99
0.483419 -0.172829 -0.526 163 117 101
0.485342 -0.173157 -0.527 161 115 99
-0.299776 -0.214479 -0.649 253 254 249
-0.29716 -0.213488 -0.646 253 254 249
-0.295013 -0.212827 -0.644 253 254 249
-0.292418 -0.211835 -0.641 253 253 251
-0.290289 -0.211174 -0.639 253 253 251
-0.287262 -0.209852 -0.635 253 253 251
-0.286052 -0.209852 -0.635 253 254 249
-0.284843 -0.209852 -0.635 253 254 249
-0.283187 -0.209522 -0.634 254 255 250
-0.281534 -0.209191 -0.633 254 255 250
-0.280329 -0.209191 -0.633 253 253 251
-0.279123 -0.209191 -0.633 252 252 250
-0.277478 -0.208861 -0.632 252 252 250
-0.276274 -0.208861 -0.632 251 251 249
-0.27507 -0.208861 -0.632 249 250 245
-0.273867 -0.208861 -0.632 250 251 246
-0.272663 -0.208861 -0.632 251 253 250
-0.271889 -0.209191 -0.633 250 252 249
-0.270683 -0.209191 -0.633 249 251 246
-0.269477 -0.209191 -0.633 252 254 249
-0.268271 -0.209191 -0.633 253 255 250
-0.267488 -0.209522 -0.634 251 253 248
-0.26628 -0.209522 -0.634 251 253 250
-0.26549 -0.209852 -0.635 254 255 253
-0.264281 -0.209852 -0.635 254 255 253
-0.263071 -0.209852 -0.635 254 255 253
-0.262274 -0.210183 -0.636 253 255 252
-0.261473 -0.210513 -0.637 254 255 253
-0.26026 -0.210513 -0.637 250 252 249
-0.259453 -0.210844 -0.638 249 251 248
-0.258643 -0.211174 -0.639 244 246 243
-0.257426 -0.211174 -0.639 125 125 123
-0.256209 -0.211174 -0.639 164 164 162
-0.25539 -0.211505 -0.64 163 163 161
-0.254569 -0.211835 -0.641 158 158 156
-0.253743 -0.212166 -0.642 217 217 215
-0.252913 -0.212496 -0.643 248 248 246
-0.25208 -0.212827 -0.644 252 252 250
-0.251243 -0.213157 -0.645 254 254 252
-0.251177 -0.214149 -0.648 251 251 249
-0.250714 -0.21481 -0.65 251 251 249
-0.146037 -0.213818 -0.647 189 187 175
-0.143686 -0.212166 -0.642 190 188 176
-0.141797 -0.211174 -0.639 190 188 176
-0.14036 -0.210844 -0.638 190 188 176
-0.138927 -0.210513 -0.637 190 188 176
-0.137713 -0.210513 -0.637 190 188 176
-0.1365 -0.210513 -0.637 191 189 177
-0.135074 -0.210183 -0.636 190 188 176
-0.133863 -0.210183 -0.636 192 190 178
-0.132651 -0.210183 -0.636 193 191 179
-0.131853 -0.210844 -0.638 193 191 179
-0.131048 -0.211505 -0.64 194 192 180
-0.130234 -0.212166 -0.642 194 192 180
-0.129212 -0.212496 -0.643 194 192 180
-0.128386 -0.213157 -0.645 194 192 180
-0.127354 -0.213488 -0.646 193 191 179
-0.126319 -0.213818 -0.647 193 190 181
-0.125473 -0.214479 -0.649 192 189 180
-0.124429 -0.21481 -0.65 193 190 181
-0.0365238 -0.21481 -0.65 70 70 82
-0.0351229 -0.213818 -0.647 69 68 82
-0.033681 -0.212496 -0.643 65 64 78
-0.0323552 -0.211835 -0.641 66 65 79
-0.0310371 -0.211174 -0.639 62 61 75
-0.0297267 -0.210513 -0.637 70 69 83
-0.0285133 -0.210513 -0.637 70 69 83
-0.0272571 -0.210183 -0.636 69 68 82
-0.0260048 -0.209852 -0.635 69 68 82
-0.0247952 -0.209852 -0.635 70 69 83
-0.0236229 -0.210183 -0.636 71 70 84
-0.0224114 -0.210183 -0.636 72 71 87
-0.0212333 -0.210513 -0.637 73 72 86
-0.0200829 -0.211174 -0.639 73 72 86
-0.0189248 -0.211835 -0.641 75 74 88
-0.0177314 -0.212166 -0.642 77 76 92
-0.01656 -0.212827 -0.644 77 76 92
-0.0154048 -0.213818 -0.647 77 76 92
-0.0142162 -0.214479 -0.649 78 77 93
0.453557 -0.184075 -0.557 169 130 123
0.448905 -0.181762 -0.55 164 124 112
0.445044 -0.179779 -0.544 168 128 116
0.44198 -0.178127 -0.539 174 133 115
0.440541 -0.177135 -0.536 178 137 119
0.43909 -0.176144 -0.533 185 140 121
0.437629 -0.175152 -0.53 187 142 123
0.436983 -0.174491 -0.528 190 142 122
0.437159 -0.174161 -0.527 193 145 125
0.4365 -0.1735 -0.525 192 145 125
0.436667 -0.17317 -0.524 192 145 125
0.437665 -0.17317 -0.524 191 144 124
0.437826 -0.172839 -0.523 192 145 125
0.437983 -0.172509 -0.522 194 147 127
0.438136 -0.172178 -0.521 193 146 126
0.439129 -0.172178 -0.521 193 145 125
0.440121 -0.172178 -0.521 193 145 125
0.440267 -0.171848 -0.52 194 146 126
0.441257 -0.171848 -0.52 195 147 127
0.441397 -0.171517 -0.519 195 147 127
0.441533 -0.171187 -0.518 193 145 125
0.44252 -0.171187 -0.518 192 144 124
0.44265 -0.170856 -0.517 194 146 126
0.443635 -0.170856 -0.517 198 150 130
0.44462 -0.170856 -0.517 201 150 131
0.444743 -0.170526 -0.516 201 150 131
0.445726 -0.170526 -0.516 201 153 133
0.446709 -0.170526 -0.516 203 155 135
0.447691 -0.170526 -0.516 201 153 131
0.448674 -0.170526 -0.516 198 150 128
0.448786 -0.170195 -0.515 198 150 128
0.449767 -0.170195 -0.515 201 153 131
0.450748 -0.170195 -0.515 203 155 133
0.451729 -0.170195 -0.515 200 152 130
0.45271 -0.170195 -0.515 197 149 127
0.45369 -0.170195 -0.515 197 149 127
0.454671 -0.170195 -0.515 197 149 127
0.455652 -0.170195 -0.515 196 148 126
0.456633 -0.170195 -0.515 193 145 123
0.457614 -0.170195 -0.515 191 143 121
0.458595 -0.170195 -0.515 188 140 118
0.459576 -0.170195 -0.515 186 138 116
0.460557 -0.170195 -0.515 184 136 113
0.461538 -0.170195 -0.515 177 129 106
0.463417 -0.170526 -0.516 179 131 108
0.4644 -0.170526 -0.516 178 130 107
0.466285 -0.170856 -0.517 173 125 103
0.46727 -0.170856 -0.517 169 121 99
0.468254 -0.170856 -0.517 169 121 99
0.470147 -0.171187 -0.518 168 122 99
0.472043 -0.171517 -0.519 166 120 97
0.473943 -0.171848 -0.52 164 117 97
0.475847 -0.172178 -0.521 164 117 97
0.477754 -0.172509 -0.522 164 117 99
0.479666 -0.172839 -0.523 164 117 99
0.481581 -0.17317 -0.524 163 117 101
0.484421 -0.17383 -0.526 161 115 99
0.487269 -0.174491 -0.528 159 113 97
0.490124 -0.175152 -0.53 158 112 96
-0.299 -0.216048 -0.65 253 254 249
-0.296388 -0.21505 -0.647 253 254 249
-0.294243 -0.214386 -0.645 253 253 251
-0.291651 -0.213389 -0.642 253 253 251
-0.289071 -0.212391 -0.639 253 253 251
-0.286953 -0.211727 -0.637 253 254 249
-0.28574 -0.211727 -0.637 253 254 249
-0.28408 -0.211394 -0.636 253 254 249
-0.282424 -0.211062 -0.635 253 254 249
-0.280771 -0.21073 -0.634 255 255 253
-0.279123 -0.210397 -0.633 255 255 253
-0.277917 -0.210397 -0.633 255 255 253
-0.276711 -0.210397 -0.633 255 255 253
-0.275506 -0.210397 -0.633 253 254 249
-0.2743 -0.210397 -0.633 252 253 248
-0.273094 -0.210397 -0.633 254 255 253
-0.271889 -0.210397 -0.633 253 255 252
-0.270683 -0.210397 -0.633 253 255 250
-0.269903 -0.21073 -0.634 254 255 251
-0.268695 -0.21073 -0.634 254 255 251
-0.267488 -0.21073 -0.634 254 255 251
-0.2667 -0.211062 -0.635 254 255 253
-0.26549 -0.211062 -0.635 254 255 253
-0.264697 -0.211394 -0.636 254 255 253
-0.263486 -0.211394 -0.636 254 255 253
-0.262687 -0.211727 -0.637 254 255 253
-0.261473 -0.211727 -0.637 254 255 253
-0.260669 -0.212059 -0.638 251 253 250
-0.25986 -0.212391 -0.639 249 251 248
-0.258643 -0.212391 -0.639 244 246 243
-0.257829 -0.212724 -0.64 178 178 176
-0.25701 -0.213056 -0.641 123 123 121
-0.25579 -0.213056 -0.641 151 151 149
-0.255363 -0.213721 -0.643 162 162 160
-0.254533 -0.214053 -0.644 157 157 155
-0.2537 -0.214386 -0.645 206 206 204
-0.252863 -0.214718 -0.646 243 243 241
-0.252411 -0.215383 -0.648 248 248 246
-0.251952 -0.216048 -0.65 251 253 250
-0.146037 -0.21505 -0.647 190 186 177
-0.143686 -0.213389 -0.642 191 187 178
-0.141797 -0.212391 -0.639 191 187 178
-0.14036 -0.212059 -0.638 191 187 178
-0.138927 -0.211727 -0.637 191 187 178
-0.137713 -0.211727 -0.637 191 187 178
-0.1365 -0.211727 -0.637 191 187 178
-0.135287 -0.211727 -0.637 191 187 178
-0.133863 -0.211394 -0.636 194 190 179
-0.13286 -0.211727 -0.637 194 190 179
-0.131853 -0.212059 -0.638 195 191 180
-0.131048 -0.212724 -0.64 195 191 180
-0.130234 -0.213389 -0.642 195 191 180
-0.129212 -0.213721 -0.643 196 192 181
-0.128386 -0.214386 -0.645 195 191 180
-0.127354 -0.214718 -0.646 195 191 180
-0.126514 -0.215383 -0.648 193 190 181
-0.125473 -0.215715 -0.649 193 190 181
-0.124429 -0.216048 -0.65 193 190 181
-0.039 -0.216048 -0.65 71 70 78
-0.0376457 -0.215383 -0.648 67 67 79
-0.0362429 -0.214386 -0.645 67 67 79
-0.0349057 -0.213721 -0.643 62 61 75
-0.0335238 -0.212724 -0.64 64 63 77
-0.0322038 -0.212059 -0.638 60 62 75
-0.03094 -0.211727 -0.637 61 63 76
-0.02968 -0.211394 -0.636 70 69 85
-0.0284238 -0.211062 -0.635 69 68 84
-0.0272143 -0.211062 -0.635 69 68 82
-0.0260048 -0.211062 -0.635 69 68 82
-0.0247952 -0.211062 -0.635 70 69 83
-0.0236229 -0.211394 -0.636 71 70 84
-0.0224114 -0.211394 -0.636 72 71 87
-0.0212333 -0.211727 -0.637 73 72 88
-0.0200829 -0.212391 -0.639 73 72 88
-0.0189248 -0.213056 -0.641 75 74 90
-0.0177314 -0.213389 -0.642 77 76 92
-0.0165857 -0.214386 -0.645 77 76 92
-0.0154048 -0.21505 -0.647 77 76 92
-0.0142381 -0.216048 -0.65 77 76 92
0.457629 -0.186798 -0.562 165 130 124
0.45217 -0.184139 -0.554 163 125 112
0.447498 -0.181812 -0.547 168 130 117
0.44362 -0.179818 -0.541 173 132 114
0.441363 -0.178489 -0.537 176 135 117
0.439914 -0.177491 -0.534 185 140 121
0.438454 -0.176494 -0.531 187 142 123
0.43781 -0.17583 -0.529 188 141 121
0.437159 -0.175165 -0.527 191 144 124
0.4365 -0.1745 -0.525 191 144 124
0.436667 -0.174168 -0.524 190 143 123
0.437665 -0.174168 -0.524 191 144 124
0.437826 -0.173835 -0.523 192 145 125
0.437983 -0.173503 -0.522 192 145 125
0.438136 -0.17317 -0.521 192 145 125
0.439129 -0.17317 -0.521 193 146 126
0.440121 -0.17317 -0.521 193 146 126
0.440267 -0.172838 -0.52 193 146 126
0.441257 -0.172838 -0.52 195 147 127
0.441397 -0.172506 -0.519 195 147 127
0.441533 -0.172173 -0.518 194 146 126
0.44252 -0.172173 -0.518 192 144 124
0.44265 -0.171841 -0.517 193 145 125
0.443635 -0.171841 -0.517 197 149 129
0.44376 -0.171509 -0.516 199 151 131
0.444743 -0.171509 -0.516 198 150 130
0.445726 -0.171509 -0.516 200 152 132
0.445843 -0.171176 -0.515 201 153 133
0.446824 -0.171176 -0.515 200 152 132
0.447805 -0.171176 -0.515 199 151 131
0.448786 -0.171176 -0.515 200 152 132
0.449767 -0.171176 -0.515 203 155 135
0.449872 -0.170844 -0.514 204 156 134
0.450851 -0.170844 -0.514 201 153 131
0.45183 -0.170844 -0.514 199 151 129
0.45281 -0.170844 -0.514 198 150 128
0.453789 -0.170844 -0.514 196 148 126
0.454768 -0.170844 -0.514 194 146 124
0.455747 -0.170844 -0.514 194 146 124
0.456726 -0.170844 -0.514 192 144 122
0.457705 -0.170844 -0.514 189 141 119
0.458684 -0.170844 -0.514 188 140 118
0.460557 -0.171176 -0.515 185 137 114
0.461538 -0.171176 -0.515 183 135 112
0.462519 -0.171176 -0.515 182 134 111
0.4644 -0.171509 -0.516 178 130 107
0.465383 -0.171509 -0.516 172 124 102
0.46727 -0.171841 -0.517 171 123 101
0.468254 -0.171841 -0.517 171 123 101
0.469239 -0.171841 -0.517 168 120 100
0.471133 -0.172173 -0.518 166 118 98
0.473031 -0.172506 -0.519 165 118 98
0.474933 -0.172838 -0.52 164 117 97
0.476839 -0.17317 -0.521 164 117 99
0.478749 -0.173503 -0.522 163 116 98
0.480662 -0.173835 -0.523 162 115 99
0.482579 -0.174168 -0.524 162 115 99
0.485423 -0.174832 -0.526 160 114 98
0.489199 -0.17583 -0.529 159 113 97
0.49206 -0.176494 -0.531 154 111 95
-0.295611 -0.216617 -0.648 253 253 251
-0.293469 -0.215949 -0.646 253 253 251
-0.290881 -0.214946 -0.643 253 253 251
-0.288755 -0.214277 -0.641 253 253 251
-0.286637 -0.213609 -0.639 253 253 251
-0.284973 -0.213274 -0.638 255 255 253
-0.283313 -0.21294 -0.637 254 254 252
-0.281657 -0.212606 -0.636 254 254 252
-0.280005 -0.212271 -0.635 254 254 252
-0.278795 -0.212271 -0.635 253 253 251
-0.277586 -0.212271 -0.635 253 253 251
-0.276376 -0.212271 -0.635 254 254 252
-0.275167 -0.212271 -0.635 254 254 252
-0.273957 -0.212271 -0.635 254 255 253
-0.272748 -0.212271 -0.635 254 255 253
-0.271538 -0.212271 -0.635 254 255 251
-0.270329 -0.212271 -0.635 254 255 251
-0.269543 -0.212606 -0.636 254 255 251
-0.268331 -0.212606 -0.636 254 255 251
-0.26712 -0.212606 -0.636 254 255 253
-0.266327 -0.21294 -0.637 254 255 253
-0.265113 -0.21294 -0.637 254 255 253
-0.2639 -0.21294 -0.637 254 255 253
-0.263099 -0.213274 -0.638 254 255 253
-0.262294 -0.213609 -0.639 254 255 253
-0.261077 -0.213609 -0.639 254 255 253
-0.260267 -0.213943 -0.64 254 255 253
-0.259048 -0.213943 -0.64 252 254 251
-0.258231 -0.214277 -0.641 235 235 233
-0.257411 -0.214611 -0.642 178 178 176
-0.256588 -0.214946 -0.643 103 103 101
-0.25576 -0.21528 -0.644 121 121 119
-0.254929 -0.215614 -0.645 150 150 148
-0.254487 -0.216283 -0.647 161 161 159
-0.253646 -0.216617 -0.648 181 181 179
-0.25319 -0.217286 -0.65 200 200 198
-0.146489 -0.216951 -0.649 192 188 179
-0.143686 -0.214611 -0.642 191 187 178
-0.141797 -0.213609 -0.639 192 188 179
-0.14036 -0.213274 -0.638 193 189 180
-0.138927 -0.21294 -0.637 192 188 179
-0.137713 -0.21294 -0.637 192 188 179
-0.1365 -0.21294 -0.637 192 188 179
-0.135287 -0.21294 -0.637 193 189 180
-0.134073 -0.21294 -0.637 194 190 179
-0.13286 -0.21294 -0.637 194 190 179
-0.13206 -0.213609 -0.639 195 191 180
-0.131048 -0.213943 -0.64 195 191 180
-0.130234 -0.214611 -0.642 195 191 180
-0.129212 -0.214946 -0.643 196 192 181
-0.128386 -0.215614 -0.645 196 192 181
-0.127354 -0.215949 -0.646 196 192 181
-0.126514 -0.216617 -0.648 193 190 181
-0.125473 -0.216951 -0.649 194 191 182
-0.0401762 -0.216951 -0.649 74 72 83
-0.03876 -0.215949 -0.646 72 70 81
-0.0372971 -0.214611 -0.642 67 65 78
-0.0359619 -0.213943 -0.64 69 67 80
-0.0346343 -0.213274 -0.638 65 64 78
-0.0333143 -0.212606 -0.636 55 54 68
-0.0322038 -0.213274 -0.638 60 62 75
-0.03094 -0.21294 -0.637 61 63 76
-0.02968 -0.212606 -0.636 70 69 85
-0.0284238 -0.212271 -0.635 69 68 84
-0.0272143 -0.212271 -0.635 69 68 82
-0.0259638 -0.211937 -0.634 69 68 82
-0.0247952 -0.212271 -0.635 70 69 85
-0.0236229 -0.212606 -0.636 71 70 86
-0.0224114 -0.212606 -0.636 73 72 88
-0.0212333 -0.21294 -0.637 73 72 88
-0.0201143 -0.213943 -0.64 74 73 91
-0.0189543 -0.214611 -0.642 75 74 92
-0.017759 -0.214946 -0.643 76 75 91
-0.0165857 -0.215614 -0.645 77 76 92
-0.0154286 -0.216617 -0.648 77 76 94
-0.0142381 -0.217286 -0.65 78 77 95
0.457629 -0.187869 -0.562 165 130 124
0.45217 -0.185194 -0.554 163 125 112
0.447498 -0.182854 -0.547 168 130 117
0.44362 -0.180849 -0.541 173 132 114
0.441363 -0.179511 -0.537 176 135 117
0.439914 -0.178509 -0.534 185 140 121
0.43928 -0.17784 -0.532 186 140 124
0.43781 -0.176837 -0.529 185 138 120
0.437989 -0.176503 -0.528 189 142 124
0.437331 -0.175834 -0.526 191 144 126
0.4375 -0.1755 -0.525 190 143 125
0.437665 -0.175166 -0.524 192 145 127
0.437826 -0.174831 -0.523 193 146 128
0.437983 -0.174497 -0.522 192 145 127
0.438136 -0.174163 -0.521 193 146 128
0.439129 -0.174163 -0.521 196 149 129
0.440121 -0.174163 -0.521 196 149 129
0.440267 -0.173829 -0.52 197 150 130
0.441257 -0.173829 -0.52 197 150 130
0.441397 -0.173494 -0.519 196 149 129
0.441533 -0.17316 -0.518 197 149 129
0.441666 -0.172826 -0.517 196 148 128
0.44265 -0.172826 -0.517 195 147 127
0.442777 -0.172491 -0.516 196 148 128
0.44376 -0.172491 -0.516 199 151 131
0.444743 -0.172491 -0.516 199 151 131
0.445726 -0.172491 -0.516 198 150 130
0.445843 -0.172157 -0.515 200 152 132
0.446824 -0.172157 -0.515 200 152 132
0.447805 -0.172157 -0.515 200 152 132
0.448786 -0.172157 -0.515 201 153 133
0.448893 -0.171823 -0.514 202 154 134
0.449872 -0.171823 -0.514 202 154 134
0.450851 -0.171823 -0.514 201 153 133
0.45183 -0.171823 -0.514 202 154 132
0.45281 -0.171823 -0.514 198 150 128
0.453789 -0.171823 -0.514 193 145 123
0.454768 -0.171823 -0.514 191 143 121
0.455747 -0.171823 -0.514 193 145 123
0.456726 -0.171823 -0.514 193 145 123
0.457705 -0.171823 -0.514 191 143 121
0.458684 -0.171823 -0.514 190 142 120
0.459663 -0.171823 -0.514 189 138 117
0.460642 -0.171823 -0.514 189 138 117
0.462519 -0.172157 -0.515 182 134 112
0.4635 -0.172157 -0.515 177 129 107
0.465383 -0.172491 -0.516 172 124 104
0.466366 -0.172491 -0.516 175 127 107
0.467349 -0.172491 -0.516 175 127 107
0.468331 -0.172491 -0.516 171 123 103
0.470224 -0.172826 -0.517 169 121 101
0.47212 -0.17316 -0.518 166 119 101
0.47402 -0.173494 -0.519 165 118 100
0.475924 -0.173829 -0.52 165 118 102
0.477831 -0.174163 -0.521 164 117 101
0.479743 -0.174497 -0.522 161 115 99
0.481658 -0.174831 -0.523 160 114 98
0.4845 -0.1755 -0.525 161 115 100
0.48735 -0.176169 -0.527 160 114 99
0.491133 -0.177171 -0.53 157 111 96
-0.295286 -0.218524 -0.65 253 253 251
-0.292238 -0.217179 -0.646 253 253 251
-0.290107 -0.216507 -0.644 253 253 251
-0.288431 -0.21617 -0.643 253 253 251
-0.286313 -0.215498 -0.641 253 253 251
-0.284648 -0.215162 -0.64 253 253 251
-0.282986 -0.214826 -0.639 253 253 251
-0.281328 -0.21449 -0.638 253 253 251
-0.280112 -0.21449 -0.638 253 253 251
-0.27846 -0.214153 -0.637 253 253 251
-0.277247 -0.214153 -0.637 253 253 251
-0.276033 -0.214153 -0.637 253 253 251
-0.27482 -0.214153 -0.637 253 253 251
-0.273607 -0.214153 -0.637 253 253 251
-0.272821 -0.21449 -0.638 253 253 251
-0.271606 -0.21449 -0.638 253 253 251
-0.27039 -0.21449 -0.638 253 253 251
-0.269175 -0.21449 -0.638 253 253 251
-0.26796 -0.21449 -0.638 253 253 251
-0.267163 -0.214826 -0.639 253 253 251
-0.265946 -0.214826 -0.639 254 254 252
-0.265143 -0.215162 -0.64 253 253 251
-0.264336 -0.215498 -0.641 254 254 252
-0.263115 -0.215498 -0.641 253 253 251
-0.262303 -0.215834 -0.642 251 251 249
-0.260267 -0.215162 -0.64 254 255 253
-0.259452 -0.215498 -0.641 248 250 247
-0.258634 -0.215834 -0.642 248 248 248
-0.257812 -0.21617 -0.643 237 237 237
-0.257386 -0.216843 -0.645 163 163 163
-0.256554 -0.217179 -0.646 77 77 77
-0.256114 -0.217851 -0.648 81 81 81
-0.255273 -0.218188 -0.649 150 150 150
-0.254429 -0.218524 -0.65 210 210 208
-0.14391 -0.21617 -0.643 190 187 178
-0.141797 -0.214826 -0.639 191 188 179
-0.14036 -0.21449 -0.638 193 190 181
-0.138927 -0.214153 -0.637 192 189 180
-0.137713 -0.214153 -0.637 192 189 180
-0.1365 -0.214153 -0.637 193 190 181
-0.135287 -0.214153 -0.637 193 190 181
-0.134073 -0.214153 -0.637 192 190 178
-0.13286 -0.214153 -0.637 193 191 179
-0.13206 -0.214826 -0.639 195 193 181
-0.131048 -0.215162 -0.64 195 193 181
-0.130234 -0.215834 -0.642 196 194 182
-0.129212 -0.21617 -0.643 196 194 182
-0.128386 -0.216843 -0.645 195 193 181
-0.127354 -0.217179 -0.646 194 192 180
-0.126514 -0.217851 -0.648 194 191 182
-0.125473 -0.218188 -0.649 194 191 182
-0.0427143 -0.218524 -0.65 68 68 78
-0.0412848 -0.217515 -0.647 67 67 77
-0.0399286 -0.216843 -0.645 69 67 80
-0.03852 -0.215834 -0.642 70 68 81
-0.0372971 -0.215834 -0.642 67 65 78
-0.0359619 -0.215162 -0.64 69 67 80
-0.0346343 -0.21449 -0.638 65 64 78
-0.0333143 -0.213817 -0.636 55 54 68
-0.0320524 -0.213481 -0.635 63 65 78
-0.0308429 -0.213481 -0.635 62 64 77
-0.0295867 -0.213145 -0.634 69 68 84
-0.0283343 -0.212809 -0.633 68 67 83
-0.0271286 -0.212809 -0.633 69 68 82
-0.0259229 -0.212809 -0.633 70 69 83
-0.0247562 -0.213145 -0.634 70 69 83
-0.0235857 -0.213481 -0.635 71 70 84
-0.0224114 -0.213817 -0.636 73 72 88
-0.0212667 -0.21449 -0.638 73 72 88
-0.0201143 -0.215162 -0.64 74 73 91
-0.0189543 -0.215834 -0.642 75 74 92
-0.0177867 -0.216507 -0.644 76 75 91
-0.0166114 -0.217179 -0.646 76 75 91
-0.0154286 -0.217851 -0.648 77 76 92
-0.0142381 -0.218524 -0.65 77 76 92
0.462514 -0.190956 -0.568 164 131 124
0.455434 -0.187594 -0.558 162 126 114
0.449952 -0.184905 -0.55 167 131 119
0.44608 -0.182888 -0.544 172 130 114
0.443007 -0.181207 -0.539 174 132 116
0.440738 -0.179862 -0.535 185 139 123
0.43928 -0.178853 -0.532 186 140 124
0.43781 -0.177845 -0.529 185 138 120
0.437989 -0.177509 -0.528 189 142 124
0.437331 -0.176836 -0.526 191 144 126
0.4375 -0.1765 -0.525 190 143 125
0.437665 -0.176164 -0.524 192 145 127
0.437826 -0.175828 -0.523 193 146 128
0.437983 -0.175491 -0.522 192 145 127
0.438136 -0.175155 -0.521 193 146 128
0.439129 -0.175155 -0.521 196 149 129
0.440121 -0.175155 -0.521 196 149 129
0.440267 -0.174819 -0.52 197 150 130
0.441257 -0.174819 -0.52 197 150 130
0.441397 -0.174483 -0.519 195 148 130
0.441533 -0.174147 -0.518 196 148 128
0.441666 -0.17381 -0.517 195 147 127
0.441794 -0.173474 -0.516 194 146 126
0.442777 -0.173474 -0.516 194 146 126
0.44376 -0.173474 -0.516 195 148 128
0.443881 -0.173138 -0.515 196 149 129
0.444862 -0.173138 -0.515 197 150 130
0.445843 -0.173138 -0.515 199 152 132
0.446824 -0.173138 -0.515 200 152 132
0.446935 -0.172802 -0.514 201 153 133
0.447914 -0.172802 -0.514 201 153 133
0.448893 -0.172802 -0.514 201 153 133
0.448997 -0.172466 -0.513 201 153 133
0.449974 -0.172466 -0.513 200 152 132
0.450951 -0.172466 -0.513 201 153 133
0.451929 -0.172466 -0.513 198 150 130
0.452906 -0.172466 -0.513 192 144 124
0.453883 -0.172466 -0.513 190 142 122
0.45486 -0.172466 -0.513 192 144 124
0.455837 -0.172466 -0.513 192 144 124
0.456814 -0.172466 -0.513 192 141 122
0.457791 -0.172466 -0.513 192 141 122
0.458769 -0.172466 -0.513 193 142 123
0.459746 -0.172466 -0.513 190 139 120
0.461621 -0.172802 -0.514 182 134 114
0.4626 -0.172802 -0.514 178 130 110
0.464481 -0.173138 -0.515 174 125 108
0.465462 -0.173138 -0.515 177 128 111
0.466443 -0.173138 -0.515 177 128 111
0.468331 -0.173474 -0.516 173 126 108
0.469314 -0.173474 -0.516 172 125 107
0.471209 -0.17381 -0.517 167 120 104
0.473107 -0.174147 -0.518 167 120 104
0.475009 -0.174483 -0.519 165 119 103
0.476914 -0.174819 -0.52 164 118 102
0.478824 -0.175155 -0.521 162 116 101
0.480737 -0.175491 -0.522 161 115 100
0.483577 -0.176164 -0.524 160 114 99
0.486425 -0.176836 -0.526 160 114 99
0.48928 -0.177509 -0.528 158 112 97
-0.293595 -0.219424 -0.649 253 253 251
-0.291909 -0.219086 -0.648 253 253 251
-0.289777 -0.21841 -0.646 253 253 251
-0.287653 -0.217733 -0.644 253 253 251
-0.285982 -0.217395 -0.643 253 253 251
-0.284314 -0.217057 -0.642 253 253 251
-0.28265 -0.216719 -0.641 253 253 251
-0.28099 -0.216381 -0.64 253 253 251
-0.279771 -0.216381 -0.64 253 253 251
-0.278552 -0.216381 -0.64 253 253 251
-0.277333 -0.216381 -0.64 253 253 251
-0.276114 -0.216381 -0.64 253 253 251
-0.274895 -0.216381 -0.64 253 253 251
-0.273676 -0.216381 -0.64 253 253 251
-0.272457 -0.216381 -0.64 253 253 251
-0.271662 -0.216719 -0.641 253 253 251
-0.270441 -0.216719 -0.641 253 253 251
-0.26922 -0.216719 -0.641 253 253 251
-0.267999 -0.216719 -0.641 253 253 251
-0.266778 -0.216719 -0.641 252 252 250
-0.265971 -0.217057 -0.642 252 252 250
-0.265161 -0.217395 -0.643 253 253 251
-0.264347 -0.217733 -0.644 251 251 249
-0.262303 -0.217057 -0.642 251 251 249
-0.261487 -0.217395 -0.643 255 255 253
-0.260667 -0.217733 -0.644 253 253 251
-0.259843 -0.218071 -0.645 254 254 252
-0.259015 -0.21841 -0.646 253 253 251
-0.258184 -0.218748 -0.647 236 236 234
-0.257746 -0.219424 -0.649 174 174 172
-0.256905 -0.219762 -0.65 158 158 156
-0.144357 -0.218071 -0.645 191 191 183
-0.142019 -0.216381 -0.64 189 186 179
-0.14036 -0.215705 -0.638 193 190 183
-0.138927 -0.215367 -0.637 191 188 181
-0.137497 -0.215029 -0.636 190 187 180
-0.1365 -0.215367 -0.637 191 188 179
-0.135287 -0.215367 -0.637 190 187 178
-0.134073 -0.215367 -0.637 194 192 180
-0.133069 -0.215705 -0.638 194 192 180
-0.13206 -0.216043 -0.639 197 191 177
-0.131048 -0.216381 -0.64 198 192 178
-0.130031 -0.216719 -0.641 199 193 181
-0.129212 -0.217395 -0.643 200 194 182
-0.128187 -0.217733 -0.644 197 193 182
-0.127354 -0.21841 -0.646 196 192 181
-0.126514 -0.219086 -0.648 197 194 187
-0.125473 -0.219424 -0.649 192 189 182
-0.0438171 -0.219086 -0.648 71 72 77
-0.0427143 -0.219762 -0.65 68 68 78
-0.0412848 -0.218748 -0.647 67 67 77
-0.0399286 -0.218071 -0.645 69 67 80
-0.03852 -0.217057 -0.642 70 68 81
-0.0370648 -0.215705 -0.638 66 64 78
-0.0357933 -0.215367 -0.637 62 60 74
-0.0344714 -0.21469 -0.635 62 61 75
-0.0332095 -0.214352 -0.634 64 63 77
-0.0319514 -0.214014 -0.633 54 56 69
-0.0307457 -0.214014 -0.633 59 61 74
-0.0294933 -0.213676 -0.632 69 68 84
-0.0283343 -0.214014 -0.633 68 67 83
-0.0271286 -0.214014 -0.633 69 68 82
-0.0259229 -0.214014 -0.633 70 69 83
-0.0247562 -0.214352 -0.634 70 69 83
-0.0235857 -0.21469 -0.635 72 71 85
-0.0224467 -0.215367 -0.637 73 72 88
-0.0212667 -0.215705 -0.638 73 72 88
-0.0201143 -0.216381 -0.64 73 72 88
-0.0189838 -0.217395 -0.643 74 73 89
-0.0178143 -0.218071 -0.645 76 75 91
-0.0166371 -0.218748 -0.647 76 75 91
-0.0154524 -0.219424 -0.649 76 75 91
0.468214 -0.194405 -0.575 160 127 120
0.459515 -0.190348 -0.563 160 123 114
0.453225 -0.187305 -0.554 165 128 119
0.44772 -0.1846 -0.546 170 128 116
0.44465 -0.18291 -0.541 172 130 118
0.442386 -0.181557 -0.537 182 136 121
0.440106 -0.180205 -0.533 184 138 123
0.438638 -0.17919 -0.53 185 136 121
0.438818 -0.178852 -0.529 189 140 125
0.438163 -0.178176 -0.527 191 144 126
0.4375 -0.1775 -0.525 191 144 126
0.437665 -0.177162 -0.524 193 144 127
0.437826 -0.176824 -0.523 194 145 128
0.437983 -0.176486 -0.522 194 145 128
0.438136 -0.176148 -0.521 197 148 131
0.438286 -0.17581 -0.52 198 151 133
0.439276 -0.17581 -0.52 198 151 133
0.440267 -0.17581 -0.52 198 151 133
0.441257 -0.17581 -0.52 196 149 131
0.441397 -0.175471 -0.519 195 148 130
0.441533 -0.175133 -0.518 196 148 128
0.441666 -0.174795 -0.517 195 147 127
0.441794 -0.174457 -0.516 194 146 126
0.442777 -0.174457 -0.516 194 146 126
0.44376 -0.174457 -0.516 195 148 128
0.443881 -0.174119 -0.515 196 149 129
0.444862 -0.174119 -0.515 197 150 130
0.445843 -0.174119 -0.515 199 152 132
0.446824 -0.174119 -0.515 200 152 132
0.446935 -0.173781 -0.514 201 153 133
0.447914 -0.173781 -0.514 200 153 135
0.448893 -0.173781 -0.514 199 152 134
0.448997 -0.173443 -0.513 200 151 134
0.449974 -0.173443 -0.513 200 151 134
0.450951 -0.173443 -0.513 199 151 131
0.451929 -0.173443 -0.513 197 149 129
0.452906 -0.173443 -0.513 193 145 125
0.453883 -0.173443 -0.513 192 144 124
0.45486 -0.173443 -0.513 196 145 126
0.455837 -0.173443 -0.513 194 143 124
0.456814 -0.173443 -0.513 189 138 119
0.457791 -0.173443 -0.513 189 138 119
0.458769 -0.173443 -0.513 191 142 125
0.459746 -0.173443 -0.513 187 138 121
0.460723 -0.173443 -0.513 181 132 115
0.4626 -0.173781 -0.514 180 131 114
0.463579 -0.173781 -0.514 175 126 109
0.465462 -0.174119 -0.515 177 128 111
0.466443 -0.174119 -0.515 177 128 111
0.467424 -0.174119 -0.515 172 125 109
0.469314 -0.174457 -0.516 171 124 108
0.470297 -0.174457 -0.516 170 124 108
0.472193 -0.174795 -0.517 169 123 107
0.474093 -0.175133 -0.518 166 120 105
0.475997 -0.175471 -0.519 164 118 103
0.477905 -0.17581 -0.52 161 118 102
0.479816 -0.176148 -0.521 159 116 100
0.481731 -0.176486 -0.522 158 115 99
0.4855 -0.1775 -0.525 157 114 98
0.488353 -0.178176 -0.527 156 113 97
-0.291123 -0.22066 -0.649 253 253 251
-0.28944 -0.22032 -0.648 253 253 251
-0.287761 -0.21998 -0.647 253 253 251
-0.285643 -0.2193 -0.645 253 253 251
-0.283973 -0.21896 -0.644 253 253 251
-0.282308 -0.21862 -0.643 253 253 251
-0.281083 -0.21862 -0.643 253 253 251
-0.279858 -0.21862 -0.643 253 253 251
-0.278633 -0.21862 -0.643 253 253 251
-0.276977 -0.21828 -0.642 253 253 251
-0.275754 -0.21828 -0.642 253 253 251
-0.274959 -0.21862 -0.643 253 253 251
-0.273734 -0.21862 -0.643 253 253 251
-0.27251 -0.21862 -0.643 253 253 251
-0.271285 -0.21862 -0.643 253 253 251
-0.27048 -0.21896 -0.644 253 253 251
-0.269253 -0.21896 -0.644 253 253 251
-0.268027 -0.21896 -0.644 254 254 252
-0.2668 -0.21896 -0.644 253 253 251
-0.265986 -0.2193 -0.645 252 252 250
-0.264347 -0.21896 -0.644 251 251 249
-0.26312 -0.21896 -0.644 251 251 249
-0.2623 -0.2193 -0.645 254 254 252
-0.261476 -0.21964 -0.646 250 250 248
-0.261051 -0.22032 -0.648 250 250 248
-0.260218 -0.22066 -0.649 253 253 251
-0.259381 -0.221 -0.65 255 255 253
-0.144581 -0.21964 -0.646 198 198 190
-0.142463 -0.21828 -0.642 188 188 180
-0.1408 -0.2176 -0.64 190 190 182
-0.139145 -0.21692 -0.638 191 188 181
-0.137497 -0.21624 -0.636 189 186 179
-0.1365 -0.21658 -0.637 190 187 178
-0.135287 -0.21658 -0.637 191 188 179
-0.134073 -0.21658 -0.637 195 193 181
-0.133069 -0.21692 -0.638 195 193 181
-0.13206 -0.21726 -0.639 196 192 180
-0.131048 -0.2176 -0.64 196 192 180
-0.130031 -0.21794 -0.641 198 192 180
-0.129212 -0.21862 -0.643 199 193 181
-0.128187 -0.21896 -0.644 198 194 182
-0.127354 -0.21964 -0.646 198 194 182
-0.126319 -0.21998 -0.647 197 194 187
-0.12528 -0.22032 -0.648 194 191 184
-0.124429 -0.221 -0.65 195 192 183
-0.0438171 -0.22032 -0.648 71 72 77
-0.04232 -0.21896 -0.644 72 72 80
-0.0409657 -0.21828 -0.642 66 66 74
-0.039619 -0.2176 -0.64 67 65 76
-0.03828 -0.21692 -0.638 67 65 76
-0.0368905 -0.2159 -0.635 68 66 80
-0.0356248 -0.21556 -0.634 68 66 80
-0.0343629 -0.21522 -0.633 68 65 84
-0.0331048 -0.21488 -0.632 69 66 85
-0.031901 -0.21488 -0.632 69 66 85
-0.0306486 -0.21454 -0.631 70 67 86
-0.0294467 -0.21454 -0.631 69 69 81
-0.0282895 -0.21488 -0.632 68 68 80
-0.0271286 -0.21522 -0.633 68 68 80
-0.0259229 -0.21522 -0.633 69 69 81
-0.0247562 -0.21556 -0.634 70 70 82
-0.0236229 -0.21624 -0.636 72 72 84
-0.0224467 -0.21658 -0.637 73 72 86
-0.0213 -0.21726 -0.639 73 72 86
-0.0201457 -0.21794 -0.641 74 73 87
-0.0189838 -0.21862 -0.643 74 73 87
-0.0178143 -0.2193 -0.645 75 74 90
-0.0166371 -0.21998 -0.647 75 74 90
-0.0154286 -0.22032 -0.648 76 75 91
-0.0142381 -0.221 -0.65 77 76 92
0.456497 -0.18972 -0.558 163 126 118
0.451 -0.187 -0.55 167 124 115
0.447116 -0.18496 -0.544 170 127 118
0.44321 -0.18292 -0.538 180 132 120
0.441757 -0.1819 -0.535 183 135 123
0.439466 -0.18054 -0.531 186 137 123
0.438818 -0.17986 -0.529 190 141 127
0.438994 -0.17952 -0.528 189 142 124
0.438333 -0.17884 -0.526 189 142 124
0.4385 -0.1785 -0.525 192 143 126
0.438663 -0.17816 -0.524 193 144 127
0.437983 -0.17748 -0.522 195 146 129
0.438136 -0.17714 -0.521 197 148 131
0.438286 -0.1768 -0.52 196 149 131
0.439276 -0.1768 -0.52 196 149 131
0.440267 -0.1768 -0.52 194 147 129
0.441257 -0.1768 -0.52 198 151 133
0.441397 -0.17646 -0.519 196 149 131
0.441533 -0.17612 -0.518 196 148 128
0.441666 -0.17578 -0.517 196 148 128
0.441794 -0.17544 -0.516 197 149 129
0.442777 -0.17544 -0.516 197 149 129
0.4429 -0.1751 -0.515 196 149 129
0.443881 -0.1751 -0.515 198 151 131
0.444862 -0.1751 -0.515 197 150 132
0.445843 -0.1751 -0.515 199 152 134
0.446824 -0.1751 -0.515 199 152 134
0.446935 -0.17476 -0.514 200 153 135
0.447914 -0.17476 -0.514 200 153 135
0.448893 -0.17476 -0.514 199 152 134
0.448997 -0.17442 -0.513 200 151 134
0.449974 -0.17442 -0.513 200 151 134
0.450951 -0.17442 -0.513 199 151 131
0.451929 -0.17442 -0.513 197 149 129
0.452906 -0.17442 -0.513 193 145 125
0.453883 -0.17442 -0.513 192 144 124
0.45486 -0.17442 -0.513 196 145 126
0.455837 -0.17442 -0.513 194 143 124
0.456814 -0.17442 -0.513 189 138 119
0.457791 -0.17442 -0.513 189 138 119
0.458769 -0.17442 -0.513 189 142 126
0.459746 -0.17442 -0.513 186 139 123
0.460723 -0.17442 -0.513 183 134 117
0.4617 -0.17442 -0.513 179 130 113
0.462677 -0.17442 -0.513 175 128 110
0.464558 -0.17476 -0.514 174 127 109
0.466443 -0.1751 -0.515 173 128 109
0.467424 -0.1751 -0.515 173 128 109
0.468405 -0.1751 -0.515 171 126 107
0.470297 -0.17544 -0.516 166 123 104
0.47128 -0.17544 -0.516 166 123 104
0.473178 -0.17578 -0.517 165 122 103
0.47508 -0.17612 -0.518 164 121 102
0.476986 -0.17646 -0.519 162 120 106
0.478895 -0.1768 -0.52 160 118 104
0.480809 -0.17714 -0.521 156 116 106
0.48365 -0.17782 -0.523 154 114 104
0.4865 -0.1785 -0.525 157 120 104
-0.289095 -0.222238 -0.65 253 253 251
-0.287414 -0.221896 -0.649 253 253 251
-0.285296 -0.221212 -0.647 253 253 251
-0.284064 -0.221212 -0.647 253 253 251
-0.282394 -0.22087 -0.646 253 253 251
-0.281164 -0.22087 -0.646 253 253 253
-0.2795 -0.220529 -0.645 253 253 253
-0.278271 -0.220529 -0.645 253 253 251
-0.277043 -0.220529 -0.645 253 253 251
-0.275814 -0.220529 -0.645 253 253 251
-0.274586 -0.220529 -0.645 253 253 251
-0.273781 -0.22087 -0.646 253 253 251
-0.27255 -0.22087 -0.646 253 253 251
-0.27132 -0.22087 -0.646 253 253 251
-0.270508 -0.221212 -0.647 253 253 251
-0.269275 -0.221212 -0.647 252 252 250
-0.268043 -0.221212 -0.647 252 252 250
-0.267223 -0.221554 -0.648 252 252 250
-0.265168 -0.22087 -0.646 251 251 249
-0.264346 -0.221212 -0.647 253 253 251
-0.26352 -0.221554 -0.648 254 254 252
-0.26269 -0.221896 -0.649 251 251 249
-0.261857 -0.222238 -0.65 254 254 252
-0.145476 -0.222238 -0.65 213 212 207
-0.142685 -0.219845 -0.643 196 196 188
-0.1408 -0.218819 -0.64 192 192 184
-0.138927 -0.217793 -0.637 194 191 182
-0.137497 -0.217451 -0.636 193 190 181
-0.136286 -0.217451 -0.636 192 189 180
-0.135074 -0.217451 -0.636 192 189 180
-0.133863 -0.217451 -0.636 195 192 183
-0.13286 -0.217793 -0.637 196 193 184
-0.131853 -0.218135 -0.638 197 193 182
-0.130843 -0.218477 -0.639 196 192 181
-0.129829 -0.218819 -0.64 199 193 181
-0.12881 -0.219161 -0.641 200 194 182
-0.127988 -0.219845 -0.643 199 195 183
-0.127157 -0.220529 -0.645 199 195 183
-0.126124 -0.22087 -0.646 198 195 186
-0.125087 -0.221212 -0.647 196 193 184
-0.124046 -0.221554 -0.648 194 191 182
-0.0448429 -0.220529 -0.645 71 71 79
-0.0434114 -0.219503 -0.642 73 73 81
-0.0419914 -0.218477 -0.639 69 69 77
-0.0405829 -0.217451 -0.636 70 70 78
-0.0392476 -0.216768 -0.634 68 66 77
-0.03798 -0.216426 -0.633 67 65 76
-0.0366581 -0.215742 -0.631 67 65 79
-0.0354562 -0.215742 -0.631 68 66 80
-0.0342 -0.2154 -0.63 69 66 83
-0.033 -0.2154 -0.63 69 66 83
-0.0318 -0.2154 -0.63 70 67 84
-0.0306 -0.2154 -0.63 70 67 84
-0.0294 -0.2154 -0.63 69 69 81
-0.0282448 -0.215742 -0.631 69 69 81
-0.0270857 -0.216084 -0.632 69 69 81
-0.0259229 -0.216426 -0.633 69 69 81
-0.0247562 -0.216768 -0.634 70 70 82
-0.0236229 -0.217451 -0.636 71 71 83
-0.0224819 -0.218135 -0.638 72 71 85
-0.0213333 -0.218819 -0.64 73 72 86
-0.0201771 -0.219503 -0.642 74 73 87
-0.0190133 -0.220187 -0.644 74 73 87
-0.0178419 -0.22087 -0.646 75 74 90
-0.0166371 -0.221212 -0.647 76 75 91
-0.0154524 -0.221896 -0.649 76 75 91
-0.0142381 -0.222238 -0.65 77 76 92
0.460588 -0.192492 -0.563 158 124 115
0.45428 -0.189415 -0.554 161 127 115
0.44876 -0.18668 -0.546 166 132 120
0.444857 -0.184629 -0.54 175 137 124
0.442583 -0.183261 -0.536 175 137 124
0.440293 -0.181893 -0.532 180 137 121
0.439648 -0.18121 -0.53 186 143 127
0.438994 -0.180526 -0.528 190 141 124
0.438333 -0.179842 -0.526 189 140 123
0.4385 -0.1795 -0.525 190 143 125
0.438663 -0.179158 -0.524 192 145 127
0.438822 -0.178816 -0.523 195 148 130
0.438136 -0.178132 -0.521 195 148 130
0.439129 -0.178132 -0.521 196 148 128
0.440121 -0.178132 -0.521 196 148 128
0.440267 -0.17779 -0.52 196 148 128
0.440409 -0.177449 -0.519 197 149 129
0.441397 -0.177449 -0.519 199 151 131
0.441533 -0.177107 -0.518 196 149 129
0.441666 -0.176765 -0.517 196 149 129
0.441794 -0.176423 -0.516 199 152 132
0.442777 -0.176423 -0.516 194 147 127
0.4429 -0.176081 -0.515 199 151 129
0.443881 -0.176081 -0.515 196 148 126
0.443998 -0.175739 -0.514 200 151 134
0.444977 -0.175739 -0.514 201 152 135
0.445956 -0.175739 -0.514 198 151 133
0.446935 -0.175739 -0.514 199 152 134
0.447914 -0.175739 -0.514 200 153 135
0.44802 -0.175397 -0.513 198 151 133
0.448997 -0.175397 -0.513 197 149 129
0.449974 -0.175397 -0.513 197 149 129
0.450951 -0.175397 -0.513 195 147 127
0.451929 -0.175397 -0.513 195 147 127
0.452906 -0.175397 -0.513 195 147 127
0.453883 -0.175397 -0.513 192 144 124
0.45486 -0.175397 -0.513 189 141 121
0.455837 -0.175397 -0.513 189 141 121
0.456814 -0.175397 -0.513 192 141 122
0.457791 -0.175397 -0.513 189 138 119
0.458769 -0.175397 -0.513 189 142 126
0.459746 -0.175397 -0.513 186 139 123
0.460723 -0.175397 -0.513 183 134 117
0.4617 -0.175397 -0.513 179 130 113
0.462677 -0.175397 -0.513 175 128 110
0.464558 -0.175739 -0.514 174 127 109
0.466443 -0.176081 -0.515 173 128 109
0.467424 -0.176081 -0.515 173 128 109
0.468405 -0.176081 -0.515 174 129 108
0.469386 -0.176081 -0.515 169 127 105
0.470367 -0.176081 -0.515 169 127 105
0.472263 -0.176423 -0.516 167 124 105
0.474163 -0.176765 -0.517 165 122 103
0.476067 -0.177107 -0.518 164 121 105
0.477974 -0.177449 -0.519 162 119 103
0.479886 -0.17779 -0.52 159 117 105
0.482726 -0.178474 -0.522 159 117 105
-0.285381 -0.223476 -0.65 253 253 251
-0.283706 -0.223132 -0.649 253 253 251
-0.28247 -0.223132 -0.649 253 253 253
-0.2808 -0.222789 -0.648 253 253 253
-0.279566 -0.222789 -0.648 253 253 253
-0.278331 -0.222789 -0.648 253 253 253
-0.277097 -0.222789 -0.648 253 253 253
-0.275863 -0.222789 -0.648 253 253 253
-0.274629 -0.222789 -0.648 253 253 253
-0.273394 -0.222789 -0.648 253 253 253
-0.27258 -0.223132 -0.649 253 253 253
-0.271344 -0.223132 -0.649 253 253 253
-0.270524 -0.223476 -0.65 252 252 252
-0.269286 -0.223476 -0.65 253 253 253
-0.267223 -0.222789 -0.648 252 252 250
-0.266399 -0.223132 -0.649 254 254 252
-0.265163 -0.223132 -0.649 255 255 253
-0.264333 -0.223476 -0.65 253 253 251
-0.143572 -0.222445 -0.647 213 212 207
-0.14102 -0.220382 -0.641 199 198 193
-0.138927 -0.219007 -0.637 192 192 184
-0.137281 -0.218319 -0.635 192 192 184
-0.136071 -0.218319 -0.635 194 191 182
-0.134862 -0.218319 -0.635 192 189 180
-0.133652 -0.218319 -0.635 195 192 183
-0.132651 -0.218663 -0.636 196 193 184
-0.131647 -0.219007 -0.637 198 194 185
-0.130638 -0.21935 -0.638 197 193 184
-0.129626 -0.219694 -0.639 198 194 183
-0.12861 -0.220038 -0.64 199 195 184
-0.127789 -0.220726 -0.642 199 195 183
-0.126763 -0.22107 -0.643 199 195 183
-0.125929 -0.221757 -0.645 198 196 184
-0.124893 -0.222101 -0.646 197 195 183
-0.123854 -0.222445 -0.647 194 192 180
-0.123001 -0.223132 -0.649 194 192 180
-0.121952 -0.223476 -0.65 194 192 180
-0.0475933 -0.223132 -0.649 79 78 84
-0.0460714 -0.221757 -0.645 67 66 74
-0.0447038 -0.22107 -0.643 71 70 78
-0.043141 -0.21935 -0.638 68 67 75
-0.0417286 -0.218319 -0.635 70 68 79
-0.0403914 -0.217631 -0.633 68 66 77
-0.0391857 -0.217631 -0.633 68 68 80
-0.03786 -0.216944 -0.631 67 67 79
-0.0366 -0.2166 -0.63 67 66 80
-0.0353438 -0.216256 -0.629 67 66 80
-0.0341457 -0.216256 -0.629 68 67 81
-0.0329476 -0.216256 -0.629 69 68 82
-0.0317495 -0.216256 -0.629 70 69 83
-0.0305514 -0.216256 -0.629 70 69 83
-0.0294 -0.2166 -0.63 70 70 82
-0.0282448 -0.216944 -0.631 70 70 82
-0.0270857 -0.217288 -0.632 70 70 82
-0.0259229 -0.217631 -0.633 70 70 82
-0.0247952 -0.218319 -0.635 70 70 82
-0.02366 -0.219007 -0.637 71 71 83
-0.0224819 -0.21935 -0.638 72 71 85
-0.0213333 -0.220038 -0.64 73 72 86
-0.0201771 -0.220726 -0.642 74 73 87
-0.0190133 -0.221413 -0.644 75 74 88
-0.0178419 -0.222101 -0.646 75 74 90
-0.0166371 -0.222445 -0.647 76 75 91
-0.0154524 -0.223132 -0.649 77 76 92
-0.0142381 -0.223476 -0.65 77 76 92
0.45756 -0.191846 -0.558 162 128 116
0.451226 -0.188751 -0.549 166 132 120
0.446505 -0.186345 -0.542 174 134 122
0.443409 -0.184626 -0.537 174 134 122
0.441121 -0.18325 -0.533 181 133 119
0.440477 -0.182563 -0.531 187 139 125
0.439826 -0.181875 -0.529 187 140 122
0.439167 -0.181188 -0.527 187 140 122
0.4385 -0.1805 -0.525 190 143 127
0.437826 -0.179812 -0.523 192 145 129
0.438822 -0.179812 -0.523 194 147 129
0.438977 -0.179469 -0.522 195 148 130
0.439129 -0.179125 -0.521 197 148 131
0.440121 -0.179125 -0.521 197 148 131
0.440267 -0.178781 -0.52 196 147 130
0.440409 -0.178437 -0.519 198 150 130
0.441397 -0.178437 -0.519 199 151 131
0.441533 -0.178093 -0.518 194 147 129
0.441666 -0.17775 -0.517 186 139 121
0.441794 -0.177406 -0.516 191 142 125
0.441919 -0.177062 -0.515 193 144 127
0.4429 -0.177062 -0.515 195 147 127
0.443881 -0.177062 -0.515 198 150 130
0.443998 -0.176718 -0.514 198 149 132
0.444977 -0.176718 -0.514 199 150 133
0.445956 -0.176718 -0.514 199 150 133
0.446935 -0.176718 -0.514 200 151 134
0.447914 -0.176718 -0.514 201 152 135
0.44802 -0.176374 -0.513 198 149 132
0.448997 -0.176374 -0.513 198 150 130
0.449974 -0.176374 -0.513 199 151 131
0.450951 -0.176374 -0.513 198 147 128
0.451929 -0.176374 -0.513 196 145 126
0.452906 -0.176374 -0.513 195 147 127
0.453883 -0.176374 -0.513 195 147 127
0.45486 -0.176374 -0.513 191 143 123
0.455837 -0.176374 -0.513 189 141 121
0.456814 -0.176374 -0.513 192 141 122
0.457791 -0.176374 -0.513 191 140 121
0.458769 -0.176374 -0.513 189 140 123
0.459746 -0.176374 -0.513 187 138 121
0.460723 -0.176374 -0.513 185 137 117
0.4617 -0.176374 -0.513 182 134 114
0.462677 -0.176374 -0.513 178 130 108
0.463654 -0.176374 -0.513 176 128 106
0.465537 -0.176718 -0.514 174 129 108
0.466516 -0.176718 -0.514 174 129 108
0.468405 -0.177062 -0.515 174 129 108
0.469386 -0.177062 -0.515 169 127 105
0.470367 -0.177062 -0.515 169 127 105
0.472263 -0.177406 -0.516 167 124 105
0.474163 -0.17775 -0.517 165 122 103
0.476067 -0.178093 -0.518 164 121 105
0.477974 -0.178437 -0.519 162 119 103
0.479886 -0.178781 -0.52 159 117 105
0.482726 -0.179469 -0.522 159 117 105
0.48372 -0.179469 -0.522 157 120 104
0.4875 -0.1805 -0.525 155 118 102
-0.269286 -0.224714 -0.65 253 253 253
-0.268048 -0.224714 -0.65 253 253 253
-0.14168 -0.22264 -0.644 213 214 208
-0.139145 -0.220566 -0.638 199 199 191
-0.137281 -0.219529 -0.635 192 192 184
-0.136071 -0.219529 -0.635 191 191 183
-0.13465 -0.219183 -0.634 193 193 185
-0.133442 -0.219183 -0.634 196 193 186
-0.132443 -0.219529 -0.635 197 194 187
-0.13144 -0.219874 -0.636 197 194 185
-0.130433 -0.22022 -0.637 197 194 185
-0.129423 -0.220566 -0.638 199 195 184
-0.128409 -0.220911 -0.639 200 196 185
-0.12759 -0.221603 -0.641 201 197 185
-0.126566 -0.221949 -0.642 201 197 185
-0.125538 -0.222294 -0.643 199 197 185
-0.1247 -0.222986 -0.645 198 196 184
-0.123663 -0.223331 -0.646 195 193 181
-0.122811 -0.224023 -0.648 196 192 181
-0.121765 -0.224369 -0.649 195 191 180
-0.120714 -0.224714 -0.65 194 190 179
-0.051381 -0.224714 -0.65 134 136 133
-0.0499886 -0.224023 -0.648 85 87 84
-0.0486038 -0.223331 -0.646 69 67 78
-0.0471533 -0.222294 -0.643 70 68 79
-0.0457143 -0.221257 -0.64 70 68 79
-0.0442867 -0.22022 -0.637 68 66 77
-0.0428029 -0.218837 -0.633 69 68 76
-0.0414657 -0.218146 -0.631 71 69 80
-0.0402 -0.2178 -0.63 67 65 76
-0.039 -0.2178 -0.63 68 68 80
-0.03774 -0.217454 -0.629 68 68 80
-0.0364838 -0.217109 -0.628 68 68 80
-0.0352876 -0.217109 -0.628 67 67 79
-0.0340371 -0.216763 -0.627 67 67 79
-0.0328429 -0.216763 -0.627 68 68 80
-0.031699 -0.217109 -0.628 70 70 80
-0.0305514 -0.217454 -0.629 71 71 81
-0.0293533 -0.217454 -0.629 70 70 82
-0.0282448 -0.218146 -0.631 70 70 82
-0.0271286 -0.218837 -0.633 71 71 83
-0.0259638 -0.219183 -0.634 70 70 82
-0.0248343 -0.219874 -0.636 71 71 83
-0.02366 -0.22022 -0.637 71 71 83
-0.0225171 -0.220911 -0.639 72 71 85
-0.0213667 -0.221603 -0.641 73 72 86
-0.0201771 -0.221949 -0.642 73 72 86
-0.0190133 -0.22264 -0.644 74 73 87
-0.0178419 -0.223331 -0.646 75 74 90
-0.0166371 -0.223677 -0.647 76 75 91
-0.0154524 -0.224369 -0.649 77 76 92
0.46166 -0.194637 -0.563 162 128 118
0.453691 -0.190834 -0.552 163 129 119
0.448976 -0.188414 -0.545 171 131 119
0.44506 -0.18634 -0.539 173 133 121
0.442776 -0.184957 -0.535 182 134 122
0.441307 -0.18392 -0.532 187 139 127
0.439826 -0.182883 -0.529 187 140 124
0.439167 -0.182191 -0.527 188 141 125
0.4385 -0.1815 -0.525 190 144 128
0.438663 -0.181154 -0.524 191 145 129
0.438822 -0.180809 -0.523 193 146 130
0.438977 -0.180463 -0.522 195 148 132
0.439129 -0.180117 -0.521 197 150 132
0.440121 -0.180117 -0.521 197 150 132
0.440267 -0.179771 -0.52 195 148 130
0.440409 -0.179426 -0.519 196 147 130
0.441397 -0.179426 -0.519 196 147 130
0.441533 -0.17908 -0.518 192 143 126
0.441666 -0.178734 -0.517 178 129 112
0.441794 -0.178389 -0.516 182 133 116
0.441919 -0.178043 -0.515 189 140 123
0.4429 -0.178043 -0.515 190 142 122
0.443019 -0.177697 -0.514 197 149 129
0.443998 -0.177697 -0.514 199 148 131
0.444977 -0.177697 -0.514 199 148 131
0.445089 -0.177351 -0.513 196 147 130
0.446066 -0.177351 -0.513 198 149 132
0.447043 -0.177351 -0.513 198 149 132
0.44802 -0.177351 -0.513 195 146 129
0.448997 -0.177351 -0.513 197 146 127
0.449097 -0.177006 -0.512 198 147 128
0.450072 -0.177006 -0.512 198 147 128
0.451048 -0.177006 -0.512 194 143 124
0.452023 -0.177006 -0.512 194 143 124
0.452998 -0.177006 -0.512 195 144 125
0.453973 -0.177006 -0.512 192 141 122
0.454949 -0.177006 -0.512 190 139 120
0.455924 -0.177006 -0.512 191 140 121
0.456899 -0.177006 -0.512 190 139 120
0.457874 -0.177006 -0.512 190 139 120
0.45885 -0.177006 -0.512 189 138 119
0.459825 -0.177006 -0.512 189 138 117
0.4608 -0.177006 -0.512 188 137 116
0.461775 -0.177006 -0.512 182 134 111
0.463654 -0.177351 -0.513 179 131 108
0.464631 -0.177351 -0.513 177 131 107
0.465609 -0.177351 -0.513 177 131 107
0.467495 -0.177697 -0.514 177 131 107
0.469386 -0.178043 -0.515 174 129 106
0.470367 -0.178043 -0.515 174 129 106
0.471348 -0.178043 -0.515 169 126 107
0.473246 -0.178389 -0.516 165 122 103
0.475148 -0.178734 -0.517 163 120 103
0.477053 -0.17908 -0.518 161 118 101
0.478963 -0.179426 -0.519 159 117 103
0.481801 -0.180117 -0.521 161 119 105
0.48372 -0.180463 -0.522 157 120 104
0.4875 -0.1815 -0.525 155 118 102
-0.14234 -0.22491 -0.647 235 236 231
-0.139799 -0.222824 -0.641 216 217 211
