ply
format ascii 1.0
comment Created by Open3D
element vertex 1283
property double x
property double y
property double z
property uchar red
property uchar green
property uchar blue
end_header
0.471629 -0.423057 -0.51 142 110 95
0.471673 -0.422228 -0.509 144 112 97
0.470786 -0.420569 -0.507 150 115 95
0.470821 -0.419739 -0.506 153 118 98
0.470852 -0.41891 -0.505 158 118 93
0.47088 -0.41808 -0.504 159 119 94
0.470904 -0.41725 -0.503 160 118 93
0.470924 -0.416421 -0.502 160 118 93
0.47094 -0.415591 -0.501 165 121 94
0.470952 -0.414762 -0.5 167 123 96
0.470961 -0.413932 -0.499 168 124 97
0.470966 -0.413103 -0.498 169 125 98
0.470967 -0.412273 -0.497 167 126 98
0.471913 -0.412273 -0.497 167 126 98
0.471909 -0.411444 -0.496 169 125 96
0.4719 -0.410614 -0.495 169 125 96
0.472843 -0.410614 -0.495 170 126 97
0.472829 -0.409785 -0.494 171 127 98
0.47281 -0.408955 -0.493 173 129 100
0.47375 -0.408955 -0.493 174 130 101
0.473726 -0.408126 -0.492 175 132 100
0.473698 -0.407296 -0.491 176 133 101
0.474633 -0.407296 -0.491 175 132 100
0.475569 -0.407296 -0.491 174 131 99
0.475533 -0.406467 -0.49 174 131 99
0.476467 -0.406467 -0.49 174 131 99
0.4774 -0.406467 -0.49 176 133 101
0.478333 -0.406467 -0.49 177 134 102
0.479267 -0.406467 -0.49 177 134 102
0.47922 -0.405637 -0.489 176 133 101
0.480151 -0.405637 -0.489 176 133 101
0.481083 -0.405637 -0.489 175 132 100
0.482014 -0.405637 -0.489 176 133 101
0.482946 -0.405637 -0.489 178 133 100
0.483877 -0.405637 -0.489 177 132 99
0.483817 -0.404808 -0.488 177 132 99
0.484747 -0.404808 -0.488 176 131 98
0.485676 -0.404808 -0.488 176 131 98
0.486606 -0.404808 -0.488 177 132 99
0.488534 -0.405637 -0.489 177 133 98
0.488465 -0.404808 -0.488 175 131 96
0.489394 -0.404808 -0.488 176 130 96
0.490324 -0.404808 -0.488 177 131 97
0.491253 -0.404808 -0.488 178 132 96
0.492183 -0.404808 -0.488 177 131 95
0.493112 -0.404808 -0.488 175 129 93
0.495054 -0.405637 -0.489 172 126 90
0.495986 -0.405637 -0.489 173 127 93
0.496917 -0.405637 -0.489 173 127 93
0.497849 -0.405637 -0.489 173 127 93
0.49878 -0.405637 -0.489 173 127 93
0.499711 -0.405637 -0.489 173 127 93
0.499619 -0.404808 -0.488 173 127 91
0.500549 -0.404808 -0.488 172 126 90
0.501478 -0.404808 -0.488 171 125 89
0.503437 -0.405637 -0.489 172 126 90
0.504369 -0.405637 -0.489 171 125 89
0.5053 -0.405637 -0.489 172 126 90
0.507267 -0.406467 -0.49 173 127 91
0.5082 -0.406467 -0.49 172 126 90
0.509133 -0.406467 -0.49 171 125 89
0.511108 -0.407296 -0.491 171 125 89
0.512043 -0.407296 -0.491 170 124 88
0.514023 -0.408126 -0.492 168 123 84
0.516007 -0.408955 -0.493 167 122 83
0.517994 -0.409785 -0.494 165 121 84
0.519986 -0.410614 -0.495 165 121 84
0.521981 -0.411444 -0.496 163 120 86
0.52398 -0.412273 -0.497 162 119 85
0.528095 -0.414762 -0.5 157 116 84
0.531164 -0.416421 -0.502 155 114 82
0.5353 -0.41891 -0.505 154 113 81
0.54051 -0.422228 -0.509 153 112 80
0.595605 -0.457068 -0.551 178 151 130
-0.00841905 -0.432343 -0.52 187 150 121
-0.0074 -0.43068 -0.518 187 150 121
-0.00636381 -0.427354 -0.514 186 152 124
-0.00535333 -0.42486 -0.511 188 154 126
-0.00435429 -0.422366 -0.508 195 154 122
-0.00337333 -0.420703 -0.506 193 152 120
-0.00239524 -0.418209 -0.503 191 150 118
-0.00143143 -0.416546 -0.501 189 148 116
-0.000478095 -0.417377 -0.502 189 148 116
0.00047619 -0.415714 -0.5 187 146 114
0.00142571 -0.414883 -0.499 189 146 112
0.00237619 -0.414883 -0.499 190 147 113
0.00332 -0.414051 -0.498 196 153 119
0.00426857 -0.414051 -0.498 197 154 120
0.00520667 -0.41322 -0.497 197 152 119
0.00615333 -0.41322 -0.497 195 150 117
0.0071 -0.41322 -0.497 193 148 115
0.00804667 -0.41322 -0.497 192 147 114
0.00899333 -0.41322 -0.497 194 149 116
0.00994 -0.41322 -0.497 198 153 120
0.0108648 -0.412389 -0.496 195 152 118
0.0118095 -0.412389 -0.496 194 151 117
0.0127543 -0.412389 -0.496 193 150 116
0.013699 -0.412389 -0.496 191 148 114
0.0146438 -0.412389 -0.496 191 148 114
0.0155886 -0.412389 -0.496 193 150 116
0.0165333 -0.412389 -0.496 195 152 118
0.0175133 -0.41322 -0.497 199 156 122
0.01846 -0.41322 -0.497 199 156 122
0.0194067 -0.41322 -0.497 199 156 122
0.0203533 -0.41322 -0.497 196 153 119
0.0213 -0.41322 -0.497 195 152 118
0.0222467 -0.41322 -0.497 195 152 118
0.0231933 -0.41322 -0.497 192 149 115
0.02414 -0.41322 -0.497 192 149 115
0.0250867 -0.41322 -0.497 198 155 121
0.0260333 -0.41322 -0.497 199 156 121
0.02698 -0.41322 -0.497 199 156 121
0.0279267 -0.41322 -0.497 196 153 118
0.0288733 -0.41322 -0.497 196 153 118
0.02982 -0.41322 -0.497 202 159 125
0.0307667 -0.41322 -0.497 194 151 117
0.0317133 -0.41322 -0.497 197 154 120
0.03266 -0.41322 -0.497 200 157 123
0.0336067 -0.41322 -0.497 201 158 124
0.0345533 -0.41322 -0.497 197 154 120
0.0355 -0.41322 -0.497 195 152 120
0.0364467 -0.41322 -0.497 195 152 120
0.0374686 -0.414051 -0.498 196 153 121
0.0384171 -0.414051 -0.498 196 153 121
0.0393657 -0.414051 -0.498 197 154 122
0.0403143 -0.414051 -0.498 197 154 122
0.0412629 -0.414051 -0.498 195 150 117
0.0422114 -0.414051 -0.498 195 150 117
0.04316 -0.414051 -0.498 194 151 117
0.0441971 -0.414883 -0.499 195 152 118
0.0451476 -0.414883 -0.499 196 153 119
0.0461905 -0.415714 -0.5 195 152 120
0.0471429 -0.415714 -0.5 195 150 119
0.0480952 -0.415714 -0.5 194 149 118
0.0491457 -0.416546 -0.501 192 147 116
0.0501 -0.416546 -0.501 191 146 115
0.0511562 -0.417377 -0.502 188 144 115
0.0521124 -0.417377 -0.502 186 142 113
0.0531743 -0.418209 -0.503 186 142 113
0.05424 -0.41904 -0.504 185 141 112
0.0552 -0.41904 -0.504 185 140 111
0.0562714 -0.419871 -0.505 184 139 110
0.0573467 -0.420703 -0.506 181 137 112
0.0584257 -0.421534 -0.507 179 135 110
0.0595086 -0.422366 -0.508 178 132 108
0.0604762 -0.422366 -0.508 176 130 106
0.0615648 -0.423197 -0.509 173 128 105
0.0626571 -0.424029 -0.51 169 124 101
0.0637533 -0.42486 -0.511 166 123 104
0.0647267 -0.42486 -0.511 168 125 106
0.0659571 -0.426523 -0.513 162 121 103
0.0670648 -0.427354 -0.514 153 112 94
0.0681762 -0.428186 -0.515 149 111 92
0.0692914 -0.429017 -0.516 150 112 93
0.0704105 -0.429849 -0.517 148 109 92
0.0716714 -0.431511 -0.519 145 106 89
0.0728 -0.432343 -0.52 141 104 88
0.0740743 -0.434006 -0.522 135 98 82
0.0753562 -0.435669 -0.524 129 100 86
0.0765 -0.4365 -0.525 126 97 83
0.0884314 -0.451466 -0.543 105 89 89
0.0897952 -0.453129 -0.545 104 88 88
0.091 -0.45396 -0.546 103 89 89
0.09204 -0.45396 -0.546 106 92 92
0.0932505 -0.454791 -0.547 113 103 102
0.0942924 -0.454791 -0.547 125 115 114
0.09516 -0.45396 -0.546 128 131 138
0.0962 -0.45396 -0.546 133 136 143
0.09724 -0.45396 -0.546 138 143 162
0.09828 -0.45396 -0.546 125 130 149
0.09932 -0.45396 -0.546 74 88 123
0.10036 -0.45396 -0.546 60 74 109
0.101214 -0.453129 -0.545 70 89 132
0.102252 -0.453129 -0.545 78 97 140
0.10329 -0.453129 -0.545 102 114 152
0.104329 -0.453129 -0.545 104 116 154
0.105367 -0.453129 -0.545 129 134 156
0.106405 -0.453129 -0.545 160 165 187
0.107443 -0.453129 -0.545 178 186 209
0.108481 -0.453129 -0.545 169 177 198
0.109519 -0.453129 -0.545 128 140 166
0.110557 -0.453129 -0.545 133 145 171
0.111595 -0.453129 -0.545 178 187 216
0.112633 -0.453129 -0.545 182 191 220
0.113671 -0.453129 -0.545 179 191 215
0.11471 -0.453129 -0.545 171 183 207
0.115748 -0.453129 -0.545 164 181 207
0.117 -0.45396 -0.546 150 167 193
0.11804 -0.45396 -0.546 128 147 180
0.11908 -0.45396 -0.546 114 133 166
0.12012 -0.45396 -0.546 93 112 145
0.12116 -0.45396 -0.546 119 138 171
0.1222 -0.45396 -0.546 177 192 215
0.12324 -0.45396 -0.546 210 225 248
0.12428 -0.45396 -0.546 218 224 240
0.12509 -0.453129 -0.545 222 228 244
0.126129 -0.453129 -0.545 225 224 240
0.127167 -0.453129 -0.545 226 225 241
0.128205 -0.453129 -0.545 219 225 239
0.129243 -0.453129 -0.545 223 229 243
0.130281 -0.453129 -0.545 227 231 242
0.131319 -0.453129 -0.545 225 229 240
0.132357 -0.453129 -0.545 223 231 242
0.133395 -0.453129 -0.545 212 220 231
0.134433 -0.453129 -0.545 190 205 226
0.19467 -0.455623 -0.548 232 237 255
0.195714 -0.455623 -0.548 239 244 255
0.3367 -0.461443 -0.555 169 190 219
0.337757 -0.461443 -0.555 179 205 232
0.338814 -0.461443 -0.555 187 213 240
0.352133 -0.462274 -0.556 204 205 209
0.353192 -0.462274 -0.556 207 208 212
0.354251 -0.462274 -0.556 219 219 227
0.35531 -0.462274 -0.556 227 227 235
0.35637 -0.462274 -0.556 224 225 243
0.357429 -0.462274 -0.556 224 225 243
0.358488 -0.462274 -0.556 200 212 236
0.359547 -0.462274 -0.556 147 159 183
0.371864 -0.463106 -0.557 183 200 228
0.372925 -0.463106 -0.557 198 215 243
0.373986 -0.463106 -0.557 198 216 240
0.375047 -0.463106 -0.557 177 195 219
0.376108 -0.463106 -0.557 168 187 219
0.377169 -0.463106 -0.557 153 172 204
0.37823 -0.463106 -0.557 113 142 182
0.37929 -0.463106 -0.557 92 121 161
0.387411 -0.463937 -0.558 214 217 232
0.388474 -0.463937 -0.558 207 215 218
0.389537 -0.463937 -0.558 210 218 221
0.3906 -0.463937 -0.558 210 212 211
0.391663 -0.463937 -0.558 198 200 199
0.392726 -0.463937 -0.558 195 194 199
0.393789 -0.463937 -0.558 213 212 217
0.395559 -0.464769 -0.559 191 204 210
0.396624 -0.464769 -0.559 168 181 187
0.397689 -0.464769 -0.559 137 162 193
0.398753 -0.464769 -0.559 112 137 168
0.399818 -0.464769 -0.559 124 153 187
0.400883 -0.464769 -0.559 138 167 201
0.401948 -0.464769 -0.559 165 189 217
0.403012 -0.464769 -0.559 165 189 217
0.404077 -0.464769 -0.559 158 178 211
0.405142 -0.464769 -0.559 158 178 211
0.406207 -0.464769 -0.559 158 183 214
0.407271 -0.464769 -0.559 139 164 195
0.408336 -0.464769 -0.559 114 144 178
0.409401 -0.464769 -0.559 105 135 169
0.410466 -0.464769 -0.559 138 159 188
0.41153 -0.464769 -0.559 159 180 209
0.413333 -0.4656 -0.56 186 195 204
0.4144 -0.4656 -0.56 185 194 203
0.415467 -0.4656 -0.56 183 188 192
0.416533 -0.4656 -0.56 191 196 200
0.4176 -0.4656 -0.56 200 201 206
0.418667 -0.4656 -0.56 196 197 202
0.419733 -0.4656 -0.56 195 199 208
0.4208 -0.4656 -0.56 191 195 204
0.42262 -0.466431 -0.561 188 198 207
0.423689 -0.466431 -0.561 188 198 207
0.424757 -0.466431 -0.561 160 172 188
0.425826 -0.466431 -0.561 110 122 138
0.426894 -0.466431 -0.561 72 97 137
0.428726 -0.467263 -0.562 81 106 146
0.429796 -0.467263 -0.562 111 133 172
0.430867 -0.467263 -0.562 111 133 172
0.431937 -0.467263 -0.562 130 152 191
0.433008 -0.467263 -0.562 141 158 186
0.434078 -0.467263 -0.562 152 169 197
0.435149 -0.467263 -0.562 172 188 213
0.436219 -0.467263 -0.562 166 182 207
0.438068 -0.468094 -0.563 131 146 175
0.43914 -0.468094 -0.563 102 117 146
0.440212 -0.468094 -0.563 146 160 186
0.441285 -0.468094 -0.563 169 183 209
0.442357 -0.468094 -0.563 163 176 193
0.44343 -0.468094 -0.563 142 155 172
0.444502 -0.468094 -0.563 137 154 174
0.445574 -0.468094 -0.563 125 142 162
0.44744 -0.468926 -0.564 95 118 150
0.448514 -0.468926 -0.564 70 93 125
0.449589 -0.468926 -0.564 56 79 120
0.450663 -0.468926 -0.564 96 119 160
0.451737 -0.468926 -0.564 163 171 184
0.452811 -0.468926 -0.564 172 180 193
0.453886 -0.468926 -0.564 168 179 185
0.45496 -0.468926 -0.564 175 186 192
0.456034 -0.468926 -0.564 173 178 182
0.457109 -0.468926 -0.564 163 168 172
0.458995 -0.469757 -0.565 173 174 176
0.460071 -0.469757 -0.565 178 179 181
0.461148 -0.469757 -0.565 174 179 183
0.461406 -0.468926 -0.564 172 177 181
0.4633 -0.469757 -0.565 155 161 173
0.464376 -0.469757 -0.565 136 142 154
0.465452 -0.469757 -0.565 97 117 150
0.466529 -0.469757 -0.565 84 104 137
0.467605 -0.469757 -0.565 90 114 140
0.468681 -0.469757 -0.565 106 130 156
0.468926 -0.468926 -0.564 123 142 174
0.47 -0.468926 -0.564 127 146 178
0.471074 -0.468926 -0.564 139 155 181
0.472149 -0.468926 -0.564 142 158 184
0.473223 -0.468926 -0.564 125 142 168
0.474297 -0.468926 -0.564 106 123 149
0.475371 -0.468926 -0.564 86 105 137
0.476446 -0.468926 -0.564 81 100 132
0.47752 -0.468926 -0.564 105 121 146
0.478594 -0.468926 -0.564 116 132 157
0.479669 -0.468926 -0.564 147 157 166
0.481595 -0.469757 -0.565 157 167 176
0.482671 -0.469757 -0.565 160 163 170
0.483748 -0.469757 -0.565 160 163 170
0.484824 -0.469757 -0.565 161 164 171
0.4859 -0.469757 -0.565 153 164 168
0.486976 -0.469757 -0.565 156 167 171
0.488052 -0.469757 -0.565 160 164 175
0.489129 -0.469757 -0.565 156 160 171
0.490205 -0.469757 -0.565 155 160 166
0.491281 -0.469757 -0.565 152 157 163
0.492357 -0.469757 -0.565 116 126 151
0.493433 -0.469757 -0.565 77 87 112
0.49451 -0.469757 -0.565 64 77 111
0.495586 -0.469757 -0.565 86 99 133
0.496662 -0.469757 -0.565 93 103 138
0.497738 -0.469757 -0.565 105 115 150
0.498814 -0.469757 -0.565 109 122 139
0.499006 -0.468926 -0.564 121 134 151
0.50008 -0.468926 -0.564 123 141 161
0.501154 -0.468926 -0.564 125 145 170
0.502229 -0.468926 -0.564 102 114 138
0.50241 -0.468094 -0.563 68 80 104
0.493745 -0.452297 -0.544 109 98 94
0.490233 -0.44814 -0.539 112 99 93
0.486703 -0.443983 -0.534 113 100 94
0.483153 -0.439826 -0.529 118 100 88
0.4805 -0.4365 -0.525 121 103 91
0.477831 -0.433174 -0.521 131 106 86
0.476986 -0.431511 -0.519 133 108 88
0.475211 -0.429017 -0.516 134 106 92
0.474349 -0.427354 -0.514 136 108 94
0.472553 -0.42486 -0.511 139 110 94
0.471673 -0.423197 -0.509 140 111 95
0.471714 -0.422366 -0.508 149 114 94
0.470821 -0.420703 -0.506 151 116 96
0.470852 -0.419871 -0.505 155 118 92
0.47088 -0.41904 -0.504 157 120 94
0.470904 -0.418209 -0.503 159 117 92
0.470924 -0.417377 -0.502 160 118 93
0.47094 -0.416546 -0.501 162 121 93
0.470952 -0.415714 -0.5 165 124 96
0.470961 -0.414883 -0.499 165 124 96
0.470966 -0.414051 -0.498 166 125 97
0.471914 -0.414051 -0.498 167 126 98
0.471913 -0.41322 -0.497 167 126 98
0.471909 -0.412389 -0.496 170 126 97
0.472853 -0.412389 -0.496 170 126 97
0.472843 -0.411557 -0.495 170 126 97
0.472829 -0.410726 -0.494 171 127 98
0.47281 -0.409894 -0.493 172 128 99
0.47375 -0.409894 -0.493 173 129 100
0.473726 -0.409063 -0.492 174 131 99
0.473698 -0.408231 -0.491 174 131 99
0.474633 -0.408231 -0.491 174 131 99
0.475569 -0.408231 -0.491 174 131 99
0.475533 -0.4074 -0.49 174 131 99
0.476467 -0.4074 -0.49 175 132 100
0.4774 -0.4074 -0.49 175 132 100
0.478333 -0.4074 -0.49 177 134 102
0.478289 -0.406569 -0.489 177 134 102
0.47922 -0.406569 -0.489 176 133 99
0.480151 -0.406569 -0.489 177 134 100
0.481083 -0.406569 -0.489 175 132 100
0.482014 -0.406569 -0.489 176 133 101
0.482946 -0.406569 -0.489 176 133 99
0.483877 -0.406569 -0.489 176 133 99
0.483817 -0.405737 -0.488 176 133 99
0.484747 -0.405737 -0.488 176 133 99
0.485676 -0.405737 -0.488 176 131 98
0.486606 -0.405737 -0.488 176 131 98
0.487535 -0.405737 -0.488 176 131 98
0.488465 -0.405737 -0.488 175 130 97
0.489394 -0.405737 -0.488 176 132 97
0.490324 -0.405737 -0.488 177 133 98
0.491253 -0.405737 -0.488 176 132 97
0.492183 -0.405737 -0.488 176 132 97
0.493112 -0.405737 -0.488 175 129 95
0.494042 -0.405737 -0.488 173 127 93
0.494971 -0.405737 -0.488 174 128 92
0.495901 -0.405737 -0.488 174 128 92
0.49683 -0.405737 -0.488 174 128 92
0.49776 -0.405737 -0.488 174 128 92
0.49869 -0.405737 -0.488 175 129 93
0.499619 -0.405737 -0.488 174 128 92
0.500549 -0.405737 -0.488 173 128 89
0.501478 -0.405737 -0.488 172 127 88
0.502408 -0.405737 -0.488 172 127 88
0.503337 -0.405737 -0.488 171 126 87
0.5053 -0.406569 -0.489 173 127 91
0.506231 -0.406569 -0.489 174 128 92
0.507163 -0.406569 -0.489 173 127 91
0.508094 -0.406569 -0.489 172 126 90
0.510067 -0.4074 -0.49 172 126 90
0.511 -0.4074 -0.49 171 125 89
0.512978 -0.408231 -0.491 172 125 83
0.51496 -0.409063 -0.492 171 124 82
0.515897 -0.409063 -0.492 167 123 86
0.517885 -0.409894 -0.493 166 122 85
0.519876 -0.410726 -0.494 162 122 87
0.521871 -0.411557 -0.495 161 121 86
0.525983 -0.414051 -0.498 158 117 85
0.529048 -0.415714 -0.5 156 115 83
0.53212 -0.417377 -0.502 156 115 85
0.592362 -0.455623 -0.548 169 138 117
0.596654 -0.458117 -0.551 173 156 140
-0.00940952 -0.433333 -0.52 190 149 119
-0.00837048 -0.430833 -0.517 190 151 122
-0.00735714 -0.429167 -0.515 191 152 123
-0.00632667 -0.425833 -0.511 190 155 127
-0.0053219 -0.423333 -0.508 190 155 127
-0.00433714 -0.421667 -0.506 194 153 121
-0.00335333 -0.419167 -0.503 193 152 120
-0.00238571 -0.4175 -0.501 192 151 119
-0.00142857 -0.416667 -0.5 190 149 117
-0.00047619 -0.416667 -0.5 190 147 115
0.000475238 -0.415833 -0.499 189 146 114
0.00142286 -0.415 -0.498 191 148 116
0.00237143 -0.415 -0.498 194 151 119
0.00331333 -0.414167 -0.497 197 154 122
0.00426 -0.414167 -0.497 197 154 122
0.00520667 -0.414167 -0.497 195 152 118
0.00614095 -0.413333 -0.496 193 150 116
0.00708571 -0.413333 -0.496 193 148 115
0.00803048 -0.413333 -0.496 195 150 117
0.00897524 -0.413333 -0.496 196 151 118
0.00992 -0.413333 -0.496 195 150 117
0.0108648 -0.413333 -0.496 191 146 113
0.0118095 -0.413333 -0.496 193 148 115
0.0127543 -0.413333 -0.496 197 152 119
0.013699 -0.413333 -0.496 197 152 119
0.0146438 -0.413333 -0.496 197 152 119
0.0155886 -0.413333 -0.496 197 152 119
0.0165333 -0.413333 -0.496 197 152 119
0.0174781 -0.413333 -0.496 199 154 121
0.0184229 -0.413333 -0.496 199 154 121
0.0193676 -0.413333 -0.496 199 154 121
0.0203533 -0.414167 -0.497 200 155 122
0.0212571 -0.413333 -0.496 199 154 121
0.0222019 -0.413333 -0.496 197 152 119
0.0231467 -0.413333 -0.496 197 152 119
0.0240914 -0.413333 -0.496 199 153 120
0.0250362 -0.413333 -0.496 199 153 120
0.025981 -0.413333 -0.496 199 155 120
0.0269257 -0.413333 -0.496 199 155 120
0.0278705 -0.413333 -0.496 197 153 118
0.0288733 -0.414167 -0.497 197 153 118
0.02982 -0.414167 -0.497 199 155 120
0.0307667 -0.414167 -0.497 197 153 118
0.0317133 -0.414167 -0.497 197 153 118
0.03266 -0.414167 -0.497 200 156 121
0.0336067 -0.414167 -0.497 195 150 117
0.0345533 -0.414167 -0.497 194 149 116
0.0355 -0.414167 -0.497 195 150 117
0.0364467 -0.414167 -0.497 196 151 118
0.0373933 -0.414167 -0.497 196 151 118
0.0384171 -0.415 -0.498 196 151 118
0.0393657 -0.415 -0.498 196 151 118
0.0403143 -0.415 -0.498 195 150 117
0.0412629 -0.415 -0.498 196 152 117
0.0422114 -0.415 -0.498 196 152 117
0.04316 -0.415 -0.498 196 152 117
0.0441971 -0.415833 -0.499 195 151 116
0.0451476 -0.415833 -0.499 193 150 116
0.0460981 -0.415833 -0.499 195 152 118
0.0471429 -0.416667 -0.5 194 149 118
0.0480952 -0.416667 -0.5 194 149 118
0.0491457 -0.4175 -0.501 193 148 117
0.0501 -0.4175 -0.501 193 148 117
0.0511562 -0.418333 -0.502 189 146 114
0.0521124 -0.418333 -0.502 186 143 111
0.0531743 -0.419167 -0.503 185 142 110
0.05424 -0.42 -0.504 184 141 109
0.0552 -0.42 -0.504 184 139 110
0.0562714 -0.420833 -0.505 185 140 111
0.0573467 -0.421667 -0.506 178 134 109
0.0584257 -0.4225 -0.507 176 132 107
0.0595086 -0.423333 -0.508 176 130 106
0.0604762 -0.423333 -0.508 176 130 106
0.0615648 -0.424167 -0.509 174 129 106
0.0626571 -0.425 -0.51 169 124 101
0.0637533 -0.425833 -0.511 162 121 101
0.0648533 -0.426667 -0.512 163 122 102
0.0659571 -0.4275 -0.513 160 119 101
0.0670648 -0.428333 -0.514 151 110 92
0.0681762 -0.429167 -0.515 147 109 90
0.0692914 -0.43 -0.516 149 111 92
0.0704105 -0.430833 -0.517 147 108 91
0.0716714 -0.4325 -0.519 145 106 89
0.0728 -0.433333 -0.52 140 104 88
0.0740743 -0.435 -0.522 133 97 81
0.0753562 -0.436667 -0.524 127 98 84
0.0766457 -0.438333 -0.526 124 95 81
0.0884314 -0.4525 -0.543 103 87 87
0.0897952 -0.454167 -0.545 102 86 86
0.0908333 -0.454167 -0.545 102 90 90
0.09204 -0.455 -0.546 108 96 96
0.0932505 -0.455833 -0.547 118 108 109
0.09412 -0.455 -0.546 129 119 120
0.09516 -0.455 -0.546 127 130 139
0.0962 -0.455 -0.546 126 129 138
0.0970619 -0.454167 -0.545 121 127 143
0.0981 -0.454167 -0.545 116 122 138
0.0991381 -0.454167 -0.545 80 94 129
0.100176 -0.454167 -0.545 65 79 114
0.101214 -0.454167 -0.545 58 80 130
0.102065 -0.453333 -0.544 66 88 138
0.103101 -0.453333 -0.544 90 105 148
0.104137 -0.453333 -0.544 99 114 157
0.105173 -0.453333 -0.544 113 119 143
0.10621 -0.453333 -0.544 136 142 166
0.107246 -0.453333 -0.544 163 173 198
0.108481 -0.454167 -0.545 159 167 190
0.109519 -0.454167 -0.545 98 117 150
0.110557 -0.454167 -0.545 120 139 172
0.111595 -0.454167 -0.545 174 188 225
0.112633 -0.454167 -0.545 182 196 233
0.113671 -0.454167 -0.545 176 191 222
0.11471 -0.454167 -0.545 161 176 207
0.115748 -0.454167 -0.545 143 165 202
0.116786 -0.454167 -0.545 119 141 178
0.117824 -0.454167 -0.545 100 128 175
0.118862 -0.454167 -0.545 89 117 164
0.1199 -0.454167 -0.545 99 122 163
0.120938 -0.454167 -0.545 160 183 224
0.121976 -0.454167 -0.545 205 218 237
0.123014 -0.454167 -0.545 207 220 239
0.124052 -0.454167 -0.545 216 218 230
0.12509 -0.454167 -0.545 222 224 236
0.126129 -0.454167 -0.545 221 223 238
0.127167 -0.454167 -0.545 226 228 243
0.128205 -0.454167 -0.545 221 227 239
0.129243 -0.454167 -0.545 222 228 240
0.130281 -0.454167 -0.545 225 229 238
0.131319 -0.454167 -0.545 225 229 238
0.183896 -0.455833 -0.547 126 149 190
0.184938 -0.455833 -0.547 117 140 181
0.345157 -0.4625 -0.555 156 176 203
0.346214 -0.4625 -0.555 180 200 227
0.347271 -0.4625 -0.555 216 228 242
0.348329 -0.4625 -0.555 215 227 241
0.349386 -0.4625 -0.555 225 229 232
0.359547 -0.463333 -0.556 162 174 190
0.360606 -0.463333 -0.556 111 139 179
0.361665 -0.463333 -0.556 104 132 172
0.362724 -0.463333 -0.556 100 131 177
0.363783 -0.463333 -0.556 126 157 203
0.364842 -0.463333 -0.556 154 180 217
0.365901 -0.463333 -0.556 168 194 231
0.36696 -0.463333 -0.556 190 214 248
0.368019 -0.463333 -0.556 189 213 247
0.369078 -0.463333 -0.556 146 165 195
0.370137 -0.463333 -0.556 115 134 164
0.373986 -0.464167 -0.557 184 209 239
0.375047 -0.464167 -0.557 162 187 217
0.376108 -0.464167 -0.557 145 168 209
0.377169 -0.464167 -0.557 121 144 185
0.37823 -0.464167 -0.557 88 125 169
0.37929 -0.464167 -0.557 84 121 165
0.380351 -0.464167 -0.557 101 133 184
0.381412 -0.464167 -0.557 154 186 237
0.382473 -0.464167 -0.557 192 204 218
0.383534 -0.464167 -0.557 197 209 223
0.384595 -0.464167 -0.557 197 209 223
0.385656 -0.464167 -0.557 212 216 228
0.386717 -0.464167 -0.557 212 216 228
0.387778 -0.464167 -0.557 214 222 224
0.388839 -0.464167 -0.557 213 221 223
0.3899 -0.464167 -0.557 183 183 181
0.394851 -0.465 -0.558 190 205 212
0.395914 -0.465 -0.558 163 178 185
0.396977 -0.465 -0.558 128 154 187
0.39804 -0.465 -0.558 106 132 165
0.399103 -0.465 -0.558 127 157 193
0.400166 -0.465 -0.558 143 173 209
0.401229 -0.465 -0.558 170 196 223
0.402291 -0.465 -0.558 165 191 218
0.403354 -0.465 -0.558 147 170 202
0.404417 -0.465 -0.558 151 174 206
0.40548 -0.465 -0.558 160 189 221
0.406543 -0.465 -0.558 142 171 203
0.407606 -0.465 -0.558 116 150 187
0.408669 -0.465 -0.558 94 128 165
0.410466 -0.465833 -0.559 117 142 173
0.41153 -0.465833 -0.559 141 166 197
0.412595 -0.465833 -0.559 185 195 205
0.41366 -0.465833 -0.559 180 190 200
0.414725 -0.465833 -0.559 154 158 159
0.41579 -0.465833 -0.559 151 155 156
0.416854 -0.465833 -0.559 178 176 177
0.417919 -0.465833 -0.559 205 203 204
0.419733 -0.466667 -0.56 198 201 206
0.4208 -0.466667 -0.56 198 201 206
0.421867 -0.466667 -0.56 192 200 203
0.422933 -0.466667 -0.56 185 193 196
0.424 -0.466667 -0.56 180 188 201
0.425067 -0.466667 -0.56 144 152 165
0.426894 -0.4675 -0.561 79 108 150
0.427963 -0.4675 -0.561 65 94 136
0.429031 -0.4675 -0.561 75 103 150
0.4301 -0.4675 -0.561 99 127 174
0.431169 -0.4675 -0.561 99 127 174
0.432237 -0.4675 -0.561 120 143 177
0.434078 -0.468333 -0.562 135 158 192
0.435149 -0.468333 -0.562 161 180 210
0.436219 -0.468333 -0.562 166 185 215
0.43729 -0.468333 -0.562 125 144 176
0.43836 -0.468333 -0.562 78 97 129
0.43943 -0.468333 -0.562 140 157 187
0.440501 -0.468333 -0.562 165 182 212
0.441571 -0.468333 -0.562 160 177 203
0.44343 -0.469167 -0.563 135 152 178
0.444502 -0.469167 -0.563 124 145 176
0.445574 -0.469167 -0.563 98 119 150
0.446647 -0.469167 -0.563 64 92 132
0.447719 -0.469167 -0.563 60 88 128
0.449589 -0.47 -0.564 61 88 133
0.450663 -0.47 -0.564 117 144 189
0.451737 -0.47 -0.564 169 173 182
0.452811 -0.47 -0.564 173 177 186
0.453886 -0.47 -0.564 171 182 184
0.45496 -0.47 -0.564 167 178 180
0.456034 -0.47 -0.564 140 145 148
0.457109 -0.47 -0.564 123 128 131
0.458183 -0.47 -0.564 163 162 160
0.459257 -0.47 -0.564 179 178 176
0.460331 -0.47 -0.564 175 179 182
0.461406 -0.47 -0.564 176 180 183
0.46248 -0.47 -0.564 157 164 174
0.463554 -0.47 -0.564 128 135 145
0.464629 -0.47 -0.564 94 118 154
0.465703 -0.47 -0.564 72 96 132
0.466777 -0.47 -0.564 92 118 145
0.467851 -0.47 -0.564 109 135 162
0.468926 -0.47 -0.564 129 145 178
0.469167 -0.469167 -0.563 131 147 180
0.470239 -0.469167 -0.563 140 154 181
0.471311 -0.469167 -0.563 143 157 184
0.473223 -0.47 -0.564 134 151 177
0.474297 -0.47 -0.564 119 136 162
0.475371 -0.47 -0.564 92 112 145
0.476446 -0.47 -0.564 75 95 128
0.47752 -0.47 -0.564 85 102 128
0.478594 -0.47 -0.564 93 110 136
0.479669 -0.47 -0.564 124 137 146
0.480743 -0.47 -0.564 149 162 171
0.481817 -0.47 -0.564 163 166 173
0.482891 -0.47 -0.564 163 166 173
0.483966 -0.47 -0.564 163 166 173
0.48504 -0.47 -0.564 160 169 176
0.486114 -0.47 -0.564 156 165 172
0.487189 -0.47 -0.564 160 165 171
0.489129 -0.470833 -0.565 155 160 166
0.490205 -0.470833 -0.565 155 160 166
0.491281 -0.470833 -0.565 158 163 169
0.492357 -0.470833 -0.565 136 148 162
0.493433 -0.470833 -0.565 101 113 127
0.493634 -0.47 -0.564 57 71 110
0.494709 -0.47 -0.564 58 72 111
0.495783 -0.47 -0.564 66 82 118
0.496857 -0.47 -0.564 89 105 141
0.497931 -0.47 -0.564 95 112 140
0.499006 -0.47 -0.564 108 125 153
0.50008 -0.47 -0.564 122 142 167
0.501154 -0.47 -0.564 122 143 174
0.502229 -0.47 -0.564 95 111 145
0.50241 -0.469167 -0.563 55 71 105
0.503483 -0.469167 -0.563 87 103 136
0.492962 -0.451667 -0.542 108 98 96
0.489437 -0.4475 -0.537 108 98 96
0.48498 -0.4425 -0.531 116 99 91
0.48233 -0.439167 -0.527 119 102 94
0.479666 -0.435833 -0.523 128 105 89
0.477905 -0.433333 -0.52 130 107 91
0.476132 -0.430833 -0.517 133 105 93
0.475271 -0.429167 -0.515 135 107 95
0.473478 -0.426667 -0.512 137 108 94
0.4726 -0.425 -0.51 138 109 95
0.472643 -0.424167 -0.509 143 110 91
0.471751 -0.4225 -0.507 146 113 94
0.471785 -0.421667 -0.506 153 115 92
0.471814 -0.420833 -0.505 155 117 94
0.470904 -0.419167 -0.503 158 116 91
0.470924 -0.418333 -0.502 159 117 92
0.47094 -0.4175 -0.501 161 119 94
0.470952 -0.416667 -0.5 164 122 97
0.471905 -0.416667 -0.5 165 123 98
0.471911 -0.415833 -0.499 165 123 98
0.471914 -0.415 -0.498 166 124 99
0.471913 -0.414167 -0.497 166 124 99
0.47286 -0.414167 -0.497 169 128 100
0.472853 -0.413333 -0.496 168 127 99
0.472843 -0.4125 -0.495 170 126 99
0.472829 -0.411667 -0.494 170 126 99
0.47281 -0.410833 -0.493 171 127 100
0.47375 -0.410833 -0.493 172 128 101
0.473726 -0.41 -0.492 174 130 101
0.473698 -0.409167 -0.491 175 131 102
0.474633 -0.409167 -0.491 174 131 99
0.475569 -0.409167 -0.491 175 132 100
0.475533 -0.408333 -0.49 175 132 100
0.476467 -0.408333 -0.49 175 132 100
0.4774 -0.408333 -0.49 176 133 101
0.478333 -0.408333 -0.49 176 133 101
0.478289 -0.4075 -0.489 176 133 101
0.47922 -0.4075 -0.489 177 132 99
0.480151 -0.4075 -0.489 178 133 100
0.481083 -0.4075 -0.489 176 133 99
0.481029 -0.406667 -0.488 177 134 100
0.482946 -0.4075 -0.489 176 133 99
0.483877 -0.4075 -0.489 176 133 99
0.483817 -0.406667 -0.488 177 134 100
0.484747 -0.406667 -0.488 177 134 100
0.485676 -0.406667 -0.488 178 133 100
0.486606 -0.406667 -0.488 177 132 99
0.487535 -0.406667 -0.488 177 132 99
0.488465 -0.406667 -0.488 176 131 98
0.488391 -0.405833 -0.487 176 132 97
0.489319 -0.405833 -0.487 176 132 97
0.490247 -0.405833 -0.487 175 131 96
0.491174 -0.405833 -0.487 175 131 96
0.492102 -0.405833 -0.487 175 131 96
0.49303 -0.405833 -0.487 173 129 94
0.493957 -0.405833 -0.487 174 129 90
0.494885 -0.405833 -0.487 175 130 91
0.495812 -0.405833 -0.487 175 129 93
0.49674 -0.405833 -0.487 175 129 93
0.497668 -0.405833 -0.487 174 130 93
0.498595 -0.405833 -0.487 174 130 93
0.499523 -0.405833 -0.487 175 129 93
0.50045 -0.405833 -0.487 174 128 92
0.501378 -0.405833 -0.487 173 127 91
0.503337 -0.406667 -0.488 172 126 90
0.504267 -0.406667 -0.488 173 127 93
0.505196 -0.406667 -0.488 174 128 94
0.506126 -0.406667 -0.488 173 127 93
0.507055 -0.406667 -0.488 173 127 93
0.509026 -0.4075 -0.489 173 127 91
0.509957 -0.4075 -0.489 172 126 90
0.511933 -0.408333 -0.49 174 127 85
0.512867 -0.408333 -0.49 173 126 84
0.514849 -0.409167 -0.491 168 124 87
0.516834 -0.41 -0.492 167 123 86
0.518824 -0.410833 -0.493 163 122 90
0.520817 -0.411667 -0.494 162 121 89
0.522814 -0.4125 -0.495 158 119 88
0.525873 -0.414167 -0.497 157 118 87
0.53 -0.416667 -0.5 155 116 87
0.589119 -0.454167 -0.545 160 128 105
0.593406 -0.456667 -0.548 166 147 130
0.597704 -0.459167 -0.551 176 157 140
-0.01042 -0.435159 -0.521 188 147 117
-0.00937333 -0.432653 -0.518 187 146 116
-0.0083219 -0.429312 -0.514 189 148 120
-0.0073 -0.426807 -0.511 191 150 122
-0.00628952 -0.424301 -0.508 192 152 126
-0.00529048 -0.421795 -0.505 193 153 127
-0.00431143 -0.420125 -0.503 193 152 122
-0.00334 -0.418454 -0.501 193 152 122
-0.00238095 -0.417619 -0.5 193 152 120
-0.00142571 -0.416784 -0.499 192 151 119
-0.000475238 -0.416784 -0.499 191 148 116
0.000474286 -0.415949 -0.498 191 148 116
0.00142 -0.415113 -0.497 193 150 118
0.00236667 -0.415113 -0.497 196 153 121
0.00330667 -0.414278 -0.496 197 154 122
0.00425143 -0.414278 -0.496 197 154 122
0.00519619 -0.414278 -0.496 196 153 119
0.00612857 -0.413443 -0.495 194 151 117
0.00707143 -0.413443 -0.495 194 149 116
0.00801429 -0.413443 -0.495 196 151 118
0.00895714 -0.413443 -0.495 196 151 118
0.0099 -0.413443 -0.495 195 150 117
0.0108429 -0.413443 -0.495 192 147 114
0.0117857 -0.413443 -0.495 194 149 116
0.0127286 -0.413443 -0.495 198 153 120
0.0136714 -0.413443 -0.495 199 154 121
0.0146143 -0.413443 -0.495 199 154 121
0.0155571 -0.413443 -0.495 199 154 121
0.0165 -0.413443 -0.495 197 152 119
0.0174429 -0.413443 -0.495 197 152 119
0.0184229 -0.414278 -0.496 195 150 117
0.0193676 -0.414278 -0.496 198 153 120
0.0203124 -0.414278 -0.496 201 157 122
0.0212571 -0.414278 -0.496 199 155 120
0.0222019 -0.414278 -0.496 196 152 117
0.0231467 -0.414278 -0.496 197 153 118
0.0240914 -0.414278 -0.496 200 156 121
0.0250362 -0.414278 -0.496 201 157 122
0.025981 -0.414278 -0.496 199 155 120
0.0269257 -0.414278 -0.496 197 153 118
0.0278705 -0.414278 -0.496 197 153 118
0.0288152 -0.414278 -0.496 200 156 121
0.02982 -0.415113 -0.497 200 156 121
0.0307667 -0.415113 -0.497 197 153 118
0.0317133 -0.415113 -0.497 194 150 115
0.0325943 -0.414278 -0.496 195 151 116
0.0336067 -0.415113 -0.497 193 149 114
0.0345533 -0.415113 -0.497 194 150 115
0.0355 -0.415113 -0.497 194 149 116
0.0364467 -0.415113 -0.497 194 149 116
0.0373933 -0.415113 -0.497 193 148 115
0.03834 -0.415113 -0.497 192 147 114
0.0392867 -0.415113 -0.497 191 146 113
0.0402333 -0.415113 -0.497 192 147 114
0.04118 -0.415113 -0.497 196 151 118
0.0422114 -0.415949 -0.498 197 152 119
0.04316 -0.415949 -0.498 196 151 118
0.0441971 -0.416784 -0.499 194 149 116
0.0451476 -0.416784 -0.499 193 148 115
0.0460981 -0.416784 -0.499 193 148 115
0.0471429 -0.417619 -0.5 194 151 117
0.0480952 -0.417619 -0.5 193 150 116
0.0491457 -0.418454 -0.501 191 148 114
0.0501 -0.418454 -0.501 190 147 113
0.0511562 -0.41929 -0.502 191 148 116
0.0521124 -0.41929 -0.502 186 143 111
0.0531743 -0.420125 -0.503 183 140 108
0.05424 -0.42096 -0.504 183 140 108
0.0552 -0.42096 -0.504 182 139 107
0.0562714 -0.421795 -0.505 182 139 107
0.0573467 -0.42263 -0.506 179 133 107
0.0583105 -0.42263 -0.506 175 129 103
0.0593914 -0.423466 -0.507 174 128 104
0.0604762 -0.424301 -0.508 174 128 104
0.0615648 -0.425136 -0.509 172 126 103
0.0626571 -0.425971 -0.51 169 123 100
0.0637533 -0.426807 -0.511 167 121 98
0.0648533 -0.427642 -0.512 164 118 95
0.0659571 -0.428477 -0.513 162 117 96
0.0670648 -0.429312 -0.514 157 112 91
0.0681762 -0.430148 -0.515 149 111 92
0.0692914 -0.430983 -0.516 147 109 90
0.0704105 -0.431818 -0.517 140 107 88
0.0716714 -0.433489 -0.519 137 104 85
0.0728 -0.434324 -0.52 134 103 82
0.0740743 -0.435994 -0.522 132 101 80
0.0753562 -0.437665 -0.524 119 97 84
0.0872362 -0.452699 -0.542 104 84 83
0.0884314 -0.453534 -0.543 104 86 82
0.0897952 -0.455205 -0.545 101 83 79
0.0908333 -0.455205 -0.545 100 90 89
0.0918714 -0.455205 -0.545 111 101 100
0.09308 -0.45604 -0.546 116 114 115
0.09412 -0.45604 -0.546 127 125 126
0.09516 -0.45604 -0.546 135 130 137
0.0960238 -0.455205 -0.545 134 129 136
0.0970619 -0.455205 -0.545 117 119 140
0.0981 -0.455205 -0.545 102 104 125
0.0991381 -0.455205 -0.545 71 89 129
0.0999924 -0.45437 -0.544 52 70 110
0.101029 -0.45437 -0.544 44 74 124
0.102065 -0.45437 -0.544 48 78 128
0.103101 -0.45437 -0.544 66 95 137
0.103946 -0.453534 -0.543 85 114 156
0.10498 -0.453534 -0.543 100 119 149
0.106014 -0.453534 -0.543 108 127 157
0.107049 -0.453534 -0.543 133 148 181
0.108083 -0.453534 -0.543 107 122 155
0.109318 -0.45437 -0.544 71 95 133
0.110354 -0.45437 -0.544 116 140 178
0.11139 -0.45437 -0.544 164 181 225
0.112427 -0.45437 -0.544 170 187 231
0.113463 -0.45437 -0.544 156 174 210
0.114499 -0.45437 -0.544 134 152 188
0.115535 -0.45437 -0.544 116 141 182
0.116571 -0.45437 -0.544 95 120 161
0.117608 -0.45437 -0.544 86 119 172
0.118644 -0.45437 -0.544 85 118 171
0.11968 -0.45437 -0.544 112 141 181
0.120938 -0.455205 -0.545 154 183 223
0.121976 -0.455205 -0.545 184 196 210
0.123014 -0.455205 -0.545 199 211 225
0.124052 -0.455205 -0.545 221 222 227
0.124861 -0.45437 -0.544 225 226 231
0.125897 -0.45437 -0.544 225 229 241
0.126933 -0.45437 -0.544 224 228 240
0.12797 -0.45437 -0.544 223 230 240
0.129006 -0.45437 -0.544 223 230 240
0.130042 -0.45437 -0.544 226 231 237
0.131078 -0.45437 -0.544 227 232 238
0.132114 -0.45437 -0.544 223 233 245
0.13315 -0.45437 -0.544 201 211 223
0.134187 -0.45437 -0.544 166 186 211
0.195357 -0.456875 -0.547 242 241 255
0.337149 -0.462722 -0.554 176 203 233
0.338204 -0.462722 -0.554 185 212 242
0.339259 -0.462722 -0.554 174 203 237
0.352557 -0.463557 -0.555 190 188 189
0.353614 -0.463557 -0.555 181 179 184
0.354671 -0.463557 -0.555 218 216 221
0.355729 -0.463557 -0.555 222 225 230
0.356786 -0.463557 -0.555 204 207 212
0.357843 -0.463557 -0.555 185 198 207
0.3589 -0.463557 -0.555 157 170 179
0.359957 -0.463557 -0.555 106 138 179
0.361665 -0.464392 -0.556 96 128 169
0.362724 -0.464392 -0.556 93 123 175
0.363783 -0.464392 -0.556 107 137 189
0.364842 -0.464392 -0.556 133 160 205
0.365901 -0.464392 -0.556 153 180 225
0.36696 -0.464392 -0.556 177 205 252
0.368019 -0.464392 -0.556 174 202 249
0.369078 -0.464392 -0.556 125 148 189
0.370137 -0.464392 -0.556 97 120 161
0.371196 -0.464392 -0.556 133 166 201
0.372255 -0.464392 -0.556 167 200 235
0.373314 -0.464392 -0.556 172 199 242
0.374373 -0.464392 -0.556 149 176 219
0.375432 -0.464392 -0.556 122 149 196
0.376491 -0.464392 -0.556 100 127 174
0.37755 -0.464392 -0.556 78 121 166
0.37861 -0.464392 -0.556 76 119 164
0.379669 -0.464392 -0.556 91 129 178
0.380728 -0.464392 -0.556 127 165 214
0.393083 -0.465228 -0.557 219 219 221
0.394144 -0.465228 -0.557 197 215 225
0.395205 -0.465228 -0.557 165 183 193
0.396977 -0.466063 -0.558 123 155 193
0.39804 -0.466063 -0.558 109 141 179
0.399103 -0.466063 -0.558 127 161 199
0.400166 -0.466063 -0.558 134 168 206
0.401229 -0.466063 -0.558 160 189 219
0.402291 -0.466063 -0.558 158 187 217
0.403354 -0.466063 -0.558 148 172 208
0.404417 -0.466063 -0.558 149 173 209
0.40548 -0.466063 -0.558 150 182 220
0.406543 -0.466063 -0.558 135 167 205
0.407606 -0.466063 -0.558 115 154 195
0.408669 -0.466063 -0.558 94 133 174
0.409731 -0.466063 -0.558 117 145 184
0.410794 -0.466063 -0.558 140 168 207
0.411857 -0.466063 -0.558 183 197 210
0.41366 -0.466898 -0.559 193 207 220
0.414725 -0.466898 -0.559 184 186 185
0.41579 -0.466898 -0.559 154 156 155
0.416854 -0.466898 -0.559 157 153 150
0.417919 -0.466898 -0.559 205 201 198
0.418984 -0.466898 -0.559 196 199 204
0.420049 -0.466898 -0.559 199 202 207
0.421113 -0.466898 -0.559 195 199 202
0.422178 -0.466898 -0.559 181 185 188
0.423243 -0.466898 -0.559 167 173 185
0.425067 -0.467733 -0.56 132 138 150
0.426133 -0.467733 -0.56 77 109 156
0.4272 -0.467733 -0.56 67 99 146
0.428267 -0.467733 -0.56 58 94 144
0.429333 -0.467733 -0.56 71 107 157
0.4304 -0.467733 -0.56 71 107 157
0.432237 -0.468569 -0.561 98 127 171
0.433306 -0.468569 -0.561 118 147 191
0.434374 -0.468569 -0.561 141 163 202
0.435443 -0.468569 -0.561 151 173 212
0.436511 -0.468569 -0.561 110 132 171
0.43836 -0.469404 -0.562 64 86 125
0.43943 -0.469404 -0.562 104 128 166
0.440501 -0.469404 -0.562 141 165 203
0.441571 -0.469404 -0.562 149 173 211
0.442642 -0.469404 -0.562 122 146 184
0.443712 -0.469404 -0.562 98 125 168
0.444783 -0.469404 -0.562 75 102 145
0.445853 -0.469404 -0.562 54 88 136
0.447719 -0.470239 -0.563 46 80 128
0.448791 -0.470239 -0.563 64 94 144
0.449864 -0.470239 -0.563 106 136 186
0.450936 -0.470239 -0.563 148 147 152
0.452009 -0.470239 -0.563 162 161 166
0.453081 -0.470239 -0.563 178 188 187
0.454153 -0.470239 -0.563 148 158 157
0.455226 -0.470239 -0.563 118 124 124
0.456298 -0.470239 -0.563 136 142 142
0.45737 -0.470239 -0.563 176 175 171
0.458443 -0.470239 -0.563 186 185 181
0.459515 -0.470239 -0.563 179 183 186
0.460588 -0.470239 -0.563 178 182 185
0.46166 -0.470239 -0.563 160 164 175
0.462732 -0.470239 -0.563 127 131 142
0.463805 -0.470239 -0.563 92 118 155
0.464877 -0.470239 -0.563 74 100 137
0.466777 -0.471074 -0.564 95 122 152
0.467022 -0.470239 -0.563 108 135 165
0.468094 -0.470239 -0.563 126 145 178
0.469167 -0.470239 -0.563 129 148 181
0.470239 -0.470239 -0.563 140 154 181
0.471311 -0.470239 -0.563 143 157 184
0.472384 -0.470239 -0.563 138 155 181
0.473456 -0.470239 -0.563 122 139 165
0.474529 -0.470239 -0.563 90 113 147
0.475601 -0.470239 -0.563 77 100 134
0.476673 -0.470239 -0.563 78 99 128
0.477746 -0.470239 -0.563 81 102 131
0.478818 -0.470239 -0.563 101 115 128
0.47989 -0.470239 -0.563 131 145 158
0.480963 -0.470239 -0.563 163 167 176
0.482035 -0.470239 -0.563 162 166 175
0.483108 -0.470239 -0.563 162 166 175
0.48418 -0.470239 -0.563 160 169 178
0.485252 -0.470239 -0.563 157 166 175
0.487189 -0.471074 -0.564 163 168 171
0.488263 -0.471074 -0.564 159 164 167
0.489337 -0.471074 -0.564 155 160 166
0.490411 -0.471074 -0.564 149 154 160
0.491486 -0.471074 -0.564 137 148 152
0.49256 -0.471074 -0.564 112 123 127
0.493634 -0.471074 -0.564 72 87 130
0.494709 -0.471074 -0.564 54 69 112
0.495783 -0.471074 -0.564 49 71 110
0.496857 -0.471074 -0.564 69 91 130
0.497931 -0.471074 -0.564 77 99 138
0.499006 -0.471074 -0.564 91 113 152
0.50008 -0.471074 -0.564 115 136 167
0.500266 -0.470239 -0.563 106 125 158
0.501338 -0.470239 -0.563 85 104 147
0.50241 -0.470239 -0.563 48 67 110
0.503483 -0.470239 -0.563 64 84 121
0.503659 -0.469404 -0.562 92 112 149
0.49569 -0.455205 -0.545 107 98 101
0.492171 -0.451029 -0.54 107 98 101
0.48772 -0.446017 -0.534 113 98 93
0.484161 -0.441841 -0.529 116 101 96
0.4815 -0.4385 -0.525 125 103 92
0.478824 -0.435159 -0.521 130 108 97
0.477974 -0.433489 -0.519 134 106 94
0.476194 -0.430983 -0.516 133 105 93
0.474403 -0.428477 -0.513 134 106 92
0.473527 -0.426807 -0.511 135 107 93
0.472643 -0.425136 -0.509 141 108 89
0.472682 -0.424301 -0.508 145 112 93
0.471785 -0.42263 -0.506 152 114 91
0.471814 -0.421795 -0.505 153 115 92
0.47184 -0.42096 -0.504 157 115 90
0.471862 -0.420125 -0.503 158 116 91
0.47188 -0.41929 -0.502 160 118 93
0.471894 -0.418454 -0.501 163 121 96
0.471905 -0.417619 -0.5 165 125 99
0.471911 -0.416784 -0.499 166 126 100
0.471914 -0.415949 -0.498 166 124 99
0.472863 -0.415949 -0.498 166 124 99
0.47286 -0.415113 -0.497 169 128 100
0.472853 -0.414278 -0.496 168 127 99
0.472843 -0.413443 -0.495 168 126 101
0.472829 -0.412608 -0.494 168 126 101
0.47281 -0.411772 -0.493 169 128 100
0.47375 -0.411772 -0.493 171 130 102
0.473726 -0.410937 -0.492 175 131 102
0.473698 -0.410102 -0.491 176 132 103
0.474633 -0.410102 -0.491 174 130 101
0.475569 -0.410102 -0.491 176 132 103
0.475533 -0.409267 -0.49 176 132 103
0.476467 -0.409267 -0.49 174 130 101
0.4774 -0.409267 -0.49 176 131 100
0.477357 -0.408431 -0.489 177 132 101
0.478289 -0.408431 -0.489 177 132 99
0.47922 -0.408431 -0.489 177 132 99
0.480151 -0.408431 -0.489 178 133 100
0.480099 -0.407596 -0.488 176 133 99
0.481029 -0.407596 -0.488 177 134 100
0.481958 -0.407596 -0.488 176 133 98
0.482888 -0.407596 -0.488 176 133 98
0.483817 -0.407596 -0.488 177 134 99
0.484747 -0.407596 -0.488 178 135 100
0.485676 -0.407596 -0.488 178 135 101
0.485609 -0.406761 -0.487 178 135 101
0.486536 -0.406761 -0.487 178 133 100
0.487464 -0.406761 -0.487 177 132 99
0.488391 -0.406761 -0.487 177 133 98
0.489319 -0.406761 -0.487 177 133 98
0.490247 -0.406761 -0.487 176 132 97
0.491174 -0.406761 -0.487 175 131 96
0.492102 -0.406761 -0.487 174 130 95
0.49303 -0.406761 -0.487 172 128 93
0.493957 -0.406761 -0.487 173 129 90
0.494885 -0.406761 -0.487 174 130 91
0.495812 -0.406761 -0.487 174 130 93
0.49674 -0.406761 -0.487 174 130 93
0.496646 -0.405926 -0.486 173 127 91
0.498595 -0.406761 -0.487 173 127 91
0.499523 -0.406761 -0.487 174 128 92
0.50045 -0.406761 -0.487 175 129 93
0.501378 -0.406761 -0.487 173 127 91
0.502306 -0.406761 -0.487 173 127 91
0.503233 -0.406761 -0.487 174 128 92
0.505196 -0.407596 -0.488 174 128 92
0.506126 -0.407596 -0.488 173 129 92
0.507055 -0.407596 -0.488 172 128 91
0.507985 -0.407596 -0.488 171 127 90
0.508914 -0.407596 -0.488 172 128 91
0.510889 -0.408431 -0.489 170 126 89
0.51182 -0.408431 -0.489 170 126 89
0.5138 -0.409267 -0.49 169 125 90
0.514733 -0.409267 -0.49 168 124 89
0.516719 -0.410102 -0.491 167 123 88
0.518709 -0.410937 -0.492 165 121 86
0.520702 -0.411772 -0.493 163 120 86
0.523757 -0.413443 -0.495 162 119 85
0.52682 -0.415113 -0.497 158 115 83
-0.0114124 -0.436151 -0.521 185 149 115
-0.01036 -0.43364 -0.518 187 146 114
-0.00931905 -0.431129 -0.515 186 145 113
-0.00828952 -0.428617 -0.512 189 145 118
-0.00725714 -0.425269 -0.508 190 146 119
-0.00625238 -0.422757 -0.505 193 149 124
-0.00526952 -0.421083 -0.503 194 150 125
-0.00429429 -0.419409 -0.501 191 150 120
-0.00333333 -0.418571 -0.5 192 151 121
-0.00237143 -0.416897 -0.498 193 152 120
-0.00142 -0.41606 -0.497 193 152 120
-0.000472381 -0.415223 -0.496 195 152 120
0.000473333 -0.41606 -0.497 194 151 119
0.00141714 -0.415223 -0.496 196 153 121
0.0023619 -0.415223 -0.496 198 155 123
0.00330667 -0.415223 -0.496 198 155 123
0.00424286 -0.414386 -0.495 198 155 123
0.00518571 -0.414386 -0.495 197 154 120
0.00612857 -0.414386 -0.495 196 153 119
0.00707143 -0.414386 -0.495 197 152 119
0.00801429 -0.414386 -0.495 197 152 119
0.00895714 -0.414386 -0.495 197 152 119
0.00988 -0.413549 -0.494 197 152 119
0.010821 -0.413549 -0.494 195 150 117
0.0117619 -0.413549 -0.494 197 152 119
0.0127286 -0.414386 -0.495 200 155 122
0.0136714 -0.414386 -0.495 200 155 122
0.0146143 -0.414386 -0.495 199 154 121
0.0155571 -0.414386 -0.495 200 155 122
0.0165 -0.414386 -0.495 198 153 120
0.0174429 -0.414386 -0.495 198 153 120
0.0183857 -0.414386 -0.495 193 149 114
0.0193286 -0.414386 -0.495 198 154 119
0.0203124 -0.415223 -0.496 202 158 123
0.0212571 -0.415223 -0.496 200 156 121
0.0222019 -0.415223 -0.496 197 153 118
0.0231467 -0.415223 -0.496 198 154 119
0.0240914 -0.415223 -0.496 200 156 121
0.0250362 -0.415223 -0.496 201 157 122
0.025981 -0.415223 -0.496 200 156 121
0.0269257 -0.415223 -0.496 195 151 116
0.0278705 -0.415223 -0.496 198 154 119
0.0288152 -0.415223 -0.496 201 157 122
0.02976 -0.415223 -0.496 200 156 121
0.0307048 -0.415223 -0.496 198 154 119
0.0316495 -0.415223 -0.496 196 152 117
0.0325943 -0.415223 -0.496 196 152 117
0.033539 -0.415223 -0.496 195 151 116
0.0344838 -0.415223 -0.496 195 151 116
0.0354286 -0.415223 -0.496 193 150 116
0.0363733 -0.415223 -0.496 193 150 116
0.0373933 -0.41606 -0.497 192 149 115
0.03834 -0.41606 -0.497 191 148 114
0.0392867 -0.41606 -0.497 190 147 113
0.0402333 -0.41606 -0.497 192 149 115
0.04118 -0.41606 -0.497 196 151 118
0.0421267 -0.41606 -0.497 196 151 118
0.04316 -0.416897 -0.498 195 150 117
0.0441086 -0.416897 -0.498 193 148 115
0.0451476 -0.417734 -0.499 193 148 117
0.0460981 -0.417734 -0.499 191 146 115
0.0471429 -0.418571 -0.5 193 148 117
0.0480952 -0.418571 -0.5 192 147 116
0.0491457 -0.419409 -0.501 190 147 115
0.0501 -0.419409 -0.501 190 147 115
0.0511562 -0.420246 -0.502 190 147 115
0.0521124 -0.420246 -0.502 186 143 111
0.0531743 -0.421083 -0.503 182 138 109
0.05424 -0.42192 -0.504 182 138 109
0.0552 -0.42192 -0.504 182 138 109
0.0562714 -0.422757 -0.505 181 137 108
0.0572333 -0.422757 -0.505 178 132 106
0.0583105 -0.423594 -0.506 174 128 102
0.0593914 -0.424431 -0.507 172 128 103
0.0604762 -0.425269 -0.508 172 128 103
0.0615648 -0.426106 -0.509 171 125 102
0.0626571 -0.426943 -0.51 168 122 99
0.0637533 -0.42778 -0.511 165 118 98
0.0648533 -0.428617 -0.512 162 115 95
0.0659571 -0.429454 -0.513 156 113 94
0.0670648 -0.430291 -0.514 152 109 90
0.0681762 -0.431129 -0.515 146 109 91
0.0694257 -0.432803 -0.517 144 107 89
0.0705467 -0.43364 -0.518 137 106 88
0.0716714 -0.434477 -0.519 134 103 85
0.07294 -0.436151 -0.521 130 101 83
0.0740743 -0.436989 -0.522 127 98 80
0.0753562 -0.438663 -0.524 117 97 86
0.0872362 -0.453731 -0.542 102 84 82
0.0884314 -0.454569 -0.543 101 86 83
0.0896305 -0.455406 -0.544 102 87 84
0.0908333 -0.456243 -0.545 105 95 94
0.0918714 -0.456243 -0.545 116 106 105
0.0929095 -0.456243 -0.545 121 119 120
0.0939476 -0.456243 -0.545 132 130 131
0.0949857 -0.456243 -0.545 140 137 146
0.0960238 -0.456243 -0.545 146 143 152
0.0968838 -0.455406 -0.544 130 135 157
0.09792 -0.455406 -0.544 104 109 131
0.0989562 -0.455406 -0.544 67 86 128
0.0998086 -0.454569 -0.543 48 67 109
0.100843 -0.454569 -0.543 41 73 122
0.101877 -0.454569 -0.543 44 76 125
0.102911 -0.454569 -0.543 61 92 138
0.103946 -0.454569 -0.543 61 92 138
0.10498 -0.454569 -0.543 76 100 138
0.106014 -0.454569 -0.543 86 110 148
0.107049 -0.454569 -0.543 99 118 160
0.108083 -0.454569 -0.543 107 126 168
0.109318 -0.455406 -0.544 82 100 148
0.110354 -0.455406 -0.544 111 129 177
0.11139 -0.455406 -0.544 133 163 201
0.112427 -0.455406 -0.544 140 170 208
0.113463 -0.455406 -0.544 120 147 192
0.114499 -0.455406 -0.544 108 135 180
0.115535 -0.455406 -0.544 98 123 179
0.116571 -0.455406 -0.544 88 113 169
0.117608 -0.455406 -0.544 87 113 170
0.118644 -0.455406 -0.544 95 121 178
0.11968 -0.455406 -0.544 122 144 185
0.120716 -0.455406 -0.544 156 178 219
0.121752 -0.455406 -0.544 192 201 216
0.122789 -0.455406 -0.544 205 214 229
0.123825 -0.455406 -0.544 218 223 227
0.124861 -0.455406 -0.544 220 225 229
0.125897 -0.455406 -0.544 220 227 237
0.126933 -0.455406 -0.544 223 230 240
0.12797 -0.455406 -0.544 227 235 246
0.129006 -0.455406 -0.544 224 232 243
0.130042 -0.455406 -0.544 230 231 236
0.131078 -0.455406 -0.544 229 230 235
0.132114 -0.455406 -0.544 214 226 240
0.13315 -0.455406 -0.544 189 201 215
0.1846 -0.45708 -0.546 110 143 194
0.18564 -0.45708 -0.546 146 169 219
0.34559 -0.463777 -0.554 161 190 222
0.346646 -0.463777 -0.554 203 220 236
0.347701 -0.463777 -0.554 217 234 250
0.348756 -0.463777 -0.554 225 230 234
0.349811 -0.463777 -0.554 223 228 232
0.359957 -0.464614 -0.555 109 141 182
0.361014 -0.464614 -0.555 93 125 166
0.362071 -0.464614 -0.555 89 118 174
0.363129 -0.464614 -0.555 101 130 186
0.364186 -0.464614 -0.555 109 136 189
0.365243 -0.464614 -0.555 124 151 204
0.3663 -0.464614 -0.555 136 167 222
0.367357 -0.464614 -0.555 138 169 224
0.368414 -0.464614 -0.555 114 140 189
0.369471 -0.464614 -0.555 118 144 193
0.370529 -0.464614 -0.555 118 155 197
0.381787 -0.465451 -0.556 198 208 207
0.382846 -0.465451 -0.556 210 220 219
0.383905 -0.465451 -0.556 210 220 219
0.384964 -0.465451 -0.556 220 217 226
0.386023 -0.465451 -0.556 225 222 231
0.387082 -0.465451 -0.556 215 220 224
0.388141 -0.465451 -0.556 182 187 191
0.3892 -0.465451 -0.556 182 177 181
0.390259 -0.465451 -0.556 214 209 213
0.391318 -0.465451 -0.556 216 217 221
0.395205 -0.466289 -0.557 151 171 182
0.396266 -0.466289 -0.557 117 150 191
0.397327 -0.466289 -0.557 108 141 182
0.398388 -0.466289 -0.557 111 148 190
0.399449 -0.466289 -0.557 115 152 194
0.401229 -0.467126 -0.558 138 169 200
0.402291 -0.467126 -0.558 145 176 207
0.403354 -0.467126 -0.558 147 175 214
0.404417 -0.467126 -0.558 143 171 210
0.40548 -0.467126 -0.558 132 167 207
0.406543 -0.467126 -0.558 118 153 193
0.407606 -0.467126 -0.558 105 150 192
0.408669 -0.467126 -0.558 91 136 178
0.409731 -0.467126 -0.558 103 134 178
0.410794 -0.467126 -0.558 132 163 207
0.411857 -0.467126 -0.558 174 190 205
0.41292 -0.467126 -0.558 191 207 222
0.413983 -0.467126 -0.558 207 211 210
