ply
format ascii 1.0
comment Created by Open3D
element vertex 1260
property double x
property double y
property double z
property uchar red
property uchar green
property uchar blue
end_header
-0.28681 -0.208314 -0.634 252 251 247
-0.285602 -0.208314 -0.634 255 255 251
-0.284843 -0.208643 -0.635 255 254 250
-0.28408 -0.208971 -0.636 252 253 248
-0.282869 -0.208971 -0.636 252 253 248
-0.2821 -0.2093 -0.637 251 252 246
-0.281328 -0.209629 -0.638 251 252 246
-0.280112 -0.209629 -0.638 251 254 247
-0.279334 -0.209957 -0.639 251 254 247
-0.278988 -0.210614 -0.641 251 254 247
-0.2782 -0.210943 -0.642 250 253 246
-0.27784 -0.2116 -0.644 252 253 247
-0.277472 -0.212257 -0.646 252 253 247
-0.277525 -0.213243 -0.649 252 253 247
-0.176263 -0.208971 -0.636 182 182 174
-0.174501 -0.208314 -0.634 182 182 174
-0.172747 -0.207657 -0.632 182 182 174
-0.170457 -0.206343 -0.628 183 183 175
-0.168991 -0.206014 -0.627 183 183 175
-0.16753 -0.205686 -0.626 183 183 175
-0.166071 -0.205357 -0.625 184 184 174
-0.164881 -0.205357 -0.625 184 184 174
-0.163952 -0.205686 -0.626 184 184 174
-0.16302 -0.206014 -0.627 184 184 174
-0.161826 -0.206014 -0.627 184 184 174
-0.160888 -0.206343 -0.628 186 183 174
-0.159946 -0.206671 -0.629 186 183 174
-0.159 -0.207 -0.63 185 185 175
-0.158301 -0.207657 -0.632 186 186 176
-0.157346 -0.207986 -0.633 186 186 176
-0.156387 -0.208314 -0.634 186 186 176
-0.155424 -0.208643 -0.635 187 187 175
-0.154457 -0.208971 -0.636 187 187 175
-0.153487 -0.2093 -0.637 187 187 175
-0.152512 -0.209629 -0.638 187 187 175
-0.151297 -0.209629 -0.638 186 186 174
-0.150552 -0.210286 -0.64 186 186 174
-0.149567 -0.210614 -0.641 186 186 174
-0.148577 -0.210943 -0.642 186 186 174
-0.147584 -0.211271 -0.643 186 187 173
-0.146587 -0.2116 -0.644 186 187 173
-0.145586 -0.211929 -0.645 188 186 173
-0.144581 -0.212257 -0.646 188 186 173
-0.143572 -0.212586 -0.647 187 185 172
-0.14234 -0.212586 -0.647 185 183 170
-0.141326 -0.212914 -0.648 185 183 170
-0.140308 -0.213243 -0.649 184 182 169
-0.139286 -0.213571 -0.65 183 181 168
-0.0525381 -0.213243 -0.649 70 68 71
-0.0509857 -0.211929 -0.645 71 71 73
-0.04968 -0.2116 -0.644 69 69 71
-0.0481524 -0.210286 -0.64 75 73 78
-0.0469333 -0.210286 -0.64 77 75 80
-0.0457143 -0.210286 -0.64 78 76 81
-0.0444952 -0.210286 -0.64 80 78 83
-0.043479 -0.211271 -0.643 84 82 87
-0.0424514 -0.212257 -0.646 87 84 91
-0.0414124 -0.213243 -0.649 88 85 92
-0.344279 -0.214479 -0.649 251 252 244
-0.340929 -0.213157 -0.645 252 253 245
-0.33812 -0.212166 -0.642 252 253 245
-0.335323 -0.211174 -0.639 252 253 245
-0.332537 -0.210183 -0.636 251 252 246
-0.330284 -0.209522 -0.634 251 252 246
-0.327519 -0.20853 -0.631 252 253 247
-0.324249 -0.207209 -0.627 251 252 246
-0.322539 -0.206878 -0.626 249 252 245
-0.320833 -0.206548 -0.625 220 223 216
-0.319643 -0.206548 -0.625 172 173 167
-0.318452 -0.206548 -0.625 151 152 146
-0.316754 -0.206217 -0.624 153 154 148
-0.315566 -0.206217 -0.624 150 151 145
-0.314377 -0.206217 -0.624 154 155 149
-0.313189 -0.206217 -0.624 154 155 149
-0.3125 -0.206548 -0.625 155 156 151
-0.31131 -0.206548 -0.625 151 152 147
-0.310119 -0.206548 -0.625 149 150 145
-0.308929 -0.206548 -0.625 149 150 145
-0.286357 -0.209191 -0.633 241 237 234
-0.285602 -0.209522 -0.634 254 255 250
-0.284394 -0.209522 -0.634 253 254 249
-0.283633 -0.209852 -0.635 252 253 248
-0.282869 -0.210183 -0.636 252 253 248
-0.281657 -0.210183 -0.636 252 253 248
-0.280887 -0.210513 -0.637 252 253 248
-0.280112 -0.210844 -0.638 252 253 248
-0.279334 -0.211174 -0.639 252 253 248
-0.278552 -0.211505 -0.64 251 254 247
-0.277767 -0.211835 -0.641 251 254 247
-0.276977 -0.212166 -0.642 252 253 247
-0.277043 -0.213157 -0.645 252 253 247
-0.27667 -0.213818 -0.647 251 252 246
-0.276714 -0.21481 -0.65 251 252 246
-0.175709 -0.209522 -0.634 182 182 174
-0.17395 -0.208861 -0.632 182 182 174
-0.1722 -0.2082 -0.63 182 182 172
-0.170457 -0.207539 -0.628 184 184 174
-0.168722 -0.206878 -0.626 184 184 174
-0.167262 -0.206548 -0.625 184 184 174
-0.165806 -0.206217 -0.624 184 184 174
-0.164881 -0.206548 -0.625 185 185 175
-0.163952 -0.206878 -0.626 184 184 174
-0.16302 -0.207209 -0.627 184 184 174
-0.162084 -0.207539 -0.628 185 185 175
-0.161144 -0.20787 -0.629 187 184 175
-0.1602 -0.2082 -0.63 187 184 175
-0.159252 -0.20853 -0.631 187 184 175
-0.158301 -0.208861 -0.632 187 184 175
-0.157346 -0.209191 -0.633 188 185 176
-0.156387 -0.209522 -0.634 188 185 176
-0.155669 -0.210183 -0.636 189 186 177
-0.1547 -0.210513 -0.637 189 186 177
-0.153487 -0.210513 -0.637 189 187 175
-0.152512 -0.210844 -0.638 189 187 175
-0.151534 -0.211174 -0.639 188 186 174
-0.150552 -0.211505 -0.64 188 186 174
-0.149567 -0.211835 -0.641 188 186 174
-0.148809 -0.212496 -0.643 188 186 174
-0.147813 -0.212827 -0.644 188 186 174
-0.146814 -0.213157 -0.645 188 186 174
-0.145811 -0.213488 -0.646 187 185 172
-0.144581 -0.213488 -0.646 187 185 172
-0.143572 -0.213818 -0.647 186 184 171
-0.14256 -0.214149 -0.648 184 182 169
-0.141544 -0.214479 -0.649 183 181 168
-0.140308 -0.214479 -0.649 183 181 168
-0.139286 -0.21481 -0.65 182 180 167
-0.0537743 -0.214479 -0.649 68 67 72
-0.0522143 -0.213157 -0.645 67 66 71
-0.0508276 -0.212496 -0.643 74 73 78
-0.0494486 -0.211835 -0.641 69 68 73
-0.0480771 -0.211174 -0.639 75 74 79
-0.04686 -0.211174 -0.639 78 76 81
-0.0456429 -0.211174 -0.639 78 76 81
-0.0444952 -0.211505 -0.64 80 78 83
-0.043479 -0.212496 -0.643 83 81 86
-0.0423857 -0.213157 -0.645 84 83 89
-0.0413486 -0.214149 -0.648 85 84 90
-0.345515 -0.215715 -0.649 251 252 246
-0.342688 -0.214718 -0.646 251 252 244
-0.339871 -0.213721 -0.643 252 253 245
-0.33654 -0.212391 -0.639 252 253 245
-0.333749 -0.211394 -0.636 251 252 244
-0.331491 -0.21073 -0.634 251 252 246
-0.328721 -0.209732 -0.631 250 251 245
-0.326481 -0.209068 -0.629 251 252 246
-0.324249 -0.208403 -0.627 253 254 248
-0.322024 -0.207738 -0.625 236 239 232
-0.320833 -0.207738 -0.625 193 196 189
-0.319643 -0.207738 -0.625 157 158 152
-0.318452 -0.207738 -0.625 150 151 145
-0.316754 -0.207406 -0.624 152 153 147
-0.315566 -0.207406 -0.624 146 147 141
-0.314377 -0.207406 -0.624 152 153 147
-0.313189 -0.207406 -0.624 151 152 146
-0.312 -0.207406 -0.624 153 154 149
-0.310811 -0.207406 -0.624 151 152 147
-0.284394 -0.21073 -0.634 249 250 245
-0.283187 -0.21073 -0.634 251 252 247
-0.282424 -0.211062 -0.635 252 253 248
-0.281214 -0.211062 -0.635 253 252 248
-0.280446 -0.211394 -0.636 253 252 248
-0.279673 -0.211727 -0.637 252 253 248
-0.278897 -0.212059 -0.638 252 253 248
-0.278117 -0.212391 -0.639 251 253 248
-0.277333 -0.212724 -0.64 251 253 248
-0.276546 -0.213056 -0.641 252 253 247
-0.276184 -0.213721 -0.643 252 253 247
-0.276242 -0.214718 -0.646 251 252 246
-0.276289 -0.215715 -0.649 251 252 246
-0.175431 -0.210397 -0.633 183 183 173
-0.17395 -0.210065 -0.632 183 183 173
-0.171927 -0.209068 -0.629 185 182 173
-0.170186 -0.208403 -0.627 186 183 174
-0.168722 -0.20807 -0.626 187 184 175
-0.167262 -0.207738 -0.625 187 184 175
-0.165806 -0.207406 -0.624 185 185 175
-0.164881 -0.207738 -0.625 185 185 175
-0.163952 -0.20807 -0.626 185 185 175
-0.16302 -0.208403 -0.627 186 184 172
-0.162084 -0.208735 -0.628 187 185 173
-0.161144 -0.209068 -0.629 188 185 176
-0.1602 -0.2094 -0.63 188 185 176
-0.159252 -0.209732 -0.631 187 184 175
-0.158301 -0.210065 -0.632 187 184 175
-0.157346 -0.210397 -0.633 187 184 175
-0.156633 -0.211062 -0.635 188 185 176
-0.155669 -0.211394 -0.636 187 184 175
-0.1547 -0.211727 -0.637 188 185 176
-0.153728 -0.212059 -0.638 188 186 174
-0.152751 -0.212391 -0.639 188 186 174
-0.151771 -0.212724 -0.64 188 186 174
-0.150788 -0.213056 -0.641 188 186 174
-0.1498 -0.213389 -0.642 188 186 174
-0.148809 -0.213721 -0.643 188 186 174
-0.147813 -0.214053 -0.644 188 186 174
-0.146814 -0.214386 -0.645 188 186 174
-0.145811 -0.214718 -0.646 186 184 171
-0.144805 -0.21505 -0.647 185 183 170
-0.143794 -0.215383 -0.648 185 183 170
-0.14256 -0.215383 -0.648 184 182 169
-0.141544 -0.215715 -0.649 182 180 167
-0.140524 -0.216048 -0.65 181 179 166
-0.0550105 -0.215715 -0.649 69 68 74
-0.0536086 -0.21505 -0.647 70 69 75
-0.0520524 -0.213721 -0.643 69 68 74
-0.0506695 -0.213056 -0.641 72 71 76
-0.0493714 -0.212724 -0.64 70 69 74
-0.0480019 -0.212059 -0.638 73 72 77
-0.0467867 -0.212059 -0.638 76 74 79
-0.0456429 -0.212391 -0.639 77 75 80
-0.0444257 -0.212391 -0.639 81 79 84
-0.0434114 -0.213389 -0.642 82 80 85
-0.0423857 -0.214386 -0.645 82 81 87
-0.0413486 -0.215383 -0.648 83 82 88
-0.347286 -0.217286 -0.65 252 253 247
-0.34445 -0.216283 -0.647 251 252 246
-0.341627 -0.21528 -0.644 251 252 244
-0.338814 -0.214277 -0.641 251 252 244
-0.335487 -0.21294 -0.637 251 252 244
-0.332699 -0.211937 -0.634 250 251 243
-0.330446 -0.211269 -0.632 250 251 245
-0.3282 -0.2106 -0.63 250 251 245
-0.325962 -0.209931 -0.628 251 252 246
-0.323214 -0.208929 -0.625 251 252 246
-0.322024 -0.208929 -0.625 214 217 210
-0.320833 -0.208929 -0.625 167 170 163
-0.319131 -0.208594 -0.624 152 153 147
-0.317943 -0.208594 -0.624 148 149 143
-0.316754 -0.208594 -0.624 142 143 137
-0.315566 -0.208594 -0.624 143 144 138
-0.314377 -0.208594 -0.624 150 149 144
-0.313189 -0.208594 -0.624 149 148 143
-0.312 -0.208594 -0.624 150 151 146
-0.283946 -0.211603 -0.633 251 252 247
-0.283187 -0.211937 -0.634 251 252 247
-0.281979 -0.211937 -0.634 252 253 248
-0.281214 -0.212271 -0.635 253 252 248
-0.280446 -0.212606 -0.636 253 252 248
-0.279234 -0.212606 -0.636 253 252 248
-0.27846 -0.21294 -0.637 253 252 248
-0.277682 -0.213274 -0.638 251 253 248
-0.2769 -0.213609 -0.639 251 253 248
-0.276114 -0.213943 -0.64 252 253 248
-0.276184 -0.214946 -0.643 252 253 248
-0.276242 -0.215949 -0.646 251 252 247
-0.275863 -0.216617 -0.648 251 252 247
-0.175154 -0.211269 -0.632 183 183 175
-0.173675 -0.210934 -0.631 184 184 176
-0.171927 -0.210266 -0.629 186 183 174
-0.170186 -0.209597 -0.627 186 183 174
-0.168722 -0.209263 -0.626 187 184 175
-0.167262 -0.208929 -0.625 188 185 176
-0.165806 -0.208594 -0.624 185 185 175
-0.164881 -0.208929 -0.625 185 185 175
-0.163952 -0.209263 -0.626 185 185 175
-0.16302 -0.209597 -0.627 186 183 174
-0.162084 -0.209931 -0.628 187 184 175
-0.161144 -0.210266 -0.629 186 186 176
-0.1602 -0.2106 -0.63 187 187 177
-0.159252 -0.210934 -0.631 186 186 174
-0.158301 -0.211269 -0.632 185 185 173
-0.157594 -0.211937 -0.634 188 186 174
-0.156633 -0.212271 -0.635 188 186 174
-0.155669 -0.212606 -0.636 187 184 175
-0.1547 -0.21294 -0.637 188 185 176
-0.153728 -0.213274 -0.638 189 187 175
-0.152751 -0.213609 -0.639 189 187 175
-0.151771 -0.213943 -0.64 189 187 174
-0.150788 -0.214277 -0.641 188 186 173
-0.1498 -0.214611 -0.642 188 186 173
-0.148809 -0.214946 -0.643 188 186 173
-0.147813 -0.21528 -0.644 188 186 174
-0.146814 -0.215614 -0.645 187 185 173
-0.145811 -0.215949 -0.646 186 184 171
-0.144805 -0.216283 -0.647 185 183 170
-0.143794 -0.216617 -0.648 184 182 169
-0.14278 -0.216951 -0.649 183 181 168
-0.141762 -0.217286 -0.65 181 179 166
-0.05616 -0.216617 -0.648 65 64 70
-0.0547562 -0.215949 -0.646 68 67 73
-0.0532771 -0.214946 -0.643 67 66 72
-0.0518905 -0.214277 -0.641 70 69 75
-0.0505114 -0.213609 -0.639 68 67 72
-0.0492171 -0.213274 -0.638 69 68 73
-0.0479267 -0.21294 -0.637 73 72 77
-0.0467133 -0.21294 -0.637 75 73 78
-0.0455714 -0.213274 -0.638 77 75 80
-0.0444257 -0.213609 -0.639 80 77 84
-0.0434114 -0.214611 -0.642 81 78 85
-0.0423857 -0.215614 -0.645 81 80 86
-0.0413486 -0.216617 -0.648 82 81 87
-0.346217 -0.217851 -0.648 251 252 244
-0.343386 -0.216843 -0.645 251 252 244
-0.340566 -0.215834 -0.642 251 252 244
-0.337757 -0.214826 -0.639 251 252 244
-0.33496 -0.213817 -0.636 252 253 247
-0.332174 -0.212809 -0.633 252 253 247
-0.329923 -0.212136 -0.631 252 253 247
-0.327679 -0.211464 -0.629 252 253 247
-0.325443 -0.210791 -0.627 254 255 248
-0.322697 -0.209783 -0.624 245 248 239
-0.321509 -0.209783 -0.624 202 203 197
-0.32032 -0.209783 -0.624 165 166 160
-0.319131 -0.209783 -0.624 148 149 143
-0.317943 -0.209783 -0.624 144 145 139
-0.316754 -0.209783 -0.624 143 144 138
-0.315566 -0.209783 -0.624 142 143 137
-0.314377 -0.209783 -0.624 149 150 144
-0.313189 -0.209783 -0.624 148 149 143
-0.312 -0.209783 -0.624 149 148 144
-0.283946 -0.212809 -0.633 255 255 250
-0.28274 -0.212809 -0.633 253 252 247
-0.281979 -0.213145 -0.634 253 252 247
-0.281214 -0.213481 -0.635 250 253 246
-0.280005 -0.213481 -0.635 250 253 246
-0.279234 -0.213817 -0.636 250 253 246
-0.27846 -0.214153 -0.637 250 253 246
-0.277682 -0.21449 -0.638 250 253 246
-0.2769 -0.214826 -0.639 251 254 247
-0.276114 -0.215162 -0.64 252 253 247
-0.275754 -0.215834 -0.642 252 253 247
-0.275814 -0.216843 -0.645 251 252 246
-0.275863 -0.217851 -0.648 251 252 246
-0.175154 -0.212472 -0.632 183 183 175
-0.1734 -0.2118 -0.63 184 184 176
-0.171653 -0.211128 -0.628 186 183 174
-0.170186 -0.210791 -0.627 187 184 175
-0.168722 -0.210455 -0.626 187 184 175
-0.167262 -0.210119 -0.625 188 185 176
-0.166071 -0.210119 -0.625 185 185 177
-0.165145 -0.210455 -0.626 185 185 177
-0.164214 -0.210791 -0.627 185 185 177
-0.16328 -0.211128 -0.628 186 183 174
-0.162342 -0.211464 -0.629 187 184 175
-0.1614 -0.2118 -0.63 185 185 175
-0.160454 -0.212136 -0.631 187 187 177
-0.159505 -0.212472 -0.632 187 187 175
-0.158551 -0.212809 -0.633 186 186 174
-0.157594 -0.213145 -0.634 187 187 175
-0.156633 -0.213481 -0.635 186 186 174
-0.155669 -0.213817 -0.636 188 186 174
-0.154943 -0.21449 -0.638 189 187 175
-0.153969 -0.214826 -0.639 189 187 175
-0.15299 -0.215162 -0.64 189 187 175
-0.152009 -0.215498 -0.641 189 187 174
-0.151023 -0.215834 -0.642 188 186 173
-0.150033 -0.21617 -0.643 189 185 173
-0.14904 -0.216507 -0.644 188 184 172
-0.148043 -0.216843 -0.645 188 184 172
-0.147042 -0.217179 -0.646 188 184 172
-0.146037 -0.217515 -0.647 186 184 169
-0.145029 -0.217851 -0.648 184 182 167
-0.144016 -0.218188 -0.649 184 182 169
-0.14278 -0.218188 -0.649 183 181 168
-0.141762 -0.218524 -0.65 180 178 165
-0.0574829 -0.218188 -0.649 73 71 76
-0.0559 -0.216843 -0.645 68 67 73
-0.0545019 -0.21617 -0.643 67 66 72
-0.0530286 -0.215162 -0.64 65 64 70
-0.0516476 -0.21449 -0.638 71 70 76
-0.0503533 -0.214153 -0.637 69 68 73
-0.04914 -0.214153 -0.637 69 68 73
-0.0478514 -0.213817 -0.636 71 70 75
-0.0467133 -0.214153 -0.637 71 70 75
-0.0455714 -0.21449 -0.638 79 77 82
-0.0444257 -0.214826 -0.639 80 77 84
-0.0434114 -0.215834 -0.642 81 78 85
-0.0423857 -0.216843 -0.645 81 80 86
-0.0413486 -0.217851 -0.648 82 81 87
-0.0402381 -0.218524 -0.65 82 81 89
-0.347988 -0.219424 -0.649 252 253 245
-0.345683 -0.218748 -0.647 251 252 246
-0.342853 -0.217733 -0.644 251 252 246
-0.340035 -0.216719 -0.641 251 252 246
-0.337229 -0.215705 -0.638 251 252 246
-0.333907 -0.214352 -0.634 252 253 247
-0.33165 -0.213676 -0.632 252 253 247
-0.3294 -0.213 -0.63 252 253 247
-0.326637 -0.211986 -0.627 252 253 247
-0.324405 -0.21131 -0.625 254 255 248
-0.32218 -0.210633 -0.623 238 241 232
-0.320993 -0.210633 -0.623 191 194 187
-0.319807 -0.210633 -0.623 159 162 155
-0.31862 -0.210633 -0.623 146 147 141
-0.317433 -0.210633 -0.623 142 143 137
-0.316247 -0.210633 -0.623 140 141 135
-0.31506 -0.210633 -0.623 138 139 133
-0.314377 -0.210971 -0.624 144 145 139
-0.313189 -0.210971 -0.624 144 145 139
-0.312 -0.210971 -0.624 145 144 140
-0.283497 -0.213676 -0.632 255 255 251
-0.28274 -0.214014 -0.633 252 251 246
-0.281979 -0.214352 -0.634 252 251 246
-0.280771 -0.214352 -0.634 250 253 246
-0.280005 -0.21469 -0.635 251 254 247
-0.279234 -0.215029 -0.636 251 254 247
-0.278023 -0.215029 -0.636 251 254 247
-0.277247 -0.215367 -0.637 251 254 247
-0.276467 -0.215705 -0.638 251 254 247
-0.275683 -0.216043 -0.639 251 252 246
-0.275754 -0.217057 -0.642 251 252 246
-0.275387 -0.217733 -0.644 251 252 246
-0.275437 -0.218748 -0.647 251 252 246
-0.275476 -0.219762 -0.65 251 252 246
-0.176637 -0.214014 -0.633 185 182 173
-0.174877 -0.213338 -0.631 185 182 173
-0.1734 -0.213 -0.63 186 183 174
-0.171653 -0.212324 -0.628 187 184 175
-0.170186 -0.211986 -0.627 188 185 176
-0.168722 -0.211648 -0.626 188 185 176
-0.167262 -0.21131 -0.625 187 184 175
-0.165806 -0.210971 -0.624 187 184 175
-0.165145 -0.211648 -0.626 188 185 176
-0.164214 -0.211986 -0.627 188 185 176
-0.16328 -0.212324 -0.628 188 185 176
-0.162342 -0.212662 -0.629 188 185 176
-0.1614 -0.213 -0.63 187 185 173
-0.160454 -0.213338 -0.631 188 186 174
-0.159505 -0.213676 -0.632 188 186 174
-0.158551 -0.214014 -0.633 188 186 174
-0.157594 -0.214352 -0.634 189 187 175
-0.15688 -0.215029 -0.636 189 187 175
-0.155913 -0.215367 -0.637 189 187 174
-0.154943 -0.215705 -0.638 190 188 175
-0.153969 -0.216043 -0.639 187 188 174
-0.15299 -0.216381 -0.64 187 188 174
-0.152009 -0.216719 -0.641 188 186 171
-0.151023 -0.217057 -0.642 189 187 172
-0.150033 -0.217395 -0.643 189 187 172
-0.14904 -0.217733 -0.644 188 186 171
-0.148043 -0.218071 -0.645 184 185 169
-0.147042 -0.21841 -0.646 185 186 170
-0.146037 -0.218748 -0.647 183 184 170
-0.145029 -0.219086 -0.648 183 184 170
-0.144016 -0.219424 -0.649 182 183 169
-0.14278 -0.219424 -0.649 179 180 166
-0.141762 -0.219762 -0.65 178 179 163
-0.0586286 -0.219086 -0.648 68 68 70
-0.0571286 -0.218071 -0.645 68 68 70
-0.0555533 -0.216719 -0.641 68 68 70
-0.0541629 -0.216043 -0.639 69 69 71
-0.0528629 -0.215705 -0.638 70 70 72
-0.0514857 -0.215029 -0.636 70 70 72
-0.0502743 -0.215029 -0.636 71 71 73
-0.0490629 -0.215029 -0.636 72 72 74
-0.0477762 -0.21469 -0.635 76 70 80
-0.04664 -0.215029 -0.636 77 71 81
-0.0456429 -0.216043 -0.639 79 73 83
-0.0444952 -0.216381 -0.64 78 75 84
-0.0434114 -0.217057 -0.642 81 78 87
-0.0423857 -0.218071 -0.645 81 80 86
-0.0413486 -0.219086 -0.648 82 81 87
-0.0402381 -0.219762 -0.65 82 81 89
-0.347451 -0.22032 -0.648 252 253 247
-0.344614 -0.2193 -0.645 251 252 246
-0.341789 -0.21828 -0.642 251 252 246
-0.338974 -0.21726 -0.639 251 252 246
-0.336171 -0.21624 -0.636 251 252 246
-0.33338 -0.21522 -0.633 251 252 246
-0.331125 -0.21454 -0.631 252 253 247
-0.328877 -0.21386 -0.629 252 253 247
-0.326637 -0.21318 -0.627 252 253 247
-0.323886 -0.21216 -0.624 252 255 248
-0.32218 -0.21182 -0.623 229 235 225
-0.320993 -0.21182 -0.623 181 184 175
-0.319807 -0.21182 -0.623 153 156 147
-0.31862 -0.21182 -0.623 144 147 140
-0.317433 -0.21182 -0.623 139 142 135
-0.316247 -0.21182 -0.623 136 139 132
-0.31506 -0.21182 -0.623 134 137 130
-0.313873 -0.21182 -0.623 139 140 134
-0.313189 -0.21216 -0.624 139 140 134
-0.283497 -0.21488 -0.632 255 255 251
-0.28274 -0.21522 -0.633 251 252 246
-0.281534 -0.21522 -0.633 251 252 246
-0.280771 -0.21556 -0.634 252 253 247
-0.280005 -0.2159 -0.635 252 253 247
-0.278795 -0.2159 -0.635 251 254 247
-0.278023 -0.21624 -0.636 251 254 247
-0.277247 -0.21658 -0.637 251 254 247
-0.276467 -0.21692 -0.638 250 253 246
-0.275683 -0.21726 -0.639 251 252 246
-0.275325 -0.21794 -0.641 251 252 246
-0.275387 -0.21896 -0.644 251 252 246
-0.275437 -0.21998 -0.647 251 252 246
-0.275476 -0.221 -0.65 251 252 247
-0.176358 -0.21488 -0.632 186 183 174
-0.174877 -0.21454 -0.631 186 183 174
-0.173125 -0.21386 -0.629 187 184 175
-0.171653 -0.21352 -0.628 188 185 176
-0.170186 -0.21318 -0.627 187 184 175
-0.168722 -0.21284 -0.626 188 185 176
-0.166994 -0.21216 -0.624 188 185 176
-0.16554 -0.21182 -0.623 188 185 176
-0.165145 -0.21284 -0.626 188 186 174
-0.164214 -0.21318 -0.627 188 186 174
-0.16328 -0.21352 -0.628 188 186 174
-0.162342 -0.21386 -0.629 188 186 174
-0.161656 -0.21454 -0.631 188 186 174
-0.160709 -0.21488 -0.632 188 186 174
-0.159757 -0.21522 -0.633 188 186 174
-0.158802 -0.21556 -0.634 188 186 174
-0.157843 -0.2159 -0.635 189 187 175
-0.15688 -0.21624 -0.636 189 187 175
-0.155913 -0.21658 -0.637 189 187 174
-0.154943 -0.21692 -0.638 189 187 174
-0.153969 -0.21726 -0.639 187 188 174
-0.15299 -0.2176 -0.64 188 189 175
-0.152009 -0.21794 -0.641 189 187 174
-0.151023 -0.21828 -0.642 189 187 174
-0.150267 -0.21896 -0.644 189 187 174
-0.149271 -0.2193 -0.645 187 185 172
-0.148272 -0.21964 -0.646 183 184 168
-0.14727 -0.21998 -0.647 183 184 168
-0.146037 -0.21998 -0.647 182 183 169
-0.145029 -0.22032 -0.648 182 183 169
-0.144016 -0.22066 -0.649 181 182 168
-0.14278 -0.22066 -0.649 179 180 166
-0.141762 -0.221 -0.65 177 178 164
-0.0612857 -0.221 -0.65 70 70 72
-0.0597705 -0.21998 -0.647 69 69 71
-0.0581762 -0.21862 -0.643 67 66 71
-0.0566857 -0.2176 -0.64 67 66 71
-0.0552067 -0.21658 -0.637 68 67 73
-0.0539086 -0.21624 -0.636 69 68 74
-0.0526143 -0.2159 -0.635 71 70 76
-0.0513238 -0.21556 -0.634 71 70 76
-0.0501162 -0.21556 -0.634 72 71 77
-0.0489086 -0.21556 -0.634 72 71 77
-0.047701 -0.21556 -0.634 74 71 80
-0.04664 -0.21624 -0.636 77 71 81
-0.0455714 -0.21692 -0.638 78 72 82
-0.0444952 -0.2176 -0.64 78 75 84
-0.0434114 -0.21828 -0.642 81 78 87
-0.0423857 -0.2193 -0.645 84 81 90
-0.0413486 -0.22032 -0.648 83 80 89
-0.0402381 -0.221 -0.65 83 80 89
-0.346915 -0.221212 -0.647 252 253 247
-0.344614 -0.220529 -0.645 251 252 246
-0.341789 -0.219503 -0.642 251 252 246
-0.338974 -0.218477 -0.639 251 252 246
-0.335643 -0.21711 -0.635 251 252 246
-0.332853 -0.216084 -0.632 251 252 246
-0.3306 -0.2154 -0.63 251 252 246
-0.328354 -0.214716 -0.628 251 252 246
-0.326116 -0.214032 -0.626 251 252 246
-0.323886 -0.213349 -0.624 252 255 248
-0.321663 -0.212665 -0.622 225 231 221
-0.320478 -0.212665 -0.622 171 177 167
-0.319807 -0.213007 -0.623 147 153 143
-0.31862 -0.213007 -0.623 142 145 138
-0.317433 -0.213007 -0.623 137 140 133
-0.316247 -0.213007 -0.623 132 135 128
-0.31506 -0.213007 -0.623 132 135 128
-0.313873 -0.213007 -0.623 137 138 132
-0.283497 -0.216084 -0.632 255 255 251
-0.28274 -0.216426 -0.633 252 253 247
-0.281534 -0.216426 -0.633 252 253 247
-0.280771 -0.216768 -0.634 252 253 247
-0.280005 -0.21711 -0.635 252 253 247
-0.278795 -0.21711 -0.635 251 254 247
-0.278023 -0.217451 -0.636 251 254 247
-0.277247 -0.217793 -0.637 250 253 246
-0.276467 -0.218135 -0.638 250 253 246
-0.275683 -0.218477 -0.639 251 252 246
-0.275754 -0.219503 -0.642 251 252 246
-0.275387 -0.220187 -0.644 251 252 246
-0.275437 -0.221212 -0.647 250 251 245
-0.275052 -0.221896 -0.649 250 251 245
-0.176358 -0.216084 -0.632 186 183 174
-0.174877 -0.215742 -0.631 186 183 174
-0.173125 -0.215058 -0.629 188 185 176
-0.171653 -0.214716 -0.628 189 187 175
-0.170186 -0.214374 -0.627 188 186 174
-0.168722 -0.214032 -0.626 189 187 175
-0.167262 -0.21369 -0.625 189 187 175
-0.165806 -0.213349 -0.624 189 187 175
-0.165145 -0.214032 -0.626 188 186 174
-0.164214 -0.214374 -0.627 188 186 174
-0.16328 -0.214716 -0.628 188 186 174
-0.1626 -0.2154 -0.63 188 186 174
-0.161656 -0.215742 -0.631 189 187 175
-0.160709 -0.216084 -0.632 188 186 174
-0.159757 -0.216426 -0.633 188 186 174
-0.158802 -0.216768 -0.634 189 187 175
-0.157843 -0.21711 -0.635 189 187 175
-0.15688 -0.217451 -0.636 190 188 176
-0.155913 -0.217793 -0.637 190 188 176
-0.155186 -0.218477 -0.639 190 188 176
-0.15421 -0.218819 -0.64 187 187 175
-0.15323 -0.219161 -0.641 188 188 176
-0.152246 -0.219503 -0.642 190 188 175
-0.151258 -0.219845 -0.643 189 187 174
-0.150267 -0.220187 -0.644 188 186 173
-0.149271 -0.220529 -0.645 186 184 171
-0.148272 -0.22087 -0.646 183 184 170
-0.14727 -0.221212 -0.647 182 183 169
-0.146263 -0.221554 -0.648 181 182 168
-0.145029 -0.221554 -0.648 181 182 168
-0.144016 -0.221896 -0.649 180 181 167
-0.14278 -0.221896 -0.649 179 180 166
-0.141762 -0.222238 -0.65 177 178 164
-0.0625238 -0.222238 -0.65 73 72 77
-0.0609086 -0.22087 -0.646 70 69 74
-0.059401 -0.219845 -0.643 66 65 70
-0.0579048 -0.218819 -0.64 67 66 72
-0.05642 -0.217793 -0.637 68 67 73
-0.0550333 -0.21711 -0.635 69 68 74
-0.053739 -0.216768 -0.634 70 69 75
-0.0524486 -0.216426 -0.633 71 70 78
-0.0513238 -0.216768 -0.634 71 70 76
-0.0501162 -0.216768 -0.634 72 71 77
-0.0489086 -0.216768 -0.634 72 71 77
-0.047701 -0.216768 -0.634 74 71 80
-0.0465667 -0.21711 -0.635 75 72 81
-0.0455 -0.217793 -0.637 76 73 80
-0.0445648 -0.219161 -0.641 79 76 83
-0.043479 -0.219845 -0.643 81 78 85
-0.0424514 -0.22087 -0.646 83 80 89
-0.0413486 -0.221554 -0.648 84 81 90
-0.0402381 -0.222238 -0.65 81 80 88
-0.346379 -0.222101 -0.646 252 253 245
-0.34408 -0.221413 -0.644 251 252 244
-0.341256 -0.220382 -0.641 251 252 244
-0.338444 -0.21935 -0.638 251 252 246
-0.335643 -0.218319 -0.635 251 252 246
-0.332853 -0.217288 -0.632 251 252 246
-0.330075 -0.216256 -0.629 251 252 246
-0.327831 -0.215569 -0.627 251 252 246
-0.325595 -0.214881 -0.625 251 252 246
-0.323367 -0.214193 -0.623 252 255 250
-0.321663 -0.21385 -0.622 222 227 220
-0.320478 -0.21385 -0.622 166 171 164
-0.319293 -0.21385 -0.622 142 147 140
-0.31862 -0.214193 -0.623 138 143 136
-0.317433 -0.214193 -0.623 132 137 130
-0.316247 -0.214193 -0.623 128 130 125
-0.283497 -0.217288 -0.632 255 255 251
-0.28274 -0.217631 -0.633 253 254 249
-0.281534 -0.217631 -0.633 253 254 249
-0.280771 -0.217975 -0.634 252 253 247
-0.280005 -0.218319 -0.635 252 253 247
-0.278795 -0.218319 -0.635 250 253 246
-0.278023 -0.218663 -0.636 250 253 246
-0.277247 -0.219007 -0.637 250 253 246
-0.276467 -0.21935 -0.638 250 253 246
-0.275683 -0.219694 -0.639 251 252 246
-0.275754 -0.220726 -0.642 251 252 246
-0.275387 -0.221413 -0.644 251 252 246
-0.275437 -0.222445 -0.647 250 251 245
-0.275052 -0.223132 -0.649 250 251 245
-0.176358 -0.217288 -0.632 186 183 174
-0.174877 -0.216944 -0.631 185 182 173
-0.1734 -0.2166 -0.63 187 184 175
-0.171653 -0.215912 -0.628 189 187 175
-0.170186 -0.215569 -0.627 189 187 175
-0.168722 -0.215225 -0.626 189 187 175
-0.167262 -0.214881 -0.625 189 187 175
-0.165806 -0.214537 -0.624 189 187 175
-0.165145 -0.215225 -0.626 188 186 174
-0.164214 -0.215569 -0.627 188 186 174
-0.16354 -0.216256 -0.629 188 186 174
-0.1626 -0.2166 -0.63 188 186 174
-0.161656 -0.216944 -0.631 189 187 175
-0.160709 -0.217288 -0.632 189 187 175
-0.16001 -0.217975 -0.634 189 187 175
-0.159052 -0.218319 -0.635 190 188 176
-0.158091 -0.218663 -0.636 190 188 176
-0.157127 -0.219007 -0.637 190 188 176
-0.156158 -0.21935 -0.638 190 188 176
-0.155186 -0.219694 -0.639 190 188 176
-0.15421 -0.220038 -0.64 187 187 175
-0.15323 -0.220382 -0.641 188 188 176
-0.152246 -0.220726 -0.642 189 187 174
-0.151258 -0.22107 -0.643 188 186 173
-0.150267 -0.221413 -0.644 185 186 172
-0.149271 -0.221757 -0.645 184 185 171
-0.148272 -0.222101 -0.646 183 184 170
-0.14727 -0.222445 -0.647 182 183 169
-0.146263 -0.222789 -0.648 181 182 168
-0.145029 -0.222789 -0.648 179 180 166
-0.144016 -0.223132 -0.649 178 179 165
-0.143 -0.223476 -0.65 177 178 164
-0.0637619 -0.223476 -0.65 73 72 77
-0.0620429 -0.221757 -0.645 66 65 70
-0.0604371 -0.220382 -0.641 62 61 66
-0.058939 -0.21935 -0.638 68 67 72
-0.0576333 -0.219007 -0.637 68 67 72
-0.05642 -0.219007 -0.637 68 67 73
-0.0550333 -0.218319 -0.635 69 68 74
-0.053739 -0.217975 -0.634 70 69 75
-0.0524486 -0.217631 -0.633 71 70 78
-0.0511619 -0.217288 -0.632 72 71 79
-0.0500371 -0.217631 -0.633 73 72 80
-0.0488314 -0.217631 -0.633 73 72 80
-0.0476257 -0.217631 -0.633 74 73 79
-0.0465667 -0.218319 -0.635 74 73 79
-0.0455 -0.219007 -0.637 75 74 80
-0.0444257 -0.219694 -0.639 76 75 81
-0.043479 -0.22107 -0.643 80 79 85
-0.0423857 -0.221757 -0.645 81 80 88
-0.0413486 -0.222789 -0.648 83 82 90
-0.0402381 -0.223476 -0.65 79 78 86
-0.346379 -0.223331 -0.646 252 253 245
-0.343546 -0.222294 -0.643 252 253 245
-0.340724 -0.221257 -0.64 252 253 245
-0.337913 -0.22022 -0.637 252 253 245
-0.335114 -0.219183 -0.634 251 252 244
-0.332327 -0.218146 -0.631 251 252 244
-0.330075 -0.217454 -0.629 251 252 244
-0.327831 -0.216763 -0.627 251 252 246
-0.325595 -0.216071 -0.625 251 252 246
-0.323367 -0.21538 -0.623 252 255 250
-0.321663 -0.215034 -0.622 221 226 219
-0.320478 -0.215034 -0.622 165 170 163
-0.319293 -0.215034 -0.622 140 145 138
-0.318109 -0.215034 -0.622 137 142 135
-0.316924 -0.215034 -0.622 130 135 128
-0.283497 -0.218491 -0.632 255 255 251
-0.28274 -0.218837 -0.633 254 255 250
-0.281534 -0.218837 -0.633 253 254 249
-0.280771 -0.219183 -0.634 252 253 247
-0.280005 -0.219529 -0.635 252 253 247
-0.278795 -0.219529 -0.635 251 252 246
-0.278023 -0.219874 -0.636 251 252 246
-0.277247 -0.22022 -0.637 250 253 246
-0.276467 -0.220566 -0.638 250 253 246
-0.275683 -0.220911 -0.639 251 252 246
-0.275754 -0.221949 -0.642 251 252 246
-0.275387 -0.22264 -0.644 251 252 246
-0.275437 -0.223677 -0.647 251 252 246
-0.275052 -0.224369 -0.649 251 252 246
-0.176358 -0.218491 -0.632 187 184 175
-0.174877 -0.218146 -0.631 186 183 174
-0.1734 -0.2178 -0.63 188 185 176
-0.171653 -0.217109 -0.628 189 186 177
-0.170186 -0.216763 -0.627 189 186 177
-0.168722 -0.216417 -0.626 190 187 178
-0.167262 -0.216071 -0.625 190 187 178
-0.165806 -0.215726 -0.624 190 188 176
-0.165409 -0.216763 -0.627 189 187 175
-0.164476 -0.217109 -0.628 188 186 174
-0.16354 -0.217454 -0.629 188 186 174
-0.1626 -0.2178 -0.63 188 186 174
-0.161912 -0.218491 -0.632 190 188 176
-0.160963 -0.218837 -0.633 190 188 176
-0.16001 -0.219183 -0.634 190 188 176
-0.159052 -0.219529 -0.635 190 188 176
-0.158091 -0.219874 -0.636 190 188 176
-0.157127 -0.22022 -0.637 190 188 176
-0.156158 -0.220566 -0.638 191 189 176
-0.155186 -0.220911 -0.639 191 189 176
-0.15445 -0.221603 -0.641 187 188 174
-0.153469 -0.221949 -0.642 187 188 174
-0.152483 -0.222294 -0.643 187 188 174
-0.151493 -0.22264 -0.644 186 187 173
-0.1505 -0.222986 -0.645 184 185 171
-0.149271 -0.222986 -0.645 183 184 170
-0.148272 -0.223331 -0.646 182 183 169
-0.14727 -0.223677 -0.647 181 182 168
-0.146263 -0.224023 -0.648 181 182 166
-0.145252 -0.224369 -0.649 179 180 164
-0.144016 -0.224369 -0.649 178 179 163
-0.143 -0.224714 -0.65 177 178 162
-0.0649 -0.224369 -0.649 72 72 74
-0.0633695 -0.223331 -0.646 67 66 72
-0.0616581 -0.221603 -0.641 69 68 74
-0.0604371 -0.221603 -0.641 62 61 66
-0.058939 -0.220566 -0.638 68 67 72
-0.0576333 -0.22022 -0.637 68 67 72
-0.0561543 -0.219183 -0.634 69 68 73
-0.05486 -0.218837 -0.633 71 68 75
-0.0535695 -0.218491 -0.632 72 69 76
-0.0522829 -0.218146 -0.631 73 70 79
-0.051081 -0.218146 -0.631 73 70 79
-0.0499581 -0.218491 -0.632 74 71 82
-0.0488314 -0.218837 -0.633 74 71 82
-0.0476257 -0.218837 -0.633 75 74 80
-0.0465667 -0.219529 -0.635 75 74 80
-0.0455 -0.22022 -0.637 75 74 80
-0.0444257 -0.220911 -0.639 76 75 81
-0.043479 -0.222294 -0.643 79 78 84
-0.0423857 -0.222986 -0.645 80 79 87
-0.0412848 -0.223677 -0.647 82 81 89
-0.0402381 -0.224714 -0.65 81 80 88
-0.349762 -0.225952 -0.65 252 253 245
-0.345843 -0.224214 -0.645 251 252 244
-0.343546 -0.223519 -0.643 252 253 247
-0.340724 -0.222476 -0.64 252 253 247
-0.337913 -0.221433 -0.637 252 253 247
-0.335114 -0.22039 -0.634 252 253 247
-0.332327 -0.219348 -0.631 252 253 247
-0.330075 -0.218652 -0.629 251 252 246
-0.327831 -0.217957 -0.627 251 252 246
-0.325595 -0.217262 -0.625 251 252 246
-0.323367 -0.216567 -0.623 252 255 250
-0.321663 -0.216219 -0.622 227 232 225
-0.320478 -0.216219 -0.622 173 178 171
-0.319293 -0.216219 -0.622 145 150 143
-0.318109 -0.216219 -0.622 137 142 135
-0.316924 -0.216219 -0.622 128 133 126
-0.283497 -0.219695 -0.632 255 255 251
-0.28274 -0.220043 -0.633 253 254 249
-0.281534 -0.220043 -0.633 253 254 249
-0.280771 -0.22039 -0.634 253 254 249
-0.279564 -0.22039 -0.634 252 253 248
-0.278795 -0.220738 -0.635 252 253 248
-0.278023 -0.221086 -0.636 252 253 248
-0.277247 -0.221433 -0.637 250 252 247
-0.276467 -0.221781 -0.638 250 252 247
-0.275683 -0.222129 -0.639 251 252 247
-0.275754 -0.223171 -0.642 251 252 247
-0.275387 -0.223867 -0.644 251 252 247
-0.275437 -0.22491 -0.647 251 252 247
-0.275476 -0.225952 -0.65 251 252 247
-0.183574 -0.225605 -0.649 186 183 174
-0.179529 -0.222129 -0.639 186 183 174
-0.176637 -0.220043 -0.633 187 184 175
-0.174877 -0.219348 -0.631 187 184 175
-0.1734 -0.219 -0.63 188 185 176
-0.171653 -0.218305 -0.628 189 186 177
-0.170457 -0.218305 -0.628 189 186 177
-0.168991 -0.217957 -0.627 190 187 178
-0.167262 -0.217262 -0.625 190 187 178
-0.166071 -0.217262 -0.625 190 188 176
-0.165145 -0.21761 -0.626 189 187 175
-0.164476 -0.218305 -0.628 188 186 174
-0.16354 -0.218652 -0.629 188 186 174
-0.162858 -0.219348 -0.631 188 186 174
-0.161912 -0.219695 -0.632 190 188 176
-0.160963 -0.220043 -0.633 191 189 177
-0.160262 -0.220738 -0.635 189 189 177
-0.159052 -0.220738 -0.635 189 189 177
-0.158091 -0.221086 -0.636 189 189 177
-0.157127 -0.221433 -0.637 189 189 177
-0.156158 -0.221781 -0.638 191 189 176
-0.155429 -0.222476 -0.64 191 189 176
-0.15445 -0.222824 -0.641 188 189 175
-0.153469 -0.223171 -0.642 187 188 174
-0.152483 -0.223519 -0.643 187 188 174
-0.151493 -0.223867 -0.644 186 187 173
-0.1505 -0.224214 -0.645 184 185 171
-0.149271 -0.224214 -0.645 183 184 170
-0.148272 -0.224562 -0.646 181 182 168
-0.14727 -0.22491 -0.647 180 181 167
-0.146263 -0.225257 -0.648 180 181 167
-0.145029 -0.225257 -0.648 180 181 167
-0.144016 -0.225605 -0.649 181 179 166
-0.143 -0.225952 -0.65 180 178 165
-0.0674762 -0.225952 -0.65 72 71 76
-0.0649 -0.225605 -0.649 72 72 74
-0.0633695 -0.224562 -0.646 67 66 72
-0.0616581 -0.222824 -0.641 69 68 74
-0.06006 -0.221433 -0.637 66 65 71
-0.0586619 -0.220738 -0.635 65 64 70
-0.0572714 -0.220043 -0.633 69 68 74
-0.0558886 -0.219348 -0.631 70 69 75
-0.0546867 -0.219348 -0.631 71 68 75
-0.0534 -0.219 -0.63 72 69 76
-0.0521171 -0.218652 -0.629 72 69 78
-0.051 -0.219 -0.63 73 70 79
-0.049879 -0.219348 -0.631 74 71 82
-0.0487543 -0.219695 -0.632 75 72 83
-0.0476257 -0.220043 -0.633 75 74 80
-0.0465667 -0.220738 -0.635 74 73 79
-0.0455 -0.221433 -0.637 75 74 82
-0.0444257 -0.222129 -0.639 76 75 83
-0.0433438 -0.222824 -0.641 77 76 84
-0.0423857 -0.224214 -0.645 80 79 87
-0.0412848 -0.22491 -0.647 81 80 88
-0.0401762 -0.225605 -0.649 80 79 87
-0.349762 -0.22719 -0.65 251 252 246
-0.345843 -0.225443 -0.645 251 252 246
-0.343546 -0.224744 -0.643 253 254 248
-0.340191 -0.223346 -0.639 253 254 248
-0.337383 -0.222297 -0.636 253 254 248
-0.334586 -0.221249 -0.633 252 253 247
-0.3318 -0.2202 -0.63 252 253 247
-0.32955 -0.219501 -0.628 252 253 247
-0.327831 -0.219151 -0.627 252 253 247
-0.325595 -0.218452 -0.625 252 253 247
-0.323367 -0.217753 -0.623 252 255 250
-0.321663 -0.217404 -0.622 234 239 232
-0.320478 -0.217404 -0.622 184 190 180
-0.319293 -0.217404 -0.622 152 158 148
-0.318109 -0.217404 -0.622 138 143 136
-0.316924 -0.217404 -0.622 127 132 125
-0.283497 -0.220899 -0.632 255 255 251
-0.28274 -0.221249 -0.633 252 253 248
-0.281534 -0.221249 -0.633 252 253 248
-0.280771 -0.221598 -0.634 252 253 248
-0.279564 -0.221598 -0.634 253 254 249
-0.278795 -0.221948 -0.635 252 253 248
-0.278023 -0.222297 -0.636 252 253 248
-0.277247 -0.222647 -0.637 251 253 248
-0.276467 -0.222996 -0.638 251 253 248
-0.275683 -0.223346 -0.639 252 253 248
-0.275754 -0.224394 -0.642 252 253 248
-0.275814 -0.225443 -0.645 251 252 247
-0.275437 -0.226142 -0.647 251 252 247
-0.275476 -0.22719 -0.65 251 252 247
-0.183574 -0.226841 -0.649 187 184 175
-0.179529 -0.223346 -0.639 187 184 175
-0.176637 -0.221249 -0.633 188 185 176
-0.174877 -0.22055 -0.631 188 185 176
-0.1734 -0.2202 -0.63 189 186 177
-0.171927 -0.21985 -0.629 190 188 176
-0.170457 -0.219501 -0.628 191 189 177
-0.168991 -0.219151 -0.627 191 189 177
-0.16753 -0.218802 -0.626 190 188 176
-0.166071 -0.218452 -0.625 190 188 176
-0.165145 -0.218802 -0.626 190 188 176
-0.164476 -0.219501 -0.628 189 187 175
-0.1638 -0.2202 -0.63 189 187 175
-0.162858 -0.22055 -0.631 189 187 175
-0.162169 -0.221249 -0.633 191 188 179
-0.161217 -0.221598 -0.634 191 188 179
-0.160262 -0.221948 -0.635 189 189 177
-0.159303 -0.222297 -0.636 189 189 177
-0.15834 -0.222647 -0.637 189 189 177
-0.157373 -0.222996 -0.638 189 189 177
-0.156403 -0.223346 -0.639 191 189 177
-0.155429 -0.223695 -0.64 191 189 177
-0.15445 -0.224045 -0.641 188 188 176
-0.153469 -0.224394 -0.642 187 187 175
-0.15272 -0.225093 -0.644 187 188 174
-0.151493 -0.225093 -0.644 187 188 174
-0.1505 -0.225443 -0.645 185 186 172
-0.149271 -0.225443 -0.645 183 184 170
-0.148272 -0.225792 -0.646 182 183 169
-0.14727 -0.226142 -0.647 180 181 167
-0.146263 -0.226491 -0.648 182 180 167
-0.145029 -0.226491 -0.648 182 180 167
-0.144016 -0.226841 -0.649 181 179 166
-0.143 -0.22719 -0.65 181 179 166
-0.0674762 -0.22719 -0.65 72 71 76
-0.0658305 -0.225792 -0.646 72 71 77
-0.0643 -0.224744 -0.643 67 66 72
-0.062879 -0.224045 -0.641 65 64 72
-0.0613695 -0.222996 -0.638 63 62 70
-0.0597771 -0.221598 -0.634 66 65 73
-0.0583848 -0.220899 -0.632 59 58 66
-0.0570905 -0.22055 -0.631 69 68 76
-0.0558 -0.2202 -0.63 69 68 76
-0.0546 -0.2202 -0.63 70 68 79
-0.0534 -0.2202 -0.63 70 68 79
-0.0521171 -0.21985 -0.629 72 70 81
-0.051 -0.2202 -0.63 73 71 82
-0.049879 -0.22055 -0.631 74 72 85
-0.0487543 -0.220899 -0.632 75 73 86
-0.0476257 -0.221249 -0.633 76 73 82
-0.0465667 -0.221948 -0.635 75 72 81
-0.0455 -0.222647 -0.637 76 73 82
-0.0444952 -0.223695 -0.64 77 74 83
-0.0434114 -0.224394 -0.642 77 76 84
-0.0422543 -0.224744 -0.643 78 77 85
-0.0412848 -0.226142 -0.647 81 80 88
-0.0401762 -0.226841 -0.649 81 80 88
-0.349762 -0.228429 -0.65 252 253 245
-0.346915 -0.227374 -0.647 252 253 245
-0.343011 -0.225617 -0.642 253 254 246
-0.340191 -0.224563 -0.639 253 254 246
-0.337383 -0.223509 -0.636 253 254 246
-0.334586 -0.222454 -0.633 253 254 246
-0.3318 -0.2214 -0.63 252 253 245
-0.330075 -0.221049 -0.629 252 253 245
-0.327831 -0.220346 -0.627 252 253 245
-0.325595 -0.219643 -0.625 252 253 245
-0.323367 -0.21894 -0.623 249 255 243
-0.321663 -0.218589 -0.622 239 245 233
-0.320478 -0.218589 -0.622 201 209 196
-0.319293 -0.218589 -0.622 162 170 157
-0.318109 -0.218589 -0.622 146 152 140
-0.316924 -0.218589 -0.622 134 140 128
-0.283497 -0.222103 -0.632 255 255 253
-0.28274 -0.222454 -0.633 253 252 250
-0.281534 -0.222454 -0.633 253 252 250
-0.280771 -0.222806 -0.634 253 254 249
-0.280005 -0.223157 -0.635 253 254 249
-0.278795 -0.223157 -0.635 252 254 249
-0.278023 -0.223509 -0.636 251 253 248
-0.277247 -0.22386 -0.637 251 251 249
-0.276467 -0.224211 -0.638 251 251 249
-0.276114 -0.224914 -0.64 251 251 249
-0.275754 -0.225617 -0.642 252 252 250
-0.275814 -0.226671 -0.645 251 251 249
-0.275437 -0.227374 -0.647 251 251 249
-0.275476 -0.228429 -0.65 251 251 249
-0.183574 -0.228077 -0.649 187 185 173
-0.179529 -0.224563 -0.639 188 186 174
-0.176637 -0.222454 -0.633 190 188 176
-0.175154 -0.222103 -0.632 189 187 175
-0.1734 -0.2214 -0.63 189 187 175
-0.171927 -0.221049 -0.629 190 188 176
-0.170457 -0.220697 -0.628 191 189 177
-0.168991 -0.220346 -0.627 191 189 177
-0.16753 -0.219994 -0.626 191 189 177
-0.166337 -0.219994 -0.626 190 188 176
-0.165409 -0.220346 -0.627 190 188 176
-0.164738 -0.221049 -0.629 190 188 176
-0.1638 -0.2214 -0.63 190 188 176
-0.163116 -0.222103 -0.632 189 187 175
-0.162169 -0.222454 -0.633 191 188 179
-0.161217 -0.222806 -0.634 190 187 178
-0.160514 -0.223509 -0.636 188 188 178
-0.159553 -0.22386 -0.637 188 188 178
-0.15834 -0.22386 -0.637 189 189 179
-0.157373 -0.224211 -0.638 189 189 179
-0.156403 -0.224563 -0.639 190 188 176
-0.155429 -0.224914 -0.64 190 188 176
-0.15445 -0.225266 -0.641 188 188 176
-0.153708 -0.225969 -0.643 187 187 175
-0.15272 -0.22632 -0.644 187 187 175
-0.151493 -0.22632 -0.644 187 187 175
-0.1505 -0.226671 -0.645 185 186 172
-0.149271 -0.226671 -0.645 184 185 171
-0.148272 -0.227023 -0.646 183 184 170
-0.14727 -0.227374 -0.647 181 182 168
-0.146263 -0.227726 -0.648 182 180 168
-0.145029 -0.227726 -0.648 181 179 167
-0.144016 -0.228077 -0.649 181 177 166
-0.143 -0.228429 -0.65 182 178 167
-0.0687143 -0.228429 -0.65 74 73 81
-0.067061 -0.227023 -0.646 70 69 77
-0.0654229 -0.225617 -0.642 68 67 75
-0.0638 -0.224211 -0.638 65 64 72
-0.0623886 -0.223509 -0.636 64 63 71
-0.0609848 -0.222806 -0.634 59 58 66
-0.0594943 -0.221751 -0.631 61 59 70
-0.0582 -0.2214 -0.63 66 64 75
-0.0569095 -0.221049 -0.629 69 67 78
-0.0556229 -0.220697 -0.628 69 67 78
-0.0544267 -0.220697 -0.628 70 68 81
-0.0532305 -0.220697 -0.628 71 69 82
-0.0520343 -0.220697 -0.628 72 70 83
-0.050919 -0.221049 -0.629 73 71 84
-0.049879 -0.221751 -0.631 74 72 85
-0.0488314 -0.222454 -0.633 74 72 85
-0.047701 -0.222806 -0.634 75 72 81
-0.04664 -0.223509 -0.636 75 72 81
-0.0455714 -0.224211 -0.638 75 74 82
-0.0444952 -0.224914 -0.64 76 75 83
-0.0434114 -0.225617 -0.642 77 75 86
-0.04232 -0.22632 -0.644 79 77 88
-0.0412848 -0.227374 -0.647 81 80 88
-0.0401762 -0.228077 -0.649 78 77 85
-0.349762 -0.229667 -0.65 252 253 245
-0.347451 -0.22896 -0.648 252 253 245
-0.343546 -0.227193 -0.643 253 254 246
-0.340724 -0.226133 -0.64 253 254 246
-0.337913 -0.225073 -0.637 252 253 245
-0.334586 -0.22366 -0.633 252 253 245
-0.332327 -0.222953 -0.631 252 253 245
-0.330075 -0.222247 -0.629 252 253 245
-0.328354 -0.221893 -0.628 252 253 245
-0.326116 -0.221187 -0.626 252 253 245
-0.323886 -0.22048 -0.624 246 252 240
-0.32218 -0.220127 -0.623 249 255 243
-0.320993 -0.220127 -0.623 228 234 222
-0.319807 -0.220127 -0.623 187 193 181
-0.31862 -0.220127 -0.623 157 163 153
-0.317433 -0.220127 -0.623 141 147 137
-0.316247 -0.220127 -0.623 132 135 128
-0.31506 -0.220127 -0.623 125 128 121
-0.283497 -0.223307 -0.632 255 255 253
-0.28274 -0.22366 -0.633 253 252 248
-0.281979 -0.224013 -0.634 253 252 248
-0.280771 -0.224013 -0.634 253 254 249
-0.280005 -0.224367 -0.635 253 254 249
-0.279234 -0.22472 -0.636 252 254 249
-0.27846 -0.225073 -0.637 251 253 248
-0.277247 -0.225073 -0.637 251 252 247
-0.276467 -0.225427 -0.638 251 252 247
-0.276114 -0.226133 -0.64 253 253 251
-0.276184 -0.227193 -0.643 252 252 250
-0.276242 -0.228253 -0.646 251 251 249
-0.275863 -0.22896 -0.648 251 251 249
-0.183574 -0.229313 -0.649 188 185 176
-0.179529 -0.22578 -0.639 190 187 178
-0.176916 -0.224013 -0.634 188 185 176
-0.175154 -0.223307 -0.632 187 184 175
-0.173675 -0.222953 -0.631 187 184 175
-0.171927 -0.222247 -0.629 188 186 174
-0.170457 -0.221893 -0.628 189 187 175
-0.168991 -0.22154 -0.627 191 189 177
-0.167797 -0.22154 -0.627 190 188 176
-0.166337 -0.221187 -0.626 189 189 179
-0.165409 -0.22154 -0.627 189 189 179
-0.164738 -0.222247 -0.629 187 187 177
-0.1638 -0.2226 -0.63 188 188 176
-0.163116 -0.223307 -0.632 187 187 175
-0.162169 -0.22366 -0.633 191 188 179
-0.161471 -0.224367 -0.635 191 188 179
-0.160514 -0.22472 -0.636 191 189 177
-0.159553 -0.225073 -0.637 191 189 177
-0.158589 -0.225427 -0.638 191 189 177
-0.157373 -0.225427 -0.638 192 190 178
-0.156403 -0.22578 -0.639 192 189 180
-0.155429 -0.226133 -0.64 191 188 179
-0.15445 -0.226487 -0.641 191 188 179
-0.153708 -0.227193 -0.643 190 187 178
-0.15272 -0.227547 -0.644 190 188 176
-0.151729 -0.2279 -0.645 189 187 175
-0.1505 -0.2279 -0.645 187 185 173
-0.149503 -0.228253 -0.646 185 183 171
-0.148272 -0.228253 -0.646 184 182 170
-0.14727 -0.228607 -0.647 182 180 168
-0.146263 -0.22896 -0.648 176 176 164
-0.145029 -0.22896 -0.648 177 177 165
-0.144016 -0.229313 -0.649 178 178 166
-0.143 -0.229667 -0.65 184 184 172
-0.141762 -0.229667 -0.65 186 186 174
-0.0697371 -0.22896 -0.648 68 65 72
-0.0682914 -0.228253 -0.646 73 70 81
-0.0666457 -0.22684 -0.642 69 66 77
-0.0649133 -0.225073 -0.637 65 62 71
-0.0634 -0.224013 -0.634 65 62 71
-0.0619962 -0.223307 -0.632 65 62 71
-0.0606 -0.2226 -0.63 64 61 70
-0.0593057 -0.222247 -0.629 62 61 69
-0.0580152 -0.221893 -0.628 57 56 64
-0.0567286 -0.22154 -0.627 69 67 80
-0.0554457 -0.221187 -0.626 70 68 81
-0.05434 -0.22154 -0.627 70 68 81
-0.0532305 -0.221893 -0.628 71 69 82
-0.0520343 -0.221893 -0.628 72 70 83
-0.050919 -0.222247 -0.629 73 71 84
-0.049879 -0.222953 -0.631 73 71 82
-0.0488314 -0.22366 -0.633 73 71 82
-0.047701 -0.224013 -0.634 74 73 81
-0.04664 -0.22472 -0.636 76 75 83
-0.0455714 -0.225427 -0.638 75 74 82
-0.0444952 -0.226133 -0.64 75 74 82
-0.0434114 -0.22684 -0.642 77 76 84
-0.04232 -0.227547 -0.644 79 78 86
-0.0411571 -0.2279 -0.645 80 79 87
-0.0401762 -0.229313 -0.649 80 80 88
-0.347451 -0.230194 -0.648 252 253 247
-0.343546 -0.228418 -0.643 252 253 247
-0.340724 -0.227352 -0.64 252 253 247
-0.337913 -0.226287 -0.637 252 253 247
-0.335114 -0.225221 -0.634 252 253 247
-0.332327 -0.224155 -0.631 252 253 247
-0.3306 -0.2238 -0.63 252 253 247
-0.328354 -0.22309 -0.628 252 253 247
-0.326116 -0.222379 -0.626 252 253 247
-0.324405 -0.222024 -0.625 252 255 244
-0.322697 -0.221669 -0.624 251 254 243
-0.321509 -0.221669 -0.624 242 248 238
-0.32032 -0.221669 -0.624 220 226 216
-0.319131 -0.221669 -0.624 187 192 185
-0.317943 -0.221669 -0.624 159 164 157
-0.316247 -0.221313 -0.623 143 146 139
-0.31506 -0.221313 -0.623 131 134 127
-0.313873 -0.221313 -0.623 129 131 126
-0.283946 -0.224866 -0.633 255 255 253
-0.28274 -0.224866 -0.633 252 253 248
-0.281979 -0.225221 -0.634 252 253 248
-0.280771 -0.225221 -0.634 253 254 249
-0.280005 -0.225576 -0.635 253 254 249
-0.279234 -0.225931 -0.636 252 254 249
-0.27846 -0.226287 -0.637 251 253 248
-0.277682 -0.226642 -0.638 251 252 247
-0.2769 -0.226997 -0.639 251 252 247
-0.276546 -0.227708 -0.641 252 252 250
-0.276184 -0.228418 -0.643 252 252 250
-0.276242 -0.229484 -0.646 251 251 249
-0.276289 -0.23055 -0.649 251 251 249
-0.183857 -0.230905 -0.65 188 188 178
-0.17981 -0.227352 -0.64 190 190 180
-0.177195 -0.225576 -0.635 188 188 178
-0.175431 -0.224866 -0.633 188 188 178
-0.173675 -0.224155 -0.631 186 186 176
-0.1722 -0.2238 -0.63 188 188 176
-0.170729 -0.223445 -0.629 188 188 176
-0.169261 -0.22309 -0.628 189 189 177
-0.167797 -0.222734 -0.627 189 189 177
-0.166603 -0.222734 -0.627 189 189 179
-0.165672 -0.22309 -0.628 188 188 178
-0.165 -0.2238 -0.63 188 188 178
-0.16406 -0.224155 -0.631 188 188 176
-0.163116 -0.22451 -0.632 188 188 176
-0.162425 -0.225221 -0.634 191 188 179
-0.161471 -0.225576 -0.635 192 189 180
-0.160514 -0.225931 -0.636 193 191 179
-0.159553 -0.226287 -0.637 192 190 178
-0.158589 -0.226642 -0.638 192 190 178
-0.15762 -0.226997 -0.639 192 190 178
-0.156648 -0.227352 -0.64 192 189 180
-0.155671 -0.227708 -0.641 192 189 180
-0.154691 -0.228063 -0.642 191 188 179
-0.153708 -0.228418 -0.643 190 187 178
-0.15272 -0.228773 -0.644 189 187 175
-0.151729 -0.229129 -0.645 187 185 173
-0.1505 -0.229129 -0.645 185 183 171
-0.149503 -0.229484 -0.646 184 182 170
-0.148272 -0.229484 -0.646 184 182 170
-0.14727 -0.229839 -0.647 184 182 170
-0.146263 -0.230194 -0.648 182 180 167
-0.145029 -0.230194 -0.648 181 179 166
-0.144016 -0.23055 -0.649 180 180 168
-0.14278 -0.23055 -0.649 187 187 175
-0.141762 -0.230905 -0.65 190 191 177
-0.0724286 -0.230905 -0.65 68 65 72
-0.0707524 -0.229484 -0.646 73 69 83
-0.069199 -0.228418 -0.643 73 69 83
-0.0676571 -0.227352 -0.64 68 66 77
-0.0661267 -0.226287 -0.637 68 66 77
-0.0645057 -0.224866 -0.633 67 65 78
-0.063 -0.2238 -0.63 67 65 78
-0.0617019 -0.223445 -0.629 68 66 79
-0.0604076 -0.22309 -0.628 69 67 80
-0.0590229 -0.222379 -0.626 69 67 78
-0.0578305 -0.222379 -0.626 67 65 76
-0.0566381 -0.222379 -0.626 69 67 78
-0.0553571 -0.222024 -0.625 70 68 79
-0.05434 -0.222734 -0.627 70 70 82
-0.0532305 -0.22309 -0.628 70 70 82
-0.0520343 -0.22309 -0.628 71 71 83
-0.050919 -0.223445 -0.629 71 71 83
-0.049879 -0.224155 -0.631 72 70 81
-0.0488314 -0.224866 -0.633 72 70 81
-0.047701 -0.225221 -0.634 73 73 83
-0.04664 -0.225931 -0.636 73 73 83
-0.0455714 -0.226642 -0.638 72 72 82
-0.0444952 -0.227352 -0.64 73 73 83
-0.0434114 -0.228063 -0.642 75 75 85
-0.0422543 -0.228418 -0.643 76 76 86
-0.0411571 -0.229129 -0.645 78 78 88
-0.0401762 -0.23055 -0.649 83 81 92
-0.347988 -0.231786 -0.649 252 253 247
-0.343546 -0.229643 -0.643 252 253 247
-0.340724 -0.228571 -0.64 252 253 247
-0.337913 -0.2275 -0.637 252 253 247
-0.335114 -0.226429 -0.634 252 253 247
-0.332327 -0.225357 -0.631 252 253 247
-0.3306 -0.225 -0.63 252 253 247
-0.328354 -0.224286 -0.628 252 253 247
-0.326637 -0.223929 -0.627 252 253 247
-0.324405 -0.223214 -0.625 253 255 245
-0.323214 -0.223214 -0.625 250 253 242
-0.322024 -0.223214 -0.625 253 255 247
-0.32032 -0.222857 -0.624 247 250 241
-0.319131 -0.222857 -0.624 223 226 219
-0.317943 -0.222857 -0.624 194 197 190
-0.316754 -0.222857 -0.624 169 172 165
-0.315566 -0.222857 -0.624 149 152 145
-0.313873 -0.2225 -0.623 141 144 137
-0.312687 -0.2225 -0.623 132 135 128
-0.3115 -0.2225 -0.623 125 127 122
-0.283946 -0.226071 -0.633 255 255 253
-0.283187 -0.226429 -0.634 252 253 248
-0.281979 -0.226429 -0.634 252 253 248
-0.281214 -0.226786 -0.635 253 254 249
-0.280446 -0.227143 -0.636 253 254 249
-0.279673 -0.2275 -0.637 252 254 249
-0.27846 -0.2275 -0.637 251 253 248
-0.277682 -0.227857 -0.638 251 253 248
-0.2769 -0.228214 -0.639 250 252 247
