ply
format ascii 1.0
comment Created by Open3D
element vertex 1305
property double x
property double y
property double z
property uchar red
property uchar green
property uchar blue
end_header
0.505452 -0.283119 -0.575 170 121 106
0.50831 -0.284104 -0.577 171 122 107
0.512057 -0.285581 -0.58 171 123 109
0.515816 -0.287058 -0.583 169 121 107
0.520473 -0.289028 -0.587 167 121 108
0.525146 -0.290997 -0.591 166 120 107
-0.129653 -0.30448 -0.616 93 93 101
-0.127854 -0.302997 -0.613 91 91 99
-0.126067 -0.301514 -0.61 92 92 100
-0.124086 -0.299537 -0.606 91 91 99
-0.122323 -0.298054 -0.603 90 91 96
-0.120571 -0.296571 -0.6 90 91 96
-0.118831 -0.295089 -0.597 88 89 94
-0.1173 -0.2941 -0.595 86 87 92
-0.115776 -0.293111 -0.593 88 89 94
-0.11426 -0.292123 -0.591 88 89 94
-0.113134 -0.292123 -0.591 88 88 96
-0.112009 -0.292123 -0.591 87 87 95
-0.110883 -0.292123 -0.591 86 86 94
-0.109757 -0.292123 -0.591 84 84 92
-0.108815 -0.292617 -0.592 83 84 89
-0.10787 -0.293111 -0.593 81 82 87
-0.10692 -0.293606 -0.594 80 81 86
-0.106145 -0.294594 -0.596 81 82 87
-0.105186 -0.295089 -0.597 76 77 82
-0.104397 -0.296077 -0.599 92 93 98
-0.103601 -0.297066 -0.601 100 101 106
-0.102627 -0.29756 -0.602 83 84 89
-0.101817 -0.298549 -0.604 72 73 78
-0.100833 -0.299043 -0.605 65 66 71
-0.10001 -0.300031 -0.607 61 59 70
-0.09918 -0.30102 -0.609 57 55 66
-0.0983419 -0.302009 -0.611 55 53 64
-0.0973371 -0.302503 -0.612 55 53 64
-0.0964857 -0.303491 -0.614 54 52 63
-0.0954714 -0.303986 -0.615 52 50 61
-0.0946067 -0.304974 -0.617 50 48 59
-0.0935829 -0.305469 -0.618 48 46 57
-0.0924057 -0.305469 -0.618 41 40 48
0.1122 -0.3114 -0.63 185 138 128
0.1125 -0.308929 -0.625 189 139 132
0.112781 -0.306457 -0.62 188 135 127
0.112675 -0.302997 -0.613 188 137 134
0.112543 -0.299537 -0.606 190 139 136
0.112384 -0.296077 -0.599 193 139 137
0.113525 -0.296077 -0.599 193 139 137
0.1139 -0.2941 -0.595 191 137 135
0.113873 -0.291134 -0.589 190 135 130
0.11441 -0.289651 -0.586 190 135 130
0.115131 -0.288663 -0.584 189 136 130
0.115846 -0.287674 -0.582 190 137 131
0.116552 -0.286686 -0.58 188 133 128
0.117251 -0.285697 -0.578 189 134 129
0.117943 -0.284709 -0.576 192 139 133
0.118627 -0.28372 -0.574 193 140 134
0.119303 -0.282731 -0.572 193 138 133
0.120182 -0.282237 -0.571 193 138 133
0.121057 -0.281743 -0.57 192 134 130
0.121714 -0.280754 -0.568 188 130 126
0.12258 -0.28026 -0.567 184 126 122
0.123442 -0.279766 -0.566 186 128 124
0.1243 -0.279271 -0.565 187 129 125
0.125376 -0.279271 -0.565 190 132 128
0.126005 -0.278283 -0.563 188 131 124
0.126851 -0.277789 -0.562 190 133 126
0.127694 -0.277294 -0.561 189 130 124
0.128763 -0.277294 -0.561 188 129 123
0.129831 -0.277294 -0.561 190 133 126
0.130667 -0.2768 -0.56 191 134 127
0.131733 -0.2768 -0.56 190 133 126
0.1328 -0.2768 -0.56 188 131 124
0.133867 -0.2768 -0.56 186 129 122
0.134933 -0.2768 -0.56 184 127 120
0.135757 -0.276306 -0.559 183 124 118
0.136822 -0.276306 -0.559 183 124 118
0.138133 -0.2768 -0.56 184 125 119
0.1392 -0.2768 -0.56 180 121 115
0.140267 -0.2768 -0.56 176 117 111
0.141333 -0.2768 -0.56 173 114 108
0.1424 -0.2768 -0.56 172 113 107
0.143467 -0.2768 -0.56 174 115 109
0.144533 -0.2768 -0.56 175 116 110
0.1456 -0.2768 -0.56 172 113 107
0.146667 -0.2768 -0.56 175 116 108
0.147733 -0.2768 -0.56 177 118 110
0.1488 -0.2768 -0.56 175 116 108
0.149867 -0.2768 -0.56 175 116 108
0.150933 -0.2768 -0.56 173 114 106
0.152 -0.2768 -0.56 175 116 108
0.15334 -0.277294 -0.561 172 113 107
0.154409 -0.277294 -0.561 165 106 100
0.155477 -0.277294 -0.561 166 107 103
0.156546 -0.277294 -0.561 164 105 101
0.157614 -0.277294 -0.561 162 103 99
0.158966 -0.277789 -0.562 161 102 98
0.160036 -0.277789 -0.562 158 99 95
0.161107 -0.277789 -0.562 158 99 95
0.162466 -0.278283 -0.563 155 96 92
0.163829 -0.278777 -0.564 155 95 94
0.165195 -0.279271 -0.565 153 93 92
0.166566 -0.279766 -0.566 155 97 96
0.168236 -0.280754 -0.568 155 97 96
0.169616 -0.281249 -0.569 155 96 98
0.1713 -0.282237 -0.571 155 96 98
0.17269 -0.282731 -0.572 156 96 98
0.174387 -0.28372 -0.574 154 94 96
0.176397 -0.285203 -0.577 152 92 92
0.178111 -0.286191 -0.579 152 92 92
0.179833 -0.28718 -0.581 148 96 100
0.181874 -0.288663 -0.584 135 83 87
0.18424 -0.29064 -0.588 161 127 141
0.186936 -0.293111 -0.593 196 162 176
0.189334 -0.295089 -0.597 177 167 194
0.225576 -0.313871 -0.635 192 132 132
0.2225 -0.30794 -0.623 191 131 131
0.223687 -0.30794 -0.623 191 131 131
0.221625 -0.303491 -0.614 194 132 133
0.219891 -0.299537 -0.606 197 135 136
0.219587 -0.29756 -0.602 198 136 137
0.219267 -0.295583 -0.598 197 135 136
0.219669 -0.294594 -0.596 196 136 135
0.220804 -0.294594 -0.596 195 135 134
0.221939 -0.294594 -0.596 195 136 132
0.223074 -0.294594 -0.596 189 130 126
0.224586 -0.295089 -0.597 181 120 117
0.226101 -0.295583 -0.598 177 116 113
0.228 -0.296571 -0.6 172 111 108
0.229907 -0.29756 -0.602 170 109 106
0.231821 -0.298549 -0.604 161 102 96
0.234129 -0.300031 -0.607 153 94 88
0.236448 -0.301514 -0.61 138 93 90
0.239168 -0.303491 -0.614 134 89 86
0.241903 -0.305469 -0.618 127 95 98
0.245047 -0.30794 -0.623 131 99 102
0.24821 -0.310411 -0.628 218 202 212
0.250994 -0.312389 -0.632 226 210 220
0.253794 -0.314366 -0.636 213 210 227
0.50622 -0.320791 -0.649 150 122 121
0.501983 -0.317331 -0.642 149 121 120
0.496935 -0.313377 -0.634 155 118 112
0.491857 -0.309423 -0.626 156 119 113
0.487536 -0.305963 -0.619 158 121 115
0.483978 -0.302997 -0.613 160 123 117
0.481189 -0.300526 -0.608 162 123 118
0.47838 -0.298054 -0.603 160 121 116
0.476348 -0.296077 -0.599 163 122 116
0.475097 -0.294594 -0.596 168 127 121
0.473036 -0.292617 -0.592 177 127 116
0.471761 -0.291134 -0.589 177 127 116
0.471277 -0.290146 -0.587 179 130 116
0.469981 -0.288663 -0.584 179 130 116
0.470287 -0.288169 -0.583 184 132 118
0.46978 -0.28718 -0.581 186 134 120
0.469266 -0.286191 -0.579 189 136 120
0.470369 -0.286191 -0.579 189 136 120
0.469843 -0.285203 -0.577 192 139 123
0.46931 -0.284214 -0.575 194 142 121
0.469587 -0.28372 -0.574 195 143 122
0.46986 -0.283226 -0.573 196 141 120
0.47013 -0.282731 -0.572 198 143 122
0.470395 -0.282237 -0.571 200 144 119
0.470657 -0.281743 -0.57 201 145 120
0.470915 -0.281249 -0.569 203 147 122
0.471999 -0.281249 -0.569 204 148 123
0.472251 -0.280754 -0.568 200 148 124
0.4725 -0.28026 -0.567 200 148 124
0.47358 -0.28026 -0.567 200 148 124
0.47466 -0.28026 -0.567 201 149 125
0.47574 -0.28026 -0.567 201 149 125
0.475979 -0.279766 -0.566 201 149 125
0.477057 -0.279766 -0.566 200 148 124
0.478135 -0.279766 -0.566 199 147 123
0.479213 -0.279766 -0.566 202 148 124
0.480291 -0.279766 -0.566 202 148 124
0.48137 -0.279766 -0.566 202 148 124
0.482448 -0.279766 -0.566 203 149 125
0.483526 -0.279766 -0.566 201 147 123
0.484604 -0.279766 -0.566 202 148 124
0.48654 -0.28026 -0.567 201 147 123
0.48762 -0.28026 -0.567 194 140 116
0.4887 -0.28026 -0.567 194 139 119
0.48978 -0.28026 -0.567 189 134 114
0.491726 -0.280754 -0.568 188 135 117
0.492808 -0.280754 -0.568 189 136 118
0.494759 -0.281249 -0.569 183 132 113
0.496714 -0.281743 -0.57 182 131 112
0.4978 -0.281743 -0.57 182 131 112
0.498886 -0.281743 -0.57 182 131 114
0.500849 -0.282237 -0.571 178 127 110
0.503694 -0.283226 -0.573 172 123 108
0.506548 -0.284214 -0.575 172 123 108
0.509409 -0.285203 -0.577 171 125 110
0.514047 -0.28718 -0.581 170 124 109
0.517813 -0.288663 -0.584 166 122 109
0.52248 -0.29064 -0.588 165 121 108
-0.128063 -0.304661 -0.614 95 96 101
-0.126273 -0.303172 -0.611 95 96 101
-0.124495 -0.301684 -0.608 95 96 101
-0.122931 -0.300691 -0.606 90 93 98
-0.121174 -0.299203 -0.603 90 93 98
-0.119429 -0.297714 -0.6 90 93 98
-0.117891 -0.296722 -0.598 90 93 98
-0.116362 -0.29573 -0.596 93 94 99
-0.11484 -0.294737 -0.594 92 93 98
-0.113517 -0.294241 -0.593 92 93 98
-0.112388 -0.294241 -0.593 91 92 97
-0.111258 -0.294241 -0.593 91 92 97
-0.110129 -0.294241 -0.593 89 90 95
-0.109183 -0.294737 -0.594 87 88 93
-0.108051 -0.294737 -0.594 85 86 91
-0.1071 -0.295233 -0.595 87 88 93
-0.106145 -0.29573 -0.596 82 83 88
-0.105362 -0.296722 -0.598 81 82 87
-0.104397 -0.297218 -0.599 79 80 85
-0.103601 -0.29821 -0.601 77 76 82
-0.102627 -0.298707 -0.602 74 73 79
-0.101649 -0.299203 -0.603 69 68 73
-0.100833 -0.300195 -0.605 67 66 71
-0.0998457 -0.300691 -0.606 65 63 74
-0.0990171 -0.301684 -0.608 63 61 72
-0.09802 -0.30218 -0.609 60 59 67
-0.0971781 -0.303172 -0.611 58 57 65
-0.0963286 -0.304165 -0.613 56 55 63
-0.0953162 -0.304661 -0.614 54 53 61
-0.0944533 -0.305653 -0.616 51 50 58
-0.0934314 -0.30615 -0.617 49 48 56
-0.0924057 -0.306646 -0.618 41 40 48
0.1125 -0.310119 -0.625 189 139 132
0.112417 -0.306646 -0.618 184 134 127
0.112308 -0.303172 -0.611 188 137 134
0.112171 -0.299699 -0.604 190 139 136
0.113322 -0.299699 -0.604 190 139 136
0.112956 -0.29573 -0.596 194 140 138
0.113326 -0.293745 -0.592 194 140 138
0.11368 -0.29176 -0.588 192 137 134
0.114214 -0.290271 -0.585 189 134 131
0.114934 -0.289279 -0.583 187 134 128
0.115647 -0.288287 -0.581 186 133 127
0.116351 -0.287294 -0.579 183 128 125
0.117049 -0.286302 -0.577 185 130 127
0.117738 -0.28531 -0.575 194 139 136
0.11842 -0.284317 -0.573 198 143 140
0.119094 -0.283325 -0.571 195 140 135
0.119971 -0.282829 -0.57 193 138 133
0.120845 -0.282332 -0.569 192 134 130
0.121714 -0.281836 -0.568 188 130 126
0.12258 -0.28134 -0.567 189 131 127
0.123442 -0.280844 -0.566 188 130 126
0.1243 -0.280348 -0.565 183 128 123
0.125154 -0.279851 -0.564 186 131 126
0.126005 -0.279355 -0.563 187 130 123
0.126851 -0.278859 -0.562 191 134 127
0.127694 -0.278363 -0.561 188 131 124
0.128763 -0.278363 -0.561 187 130 123
0.1296 -0.277867 -0.56 189 131 127
0.130667 -0.277867 -0.56 192 134 130
0.131733 -0.277867 -0.56 191 133 129
0.132563 -0.27737 -0.559 187 129 125
0.133628 -0.27737 -0.559 183 125 121
0.134692 -0.27737 -0.559 181 123 119
0.135757 -0.27737 -0.559 182 125 118
0.136822 -0.27737 -0.559 185 128 121
0.137887 -0.27737 -0.559 184 127 120
0.138951 -0.27737 -0.559 178 121 114
0.140016 -0.27737 -0.559 174 117 110
0.141081 -0.27737 -0.559 174 117 110
0.1424 -0.277867 -0.56 174 115 109
0.143467 -0.277867 -0.56 175 116 110
0.144533 -0.277867 -0.56 175 116 110
0.1456 -0.277867 -0.56 173 114 108
0.146667 -0.277867 -0.56 175 116 110
0.147733 -0.277867 -0.56 171 112 106
0.1488 -0.277867 -0.56 168 109 103
0.149867 -0.277867 -0.56 175 116 110
0.150933 -0.277867 -0.56 174 115 109
0.152 -0.277867 -0.56 173 114 108
0.15334 -0.278363 -0.561 168 108 107
0.154409 -0.278363 -0.561 162 102 101
0.155477 -0.278363 -0.561 161 101 100
0.156825 -0.278859 -0.562 160 100 99
0.157895 -0.278859 -0.562 157 97 96
0.158966 -0.278859 -0.562 157 97 96
0.160036 -0.278859 -0.562 153 95 94
0.161107 -0.278859 -0.562 153 95 94
0.162466 -0.279355 -0.563 151 93 92
0.163829 -0.279851 -0.564 154 95 97
0.165195 -0.280348 -0.565 152 93 95
0.166566 -0.280844 -0.566 149 93 92
0.168236 -0.281836 -0.568 150 94 93
0.169616 -0.282332 -0.569 150 94 95
0.171 -0.282829 -0.57 150 94 95
0.17269 -0.283821 -0.572 150 94 95
0.174387 -0.284813 -0.574 148 92 93
0.176091 -0.285806 -0.576 150 92 91
0.178111 -0.287294 -0.579 154 96 95
0.179833 -0.288287 -0.581 154 102 104
0.181874 -0.289775 -0.584 146 94 96
0.18424 -0.29176 -0.588 134 101 112
0.186621 -0.293745 -0.592 162 129 140
0.189334 -0.296226 -0.597 152 142 167
0.207107 -0.314585 -0.634 160 159 193
0.22472 -0.315577 -0.636 179 128 135
0.223445 -0.312104 -0.629 191 131 131
0.224643 -0.312104 -0.629 191 131 131
0.221891 -0.306646 -0.618 190 130 130
0.220181 -0.302676 -0.61 194 132 133
0.218803 -0.299203 -0.603 198 136 137
0.218857 -0.297714 -0.6 198 136 137
0.2189 -0.296226 -0.597 197 135 136
0.2193 -0.295233 -0.595 196 136 135
0.220433 -0.295233 -0.595 196 136 135
0.221567 -0.295233 -0.595 194 135 131
0.223074 -0.29573 -0.596 191 132 128
0.224586 -0.296226 -0.597 183 124 120
0.226101 -0.296722 -0.598 174 115 111
0.22762 -0.297218 -0.599 167 108 104
0.229525 -0.29821 -0.601 168 109 105
0.231821 -0.299699 -0.604 158 101 94
0.234129 -0.301188 -0.607 153 94 88
0.236448 -0.302676 -0.61 138 93 90
0.239168 -0.304661 -0.614 134 89 86
0.241903 -0.306646 -0.618 127 95 98
0.245047 -0.309127 -0.623 131 99 102
0.24821 -0.311608 -0.628 217 204 213
0.250994 -0.313592 -0.632 227 214 223
0.253395 -0.315081 -0.635 215 212 231
0.505892 -0.321035 -0.647 145 122 128
0.501638 -0.317562 -0.64 152 121 119
0.495786 -0.313096 -0.631 151 120 118
0.491474 -0.309623 -0.624 155 120 116
0.487136 -0.30615 -0.617 158 123 119
0.483563 -0.303172 -0.611 161 124 118
0.48076 -0.300691 -0.606 160 123 117
0.477938 -0.29821 -0.601 163 124 117
0.476691 -0.296722 -0.598 167 128 121
0.475433 -0.295233 -0.595 175 127 117
0.473363 -0.293249 -0.591 177 129 119
0.472883 -0.292256 -0.589 179 131 119
0.47159 -0.290768 -0.586 178 130 118
0.471093 -0.289775 -0.584 182 133 119
0.470589 -0.288783 -0.582 185 136 122
0.470076 -0.28779 -0.58 187 135 121
0.471181 -0.28779 -0.58 187 135 121
0.470657 -0.286798 -0.578 191 139 125
0.470126 -0.285806 -0.576 194 141 123
0.469587 -0.284813 -0.574 194 141 123
0.46986 -0.284317 -0.573 196 141 120
0.47013 -0.283821 -0.572 198 143 122
0.470395 -0.283325 -0.571 200 144 119
0.470657 -0.282829 -0.57 201 145 120
0.470915 -0.282332 -0.569 204 148 123
0.471999 -0.282332 -0.569 205 149 124
0.472251 -0.281836 -0.568 200 148 124
0.4725 -0.28134 -0.567 200 148 124
0.47358 -0.28134 -0.567 201 149 125
0.473823 -0.280844 -0.566 201 149 125
0.474901 -0.280844 -0.566 200 148 124
0.475979 -0.280844 -0.566 199 147 123
0.477057 -0.280844 -0.566 199 147 123
0.47729 -0.280348 -0.565 199 147 123
0.478367 -0.280348 -0.565 199 147 123
0.480291 -0.280844 -0.566 200 148 124
0.480519 -0.280348 -0.565 203 149 125
0.481595 -0.280348 -0.565 203 149 125
0.482671 -0.280348 -0.565 202 148 124
0.483748 -0.280348 -0.565 202 148 124
0.485682 -0.280844 -0.566 202 148 124
0.48676 -0.280844 -0.566 197 143 119
0.4887 -0.28134 -0.567 198 143 122
0.48978 -0.28134 -0.567 192 137 116
0.49086 -0.28134 -0.567 190 138 117
0.49194 -0.28134 -0.567 190 138 117
0.49389 -0.281836 -0.568 185 134 115
0.494971 -0.281836 -0.568 184 133 114
0.496053 -0.281836 -0.568 184 133 114
0.49801 -0.282332 -0.569 183 132 113
0.499971 -0.282829 -0.57 177 126 107
0.501936 -0.283325 -0.571 174 125 108
0.504786 -0.284317 -0.573 173 124 107
0.507643 -0.28531 -0.575 170 124 109
0.511392 -0.286798 -0.578 170 124 109
0.515153 -0.288287 -0.581 167 124 108
0.519814 -0.290271 -0.585 166 123 107
-0.128063 -0.30583 -0.614 103 104 108
-0.126687 -0.305332 -0.613 100 104 107
-0.124905 -0.303838 -0.61 96 100 103
-0.123337 -0.302842 -0.608 95 98 103
-0.121576 -0.301348 -0.605 95 98 103
-0.119827 -0.299853 -0.602 94 97 102
-0.118286 -0.298857 -0.6 90 93 98
-0.116948 -0.298359 -0.599 93 96 101
-0.11542 -0.297363 -0.597 93 96 101
-0.114091 -0.296865 -0.596 93 96 101
-0.112956 -0.296865 -0.596 92 95 100
-0.111633 -0.296367 -0.595 94 95 100
-0.1105 -0.296367 -0.595 93 94 99
-0.10955 -0.296865 -0.596 91 92 97
-0.108415 -0.296865 -0.596 90 91 96
-0.10746 -0.297363 -0.597 92 93 98
-0.106501 -0.297861 -0.598 84 85 90
-0.105538 -0.298359 -0.599 87 86 92
-0.104571 -0.298857 -0.6 86 85 91
-0.103773 -0.299853 -0.602 80 79 85
-0.102797 -0.300351 -0.603 77 76 82
-0.101817 -0.30085 -0.604 71 70 75
-0.100833 -0.301348 -0.605 66 65 70
-0.10001 -0.302344 -0.607 65 63 74
-0.0990171 -0.302842 -0.608 65 63 74
-0.098181 -0.303838 -0.61 64 63 71
-0.0973371 -0.304834 -0.612 62 61 69
-0.0963286 -0.305332 -0.613 61 60 68
-0.0954714 -0.306329 -0.615 58 57 65
-0.0944533 -0.306827 -0.616 55 54 60
-0.0934314 -0.307325 -0.617 49 48 56
0.111844 -0.312804 -0.628 191 136 131
0.11214 -0.310313 -0.623 187 134 128
0.111871 -0.306329 -0.615 188 135 129
0.111756 -0.302842 -0.608 188 141 135
0.112914 -0.302842 -0.608 188 141 135
0.112759 -0.299355 -0.601 190 143 137
0.112767 -0.296367 -0.595 193 142 138
0.113134 -0.294374 -0.591 190 139 135
0.113487 -0.292382 -0.587 192 137 132
0.114019 -0.290888 -0.584 191 136 131
0.114737 -0.289891 -0.582 187 134 128
0.115448 -0.288895 -0.58 186 133 127
0.11615 -0.287899 -0.578 186 133 129
0.116846 -0.286903 -0.576 184 131 127
0.117533 -0.285907 -0.574 188 135 131
0.118213 -0.28491 -0.572 195 142 138
0.119094 -0.284412 -0.571 195 140 137
0.119971 -0.283914 -0.57 190 135 132
0.120845 -0.283416 -0.569 189 134 129
0.121714 -0.282918 -0.568 191 136 131
0.122364 -0.281922 -0.566 189 131 127
0.123224 -0.281424 -0.565 187 129 125
0.12408 -0.280926 -0.564 185 128 121
0.125154 -0.280926 -0.564 188 131 124
0.126005 -0.280428 -0.563 188 131 124
0.126851 -0.27993 -0.562 189 132 125
0.127694 -0.279431 -0.561 192 133 127
0.128763 -0.279431 -0.561 188 129 123
0.1296 -0.278933 -0.56 187 128 124
0.130667 -0.278933 -0.56 189 130 126
0.131498 -0.278435 -0.559 188 129 125
0.132563 -0.278435 -0.559 186 127 123
0.133628 -0.278435 -0.559 187 128 124
0.134692 -0.278435 -0.559 183 124 120
0.135757 -0.278435 -0.559 186 127 123
0.136822 -0.278435 -0.559 186 127 123
0.137887 -0.278435 -0.559 180 121 117
0.138951 -0.278435 -0.559 179 120 116
0.140016 -0.278435 -0.559 178 119 113
0.141081 -0.278435 -0.559 178 119 113
0.1424 -0.278933 -0.56 177 118 112
0.143467 -0.278933 -0.56 175 116 110
0.144533 -0.278933 -0.56 172 115 108
0.1456 -0.278933 -0.56 172 115 108
0.146667 -0.278933 -0.56 173 112 109
0.147733 -0.278933 -0.56 172 111 108
0.1488 -0.278933 -0.56 170 111 107
0.149867 -0.278933 -0.56 170 111 107
0.150933 -0.278933 -0.56 169 111 107
0.152 -0.278933 -0.56 168 110 106
0.15334 -0.279431 -0.561 166 108 106
0.154409 -0.279431 -0.561 158 100 98
0.155477 -0.279431 -0.561 155 99 98
0.156825 -0.27993 -0.562 155 99 98
0.157895 -0.27993 -0.562 155 101 101
0.158966 -0.27993 -0.562 152 98 98
0.160321 -0.280428 -0.563 144 93 92
0.161393 -0.280428 -0.563 144 93 92
0.162466 -0.280428 -0.563 143 92 91
0.163829 -0.280926 -0.564 145 93 95
0.165195 -0.281424 -0.565 144 92 94
0.166566 -0.281922 -0.566 141 92 95
0.168236 -0.282918 -0.568 140 91 94
0.169616 -0.283416 -0.569 141 89 93
0.171 -0.283914 -0.57 140 88 92
0.17269 -0.28491 -0.572 144 90 90
0.174387 -0.285907 -0.574 146 92 92
0.176091 -0.286903 -0.576 147 98 93
0.177804 -0.287899 -0.578 150 101 96
0.179833 -0.289393 -0.581 145 101 98
0.181874 -0.290888 -0.584 141 97 94
0.18424 -0.29288 -0.588 131 95 107
0.186621 -0.294872 -0.592 135 99 111
0.189334 -0.297363 -0.597 133 113 138
0.206453 -0.314796 -0.632 155 145 179
0.22366 -0.315294 -0.633 189 129 131
0.221313 -0.310313 -0.623 195 134 129
0.2225 -0.310313 -0.623 195 134 129
0.219737 -0.304834 -0.612 196 135 130
0.218737 -0.301846 -0.606 198 135 130
0.217714 -0.298857 -0.6 198 135 130
0.218128 -0.297861 -0.598 195 134 133
0.218167 -0.296367 -0.595 194 133 132
0.2193 -0.296367 -0.595 194 133 138
0.220433 -0.296367 -0.595 193 132 137
0.221567 -0.296367 -0.595 193 128 134
0.223074 -0.296865 -0.596 186 121 127
0.22421 -0.296865 -0.596 191 120 124
0.226101 -0.297861 -0.598 174 115 111
0.22762 -0.298359 -0.599 167 108 104
0.229525 -0.299355 -0.601 168 109 105
0.231821 -0.30085 -0.604 158 101 94
0.234129 -0.302344 -0.607 149 92 85
0.236448 -0.303838 -0.61 136 90 90
0.239168 -0.30583 -0.614 134 88 88
0.241903 -0.307823 -0.618 128 98 100
0.245047 -0.310313 -0.623 125 95 97
0.247814 -0.312306 -0.627 211 198 208
0.250597 -0.314298 -0.631 227 214 224
0.253395 -0.31629 -0.635 217 216 234
0.505557 -0.321271 -0.645 151 123 122
0.501286 -0.317785 -0.638 148 120 119
0.495412 -0.313302 -0.629 154 120 118
0.491084 -0.309815 -0.622 157 123 121
0.486729 -0.306329 -0.615 159 124 120
0.48314 -0.30334 -0.609 159 124 120
0.480324 -0.30085 -0.604 164 125 120
0.478286 -0.298857 -0.6 165 126 121
0.477031 -0.297363 -0.597 171 127 118
0.475766 -0.295869 -0.594 175 131 122
0.474489 -0.294374 -0.591 179 133 120
0.4732 -0.29288 -0.588 178 132 119
0.4719 -0.291386 -0.585 181 133 119
0.471397 -0.29039 -0.583 184 136 122
0.470887 -0.289393 -0.581 185 136 121
0.471993 -0.289393 -0.581 185 136 121
0.471471 -0.288397 -0.579 190 141 126
0.470942 -0.287401 -0.577 193 140 122
0.470405 -0.286405 -0.575 192 139 121
0.47068 -0.285907 -0.574 196 141 120
0.47013 -0.28491 -0.572 199 144 123
0.470395 -0.284412 -0.571 202 146 121
0.470657 -0.283914 -0.57 203 147 122
0.470915 -0.283416 -0.569 204 148 123
0.471999 -0.283416 -0.569 205 149 124
0.472251 -0.282918 -0.568 200 148 124
0.4725 -0.28242 -0.567 200 148 124
0.47358 -0.28242 -0.567 201 149 127
0.473823 -0.281922 -0.566 200 148 126
0.474901 -0.281922 -0.566 201 149 127
0.475979 -0.281922 -0.566 197 145 123
0.476214 -0.281424 -0.565 199 147 125
0.47729 -0.281424 -0.565 199 147 125
0.478367 -0.281424 -0.565 200 148 126
0.479443 -0.281424 -0.565 199 147 125
0.480519 -0.281424 -0.565 200 148 126
0.480743 -0.280926 -0.564 201 149 127
0.481817 -0.280926 -0.564 201 149 127
0.483748 -0.281424 -0.565 199 147 125
0.484824 -0.281424 -0.565 197 145 123
0.4859 -0.281424 -0.565 196 144 122
0.487838 -0.281922 -0.566 199 142 122
0.488916 -0.281922 -0.566 195 138 118
0.489994 -0.281922 -0.566 192 137 117
0.49194 -0.28242 -0.567 188 133 113
0.49302 -0.28242 -0.567 189 136 118
0.494971 -0.282918 -0.568 185 132 114
0.496053 -0.282918 -0.568 183 132 113
0.497135 -0.282918 -0.568 183 132 113
0.499094 -0.283416 -0.569 181 130 111
0.501057 -0.283914 -0.57 177 130 110
0.503905 -0.28491 -0.572 174 127 107
0.50676 -0.285907 -0.574 171 128 111
0.509623 -0.286903 -0.576 168 125 108
0.51338 -0.288397 -0.579 166 125 107
-0.126687 -0.3065 -0.613 100 101 105
-0.125314 -0.306 -0.612 103 104 108
-0.123743 -0.305 -0.61 102 105 110
-0.121978 -0.3035 -0.607 97 100 105
-0.120424 -0.3025 -0.605 95 98 103
-0.118877 -0.3015 -0.603 98 101 106
-0.117533 -0.301 -0.602 96 99 104
-0.116 -0.3 -0.6 97 100 105
-0.114666 -0.2995 -0.599 97 100 105
-0.113525 -0.2995 -0.599 96 99 104
-0.112196 -0.299 -0.598 96 99 104
-0.111057 -0.299 -0.598 95 98 103
-0.109918 -0.299 -0.598 96 97 102
-0.108961 -0.2995 -0.599 96 97 102
-0.10782 -0.2995 -0.599 92 93 98
-0.106857 -0.3 -0.6 89 90 95
-0.10589 -0.3005 -0.601 88 89 94
-0.10492 -0.301 -0.602 84 85 90
-0.103946 -0.3015 -0.603 80 79 84
-0.102968 -0.302 -0.604 80 79 84
-0.101986 -0.3025 -0.605 75 74 80
-0.101 -0.303 -0.606 65 64 70
-0.100175 -0.304 -0.608 65 63 74
-0.09918 -0.3045 -0.609 64 62 73
-0.098181 -0.305 -0.61 64 63 71
-0.0973371 -0.306 -0.612 64 63 71
-0.0964857 -0.307 -0.614 63 62 68
-0.0954714 -0.3075 -0.615 61 60 66
-0.0944533 -0.308 -0.616 55 54 60
0.111488 -0.313 -0.626 189 134 129
0.1116 -0.31 -0.62 187 134 128
0.111508 -0.3065 -0.613 190 137 131
0.112675 -0.3065 -0.613 190 137 131
0.112543 -0.303 -0.606 190 141 136
0.112384 -0.2995 -0.599 193 144 139
0.112388 -0.2965 -0.593 194 141 137
0.112751 -0.2945 -0.589 191 138 134
0.1131 -0.2925 -0.585 194 136 132
0.113824 -0.2915 -0.583 194 136 132
0.11454 -0.2905 -0.581 190 135 130
0.115249 -0.2895 -0.579 189 134 129
0.11595 -0.2885 -0.577 188 135 131
0.116643 -0.2875 -0.575 184 131 127
0.117533 -0.287 -0.574 187 134 130
0.118213 -0.286 -0.572 193 140 136
0.118886 -0.285 -0.57 194 139 136
0.119761 -0.2845 -0.569 191 136 133
0.120632 -0.284 -0.568 190 135 130
0.1215 -0.2835 -0.567 190 135 130
0.122364 -0.283 -0.566 184 129 124
0.123224 -0.2825 -0.565 184 129 124
0.12408 -0.282 -0.564 186 128 124
0.124932 -0.2815 -0.563 188 130 126
0.125781 -0.281 -0.562 190 133 126
0.126626 -0.2805 -0.561 191 134 127
0.127694 -0.2805 -0.561 193 136 129
0.128533 -0.28 -0.56 190 133 126
0.1296 -0.28 -0.56 185 128 121
0.130667 -0.28 -0.56 187 130 123
0.131498 -0.2795 -0.559 189 132 125
0.132563 -0.2795 -0.559 187 130 123
0.133628 -0.2795 -0.559 188 129 123
0.134692 -0.2795 -0.559 183 124 118
0.135757 -0.2795 -0.559 184 125 119
0.136822 -0.2795 -0.559 184 125 119
0.137887 -0.2795 -0.559 182 123 117
0.138951 -0.2795 -0.559 179 120 114
0.140016 -0.2795 -0.559 178 119 111
0.141081 -0.2795 -0.559 178 119 111
0.1424 -0.28 -0.56 178 119 111
0.143467 -0.28 -0.56 177 118 110
0.144533 -0.28 -0.56 175 116 108
0.1456 -0.28 -0.56 173 114 106
0.146667 -0.28 -0.56 176 116 108
0.147733 -0.28 -0.56 175 115 107
0.1488 -0.28 -0.56 172 113 105
0.149867 -0.28 -0.56 173 114 106
0.150933 -0.28 -0.56 172 113 107
0.152 -0.28 -0.56 171 112 106
0.153067 -0.28 -0.56 165 108 101
0.154409 -0.2805 -0.561 157 100 93
0.155477 -0.2805 -0.561 154 99 94
0.156825 -0.281 -0.562 154 99 94
0.157895 -0.281 -0.562 150 99 95
0.158966 -0.281 -0.562 148 97 93
0.160036 -0.281 -0.562 148 97 93
0.161393 -0.2815 -0.563 144 93 90
0.162466 -0.2815 -0.563 143 92 89
0.163829 -0.282 -0.564 143 92 89
0.165195 -0.2825 -0.565 143 92 89
0.166566 -0.283 -0.566 143 93 92
0.168236 -0.284 -0.568 139 89 88
0.169616 -0.2845 -0.569 138 84 84
0.171 -0.285 -0.57 139 85 85
0.17269 -0.286 -0.572 146 90 91
0.174387 -0.287 -0.574 150 94 95
0.176091 -0.288 -0.576 148 97 94
0.177804 -0.289 -0.578 148 97 94
0.179524 -0.29 -0.58 149 101 99
0.181563 -0.2915 -0.583 145 97 95
0.183927 -0.2935 -0.587 136 95 103
0.186306 -0.2955 -0.591 134 93 101
0.206127 -0.3155 -0.631 144 135 162
0.22154 -0.3135 -0.627 190 132 130
0.219892 -0.3095 -0.619 195 136 130
0.221071 -0.3095 -0.619 195 136 130
0.218301 -0.304 -0.608 196 137 131
0.217654 -0.3015 -0.603 197 134 129
0.216989 -0.299 -0.598 196 133 128
0.217398 -0.298 -0.596 192 131 130
0.2178 -0.297 -0.594 190 129 128
0.218931 -0.297 -0.594 190 131 133
0.220433 -0.2975 -0.595 193 132 137
0.221567 -0.2975 -0.595 193 128 134
0.223074 -0.298 -0.596 186 121 127
0.22421 -0.298 -0.596 191 120 124
0.225723 -0.2985 -0.597 182 111 115
0.22762 -0.2995 -0.599 167 106 103
0.229525 -0.3005 -0.601 151 90 87
0.231821 -0.302 -0.604 143 96 88
0.234129 -0.3035 -0.607 142 95 87
0.23606 -0.3045 -0.609 130 91 92
0.238778 -0.3065 -0.613 133 94 95
0.241903 -0.309 -0.618 123 90 97
0.244653 -0.311 -0.622 131 98 105
0.247814 -0.3135 -0.627 213 194 198
0.2502 -0.315 -0.63 231 212 216
0.252996 -0.317 -0.634 221 213 234
0.509476 -0.325 -0.65 139 123 124
0.505214 -0.3215 -0.643 138 122 123
0.500138 -0.3175 -0.635 151 123 120
0.494242 -0.313 -0.626 153 125 122
0.489894 -0.3095 -0.619 160 125 123
0.486313 -0.3065 -0.613 158 123 121
0.48271 -0.3035 -0.607 164 124 124
0.47988 -0.301 -0.602 162 122 122
0.47863 -0.2995 -0.599 172 128 119
0.477368 -0.298 -0.596 174 130 121
0.475291 -0.296 -0.592 180 132 120
0.474005 -0.2945 -0.589 179 131 119
0.473513 -0.2935 -0.587 184 132 118
0.472206 -0.292 -0.584 188 136 122
0.471697 -0.291 -0.582 191 138 120
0.472806 -0.291 -0.582 191 138 120
0.471471 -0.2895 -0.579 194 141 123
0.470942 -0.2885 -0.577 192 140 118
0.471223 -0.288 -0.576 194 142 120
0.47068 -0.287 -0.574 197 143 119
0.470951 -0.2865 -0.573 199 145 121
0.470395 -0.2855 -0.571 200 148 124
0.470657 -0.285 -0.57 200 148 124
0.471743 -0.285 -0.57 200 150 127
0.471999 -0.2845 -0.569 202 152 129
0.472251 -0.284 -0.568 203 148 127
0.4725 -0.2835 -0.567 201 146 125
0.47358 -0.2835 -0.567 201 149 127
0.473823 -0.283 -0.566 200 148 126
0.474901 -0.283 -0.566 201 149 127
0.475979 -0.283 -0.566 197 145 123
0.476214 -0.2825 -0.565 201 146 125
0.47729 -0.2825 -0.565 201 146 125
0.478367 -0.2825 -0.565 199 144 123
0.479443 -0.2825 -0.565 200 145 124
0.480519 -0.2825 -0.565 202 147 126
0.480743 -0.282 -0.564 203 148 127
0.481817 -0.282 -0.564 202 147 126
0.482891 -0.282 -0.564 201 146 125
0.483966 -0.282 -0.564 200 145 124
0.4859 -0.2825 -0.565 200 145 124
0.486976 -0.2825 -0.565 198 141 121
0.488052 -0.2825 -0.565 196 139 119
0.489994 -0.283 -0.566 194 139 119
0.491072 -0.283 -0.566 192 137 117
0.49215 -0.283 -0.566 191 138 120
0.4941 -0.2835 -0.567 187 134 116
0.49518 -0.2835 -0.567 183 132 113
0.49626 -0.2835 -0.567 183 132 113
0.498217 -0.284 -0.568 181 130 111
0.500178 -0.2845 -0.569 177 130 110
0.502143 -0.285 -0.57 175 128 108
0.504994 -0.286 -0.572 171 128 109
0.507853 -0.287 -0.574 169 126 107
0.511607 -0.2885 -0.577 166 125 107
0.515371 -0.29 -0.58 165 124 106
0.520038 -0.292 -0.584 163 122 104
0.525612 -0.2945 -0.589 162 121 103
0.5321 -0.2975 -0.595 162 120 106
-0.125519 -0.307668 -0.613 104 105 109
-0.123946 -0.306664 -0.611 105 106 111
-0.12238 -0.30566 -0.609 105 106 111
-0.120822 -0.304656 -0.607 103 103 111
-0.119469 -0.304154 -0.606 103 103 111
-0.117924 -0.30315 -0.604 99 102 107
-0.11658 -0.302649 -0.603 100 103 108
-0.11524 -0.302147 -0.602 100 103 108
-0.114093 -0.302147 -0.602 100 103 108
-0.112759 -0.301645 -0.601 101 102 107
-0.111614 -0.301645 -0.601 100 101 106
-0.11047 -0.301645 -0.601 100 101 106
-0.109325 -0.301645 -0.601 101 102 107
-0.10836 -0.302147 -0.602 98 99 104
-0.107213 -0.302147 -0.602 97 98 103
-0.106243 -0.302649 -0.603 94 95 99
-0.105094 -0.302649 -0.603 90 91 95
-0.104118 -0.30315 -0.604 83 84 88
-0.103138 -0.303652 -0.605 80 81 85
-0.102154 -0.304154 -0.606 80 81 86
-0.101333 -0.305158 -0.608 74 75 80
-0.10034 -0.30566 -0.609 71 70 78
-0.0993429 -0.306162 -0.61 67 66 74
-0.0983419 -0.306664 -0.611 65 64 72
-0.0974962 -0.307668 -0.613 65 64 72
-0.0964857 -0.30817 -0.614 64 63 71
-0.0954714 -0.308671 -0.615 61 60 66
-0.0944533 -0.309173 -0.616 60 59 65
0.110953 -0.312687 -0.623 190 135 130
0.11124 -0.310177 -0.618 186 133 127
0.110962 -0.306162 -0.61 188 135 129
0.112124 -0.306162 -0.61 188 135 129
0.111986 -0.302649 -0.603 187 138 133
0.112009 -0.299637 -0.597 192 143 138
0.112009 -0.296626 -0.591 193 140 136
0.11256 -0.29512 -0.588 190 137 133
0.112907 -0.293112 -0.584 195 137 135
0.113629 -0.292109 -0.582 195 137 135
0.114343 -0.291105 -0.58 193 138 135
0.11505 -0.290101 -0.578 190 135 132
0.115749 -0.289097 -0.576 189 136 132
0.11644 -0.288093 -0.574 186 133 129
0.117329 -0.287591 -0.573 190 135 130
0.118007 -0.286588 -0.571 194 139 134
0.118886 -0.286086 -0.57 193 138 133
0.11955 -0.285082 -0.568 191 136 131
0.12042 -0.28458 -0.567 191 136 131
0.1215 -0.28458 -0.567 190 135 130
0.122364 -0.284078 -0.566 185 130 125
0.123224 -0.283576 -0.565 186 131 126
0.12408 -0.283074 -0.564 189 134 129
0.124932 -0.282572 -0.563 190 135 130
0.125781 -0.28207 -0.562 191 136 131
0.126626 -0.281569 -0.561 192 137 132
0.127694 -0.281569 -0.561 191 136 129
0.128533 -0.281067 -0.56 190 135 128
0.1296 -0.281067 -0.56 174 117 108
0.130667 -0.281067 -0.56 178 121 112
0.131498 -0.280565 -0.559 186 129 120
0.132563 -0.280565 -0.559 186 129 120
0.133628 -0.280565 -0.559 188 129 121
0.134692 -0.280565 -0.559 184 125 117
0.135757 -0.280565 -0.559 183 124 116
0.136822 -0.280565 -0.559 185 126 118
0.137887 -0.280565 -0.559 182 123 115
0.138951 -0.280565 -0.559 178 119 111
0.140016 -0.280565 -0.559 176 118 107
0.141081 -0.280565 -0.559 177 119 108
0.142146 -0.280565 -0.559 177 119 108
0.143467 -0.281067 -0.56 179 121 110
0.144533 -0.281067 -0.56 180 122 111
0.1456 -0.281067 -0.56 179 121 110
0.146667 -0.281067 -0.56 182 120 109
0.147733 -0.281067 -0.56 178 116 105
0.1488 -0.281067 -0.56 175 115 105
0.149867 -0.281067 -0.56 174 114 104
0.150933 -0.281067 -0.56 173 114 106
0.152 -0.281067 -0.56 171 112 104
0.153067 -0.281067 -0.56 163 106 97
0.154409 -0.281569 -0.561 157 100 91
0.155477 -0.281569 -0.561 153 98 91
0.156546 -0.281569 -0.561 152 97 90
0.157895 -0.28207 -0.562 148 98 91
0.158966 -0.28207 -0.562 146 96 89
0.160036 -0.28207 -0.562 146 96 89
0.161393 -0.282572 -0.563 144 95 90
0.162466 -0.282572 -0.563 142 93 88
0.163829 -0.283074 -0.564 141 92 88
0.165488 -0.284078 -0.566 142 93 89
0.16686 -0.28458 -0.567 142 93 89
0.168236 -0.285082 -0.568 137 88 84
0.169616 -0.285584 -0.569 136 80 79
0.171 -0.286086 -0.57 138 82 81
0.17269 -0.28709 -0.572 148 92 91
0.174387 -0.288093 -0.574 153 97 96
0.176091 -0.289097 -0.576 149 99 98
0.177804 -0.290101 -0.578 149 99 98
0.179524 -0.291105 -0.58 146 96 97
0.181563 -0.29261 -0.583 143 93 94
0.183927 -0.294618 -0.587 141 92 96
0.18599 -0.296124 -0.59 139 90 94
0.202002 -0.312185 -0.622 118 110 134
0.205473 -0.315698 -0.629 128 120 144
0.222103 -0.317204 -0.632 187 127 126
0.219773 -0.312185 -0.622 196 136 135
0.217761 -0.307668 -0.613 197 139 135
0.218929 -0.307668 -0.613 197 139 135
0.217224 -0.303652 -0.605 198 140 136
0.216571 -0.301143 -0.6 198 137 134
0.216263 -0.299135 -0.596 196 135 132
0.217398 -0.299135 -0.596 192 131 130
0.2178 -0.298131 -0.594 190 129 128
0.218931 -0.298131 -0.594 190 131 133
0.220063 -0.298131 -0.594 192 133 135
0.221194 -0.298131 -0.594 190 128 131
0.2227 -0.298633 -0.595 182 120 123
0.22421 -0.299135 -0.596 186 118 119
0.225723 -0.299637 -0.597 180 112 113
0.22762 -0.300641 -0.599 166 105 102
0.229525 -0.301645 -0.601 150 89 86
0.231821 -0.30315 -0.604 138 91 81
0.233743 -0.304154 -0.606 136 89 79
0.23606 -0.30566 -0.609 127 89 88
0.238778 -0.307668 -0.613 130 92 91
0.241903 -0.310177 -0.618 120 89 95
0.244653 -0.312185 -0.622 131 100 106
0.247419 -0.314192 -0.626 209 192 198
0.2502 -0.3162 -0.63 221 204 210
0.252996 -0.318208 -0.634 210 205 227
0.509143 -0.325234 -0.648 138 123 126
0.504076 -0.321219 -0.64 151 123 120
0.498979 -0.317204 -0.632 154 126 123
0.493851 -0.313189 -0.624 157 122 120
0.489487 -0.309675 -0.617 158 123 121
0.48589 -0.306664 -0.611 161 122 123
0.483069 -0.304154 -0.606 163 124 125
0.480228 -0.301645 -0.601 168 127 121
0.47897 -0.300139 -0.598 170 129 123
0.476897 -0.298131 -0.594 175 131 120
0.475614 -0.296626 -0.591 174 130 119
0.47432 -0.29512 -0.588 180 132 118
0.473014 -0.293614 -0.585 185 137 123
0.472508 -0.29261 -0.583 190 139 122
0.471181 -0.291105 -0.58 192 141 124
0.472286 -0.291105 -0.58 192 141 124
0.471758 -0.290101 -0.578 192 140 119
0.471223 -0.289097 -0.576 195 143 122
0.47068 -0.288093 -0.574 196 144 122
0.470951 -0.287591 -0.573 197 145 123
0.470395 -0.286588 -0.571 200 148 126
0.470657 -0.286086 -0.57 200 148 126
0.471743 -0.286086 -0.57 198 150 127
0.471999 -0.285584 -0.569 199 151 128
0.472251 -0.285082 -0.568 201 149 127
0.4725 -0.28458 -0.567 200 148 126
0.472745 -0.284078 -0.566 201 149 127
0.473823 -0.284078 -0.566 199 147 125
0.474062 -0.283576 -0.565 203 148 127
0.475979 -0.284078 -0.566 200 145 124
0.476214 -0.283576 -0.565 201 146 125
0.47729 -0.283576 -0.565 201 146 125
0.478367 -0.283576 -0.565 199 144 123
0.479443 -0.283576 -0.565 200 145 124
0.479669 -0.283074 -0.564 201 146 125
0.480743 -0.283074 -0.564 201 146 125
0.481817 -0.283074 -0.564 201 146 125
0.482891 -0.283074 -0.564 200 145 124
0.483966 -0.283074 -0.564 201 146 125
0.48504 -0.283074 -0.564 202 147 126
0.486114 -0.283074 -0.564 200 143 123
0.487189 -0.283074 -0.564 197 140 120
0.489129 -0.283576 -0.565 194 139 119
0.490205 -0.283576 -0.565 195 140 120
0.49215 -0.284078 -0.566 191 139 118
0.493229 -0.284078 -0.566 190 138 117
0.494307 -0.284078 -0.566 185 134 113
0.495385 -0.284078 -0.566 185 134 113
0.49734 -0.28458 -0.567 182 131 110
0.499299 -0.285082 -0.568 180 132 112
0.501262 -0.285584 -0.569 178 130 110
0.503229 -0.286086 -0.57 175 130 111
0.506084 -0.28709 -0.572 173 128 109
0.508947 -0.288093 -0.574 167 124 105
0.512706 -0.289599 -0.577 165 122 103
0.517367 -0.291607 -0.581 165 122 103
0.522935 -0.294116 -0.586 163 120 101
0.528523 -0.296626 -0.591 160 118 106
-0.124149 -0.308331 -0.612 105 105 113
-0.122782 -0.307828 -0.611 110 110 118
-0.12122 -0.30682 -0.609 112 112 122
-0.119863 -0.306316 -0.608 105 105 115
-0.11851 -0.305812 -0.607 105 106 111
-0.116967 -0.304805 -0.605 105 106 111
-0.115814 -0.304805 -0.605 106 107 111
-0.114472 -0.304301 -0.604 105 106 110
-0.113322 -0.304301 -0.604 105 106 110
-0.112171 -0.304301 -0.604 104 105 109
-0.111021 -0.304301 -0.604 104 105 110
-0.10987 -0.304301 -0.604 103 104 109
-0.10872 -0.304301 -0.604 100 101 105
-0.10757 -0.304301 -0.604 102 103 107
-0.106595 -0.304805 -0.605 100 101 105
-0.105617 -0.305309 -0.606 92 93 97
-0.104463 -0.305309 -0.606 86 87 91
-0.103479 -0.305812 -0.607 86 87 91
-0.102491 -0.306316 -0.608 85 86 90
-0.1015 -0.30682 -0.609 81 82 86
-0.100505 -0.307324 -0.61 78 77 83
-0.0995057 -0.307828 -0.611 75 74 80
-0.0985029 -0.308331 -0.612 72 71 77
-0.0976552 -0.309339 -0.614 73 72 78
-0.0964857 -0.309339 -0.614 64 63 71
-0.0954714 -0.309843 -0.615 64 63 71
0.110295 -0.315385 -0.626 197 144 138
0.110597 -0.312866 -0.621 191 138 132
0.1107 -0.309843 -0.615 184 134 125
0.111871 -0.309843 -0.615 184 134 125
0.111572 -0.305812 -0.607 183 133 124
0.111614 -0.30279 -0.601 183 134 129
0.111633 -0.299767 -0.595 189 140 135
0.111819 -0.297248 -0.59 191 137 135
0.112369 -0.295736 -0.587 190 136 134
0.112907 -0.294225 -0.584 192 137 134
0.113433 -0.292713 -0.581 193 138 135
0.114146 -0.291706 -0.579 194 141 137
0.11485 -0.290698 -0.577 190 137 133
0.115548 -0.28969 -0.575 190 135 130
0.116237 -0.288683 -0.573 190 135 130
0.116919 -0.287675 -0.571 193 138 133
0.1178 -0.287171 -0.57 195 140 135
0.118677 -0.286668 -0.569 193 138 133
0.11934 -0.28566 -0.567 191 136 131
0.120208 -0.285156 -0.566 191 136 131
0.121286 -0.285156 -0.566 191 136 131
0.122148 -0.284652 -0.565 185 130 125
0.123006 -0.284149 -0.564 186 131 126
0.12386 -0.283645 -0.563 189 134 129
0.12471 -0.283141 -0.562 188 133 128
0.125781 -0.283141 -0.562 188 133 128
0.126626 -0.282637 -0.561 188 133 128
0.127694 -0.282637 -0.561 187 129 125
0.128533 -0.282133 -0.56 186 128 124
0.1296 -0.282133 -0.56 168 111 102
0.130433 -0.28163 -0.559 173 116 107
0.131498 -0.28163 -0.559 183 126 117
0.132563 -0.28163 -0.559 183 126 117
0.133628 -0.28163 -0.559 185 127 116
0.134692 -0.28163 -0.559 182 124 113
0.135757 -0.28163 -0.559 182 124 113
0.136822 -0.28163 -0.559 184 126 115
0.137887 -0.28163 -0.559 179 121 110
0.138951 -0.28163 -0.559 177 119 108
0.140016 -0.28163 -0.559 177 117 107
0.141081 -0.28163 -0.559 176 116 106
0.142146 -0.28163 -0.559 177 117 106
0.14321 -0.28163 -0.559 179 119 108
0.144275 -0.28163 -0.559 181 121 110
0.1456 -0.282133 -0.56 183 123 112
0.146667 -0.282133 -0.56 183 121 110
0.147733 -0.282133 -0.56 177 115 104
0.1488 -0.282133 -0.56 174 114 104
0.149867 -0.282133 -0.56 173 113 103
0.150933 -0.282133 -0.56 172 113 105
0.152 -0.282133 -0.56 171 112 104
0.153067 -0.282133 -0.56 163 106 99
0.154409 -0.282637 -0.561 159 102 95
0.155477 -0.282637 -0.561 150 97 91
0.156546 -0.282637 -0.561 150 97 91
0.157895 -0.283141 -0.562 148 97 93
0.158966 -0.283141 -0.562 148 97 93
0.160036 -0.283141 -0.562 148 97 93
0.161393 -0.283645 -0.563 145 96 92
0.162466 -0.283645 -0.563 143 94 90
0.163829 -0.284149 -0.564 141 93 89
0.165488 -0.285156 -0.566 141 93 89
0.16686 -0.28566 -0.567 139 94 91
0.168236 -0.286164 -0.568 137 92 89
0.169616 -0.286668 -0.569 140 86 84
0.171 -0.287171 -0.57 142 88 86
0.17269 -0.288179 -0.572 146 92 92
0.174387 -0.289187 -0.574 148 94 94
0.176091 -0.290194 -0.576 144 98 98
0.177804 -0.291202 -0.578 146 100 100
0.179524 -0.29221 -0.58 143 95 95
0.181563 -0.293721 -0.583 138 90 90
0.183613 -0.295232 -0.586 141 89 91
0.18599 -0.297248 -0.59 141 89 91
0.220697 -0.316392 -0.628 195 135 135
0.218007 -0.31085 -0.617 200 140 140
0.219182 -0.31085 -0.617 200 140 140
0.218929 -0.308835 -0.613 197 139 135
0.217224 -0.304805 -0.605 198 140 136
0.216571 -0.302286 -0.6 198 137 134
0.216263 -0.30027 -0.596 196 135 132
0.217033 -0.299767 -0.595 193 132 131
0.217433 -0.298759 -0.593 188 127 126
0.218563 -0.298759 -0.593 185 127 126
0.219692 -0.298759 -0.593 187 129 128
0.221194 -0.299263 -0.594 188 126 127
0.2227 -0.299767 -0.595 180 118 119
0.22421 -0.30027 -0.596 179 113 114
0.225723 -0.300774 -0.597 175 109 110
0.22762 -0.301782 -0.599 164 105 101
0.229525 -0.30279 -0.601 153 94 90
0.231821 -0.304301 -0.604 143 96 88
0.233743 -0.305309 -0.606 143 96 88
0.23606 -0.30682 -0.609 132 93 94
0.238778 -0.308835 -0.613 130 91 92
0.241903 -0.311354 -0.618 117 86 94
0.244653 -0.31337 -0.622 127 96 104
0.247419 -0.315385 -0.626 199 183 194
0.2502 -0.3174 -0.63 210 194 205
0.252996 -0.319415 -0.634 200 198 222
0.508014 -0.324957 -0.645 148 122 121
0.502927 -0.320927 -0.637 154 128 127
0.497809 -0.316896 -0.629 158 123 121
0.49266 -0.312866 -0.621 159 124 122
0.489071 -0.309843 -0.615 159 123 125
0.48546 -0.30682 -0.609 162 126 128
0.482625 -0.304301 -0.604 165 127 124
0.47977 -0.301782 -0.599 166 128 125
0.478503 -0.30027 -0.596 169 128 122
0.476419 -0.298255 -0.592 169 128 122
0.475127 -0.296744 -0.589 178 131 121
0.474631 -0.295736 -0.587 184 137 127
0.473318 -0.294225 -0.584 187 140 124
0.471993 -0.292713 -0.581 188 141 125
0.4731 -0.292713 -0.581 188 141 125
0.472574 -0.291706 -0.579 192 141 122
0.472041 -0.290698 -0.577 195 144 125
0.4715 -0.28969 -0.575 196 144 122
0.470951 -0.288683 -0.573 197 145 123
0.470395 -0.287675 -0.571 199 149 126
0.470657 -0.287171 -0.57 200 150 127
0.471743 -0.287171 -0.57 199 149 126
0.471999 -0.286668 -0.569 200 150 127
0.472251 -0.286164 -0.568 201 149 127
0.4725 -0.28566 -0.567 201 149 127
0.472745 -0.285156 -0.566 201 149 127
0.473823 -0.285156 -0.566 197 145 123
0.474062 -0.284652 -0.565 200 148 126
0.475138 -0.284652 -0.565 198 146 124
0.476214 -0.284652 -0.565 201 146 125
0.47729 -0.284652 -0.565 200 145 124
0.47752 -0.284149 -0.564 199 144 123
0.478594 -0.284149 -0.564 199 144 123
0.479669 -0.284149 -0.564 201 146 125
0.480743 -0.284149 -0.564 201 146 125
0.481817 -0.284149 -0.564 201 146 125
0.482891 -0.284149 -0.564 200 145 124
0.483966 -0.284149 -0.564 201 146 125
0.48504 -0.284149 -0.564 201 146 125
0.486114 -0.284149 -0.564 200 144 121
0.487189 -0.284149 -0.564 198 142 119
0.488263 -0.284149 -0.564 193 138 117
0.489337 -0.284149 -0.564 196 141 120
0.491281 -0.284652 -0.565 192 140 118
0.492357 -0.284652 -0.565 193 141 119
0.493433 -0.284652 -0.565 186 135 114
0.49451 -0.284652 -0.565 186 135 114
0.496463 -0.285156 -0.566 183 132 111
0.49842 -0.28566 -0.567 182 134 114
0.4995 -0.28566 -0.567 181 133 113
0.502346 -0.286668 -0.569 178 131 111
0.505199 -0.287675 -0.571 176 129 109
0.50806 -0.288683 -0.573 171 126 107
0.510929 -0.28969 -0.575 166 121 102
0.515586 -0.291706 -0.579 167 122 103
0.520258 -0.293721 -0.583 166 121 102
0.524946 -0.295736 -0.587 159 119 107
-0.122983 -0.309497 -0.612 115 115 123
-0.121618 -0.308991 -0.611 114 114 124
-0.120257 -0.308486 -0.61 112 112 122
-0.1189 -0.30798 -0.609 110 109 114
-0.117547 -0.307474 -0.608 110 109 114
-0.116197 -0.306969 -0.607 111 110 115
-0.115041 -0.306969 -0.607 111 110 115
-0.113885 -0.306969 -0.607 111 110 115
-0.112543 -0.306463 -0.606 110 109 114
-0.111389 -0.306463 -0.606 108 107 112
-0.110416 -0.306969 -0.607 107 106 111
-0.10926 -0.306969 -0.607 106 105 110
-0.108104 -0.306969 -0.607 105 104 109
-0.106948 -0.306969 -0.607 106 106 108
-0.105966 -0.307474 -0.608 100 100 102
-0.10498 -0.30798 -0.609 97 97 99
-0.10382 -0.30798 -0.609 96 96 98
-0.102829 -0.308486 -0.61 91 90 95
-0.101833 -0.308991 -0.611 90 89 94
-0.100834 -0.309497 -0.612 87 86 91
-0.0998314 -0.310003 -0.613 86 85 90
-0.0988248 -0.310509 -0.614 85 84 90
-0.0976552 -0.310509 -0.614 73 72 78
0.109943 -0.315566 -0.624 196 143 137
0.110063 -0.312531 -0.618 192 139 133
0.11124 -0.312531 -0.618 192 139 133
0.111326 -0.309497 -0.612 185 137 127
0.111205 -0.305957 -0.605 184 136 126
0.111243 -0.302923 -0.599 185 136 131
0.111258 -0.299889 -0.593 188 139 134
0.11163 -0.297866 -0.589 190 136 134
0.112177 -0.296349 -0.586 191 137 135
0.112713 -0.294831 -0.583 193 137 136
0.113238 -0.293314 -0.58 194 138 137
0.113949 -0.292303 -0.578 194 144 137
0.114651 -0.291291 -0.576 189 139 132
0.115347 -0.29028 -0.574 192 134 130
0.116034 -0.289269 -0.572 194 136 132
0.116714 -0.288257 -0.57 195 137 133
0.117593 -0.287751 -0.569 195 137 133
0.118469 -0.287246 -0.568 195 137 133
0.11913 -0.286234 -0.566 194 136 132
0.119995 -0.285729 -0.565 193 135 131
0.121071 -0.285729 -0.565 195 137 133
0.121931 -0.285223 -0.564 191 133 129
0.122788 -0.284717 -0.563 188 130 126
0.12364 -0.284211 -0.562 189 131 127
0.12471 -0.284211 -0.562 187 129 125
0.125557 -0.283706 -0.561 187 129 125
0.126626 -0.283706 -0.561 188 130 126
0.127467 -0.2832 -0.56 185 127 123
0.128533 -0.2832 -0.56 183 125 121
0.1296 -0.2832 -0.56 177 118 110
0.130433 -0.282694 -0.559 178 119 111
0.131498 -0.282694 -0.559 185 126 118
0.132563 -0.282694 -0.559 182 123 115
0.133628 -0.282694 -0.559 182 123 115
0.134692 -0.282694 -0.559 179 120 112
0.135757 -0.282694 -0.559 179 121 110
0.136822 -0.282694 -0.559 180 122 111
0.137887 -0.282694 -0.559 177 117 107
0.138951 -0.282694 -0.559 177 117 107
0.140016 -0.282694 -0.559 176 116 106
0.141081 -0.282694 -0.559 176 116 106
0.142146 -0.282694 -0.559 178 118 108
0.14321 -0.282694 -0.559 180 120 110
0.144275 -0.282694 -0.559 181 121 111
0.14534 -0.282694 -0.559 182 122 112
0.146667 -0.2832 -0.56 182 119 110
0.147733 -0.2832 -0.56 175 112 103
0.1488 -0.2832 -0.56 174 114 104
0.149867 -0.2832 -0.56 174 114 104
0.150933 -0.2832 -0.56 171 112 104
0.152 -0.2832 -0.56 170 111 103
0.153067 -0.2832 -0.56 164 107 100
0.154409 -0.283706 -0.561 160 103 96
0.155477 -0.283706 -0.561 152 99 93
0.156546 -0.283706 -0.561 151 98 92
0.157895 -0.284211 -0.562 150 99 95
0.158966 -0.284211 -0.562 150 99 95
0.160036 -0.284211 -0.562 150 99 95
0.161107 -0.284211 -0.562 147 98 94
0.162466 -0.284717 -0.563 144 95 91
0.163829 -0.285223 -0.564 141 93 89
0.165195 -0.285729 -0.565 140 92 88
0.16686 -0.28674 -0.567 139 93 93
0.168236 -0.287246 -0.568 139 93 93
0.169616 -0.287751 -0.569 144 93 92
0.171 -0.288257 -0.57 144 93 92
0.17269 -0.289269 -0.572 144 93 92
0.174083 -0.289774 -0.573 146 95 94
0.175786 -0.290786 -0.575 144 100 97
0.177496 -0.291797 -0.577 146 102 99
0.179214 -0.292809 -0.579 144 99 94
0.181251 -0.294326 -0.582 139 94 89
0.1833 -0.295843 -0.585 140 89 88
0.185675 -0.297866 -0.589 137 86 85
0.220697 -0.317589 -0.628 195 135 135
0.218007 -0.312026 -0.617 200 140 140
0.219182 -0.312026 -0.617 200 140 140
0.2175 -0.30798 -0.609 201 143 142
0.216147 -0.30444 -0.602 200 142 141
0.21585 -0.302417 -0.598 200 138 139
0.2159 -0.3009 -0.595 198 136 137
0.216669 -0.300394 -0.594 193 131 132
0.217067 -0.299383 -0.592 185 123 124
0.218563 -0.299889 -0.593 180 120 120
0.219692 -0.299889 -0.593 179 119 119
0.221194 -0.300394 -0.594 180 120 120
0.2227 -0.3009 -0.595 176 116 116
0.22421 -0.301406 -0.596 171 107 107
0.226101 -0.302417 -0.598 165 101 101
0.22762 -0.302923 -0.599 157 97 96
0.229525 -0.303934 -0.601 154 94 93
0.231821 -0.305451 -0.604 144 95 90
0.234129 -0.306969 -0.607 146 97 92
0.236448 -0.308486 -0.61 131 91 91
0.239168 -0.310509 -0.614 127 87 87
0.241903 -0.312531 -0.618 116 86 94
0.244653 -0.314554 -0.622 123 93 101
0.247419 -0.316577 -0.626 185 172 190
0.2502 -0.3186 -0.63 201 188 206
0.252996 -0.320623 -0.634 186 187 215
0.506874 -0.324669 -0.642 151 127 127
0.501766 -0.320623 -0.634 158 124 122
0.496627 -0.316577 -0.626 160 126 124
0.492252 -0.313037 -0.619 158 124 125
0.488649 -0.310003 -0.613 160 126 127
0.485022 -0.306969 -0.607 161 127 125
0.482173 -0.30444 -0.602 162 128 126
0.480109 -0.302417 -0.598 166 129 123
0.478029 -0.300394 -0.594 166 129 123
0.47674 -0.298877 -0.591 174 131 122
0.47544 -0.29736 -0.588 181 138 129
0.474939 -0.296349 -0.586 186 140 124
0.473618 -0.294831 -0.583 186 140 124
0.474729 -0.294831 -0.583 186 140 124
0.47339 -0.293314 -0.58 190 142 122
0.472859 -0.292303 -0.578 193 145 125
0.47232 -0.291291 -0.576 195 145 122
0.470951 -0.289774 -0.573 195 145 122
0.471219 -0.289269 -0.572 199 149 124
0.470657 -0.288257 -0.57 200 150 125
0.470915 -0.287751 -0.569 199 149 124
0.471999 -0.287751 -0.569 199 149 124
0.472251 -0.287246 -0.568 201 149 127
0.4725 -0.28674 -0.567 201 149 127
0.472745 -0.286234 -0.566 201 149 127
0.473823 -0.286234 -0.566 197 145 123
0.474062 -0.285729 -0.565 200 148 126
0.475138 -0.285729 -0.565 199 147 125
0.476214 -0.285729 -0.565 199 147 125
0.476446 -0.285223 -0.564 197 145 123
0.47752 -0.285223 -0.564 199 144 123
0.478594 -0.285223 -0.564 199 144 123
0.479669 -0.285223 -0.564 198 143 122
0.480743 -0.285223 -0.564 199 144 123
0.481817 -0.285223 -0.564 200 145 124
0.482891 -0.285223 -0.564 200 145 124
0.483966 -0.285223 -0.564 201 146 125
0.48504 -0.285223 -0.564 201 146 125
0.486114 -0.285223 -0.564 200 144 121
0.486325 -0.284717 -0.563 199 145 121
0.487397 -0.284717 -0.563 195 141 117
0.48847 -0.284717 -0.563 197 143 119
0.490411 -0.285223 -0.564 193 141 119
0.491486 -0.285223 -0.564 195 143 121
0.49256 -0.285223 -0.564 187 137 114
0.49451 -0.285729 -0.565 184 134 111
0.495586 -0.285729 -0.565 184 134 111
0.496662 -0.285729 -0.565 183 135 113
0.498619 -0.286234 -0.566 184 136 114
0.50058 -0.28674 -0.567 181 133 113
0.50343 -0.287751 -0.569 179 131 111
0.506287 -0.288763 -0.571 173 126 106
0.509151 -0.289774 -0.573 167 120 100
0.512914 -0.291291 -0.576 167 120 102
0.517581 -0.293314 -0.58 167 120 102
0.522263 -0.295337 -0.584 161 122 105
