ply
format ascii 1.0
comment Created by Open3D
element vertex 1297
property double x
property double y
property double z
property uchar red
property uchar green
property uchar blue
end_header
0.50232 -0.360027 -0.644 50 92 166
0.503547 -0.360027 -0.644 43 85 159
0.504773 -0.360027 -0.644 67 101 165
0.506 -0.360027 -0.644 117 151 215
0.506439 -0.359468 -0.643 155 174 207
0.507664 -0.359468 -0.643 170 189 222
0.508889 -0.359468 -0.643 144 150 164
0.510113 -0.359468 -0.643 166 172 186
0.508487 -0.348287 -0.623 178 149 143
0.505583 -0.345491 -0.618 175 150 143
0.50266 -0.342696 -0.613 176 151 144
0.499718 -0.339901 -0.608 177 150 143
0.495933 -0.336547 -0.602 175 148 141
0.493777 -0.33431 -0.598 176 146 138
0.494916 -0.33431 -0.598 176 146 138
0.491908 -0.331515 -0.593 178 148 140
0.489711 -0.329279 -0.589 182 150 139
0.486667 -0.326484 -0.584 184 152 141
0.485273 -0.324807 -0.581 185 153 142
0.483869 -0.32313 -0.578 187 155 144
0.482452 -0.321452 -0.575 190 156 146
0.481866 -0.320334 -0.573 190 156 146
0.480429 -0.318657 -0.57 193 157 145
0.479825 -0.317539 -0.568 194 158 146
0.479213 -0.316421 -0.566 194 158 144
0.478594 -0.315303 -0.564 196 160 146
0.478818 -0.314744 -0.563 194 158 144
0.478186 -0.313626 -0.561 197 161 147
0.4784 -0.313067 -0.56 198 160 147
0.47861 -0.312508 -0.559 195 157 144
0.478817 -0.311949 -0.558 201 162 147
0.47816 -0.31083 -0.556 205 166 151
0.479219 -0.31083 -0.556 197 158 143
0.479414 -0.310271 -0.555 201 162 147
0.479606 -0.309712 -0.554 202 160 144
0.479793 -0.309153 -0.553 200 158 142
0.479977 -0.308594 -0.552 203 161 145
0.481029 -0.308594 -0.552 203 161 145
0.481207 -0.308035 -0.551 199 160 143
0.482256 -0.308035 -0.551 203 164 147
0.482429 -0.307476 -0.55 205 164 146
0.483476 -0.307476 -0.55 200 159 141
0.484524 -0.307476 -0.55 200 157 138
0.485571 -0.307476 -0.55 199 156 137
0.486619 -0.307476 -0.55 198 155 136
0.487667 -0.307476 -0.55 202 159 140
0.488714 -0.307476 -0.55 201 160 140
0.488871 -0.306917 -0.549 197 156 136
0.489917 -0.306917 -0.549 200 159 139
0.490963 -0.306917 -0.549 200 159 139
0.492009 -0.306917 -0.549 194 153 133
0.493054 -0.306917 -0.549 199 154 135
0.4941 -0.306917 -0.549 197 152 133
0.495146 -0.306917 -0.549 192 144 122
0.497095 -0.307476 -0.55 191 143 121
0.498143 -0.307476 -0.55 191 144 118
0.49919 -0.307476 -0.55 190 143 117
0.500238 -0.307476 -0.55 189 144 115
0.501286 -0.307476 -0.55 182 137 108
0.503247 -0.308035 -0.551 178 137 109
0.505211 -0.308594 -0.552 179 138 110
0.508097 -0.309712 -0.554 173 133 107
0.510071 -0.310271 -0.555 172 132 106
0.51297 -0.31139 -0.557 171 134 107
0.515877 -0.312508 -0.559 168 131 104
0.518791 -0.313626 -0.561 166 124 99
0.52264 -0.315303 -0.564 159 117 92
1.15576 -0.363381 -0.65 203 205 191
1.157 -0.363381 -0.65 201 203 189
1.15646 -0.362822 -0.649 201 203 189
1.15591 -0.362263 -0.648 201 203 190
1.15536 -0.361704 -0.647 202 204 191
1.1548 -0.361145 -0.646 199 201 188
1.15424 -0.360586 -0.645 205 207 194
0.106595 -0.339376 -0.605 195 150 145
0.107035 -0.337132 -0.601 193 145 141
0.10746 -0.334889 -0.597 194 146 142
0.107324 -0.330962 -0.59 194 146 142
0.107161 -0.327035 -0.583 194 146 142
0.107714 -0.325352 -0.58 193 145 141
0.108256 -0.32367 -0.577 193 145 141
0.108787 -0.321987 -0.574 194 145 140
0.109497 -0.320865 -0.572 191 142 137
0.1102 -0.319743 -0.57 189 138 134
0.110895 -0.318621 -0.568 190 139 135
0.11178 -0.31806 -0.567 191 142 137
0.112462 -0.316938 -0.565 191 142 137
0.113337 -0.316377 -0.564 195 144 140
0.114209 -0.315816 -0.563 189 138 134
0.115076 -0.315255 -0.562 191 138 132
0.11594 -0.314694 -0.561 191 138 132
0.117009 -0.314694 -0.561 191 138 132
0.118077 -0.314694 -0.561 188 135 129
0.118933 -0.314133 -0.56 189 136 130
0.119786 -0.313572 -0.559 187 134 128
0.12085 -0.313572 -0.559 187 134 126
0.121697 -0.313011 -0.558 188 135 129
0.12276 -0.313011 -0.558 195 140 133
0.123823 -0.313011 -0.558 182 127 120
0.124886 -0.313011 -0.558 187 132 125
0.125949 -0.313011 -0.558 188 133 126
0.126784 -0.31245 -0.557 185 131 121
0.127845 -0.31245 -0.557 187 133 123
0.128674 -0.31189 -0.556 187 133 121
0.1295 -0.311329 -0.555 188 134 122
0.130557 -0.311329 -0.555 189 132 123
0.131614 -0.311329 -0.555 186 129 120
0.132671 -0.311329 -0.555 186 129 118
0.133729 -0.311329 -0.555 184 127 116
0.134543 -0.310768 -0.554 180 127 113
0.135598 -0.310768 -0.554 179 126 112
0.136653 -0.310768 -0.554 179 126 110
0.137709 -0.310768 -0.554 177 124 108
0.138764 -0.310768 -0.554 175 122 108
0.139819 -0.310768 -0.554 172 119 105
0.141129 -0.311329 -0.555 173 120 104
0.142186 -0.311329 -0.555 173 120 104
0.143243 -0.311329 -0.555 175 122 106
0.1443 -0.311329 -0.555 176 123 105
0.145619 -0.31189 -0.556 169 116 98
0.146678 -0.31189 -0.556 166 112 100
0.147737 -0.31189 -0.556 168 114 102
0.149064 -0.31245 -0.557 166 112 100
0.150125 -0.31245 -0.557 160 106 94
0.151186 -0.31245 -0.557 155 101 89
0.15252 -0.313011 -0.558 151 97 85
0.153583 -0.313011 -0.558 150 96 86
0.154923 -0.313572 -0.559 151 97 87
0.155988 -0.313572 -0.559 149 95 85
0.157052 -0.313572 -0.559 146 92 82
0.1584 -0.314133 -0.56 150 96 86
0.159467 -0.314133 -0.56 147 93 83
0.16082 -0.314694 -0.561 146 92 82
0.161889 -0.314694 -0.561 143 89 79
0.163248 -0.315255 -0.562 143 88 81
0.16461 -0.315816 -0.563 141 86 79
0.165683 -0.315816 -0.563 142 88 78
0.166755 -0.315816 -0.563 139 85 75
0.168126 -0.316377 -0.564 136 84 73
0.1695 -0.316938 -0.565 138 86 75
0.170576 -0.316938 -0.565 136 83 75
0.171956 -0.317499 -0.566 141 88 80
0.173034 -0.317499 -0.566 138 86 75
0.174112 -0.317499 -0.566 137 85 74
0.1755 -0.31806 -0.567 135 82 74
0.17658 -0.31806 -0.567 135 82 74
0.177973 -0.318621 -0.568 134 81 75
0.179055 -0.318621 -0.568 133 80 74
0.180137 -0.318621 -0.568 133 80 74
0.181538 -0.319182 -0.569 131 78 72
0.182943 -0.319743 -0.57 126 73 67
0.184351 -0.320304 -0.571 123 70 64
0.185439 -0.320304 -0.571 126 76 67
0.186853 -0.320865 -0.572 125 75 66
0.187943 -0.320865 -0.572 122 69 61
0.189363 -0.321426 -0.573 122 69 61
0.190454 -0.321426 -0.573 127 69 65
0.19188 -0.321987 -0.574 130 72 68
0.192973 -0.321987 -0.574 139 80 76
0.194067 -0.321987 -0.574 139 80 76
0.1955 -0.322548 -0.575 142 83 79
0.196595 -0.322548 -0.575 147 88 84
0.19769 -0.322548 -0.575 152 93 89
0.199131 -0.323109 -0.576 155 94 93
0.200229 -0.323109 -0.576 156 95 94
0.201326 -0.323109 -0.576 158 94 94
0.202774 -0.32367 -0.577 160 96 96
0.203873 -0.32367 -0.577 161 95 96
0.205328 -0.32423 -0.578 157 91 92
0.206786 -0.324791 -0.579 149 90 92
0.208248 -0.325352 -0.58 148 89 91
0.210074 -0.326474 -0.582 145 87 85
0.211546 -0.327035 -0.583 139 81 79
0.213021 -0.327596 -0.584 127 79 77
0.214867 -0.328718 -0.586 127 79 77
0.21672 -0.32984 -0.588 121 80 84
0.218581 -0.330962 -0.59 120 79 83
0.220822 -0.332645 -0.593 119 74 77
0.2227 -0.333767 -0.595 119 74 77
0.224586 -0.334889 -0.597 125 75 76
0.227235 -0.337132 -0.601 122 72 73
0.22952 -0.338815 -0.604 107 77 87
0.231816 -0.340498 -0.607 115 85 95
0.234508 -0.342742 -0.611 90 86 111
0.416219 -0.357888 -0.638 254 253 255
0.417434 -0.357888 -0.638 229 228 233
0.41865 -0.357888 -0.638 224 226 249
0.43878 -0.358449 -0.639 159 182 236
0.439997 -0.358449 -0.639 172 190 228
0.441214 -0.358449 -0.639 191 209 247
0.442431 -0.358449 -0.639 229 236 252
0.443649 -0.358449 -0.639 247 254 255
0.444866 -0.358449 -0.639 249 250 254
0.449219 -0.35901 -0.64 255 254 255
0.450438 -0.35901 -0.64 252 255 255
0.451657 -0.35901 -0.64 252 255 255
0.452876 -0.35901 -0.64 248 252 253
0.454095 -0.35901 -0.64 224 228 229
0.455314 -0.35901 -0.64 170 188 226
0.456533 -0.35901 -0.64 168 186 224
0.457752 -0.35901 -0.64 168 186 224
0.458971 -0.35901 -0.64 173 194 239
0.46019 -0.35901 -0.64 165 186 231
0.46141 -0.35901 -0.64 152 181 237
0.463351 -0.35957 -0.641 152 181 237
0.464572 -0.35957 -0.641 130 170 222
0.465793 -0.35957 -0.641 124 164 216
0.467014 -0.35957 -0.641 137 166 222
0.468235 -0.35957 -0.641 148 177 233
0.469456 -0.35957 -0.641 154 190 240
0.470677 -0.35957 -0.641 145 181 231
0.471898 -0.35957 -0.641 133 166 209
0.473119 -0.35957 -0.641 144 177 220
0.47434 -0.35957 -0.641 208 216 235
0.475561 -0.35957 -0.641 227 235 254
0.476782 -0.35957 -0.641 229 232 241
0.478749 -0.360131 -0.642 231 234 243
0.479971 -0.360131 -0.642 229 229 239
0.481194 -0.360131 -0.642 219 219 229
0.482417 -0.360131 -0.642 215 217 229
0.48364 -0.360131 -0.642 220 222 234
0.484863 -0.360131 -0.642 223 226 245
0.486086 -0.360131 -0.642 199 202 221
0.488068 -0.360692 -0.643 178 186 222
0.489292 -0.360692 -0.643 152 160 196
0.490517 -0.360692 -0.643 98 131 198
0.491742 -0.360692 -0.643 70 103 170
0.492967 -0.360692 -0.643 64 102 177
0.494191 -0.360692 -0.643 64 102 177
0.495416 -0.360692 -0.643 51 89 164
0.496641 -0.360692 -0.643 53 88 170
0.497866 -0.360692 -0.643 91 126 208
0.49909 -0.360692 -0.643 92 130 203
0.500315 -0.360692 -0.643 54 92 165
0.50154 -0.360692 -0.643 45 89 154
0.502765 -0.360692 -0.643 52 96 161
0.50399 -0.360692 -0.643 49 87 149
0.505214 -0.360692 -0.643 80 118 180
0.506439 -0.360692 -0.643 125 146 189
0.506874 -0.360131 -0.642 151 172 215
0.508097 -0.360131 -0.642 172 180 199
0.50932 -0.360131 -0.642 142 150 169
0.510543 -0.360131 -0.642 154 160 176
0.511766 -0.360131 -0.642 189 195 211
0.507219 -0.34779 -0.62 175 150 145
0.50348 -0.344425 -0.614 175 150 145
0.50054 -0.34162 -0.609 177 148 144
0.497581 -0.338815 -0.604 177 148 144
0.494603 -0.33601 -0.599 180 146 144
0.495744 -0.33601 -0.599 180 146 144
0.492737 -0.333206 -0.594 180 146 144
0.490543 -0.330962 -0.59 181 148 141
0.488333 -0.328718 -0.586 182 149 142
0.486109 -0.326474 -0.582 185 151 142
0.483869 -0.32423 -0.578 188 154 145
0.483291 -0.323109 -0.576 190 156 147
0.481866 -0.321426 -0.573 190 156 147
0.480429 -0.319743 -0.57 194 157 148
0.479825 -0.318621 -0.568 193 156 147
0.479213 -0.317499 -0.566 194 156 143
0.478594 -0.316377 -0.564 197 159 146
0.478818 -0.315816 -0.563 196 158 145
0.478186 -0.314694 -0.561 196 158 145
0.4784 -0.314133 -0.56 198 159 144
0.47861 -0.313572 -0.559 198 159 144
0.478817 -0.313011 -0.558 201 162 145
0.47816 -0.31189 -0.556 203 164 147
0.478357 -0.311329 -0.555 199 161 148
0.47855 -0.310768 -0.554 201 163 150
0.479606 -0.310768 -0.554 196 159 143
0.479793 -0.310207 -0.553 193 156 140
0.479977 -0.309646 -0.552 200 161 146
0.480157 -0.309085 -0.551 200 161 146
0.481207 -0.309085 -0.551 198 159 142
0.482256 -0.309085 -0.551 202 163 146
0.482429 -0.308524 -0.55 201 163 144
0.483476 -0.308524 -0.55 200 162 143
0.484524 -0.308524 -0.55 196 158 137
0.485571 -0.308524 -0.55 196 158 137
0.486619 -0.308524 -0.55 201 160 138
0.487667 -0.308524 -0.55 198 157 135
0.487826 -0.307963 -0.549 195 154 132
0.488871 -0.307963 -0.549 198 157 135
0.489917 -0.307963 -0.549 197 161 139
0.490963 -0.307963 -0.549 195 159 137
0.492009 -0.307963 -0.549 195 159 137
0.493054 -0.307963 -0.549 197 159 138
0.4941 -0.307963 -0.549 196 158 137
0.495146 -0.307963 -0.549 192 151 129
0.496191 -0.307963 -0.549 186 145 123
0.497237 -0.307963 -0.549 186 146 120
0.498283 -0.307963 -0.549 187 147 121
0.499329 -0.307963 -0.549 186 146 120
0.500374 -0.307963 -0.549 186 146 120
0.502333 -0.308524 -0.55 183 143 117
0.504296 -0.309085 -0.551 182 142 116
0.506263 -0.309646 -0.552 171 130 102
0.509152 -0.310768 -0.554 176 135 107
0.511129 -0.311329 -0.555 173 130 98
0.514031 -0.31245 -0.557 174 131 99
0.516942 -0.313572 -0.559 170 124 108
0.51986 -0.314694 -0.561 168 122 106
1.15522 -0.364058 -0.649 202 204 190
1.15646 -0.364058 -0.649 201 203 189
1.15591 -0.363497 -0.648 201 203 189
1.15536 -0.362936 -0.647 201 203 189
1.1548 -0.362375 -0.646 200 202 189
1.15424 -0.361814 -0.645 206 208 195
0.105617 -0.341091 -0.606 194 146 144
0.106243 -0.339403 -0.603 198 150 148
0.106679 -0.337151 -0.599 193 145 143
0.1071 -0.3349 -0.595 194 146 144
0.10696 -0.33096 -0.588 194 146 142
0.106977 -0.327583 -0.582 194 146 142
0.107529 -0.325894 -0.579 196 147 143
0.108069 -0.324206 -0.576 195 146 142
0.108597 -0.322517 -0.573 197 146 142
0.109306 -0.321391 -0.571 191 140 136
0.110007 -0.320266 -0.569 188 137 133
0.110895 -0.319703 -0.568 191 140 136
0.111583 -0.318577 -0.566 192 141 137
0.112462 -0.318014 -0.565 191 140 136
0.113337 -0.317451 -0.564 194 144 137
0.114209 -0.316889 -0.563 187 137 130
0.115076 -0.316326 -0.562 189 136 130
0.11594 -0.315763 -0.561 188 135 129
0.117009 -0.315763 -0.561 187 134 128
0.117867 -0.3152 -0.56 187 134 128
0.118933 -0.3152 -0.56 190 137 129
0.119786 -0.314637 -0.559 187 134 126
0.12085 -0.314637 -0.559 187 134 126
0.121697 -0.314074 -0.558 188 135 127
0.12276 -0.314074 -0.558 195 140 133
0.123601 -0.313511 -0.557 183 128 121
0.124662 -0.313511 -0.557 187 133 123
0.125723 -0.313511 -0.557 186 132 122
0.126784 -0.313511 -0.557 183 129 119
0.127615 -0.312949 -0.556 186 132 122
0.128674 -0.312949 -0.556 185 131 119
0.1295 -0.312386 -0.555 184 130 118
0.130557 -0.312386 -0.555 185 131 119
0.131614 -0.312386 -0.555 184 130 118
0.132671 -0.312386 -0.555 183 129 117
0.133729 -0.312386 -0.555 181 127 115
0.134543 -0.311823 -0.554 179 126 112
0.135598 -0.311823 -0.554 178 125 111
0.136653 -0.311823 -0.554 179 126 110
0.137709 -0.311823 -0.554 175 122 106
0.138764 -0.311823 -0.554 170 117 101
0.139819 -0.311823 -0.554 172 119 103
0.141129 -0.312386 -0.555 174 121 105
0.142186 -0.312386 -0.555 174 121 105
0.143243 -0.312386 -0.555 175 122 106
0.1443 -0.312386 -0.555 170 119 100
0.145619 -0.312949 -0.556 164 113 94
0.146678 -0.312949 -0.556 164 110 98
0.148003 -0.313511 -0.557 164 110 98
0.149064 -0.313511 -0.557 161 107 95
0.150125 -0.313511 -0.557 156 102 90
0.151457 -0.314074 -0.558 152 98 86
0.15252 -0.314074 -0.558 150 96 84
0.153583 -0.314074 -0.558 150 96 86
0.154923 -0.314637 -0.559 151 97 87
0.156267 -0.3152 -0.56 148 96 85
0.157333 -0.3152 -0.56 145 93 82
0.1584 -0.3152 -0.56 147 95 84
0.159751 -0.315763 -0.561 144 92 81
0.16082 -0.315763 -0.561 145 93 82
0.162177 -0.316326 -0.562 143 91 80
0.163538 -0.316889 -0.563 142 89 81
0.16461 -0.316889 -0.563 141 88 80
0.165977 -0.317451 -0.564 144 92 81
0.167051 -0.317451 -0.564 141 89 78
0.168126 -0.317451 -0.564 139 87 76
0.1695 -0.318014 -0.565 139 87 76
0.170878 -0.318577 -0.566 136 83 75
0.171956 -0.318577 -0.566 140 87 79
0.173034 -0.318577 -0.566 137 85 74
0.174112 -0.318577 -0.566 137 85 74
0.1755 -0.31914 -0.567 134 81 73
0.17658 -0.31914 -0.567 134 81 73
0.177973 -0.319703 -0.568 134 81 75
0.179055 -0.319703 -0.568 133 80 74
0.180454 -0.320266 -0.569 132 79 73
0.181538 -0.320266 -0.569 131 78 72
0.182943 -0.320829 -0.57 130 77 69
0.184029 -0.320829 -0.57 129 76 68
0.185439 -0.321391 -0.571 129 76 68
0.186853 -0.321954 -0.572 128 75 67
0.187943 -0.321954 -0.572 126 73 65
0.189363 -0.322517 -0.573 125 72 64
0.190454 -0.322517 -0.573 127 72 65
0.19188 -0.32308 -0.574 131 76 69
0.192973 -0.32308 -0.574 139 81 77
0.194067 -0.32308 -0.574 139 81 77
0.1955 -0.323643 -0.575 143 85 81
0.196595 -0.323643 -0.575 145 87 83
0.198034 -0.324206 -0.576 149 91 87
0.199131 -0.324206 -0.576 152 92 91
0.200229 -0.324206 -0.576 153 93 92
0.201675 -0.324769 -0.577 154 93 92
0.202774 -0.324769 -0.577 153 92 91
0.204227 -0.325331 -0.578 153 92 91
0.205683 -0.325894 -0.579 148 87 86
0.207143 -0.326457 -0.58 140 86 86
0.208607 -0.32702 -0.581 139 85 85
0.210435 -0.328146 -0.583 133 82 78
0.211909 -0.328709 -0.584 129 78 74
0.213386 -0.329271 -0.585 123 79 76
0.215233 -0.330397 -0.587 124 80 77
0.217089 -0.331523 -0.589 118 82 84
0.218951 -0.332649 -0.591 118 82 84
0.221194 -0.334337 -0.594 119 77 79
0.223074 -0.335463 -0.596 116 74 76
0.225338 -0.337151 -0.599 116 70 70
0.227613 -0.33884 -0.602 123 77 77
0.23028 -0.341091 -0.606 111 84 93
0.23258 -0.34278 -0.609 111 84 93
0.422295 -0.359103 -0.638 148 163 204
0.42351 -0.359103 -0.638 148 163 204
0.424726 -0.359103 -0.638 142 165 215
0.425941 -0.359103 -0.638 143 166 216
0.427156 -0.359103 -0.638 143 169 218
0.428371 -0.359103 -0.638 158 184 233
0.429587 -0.359103 -0.638 158 185 230
0.430802 -0.359103 -0.638 173 200 245
0.432017 -0.359103 -0.638 162 188 239
0.433232 -0.359103 -0.638 154 180 231
0.434448 -0.359103 -0.638 149 175 224
0.435663 -0.359103 -0.638 138 164 213
0.448517 -0.359666 -0.639 240 243 248
0.449734 -0.359666 -0.639 253 251 254
0.450951 -0.359666 -0.639 255 254 255
0.452169 -0.359666 -0.639 251 255 255
0.453386 -0.359666 -0.639 240 245 251
0.454603 -0.359666 -0.639 192 203 233
0.45582 -0.359666 -0.639 171 182 212
0.457037 -0.359666 -0.639 171 182 212
0.458971 -0.360229 -0.64 157 179 229
0.46019 -0.360229 -0.64 161 183 233
0.46141 -0.360229 -0.64 165 193 243
0.462629 -0.360229 -0.64 168 196 246
0.463848 -0.360229 -0.64 153 184 228
0.465067 -0.360229 -0.64 157 188 232
0.466286 -0.360229 -0.64 150 178 226
0.467505 -0.360229 -0.64 143 171 219
0.468724 -0.360229 -0.64 148 176 224
0.469943 -0.360229 -0.64 143 171 219
0.471898 -0.360791 -0.641 143 166 210
0.473119 -0.360791 -0.641 169 192 236
0.47434 -0.360791 -0.641 216 227 249
0.475561 -0.360791 -0.641 226 237 255
0.476782 -0.360791 -0.641 234 232 245
0.478003 -0.360791 -0.641 228 226 239
0.479224 -0.360791 -0.641 205 202 213
0.480445 -0.360791 -0.641 213 210 221
0.481666 -0.360791 -0.641 227 227 235
0.482887 -0.360791 -0.641 227 227 235
0.484863 -0.361354 -0.642 215 221 243
0.486086 -0.361354 -0.642 177 183 205
0.487309 -0.361354 -0.642 124 142 190
0.488531 -0.361354 -0.642 102 120 168
0.489754 -0.361354 -0.642 77 111 172
0.490977 -0.361354 -0.642 80 114 175
0.4922 -0.361354 -0.642 68 108 167
0.493423 -0.361354 -0.642 68 108 167
0.494646 -0.361354 -0.642 69 109 168
0.495869 -0.361354 -0.642 57 105 169
0.497091 -0.361354 -0.642 95 143 207
0.498314 -0.361354 -0.642 111 153 229
0.499537 -0.361354 -0.642 69 111 187
0.50076 -0.361354 -0.642 68 100 173
0.501983 -0.361354 -0.642 64 96 169
0.503206 -0.361354 -0.642 69 101 162
0.504429 -0.361354 -0.642 71 103 164
0.505651 -0.361354 -0.642 72 107 165
0.506874 -0.361354 -0.642 79 114 172
0.508097 -0.361354 -0.642 111 133 174
0.50932 -0.361354 -0.642 169 191 232
0.510543 -0.361354 -0.642 169 174 178
0.510969 -0.360791 -0.641 179 184 188
0.51219 -0.360791 -0.641 195 192 199
0.508037 -0.349534 -0.621 177 149 145
0.50512 -0.34672 -0.616 176 148 144
0.502184 -0.343906 -0.611 176 147 143
0.499229 -0.341091 -0.606 176 147 143
0.496254 -0.338277 -0.601 181 147 145
0.497399 -0.338277 -0.601 181 147 145
0.494396 -0.335463 -0.596 182 148 146
0.491374 -0.332649 -0.591 182 149 142
0.489167 -0.330397 -0.587 183 150 143
0.486944 -0.328146 -0.583 184 151 144
0.484706 -0.325894 -0.579 186 153 146
0.483291 -0.324206 -0.576 188 154 145
0.481866 -0.322517 -0.573 188 154 145
0.481271 -0.321391 -0.571 190 156 146
0.48067 -0.320266 -0.569 189 155 145
0.48006 -0.31914 -0.567 193 157 145
0.479443 -0.318014 -0.565 196 160 148
0.478818 -0.316889 -0.563 198 160 147
0.478186 -0.315763 -0.561 198 160 147
0.4784 -0.3152 -0.56 198 159 144
0.47861 -0.314637 -0.559 198 159 144
0.477959 -0.313511 -0.557 200 161 146
0.47816 -0.312949 -0.556 201 162 147
0.478357 -0.312386 -0.555 198 159 144
0.47855 -0.311823 -0.554 201 162 147
0.47874 -0.31126 -0.553 197 158 141
0.479793 -0.31126 -0.553 194 155 138
0.479977 -0.310697 -0.552 199 160 143
0.480157 -0.310134 -0.551 199 160 143
0.481207 -0.310134 -0.551 198 159 142
0.481381 -0.309571 -0.55 202 163 146
0.482429 -0.309571 -0.55 201 163 144
0.483476 -0.309571 -0.55 199 161 142
0.483643 -0.309009 -0.549 199 158 138
0.484689 -0.309009 -0.549 198 157 137
0.485734 -0.309009 -0.549 198 157 135
0.48678 -0.309009 -0.549 194 153 131
0.487826 -0.309009 -0.549 193 152 130
0.487981 -0.308446 -0.548 195 154 132
0.489025 -0.308446 -0.548 197 159 140
0.490069 -0.308446 -0.548 196 158 139
0.491112 -0.308446 -0.548 196 158 139
0.492156 -0.308446 -0.548 199 158 140
0.4932 -0.308446 -0.548 199 158 140
0.494244 -0.308446 -0.548 194 153 133
0.495288 -0.308446 -0.548 190 149 129
0.496331 -0.308446 -0.548 189 147 123
0.497375 -0.308446 -0.548 189 147 123
0.498419 -0.308446 -0.548 186 144 120
0.500374 -0.309009 -0.549 190 148 124
0.50142 -0.309009 -0.549 187 145 121
0.502466 -0.309009 -0.549 183 141 117
0.505346 -0.310134 -0.551 175 131 106
0.507314 -0.310697 -0.552 179 135 110
0.509287 -0.31126 -0.553 173 129 102
0.512186 -0.312386 -0.555 170 126 99
0.515092 -0.313511 -0.557 166 123 104
0.51708 -0.314074 -0.558 170 127 108
1.15467 -0.364731 -0.648 203 205 191
1.15412 -0.364169 -0.647 202 204 190
1.15357 -0.363606 -0.646 203 205 191
1.15301 -0.363043 -0.645 201 203 189
1.15424 -0.363043 -0.645 203 205 191
0.105443 -0.341681 -0.605 192 147 144
0.106067 -0.339987 -0.602 195 150 147
0.106501 -0.337728 -0.598 194 146 144
0.10674 -0.334904 -0.593 195 147 145
0.106596 -0.33095 -0.586 194 146 142
0.10661 -0.327562 -0.58 194 146 142
0.107157 -0.325868 -0.577 196 148 144
0.107693 -0.324173 -0.574 194 146 142
0.108408 -0.323044 -0.572 196 147 142
0.109114 -0.321914 -0.57 190 141 136
0.109813 -0.320785 -0.568 188 137 133
0.1107 -0.32022 -0.567 192 141 137
0.111583 -0.319655 -0.566 190 140 133
0.112263 -0.318526 -0.564 190 140 133
0.113136 -0.317961 -0.563 188 138 131
0.114006 -0.317396 -0.562 185 135 128
0.114871 -0.316831 -0.561 187 134 128
0.11594 -0.316831 -0.561 186 133 127
0.1168 -0.316267 -0.56 185 132 124
0.117867 -0.316267 -0.56 186 133 125
0.118933 -0.316267 -0.56 190 137 129
0.119786 -0.315702 -0.559 187 134 126
0.12085 -0.315702 -0.559 187 134 126
0.121697 -0.315137 -0.558 186 133 125
0.12276 -0.315137 -0.558 193 138 131
0.123601 -0.314572 -0.557 181 126 119
0.124662 -0.314572 -0.557 184 130 120
0.125723 -0.314572 -0.557 182 128 118
0.126784 -0.314572 -0.557 177 123 113
0.127845 -0.314572 -0.557 182 128 118
0.128674 -0.314008 -0.556 185 133 120
0.1295 -0.313443 -0.555 181 129 116
0.130557 -0.313443 -0.555 184 130 118
0.131614 -0.313443 -0.555 185 131 119
0.132671 -0.313443 -0.555 181 127 115
0.133729 -0.313443 -0.555 178 124 112
0.134786 -0.313443 -0.555 177 125 111
0.135843 -0.313443 -0.555 176 124 110
0.1369 -0.313443 -0.555 173 120 104
0.137957 -0.313443 -0.555 169 116 100
0.139014 -0.313443 -0.555 164 111 95
0.140071 -0.313443 -0.555 172 119 103
0.141129 -0.313443 -0.555 172 119 103
0.142186 -0.313443 -0.555 174 121 105
0.143243 -0.313443 -0.555 173 120 104
0.14456 -0.314008 -0.556 167 114 96
0.145619 -0.314008 -0.556 165 112 94
0.146942 -0.314572 -0.557 162 108 96
0.148003 -0.314572 -0.557 163 109 97
0.149064 -0.314572 -0.557 160 106 94
0.150394 -0.315137 -0.558 156 102 90
0.151457 -0.315137 -0.558 151 97 85
0.15252 -0.315137 -0.558 149 95 83
0.153858 -0.315702 -0.559 148 96 85
0.154923 -0.315702 -0.559 149 97 86
0.156267 -0.316267 -0.56 147 95 84
0.157614 -0.316831 -0.561 145 93 82
0.158683 -0.316831 -0.561 145 93 82
0.159751 -0.316831 -0.561 142 90 79
0.161107 -0.317396 -0.562 141 91 80
0.162466 -0.317961 -0.563 140 90 79
0.163538 -0.317961 -0.563 140 90 81
0.164903 -0.318526 -0.564 140 90 81
0.165977 -0.318526 -0.564 141 91 80
0.167348 -0.31909 -0.565 140 90 79
0.168424 -0.31909 -0.565 137 87 76
0.1695 -0.31909 -0.565 137 87 76
0.170878 -0.319655 -0.566 135 85 74
0.171956 -0.319655 -0.566 136 86 75
0.173034 -0.319655 -0.566 132 82 71
0.174112 -0.319655 -0.566 133 83 72
0.1755 -0.32022 -0.567 133 83 72
0.17658 -0.32022 -0.567 132 82 71
0.177973 -0.320785 -0.568 133 83 74
0.179055 -0.320785 -0.568 132 82 73
0.180454 -0.32135 -0.569 132 79 71
0.181538 -0.32135 -0.569 132 79 71
0.182943 -0.321914 -0.57 132 79 71
0.184029 -0.321914 -0.57 132 79 71
0.185439 -0.322479 -0.571 132 78 68
0.186853 -0.323044 -0.572 131 77 67
0.187943 -0.323044 -0.572 131 79 68
0.189363 -0.323609 -0.573 131 79 68
0.190454 -0.323609 -0.573 130 77 69
0.19188 -0.324173 -0.574 132 79 71
0.192973 -0.324173 -0.574 132 79 71
0.194405 -0.324738 -0.575 135 80 73
0.1955 -0.324738 -0.575 139 84 77
0.196937 -0.325303 -0.576 145 90 85
0.198034 -0.325303 -0.576 146 91 86
0.199131 -0.325303 -0.576 150 92 90
0.200576 -0.325868 -0.577 151 93 91
0.201675 -0.325868 -0.577 149 91 89
0.203126 -0.326432 -0.578 146 88 86
0.20458 -0.326997 -0.579 142 87 84
0.206038 -0.327562 -0.58 136 81 78
0.2075 -0.328127 -0.581 128 80 78
0.208966 -0.328691 -0.582 127 79 77
0.210796 -0.329821 -0.584 123 78 73
0.212271 -0.330386 -0.585 122 77 72
0.214115 -0.331515 -0.587 119 79 77
0.2156 -0.33208 -0.588 120 80 78
0.217457 -0.33321 -0.59 116 82 83
0.219322 -0.334339 -0.592 116 82 83
0.221567 -0.336033 -0.595 114 75 76
0.223823 -0.337728 -0.598 115 76 77
0.22609 -0.339422 -0.601 116 76 74
0.22837 -0.341116 -0.604 115 75 73
0.23066 -0.34281 -0.607 110 84 93
0.233344 -0.34507 -0.611 114 88 97
0.417993 -0.359753 -0.637 212 219 238
0.419207 -0.359753 -0.637 181 188 207
0.42042 -0.359753 -0.637 152 167 208
0.421633 -0.359753 -0.637 145 160 201
0.422847 -0.359753 -0.637 145 160 201
0.42406 -0.359753 -0.637 152 174 223
0.425273 -0.359753 -0.637 168 190 239
0.426487 -0.359753 -0.637 189 213 255
0.4277 -0.359753 -0.637 202 226 255
0.4466 -0.360318 -0.638 251 251 253
0.447815 -0.360318 -0.638 243 243 245
0.44903 -0.360318 -0.638 225 223 226
0.450246 -0.360318 -0.638 241 239 242
0.451461 -0.360318 -0.638 249 252 255
0.452676 -0.360318 -0.638 249 252 255
0.458254 -0.360883 -0.639 161 179 227
0.459471 -0.360883 -0.639 178 196 244
0.460689 -0.360883 -0.639 177 204 249
0.461906 -0.360883 -0.639 184 211 255
0.463123 -0.360883 -0.639 172 200 239
0.46434 -0.360883 -0.639 177 205 244
0.465557 -0.360883 -0.639 180 208 248
0.466774 -0.360883 -0.639 172 200 240
0.467991 -0.360883 -0.639 158 186 226
0.469943 -0.361448 -0.64 143 171 211
0.471162 -0.361448 -0.64 160 182 221
0.472381 -0.361448 -0.64 188 210 249
0.4736 -0.361448 -0.64 220 231 251
0.474819 -0.361448 -0.64 227 238 255
0.476038 -0.361448 -0.64 224 223 237
0.477257 -0.361448 -0.64 196 195 209
0.478476 -0.361448 -0.64 187 185 198
0.479695 -0.361448 -0.64 223 221 234
0.480914 -0.361448 -0.64 226 226 234
0.482887 -0.362012 -0.641 218 218 226
0.484108 -0.362012 -0.641 199 206 225
0.485329 -0.362012 -0.641 167 174 193
0.48655 -0.362012 -0.641 112 130 176
0.48777 -0.362012 -0.641 95 113 159
0.488991 -0.362012 -0.641 77 113 171
0.490212 -0.362012 -0.641 86 122 180
0.491433 -0.362012 -0.641 99 136 188
0.492654 -0.362012 -0.641 99 136 188
0.494646 -0.362577 -0.642 124 161 213
0.495869 -0.362577 -0.642 125 166 222
0.497091 -0.362577 -0.642 93 134 190
0.498314 -0.362577 -0.642 89 124 190
0.499537 -0.362577 -0.642 115 150 216
0.50076 -0.362577 -0.642 122 150 215
0.501983 -0.362577 -0.642 103 131 196
0.503206 -0.362577 -0.642 87 119 178
0.503643 -0.362012 -0.641 73 105 164
0.504864 -0.362012 -0.641 57 91 152
0.506085 -0.362012 -0.641 63 97 158
0.507306 -0.362012 -0.641 99 120 167
0.508527 -0.362012 -0.641 151 172 219
0.509748 -0.362012 -0.641 184 187 202
0.510969 -0.362012 -0.641 177 180 195
0.50676 -0.349023 -0.618 177 148 144
0.503006 -0.345634 -0.612 177 148 144
0.500052 -0.34281 -0.607 177 148 144
0.49708 -0.339987 -0.602 179 148 145
0.498227 -0.339987 -0.602 179 148 145
0.495226 -0.337163 -0.597 181 150 147
0.493037 -0.334904 -0.593 182 151 146
0.490833 -0.332645 -0.589 181 150 145
0.488614 -0.330386 -0.585 180 149 144
0.485543 -0.327562 -0.58 181 150 145
0.483291 -0.325303 -0.576 183 150 143
0.482707 -0.324173 -0.574 184 151 144
0.481271 -0.322479 -0.571 189 155 146
0.48067 -0.32135 -0.569 188 154 145
0.48006 -0.32022 -0.567 192 156 144
0.479443 -0.31909 -0.565 193 157 145
0.478818 -0.317961 -0.563 195 157 144
0.478186 -0.316831 -0.561 197 159 146
0.4784 -0.316267 -0.56 196 159 143
0.47861 -0.315702 -0.559 195 158 142
0.477959 -0.314572 -0.557 198 159 144
0.47816 -0.314008 -0.556 196 157 142
0.478357 -0.313443 -0.555 197 158 141
0.47855 -0.312878 -0.554 199 160 143
0.47874 -0.312313 -0.553 196 157 140
0.478926 -0.311749 -0.552 196 157 140
0.479977 -0.311749 -0.552 200 162 143
0.480157 -0.311184 -0.551 199 161 142
0.481207 -0.311184 -0.551 196 158 139
0.481381 -0.310619 -0.55 199 161 142
0.481551 -0.310054 -0.549 206 165 145
0.482597 -0.310054 -0.549 205 164 144
0.483643 -0.310054 -0.549 204 163 143
0.484689 -0.310054 -0.549 203 162 142
0.485734 -0.310054 -0.549 201 160 138
0.48678 -0.310054 -0.549 197 156 134
0.486937 -0.30949 -0.548 197 156 134
0.487981 -0.30949 -0.548 198 157 135
0.489025 -0.30949 -0.548 199 158 138
0.490069 -0.30949 -0.548 198 157 137
0.491112 -0.30949 -0.548 198 157 137
0.492156 -0.30949 -0.548 198 157 137
0.4932 -0.30949 -0.548 197 156 136
0.494244 -0.30949 -0.548 194 153 133
0.495288 -0.30949 -0.548 191 150 130
0.496331 -0.30949 -0.548 191 149 127
0.497375 -0.30949 -0.548 190 148 126
0.498419 -0.30949 -0.548 189 144 121
0.499463 -0.30949 -0.548 189 144 121
0.500507 -0.30949 -0.548 187 143 118
0.502466 -0.310054 -0.549 183 139 114
0.503511 -0.310054 -0.549 178 132 108
0.506395 -0.311184 -0.551 176 130 106
0.508366 -0.311749 -0.552 175 131 106
0.51034 -0.312313 -0.553 173 129 104
0.513243 -0.313443 -0.555 170 125 104
0.515227 -0.314008 -0.556 176 131 110
0.518143 -0.315137 -0.558 172 130 105
0.521997 -0.316831 -0.561 166 124 99
0.526795 -0.31909 -0.565 165 125 100
1.15289 -0.365401 -0.647 204 206 192
1.15412 -0.365401 -0.647 204 206 193
1.15357 -0.364836 -0.646 204 206 193
1.15301 -0.364271 -0.645 204 206 193
1.15245 -0.363707 -0.644 204 206 193
0.105269 -0.342267 -0.604 193 148 145
0.105714 -0.34 -0.6 195 150 147
0.105967 -0.337167 -0.595 192 147 142
0.10638 -0.3349 -0.591 195 150 145
0.106232 -0.330933 -0.584 197 149 145
0.106242 -0.327533 -0.578 196 148 144
0.106786 -0.325833 -0.575 194 147 141
0.107318 -0.324133 -0.572 194 147 141
0.108029 -0.323 -0.57 195 148 142
0.108731 -0.321867 -0.568 189 142 136
0.10962 -0.3213 -0.567 190 141 134
0.110505 -0.320733 -0.566 192 143 136
0.111386 -0.320167 -0.565 187 138 131
0.112263 -0.3196 -0.564 186 137 130
0.113136 -0.319033 -0.563 187 134 128
0.114006 -0.318467 -0.562 187 134 128
0.114871 -0.3179 -0.561 188 135 129
0.115733 -0.317333 -0.56 188 135 129
0.1168 -0.317333 -0.56 185 132 124
0.117867 -0.317333 -0.56 186 133 125
0.118721 -0.316767 -0.559 189 136 128
0.119786 -0.316767 -0.559 188 135 127
0.120634 -0.3162 -0.558 189 136 128
0.121697 -0.3162 -0.558 186 133 125
0.12254 -0.315633 -0.557 190 135 128
0.123601 -0.315633 -0.557 180 125 118
0.124662 -0.315633 -0.557 182 127 120
0.125723 -0.315633 -0.557 181 126 119
0.126784 -0.315633 -0.557 175 120 113
0.127845 -0.315633 -0.557 179 124 117
0.128674 -0.315067 -0.556 183 131 120
0.129733 -0.315067 -0.556 181 129 118
0.130557 -0.3145 -0.555 184 130 120
0.131614 -0.3145 -0.555 185 131 121
0.132671 -0.3145 -0.555 178 124 112
0.133729 -0.3145 -0.555 172 118 106
0.134786 -0.3145 -0.555 172 118 106
0.135843 -0.3145 -0.555 172 118 106
0.1369 -0.3145 -0.555 170 117 103
0.137957 -0.3145 -0.555 169 116 102
0.139014 -0.3145 -0.555 164 111 97
0.140071 -0.3145 -0.555 164 111 97
0.141129 -0.3145 -0.555 172 119 105
0.142186 -0.3145 -0.555 168 115 99
0.143501 -0.315067 -0.556 168 115 99
0.14456 -0.315067 -0.556 163 110 94
0.145619 -0.315067 -0.556 164 111 95
0.146942 -0.315633 -0.557 159 105 93
0.148003 -0.315633 -0.557 161 107 95
0.149331 -0.3162 -0.558 161 107 95
0.150394 -0.3162 -0.558 156 102 90
0.151457 -0.3162 -0.558 150 96 84
0.152793 -0.316767 -0.559 146 92 80
0.153858 -0.316767 -0.559 145 93 82
0.1552 -0.317333 -0.56 147 95 84
0.156546 -0.3179 -0.561 146 94 83
0.157614 -0.3179 -0.561 145 93 82
0.158966 -0.318467 -0.562 144 94 83
0.160036 -0.318467 -0.562 141 91 80
0.161107 -0.318467 -0.562 139 89 78
0.162466 -0.319033 -0.563 138 88 77
0.163829 -0.3196 -0.564 138 88 79
0.164903 -0.3196 -0.564 140 90 81
0.166271 -0.320167 -0.565 140 90 79
0.167348 -0.320167 -0.565 138 88 77
0.168722 -0.320733 -0.566 136 86 75
0.1698 -0.320733 -0.566 136 86 75
0.170878 -0.320733 -0.566 135 85 74
0.171956 -0.320733 -0.566 135 85 74
0.173034 -0.320733 -0.566 131 81 70
0.174112 -0.320733 -0.566 132 82 71
0.1755 -0.3213 -0.567 134 84 73
0.17658 -0.3213 -0.567 133 83 72
0.177973 -0.321867 -0.568 135 82 74
0.17937 -0.322433 -0.569 135 82 74
0.180454 -0.322433 -0.569 133 80 72
0.181857 -0.323 -0.57 131 78 70
0.182943 -0.323 -0.57 131 79 68
0.184351 -0.323567 -0.571 131 79 68
0.185439 -0.323567 -0.571 128 74 64
0.186853 -0.324133 -0.572 129 75 65
0.188271 -0.3247 -0.573 132 80 69
0.189363 -0.3247 -0.573 133 81 70
0.190454 -0.3247 -0.573 133 80 72
0.19188 -0.325267 -0.574 134 81 73
0.192973 -0.325267 -0.574 134 81 73
0.194405 -0.325833 -0.575 135 82 74
0.19584 -0.3264 -0.576 139 86 78
0.196937 -0.3264 -0.576 142 89 83
0.198378 -0.326967 -0.577 143 90 84
0.199477 -0.326967 -0.577 143 90 86
0.200924 -0.327533 -0.578 143 90 86
0.202025 -0.327533 -0.578 138 87 83
0.203477 -0.3281 -0.579 133 82 78
0.204933 -0.328667 -0.58 130 79 75
0.206393 -0.329233 -0.581 125 74 70
0.207857 -0.3298 -0.582 119 75 74
0.209684 -0.330933 -0.584 119 75 74
0.211157 -0.3315 -0.585 117 76 72
0.212634 -0.332067 -0.586 118 77 73
0.21448 -0.3332 -0.588 117 79 76
0.216333 -0.334333 -0.59 117 79 76
0.218194 -0.335467 -0.592 114 80 79
0.220063 -0.3366 -0.594 114 80 79
0.222311 -0.3383 -0.597 114 78 78
0.224571 -0.34 -0.6 113 77 77
0.226467 -0.341133 -0.602 118 79 80
0.229126 -0.3434 -0.606 112 73 74
0.23142 -0.3451 -0.609 114 91 101
0.417337 -0.3604 -0.636 224 232 253
0.418549 -0.3604 -0.636 185 193 214
0.41976 -0.3604 -0.636 156 170 209
0.452676 -0.361533 -0.638 252 255 255
0.453891 -0.361533 -0.638 222 229 255
0.455107 -0.361533 -0.638 193 200 226
0.456322 -0.361533 -0.638 193 200 226
0.457537 -0.361533 -0.638 168 182 227
0.458752 -0.361533 -0.638 180 194 239
0.460689 -0.3621 -0.639 196 218 255
0.461906 -0.3621 -0.639 201 223 255
0.462398 -0.361533 -0.638 182 206 240
0.463613 -0.361533 -0.638 178 202 236
0.464829 -0.361533 -0.638 188 212 248
0.466774 -0.3621 -0.639 186 210 246
0.467991 -0.3621 -0.639 169 193 229
0.469209 -0.3621 -0.639 155 179 215
0.470426 -0.3621 -0.639 169 185 219
0.471643 -0.3621 -0.639 195 211 245
0.47286 -0.3621 -0.639 228 237 254
0.474077 -0.3621 -0.639 234 243 255
0.475294 -0.3621 -0.639 211 213 225
0.476511 -0.3621 -0.639 192 194 206
0.478476 -0.362667 -0.64 206 208 220
0.479695 -0.362667 -0.64 227 229 241
0.480914 -0.362667 -0.64 224 226 238
0.482133 -0.362667 -0.64 220 222 234
0.483352 -0.362667 -0.64 206 212 234
0.485329 -0.363233 -0.641 179 185 207
0.48655 -0.363233 -0.641 120 139 182
0.48777 -0.363233 -0.641 100 119 162
0.488991 -0.363233 -0.641 87 122 176
0.490212 -0.363233 -0.641 112 147 201
0.491433 -0.363233 -0.641 143 172 216
0.492654 -0.363233 -0.641 143 172 216
0.493875 -0.363233 -0.641 164 193 237
0.495096 -0.363233 -0.641 175 204 248
0.496317 -0.363233 -0.641 131 160 204
0.497538 -0.363233 -0.641 83 106 156
0.498759 -0.363233 -0.641 151 174 224
0.49998 -0.363233 -0.641 168 188 239
0.501201 -0.363233 -0.641 154 174 225
0.502422 -0.363233 -0.641 122 149 202
0.503643 -0.363233 -0.641 101 128 181
0.504076 -0.362667 -0.64 74 106 165
0.505295 -0.362667 -0.64 67 99 158
0.506514 -0.362667 -0.64 91 111 162
0.507733 -0.362667 -0.64 143 163 214
0.508952 -0.362667 -0.64 165 166 194
0.510171 -0.362667 -0.64 188 189 217
0.51139 -0.362667 -0.64 175 172 181
0.51261 -0.362667 -0.64 150 147 156
0.50758 -0.350767 -0.619 178 149 145
0.50465 -0.347933 -0.614 178 147 144
0.5017 -0.3451 -0.609 178 147 144
0.497906 -0.3417 -0.603 180 149 146
0.495744 -0.339433 -0.599 181 150 147
0.496885 -0.339433 -0.599 181 150 147
0.493869 -0.3366 -0.594 178 149 145
0.490833 -0.333767 -0.589 179 150 146
0.488614 -0.3315 -0.585 179 148 143
0.487217 -0.3298 -0.582 180 149 144
0.48413 -0.326967 -0.577 179 149 141
0.482707 -0.325267 -0.574 180 150 142
0.482114 -0.324133 -0.572 186 153 144
0.48067 -0.322433 -0.569 187 154 145
0.48006 -0.3213 -0.567 190 154 142
0.479443 -0.320167 -0.565 191 155 143
0.478818 -0.319033 -0.563 193 155 142
0.478186 -0.3179 -0.561 194 156 143
0.4784 -0.317333 -0.56 195 158 142
0.47861 -0.316767 -0.559 194 157 141
0.477959 -0.315633 -0.557 197 158 141
0.47816 -0.315067 -0.556 195 156 139
0.478357 -0.3145 -0.555 198 160 141
0.47855 -0.313933 -0.554 198 160 141
0.47874 -0.313367 -0.553 196 158 139
0.478926 -0.3128 -0.552 197 159 140
0.479108 -0.312233 -0.551 200 162 143
0.480157 -0.312233 -0.551 198 160 141
0.481207 -0.312233 -0.551 194 156 137
0.481381 -0.311667 -0.55 195 157 138
0.481551 -0.3111 -0.549 202 161 141
0.482597 -0.3111 -0.549 203 162 142
0.482762 -0.310533 -0.548 203 162 142
0.483806 -0.310533 -0.548 203 162 142
0.48485 -0.310533 -0.548 201 160 140
0.485893 -0.310533 -0.548 199 158 138
0.486937 -0.310533 -0.548 199 158 138
0.487981 -0.310533 -0.548 200 159 139
0.488132 -0.309967 -0.547 199 158 136
0.489174 -0.309967 -0.547 199 158 136
0.490216 -0.309967 -0.547 199 158 136
0.491258 -0.309967 -0.547 199 158 136
0.4923 -0.309967 -0.547 196 155 133
0.493342 -0.309967 -0.547 193 152 130
0.494384 -0.309967 -0.547 192 151 129
0.495426 -0.309967 -0.547 192 150 126
0.496468 -0.309967 -0.547 192 150 126
0.49751 -0.309967 -0.547 193 149 124
0.498551 -0.309967 -0.547 186 142 117
0.499593 -0.309967 -0.547 185 139 113
0.50155 -0.310533 -0.548 184 138 112
0.502594 -0.310533 -0.548 181 135 109
0.504557 -0.3111 -0.549 171 125 99
0.506524 -0.311667 -0.55 173 129 102
0.508494 -0.312233 -0.551 175 131 104
0.510469 -0.3128 -0.552 172 127 104
0.513373 -0.313933 -0.554 177 132 109
0.516286 -0.315067 -0.556 174 130 105
0.519206 -0.3162 -0.558 168 124 99
0.523066 -0.3179 -0.561 166 126 101
1.15166 -0.366633 -0.647 204 206 192
1.15289 -0.366633 -0.647 204 206 192
1.15234 -0.366067 -0.646 204 206 192
1.15179 -0.3655 -0.645 204 206 192
1.15301 -0.3655 -0.645 204 206 192
1.15245 -0.364933 -0.644 204 206 192
1.15189 -0.364367 -0.643 203 205 191
0.105094 -0.342849 -0.603 193 150 144
0.105538 -0.340574 -0.599 195 152 146
0.105789 -0.337731 -0.594 191 148 142
0.10584 -0.33432 -0.588 195 152 146
0.105869 -0.330909 -0.582 197 152 147
0.106058 -0.328066 -0.577 196 151 146
0.1066 -0.32636 -0.574 194 147 141
0.10713 -0.324654 -0.571 194 147 141
0.107839 -0.323517 -0.569 194 147 141
0.10854 -0.32238 -0.567 189 142 136
0.109427 -0.321811 -0.566 190 143 135
0.11031 -0.321243 -0.565 191 144 136
0.111189 -0.320674 -0.564 187 138 131
0.112064 -0.320106 -0.563 186 137 130
0.112935 -0.319537 -0.562 187 134 128
0.114006 -0.319537 -0.562 188 135 129
0.114871 -0.318969 -0.561 185 135 128
0.115733 -0.3184 -0.56 188 135 129
0.1168 -0.3184 -0.56 186 133 127
0.117656 -0.317831 -0.559 188 135 129
0.118721 -0.317831 -0.559 188 135 129
0.119571 -0.317263 -0.558 186 133 127
0.120634 -0.317263 -0.558 189 136 128
0.121697 -0.317263 -0.558 186 133 125
0.12254 -0.316694 -0.557 189 134 127
0.123601 -0.316694 -0.557 183 128 121
0.124662 -0.316694 -0.557 184 129 122
0.125723 -0.316694 -0.557 184 129 122
0.126784 -0.316694 -0.557 180 125 118
0.127615 -0.316126 -0.556 183 128 121
0.128674 -0.316126 -0.556 180 125 118
0.129733 -0.316126 -0.556 180 125 118
0.130557 -0.315557 -0.555 184 130 120
0.131614 -0.315557 -0.555 185 131 121
0.132671 -0.315557 -0.555 176 122 112
0.133729 -0.315557 -0.555 167 113 103
0.134786 -0.315557 -0.555 166 112 102
0.135843 -0.315557 -0.555 167 113 103
0.1369 -0.315557 -0.555 170 116 104
0.137957 -0.315557 -0.555 172 118 106
0.139014 -0.315557 -0.555 166 113 99
0.140071 -0.315557 -0.555 166 113 99
0.141129 -0.315557 -0.555 169 116 102
0.142186 -0.315557 -0.555 163 107 94
0.143501 -0.316126 -0.556 166 110 97
0.14456 -0.316126 -0.556 164 108 95
0.145619 -0.316126 -0.556 167 111 98
0.146942 -0.316694 -0.557 160 106 94
0.148003 -0.316694 -0.557 159 105 93
0.149331 -0.317263 -0.558 156 102 92
0.150394 -0.317263 -0.558 152 98 88
0.151729 -0.317831 -0.559 146 92 82
0.152793 -0.317831 -0.559 143 89 79
0.153858 -0.317831 -0.559 143 91 80
0.1552 -0.3184 -0.56 144 92 81
0.156546 -0.318969 -0.561 146 94 83
0.157895 -0.319537 -0.562 145 93 82
0.158966 -0.319537 -0.562 143 93 84
0.160321 -0.320106 -0.563 142 92 83
0.161393 -0.320106 -0.563 139 89 80
0.162466 -0.320106 -0.563 140 90 81
0.163829 -0.320674 -0.564 138 88 79
0.165195 -0.321243 -0.565 140 90 81
0.166271 -0.321243 -0.565 140 90 79
0.167348 -0.321243 -0.565 138 88 77
0.168722 -0.321811 -0.566 138 88 77
0.1698 -0.321811 -0.566 135 85 74
0.170878 -0.321811 -0.566 134 84 73
0.171956 -0.321811 -0.566 134 84 73
0.173034 -0.321811 -0.566 136 83 75
0.17442 -0.32238 -0.567 137 84 76
0.1755 -0.32238 -0.567 138 85 77
0.176891 -0.322949 -0.568 138 85 77
0.177973 -0.322949 -0.568 136 83 75
0.17937 -0.323517 -0.569 135 82 74
0.180771 -0.324086 -0.57 133 80 72
0.181857 -0.324086 -0.57 130 77 69
0.182943 -0.324086 -0.57 129 76 68
0.184351 -0.324654 -0.571 130 77 69
0.185764 -0.325223 -0.572 129 75 65
0.186853 -0.325223 -0.572 130 76 66
0.188271 -0.325791 -0.573 132 79 71
0.189363 -0.325791 -0.573 132 79 71
0.190787 -0.32636 -0.574 130 80 71
0.19188 -0.32636 -0.574 131 81 72
0.192973 -0.32636 -0.574 131 81 72
0.194405 -0.326929 -0.575 132 82 75
0.19584 -0.327497 -0.576 136 86 79
0.197279 -0.328066 -0.577 135 84 80
0.198378 -0.328066 -0.577 135 84 80
0.199823 -0.328634 -0.578 133 82 78
0.201271 -0.329203 -0.579 133 82 78
0.202374 -0.329203 -0.579 130 81 77
0.203829 -0.329771 -0.58 124 75 71
0.205287 -0.33034 -0.581 120 72 68
0.206749 -0.330909 -0.582 118 70 66
0.208571 -0.332046 -0.584 118 76 77
0.210043 -0.332614 -0.585 116 74 75
0.211518 -0.333183 -0.586 117 76 74
0.21336 -0.33432 -0.588 118 77 75
0.214845 -0.334889 -0.589 116 78 77
0.2167 -0.336026 -0.591 116 78 77
0.218563 -0.337163 -0.593 114 78 78
0.220433 -0.3383 -0.595 115 79 79
0.222684 -0.340006 -0.598 116 80 82
0.224946 -0.341711 -0.601 117 81 83
0.227219 -0.343417 -0.604 114 79 83
0.229504 -0.345123 -0.607 112 77 81
0.249803 -0.357631 -0.629 160 162 187
0.251001 -0.357631 -0.629 168 164 187
0.252199 -0.357631 -0.629 168 164 187
0.253397 -0.357631 -0.629 178 174 197
0.254595 -0.357631 -0.629 179 176 193
0.255793 -0.357631 -0.629 183 180 197
0.450753 -0.36218 -0.637 221 225 228
0.451967 -0.36218 -0.637 240 244 247
0.45318 -0.36218 -0.637 226 234 255
0.454393 -0.36218 -0.637 205 213 234
0.455607 -0.36218 -0.637 205 213 234
0.45682 -0.36218 -0.637 177 191 230
0.458752 -0.362749 -0.638 176 190 229
0.459968 -0.362749 -0.638 192 210 248
0.461183 -0.362749 -0.638 203 221 255
0.462398 -0.362749 -0.638 198 218 253
0.464829 -0.362749 -0.638 199 219 255
0.466044 -0.362749 -0.638 192 212 249
0.467259 -0.362749 -0.638 173 193 230
0.468474 -0.362749 -0.638 162 182 219
0.46969 -0.362749 -0.638 183 199 232
0.471643 -0.363317 -0.639 200 216 249
0.47286 -0.363317 -0.639 226 233 249
0.474077 -0.363317 -0.639 234 241 255
0.475294 -0.363317 -0.639 232 230 241
0.476511 -0.363317 -0.639 227 225 236
0.477729 -0.363317 -0.639 231 233 246
0.478946 -0.363317 -0.639 230 232 245
0.480163 -0.363317 -0.639 222 228 242
0.48138 -0.363317 -0.639 222 228 242
0.482597 -0.363317 -0.639 216 226 251
0.484571 -0.363886 -0.64 180 190 215
0.48579 -0.363886 -0.64 108 125 168
0.48701 -0.363886 -0.64 107 124 167
0.488229 -0.363886 -0.64 117 148 194
0.489448 -0.363886 -0.64 150 181 227
0.490667 -0.363886 -0.64 170 186 220
0.491886 -0.363886 -0.64 185 201 235
0.493105 -0.363886 -0.64 185 201 235
0.494324 -0.363886 -0.64 189 208 241
0.495543 -0.363886 -0.64 171 190 223
0.496762 -0.363886 -0.64 115 131 165
0.497981 -0.363886 -0.64 173 189 223
0.4992 -0.363886 -0.64 189 203 240
0.500419 -0.363886 -0.64 175 189 226
0.501638 -0.363886 -0.64 157 179 220
0.502857 -0.363886 -0.64 132 154 195
0.504076 -0.363886 -0.64 99 127 175
0.505295 -0.363886 -0.64 77 105 153
0.506514 -0.363886 -0.64 78 97 140
0.507733 -0.363886 -0.64 157 176 219
0.508952 -0.363886 -0.64 189 194 226
0.510171 -0.363886 -0.64 189 194 226
0.51139 -0.363886 -0.64 194 192 203
0.511809 -0.363317 -0.639 156 154 165
0.513026 -0.363317 -0.639 140 137 144
0.50758 -0.351946 -0.619 178 149 145
0.50465 -0.349103 -0.614 178 147 144
0.5017 -0.34626 -0.609 178 147 144
0.499557 -0.343986 -0.605 178 149 143
0.496571 -0.341143 -0.6 180 151 145
0.497714 -0.341143 -0.6 180 151 145
0.4947 -0.3383 -0.595 176 147 143
0.491667 -0.335457 -0.59 178 149 145
0.48945 -0.333183 -0.586 179 148 143
0.487217 -0.330909 -0.582 180 149 144
0.48497 -0.328634 -0.578 182 152 144
0.483548 -0.326929 -0.575 182 152 144
0.482114 -0.325223 -0.572 185 152 143
0.481514 -0.324086 -0.57 185 152 143
0.48006 -0.32238 -0.567 191 155 143
0.479443 -0.321243 -0.565 193 157 145
0.479669 -0.320674 -0.564 193 155 142
0.479038 -0.319537 -0.562 194 156 143
0.4784 -0.3184 -0.56 194 157 141
0.47861 -0.317831 -0.559 194 157 141
0.477959 -0.316694 -0.557 198 159 142
0.47816 -0.316126 -0.556 199 160 143
0.478357 -0.315557 -0.555 199 162 143
0.47855 -0.314989 -0.554 198 161 142
0.47874 -0.31442 -0.553 196 158 139
0.478926 -0.313851 -0.552 196 158 139
0.479108 -0.313283 -0.551 199 161 142
0.480157 -0.313283 -0.551 198 160 141
0.480333 -0.312714 -0.55 195 157 138
0.481381 -0.312714 -0.55 194 156 137
0.481551 -0.312146 -0.549 196 158 137
0.481718 -0.311577 -0.548 198 160 139
0.482762 -0.311577 -0.548 201 160 140
0.483806 -0.311577 -0.548 201 160 140
0.48485 -0.311577 -0.548 201 160 140
0.485893 -0.311577 -0.548 201 160 140
0.486049 -0.311009 -0.547 201 160 140
0.48709 -0.311009 -0.547 200 159 139
0.488132 -0.311009 -0.547 201 160 138
0.489174 -0.311009 -0.547 202 161 139
0.490216 -0.311009 -0.547 200 159 137
0.491258 -0.311009 -0.547 200 159 137
0.4923 -0.311009 -0.547 198 157 135
0.493342 -0.311009 -0.547 196 155 133
0.494384 -0.311009 -0.547 195 154 132
0.495426 -0.311009 -0.547 194 152 128
0.496468 -0.311009 -0.547 192 150 126
0.49751 -0.311009 -0.547 191 147 122
0.498551 -0.311009 -0.547 184 140 115
0.499593 -0.311009 -0.547 186 140 114
0.500635 -0.311009 -0.547 188 142 116
0.501677 -0.311009 -0.547 187 141 115
0.503638 -0.311577 -0.548 176 130 104
0.505603 -0.312146 -0.549 178 134 109
0.507571 -0.312714 -0.55 177 133 108
0.509544 -0.313283 -0.551 176 132 107
0.51152 -0.313851 -0.552 179 135 110
0.514429 -0.314989 -0.554 176 132 107
0.517345 -0.316126 -0.556 172 128 103
0.520269 -0.317263 -0.558 169 129 104
0.525069 -0.319537 -0.562 169 129 104
0.529884 -0.321811 -0.566 165 128 109
1.15111 -0.367297 -0.646 204 206 192
1.15234 -0.367297 -0.646 204 206 192
1.15179 -0.366729 -0.645 204 206 192
1.15123 -0.36616 -0.644 203 205 191
1.15066 -0.365591 -0.643 203 205 191
1.15189 -0.365591 -0.643 203 205 191
1.15132 -0.365023 -0.642 203 205 191
0.104118 -0.344568 -0.604 193 148 145
0.104746 -0.342856 -0.601 193 150 144
0.105186 -0.340574 -0.597 193 150 144
0.105254 -0.337151 -0.591 191 146 141
0.10548 -0.334299 -0.586 196 151 146
0.105505 -0.330876 -0.58 198 150 146
0.105874 -0.328594 -0.576 196 148 144
0.106414 -0.326883 -0.573 194 146 142
0.106943 -0.325171 -0.57 194 146 142
0.107839 -0.324601 -0.569 191 144 138
0.10854 -0.32346 -0.567 189 142 136
0.109427 -0.32289 -0.566 191 142 137
0.11031 -0.322319 -0.565 191 142 137
0.111189 -0.321749 -0.564 188 139 134
0.112064 -0.321178 -0.563 185 136 131
0.112935 -0.320608 -0.562 189 136 130
0.114006 -0.320608 -0.562 188 135 129
0.114871 -0.320037 -0.561 185 135 128
0.115733 -0.319467 -0.56 186 136 129
0.116591 -0.318896 -0.559 186 133 127
0.117656 -0.318896 -0.559 188 135 129
0.118721 -0.318896 -0.559 185 132 126
0.119571 -0.318326 -0.558 182 129 123
0.120634 -0.318326 -0.558 186 131 124
0.121697 -0.318326 -0.558 187 132 125
0.12254 -0.317755 -0.557 186 133 125
0.123601 -0.317755 -0.557 182 129 121
0.124662 -0.317755 -0.557 183 128 121
0.125723 -0.317755 -0.557 185 130 123
0.126784 -0.317755 -0.557 185 130 123
0.127615 -0.317185 -0.556 187 132 125
0.128674 -0.317185 -0.556 179 124 117
0.129733 -0.317185 -0.556 179 124 117
0.130557 -0.316614 -0.555 183 128 121
0.131614 -0.316614 -0.555 184 129 122
0.132671 -0.316614 -0.555 177 123 113
0.133729 -0.316614 -0.555 170 116 106
0.134786 -0.316614 -0.555 168 114 104
0.135843 -0.316614 -0.555 170 116 106
0.1369 -0.316614 -0.555 173 116 107
0.137957 -0.316614 -0.555 175 118 109
0.139014 -0.316614 -0.555 175 118 109
0.140071 -0.316614 -0.555 168 114 102
0.141383 -0.317185 -0.556 166 112 100
0.142442 -0.317185 -0.556 159 106 92
0.143501 -0.317185 -0.556 162 109 95
0.14456 -0.317185 -0.556 165 109 96
0.145619 -0.317185 -0.556 165 109 96
0.146942 -0.317755 -0.557 164 110 98
0.148003 -0.317755 -0.557 158 104 92
0.149331 -0.318326 -0.558 151 97 87
0.150664 -0.318896 -0.559 147 93 83
0.151729 -0.318896 -0.559 145 93 82
0.152793 -0.318896 -0.559 145 93 82
0.154133 -0.319467 -0.56 146 94 83
0.155477 -0.320037 -0.561 146 94 83
0.156825 -0.320608 -0.562 146 94 83
0.158176 -0.321178 -0.563 145 93 82
