ply
format ascii 1.0
comment Created by Open3D
element vertex 1278
property double x
property double y
property double z
property uchar red
property uchar green
property uchar blue
end_header
0.495671 -0.364689 -0.471 166 125 93
0.496569 -0.364689 -0.471 165 124 92
0.498522 -0.365463 -0.472 166 125 95
0.499421 -0.365463 -0.472 165 124 94
0.50138 -0.366237 -0.473 162 122 96
0.503343 -0.367011 -0.474 160 120 94
0.50531 -0.367786 -0.475 156 119 93
0.508346 -0.369334 -0.477 155 118 92
0.510322 -0.370109 -0.478 156 119 93
0.514441 -0.372431 -0.481 155 118 92
0.518571 -0.374754 -0.484 155 114 92
0.522713 -0.377077 -0.487 155 114 92
0.6204 -0.436697 -0.564 202 202 192
0.623678 -0.438246 -0.566 205 205 195
0.923643 -0.448311 -0.579 207 209 195
0.924746 -0.448311 -0.579 207 209 195
0.925849 -0.448311 -0.579 207 209 195
0.926951 -0.448311 -0.579 207 209 195
0.928054 -0.448311 -0.579 207 209 195
0.929157 -0.448311 -0.579 207 210 193
0.93026 -0.448311 -0.579 207 210 193
0.931363 -0.448311 -0.579 207 210 193
0.932466 -0.448311 -0.579 206 209 192
0.933569 -0.448311 -0.579 206 209 192
0.994943 -0.450634 -0.582 204 206 192
0.996051 -0.450634 -0.582 204 206 192
0.99716 -0.450634 -0.582 205 207 193
0.998269 -0.450634 -0.582 205 207 193
0.0262286 -0.419143 -0.54 193 152 122
0.0271057 -0.416814 -0.537 192 151 121
0.027919 -0.41371 -0.533 192 151 121
0.0287714 -0.411381 -0.53 192 148 119
0.0295562 -0.408276 -0.526 191 147 118
0.0303257 -0.405171 -0.522 191 147 118
0.0312 -0.403619 -0.52 193 149 120
0.0320667 -0.402067 -0.518 196 152 123
0.0329257 -0.400514 -0.516 199 155 126
0.0338429 -0.399738 -0.515 201 157 128
0.0347562 -0.398962 -0.514 201 157 128
0.0356657 -0.398186 -0.513 204 159 130
0.0366429 -0.398186 -0.513 206 161 132
0.0375467 -0.39741 -0.512 207 162 133
0.0385219 -0.39741 -0.512 207 162 133
0.03942 -0.396633 -0.511 205 161 132
0.0403933 -0.396633 -0.511 203 159 130
0.0412857 -0.395857 -0.51 204 159 130
0.04234 -0.396633 -0.511 202 157 126
0.0433133 -0.396633 -0.511 201 156 125
0.0442867 -0.396633 -0.511 201 156 125
0.04526 -0.396633 -0.511 202 157 128
0.0462333 -0.396633 -0.511 204 159 130
0.0471143 -0.395857 -0.51 204 159 128
0.0480857 -0.395857 -0.51 202 157 126
0.0490571 -0.395857 -0.51 202 157 126
0.0500286 -0.395857 -0.51 203 158 127
0.051 -0.395857 -0.51 202 155 127
0.0518695 -0.395081 -0.509 200 153 125
0.052839 -0.395081 -0.509 200 153 125
0.0538086 -0.395081 -0.509 201 154 126
0.0547781 -0.395081 -0.509 201 154 126
0.0557476 -0.395081 -0.509 200 153 125
0.0567171 -0.395081 -0.509 196 149 123
0.0576867 -0.395081 -0.509 195 148 122
0.0586562 -0.395081 -0.509 194 147 119
0.0596257 -0.395081 -0.509 195 148 120
0.0605952 -0.395081 -0.509 195 148 122
0.0615648 -0.395081 -0.509 195 148 122
0.0626571 -0.395857 -0.51 194 147 121
0.0636286 -0.395857 -0.51 192 145 119
0.0646 -0.395857 -0.51 190 142 119
0.0655714 -0.395857 -0.51 189 141 118
0.0666733 -0.396633 -0.511 189 141 118
0.0676467 -0.396633 -0.511 189 141 118
0.06862 -0.396633 -0.511 190 140 117
0.0697295 -0.39741 -0.512 190 140 117
0.0707048 -0.39741 -0.512 191 141 118
0.07168 -0.39741 -0.512 190 140 117
0.0727971 -0.398186 -0.513 189 139 114
0.0737743 -0.398186 -0.513 188 138 113
0.0748971 -0.398962 -0.514 188 138 113
0.0760238 -0.399738 -0.515 189 139 114
0.0770048 -0.399738 -0.515 189 139 114
0.0779857 -0.399738 -0.515 187 137 112
0.07912 -0.400514 -0.516 186 136 113
0.0802581 -0.40129 -0.517 184 134 111
0.0812429 -0.40129 -0.517 183 135 112
0.0823867 -0.402067 -0.518 182 134 111
0.0835343 -0.402843 -0.519 181 133 110
0.0846857 -0.403619 -0.52 180 132 109
0.0856762 -0.403619 -0.52 177 129 106
0.0868333 -0.404395 -0.521 175 127 104
0.0879943 -0.405171 -0.522 175 127 104
0.0889886 -0.405171 -0.522 173 125 102
0.0901552 -0.405948 -0.523 173 126 108
0.0915 -0.4075 -0.525 171 124 106
0.0926762 -0.408276 -0.526 165 122 103
0.0938562 -0.409052 -0.527 162 119 100
0.09486 -0.409052 -0.527 162 119 100
0.0962276 -0.410605 -0.529 156 114 98
0.097419 -0.411381 -0.53 151 109 93
0.0986143 -0.412157 -0.531 146 108 95
0.100001 -0.41371 -0.533 146 108 95
0.101395 -0.415262 -0.535 139 107 96
0.102797 -0.416814 -0.537 138 106 95
0.104207 -0.418367 -0.539 135 106 98
0.105624 -0.419919 -0.541 131 102 94
0.107049 -0.421471 -0.543 128 101 94
0.121283 -0.435443 -0.561 38 43 63
0.12257 -0.436219 -0.562 35 40 60
0.12364 -0.436219 -0.562 47 53 79
0.12471 -0.436219 -0.562 76 82 108
0.125781 -0.436219 -0.562 89 93 118
0.126851 -0.436219 -0.562 106 110 135
0.127922 -0.436219 -0.562 124 129 158
0.128992 -0.436219 -0.562 121 126 155
0.130063 -0.436219 -0.562 101 107 139
0.131133 -0.436219 -0.562 74 80 112
0.132204 -0.436219 -0.562 34 58 96
0.133274 -0.436219 -0.562 58 82 120
0.134345 -0.436219 -0.562 110 125 154
0.135415 -0.436219 -0.562 151 166 195
0.136486 -0.436219 -0.562 169 181 205
0.137556 -0.436219 -0.562 147 159 183
0.138627 -0.436219 -0.562 131 150 183
0.139946 -0.436995 -0.563 134 153 186
0.141018 -0.436995 -0.563 95 122 167
0.14209 -0.436995 -0.563 74 101 146
0.143163 -0.436995 -0.563 68 91 133
0.143979 -0.436219 -0.562 132 155 197
0.14505 -0.436219 -0.562 190 203 222
0.14612 -0.436219 -0.562 197 210 229
0.14719 -0.436219 -0.562 207 209 208
0.461643 -0.44631 -0.575 176 199 240
0.462738 -0.44631 -0.575 207 214 230
0.463833 -0.44631 -0.575 200 207 223
0.484389 -0.447086 -0.576 187 200 216
0.485486 -0.447086 -0.576 139 152 168
0.486583 -0.447086 -0.576 121 143 182
0.48768 -0.447086 -0.576 105 127 166
0.495467 -0.434667 -0.56 166 136 126
0.493873 -0.432338 -0.557 165 133 120
0.49138 -0.429233 -0.553 162 130 117
0.489762 -0.426905 -0.55 164 131 122
0.488132 -0.424576 -0.547 164 131 122
0.486491 -0.422248 -0.544 161 133 122
0.485735 -0.420695 -0.542 161 133 122
0.484971 -0.419143 -0.54 160 132 120
0.4833 -0.416814 -0.537 161 133 121
0.481617 -0.414486 -0.534 162 134 122
0.480827 -0.412933 -0.532 162 134 122
0.479123 -0.410605 -0.529 163 134 120
0.478315 -0.409052 -0.527 162 133 119
0.47659 -0.406724 -0.524 164 132 117
0.475766 -0.405171 -0.522 167 135 120
0.474933 -0.403619 -0.52 175 139 125
0.473178 -0.40129 -0.517 176 140 126
0.472329 -0.399738 -0.515 178 138 126
0.471471 -0.398186 -0.513 179 139 127
0.470607 -0.396633 -0.511 183 142 124
0.47158 -0.396633 -0.511 183 142 124
0.470704 -0.395081 -0.509 181 140 122
0.470747 -0.394305 -0.508 181 140 120
0.469857 -0.392752 -0.506 182 141 121
0.46989 -0.391976 -0.505 185 142 123
0.468988 -0.390424 -0.503 185 142 123
0.469011 -0.389648 -0.502 185 144 122
0.468095 -0.388095 -0.5 188 147 125
0.46811 -0.387319 -0.499 187 145 123
0.46718 -0.385767 -0.497 187 145 123
0.467185 -0.38499 -0.496 189 147 123
0.467186 -0.384214 -0.495 190 148 124
0.467183 -0.383438 -0.494 189 144 121
0.467176 -0.382662 -0.493 188 143 120
0.467166 -0.381886 -0.492 187 145 121
0.467151 -0.38111 -0.491 188 146 122
0.467133 -0.380333 -0.49 190 148 124
0.467111 -0.379557 -0.489 189 147 123
0.467086 -0.378781 -0.488 188 146 121
0.467056 -0.378005 -0.487 188 146 121
0.467023 -0.377229 -0.486 189 148 120
0.466986 -0.376452 -0.485 190 149 121
0.466945 -0.375676 -0.484 191 147 122
0.467867 -0.375676 -0.484 188 144 119
0.46782 -0.3749 -0.483 189 145 118
0.46777 -0.374124 -0.482 188 144 117
0.468688 -0.374124 -0.482 187 143 114
0.468631 -0.373348 -0.481 187 143 114
0.468571 -0.372571 -0.48 189 145 116
0.468508 -0.371795 -0.479 192 148 119
0.46844 -0.371019 -0.478 194 150 121
0.46935 -0.371019 -0.478 192 148 119
0.469277 -0.370243 -0.477 194 149 118
0.4692 -0.369467 -0.476 194 149 118
0.470107 -0.369467 -0.476 195 150 119
0.471013 -0.369467 -0.476 194 149 118
0.47192 -0.369467 -0.476 191 146 115
0.471833 -0.36869 -0.475 190 145 114
0.472738 -0.36869 -0.475 191 146 115
0.473643 -0.36869 -0.475 191 146 115
0.473549 -0.367914 -0.474 191 146 113
0.474451 -0.367914 -0.474 191 146 113
0.475354 -0.367914 -0.474 190 145 112
0.475252 -0.367138 -0.473 189 144 111
0.475147 -0.366362 -0.472 187 142 109
0.476046 -0.366362 -0.472 187 142 109
0.476945 -0.366362 -0.472 189 144 111
0.476831 -0.365586 -0.471 193 148 115
0.477729 -0.365586 -0.471 193 148 115
0.47761 -0.36481 -0.47 186 141 108
0.478505 -0.36481 -0.47 182 139 105
0.4794 -0.36481 -0.47 184 141 107
0.480295 -0.36481 -0.47 184 141 107
0.480167 -0.364033 -0.469 184 141 107
0.48106 -0.364033 -0.469 185 142 108
0.480926 -0.363257 -0.468 187 144 110
0.481817 -0.363257 -0.468 183 140 106
0.482709 -0.363257 -0.468 184 141 107
0.4836 -0.363257 -0.468 183 140 106
0.484491 -0.363257 -0.468 182 139 105
0.485383 -0.363257 -0.468 182 139 105
0.486274 -0.363257 -0.468 181 138 104
0.487166 -0.363257 -0.468 178 135 101
0.488057 -0.363257 -0.468 177 134 100
0.489993 -0.364033 -0.469 175 130 99
0.490887 -0.364033 -0.469 173 128 97
0.49178 -0.364033 -0.469 171 128 96
0.492673 -0.364033 -0.469 170 127 95
0.494619 -0.36481 -0.47 169 125 96
0.495514 -0.36481 -0.47 168 124 95
0.497466 -0.365586 -0.471 168 124 95
0.498363 -0.365586 -0.471 167 123 94
0.50032 -0.366362 -0.472 163 122 92
0.502281 -0.367138 -0.473 161 120 90
0.504246 -0.367914 -0.474 159 118 90
0.506214 -0.36869 -0.475 159 118 90
0.509254 -0.370243 -0.477 158 119 90
0.512302 -0.371795 -0.479 157 118 89
0.515357 -0.373348 -0.481 157 116 88
0.519493 -0.375676 -0.484 156 115 87
0.6193 -0.436995 -0.563 203 203 193
0.622576 -0.438548 -0.565 202 202 192
0.887481 -0.447862 -0.577 209 211 197
0.88858 -0.447862 -0.577 209 211 197
0.889679 -0.447862 -0.577 209 211 197
0.890778 -0.447862 -0.577 209 211 197
0.911038 -0.448638 -0.578 207 209 195
0.912139 -0.448638 -0.578 207 209 195
0.91324 -0.448638 -0.578 207 209 195
0.914341 -0.448638 -0.578 207 209 195
0.915442 -0.448638 -0.578 207 209 195
0.916543 -0.448638 -0.578 206 208 194
0.917644 -0.448638 -0.578 206 208 194
0.918745 -0.448638 -0.578 206 208 194
0.919846 -0.448638 -0.578 206 208 194
0.920947 -0.448638 -0.578 206 209 192
0.922048 -0.448638 -0.578 206 209 192
0.923149 -0.448638 -0.578 207 210 193
0.935774 -0.449414 -0.579 207 210 193
0.936877 -0.449414 -0.579 207 210 193
0.0252 -0.420171 -0.54 193 154 123
0.0261314 -0.418615 -0.538 193 154 123
0.0269543 -0.415503 -0.534 193 149 120
0.0277619 -0.41239 -0.53 191 147 118
0.0286086 -0.410056 -0.527 190 146 117
0.0294438 -0.407722 -0.524 190 146 117
0.0302095 -0.40461 -0.52 191 147 118
0.03108 -0.403053 -0.518 193 149 120
0.0319429 -0.401497 -0.516 196 152 123
0.0327981 -0.399941 -0.514 198 154 125
0.0337771 -0.399941 -0.514 200 155 126
0.0346886 -0.399163 -0.513 201 156 127
0.0355962 -0.398385 -0.512 203 158 129
0.0365714 -0.398385 -0.512 205 160 131
0.0374733 -0.397607 -0.511 207 162 133
0.0384467 -0.397607 -0.511 208 163 134
0.0393429 -0.396829 -0.51 207 162 133
0.0403143 -0.396829 -0.51 207 162 133
0.0412857 -0.396829 -0.51 205 158 130
0.0422571 -0.396829 -0.51 204 159 130
0.0432286 -0.396829 -0.51 203 156 128
0.0442 -0.396829 -0.51 202 155 127
0.0451714 -0.396829 -0.51 203 156 128
0.0461429 -0.396829 -0.51 206 159 131
0.0471143 -0.396829 -0.51 204 159 130
0.0479914 -0.39605 -0.509 200 155 126
0.048961 -0.39605 -0.509 200 155 126
0.0499305 -0.39605 -0.509 202 157 128
0.0509 -0.39605 -0.509 201 154 126
0.0518695 -0.39605 -0.509 198 151 123
0.052839 -0.39605 -0.509 198 151 123
0.0538086 -0.39605 -0.509 200 153 125
0.0547781 -0.39605 -0.509 199 152 124
0.0557476 -0.39605 -0.509 198 151 123
0.0567171 -0.39605 -0.509 194 147 119
0.0576867 -0.39605 -0.509 192 145 117
0.0586562 -0.39605 -0.509 193 146 118
0.0596257 -0.39605 -0.509 195 148 120
0.0605952 -0.39605 -0.509 194 147 121
0.0615648 -0.39605 -0.509 194 147 121
0.0625343 -0.39605 -0.509 193 146 120
0.0635038 -0.39605 -0.509 190 143 117
0.0646 -0.396829 -0.51 189 142 116
0.0655714 -0.396829 -0.51 189 142 116
0.0665429 -0.396829 -0.51 190 143 117
0.0676467 -0.397607 -0.511 190 143 117
0.06862 -0.397607 -0.511 189 142 116
0.0695933 -0.397607 -0.511 189 142 116
0.0707048 -0.398385 -0.512 188 141 115
0.07168 -0.398385 -0.512 187 140 114
0.0727971 -0.399163 -0.513 189 139 114
0.0737743 -0.399163 -0.513 189 139 114
0.0748971 -0.399941 -0.514 187 137 112
0.0760238 -0.400719 -0.515 189 139 114
0.0770048 -0.400719 -0.515 187 140 114
0.0779857 -0.400719 -0.515 184 137 111
0.07912 -0.401497 -0.516 183 135 112
0.0801029 -0.401497 -0.516 181 133 110
0.0812429 -0.402275 -0.517 182 134 111
0.0823867 -0.403053 -0.518 183 135 112
0.0833733 -0.403053 -0.518 181 133 110
0.0845229 -0.403831 -0.519 179 131 108
0.0856762 -0.40461 -0.52 176 128 105
0.0868333 -0.405388 -0.521 175 127 104
0.0879943 -0.406166 -0.522 176 128 106
0.0889886 -0.406166 -0.522 174 126 104
0.0901552 -0.406944 -0.523 176 129 109
0.0915 -0.4085 -0.525 170 123 103
0.0925 -0.4085 -0.525 170 123 103
0.0936781 -0.409278 -0.526 165 122 103
0.09504 -0.410834 -0.528 163 120 101
0.0962276 -0.411612 -0.529 155 116 99
0.097419 -0.41239 -0.53 148 109 92
0.0988 -0.413947 -0.532 144 108 94
0.100189 -0.415503 -0.534 146 110 96
0.101585 -0.417059 -0.536 140 107 98
0.102989 -0.418615 -0.538 138 105 96
0.104207 -0.419393 -0.539 133 104 96
0.105819 -0.421728 -0.542 130 101 93
0.12 -0.435733 -0.56 49 46 55
0.121283 -0.436511 -0.561 31 36 55
0.122351 -0.436511 -0.561 53 58 77
0.12342 -0.436511 -0.561 65 71 95
0.12471 -0.43729 -0.562 89 95 119
0.125781 -0.43729 -0.562 106 111 133
0.126851 -0.43729 -0.562 122 127 149
0.127922 -0.43729 -0.562 138 144 170
0.128763 -0.436511 -0.561 133 139 165
0.129831 -0.436511 -0.561 105 112 141
0.1309 -0.436511 -0.561 77 84 113
0.131969 -0.436511 -0.561 56 76 111
0.133037 -0.436511 -0.561 83 103 138
0.134106 -0.436511 -0.561 129 145 171
0.135174 -0.436511 -0.561 157 173 199
0.136243 -0.436511 -0.561 170 181 203
0.137311 -0.436511 -0.561 163 174 196
0.138627 -0.43729 -0.562 157 171 198
0.139697 -0.43729 -0.562 150 164 191
0.140768 -0.43729 -0.562 115 133 169
0.141838 -0.43729 -0.562 107 125 161
0.142909 -0.43729 -0.562 69 89 124
0.143979 -0.43729 -0.562 110 130 165
0.14505 -0.43729 -0.562 179 190 210
0.463833 -0.447405 -0.575 204 215 237
0.464929 -0.447405 -0.575 195 202 221
0.4715 -0.447405 -0.575 186 198 212
0.472595 -0.447405 -0.575 205 217 231
0.47369 -0.447405 -0.575 199 197 210
0.474786 -0.447405 -0.575 197 195 208
0.475881 -0.447405 -0.575 207 214 222
0.493873 -0.433399 -0.557 161 133 121
0.492269 -0.431065 -0.554 161 133 121
0.489762 -0.427952 -0.55 164 131 122
0.488132 -0.425618 -0.547 163 133 123
0.487386 -0.424062 -0.545 161 133 122
0.485735 -0.421728 -0.542 160 132 121
0.484971 -0.420171 -0.54 159 133 120
0.4833 -0.417837 -0.537 159 133 120
0.481617 -0.415503 -0.534 161 133 121
0.480827 -0.413947 -0.532 162 134 122
0.479123 -0.411612 -0.529 162 133 119
0.478315 -0.410056 -0.527 162 133 119
0.4775 -0.4085 -0.525 165 133 118
0.475766 -0.406166 -0.522 168 136 121
0.474933 -0.40461 -0.52 174 138 124
0.474093 -0.403053 -0.518 175 139 125
0.472329 -0.400719 -0.515 177 138 123
0.471471 -0.399163 -0.513 178 139 124
0.470607 -0.397607 -0.511 181 143 124
0.469734 -0.39605 -0.509 180 142 123
0.470704 -0.39605 -0.509 180 142 123
0.470747 -0.395272 -0.508 181 140 120
0.469857 -0.393716 -0.506 182 141 121
0.46989 -0.392938 -0.505 183 142 122
0.468988 -0.391382 -0.503 183 142 122
0.469011 -0.390604 -0.502 184 143 121
0.468095 -0.389048 -0.5 186 145 123
0.46811 -0.38827 -0.499 185 144 122
0.46718 -0.386713 -0.497 187 146 124
0.467185 -0.385935 -0.496 190 148 124
0.467186 -0.385157 -0.495 189 147 123
0.467183 -0.384379 -0.494 187 145 121
0.467176 -0.383601 -0.493 185 143 119
0.467166 -0.382823 -0.492 186 144 120
0.467151 -0.382045 -0.491 188 146 122
0.467133 -0.381267 -0.49 188 146 122
0.467111 -0.380489 -0.489 188 146 122
0.467086 -0.37971 -0.488 188 146 121
0.467056 -0.378932 -0.487 188 146 121
0.467023 -0.378154 -0.486 189 147 122
0.466986 -0.377376 -0.485 189 147 122
0.466945 -0.376598 -0.484 187 145 120
0.4669 -0.37582 -0.483 186 144 119
0.46782 -0.37582 -0.483 187 146 118
0.46777 -0.375042 -0.482 187 146 118
0.467715 -0.374264 -0.481 189 145 116
0.468631 -0.374264 -0.481 189 145 116
0.468571 -0.373486 -0.48 191 147 118
0.468508 -0.372708 -0.479 192 148 119
0.46844 -0.37193 -0.478 193 149 120
0.468369 -0.371151 -0.477 193 149 120
0.469277 -0.371151 -0.477 193 150 118
0.4692 -0.370373 -0.476 193 150 118
0.470107 -0.370373 -0.476 194 151 119
0.471013 -0.370373 -0.476 193 150 118
0.470929 -0.369595 -0.475 190 147 115
0.471833 -0.369595 -0.475 189 146 114
0.472738 -0.369595 -0.475 190 147 115
0.472646 -0.368817 -0.474 190 147 115
0.473549 -0.368817 -0.474 189 144 113
0.474451 -0.368817 -0.474 191 146 115
0.474351 -0.368039 -0.473 190 145 112
0.475252 -0.368039 -0.473 189 144 111
0.475147 -0.367261 -0.472 188 143 110
0.476046 -0.367261 -0.472 187 142 109
0.475934 -0.366483 -0.471 189 144 111
0.476831 -0.366483 -0.471 193 148 115
0.476714 -0.365705 -0.47 191 146 113
0.47761 -0.365705 -0.47 188 143 110
0.478505 -0.365705 -0.47 186 143 109
0.47838 -0.364927 -0.469 185 142 108
0.479273 -0.364927 -0.469 184 141 107
0.480167 -0.364927 -0.469 184 141 107
0.480034 -0.364149 -0.468 186 143 109
0.480926 -0.364149 -0.468 186 143 109
0.480788 -0.36337 -0.467 183 140 106
0.481677 -0.36337 -0.467 185 142 108
0.482567 -0.36337 -0.467 185 142 108
0.483456 -0.36337 -0.467 185 142 108
0.484346 -0.36337 -0.467 185 142 108
0.485235 -0.36337 -0.467 184 141 107
0.486125 -0.36337 -0.467 181 138 104
0.487014 -0.36337 -0.467 179 136 102
0.488949 -0.364149 -0.468 176 129 103
0.48984 -0.364149 -0.468 173 126 100
0.490731 -0.364149 -0.468 172 126 100
0.491623 -0.364149 -0.468 172 126 100
0.493567 -0.364927 -0.469 170 124 98
0.49446 -0.364927 -0.469 169 123 97
0.495353 -0.364927 -0.469 170 125 96
0.497305 -0.365705 -0.47 168 123 94
0.49926 -0.366483 -0.471 165 121 92
0.501219 -0.367261 -0.472 163 119 90
0.503182 -0.368039 -0.473 163 120 88
0.505149 -0.368817 -0.474 163 120 88
0.507119 -0.369595 -0.475 160 119 87
0.510163 -0.371151 -0.477 160 119 87
0.513214 -0.372708 -0.479 158 117 85
0.517347 -0.375042 -0.482 157 116 84
0.616 -0.435733 -0.56 204 201 192
0.620372 -0.438068 -0.563 203 200 191
0.623652 -0.439624 -0.565 206 202 193
0.910561 -0.448961 -0.577 207 209 195
0.91166 -0.448961 -0.577 207 209 195
0.913858 -0.448961 -0.577 207 209 195
0.914957 -0.448961 -0.577 207 210 193
0.916056 -0.448961 -0.577 207 210 193
0.917155 -0.448961 -0.577 207 210 193
0.918254 -0.448961 -0.577 206 209 192
0.919353 -0.448961 -0.577 206 209 192
0.923149 -0.449739 -0.578 207 210 193
0.92425 -0.449739 -0.578 207 210 193
0.92535 -0.449739 -0.578 206 209 192
0.926451 -0.449739 -0.578 206 209 192
0.927552 -0.449739 -0.578 206 209 192
0.928653 -0.449739 -0.578 207 210 193
0.929754 -0.449739 -0.578 207 210 193
0.930855 -0.449739 -0.578 207 210 193
0.931956 -0.449739 -0.578 206 209 192
0.933057 -0.449739 -0.578 206 209 192
0.934158 -0.449739 -0.578 205 207 193
0.935259 -0.449739 -0.578 206 208 194
0.99434 -0.452073 -0.581 205 207 194
0.995447 -0.452073 -0.581 205 207 194
0.996553 -0.452073 -0.581 205 207 194
0.99766 -0.452073 -0.581 205 207 194
0.0251067 -0.41964 -0.538 188 151 124
0.0259857 -0.4173 -0.535 190 153 126
0.0268029 -0.41418 -0.531 194 149 120
0.0276571 -0.41184 -0.528 193 148 119
0.0284457 -0.40872 -0.524 193 148 119
0.0292752 -0.40638 -0.521 195 150 121
0.0300933 -0.40404 -0.518 197 152 123
0.03096 -0.40248 -0.516 199 154 125
0.031819 -0.40092 -0.514 199 154 125
0.0327343 -0.40014 -0.513 199 154 125
0.0336457 -0.39936 -0.512 200 153 125
0.0345533 -0.39858 -0.511 202 155 127
0.0355267 -0.39858 -0.511 203 156 128
0.0365 -0.39858 -0.511 206 159 131
0.0374 -0.3978 -0.51 208 161 133
0.0383714 -0.3978 -0.51 209 162 134
0.0393429 -0.3978 -0.51 208 161 133
0.0402352 -0.39702 -0.509 208 161 133
0.0412048 -0.39702 -0.509 206 159 133
0.0422571 -0.3978 -0.51 205 158 130
0.0432286 -0.3978 -0.51 203 156 130
0.0442 -0.3978 -0.51 202 155 129
0.0451714 -0.3978 -0.51 203 156 130
0.0461429 -0.3978 -0.51 205 158 132
0.0470219 -0.39702 -0.509 204 157 129
0.0479914 -0.39702 -0.509 202 155 127
0.048961 -0.39702 -0.509 202 155 127
0.0499305 -0.39702 -0.509 202 155 127
0.0509 -0.39702 -0.509 200 153 125
0.0517676 -0.39624 -0.508 196 149 121
0.0527352 -0.39624 -0.508 196 149 121
0.0537029 -0.39624 -0.508 198 151 123
0.0546705 -0.39624 -0.508 196 151 122
0.0556381 -0.39624 -0.508 193 148 119
0.0566057 -0.39624 -0.508 191 144 114
0.0575733 -0.39624 -0.508 190 143 113
0.058541 -0.39624 -0.508 192 145 117
0.0595086 -0.39624 -0.508 193 146 118
0.0604762 -0.39624 -0.508 194 147 121
0.0615648 -0.39702 -0.509 194 147 121
0.0625343 -0.39702 -0.509 193 146 118
0.0635038 -0.39702 -0.509 191 144 116
0.0644733 -0.39702 -0.509 191 144 116
0.0655714 -0.3978 -0.51 192 145 117
0.0665429 -0.3978 -0.51 193 146 118
0.0675143 -0.3978 -0.51 193 146 118
0.06862 -0.39858 -0.511 192 145 117
0.0695933 -0.39858 -0.511 189 142 114
0.0707048 -0.39936 -0.512 187 140 114
0.07168 -0.39936 -0.512 185 138 112
0.0727971 -0.40014 -0.513 186 139 113
0.0737743 -0.40014 -0.513 189 142 116
0.0748971 -0.40092 -0.514 187 140 114
0.0760238 -0.4017 -0.515 187 140 114
0.0770048 -0.4017 -0.515 185 137 114
0.0779857 -0.4017 -0.515 181 133 110
0.07912 -0.40248 -0.516 183 135 112
0.0801029 -0.40248 -0.516 182 134 111
0.0812429 -0.40326 -0.517 182 134 111
0.0822276 -0.40326 -0.517 183 135 112
0.0833733 -0.40404 -0.518 182 134 111
0.0845229 -0.40482 -0.519 179 131 108
0.0856762 -0.4056 -0.52 176 128 106
0.0868333 -0.40638 -0.521 178 130 108
0.0879943 -0.40716 -0.522 179 131 109
0.0889886 -0.40716 -0.522 175 127 105
0.0899829 -0.40716 -0.522 175 127 105
0.0913257 -0.40872 -0.524 173 126 106
0.0925 -0.4095 -0.525 169 122 102
0.0936781 -0.41028 -0.526 163 120 101
0.09504 -0.41184 -0.528 162 119 100
0.0962276 -0.41262 -0.529 155 116 99
0.0976029 -0.41418 -0.531 150 111 94
0.0988 -0.41496 -0.532 145 109 97
0.100189 -0.41652 -0.534 145 109 97
0.101585 -0.41808 -0.536 140 107 98
0.102989 -0.41964 -0.538 138 105 96
0.1044 -0.4212 -0.54 132 105 98
0.105819 -0.42276 -0.542 129 102 95
0.12 -0.4368 -0.56 41 40 48
0.121283 -0.43758 -0.561 73 76 93
0.122351 -0.43758 -0.561 83 86 103
0.12342 -0.43758 -0.561 86 91 111
0.124489 -0.43758 -0.561 102 107 127
0.125557 -0.43758 -0.561 120 125 144
0.126626 -0.43758 -0.561 134 139 158
0.127694 -0.43758 -0.561 146 151 173
0.128763 -0.43758 -0.561 141 146 168
0.129831 -0.43758 -0.561 110 117 143
0.1309 -0.43758 -0.561 82 89 115
0.131969 -0.43758 -0.561 72 88 114
0.133037 -0.43758 -0.561 102 118 144
0.137311 -0.43758 -0.561 174 182 203
0.13838 -0.43758 -0.561 174 181 200
0.139449 -0.43758 -0.561 167 174 193
0.140517 -0.43758 -0.561 160 170 197
0.141586 -0.43758 -0.561 171 181 208
0.142654 -0.43758 -0.561 126 141 170
0.143723 -0.43758 -0.561 113 128 157
0.144791 -0.43758 -0.561 181 192 214
0.14586 -0.43758 -0.561 202 213 235
0.45756 -0.44772 -0.574 130 161 205
0.458653 -0.44772 -0.574 104 135 179
0.459747 -0.44772 -0.574 144 168 202
0.46084 -0.44772 -0.574 180 204 238
0.461933 -0.44772 -0.574 211 218 236
0.463027 -0.44772 -0.574 212 219 237
0.46412 -0.44772 -0.574 207 209 222
0.484643 -0.4485 -0.575 166 176 188
0.485738 -0.4485 -0.575 118 139 170
0.486833 -0.4485 -0.575 122 143 174
0.493873 -0.43446 -0.557 160 133 122
0.492269 -0.43212 -0.554 158 131 120
0.490652 -0.42978 -0.551 163 133 123
0.489025 -0.42744 -0.548 162 134 123
0.487386 -0.4251 -0.545 160 133 122
0.485735 -0.42276 -0.542 159 132 121
0.484971 -0.4212 -0.54 159 133 120
0.4833 -0.41886 -0.537 160 134 121
0.481617 -0.41652 -0.534 160 134 121
0.480827 -0.41496 -0.532 161 135 122
0.480029 -0.4134 -0.53 162 133 119
0.478315 -0.41106 -0.527 163 134 120
0.4775 -0.4095 -0.525 166 134 119
0.476677 -0.40794 -0.523 168 136 121
0.474933 -0.4056 -0.52 174 138 122
0.474093 -0.40404 -0.518 176 140 124
0.473246 -0.40248 -0.516 177 138 123
0.47239 -0.40092 -0.514 177 138 123
0.470607 -0.39858 -0.511 179 141 122
0.469734 -0.39702 -0.509 180 142 123
0.469779 -0.39624 -0.508 180 142 121
0.470747 -0.39624 -0.508 180 142 121
0.469857 -0.39468 -0.506 179 141 120
0.46989 -0.3939 -0.505 183 142 122
0.468988 -0.39234 -0.503 183 142 122
0.469011 -0.39156 -0.502 183 142 122
0.468095 -0.39 -0.5 185 144 124
0.46811 -0.38922 -0.499 183 142 120
0.46718 -0.38766 -0.497 187 146 124
0.467185 -0.38688 -0.496 188 147 125
0.467186 -0.3861 -0.495 187 146 124
0.467183 -0.38532 -0.494 186 144 120
0.467176 -0.38454 -0.493 185 143 119
0.467166 -0.38376 -0.492 184 144 119
0.467151 -0.38298 -0.491 186 146 121
0.467133 -0.3822 -0.49 186 146 121
0.467111 -0.38142 -0.489 186 146 121
0.467086 -0.38064 -0.488 186 146 120
0.467056 -0.37986 -0.487 187 147 121
0.467023 -0.37908 -0.486 188 148 122
0.466986 -0.3783 -0.485 187 147 121
0.466945 -0.37752 -0.484 186 144 119
0.4669 -0.37674 -0.483 186 144 119
0.466851 -0.37596 -0.482 187 146 118
0.46777 -0.37596 -0.482 188 147 119
0.467715 -0.37518 -0.481 189 148 120
0.467657 -0.3744 -0.48 189 148 120
0.467595 -0.37362 -0.479 190 149 119
0.46753 -0.37284 -0.478 189 148 118
0.46844 -0.37284 -0.478 191 147 118
0.468369 -0.37206 -0.477 192 148 119
0.468293 -0.37128 -0.476 193 149 120
0.4692 -0.37128 -0.476 194 150 121
0.469119 -0.3705 -0.475 194 151 119
0.470024 -0.3705 -0.475 192 149 117
0.470929 -0.3705 -0.475 190 147 115
0.471833 -0.3705 -0.475 190 147 115
0.471743 -0.36972 -0.474 191 148 116
0.472646 -0.36972 -0.474 191 148 116
0.473549 -0.36972 -0.474 189 144 113
0.47345 -0.36894 -0.473 190 145 114
0.474351 -0.36894 -0.473 190 145 112
0.474248 -0.36816 -0.472 190 145 112
0.475147 -0.36816 -0.472 189 144 111
0.475037 -0.36738 -0.471 189 144 111
0.475934 -0.36738 -0.471 190 145 112
0.476831 -0.36738 -0.471 191 146 113
0.476714 -0.3666 -0.47 190 145 114
0.476593 -0.36582 -0.469 189 144 113
0.477487 -0.36582 -0.469 188 143 110
0.47838 -0.36582 -0.469 187 142 109
0.478251 -0.36504 -0.468 186 141 108
0.479143 -0.36504 -0.468 186 141 108
0.480034 -0.36504 -0.468 186 143 109
0.479898 -0.36426 -0.467 186 141 110
0.480788 -0.36426 -0.467 183 140 106
0.480646 -0.36348 -0.466 186 143 109
0.481533 -0.36348 -0.466 187 144 110
0.482421 -0.36348 -0.466 186 143 109
0.483309 -0.36348 -0.466 185 142 108
0.484196 -0.36348 -0.466 184 141 107
0.485084 -0.36348 -0.466 182 139 105
0.485971 -0.36348 -0.466 180 137 103
0.487904 -0.36426 -0.467 174 128 102
0.488793 -0.36426 -0.467 172 126 100
0.489683 -0.36426 -0.467 172 126 100
0.490572 -0.36426 -0.467 172 126 100
0.492514 -0.36504 -0.468 169 125 98
0.493406 -0.36504 -0.468 167 123 96
0.494297 -0.36504 -0.468 168 124 97
0.496247 -0.36582 -0.469 169 125 98
0.4982 -0.3666 -0.47 166 122 95
0.500157 -0.36738 -0.471 164 120 93
0.502118 -0.36816 -0.472 162 121 91
0.504083 -0.36894 -0.473 162 121 91
0.506051 -0.36972 -0.474 162 121 91
0.508024 -0.3705 -0.475 161 120 90
0.512143 -0.37284 -0.478 160 119 89
0.5152 -0.3744 -0.48 158 117 87
0.6138 -0.43524 -0.558 198 198 190
0.618169 -0.43758 -0.561 202 202 194
0.622549 -0.43992 -0.564 202 199 190
0.888137 -0.44928 -0.576 208 210 196
0.889234 -0.44928 -0.576 209 211 197
0.890331 -0.44928 -0.576 208 211 194
0.891429 -0.44928 -0.576 207 210 193
0.892526 -0.44928 -0.576 207 210 193
0.91166 -0.45006 -0.577 208 210 196
0.911177 -0.44928 -0.576 208 210 196
0.912274 -0.44928 -0.576 208 210 196
0.913371 -0.44928 -0.576 207 210 193
0.916056 -0.45006 -0.577 207 210 193
0.917155 -0.45006 -0.577 207 210 193
0.918254 -0.45006 -0.577 207 210 193
0.919353 -0.45006 -0.577 207 210 193
0.920452 -0.45006 -0.577 207 210 193
0.921551 -0.45006 -0.577 207 210 193
0.922651 -0.45006 -0.577 207 210 193
0.92375 -0.45006 -0.577 206 209 192
0.924849 -0.45006 -0.577 206 209 192
0.925948 -0.45006 -0.577 206 209 192
0.927047 -0.45006 -0.577 206 209 192
0.928146 -0.45006 -0.577 206 209 192
0.935259 -0.45084 -0.578 206 209 192
0.93636 -0.45084 -0.578 205 208 191
0.937461 -0.45084 -0.578 205 208 191
0.938562 -0.45084 -0.578 207 210 193
1.00762 -0.45318 -0.581 205 207 193
1.00873 -0.45318 -0.581 205 207 193
1.00983 -0.45318 -0.581 204 206 192
1.01094 -0.45318 -0.581 204 206 192
1.01205 -0.45318 -0.581 204 206 192
0.0240819 -0.420665 -0.538 192 144 122
0.0250133 -0.419101 -0.536 188 148 123
0.02584 -0.415973 -0.532 189 149 124
0.0267019 -0.413628 -0.529 194 147 119
0.0275 -0.4105 -0.525 194 147 119
0.0283371 -0.408154 -0.522 195 150 121
0.0291067 -0.405027 -0.518 197 152 123
0.0299771 -0.403463 -0.516 200 153 125
0.03084 -0.401899 -0.514 200 153 125
0.0317571 -0.401117 -0.513 201 154 126
0.0326705 -0.400335 -0.512 201 154 126
0.03358 -0.399553 -0.511 202 155 127
0.0345533 -0.399553 -0.511 204 157 129
0.0354571 -0.398771 -0.51 205 158 130
0.0364286 -0.398771 -0.51 205 158 130
0.0374 -0.398771 -0.51 208 158 131
0.0383714 -0.398771 -0.51 208 158 131
0.0392657 -0.39799 -0.509 208 158 131
0.0402352 -0.39799 -0.509 208 158 131
0.0412048 -0.39799 -0.509 206 159 131
0.0421743 -0.39799 -0.509 204 157 131
0.0431438 -0.39799 -0.509 203 156 130
0.0441133 -0.39799 -0.509 203 156 130
0.0450829 -0.39799 -0.509 204 157 131
0.0460524 -0.39799 -0.509 203 156 130
0.0470219 -0.39799 -0.509 203 156 130
0.0479914 -0.39799 -0.509 204 157 131
0.048961 -0.39799 -0.509 204 157 131
0.0498324 -0.397208 -0.508 202 155 129
0.0508 -0.397208 -0.508 198 151 125
0.0517676 -0.397208 -0.508 194 147 121
0.0527352 -0.397208 -0.508 194 147 121
0.0537029 -0.397208 -0.508 197 150 124
0.0546705 -0.397208 -0.508 196 149 123
0.0556381 -0.397208 -0.508 192 145 119
0.0566057 -0.397208 -0.508 193 143 116
0.0575733 -0.397208 -0.508 194 144 117
0.058541 -0.397208 -0.508 194 144 119
0.0595086 -0.397208 -0.508 195 145 120
0.0604762 -0.397208 -0.508 196 146 121
0.0614438 -0.397208 -0.508 195 145 120
0.0624114 -0.397208 -0.508 192 145 119
0.0635038 -0.39799 -0.509 192 145 119
0.0644733 -0.39799 -0.509 194 147 119
0.0654429 -0.39799 -0.509 195 148 120
0.0665429 -0.398771 -0.51 195 148 120
0.0675143 -0.398771 -0.51 194 147 119
0.0684857 -0.398771 -0.51 192 145 119
0.0695933 -0.399553 -0.511 190 143 117
0.0705667 -0.399553 -0.511 187 140 114
0.07168 -0.400335 -0.512 186 139 113
0.0726552 -0.400335 -0.512 189 139 114
0.0737743 -0.401117 -0.513 193 143 118
0.0748971 -0.401899 -0.514 191 141 118
0.0758762 -0.401899 -0.514 190 140 117
0.0770048 -0.402681 -0.515 185 135 112
0.0779857 -0.402681 -0.515 182 132 109
0.07912 -0.403463 -0.516 184 136 113
0.0801029 -0.403463 -0.516 184 136 113
0.0812429 -0.404245 -0.517 184 136 113
0.0822276 -0.404245 -0.517 184 136 113
0.0833733 -0.405027 -0.518 182 134 112
0.0845229 -0.405809 -0.519 178 130 108
0.0856762 -0.40659 -0.52 173 125 103
0.0868333 -0.407372 -0.521 176 128 106
0.0878257 -0.407372 -0.521 176 128 106
0.0889886 -0.408154 -0.522 179 131 109
0.0901552 -0.408936 -0.523 173 125 103
0.0913257 -0.409718 -0.524 167 120 102
0.0925 -0.4105 -0.525 166 119 101
0.0938562 -0.412064 -0.527 160 117 100
0.09504 -0.412846 -0.528 158 115 98
0.0964095 -0.41441 -0.53 154 115 100
0.0976029 -0.415191 -0.531 151 112 97
0.0989857 -0.416755 -0.533 143 109 97
0.100376 -0.418319 -0.535 139 105 93
0.101774 -0.419883 -0.537 135 105 97
0.10318 -0.421447 -0.539 134 104 96
0.104593 -0.42301 -0.541 131 103 99
0.117656 -0.437085 -0.559 79 69 70
0.118721 -0.437085 -0.559 62 59 68
0.12 -0.437867 -0.56 79 76 85
0.121283 -0.438649 -0.561 105 107 120
0.122351 -0.438649 -0.561 106 108 121
0.12342 -0.438649 -0.561 108 110 125
0.124489 -0.438649 -0.561 121 123 138
0.125557 -0.438649 -0.561 135 137 152
0.126626 -0.438649 -0.561 144 146 161
0.127694 -0.438649 -0.561 144 150 166
0.128533 -0.437867 -0.56 140 146 162
0.1296 -0.437867 -0.56 116 123 142
0.130667 -0.437867 -0.56 82 89 108
0.131733 -0.437867 -0.56 77 85 104
0.1328 -0.437867 -0.56 117 125 144
0.133867 -0.437867 -0.56 155 163 184
0.134933 -0.437867 -0.56 173 181 202
0.136 -0.437867 -0.56 181 188 207
0.137067 -0.437867 -0.56 181 188 207
0.138133 -0.437867 -0.56 184 187 204
0.1392 -0.437867 -0.56 182 185 202
0.140267 -0.437867 -0.56 179 186 205
0.141333 -0.437867 -0.56 194 201 220
0.1424 -0.437867 -0.56 177 189 213
0.463027 -0.448813 -0.574 215 218 233
0.46412 -0.448813 -0.574 218 217 225
0.469587 -0.448813 -0.574 176 189 197
0.47068 -0.448813 -0.574 157 162 168
0.472867 -0.448813 -0.574 171 170 186
0.47396 -0.448813 -0.574 203 202 218
0.475053 -0.448813 -0.574 208 212 221
0.49476 -0.436303 -0.558 157 133 123
0.493157 -0.433957 -0.555 155 131 121
0.490652 -0.43083 -0.551 162 134 123
0.489917 -0.429266 -0.549 161 132 124
0.48828 -0.42692 -0.546 159 132 121
0.486631 -0.424574 -0.543 159 132 121
0.484971 -0.422229 -0.54 160 133 122
0.4833 -0.419883 -0.537 160 133 122
0.482519 -0.418319 -0.535 161 135 122
0.480827 -0.415973 -0.532 162 136 123
0.480029 -0.41441 -0.53 161 133 119
0.478315 -0.412064 -0.527 162 134 120
0.4775 -0.4105 -0.525 167 135 120
0.476677 -0.408936 -0.523 169 137 122
0.474933 -0.40659 -0.52 176 139 123
0.474093 -0.405027 -0.518 178 141 125
0.473246 -0.403463 -0.516 178 139 124
0.47239 -0.401899 -0.514 177 138 123
0.471528 -0.400335 -0.512 178 140 121
0.469734 -0.39799 -0.509 179 141 122
0.468854 -0.396426 -0.507 179 141 122
0.46982 -0.396426 -0.507 179 141 122
0.469857 -0.395644 -0.506 179 141 122
0.46896 -0.39408 -0.504 181 143 122
0.468988 -0.393298 -0.503 182 144 123
0.469011 -0.392516 -0.502 184 143 123
0.468095 -0.390952 -0.5 185 144 124
0.46811 -0.39017 -0.499 181 140 118
0.46718 -0.388607 -0.497 185 144 122
0.467185 -0.387825 -0.496 187 146 124
0.467186 -0.387043 -0.495 186 145 123
0.466237 -0.385479 -0.493 184 144 119
0.466229 -0.384697 -0.492 183 143 118
0.466216 -0.383915 -0.491 184 144 119
0.4662 -0.383133 -0.49 186 146 121
0.46618 -0.382351 -0.489 186 146 121
0.467111 -0.382351 -0.489 185 145 120
0.466129 -0.380788 -0.487 185 145 119
0.466097 -0.380006 -0.486 187 147 121
0.467023 -0.380006 -0.486 189 149 123
0.466986 -0.379224 -0.485 188 148 122
0.466945 -0.378442 -0.484 187 145 120
0.4669 -0.37766 -0.483 187 145 120
0.466851 -0.376878 -0.482 187 146 118
0.466799 -0.376096 -0.481 187 146 118
0.467715 -0.376096 -0.481 189 148 120
0.467657 -0.375314 -0.48 191 150 122
0.467595 -0.374532 -0.479 190 149 119
0.46753 -0.37375 -0.478 187 146 116
0.46746 -0.372969 -0.477 189 145 116
0.468369 -0.372969 -0.477 191 147 118
0.468293 -0.372187 -0.476 193 149 120
0.468214 -0.371405 -0.475 194 150 121
0.469119 -0.371405 -0.475 194 150 121
0.470024 -0.371405 -0.475 192 148 119
0.470929 -0.371405 -0.475 191 147 118
0.47084 -0.370623 -0.474 192 148 119
0.471743 -0.370623 -0.474 192 149 117
0.472646 -0.370623 -0.474 192 149 117
0.47255 -0.369841 -0.473 192 147 116
0.47345 -0.369841 -0.473 191 146 115
0.474351 -0.369841 -0.473 190 145 114
0.474248 -0.369059 -0.472 190 145 114
0.47414 -0.368277 -0.471 191 146 115
0.475037 -0.368277 -0.471 191 146 115
0.475934 -0.368277 -0.471 190 145 112
0.475819 -0.367495 -0.47 190 145 112
0.476714 -0.367495 -0.47 189 144 113
0.476593 -0.366713 -0.469 187 142 111
0.476469 -0.365931 -0.468 185 140 109
0.47736 -0.365931 -0.468 187 142 111
0.478251 -0.365931 -0.468 188 143 112
0.479143 -0.365931 -0.468 187 142 111
0.479009 -0.36515 -0.467 187 142 111
0.47887 -0.364368 -0.466 186 141 110
0.479758 -0.364368 -0.466 185 140 109
0.480646 -0.364368 -0.466 187 142 111
0.481533 -0.364368 -0.466 187 144 112
0.482421 -0.364368 -0.466 186 143 111
0.482271 -0.363586 -0.465 184 141 109
0.483157 -0.363586 -0.465 183 140 108
0.484043 -0.363586 -0.465 181 138 106
0.484929 -0.363586 -0.465 180 137 105
0.486859 -0.364368 -0.466 175 131 102
0.487747 -0.364368 -0.466 174 130 101
0.489683 -0.36515 -0.467 173 129 100
0.490572 -0.36515 -0.467 171 127 98
0.491462 -0.36515 -0.467 169 125 98
0.492351 -0.36515 -0.467 167 123 96
0.493241 -0.36515 -0.467 165 124 96
0.495189 -0.365931 -0.468 167 126 98
0.49608 -0.365931 -0.468 166 124 99
0.498033 -0.366713 -0.469 165 123 98
0.501054 -0.368277 -0.471 163 121 96
0.503017 -0.369059 -0.472 162 120 95
0.504984 -0.369841 -0.473 161 121 96
0.506954 -0.370623 -0.474 160 120 95
0.51 -0.372187 -0.476 159 119 94
0.513053 -0.37375 -0.478 157 117 92
0.911177 -0.450377 -0.576 207 209 195
0.912274 -0.450377 -0.576 208 210 196
0.913371 -0.450377 -0.576 207 210 193
0.914469 -0.450377 -0.576 207 210 193
0.915566 -0.450377 -0.576 207 210 193
0.916663 -0.450377 -0.576 207 210 193
0.91776 -0.450377 -0.576 207 210 193
0.918857 -0.450377 -0.576 207 210 193
0.919954 -0.450377 -0.576 207 210 193
0.921051 -0.450377 -0.576 207 210 193
0.922149 -0.450377 -0.576 207 210 193
0.924849 -0.451159 -0.577 207 210 193
0.925948 -0.451159 -0.577 206 209 190
0.927047 -0.451159 -0.577 206 209 190
0.928146 -0.451159 -0.577 206 209 190
0.929245 -0.451159 -0.577 207 210 191
0.930344 -0.451159 -0.577 207 210 191
0.931443 -0.451159 -0.577 207 210 191
0.932542 -0.451159 -0.577 206 209 192
0.933641 -0.451159 -0.577 206 209 192
0.93474 -0.451159 -0.577 206 209 192
0.935839 -0.451159 -0.577 206 209 192
0.936938 -0.451159 -0.577 207 210 193
0.994838 -0.453505 -0.58 204 206 192
0.995943 -0.453505 -0.58 204 206 192
0.997048 -0.453505 -0.58 204 206 192
0.0239924 -0.420122 -0.536 195 145 122
0.0248733 -0.41777 -0.533 194 149 126
0.0256943 -0.414635 -0.529 191 146 123
0.0265 -0.4115 -0.525 193 146 118
0.0273429 -0.409149 -0.522 194 147 119
0.0281743 -0.406797 -0.519 195 149 123
0.0289943 -0.404446 -0.516 196 150 124
0.029919 -0.403662 -0.515 197 150 122
0.03078 -0.402094 -0.513 198 151 123
0.0316333 -0.400527 -0.511 200 153 125
0.0326067 -0.400527 -0.511 199 152 124
0.03358 -0.400527 -0.511 206 157 127
0.0344857 -0.399743 -0.51 208 159 129
0.0354571 -0.399743 -0.51 207 160 132
0.0363571 -0.398959 -0.509 206 159 131
0.0373267 -0.398959 -0.509 207 157 130
0.0382962 -0.398959 -0.509 206 156 129
0.0392657 -0.398959 -0.509 206 157 127
0.0402352 -0.398959 -0.509 207 158 128
0.0412048 -0.398959 -0.509 206 159 129
0.0421743 -0.398959 -0.509 204 157 129
0.0431438 -0.398959 -0.509 202 155 127
0.0441133 -0.398959 -0.509 203 156 128
0.0450829 -0.398959 -0.509 204 157 129
0.0460524 -0.398959 -0.509 202 155 127
0.0470219 -0.398959 -0.509 202 155 127
0.0479914 -0.398959 -0.509 205 158 130
0.048961 -0.398959 -0.509 204 157 129
0.0498324 -0.398175 -0.508 202 155 127
0.0508 -0.398175 -0.508 199 152 124
0.0517676 -0.398175 -0.508 195 148 120
0.0527352 -0.398175 -0.508 194 147 119
0.0537029 -0.398175 -0.508 196 149 121
0.0546705 -0.398175 -0.508 195 148 122
0.0556381 -0.398175 -0.508 192 145 119
0.0566057 -0.398175 -0.508 193 146 120
0.0575733 -0.398175 -0.508 195 148 122
0.058541 -0.398175 -0.508 195 148 122
0.0593914 -0.397391 -0.507 194 147 121
0.0604762 -0.398175 -0.508 194 146 123
0.0614438 -0.398175 -0.508 192 144 121
0.0624114 -0.398175 -0.508 193 143 120
0.063379 -0.398175 -0.508 195 145 122
0.0644733 -0.398959 -0.509 196 146 123
0.0654429 -0.398959 -0.509 197 147 124
0.0664124 -0.398959 -0.509 197 147 124
0.0675143 -0.399743 -0.51 196 146 123
0.0684857 -0.399743 -0.51 195 145 122
0.0694571 -0.399743 -0.51 192 142 119
0.0705667 -0.400527 -0.511 190 140 117
0.07168 -0.40131 -0.512 189 139 116
0.0726552 -0.40131 -0.512 192 142 119
0.0737743 -0.402094 -0.513 194 144 121
0.0747514 -0.402094 -0.513 192 142 119
0.0758762 -0.402878 -0.514 190 140 117
0.0770048 -0.403662 -0.515 185 135 112
0.0779857 -0.403662 -0.515 183 133 110
0.07912 -0.404446 -0.516 184 136 113
0.0801029 -0.404446 -0.516 184 136 113
0.0812429 -0.40523 -0.517 186 138 115
0.0822276 -0.40523 -0.517 186 138 115
0.0833733 -0.406013 -0.518 185 137 115
0.0845229 -0.406797 -0.519 181 133 111
0.0855114 -0.406797 -0.519 181 133 111
0.0866667 -0.407581 -0.52 174 126 104
0.0878257 -0.408365 -0.521 174 126 104
0.0889886 -0.409149 -0.522 176 128 106
0.0901552 -0.409932 -0.523 170 122 100
0.0913257 -0.410716 -0.524 160 117 100
0.0925 -0.4115 -0.525 161 118 101
0.0938562 -0.413068 -0.527 159 116 100
0.09504 -0.413851 -0.528 155 112 96
0.0964095 -0.415419 -0.53 153 113 101
0.0976029 -0.416203 -0.531 152 112 100
0.0989857 -0.41777 -0.533 142 108 98
0.100376 -0.419338 -0.535 136 102 92
0.101774 -0.420906 -0.537 133 103 95
0.10318 -0.422473 -0.539 133 103 95
0.104593 -0.424041 -0.541 130 102 98
0.117656 -0.43815 -0.559 63 52 56
0.118933 -0.438933 -0.56 83 80 89
0.12 -0.438933 -0.56 109 106 115
0.121283 -0.439717 -0.561 112 110 121
0.122351 -0.439717 -0.561 118 116 127
0.12342 -0.439717 -0.561 128 126 137
0.124267 -0.438933 -0.56 139 137 148
0.125333 -0.438933 -0.56 148 148 160
0.1264 -0.438933 -0.56 155 155 167
0.127467 -0.438933 -0.56 150 154 166
0.128533 -0.438933 -0.56 147 151 163
0.129369 -0.43815 -0.559 126 132 148
0.130433 -0.43815 -0.559 83 89 105
0.138133 -0.438933 -0.56 196 199 216
0.1392 -0.438933 -0.56 193 196 213
0.140267 -0.438933 -0.56 185 192 208
0.141333 -0.438933 -0.56 196 203 219
0.1424 -0.438933 -0.56 197 210 229
0.143467 -0.438933 -0.56 180 193 212
0.144533 -0.438933 -0.56 122 134 158
0.1456 -0.438933 -0.56 135 147 171
0.461129 -0.449123 -0.573 211 217 231
0.46222 -0.449123 -0.573 214 220 234
0.463311 -0.449123 -0.573 222 222 232
0.476147 -0.449907 -0.574 201 207 221
0.47724 -0.449907 -0.574 208 210 223
0.478333 -0.449907 -0.574 208 210 223
0.479427 -0.449907 -0.574 210 212 225
0.48052 -0.449907 -0.574 208 210 222
0.481613 -0.449907 -0.574 206 208 220
0.482707 -0.449907 -0.574 203 210 226
0.4838 -0.449907 -0.574 186 193 209
0.484893 -0.449907 -0.574 144 162 186
0.485987 -0.449907 -0.574 119 137 161
0.48708 -0.449907 -0.574 121 146 177
0.493157 -0.435014 -0.555 159 135 125
0.491543 -0.432663 -0.552 161 132 124
0.489917 -0.430311 -0.549 160 132 121
0.48828 -0.42796 -0.546 160 132 121
0.486631 -0.425609 -0.543 161 133 122
0.484971 -0.423257 -0.54 160 134 121
0.4842 -0.42169 -0.538 160 134 121
0.482519 -0.419338 -0.535 161 135 120
0.480827 -0.416987 -0.532 161 135 120
0.480029 -0.415419 -0.53 163 134 118
0.479223 -0.413851 -0.528 165 136 120
0.4775 -0.4115 -0.525 170 137 120
0.476677 -0.409932 -0.523 172 139 122
0.474933 -0.407581 -0.52 176 139 123
0.474093 -0.406013 -0.518 177 140 124
0.473246 -0.404446 -0.516 178 139 122
0.47239 -0.402878 -0.514 177 138 121
0.471528 -0.40131 -0.512 178 140 121
0.470657 -0.399743 -0.51 178 140 121
0.468854 -0.397391 -0.507 180 142 123
0.468893 -0.396608 -0.506 180 142 123
0.469857 -0.396608 -0.506 180 142 123
0.46896 -0.39504 -0.504 180 142 121
0.468988 -0.394256 -0.503 183 145 124
0.468077 -0.392689 -0.501 186 145 125
0.468095 -0.391905 -0.5 185 144 124
0.467171 -0.390337 -0.498 181 140 118
0.46718 -0.389553 -0.497 183 142 120
0.466243 -0.387986 -0.495 185 144 122
0.466242 -0.387202 -0.494 185 144 122
0.466237 -0.386418 -0.493 184 144 119
0.466229 -0.385634 -0.492 184 144 119
0.466216 -0.38485 -0.491 186 144 120
0.4662 -0.384067 -0.49 186 144 120
0.46618 -0.383283 -0.489 188 148 123
0.466156 -0.382499 -0.488 185 145 120
0.467086 -0.382499 -0.488 186 144 120
0.466097 -0.380931 -0.486 187 145 121
0.466062 -0.380148 -0.485 189 147 122
0.466986 -0.380148 -0.485 189 147 122
0.466945 -0.379364 -0.484 188 146 121
0.4669 -0.37858 -0.483 186 144 119
0.466851 -0.377796 -0.482 187 146 118
0.466799 -0.377012 -0.481 187 146 118
0.466743 -0.376229 -0.48 191 147 120
0.467657 -0.376229 -0.48 193 149 122
0.467595 -0.375445 -0.479 192 148 121
0.46753 -0.374661 -0.478 190 146 119
0.46746 -0.373877 -0.477 190 146 117
0.467387 -0.373093 -0.476 191 147 118
0.468293 -0.373093 -0.476 190 149 119
0.468214 -0.37231 -0.475 191 150 120
0.469119 -0.37231 -0.475 191 150 120
0.469034 -0.371526 -0.474 191 150 120
0.469937 -0.371526 -0.474 193 149 120
0.47084 -0.371526 -0.474 194 150 121
0.471743 -0.371526 -0.474 193 149 120
0.471649 -0.370742 -0.473 193 149 120
0.47255 -0.370742 -0.473 193 150 118
0.47345 -0.370742 -0.473 191 148 116
0.473349 -0.369958 -0.472 190 145 114
0.474248 -0.369958 -0.472 189 144 113
0.47414 -0.369174 -0.471 190 145 114
0.475037 -0.369174 -0.471 192 147 116
0.474924 -0.36839 -0.47 193 148 117
0.475819 -0.36839 -0.47 193 148 117
0.4757 -0.367607 -0.469 191 146 115
0.476593 -0.367607 -0.469 186 141 110
0.476469 -0.366823 -0.468 184 139 108
0.47736 -0.366823 -0.468 188 143 112
0.478251 -0.366823 -0.468 190 145 114
0.478119 -0.366039 -0.467 188 143 112
0.479009 -0.366039 -0.467 185 140 109
0.47887 -0.365255 -0.466 187 142 111
0.478729 -0.364471 -0.465 185 140 109
0.479614 -0.364471 -0.465 185 140 109
0.4805 -0.364471 -0.465 186 141 110
0.481386 -0.364471 -0.465 186 141 110
0.482271 -0.364471 -0.465 184 141 109
0.483157 -0.364471 -0.465 183 140 108
0.484043 -0.364471 -0.465 182 139 107
0.484929 -0.364471 -0.465 180 137 105
0.485814 -0.364471 -0.465 178 135 103
0.4867 -0.364471 -0.465 178 135 103
0.488634 -0.365255 -0.466 174 131 99
0.489522 -0.365255 -0.466 171 128 96
0.49041 -0.365255 -0.466 169 128 98
0.491297 -0.365255 -0.466 166 125 95
0.493241 -0.366039 -0.467 165 124 96
0.49413 -0.366039 -0.467 166 125 97
0.49502 -0.366039 -0.467 167 127 101
0.496971 -0.366823 -0.468 166 126 100
0.498927 -0.367607 -0.469 163 123 98
0.500886 -0.36839 -0.47 161 121 96
0.503916 -0.369958 -0.472 161 121 96
0.505885 -0.370742 -0.473 159 119 94
0.508929 -0.37231 -0.475 155 117 94
0.510907 -0.373093 -0.476 154 116 93
0.911177 -0.451474 -0.576 206 208 194
0.912274 -0.451474 -0.576 206 208 194
0.911786 -0.45069 -0.575 207 209 195
0.912881 -0.45069 -0.575 207 209 195
0.913976 -0.45069 -0.575 207 209 195
0.915071 -0.45069 -0.575 207 209 195
0.91776 -0.451474 -0.576 207 210 193
0.918857 -0.451474 -0.576 207 210 193
0.919954 -0.451474 -0.576 207 210 193
0.921051 -0.451474 -0.576 207 210 193
0.922149 -0.451474 -0.576 207 210 193
0.923246 -0.451474 -0.576 207 210 193
0.924343 -0.451474 -0.576 207 210 193
0.92544 -0.451474 -0.576 207 210 193
0.926537 -0.451474 -0.576 207 210 191
0.927634 -0.451474 -0.576 207 210 191
0.928731 -0.451474 -0.576 207 210 191
0.929829 -0.451474 -0.576 207 210 191
0.93474 -0.452258 -0.577 207 210 193
0.935839 -0.452258 -0.577 207 210 193
0.936938 -0.452258 -0.577 207 210 193
0.938037 -0.452258 -0.577 207 210 193
0.939136 -0.452258 -0.577 207 210 193
1.00589 -0.45461 -0.58 205 207 193
1.00699 -0.45461 -0.58 204 206 192
1.0081 -0.45461 -0.58 205 207 193
1.0092 -0.45461 -0.58 205 207 193
1.0103 -0.45461 -0.58 204 206 192
1.01141 -0.45461 -0.58 204 206 192
1.01251 -0.45461 -0.58 204 206 192
0.0229714 -0.421143 -0.536 196 146 121
0.0238133 -0.418 -0.532 193 143 118
0.0246867 -0.415643 -0.529 193 147 124
0.0255486 -0.413286 -0.526 189 143 120
0.0263486 -0.410143 -0.522 193 146 118
0.0271857 -0.407786 -0.519 194 147 119
0.0280114 -0.405429 -0.516 195 150 121
0.0288819 -0.403857 -0.514 196 151 122
0.0298029 -0.403071 -0.513 196 151 122
0.03066 -0.4015 -0.511 197 152 123
0.0315714 -0.400714 -0.51 199 152 122
0.0325429 -0.400714 -0.51 198 151 121
0.0335143 -0.400714 -0.51 204 155 125
0.0344181 -0.399929 -0.509 209 160 130
0.0353876 -0.399929 -0.509 209 162 132
0.0363571 -0.399929 -0.509 208 161 131
0.0372533 -0.399143 -0.508 206 159 129
0.038221 -0.399143 -0.508 203 156 126
0.0391886 -0.399143 -0.508 204 155 123
0.0401562 -0.399143 -0.508 206 157 125
0.0411238 -0.399143 -0.508 206 160 127
0.0421743 -0.399929 -0.509 205 158 128
0.0431438 -0.399929 -0.509 202 157 124
0.0441133 -0.399929 -0.509 202 157 124
0.0449943 -0.399143 -0.508 203 158 127
0.0459619 -0.399143 -0.508 202 157 126
0.0469295 -0.399143 -0.508 202 155 125
0.0478971 -0.399143 -0.508 203 156 126
0.0488648 -0.399143 -0.508 202 155 127
0.0498324 -0.399143 -0.508 201 154 126
0.0508 -0.399143 -0.508 200 153 123
0.0516657 -0.398357 -0.507 198 151 121
0.0526314 -0.398357 -0.507 196 149 119
0.0535971 -0.398357 -0.507 195 148 118
0.0545629 -0.398357 -0.507 196 146 119
0.0555286 -0.398357 -0.507 193 143 116
0.0564943 -0.398357 -0.507 192 145 117
0.05746 -0.398357 -0.507 194 147 119
0.0584257 -0.398357 -0.507 195 148 120
0.0593914 -0.398357 -0.507 194 147 119
0.0603571 -0.398357 -0.507 193 146 118
0.0614438 -0.399143 -0.508 192 145 117
0.0624114 -0.399143 -0.508 192 145 119
0.063379 -0.399143 -0.508 194 147 121
0.0643467 -0.399143 -0.508 194 147 121
0.0654429 -0.399929 -0.509 195 148 122
0.0664124 -0.399929 -0.509 196 146 123
0.0673819 -0.399929 -0.509 195 145 122
0.0684857 -0.400714 -0.51 195 145 122
0.0694571 -0.400714 -0.51 193 143 120
0.0705667 -0.4015 -0.511 191 141 118
0.07154 -0.4015 -0.511 191 141 118
0.0726552 -0.402286 -0.512 193 143 120
0.0736305 -0.402286 -0.512 195 145 122
0.0747514 -0.403071 -0.513 193 143 120
0.0758762 -0.403857 -0.514 189 139 116
0.0768552 -0.403857 -0.514 186 136 113
0.0779857 -0.404643 -0.515 184 134 111
0.07912 -0.405429 -0.516 183 135 112
0.0801029 -0.405429 -0.516 184 136 113
0.0812429 -0.406214 -0.517 186 138 115
0.0822276 -0.406214 -0.517 186 138 115
0.0832124 -0.406214 -0.517 186 138 115
