ply
format ascii 1.0
comment Created by Open3D
element vertex 1292
property double x
property double y
property double z
property uchar red
property uchar green
property uchar blue
end_header
0.241071 -0.374405 -0.625 81 91 126
0.242262 -0.374405 -0.625 85 102 146
0.243452 -0.374405 -0.625 86 103 147
0.244643 -0.374405 -0.625 94 112 162
0.245833 -0.374405 -0.625 94 112 162
0.247024 -0.374405 -0.625 113 131 181
0.248214 -0.374405 -0.625 110 131 188
0.386431 -0.379197 -0.633 81 110 176
0.41789 -0.380395 -0.635 180 185 204
0.4191 -0.380395 -0.635 178 181 200
0.42031 -0.380395 -0.635 172 175 194
0.421519 -0.380395 -0.635 185 188 207
0.425817 -0.380994 -0.636 202 203 221
0.427029 -0.380994 -0.636 204 205 223
0.42824 -0.380994 -0.636 209 210 214
0.429451 -0.380994 -0.636 205 206 210
0.430663 -0.380994 -0.636 183 183 195
0.431874 -0.380994 -0.636 168 168 180
0.433086 -0.380994 -0.636 181 179 190
0.434297 -0.380994 -0.636 199 197 208
0.435509 -0.380994 -0.636 183 190 209
0.43672 -0.380994 -0.636 152 159 178
0.437931 -0.380994 -0.636 78 104 161
0.443473 -0.381593 -0.637 53 88 152
0.444687 -0.381593 -0.637 42 77 141
0.4459 -0.381593 -0.637 33 69 143
0.447113 -0.381593 -0.637 33 69 143
0.44903 -0.382192 -0.638 37 76 145
0.450246 -0.382192 -0.638 25 64 133
0.452169 -0.382791 -0.639 33 71 136
0.453386 -0.382791 -0.639 35 73 138
0.454603 -0.382791 -0.639 48 86 151
0.45582 -0.382791 -0.639 60 98 163
0.457037 -0.382791 -0.639 56 91 157
0.458971 -0.38339 -0.64 54 89 155
0.46019 -0.38339 -0.64 54 89 155
0.46141 -0.38339 -0.64 54 79 135
0.462629 -0.38339 -0.64 106 131 187
0.463848 -0.38339 -0.64 167 180 214
0.465067 -0.38339 -0.64 177 190 224
0.466286 -0.38339 -0.64 180 183 198
0.467505 -0.38339 -0.64 143 146 161
0.468724 -0.38339 -0.64 169 172 177
0.469943 -0.38339 -0.64 191 194 199
0.471162 -0.38339 -0.64 185 188 197
0.472381 -0.38339 -0.64 188 191 200
0.4736 -0.38339 -0.64 180 184 195
0.474819 -0.38339 -0.64 189 193 204
0.476038 -0.38339 -0.64 178 184 198
0.477257 -0.38339 -0.64 165 171 185
0.478476 -0.38339 -0.64 166 173 191
0.479695 -0.38339 -0.64 172 179 197
0.480914 -0.38339 -0.64 158 165 183
0.482133 -0.38339 -0.64 138 145 163
0.483352 -0.38339 -0.64 147 152 171
0.484571 -0.38339 -0.64 166 171 190
0.48579 -0.38339 -0.64 172 174 195
0.48701 -0.38339 -0.64 171 173 194
0.488229 -0.38339 -0.64 173 175 196
0.489448 -0.38339 -0.64 182 184 205
0.490667 -0.38339 -0.64 177 182 201
0.491886 -0.38339 -0.64 176 181 200
0.493105 -0.38339 -0.64 183 185 198
0.495096 -0.38399 -0.641 177 179 192
0.496317 -0.38399 -0.641 139 138 146
0.497538 -0.38399 -0.641 139 138 146
0.498759 -0.38399 -0.641 138 137 145
0.49998 -0.38399 -0.641 174 176 188
0.501201 -0.38399 -0.641 175 177 189
0.502422 -0.38399 -0.641 164 170 194
0.503643 -0.38399 -0.641 126 132 156
0.504076 -0.38339 -0.64 72 86 123
0.505295 -0.38339 -0.64 71 85 122
0.506514 -0.38339 -0.64 85 105 156
0.508527 -0.38399 -0.641 99 119 170
0.509748 -0.38399 -0.641 84 108 172
0.517012 -0.37081 -0.619 153 131 133
0.518191 -0.37081 -0.619 153 131 133
0.513497 -0.366617 -0.612 162 129 124
0.507935 -0.361825 -0.604 164 131 126
0.5015 -0.356433 -0.595 163 130 121
0.495875 -0.351641 -0.587 162 129 120
0.491067 -0.347448 -0.58 162 132 122
0.48708 -0.343853 -0.574 164 134 124
0.483921 -0.340858 -0.569 167 134 125
0.481595 -0.338462 -0.565 167 134 125
0.479254 -0.336066 -0.561 169 135 123
0.477754 -0.334269 -0.558 171 137 125
0.476243 -0.332471 -0.555 170 138 123
0.47558 -0.331273 -0.553 170 138 123
0.47491 -0.330075 -0.551 183 138 119
0.474231 -0.328877 -0.549 184 139 120
0.473546 -0.327679 -0.547 185 140 119
0.472852 -0.326481 -0.545 188 143 122
0.473021 -0.325882 -0.544 189 144 121
0.473186 -0.325283 -0.543 190 145 122
0.473347 -0.324684 -0.542 191 145 122
0.473504 -0.324085 -0.541 190 144 121
0.47278 -0.322887 -0.539 190 142 120
0.473807 -0.322887 -0.539 193 145 123
0.473952 -0.322288 -0.538 191 143 121
0.474977 -0.322288 -0.538 195 147 125
0.475117 -0.321689 -0.537 195 145 122
0.47614 -0.321689 -0.537 194 144 121
0.476274 -0.32109 -0.536 195 145 120
0.477295 -0.32109 -0.536 194 144 119
0.477424 -0.32049 -0.535 196 146 123
0.478443 -0.32049 -0.535 193 145 122
0.478566 -0.319891 -0.534 194 146 123
0.479583 -0.319891 -0.534 193 145 122
0.4806 -0.319891 -0.534 191 143 120
0.481617 -0.319891 -0.534 190 142 119
0.482634 -0.319891 -0.534 189 142 116
0.483651 -0.319891 -0.534 188 141 115
0.483761 -0.319292 -0.533 187 140 114
0.484776 -0.319292 -0.533 190 143 117
0.485791 -0.319292 -0.533 190 143 117
0.485893 -0.318693 -0.532 186 139 111
0.486907 -0.318693 -0.532 185 138 110
0.48792 -0.318693 -0.532 186 139 111
0.488933 -0.318693 -0.532 183 136 108
0.489026 -0.318094 -0.531 183 136 108
0.490037 -0.318094 -0.531 184 137 109
0.491049 -0.318094 -0.531 186 137 105
0.49206 -0.318094 -0.531 187 138 106
0.494 -0.318693 -0.532 187 138 108
0.495013 -0.318693 -0.532 186 137 107
0.496959 -0.319292 -0.533 182 135 107
0.497974 -0.319292 -0.533 178 131 103
0.49899 -0.319292 -0.533 174 128 102
0.500943 -0.319891 -0.534 175 129 103
0.50384 -0.32109 -0.536 169 124 101
0.505803 -0.321689 -0.537 167 122 99
0.508713 -0.322887 -0.539 163 121 99
0.511631 -0.324085 -0.541 161 119 97
0.514557 -0.325283 -0.543 159 118 98
0.51939 -0.327679 -0.547 159 118 98
0.608489 -0.375603 -0.627 204 203 198
0.0844333 -0.357567 -0.595 196 151 145
0.0851352 -0.355764 -0.592 196 145 142
0.0853886 -0.352158 -0.586 194 143 140
0.085619 -0.348552 -0.58 196 142 140
0.0859762 -0.345548 -0.575 193 139 137
0.0863143 -0.342543 -0.57 190 140 133
0.0867867 -0.340139 -0.566 190 140 133
0.0875543 -0.338937 -0.564 190 143 133
0.0883143 -0.337735 -0.562 192 145 135
0.0893848 -0.337735 -0.562 193 144 137
0.0902943 -0.337134 -0.561 194 145 138
0.0915257 -0.337735 -0.562 199 146 140
0.0924314 -0.337134 -0.561 198 145 139
0.0935 -0.337134 -0.561 198 145 137
0.0945686 -0.337134 -0.561 199 146 138
0.0954667 -0.336533 -0.56 202 149 145
0.0965333 -0.336533 -0.56 200 147 143
0.0974257 -0.335932 -0.559 197 147 140
0.0984905 -0.335932 -0.559 197 147 140
0.0993771 -0.335331 -0.558 198 145 137
0.10044 -0.335331 -0.558 197 144 136
0.101503 -0.335331 -0.558 195 142 134
0.102382 -0.33473 -0.557 194 141 133
0.103443 -0.33473 -0.557 194 141 135
0.104504 -0.33473 -0.557 190 137 131
0.105375 -0.33413 -0.556 192 139 135
0.106434 -0.33413 -0.556 194 141 137
0.1073 -0.333529 -0.555 192 137 132
0.108357 -0.333529 -0.555 191 136 131
0.109414 -0.333529 -0.555 190 136 126
0.110272 -0.332928 -0.554 187 133 123
0.111328 -0.332928 -0.554 190 133 122
0.112383 -0.332928 -0.554 189 132 121
0.113438 -0.332928 -0.554 188 132 119
0.114493 -0.332928 -0.554 182 126 113
0.115549 -0.332928 -0.554 182 126 113
0.116604 -0.332928 -0.554 182 126 113
0.117871 -0.333529 -0.555 181 125 112
0.118929 -0.333529 -0.555 174 118 105
0.120202 -0.33413 -0.556 178 122 107
0.121261 -0.33413 -0.556 179 123 108
0.12232 -0.33413 -0.556 179 123 108
0.123601 -0.33473 -0.557 176 120 105
0.124662 -0.33473 -0.557 173 117 100
0.125723 -0.33473 -0.557 172 116 99
0.127011 -0.335331 -0.558 170 114 97
0.128074 -0.335331 -0.558 170 114 97
0.129137 -0.335331 -0.558 167 111 94
0.130433 -0.335932 -0.559 161 107 97
0.131733 -0.336533 -0.56 158 104 94
0.133037 -0.337134 -0.561 154 100 90
0.134345 -0.337735 -0.562 152 98 88
0.135415 -0.337735 -0.562 152 100 89
0.136729 -0.338336 -0.563 150 98 87
0.138046 -0.338937 -0.564 147 95 84
0.139367 -0.339538 -0.565 146 94 83
0.140691 -0.340139 -0.566 147 94 86
0.14177 -0.340139 -0.566 148 95 87
0.1431 -0.34074 -0.567 148 95 87
0.144434 -0.341341 -0.568 147 94 86
0.145516 -0.341341 -0.568 146 93 85
0.146856 -0.341942 -0.569 145 92 84
0.1482 -0.342543 -0.57 143 90 82
0.149286 -0.342543 -0.57 140 87 79
0.150635 -0.343144 -0.571 137 89 77
0.151723 -0.343144 -0.571 136 88 76
0.15281 -0.343144 -0.571 135 87 75
0.154168 -0.343745 -0.572 134 86 74
0.155257 -0.343745 -0.572 133 85 75
0.15662 -0.344346 -0.573 133 85 75
0.157987 -0.344947 -0.574 133 86 76
0.15908 -0.344947 -0.574 134 87 77
0.160173 -0.344947 -0.574 133 86 78
0.161548 -0.345548 -0.575 131 84 76
0.162926 -0.346149 -0.576 128 84 75
0.164023 -0.346149 -0.576 128 84 75
0.165407 -0.34675 -0.577 129 84 78
0.166794 -0.34735 -0.578 128 83 77
0.167895 -0.34735 -0.578 126 81 75
0.169289 -0.347951 -0.579 125 80 74
0.170686 -0.348552 -0.58 124 79 74
0.172087 -0.349153 -0.581 123 78 73
0.173491 -0.349754 -0.582 122 77 72
0.1749 -0.350355 -0.583 122 77 72
0.176312 -0.350956 -0.584 124 79 74
0.177729 -0.351557 -0.585 125 80 75
0.179149 -0.352158 -0.586 124 80 77
0.180572 -0.352759 -0.587 123 79 76
0.182 -0.35336 -0.588 121 80 76
0.183743 -0.354562 -0.59 121 80 76
0.18518 -0.355163 -0.591 122 81 77
0.186621 -0.355764 -0.592 123 82 78
0.187749 -0.355764 -0.592 123 82 80
0.189195 -0.356365 -0.593 123 82 80
0.190967 -0.357567 -0.595 123 82 80
0.1921 -0.357567 -0.595 123 82 80
0.193558 -0.358168 -0.596 122 81 79
0.195347 -0.35937 -0.598 121 80 76
0.197143 -0.360571 -0.6 122 81 77
0.198947 -0.361773 -0.602 118 84 83
0.200758 -0.362975 -0.604 122 88 87
0.223687 -0.374393 -0.623 165 159 173
0.227611 -0.374994 -0.624 166 171 191
0.2288 -0.374994 -0.624 171 176 196
0.229989 -0.374994 -0.624 173 178 197
0.231177 -0.374994 -0.624 175 180 199
0.232366 -0.374994 -0.624 175 176 194
0.233554 -0.374994 -0.624 181 182 200
0.234743 -0.374994 -0.624 186 187 207
0.235931 -0.374994 -0.624 175 176 196
0.23712 -0.374994 -0.624 146 152 178
0.238309 -0.374994 -0.624 122 128 154
0.239497 -0.374994 -0.624 94 103 134
0.240686 -0.374994 -0.624 95 104 135
0.241874 -0.374994 -0.624 104 118 155
0.426357 -0.381605 -0.635 204 202 215
0.427567 -0.381605 -0.635 209 208 213
0.429451 -0.382206 -0.636 178 177 182
0.430663 -0.382206 -0.636 155 154 160
0.431874 -0.382206 -0.636 160 159 165
0.433086 -0.382206 -0.636 191 187 201
0.434297 -0.382206 -0.636 183 179 193
0.435509 -0.382206 -0.636 166 176 188
0.43672 -0.382206 -0.636 124 134 146
0.437931 -0.382206 -0.636 70 99 165
0.439143 -0.382206 -0.636 63 92 158
0.440354 -0.382206 -0.636 58 99 163
0.441566 -0.382206 -0.636 45 86 150
0.442777 -0.382206 -0.636 39 76 146
0.443989 -0.382206 -0.636 37 74 144
0.4452 -0.382206 -0.636 32 69 140
0.447113 -0.382807 -0.637 32 69 140
0.448327 -0.382807 -0.637 29 70 136
0.44954 -0.382807 -0.637 21 62 128
0.451461 -0.383408 -0.638 27 66 131
0.452676 -0.383408 -0.638 32 71 136
0.453891 -0.383408 -0.638 35 74 143
0.455107 -0.383408 -0.638 40 79 148
0.456322 -0.383408 -0.638 46 85 154
0.458254 -0.384009 -0.639 51 90 159
0.459471 -0.384009 -0.639 51 90 159
0.460689 -0.384009 -0.639 58 87 145
0.461906 -0.384009 -0.639 87 116 174
0.463123 -0.384009 -0.639 142 155 190
0.46434 -0.384009 -0.639 162 175 210
0.465557 -0.384009 -0.639 172 174 187
0.466774 -0.384009 -0.639 176 178 191
0.467991 -0.384009 -0.639 144 145 147
0.469209 -0.384009 -0.639 148 149 151
0.470426 -0.384009 -0.639 180 179 185
0.471643 -0.384009 -0.639 192 191 197
0.47286 -0.384009 -0.639 181 181 191
0.474077 -0.384009 -0.639 182 182 192
0.475294 -0.384009 -0.639 161 167 183
0.476511 -0.384009 -0.639 144 150 166
0.477729 -0.384009 -0.639 146 153 172
0.478946 -0.384009 -0.639 148 155 174
0.480163 -0.384009 -0.639 145 153 174
0.48138 -0.384009 -0.639 125 133 154
0.482597 -0.384009 -0.639 133 139 161
0.483814 -0.384009 -0.639 145 151 173
0.485031 -0.384009 -0.639 148 153 173
0.486249 -0.384009 -0.639 143 148 168
0.487466 -0.384009 -0.639 145 147 168
0.488683 -0.384009 -0.639 168 170 191
0.4899 -0.384009 -0.639 183 182 200
0.491117 -0.384009 -0.639 182 181 199
0.493105 -0.38461 -0.64 170 170 180
0.494324 -0.38461 -0.64 145 145 155
0.495543 -0.38461 -0.64 145 144 149
0.496762 -0.38461 -0.64 145 144 149
0.497981 -0.38461 -0.64 173 172 177
0.4992 -0.38461 -0.64 176 176 184
0.500419 -0.38461 -0.64 172 172 180
0.501638 -0.38461 -0.64 170 176 198
0.502857 -0.38461 -0.64 155 161 183
0.504076 -0.38461 -0.64 100 113 155
0.505295 -0.38461 -0.64 61 74 116
0.506514 -0.38461 -0.64 47 67 126
0.507733 -0.38461 -0.64 58 78 137
0.508952 -0.38461 -0.64 60 84 148
0.518683 -0.373191 -0.621 153 133 134
0.514843 -0.369586 -0.615 162 131 128
0.516014 -0.369586 -0.615 162 131 128
0.511299 -0.365379 -0.608 158 127 124
0.504871 -0.35997 -0.599 168 135 128
0.499254 -0.355163 -0.591 164 131 124
0.493607 -0.350355 -0.583 164 131 122
0.489626 -0.34675 -0.577 165 132 123
0.486472 -0.343745 -0.572 167 133 124
0.4833 -0.34074 -0.567 167 133 124
0.480963 -0.338336 -0.563 170 133 124
0.479467 -0.336533 -0.56 172 135 126
0.477959 -0.33473 -0.557 171 138 123
0.47644 -0.332928 -0.554 171 138 123
0.47491 -0.331125 -0.551 179 136 117
0.474231 -0.329923 -0.549 180 137 118
0.473546 -0.328721 -0.547 183 141 119
0.47372 -0.32812 -0.546 185 143 121
0.473021 -0.326918 -0.544 189 144 121
0.473186 -0.326317 -0.543 190 145 122
0.473347 -0.325716 -0.542 189 144 121
0.473504 -0.325115 -0.541 189 144 121
0.473657 -0.324514 -0.54 189 143 120
0.473807 -0.323913 -0.539 192 146 123
0.473952 -0.323312 -0.538 188 142 119
0.474977 -0.323312 -0.538 192 146 123
0.475117 -0.322711 -0.537 193 145 122
0.475253 -0.32211 -0.536 193 145 122
0.476274 -0.32211 -0.536 193 146 120
0.477295 -0.32211 -0.536 192 145 119
0.477424 -0.32151 -0.535 193 145 122
0.478443 -0.32151 -0.535 193 145 122
0.478566 -0.320909 -0.534 194 146 123
0.479583 -0.320909 -0.534 193 145 122
0.4806 -0.320909 -0.534 192 144 121
0.480715 -0.320308 -0.533 191 143 120
0.48173 -0.320308 -0.533 191 144 118
0.482746 -0.320308 -0.533 190 143 117
0.483761 -0.320308 -0.533 188 141 115
0.483867 -0.319707 -0.532 191 144 118
0.48488 -0.319707 -0.532 187 140 114
0.485893 -0.319707 -0.532 187 140 114
0.486907 -0.319707 -0.532 186 139 113
0.48792 -0.319707 -0.532 188 141 113
0.488014 -0.319106 -0.531 186 139 111
0.489026 -0.319106 -0.531 184 137 109
0.490037 -0.319106 -0.531 185 138 110
0.491049 -0.319106 -0.531 187 136 107
0.49206 -0.319106 -0.531 188 137 108
0.493071 -0.319106 -0.531 186 137 107
0.494083 -0.319106 -0.531 186 137 107
0.496027 -0.319707 -0.532 184 137 109
0.49704 -0.319707 -0.532 181 134 106
0.498053 -0.319707 -0.532 176 130 106
0.500005 -0.320308 -0.533 176 130 106
0.50196 -0.320909 -0.534 171 126 103
0.504861 -0.32211 -0.536 168 123 100
0.506826 -0.322711 -0.537 164 122 100
0.50974 -0.323913 -0.539 163 121 99
0.512662 -0.325115 -0.541 160 119 99
0.603636 -0.373792 -0.622 205 200 194
0.609683 -0.376797 -0.627 211 206 200
0.08344 -0.359303 -0.596 201 152 148
0.0840076 -0.356891 -0.592 198 149 145
0.0847038 -0.355083 -0.589 196 142 142
0.0849514 -0.351466 -0.583 195 141 141
0.0851762 -0.347849 -0.577 197 141 140
0.0855276 -0.344834 -0.572 195 139 138
0.0860114 -0.342423 -0.568 190 140 133
0.0866333 -0.340614 -0.565 190 140 133
0.0873991 -0.339409 -0.563 190 143 133
0.0881571 -0.338203 -0.561 192 145 135
0.0892257 -0.338203 -0.561 193 144 137
0.0902943 -0.338203 -0.561 194 145 138
0.0913629 -0.338203 -0.561 198 145 139
0.0922667 -0.3376 -0.56 198 145 139
0.0933333 -0.3376 -0.56 199 145 135
0.0944 -0.3376 -0.56 201 147 137
0.0952962 -0.336997 -0.559 202 149 143
0.096361 -0.336997 -0.559 200 147 141
0.0974257 -0.336997 -0.559 199 146 140
0.0983143 -0.336394 -0.558 199 146 140
0.0993771 -0.336394 -0.558 199 146 140
0.10044 -0.336394 -0.558 198 145 139
0.101321 -0.335791 -0.557 197 142 135
0.102382 -0.335791 -0.557 194 139 132
0.103257 -0.335189 -0.556 192 137 130
0.104316 -0.335189 -0.556 190 135 128
0.105375 -0.335189 -0.556 192 137 132
0.106243 -0.334586 -0.555 194 139 134
0.1073 -0.334586 -0.555 193 138 131
0.108357 -0.334586 -0.555 193 138 131
0.109217 -0.333983 -0.554 195 138 129
0.110272 -0.333983 -0.554 193 136 127
0.111328 -0.333983 -0.554 192 136 123
0.112383 -0.333983 -0.554 191 135 122
0.113438 -0.333983 -0.554 187 131 116
0.114493 -0.333983 -0.554 178 122 107
0.115549 -0.333983 -0.554 178 122 107
0.116604 -0.333983 -0.554 178 122 107
0.117659 -0.333983 -0.554 179 123 108
0.118929 -0.334586 -0.555 173 117 102
0.119986 -0.334586 -0.555 177 121 106
0.121261 -0.335189 -0.556 177 121 106
0.12232 -0.335189 -0.556 177 121 104
0.123601 -0.335791 -0.557 175 119 102
0.124662 -0.335791 -0.557 172 115 98
0.125723 -0.335791 -0.557 170 113 96
0.127011 -0.336394 -0.558 167 109 95
0.128074 -0.336394 -0.558 167 109 95
0.129369 -0.336997 -0.559 164 106 92
0.130433 -0.336997 -0.559 160 106 94
0.131733 -0.3376 -0.56 158 104 92
0.133037 -0.338203 -0.561 156 102 92
0.134345 -0.338806 -0.562 154 100 90
0.135656 -0.339409 -0.563 153 99 89
0.136971 -0.340011 -0.564 151 97 87
0.138046 -0.340011 -0.564 149 95 85
0.139367 -0.340614 -0.565 148 94 84
0.140691 -0.341217 -0.566 148 93 86
0.14202 -0.34182 -0.567 150 95 88
0.1431 -0.34182 -0.567 149 96 88
0.144434 -0.342423 -0.568 147 94 86
0.145772 -0.343026 -0.569 145 92 84
0.146856 -0.343026 -0.569 144 91 83
0.1482 -0.343629 -0.57 141 88 80
0.149286 -0.343629 -0.57 140 87 79
0.150635 -0.344231 -0.571 137 89 77
0.151723 -0.344231 -0.571 136 88 76
0.153078 -0.344834 -0.572 135 87 75
0.154168 -0.344834 -0.572 133 85 73
0.155529 -0.345437 -0.573 131 84 74
0.15662 -0.345437 -0.573 134 87 77
0.157987 -0.34604 -0.574 137 89 79
0.15908 -0.34604 -0.574 136 88 78
0.160452 -0.346643 -0.575 131 84 74
0.161548 -0.346643 -0.575 132 85 75
0.162926 -0.347246 -0.576 129 85 76
0.164308 -0.347849 -0.577 129 85 76
0.165693 -0.348451 -0.578 129 84 78
0.166794 -0.348451 -0.578 129 84 78
0.168186 -0.349054 -0.579 128 81 73
0.169581 -0.349657 -0.58 127 80 72
0.17098 -0.35026 -0.581 125 80 77
0.172383 -0.350863 -0.582 122 77 74
0.17379 -0.351466 -0.583 121 76 71
0.1752 -0.352069 -0.584 122 77 72
0.176614 -0.352671 -0.585 124 79 74
0.178032 -0.353274 -0.586 125 80 75
0.179454 -0.353877 -0.587 124 80 77
0.181188 -0.355083 -0.589 123 79 76
0.182619 -0.355686 -0.59 121 80 78
0.184054 -0.356289 -0.591 121 80 78
0.185807 -0.357494 -0.593 122 81 79
0.186621 -0.356891 -0.592 123 82 78
0.188066 -0.357494 -0.593 124 83 79
0.189833 -0.3587 -0.595 125 84 80
0.190967 -0.3587 -0.595 125 84 80
0.192746 -0.359906 -0.597 124 84 82
0.194208 -0.360509 -0.598 123 83 81
0.196 -0.361714 -0.6 122 83 78
0.1978 -0.36292 -0.602 122 83 78
0.22606 -0.37558 -0.623 171 170 188
0.227247 -0.37558 -0.623 166 171 191
0.228433 -0.37558 -0.623 173 178 198
0.22962 -0.37558 -0.623 176 179 198
0.230807 -0.37558 -0.623 178 181 200
0.231993 -0.37558 -0.623 178 179 199
0.233554 -0.376183 -0.624 179 180 200
0.234743 -0.376183 -0.624 177 179 202
0.235931 -0.376183 -0.624 163 165 188
0.23712 -0.376183 -0.624 110 117 145
0.238309 -0.376183 -0.624 80 87 115
0.239497 -0.376183 -0.624 104 113 142
0.240686 -0.376183 -0.624 144 153 182
0.241874 -0.376183 -0.624 151 161 196
0.243063 -0.376183 -0.624 131 141 176
0.244251 -0.376183 -0.624 131 141 176
0.24544 -0.376183 -0.624 127 145 185
0.419648 -0.382211 -0.634 177 182 201
0.420855 -0.382211 -0.634 186 185 199
0.422063 -0.382211 -0.634 186 185 199
0.42327 -0.382211 -0.634 204 203 217
0.424478 -0.382211 -0.634 207 204 213
0.429986 -0.382814 -0.635 161 161 169
0.431195 -0.382814 -0.635 195 195 203
0.432405 -0.382814 -0.635 202 201 219
0.433614 -0.382814 -0.635 202 201 219
0.434824 -0.382814 -0.635 189 202 221
0.436033 -0.382814 -0.635 147 160 179
0.437243 -0.382814 -0.635 55 87 148
0.438452 -0.382814 -0.635 41 73 134
0.439662 -0.382814 -0.635 43 84 146
0.440871 -0.382814 -0.635 53 94 156
0.442081 -0.382814 -0.635 72 109 177
0.446411 -0.383417 -0.636 41 78 146
0.447623 -0.383417 -0.636 32 75 144
0.448834 -0.383417 -0.636 35 78 147
0.450046 -0.383417 -0.636 46 85 152
0.451967 -0.38402 -0.637 60 99 166
0.45318 -0.38402 -0.637 62 101 168
0.454393 -0.38402 -0.637 48 87 154
0.455607 -0.38402 -0.637 44 81 149
0.45682 -0.38402 -0.637 39 76 144
0.458033 -0.38402 -0.637 39 76 144
0.459968 -0.384623 -0.638 39 65 124
0.461183 -0.384623 -0.638 88 114 173
0.462398 -0.384623 -0.638 148 162 201
0.463613 -0.384623 -0.638 164 178 217
0.464829 -0.384623 -0.638 180 183 200
0.466044 -0.384623 -0.638 183 186 203
0.467259 -0.384623 -0.638 181 182 186
0.468474 -0.384623 -0.638 131 132 136
0.46969 -0.384623 -0.638 142 137 143
0.470905 -0.384623 -0.638 178 173 179
0.47212 -0.384623 -0.638 188 186 197
0.473335 -0.384623 -0.638 181 179 190
0.47455 -0.384623 -0.638 148 151 166
0.475766 -0.384623 -0.638 132 135 150
0.476981 -0.384623 -0.638 140 147 166
0.478196 -0.384623 -0.638 142 149 168
0.479411 -0.384623 -0.638 135 143 166
0.480627 -0.384623 -0.638 115 123 146
0.481842 -0.384623 -0.638 114 122 145
0.483057 -0.384623 -0.638 125 133 156
0.485031 -0.385226 -0.639 143 148 170
0.486249 -0.385226 -0.639 139 144 166
0.487466 -0.385226 -0.639 127 129 150
0.488683 -0.385226 -0.639 143 145 166
0.4899 -0.385226 -0.639 180 177 188
0.491117 -0.385226 -0.639 174 171 182
0.492334 -0.385226 -0.639 135 134 139
0.493551 -0.385226 -0.639 123 122 127
0.495543 -0.385829 -0.64 165 163 168
0.496762 -0.385829 -0.64 165 163 168
0.497981 -0.385829 -0.64 175 173 178
0.4992 -0.385829 -0.64 166 163 174
0.500419 -0.385829 -0.64 164 161 172
0.501638 -0.385829 -0.64 159 161 182
0.502857 -0.385829 -0.64 134 136 157
0.503289 -0.385226 -0.639 88 101 145
0.504506 -0.385226 -0.639 65 78 122
0.505723 -0.385226 -0.639 53 73 134
0.50694 -0.385226 -0.639 47 67 128
0.508157 -0.385226 -0.639 46 68 126
0.509374 -0.385226 -0.639 40 62 120
0.516517 -0.371963 -0.617 162 132 130
0.517692 -0.371963 -0.617 162 132 130
0.513822 -0.368346 -0.611 160 130 128
0.508243 -0.363523 -0.603 165 132 125
0.502633 -0.3587 -0.595 162 129 122
0.496993 -0.353877 -0.587 163 130 121
0.492171 -0.349657 -0.58 163 130 121
0.488173 -0.34604 -0.574 166 129 123
0.485005 -0.343026 -0.569 167 130 124
0.482671 -0.340614 -0.565 170 132 123
0.480323 -0.338203 -0.561 172 134 125
0.478817 -0.336394 -0.558 172 136 122
0.4773 -0.334586 -0.555 172 136 122
0.476633 -0.33338 -0.553 177 136 116
0.475095 -0.331571 -0.55 179 138 118
0.474411 -0.330366 -0.548 182 140 118
0.47372 -0.32916 -0.546 184 142 120
0.47389 -0.328557 -0.545 186 144 120
0.474057 -0.327954 -0.544 186 144 120
0.473347 -0.326749 -0.542 186 144 120
0.473504 -0.326146 -0.541 187 145 121
0.473657 -0.325543 -0.54 189 144 121
0.473807 -0.32494 -0.539 191 146 123
0.473952 -0.324337 -0.538 188 142 118
0.474977 -0.324337 -0.538 191 145 121
0.475117 -0.323734 -0.537 192 146 120
0.475253 -0.323131 -0.536 193 147 121
0.476274 -0.323131 -0.536 192 146 120
0.476405 -0.322529 -0.535 192 146 120
0.477424 -0.322529 -0.535 192 144 121
0.478443 -0.322529 -0.535 193 145 122
0.478566 -0.321926 -0.534 193 145 122
0.479583 -0.321926 -0.534 193 145 122
0.4806 -0.321926 -0.534 192 144 121
0.480715 -0.321323 -0.533 192 145 119
0.48173 -0.321323 -0.533 191 144 116
0.482746 -0.321323 -0.533 190 143 115
0.482853 -0.32072 -0.532 189 142 114
0.483867 -0.32072 -0.532 191 144 116
0.48488 -0.32072 -0.532 191 141 116
0.485893 -0.32072 -0.532 191 141 116
0.485991 -0.320117 -0.531 189 139 114
0.487003 -0.320117 -0.531 190 140 113
0.488014 -0.320117 -0.531 190 140 113
0.489026 -0.320117 -0.531 185 138 110
0.490037 -0.320117 -0.531 185 138 110
0.490124 -0.319514 -0.53 186 137 107
0.491133 -0.319514 -0.53 187 138 108
0.492143 -0.319514 -0.53 187 137 110
0.494083 -0.320117 -0.531 187 137 110
0.495094 -0.320117 -0.531 185 138 112
0.496106 -0.320117 -0.531 183 136 110
0.498053 -0.32072 -0.532 179 133 109
0.499067 -0.32072 -0.532 177 131 107
0.50102 -0.321323 -0.533 172 127 104
0.502977 -0.321926 -0.534 170 125 102
0.505882 -0.323131 -0.536 165 123 101
0.507849 -0.323734 -0.537 163 121 99
0.510767 -0.32494 -0.539 161 120 98
0.0823048 -0.360438 -0.596 185 156 140
0.08302 -0.358624 -0.593 200 149 146
0.0835819 -0.356205 -0.589 198 147 144
0.0842724 -0.35439 -0.586 195 144 140
0.0843686 -0.350157 -0.579 193 142 138
0.0845857 -0.346529 -0.573 191 140 136
0.085079 -0.34411 -0.569 191 140 136
0.0855571 -0.34169 -0.565 194 141 137
0.0863267 -0.340481 -0.563 195 142 138
0.0872438 -0.339876 -0.562 195 142 138
0.088 -0.338667 -0.56 195 142 138
0.0892257 -0.339271 -0.561 193 144 137
0.0901333 -0.338667 -0.56 193 144 137
0.0912 -0.338667 -0.56 198 145 139
0.0922667 -0.338667 -0.56 198 145 139
0.0931667 -0.338062 -0.559 198 144 134
0.0942314 -0.338062 -0.559 199 145 135
0.0951257 -0.337457 -0.558 202 147 140
0.0961886 -0.337457 -0.558 201 146 139
0.0972514 -0.337457 -0.558 199 146 142
0.0983143 -0.337457 -0.558 199 146 142
0.099199 -0.336852 -0.557 200 147 143
0.10026 -0.336852 -0.557 199 146 142
0.101321 -0.336852 -0.557 197 142 137
0.102198 -0.336248 -0.556 194 139 134
0.103257 -0.336248 -0.556 193 139 129
0.104316 -0.336248 -0.556 191 137 127
0.105186 -0.335643 -0.555 191 137 127
0.106243 -0.335643 -0.555 192 138 128
0.107107 -0.335038 -0.554 193 139 129
0.108162 -0.335038 -0.554 193 139 129
0.109217 -0.335038 -0.554 194 137 128
0.110073 -0.334433 -0.553 193 136 127
0.111127 -0.334433 -0.553 188 134 122
0.11218 -0.334433 -0.553 189 135 123
0.113233 -0.334433 -0.553 188 132 119
0.114287 -0.334433 -0.553 179 123 110
0.11534 -0.334433 -0.553 179 123 110
0.116604 -0.335038 -0.554 178 122 109
0.117659 -0.335038 -0.554 177 121 108
0.118714 -0.335038 -0.554 172 116 103
0.119986 -0.335643 -0.555 176 120 107
0.121261 -0.336248 -0.556 175 119 106
0.12232 -0.336248 -0.556 177 119 105
0.123601 -0.336852 -0.557 176 118 104
0.124662 -0.336852 -0.557 171 113 99
0.125723 -0.336852 -0.557 166 108 94
0.126784 -0.336852 -0.557 166 108 94
0.128074 -0.337457 -0.558 162 104 92
0.129369 -0.338062 -0.559 158 100 88
0.130667 -0.338667 -0.56 156 99 88
0.131969 -0.339271 -0.561 157 100 89
0.133274 -0.339876 -0.562 159 102 91
0.134584 -0.340481 -0.563 159 102 91
0.135656 -0.340481 -0.563 156 99 88
0.136971 -0.341086 -0.564 155 98 87
0.13829 -0.34169 -0.565 151 97 87
0.139367 -0.34169 -0.565 149 95 85
0.140691 -0.342295 -0.566 148 94 84
0.14202 -0.3429 -0.567 151 97 87
0.143352 -0.343505 -0.568 150 95 88
0.144434 -0.343505 -0.568 148 93 86
0.145772 -0.34411 -0.569 146 93 85
0.147114 -0.344714 -0.57 143 90 82
0.1482 -0.344714 -0.57 140 87 79
0.149548 -0.345319 -0.571 139 86 78
0.150635 -0.345319 -0.571 135 87 75
0.151989 -0.345924 -0.572 133 85 73
0.153078 -0.345924 -0.572 133 85 75
0.154437 -0.346529 -0.573 130 82 72
0.155529 -0.346529 -0.573 128 81 73
0.156893 -0.347133 -0.574 132 85 77
0.158262 -0.347738 -0.575 137 89 79
0.159357 -0.347738 -0.575 134 86 76
0.160452 -0.347738 -0.575 133 84 77
0.161829 -0.348343 -0.576 134 85 78
0.163209 -0.348948 -0.577 132 85 79
0.164592 -0.349552 -0.578 131 84 78
0.16598 -0.350157 -0.579 131 83 79
0.167083 -0.350157 -0.579 130 82 78
0.168476 -0.350762 -0.58 128 81 75
0.169873 -0.351367 -0.581 127 80 74
0.171274 -0.351971 -0.582 126 81 78
0.172679 -0.352576 -0.583 121 76 73
0.174088 -0.353181 -0.584 121 76 73
0.1755 -0.353786 -0.585 123 78 75
0.176916 -0.35439 -0.586 124 79 76
0.17864 -0.3556 -0.588 125 80 77
0.180066 -0.356205 -0.589 123 82 80
0.181495 -0.35681 -0.59 121 80 78
0.183238 -0.358019 -0.592 121 81 79
0.184054 -0.357414 -0.591 121 80 78
0.185807 -0.358624 -0.593 122 81 79
0.187251 -0.359229 -0.594 123 82 80
0.1887 -0.359833 -0.595 124 83 81
0.190471 -0.361043 -0.597 124 83 81
0.191609 -0.361043 -0.597 124 83 81
0.193391 -0.362252 -0.599 124 84 84
0.195182 -0.363462 -0.601 123 83 83
0.196653 -0.364067 -0.602 122 88 86
0.222143 -0.376162 -0.622 138 132 142
0.223328 -0.376162 -0.622 171 165 175
0.224512 -0.376162 -0.622 172 173 191
0.225697 -0.376162 -0.622 173 174 192
0.226882 -0.376162 -0.622 170 175 195
0.228433 -0.376767 -0.623 174 179 199
0.22962 -0.376767 -0.623 177 178 198
0.230807 -0.376767 -0.623 178 179 199
0.231993 -0.376767 -0.623 181 182 202
0.23318 -0.376767 -0.623 172 173 193
0.234367 -0.376767 -0.623 154 158 183
0.235553 -0.376767 -0.623 123 127 152
0.23674 -0.376767 -0.623 80 87 116
0.237927 -0.376767 -0.623 93 100 129
0.239113 -0.376767 -0.623 146 156 183
0.2403 -0.376767 -0.623 178 188 215
0.241487 -0.376767 -0.623 186 195 226
0.242673 -0.376767 -0.623 157 166 197
0.24386 -0.376767 -0.623 157 166 197
0.245047 -0.376767 -0.623 155 169 204
0.400267 -0.38221 -0.632 224 223 237
0.429309 -0.383419 -0.634 193 195 208
0.430516 -0.383419 -0.634 198 200 213
0.431724 -0.383419 -0.634 202 204 225
0.432931 -0.383419 -0.634 196 198 219
0.434139 -0.383419 -0.634 157 170 205
0.435347 -0.383419 -0.634 118 131 166
0.439662 -0.384024 -0.635 59 99 160
0.440871 -0.384024 -0.635 69 109 170
0.442081 -0.384024 -0.635 90 125 189
0.44329 -0.384024 -0.635 94 129 193
0.4445 -0.384024 -0.635 60 95 159
0.44571 -0.384024 -0.635 43 78 142
0.446919 -0.384024 -0.635 32 74 146
0.448129 -0.384024 -0.635 36 78 150
0.449338 -0.384024 -0.635 44 88 153
0.451257 -0.384629 -0.636 66 110 175
0.452469 -0.384629 -0.636 92 132 194
0.45368 -0.384629 -0.636 75 115 177
0.454891 -0.384629 -0.636 56 90 151
0.456103 -0.384629 -0.636 46 80 141
0.457314 -0.384629 -0.636 46 80 141
0.459247 -0.385233 -0.637 27 52 108
0.46046 -0.385233 -0.637 69 94 150
0.461673 -0.385233 -0.637 142 157 198
0.462887 -0.385233 -0.637 169 184 225
0.4641 -0.385233 -0.637 184 190 212
0.465313 -0.385233 -0.637 185 191 213
0.466527 -0.385233 -0.637 195 195 203
0.46774 -0.385233 -0.637 177 177 185
0.468953 -0.385233 -0.637 128 119 124
0.470167 -0.385233 -0.637 152 143 148
0.47138 -0.385233 -0.637 182 179 188
0.472593 -0.385233 -0.637 192 189 198
0.473807 -0.385233 -0.637 172 175 190
0.47502 -0.385233 -0.637 157 160 175
0.476233 -0.385233 -0.637 151 158 177
0.477447 -0.385233 -0.637 145 152 171
0.479411 -0.385838 -0.638 135 143 166
0.480627 -0.385838 -0.638 112 120 143
0.481842 -0.385838 -0.638 111 119 142
0.483057 -0.385838 -0.638 130 138 161
0.484272 -0.385838 -0.638 143 148 170
0.485488 -0.385838 -0.638 143 148 170
0.486703 -0.385838 -0.638 150 151 169
0.487918 -0.385838 -0.638 158 159 177
0.489133 -0.385838 -0.638 181 175 185
0.490349 -0.385838 -0.638 154 148 158
0.491564 -0.385838 -0.638 117 116 121
0.493551 -0.386443 -0.639 153 152 157
0.494769 -0.386443 -0.639 175 173 184
0.495986 -0.386443 -0.639 175 173 184
0.497203 -0.386443 -0.639 179 177 188
0.49842 -0.386443 -0.639 179 175 192
0.499637 -0.386443 -0.639 176 172 189
0.500854 -0.386443 -0.639 175 175 199
0.502071 -0.386443 -0.639 162 162 186
0.503289 -0.386443 -0.639 101 113 161
0.503716 -0.385838 -0.638 46 58 106
0.504931 -0.385838 -0.638 48 68 131
0.519029 -0.374952 -0.62 155 130 126
0.52021 -0.374952 -0.62 155 130 126
0.516345 -0.371324 -0.614 161 136 132
0.510771 -0.366486 -0.606 158 129 121
0.505168 -0.361648 -0.598 163 134 126
0.499533 -0.35681 -0.59 163 130 123
0.494717 -0.352576 -0.583 162 129 122
0.490725 -0.348948 -0.577 167 130 124
0.48671 -0.345319 -0.571 168 131 125
0.483526 -0.342295 -0.566 169 132 124
0.481179 -0.339876 -0.562 170 133 125
0.479675 -0.338062 -0.559 169 136 121
0.47816 -0.336248 -0.556 169 136 121
0.477495 -0.335038 -0.554 177 136 116
0.475959 -0.333224 -0.551 178 137 117
0.475277 -0.332014 -0.549 181 138 119
0.474588 -0.330805 -0.547 182 139 120
0.47389 -0.329595 -0.545 183 141 119
0.474057 -0.32899 -0.544 185 143 121
0.47422 -0.328386 -0.543 186 144 122
0.474379 -0.327781 -0.542 186 144 122
0.473657 -0.326571 -0.54 188 143 120
0.473807 -0.325967 -0.539 190 145 122
0.474833 -0.325967 -0.539 189 143 119
0.474977 -0.325362 -0.538 190 144 120
0.475117 -0.324757 -0.537 191 144 118
0.475253 -0.324152 -0.536 194 147 121
0.476274 -0.324152 -0.536 192 146 122
0.476405 -0.323548 -0.535 193 147 123
0.477424 -0.323548 -0.535 191 145 119
0.478443 -0.323548 -0.535 192 146 120
0.478566 -0.322943 -0.534 193 146 120
0.479583 -0.322943 -0.534 192 145 119
0.4806 -0.322943 -0.534 193 146 120
0.480715 -0.322338 -0.533 192 145 119
0.48173 -0.322338 -0.533 189 144 115
0.48184 -0.321733 -0.532 189 144 115
0.482853 -0.321733 -0.532 189 142 114
0.483867 -0.321733 -0.532 191 144 116
0.483969 -0.321129 -0.531 193 143 116
0.48498 -0.321129 -0.531 193 143 116
0.485991 -0.321129 -0.531 189 139 112
0.487003 -0.321129 -0.531 189 139 112
0.488014 -0.321129 -0.531 190 140 113
0.489026 -0.321129 -0.531 185 138 110
0.489114 -0.320524 -0.53 185 138 110
0.490124 -0.320524 -0.53 185 135 108
0.491133 -0.320524 -0.53 187 137 110
0.492143 -0.320524 -0.53 189 139 112
0.493152 -0.320524 -0.53 189 139 112
0.494162 -0.320524 -0.53 186 139 113
0.495171 -0.320524 -0.53 184 137 111
0.497117 -0.321129 -0.531 179 133 107
0.498129 -0.321129 -0.531 176 130 104
0.50008 -0.321733 -0.532 173 129 104
0.502035 -0.322338 -0.533 171 127 102
0.503994 -0.322943 -0.534 164 122 98
0.506903 -0.324152 -0.536 162 120 96
0.508871 -0.324757 -0.537 162 121 99
0.0821667 -0.360967 -0.595 184 154 143
0.08274 -0.35854 -0.591 200 149 145
0.0832981 -0.356113 -0.587 198 147 143
0.0836971 -0.35308 -0.582 196 145 141
0.0839314 -0.34944 -0.576 193 142 138
0.0841429 -0.3458 -0.57 192 141 137
0.08478 -0.34398 -0.567 193 142 138
0.0852543 -0.341553 -0.563 196 143 139
0.0861733 -0.340947 -0.562 197 144 140
0.0870886 -0.34034 -0.561 195 142 138
0.088 -0.339733 -0.56 195 142 138
0.0890667 -0.339733 -0.56 196 143 137
0.0901333 -0.339733 -0.56 198 145 139
0.0910371 -0.339127 -0.559 197 144 138
0.0921019 -0.339127 -0.559 196 143 137
0.093 -0.33852 -0.558 198 145 139
0.0940629 -0.33852 -0.558 198 145 139
0.0951257 -0.33852 -0.558 199 146 142
0.0960162 -0.337913 -0.557 201 148 144
0.0970771 -0.337913 -0.557 199 146 142
0.0981381 -0.337913 -0.557 199 146 142
0.099199 -0.337913 -0.557 197 144 138
0.10026 -0.337913 -0.557 194 141 135
0.101139 -0.337307 -0.556 197 142 137
0.102198 -0.337307 -0.556 193 138 133
0.103257 -0.337307 -0.556 191 136 131
0.104129 -0.3367 -0.555 189 134 129
0.105186 -0.3367 -0.555 189 134 127
0.106051 -0.336093 -0.554 191 136 129
0.107107 -0.336093 -0.554 195 140 133
0.108162 -0.336093 -0.554 195 140 133
0.10902 -0.335487 -0.553 193 136 129
0.110073 -0.335487 -0.553 190 133 126
0.111127 -0.335487 -0.553 191 132 124
0.11218 -0.335487 -0.553 183 124 116
0.113233 -0.335487 -0.553 183 123 112
0.114287 -0.335487 -0.553 185 125 114
0.11534 -0.335487 -0.553 184 125 111
0.116393 -0.335487 -0.553 182 123 109
0.117659 -0.336093 -0.554 178 120 108
0.118714 -0.336093 -0.554 174 116 104
0.119986 -0.3367 -0.555 174 118 105
0.121261 -0.337307 -0.556 179 123 110
0.12232 -0.337307 -0.556 176 120 107
0.123601 -0.337913 -0.557 172 116 103
0.124662 -0.337913 -0.557 172 115 104
0.125723 -0.337913 -0.557 172 115 104
0.127011 -0.33852 -0.558 167 110 99
0.128074 -0.33852 -0.558 158 103 98
0.129369 -0.339127 -0.559 158 103 98
0.130667 -0.339733 -0.56 159 102 91
0.131969 -0.34034 -0.561 157 100 89
0.133274 -0.340947 -0.562 154 97 88
0.134584 -0.341553 -0.563 154 97 88
0.135897 -0.34216 -0.564 150 96 86
0.136971 -0.34216 -0.564 150 96 86
0.13829 -0.342767 -0.565 151 99 88
0.139613 -0.343373 -0.566 151 99 88
0.140691 -0.343373 -0.566 150 97 89
0.14202 -0.34398 -0.567 150 97 89
0.143352 -0.344587 -0.568 146 96 89
0.144689 -0.345193 -0.569 142 92 85
0.145772 -0.345193 -0.569 139 90 83
0.147114 -0.3458 -0.57 138 89 82
0.14846 -0.346407 -0.571 136 88 78
0.149548 -0.346407 -0.571 136 88 78
0.150635 -0.346407 -0.571 133 85 81
0.151989 -0.347013 -0.572 134 86 82
0.153346 -0.34762 -0.573 131 84 78
0.154437 -0.34762 -0.573 126 79 73
0.1558 -0.348227 -0.574 123 78 72
0.157167 -0.348833 -0.575 127 82 76
0.158262 -0.348833 -0.575 130 85 80
0.159634 -0.34944 -0.576 127 82 77
0.160731 -0.34944 -0.576 130 85 80
0.16211 -0.350047 -0.577 130 85 80
0.163491 -0.350653 -0.578 130 85 80
0.164877 -0.35126 -0.579 129 84 79
0.166267 -0.351867 -0.58 128 83 78
0.167371 -0.351867 -0.58 128 83 78
0.168767 -0.352473 -0.581 127 83 80
0.170166 -0.35308 -0.582 125 81 78
0.171569 -0.353687 -0.583 127 76 81
0.172975 -0.354293 -0.584 126 75 80
0.174386 -0.3549 -0.585 124 78 80
0.1758 -0.355507 -0.586 123 77 79
0.17752 -0.35672 -0.588 119 80 75
0.178944 -0.357327 -0.589 120 81 76
0.180371 -0.357933 -0.59 119 82 74
0.181495 -0.357933 -0.59 121 80 78
0.183238 -0.359147 -0.592 121 81 79
0.184677 -0.359753 -0.593 121 81 79
0.186433 -0.360967 -0.595 121 81 79
0.187882 -0.361573 -0.596 120 80 78
0.189651 -0.362787 -0.598 120 80 78
0.19079 -0.362787 -0.598 120 80 78
0.19225 -0.363393 -0.599 121 81 79
0.194037 -0.364607 -0.601 121 83 82
0.21942 -0.37674 -0.621 172 167 187
0.220603 -0.37674 -0.621 163 158 178
0.222143 -0.377347 -0.622 151 145 155
0.223328 -0.377347 -0.622 174 168 178
0.224512 -0.377347 -0.622 172 173 191
0.225697 -0.377347 -0.622 169 170 188
0.226882 -0.377347 -0.622 170 175 195
0.228067 -0.377347 -0.622 174 179 199
0.229251 -0.377347 -0.622 177 178 198
0.230436 -0.377347 -0.622 178 179 199
0.231621 -0.377347 -0.622 176 178 199
0.232806 -0.377347 -0.622 156 158 179
0.234367 -0.377953 -0.623 115 122 148
0.235553 -0.377953 -0.623 78 85 111
0.23674 -0.377953 -0.623 84 93 122
0.237927 -0.377953 -0.623 137 146 175
0.239113 -0.377953 -0.623 169 179 206
0.2403 -0.377953 -0.623 179 189 216
0.428631 -0.38402 -0.633 205 206 226
0.434139 -0.384627 -0.634 104 116 164
0.435347 -0.384627 -0.634 74 86 134
0.436554 -0.384627 -0.634 108 142 179
0.437762 -0.384627 -0.634 124 158 195
0.43897 -0.384627 -0.634 113 147 210
0.440177 -0.384627 -0.634 90 124 187
0.441385 -0.384627 -0.634 105 137 194
0.442592 -0.384627 -0.634 111 143 200
0.4438 -0.384627 -0.634 65 101 163
0.445008 -0.384627 -0.634 50 86 148
0.446215 -0.384627 -0.634 54 98 169
0.450548 -0.385233 -0.635 67 111 176
0.451757 -0.385233 -0.635 105 145 204
0.452967 -0.385233 -0.635 87 127 186
0.454176 -0.385233 -0.635 80 113 167
0.455386 -0.385233 -0.635 96 129 183
0.457314 -0.38584 -0.636 94 117 169
0.458526 -0.38584 -0.636 94 117 169
0.459737 -0.38584 -0.636 85 108 160
0.460949 -0.38584 -0.636 81 98 141
0.46216 -0.38584 -0.636 121 138 181
0.463371 -0.38584 -0.636 175 182 208
0.465313 -0.386447 -0.637 181 188 214
0.466527 -0.386447 -0.637 190 192 204
0.46774 -0.386447 -0.637 193 195 207
0.468953 -0.386447 -0.637 182 171 175
0.470167 -0.386447 -0.637 155 144 148
0.47138 -0.386447 -0.637 169 164 171
0.472593 -0.386447 -0.637 187 182 189
0.473807 -0.386447 -0.637 184 186 199
0.47502 -0.386447 -0.637 178 180 193
0.476233 -0.386447 -0.637 167 174 193
0.477447 -0.386447 -0.637 165 172 191
0.47866 -0.386447 -0.637 158 166 189
0.479873 -0.386447 -0.637 124 132 155
0.481087 -0.386447 -0.637 108 115 141
0.4823 -0.386447 -0.637 139 146 172
0.483513 -0.386447 -0.637 163 168 188
0.484727 -0.386447 -0.637 163 168 188
0.486703 -0.387053 -0.638 174 173 189
0.487918 -0.387053 -0.638 174 173 189
0.489133 -0.387053 -0.638 178 172 182
0.490349 -0.387053 -0.638 145 139 149
0.491564 -0.387053 -0.638 148 149 154
0.492779 -0.387053 -0.638 178 179 184
0.493994 -0.387053 -0.638 178 180 195
0.49521 -0.387053 -0.638 174 176 191
0.496425 -0.387053 -0.638 174 176 191
0.49764 -0.387053 -0.638 177 173 196
0.498855 -0.387053 -0.638 180 176 199
0.50007 -0.387053 -0.638 166 167 195
0.501286 -0.387053 -0.638 139 140 168
0.502501 -0.387053 -0.638 89 103 152
0.517692 -0.374313 -0.617 157 133 129
0.518868 -0.374313 -0.617 157 133 129
0.514143 -0.370067 -0.61 158 131 122
0.508547 -0.365213 -0.602 162 135 126
0.50292 -0.36036 -0.594 162 132 124
0.497263 -0.355507 -0.586 161 131 123
0.492426 -0.35126 -0.579 168 130 127
0.488414 -0.34762 -0.573 170 132 129
0.485234 -0.344587 -0.568 169 132 124
0.482891 -0.34216 -0.564 169 132 124
0.480533 -0.339733 -0.56 169 136 121
0.47902 -0.337913 -0.557 169 136 121
0.478357 -0.3367 -0.555 177 136 118
0.476823 -0.33488 -0.552 177 136 118
0.476143 -0.333667 -0.55 180 137 118
0.474588 -0.331847 -0.547 181 138 119
0.47476 -0.33124 -0.546 182 139 120
0.474057 -0.330027 -0.544 184 141 122
0.47422 -0.32942 -0.543 186 143 124
0.474379 -0.328813 -0.542 185 142 123
0.473657 -0.3276 -0.54 186 141 118
0.473807 -0.326993 -0.539 188 143 120
0.474833 -0.326993 -0.539 189 143 117
0.474977 -0.326387 -0.538 190 144 118
0.475117 -0.32578 -0.537 190 143 117
0.475253 -0.325173 -0.536 193 146 120
0.476274 -0.325173 -0.536 191 145 121
0.476405 -0.324567 -0.535 193 147 123
0.477424 -0.324567 -0.535 191 146 117
0.477549 -0.32396 -0.534 192 147 118
0.478566 -0.32396 -0.534 192 145 119
0.479583 -0.32396 -0.534 191 144 118
0.4797 -0.323353 -0.533 193 146 120
0.480715 -0.323353 -0.533 192 145 119
0.48173 -0.323353 -0.533 189 144 115
0.48184 -0.322747 -0.532 189 144 115
0.481946 -0.32214 -0.531 190 143 115
0.482957 -0.32214 -0.531 191 144 116
0.483969 -0.32214 -0.531 193 143 116
0.484067 -0.321533 -0.53 191 141 114
0.485076 -0.321533 -0.53 191 141 114
0.486086 -0.321533 -0.53 190 141 111
0.487095 -0.321533 -0.53 189 140 110
0.488105 -0.321533 -0.53 188 139 109
0.489114 -0.321533 -0.53 187 138 108
0.489199 -0.320927 -0.529 185 139 113
0.490207 -0.320927 -0.529 183 137 111
0.491214 -0.320927 -0.529 183 138 109
0.492222 -0.320927 -0.529 185 140 111
0.49323 -0.320927 -0.529 185 141 112
0.494237 -0.320927 -0.529 183 139 110
0.496181 -0.321533 -0.53 178 137 107
0.49719 -0.321533 -0.53 175 134 104
0.49914 -0.32214 -0.531 174 133 105
0.501093 -0.322747 -0.532 170 129 101
0.50305 -0.323353 -0.533 165 125 100
0.505011 -0.32396 -0.534 164 124 99
0.507924 -0.325173 -0.536 161 123 102
0.509894 -0.32578 -0.537 159 121 100
0.513771 -0.3276 -0.54 159 121 102
0.51766 -0.32942 -0.543 159 121 102
0.522515 -0.331847 -0.547 157 120 104
0.610119 -0.379167 -0.625 212 204 202
0.0810333 -0.3621 -0.595 188 155 146
0.0818905 -0.360883 -0.593 187 154 145
0.08232 -0.35784 -0.588 199 148 144
0.0828724 -0.355406 -0.584 198 147 143
0.0832657 -0.352363 -0.579 196 146 139
0.0834943 -0.348711 -0.573 194 144 137
0.0838476 -0.345669 -0.568 193 143 136
0.084481 -0.343843 -0.565 193 143 136
0.0849514 -0.341409 -0.561 196 143 137
0.08602 -0.341409 -0.561 196 143 137
0.0870886 -0.341409 -0.561 195 142 138
0.088 -0.3408 -0.56 195 142 138
0.0889076 -0.340191 -0.559 195 142 136
0.0899724 -0.340191 -0.559 197 144 138
0.0908743 -0.339583 -0.558 198 143 138
0.0919371 -0.339583 -0.558 198 143 138
0.093 -0.339583 -0.558 199 144 139
0.0938943 -0.338974 -0.557 197 142 137
0.0949552 -0.338974 -0.557 199 144 139
0.0960162 -0.338974 -0.557 199 144 139
0.0969029 -0.338366 -0.556 197 144 138
0.0979619 -0.338366 -0.556 197 144 138
0.099021 -0.338366 -0.556 196 143 137
0.10008 -0.338366 -0.556 194 141 135
0.101139 -0.338366 -0.556 196 141 136
0.102014 -0.337757 -0.555 192 137 132
0.103071 -0.337757 -0.555 191 136 129
0.104129 -0.337757 -0.555 189 134 127
0.104996 -0.337149 -0.554 188 133 126
0.106051 -0.337149 -0.554 189 134 127
0.107107 -0.337149 -0.554 194 139 132
0.108162 -0.337149 -0.554 194 139 132
0.10902 -0.33654 -0.553 193 136 129
0.110073 -0.33654 -0.553 191 134 127
0.111127 -0.33654 -0.553 192 134 123
0.11218 -0.33654 -0.553 184 126 115
0.113233 -0.33654 -0.553 182 123 109
0.114287 -0.33654 -0.553 183 124 110
0.11534 -0.33654 -0.553 183 124 108
0.116393 -0.33654 -0.553 180 121 105
0.117659 -0.337149 -0.554 174 116 102
0.118714 -0.337149 -0.554 168 110 96
0.119986 -0.337757 -0.555 172 116 103
0.121261 -0.338366 -0.556 178 122 109
0.12232 -0.338366 -0.556 176 118 106
0.123601 -0.338974 -0.557 169 111 99
0.124662 -0.338974 -0.557 169 111 99
0.125949 -0.339583 -0.558 168 109 101
0.127011 -0.339583 -0.558 166 107 99
0.128304 -0.340191 -0.559 162 104 100
0.129369 -0.340191 -0.559 162 104 100
0.130667 -0.3408 -0.56 158 101 92
0.131969 -0.341409 -0.561 155 98 89
0.133274 -0.342017 -0.562 153 96 89
0.134584 -0.342626 -0.563 152 95 88
0.135897 -0.343234 -0.564 150 95 88
0.137214 -0.343843 -0.565 151 96 89
0.13829 -0.343843 -0.565 150 97 89
0.139613 -0.344451 -0.566 150 97 89
0.14094 -0.34506 -0.567 146 96 87
0.14202 -0.34506 -0.567 145 95 86
0.143352 -0.345669 -0.568 143 94 89
0.144689 -0.346277 -0.569 140 91 86
0.146029 -0.346886 -0.57 139 90 85
0.147114 -0.346886 -0.57 138 89 84
0.14846 -0.347494 -0.571 136 89 81
0.149548 -0.347494 -0.571 135 88 80
0.150899 -0.348103 -0.572 131 86 83
0.151989 -0.348103 -0.572 132 87 84
0.153346 -0.348711 -0.573 130 85 80
0.154707 -0.34932 -0.574 124 79 74
0.156071 -0.349929 -0.575 123 78 73
0.157167 -0.349929 -0.575 127 82 77
0.158537 -0.350537 -0.576 129 84 81
0.159911 -0.351146 -0.577 128 83 80
0.16101 -0.351146 -0.577 128 84 81
0.16239 -0.351754 -0.578 127 83 80
0.163774 -0.352363 -0.579 127 83 80
0.165162 -0.352971 -0.58 127 83 80
0.166553 -0.35358 -0.581 126 82 79
0.167949 -0.354189 -0.582 126 82 79
0.169057 -0.354189 -0.582 126 82 81
0.17075 -0.355406 -0.584 124 80 79
0.172157 -0.356014 -0.585 123 77 80
0.173568 -0.356623 -0.586 123 77 80
0.174982 -0.357231 -0.587 122 78 79
0.1764 -0.35784 -0.588 122 78 79
0.177822 -0.358449 -0.589 119 79 77
0.179551 -0.359666 -0.591 121 81 79
0.180371 -0.359057 -0.59 119 82 74
0.18211 -0.360274 -0.592 121 84 76
0.183548 -0.360883 -0.593 119 82 73
0.1853 -0.3621 -0.595 115 78 69
0.186747 -0.362709 -0.596 119 82 74
0.188512 -0.363926 -0.598 120 83 75
0.190286 -0.365143 -0.6 115 81 80
0.191429 -0.365143 -0.6 115 81 80
0.192892 -0.365751 -0.601 116 82 81
0.220603 -0.377923 -0.621 180 169 186
0.221786 -0.377923 -0.621 173 173 181
0.222969 -0.377923 -0.621 170 170 178
0.224151 -0.377923 -0.621 175 174 190
0.225334 -0.377923 -0.621 176 175 191
0.226517 -0.377923 -0.621 176 174 196
0.2277 -0.377923 -0.621 174 172 194
0.228883 -0.377923 -0.621 182 182 208
0.230066 -0.377923 -0.621 174 174 200
0.23399 -0.378531 -0.622 79 88 117
0.235175 -0.378531 -0.622 80 89 118
0.23636 -0.378531 -0.622 122 126 151
0.237545 -0.378531 -0.622 165 169 194
0.23873 -0.378531 -0.622 172 167 187
0.239914 -0.378531 -0.622 177 172 192
0.419528 -0.384617 -0.632 213 209 224
0.420731 -0.384617 -0.632 213 209 224
0.421935 -0.384617 -0.632 217 213 228
0.431043 -0.385226 -0.633 171 183 205
0.432249 -0.385226 -0.633 138 150 172
0.433454 -0.385226 -0.633 68 92 136
0.43466 -0.385226 -0.633 70 94 138
0.435866 -0.385226 -0.633 151 172 219
0.437071 -0.385226 -0.633 185 206 253
0.438277 -0.385226 -0.633 178 188 223
0.44863 -0.385834 -0.634 57 96 161
0.449838 -0.385834 -0.634 75 114 179
0.451046 -0.385834 -0.634 132 165 218
0.452253 -0.385834 -0.634 118 151 204
0.454176 -0.386443 -0.635 125 154 188
0.455386 -0.386443 -0.635 152 181 215
0.456595 -0.386443 -0.635 163 190 219
0.457805 -0.386443 -0.635 163 190 219
0.459014 -0.386443 -0.635 122 149 178
0.460949 -0.387051 -0.636 50 73 107
0.46216 -0.387051 -0.636 75 98 132
0.463371 -0.387051 -0.636 149 158 191
0.464583 -0.387051 -0.636 164 173 206
0.465794 -0.387051 -0.636 187 182 204
0.467006 -0.387051 -0.636 185 180 202
0.468217 -0.387051 -0.636 186 184 205
0.469429 -0.387051 -0.636 174 172 193
0.47064 -0.387051 -0.636 132 129 138
0.471851 -0.387051 -0.636 149 146 155
0.473063 -0.387051 -0.636 195 193 198
0.474274 -0.387051 -0.636 191 189 194
0.475486 -0.387051 -0.636 188 187 201
0.476697 -0.387051 -0.636 190 189 203
0.477909 -0.387051 -0.636 183 184 205
0.47912 -0.387051 -0.636 153 154 175
0.480331 -0.387051 -0.636 145 146 166
0.481543 -0.387051 -0.636 160 161 181
0.482754 -0.387051 -0.636 184 186 201
0.483966 -0.387051 -0.636 184 186 201
0.48594 -0.38766 -0.637 185 188 203
0.487153 -0.38766 -0.637 163 166 181
0.488367 -0.38766 -0.637 143 143 145
0.48958 -0.38766 -0.637 154 154 156
0.490793 -0.38766 -0.637 173 176 183
0.492007 -0.38766 -0.637 179 182 189
0.49322 -0.38766 -0.637 180 182 194
0.494433 -0.38766 -0.637 179 181 193
0.495647 -0.38766 -0.637 179 181 193
0.49686 -0.38766 -0.637 172 174 189
0.498073 -0.38766 -0.637 170 172 187
0.499287 -0.38766 -0.637 140 145 177
0.5005 -0.38766 -0.637 81 86 118
0.501713 -0.38766 -0.637 65 77 129
0.502927 -0.38766 -0.637 102 114 166
0.50414 -0.38766 -0.637 102 121 177
0.505353 -0.38766 -0.637 87 106 162
0.506567 -0.38766 -0.637 82 104 151
0.51937 -0.376706 -0.619 159 135 135
0.52055 -0.376706 -0.619 159 135 135
0.515829 -0.372446 -0.612 162 131 128
0.511081 -0.368186 -0.605 160 129 126
0.50546 -0.363317 -0.597 165 132 127
0.500657 -0.359057 -0.59 165 132 127
0.494977 -0.354189 -0.582 163 133 125
0.490119 -0.349929 -0.575 163 133 125
0.486943 -0.346886 -0.57 164 132 121
0.483748 -0.343843 -0.565 166 134 123
0.48225 -0.342017 -0.562 171 135 121
0.47988 -0.339583 -0.558 171 135 121
0.479219 -0.338366 -0.556 177 135 119
0.477687 -0.33654 -0.553 177 135 119
0.476143 -0.334714 -0.55 178 137 119
0.475455 -0.333497 -0.548 180 139 121
0.47476 -0.33228 -0.546 182 141 123
0.474929 -0.331671 -0.545 183 142 124
0.475093 -0.331063 -0.544 186 141 122
0.474379 -0.329846 -0.542 186 141 122
0.473657 -0.328629 -0.54 189 143 120
0.473807 -0.32802 -0.539 188 142 119
0.474833 -0.32802 -0.539 189 143 119
0.474977 -0.327411 -0.538 189 143 119
0.475117 -0.326803 -0.537 189 141 118
0.475253 -0.326194 -0.536 191 143 120
