ply
format ascii 1.0
comment Created by Open3D
element vertex 1282
property double x
property double y
property double z
property uchar red
property uchar green
property uchar blue
end_header
0.0558543 -0.380106 -0.519 204 158 132
0.0568429 -0.380106 -0.519 202 156 130
0.0578314 -0.380106 -0.519 203 158 129
0.05882 -0.380106 -0.519 204 159 130
0.0598086 -0.380106 -0.519 200 154 128
0.0609143 -0.380838 -0.52 195 149 123
0.0619048 -0.380838 -0.52 194 148 122
0.0628952 -0.380838 -0.52 195 149 123
0.0638857 -0.380838 -0.52 195 148 122
0.0648762 -0.380838 -0.52 193 146 120
0.0658667 -0.380838 -0.52 195 145 120
0.0668571 -0.380838 -0.52 192 142 117
0.0679781 -0.38157 -0.521 190 140 117
0.0689705 -0.38157 -0.521 189 139 116
0.0700971 -0.382303 -0.522 187 135 113
0.0710914 -0.382303 -0.522 186 134 112
0.0722238 -0.383035 -0.523 183 131 109
0.07336 -0.383768 -0.524 178 126 104
0.0743581 -0.383768 -0.524 180 126 102
0.0755 -0.3845 -0.525 180 126 102
0.0766457 -0.385232 -0.526 180 125 104
0.0776476 -0.385232 -0.526 181 126 105
0.078799 -0.385965 -0.527 182 127 106
0.0799543 -0.386697 -0.528 181 126 105
0.0811133 -0.38743 -0.529 178 123 102
0.0821209 -0.38743 -0.529 176 121 100
0.0832857 -0.388162 -0.53 175 120 100
0.0844543 -0.388894 -0.531 175 120 100
0.0856267 -0.389627 -0.532 175 119 102
0.08664 -0.389627 -0.532 174 118 101
0.0878181 -0.390359 -0.533 172 119 101
0.089 -0.391091 -0.534 171 118 100
0.0901857 -0.391824 -0.535 171 118 100
0.0913752 -0.392556 -0.536 170 117 99
0.0925686 -0.393289 -0.537 165 114 95
0.0937657 -0.394021 -0.538 164 113 94
0.0949667 -0.394753 -0.539 162 113 96
0.0961714 -0.395486 -0.54 162 113 96
0.09756 -0.39695 -0.542 160 112 100
0.0987743 -0.397683 -0.543 157 109 97
0.100176 -0.399148 -0.545 150 107 100
0.101586 -0.400612 -0.547 147 104 97
0.103003 -0.402077 -0.549 140 105 101
0.104238 -0.40281 -0.55 137 102 98
0.105669 -0.404274 -0.552 128 102 103
0.1073 -0.406471 -0.555 127 101 102
0.121694 -0.419654 -0.573 111 104 112
0.123 -0.420387 -0.574 109 103 115
0.124093 -0.420387 -0.574 109 103 115
0.125405 -0.421119 -0.575 103 99 114
0.1265 -0.421119 -0.575 117 113 128
0.127595 -0.421119 -0.575 137 133 147
0.12869 -0.421119 -0.575 147 143 157
0.129786 -0.421119 -0.575 158 154 168
0.130881 -0.421119 -0.575 164 160 174
0.131976 -0.421119 -0.575 145 139 153
0.133071 -0.421119 -0.575 143 137 151
0.134167 -0.421119 -0.575 144 138 138
0.135262 -0.421119 -0.575 154 148 148
0.136357 -0.421119 -0.575 154 148 148
0.137452 -0.421119 -0.575 182 176 176
0.138548 -0.421119 -0.575 186 180 180
0.139643 -0.421119 -0.575 192 187 193
0.140738 -0.421119 -0.575 192 187 193
0.141833 -0.421119 -0.575 192 192 204
0.143177 -0.421851 -0.576 192 192 204
0.144274 -0.421851 -0.576 186 191 211
0.145119 -0.421119 -0.575 180 185 205
0.146214 -0.421119 -0.575 160 167 193
0.14731 -0.421119 -0.575 115 122 148
0.148405 -0.421119 -0.575 102 113 143
0.1495 -0.421119 -0.575 116 127 157
0.150595 -0.421119 -0.575 129 144 177
0.15169 -0.421119 -0.575 137 152 185
0.152786 -0.421119 -0.575 126 153 200
0.153881 -0.421119 -0.575 102 129 176
0.154976 -0.421119 -0.575 69 98 158
0.156071 -0.421119 -0.575 69 98 158
0.157167 -0.421119 -0.575 63 98 166
0.158262 -0.421119 -0.575 84 119 187
0.159357 -0.421119 -0.575 77 117 179
0.160452 -0.421119 -0.575 75 115 177
0.161548 -0.421119 -0.575 77 116 171
0.162643 -0.421119 -0.575 75 114 169
0.163738 -0.421119 -0.575 99 134 188
0.164833 -0.421119 -0.575 138 173 227
0.3471 -0.428443 -0.585 169 188 228
0.348214 -0.428443 -0.585 170 189 229
0.349329 -0.428443 -0.585 167 191 229
0.350443 -0.428443 -0.585 165 189 227
0.351557 -0.428443 -0.585 126 159 202
0.352671 -0.428443 -0.585 84 117 160
0.353786 -0.428443 -0.585 97 133 195
0.3549 -0.428443 -0.585 101 137 199
0.365552 -0.429175 -0.586 145 163 203
0.366669 -0.429175 -0.586 127 142 175
0.367785 -0.429175 -0.586 127 142 175
0.368901 -0.429175 -0.586 157 167 202
0.370017 -0.429175 -0.586 190 200 235
0.371133 -0.429175 -0.586 204 213 230
0.37225 -0.429175 -0.586 208 217 234
0.373366 -0.429175 -0.586 207 214 224
0.374482 -0.429175 -0.586 211 218 228
0.377357 -0.429908 -0.587 205 214 231
0.378475 -0.429908 -0.587 206 210 221
0.379593 -0.429908 -0.587 206 210 221
0.382948 -0.429908 -0.587 142 147 151
0.384066 -0.429908 -0.587 182 187 191
0.385184 -0.429908 -0.587 200 207 213
0.386302 -0.429908 -0.587 196 203 209
0.38742 -0.429908 -0.587 195 200 206
0.388538 -0.429908 -0.587 199 204 210
0.389656 -0.429908 -0.587 203 203 213
0.390774 -0.429908 -0.587 206 206 216
0.39256 -0.43064 -0.588 209 209 221
0.39368 -0.43064 -0.588 171 171 183
0.3948 -0.43064 -0.588 141 137 138
0.39592 -0.43064 -0.588 184 180 181
0.39704 -0.43064 -0.588 194 199 202
0.39816 -0.43064 -0.588 194 199 202
0.39928 -0.43064 -0.588 197 202 205
0.4004 -0.43064 -0.588 194 203 208
0.40152 -0.43064 -0.588 195 204 209
0.403325 -0.431372 -0.589 195 201 213
0.404447 -0.431372 -0.589 193 199 211
0.405569 -0.431372 -0.589 188 197 214
0.40669 -0.431372 -0.589 165 174 191
0.407812 -0.431372 -0.589 128 146 170
0.408934 -0.431372 -0.589 93 111 135
0.410056 -0.431372 -0.589 119 142 176
0.411178 -0.431372 -0.589 140 163 197
0.4123 -0.431372 -0.589 151 172 215
0.413422 -0.431372 -0.589 136 157 200
0.414544 -0.431372 -0.589 138 161 203
0.415666 -0.431372 -0.589 116 139 181
0.417495 -0.432105 -0.59 74 101 156
0.418619 -0.432105 -0.59 58 85 140
0.419743 -0.432105 -0.59 69 102 169
0.420867 -0.432105 -0.59 99 132 199
0.42199 -0.432105 -0.59 81 120 185
0.423114 -0.432105 -0.59 45 84 149
0.424238 -0.432105 -0.59 42 82 134
0.425362 -0.432105 -0.59 65 105 157
0.427209 -0.432837 -0.591 121 153 192
0.428334 -0.432837 -0.591 134 166 205
0.42946 -0.432837 -0.591 136 156 189
0.430586 -0.432837 -0.591 160 180 213
0.431711 -0.432837 -0.591 152 166 195
0.432837 -0.432837 -0.591 115 129 158
0.433963 -0.432837 -0.591 80 105 135
0.435089 -0.432837 -0.591 100 125 155
0.436214 -0.432837 -0.591 146 158 184
0.43808 -0.43357 -0.592 167 179 205
0.439208 -0.43357 -0.592 167 179 205
0.440335 -0.43357 -0.592 182 185 204
0.441463 -0.43357 -0.592 180 183 202
0.443338 -0.434302 -0.593 183 186 201
0.444468 -0.434302 -0.593 181 184 199
0.445597 -0.434302 -0.593 183 187 196
0.446727 -0.434302 -0.593 178 182 191
0.447856 -0.434302 -0.593 148 152 151
0.448986 -0.434302 -0.593 138 142 141
0.450115 -0.434302 -0.593 150 155 151
0.451245 -0.434302 -0.593 177 182 178
0.452374 -0.434302 -0.593 178 185 191
0.453504 -0.434302 -0.593 175 182 188
0.454633 -0.434302 -0.593 175 184 191
0.455763 -0.434302 -0.593 173 182 189
0.456892 -0.434302 -0.593 175 180 184
0.458022 -0.434302 -0.593 170 175 179
0.459151 -0.434302 -0.593 141 142 146
0.460281 -0.434302 -0.593 144 145 149
0.46141 -0.434302 -0.593 173 176 183
0.46254 -0.434302 -0.593 176 179 186
0.46367 -0.434302 -0.593 174 178 187
0.464799 -0.434302 -0.593 174 178 187
0.466714 -0.435034 -0.594 175 179 188
0.467846 -0.435034 -0.594 176 180 189
0.468977 -0.435034 -0.594 172 178 190
0.470109 -0.435034 -0.594 170 176 188
0.47124 -0.435034 -0.594 162 169 187
0.472371 -0.435034 -0.594 149 156 174
0.473503 -0.435034 -0.594 122 131 162
0.474634 -0.435034 -0.594 97 106 137
0.475766 -0.435034 -0.594 96 108 132
0.476897 -0.435034 -0.594 142 154 178
0.478029 -0.435034 -0.594 150 165 196
0.47916 -0.435034 -0.594 151 166 197
0.480291 -0.435034 -0.594 128 152 180
0.481423 -0.435034 -0.594 125 149 177
0.482554 -0.435034 -0.594 125 149 177
0.483686 -0.435034 -0.594 100 130 168
0.484817 -0.435034 -0.594 61 91 129
0.485949 -0.435034 -0.594 61 93 152
0.48708 -0.435034 -0.594 60 92 151
0.488211 -0.435034 -0.594 66 101 157
0.489343 -0.435034 -0.594 75 110 166
0.490474 -0.435034 -0.594 60 92 151
0.491606 -0.435034 -0.594 50 82 141
0.492737 -0.435034 -0.594 71 99 147
0.493869 -0.435034 -0.594 111 139 187
0.495 -0.435034 -0.594 139 154 193
0.496131 -0.435034 -0.594 139 154 193
0.497263 -0.435034 -0.594 150 163 198
0.498394 -0.435034 -0.594 154 167 202
0.498685 -0.434302 -0.593 121 135 170
0.499814 -0.434302 -0.593 81 95 130
0.494263 -0.421851 -0.576 143 131 131
0.49106 -0.41819 -0.571 153 125 113
0.486114 -0.413063 -0.564 148 120 108
0.481142 -0.407936 -0.557 143 111 98
0.477009 -0.403542 -0.551 141 109 96
0.472852 -0.399148 -0.545 144 110 98
0.469543 -0.395486 -0.54 143 109 97
0.467086 -0.392556 -0.536 145 111 101
0.465487 -0.390359 -0.533 147 113 103
0.464751 -0.388894 -0.531 148 115 108
0.464009 -0.38743 -0.529 148 115 108
0.463258 -0.385965 -0.527 150 116 106
0.4625 -0.3845 -0.525 151 117 107
0.461734 -0.383035 -0.523 156 119 103
0.461846 -0.382303 -0.522 159 122 106
0.461067 -0.380838 -0.52 166 124 102
0.461169 -0.380106 -0.519 167 125 103
0.461267 -0.379373 -0.518 168 122 99
0.461361 -0.378641 -0.517 170 124 101
0.462346 -0.378641 -0.517 170 124 101
0.461538 -0.377176 -0.515 172 125 105
0.462519 -0.377176 -0.515 173 126 106
0.4626 -0.376444 -0.514 175 127 105
0.462677 -0.375711 -0.513 175 127 105
0.46275 -0.374979 -0.512 176 128 105
0.46282 -0.374247 -0.511 177 129 106
0.463793 -0.374247 -0.511 177 130 104
0.463857 -0.373514 -0.51 179 132 106
0.464829 -0.373514 -0.51 180 130 105
0.4658 -0.373514 -0.51 180 130 105
0.465856 -0.372782 -0.509 181 131 106
0.465909 -0.37205 -0.508 181 131 106
0.466876 -0.37205 -0.508 182 132 105
0.466923 -0.371317 -0.507 183 133 106
0.467889 -0.371317 -0.507 181 131 104
0.468854 -0.371317 -0.507 178 128 101
0.468893 -0.370585 -0.506 178 128 101
0.469857 -0.370585 -0.506 177 127 100
0.470821 -0.370585 -0.506 178 128 101
0.471785 -0.370585 -0.506 181 131 104
0.472749 -0.370585 -0.506 181 131 104
0.473712 -0.370585 -0.506 180 130 103
0.473738 -0.369852 -0.505 181 131 104
0.4747 -0.369852 -0.505 181 131 104
0.475662 -0.369852 -0.505 180 130 103
0.476624 -0.369852 -0.505 178 128 101
0.477586 -0.369852 -0.505 181 131 104
0.478548 -0.369852 -0.505 182 132 105
0.47951 -0.369852 -0.505 181 131 104
0.480471 -0.369852 -0.505 179 129 102
0.481433 -0.369852 -0.505 178 131 103
0.482395 -0.369852 -0.505 177 130 102
0.483357 -0.369852 -0.505 171 124 96
0.484319 -0.369852 -0.505 177 130 102
0.485281 -0.369852 -0.505 177 130 104
0.486243 -0.369852 -0.505 176 129 103
0.487205 -0.369852 -0.505 172 125 97
0.488167 -0.369852 -0.505 169 122 94
0.490097 -0.370585 -0.506 168 122 96
0.492031 -0.371317 -0.507 168 122 96
0.49397 -0.37205 -0.508 167 121 97
0.495911 -0.372782 -0.509 165 119 95
0.496881 -0.372782 -0.509 165 119 95
0.498829 -0.373514 -0.51 166 120 96
0.50176 -0.374979 -0.512 166 120 94
0.503717 -0.375711 -0.513 165 119 93
0.506662 -0.377176 -0.515 161 119 94
0.509614 -0.378641 -0.517 160 118 93
0.513562 -0.380838 -0.52 161 119 94
0.517521 -0.383035 -0.523 162 120 95
0.522483 -0.385965 -0.527 164 120 95
0.584144 -0.422584 -0.577 177 159 147
0.588286 -0.424781 -0.58 186 168 156
0.0288619 -0.404591 -0.551 195 151 122
0.0297486 -0.402389 -0.548 193 152 124
0.0306238 -0.400186 -0.545 195 154 126
0.0314295 -0.397249 -0.541 196 156 130
0.03228 -0.395046 -0.538 198 158 132
0.033119 -0.392843 -0.535 201 160 132
0.0338829 -0.389906 -0.531 201 160 132
0.0347629 -0.388437 -0.529 204 160 131
0.0356352 -0.386969 -0.527 204 160 131
0.0365 -0.3855 -0.525 205 161 132
0.0374286 -0.384766 -0.524 205 161 132
0.0383533 -0.384031 -0.523 205 161 134
0.0392743 -0.383297 -0.522 205 161 134
0.0402686 -0.383297 -0.522 204 160 133
0.0412629 -0.383297 -0.522 202 158 131
0.0421762 -0.382563 -0.521 204 159 130
0.0431686 -0.382563 -0.521 203 158 129
0.044161 -0.382563 -0.521 203 159 130
0.0451533 -0.382563 -0.521 205 161 132
0.0460571 -0.381829 -0.52 205 161 134
0.0470476 -0.381829 -0.52 203 159 132
0.0480381 -0.381829 -0.52 202 158 131
0.0490286 -0.381829 -0.52 202 158 131
0.050019 -0.381829 -0.52 202 158 131
0.0510095 -0.381829 -0.52 204 160 133
0.0519 -0.381094 -0.519 204 158 132
0.0528886 -0.381094 -0.519 202 156 130
0.0538771 -0.381094 -0.519 204 158 132
0.0548657 -0.381094 -0.519 206 160 134
0.0558543 -0.381094 -0.519 204 158 132
0.0568429 -0.381094 -0.519 201 155 129
0.0578314 -0.381094 -0.519 202 157 128
0.05882 -0.381094 -0.519 202 157 128
0.0598086 -0.381094 -0.519 200 154 128
0.0607971 -0.381094 -0.519 196 150 124
0.0619048 -0.381829 -0.52 194 148 124
0.0628952 -0.381829 -0.52 194 148 124
0.0638857 -0.381829 -0.52 193 145 122
0.0648762 -0.381829 -0.52 190 142 119
0.0658667 -0.381829 -0.52 193 143 120
0.0668571 -0.381829 -0.52 191 141 118
0.0678476 -0.381829 -0.52 188 138 115
0.0689705 -0.382563 -0.521 186 136 113
0.0700971 -0.383297 -0.522 186 134 113
0.0710914 -0.383297 -0.522 186 134 113
0.0722238 -0.384031 -0.523 182 129 111
0.07322 -0.384031 -0.523 177 124 106
0.0743581 -0.384766 -0.524 183 129 105
0.0755 -0.3855 -0.525 183 129 105
0.0765 -0.3855 -0.525 183 128 107
0.0776476 -0.386234 -0.526 182 127 106
0.078799 -0.386969 -0.527 182 127 106
0.0799543 -0.387703 -0.528 181 126 105
0.08096 -0.387703 -0.528 177 125 104
0.0821209 -0.388437 -0.529 175 123 102
0.0832857 -0.389171 -0.53 174 122 101
0.0842952 -0.389171 -0.53 174 122 101
0.0854657 -0.389906 -0.531 173 120 102
0.08664 -0.39064 -0.532 172 119 101
0.0878181 -0.391374 -0.533 171 118 100
0.089 -0.392109 -0.534 171 118 100
0.0901857 -0.392843 -0.535 170 117 99
0.0913752 -0.393577 -0.536 168 115 97
0.0925686 -0.394311 -0.537 164 113 94
0.0937657 -0.395046 -0.538 164 113 94
0.0949667 -0.39578 -0.539 162 113 98
0.0961714 -0.396514 -0.54 162 113 98
0.09756 -0.397983 -0.542 158 112 99
0.0989562 -0.399451 -0.544 155 109 96
0.100176 -0.400186 -0.545 150 107 100
0.101586 -0.401654 -0.547 148 105 98
0.103003 -0.403123 -0.549 140 105 103
0.104428 -0.404591 -0.551 136 101 99
0.10586 -0.40606 -0.553 128 102 103
0.1073 -0.407529 -0.555 127 101 102
0.122786 -0.420746 -0.573 103 99 116
0.124093 -0.42148 -0.574 101 97 114
0.125187 -0.42148 -0.574 94 91 108
0.1265 -0.422214 -0.575 112 109 126
0.127595 -0.422214 -0.575 123 121 135
0.12869 -0.422214 -0.575 134 132 146
0.129786 -0.422214 -0.575 143 139 153
0.130881 -0.422214 -0.575 127 123 137
0.131976 -0.422214 -0.575 116 110 124
0.133071 -0.422214 -0.575 143 137 151
0.134167 -0.422214 -0.575 172 166 166
0.135262 -0.422214 -0.575 172 166 166
0.136357 -0.422214 -0.575 180 174 174
0.137452 -0.422214 -0.575 186 180 182
0.138548 -0.422214 -0.575 188 182 184
0.139643 -0.422214 -0.575 192 190 195
0.140738 -0.422214 -0.575 191 189 194
0.141833 -0.422214 -0.575 194 194 206
0.142929 -0.422214 -0.575 193 193 205
0.144024 -0.422214 -0.575 195 197 218
0.145119 -0.422214 -0.575 192 194 215
0.146214 -0.422214 -0.575 178 185 211
0.14731 -0.422214 -0.575 130 137 163
0.148405 -0.422214 -0.575 99 112 146
0.1495 -0.422214 -0.575 99 112 146
0.150595 -0.422214 -0.575 102 120 158
0.15169 -0.422214 -0.575 103 121 159
0.152786 -0.422214 -0.575 98 128 180
0.153881 -0.422214 -0.575 78 108 160
0.154976 -0.422214 -0.575 66 96 160
0.344282 -0.428823 -0.584 164 183 216
0.345394 -0.428823 -0.584 110 129 162
0.351557 -0.429557 -0.585 103 139 189
0.352671 -0.429557 -0.585 72 108 158
0.353786 -0.429557 -0.585 82 120 183
0.3549 -0.429557 -0.585 83 121 184
0.356014 -0.429557 -0.585 65 113 179
0.357129 -0.429557 -0.585 55 103 169
0.358243 -0.429557 -0.585 72 111 170
0.359357 -0.429557 -0.585 123 162 221
0.360471 -0.429557 -0.585 123 162 221
0.361586 -0.429557 -0.585 136 166 216
0.3627 -0.429557 -0.585 127 157 207
0.363814 -0.429557 -0.585 113 136 186
0.364929 -0.429557 -0.585 93 116 166
0.367785 -0.430291 -0.586 161 181 218
0.368901 -0.430291 -0.586 189 200 230
0.370017 -0.430291 -0.586 201 212 242
0.371133 -0.430291 -0.586 207 214 232
0.37225 -0.430291 -0.586 205 212 230
0.373366 -0.430291 -0.586 204 211 227
0.374482 -0.430291 -0.586 208 215 231
0.375598 -0.430291 -0.586 206 215 230
0.376714 -0.430291 -0.586 204 213 228
0.37783 -0.430291 -0.586 209 213 222
0.379593 -0.431026 -0.587 206 210 219
0.380063 -0.430291 -0.586 190 191 196
0.381179 -0.430291 -0.586 172 173 178
0.382295 -0.430291 -0.586 171 176 180
0.383411 -0.430291 -0.586 198 203 207
0.385184 -0.431026 -0.587 191 200 207
0.386302 -0.431026 -0.587 182 191 198
0.38742 -0.431026 -0.587 181 188 198
0.388538 -0.431026 -0.587 184 191 201
0.389656 -0.431026 -0.587 194 198 210
0.390774 -0.431026 -0.587 196 200 212
0.391892 -0.431026 -0.587 197 199 212
0.39301 -0.431026 -0.587 190 192 205
0.3948 -0.43176 -0.588 168 166 171
0.39592 -0.43176 -0.588 179 177 182
0.39704 -0.43176 -0.588 178 182 185
0.39816 -0.43176 -0.588 178 182 185
0.39928 -0.43176 -0.588 193 197 200
0.4004 -0.43176 -0.588 195 203 206
0.40152 -0.43176 -0.588 193 201 204
0.40264 -0.43176 -0.588 195 199 210
0.40376 -0.43176 -0.588 194 198 209
0.40488 -0.43176 -0.588 199 204 223
0.406 -0.43176 -0.588 188 193 212
0.407812 -0.432494 -0.589 157 172 195
0.408934 -0.432494 -0.589 134 149 172
0.410056 -0.432494 -0.589 91 113 150
0.411178 -0.432494 -0.589 88 110 147
0.4123 -0.432494 -0.589 109 132 182
0.413422 -0.432494 -0.589 110 133 183
0.414544 -0.432494 -0.589 116 144 194
0.415666 -0.432494 -0.589 98 126 176
0.416788 -0.432494 -0.589 58 88 150
0.41791 -0.432494 -0.589 43 73 135
0.419031 -0.432494 -0.589 46 83 153
0.420153 -0.432494 -0.589 70 107 177
0.421275 -0.432494 -0.589 59 98 167
0.422397 -0.432494 -0.589 34 73 142
0.423519 -0.432494 -0.589 29 69 128
0.425362 -0.433229 -0.59 45 85 144
0.426486 -0.433229 -0.59 98 132 180
0.42761 -0.433229 -0.59 112 146 194
0.428733 -0.433229 -0.59 111 139 179
0.429857 -0.433229 -0.59 113 141 181
0.430981 -0.433229 -0.59 95 117 156
0.432105 -0.433229 -0.59 87 109 148
0.433229 -0.433229 -0.59 99 120 149
0.435089 -0.433963 -0.591 134 155 184
0.436214 -0.433963 -0.591 170 181 199
0.43734 -0.433963 -0.591 172 183 201
0.438466 -0.433963 -0.591 172 183 201
0.439591 -0.433963 -0.591 182 184 199
0.440717 -0.433963 -0.591 184 186 201
0.44259 -0.434697 -0.592 184 186 199
0.443718 -0.434697 -0.592 185 187 200
0.444846 -0.434697 -0.592 181 186 190
0.445973 -0.434697 -0.592 154 159 163
0.447101 -0.434697 -0.592 139 144 140
0.448229 -0.434697 -0.592 164 169 165
0.449356 -0.434697 -0.592 175 179 180
0.451245 -0.435431 -0.593 179 183 184
0.452374 -0.435431 -0.593 180 187 193
0.453504 -0.435431 -0.593 175 182 188
0.453867 -0.434697 -0.592 163 172 181
0.454994 -0.434697 -0.592 156 165 174
0.456122 -0.434697 -0.592 165 169 178
0.45725 -0.434697 -0.592 177 181 190
0.458377 -0.434697 -0.592 138 141 148
0.459505 -0.434697 -0.592 120 123 130
0.460632 -0.434697 -0.592 156 159 166
0.46176 -0.434697 -0.592 169 172 179
0.462888 -0.434697 -0.592 174 177 184
0.464799 -0.435431 -0.593 173 176 183
0.465929 -0.435431 -0.593 180 184 193
0.467058 -0.435431 -0.593 174 178 187
0.468188 -0.435431 -0.593 168 174 186
0.469317 -0.435431 -0.593 175 181 193
0.47124 -0.436166 -0.594 169 177 190
0.472371 -0.436166 -0.594 166 174 187
0.473503 -0.436166 -0.594 145 155 180
0.474634 -0.436166 -0.594 108 118 143
0.475766 -0.436166 -0.594 87 98 130
0.476897 -0.436166 -0.594 105 116 148
0.478029 -0.436166 -0.594 121 137 170
0.47916 -0.436166 -0.594 125 141 174
0.480291 -0.436166 -0.594 111 135 173
0.481423 -0.436166 -0.594 114 138 176
0.482554 -0.436166 -0.594 114 138 176
0.483686 -0.436166 -0.594 87 118 164
0.484817 -0.436166 -0.594 45 76 122
0.485949 -0.436166 -0.594 45 77 134
0.48708 -0.436166 -0.594 50 82 139
0.488211 -0.436166 -0.594 58 92 155
0.489343 -0.436166 -0.594 62 96 159
0.490474 -0.436166 -0.594 48 80 139
0.491606 -0.436166 -0.594 41 73 132
0.492737 -0.436166 -0.594 53 80 133
0.493869 -0.436166 -0.594 94 121 174
0.495 -0.436166 -0.594 123 140 183
0.496131 -0.436166 -0.594 113 130 173
0.497263 -0.436166 -0.594 134 150 186
0.497555 -0.435431 -0.593 127 143 179
0.498685 -0.435431 -0.593 100 116 150
0.499814 -0.435431 -0.593 73 89 123
0.49364 -0.42148 -0.574 150 126 114
0.489562 -0.417074 -0.568 149 125 113
0.484597 -0.411934 -0.561 144 116 104
0.479606 -0.406794 -0.554 138 110 98
0.475455 -0.402389 -0.548 144 110 98
0.472151 -0.398717 -0.543 144 110 98
0.4697 -0.39578 -0.539 146 112 102
0.46636 -0.392109 -0.534 147 113 103
0.464751 -0.389906 -0.531 148 115 108
0.464886 -0.389171 -0.53 147 114 107
0.464137 -0.387703 -0.528 148 115 106
0.463381 -0.386234 -0.526 149 116 107
0.462617 -0.384766 -0.524 154 118 104
0.461846 -0.383297 -0.522 157 121 107
0.461953 -0.382563 -0.521 162 124 105
0.461169 -0.381094 -0.519 162 124 105
0.461267 -0.38036 -0.518 167 122 99
0.461361 -0.379626 -0.517 168 123 100
0.461451 -0.378891 -0.516 171 125 102
0.462434 -0.378891 -0.516 171 125 102
0.462519 -0.378157 -0.515 172 126 103
0.4626 -0.377423 -0.514 171 125 102
0.462677 -0.376689 -0.513 172 126 103
0.46275 -0.375954 -0.512 174 128 104
0.46282 -0.37522 -0.511 175 129 105
0.463793 -0.37522 -0.511 177 130 104
0.463857 -0.374486 -0.51 178 131 105
0.464829 -0.374486 -0.51 180 130 105
0.4658 -0.374486 -0.51 178 128 103
0.465856 -0.373751 -0.509 180 130 105
0.465909 -0.373017 -0.508 182 132 107
0.466876 -0.373017 -0.508 182 132 105
0.466923 -0.372283 -0.507 184 134 107
0.467889 -0.372283 -0.507 181 131 106
0.468854 -0.372283 -0.507 177 127 102
0.468893 -0.371549 -0.506 177 127 102
0.469857 -0.371549 -0.506 178 128 103
0.470821 -0.371549 -0.506 179 129 104
0.471785 -0.371549 -0.506 181 131 106
0.472749 -0.371549 -0.506 182 132 105
0.473712 -0.371549 -0.506 180 130 103
0.473738 -0.370814 -0.505 182 132 105
0.4747 -0.370814 -0.505 182 132 105
0.475662 -0.370814 -0.505 180 130 103
0.476624 -0.370814 -0.505 179 129 102
0.477586 -0.370814 -0.505 181 131 104
0.4776 -0.37008 -0.504 182 132 105
0.47856 -0.37008 -0.504 181 131 104
0.47952 -0.37008 -0.504 179 129 102
0.48048 -0.37008 -0.504 180 130 103
0.48144 -0.37008 -0.504 179 129 102
0.4824 -0.37008 -0.504 173 123 96
0.48336 -0.37008 -0.504 178 128 101
0.48432 -0.37008 -0.504 178 131 105
0.48528 -0.37008 -0.504 178 131 105
0.48624 -0.37008 -0.504 174 127 99
0.488167 -0.370814 -0.505 170 123 95
0.489129 -0.370814 -0.505 171 124 98
0.491061 -0.371549 -0.506 170 123 97
0.492997 -0.372283 -0.507 169 122 96
0.493963 -0.372283 -0.507 169 122 96
0.495905 -0.373017 -0.508 168 122 96
0.49785 -0.373751 -0.509 167 121 95
0.4998 -0.374486 -0.51 166 120 94
0.502735 -0.375954 -0.512 165 119 93
0.504694 -0.376689 -0.513 165 119 95
0.507643 -0.378157 -0.515 165 119 95
0.510599 -0.379626 -0.517 164 120 95
0.514552 -0.381829 -0.52 164 120 95
0.519509 -0.384766 -0.524 165 121 96
0.580094 -0.420746 -0.573 172 146 131
0.585243 -0.423683 -0.577 183 157 142
0.588374 -0.425151 -0.579 182 165 158
0.0287048 -0.403432 -0.548 195 151 124
0.0295857 -0.401224 -0.545 193 151 126
0.0304552 -0.399015 -0.542 195 153 128
0.0312552 -0.39607 -0.538 197 155 130
0.0321 -0.393862 -0.535 199 157 132
0.0329333 -0.391653 -0.532 203 159 132
0.0337552 -0.389445 -0.529 203 159 132
0.0346314 -0.387972 -0.527 204 158 132
0.0355676 -0.387236 -0.526 203 157 131
0.0364305 -0.385764 -0.524 205 159 133
0.0373571 -0.385028 -0.523 208 162 136
0.03828 -0.384291 -0.522 208 162 136
0.0392743 -0.384291 -0.522 208 162 136
0.0401914 -0.383555 -0.521 206 160 134
0.0411838 -0.383555 -0.521 202 156 130
0.0420952 -0.382819 -0.52 204 159 130
0.0430857 -0.382819 -0.52 203 158 129
0.0440762 -0.382819 -0.52 204 159 130
0.0450667 -0.382819 -0.52 204 159 130
0.0460571 -0.382819 -0.52 203 158 129
0.0469571 -0.382083 -0.519 202 157 128
0.0479457 -0.382083 -0.519 203 158 129
0.0489343 -0.382083 -0.519 204 159 130
0.0499229 -0.382083 -0.519 203 158 129
0.0509114 -0.382083 -0.519 204 159 130
0.0519 -0.382083 -0.519 204 158 132
0.0528886 -0.382083 -0.519 203 157 131
0.0538771 -0.382083 -0.519 202 156 130
0.05476 -0.381347 -0.518 204 158 132
0.0557467 -0.381347 -0.518 203 157 131
0.0567333 -0.381347 -0.518 199 153 127
0.05772 -0.381347 -0.518 199 154 125
0.0587067 -0.381347 -0.518 198 153 124
0.0598086 -0.382083 -0.519 197 151 125
0.0607971 -0.382083 -0.519 195 149 123
0.0617857 -0.382083 -0.519 197 149 126
0.0627743 -0.382083 -0.519 197 149 126
0.0637629 -0.382083 -0.519 193 145 122
0.0647514 -0.382083 -0.519 188 140 117
0.0658667 -0.382819 -0.52 190 140 117
0.0668571 -0.382819 -0.52 189 139 116
0.0678476 -0.382819 -0.52 187 135 113
0.0689705 -0.383555 -0.521 186 134 112
0.0699629 -0.383555 -0.521 186 134 113
0.0710914 -0.384291 -0.522 185 133 112
0.0722238 -0.385028 -0.523 181 128 110
0.07322 -0.385028 -0.523 179 126 108
0.0743581 -0.385764 -0.524 183 131 109
0.0755 -0.3865 -0.525 182 130 108
0.0765 -0.3865 -0.525 181 129 107
0.0776476 -0.387236 -0.526 180 128 106
0.0786495 -0.387236 -0.526 179 127 105
0.0798029 -0.387972 -0.527 179 127 105
0.08096 -0.388709 -0.528 178 126 105
0.0821209 -0.389445 -0.529 175 123 102
0.0832857 -0.390181 -0.53 175 123 102
0.0842952 -0.390181 -0.53 175 123 102
0.0854657 -0.390917 -0.531 172 121 102
0.08664 -0.391653 -0.532 171 120 101
0.0878181 -0.39239 -0.533 170 119 100
0.089 -0.393126 -0.534 169 118 99
0.0901857 -0.393862 -0.535 168 117 100
0.0913752 -0.394598 -0.536 167 116 99
0.0925686 -0.395334 -0.537 165 117 97
0.0937657 -0.39607 -0.538 162 114 94
0.0951429 -0.397543 -0.54 162 113 96
0.0963495 -0.398279 -0.541 162 113 96
0.09756 -0.399015 -0.542 155 109 96
0.0989562 -0.400488 -0.544 154 108 95
0.10036 -0.40196 -0.546 148 108 100
0.101771 -0.403432 -0.548 143 103 95
0.10319 -0.404905 -0.55 139 104 102
0.104617 -0.406377 -0.552 134 99 97
0.106051 -0.40785 -0.554 126 100 101
0.121482 -0.421101 -0.572 93 89 104
0.122786 -0.421837 -0.573 97 94 111
0.123877 -0.421837 -0.573 94 91 108
0.124969 -0.421837 -0.573 93 92 108
0.12628 -0.422573 -0.574 108 107 123
0.127373 -0.422573 -0.574 120 119 133
0.12869 -0.42331 -0.575 126 125 139
0.129786 -0.42331 -0.575 113 110 121
0.130881 -0.42331 -0.575 97 94 105
0.131747 -0.422573 -0.574 125 119 129
0.13284 -0.422573 -0.574 166 160 170
0.133933 -0.422573 -0.574 166 160 170
0.135027 -0.422573 -0.574 171 171 173
0.13612 -0.422573 -0.574 181 181 183
0.137213 -0.422573 -0.574 180 180 182
0.138307 -0.422573 -0.574 185 185 187
0.1394 -0.422573 -0.574 191 190 196
0.140493 -0.422573 -0.574 191 190 196
0.141587 -0.422573 -0.574 189 189 199
0.14268 -0.422573 -0.574 188 188 198
0.143773 -0.422573 -0.574 190 193 210
0.144867 -0.422573 -0.574 181 184 201
0.14596 -0.422573 -0.574 155 165 192
0.147053 -0.422573 -0.574 128 138 165
0.148147 -0.422573 -0.574 93 113 148
0.14924 -0.422573 -0.574 99 119 154
0.150333 -0.422573 -0.574 94 118 162
0.151427 -0.422573 -0.574 86 110 154
0.15252 -0.422573 -0.574 72 103 157
0.153613 -0.422573 -0.574 63 94 148
0.154707 -0.422573 -0.574 64 94 156
0.1558 -0.422573 -0.574 68 98 160
0.156893 -0.422573 -0.574 69 100 164
0.157987 -0.422573 -0.574 67 98 162
0.15908 -0.422573 -0.574 67 102 160
0.160173 -0.422573 -0.574 70 105 163
0.161267 -0.422573 -0.574 75 112 167
0.16236 -0.422573 -0.574 74 111 166
0.347619 -0.429935 -0.584 97 123 182
0.348731 -0.429935 -0.584 100 136 196
0.349844 -0.429935 -0.584 101 137 197
0.350956 -0.429935 -0.584 81 122 178
0.352069 -0.429935 -0.584 66 107 163
0.353181 -0.429935 -0.584 71 109 172
0.354293 -0.429935 -0.584 70 108 171
0.355406 -0.429935 -0.584 61 106 171
0.366043 -0.430671 -0.585 130 154 200
0.367157 -0.430671 -0.585 178 202 248
0.368271 -0.430671 -0.585 201 212 232
0.369386 -0.430671 -0.585 205 216 236
0.3705 -0.430671 -0.585 212 215 230
0.371614 -0.430671 -0.585 213 216 231
0.372729 -0.430671 -0.585 207 214 232
0.373843 -0.430671 -0.585 206 213 231
0.374957 -0.430671 -0.585 205 211 223
0.376714 -0.431408 -0.586 204 210 222
0.37783 -0.431408 -0.586 216 219 226
0.378947 -0.431408 -0.586 184 187 194
0.380063 -0.431408 -0.586 155 156 160
0.381179 -0.431408 -0.586 164 165 169
0.382295 -0.431408 -0.586 180 185 191
0.383411 -0.431408 -0.586 188 193 199
0.384528 -0.431408 -0.586 184 192 203
0.385644 -0.431408 -0.586 173 181 192
0.38676 -0.431408 -0.586 162 169 185
0.387876 -0.431408 -0.586 170 177 193
0.388992 -0.431408 -0.586 185 191 207
0.390109 -0.431408 -0.586 184 190 206
0.391225 -0.431408 -0.586 187 193 209
0.39301 -0.432144 -0.587 185 191 207
0.394129 -0.432144 -0.587 189 192 201
0.395247 -0.432144 -0.587 170 173 182
0.396365 -0.432144 -0.587 151 155 158
0.397483 -0.432144 -0.587 151 155 158
0.398601 -0.432144 -0.587 174 178 181
0.399719 -0.432144 -0.587 196 200 203
0.400837 -0.432144 -0.587 198 202 205
0.401955 -0.432144 -0.587 196 198 210
0.403073 -0.432144 -0.587 196 198 210
0.404191 -0.432144 -0.587 198 201 218
0.406 -0.43288 -0.588 199 202 219
0.40712 -0.43288 -0.588 182 193 213
0.40824 -0.43288 -0.588 169 180 200
0.40936 -0.43288 -0.588 96 118 157
0.41048 -0.43288 -0.588 58 80 119
0.4116 -0.43288 -0.588 59 91 148
0.41272 -0.43288 -0.588 73 105 162
0.41384 -0.43288 -0.588 85 119 180
0.41496 -0.43288 -0.588 71 105 166
0.41608 -0.43288 -0.588 41 76 142
0.4172 -0.43288 -0.588 32 67 133
0.419031 -0.433616 -0.589 33 70 141
0.41944 -0.43288 -0.588 48 85 156
0.42056 -0.43288 -0.588 40 79 148
0.42168 -0.43288 -0.588 25 64 133
0.423519 -0.433616 -0.589 27 65 130
0.424641 -0.433616 -0.589 36 74 139
0.425763 -0.433616 -0.589 63 99 157
0.426885 -0.433616 -0.589 85 121 179
0.428007 -0.433616 -0.589 77 110 163
0.429129 -0.433616 -0.589 61 94 147
0.430981 -0.434352 -0.59 61 91 141
0.432105 -0.434352 -0.59 70 100 150
0.433229 -0.434352 -0.59 136 155 185
0.434352 -0.434352 -0.59 161 180 210
0.435476 -0.434352 -0.59 178 186 197
0.43734 -0.435089 -0.591 178 186 197
0.438466 -0.435089 -0.591 178 186 197
0.439591 -0.435089 -0.591 185 183 196
0.440717 -0.435089 -0.591 188 186 199
0.441843 -0.435089 -0.591 189 188 202
0.442969 -0.435089 -0.591 180 179 193
0.444846 -0.435825 -0.592 159 163 164
0.445973 -0.435825 -0.592 116 120 121
0.447101 -0.435825 -0.592 139 141 140
0.448229 -0.435825 -0.592 176 178 177
0.449356 -0.435825 -0.592 172 175 184
0.450484 -0.435825 -0.592 173 176 185
0.451611 -0.435825 -0.592 171 178 184
0.452739 -0.435825 -0.592 166 173 179
0.453867 -0.435825 -0.592 156 164 177
0.454994 -0.435825 -0.592 139 147 160
0.456122 -0.435825 -0.592 154 160 174
0.45725 -0.435825 -0.592 167 173 187
0.458377 -0.435825 -0.592 158 162 173
0.459505 -0.435825 -0.592 152 156 167
0.460632 -0.435825 -0.592 149 152 159
0.46176 -0.435825 -0.592 154 157 164
0.462888 -0.435825 -0.592 173 174 179
0.464015 -0.435825 -0.592 178 179 184
0.465143 -0.435825 -0.592 174 177 186
0.467058 -0.436561 -0.593 173 176 185
0.468188 -0.436561 -0.593 173 177 188
0.469317 -0.436561 -0.593 173 177 188
0.470447 -0.436561 -0.593 170 179 186
0.471576 -0.436561 -0.593 170 179 186
0.472706 -0.436561 -0.593 166 175 192
0.473835 -0.436561 -0.593 154 163 180
0.474965 -0.436561 -0.593 122 135 170
0.476094 -0.436561 -0.593 78 91 126
0.477224 -0.436561 -0.593 69 89 126
0.478353 -0.436561 -0.593 82 102 139
0.479483 -0.436561 -0.593 89 115 164
0.480612 -0.436561 -0.593 92 118 167
0.481742 -0.436561 -0.593 75 105 159
0.482871 -0.436561 -0.593 75 105 159
0.484001 -0.436561 -0.593 36 66 120
0.48513 -0.436561 -0.593 34 65 120
0.48626 -0.436561 -0.593 39 70 125
0.48739 -0.436561 -0.593 43 74 141
0.488519 -0.436561 -0.593 46 77 144
0.489649 -0.436561 -0.593 32 67 123
0.490778 -0.436561 -0.593 27 62 118
0.491908 -0.436561 -0.593 36 65 123
0.493037 -0.436561 -0.593 70 99 157
0.494167 -0.436561 -0.593 98 119 164
0.495296 -0.436561 -0.593 101 122 167
0.496426 -0.436561 -0.593 99 121 160
0.497555 -0.436561 -0.593 72 94 133
0.498685 -0.436561 -0.593 76 96 131
0.498971 -0.435825 -0.592 80 100 135
0.500099 -0.435825 -0.592 122 132 157
0.501227 -0.435825 -0.592 142 152 177
0.492148 -0.420365 -0.571 150 130 121
0.488916 -0.416684 -0.566 147 120 109
0.483934 -0.41153 -0.559 138 111 100
0.478058 -0.405641 -0.551 141 109 98
0.47476 -0.40196 -0.546 143 111 100
0.471443 -0.398279 -0.541 144 111 102
0.46898 -0.395334 -0.537 144 111 102
0.466502 -0.39239 -0.533 147 114 107
0.46664 -0.391653 -0.532 146 113 104
0.465016 -0.389445 -0.529 147 114 105
0.464262 -0.387972 -0.527 149 116 107
0.4635 -0.3865 -0.525 152 119 104
0.46273 -0.385028 -0.523 154 121 106
0.46284 -0.384291 -0.522 159 122 103
0.462057 -0.382819 -0.52 159 122 103
0.461267 -0.381347 -0.518 166 121 98
0.461361 -0.38061 -0.517 167 122 99
0.461451 -0.379874 -0.516 169 124 101
0.462434 -0.379874 -0.516 169 124 101
0.462519 -0.379138 -0.515 170 125 102
0.4635 -0.379138 -0.515 170 124 101
0.463579 -0.378402 -0.514 171 125 102
0.463654 -0.377666 -0.513 173 127 103
0.463726 -0.37693 -0.512 175 129 105
0.463793 -0.376193 -0.511 178 130 107
0.463857 -0.375457 -0.51 177 129 106
0.464829 -0.375457 -0.51 179 129 106
0.4658 -0.375457 -0.51 177 127 104
0.465856 -0.374721 -0.509 179 129 104
0.465909 -0.373985 -0.508 183 133 108
0.466876 -0.373985 -0.508 182 132 107
0.466923 -0.373249 -0.507 183 133 108
0.467889 -0.373249 -0.507 180 130 105
0.468854 -0.373249 -0.507 178 128 103
0.468893 -0.372512 -0.506 178 128 103
0.469857 -0.372512 -0.506 178 128 103
0.470821 -0.372512 -0.506 179 129 104
0.470852 -0.371776 -0.505 181 131 106
0.471814 -0.371776 -0.505 180 130 105
0.472776 -0.371776 -0.505 180 130 105
0.473738 -0.371776 -0.505 180 130 103
0.4747 -0.371776 -0.505 181 131 104
0.475662 -0.371776 -0.505 180 130 103
0.476624 -0.371776 -0.505 179 129 102
0.47664 -0.37104 -0.504 180 130 103
0.4776 -0.37104 -0.504 182 132 105
0.47856 -0.37104 -0.504 182 132 105
0.478569 -0.370304 -0.503 181 131 104
0.479527 -0.370304 -0.503 180 130 105
0.480485 -0.370304 -0.503 182 132 107
0.4824 -0.37104 -0.504 176 126 101
0.48336 -0.37104 -0.504 180 130 105
0.48432 -0.37104 -0.504 179 132 106
0.48528 -0.37104 -0.504 179 132 106
0.48624 -0.37104 -0.504 175 128 102
0.4872 -0.37104 -0.504 172 125 99
0.48816 -0.37104 -0.504 171 124 98
0.49009 -0.371776 -0.505 171 124 98
0.492025 -0.372512 -0.506 171 124 98
0.492989 -0.372512 -0.506 172 125 99
0.494929 -0.373249 -0.507 170 124 98
0.496872 -0.373985 -0.508 168 122 96
0.49882 -0.374721 -0.509 166 120 94
0.500771 -0.375457 -0.51 167 121 95
0.502727 -0.376193 -0.511 167 120 94
0.505671 -0.377666 -0.513 166 119 93
0.509611 -0.379874 -0.516 164 118 94
0.512573 -0.381347 -0.518 164 118 94
0.516534 -0.383555 -0.521 164 120 95
0.574961 -0.418892 -0.569 166 135 117
0.576045 -0.418892 -0.569 166 135 117
0.581186 -0.421837 -0.573 178 147 129
0.586342 -0.424782 -0.577 176 156 147
0.589477 -0.426254 -0.579 185 165 156
0.59058 -0.426254 -0.579 187 170 162
0.0277114 -0.405214 -0.549 194 152 128
0.0286 -0.403 -0.546 194 152 128
0.0294229 -0.400048 -0.542 194 152 128
0.0302867 -0.397833 -0.539 195 153 129
0.031139 -0.395619 -0.536 200 156 131
0.03192 -0.392667 -0.532 202 158 133
0.0328095 -0.39119 -0.53 204 158 132
0.0336276 -0.388976 -0.527 203 157 131
0.0345 -0.3875 -0.525 204 158 132
0.0354324 -0.386762 -0.524 202 156 130
0.036361 -0.386024 -0.523 204 158 132
0.0372857 -0.385286 -0.522 207 161 135
0.0382067 -0.384548 -0.521 208 163 134
0.039199 -0.384548 -0.521 207 162 133
0.0401143 -0.38381 -0.52 207 160 130
0.0411048 -0.38381 -0.52 204 157 127
0.0420952 -0.38381 -0.52 204 159 128
0.0430029 -0.383071 -0.519 203 158 127
0.0440762 -0.38381 -0.52 204 159 130
0.04498 -0.383071 -0.519 204 159 130
0.0459686 -0.383071 -0.519 203 158 129
0.0468667 -0.382333 -0.518 202 157 128
0.0478533 -0.382333 -0.518 202 157 128
0.04884 -0.382333 -0.518 202 157 128
0.0498267 -0.382333 -0.518 203 156 128
0.0508133 -0.382333 -0.518 204 157 129
0.0518 -0.382333 -0.518 204 157 129
0.0527867 -0.382333 -0.518 203 156 128
0.0537733 -0.382333 -0.518 203 156 128
0.05476 -0.382333 -0.518 204 157 129
0.0557467 -0.382333 -0.518 203 156 128
0.0567333 -0.382333 -0.518 199 152 124
0.05772 -0.382333 -0.518 196 150 124
0.0587067 -0.382333 -0.518 193 147 121
0.0596933 -0.382333 -0.518 191 145 119
0.0607971 -0.383071 -0.519 193 147 121
0.0617857 -0.383071 -0.519 197 149 126
0.0627743 -0.383071 -0.519 197 149 126
0.0637629 -0.383071 -0.519 192 144 121
0.0647514 -0.383071 -0.519 185 137 114
0.0658667 -0.38381 -0.52 184 134 111
0.0668571 -0.38381 -0.52 185 135 112
0.0678476 -0.38381 -0.52 185 133 111
0.0688381 -0.38381 -0.52 183 131 109
0.0699629 -0.384548 -0.521 183 131 109
0.0709552 -0.384548 -0.521 181 129 107
0.0720857 -0.385286 -0.522 179 127 106
0.07322 -0.386024 -0.523 179 127 106
0.0743581 -0.386762 -0.524 182 130 108
0.0755 -0.3875 -0.525 181 129 107
0.0765 -0.3875 -0.525 180 128 106
0.0776476 -0.388238 -0.526 179 127 105
0.0786495 -0.388238 -0.526 177 127 104
0.0798029 -0.388976 -0.527 178 128 105
0.08096 -0.389714 -0.528 177 126 105
0.0821209 -0.390452 -0.529 175 124 103
0.0831286 -0.390452 -0.529 174 123 104
0.0842952 -0.39119 -0.53 174 123 104
0.0854657 -0.391929 -0.531 173 122 103
0.08664 -0.392667 -0.532 172 121 102
0.0876533 -0.392667 -0.532 170 119 100
0.0888333 -0.393405 -0.533 168 117 98
0.0900171 -0.394143 -0.534 168 117 100
0.0912048 -0.394881 -0.535 168 117 100
0.0925686 -0.396357 -0.537 167 118 101
0.0937657 -0.397095 -0.538 162 113 96
0.0951429 -0.398571 -0.54 161 114 98
0.0963495 -0.39931 -0.541 160 113 97
0.09774 -0.400786 -0.543 153 107 94
0.0989562 -0.401524 -0.544 152 106 93
0.10036 -0.403 -0.546 145 104 98
0.101771 -0.404476 -0.548 138 97 91
0.10319 -0.405952 -0.55 135 101 99
0.104617 -0.407429 -0.552 130 96 94
0.106051 -0.408905 -0.554 124 98 99
0.121482 -0.42219 -0.572 90 86 103
0.122571 -0.42219 -0.572 90 89 105
0.123877 -0.422929 -0.573 87 86 102
0.124969 -0.422929 -0.573 87 89 104
0.12606 -0.422929 -0.573 100 102 117
0.127373 -0.423667 -0.574 114 116 128
0.128467 -0.423667 -0.574 107 109 121
0.12956 -0.423667 -0.574 99 98 106
0.130653 -0.423667 -0.574 108 107 115
0.131747 -0.423667 -0.574 145 140 147
0.13284 -0.423667 -0.574 145 140 147
0.133933 -0.423667 -0.574 176 171 178
0.135027 -0.423667 -0.574 167 170 175
0.13612 -0.423667 -0.574 175 178 183
0.137213 -0.423667 -0.574 178 181 186
0.138307 -0.423667 -0.574 182 185 190
0.1394 -0.423667 -0.574 189 190 195
0.140493 -0.423667 -0.574 192 193 198
0.141587 -0.423667 -0.574 189 189 199
0.14268 -0.423667 -0.574 189 189 199
0.143523 -0.422929 -0.573 184 187 204
0.144614 -0.422929 -0.573 183 186 203
0.145706 -0.422929 -0.573 145 156 184
0.146797 -0.422929 -0.573 110 121 149
0.147889 -0.422929 -0.573 76 100 138
0.14898 -0.422929 -0.573 87 111 149
0.150071 -0.422929 -0.573 89 120 166
0.151163 -0.422929 -0.573 85 116 162
0.152254 -0.422929 -0.573 83 114 168
0.153346 -0.422929 -0.573 84 115 169
0.154437 -0.422929 -0.573 82 112 172
0.155529 -0.422929 -0.573 82 112 172
0.340361 -0.43031 -0.583 213 211 214
0.341471 -0.43031 -0.583 215 217 229
0.342582 -0.43031 -0.583 203 205 217
0.343692 -0.43031 -0.583 163 177 212
0.344803 -0.43031 -0.583 128 142 177
0.345913 -0.43031 -0.583 100 130 194
0.347024 -0.43031 -0.583 93 123 187
0.349844 -0.431048 -0.584 74 115 181
0.350956 -0.431048 -0.584 66 108 168
0.352069 -0.431048 -0.584 69 111 171
0.353181 -0.431048 -0.584 66 102 164
0.354293 -0.431048 -0.584 59 95 157
0.355406 -0.431048 -0.584 57 101 164
0.356518 -0.431048 -0.584 59 103 166
0.35763 -0.431048 -0.584 62 101 160
0.358743 -0.431048 -0.584 69 108 167
0.359855 -0.431048 -0.584 69 108 167
0.360968 -0.431048 -0.584 69 106 177
0.36208 -0.431048 -0.584 70 107 178
0.363192 -0.431048 -0.584 70 110 171
0.364305 -0.431048 -0.584 80 120 181
0.365417 -0.431048 -0.584 128 156 204
0.368271 -0.431786 -0.585 191 198 214
0.369386 -0.431786 -0.585 200 207 223
0.3705 -0.431786 -0.585 204 202 215
0.371614 -0.431786 -0.585 211 209 222
0.372729 -0.431786 -0.585 206 210 222
0.373843 -0.431786 -0.585 211 215 227
0.374957 -0.431786 -0.585 208 212 223
0.376071 -0.431786 -0.585 208 212 223
0.37783 -0.432524 -0.586 192 195 200
0.378947 -0.432524 -0.586 150 153 158
0.380063 -0.432524 -0.586 151 152 156
0.381179 -0.432524 -0.586 165 166 170
0.382295 -0.432524 -0.586 172 176 185
0.383411 -0.432524 -0.586 176 180 189
0.384528 -0.432524 -0.586 168 177 192
0.385644 -0.432524 -0.586 161 170 185
0.38676 -0.432524 -0.586 150 161 181
0.387876 -0.432524 -0.586 158 169 189
0.388992 -0.432524 -0.586 164 175 195
0.390109 -0.432524 -0.586 164 175 195
0.391225 -0.432524 -0.586 172 179 197
0.392341 -0.432524 -0.586 159 166 184
0.393457 -0.432524 -0.586 178 186 197
0.395247 -0.433262 -0.587 176 184 195
0.396365 -0.433262 -0.587 144 149 152
0.397483 -0.433262 -0.587 144 149 152
0.398601 -0.433262 -0.587 142 147 150
0.399719 -0.433262 -0.587 181 182 184
0.400837 -0.433262 -0.587 200 201 203
0.401955 -0.433262 -0.587 194 197 204
0.403073 -0.433262 -0.587 192 195 202
0.404191 -0.433262 -0.587 194 196 209
0.40531 -0.433262 -0.587 188 190 203
0.406428 -0.433262 -0.587 187 195 214
0.407546 -0.433262 -0.587 165 173 192
0.408664 -0.433262 -0.587 110 134 172
0.409782 -0.433262 -0.587 64 88 126
0.4109 -0.433262 -0.587 47 87 148
0.412018 -0.433262 -0.587 46 86 147
0.413136 -0.433262 -0.587 52 92 154
0.414254 -0.433262 -0.587 44 84 146
0.415372 -0.433262 -0.587 29 67 132
0.4172 -0.434 -0.588 26 64 129
0.41832 -0.434 -0.588 24 61 129
0.41944 -0.434 -0.588 32 69 137
0.42056 -0.434 -0.588 27 64 132
0.42168 -0.434 -0.588 20 57 125
0.4228 -0.434 -0.588 25 63 128
0.42392 -0.434 -0.588 32 70 135
0.425763 -0.434738 -0.589 45 81 143
0.426885 -0.434738 -0.589 53 89 151
0.428007 -0.434738 -0.589 51 87 145
0.429129 -0.434738 -0.589 44 80 138
0.43025 -0.434738 -0.589 46 83 138
0.431372 -0.434738 -0.589 77 114 169
0.432494 -0.434738 -0.589 139 156 186
0.433616 -0.434738 -0.589 167 184 214
0.435476 -0.435476 -0.59 173 180 186
0.4366 -0.435476 -0.59 179 186 192
0.437724 -0.435476 -0.59 183 182 190
0.438848 -0.435476 -0.59 183 182 190
0.439971 -0.435476 -0.59 185 184 192
0.441095 -0.435476 -0.59 191 189 202
0.442969 -0.436214 -0.591 171 169 182
0.444094 -0.436214 -0.591 125 129 128
0.44522 -0.436214 -0.591 126 130 129
0.446346 -0.436214 -0.591 169 170 174
0.447471 -0.436214 -0.591 181 182 186
0.448597 -0.436214 -0.591 162 164 179
0.449723 -0.436214 -0.591 155 157 172
0.450849 -0.436214 -0.591 152 159 167
0.451974 -0.436214 -0.591 154 161 169
0.4531 -0.436214 -0.591 145 154 171
0.454226 -0.436214 -0.591 130 139 156
0.455351 -0.436214 -0.591 137 144 163
0.456477 -0.436214 -0.591 148 155 174
0.457603 -0.436214 -0.591 149 155 171
0.458729 -0.436214 -0.591 150 156 172
0.459854 -0.436214 -0.591 134 137 144
0.46098 -0.436214 -0.591 114 117 124
0.462888 -0.436952 -0.592 153 154 158
0.464015 -0.436952 -0.592 176 177 181
0.465143 -0.436952 -0.592 175 175 185
0.46627 -0.436952 -0.592 175 175 185
0.467398 -0.436952 -0.592 175 179 188
0.469317 -0.43769 -0.593 170 174 183
0.470447 -0.43769 -0.593 170 178 181
0.471576 -0.43769 -0.593 168 176 179
0.472706 -0.43769 -0.593 168 177 184
0.473835 -0.43769 -0.593 165 174 181
0.474965 -0.43769 -0.593 146 159 191
0.476094 -0.43769 -0.593 95 108 140
0.477224 -0.43769 -0.593 53 76 118
0.478353 -0.43769 -0.593 58 81 123
0.479483 -0.43769 -0.593 64 91 146
0.480612 -0.43769 -0.593 57 84 139
0.481742 -0.43769 -0.593 54 83 141
0.482871 -0.43769 -0.593 54 83 141
0.484001 -0.43769 -0.593 31 60 118
0.48513 -0.43769 -0.593 31 60 118
0.48626 -0.43769 -0.593 31 60 118
0.48739 -0.43769 -0.593 28 59 123
0.488519 -0.43769 -0.593 32 63 127
0.489649 -0.43769 -0.593 25 60 114
0.490778 -0.43769 -0.593 20 55 109
0.491078 -0.436952 -0.592 28 60 119
0.492206 -0.436952 -0.592 45 77 136
0.493333 -0.436952 -0.592 71 97 148
0.495296 -0.43769 -0.593 68 94 145
0.496426 -0.43769 -0.593 54 81 128
0.497555 -0.43769 -0.593 43 70 117
0.497844 -0.436952 -0.592 48 72 110
0.498971 -0.436952 -0.592 103 127 165
0.500099 -0.436952 -0.592 146 157 179
0.491508 -0.419976 -0.569 147 124 116
0.486531 -0.41481 -0.562 136 113 105
0.481529 -0.409643 -0.555 139 111 100
0.477369 -0.405214 -0.549 140 112 101
0.474057 -0.401524 -0.544 144 111 102
0.470727 -0.397833 -0.539 144 111 102
0.468252 -0.394881 -0.535 146 113 104
0.46664 -0.392667 -0.532 146 113 104
0.466774 -0.391929 -0.531 146 114 103
0.465143 -0.389714 -0.528 147 115 104
0.464383 -0.388238 -0.526 151 118 103
0.463615 -0.386762 -0.524 152 119 104
0.46284 -0.385286 -0.522 156 121 102
0.462946 -0.384548 -0.521 157 122 103
0.462157 -0.383071 -0.519 162 120 98
0.462253 -0.382333 -0.518 164 122 100
0.462346 -0.381595 -0.517 166 124 102
0.462434 -0.380857 -0.516 167 125 103
0.463417 -0.380857 -0.516 167 125 103
0.4635 -0.380119 -0.515 169 124 103
0.463579 -0.379381 -0.514 169 124 103
0.463654 -0.378643 -0.513 172 126 103
0.463726 -0.377905 -0.512 173 127 104
0.463793 -0.377167 -0.511 176 128 106
0.463857 -0.376429 -0.51 175 127 105
0.464829 -0.376429 -0.51 177 129 106
0.464887 -0.37569 -0.509 176 128 105
0.465856 -0.37569 -0.509 179 129 106
0.465909 -0.374952 -0.508 182 132 109
0.466876 -0.374952 -0.508 181 131 108
0.466923 -0.374214 -0.507 180 130 107
0.467889 -0.374214 -0.507 179 129 106
0.468854 -0.374214 -0.507 179 129 106
0.468893 -0.373476 -0.506 179 129 106
0.469857 -0.373476 -0.506 179 129 106
0.470821 -0.373476 -0.506 181 131 108
0.470852 -0.372738 -0.505 181 131 108
0.471814 -0.372738 -0.505 179 129 106
0.472776 -0.372738 -0.505 180 130 107
0.473738 -0.372738 -0.505 179 129 104
0.4747 -0.372738 -0.505 180 130 105
0.475662 -0.372738 -0.505 180 130 105
0.47568 -0.372 -0.504 179 129 104
0.47664 -0.372 -0.504 179 129 104
0.4776 -0.372 -0.504 181 131 106
0.47761 -0.371262 -0.503 182 132 107
0.478569 -0.371262 -0.503 182 132 107
0.479527 -0.371262 -0.503 182 132 107
0.480485 -0.371262 -0.503 184 134 109
0.481443 -0.371262 -0.503 178 128 103
0.482401 -0.371262 -0.503 180 130 105
0.483359 -0.371262 -0.503 180 133 107
0.484317 -0.371262 -0.503 180 133 107
0.48624 -0.372 -0.504 176 128 105
0.4872 -0.372 -0.504 173 125 102
0.48816 -0.372 -0.504 170 122 99
0.48912 -0.372 -0.504 171 123 100
0.491052 -0.372738 -0.505 172 124 101
0.492014 -0.372738 -0.505 173 125 102
0.493952 -0.373476 -0.506 171 125 101
0.495894 -0.374214 -0.507 169 123 99
0.49784 -0.374952 -0.508 168 122 98
0.49979 -0.37569 -0.509 167 121 97
0.501743 -0.376429 -0.51 167 120 94
0.5037 -0.377167 -0.511 165 118 92
0.506649 -0.378643 -0.513 163 117 93
0.510594 -0.380857 -0.516 163 117 93
0.51356 -0.382333 -0.518 163 118 95
0.517527 -0.384548 -0.521 163 118 95
0.521505 -0.386762 -0.524 164 118 94
0.525494 -0.388976 -0.527 162 116 92
0.529495 -0.39119 -0.53 163 116 88
0.569909 -0.416286 -0.564 163 127 105
0.576045 -0.419976 -0.569 173 137 115
0.577129 -0.419976 -0.569 173 137 115
0.582277 -0.422929 -0.573 170 147 133
0.587441 -0.425881 -0.577 181 158 144
0.59058 -0.427357 -0.579 187 170 162
0.591683 -0.427357 -0.579 190 171 157
0.0266657 -0.40626 -0.549 197 151 127
0.02756 -0.40404 -0.546 192 150 126
0.0284429 -0.40182 -0.543 194 152 128
0.02926 -0.39886 -0.539 194 152 128
0.0301181 -0.39664 -0.536 195 153 129
0.0309648 -0.39442 -0.533 201 157 132
0.0318 -0.3922 -0.53 202 158 133
0.0326238 -0.38998 -0.527 203 157 131
0.0335 -0.3885 -0.525 203 157 131
0.0344343 -0.38776 -0.524 203 157 131
0.0353648 -0.38702 -0.523 202 156 130
0.0362914 -0.38628 -0.522 201 157 130
0.0372143 -0.38554 -0.521 204 160 133
0.0382067 -0.38554 -0.521 207 162 133
0.0391238 -0.3848 -0.52 206 161 132
0.0401143 -0.3848 -0.52 208 159 127
0.0410257 -0.38406 -0.519 207 158 126
0.0420143 -0.38406 -0.519 202 159 127
0.0430029 -0.38406 -0.519 202 159 127
0.0439914 -0.38406 -0.519 204 159 128
0.04498 -0.38406 -0.519 204 159 128
0.04588 -0.38332 -0.518 203 158 127
0.0468667 -0.38332 -0.518 203 158 127
0.0478533 -0.38332 -0.518 202 157 128
0.04884 -0.38332 -0.518 200 155 126
0.0497305 -0.38258 -0.517 201 154 126
0.0508133 -0.38332 -0.518 203 156 128
0.0518 -0.38332 -0.518 205 158 130
0.0527867 -0.38332 -0.518 204 157 129
0.0537733 -0.38332 -0.518 203 156 128
0.05476 -0.38332 -0.518 203 156 128
0.0557467 -0.38332 -0.518 202 155 127
0.0567333 -0.38332 -0.518 199 152 124
0.05772 -0.38332 -0.518 196 149 123
0.0587067 -0.38332 -0.518 192 145 119
0.0596933 -0.38332 -0.518 191 144 118
0.06068 -0.38332 -0.518 193 146 120
0.0616667 -0.38332 -0.518 194 147 121
0.0627743 -0.38406 -0.519 195 148 122
0.0637629 -0.38406 -0.519 193 143 118
0.0647514 -0.38406 -0.519 185 135 110
0.06574 -0.38406 -0.519 181 131 108
0.0668571 -0.3848 -0.52 181 131 108
0.0678476 -0.3848 -0.52 183 131 109
0.0688381 -0.3848 -0.52 182 130 108
0.0699629 -0.38554 -0.521 181 129 107
0.0709552 -0.38554 -0.521 178 126 104
0.0720857 -0.38628 -0.522 177 125 103
0.07322 -0.38702 -0.523 179 127 105
0.0743581 -0.38776 -0.524 181 129 108
0.0755 -0.3885 -0.525 181 129 108
0.0765 -0.3885 -0.525 179 127 105
0.0776476 -0.38924 -0.526 178 126 104
0.0786495 -0.38924 -0.526 179 127 106
0.0798029 -0.38998 -0.527 179 127 106
0.08096 -0.39072 -0.528 175 124 103
0.0819657 -0.39072 -0.528 174 123 102
0.0831286 -0.39146 -0.529 175 124 105
0.0842952 -0.3922 -0.53 174 123 104
0.0854657 -0.39294 -0.531 173 122 103
0.08664 -0.39368 -0.532 172 121 102
