ply
format ascii 1.0
comment Created by Open3D
element vertex 1286
property double x
property double y
property double z
property uchar red
property uchar green
property uchar blue
end_header
0.131811 -0.266451 -0.594 199 142 133
0.132495 -0.265554 -0.592 206 147 139
0.133397 -0.265106 -0.591 203 144 136
0.134068 -0.264209 -0.589 206 144 133
0.13473 -0.263311 -0.587 205 143 132
0.135386 -0.262414 -0.585 202 142 131
0.136267 -0.261966 -0.584 201 141 130
0.136909 -0.261069 -0.582 201 141 131
0.13778 -0.26062 -0.581 202 142 132
0.138887 -0.26062 -0.581 201 141 131
0.139752 -0.260171 -0.58 197 137 127
0.140371 -0.259274 -0.578 195 136 122
0.141228 -0.258826 -0.577 196 137 123
0.14208 -0.258377 -0.576 195 133 120
0.142929 -0.257929 -0.575 193 131 118
0.144024 -0.257929 -0.575 188 126 113
0.144867 -0.25748 -0.574 188 126 113
0.14596 -0.25748 -0.574 191 129 116
0.146797 -0.257031 -0.573 192 130 117
0.147889 -0.257031 -0.573 191 129 114
0.14872 -0.256583 -0.572 192 130 115
0.14981 -0.256583 -0.572 194 135 119
0.150899 -0.256583 -0.572 196 137 121
0.151723 -0.256134 -0.571 195 136 120
0.15281 -0.256134 -0.571 196 137 121
0.153898 -0.256134 -0.571 194 135 121
0.154986 -0.256134 -0.571 200 141 127
0.156073 -0.256134 -0.571 203 144 128
0.157161 -0.256134 -0.571 202 143 127
0.158249 -0.256134 -0.571 203 144 128
0.159336 -0.256134 -0.571 203 144 128
0.160424 -0.256134 -0.571 204 145 131
0.161511 -0.256134 -0.571 199 140 126
0.162599 -0.256134 -0.571 200 141 127
0.163687 -0.256134 -0.571 202 143 129
0.164774 -0.256134 -0.571 196 137 123
0.165862 -0.256134 -0.571 197 138 124
0.16695 -0.256134 -0.571 190 130 119
0.168037 -0.256134 -0.571 182 122 111
0.169125 -0.256134 -0.571 182 123 109
0.170212 -0.256134 -0.571 185 126 112
0.1713 -0.256134 -0.571 186 126 115
0.172388 -0.256134 -0.571 186 126 115
0.173779 -0.256583 -0.572 187 127 116
0.174869 -0.256583 -0.572 188 130 119
0.176266 -0.257031 -0.573 191 133 122
0.177357 -0.257031 -0.573 190 132 121
0.178449 -0.257031 -0.573 188 130 119
0.179853 -0.25748 -0.574 186 128 116
0.181262 -0.257929 -0.575 181 123 111
0.182674 -0.258377 -0.576 176 118 107
0.18409 -0.258826 -0.577 172 114 103
0.18551 -0.259274 -0.578 167 109 98
0.186934 -0.259723 -0.579 167 109 98
0.188362 -0.260171 -0.58 170 110 109
0.19012 -0.261069 -0.582 170 110 109
0.191886 -0.261966 -0.584 169 109 108
0.193659 -0.262863 -0.586 166 106 105
0.19544 -0.26376 -0.588 160 102 101
0.197229 -0.264657 -0.59 155 97 96
0.199025 -0.265554 -0.592 146 95 94
0.201167 -0.2669 -0.595 143 92 91
0.20332 -0.268246 -0.598 131 90 94
0.205827 -0.27004 -0.602 130 89 93
0.208005 -0.271386 -0.605 109 84 90
0.210886 -0.273629 -0.61 105 80 86
0.213786 -0.275871 -0.615 155 142 151
0.216705 -0.278114 -0.62 237 224 233
0.48208 -0.247611 -0.552 172 136 124
0.472629 -0.242229 -0.54 176 136 126
0.467517 -0.239089 -0.533 176 136 126
0.463258 -0.236397 -0.527 175 137 128
0.459857 -0.234154 -0.522 176 138 129
0.456437 -0.231911 -0.517 175 142 127
0.454768 -0.230566 -0.514 176 143 128
0.453087 -0.22922 -0.511 178 142 126
0.452283 -0.228323 -0.509 180 144 128
0.451471 -0.227426 -0.507 185 145 133
0.450652 -0.226529 -0.505 185 145 133
0.45072 -0.22608 -0.504 187 145 129
0.450784 -0.225631 -0.503 187 145 129
0.449946 -0.224734 -0.501 187 149 130
0.45 -0.224286 -0.5 188 150 131
0.45005 -0.223837 -0.499 187 149 130
0.450097 -0.223389 -0.498 187 149 130
0.45014 -0.22294 -0.497 189 148 130
0.451087 -0.22294 -0.497 190 149 131
0.451124 -0.222491 -0.496 192 149 132
0.452069 -0.222491 -0.496 193 150 133
0.4521 -0.222043 -0.495 191 150 130
0.452128 -0.221594 -0.494 189 148 128
0.453069 -0.221594 -0.494 189 148 126
0.45401 -0.221594 -0.494 188 147 125
0.45403 -0.221146 -0.493 190 147 128
0.454969 -0.221146 -0.493 191 148 129
0.454983 -0.220697 -0.492 188 145 126
0.45592 -0.220697 -0.492 191 148 129
0.455929 -0.220249 -0.491 192 149 130
0.456864 -0.220249 -0.491 192 149 130
0.456867 -0.2198 -0.49 190 147 128
0.4578 -0.2198 -0.49 190 145 126
0.458733 -0.2198 -0.49 190 145 126
0.458729 -0.219351 -0.489 190 145 124
0.45966 -0.219351 -0.489 191 146 125
0.460591 -0.219351 -0.489 191 144 124
0.460579 -0.218903 -0.488 190 143 123
0.461509 -0.218903 -0.488 187 140 120
0.462438 -0.218903 -0.488 185 138 118
0.463368 -0.218903 -0.488 184 137 117
0.464297 -0.218903 -0.488 183 136 116
0.465227 -0.218903 -0.488 180 134 111
0.467111 -0.219351 -0.489 176 130 107
0.468043 -0.219351 -0.489 182 130 106
0.469933 -0.2198 -0.49 181 129 105
0.470867 -0.2198 -0.49 179 129 106
0.4718 -0.2198 -0.49 178 128 105
0.473698 -0.220249 -0.491 178 128 105
0.474633 -0.220249 -0.491 177 127 104
0.475569 -0.220249 -0.491 178 128 103
0.477474 -0.220697 -0.492 180 130 105
0.478411 -0.220697 -0.492 178 128 103
0.479349 -0.220697 -0.492 178 128 103
0.481262 -0.221146 -0.493 176 128 105
0.482201 -0.221146 -0.493 174 126 103
0.48314 -0.221146 -0.493 171 123 100
0.485061 -0.221594 -0.494 170 122 99
0.486002 -0.221594 -0.494 170 120 97
0.486943 -0.221594 -0.494 168 118 95
0.488871 -0.222043 -0.495 164 118 94
0.490804 -0.222491 -0.496 166 120 96
0.49274 -0.22294 -0.497 160 113 95
0.495673 -0.223837 -0.499 161 114 96
0.497619 -0.224286 -0.5 154 108 93
0.500566 -0.225183 -0.502 152 106 91
-0.123733 -0.288305 -0.64 98 101 106
-0.122131 -0.287404 -0.638 98 101 106
-0.119779 -0.284701 -0.632 98 101 106
-0.117074 -0.281097 -0.624 100 101 106
-0.1144 -0.277493 -0.616 101 102 107
-0.11194 -0.27434 -0.609 102 103 107
-0.109143 -0.270286 -0.6 102 103 107
-0.10674 -0.267132 -0.593 104 105 109
-0.10472 -0.26488 -0.588 104 105 109
-0.102719 -0.262628 -0.583 105 104 109
-0.10126 -0.261727 -0.581 104 103 108
-0.100153 -0.261727 -0.581 105 104 109
-0.0987057 -0.260826 -0.579 105 104 109
-0.0977714 -0.261276 -0.58 105 104 109
-0.0968333 -0.261727 -0.581 104 103 108
-0.0958914 -0.262177 -0.582 91 90 96
-0.0949457 -0.262628 -0.583 80 79 85
-0.0941571 -0.263529 -0.585 69 68 74
-0.0932019 -0.263979 -0.586 71 70 76
-0.0924 -0.26488 -0.588 88 87 93
-0.0915905 -0.265781 -0.59 110 109 115
-0.0909267 -0.267132 -0.593 109 108 114
-0.0901 -0.268033 -0.595 104 103 109
-0.0894152 -0.269385 -0.598 104 103 109
-0.088719 -0.270736 -0.601 102 101 107
-0.08874 -0.27434 -0.609 96 95 100
-0.0881552 -0.276142 -0.613 94 93 98
-0.0875552 -0.277944 -0.617 92 91 96
-0.0868 -0.279295 -0.62 88 87 93
-0.0860333 -0.280647 -0.623 83 82 88
-0.0853914 -0.282449 -0.627 83 84 86
-0.0846 -0.2838 -0.63 79 80 82
-0.0836648 -0.284701 -0.632 78 79 81
-0.0825914 -0.285151 -0.633 75 76 78
-0.0816429 -0.286052 -0.635 69 70 72
-0.08056 -0.286503 -0.636 65 66 68
-0.0793486 -0.286503 -0.636 59 60 64
-0.0781371 -0.286503 -0.636 50 51 55
-0.0768048 -0.286052 -0.635 50 51 55
-0.0755952 -0.286052 -0.635 47 48 52
-0.0743857 -0.286052 -0.635 46 47 51
-0.0731762 -0.286052 -0.635 47 48 52
-0.07208 -0.286503 -0.636 47 48 53
-0.0708686 -0.286503 -0.636 46 47 52
-0.0696571 -0.286503 -0.636 48 49 54
-0.0684457 -0.286503 -0.636 50 51 56
-0.0672343 -0.286503 -0.636 53 52 58
-0.0661267 -0.286953 -0.637 52 51 57
-0.0649133 -0.286953 -0.637 55 54 60
-0.0638 -0.287404 -0.638 55 54 60
-0.0625848 -0.287404 -0.638 56 55 61
-0.0613695 -0.287404 -0.638 60 59 65
-0.0602486 -0.287854 -0.639 65 64 70
-0.0590314 -0.287854 -0.639 67 66 72
-0.0579048 -0.288305 -0.64 68 67 73
-0.0566857 -0.288305 -0.64 68 67 73
-0.0555533 -0.288755 -0.641 71 70 78
-0.0543324 -0.288755 -0.641 72 71 79
-0.0531943 -0.289206 -0.642 72 71 79
-0.0519714 -0.289206 -0.642 72 71 79
-0.0508276 -0.289656 -0.643 72 71 79
-0.0496029 -0.289656 -0.643 71 70 78
0.130016 -0.291458 -0.647 198 143 136
0.129829 -0.288305 -0.64 204 150 140
0.12941 -0.284701 -0.632 204 150 140
0.128547 -0.280196 -0.622 201 147 137
0.127854 -0.276142 -0.613 202 148 138
0.127549 -0.272989 -0.606 202 145 138
0.127853 -0.271187 -0.602 202 145 138
0.129 -0.271187 -0.602 202 145 138
0.129498 -0.269835 -0.599 204 147 138
0.129985 -0.268484 -0.596 204 147 138
0.1309 -0.268033 -0.595 204 147 136
0.13159 -0.267132 -0.593 200 143 132
0.132271 -0.266231 -0.591 199 141 130
0.133171 -0.265781 -0.59 202 144 133
0.13384 -0.26488 -0.588 202 143 135
0.134501 -0.263979 -0.586 198 139 131
0.135154 -0.263078 -0.584 199 140 132
0.1358 -0.262177 -0.582 197 138 130
0.136673 -0.261727 -0.581 201 141 133
0.137543 -0.261276 -0.58 205 145 137
0.138409 -0.260826 -0.579 200 140 130
0.139511 -0.260826 -0.579 197 137 127
0.140371 -0.260375 -0.578 202 142 132
0.140983 -0.259474 -0.576 196 136 126
0.141833 -0.259024 -0.575 191 131 120
0.142929 -0.259024 -0.575 186 126 115
0.143773 -0.258573 -0.574 184 122 111
0.144867 -0.258573 -0.574 179 117 106
0.145706 -0.258123 -0.573 194 132 119
0.146797 -0.258123 -0.573 191 129 116
0.14763 -0.257672 -0.572 193 131 118
0.14872 -0.257672 -0.572 194 132 119
0.14981 -0.257672 -0.572 196 137 121
0.150635 -0.257222 -0.571 195 136 120
0.151723 -0.257222 -0.571 194 135 121
0.15281 -0.257222 -0.571 193 134 120
0.153898 -0.257222 -0.571 198 139 125
0.154986 -0.257222 -0.571 203 144 130
0.156073 -0.257222 -0.571 204 145 131
0.156886 -0.256771 -0.57 206 147 133
0.157971 -0.256771 -0.57 204 145 131
0.159057 -0.256771 -0.57 202 143 129
0.160143 -0.256771 -0.57 202 142 131
0.161229 -0.256771 -0.57 200 140 129
0.162314 -0.256771 -0.57 200 140 129
0.1634 -0.256771 -0.57 200 140 129
0.164486 -0.256771 -0.57 194 134 123
0.165862 -0.257222 -0.571 190 130 119
0.16695 -0.257222 -0.571 188 126 113
0.168037 -0.257222 -0.571 184 122 109
0.169125 -0.257222 -0.571 176 116 105
0.170212 -0.257222 -0.571 186 126 115
0.1713 -0.257222 -0.571 179 119 108
0.172388 -0.257222 -0.571 179 119 108
0.173779 -0.257672 -0.572 191 131 120
0.174869 -0.257672 -0.572 195 133 122
0.176266 -0.258123 -0.573 199 137 126
0.177357 -0.258123 -0.573 190 130 119
0.178449 -0.258123 -0.573 184 124 113
0.179853 -0.258573 -0.574 181 123 112
0.181262 -0.259024 -0.575 181 123 111
0.182674 -0.259474 -0.576 176 118 107
0.18409 -0.259925 -0.577 172 114 103
0.18551 -0.260375 -0.578 167 109 98
0.186934 -0.260826 -0.579 164 106 95
0.188687 -0.261727 -0.581 167 109 108
0.19012 -0.262177 -0.582 166 108 107
0.191886 -0.263078 -0.584 165 107 106
0.193659 -0.263979 -0.586 161 103 102
0.195772 -0.26533 -0.589 151 95 94
0.197563 -0.266231 -0.591 147 91 90
0.199361 -0.267132 -0.593 141 91 92
0.201505 -0.268484 -0.596 139 89 90
0.204 -0.270286 -0.6 126 90 94
0.206169 -0.271637 -0.603 110 74 78
0.208692 -0.273439 -0.607 99 78 87
0.468394 -0.240554 -0.534 177 139 128
0.464137 -0.237851 -0.528 173 136 127
0.460738 -0.235599 -0.523 172 135 126
0.45732 -0.233347 -0.518 172 138 126
0.455652 -0.231995 -0.515 175 141 129
0.453087 -0.230193 -0.511 178 142 128
0.452283 -0.229292 -0.509 181 145 131
0.451471 -0.228391 -0.507 185 145 133
0.450652 -0.22749 -0.505 185 145 133
0.45072 -0.22704 -0.504 187 145 129
0.450784 -0.22659 -0.503 187 145 129
0.450844 -0.226139 -0.502 188 147 129
0.45 -0.225238 -0.5 189 148 130
0.45005 -0.224788 -0.499 190 149 131
0.450097 -0.224337 -0.498 190 149 131
0.45014 -0.223887 -0.497 191 148 129
0.451087 -0.223887 -0.497 191 148 129
0.451124 -0.223436 -0.496 191 149 127
0.452069 -0.223436 -0.496 193 151 129
0.4521 -0.222986 -0.495 192 150 128
0.452128 -0.222535 -0.494 191 149 127
0.453069 -0.222535 -0.494 191 149 127
0.45309 -0.222085 -0.493 190 148 126
0.45403 -0.222085 -0.493 190 145 122
0.454969 -0.222085 -0.493 191 146 123
0.454983 -0.221634 -0.492 189 147 125
0.45592 -0.221634 -0.492 190 148 126
0.455929 -0.221184 -0.491 191 149 127
0.455933 -0.220733 -0.49 190 148 126
0.456867 -0.220733 -0.49 190 148 126
0.4578 -0.220733 -0.49 190 145 122
0.458733 -0.220733 -0.49 190 145 122
0.458729 -0.220283 -0.489 191 146 123
0.45966 -0.220283 -0.489 191 146 123
0.45965 -0.219832 -0.488 191 145 122
0.460579 -0.219832 -0.488 190 144 121
0.461509 -0.219832 -0.488 188 142 119
0.462438 -0.219832 -0.488 186 140 117
0.463368 -0.219832 -0.488 185 139 115
0.464297 -0.219832 -0.488 183 137 113
0.465227 -0.219832 -0.488 180 132 109
0.466156 -0.219832 -0.488 180 132 109
0.468043 -0.220283 -0.489 180 129 108
0.468974 -0.220283 -0.489 181 130 109
0.469906 -0.220283 -0.489 181 131 108
0.4718 -0.220733 -0.49 181 131 108
0.472733 -0.220733 -0.49 179 129 106
0.473667 -0.220733 -0.49 178 128 105
0.475569 -0.221184 -0.491 178 128 105
0.476504 -0.221184 -0.491 178 128 105
0.478411 -0.221634 -0.492 180 129 108
0.479349 -0.221634 -0.492 178 127 106
0.480286 -0.221634 -0.492 177 126 105
0.481223 -0.221634 -0.492 175 124 103
0.48314 -0.222085 -0.493 172 121 100
0.484079 -0.222085 -0.493 170 119 98
0.486002 -0.222535 -0.494 169 119 96
0.486943 -0.222535 -0.494 168 118 95
0.488871 -0.222986 -0.495 159 121 100
0.489814 -0.222986 -0.495 157 119 98
0.491749 -0.223436 -0.496 162 117 98
0.49468 -0.224337 -0.498 161 116 97
0.496624 -0.224788 -0.499 158 111 93
0.499569 -0.225689 -0.501 156 109 91
0.501522 -0.226139 -0.502 153 112 92
-0.12354 -0.289071 -0.639 96 101 105
-0.12194 -0.288167 -0.637 98 101 106
-0.1194 -0.285 -0.63 97 100 105
-0.116699 -0.281381 -0.622 97 100 105
-0.114214 -0.278214 -0.615 99 102 107
-0.111756 -0.275048 -0.608 102 105 110
-0.109143 -0.271429 -0.6 105 108 113
-0.10674 -0.268262 -0.593 107 108 112
-0.104542 -0.265548 -0.587 107 108 112
-0.102543 -0.263286 -0.582 107 106 111
-0.10126 -0.262833 -0.581 107 106 111
-0.0999809 -0.262381 -0.58 107 106 111
-0.0988762 -0.262381 -0.58 108 107 112
-0.0977714 -0.262381 -0.58 108 107 112
-0.0968333 -0.262833 -0.581 106 105 110
-0.0958914 -0.263286 -0.582 94 93 99
-0.0949457 -0.263738 -0.583 79 78 84
-0.0941571 -0.264643 -0.585 70 69 75
-0.093361 -0.265548 -0.587 72 71 77
-0.0925571 -0.266452 -0.589 91 90 96
-0.0915905 -0.266905 -0.59 110 109 115
-0.0909267 -0.268262 -0.593 109 108 114
-0.0902514 -0.269619 -0.596 108 107 113
-0.0894152 -0.270524 -0.598 105 104 110
-0.088719 -0.271881 -0.601 102 101 107
-0.0881571 -0.27369 -0.605 98 97 102
-0.0881552 -0.27731 -0.613 94 93 98
-0.0875552 -0.279119 -0.617 93 92 97
-0.0868 -0.280476 -0.62 90 89 95
-0.0861714 -0.282286 -0.624 86 85 91
-0.0853914 -0.283643 -0.627 85 86 88
-0.0846 -0.285 -0.63 82 83 85
-0.0837971 -0.286357 -0.633 80 81 83
-0.0827219 -0.28681 -0.634 76 77 79
-0.0816429 -0.287262 -0.635 69 70 72
-0.0806867 -0.288167 -0.637 63 64 66
-0.0793486 -0.287714 -0.636 57 58 62
-0.0781371 -0.287714 -0.636 49 50 54
-0.0769257 -0.287714 -0.636 51 52 56
-0.0757143 -0.287714 -0.636 48 49 53
-0.0745029 -0.287714 -0.636 46 47 51
-0.0732914 -0.287714 -0.636 47 48 52
-0.07208 -0.287714 -0.636 46 47 52
-0.0708686 -0.287714 -0.636 45 46 51
-0.0696571 -0.287714 -0.636 46 47 52
-0.0684457 -0.287714 -0.636 48 49 54
-0.0672343 -0.287714 -0.636 49 48 54
-0.0661267 -0.288167 -0.637 50 49 55
-0.0649133 -0.288167 -0.637 52 51 57
-0.0638 -0.288619 -0.638 52 51 57
-0.0625848 -0.288619 -0.638 53 52 58
-0.0613695 -0.288619 -0.638 60 59 65
-0.0602486 -0.289071 -0.639 64 63 69
-0.0590314 -0.289071 -0.639 66 65 71
-0.0579048 -0.289524 -0.64 67 66 72
-0.0566857 -0.289524 -0.64 67 66 72
-0.0555533 -0.289976 -0.641 69 68 76
-0.0544171 -0.290429 -0.642 71 70 78
-0.0531943 -0.290429 -0.642 72 71 79
0.129614 -0.291786 -0.645 199 144 137
0.129423 -0.288619 -0.638 201 146 139
0.129 -0.285 -0.63 201 146 139
0.128133 -0.280476 -0.62 200 146 136
0.127646 -0.276857 -0.612 200 146 136
0.127338 -0.27369 -0.605 197 142 135
0.127641 -0.271881 -0.601 196 141 134
0.128786 -0.271881 -0.601 196 141 134
0.129282 -0.270524 -0.598 199 142 135
0.129767 -0.269167 -0.595 198 141 134
0.13046 -0.268262 -0.593 197 140 131
0.131146 -0.267357 -0.591 195 138 129
0.132048 -0.266905 -0.59 197 140 131
0.13272 -0.266 -0.588 200 143 134
0.133385 -0.265095 -0.586 201 142 134
0.134271 -0.264643 -0.585 197 138 130
0.134923 -0.263738 -0.583 194 136 125
0.135567 -0.262833 -0.581 194 136 125
0.136438 -0.262381 -0.58 198 138 128
0.137306 -0.261929 -0.579 201 141 131
0.138409 -0.261929 -0.579 194 134 123
0.13927 -0.261476 -0.578 190 130 119
0.140129 -0.261024 -0.577 194 134 123
0.140983 -0.260571 -0.576 191 131 120
0.141833 -0.260119 -0.575 186 127 113
0.14268 -0.259667 -0.574 180 121 107
0.143523 -0.259214 -0.573 177 115 102
0.144614 -0.259214 -0.573 175 113 100
0.145706 -0.259214 -0.573 189 125 113
0.146541 -0.258762 -0.572 189 125 113
0.147372 -0.25831 -0.571 190 128 113
0.14846 -0.25831 -0.571 192 130 115
0.149548 -0.25831 -0.571 196 137 121
0.150635 -0.25831 -0.571 196 137 121
0.151457 -0.257857 -0.57 192 133 119
0.152543 -0.257857 -0.57 191 132 118
0.153629 -0.257857 -0.57 198 139 125
0.154714 -0.257857 -0.57 203 144 130
0.1558 -0.257857 -0.57 202 143 129
0.156886 -0.257857 -0.57 204 145 131
0.157694 -0.257405 -0.569 207 145 132
0.158778 -0.257405 -0.569 204 142 129
0.159862 -0.257405 -0.569 204 142 131
0.160946 -0.257405 -0.569 202 140 129
0.162314 -0.257857 -0.57 199 137 126
0.1634 -0.257857 -0.57 197 135 124
0.164486 -0.257857 -0.57 192 130 117
0.165571 -0.257857 -0.57 186 124 111
0.166657 -0.257857 -0.57 186 124 111
0.167743 -0.257857 -0.57 181 119 106
0.169125 -0.25831 -0.571 175 115 104
0.170212 -0.25831 -0.571 184 124 113
0.1713 -0.25831 -0.571 180 120 109
0.172388 -0.25831 -0.571 180 120 109
0.173779 -0.258762 -0.572 191 131 120
0.174869 -0.258762 -0.572 192 132 121
0.176266 -0.259214 -0.573 199 137 126
0.177357 -0.259214 -0.573 190 130 119
0.178449 -0.259214 -0.573 184 124 113
0.179853 -0.259667 -0.574 181 123 112
0.181262 -0.260119 -0.575 177 119 108
0.182674 -0.260571 -0.576 174 115 107
0.18441 -0.261476 -0.578 172 113 105
0.185831 -0.261929 -0.579 168 108 98
0.187257 -0.262381 -0.58 165 105 95
0.189011 -0.263286 -0.582 161 108 104
0.190447 -0.263738 -0.583 163 110 106
0.192214 -0.264643 -0.585 168 104 102
0.19399 -0.265548 -0.587 159 95 93
0.196105 -0.266905 -0.59 146 93 89
0.197897 -0.26781 -0.592 148 95 91
0.200033 -0.269167 -0.595 135 96 97
0.201843 -0.270071 -0.597 125 86 87
0.20468 -0.272333 -0.602 111 81 93
0.207194 -0.274143 -0.606 114 84 96
0.209724 -0.275952 -0.61 167 150 168
0.25651 -0.293595 -0.649 175 114 122
0.256951 -0.29269 -0.647 171 110 118
0.258184 -0.29269 -0.647 156 105 112
0.259416 -0.29269 -0.647 153 102 109
0.261051 -0.293143 -0.648 147 96 103
0.263095 -0.294048 -0.65 148 97 104
0.471026 -0.242929 -0.537 173 139 130
0.465016 -0.23931 -0.529 172 138 129
0.461619 -0.237048 -0.524 171 137 128
0.458203 -0.234786 -0.519 173 136 127
0.455652 -0.232976 -0.515 175 138 129
0.453973 -0.231619 -0.512 179 142 126
0.453171 -0.230714 -0.51 180 143 127
0.452362 -0.22981 -0.508 183 147 125
0.451545 -0.228905 -0.506 186 150 128
0.45072 -0.228 -0.504 187 146 128
0.450784 -0.227548 -0.503 188 147 129
0.450844 -0.227095 -0.502 188 147 129
0.45 -0.22619 -0.5 189 148 130
0.45005 -0.225738 -0.499 190 149 131
0.450097 -0.225286 -0.498 190 149 131
0.45014 -0.224833 -0.497 190 147 128
0.451087 -0.224833 -0.497 191 148 129
0.451124 -0.224381 -0.496 193 151 129
0.452069 -0.224381 -0.496 193 151 129
0.4521 -0.223929 -0.495 191 149 127
0.452128 -0.223476 -0.494 189 147 125
0.453069 -0.223476 -0.494 190 148 126
0.45309 -0.223024 -0.493 190 148 126
0.45403 -0.223024 -0.493 189 147 123
0.454969 -0.223024 -0.493 189 147 123
0.454983 -0.222571 -0.492 190 145 124
0.45592 -0.222571 -0.492 192 147 126
0.455929 -0.222119 -0.491 193 148 127
0.455933 -0.221667 -0.49 192 147 126
0.456867 -0.221667 -0.49 192 147 126
0.4578 -0.221667 -0.49 190 145 124
0.457797 -0.221214 -0.489 189 144 123
0.458729 -0.221214 -0.489 191 146 125
0.45966 -0.221214 -0.489 192 147 126
0.45965 -0.220762 -0.488 192 146 123
0.460579 -0.220762 -0.488 190 144 121
0.461509 -0.220762 -0.488 187 141 118
0.462438 -0.220762 -0.488 185 139 116
0.463368 -0.220762 -0.488 186 140 117
0.464297 -0.220762 -0.488 185 139 116
0.465227 -0.220762 -0.488 184 136 114
0.466156 -0.220762 -0.488 182 134 112
0.467086 -0.220762 -0.488 182 131 110
0.468974 -0.221214 -0.489 181 130 109
0.469906 -0.221214 -0.489 181 130 109
0.470837 -0.221214 -0.489 181 130 109
0.472733 -0.221667 -0.49 180 130 107
0.473667 -0.221667 -0.49 178 128 105
0.4746 -0.221667 -0.49 178 128 105
0.476504 -0.222119 -0.491 177 127 104
0.477439 -0.222119 -0.491 176 128 106
0.478374 -0.222119 -0.491 176 128 106
0.480286 -0.222571 -0.492 174 126 104
0.481223 -0.222571 -0.492 172 124 102
0.48216 -0.222571 -0.492 171 123 101
0.483097 -0.222571 -0.492 169 121 99
0.485018 -0.223024 -0.493 168 120 97
0.486943 -0.223476 -0.494 167 119 96
0.487884 -0.223476 -0.494 159 121 98
0.489814 -0.223929 -0.495 158 120 97
0.491749 -0.224381 -0.496 162 117 96
0.493687 -0.224833 -0.497 161 116 95
0.495629 -0.225286 -0.498 160 113 95
0.497574 -0.225738 -0.499 158 111 93
0.500523 -0.226643 -0.501 153 112 92
0.50448 -0.228 -0.504 153 112 92
-0.123347 -0.289834 -0.638 95 100 106
-0.121749 -0.288926 -0.636 96 101 107
-0.11921 -0.285746 -0.629 95 100 106
-0.116511 -0.282111 -0.621 96 101 107
-0.113843 -0.278477 -0.613 98 103 109
-0.111389 -0.275297 -0.606 104 107 114
-0.108961 -0.272117 -0.599 108 111 118
-0.10674 -0.269391 -0.593 108 109 114
-0.104542 -0.266666 -0.587 109 110 115
-0.102543 -0.264394 -0.582 109 110 115
-0.10126 -0.26394 -0.581 108 109 114
-0.0999809 -0.263486 -0.58 109 110 115
-0.0987057 -0.263031 -0.579 109 110 115
-0.0977714 -0.263486 -0.58 111 110 116
-0.0968333 -0.26394 -0.581 110 109 115
-0.0958914 -0.264394 -0.582 98 97 103
-0.0949457 -0.264849 -0.583 79 78 84
-0.0941571 -0.265757 -0.585 68 67 73
-0.093361 -0.266666 -0.587 68 67 73
-0.0925571 -0.267574 -0.589 94 93 99
-0.0917457 -0.268483 -0.591 111 110 116
-0.0912333 -0.2703 -0.595 109 108 114
-0.0904029 -0.271209 -0.597 111 110 116
-0.0897143 -0.272571 -0.6 106 105 111
-0.0890143 -0.273934 -0.603 103 102 108
-0.0884486 -0.275751 -0.607 99 98 104
-0.0882991 -0.278931 -0.614 95 94 100
-0.0876971 -0.280749 -0.618 94 93 99
-0.08708 -0.282566 -0.622 92 91 96
-0.0863095 -0.283929 -0.625 90 89 94
-0.0855276 -0.285291 -0.628 87 88 90
-0.0848686 -0.287109 -0.632 83 84 86
-0.0839295 -0.288017 -0.634 81 82 84
-0.0828524 -0.288471 -0.635 77 78 80
-0.0817714 -0.288926 -0.636 69 70 74
-0.0808133 -0.289834 -0.638 63 64 68
-0.0794733 -0.28938 -0.637 56 57 61
-0.0781371 -0.288926 -0.636 49 50 54
-0.0769257 -0.288926 -0.636 49 50 54
-0.0757143 -0.288926 -0.636 47 48 52
-0.0743857 -0.288471 -0.635 45 46 51
-0.0731762 -0.288471 -0.635 45 46 51
-0.0719667 -0.288471 -0.635 45 46 51
-0.0707571 -0.288471 -0.635 44 45 50
-0.0695476 -0.288471 -0.635 44 45 50
-0.0683381 -0.288471 -0.635 46 47 52
-0.0672343 -0.288926 -0.636 45 44 50
-0.0661267 -0.28938 -0.637 48 47 53
-0.0649133 -0.28938 -0.637 50 49 55
-0.0638 -0.289834 -0.638 52 51 57
-0.0625848 -0.289834 -0.638 53 52 58
-0.0614657 -0.290289 -0.639 58 57 63
-0.0602486 -0.290289 -0.639 63 62 68
-0.0591238 -0.290743 -0.64 66 65 71
-0.0579048 -0.290743 -0.64 67 66 72
-0.0567743 -0.291197 -0.641 67 66 72
0.129212 -0.292106 -0.643 198 145 137
0.129017 -0.288926 -0.636 198 146 135
0.12859 -0.285291 -0.628 198 146 135
0.12772 -0.280749 -0.618 200 146 136
0.127437 -0.277569 -0.611 198 144 134
0.127128 -0.274389 -0.604 195 140 133
0.128278 -0.274389 -0.604 195 140 133
0.128571 -0.272571 -0.6 195 140 133
0.129066 -0.271209 -0.597 197 142 135
0.129549 -0.269846 -0.594 197 142 135
0.13024 -0.268937 -0.592 195 138 129
0.130924 -0.268029 -0.59 196 139 130
0.1316 -0.26712 -0.588 199 142 133
0.132494 -0.266666 -0.587 200 143 134
0.133157 -0.265757 -0.585 199 142 133
0.133812 -0.264849 -0.583 195 138 129
0.134691 -0.264394 -0.582 195 137 126
0.135333 -0.263486 -0.58 194 136 125
0.136203 -0.263031 -0.579 198 138 127
0.137069 -0.262577 -0.578 199 139 128
0.13817 -0.262577 -0.578 193 133 122
0.13903 -0.262123 -0.577 191 131 120
0.139886 -0.261669 -0.576 194 134 123
0.140738 -0.261214 -0.575 194 134 123
0.141587 -0.26076 -0.574 191 129 116
0.14268 -0.26076 -0.574 185 123 110
0.143523 -0.260306 -0.573 180 118 105
0.144362 -0.259851 -0.572 183 121 108
0.145451 -0.259851 -0.572 193 129 117
0.146285 -0.259397 -0.571 196 132 120
0.147372 -0.259397 -0.571 194 132 119
0.1482 -0.258943 -0.57 194 132 119
0.149286 -0.258943 -0.57 199 137 124
0.150371 -0.258943 -0.57 201 139 126
0.151457 -0.258943 -0.57 197 135 122
0.152275 -0.258489 -0.569 197 135 122
0.153359 -0.258489 -0.569 203 141 128
0.154443 -0.258489 -0.569 205 143 130
0.155527 -0.258489 -0.569 205 143 130
0.15661 -0.258489 -0.569 206 144 131
0.157694 -0.258489 -0.569 207 145 132
0.158499 -0.258034 -0.568 206 144 131
0.159581 -0.258034 -0.568 206 144 133
0.160946 -0.258489 -0.569 206 144 133
0.16203 -0.258489 -0.569 199 137 126
0.163113 -0.258489 -0.569 194 132 121
0.164197 -0.258489 -0.569 189 127 114
0.165281 -0.258489 -0.569 181 119 106
0.166657 -0.258943 -0.57 183 121 110
0.167743 -0.258943 -0.57 178 116 105
0.168829 -0.258943 -0.57 178 115 106
0.170212 -0.259397 -0.571 183 120 111
0.1713 -0.259397 -0.571 180 120 109
0.172388 -0.259397 -0.571 180 120 109
0.173779 -0.259851 -0.572 191 131 120
0.174869 -0.259851 -0.572 192 132 121
0.175958 -0.259851 -0.572 189 129 118
0.177357 -0.260306 -0.573 181 121 111
0.178449 -0.260306 -0.573 180 120 110
0.179853 -0.26076 -0.574 178 119 111
0.181262 -0.261214 -0.575 175 116 108
0.182991 -0.262123 -0.577 173 114 106
0.18441 -0.262577 -0.578 171 112 104
0.185831 -0.263031 -0.579 167 109 98
0.18758 -0.26394 -0.581 166 108 97
0.189011 -0.264394 -0.582 165 110 107
0.190773 -0.265303 -0.584 160 105 102
0.192543 -0.266211 -0.586 162 102 101
0.19432 -0.26712 -0.588 155 95 94
0.196437 -0.268483 -0.591 144 90 88
0.198231 -0.269391 -0.593 144 90 88
0.20037 -0.270754 -0.596 126 87 92
0.202181 -0.271663 -0.598 119 80 85
0.20502 -0.273934 -0.603 108 84 100
0.207878 -0.276206 -0.608 175 151 167
0.210411 -0.278023 -0.612 203 193 220
0.254037 -0.294831 -0.649 164 118 121
0.254093 -0.293469 -0.646 165 119 122
0.254533 -0.29256 -0.644 170 111 117
0.254966 -0.291651 -0.642 165 106 112
0.256588 -0.292106 -0.643 153 104 110
0.257812 -0.292106 -0.643 151 102 108
0.259843 -0.293014 -0.645 145 94 103
0.261476 -0.293469 -0.646 142 91 100
0.263113 -0.293923 -0.647 137 95 115
0.265571 -0.295286 -0.65 158 116 136
0.473657 -0.245314 -0.54 170 136 127
0.466774 -0.241226 -0.531 173 139 130
0.4625 -0.2385 -0.525 173 139 130
0.459086 -0.236229 -0.52 175 138 129
0.456537 -0.234411 -0.516 176 139 130
0.45486 -0.233049 -0.513 180 143 127
0.453171 -0.231686 -0.51 181 144 128
0.452362 -0.230777 -0.508 180 145 123
0.451545 -0.229869 -0.506 183 148 126
0.45072 -0.22896 -0.504 189 148 130
0.450784 -0.228506 -0.503 189 148 130
0.450844 -0.228051 -0.502 189 148 130
0.45 -0.227143 -0.5 188 147 129
0.45005 -0.226689 -0.499 189 148 128
0.450097 -0.226234 -0.498 189 148 128
0.45014 -0.22578 -0.497 190 147 128
0.451087 -0.22578 -0.497 191 148 129
0.451124 -0.225326 -0.496 193 151 129
0.452069 -0.225326 -0.496 193 151 129
0.4521 -0.224871 -0.495 191 149 127
0.452128 -0.224417 -0.494 190 148 126
0.452151 -0.223963 -0.493 189 147 125
0.45309 -0.223963 -0.493 189 147 125
0.45403 -0.223963 -0.493 189 147 125
0.454046 -0.223509 -0.492 189 147 125
0.454983 -0.223509 -0.492 190 145 126
0.45592 -0.223509 -0.492 191 146 127
0.455929 -0.223054 -0.491 192 147 128
0.455933 -0.2226 -0.49 192 147 128
0.456867 -0.2226 -0.49 192 147 128
0.4578 -0.2226 -0.49 190 145 124
0.457797 -0.222146 -0.489 189 144 123
0.458729 -0.222146 -0.489 192 145 125
0.45966 -0.222146 -0.489 193 146 126
0.45965 -0.221691 -0.488 193 146 126
0.460579 -0.221691 -0.488 191 144 124
0.461509 -0.221691 -0.488 187 140 120
0.462438 -0.221691 -0.488 185 138 118
0.463368 -0.221691 -0.488 186 140 117
0.464297 -0.221691 -0.488 187 141 118
0.465227 -0.221691 -0.488 185 139 116
0.466156 -0.221691 -0.488 184 138 115
0.467086 -0.221691 -0.488 183 135 113
0.468015 -0.221691 -0.488 180 132 110
0.468945 -0.221691 -0.488 179 131 109
0.470837 -0.222146 -0.489 179 131 109
0.471769 -0.222146 -0.489 176 128 106
0.473667 -0.2226 -0.49 176 128 106
0.4746 -0.2226 -0.49 176 128 106
0.475533 -0.2226 -0.49 176 128 106
0.477439 -0.223054 -0.491 176 128 106
0.478374 -0.223054 -0.491 176 128 106
0.47931 -0.223054 -0.491 174 126 103
0.480245 -0.223054 -0.491 172 124 101
0.48118 -0.223054 -0.491 171 123 101
0.482115 -0.223054 -0.491 170 122 100
0.484034 -0.223509 -0.492 169 121 99
0.485957 -0.223963 -0.493 168 120 98
0.487884 -0.224417 -0.494 161 120 98
0.488825 -0.224417 -0.494 160 119 97
0.490757 -0.224871 -0.495 162 117 96
0.492693 -0.225326 -0.496 161 116 95
0.494633 -0.22578 -0.497 162 115 97
0.496577 -0.226234 -0.498 161 114 96
0.499524 -0.227143 -0.5 156 113 94
0.503479 -0.228506 -0.503 154 111 92
0.506443 -0.229414 -0.505 152 111 91
0.510419 -0.230777 -0.508 153 112 92
-0.123347 -0.29105 -0.638 96 101 107
-0.121557 -0.289681 -0.635 95 100 106
-0.11921 -0.286944 -0.629 95 100 106
-0.116511 -0.283294 -0.621 95 100 106
-0.113657 -0.279189 -0.612 98 103 109
-0.111205 -0.275995 -0.605 104 107 114
-0.108779 -0.272802 -0.598 108 111 118
-0.10674 -0.270521 -0.593 106 109 116
-0.104542 -0.267784 -0.587 107 110 117
-0.102543 -0.265503 -0.582 108 111 116
-0.10126 -0.265047 -0.581 108 111 116
-0.0999809 -0.26459 -0.58 110 111 116
-0.0987057 -0.264134 -0.579 111 112 117
-0.0977714 -0.26459 -0.58 112 113 118
-0.0968333 -0.265047 -0.581 113 114 119
-0.0958914 -0.265503 -0.582 98 97 103
-0.0949457 -0.265959 -0.583 77 76 82
-0.0941571 -0.266871 -0.585 70 69 75
-0.093361 -0.267784 -0.587 66 65 71
-0.0925571 -0.268696 -0.589 109 108 114
-0.091901 -0.270065 -0.592 122 121 127
-0.0912333 -0.271433 -0.595 110 109 115
-0.0907057 -0.273258 -0.599 105 104 110
-0.0900133 -0.274627 -0.602 105 104 110
-0.0893095 -0.275995 -0.605 104 103 109
-0.0885943 -0.277364 -0.608 102 101 107
-0.0880114 -0.279189 -0.612 100 99 105
-0.087981 -0.282838 -0.62 94 93 99
-0.08722 -0.284207 -0.623 91 90 95
-0.0864476 -0.285575 -0.626 90 89 94
-0.0856638 -0.286944 -0.629 88 89 91
-0.0850029 -0.288769 -0.633 84 85 87
-0.0840619 -0.289681 -0.635 81 82 86
-0.0829829 -0.290137 -0.636 77 78 82
-0.0819 -0.290593 -0.637 71 72 76
-0.0808133 -0.29105 -0.638 64 65 69
-0.0795981 -0.29105 -0.638 58 59 63
-0.07826 -0.290593 -0.637 53 54 58
-0.0769257 -0.290137 -0.636 51 52 56
-0.0757143 -0.290137 -0.636 49 50 54
-0.0745029 -0.290137 -0.636 48 49 54
-0.0731762 -0.289681 -0.635 48 49 54
-0.0719667 -0.289681 -0.635 48 49 54
-0.0707571 -0.289681 -0.635 46 47 52
-0.0695476 -0.289681 -0.635 46 47 52
-0.0683381 -0.289681 -0.635 48 49 54
-0.0672343 -0.290137 -0.636 47 46 52
-0.0661267 -0.290593 -0.637 49 48 54
-0.0649133 -0.290593 -0.637 50 49 55
-0.0638 -0.29105 -0.638 50 49 55
-0.0625848 -0.29105 -0.638 52 51 57
-0.0614657 -0.291506 -0.639 56 55 61
-0.0602486 -0.291506 -0.639 60 59 65
-0.0591238 -0.291962 -0.64 65 64 70
0.12881 -0.292418 -0.641 197 145 134
0.128611 -0.289225 -0.634 197 145 134
0.127976 -0.285119 -0.625 198 146 135
0.127307 -0.281013 -0.616 198 146 135
0.12702 -0.27782 -0.609 196 144 133
0.126917 -0.275083 -0.603 196 144 133
0.128066 -0.275083 -0.603 196 144 133
0.128357 -0.273258 -0.599 196 144 133
0.12885 -0.27189 -0.596 199 145 135
0.12933 -0.270521 -0.593 201 147 137
0.13002 -0.269609 -0.591 198 144 134
0.130702 -0.268696 -0.589 198 144 134
0.131376 -0.267784 -0.587 197 143 133
0.132269 -0.267328 -0.586 194 140 130
0.13293 -0.266415 -0.584 197 140 131
0.133583 -0.265503 -0.582 194 137 128
0.13446 -0.265047 -0.581 191 133 122
0.135333 -0.26459 -0.58 190 132 121
0.136203 -0.264134 -0.579 192 134 123
0.137069 -0.263678 -0.578 193 135 124
0.13793 -0.263222 -0.577 196 136 126
0.138789 -0.262766 -0.576 195 135 125
0.139643 -0.26231 -0.575 194 134 124
0.140738 -0.26231 -0.575 195 135 125
0.141587 -0.261853 -0.574 189 129 118
0.142431 -0.261397 -0.573 187 127 116
0.143272 -0.260941 -0.572 185 123 112
0.144362 -0.260941 -0.572 191 129 118
0.145451 -0.260941 -0.572 195 133 122
0.146285 -0.260485 -0.571 197 135 124
0.147114 -0.260029 -0.57 192 130 119
0.14794 -0.259572 -0.569 194 132 121
0.149024 -0.259572 -0.569 197 135 122
0.150108 -0.259572 -0.569 202 140 127
0.151191 -0.259572 -0.569 201 139 128
0.152275 -0.259572 -0.569 202 140 129
0.15309 -0.259116 -0.568 204 142 131
0.154171 -0.259116 -0.568 204 142 131
0.155253 -0.259116 -0.568 205 143 130
0.156335 -0.259116 -0.568 205 143 130
0.157417 -0.259116 -0.568 203 141 128
0.158499 -0.259116 -0.568 206 144 131
0.159581 -0.259116 -0.568 208 146 133
0.160663 -0.259116 -0.568 208 146 133
0.16203 -0.259572 -0.569 201 139 126
0.163113 -0.259572 -0.569 192 130 117
0.164197 -0.259572 -0.569 186 124 111
0.165281 -0.259572 -0.569 179 117 104
0.166657 -0.260029 -0.57 183 121 110
0.167743 -0.260029 -0.57 178 116 105
0.168829 -0.260029 -0.57 178 115 106
0.170212 -0.260485 -0.571 183 120 111
0.1713 -0.260485 -0.571 183 120 111
0.172388 -0.260485 -0.571 182 119 110
0.173779 -0.260941 -0.572 192 129 120
0.174869 -0.260941 -0.572 190 130 120
0.176266 -0.261397 -0.573 181 121 111
0.177357 -0.261397 -0.573 175 115 105
0.178449 -0.261397 -0.573 175 115 105
0.180167 -0.26231 -0.575 171 112 104
0.181577 -0.262766 -0.576 169 110 102
0.182991 -0.263222 -0.577 168 109 101
0.18441 -0.263678 -0.578 167 108 100
0.186152 -0.26459 -0.58 166 107 99
0.18758 -0.265047 -0.581 166 107 99
0.189336 -0.265959 -0.583 166 108 106
0.190773 -0.266415 -0.584 165 107 105
0.192871 -0.267784 -0.587 154 100 98
0.19465 -0.268696 -0.589 147 93 91
0.19677 -0.270065 -0.592 144 93 92
0.1989 -0.271433 -0.595 141 90 89
0.201042 -0.272802 -0.598 126 85 93
0.202857 -0.273714 -0.6 119 78 86
0.2057 -0.275995 -0.605 111 96 117
0.208904 -0.278732 -0.611 181 166 187
0.211443 -0.280557 -0.615 183 183 219
0.227547 -0.293787 -0.644 198 197 228
0.23055 -0.296068 -0.649 225 223 245
0.252022 -0.295155 -0.647 170 115 118
0.251689 -0.29333 -0.643 164 115 118
0.252127 -0.292418 -0.641 167 118 121
0.252557 -0.291506 -0.639 163 108 111
0.253377 -0.29105 -0.638 157 102 105
0.254991 -0.291506 -0.639 146 99 109
0.256209 -0.291506 -0.639 142 95 105
0.258231 -0.292418 -0.641 143 92 101
0.260262 -0.29333 -0.643 140 89 98
0.2623 -0.294243 -0.645 137 94 111
0.264754 -0.295611 -0.648 162 119 136
0.566429 -0.296524 -0.65 169 134 130
0.476289 -0.247711 -0.543 172 138 129
0.468532 -0.24315 -0.533 172 139 130
0.464262 -0.240412 -0.527 173 140 131
0.460851 -0.238131 -0.522 176 139 130
0.458307 -0.236307 -0.518 178 141 132
0.455747 -0.234482 -0.514 181 143 130
0.45406 -0.233113 -0.511 180 142 129
0.452362 -0.231745 -0.508 179 144 124
0.452437 -0.231289 -0.507 181 146 126
0.451614 -0.230376 -0.505 190 149 129
0.450784 -0.229464 -0.503 190 149 129
0.450844 -0.229008 -0.502 189 148 128
0.45 -0.228095 -0.5 188 147 127
0.45005 -0.227639 -0.499 189 148 128
0.450097 -0.227183 -0.498 189 148 128
0.45014 -0.226727 -0.497 190 147 128
0.451087 -0.226727 -0.497 190 147 128
0.451124 -0.22627 -0.496 194 152 130
0.452069 -0.22627 -0.496 193 151 129
0.4521 -0.225814 -0.495 191 149 127
0.452128 -0.225358 -0.494 190 148 126
0.452151 -0.224902 -0.493 189 147 125
0.45309 -0.224902 -0.493 189 147 125
0.453109 -0.224446 -0.492 187 144 125
0.454046 -0.224446 -0.492 188 145 126
0.454058 -0.22399 -0.491 190 145 126
0.454993 -0.22399 -0.491 189 144 125
0.455929 -0.22399 -0.491 190 145 126
0.455933 -0.223533 -0.49 190 145 126
0.456867 -0.223533 -0.49 190 145 124
0.4578 -0.223533 -0.49 190 145 124
0.457797 -0.223077 -0.489 190 145 124
0.458729 -0.223077 -0.489 190 145 124
0.45966 -0.223077 -0.489 191 146 125
0.45965 -0.222621 -0.488 192 147 126
0.460579 -0.222621 -0.488 191 146 125
0.461509 -0.222621 -0.488 189 142 122
0.46149 -0.222165 -0.487 187 140 120
0.462418 -0.222165 -0.487 186 140 117
0.464297 -0.222621 -0.488 186 140 117
0.465227 -0.222621 -0.488 186 140 117
0.466156 -0.222621 -0.488 185 139 116
0.467086 -0.222621 -0.488 183 135 112
0.468015 -0.222621 -0.488 180 132 109
0.468945 -0.222621 -0.488 178 130 107
0.469874 -0.222621 -0.488 178 130 107
0.471769 -0.223077 -0.489 176 128 106
0.4727 -0.223077 -0.489 176 128 106
0.473631 -0.223077 -0.489 178 130 108
0.475533 -0.223533 -0.49 179 131 109
0.476467 -0.223533 -0.49 177 129 106
0.4774 -0.223533 -0.49 177 129 106
0.47931 -0.22399 -0.491 176 128 105
0.480245 -0.22399 -0.491 173 125 102
0.48118 -0.22399 -0.491 172 124 101
0.482115 -0.22399 -0.491 171 123 100
0.48305 -0.22399 -0.491 169 121 99
0.484971 -0.224446 -0.492 168 120 98
0.486896 -0.224902 -0.493 161 120 98
0.487835 -0.224902 -0.493 161 120 98
0.489766 -0.225358 -0.494 163 118 99
0.4917 -0.225814 -0.495 161 116 97
0.493638 -0.22627 -0.496 162 117 98
0.49558 -0.226727 -0.497 161 116 97
0.497526 -0.227183 -0.498 157 116 96
0.500476 -0.228095 -0.5 155 114 94
0.504437 -0.229464 -0.503 150 109 89
0.507405 -0.230376 -0.505 153 112 92
-0.123153 -0.291807 -0.637 97 100 107
-0.121366 -0.290432 -0.634 96 101 107
-0.119021 -0.287684 -0.628 95 100 106
-0.116511 -0.284477 -0.621 94 99 105
-0.113657 -0.280354 -0.612 97 102 108
-0.111021 -0.27669 -0.604 103 106 113
-0.108597 -0.273483 -0.597 107 110 117
-0.10656 -0.271192 -0.592 109 109 117
-0.104542 -0.268902 -0.587 109 109 117
-0.102543 -0.266611 -0.582 108 111 118
-0.10126 -0.266153 -0.581 108 111 118
-0.0999809 -0.265695 -0.58 110 110 118
-0.0987057 -0.265237 -0.579 111 111 119
-0.0977714 -0.265695 -0.58 111 111 119
-0.0968333 -0.266153 -0.581 112 112 120
-0.0958914 -0.266611 -0.582 99 98 104
-0.0951086 -0.267528 -0.584 79 78 84
-0.0943181 -0.268444 -0.586 73 72 80
-0.09352 -0.26936 -0.588 68 67 75
-0.0927143 -0.270276 -0.59 136 135 143
-0.091901 -0.271192 -0.592 155 154 162
-0.0913867 -0.273025 -0.596 130 129 135
-0.0907057 -0.274399 -0.599 115 114 120
-0.0901629 -0.276231 -0.603 109 108 114
-0.0894571 -0.277606 -0.606 104 103 109
-0.0888857 -0.279438 -0.61 101 100 106
-0.0882991 -0.28127 -0.614 101 100 106
-0.0881229 -0.284477 -0.621 96 95 101
-0.08736 -0.285851 -0.624 94 93 99
-0.0865857 -0.287226 -0.627 92 91 97
-0.0859362 -0.289058 -0.631 90 91 93
-0.0851371 -0.290432 -0.634 86 87 89
-0.0840619 -0.29089 -0.635 84 85 89
-0.0831133 -0.291807 -0.637 80 81 85
-0.0820286 -0.292265 -0.638 72 73 77
-0.08094 -0.292723 -0.639 65 66 70
-0.0795981 -0.292265 -0.638 61 62 66
-0.07826 -0.291807 -0.637 58 59 63
-0.0769257 -0.291349 -0.636 58 59 63
-0.0757143 -0.291349 -0.636 57 58 62
-0.0745029 -0.291349 -0.636 57 58 63
-0.0731762 -0.29089 -0.635 57 58 63
-0.0719667 -0.29089 -0.635 55 56 61
-0.0707571 -0.29089 -0.635 53 54 59
-0.0695476 -0.29089 -0.635 52 53 58
-0.0683381 -0.29089 -0.635 52 53 58
-0.0672343 -0.291349 -0.636 47 46 52
-0.0661267 -0.291807 -0.637 49 48 54
-0.0649133 -0.291807 -0.637 51 50 56
-0.0638 -0.292265 -0.638 50 49 55
-0.0625848 -0.292265 -0.638 53 52 58
-0.0614657 -0.292723 -0.639 56 55 61
-0.0603429 -0.293181 -0.64 59 58 64
-0.0591238 -0.293181 -0.64 65 64 70
0.128409 -0.292723 -0.639 194 145 131
0.128206 -0.289516 -0.632 194 145 131
0.127771 -0.285851 -0.624 196 147 133
0.1271 -0.281729 -0.615 196 144 131
0.126603 -0.278064 -0.607 194 142 129
0.127759 -0.278064 -0.607 194 142 129
0.127641 -0.275315 -0.601 195 143 130
0.128143 -0.273941 -0.598 196 144 131
0.128417 -0.272109 -0.594 198 146 133
0.129112 -0.271192 -0.592 201 149 136
0.1298 -0.270276 -0.59 200 146 136
0.13048 -0.26936 -0.588 200 146 136
0.131376 -0.268902 -0.587 195 141 131
0.132043 -0.267986 -0.585 191 137 127
0.132702 -0.26707 -0.583 192 138 126
0.133353 -0.266153 -0.581 191 137 125
0.134229 -0.265695 -0.58 195 137 126
0.1351 -0.265237 -0.579 193 135 124
0.135968 -0.264779 -0.578 188 130 119
0.136831 -0.264321 -0.577 186 128 117
0.137691 -0.263863 -0.576 191 133 122
0.138789 -0.263863 -0.576 193 135 124
0.139643 -0.263405 -0.575 194 134 124
0.140493 -0.262947 -0.574 198 138 128
0.14134 -0.262489 -0.573 187 127 116
0.142431 -0.262489 -0.573 187 127 116
0.143272 -0.26203 -0.572 185 125 114
0.14411 -0.261572 -0.571 191 131 120
0.145197 -0.261572 -0.571 194 132 121
0.146029 -0.261114 -0.57 195 133 122
0.147114 -0.261114 -0.57 191 129 118
0.14794 -0.260656 -0.569 195 133 122
0.149024 -0.260656 -0.569 195 135 124
0.150108 -0.260656 -0.569 199 139 128
0.151191 -0.260656 -0.569 201 141 130
0.152008 -0.260198 -0.568 202 142 131
0.15309 -0.260198 -0.568 198 138 127
0.154171 -0.260198 -0.568 196 136 125
0.155253 -0.260198 -0.568 203 141 130
0.156335 -0.260198 -0.568 203 141 130
0.157417 -0.260198 -0.568 206 144 133
0.158499 -0.260198 -0.568 210 148 137
0.159581 -0.260198 -0.568 207 145 132
0.160663 -0.260198 -0.568 206 144 131
0.16203 -0.260656 -0.569 201 139 126
0.163113 -0.260656 -0.569 192 130 117
0.164197 -0.260656 -0.569 186 124 111
0.165281 -0.260656 -0.569 179 117 104
0.166365 -0.260656 -0.569 182 118 108
0.167449 -0.260656 -0.569 179 115 105
0.168829 -0.261114 -0.57 180 118 107
0.170212 -0.261572 -0.571 181 119 108
0.1713 -0.261572 -0.571 181 119 108
0.172388 -0.261572 -0.571 183 120 111
0.173779 -0.26203 -0.572 189 126 117
0.174869 -0.26203 -0.572 187 127 117
0.176266 -0.262489 -0.573 178 118 108
0.177357 -0.262489 -0.573 174 114 104
0.17876 -0.262947 -0.574 173 113 103
0.180167 -0.263405 -0.575 166 107 99
0.181577 -0.263863 -0.576 163 104 96
0.182991 -0.264321 -0.577 163 104 96
0.184729 -0.265237 -0.579 163 104 96
0.186152 -0.265695 -0.58 165 106 98
0.187903 -0.266611 -0.582 163 104 96
0.189336 -0.26707 -0.583 161 102 98
0.1911 -0.267986 -0.585 165 106 102
0.192871 -0.268902 -0.587 146 97 92
0.194981 -0.270276 -0.59 140 91 86
0.197102 -0.27165 -0.593 137 87 86
0.199234 -0.273025 -0.596 134 84 83
0.201378 -0.274399 -0.599 124 84 93
0.203533 -0.275773 -0.602 110 70 79
0.20638 -0.278064 -0.607 117 109 133
0.209588 -0.280812 -0.613 160 152 176
0.212818 -0.283561 -0.619 152 161 202
0.229313 -0.297304 -0.649 211 216 248
0.250402 -0.29593 -0.646 178 122 125
0.250074 -0.294097 -0.642 172 116 119
0.249731 -0.292265 -0.638 166 116 115
0.25016 -0.291349 -0.636 167 117 116
0.250976 -0.29089 -0.635 156 105 104
0.251789 -0.290432 -0.634 151 100 99
0.253395 -0.29089 -0.635 144 97 107
0.254605 -0.29089 -0.635 139 92 102
0.257023 -0.292265 -0.638 139 88 97
0.259048 -0.293181 -0.64 139 88 97
0.26108 -0.294097 -0.642 133 93 104
0.263937 -0.29593 -0.646 166 126 137
0.266399 -0.297304 -0.649 230 225 255
0.479797 -0.250578 -0.547 171 138 131
0.47117 -0.245539 -0.536 170 137 130
0.465143 -0.241874 -0.528 171 138 131
0.461734 -0.239584 -0.523 177 140 132
0.459191 -0.237751 -0.519 179 142 134
0.456633 -0.235919 -0.515 181 143 130
0.454949 -0.234545 -0.512 179 141 128
0.453252 -0.23317 -0.509 178 143 124
0.452437 -0.232254 -0.507 181 146 127
0.451614 -0.231338 -0.505 188 147 129
0.45168 -0.23088 -0.504 189 148 130
0.450844 -0.229964 -0.502 188 147 129
0.45 -0.229048 -0.5 188 147 129
0.45005 -0.22859 -0.499 189 148 128
0.451001 -0.22859 -0.499 189 148 128
0.451046 -0.228131 -0.498 190 149 129
0.451087 -0.227673 -0.497 190 149 129
0.451124 -0.227215 -0.496 193 150 131
0.452069 -0.227215 -0.496 194 151 132
0.4521 -0.226757 -0.495 193 150 131
0.452128 -0.226299 -0.494 191 148 129
0.452151 -0.225841 -0.493 191 148 129
0.45309 -0.225841 -0.493 189 146 127
0.453109 -0.225383 -0.492 187 144 125
0.454046 -0.225383 -0.492 188 145 126
0.454058 -0.224925 -0.491 190 145 126
0.454993 -0.224925 -0.491 189 144 125
0.455 -0.224467 -0.49 187 144 125
0.455933 -0.224467 -0.49 188 145 126
0.456867 -0.224467 -0.49 191 146 125
0.4578 -0.224467 -0.49 191 146 125
0.457797 -0.224009 -0.489 191 146 125
0.458729 -0.224009 -0.489 191 146 125
0.45966 -0.224009 -0.489 191 146 125
0.45965 -0.22355 -0.488 192 147 126
0.460579 -0.22355 -0.488 192 147 126
0.460563 -0.223092 -0.487 190 145 124
0.46149 -0.223092 -0.487 187 142 121
0.462418 -0.223092 -0.487 185 140 117
0.463346 -0.223092 -0.487 184 139 116
0.464273 -0.223092 -0.487 185 140 117
0.465201 -0.223092 -0.487 185 140 117
0.467086 -0.22355 -0.488 185 135 110
0.468015 -0.22355 -0.488 183 133 108
0.468945 -0.22355 -0.488 181 131 108
0.469874 -0.22355 -0.488 179 129 106
0.470804 -0.22355 -0.488 180 130 107
0.4727 -0.224009 -0.489 180 130 107
0.473631 -0.224009 -0.489 178 130 107
0.474563 -0.224009 -0.489 179 131 108
0.476467 -0.224467 -0.49 178 131 105
0.4774 -0.224467 -0.49 178 131 105
0.478333 -0.224467 -0.49 177 130 104
0.479267 -0.224467 -0.49 175 128 102
0.4802 -0.224467 -0.49 172 124 101
0.481133 -0.224467 -0.49 171 123 100
0.48305 -0.224925 -0.491 170 122 99
0.483986 -0.224925 -0.491 168 120 97
0.485909 -0.225383 -0.492 164 122 98
0.487835 -0.225841 -0.493 164 122 98
0.488774 -0.225841 -0.493 165 120 101
0.490707 -0.226299 -0.494 163 118 99
0.492643 -0.226757 -0.495 161 115 99
0.494583 -0.227215 -0.496 161 115 99
0.496527 -0.227673 -0.497 158 117 99
0.499475 -0.22859 -0.499 156 115 97
0.501429 -0.229048 -0.5 154 113 93
-0.12296 -0.29256 -0.636 96 99 104
-0.121174 -0.29118 -0.633 97 100 105
-0.118831 -0.28842 -0.627 96 99 104
-0.116324 -0.2852 -0.62 94 97 102
-0.113843 -0.28198 -0.613 96 99 104
-0.111021 -0.27784 -0.604 103 104 109
-0.108597 -0.27462 -0.597 109 110 115
-0.10638 -0.27186 -0.591 110 111 116
-0.104364 -0.26956 -0.586 109 110 115
-0.102719 -0.26818 -0.583 106 109 114
-0.101434 -0.26772 -0.582 107 110 115
-0.100153 -0.26726 -0.581 110 110 118
-0.0988762 -0.2668 -0.58 110 110 118
-0.0977714 -0.2668 -0.58 110 110 118
-0.0968333 -0.26726 -0.581 110 110 118
-0.0960562 -0.26818 -0.583 99 98 106
-0.0951086 -0.26864 -0.584 78 77 85
-0.0943181 -0.26956 -0.586 72 71 79
-0.09352 -0.27048 -0.588 67 66 74
-0.0927143 -0.2714 -0.59 160 159 167
-0.0920562 -0.27278 -0.593 192 191 199
-0.0913867 -0.27416 -0.596 168 167 173
-0.0908571 -0.276 -0.6 149 148 154
-0.0901629 -0.27738 -0.603 122 121 127
-0.0896048 -0.27922 -0.607 110 109 115
-0.0890314 -0.28106 -0.611 102 101 109
-0.0884429 -0.2829 -0.615 99 98 106
-0.0876971 -0.28428 -0.618 98 97 105
-0.0875 -0.2875 -0.625 96 95 101
-0.0867238 -0.28888 -0.628 94 93 99
-0.0859362 -0.29026 -0.631 91 92 94
-0.0851371 -0.29164 -0.634 87 88 90
-0.0841943 -0.29256 -0.636 87 88 92
-0.0831133 -0.29302 -0.637 85 86 90
-0.0820286 -0.29348 -0.638 75 76 80
-0.0795981 -0.29348 -0.638 63 64 68
-0.07826 -0.29302 -0.637 61 62 66
-0.0770467 -0.29302 -0.637 60 61 65
-0.0757143 -0.29256 -0.636 58 59 63
-0.0743857 -0.2921 -0.635 59 60 65
-0.0731762 -0.2921 -0.635 60 61 66
-0.0719667 -0.2921 -0.635 55 55 63
-0.0707571 -0.2921 -0.635 52 52 60
-0.0695476 -0.2921 -0.635 50 51 56
-0.0683381 -0.2921 -0.635 52 53 58
-0.0672343 -0.29256 -0.636 50 49 55
-0.0661267 -0.29302 -0.637 49 48 54
-0.0649133 -0.29302 -0.637 49 48 54
-0.0638 -0.29348 -0.638 48 47 53
-0.0626829 -0.29394 -0.639 51 50 56
-0.0614657 -0.29394 -0.639 55 54 60
0.128585 -0.29716 -0.646 198 146 133
0.128208 -0.29348 -0.638 194 142 129
0.1278 -0.2898 -0.63 195 143 130
0.127157 -0.28566 -0.621 196 144 131
0.126687 -0.28198 -0.613 194 142 129
0.126394 -0.27876 -0.606 191 139 126
0.127549 -0.27876 -0.606 191 139 126
0.127216 -0.27554 -0.599 190 138 125
0.127714 -0.27416 -0.596 190 138 125
0.128201 -0.27278 -0.593 196 142 130
0.128894 -0.27186 -0.591 200 146 134
0.12958 -0.27094 -0.589 200 146 134
0.13048 -0.27048 -0.588 198 144 132
0.131152 -0.26956 -0.586 194 140 128
0.132043 -0.2691 -0.585 191 137 125
0.132702 -0.26818 -0.583 194 137 126
0.133124 -0.2668 -0.58 192 135 124
0.133997 -0.26634 -0.579 196 138 127
0.134867 -0.26588 -0.578 196 138 127
0.135968 -0.26588 -0.578 192 136 123
0.136831 -0.26542 -0.577 190 134 121
0.137691 -0.26496 -0.576 192 134 122
0.138548 -0.2645 -0.575 193 135 123
0.1394 -0.26404 -0.574 192 134 122
0.140493 -0.26404 -0.574 192 134 122
0.14134 -0.26358 -0.573 185 126 112
0.142183 -0.26312 -0.572 188 129 115
0.143022 -0.26266 -0.571 189 130 116
0.14411 -0.26266 -0.571 195 136 122
0.144943 -0.2622 -0.57 195 136 122
0.146029 -0.2622 -0.57 195 136 122
0.146856 -0.26174 -0.569 194 132 119
0.14768 -0.26128 -0.568 199 137 124
0.148762 -0.26128 -0.568 197 137 126
0.149844 -0.26128 -0.568 198 138 127
0.150926 -0.26128 -0.568 203 144 130
0.152008 -0.26128 -0.568 203 144 130
0.15309 -0.26128 -0.568 197 138 124
0.154171 -0.26128 -0.568 194 135 121
0.155253 -0.26128 -0.568 201 139 128
0.156335 -0.26128 -0.568 200 138 127
0.157417 -0.26128 -0.568 208 146 135
0.158499 -0.26128 -0.568 210 148 137
0.159581 -0.26128 -0.568 207 145 132
0.160663 -0.26128 -0.568 206 144 131
0.161745 -0.26128 -0.568 202 140 127
0.162827 -0.26128 -0.568 192 130 117
0.164197 -0.26174 -0.569 185 123 112
0.165281 -0.26174 -0.569 181 119 108
0.166365 -0.26174 -0.569 181 119 108
0.167449 -0.26174 -0.569 180 118 107
0.168829 -0.2622 -0.57 180 118 107
0.169914 -0.2622 -0.57 179 117 106
0.171 -0.2622 -0.57 179 117 106
0.172388 -0.26266 -0.571 185 122 113
0.173475 -0.26266 -0.571 187 124 115
0.174869 -0.26312 -0.572 184 124 114
0.176266 -0.26358 -0.573 178 118 108
