ply
format ascii 1.0
comment Created by Open3D
element vertex 1301
property double x
property double y
property double z
property uchar red
property uchar green
property uchar blue
end_header
0.286637 -0.128409 -0.639 157 134 142
0.286503 -0.127806 -0.636 172 151 158
0.286357 -0.127203 -0.633 178 157 164
0.286654 -0.126801 -0.631 184 163 170
0.2874 -0.1266 -0.63 174 153 160
0.288142 -0.126399 -0.629 161 138 146
0.28934 -0.126399 -0.629 141 118 126
0.290076 -0.126198 -0.628 114 91 97
0.291272 -0.126198 -0.628 89 66 72
0.292003 -0.125997 -0.627 72 47 53
0.29273 -0.125796 -0.626 74 49 55
0.293922 -0.125796 -0.626 74 47 54
0.294643 -0.125595 -0.625 89 62 69
0.295833 -0.125595 -0.625 121 92 97
0.297024 -0.125595 -0.625 149 120 125
0.298214 -0.125595 -0.625 162 133 138
0.298926 -0.125394 -0.624 171 142 147
0.300114 -0.125394 -0.624 171 141 149
0.301303 -0.125394 -0.624 167 137 145
0.302491 -0.125394 -0.624 167 137 145
0.30368 -0.125394 -0.624 161 130 138
0.30438 -0.125193 -0.623 161 130 138
0.305567 -0.125193 -0.623 159 128 136
0.306753 -0.125193 -0.623 160 129 137
0.30794 -0.125193 -0.623 160 129 137
0.309127 -0.125193 -0.623 160 129 137
0.310313 -0.125193 -0.623 164 131 138
0.311 -0.124992 -0.622 166 133 140
0.312185 -0.124992 -0.622 168 135 142
0.31337 -0.124992 -0.622 167 134 141
0.314554 -0.124992 -0.622 170 135 142
0.315231 -0.124791 -0.621 172 137 144
0.316414 -0.124791 -0.621 171 136 143
0.317597 -0.124791 -0.621 169 134 141
0.31878 -0.124791 -0.621 164 133 139
0.319963 -0.124791 -0.621 164 133 139
0.321146 -0.124791 -0.621 162 131 137
0.322329 -0.124791 -0.621 161 130 136
0.323511 -0.124791 -0.621 163 132 138
0.324694 -0.124791 -0.621 165 134 140
0.325877 -0.124791 -0.621 165 134 140
0.32706 -0.124791 -0.621 164 133 139
0.328243 -0.124791 -0.621 164 133 139
0.329426 -0.124791 -0.621 164 133 139
0.330609 -0.124791 -0.621 165 134 140
0.331791 -0.124791 -0.621 168 137 145
0.332974 -0.124791 -0.621 168 137 145
0.334157 -0.124791 -0.621 167 136 144
0.33534 -0.124791 -0.621 167 136 144
0.336523 -0.124791 -0.621 168 137 145
0.337706 -0.124791 -0.621 169 138 146
0.338889 -0.124791 -0.621 167 137 145
0.340071 -0.124791 -0.621 167 137 145
0.341254 -0.124791 -0.621 168 138 146
0.342437 -0.124791 -0.621 167 137 145
0.34362 -0.124791 -0.621 167 137 145
0.344803 -0.124791 -0.621 167 137 145
0.345986 -0.124791 -0.621 167 137 145
0.347728 -0.124992 -0.622 167 137 145
0.348912 -0.124992 -0.622 167 137 145
0.350097 -0.124992 -0.622 166 136 144
0.351847 -0.125193 -0.623 166 136 144
0.353033 -0.125193 -0.623 166 136 144
0.35422 -0.125193 -0.623 165 135 143
0.355407 -0.125193 -0.623 165 135 143
0.356593 -0.125193 -0.623 165 135 143
0.35778 -0.125193 -0.623 165 135 143
0.358967 -0.125193 -0.623 165 135 143
0.360153 -0.125193 -0.623 165 133 144
0.36134 -0.125193 -0.623 165 133 144
0.362527 -0.125193 -0.623 165 133 144
0.363713 -0.125193 -0.623 165 133 144
0.3649 -0.125193 -0.623 165 133 144
0.366674 -0.125394 -0.624 164 132 143
0.367863 -0.125394 -0.624 165 133 144
0.369051 -0.125394 -0.624 165 133 144
0.37024 -0.125394 -0.624 164 132 143
0.372024 -0.125595 -0.625 164 132 143
0.373214 -0.125595 -0.625 165 133 144
0.374405 -0.125595 -0.625 165 133 144
0.375595 -0.125595 -0.625 165 133 144
0.376786 -0.125595 -0.625 164 132 143
0.377976 -0.125595 -0.625 164 132 143
0.379167 -0.125595 -0.625 164 132 143
0.380357 -0.125595 -0.625 161 130 138
0.382158 -0.125796 -0.626 162 131 139
0.38335 -0.125796 -0.626 162 131 139
0.384543 -0.125796 -0.626 163 132 140
0.385735 -0.125796 -0.626 163 132 140
0.386928 -0.125796 -0.626 163 132 140
0.38812 -0.125796 -0.626 162 131 139
0.389312 -0.125796 -0.626 162 131 139
0.390505 -0.125796 -0.626 161 130 138
0.392323 -0.125997 -0.627 163 132 140
0.393517 -0.125997 -0.627 161 130 138
0.395341 -0.126198 -0.628 160 129 137
0.396537 -0.126198 -0.628 161 130 138
0.397733 -0.126198 -0.628 165 134 142
0.39893 -0.126198 -0.628 167 136 144
0.400126 -0.126198 -0.628 164 133 141
0.401961 -0.126399 -0.629 162 131 139
0.403159 -0.126399 -0.629 159 127 140
0.404357 -0.126399 -0.629 160 128 141
0.405555 -0.126399 -0.629 163 133 143
0.406753 -0.126399 -0.629 159 129 139
0.4086 -0.1266 -0.63 183 160 168
0.4098 -0.1266 -0.63 221 198 206
0.411652 -0.126801 -0.631 232 213 219
0.412854 -0.126801 -0.631 232 213 219
0.414712 -0.127002 -0.632 210 191 197
0.416574 -0.127203 -0.633 190 167 173
0.4191 -0.127605 -0.635 163 140 146
0.420971 -0.127806 -0.636 161 132 137
0.424838 -0.12861 -0.64 150 121 126
0.428054 -0.129212 -0.643 143 114 119
0.43195 -0.130016 -0.647 118 89 94
0.287653 -0.13064 -0.644 80 69 77
0.286189 -0.129423 -0.638 90 79 87
0.286503 -0.129017 -0.636 109 96 105
0.286357 -0.128409 -0.633 134 121 130
0.286654 -0.128003 -0.631 165 149 159
0.2874 -0.1278 -0.63 174 158 168
0.288142 -0.127597 -0.629 175 158 166
0.28934 -0.127597 -0.629 174 157 165
0.290538 -0.127597 -0.629 173 153 162
0.291272 -0.127394 -0.628 159 139 148
0.292003 -0.127191 -0.627 130 109 116
0.293197 -0.127191 -0.627 111 90 97
0.293922 -0.126989 -0.626 89 64 70
0.294643 -0.126786 -0.625 73 48 54
0.29536 -0.126583 -0.624 74 49 55
0.296549 -0.126583 -0.624 75 50 56
0.297737 -0.126583 -0.624 78 51 58
0.298926 -0.126583 -0.624 79 52 59
0.299633 -0.12638 -0.623 116 86 94
0.30082 -0.12638 -0.623 144 114 122
0.302007 -0.12638 -0.623 144 114 122
0.303193 -0.12638 -0.623 170 140 148
0.303891 -0.126177 -0.622 177 147 155
0.305076 -0.126177 -0.622 165 135 143
0.306261 -0.126177 -0.622 163 133 141
0.307446 -0.126177 -0.622 163 132 140
0.30863 -0.126177 -0.622 165 134 142
0.309815 -0.126177 -0.622 167 134 143
0.311 -0.126177 -0.622 163 130 139
0.311683 -0.125974 -0.621 164 131 140
0.312866 -0.125974 -0.621 167 134 143
0.314049 -0.125974 -0.621 168 132 142
0.315231 -0.125974 -0.621 167 131 141
0.316414 -0.125974 -0.621 167 131 141
0.317086 -0.125771 -0.62 169 133 143
0.318267 -0.125771 -0.62 162 131 137
0.319448 -0.125771 -0.62 163 132 138
0.320629 -0.125771 -0.62 163 132 138
0.32181 -0.125771 -0.62 164 133 139
0.32299 -0.125771 -0.62 166 135 141
0.324171 -0.125771 -0.62 165 134 140
0.325352 -0.125771 -0.62 163 132 138
0.326533 -0.125771 -0.62 163 132 138
0.327714 -0.125771 -0.62 163 132 138
0.328895 -0.125771 -0.62 166 135 141
0.330076 -0.125771 -0.62 167 136 142
0.331257 -0.125771 -0.62 169 138 144
0.332438 -0.125771 -0.62 170 139 145
0.333619 -0.125771 -0.62 168 138 146
0.3348 -0.125771 -0.62 167 137 145
0.335981 -0.125771 -0.62 167 137 145
0.337162 -0.125771 -0.62 168 138 146
0.338343 -0.125771 -0.62 169 139 147
0.339524 -0.125771 -0.62 169 139 147
0.340705 -0.125771 -0.62 168 138 146
0.341886 -0.125771 -0.62 168 138 146
0.343067 -0.125771 -0.62 168 138 146
0.344248 -0.125771 -0.62 167 137 145
0.345986 -0.125974 -0.621 167 137 145
0.347169 -0.125974 -0.621 167 137 145
0.348912 -0.126177 -0.622 166 136 144
0.350097 -0.126177 -0.622 166 136 144
0.351282 -0.126177 -0.622 166 136 144
0.352467 -0.126177 -0.622 166 136 144
0.353651 -0.126177 -0.622 166 136 144
0.354836 -0.126177 -0.622 166 136 144
0.356021 -0.126177 -0.622 165 135 143
0.357206 -0.126177 -0.622 165 135 143
0.35839 -0.126177 -0.622 165 135 143
0.359575 -0.126177 -0.622 166 134 145
0.36076 -0.126177 -0.622 164 132 143
0.361945 -0.126177 -0.622 165 133 144
0.36313 -0.126177 -0.622 165 133 144
0.3649 -0.12638 -0.623 164 132 143
0.366087 -0.12638 -0.623 165 133 144
0.367273 -0.12638 -0.623 166 134 145
0.36846 -0.12638 -0.623 165 133 144
0.369647 -0.12638 -0.623 164 132 143
0.371429 -0.126583 -0.624 164 132 143
0.372617 -0.126583 -0.624 165 133 144
0.373806 -0.126583 -0.624 166 134 145
0.374994 -0.126583 -0.624 165 133 144
0.376183 -0.126583 -0.624 164 132 143
0.377371 -0.126583 -0.624 164 132 143
0.37856 -0.126583 -0.624 162 130 141
0.380357 -0.126786 -0.625 161 131 139
0.381548 -0.126786 -0.625 161 131 139
0.382738 -0.126786 -0.625 161 131 139
0.383929 -0.126786 -0.625 162 132 140
0.385119 -0.126786 -0.625 164 134 142
0.38631 -0.126786 -0.625 165 135 143
0.3875 -0.126786 -0.625 164 134 142
0.38869 -0.126786 -0.625 164 133 141
0.389881 -0.126786 -0.625 163 132 140
0.391697 -0.126989 -0.626 162 131 139
0.39289 -0.126989 -0.626 160 129 137
0.394711 -0.127191 -0.627 159 128 136
0.395906 -0.127191 -0.627 160 129 137
0.3971 -0.127191 -0.627 163 132 140
0.398294 -0.127191 -0.627 164 133 141
0.399489 -0.127191 -0.627 163 132 140
0.401322 -0.127394 -0.628 161 130 138
0.402518 -0.127394 -0.628 166 134 149
0.403714 -0.127394 -0.628 156 124 139
0.40491 -0.127394 -0.628 167 139 151
0.406753 -0.127597 -0.629 194 166 178
0.407951 -0.127597 -0.629 202 179 187
0.4098 -0.1278 -0.63 184 161 169
0.411652 -0.128003 -0.631 184 165 171
0.412854 -0.128003 -0.631 184 165 171
0.414712 -0.128206 -0.632 195 176 182
0.416574 -0.128409 -0.633 175 152 160
0.4191 -0.128814 -0.635 151 128 136
0.421633 -0.12922 -0.637 158 127 135
0.425502 -0.130031 -0.641 154 123 131
0.429386 -0.130843 -0.645 136 105 111
0.432617 -0.131451 -0.648 102 71 77
0.287653 -0.131867 -0.644 61 56 63
0.286637 -0.130843 -0.639 64 59 66
0.286503 -0.130229 -0.636 75 65 74
0.28681 -0.129819 -0.634 77 67 76
0.287563 -0.129614 -0.633 86 76 85
0.287856 -0.129205 -0.631 105 95 104
0.2886 -0.129 -0.63 134 123 131
0.2898 -0.129 -0.63 160 149 157
0.290538 -0.128795 -0.629 182 166 176
0.291272 -0.12859 -0.628 179 163 173
0.292469 -0.12859 -0.628 173 156 164
0.293197 -0.128386 -0.627 161 144 152
0.293922 -0.128181 -0.626 153 132 139
0.294643 -0.127976 -0.625 133 112 119
0.29536 -0.127771 -0.624 111 88 96
0.296549 -0.127771 -0.624 86 63 71
0.297737 -0.127771 -0.624 80 55 61
0.298926 -0.127771 -0.624 79 54 60
0.299633 -0.127567 -0.623 78 51 58
0.30082 -0.127567 -0.623 79 52 59
0.302007 -0.127567 -0.623 79 52 59
0.302707 -0.127362 -0.622 87 60 67
0.303891 -0.127362 -0.622 109 82 89
0.305076 -0.127362 -0.622 129 99 107
0.306261 -0.127362 -0.622 151 121 129
0.307446 -0.127362 -0.622 163 132 140
0.30863 -0.127362 -0.622 176 145 153
0.309815 -0.127362 -0.622 174 143 151
0.3105 -0.127157 -0.621 168 137 145
0.311683 -0.127157 -0.621 163 130 139
0.312866 -0.127157 -0.621 160 127 136
0.314049 -0.127157 -0.621 163 130 139
0.315231 -0.127157 -0.621 168 135 144
0.315905 -0.126952 -0.62 169 133 143
0.317086 -0.126952 -0.62 166 130 140
0.318267 -0.126952 -0.62 162 129 136
0.319448 -0.126952 -0.62 162 129 136
0.320629 -0.126952 -0.62 163 130 137
0.32181 -0.126952 -0.62 165 132 139
0.32299 -0.126952 -0.62 165 134 140
0.324171 -0.126952 -0.62 160 129 135
0.325352 -0.126952 -0.62 161 130 136
0.326533 -0.126952 -0.62 167 136 142
0.327714 -0.126952 -0.62 167 136 142
0.328895 -0.126952 -0.62 168 137 145
0.330076 -0.126952 -0.62 169 138 146
0.331257 -0.126952 -0.62 169 139 147
0.332438 -0.126952 -0.62 170 140 148
0.333619 -0.126952 -0.62 169 139 147
0.3348 -0.126952 -0.62 167 137 145
0.335981 -0.126952 -0.62 167 137 145
0.337162 -0.126952 -0.62 168 138 146
0.337797 -0.126748 -0.619 170 140 148
0.338976 -0.126748 -0.619 169 139 147
0.340155 -0.126748 -0.619 168 138 146
0.341334 -0.126748 -0.619 168 138 146
0.342513 -0.126748 -0.619 168 138 146
0.343692 -0.126748 -0.619 167 137 145
0.345429 -0.126952 -0.62 166 136 144
0.34661 -0.126952 -0.62 167 137 145
0.348351 -0.127157 -0.621 165 135 143
0.349534 -0.127157 -0.621 165 135 143
0.350717 -0.127157 -0.621 167 136 144
0.3519 -0.127157 -0.621 167 136 144
0.353083 -0.127157 -0.621 167 136 144
0.354266 -0.127157 -0.621 167 136 144
0.356021 -0.127362 -0.622 167 136 144
0.357206 -0.127362 -0.622 167 135 146
0.35839 -0.127362 -0.622 167 135 146
0.359575 -0.127362 -0.622 166 134 145
0.36076 -0.127362 -0.622 165 133 144
0.361945 -0.127362 -0.622 165 133 144
0.36313 -0.127362 -0.622 165 133 144
0.364314 -0.127362 -0.622 165 133 144
0.365499 -0.127362 -0.622 165 133 144
0.367273 -0.127567 -0.623 165 133 144
0.36846 -0.127567 -0.623 165 133 144
0.369647 -0.127567 -0.623 165 133 144
0.370833 -0.127567 -0.623 165 133 144
0.37202 -0.127567 -0.623 165 133 144
0.373806 -0.127771 -0.624 165 133 144
0.374994 -0.127771 -0.624 165 133 144
0.376183 -0.127771 -0.624 164 132 143
0.376767 -0.127567 -0.623 163 131 142
0.377953 -0.127567 -0.623 161 129 140
0.379749 -0.127771 -0.624 162 132 140
0.380937 -0.127771 -0.624 162 132 140
0.382126 -0.127771 -0.624 162 132 140
0.383314 -0.127771 -0.624 162 132 140
0.384503 -0.127771 -0.624 164 134 142
0.385691 -0.127771 -0.624 165 135 143
0.3875 -0.127976 -0.625 165 135 143
0.38869 -0.127976 -0.625 165 134 142
0.389881 -0.127976 -0.625 165 134 142
0.391071 -0.127976 -0.625 164 133 141
0.392262 -0.127976 -0.625 163 132 140
0.394082 -0.128181 -0.626 162 131 139
0.395274 -0.128181 -0.626 162 131 139
0.396467 -0.128181 -0.626 162 131 139
0.397659 -0.128181 -0.626 163 132 140
0.398851 -0.128181 -0.626 163 132 140
0.400683 -0.128386 -0.627 162 131 139
0.401877 -0.128386 -0.627 161 131 143
0.403714 -0.12859 -0.628 161 131 143
0.40491 -0.12859 -0.628 161 135 146
0.406107 -0.12859 -0.628 176 150 161
0.407303 -0.12859 -0.628 202 181 188
0.40915 -0.128795 -0.629 220 199 206
0.411652 -0.129205 -0.631 209 188 195
0.412854 -0.129205 -0.631 209 188 195
0.414712 -0.12941 -0.632 177 156 163
0.416574 -0.129614 -0.633 165 140 146
0.41976 -0.130229 -0.636 156 131 137
0.421633 -0.130433 -0.637 160 129 137
0.426166 -0.131457 -0.642 147 116 124
0.431383 -0.132686 -0.648 123 92 98
0.287653 -0.133093 -0.644 53 47 57
0.286637 -0.13206 -0.639 56 50 60
0.286953 -0.131647 -0.637 56 50 60
0.287262 -0.131233 -0.635 60 54 64
0.288017 -0.131027 -0.634 67 60 68
0.288312 -0.130613 -0.632 72 65 73
0.289058 -0.130407 -0.631 82 72 81
0.2898 -0.1302 -0.63 95 85 94
0.291 -0.1302 -0.63 122 111 119
0.291736 -0.129993 -0.629 135 124 132
0.292469 -0.129787 -0.628 162 147 154
0.293197 -0.12958 -0.627 172 157 164
0.293922 -0.129373 -0.626 188 168 177
0.295114 -0.129373 -0.626 187 167 176
0.295833 -0.129167 -0.625 187 166 173
0.296549 -0.12896 -0.624 173 152 159
0.297737 -0.12896 -0.624 145 124 131
0.298926 -0.12896 -0.624 111 90 97
0.299633 -0.128753 -0.623 94 69 75
0.30082 -0.128753 -0.623 83 58 64
0.302007 -0.128753 -0.623 83 58 64
0.302707 -0.128547 -0.622 78 51 58
0.303891 -0.128547 -0.622 80 53 60
0.305076 -0.128547 -0.622 77 50 57
0.306261 -0.128547 -0.622 79 52 59
0.307446 -0.128547 -0.622 86 56 64
0.30863 -0.128547 -0.622 102 72 80
0.309815 -0.128547 -0.622 134 103 111
0.3105 -0.12834 -0.621 161 130 138
0.311683 -0.12834 -0.621 179 148 156
0.312866 -0.12834 -0.621 172 141 149
0.314049 -0.12834 -0.621 162 129 138
0.315231 -0.12834 -0.621 164 131 140
0.315905 -0.128133 -0.62 165 132 141
0.317086 -0.128133 -0.62 163 130 139
0.318267 -0.128133 -0.62 162 129 138
0.319448 -0.128133 -0.62 165 132 141
0.320629 -0.128133 -0.62 165 132 141
0.32181 -0.128133 -0.62 165 132 141
0.32299 -0.128133 -0.62 166 133 142
0.324171 -0.128133 -0.62 164 131 140
0.325352 -0.128133 -0.62 164 133 141
0.326533 -0.128133 -0.62 168 137 145
0.327714 -0.128133 -0.62 168 137 145
0.328365 -0.127927 -0.619 169 138 146
0.329544 -0.127927 -0.619 169 138 146
0.331257 -0.128133 -0.62 170 139 147
0.332438 -0.128133 -0.62 170 139 147
0.333081 -0.127927 -0.619 168 138 146
0.33426 -0.127927 -0.619 167 137 145
0.335439 -0.127927 -0.619 167 137 145
0.336618 -0.127927 -0.619 167 137 145
0.337797 -0.127927 -0.619 170 140 148
0.338976 -0.127927 -0.619 168 138 146
0.339606 -0.12772 -0.618 168 138 146
0.340783 -0.12772 -0.618 168 138 146
0.34196 -0.12772 -0.618 169 139 147
0.343137 -0.12772 -0.618 168 138 146
0.344871 -0.127927 -0.619 167 137 145
0.34605 -0.127927 -0.619 167 137 145
0.34779 -0.128133 -0.62 166 136 144
0.348971 -0.128133 -0.62 166 136 144
0.350152 -0.128133 -0.62 167 135 146
0.351333 -0.128133 -0.62 167 135 146
0.352514 -0.128133 -0.62 167 135 146
0.353695 -0.128133 -0.62 167 135 146
0.355449 -0.12834 -0.621 167 135 146
0.356631 -0.12834 -0.621 167 135 146
0.357814 -0.12834 -0.621 167 135 146
0.358997 -0.12834 -0.621 165 133 144
0.36018 -0.12834 -0.621 165 133 144
0.361363 -0.12834 -0.621 165 133 144
0.362546 -0.12834 -0.621 165 133 144
0.364314 -0.128547 -0.622 166 134 145
0.365499 -0.128547 -0.622 166 134 145
0.366684 -0.128547 -0.622 165 133 144
0.367869 -0.128547 -0.622 165 133 144
0.369053 -0.128547 -0.622 168 136 147
0.370238 -0.128547 -0.622 167 135 146
0.371423 -0.128547 -0.622 165 133 144
0.373207 -0.128753 -0.623 164 132 143
0.374393 -0.128753 -0.623 163 131 142
0.37558 -0.128753 -0.623 163 131 142
0.376767 -0.128753 -0.623 163 131 142
0.377347 -0.128547 -0.622 163 131 142
0.37914 -0.128753 -0.623 163 132 140
0.380327 -0.128753 -0.623 163 132 140
0.381513 -0.128753 -0.623 163 132 140
0.3827 -0.128753 -0.623 163 132 140
0.383887 -0.128753 -0.623 162 131 139
0.385073 -0.128753 -0.623 162 131 139
0.38688 -0.12896 -0.624 162 131 139
0.388069 -0.12896 -0.624 163 132 140
0.389257 -0.12896 -0.624 165 134 142
0.390446 -0.12896 -0.624 163 132 140
0.391634 -0.12896 -0.624 164 133 141
0.393452 -0.129167 -0.625 164 133 141
0.394643 -0.129167 -0.625 164 133 141
0.395833 -0.129167 -0.625 164 133 141
0.397024 -0.129167 -0.625 164 133 141
0.398214 -0.129167 -0.625 163 132 140
0.400044 -0.129373 -0.626 163 132 140
0.401236 -0.129373 -0.626 156 128 140
0.403071 -0.12958 -0.627 172 144 156
0.404266 -0.12958 -0.627 211 188 198
0.40546 -0.12958 -0.627 201 178 188
0.407303 -0.129787 -0.628 158 139 145
0.408499 -0.129787 -0.628 168 149 155
0.411 -0.1302 -0.63 180 159 166
0.4122 -0.1302 -0.63 180 159 166
0.414056 -0.130407 -0.631 170 149 156
0.416574 -0.13082 -0.633 162 135 142
0.41976 -0.13144 -0.636 154 127 134
0.422295 -0.131853 -0.638 153 122 130
0.42683 -0.132887 -0.643 133 102 110
0.431383 -0.13392 -0.648 108 75 82
0.288993 -0.134946 -0.647 54 48 62
0.287534 -0.133694 -0.641 56 50 64
0.287404 -0.133069 -0.638 51 45 55
0.287714 -0.132651 -0.636 50 44 54
0.288471 -0.132443 -0.635 50 44 54
0.289225 -0.132234 -0.634 48 42 52
0.289974 -0.132026 -0.633 55 47 58
0.29072 -0.131817 -0.632 62 54 65
0.291462 -0.131609 -0.631 78 66 76
0.2922 -0.1314 -0.63 82 70 80
0.292934 -0.131191 -0.629 93 80 89
0.293665 -0.130983 -0.628 112 99 108
0.294391 -0.130774 -0.627 144 128 138
0.295114 -0.130566 -0.626 168 152 162
0.295833 -0.130357 -0.625 189 172 180
0.297024 -0.130357 -0.625 199 182 190
0.297737 -0.130149 -0.624 199 179 188
0.298926 -0.130149 -0.624 189 169 178
0.299633 -0.12994 -0.623 166 143 149
0.30082 -0.12994 -0.623 139 116 122
0.302007 -0.12994 -0.623 139 116 122
0.302707 -0.129731 -0.622 110 85 91
0.303891 -0.129731 -0.622 89 64 70
0.305076 -0.129731 -0.622 83 58 64
0.306261 -0.129731 -0.622 78 53 59
0.307446 -0.129731 -0.622 75 48 55
0.30863 -0.129731 -0.622 75 48 55
0.309815 -0.129731 -0.622 70 43 50
0.3105 -0.129523 -0.621 80 53 60
0.311683 -0.129523 -0.621 101 71 79
0.312866 -0.129523 -0.621 125 95 103
0.314049 -0.129523 -0.621 151 122 127
0.315231 -0.129523 -0.621 168 139 144
0.315905 -0.129314 -0.62 170 141 146
0.317086 -0.129314 -0.62 168 139 144
0.318267 -0.129314 -0.62 155 122 131
0.319448 -0.129314 -0.62 162 129 138
0.320629 -0.129314 -0.62 164 131 140
0.32181 -0.129314 -0.62 162 129 138
0.32299 -0.129314 -0.62 165 134 142
0.324171 -0.129314 -0.62 169 138 146
0.325352 -0.129314 -0.62 168 137 145
0.326007 -0.129106 -0.619 166 135 143
0.327186 -0.129106 -0.619 166 135 143
0.328365 -0.129106 -0.619 168 137 145
0.329544 -0.129106 -0.619 168 137 145
0.330723 -0.129106 -0.619 169 138 146
0.332438 -0.129314 -0.62 169 138 146
0.333081 -0.129106 -0.619 168 136 147
0.33426 -0.129106 -0.619 168 136 147
0.335439 -0.129106 -0.619 168 136 147
0.336618 -0.129106 -0.619 169 137 148
0.337251 -0.128897 -0.618 169 139 147
0.338429 -0.128897 -0.618 168 138 146
0.339606 -0.128897 -0.618 168 138 146
0.340783 -0.128897 -0.618 168 138 146
0.34196 -0.128897 -0.618 169 139 147
0.343137 -0.128897 -0.618 168 138 146
0.344314 -0.128897 -0.618 168 138 146
0.34605 -0.129106 -0.619 168 138 146
0.34723 -0.129106 -0.619 167 137 147
0.348409 -0.129106 -0.619 167 137 147
0.349588 -0.129106 -0.619 167 137 147
0.350767 -0.129106 -0.619 166 136 146
0.351946 -0.129106 -0.619 166 136 146
0.353125 -0.129106 -0.619 166 136 146
0.354876 -0.129314 -0.62 166 136 146
0.356057 -0.129314 -0.62 165 135 145
0.357238 -0.129314 -0.62 165 135 145
0.358419 -0.129314 -0.62 165 133 144
0.36018 -0.129523 -0.621 166 134 145
0.361363 -0.129523 -0.621 166 134 145
0.362546 -0.129523 -0.621 166 134 145
0.363729 -0.129523 -0.621 167 135 146
0.364911 -0.129523 -0.621 167 135 146
0.366684 -0.129731 -0.622 166 134 145
0.367869 -0.129731 -0.622 166 134 145
0.369053 -0.129731 -0.622 168 136 147
0.369643 -0.129523 -0.621 168 136 147
0.370826 -0.129523 -0.621 167 135 146
0.372608 -0.129731 -0.622 165 133 144
0.373792 -0.129731 -0.622 164 132 143
0.374977 -0.129731 -0.622 163 131 142
0.376162 -0.129731 -0.622 164 132 143
0.37674 -0.129523 -0.621 165 133 144
0.378531 -0.129731 -0.622 164 133 141
0.379716 -0.129731 -0.622 164 133 141
0.380901 -0.129731 -0.622 164 133 141
0.382086 -0.129731 -0.622 164 133 141
0.38327 -0.129731 -0.622 163 132 140
0.384455 -0.129731 -0.622 161 130 138
0.38626 -0.12994 -0.623 160 129 137
0.387447 -0.12994 -0.623 162 131 139
0.388633 -0.12994 -0.623 164 133 141
0.38982 -0.12994 -0.623 161 130 138
0.391007 -0.12994 -0.623 161 130 138
0.392823 -0.130149 -0.624 161 130 138
0.394011 -0.130149 -0.624 161 130 138
0.395833 -0.130357 -0.625 162 131 139
0.397024 -0.130357 -0.625 162 131 139
0.398214 -0.130357 -0.625 162 131 139
0.399405 -0.130357 -0.625 162 131 139
0.400595 -0.130357 -0.625 162 134 146
0.402429 -0.130566 -0.626 174 146 158
0.403621 -0.130566 -0.626 221 200 209
0.40546 -0.130774 -0.627 218 197 206
0.407303 -0.130983 -0.628 187 170 178
0.40915 -0.131191 -0.629 208 191 199
0.411 -0.1314 -0.63 191 170 177
0.4122 -0.1314 -0.63 191 170 177
0.414712 -0.131817 -0.632 155 134 141
0.417232 -0.132234 -0.634 160 130 138
0.42042 -0.13286 -0.637 152 122 130
0.422957 -0.133277 -0.639 148 117 125
0.290333 -0.13681 -0.65 68 63 85
0.288431 -0.135336 -0.643 51 46 68
0.288755 -0.134915 -0.641 47 41 53
0.288619 -0.134284 -0.638 45 39 51
0.28938 -0.134073 -0.637 49 43 55
0.289681 -0.133652 -0.635 49 43 55
0.29089 -0.133652 -0.635 51 43 54
0.29164 -0.133442 -0.634 52 44 55
0.292386 -0.133231 -0.633 56 46 57
0.293128 -0.133021 -0.632 53 43 54
0.293866 -0.13281 -0.631 64 52 64
0.294132 -0.13239 -0.629 82 70 82
0.294861 -0.132179 -0.628 89 76 86
0.296057 -0.132179 -0.628 88 75 85
0.29678 -0.131969 -0.627 104 91 101
0.297499 -0.131758 -0.626 140 127 137
0.298214 -0.131548 -0.625 174 158 169
0.299405 -0.131548 -0.625 192 176 187
0.300114 -0.131337 -0.624 193 172 179
0.301303 -0.131337 -0.624 191 170 177
0.302491 -0.131337 -0.624 191 170 177
0.303193 -0.131127 -0.623 183 162 167
0.303891 -0.130916 -0.622 159 138 143
0.305076 -0.130916 -0.622 133 110 116
0.306261 -0.130916 -0.622 101 78 84
0.307446 -0.130916 -0.622 89 66 72
0.30863 -0.130916 -0.622 83 60 66
0.309815 -0.130916 -0.622 80 57 63
0.311 -0.130916 -0.622 73 50 56
0.311683 -0.130706 -0.621 74 49 55
0.312866 -0.130706 -0.621 74 49 55
0.314049 -0.130706 -0.621 72 47 53
0.315231 -0.130706 -0.621 79 54 60
0.316414 -0.130706 -0.621 108 83 89
0.317086 -0.130495 -0.62 142 117 123
0.318267 -0.130495 -0.62 166 135 143
0.319448 -0.130495 -0.62 169 138 146
0.320629 -0.130495 -0.62 162 131 139
0.32181 -0.130495 -0.62 154 123 131
0.32299 -0.130495 -0.62 158 127 135
0.323649 -0.130285 -0.619 166 135 143
0.324828 -0.130285 -0.619 173 142 150
0.326007 -0.130285 -0.619 180 149 157
0.327186 -0.130285 -0.619 180 149 157
0.328365 -0.130285 -0.619 167 136 144
0.329544 -0.130285 -0.619 170 139 147
0.330723 -0.130285 -0.619 171 140 148
0.331902 -0.130285 -0.619 170 139 147
0.333081 -0.130285 -0.619 169 138 146
0.33372 -0.130074 -0.618 169 138 146
0.334897 -0.130074 -0.618 169 138 146
0.336074 -0.130074 -0.618 169 138 146
0.337251 -0.130074 -0.618 170 140 148
0.337881 -0.129864 -0.617 169 139 147
0.339056 -0.129864 -0.617 169 139 147
0.340231 -0.129864 -0.617 169 139 147
0.34196 -0.130074 -0.618 169 139 147
0.343137 -0.130074 -0.618 169 139 147
0.344314 -0.130074 -0.618 168 138 146
0.345491 -0.130074 -0.618 168 138 146
0.346669 -0.130074 -0.618 168 138 148
0.348409 -0.130285 -0.619 168 138 148
0.349588 -0.130285 -0.619 167 137 147
0.3502 -0.130074 -0.618 167 137 147
0.351377 -0.130074 -0.618 167 137 147
0.352554 -0.130074 -0.618 167 137 147
0.354304 -0.130285 -0.619 167 137 147
0.355483 -0.130285 -0.619 167 137 147
0.356662 -0.130285 -0.619 167 137 147
0.357841 -0.130285 -0.619 167 135 146
0.3596 -0.130495 -0.62 167 135 146
0.360781 -0.130495 -0.62 168 136 147
0.361962 -0.130495 -0.62 167 135 146
0.363143 -0.130495 -0.62 167 135 146
0.364324 -0.130495 -0.62 167 135 146
0.366094 -0.130706 -0.621 167 135 146
0.367277 -0.130706 -0.621 167 135 146
0.36846 -0.130706 -0.621 168 136 147
0.369643 -0.130706 -0.621 168 136 147
0.370229 -0.130495 -0.62 167 135 146
0.372009 -0.130706 -0.621 166 134 145
0.373191 -0.130706 -0.621 165 133 144
0.374374 -0.130706 -0.621 165 133 144
0.375557 -0.130706 -0.621 165 133 144
0.376133 -0.130495 -0.62 166 134 145
0.377923 -0.130706 -0.621 165 135 143
0.379106 -0.130706 -0.621 165 135 143
0.380289 -0.130706 -0.621 165 135 143
0.381471 -0.130706 -0.621 164 134 142
0.382654 -0.130706 -0.621 162 132 140
0.383837 -0.130706 -0.621 161 131 139
0.38564 -0.130916 -0.622 161 131 139
0.386825 -0.130916 -0.622 161 131 139
0.38801 -0.130916 -0.622 162 132 140
0.389194 -0.130916 -0.622 162 131 139
0.391007 -0.131127 -0.623 161 130 138
0.392193 -0.131127 -0.623 161 130 138
0.39338 -0.131127 -0.623 162 131 139
0.3952 -0.131337 -0.624 161 130 138
0.396389 -0.131337 -0.624 162 131 139
0.397577 -0.131337 -0.624 163 132 140
0.398766 -0.131337 -0.624 163 132 140
0.399954 -0.131337 -0.624 158 130 142
0.401786 -0.131548 -0.625 160 132 144
0.403621 -0.131758 -0.626 182 162 171
0.40546 -0.131969 -0.627 222 202 211
0.407303 -0.132179 -0.628 229 212 220
0.40915 -0.13239 -0.629 214 197 205
0.411 -0.1326 -0.63 177 154 162
0.4122 -0.1326 -0.63 177 154 162
0.414712 -0.133021 -0.632 157 134 142
0.417232 -0.133442 -0.634 158 128 136
0.42108 -0.134284 -0.638 153 123 131
0.424281 -0.134915 -0.641 134 103 111
0.289329 -0.136986 -0.645 93 93 119
0.289656 -0.136561 -0.643 81 75 87
0.289976 -0.136136 -0.641 62 56 68
0.290289 -0.135711 -0.639 56 48 61
0.290593 -0.135287 -0.637 51 43 56
0.291349 -0.135074 -0.636 50 42 55
0.29256 -0.135074 -0.636 51 43 56
0.29331 -0.134862 -0.635 55 44 58
0.294055 -0.13465 -0.634 52 41 55
0.294331 -0.134225 -0.632 56 46 57
0.295068 -0.134012 -0.631 61 51 62
0.2958 -0.1338 -0.63 61 49 61
0.296529 -0.133588 -0.629 66 54 66
0.297253 -0.133375 -0.628 70 58 70
0.297974 -0.133163 -0.627 79 67 79
0.298691 -0.13295 -0.626 99 87 99
0.299405 -0.132738 -0.625 130 118 130
0.300595 -0.132738 -0.625 175 156 162
0.301786 -0.132738 -0.625 189 170 176
0.302976 -0.132738 -0.625 189 170 176
0.30368 -0.132526 -0.624 201 182 188
0.30438 -0.132313 -0.623 192 173 179
0.305567 -0.132313 -0.623 191 172 178
0.306753 -0.132313 -0.623 176 157 163
0.30794 -0.132313 -0.623 160 139 146
0.309127 -0.132313 -0.623 131 110 117
0.310313 -0.132313 -0.623 106 85 90
0.311 -0.132101 -0.622 92 71 76
0.312185 -0.132101 -0.622 79 58 63
0.31337 -0.132101 -0.622 73 52 57
0.314554 -0.132101 -0.622 71 48 54
0.315231 -0.131889 -0.621 69 46 52
0.316414 -0.131889 -0.621 67 44 50
0.317597 -0.131889 -0.621 67 44 50
0.31878 -0.131889 -0.621 77 48 53
0.319963 -0.131889 -0.621 99 70 75
0.320629 -0.131676 -0.62 128 98 106
0.32181 -0.131676 -0.62 153 123 131
0.32299 -0.131676 -0.62 165 135 143
0.323649 -0.131464 -0.619 157 127 135
0.324828 -0.131464 -0.619 147 117 125
0.326007 -0.131464 -0.619 150 120 128
0.327186 -0.131464 -0.619 150 120 128
0.328365 -0.131464 -0.619 167 137 145
0.329011 -0.131251 -0.618 171 141 149
0.330189 -0.131251 -0.618 172 142 150
0.331366 -0.131251 -0.618 170 140 148
0.332543 -0.131251 -0.618 170 140 148
0.33372 -0.131251 -0.618 169 139 147
0.334355 -0.131039 -0.617 168 138 146
0.33553 -0.131039 -0.617 169 139 147
0.336706 -0.131039 -0.617 171 140 148
0.337881 -0.131039 -0.617 171 140 148
0.338507 -0.130827 -0.616 171 140 148
0.340231 -0.131039 -0.617 171 140 148
0.341407 -0.131039 -0.617 170 139 147
0.342582 -0.131039 -0.617 170 139 147
0.343757 -0.131039 -0.617 169 139 149
0.344932 -0.131039 -0.617 169 139 149
0.346669 -0.131251 -0.618 168 138 148
0.347846 -0.131251 -0.618 168 138 148
0.349023 -0.131251 -0.618 168 138 148
0.3502 -0.131251 -0.618 168 138 148
0.351377 -0.131251 -0.618 168 138 148
0.352554 -0.131251 -0.618 168 138 148
0.353731 -0.131251 -0.618 169 139 149
0.354909 -0.131251 -0.618 169 139 149
0.356086 -0.131251 -0.618 169 139 149
0.357263 -0.131251 -0.618 170 138 149
0.35902 -0.131464 -0.619 169 137 148
0.360199 -0.131464 -0.619 169 137 148
0.361378 -0.131464 -0.619 169 137 148
0.363143 -0.131676 -0.62 167 135 146
0.364324 -0.131676 -0.62 167 135 146
0.365505 -0.131676 -0.62 167 135 146
0.366686 -0.131676 -0.62 167 135 146
0.367867 -0.131676 -0.62 169 137 148
0.369048 -0.131676 -0.62 167 135 146
0.370229 -0.131676 -0.62 166 134 145
0.37141 -0.131676 -0.62 166 134 145
0.37259 -0.131676 -0.62 165 133 144
0.373771 -0.131676 -0.62 166 134 145
0.374952 -0.131676 -0.62 167 135 146
0.376133 -0.131676 -0.62 167 135 146
0.377314 -0.131676 -0.62 167 137 145
0.378495 -0.131676 -0.62 165 135 143
0.379676 -0.131676 -0.62 165 135 143
0.381471 -0.131889 -0.621 162 132 140
0.382654 -0.131889 -0.621 160 130 138
0.383837 -0.131889 -0.621 161 131 139
0.38502 -0.131889 -0.621 162 132 140
0.386203 -0.131889 -0.621 161 131 139
0.387386 -0.131889 -0.621 160 130 138
0.388569 -0.131889 -0.621 160 130 138
0.390379 -0.132101 -0.622 159 129 137
0.391564 -0.132101 -0.622 161 131 139
0.392749 -0.132101 -0.622 161 131 139
0.394567 -0.132313 -0.623 159 129 137
0.395753 -0.132313 -0.623 160 130 138
0.39694 -0.132313 -0.623 161 131 139
0.398127 -0.132313 -0.623 160 130 138
0.399954 -0.132526 -0.624 207 176 191
0.401143 -0.132526 -0.624 218 187 202
0.402976 -0.132738 -0.625 167 147 158
0.40546 -0.133163 -0.627 166 146 157
0.407303 -0.133375 -0.628 169 152 160
0.40915 -0.133588 -0.629 160 143 151
0.411652 -0.134012 -0.631 159 136 144
0.412854 -0.134012 -0.631 159 136 144
0.414712 -0.134225 -0.632 157 134 142
0.418549 -0.135074 -0.636 162 132 140
0.42306 -0.136136 -0.641 142 112 120
0.426267 -0.136773 -0.644 117 85 96
0.291123 -0.139071 -0.649 86 72 89
0.291008 -0.138429 -0.646 95 92 111
0.291333 -0.138 -0.644 101 98 117
0.291651 -0.137571 -0.642 68 65 82
0.292418 -0.137357 -0.641 60 57 74
0.292723 -0.136929 -0.639 60 56 70
0.29394 -0.136929 -0.639 52 48 62
0.294695 -0.136714 -0.638 53 45 58
0.294983 -0.136286 -0.636 50 42 55
0.295729 -0.136071 -0.635 51 39 51
0.29647 -0.135857 -0.634 53 41 53
0.296739 -0.135429 -0.632 54 42 54
0.297471 -0.135214 -0.631 53 41 53
0.2982 -0.135 -0.63 51 41 52
0.298925 -0.134786 -0.629 55 45 56
0.299646 -0.134571 -0.628 64 58 68
0.300363 -0.134357 -0.627 72 66 76
0.301076 -0.134143 -0.626 104 93 99
0.302269 -0.134143 -0.626 115 104 110
0.303461 -0.134143 -0.626 115 104 110
0.304167 -0.133929 -0.625 136 124 128
0.304869 -0.133714 -0.624 161 149 153
0.306057 -0.133714 -0.624 178 163 168
0.307246 -0.133714 -0.624 182 167 172
0.308434 -0.133714 -0.624 181 164 172
0.309127 -0.1335 -0.623 173 156 164
0.310313 -0.1335 -0.623 167 146 153
0.3115 -0.1335 -0.623 157 136 143
0.312687 -0.1335 -0.623 140 117 123
0.31337 -0.133286 -0.622 115 92 98
0.314554 -0.133286 -0.622 100 75 81
0.315739 -0.133286 -0.622 91 66 72
0.316414 -0.133071 -0.621 87 60 67
0.317597 -0.133071 -0.621 89 62 69
0.31878 -0.133071 -0.621 77 50 55
0.319963 -0.133071 -0.621 80 53 58
0.320629 -0.132857 -0.62 82 55 60
0.32181 -0.132857 -0.62 73 46 51
0.32247 -0.132643 -0.619 86 59 64
0.323649 -0.132643 -0.619 115 88 93
0.324828 -0.132643 -0.619 147 120 127
0.326007 -0.132643 -0.619 156 129 136
0.327186 -0.132643 -0.619 156 129 136
0.327834 -0.132429 -0.618 147 120 127
0.329011 -0.132429 -0.618 151 124 131
0.330189 -0.132429 -0.618 165 135 145
0.331366 -0.132429 -0.618 172 142 152
0.332005 -0.132214 -0.617 169 139 149
0.33318 -0.132214 -0.617 165 135 145
0.334355 -0.132214 -0.617 167 137 147
0.33553 -0.132214 -0.617 170 140 150
0.336706 -0.132214 -0.617 172 142 150
0.337333 -0.132 -0.616 168 138 146
0.338507 -0.132 -0.616 173 143 151
0.33968 -0.132 -0.616 176 146 154
0.340853 -0.132 -0.616 175 145 153
0.342027 -0.132 -0.616 175 145 153
0.3432 -0.132 -0.616 175 143 154
0.344373 -0.132 -0.616 174 142 153
0.345547 -0.132 -0.616 171 139 150
0.347283 -0.132214 -0.617 169 137 148
0.348458 -0.132214 -0.617 169 136 147
0.349633 -0.132214 -0.617 171 138 149
0.350809 -0.132214 -0.617 170 136 150
0.351984 -0.132214 -0.617 170 136 150
0.353159 -0.132214 -0.617 170 136 150
0.354334 -0.132214 -0.617 173 137 151
0.35551 -0.132214 -0.617 172 136 150
0.356685 -0.132214 -0.617 169 139 149
0.35844 -0.132429 -0.618 169 139 149
0.359617 -0.132429 -0.618 169 137 148
0.361378 -0.132643 -0.619 169 137 148
0.362557 -0.132643 -0.619 171 139 150
0.363736 -0.132643 -0.619 168 136 147
0.364915 -0.132643 -0.619 166 136 146
0.366094 -0.132643 -0.619 168 138 148
0.367273 -0.132643 -0.619 165 135 143
0.368452 -0.132643 -0.619 166 136 144
0.369631 -0.132643 -0.619 167 136 144
0.37081 -0.132643 -0.619 166 135 143
0.37199 -0.132643 -0.619 167 136 144
0.373169 -0.132643 -0.619 167 136 144
0.374348 -0.132643 -0.619 166 136 144
0.375527 -0.132643 -0.619 167 137 145
0.376706 -0.132643 -0.619 165 134 142
0.377885 -0.132643 -0.619 164 133 141
0.379064 -0.132643 -0.619 164 133 141
0.380857 -0.132857 -0.62 164 133 141
0.382038 -0.132857 -0.62 162 131 139
0.383219 -0.132857 -0.62 161 128 137
0.3844 -0.132857 -0.62 162 129 138
0.385581 -0.132857 -0.62 166 130 140
0.386762 -0.132857 -0.62 166 130 140
0.387943 -0.132857 -0.62 158 125 134
0.389751 -0.133071 -0.621 161 128 137
0.390934 -0.133071 -0.621 155 125 135
0.392117 -0.133071 -0.621 159 129 139
0.3933 -0.133071 -0.621 159 132 141
0.395118 -0.133286 -0.622 157 130 139
0.396303 -0.133286 -0.622 159 134 140
0.397488 -0.133286 -0.622 157 132 138
0.399313 -0.1335 -0.623 213 189 203
0.4005 -0.1335 -0.623 235 211 225
0.402331 -0.133714 -0.624 199 179 190
0.404813 -0.134143 -0.626 212 192 203
0.407303 -0.134571 -0.628 208 187 194
0.40915 -0.134786 -0.629 161 140 147
0.411652 -0.135214 -0.631 156 129 134
0.412854 -0.135214 -0.631 156 129 134
0.415369 -0.135643 -0.633 158 131 136
0.419207 -0.1365 -0.637 150 121 126
0.42438 -0.137786 -0.643 131 102 107
0.430238 -0.139286 -0.65 100 70 78
0.29281 -0.140524 -0.65 57 53 70
0.293143 -0.140091 -0.648 62 58 75
0.293469 -0.139659 -0.646 64 60 75
0.293787 -0.139227 -0.644 89 85 100
0.294555 -0.13901 -0.643 106 99 115
0.29532 -0.138794 -0.642 95 88 104
0.296081 -0.138578 -0.641 81 74 90
0.296374 -0.138146 -0.639 53 46 62
0.297126 -0.13793 -0.638 46 40 54
0.297406 -0.137497 -0.636 43 37 51
0.298148 -0.137281 -0.635 46 38 51
0.298414 -0.136849 -0.633 52 44 57
0.298673 -0.136416 -0.631 48 38 49
0.2994 -0.1362 -0.63 43 33 44
0.300123 -0.135984 -0.629 46 36 45
0.301321 -0.135984 -0.629 54 44 53
0.302038 -0.135768 -0.628 58 48 56
0.302751 -0.135551 -0.627 66 56 64
0.303946 -0.135551 -0.627 66 56 64
0.304653 -0.135335 -0.626 78 67 73
0.305357 -0.135119 -0.625 92 81 87
0.306548 -0.135119 -0.625 112 99 106
0.307738 -0.135119 -0.625 139 126 133
0.308929 -0.135119 -0.625 166 151 158
0.309623 -0.134903 -0.624 178 163 170
0.310811 -0.134903 -0.624 181 161 170
0.312 -0.134903 -0.624 183 163 172
0.312687 -0.134687 -0.623 184 163 170
0.313873 -0.134687 -0.623 182 161 168
0.314554 -0.13447 -0.622 173 150 156
0.315739 -0.13447 -0.622 149 126 132
0.316924 -0.13447 -0.622 120 94 103
0.317597 -0.134254 -0.621 103 77 86
0.31878 -0.134254 -0.621 86 61 65
0.319963 -0.134254 -0.621 74 49 53
0.321146 -0.134254 -0.621 71 46 50
0.32181 -0.134038 -0.62 76 51 55
0.32247 -0.133822 -0.619 79 52 57
0.323649 -0.133822 -0.619 67 40 45
0.324828 -0.133822 -0.619 73 46 53
0.326007 -0.133822 -0.619 90 63 70
0.327186 -0.133822 -0.619 90 63 70
0.327834 -0.133606 -0.618 112 85 92
0.329011 -0.133606 -0.618 131 104 111
0.330189 -0.133606 -0.618 147 120 129
0.33083 -0.13339 -0.617 151 124 133
0.332005 -0.13339 -0.617 159 132 141
0.33318 -0.13339 -0.617 169 142 151
0.333813 -0.133173 -0.616 173 143 153
0.334987 -0.133173 -0.616 167 137 147
0.33616 -0.133173 -0.616 174 144 152
0.337333 -0.133173 -0.616 172 142 150
0.337957 -0.132957 -0.615 172 142 150
0.339129 -0.132957 -0.615 172 142 150
0.3403 -0.132957 -0.615 173 143 151
0.342027 -0.133173 -0.616 174 144 152
0.3432 -0.133173 -0.616 175 144 152
0.344373 -0.133173 -0.616 174 143 151
0.345547 -0.133173 -0.616 169 137 148
0.34672 -0.133173 -0.616 171 139 150
0.347893 -0.133173 -0.616 171 138 149
0.349067 -0.133173 -0.616 170 137 148
0.35024 -0.133173 -0.616 171 138 149
0.351413 -0.133173 -0.616 171 138 149
0.352587 -0.133173 -0.616 171 138 149
0.354334 -0.13339 -0.617 172 139 150
0.35551 -0.13339 -0.617 170 137 148
0.356685 -0.13339 -0.617 171 139 150
0.35786 -0.13339 -0.617 171 139 150
0.359035 -0.13339 -0.617 170 138 149
0.360794 -0.133606 -0.618 170 138 149
0.361971 -0.133606 -0.618 170 138 149
0.363149 -0.133606 -0.618 168 136 147
0.364326 -0.133606 -0.618 168 136 147
0.365503 -0.133606 -0.618 169 137 148
0.367273 -0.133822 -0.619 167 136 144
0.368452 -0.133822 -0.619 167 136 144
0.369631 -0.133822 -0.619 167 136 144
0.370211 -0.133606 -0.618 167 136 144
0.371389 -0.133606 -0.618 167 136 144
0.373169 -0.133822 -0.619 167 136 144
0.374348 -0.133822 -0.619 166 135 143
0.37492 -0.133606 -0.618 165 134 142
0.376097 -0.133606 -0.618 165 134 142
0.377274 -0.133606 -0.618 165 134 142
0.378451 -0.133606 -0.618 165 134 142
0.380243 -0.133822 -0.619 164 133 141
0.381422 -0.133822 -0.619 163 132 140
0.383219 -0.134038 -0.62 163 130 141
0.3844 -0.134038 -0.62 163 130 141
0.385581 -0.134038 -0.62 165 129 139
0.386762 -0.134038 -0.62 165 129 139
0.387943 -0.134038 -0.62 161 128 137
0.389124 -0.134038 -0.62 160 127 136
0.390305 -0.134038 -0.62 156 126 136
0.392117 -0.134254 -0.621 158 128 138
0.3933 -0.134254 -0.621 155 129 138
0.394483 -0.134254 -0.621 156 130 139
0.395666 -0.134254 -0.621 164 138 147
0.396849 -0.134254 -0.621 172 146 155
0.398672 -0.13447 -0.622 181 157 171
0.4005 -0.134687 -0.623 214 190 204
0.401687 -0.134687 -0.623 223 201 213
0.404167 -0.135119 -0.625 223 201 213
0.406654 -0.135551 -0.627 190 167 175
0.40915 -0.135984 -0.629 155 132 140
0.411652 -0.136416 -0.631 157 130 135
0.412854 -0.136416 -0.631 157 130 135
0.415369 -0.136849 -0.633 155 128 133
0.295286 -0.141762 -0.65 54 47 63
0.295611 -0.141326 -0.648 64 57 73
0.29593 -0.14089 -0.646 66 59 77
0.2967 -0.140671 -0.645 84 77 95
0.297467 -0.140453 -0.644 93 89 106
0.29823 -0.140235 -0.643 105 101 118
0.298523 -0.139799 -0.641 87 85 99
0.298809 -0.139363 -0.639 67 65 79
0.299556 -0.139145 -0.638 50 46 60
0.299829 -0.138709 -0.636 46 42 56
0.300567 -0.13849 -0.635 45 37 48
0.300826 -0.138054 -0.633 47 39 50
0.301554 -0.137836 -0.632 50 38 48
0.302279 -0.137618 -0.631 51 39 49
0.303 -0.1374 -0.63 52 44 55
0.303717 -0.137182 -0.629 46 38 49
0.304915 -0.137182 -0.629 46 38 49
0.305627 -0.136964 -0.628 52 42 51
0.306334 -0.136746 -0.627 65 55 64
0.307038 -0.136528 -0.626 79 68 76
0.30823 -0.136528 -0.626 89 78 86
0.309423 -0.136528 -0.626 97 84 93
0.310615 -0.136528 -0.626 104 91 100
0.31131 -0.13631 -0.625 139 123 133
0.3125 -0.13631 -0.625 165 149 159
0.31369 -0.13631 -0.625 179 162 170
0.314377 -0.136091 -0.624 178 161 169
0.31506 -0.135873 -0.623 182 163 169
0.316247 -0.135873 -0.623 184 165 171
0.316924 -0.135655 -0.622 174 153 160
0.318109 -0.135655 -0.622 158 137 144
0.319293 -0.135655 -0.622 132 107 113
0.320478 -0.135655 -0.622 111 86 92
0.321146 -0.135437 -0.621 96 71 77
0.32181 -0.135219 -0.62 84 59 65
0.32247 -0.135001 -0.619 80 55 61
0.323649 -0.135001 -0.619 79 54 60
0.324828 -0.135001 -0.619 80 55 61
0.326007 -0.135001 -0.619 72 47 53
0.327186 -0.135001 -0.619 72 47 53
0.327834 -0.134783 -0.618 76 49 56
0.329011 -0.134783 -0.618 84 57 64
0.330189 -0.134783 -0.618 94 67 74
0.33083 -0.134565 -0.617 112 85 92
0.332005 -0.134565 -0.617 140 113 120
0.33264 -0.134347 -0.616 160 133 140
0.333813 -0.134347 -0.616 169 142 149
0.334987 -0.134347 -0.616 172 145 152
0.33616 -0.134347 -0.616 170 140 148
0.337333 -0.134347 -0.616 170 140 148
0.337957 -0.134129 -0.615 169 139 147
0.339129 -0.134129 -0.615 171 141 149
0.3403 -0.134129 -0.615 174 144 152
0.341471 -0.134129 -0.615 173 143 151
0.342643 -0.134129 -0.615 173 143 151
0.343814 -0.134129 -0.615 173 143 151
0.344986 -0.134129 -0.615 168 137 145
0.346157 -0.134129 -0.615 174 143 151
0.347329 -0.134129 -0.615 172 141 149
0.3485 -0.134129 -0.615 169 138 146
0.349671 -0.134129 -0.615 171 140 148
0.350843 -0.134129 -0.615 171 140 148
0.352587 -0.134347 -0.616 171 140 148
0.35376 -0.134347 -0.616 171 140 148
0.354933 -0.134347 -0.616 170 139 147
0.356107 -0.134347 -0.616 172 140 151
0.35728 -0.134347 -0.616 171 139 150
0.359035 -0.134565 -0.617 171 139 150
0.36021 -0.134565 -0.617 170 138 149
0.361386 -0.134565 -0.617 169 137 148
0.363149 -0.134783 -0.618 169 137 148
0.364326 -0.134783 -0.618 169 137 148
0.365503 -0.134783 -0.618 169 137 148
0.36668 -0.134783 -0.618 168 137 145
0.367857 -0.134783 -0.618 167 136 144
0.369034 -0.134783 -0.618 167 136 144
0.370211 -0.134783 -0.618 167 136 144
0.371389 -0.134783 -0.618 166 135 143
0.372566 -0.134783 -0.618 166 135 143
0.373743 -0.134783 -0.618 166 135 143
0.37492 -0.134783 -0.618 165 134 142
0.376097 -0.134783 -0.618 165 135 143
0.377274 -0.134783 -0.618 165 135 143
0.378451 -0.134783 -0.618 165 135 143
0.379629 -0.134783 -0.618 164 133 141
0.380806 -0.134783 -0.618 163 132 140
0.382601 -0.135001 -0.619 165 132 143
0.38378 -0.135001 -0.619 165 132 143
0.384959 -0.135001 -0.619 166 130 142
0.386138 -0.135001 -0.619 166 130 142
0.387317 -0.135001 -0.619 160 127 138
0.388496 -0.135001 -0.619 160 127 138
0.390305 -0.135219 -0.62 162 132 144
0.391486 -0.135219 -0.62 161 131 143
0.392667 -0.135219 -0.62 160 134 145
0.393848 -0.135219 -0.62 156 130 141
0.395029 -0.135219 -0.62 165 139 150
0.396849 -0.135437 -0.621 205 179 190
0.398031 -0.135437 -0.621 226 204 217
0.399857 -0.135655 -0.622 207 185 198
0.401687 -0.135873 -0.623 181 159 171
0.404167 -0.13631 -0.625 158 136 148
0.406654 -0.136746 -0.627 158 132 141
0.40915 -0.137182 -0.629 156 130 139
0.412957 -0.138054 -0.633 153 124 129
0.414163 -0.138054 -0.633 153 124 129
0.416681 -0.13849 -0.635 148 119 124
0.297762 -0.143 -0.65 55 48 66
0.29854 -0.14278 -0.649 58 51 69
0.299314 -0.14256 -0.648 64 60 77
0.299621 -0.14212 -0.646 74 70 87
0.300386 -0.1419 -0.645 99 95 112
0.300679 -0.14146 -0.643 105 101 118
0.300965 -0.14102 -0.641 100 96 111
0.301714 -0.1408 -0.64 77 73 88
0.301987 -0.14036 -0.638 50 44 56
0.302251 -0.13992 -0.636 49 43 55
0.302986 -0.1397 -0.635 47 39 52
0.303716 -0.13948 -0.634 47 39 52
0.304443 -0.13926 -0.633 47 41 53
0.305166 -0.13904 -0.632 46 40 52
0.30637 -0.13904 -0.632 46 40 52
0.3066 -0.1386 -0.63 51 43 54
0.307311 -0.13838 -0.629 51 43 54
0.308019 -0.13816 -0.628 49 41 52
0.309215 -0.13816 -0.628 56 48 59
0.310411 -0.13816 -0.628 69 59 68
0.311111 -0.13794 -0.627 81 71 80
0.312306 -0.13794 -0.627 85 72 81
0.3135 -0.13794 -0.627 97 84 93
0.314192 -0.13772 -0.626 113 100 109
0.315385 -0.13772 -0.626 141 128 137
0.316071 -0.1375 -0.625 169 154 161
0.316754 -0.13728 -0.624 179 164 171
0.317433 -0.13706 -0.623 182 165 173
0.31862 -0.13706 -0.623 181 164 172
0.319293 -0.13684 -0.622 173 150 156
0.320478 -0.13684 -0.622 165 142 148
0.321146 -0.13662 -0.621 148 125 131
0.322329 -0.13662 -0.621 128 105 111
0.32299 -0.1364 -0.62 111 88 94
0.323649 -0.13618 -0.619 94 71 77
0.324828 -0.13618 -0.619 86 61 67
0.326007 -0.13618 -0.619 84 59 65
0.327186 -0.13618 -0.619 84 59 65
0.327834 -0.13596 -0.618 83 58 64
0.329011 -0.13596 -0.618 78 53 59
0.329654 -0.13574 -0.617 77 50 57
0.33083 -0.13574 -0.617 80 53 60
0.332005 -0.13574 -0.617 84 57 62
0.33264 -0.13552 -0.616 93 66 71
0.333813 -0.13552 -0.616 120 93 98
0.334987 -0.13552 -0.616 152 125 130
0.33616 -0.13552 -0.616 169 139 147
0.337333 -0.13552 -0.616 173 143 151
0.337957 -0.1353 -0.615 172 142 150
0.339129 -0.1353 -0.615 173 143 151
0.3403 -0.1353 -0.615 172 142 150
0.341471 -0.1353 -0.615 169 139 147
0.342643 -0.1353 -0.615 172 142 150
0.343814 -0.1353 -0.615 174 144 152
0.344986 -0.1353 -0.615 168 138 146
0.345594 -0.13508 -0.614 173 143 151
0.346764 -0.13508 -0.614 172 141 149
0.347933 -0.13508 -0.614 170 139 147
0.349671 -0.1353 -0.615 171 140 148
0.350843 -0.1353 -0.615 171 140 148
0.352014 -0.1353 -0.615 170 139 147
0.353186 -0.1353 -0.615 170 139 147
0.354357 -0.1353 -0.615 171 140 148
0.355529 -0.1353 -0.615 171 139 150
0.35728 -0.13552 -0.616 171 139 150
0.358453 -0.13552 -0.616 170 138 149
0.36021 -0.13574 -0.617 170 138 149
0.361386 -0.13574 -0.617 169 137 148
0.362561 -0.13574 -0.617 170 138 149
0.363736 -0.13574 -0.617 170 138 149
0.364911 -0.13574 -0.617 169 137 148
0.366087 -0.13574 -0.617 167 136 144
0.367262 -0.13574 -0.617 167 136 144
0.368437 -0.13574 -0.617 167 136 144
0.369612 -0.13574 -0.617 166 135 143
0.370788 -0.13574 -0.617 166 135 143
0.371963 -0.13574 -0.617 165 134 142
0.373138 -0.13574 -0.617 166 135 143
0.374313 -0.13574 -0.617 166 135 143
0.375489 -0.13574 -0.617 163 133 141
0.376664 -0.13574 -0.617 163 133 141
0.377839 -0.13574 -0.617 163 133 141
0.379014 -0.13574 -0.617 164 133 141
0.38019 -0.13574 -0.617 163 132 140
0.381983 -0.13596 -0.618 165 132 141
0.38316 -0.13596 -0.618 166 133 142
0.384337 -0.13596 -0.618 165 132 143
0.385514 -0.13596 -0.618 166 133 144
0.386691 -0.13596 -0.618 158 125 136
0.387869 -0.13596 -0.618 169 136 147
0.389675 -0.13618 -0.619 160 130 142
0.390854 -0.13618 -0.619 161 131 143
0.392033 -0.13618 -0.619 157 131 142
0.393212 -0.13618 -0.619 166 140 151
0.395029 -0.1364 -0.62 198 175 185
0.39621 -0.1364 -0.62 208 185 195
0.398031 -0.13662 -0.621 202 182 194
0.399857 -0.13684 -0.622 228 208 220
0.401687 -0.13706 -0.623 219 197 209
0.404167 -0.1375 -0.625 164 142 154
0.406654 -0.13794 -0.627 152 126 135
0.40915 -0.13838 -0.629 153 127 136
0.412957 -0.13926 -0.633 147 120 125
0.414163 -0.13926 -0.633 147 120 125
0.417337 -0.13992 -0.636 137 110 115
0.301476 -0.144238 -0.65 58 51 67
0.302249 -0.144016 -0.649 55 46 63
0.30255 -0.143572 -0.647 63 54 71
0.302843 -0.143129 -0.645 70 63 79
0.3036 -0.142907 -0.644 70 63 79
0.30388 -0.142463 -0.642 74 70 85
0.304152 -0.142019 -0.64 91 87 102
0.304894 -0.141797 -0.639 73 71 85
0.305153 -0.141353 -0.637 46 44 58
0.305886 -0.141131 -0.636 51 45 57
0.306614 -0.14091 -0.635 46 40 52
0.307824 -0.14091 -0.635 46 40 52
0.30806 -0.140466 -0.633 50 42 55
0.308777 -0.140244 -0.632 51 43 56
0.30949 -0.140022 -0.631 48 40 51
0.3102 -0.1398 -0.63 49 41 52
0.3114 -0.1398 -0.63 52 42 53
0.312104 -0.139578 -0.629 54 44 55
0.313302 -0.139578 -0.629 55 45 54
0.314 -0.139356 -0.628 67 57 66
0.315196 -0.139356 -0.628 77 66 74
0.315889 -0.139134 -0.627 87 76 84
0.317083 -0.139134 -0.627 97 86 94
0.31777 -0.138912 -0.626 111 100 108
0.318452 -0.13869 -0.625 135 122 129
0.319131 -0.138469 -0.624 154 141 148
0.319807 -0.138247 -0.623 174 154 163
0.320993 -0.138247 -0.623 175 155 164
0.321663 -0.138025 -0.622 168 149 155
0.322329 -0.137803 -0.621 167 148 154
0.32299 -0.137581 -0.62 176 155 162
0.324171 -0.137581 -0.62 168 147 154
0.324828 -0.137359 -0.619 142 119 125
0.326007 -0.137359 -0.619 120 97 103
0.327186 -0.137359 -0.619 120 97 103
0.327834 -0.137137 -0.618 103 78 84
0.329011 -0.137137 -0.618 91 66 72
0.330189 -0.137137 -0.618 85 58 63
0.33083 -0.136915 -0.617 83 56 61
0.332005 -0.136915 -0.617 81 54 59
0.33264 -0.136693 -0.616 77 50 55
0.333813 -0.136693 -0.616 78 49 54
0.334987 -0.136693 -0.616 78 49 54
0.33616 -0.136693 -0.616 90 63 70
0.336786 -0.136471 -0.615 122 95 102
0.337957 -0.136471 -0.615 151 124 131
0.339129 -0.136471 -0.615 164 137 144
0.3403 -0.136471 -0.615 167 137 145
0.341471 -0.136471 -0.615 170 140 148
0.342643 -0.136471 -0.615 173 143 151
0.343814 -0.136471 -0.615 168 138 146
0.344425 -0.13625 -0.614 171 141 149
0.345594 -0.13625 -0.614 172 142 150
0.346764 -0.13625 -0.614 170 140 148
0.347933 -0.13625 -0.614 170 140 148
0.349103 -0.13625 -0.614 171 141 149
0.350272 -0.13625 -0.614 171 141 149
0.352014 -0.136471 -0.615 168 138 146
0.353186 -0.136471 -0.615 168 138 146
0.354357 -0.136471 -0.615 169 139 147
0.355529 -0.136471 -0.615 168 138 148
