ply
format ascii 1.0
comment Created by Open3D
element vertex 1278
property double x
property double y
property double z
property uchar red
property uchar green
property uchar blue
end_header
0.0718095 -0.432343 -0.52 149 108 90
0.07308 -0.434006 -0.522 143 104 89
0.0742162 -0.434837 -0.523 139 100 85
0.0755 -0.4365 -0.525 132 102 92
0.0767914 -0.438163 -0.527 128 98 88
0.0780905 -0.439826 -0.529 118 97 94
0.08996 -0.45396 -0.546 111 92 94
0.091 -0.45396 -0.546 103 92 100
0.0922086 -0.454791 -0.547 103 92 100
0.0934209 -0.455623 -0.548 105 102 111
0.0944648 -0.455623 -0.548 115 112 121
0.0955086 -0.455623 -0.548 107 120 129
0.0965524 -0.455623 -0.548 105 118 127
0.0975962 -0.455623 -0.548 89 104 123
0.09846 -0.454791 -0.547 69 84 103
0.0995019 -0.454791 -0.547 91 105 132
0.100544 -0.454791 -0.547 130 144 171
0.1014 -0.45396 -0.546 132 139 165
0.10244 -0.45396 -0.546 134 141 167
0.10348 -0.45396 -0.546 145 148 167
0.117214 -0.454791 -0.547 188 190 205
0.118256 -0.454791 -0.547 200 206 222
0.119298 -0.454791 -0.547 201 207 223
0.12034 -0.454791 -0.547 173 186 203
0.121382 -0.454791 -0.547 152 165 182
0.122424 -0.454791 -0.547 157 172 191
0.405175 -0.467263 -0.562 181 205 239
0.406246 -0.467263 -0.562 166 192 227
0.407316 -0.467263 -0.562 150 176 211
0.408387 -0.467263 -0.562 144 173 207
0.409457 -0.467263 -0.562 131 160 194
0.410528 -0.467263 -0.562 146 173 202
0.411598 -0.467263 -0.562 169 196 225
0.412669 -0.467263 -0.562 206 208 221
0.413739 -0.467263 -0.562 223 225 238
0.41481 -0.467263 -0.562 225 225 233
0.41588 -0.467263 -0.562 219 219 227
0.41695 -0.467263 -0.562 225 225 233
0.426271 -0.468094 -0.563 190 198 217
0.427344 -0.468094 -0.563 209 217 236
0.428416 -0.468094 -0.563 209 209 221
0.429489 -0.468094 -0.563 204 204 216
0.430561 -0.468094 -0.563 203 207 218
0.431633 -0.468094 -0.563 203 207 218
0.432706 -0.468094 -0.563 204 208 219
0.433778 -0.468094 -0.563 206 210 222
0.43485 -0.468094 -0.563 207 211 223
0.436697 -0.468926 -0.564 195 198 213
0.437771 -0.468926 -0.564 159 162 177
0.438846 -0.468926 -0.564 158 160 173
0.43992 -0.468926 -0.564 187 189 202
0.440994 -0.468926 -0.564 204 206 219
0.442852 -0.469757 -0.565 205 207 220
0.443929 -0.469757 -0.565 204 206 218
0.445005 -0.469757 -0.565 198 200 212
0.446081 -0.469757 -0.565 188 192 204
0.447157 -0.469757 -0.565 196 200 212
0.449027 -0.470589 -0.566 205 208 223
0.450105 -0.470589 -0.566 189 192 207
0.451183 -0.470589 -0.566 137 153 179
0.452261 -0.470589 -0.566 114 130 156
0.453339 -0.470589 -0.566 129 144 165
0.454417 -0.470589 -0.566 164 179 200
0.455495 -0.470589 -0.566 180 193 209
0.456573 -0.470589 -0.566 195 208 224
0.45846 -0.47142 -0.567 197 206 213
0.45954 -0.47142 -0.567 195 204 211
0.46062 -0.47142 -0.567 204 205 209
0.4617 -0.47142 -0.567 205 206 210
0.46278 -0.47142 -0.567 200 204 215
0.46386 -0.47142 -0.567 182 186 197
0.46494 -0.47142 -0.567 151 169 193
0.46602 -0.47142 -0.567 126 144 168
0.4671 -0.47142 -0.567 98 127 161
0.46818 -0.47142 -0.567 104 133 167
0.46926 -0.47142 -0.567 117 149 188
0.47034 -0.47142 -0.567 123 155 194
0.47142 -0.47142 -0.567 140 173 206
0.4725 -0.47142 -0.567 139 172 205
0.47358 -0.47142 -0.567 128 160 185
0.47466 -0.47142 -0.567 106 138 163
0.47574 -0.47142 -0.567 108 131 163
0.47682 -0.47142 -0.567 96 119 151
0.4779 -0.47142 -0.567 120 135 156
0.47898 -0.47142 -0.567 144 159 180
0.48006 -0.47142 -0.567 172 178 194
0.48114 -0.47142 -0.567 186 192 208
0.48137 -0.470589 -0.566 187 190 197
0.482448 -0.470589 -0.566 183 186 193
0.483526 -0.470589 -0.566 181 183 195
0.484604 -0.470589 -0.566 181 183 195
0.48654 -0.47142 -0.567 185 187 199
0.48762 -0.47142 -0.567 175 178 193
0.4887 -0.47142 -0.567 153 156 171
0.48978 -0.47142 -0.567 124 135 157
0.49086 -0.47142 -0.567 92 103 125
0.492808 -0.472251 -0.568 91 103 129
0.49389 -0.472251 -0.568 140 152 178
0.4941 -0.47142 -0.567 175 182 201
0.49518 -0.47142 -0.567 174 181 200
0.49626 -0.47142 -0.567 176 176 188
0.498217 -0.472251 -0.568 171 171 183
0.499299 -0.472251 -0.568 174 174 184
0.500381 -0.472251 -0.568 178 178 188
0.50058 -0.47142 -0.567 174 174 186
0.50166 -0.47142 -0.567 168 168 180
0.50274 -0.47142 -0.567 155 155 165
0.50382 -0.47142 -0.567 114 116 129
0.5049 -0.47142 -0.567 124 133 148
0.50598 -0.47142 -0.567 147 156 171
0.50677 -0.455623 -0.548 127 104 98
0.504107 -0.452297 -0.544 128 105 99
0.5005 -0.44814 -0.539 130 105 98
0.496874 -0.443983 -0.534 131 106 99
0.495094 -0.441489 -0.531 135 108 99
0.493303 -0.438994 -0.528 136 109 100
0.4915 -0.4365 -0.525 138 110 99
0.489686 -0.434006 -0.522 140 112 101
0.4888 -0.432343 -0.52 145 113 102
0.487907 -0.43068 -0.518 145 113 102
0.486062 -0.428186 -0.515 146 112 100
0.485151 -0.426523 -0.513 147 113 101
0.484233 -0.42486 -0.511 149 115 103
0.483308 -0.423197 -0.509 151 117 105
0.483326 -0.422366 -0.508 155 116 99
0.482387 -0.420703 -0.506 156 117 100
0.482395 -0.419871 -0.505 158 120 101
0.481443 -0.418209 -0.503 160 122 103
0.481442 -0.417377 -0.502 162 121 99
0.481437 -0.416546 -0.501 162 121 99
0.481429 -0.415714 -0.5 165 124 96
0.480451 -0.414051 -0.498 165 124 96
0.4814 -0.414051 -0.498 166 125 95
0.48138 -0.41322 -0.497 167 126 96
0.481356 -0.412389 -0.496 172 128 101
0.482301 -0.412389 -0.496 174 130 103
0.483246 -0.412389 -0.496 174 130 103
0.483214 -0.411557 -0.495 172 128 101
0.483179 -0.410726 -0.494 172 128 101
0.48412 -0.410726 -0.494 175 129 103
0.484079 -0.409894 -0.493 174 128 102
0.484034 -0.409063 -0.492 175 130 99
0.484971 -0.409063 -0.492 175 130 99
0.485909 -0.409063 -0.492 176 131 100
0.486846 -0.409063 -0.492 176 131 100
0.486791 -0.408231 -0.491 176 131 100
0.487727 -0.408231 -0.491 176 131 100
0.488662 -0.408231 -0.491 180 133 103
0.489597 -0.408231 -0.491 182 135 105
0.490532 -0.408231 -0.491 184 137 107
0.491468 -0.408231 -0.491 183 136 106
0.4914 -0.4074 -0.49 183 136 106
0.492333 -0.4074 -0.49 182 135 105
0.49226 -0.406569 -0.489 181 134 104
0.493191 -0.406569 -0.489 181 134 104
0.493112 -0.405737 -0.488 180 133 103
0.494042 -0.405737 -0.488 179 132 102
0.493957 -0.404906 -0.487 183 134 102
0.494885 -0.404906 -0.487 183 134 102
0.495812 -0.404906 -0.487 184 135 103
0.49572 -0.404074 -0.486 185 136 104
0.496646 -0.404074 -0.486 185 136 104
0.497571 -0.404074 -0.486 183 134 102
0.497471 -0.403243 -0.485 180 131 99
0.498395 -0.403243 -0.485 179 130 98
0.49829 -0.402411 -0.484 184 135 103
0.499211 -0.402411 -0.484 185 136 104
0.500133 -0.402411 -0.484 186 137 105
0.50002 -0.40158 -0.483 187 138 106
0.50094 -0.40158 -0.483 187 138 106
0.50186 -0.40158 -0.483 186 137 105
0.50278 -0.40158 -0.483 185 136 104
0.5037 -0.40158 -0.483 184 135 103
0.50462 -0.40158 -0.483 183 133 100
0.50554 -0.40158 -0.483 182 132 99
0.50646 -0.40158 -0.483 183 132 101
0.50738 -0.40158 -0.483 182 131 100
0.5083 -0.40158 -0.483 179 130 98
0.50922 -0.40158 -0.483 178 129 97
0.51014 -0.40158 -0.483 178 129 96
0.51106 -0.40158 -0.483 177 128 95
0.51198 -0.40158 -0.483 173 127 94
0.513962 -0.402411 -0.484 170 124 91
0.514884 -0.402411 -0.484 168 122 89
0.516871 -0.403243 -0.485 167 121 88
0.518863 -0.404074 -0.486 166 121 90
0.519789 -0.404074 -0.486 167 122 91
0.521786 -0.404906 -0.487 167 122 89
0.523787 -0.405737 -0.488 165 120 87
0.526867 -0.4074 -0.49 162 119 85
0.528877 -0.408231 -0.491 160 117 83
0.53305 -0.410726 -0.494 159 116 84
0.536152 -0.412389 -0.496 159 116 84
0.540346 -0.414883 -0.499 155 114 86
0.54455 -0.417377 -0.502 154 113 85
0.614777 -0.462274 -0.556 175 168 152
-0.01048 -0.436667 -0.524 189 148 120
-0.00942762 -0.434167 -0.521 189 148 120
-0.00838667 -0.431667 -0.518 189 149 123
-0.00737143 -0.43 -0.516 189 149 123
-0.00633905 -0.426667 -0.512 188 151 124
-0.00533238 -0.424167 -0.509 190 153 126
-0.00433714 -0.421667 -0.506 193 152 124
-0.00336 -0.42 -0.504 190 149 121
-0.00238571 -0.4175 -0.501 189 148 120
-0.00142857 -0.416667 -0.5 189 148 120
-0.000477143 -0.4175 -0.501 189 148 120
0.000475238 -0.415833 -0.499 186 145 117
0.00142286 -0.415 -0.498 191 147 118
0.00236667 -0.414167 -0.497 195 151 122
0.00330667 -0.413333 -0.496 194 151 119
0.00425143 -0.413333 -0.496 194 151 119
0.00519619 -0.413333 -0.496 194 149 120
0.00614095 -0.413333 -0.496 192 147 118
0.00708571 -0.413333 -0.496 192 147 116
0.00803048 -0.413333 -0.496 196 151 120
0.00897524 -0.413333 -0.496 199 154 121
0.00992 -0.413333 -0.496 202 157 124
0.0108648 -0.413333 -0.496 196 153 121
0.0118095 -0.413333 -0.496 195 152 120
0.0127543 -0.413333 -0.496 194 151 119
0.013699 -0.413333 -0.496 194 151 119
0.0146438 -0.413333 -0.496 194 151 119
0.01562 -0.414167 -0.497 195 152 120
0.0165667 -0.414167 -0.497 196 153 121
0.0175133 -0.414167 -0.497 198 155 123
0.01846 -0.414167 -0.497 197 154 122
0.0194067 -0.414167 -0.497 198 155 123
0.0203533 -0.414167 -0.497 197 153 124
0.0213 -0.414167 -0.497 198 154 125
0.0222467 -0.414167 -0.497 197 153 124
0.0231933 -0.414167 -0.497 194 150 121
0.02414 -0.414167 -0.497 196 152 123
0.0250867 -0.414167 -0.497 201 157 128
0.0260333 -0.414167 -0.497 201 156 125
0.02698 -0.414167 -0.497 199 154 123
0.0279267 -0.414167 -0.497 199 152 122
0.0288733 -0.414167 -0.497 199 152 122
0.02982 -0.414167 -0.497 198 151 121
0.0307667 -0.414167 -0.497 198 151 121
0.0317133 -0.414167 -0.497 199 154 125
0.03266 -0.414167 -0.497 197 152 123
0.0336067 -0.414167 -0.497 198 153 124
0.0345533 -0.414167 -0.497 198 153 124
0.0355 -0.414167 -0.497 199 152 122
0.0364467 -0.414167 -0.497 198 151 121
0.0373933 -0.414167 -0.497 199 152 122
0.0384171 -0.415 -0.498 200 153 123
0.0393657 -0.415 -0.498 198 153 124
0.0403143 -0.415 -0.498 197 152 123
0.0412629 -0.415 -0.498 198 151 121
0.0422114 -0.415 -0.498 196 149 119
0.04316 -0.415 -0.498 195 148 118
0.0441971 -0.415833 -0.499 195 148 118
0.0452381 -0.416667 -0.5 196 149 119
0.0461905 -0.416667 -0.5 194 150 121
0.0472371 -0.4175 -0.501 194 149 120
0.0481914 -0.4175 -0.501 190 145 116
0.0491457 -0.4175 -0.501 189 144 115
0.0502 -0.418333 -0.502 189 144 115
0.0512581 -0.419167 -0.503 188 144 115
0.0522162 -0.419167 -0.503 186 142 113
0.05328 -0.42 -0.504 185 141 112
0.05424 -0.42 -0.504 184 140 111
0.0553095 -0.420833 -0.505 185 140 111
0.0563829 -0.421667 -0.506 185 140 111
0.0573467 -0.421667 -0.506 183 137 111
0.0584257 -0.4225 -0.507 181 135 109
0.0595086 -0.423333 -0.508 179 133 107
0.0605952 -0.424167 -0.509 178 132 106
0.0616857 -0.425 -0.51 175 129 105
0.06278 -0.425833 -0.511 172 126 102
0.0638781 -0.426667 -0.512 166 124 102
0.0648533 -0.426667 -0.512 164 122 100
0.0660857 -0.428333 -0.514 162 119 100
0.0671952 -0.429167 -0.515 157 114 95
0.0683086 -0.43 -0.516 154 113 95
0.0694257 -0.430833 -0.517 152 111 93
0.0706829 -0.4325 -0.519 150 109 91
0.0718095 -0.433333 -0.52 148 107 89
0.07308 -0.435 -0.522 143 104 89
0.0742162 -0.435833 -0.523 139 100 85
0.0755 -0.4375 -0.525 128 100 89
0.0767914 -0.439167 -0.527 125 97 86
0.0887571 -0.454167 -0.545 105 87 85
0.08996 -0.455 -0.546 106 88 86
0.091 -0.455 -0.546 103 92 98
0.0922086 -0.455833 -0.547 111 100 106
0.0934209 -0.456667 -0.548 115 109 123
0.0944648 -0.456667 -0.548 125 119 133
0.0955086 -0.456667 -0.548 118 133 140
0.0963762 -0.455833 -0.547 119 134 141
0.0974181 -0.455833 -0.547 99 115 138
0.09846 -0.455833 -0.547 67 83 106
0.09932 -0.455 -0.546 66 82 118
0.10036 -0.455 -0.546 91 107 143
0.10868 -0.455 -0.546 144 153 170
0.10972 -0.455 -0.546 140 152 174
0.1118 -0.455 -0.546 185 196 218
0.11284 -0.455 -0.546 183 194 216
0.402317 -0.4675 -0.561 173 198 228
0.403386 -0.4675 -0.561 185 205 238
0.404454 -0.4675 -0.561 187 207 240
0.405523 -0.4675 -0.561 179 202 236
0.406591 -0.4675 -0.561 164 187 221
0.40766 -0.4675 -0.561 151 177 210
0.424444 -0.468333 -0.562 160 176 191
0.425514 -0.468333 -0.562 150 162 186
0.426585 -0.468333 -0.562 178 190 214
0.428416 -0.469167 -0.563 194 202 223
0.429489 -0.469167 -0.563 184 192 213
0.430561 -0.469167 -0.563 188 196 215
0.431633 -0.469167 -0.563 187 195 214
0.432706 -0.469167 -0.563 187 195 214
0.433778 -0.469167 -0.563 197 204 222
0.43485 -0.469167 -0.563 204 211 229
0.435923 -0.469167 -0.563 194 200 216
0.436995 -0.469167 -0.563 171 177 193
0.438846 -0.47 -0.564 166 169 184
0.43992 -0.47 -0.564 184 187 202
0.440994 -0.47 -0.564 200 203 218
0.442069 -0.47 -0.564 201 204 219
0.443143 -0.47 -0.564 189 195 211
0.445005 -0.470833 -0.565 181 187 203
0.446081 -0.470833 -0.565 176 183 202
0.447157 -0.470833 -0.565 186 193 212
0.448233 -0.470833 -0.565 182 190 213
0.44931 -0.470833 -0.565 145 153 176
0.451183 -0.471667 -0.566 125 142 172
0.452261 -0.471667 -0.566 154 171 201
0.453339 -0.471667 -0.566 181 190 207
0.454417 -0.471667 -0.566 193 202 219
0.455495 -0.471667 -0.566 195 204 213
0.456573 -0.471667 -0.566 198 207 216
0.457651 -0.471667 -0.566 202 209 217
0.45873 -0.471667 -0.566 202 209 217
0.46062 -0.4725 -0.567 209 208 214
0.4617 -0.4725 -0.567 205 204 210
0.46278 -0.4725 -0.567 202 206 217
0.46386 -0.4725 -0.567 188 192 203
0.46494 -0.4725 -0.567 156 176 200
0.46602 -0.4725 -0.567 132 152 176
0.4671 -0.4725 -0.567 103 134 165
0.467354 -0.471667 -0.566 110 141 172
0.468432 -0.471667 -0.566 124 152 189
0.46951 -0.471667 -0.566 131 159 196
0.470589 -0.471667 -0.566 144 174 202
0.471667 -0.471667 -0.566 147 177 205
0.472745 -0.471667 -0.566 146 174 196
0.473823 -0.471667 -0.566 127 155 177
0.474901 -0.471667 -0.566 116 140 168
0.475979 -0.471667 -0.566 100 124 152
0.477057 -0.471667 -0.566 119 135 160
0.478135 -0.471667 -0.566 141 157 182
0.479213 -0.471667 -0.566 168 175 193
0.480291 -0.471667 -0.566 180 187 205
0.48137 -0.471667 -0.566 186 189 198
0.482448 -0.471667 -0.566 190 193 202
0.483526 -0.471667 -0.566 187 190 197
0.484604 -0.471667 -0.566 186 189 196
0.485682 -0.471667 -0.566 186 189 196
0.48676 -0.471667 -0.566 184 184 194
0.4887 -0.4725 -0.567 180 180 190
0.48978 -0.4725 -0.567 163 169 183
0.49086 -0.4725 -0.567 144 150 164
0.49194 -0.4725 -0.567 122 130 151
0.49302 -0.4725 -0.567 121 129 150
0.4941 -0.4725 -0.567 139 145 167
0.49518 -0.4725 -0.567 169 175 197
0.49626 -0.4725 -0.567 166 169 188
0.49734 -0.4725 -0.567 159 162 181
0.49842 -0.4725 -0.567 166 165 179
0.4995 -0.4725 -0.567 168 167 181
0.50058 -0.4725 -0.567 171 171 183
0.50166 -0.4725 -0.567 168 168 180
0.50274 -0.4725 -0.567 153 155 168
0.502931 -0.471667 -0.566 123 128 147
0.50401 -0.471667 -0.566 114 129 152
0.505088 -0.471667 -0.566 140 155 178
0.507694 -0.4575 -0.549 128 103 98
0.50596 -0.455 -0.546 129 104 99
0.502357 -0.450833 -0.541 131 103 99
0.498735 -0.446667 -0.536 133 105 101
0.496027 -0.443333 -0.532 135 108 101
0.494237 -0.440833 -0.529 136 109 102
0.492436 -0.438333 -0.526 137 108 100
0.490624 -0.435833 -0.523 139 110 102
0.48974 -0.434167 -0.521 144 111 102
0.487907 -0.431667 -0.518 145 112 103
0.487006 -0.43 -0.516 146 112 102
0.486097 -0.428333 -0.514 146 112 102
0.485181 -0.426667 -0.512 149 115 105
0.484257 -0.425 -0.51 150 116 106
0.483326 -0.423333 -0.508 155 116 99
0.482387 -0.421667 -0.506 156 117 100
0.482395 -0.420833 -0.505 158 120 101
0.4824 -0.42 -0.504 158 120 101
0.481442 -0.418333 -0.502 159 121 98
0.481437 -0.4175 -0.501 160 122 99
0.481429 -0.416667 -0.5 164 123 95
0.481416 -0.415833 -0.499 164 123 95
0.4814 -0.415 -0.498 166 125 95
0.48138 -0.414167 -0.497 167 126 96
0.481356 -0.413333 -0.496 170 129 101
0.482301 -0.413333 -0.496 172 131 103
0.482271 -0.4125 -0.495 172 128 101
0.483214 -0.4125 -0.495 172 128 101
0.483179 -0.411667 -0.494 172 128 101
0.48412 -0.411667 -0.494 174 128 102
0.484079 -0.410833 -0.493 174 128 102
0.484034 -0.41 -0.492 176 131 100
0.484971 -0.41 -0.492 176 131 100
0.485909 -0.41 -0.492 176 131 100
0.485856 -0.409167 -0.491 176 131 100
0.486791 -0.409167 -0.491 177 130 100
0.487727 -0.409167 -0.491 178 131 101
0.488662 -0.409167 -0.491 179 132 102
0.489597 -0.409167 -0.491 181 134 104
0.490532 -0.409167 -0.491 183 136 106
0.491468 -0.409167 -0.491 182 135 105
0.4914 -0.408333 -0.49 183 136 106
0.492333 -0.408333 -0.49 183 136 106
0.49226 -0.4075 -0.489 184 135 105
0.493191 -0.4075 -0.489 183 134 104
0.493112 -0.406667 -0.488 183 134 104
0.494042 -0.406667 -0.488 182 133 103
0.493957 -0.405833 -0.487 183 134 102
0.494885 -0.405833 -0.487 183 134 102
0.495812 -0.405833 -0.487 184 135 103
0.49572 -0.405 -0.486 186 137 105
0.496646 -0.405 -0.486 185 136 104
0.497571 -0.405 -0.486 183 134 102
0.497471 -0.404167 -0.485 181 132 100
0.497368 -0.403333 -0.484 180 131 99
0.49829 -0.403333 -0.484 184 135 103
0.499211 -0.403333 -0.484 186 137 105
0.4991 -0.4025 -0.483 186 137 105
0.50002 -0.4025 -0.483 186 137 105
0.50094 -0.4025 -0.483 187 138 106
0.50186 -0.4025 -0.483 187 138 106
0.501739 -0.401667 -0.482 185 136 104
0.502657 -0.401667 -0.482 185 136 104
0.50462 -0.4025 -0.483 185 135 102
0.504493 -0.401667 -0.482 184 134 101
0.505411 -0.401667 -0.482 182 131 100
0.50633 -0.401667 -0.482 181 130 99
0.507248 -0.401667 -0.482 179 130 98
0.50922 -0.4025 -0.483 178 129 97
0.51014 -0.4025 -0.483 178 129 97
0.51106 -0.4025 -0.483 177 128 96
0.51198 -0.4025 -0.483 175 129 96
0.5129 -0.4025 -0.483 173 127 94
0.51382 -0.4025 -0.483 170 123 93
0.515806 -0.403333 -0.484 168 121 91
0.517795 -0.404167 -0.485 166 121 90
0.518719 -0.404167 -0.485 166 121 90
0.520714 -0.405 -0.486 166 121 88
0.522713 -0.405833 -0.487 166 121 88
0.524716 -0.406667 -0.488 166 122 87
0.5278 -0.408333 -0.49 162 118 83
0.530891 -0.41 -0.492 160 115 82
0.53399 -0.411667 -0.494 159 114 81
0.537097 -0.413333 -0.496 157 113 84
0.541296 -0.415833 -0.499 158 114 85
0.610354 -0.46 -0.552 164 155 138
0.614729 -0.4625 -0.555 181 172 155
-0.01044 -0.435994 -0.522 189 148 118
-0.00939143 -0.433489 -0.519 189 148 118
-0.00835429 -0.430983 -0.516 190 148 123
-0.00732857 -0.428477 -0.513 191 149 124
-0.0063019 -0.425136 -0.509 192 150 125
-0.00530095 -0.42263 -0.506 193 151 126
-0.00432 -0.42096 -0.504 195 151 124
-0.00334 -0.418454 -0.501 192 148 121
-0.00238095 -0.417619 -0.5 191 147 120
-0.00142571 -0.416784 -0.499 191 147 120
-0.000475238 -0.416784 -0.499 188 147 119
0.000474286 -0.415949 -0.498 187 146 118
0.00142 -0.415113 -0.497 193 149 120
0.0023619 -0.414278 -0.496 197 153 124
0.00330667 -0.414278 -0.496 195 151 122
0.00425143 -0.414278 -0.496 194 150 121
0.00519619 -0.414278 -0.496 193 149 120
0.00612857 -0.413443 -0.495 191 147 118
0.00707143 -0.413443 -0.495 193 148 119
0.00801429 -0.413443 -0.495 195 150 121
0.00895714 -0.413443 -0.495 197 152 121
0.0099 -0.413443 -0.495 197 152 121
0.0108648 -0.414278 -0.496 193 150 118
0.0117857 -0.413443 -0.495 194 151 119
0.0127543 -0.414278 -0.496 194 151 119
0.013699 -0.414278 -0.496 195 152 120
0.0146438 -0.414278 -0.496 194 151 119
0.0155886 -0.414278 -0.496 195 152 120
0.0165333 -0.414278 -0.496 197 154 122
0.0174781 -0.414278 -0.496 199 156 124
0.0184229 -0.414278 -0.496 200 155 124
0.0194067 -0.415113 -0.497 199 154 123
0.0203533 -0.415113 -0.497 197 152 121
0.0213 -0.415113 -0.497 197 152 121
0.0222467 -0.415113 -0.497 197 152 121
0.0231933 -0.415113 -0.497 195 150 119
0.02414 -0.415113 -0.497 197 152 121
0.0250867 -0.415113 -0.497 200 155 124
0.0260333 -0.415113 -0.497 200 155 124
0.02698 -0.415113 -0.497 198 153 122
0.0279267 -0.415113 -0.497 199 152 122
0.0288733 -0.415113 -0.497 199 152 122
0.02982 -0.415113 -0.497 198 151 121
0.0307667 -0.415113 -0.497 198 151 121
0.0317133 -0.415113 -0.497 201 156 125
0.03266 -0.415113 -0.497 200 155 124
0.0336067 -0.415113 -0.497 196 151 122
0.0345533 -0.415113 -0.497 197 152 123
0.0355 -0.415113 -0.497 197 150 120
0.0364467 -0.415113 -0.497 197 150 120
0.0373933 -0.415113 -0.497 199 152 122
0.03834 -0.415113 -0.497 199 152 122
0.0392867 -0.415113 -0.497 196 151 122
0.0402333 -0.415113 -0.497 196 151 122
0.04118 -0.415113 -0.497 197 150 120
0.0422114 -0.415949 -0.498 196 149 119
0.04316 -0.415949 -0.498 195 148 118
0.0441971 -0.416784 -0.499 195 148 118
0.0451476 -0.416784 -0.499 195 148 118
0.0461905 -0.417619 -0.5 195 148 118
0.0472371 -0.418454 -0.501 193 146 118
0.0481914 -0.418454 -0.501 191 144 116
0.0491457 -0.418454 -0.501 190 145 116
0.0502 -0.41929 -0.502 189 144 115
0.0512581 -0.420125 -0.503 189 144 115
0.0522162 -0.420125 -0.503 189 144 115
0.05328 -0.42096 -0.504 187 141 115
0.05424 -0.42096 -0.504 186 140 114
0.0553095 -0.421795 -0.505 185 139 113
0.0563829 -0.42263 -0.506 184 138 112
0.0573467 -0.42263 -0.506 176 134 112
0.0584257 -0.423466 -0.507 175 133 111
0.0595086 -0.424301 -0.508 176 134 112
0.0605952 -0.425136 -0.509 175 133 111
0.0616857 -0.425971 -0.51 173 128 107
0.06278 -0.426807 -0.511 169 124 103
0.0638781 -0.427642 -0.512 167 121 98
0.0648533 -0.427642 -0.512 164 118 95
0.0660857 -0.429312 -0.514 158 113 92
0.0671952 -0.430148 -0.515 157 112 91
0.0683086 -0.430983 -0.516 153 111 95
0.0694257 -0.431818 -0.517 150 108 92
0.0706829 -0.433489 -0.519 145 107 94
0.0718095 -0.434324 -0.52 144 106 93
0.07308 -0.435994 -0.522 141 105 93
0.0743581 -0.437665 -0.524 138 102 90
0.0755 -0.4385 -0.525 119 98 95
0.0767914 -0.44017 -0.527 118 97 94
0.08996 -0.45604 -0.546 103 85 85
0.091 -0.45604 -0.546 102 92 93
0.09204 -0.45604 -0.546 114 104 105
0.0932505 -0.456875 -0.547 121 119 124
0.0942924 -0.456875 -0.547 134 132 137
0.0953343 -0.456875 -0.547 140 138 149
0.0963762 -0.456875 -0.547 143 141 152
0.09724 -0.45604 -0.546 113 127 153
0.09828 -0.45604 -0.546 77 91 117
0.09932 -0.45604 -0.546 45 68 109
0.100176 -0.455205 -0.545 61 84 125
0.101214 -0.455205 -0.545 70 92 129
0.102252 -0.455205 -0.545 97 119 156
0.404454 -0.468569 -0.561 184 200 233
0.405523 -0.468569 -0.561 181 201 234
0.406591 -0.468569 -0.561 175 195 228
0.40766 -0.468569 -0.561 159 185 218
0.408729 -0.468569 -0.561 146 172 205
0.409797 -0.468569 -0.561 142 172 200
0.410866 -0.468569 -0.561 166 196 224
0.411934 -0.468569 -0.561 200 210 235
0.413003 -0.468569 -0.561 215 225 250
0.414071 -0.468569 -0.561 219 222 229
0.41514 -0.468569 -0.561 220 223 230
0.416209 -0.468569 -0.561 227 227 229
0.426585 -0.469404 -0.562 136 150 177
0.427655 -0.469404 -0.562 157 178 209
0.428726 -0.469404 -0.562 152 173 204
0.429796 -0.469404 -0.562 170 185 216
0.430867 -0.469404 -0.562 173 188 219
0.431937 -0.469404 -0.562 173 188 219
0.433008 -0.469404 -0.562 185 199 225
0.434078 -0.469404 -0.562 199 213 239
0.435149 -0.469404 -0.562 193 206 223
0.436995 -0.470239 -0.563 171 184 201
0.438068 -0.470239 -0.563 154 166 182
0.43914 -0.470239 -0.563 177 189 205
0.440212 -0.470239 -0.563 196 208 224
0.441285 -0.470239 -0.563 192 204 220
0.443143 -0.471074 -0.564 173 185 207
0.444217 -0.471074 -0.564 167 179 201
0.445291 -0.471074 -0.564 162 177 206
0.446366 -0.471074 -0.564 155 170 199
0.44744 -0.471074 -0.564 137 153 187
0.44931 -0.47191 -0.565 102 118 152
0.450386 -0.47191 -0.565 123 141 177
0.451462 -0.47191 -0.565 173 191 227
0.452538 -0.47191 -0.565 204 210 224
0.453614 -0.47191 -0.565 200 206 220
0.45469 -0.47191 -0.565 208 213 216
0.455767 -0.47191 -0.565 202 207 210
0.456843 -0.47191 -0.565 201 209 212
0.45873 -0.472745 -0.566 202 210 213
0.459808 -0.472745 -0.566 207 207 209
0.460886 -0.472745 -0.566 206 206 208
0.461964 -0.472745 -0.566 202 206 217
0.463042 -0.472745 -0.566 192 196 207
0.46412 -0.472745 -0.566 158 178 203
0.465198 -0.472745 -0.566 131 151 176
0.466276 -0.472745 -0.566 106 136 170
0.467354 -0.472745 -0.566 112 142 176
0.468432 -0.472745 -0.566 132 156 192
0.468681 -0.47191 -0.565 144 168 204
0.470589 -0.472745 -0.566 154 178 204
0.471667 -0.472745 -0.566 159 183 209
0.472745 -0.472745 -0.566 160 182 205
0.473823 -0.472745 -0.566 146 168 191
0.474901 -0.472745 -0.566 125 146 173
0.475979 -0.472745 -0.566 105 126 153
0.477057 -0.472745 -0.566 121 138 166
0.478135 -0.472745 -0.566 143 160 188
0.479213 -0.472745 -0.566 169 178 195
0.479443 -0.47191 -0.565 180 189 206
0.480519 -0.47191 -0.565 186 188 200
0.481595 -0.47191 -0.565 189 191 203
0.482671 -0.47191 -0.565 190 190 198
0.483748 -0.47191 -0.565 191 191 199
0.484824 -0.47191 -0.565 191 191 199
0.48676 -0.472745 -0.566 182 186 197
0.487838 -0.472745 -0.566 183 187 198
0.488916 -0.472745 -0.566 178 180 192
0.489994 -0.472745 -0.566 177 179 191
0.491072 -0.472745 -0.566 162 168 184
0.49215 -0.472745 -0.566 127 133 149
0.493229 -0.472745 -0.566 100 110 137
0.494307 -0.472745 -0.566 129 139 166
0.495385 -0.472745 -0.566 137 148 176
0.496463 -0.472745 -0.566 132 143 171
0.49842 -0.47358 -0.567 146 152 176
0.4995 -0.47358 -0.567 147 153 177
0.50058 -0.47358 -0.567 159 164 183
0.500775 -0.472745 -0.566 165 170 189
0.501853 -0.472745 -0.566 156 161 180
0.506887 -0.456875 -0.547 129 104 99
0.504214 -0.453534 -0.543 131 104 97
0.500596 -0.449358 -0.538 133 106 99
0.497891 -0.446017 -0.534 135 108 99
0.496106 -0.443511 -0.531 134 107 98
0.494309 -0.441006 -0.528 137 109 98
0.4925 -0.4385 -0.525 139 111 100
0.49068 -0.435994 -0.522 143 110 101
0.48979 -0.434324 -0.52 144 111 102
0.48795 -0.431818 -0.517 145 113 102
0.487043 -0.430148 -0.515 145 113 102
0.486129 -0.428477 -0.513 147 115 104
0.485207 -0.426807 -0.511 149 117 106
0.484277 -0.425136 -0.509 155 113 97
0.48334 -0.423466 -0.507 158 116 100
0.48335 -0.42263 -0.506 158 120 101
0.4824 -0.42096 -0.504 158 120 101
0.482401 -0.420125 -0.503 159 121 98
0.481437 -0.418454 -0.501 159 121 98
0.481429 -0.417619 -0.5 164 122 97
0.481416 -0.416784 -0.499 165 123 98
0.4814 -0.415949 -0.498 167 126 96
0.48138 -0.415113 -0.497 168 127 97
0.481356 -0.414278 -0.496 170 129 101
0.482301 -0.414278 -0.496 171 130 102
0.482271 -0.413443 -0.495 171 129 104
0.482238 -0.412608 -0.494 170 128 103
0.483179 -0.412608 -0.494 173 129 102
0.48412 -0.412608 -0.494 173 129 102
0.484079 -0.411772 -0.493 173 129 102
0.484034 -0.410937 -0.492 177 130 100
0.484971 -0.410937 -0.492 178 131 101
0.485909 -0.410937 -0.492 179 132 102
0.485856 -0.410102 -0.491 178 131 101
0.486791 -0.410102 -0.491 177 130 100
0.487727 -0.410102 -0.491 177 130 100
0.487667 -0.409267 -0.49 178 131 101
0.4886 -0.409267 -0.49 179 132 102
0.489533 -0.409267 -0.49 182 135 105
0.490467 -0.409267 -0.49 182 135 105
0.4914 -0.409267 -0.49 185 136 106
0.492333 -0.409267 -0.49 186 137 107
0.49226 -0.408431 -0.489 185 136 106
0.493191 -0.408431 -0.489 184 135 105
0.493112 -0.407596 -0.488 183 134 104
0.494042 -0.407596 -0.488 182 133 103
0.493957 -0.406761 -0.487 183 134 102
0.494885 -0.406761 -0.487 184 135 103
0.495812 -0.406761 -0.487 184 135 103
0.49572 -0.405926 -0.486 185 136 104
0.496646 -0.405926 -0.486 186 137 107
0.496548 -0.40509 -0.485 184 135 105
0.497471 -0.40509 -0.485 182 133 101
0.497368 -0.404255 -0.484 180 131 99
0.49829 -0.404255 -0.484 182 133 101
0.499211 -0.404255 -0.484 185 136 104
0.4991 -0.40342 -0.483 185 136 106
0.50002 -0.40342 -0.483 186 137 107
0.50094 -0.40342 -0.483 188 139 107
0.500821 -0.402585 -0.482 187 138 106
0.501739 -0.402585 -0.482 187 138 106
0.502657 -0.402585 -0.482 185 136 104
0.503575 -0.402585 -0.482 183 134 104
0.504493 -0.402585 -0.482 183 134 104
0.505411 -0.402585 -0.482 180 133 103
0.50633 -0.402585 -0.482 179 132 102
0.507248 -0.402585 -0.482 176 129 99
0.508166 -0.402585 -0.482 177 130 100
0.509084 -0.402585 -0.482 178 131 101
0.510002 -0.402585 -0.482 177 130 100
0.51092 -0.402585 -0.482 173 128 97
0.511838 -0.402585 -0.482 171 126 95
0.51382 -0.40342 -0.483 171 126 95
0.51474 -0.40342 -0.483 169 124 93
0.516728 -0.404255 -0.484 165 122 90
0.51765 -0.404255 -0.484 164 121 89
0.519643 -0.40509 -0.485 165 122 90
0.52164 -0.405926 -0.486 165 122 90
0.523641 -0.406761 -0.487 164 119 88
0.525646 -0.407596 -0.488 164 119 88
0.528733 -0.409267 -0.49 163 119 90
0.531829 -0.410937 -0.492 161 117 88
0.534931 -0.412608 -0.494 157 116 86
0.538042 -0.414278 -0.496 156 115 85
0.605931 -0.45771 -0.548 158 142 117
0.610298 -0.460216 -0.551 174 158 133
0.615786 -0.463557 -0.555 184 175 158
-0.0114343 -0.436989 -0.522 186 150 116
-0.01038 -0.434477 -0.519 189 148 116
-0.00933714 -0.431966 -0.516 189 148 116
-0.00828952 -0.428617 -0.512 192 148 121
-0.00728571 -0.426943 -0.51 194 150 123
-0.00626476 -0.423594 -0.506 195 151 126
-0.00528 -0.42192 -0.504 195 151 126
-0.00430286 -0.420246 -0.502 194 150 121
-0.00333333 -0.418571 -0.5 194 150 121
-0.00237143 -0.416897 -0.498 192 148 119
-0.00142 -0.41606 -0.497 192 148 119
-0.000472381 -0.415223 -0.496 192 148 119
0.000473333 -0.41606 -0.497 191 147 120
0.00141714 -0.415223 -0.496 196 152 123
0.00235714 -0.414386 -0.495 197 153 124
0.0033 -0.414386 -0.495 196 152 123
0.00424286 -0.414386 -0.495 195 151 122
0.00518571 -0.414386 -0.495 194 150 121
0.00612857 -0.414386 -0.495 193 149 120
0.00707143 -0.414386 -0.495 194 149 120
0.00801429 -0.414386 -0.495 194 149 120
0.00895714 -0.414386 -0.495 194 149 120
0.0099 -0.414386 -0.495 193 148 119
0.0108429 -0.414386 -0.495 192 147 118
0.0117857 -0.414386 -0.495 194 149 120
0.0127286 -0.414386 -0.495 197 152 123
0.013699 -0.415223 -0.496 197 152 123
0.0146438 -0.415223 -0.496 197 152 121
0.0155886 -0.415223 -0.496 196 151 120
0.0165333 -0.415223 -0.496 197 152 121
0.0174781 -0.415223 -0.496 198 153 122
0.0184229 -0.415223 -0.496 199 154 123
0.0193676 -0.415223 -0.496 199 154 123
0.0203124 -0.415223 -0.496 197 152 121
0.0213 -0.41606 -0.497 197 152 121
0.0222467 -0.41606 -0.497 197 152 121
0.0231467 -0.415223 -0.496 196 151 120
0.0240914 -0.415223 -0.496 198 153 122
0.0250867 -0.41606 -0.497 200 155 124
0.0260333 -0.41606 -0.497 199 154 123
0.0269257 -0.415223 -0.496 198 153 122
0.0278705 -0.415223 -0.496 197 152 119
0.0288152 -0.415223 -0.496 198 153 120
0.02976 -0.415223 -0.496 196 151 120
0.0307048 -0.415223 -0.496 195 150 119
0.0316495 -0.415223 -0.496 196 151 120
0.0325943 -0.415223 -0.496 194 149 118
0.033539 -0.415223 -0.496 195 150 121
0.0344838 -0.415223 -0.496 196 151 122
0.0354286 -0.415223 -0.496 195 150 121
0.0363733 -0.415223 -0.496 194 149 120
0.0373181 -0.415223 -0.496 195 150 121
0.0382629 -0.415223 -0.496 195 150 121
0.0392867 -0.41606 -0.497 194 149 120
0.0402333 -0.41606 -0.497 194 149 120
0.04118 -0.41606 -0.497 195 150 119
0.0421267 -0.41606 -0.497 195 150 119
0.04316 -0.416897 -0.498 194 149 118
0.0441086 -0.416897 -0.498 194 149 118
0.0451476 -0.417734 -0.499 194 149 120
0.0461905 -0.418571 -0.5 194 149 120
0.0471429 -0.418571 -0.5 193 148 119
0.0481914 -0.419409 -0.501 192 147 118
0.0491457 -0.419409 -0.501 191 146 117
0.0502 -0.420246 -0.502 190 145 116
0.0512581 -0.421083 -0.503 189 143 117
0.0522162 -0.421083 -0.503 188 142 116
0.05328 -0.42192 -0.504 186 140 114
0.05424 -0.42192 -0.504 186 140 114
0.0553095 -0.422757 -0.505 185 139 113
0.0563829 -0.423594 -0.506 182 136 110
0.0573467 -0.423594 -0.506 173 131 109
0.0584257 -0.424431 -0.507 172 130 108
0.0595086 -0.425269 -0.508 173 131 109
0.0605952 -0.426106 -0.509 172 130 108
0.0616857 -0.426943 -0.51 170 125 104
0.06278 -0.42778 -0.511 167 122 101
0.0638781 -0.428617 -0.512 166 120 97
0.06498 -0.429454 -0.513 163 117 94
0.0660857 -0.430291 -0.514 157 112 93
0.0671952 -0.431129 -0.515 155 110 91
0.0683086 -0.431966 -0.516 149 110 93
0.0694257 -0.432803 -0.517 147 108 91
0.0706829 -0.434477 -0.519 142 106 94
0.0718095 -0.435314 -0.52 141 105 93
0.07308 -0.436989 -0.522 136 102 90
0.0743581 -0.438663 -0.524 132 98 86
0.0756438 -0.440337 -0.526 117 96 93
0.0885943 -0.455406 -0.544 102 84 84
0.0897952 -0.456243 -0.545 104 86 86
0.0908333 -0.456243 -0.545 106 96 97
0.09204 -0.45708 -0.546 118 108 109
0.09308 -0.45708 -0.546 125 123 128
0.09412 -0.45708 -0.546 135 133 138
0.09516 -0.45708 -0.546 132 132 140
0.0962 -0.45708 -0.546 132 132 140
0.09724 -0.45708 -0.546 105 121 146
0.0981 -0.456243 -0.545 74 90 115
0.0991381 -0.456243 -0.545 49 76 119
0.112633 -0.456243 -0.545 167 190 224
0.402667 -0.4688 -0.56 190 207 237
0.403733 -0.4688 -0.56 178 195 225
0.4048 -0.4688 -0.56 181 200 233
0.405867 -0.4688 -0.56 183 202 235
0.406933 -0.4688 -0.56 165 190 221
0.408 -0.4688 -0.56 150 175 206
0.42262 -0.469637 -0.561 212 221 230
0.423689 -0.469637 -0.561 196 205 214
0.424757 -0.469637 -0.561 149 164 195
0.425826 -0.469637 -0.561 113 128 159
0.426894 -0.469637 -0.561 118 144 181
0.429796 -0.470474 -0.562 153 175 216
0.430867 -0.470474 -0.562 163 185 226
0.431937 -0.470474 -0.562 163 185 226
0.433008 -0.470474 -0.562 174 195 226
0.434078 -0.470474 -0.562 192 213 244
0.435149 -0.470474 -0.562 193 211 233
0.436219 -0.470474 -0.562 160 178 200
0.438068 -0.471311 -0.563 131 148 166
0.43914 -0.471311 -0.563 170 187 205
0.440212 -0.471311 -0.563 192 210 230
0.441285 -0.471311 -0.563 189 207 227
0.442357 -0.471311 -0.563 167 187 214
0.44343 -0.471311 -0.563 161 181 208
0.445291 -0.472149 -0.564 145 167 204
0.446366 -0.472149 -0.564 115 137 174
0.44744 -0.472149 -0.564 97 122 163
0.448514 -0.472149 -0.564 86 111 152
0.449589 -0.472149 -0.564 139 159 196
0.451462 -0.472986 -0.565 187 207 244
0.452538 -0.472986 -0.565 201 205 217
0.453614 -0.472986 -0.565 203 207 219
0.453886 -0.472149 -0.564 204 208 207
0.45496 -0.472149 -0.564 200 204 203
0.456843 -0.472986 -0.565 184 190 188
0.457919 -0.472986 -0.565 194 200 198
0.458995 -0.472986 -0.565 210 209 207
0.460071 -0.472986 -0.565 212 211 209
0.461148 -0.472986 -0.565 201 204 213
0.462224 -0.472986 -0.565 189 192 201
0.4633 -0.472986 -0.565 152 173 200
0.465198 -0.473823 -0.566 124 145 172
0.465452 -0.472986 -0.565 105 138 173
0.466529 -0.472986 -0.565 111 144 179
0.467605 -0.472986 -0.565 135 157 194
0.468681 -0.472986 -0.565 151 173 210
0.469757 -0.472986 -0.565 163 183 208
0.470833 -0.472986 -0.565 166 186 211
0.47191 -0.472986 -0.565 165 185 209
0.472986 -0.472986 -0.565 155 175 199
0.474062 -0.472986 -0.565 135 156 183
0.475138 -0.472986 -0.565 116 137 164
0.476214 -0.472986 -0.565 112 128 161
0.47729 -0.472986 -0.565 128 144 177
0.478367 -0.472986 -0.565 153 161 180
0.479443 -0.472986 -0.565 176 184 203
0.480519 -0.472986 -0.565 190 192 205
0.481595 -0.472986 -0.565 187 189 202
0.482671 -0.472986 -0.565 189 189 199
0.483748 -0.472986 -0.565 190 190 200
0.484824 -0.472986 -0.565 180 189 206
0.4859 -0.472986 -0.565 180 189 206
0.486976 -0.472986 -0.565 178 187 204
0.488916 -0.473823 -0.566 182 184 196
0.489994 -0.473823 -0.566 181 183 195
0.491072 -0.473823 -0.566 177 180 195
0.49215 -0.473823 -0.566 155 158 173
0.493229 -0.473823 -0.566 98 111 143
0.494307 -0.473823 -0.566 84 97 129
0.495385 -0.473823 -0.566 101 121 158
0.496463 -0.473823 -0.566 104 124 161
0.497541 -0.473823 -0.566 127 142 175
0.498619 -0.473823 -0.566 130 145 178
0.499697 -0.473823 -0.566 150 160 185
0.500775 -0.473823 -0.566 162 172 197
0.500967 -0.472986 -0.565 152 172 196
0.502043 -0.472986 -0.565 118 138 162
0.503119 -0.472986 -0.565 90 104 130
0.504195 -0.472986 -0.565 134 148 174
0.505271 -0.472986 -0.565 151 170 200
0.50874 -0.459591 -0.549 127 104 98
0.505143 -0.455406 -0.544 134 105 97
0.502457 -0.452057 -0.54 133 104 96
0.499756 -0.448709 -0.536 134 104 94
0.49704 -0.44536 -0.532 136 106 96
0.495245 -0.442849 -0.529 137 110 99
0.493438 -0.440337 -0.526 137 110 99
0.49162 -0.437826 -0.523 136 112 100
0.490732 -0.436151 -0.521 137 113 101
0.488893 -0.43364 -0.518 143 114 100
0.487989 -0.431966 -0.516 144 115 101
0.487076 -0.430291 -0.514 151 116 97
0.486156 -0.428617 -0.512 151 116 97
0.485229 -0.426943 -0.51 153 116 97
0.484293 -0.425269 -0.508 154 117 98
0.48335 -0.423594 -0.506 155 118 99
0.483357 -0.422757 -0.505 156 119 100
0.482401 -0.421083 -0.503 159 121 100
0.482398 -0.420246 -0.502 160 122 101
0.482391 -0.419409 -0.501 161 121 96
0.482381 -0.418571 -0.5 162 122 97
0.482367 -0.417734 -0.499 167 125 100
0.48138 -0.41606 -0.497 168 126 101
0.481356 -0.415223 -0.496 168 127 99
0.482301 -0.415223 -0.496 168 127 99
0.482271 -0.414386 -0.495 172 129 97
0.482238 -0.413549 -0.494 173 130 98
0.483179 -0.413549 -0.494 173 128 97
0.48314 -0.412711 -0.493 174 129 98
0.484079 -0.412711 -0.493 174 129 98
0.484034 -0.411874 -0.492 176 129 99
0.484971 -0.411874 -0.492 178 131 101
0.485909 -0.411874 -0.492 178 132 99
0.485856 -0.411037 -0.491 177 131 98
0.486791 -0.411037 -0.491 177 131 98
0.487727 -0.411037 -0.491 177 131 98
0.487667 -0.4102 -0.49 177 131 98
0.4886 -0.4102 -0.49 180 134 101
0.489533 -0.4102 -0.49 182 136 103
0.490467 -0.4102 -0.49 180 134 101
0.4914 -0.4102 -0.49 185 136 103
0.491329 -0.409363 -0.489 187 138 105
0.49226 -0.409363 -0.489 186 137 104
0.493191 -0.409363 -0.489 184 135 102
0.493112 -0.408526 -0.488 182 133 101
0.494042 -0.408526 -0.488 182 133 101
0.493957 -0.407689 -0.487 183 134 104
0.494885 -0.407689 -0.487 184 135 105
0.495812 -0.407689 -0.487 186 137 107
0.49572 -0.406851 -0.486 187 138 108
0.495624 -0.406014 -0.485 186 137 105
0.496548 -0.406014 -0.485 185 136 104
0.497471 -0.406014 -0.485 183 134 102
0.497368 -0.405177 -0.484 183 134 102
0.49829 -0.405177 -0.484 182 133 101
0.49818 -0.40434 -0.483 185 136 104
0.4991 -0.40434 -0.483 185 136 104
0.50002 -0.40434 -0.483 186 137 105
0.499903 -0.403503 -0.482 187 138 106
0.500821 -0.403503 -0.482 187 138 106
0.501739 -0.403503 -0.482 186 137 105
0.502657 -0.403503 -0.482 184 135 103
0.503575 -0.403503 -0.482 183 134 104
0.504493 -0.403503 -0.482 183 134 104
0.505411 -0.403503 -0.482 181 134 104
0.505279 -0.402666 -0.481 180 133 103
0.506195 -0.402666 -0.481 178 131 101
0.507111 -0.402666 -0.481 178 131 101
0.509084 -0.403503 -0.482 177 131 98
0.510002 -0.403503 -0.482 176 130 97
0.51092 -0.403503 -0.482 174 128 95
0.511838 -0.403503 -0.482 173 127 94
0.512756 -0.403503 -0.482 171 126 93
0.513674 -0.403503 -0.482 170 125 92
0.51566 -0.40434 -0.483 168 123 90
0.51658 -0.40434 -0.483 166 121 88
0.518571 -0.405177 -0.484 166 121 88
0.520567 -0.406014 -0.485 165 120 87
0.522566 -0.406851 -0.486 165 120 87
0.524569 -0.407689 -0.487 165 120 87
0.526575 -0.408526 -0.488 163 120 88
0.529667 -0.4102 -0.49 162 119 87
0.532766 -0.411874 -0.492 159 118 86
0.535872 -0.413549 -0.494 157 116 84
0.605868 -0.457917 -0.547 163 142 115
0.611348 -0.461266 -0.551 176 163 146
0.616843 -0.464614 -0.555 190 177 160
-0.0124048 -0.437144 -0.521 188 152 118
-0.0113686 -0.435466 -0.519 186 150 116
-0.01032 -0.432949 -0.516 189 148 116
-0.00926476 -0.429592 -0.512 189 148 116
-0.00824095 -0.427075 -0.509 193 149 120
-0.00724286 -0.425397 -0.507 195 151 122
-0.00624 -0.42288 -0.504 196 150 126
-0.00524857 -0.420363 -0.501 194 148 124
-0.00428571 -0.419524 -0.5 194 150 121
-0.00332 -0.417846 -0.498 196 152 123
-0.00236667 -0.417007 -0.497 194 151 119
-0.00141714 -0.416168 -0.496 193 150 118
-0.000471429 -0.415329 -0.495 194 151 119
0.000472381 -0.416168 -0.496 194 150 121
0.00141429 -0.415329 -0.495 197 153 124
0.00235714 -0.415329 -0.495 198 154 125
0.00329333 -0.41449 -0.494 197 153 124
0.00423429 -0.41449 -0.494 197 153 124
0.00517524 -0.41449 -0.494 196 152 123
0.00611619 -0.41449 -0.494 195 151 122
0.00705714 -0.41449 -0.494 194 150 121
0.0079981 -0.41449 -0.494 194 150 121
0.00893905 -0.41449 -0.494 193 149 120
0.00988 -0.41449 -0.494 192 148 119
0.010821 -0.41449 -0.494 193 148 119
0.0117857 -0.415329 -0.495 196 151 122
0.0127286 -0.415329 -0.495 199 154 125
0.0136714 -0.415329 -0.495 199 154 125
0.0146438 -0.416168 -0.496 197 152 121
0.0155886 -0.416168 -0.496 196 151 120
0.0165333 -0.416168 -0.496 196 151 120
0.0174429 -0.415329 -0.495 196 151 120
0.0183857 -0.415329 -0.495 196 151 120
0.0193676 -0.416168 -0.496 198 153 122
0.0203124 -0.416168 -0.496 197 152 119
0.0212571 -0.416168 -0.496 197 152 119
0.0222019 -0.416168 -0.496 197 152 119
0.0231467 -0.416168 -0.496 198 153 120
0.0240914 -0.416168 -0.496 201 156 123
0.0250362 -0.416168 -0.496 202 157 124
0.025981 -0.416168 -0.496 195 152 118
0.0269257 -0.416168 -0.496 196 153 119
0.0278705 -0.416168 -0.496 195 152 118
0.0288152 -0.416168 -0.496 196 153 119
0.02976 -0.416168 -0.496 195 152 118
0.0307048 -0.416168 -0.496 194 151 117
0.0316495 -0.416168 -0.496 194 151 119
0.0325943 -0.416168 -0.496 191 148 116
0.033539 -0.416168 -0.496 193 150 118
0.0344838 -0.416168 -0.496 195 152 120
0.0354286 -0.416168 -0.496 195 151 122
0.0363733 -0.416168 -0.496 193 149 120
0.0373181 -0.416168 -0.496 192 148 119
0.0382629 -0.416168 -0.496 191 147 118
0.0392076 -0.416168 -0.496 191 147 118
0.0401524 -0.416168 -0.496 193 149 120
0.04118 -0.417007 -0.497 196 151 120
0.0421267 -0.417007 -0.497 195 150 119
0.04316 -0.417846 -0.498 194 149 118
0.0441086 -0.417846 -0.498 194 149 118
0.0451476 -0.418685 -0.499 194 149 120
0.0460981 -0.418685 -0.499 193 148 119
0.0471429 -0.419524 -0.5 193 148 119
0.0481914 -0.420363 -0.501 192 147 118
0.0491457 -0.420363 -0.501 192 146 120
0.0502 -0.421202 -0.502 190 144 118
0.0512581 -0.422041 -0.503 188 142 116
0.0522162 -0.422041 -0.503 186 140 114
0.05328 -0.42288 -0.504 185 139 113
0.05424 -0.42288 -0.504 185 139 113
0.0553095 -0.423719 -0.505 183 137 111
0.0563829 -0.424558 -0.506 180 134 108
0.0573467 -0.424558 -0.506 171 129 107
0.0584257 -0.425397 -0.507 171 129 107
0.0595086 -0.426236 -0.508 173 128 107
0.0605952 -0.427075 -0.509 172 127 106
0.0616857 -0.427914 -0.51 168 123 102
0.06278 -0.428753 -0.511 165 120 99
0.0638781 -0.429592 -0.512 163 118 97
0.06498 -0.430431 -0.513 160 115 94
0.0660857 -0.43127 -0.514 154 111 92
0.0671952 -0.43211 -0.515 152 109 90
0.0683086 -0.432949 -0.516 147 108 93
0.06956 -0.434627 -0.518 145 106 91
0.0706829 -0.435466 -0.519 139 105 93
0.0718095 -0.436305 -0.52 136 102 90
0.07308 -0.437983 -0.522 132 100 89
0.0743581 -0.439661 -0.524 127 95 84
0.0756438 -0.441339 -0.526 114 95 91
0.0875581 -0.456442 -0.544 100 81 83
0.0885943 -0.456442 -0.544 100 84 85
0.0897952 -0.457281 -0.545 106 90 91
0.0908333 -0.457281 -0.545 111 100 104
0.0918714 -0.457281 -0.545 122 111 115
0.09308 -0.45812 -0.546 128 127 132
0.09412 -0.45812 -0.546 136 135 140
0.09516 -0.45812 -0.546 132 132 140
0.0960238 -0.457281 -0.545 127 127 135
0.0970619 -0.457281 -0.545 97 113 139
0.0981 -0.457281 -0.545 71 87 113
0.0989562 -0.456442 -0.544 54 82 129
0.0999924 -0.456442 -0.544 46 74 121
0.101029 -0.456442 -0.544 56 84 134
0.426894 -0.470706 -0.561 92 130 177
0.427963 -0.470706 -0.561 93 131 178
0.429031 -0.470706 -0.561 121 156 198
0.4301 -0.470706 -0.561 143 178 220
0.431169 -0.470706 -0.561 163 189 224
0.432237 -0.470706 -0.561 163 189 224
0.433306 -0.470706 -0.561 181 207 242
0.434374 -0.470706 -0.561 184 212 233
0.436219 -0.471545 -0.562 149 177 198
0.43729 -0.471545 -0.562 122 135 169
0.43836 -0.471545 -0.562 166 179 213
0.440212 -0.472384 -0.563 189 201 239
0.441285 -0.472384 -0.563 185 197 235
0.442357 -0.472384 -0.563 153 182 212
0.44343 -0.472384 -0.563 145 174 204
0.444502 -0.472384 -0.563 114 136 185
0.446366 -0.473223 -0.564 99 121 170
0.44744 -0.473223 -0.564 84 114 168
0.448514 -0.473223 -0.564 92 122 176
0.449589 -0.473223 -0.564 148 172 208
0.450663 -0.473223 -0.564 180 204 240
0.451737 -0.473223 -0.564 200 205 211
0.452811 -0.473223 -0.564 202 207 213
0.453886 -0.473223 -0.564 197 199 196
0.45496 -0.473223 -0.564 167 169 166
0.456034 -0.473223 -0.564 167 166 164
0.457109 -0.473223 -0.564 196 195 193
0.458995 -0.474062 -0.565 209 213 216
0.459257 -0.473223 -0.564 203 207 210
0.460331 -0.473223 -0.564 204 208 211
0.461406 -0.473223 -0.564 188 192 195
0.46248 -0.473223 -0.564 143 167 193
0.464376 -0.474062 -0.565 116 140 166
0.465452 -0.474062 -0.565 93 124 168
0.465703 -0.473223 -0.564 116 147 191
0.466777 -0.473223 -0.564 139 163 201
0.467851 -0.473223 -0.564 154 178 216
0.468926 -0.473223 -0.564 155 182 203
0.47 -0.473223 -0.564 166 193 214
0.471074 -0.473223 -0.564 178 185 204
0.472149 -0.473223 -0.564 171 178 197
0.473223 -0.473223 -0.564 147 166 198
0.474297 -0.473223 -0.564 123 142 174
0.475371 -0.473223 -0.564 97 127 163
0.476446 -0.473223 -0.564 89 119 155
0.478367 -0.474062 -0.565 121 133 157
0.479443 -0.474062 -0.565 151 163 187
0.479669 -0.473223 -0.564 186 188 200
0.480743 -0.473223 -0.564 194 196 208
0.481817 -0.473223 -0.564 189 190 192
0.482891 -0.473223 -0.564 194 195 197
0.483966 -0.473223 -0.564 184 191 210
0.48504 -0.473223 -0.564 184 191 210
0.486976 -0.474062 -0.565 180 187 206
0.488052 -0.474062 -0.565 182 186 195
0.489129 -0.474062 -0.565 179 183 192
0.490205 -0.474062 -0.565 176 185 194
0.491281 -0.474062 -0.565 166 175 184
0.492357 -0.474062 -0.565 119 136 166
0.493433 -0.474062 -0.565 76 93 123
0.49451 -0.474062 -0.565 73 94 139
0.496463 -0.474901 -0.566 83 104 149
0.497541 -0.474901 -0.566 106 123 166
0.497738 -0.474062 -0.565 119 136 179
0.498814 -0.474062 -0.565 140 157 187
0.49989 -0.474062 -0.565 153 170 200
0.500967 -0.474062 -0.565 139 164 195
0.502043 -0.474062 -0.565 109 134 165
0.507 -0.45812 -0.546 131 104 95
0.504318 -0.454764 -0.542 132 105 96
0.501621 -0.451408 -0.538 131 104 93
0.498909 -0.448051 -0.534 132 105 94
0.496181 -0.444695 -0.53 133 109 99
0.494376 -0.442178 -0.527 134 110 100
0.4935 -0.4405 -0.525 136 112 102
0.491674 -0.437983 -0.522 137 113 103
0.490781 -0.436305 -0.52 142 114 102
0.488934 -0.433788 -0.517 144 116 104
0.488024 -0.43211 -0.515 148 115 98
0.487106 -0.430431 -0.513 148 115 98
0.48618 -0.428753 -0.511 151 114 95
0.485247 -0.427075 -0.509 153 116 97
0.484306 -0.425397 -0.507 155 118 99
0.484314 -0.424558 -0.506 156 119 100
0.48336 -0.42288 -0.504 158 120 99
0.483359 -0.422041 -0.503 159 121 100
0.482391 -0.420363 -0.501 162 122 97
0.482381 -0.419524 -0.5 162 122 97
0.482367 -0.418685 -0.499 164 122 97
0.482349 -0.417846 -0.498 167 125 100
0.482327 -0.417007 -0.497 167 126 98
0.482301 -0.416168 -0.496 167 126 98
0.482271 -0.415329 -0.495 171 127 98
0.482238 -0.41449 -0.494 171 127 98
0.483179 -0.41449 -0.494 172 127 96
0.48314 -0.41365 -0.493 173 128 97
0.483097 -0.412811 -0.492 174 129 96
0.484034 -0.412811 -0.492 174 129 96
0.484971 -0.412811 -0.492 177 132 99
0.485909 -0.412811 -0.492 177 132 99
0.485856 -0.411972 -0.491 177 132 99
0.486791 -0.411972 -0.491 178 132 99
0.487727 -0.411972 -0.491 177 131 98
0.487667 -0.411133 -0.49 178 132 99
0.4886 -0.411133 -0.49 180 134 101
0.489533 -0.411133 -0.49 181 135 102
0.490467 -0.411133 -0.49 180 134 101
0.490397 -0.410294 -0.489 183 137 103
0.491329 -0.410294 -0.489 184 138 104
0.49226 -0.410294 -0.489 185 136 103
0.492183 -0.409455 -0.488 184 135 102
0.493112 -0.409455 -0.488 182 133 100
0.494042 -0.409455 -0.488 182 133 100
0.493957 -0.408616 -0.487 182 133 101
0.494885 -0.408616 -0.487 184 135 103
0.495812 -0.408616 -0.487 186 137 105
0.49572 -0.407777 -0.486 185 136 104
0.495624 -0.406938 -0.485 185 136 104
0.496548 -0.406938 -0.485 185 136 104
0.497471 -0.406938 -0.485 184 135 102
0.497368 -0.406099 -0.484 184 135 102
0.49829 -0.406099 -0.484 182 133 100
0.49818 -0.40526 -0.483 184 135 102
0.4991 -0.40526 -0.483 185 136 104
0.50002 -0.40526 -0.483 186 137 105
0.499903 -0.404421 -0.482 187 138 106
0.500821 -0.404421 -0.482 186 137 105
0.500698 -0.403582 -0.481 186 137 105
0.501614 -0.403582 -0.481 184 135 103
0.50253 -0.403582 -0.481 184 135 103
0.503447 -0.403582 -0.481 183 134 102
0.504363 -0.403582 -0.481 183 134 102
0.505279 -0.403582 -0.481 184 135 103
0.506195 -0.403582 -0.481 181 135 102
0.507111 -0.403582 -0.481 179 133 100
0.508028 -0.403582 -0.481 178 132 99
0.508944 -0.403582 -0.481 177 131 98
0.50986 -0.403582 -0.481 176 130 97
0.511838 -0.404421 -0.482 174 128 95
0.512756 -0.404421 -0.482 172 126 93
0.513674 -0.404421 -0.482 171 125 92
0.514592 -0.404421 -0.482 170 124 90
0.51658 -0.40526 -0.483 169 123 89
0.5175 -0.40526 -0.483 168 122 88
0.519493 -0.406099 -0.484 167 121 87
0.52149 -0.406938 -0.485 167 123 86
0.523491 -0.407777 -0.486 167 123 86
0.525496 -0.408616 -0.487 165 122 87
0.527505 -0.409455 -0.488 163 120 85
0.5306 -0.411133 -0.49 162 119 85
0.533703 -0.412811 -0.492 160 117 83
-0.0133971 -0.438136 -0.521 183 149 121
-0.0123571 -0.436454 -0.519 189 152 123
-0.0113029 -0.433931 -0.516 186 149 120
-0.01024 -0.430568 -0.512 189 148 116
-0.00921048 -0.428045 -0.509 190 149 117
-0.00819238 -0.425522 -0.506 194 150 121
-0.00718571 -0.422999 -0.503 195 151 122
-0.00620286 -0.421317 -0.501 194 150 123
-0.00522762 -0.419635 -0.499 192 148 121
-0.00426857 -0.418794 -0.498 193 149 120
-0.00330667 -0.417112 -0.496 197 153 124
-0.0023619 -0.417112 -0.496 196 153 121
-0.00141429 -0.416271 -0.495 195 152 120
-0.000470476 -0.41543 -0.494 197 154 122
0.000471429 -0.416271 -0.495 196 153 121
0.00141143 -0.41543 -0.494 199 156 124
0.00235238 -0.41543 -0.494 199 156 124
0.00329333 -0.41543 -0.494 198 155 123
0.00423429 -0.41543 -0.494 197 154 122
0.00517524 -0.41543 -0.494 198 153 122
0.00611619 -0.41543 -0.494 197 152 121
0.00705714 -0.41543 -0.494 197 152 121
0.0079981 -0.41543 -0.494 196 151 120
