ply
format ascii 1.0
comment Created by Open3D
element vertex 1319
property double x
property double y
property double z
property uchar red
property uchar green
property uchar blue
end_header
0.2117 -0.25578 -0.609 125 74 79
0.213909 -0.25704 -0.612 117 66 71
0.216129 -0.2583 -0.615 116 67 73
0.21836 -0.25956 -0.618 120 71 77
0.220603 -0.26082 -0.621 126 69 78
0.222857 -0.26208 -0.624 127 70 79
0.225123 -0.26334 -0.627 123 71 83
0.2274 -0.2646 -0.63 122 70 82
0.229689 -0.26586 -0.633 121 73 85
0.231624 -0.2667 -0.635 121 73 85
0.233933 -0.26796 -0.638 119 69 78
0.235517 -0.26838 -0.639 113 63 72
0.237475 -0.26922 -0.641 114 65 71
0.239069 -0.26964 -0.642 114 65 71
0.240291 -0.26964 -0.642 114 65 71
0.242267 -0.27048 -0.644 115 68 74
0.243871 -0.2709 -0.645 119 72 78
0.24586 -0.27174 -0.647 120 75 80
0.247856 -0.27258 -0.649 121 76 81
0.371614 -0.2457 -0.585 144 98 111
0.369543 -0.2436 -0.58 144 96 112
0.367452 -0.2415 -0.575 143 95 111
0.366625 -0.24024 -0.572 152 94 109
0.365786 -0.23898 -0.569 148 90 105
0.36558 -0.23814 -0.567 139 89 101
0.365367 -0.2373 -0.565 138 88 100
0.364497 -0.23604 -0.562 136 90 101
0.364267 -0.2352 -0.56 137 91 102
0.363376 -0.23394 -0.557 140 92 106
0.362474 -0.23268 -0.554 140 92 106
0.36353 -0.23268 -0.554 140 92 106
0.363269 -0.23184 -0.552 140 94 107
0.36234 -0.23058 -0.549 140 94 107
0.362724 -0.23016 -0.548 139 103 113
0.36244 -0.22932 -0.546 157 121 131
0.362814 -0.2289 -0.545 142 117 123
0.365855 -0.23016 -0.548 121 89 94
0.36623 -0.22974 -0.547 115 84 89
0.367271 -0.22974 -0.547 115 84 89
0.368313 -0.22974 -0.547 110 84 93
0.37003 -0.23016 -0.548 111 85 94
0.371751 -0.23058 -0.549 111 84 91
0.373476 -0.231 -0.55 110 83 90
0.375886 -0.23184 -0.552 111 82 87
0.37762 -0.23226 -0.553 110 81 86
0.379358 -0.23268 -0.554 114 83 89
0.380413 -0.23268 -0.554 119 88 94
0.382157 -0.2331 -0.555 129 97 102
0.383214 -0.2331 -0.555 128 96 101
0.384271 -0.2331 -0.555 132 96 100
0.385329 -0.2331 -0.555 134 98 102
0.386386 -0.2331 -0.555 137 98 103
0.388141 -0.23352 -0.556 137 98 103
0.3885 -0.2331 -0.555 140 101 106
0.389557 -0.2331 -0.555 140 101 106
0.38991 -0.23268 -0.554 142 103 108
0.390966 -0.23268 -0.554 146 104 106
0.391313 -0.23226 -0.553 146 104 106
0.391657 -0.23184 -0.552 144 102 104
0.392709 -0.23184 -0.552 143 101 103
0.393047 -0.23142 -0.551 143 101 103
0.393381 -0.231 -0.55 145 103 105
0.393711 -0.23058 -0.549 148 103 106
0.394038 -0.23016 -0.548 147 102 105
0.394361 -0.22974 -0.547 147 103 104
0.39468 -0.22932 -0.546 147 103 104
0.39572 -0.22932 -0.546 146 102 103
0.396033 -0.2289 -0.545 145 101 102
0.397071 -0.2289 -0.545 142 98 99
0.39811 -0.2289 -0.545 140 96 97
0.398415 -0.22848 -0.544 139 95 96
0.399451 -0.22848 -0.544 140 96 97
0.399751 -0.22806 -0.543 139 94 97
0.400786 -0.22806 -0.543 140 95 98
0.40182 -0.22806 -0.543 140 96 97
0.402854 -0.22806 -0.543 139 95 96
0.403145 -0.22764 -0.542 139 95 94
0.404177 -0.22764 -0.542 141 97 96
0.40521 -0.22764 -0.542 142 96 96
0.406242 -0.22764 -0.542 142 96 96
0.407274 -0.22764 -0.542 141 95 95
0.408307 -0.22764 -0.542 138 92 92
0.408584 -0.22722 -0.541 137 91 91
0.409614 -0.22722 -0.541 137 92 89
0.410645 -0.22722 -0.541 136 91 88
0.411675 -0.22722 -0.541 136 91 86
0.412706 -0.22722 -0.541 136 91 86
0.412971 -0.2268 -0.54 138 90 88
0.414 -0.2268 -0.54 137 89 87
0.415029 -0.2268 -0.54 136 88 86
0.415287 -0.22638 -0.539 136 88 86
0.416313 -0.22638 -0.539 138 90 88
0.416566 -0.22596 -0.538 140 92 90
0.41759 -0.22596 -0.538 140 92 88
0.417837 -0.22554 -0.537 140 92 88
0.41886 -0.22554 -0.537 140 92 88
0.419883 -0.22554 -0.537 139 91 87
0.420906 -0.22554 -0.537 140 92 88
0.421143 -0.22512 -0.536 140 92 88
0.422164 -0.22512 -0.536 141 93 89
0.423185 -0.22512 -0.536 141 93 89
0.424206 -0.22512 -0.536 139 91 87
0.425227 -0.22512 -0.536 138 90 86
0.426248 -0.22512 -0.536 137 90 84
0.426471 -0.2247 -0.535 135 88 82
0.42749 -0.2247 -0.535 135 88 82
0.42851 -0.2247 -0.535 135 88 82
0.429529 -0.2247 -0.535 132 85 79
0.430548 -0.2247 -0.535 133 85 81
0.431567 -0.2247 -0.535 134 86 82
0.431777 -0.22428 -0.534 133 85 81
0.432794 -0.22428 -0.534 133 85 81
0.432999 -0.22386 -0.533 136 89 83
0.434014 -0.22386 -0.533 136 89 83
0.43503 -0.22386 -0.533 139 92 84
0.436045 -0.22386 -0.533 138 91 83
0.43706 -0.22386 -0.533 138 91 85
0.437253 -0.22344 -0.532 138 91 85
0.438267 -0.22344 -0.532 138 91 85
0.43928 -0.22344 -0.532 139 92 86
0.440293 -0.22344 -0.532 142 95 87
0.441307 -0.22344 -0.532 145 98 90
0.44232 -0.22344 -0.532 144 94 87
0.443333 -0.22344 -0.532 143 93 86
0.443511 -0.22302 -0.531 141 92 85
0.444523 -0.22302 -0.531 141 92 85
0.445534 -0.22302 -0.531 141 92 85
0.447387 -0.22344 -0.532 141 92 85
0.447557 -0.22302 -0.531 143 93 86
0.448569 -0.22302 -0.531 143 93 86
0.44958 -0.22302 -0.531 140 91 84
0.450591 -0.22302 -0.531 139 90 83
0.452453 -0.22344 -0.532 136 89 83
0.453467 -0.22344 -0.532 137 90 84
0.45448 -0.22344 -0.532 140 93 87
0.455493 -0.22344 -0.532 140 93 87
0.456507 -0.22344 -0.532 142 95 89
0.45838 -0.22386 -0.533 143 94 87
0.459395 -0.22386 -0.533 144 95 88
0.46041 -0.22386 -0.533 145 98 90
0.461426 -0.22386 -0.533 146 99 91
0.463309 -0.22428 -0.534 147 99 89
0.464326 -0.22428 -0.534 147 99 89
0.466214 -0.2247 -0.535 146 98 88
0.468107 -0.22512 -0.536 144 96 86
0.470003 -0.22554 -0.537 141 94 86
0.47278 -0.22638 -0.539 140 93 85
0.474686 -0.2268 -0.54 138 93 87
0.476595 -0.22722 -0.541 139 94 88
0.479391 -0.22806 -0.543 142 95 89
0.482195 -0.2289 -0.545 143 96 90
0.485007 -0.22974 -0.547 142 97 91
0.487826 -0.23058 -0.549 144 99 93
0.491543 -0.23184 -0.552 145 100 95
0.494379 -0.23268 -0.554 142 97 92
0.498117 -0.23394 -0.557 142 98 95
0.501867 -0.2352 -0.56 140 96 93
-0.135154 -0.273394 -0.648 114 115 117
-0.120267 -0.259893 -0.616 106 107 112
-0.118127 -0.257784 -0.611 102 103 108
-0.116006 -0.255674 -0.606 97 98 103
-0.114093 -0.253987 -0.602 95 96 101
-0.112384 -0.252721 -0.599 94 95 100
-0.110686 -0.251455 -0.596 93 94 99
-0.109183 -0.250611 -0.594 91 92 97
-0.107688 -0.249768 -0.592 88 89 94
-0.1062 -0.248924 -0.59 88 88 96
-0.104898 -0.248502 -0.589 88 88 96
-0.1036 -0.24808 -0.588 87 87 95
-0.102306 -0.247658 -0.587 85 85 93
-0.101188 -0.247658 -0.587 90 90 98
-0.10007 -0.247658 -0.587 92 92 100
-0.09912 -0.24808 -0.588 95 95 103
-0.098 -0.24808 -0.588 106 106 114
-0.0970448 -0.248502 -0.589 99 99 107
-0.0962486 -0.249346 -0.591 76 76 84
-0.0954448 -0.25019 -0.593 52 52 60
-0.0946333 -0.251033 -0.595 54 54 62
-0.0936571 -0.251455 -0.596 57 57 65
-0.0928324 -0.252299 -0.598 58 59 64
-0.0918467 -0.252721 -0.599 60 61 66
-0.0910086 -0.253565 -0.601 61 62 67
-0.0901629 -0.254409 -0.603 61 62 67
-0.0893095 -0.255252 -0.605 63 64 69
-0.0884486 -0.256096 -0.607 65 66 71
-0.0874362 -0.256518 -0.608 68 69 74
-0.0865619 -0.257362 -0.61 69 70 75
-0.08554 -0.257784 -0.611 70 71 76
-0.0846524 -0.258628 -0.613 69 70 75
-0.083621 -0.25905 -0.614 72 71 77
-0.0825857 -0.259471 -0.615 73 72 78
-0.0815467 -0.259893 -0.616 74 73 79
-0.0803733 -0.259893 -0.616 75 74 80
-0.0793286 -0.260315 -0.617 76 75 81
-0.0781533 -0.260315 -0.617 76 75 81
-0.0771029 -0.260737 -0.618 76 75 81
-0.0759257 -0.260737 -0.618 76 75 81
-0.0748695 -0.261159 -0.619 76 75 81
-0.0736905 -0.261159 -0.619 76 75 81
-0.0726286 -0.261581 -0.62 77 76 81
-0.0715629 -0.262003 -0.621 77 76 81
-0.07038 -0.262003 -0.621 77 76 81
-0.0693086 -0.262425 -0.622 76 75 80
-0.0681238 -0.262425 -0.622 75 74 79
-0.0670467 -0.262847 -0.623 76 75 80
-0.06586 -0.262847 -0.623 73 72 78
-0.0647771 -0.263269 -0.624 73 72 78
-0.0636905 -0.26369 -0.625 74 73 79
-0.0625 -0.26369 -0.625 74 73 79
-0.0614076 -0.264112 -0.626 74 73 79
-0.0603114 -0.264534 -0.627 74 73 79
-0.0592114 -0.264956 -0.628 74 73 79
-0.0580152 -0.264956 -0.628 74 73 79
-0.0569095 -0.265378 -0.629 73 72 78
-0.0558 -0.2658 -0.63 73 72 78
-0.0546 -0.2658 -0.63 74 73 81
-0.0534848 -0.266222 -0.631 73 72 80
-0.0523657 -0.266644 -0.632 72 71 79
-0.0511619 -0.266644 -0.632 71 70 78
-0.0500371 -0.267066 -0.633 72 71 79
-0.0489086 -0.267488 -0.634 72 71 79
-0.0477762 -0.26791 -0.635 73 72 80
-0.04664 -0.268331 -0.636 73 72 80
-0.0454286 -0.268331 -0.636 73 72 80
-0.0442867 -0.268753 -0.637 84 83 91
-0.043141 -0.269175 -0.638 113 112 120
-0.0419914 -0.269597 -0.639 119 118 126
-0.0408381 -0.270019 -0.64 101 100 108
-0.039681 -0.270441 -0.641 80 79 87
-0.03852 -0.270863 -0.642 73 72 80
-0.0373552 -0.271285 -0.643 75 74 82
-0.0361867 -0.271707 -0.644 74 73 81
-0.0350143 -0.272129 -0.645 73 72 80
-0.0337857 -0.272129 -0.645 74 73 81
-0.0326076 -0.27255 -0.646 71 70 78
-0.0314743 -0.273394 -0.648 76 75 83
-0.0302867 -0.273816 -0.649 72 71 79
-0.0290505 -0.273816 -0.649 73 71 82
-0.0278571 -0.274238 -0.65 72 70 81
0.168014 -0.261159 -0.619 195 152 146
0.1681 -0.259471 -0.615 193 150 143
0.16817 -0.257784 -0.611 194 151 144
0.168503 -0.256518 -0.608 196 152 143
0.168266 -0.254409 -0.603 200 156 147
0.169133 -0.253987 -0.602 200 156 147
0.169149 -0.252299 -0.598 194 150 141
0.169718 -0.251455 -0.596 192 145 137
0.17028 -0.250611 -0.594 192 145 137
0.171123 -0.25019 -0.593 189 142 132
0.171962 -0.249768 -0.592 182 135 125
0.172505 -0.248924 -0.59 184 136 126
0.173334 -0.248502 -0.589 194 146 136
0.17416 -0.24808 -0.588 199 154 148
0.174982 -0.247658 -0.587 195 150 144
0.1758 -0.247236 -0.586 193 149 140
0.176614 -0.246814 -0.585 195 151 142
0.177425 -0.246392 -0.584 192 148 137
0.177926 -0.245549 -0.582 192 148 137
0.179034 -0.245549 -0.582 197 150 140
0.180143 -0.245549 -0.582 197 150 140
0.181251 -0.245549 -0.582 194 147 137
0.182047 -0.245127 -0.581 194 145 138
0.183153 -0.245127 -0.581 190 141 134
0.184577 -0.245549 -0.582 189 139 132
0.185686 -0.245549 -0.582 185 135 128
0.187115 -0.24597 -0.583 187 130 123
0.188226 -0.24597 -0.583 186 129 122
0.189661 -0.246392 -0.584 189 127 114
0.1911 -0.246814 -0.585 185 123 110
0.192543 -0.247236 -0.586 174 114 103
0.19432 -0.24808 -0.588 170 110 99
0.195772 -0.248502 -0.589 167 108 100
0.197563 -0.249346 -0.591 161 102 94
0.199697 -0.250611 -0.594 152 97 92
0.201505 -0.251455 -0.596 149 94 89
0.20332 -0.252299 -0.598 143 92 89
0.205485 -0.253565 -0.601 139 88 85
0.207317 -0.254409 -0.603 132 82 85
0.209503 -0.255674 -0.606 129 79 82
0.212048 -0.257362 -0.61 121 72 76
0.214258 -0.258628 -0.613 113 64 68
0.216831 -0.260315 -0.617 112 65 71
0.219067 -0.261581 -0.62 115 68 74
0.221313 -0.262847 -0.623 120 67 73
0.223571 -0.264112 -0.626 121 68 74
0.225841 -0.265378 -0.629 118 69 75
0.228122 -0.266644 -0.632 119 70 76
0.230414 -0.26791 -0.635 119 72 80
0.232353 -0.268753 -0.637 116 69 77
0.234667 -0.270019 -0.64 114 65 71
0.236254 -0.270441 -0.641 112 63 69
0.237846 -0.270863 -0.642 115 66 70
0.239813 -0.271707 -0.644 115 66 70
0.24104 -0.271707 -0.644 115 66 70
0.242643 -0.272129 -0.645 116 69 75
0.24425 -0.27255 -0.646 117 70 76
0.24624 -0.273394 -0.648 116 69 75
0.248238 -0.274238 -0.65 116 69 75
0.375426 -0.249346 -0.591 141 91 102
0.371454 -0.24597 -0.583 137 91 102
0.36937 -0.243861 -0.578 133 87 98
0.367907 -0.242173 -0.574 146 89 106
0.367071 -0.240908 -0.571 147 90 107
0.36687 -0.240064 -0.569 143 91 104
0.366013 -0.238798 -0.566 140 88 101
0.365794 -0.237954 -0.564 137 89 101
0.365568 -0.23711 -0.562 138 90 102
0.365333 -0.236267 -0.56 137 94 104
0.364437 -0.235001 -0.557 139 96 106
0.365498 -0.235001 -0.557 139 96 106
0.365243 -0.234157 -0.555 136 94 104
0.36432 -0.232891 -0.552 137 95 105
0.36471 -0.23247 -0.551 137 100 107
0.365095 -0.232048 -0.55 154 117 124
0.365477 -0.231626 -0.549 151 119 124
0.365855 -0.231204 -0.548 121 89 94
0.36623 -0.230782 -0.547 115 84 89
0.367271 -0.230782 -0.547 115 84 89
0.368313 -0.230782 -0.547 110 84 93
0.37003 -0.231204 -0.548 111 85 94
0.371751 -0.231626 -0.549 111 84 91
0.373476 -0.232048 -0.55 110 83 90
0.375886 -0.232891 -0.552 111 82 87
0.37762 -0.233313 -0.553 110 81 86
0.379358 -0.233735 -0.554 114 83 89
0.380413 -0.233735 -0.554 119 88 94
0.382157 -0.234157 -0.555 129 97 102
0.383214 -0.234157 -0.555 128 96 101
0.384271 -0.234157 -0.555 132 96 100
0.385329 -0.234157 -0.555 134 98 102
0.386386 -0.234157 -0.555 137 98 103
0.388141 -0.234579 -0.556 137 98 103
0.3885 -0.234157 -0.555 140 101 106
0.388855 -0.233735 -0.554 143 104 107
0.389207 -0.233313 -0.553 144 105 108
0.389554 -0.232891 -0.552 145 103 105
0.389898 -0.23247 -0.551 146 104 106
0.390238 -0.232048 -0.55 146 104 106
0.391286 -0.232048 -0.55 144 102 104
0.392333 -0.232048 -0.55 144 102 103
0.392666 -0.231626 -0.549 145 103 104
0.392994 -0.231204 -0.548 148 104 105
0.393319 -0.230782 -0.547 149 105 106
0.39364 -0.23036 -0.546 148 104 105
0.39468 -0.23036 -0.546 147 103 104
0.394995 -0.229938 -0.545 146 102 103
0.396033 -0.229938 -0.545 145 101 102
0.397071 -0.229938 -0.545 144 100 99
0.39811 -0.229938 -0.545 142 98 97
0.398415 -0.229516 -0.544 140 96 95
0.399451 -0.229516 -0.544 139 95 94
0.399751 -0.229094 -0.543 139 93 95
0.400786 -0.229094 -0.543 141 95 97
0.40182 -0.229094 -0.543 142 96 96
0.402854 -0.229094 -0.543 142 96 96
0.403145 -0.228672 -0.542 142 96 96
0.404177 -0.228672 -0.542 143 97 97
0.40521 -0.228672 -0.542 142 96 96
0.406242 -0.228672 -0.542 142 96 96
0.407274 -0.228672 -0.542 141 95 95
0.407553 -0.22825 -0.541 140 95 92
0.408584 -0.22825 -0.541 140 95 92
0.409614 -0.22825 -0.541 141 93 89
0.410645 -0.22825 -0.541 141 93 89
0.411675 -0.22825 -0.541 140 92 88
0.412706 -0.22825 -0.541 140 92 88
0.412971 -0.227829 -0.54 139 91 87
0.414 -0.227829 -0.54 139 91 87
0.41426 -0.227407 -0.539 138 90 86
0.415287 -0.227407 -0.539 138 90 86
0.416313 -0.227407 -0.539 139 91 87
0.416566 -0.226985 -0.538 139 91 87
0.41759 -0.226985 -0.538 140 92 88
0.417837 -0.226563 -0.537 141 93 89
0.41886 -0.226563 -0.537 141 93 89
0.419883 -0.226563 -0.537 141 93 89
0.420122 -0.226141 -0.536 141 94 88
0.421143 -0.226141 -0.536 142 95 89
0.422164 -0.226141 -0.536 144 97 91
0.423185 -0.226141 -0.536 143 96 90
0.424206 -0.226141 -0.536 141 94 88
0.425227 -0.226141 -0.536 140 93 87
0.426248 -0.226141 -0.536 139 92 86
0.426471 -0.225719 -0.535 137 90 84
0.42749 -0.225719 -0.535 135 88 82
0.42851 -0.225719 -0.535 135 88 82
0.429529 -0.225719 -0.535 134 87 81
0.430548 -0.225719 -0.535 134 87 81
0.431567 -0.225719 -0.535 134 87 81
0.431777 -0.225297 -0.534 135 88 82
0.432794 -0.225297 -0.534 136 89 83
0.433811 -0.225297 -0.534 138 91 83
0.434014 -0.224875 -0.533 139 92 84
0.43503 -0.224875 -0.533 138 91 83
0.436045 -0.224875 -0.533 139 92 84
0.43706 -0.224875 -0.533 140 93 85
0.438075 -0.224875 -0.533 140 93 85
0.438267 -0.224453 -0.532 139 92 84
0.43928 -0.224453 -0.532 139 92 84
0.440293 -0.224453 -0.532 142 95 85
0.441307 -0.224453 -0.532 144 97 87
0.44232 -0.224453 -0.532 145 95 84
0.443333 -0.224453 -0.532 144 94 83
0.444347 -0.224453 -0.532 142 94 84
0.44536 -0.224453 -0.532 141 93 83
0.446373 -0.224453 -0.532 141 93 83
0.447387 -0.224453 -0.532 141 93 83
0.4484 -0.224453 -0.532 141 93 81
0.448569 -0.224031 -0.531 141 93 81
0.44958 -0.224031 -0.531 141 93 81
0.450591 -0.224031 -0.531 138 90 78
0.452453 -0.224453 -0.532 135 88 78
0.453467 -0.224453 -0.532 136 89 79
0.45448 -0.224453 -0.532 139 92 82
0.455493 -0.224453 -0.532 139 92 82
0.456507 -0.224453 -0.532 142 95 85
0.45752 -0.224453 -0.532 145 97 87
0.459395 -0.224875 -0.533 146 98 88
0.46041 -0.224875 -0.533 144 97 87
0.461426 -0.224875 -0.533 145 98 88
0.463309 -0.225297 -0.534 145 97 87
0.464326 -0.225297 -0.534 147 99 89
0.466214 -0.225719 -0.535 147 99 89
0.468107 -0.226141 -0.536 145 97 87
0.470003 -0.226563 -0.537 142 95 87
0.47278 -0.227407 -0.539 139 92 84
0.474686 -0.227829 -0.54 141 94 86
0.476595 -0.22825 -0.541 140 93 85
0.479391 -0.229094 -0.543 140 93 85
0.481311 -0.229516 -0.544 140 93 85
0.48412 -0.23036 -0.546 143 96 88
0.487826 -0.231626 -0.549 145 98 90
0.490652 -0.23247 -0.551 144 99 93
0.493487 -0.233313 -0.553 143 98 92
0.497223 -0.234579 -0.556 139 98 94
0.500074 -0.235423 -0.558 136 95 91
-0.13392 -0.274629 -0.648 114 115 119
-0.132071 -0.273357 -0.645 112 113 117
-0.130031 -0.271662 -0.641 109 110 115
-0.127806 -0.269543 -0.636 107 108 113
-0.125599 -0.267424 -0.631 115 116 121
-0.123214 -0.264881 -0.625 124 125 130
-0.120657 -0.261914 -0.618 127 128 132
-0.11832 -0.259371 -0.612 125 126 130
-0.116197 -0.257252 -0.607 124 125 129
-0.114093 -0.255133 -0.602 124 125 129
-0.112196 -0.253438 -0.598 126 127 131
-0.1105 -0.252167 -0.595 126 127 131
-0.108999 -0.251319 -0.593 125 126 131
-0.107324 -0.250048 -0.59 124 125 130
-0.10602 -0.249624 -0.589 122 121 127
-0.10472 -0.2492 -0.588 122 121 127
-0.103424 -0.248776 -0.587 120 119 125
-0.102131 -0.248352 -0.586 117 116 122
-0.101015 -0.248352 -0.586 119 118 126
-0.0998991 -0.248352 -0.586 119 118 126
-0.0989514 -0.248776 -0.587 117 116 124
-0.0978333 -0.248776 -0.587 123 122 130
-0.0970448 -0.249624 -0.589 100 100 108
-0.0960857 -0.250048 -0.59 74 74 82
-0.0954448 -0.251319 -0.593 56 56 64
-0.0946333 -0.252167 -0.595 57 57 65
-0.0936571 -0.25259 -0.596 58 58 66
-0.0928324 -0.253438 -0.598 58 58 66
-0.0918467 -0.253862 -0.599 59 59 67
-0.0910086 -0.25471 -0.601 62 61 69
-0.0903124 -0.255981 -0.604 62 61 69
-0.0894571 -0.256829 -0.606 62 61 67
-0.0884486 -0.257252 -0.607 64 63 69
-0.08758 -0.2581 -0.609 66 65 71
-0.0865619 -0.258524 -0.61 68 67 73
-0.08568 -0.259371 -0.612 69 68 74
-0.0847905 -0.260219 -0.614 70 69 75
-0.0837571 -0.260643 -0.615 72 71 79
-0.08272 -0.261067 -0.616 72 71 79
-0.081679 -0.26149 -0.617 73 72 80
-0.0805038 -0.26149 -0.617 74 73 81
-0.0793286 -0.26149 -0.617 75 74 82
-0.07828 -0.261914 -0.618 75 74 82
-0.0771029 -0.261914 -0.618 75 74 80
-0.0760486 -0.262338 -0.619 75 74 80
-0.0749905 -0.262762 -0.62 76 75 81
-0.0738095 -0.262762 -0.62 76 75 81
-0.0727457 -0.263186 -0.621 77 76 82
-0.0716781 -0.26361 -0.622 78 77 83
-0.0704933 -0.26361 -0.622 77 76 82
-0.06942 -0.264033 -0.623 76 75 81
-0.0682333 -0.264033 -0.623 76 75 81
-0.0670467 -0.264033 -0.623 77 76 82
-0.0659657 -0.264457 -0.624 74 73 79
-0.064881 -0.264881 -0.625 74 73 79
-0.0636905 -0.264881 -0.625 73 72 78
-0.0626 -0.265305 -0.626 73 72 78
-0.0615057 -0.265729 -0.627 73 72 78
-0.0603114 -0.265729 -0.627 73 72 78
-0.0592114 -0.266152 -0.628 73 72 80
-0.0581076 -0.266576 -0.629 73 72 80
-0.057 -0.267 -0.63 73 72 80
-0.0558 -0.267 -0.63 74 73 81
-0.0546867 -0.267424 -0.631 74 73 81
-0.0535695 -0.267848 -0.632 73 72 80
-0.0523657 -0.267848 -0.632 72 71 79
-0.0512429 -0.268271 -0.633 71 70 78
-0.0501162 -0.268695 -0.634 71 70 78
-0.0489857 -0.269119 -0.635 72 71 79
-0.0477762 -0.269119 -0.635 73 71 82
-0.04664 -0.269543 -0.636 68 66 77
-0.0455 -0.269967 -0.637 74 72 83
-0.0443562 -0.27039 -0.638 74 72 83
-0.0432086 -0.270814 -0.639 76 74 85
-0.0420571 -0.271238 -0.64 77 75 86
-0.0409019 -0.271662 -0.641 70 68 79
-0.0397429 -0.272086 -0.642 77 75 86
-0.03858 -0.27251 -0.643 79 77 88
-0.0373552 -0.27251 -0.643 72 70 81
-0.0361867 -0.272933 -0.644 78 76 87
-0.0350143 -0.273357 -0.645 76 74 85
-0.0338381 -0.273781 -0.646 76 74 85
-0.0326581 -0.274205 -0.647 70 68 79
-0.0314743 -0.274629 -0.648 73 71 82
-0.0302867 -0.275052 -0.649 71 69 80
-0.0290505 -0.275052 -0.649 73 71 82
-0.0278571 -0.275476 -0.65 72 70 81
0.167762 -0.275476 -0.65 202 164 161
0.165029 -0.257676 -0.608 198 153 148
0.165367 -0.256405 -0.605 199 152 144
0.165418 -0.25471 -0.601 200 153 145
0.165731 -0.253438 -0.598 197 150 140
0.166033 -0.252167 -0.595 198 151 141
0.167167 -0.252167 -0.595 203 155 145
0.167734 -0.251319 -0.593 196 148 138
0.168294 -0.250471 -0.591 194 144 133
0.169133 -0.250048 -0.59 194 144 133
0.16968 -0.2492 -0.588 185 136 122
0.1708 -0.2492 -0.588 185 136 122
0.171335 -0.248352 -0.586 192 143 136
0.172451 -0.248352 -0.586 201 152 145
0.173271 -0.247929 -0.585 203 156 150
0.174088 -0.247505 -0.584 198 151 145
0.1749 -0.247081 -0.583 193 149 140
0.175709 -0.246657 -0.582 195 151 142
0.176513 -0.246233 -0.581 196 149 139
0.177314 -0.24581 -0.58 194 147 137
0.178419 -0.24581 -0.58 200 152 142
0.179524 -0.24581 -0.58 200 152 142
0.180629 -0.24581 -0.58 198 150 140
0.181733 -0.24581 -0.58 197 147 138
0.182838 -0.24581 -0.58 193 143 134
0.18426 -0.246233 -0.581 193 138 131
0.185367 -0.246233 -0.581 190 135 128
0.186794 -0.246657 -0.582 187 128 120
0.188226 -0.247081 -0.583 187 128 120
0.189661 -0.247505 -0.584 184 124 113
0.1911 -0.247929 -0.585 178 118 107
0.192543 -0.248352 -0.586 171 111 101
0.19432 -0.2492 -0.588 165 105 95
0.196105 -0.250048 -0.59 160 103 96
0.197897 -0.250895 -0.592 155 98 91
0.199697 -0.251743 -0.594 146 91 88
0.201505 -0.25259 -0.596 144 89 86
0.20366 -0.253862 -0.599 139 88 87
0.205827 -0.255133 -0.602 133 82 81
0.207661 -0.255981 -0.604 127 78 81
0.209849 -0.257252 -0.607 127 78 81
0.212395 -0.258948 -0.611 117 70 76
0.214608 -0.260219 -0.614 110 63 69
0.217183 -0.261914 -0.618 109 64 69
0.21942 -0.263186 -0.621 111 66 71
0.221669 -0.264457 -0.624 115 68 74
0.224286 -0.266152 -0.628 116 69 75
0.226559 -0.267424 -0.631 116 71 76
0.228844 -0.268695 -0.634 118 73 78
0.23114 -0.269967 -0.637 118 71 77
0.233083 -0.270814 -0.639 112 65 71
0.235033 -0.271662 -0.641 110 61 65
0.236991 -0.27251 -0.643 112 63 67
0.238587 -0.272933 -0.644 115 66 72
0.239813 -0.272933 -0.644 115 66 72
0.241414 -0.273357 -0.645 113 64 70
0.243019 -0.273781 -0.646 113 66 74
0.244628 -0.274205 -0.647 116 69 77
0.24662 -0.275052 -0.649 118 71 81
0.371287 -0.246233 -0.581 135 89 100
0.369189 -0.244114 -0.576 141 87 103
0.368357 -0.242843 -0.573 142 88 104
0.367514 -0.241571 -0.57 141 89 102
0.367307 -0.240724 -0.568 139 87 100
0.367091 -0.239876 -0.566 138 88 100
0.366869 -0.239029 -0.564 140 90 102
0.366638 -0.238181 -0.562 139 93 104
0.3664 -0.237333 -0.56 140 94 105
0.367467 -0.237333 -0.56 140 94 105
0.367217 -0.236486 -0.558 139 96 106
0.36696 -0.235638 -0.556 138 95 105
0.366695 -0.23479 -0.554 138 98 106
0.367087 -0.234367 -0.553 153 113 121
0.367474 -0.233943 -0.552 153 116 123
0.367858 -0.233519 -0.551 129 92 99
0.368238 -0.233095 -0.55 124 89 95
0.369286 -0.233095 -0.55 124 89 95
0.370333 -0.233095 -0.55 125 90 97
0.372056 -0.233519 -0.551 127 92 99
0.373106 -0.233519 -0.551 129 92 99
0.374834 -0.233943 -0.552 129 92 99
0.376567 -0.234367 -0.553 131 91 99
0.378303 -0.23479 -0.554 130 90 98
0.379358 -0.23479 -0.554 130 93 100
0.3811 -0.235214 -0.555 133 96 103
0.381469 -0.23479 -0.554 139 100 105
0.382524 -0.23479 -0.554 138 99 104
0.383579 -0.23479 -0.554 140 99 103
0.384634 -0.23479 -0.554 141 100 104
0.38569 -0.23479 -0.554 143 102 106
0.386745 -0.23479 -0.554 143 102 106
0.3878 -0.23479 -0.554 143 104 107
0.388855 -0.23479 -0.554 143 104 107
0.389207 -0.234367 -0.553 144 105 108
0.389554 -0.233943 -0.552 145 103 105
0.389898 -0.233519 -0.551 146 104 106
0.390238 -0.233095 -0.55 146 104 106
0.391286 -0.233095 -0.55 144 102 104
0.392333 -0.233095 -0.55 144 102 103
0.392666 -0.232671 -0.549 145 103 104
0.392994 -0.232248 -0.548 148 104 105
0.393319 -0.231824 -0.547 149 105 106
0.39364 -0.2314 -0.546 148 104 105
0.39468 -0.2314 -0.546 147 103 104
0.394995 -0.230976 -0.545 146 102 103
0.396033 -0.230976 -0.545 146 102 101
0.396343 -0.230552 -0.544 146 100 100
0.397379 -0.230552 -0.544 145 99 99
0.398415 -0.230552 -0.544 142 96 96
0.399451 -0.230552 -0.544 140 94 94
0.399751 -0.230129 -0.543 143 95 95
0.400048 -0.229705 -0.542 144 96 96
0.40108 -0.229705 -0.542 145 97 95
0.402112 -0.229705 -0.542 145 97 95
0.403145 -0.229705 -0.542 146 98 96
0.404177 -0.229705 -0.542 145 97 95
0.404462 -0.229281 -0.541 145 97 95
0.405492 -0.229281 -0.541 145 97 95
0.406523 -0.229281 -0.541 144 96 94
0.407553 -0.229281 -0.541 145 97 95
0.408584 -0.229281 -0.541 144 96 94
0.408857 -0.228857 -0.54 144 96 92
0.409886 -0.228857 -0.54 143 95 91
0.410914 -0.228857 -0.54 143 95 91
0.411943 -0.228857 -0.54 142 94 90
0.412971 -0.228857 -0.54 142 94 90
0.413233 -0.228433 -0.539 142 94 90
0.41426 -0.228433 -0.539 141 93 89
0.414516 -0.22801 -0.538 142 94 90
0.415541 -0.22801 -0.538 142 94 90
0.416566 -0.22801 -0.538 143 95 91
0.416814 -0.227586 -0.537 144 97 91
0.417837 -0.227586 -0.537 143 96 90
0.41886 -0.227586 -0.537 143 94 89
0.419883 -0.227586 -0.537 144 95 90
0.420122 -0.227162 -0.536 143 94 89
0.421143 -0.227162 -0.536 143 94 89
0.422164 -0.227162 -0.536 144 95 90
0.423185 -0.227162 -0.536 143 94 89
0.424206 -0.227162 -0.536 142 93 86
0.425227 -0.227162 -0.536 141 92 85
0.426248 -0.227162 -0.536 141 92 85
0.427269 -0.227162 -0.536 139 90 83
0.42749 -0.226738 -0.535 138 89 82
0.42851 -0.226738 -0.535 138 89 82
0.429529 -0.226738 -0.535 138 89 82
0.430548 -0.226738 -0.535 136 87 82
0.431567 -0.226738 -0.535 136 87 82
0.432586 -0.226738 -0.535 137 88 81
0.432794 -0.226314 -0.534 139 90 83
0.433811 -0.226314 -0.534 141 92 85
0.434829 -0.226314 -0.534 142 93 86
0.43503 -0.22589 -0.533 140 92 82
0.436045 -0.22589 -0.533 141 93 83
0.43706 -0.22589 -0.533 142 93 86
0.438075 -0.22589 -0.533 142 93 86
0.43909 -0.22589 -0.533 141 93 83
0.43928 -0.225467 -0.532 141 93 83
0.440293 -0.225467 -0.532 143 95 85
0.441307 -0.225467 -0.532 145 97 87
0.44232 -0.225467 -0.532 144 96 82
0.443333 -0.225467 -0.532 144 96 82
0.444347 -0.225467 -0.532 143 95 83
0.44536 -0.225467 -0.532 142 94 82
0.446373 -0.225467 -0.532 142 94 82
0.447387 -0.225467 -0.532 142 94 82
0.4484 -0.225467 -0.532 142 94 80
0.448569 -0.225043 -0.531 141 93 79
0.44958 -0.225043 -0.531 141 93 81
0.450591 -0.225043 -0.531 138 90 78
0.452453 -0.225467 -0.532 138 90 78
0.453467 -0.225467 -0.532 139 91 79
0.45448 -0.225467 -0.532 140 92 80
0.455493 -0.225467 -0.532 140 92 80
0.456507 -0.225467 -0.532 143 95 83
0.45752 -0.225467 -0.532 145 97 85
0.458533 -0.225467 -0.532 145 97 85
0.46041 -0.22589 -0.533 145 97 87
0.461426 -0.22589 -0.533 145 97 87
0.463309 -0.226314 -0.534 144 96 86
0.464326 -0.226314 -0.534 147 99 89
0.466214 -0.226738 -0.535 148 100 90
0.468107 -0.227162 -0.536 145 97 87
0.470003 -0.227586 -0.537 143 95 85
0.471903 -0.22801 -0.538 141 93 83
0.474686 -0.228857 -0.54 140 93 85
0.476595 -0.229281 -0.541 139 92 84
0.478509 -0.229705 -0.542 139 91 81
0.481311 -0.230552 -0.544 140 92 82
0.48412 -0.2314 -0.546 143 94 87
0.486937 -0.232248 -0.548 145 96 89
0.489762 -0.233095 -0.55 144 97 89
0.492594 -0.233943 -0.552 144 97 89
0.496329 -0.235214 -0.555 142 97 91
0.499178 -0.236062 -0.557 138 93 87
0.502933 -0.237333 -0.56 139 96 89
0.5076 -0.239029 -0.564 141 98 91
0.513184 -0.241148 -0.569 143 98 93
-0.134333 -0.276714 -0.65 118 117 122
-0.132481 -0.275437 -0.647 115 114 119
-0.13064 -0.27416 -0.644 115 114 119
-0.128409 -0.272031 -0.639 118 117 122
-0.126196 -0.269903 -0.634 124 123 129
-0.123806 -0.267349 -0.628 127 126 132
-0.121243 -0.264369 -0.621 129 130 134
-0.118513 -0.260963 -0.613 129 130 134
-0.116389 -0.258834 -0.608 127 128 132
-0.114283 -0.256706 -0.603 126 127 131
-0.112196 -0.254577 -0.598 126 127 131
-0.110314 -0.252874 -0.594 126 127 131
-0.108815 -0.252023 -0.592 126 125 130
-0.107142 -0.250746 -0.589 127 126 131
-0.10566 -0.249894 -0.587 128 127 133
-0.104364 -0.249469 -0.586 128 127 133
-0.103248 -0.249469 -0.586 127 126 132
-0.101957 -0.249043 -0.585 124 123 129
-0.100843 -0.249043 -0.585 122 121 127
-0.0998991 -0.249469 -0.586 121 120 126
-0.0987829 -0.249469 -0.586 120 119 125
-0.0978333 -0.249894 -0.587 121 120 126
-0.09688 -0.25032 -0.588 96 96 106
-0.0960857 -0.251171 -0.59 73 73 83
-0.0951229 -0.251597 -0.591 60 60 68
-0.0944743 -0.252874 -0.594 58 57 65
-0.0936571 -0.253726 -0.596 58 57 65
-0.0926771 -0.254151 -0.597 58 57 65
-0.0918467 -0.255003 -0.599 58 57 65
-0.09116 -0.25628 -0.602 61 60 68
-0.0903124 -0.257131 -0.604 62 61 69
-0.0894571 -0.257983 -0.606 63 62 68
-0.0885943 -0.258834 -0.608 63 62 68
-0.0877238 -0.259686 -0.61 64 63 69
-0.0867038 -0.260111 -0.611 65 64 70
-0.08582 -0.260963 -0.613 67 66 72
-0.0847905 -0.261389 -0.614 69 68 74
-0.0838933 -0.26224 -0.616 71 70 78
-0.0828543 -0.262666 -0.617 71 70 78
-0.0818114 -0.263091 -0.618 72 71 79
-0.0806343 -0.263091 -0.618 74 73 81
-0.0794571 -0.263091 -0.618 75 74 82
-0.07828 -0.263091 -0.618 75 74 82
-0.0772276 -0.263517 -0.619 75 74 82
-0.0761714 -0.263943 -0.62 75 74 82
-0.0751114 -0.264369 -0.621 76 75 83
-0.0739286 -0.264369 -0.621 76 75 83
-0.0728629 -0.264794 -0.622 77 76 84
-0.0716781 -0.264794 -0.622 77 76 84
-0.0706067 -0.26522 -0.623 77 76 82
-0.0695314 -0.265646 -0.624 76 75 81
-0.0683429 -0.265646 -0.624 77 76 82
-0.0671543 -0.265646 -0.624 77 76 82
-0.0660714 -0.266071 -0.625 74 73 79
-0.064881 -0.266071 -0.625 73 72 78
-0.0637924 -0.266497 -0.626 73 72 78
-0.0626 -0.266497 -0.626 73 72 78
-0.0615057 -0.266923 -0.627 73 72 78
-0.0604076 -0.267349 -0.628 73 72 78
-0.0593057 -0.267774 -0.629 73 72 80
-0.0582 -0.2682 -0.63 73 72 80
-0.057 -0.2682 -0.63 74 73 81
-0.0558886 -0.268626 -0.631 75 74 82
-0.0546867 -0.268626 -0.631 74 73 81
-0.0535695 -0.269051 -0.632 73 72 80
-0.0524486 -0.269477 -0.633 74 73 81
-0.0512429 -0.269477 -0.633 73 72 80
-0.0501162 -0.269903 -0.634 72 71 79
-0.0489857 -0.270329 -0.635 72 71 79
-0.0478514 -0.270754 -0.636 72 70 81
-0.0467133 -0.27118 -0.637 70 68 79
-0.0455 -0.27118 -0.637 71 69 80
-0.0443562 -0.271606 -0.638 72 70 81
-0.0432086 -0.272031 -0.639 74 72 83
-0.0420571 -0.272457 -0.64 76 74 85
-0.0409019 -0.272883 -0.641 74 72 83
-0.0397429 -0.273309 -0.642 72 70 81
-0.03858 -0.273734 -0.643 73 71 82
-0.0374133 -0.27416 -0.644 73 71 82
-0.0362429 -0.274586 -0.645 76 74 85
-0.0350143 -0.274586 -0.645 72 70 81
-0.0338381 -0.275011 -0.646 75 74 82
-0.0326581 -0.275437 -0.647 73 72 80
-0.0314743 -0.275863 -0.648 73 71 82
-0.0302867 -0.276289 -0.649 71 69 80
-0.0290952 -0.276714 -0.65 72 70 81
0.16369 -0.266071 -0.625 196 153 146
0.163034 -0.263091 -0.618 198 155 148
0.162617 -0.260537 -0.612 199 154 148
0.162445 -0.258409 -0.607 199 154 148
0.162523 -0.256706 -0.603 201 154 146
0.162857 -0.255429 -0.6 200 153 145
0.16318 -0.254151 -0.597 199 151 141
0.163767 -0.2533 -0.595 198 150 140
0.164069 -0.252023 -0.592 198 148 137
0.164917 -0.251597 -0.591 195 145 134
0.165762 -0.251171 -0.59 201 149 136
0.166603 -0.250746 -0.589 197 145 132
0.16744 -0.25032 -0.588 191 139 125
0.168273 -0.249894 -0.587 187 135 121
0.169103 -0.249469 -0.586 186 133 117
0.169929 -0.249043 -0.585 196 143 127
0.17075 -0.248617 -0.584 202 153 146
0.171569 -0.248191 -0.583 201 152 145
0.172383 -0.247766 -0.582 198 151 143
0.173491 -0.247766 -0.582 198 151 143
0.1743 -0.24734 -0.581 197 150 142
0.175105 -0.246914 -0.58 195 148 140
0.175906 -0.246489 -0.579 196 149 139
0.177009 -0.246489 -0.579 196 149 139
0.178111 -0.246489 -0.579 196 148 136
0.179214 -0.246489 -0.579 196 148 136
0.180317 -0.246489 -0.579 194 146 134
0.18142 -0.246489 -0.579 192 140 129
0.182838 -0.246914 -0.58 191 139 128
0.183943 -0.246914 -0.58 189 132 121
0.185367 -0.24734 -0.581 189 132 121
0.186794 -0.247766 -0.582 183 123 113
0.187903 -0.247766 -0.582 182 122 112
0.189661 -0.248617 -0.584 178 118 108
0.1911 -0.249043 -0.585 171 111 101
0.192543 -0.249469 -0.586 166 107 99
0.19432 -0.25032 -0.588 161 102 94
0.196105 -0.251171 -0.59 156 99 92
0.197897 -0.252023 -0.592 152 95 88
0.200033 -0.2533 -0.595 140 87 83
0.201843 -0.254151 -0.597 137 84 80
0.204 -0.255429 -0.6 132 82 81
0.206169 -0.256706 -0.603 127 77 76
0.208349 -0.257983 -0.606 125 76 79
0.21054 -0.25926 -0.609 127 78 81
0.21309 -0.260963 -0.613 116 71 76
0.215307 -0.26224 -0.616 107 62 67
0.217886 -0.263943 -0.62 107 64 71
0.220127 -0.26522 -0.623 109 66 73
0.222379 -0.266497 -0.626 109 69 77
0.225 -0.2682 -0.63 111 71 79
0.227277 -0.269477 -0.633 115 72 79
0.229566 -0.270754 -0.636 114 71 78
0.231866 -0.272031 -0.639 112 67 72
0.233812 -0.272883 -0.641 107 62 67
0.235767 -0.273734 -0.643 108 62 65
0.23736 -0.27416 -0.644 112 66 69
0.238957 -0.274586 -0.645 114 67 73
0.240186 -0.274586 -0.645 114 67 73
0.241789 -0.275011 -0.646 111 64 70
0.243771 -0.275863 -0.648 110 64 74
0.245384 -0.276289 -0.649 113 67 77
0.247 -0.276714 -0.65 114 71 80
0.373843 -0.249043 -0.585 134 86 100
0.371111 -0.246489 -0.579 141 87 103
0.369643 -0.244786 -0.575 139 85 101
0.368804 -0.243509 -0.572 139 85 99
0.3686 -0.242657 -0.57 138 84 98
0.368389 -0.241806 -0.568 136 84 97
0.367519 -0.240529 -0.565 138 86 99
0.367943 -0.240103 -0.564 141 91 103
0.367709 -0.239251 -0.562 143 93 105
0.368779 -0.239251 -0.562 143 93 105
0.369191 -0.238826 -0.561 140 94 104
0.36894 -0.237974 -0.559 139 93 103
0.368681 -0.237123 -0.557 141 98 107
0.369078 -0.236697 -0.556 152 109 118
0.369471 -0.236271 -0.555 154 113 119
0.369861 -0.235846 -0.554 139 98 104
0.370916 -0.235846 -0.554 135 94 100
0.3713 -0.23542 -0.553 135 94 100
0.372353 -0.23542 -0.553 141 94 102
0.373407 -0.23542 -0.553 143 96 104
0.37446 -0.23542 -0.553 144 97 105
0.375513 -0.23542 -0.553 145 98 106
0.376567 -0.23542 -0.553 145 100 105
0.378303 -0.235846 -0.554 145 100 105
0.380043 -0.236271 -0.555 144 102 106
0.380413 -0.235846 -0.554 145 103 107
0.381469 -0.235846 -0.554 147 105 109
0.382524 -0.235846 -0.554 147 105 109
0.383579 -0.235846 -0.554 147 105 107
0.384634 -0.235846 -0.554 148 106 108
0.384993 -0.23542 -0.553 147 107 108
0.386047 -0.23542 -0.553 147 107 108
0.3871 -0.23542 -0.553 146 107 108
0.388153 -0.23542 -0.553 146 107 108
0.388503 -0.234994 -0.552 145 106 107
0.388849 -0.234569 -0.551 145 103 104
0.389898 -0.234569 -0.551 146 104 105
0.390238 -0.234143 -0.55 146 104 105
0.390574 -0.233717 -0.549 145 103 104
0.39162 -0.233717 -0.549 145 103 104
0.39195 -0.233291 -0.548 146 104 105
0.392277 -0.232866 -0.547 149 105 106
0.393319 -0.232866 -0.547 149 105 106
0.39364 -0.23244 -0.546 149 105 104
0.393957 -0.232014 -0.545 148 104 103
0.394995 -0.232014 -0.545 147 103 102
0.396033 -0.232014 -0.545 146 102 101
0.396343 -0.231589 -0.544 146 100 100
0.397379 -0.231589 -0.544 145 99 99
0.398415 -0.231589 -0.544 142 96 96
0.399451 -0.231589 -0.544 140 94 94
0.399751 -0.231163 -0.543 143 95 95
0.400048 -0.230737 -0.542 144 96 96
0.40108 -0.230737 -0.542 145 97 95
0.402112 -0.230737 -0.542 145 97 95
0.403145 -0.230737 -0.542 146 98 96
0.404177 -0.230737 -0.542 145 97 95
0.404462 -0.230311 -0.541 145 97 95
0.405492 -0.230311 -0.541 145 97 95
0.406523 -0.230311 -0.541 145 97 95
0.407553 -0.230311 -0.541 146 98 94
0.407829 -0.229886 -0.54 146 98 94
0.408857 -0.229886 -0.54 146 98 94
0.409886 -0.229886 -0.54 146 98 94
0.410914 -0.229886 -0.54 145 97 93
0.411943 -0.229886 -0.54 144 96 92
0.412207 -0.22946 -0.539 144 96 92
0.413233 -0.22946 -0.539 144 96 92
0.413491 -0.229034 -0.538 144 97 91
0.414516 -0.229034 -0.538 145 98 92
0.415541 -0.229034 -0.538 145 98 92
0.415791 -0.228609 -0.537 145 98 92
0.416814 -0.228609 -0.537 145 98 92
0.417837 -0.228609 -0.537 144 97 91
0.41886 -0.228609 -0.537 144 95 90
0.419101 -0.228183 -0.536 144 95 90
0.420122 -0.228183 -0.536 144 95 90
0.421143 -0.228183 -0.536 144 95 90
0.422164 -0.228183 -0.536 143 94 87
0.423185 -0.228183 -0.536 143 94 87
0.424206 -0.228183 -0.536 142 93 86
0.425227 -0.228183 -0.536 143 94 87
0.426248 -0.228183 -0.536 142 92 85
0.427269 -0.228183 -0.536 139 89 82
0.42829 -0.228183 -0.536 139 90 83
0.42931 -0.228183 -0.536 139 90 83
0.429529 -0.227757 -0.535 139 90 83
0.430548 -0.227757 -0.535 138 89 82
0.431567 -0.227757 -0.535 137 88 81
0.432586 -0.227757 -0.535 138 89 82
0.433605 -0.227757 -0.535 141 92 85
0.433811 -0.227331 -0.534 143 94 87
0.434829 -0.227331 -0.534 143 94 87
0.435846 -0.227331 -0.534 141 93 83
0.436863 -0.227331 -0.534 141 93 83
0.43788 -0.227331 -0.534 142 94 84
0.438075 -0.226906 -0.533 142 94 84
0.43909 -0.226906 -0.533 142 94 84
0.440106 -0.226906 -0.533 142 94 84
0.441121 -0.226906 -0.533 143 95 85
0.442136 -0.226906 -0.533 145 97 87
0.44232 -0.22648 -0.532 142 96 83
0.443333 -0.22648 -0.532 143 97 84
0.444347 -0.22648 -0.532 143 97 84
0.44536 -0.22648 -0.532 142 96 83
0.446373 -0.22648 -0.532 140 94 81
0.447387 -0.22648 -0.532 141 95 82
0.4484 -0.22648 -0.532 142 94 82
0.449413 -0.22648 -0.532 142 94 82
0.450427 -0.22648 -0.532 142 94 82
0.45144 -0.22648 -0.532 141 93 81
0.452453 -0.22648 -0.532 140 93 83
0.453467 -0.22648 -0.532 140 93 83
0.45448 -0.22648 -0.532 141 94 84
0.455493 -0.22648 -0.532 142 95 85
0.456507 -0.22648 -0.532 142 95 85
0.45752 -0.22648 -0.532 144 96 86
0.458533 -0.22648 -0.532 144 96 86
0.459547 -0.22648 -0.532 146 98 88
0.461426 -0.226906 -0.533 145 97 87
0.462441 -0.226906 -0.533 144 96 86
0.464326 -0.227331 -0.534 146 98 88
0.465343 -0.227331 -0.534 148 100 90
0.467233 -0.227757 -0.535 146 98 88
0.469128 -0.228183 -0.536 144 96 86
0.471903 -0.229034 -0.538 143 95 85
0.473807 -0.22946 -0.539 140 92 82
0.476595 -0.230311 -0.541 139 91 81
0.478509 -0.230737 -0.542 139 91 81
0.480426 -0.231163 -0.543 140 92 82
0.483233 -0.232014 -0.545 142 94 84
0.486049 -0.232866 -0.547 143 95 85
0.488871 -0.233717 -0.549 144 96 86
0.491702 -0.234569 -0.551 145 97 87
0.49454 -0.23542 -0.553 144 96 86
0.498282 -0.236697 -0.556 142 94 84
0.501137 -0.237549 -0.558 140 95 89
0.5058 -0.239251 -0.562 142 97 91
0.510478 -0.240954 -0.566 143 99 88
-0.13289 -0.277525 -0.649 117 118 120
-0.131046 -0.276242 -0.646 117 118 122
-0.129011 -0.274531 -0.642 119 120 124
-0.126793 -0.272393 -0.637 121 122 127
-0.124397 -0.269828 -0.631 121 122 127
-0.121829 -0.266834 -0.624 128 127 132
-0.119093 -0.263413 -0.616 127 126 131
-0.116389 -0.259992 -0.608 124 125 129
-0.114283 -0.257854 -0.603 122 123 127
-0.112196 -0.255716 -0.598 122 123 128
-0.110129 -0.253578 -0.593 122 123 128
-0.108631 -0.252723 -0.591 121 122 127
-0.10696 -0.25144 -0.588 122 123 128
-0.10548 -0.250585 -0.586 125 126 131
-0.104186 -0.250157 -0.585 124 125 130
-0.103071 -0.250157 -0.585 122 123 128
-0.101783 -0.24973 -0.584 120 121 126
-0.10067 -0.24973 -0.584 116 117 122
-0.0997286 -0.250157 -0.585 116 117 122
-0.0986143 -0.250157 -0.585 116 117 122
-0.0976667 -0.250585 -0.586 111 112 117
-0.09688 -0.25144 -0.588 89 89 97
-0.0960857 -0.252295 -0.59 69 69 77
-0.0951229 -0.252723 -0.591 60 60 68
-0.0946333 -0.254433 -0.595 59 59 67
-0.0936571 -0.254861 -0.596 59 59 67
-0.0928324 -0.255716 -0.598 62 61 69
-0.092 -0.256571 -0.6 60 59 67
-0.09116 -0.257427 -0.602 61 60 66
-0.0903124 -0.258282 -0.604 61 60 66
-0.0896048 -0.259565 -0.607 61 60 66
-0.08874 -0.26042 -0.609 62 61 67
-0.0878676 -0.261275 -0.611 62 61 67
-0.0868457 -0.261703 -0.612 63 62 68
-0.08596 -0.262558 -0.614 65 64 70
-0.0849286 -0.262986 -0.615 66 65 71
-0.0838933 -0.263413 -0.616 69 68 76
-0.0829886 -0.264269 -0.618 70 69 77
-0.0819438 -0.264696 -0.619 71 70 78
-0.0807648 -0.264696 -0.619 73 72 80
-0.0795857 -0.264696 -0.619 74 73 81
-0.0784067 -0.264696 -0.619 74 73 81
-0.0773524 -0.265124 -0.62 74 73 81
-0.0761714 -0.265124 -0.62 75 74 82
-0.0751114 -0.265551 -0.621 76 75 83
-0.0740476 -0.265979 -0.622 75 74 82
-0.0728629 -0.265979 -0.622 76 75 83
-0.0717933 -0.266407 -0.623 76 75 83
-0.0706067 -0.266407 -0.623 75 74 80
-0.0695314 -0.266834 -0.624 76 75 81
-0.0684524 -0.267262 -0.625 77 76 82
-0.0672619 -0.267262 -0.625 76 75 81
-0.0660714 -0.267262 -0.625 74 73 81
-0.0649848 -0.26769 -0.626 74 73 81
-0.0637924 -0.26769 -0.626 74 73 79
-0.0627 -0.268117 -0.627 73 72 78
-0.0616038 -0.268545 -0.628 73 72 78
-0.0604076 -0.268545 -0.628 73 72 78
-0.0593057 -0.268972 -0.629 73 72 80
-0.0582 -0.2694 -0.63 73 72 80
-0.057 -0.2694 -0.63 75 74 82
-0.0558886 -0.269828 -0.631 75 74 82
-0.0547733 -0.270255 -0.632 74 73 81
-0.0535695 -0.270255 -0.632 74 73 81
-0.0524486 -0.270683 -0.633 74 73 81
-0.0512429 -0.270683 -0.633 74 73 81
-0.0501162 -0.27111 -0.634 73 72 80
-0.0489857 -0.271538 -0.635 72 71 79
-0.0478514 -0.271966 -0.636 69 67 78
-0.0467133 -0.272393 -0.637 73 71 82
-0.0455 -0.272393 -0.637 71 69 80
-0.0443562 -0.272821 -0.638 71 69 80
-0.0432086 -0.273249 -0.639 70 68 79
-0.0420571 -0.273676 -0.64 70 68 79
-0.0409019 -0.274104 -0.641 74 73 81
-0.0397429 -0.274531 -0.642 70 69 77
-0.03858 -0.274959 -0.643 75 74 82
-0.0374133 -0.275387 -0.644 75 74 82
-0.0362429 -0.275814 -0.645 72 71 79
-0.0350686 -0.276242 -0.646 74 73 81
-0.0338381 -0.276242 -0.646 75 74 82
-0.0326581 -0.27667 -0.647 73 72 80
-0.0314743 -0.277097 -0.648 71 70 78
-0.0302867 -0.277525 -0.649 69 68 76
-0.0290952 -0.277952 -0.65 71 69 80
0.161323 -0.277525 -0.649 200 158 159
0.161557 -0.275814 -0.645 205 159 159
0.162281 -0.274959 -0.643 205 159 159
0.161333 -0.263413 -0.616 197 152 146
0.160924 -0.260848 -0.61 197 152 146
0.160757 -0.25871 -0.605 196 152 143
0.160839 -0.256999 -0.601 196 152 143
0.161175 -0.255716 -0.598 198 151 141
0.1615 -0.254433 -0.595 198 151 141
0.161813 -0.25315 -0.592 196 148 138
0.162666 -0.252723 -0.591 192 144 134
0.163237 -0.251868 -0.589 194 145 131
0.16408 -0.25144 -0.588 192 143 129
0.164919 -0.251012 -0.587 194 142 128
0.165754 -0.250585 -0.586 192 140 126
0.16687 -0.250585 -0.586 187 134 118
0.1677 -0.250157 -0.585 185 132 116
0.168526 -0.24973 -0.584 194 141 125
0.169348 -0.249302 -0.583 205 152 136
0.170166 -0.248874 -0.582 203 154 147
0.17098 -0.248447 -0.581 198 149 142
0.172087 -0.248447 -0.581 196 148 138
0.172895 -0.248019 -0.58 199 151 141
0.1737 -0.247591 -0.579 199 151 141
0.174501 -0.247164 -0.578 196 148 138
0.175602 -0.247164 -0.578 195 147 135
0.176397 -0.246736 -0.577 195 147 135
0.177496 -0.246736 -0.577 195 147 135
0.178905 -0.247164 -0.578 194 144 133
0.180006 -0.247164 -0.578 190 140 129
0.181107 -0.247164 -0.578 186 132 120
0.182523 -0.247591 -0.579 184 130 118
0.183943 -0.248019 -0.58 181 123 111
0.185048 -0.248019 -0.58 184 126 114
0.186794 -0.248874 -0.582 179 119 108
0.187903 -0.248874 -0.582 177 117 106
0.189661 -0.24973 -0.584 172 112 102
0.1911 -0.250157 -0.585 167 107 97
0.192871 -0.251012 -0.587 164 105 97
0.19465 -0.251868 -0.589 160 101 93
0.196437 -0.252723 -0.591 155 98 91
0.198231 -0.253578 -0.593 151 94 87
0.20037 -0.254861 -0.596 138 85 81
0.202181 -0.255716 -0.598 134 81 77
0.20434 -0.256999 -0.601 129 79 78
0.20651 -0.258282 -0.604 126 76 75
0.208692 -0.259565 -0.607 123 77 79
0.210886 -0.260848 -0.61 124 78 80
0.213438 -0.262558 -0.614 115 70 75
0.216006 -0.264269 -0.618 106 61 66
0.218237 -0.265551 -0.621 107 64 71
0.220833 -0.267262 -0.625 110 67 74
0.22309 -0.268545 -0.628 107 69 80
0.225714 -0.270255 -0.632 108 70 81
0.227995 -0.271538 -0.635 110 69 77
0.230288 -0.272821 -0.638 106 65 73
0.232229 -0.273676 -0.64 105 58 64
0.234177 -0.274531 -0.642 105 58 64
0.236133 -0.275387 -0.644 108 62 65
0.238097 -0.276242 -0.646 111 65 68
0.239698 -0.27667 -0.647 110 65 70
0.24093 -0.27667 -0.647 110 65 70
0.242537 -0.277097 -0.648 111 66 71
0.244148 -0.277525 -0.649 111 68 77
0.373675 -0.249302 -0.583 139 86 102
0.370929 -0.246736 -0.577 138 85 101
0.370093 -0.245453 -0.574 137 85 98
0.369893 -0.244598 -0.572 136 84 97
0.369037 -0.243315 -0.569 135 83 96
0.36882 -0.24246 -0.567 136 84 97
0.369248 -0.242032 -0.566 138 88 100
0.369017 -0.241177 -0.564 141 91 103
0.369435 -0.24075 -0.563 140 93 103
0.370508 -0.24075 -0.563 140 93 103
0.37092 -0.240322 -0.562 139 92 102
0.370667 -0.239467 -0.56 143 98 105
0.37107 -0.239039 -0.559 150 105 112
0.372134 -0.239039 -0.559 153 108 115
0.372531 -0.238611 -0.558 147 102 109
0.372925 -0.238184 -0.557 144 99 106
0.373314 -0.237756 -0.556 145 100 107
0.3737 -0.237329 -0.555 149 103 106
0.374757 -0.237329 -0.555 150 104 107
0.375814 -0.237329 -0.555 150 104 107
0.376871 -0.237329 -0.555 151 105 108
0.377929 -0.237329 -0.555 152 107 110
0.378986 -0.237329 -0.555 154 109 112
0.380043 -0.237329 -0.555 151 109 111
0.3811 -0.237329 -0.555 149 107 109
0.381469 -0.236901 -0.554 150 108 109
0.382524 -0.236901 -0.554 151 109 110
0.383579 -0.236901 -0.554 150 110 110
0.38394 -0.236473 -0.553 149 109 109
0.384993 -0.236473 -0.553 149 109 109
0.385349 -0.236046 -0.552 148 108 108
0.3864 -0.236046 -0.552 147 107 107
0.387451 -0.236046 -0.552 147 107 107
0.388503 -0.236046 -0.552 145 105 105
0.388849 -0.235618 -0.551 145 103 104
0.38919 -0.23519 -0.55 146 104 105
0.389529 -0.234763 -0.549 146 104 105
0.390574 -0.234763 -0.549 146 104 105
0.39162 -0.234763 -0.549 148 104 105
0.39195 -0.234335 -0.548 149 105 106
0.392277 -0.233908 -0.547 149 105 104
0.3926 -0.23348 -0.546 148 104 103
0.39364 -0.23348 -0.546 148 104 103
0.393957 -0.233052 -0.545 149 105 104
0.394995 -0.233052 -0.545 150 104 104
0.396033 -0.233052 -0.545 149 103 103
0.396343 -0.232625 -0.544 148 102 102
0.397379 -0.232625 -0.544 146 100 100
0.397683 -0.232197 -0.543 144 98 98
0.398717 -0.232197 -0.543 142 96 96
0.399751 -0.232197 -0.543 144 96 94
0.400048 -0.23177 -0.542 144 96 94
0.40108 -0.23177 -0.542 145 97 95
0.402112 -0.23177 -0.542 146 98 96
0.403145 -0.23177 -0.542 146 98 96
0.404177 -0.23177 -0.542 146 98 96
0.404462 -0.231342 -0.541 145 97 95
0.405492 -0.231342 -0.541 145 97 95
0.406523 -0.231342 -0.541 145 97 95
0.407553 -0.231342 -0.541 146 98 94
0.407829 -0.230914 -0.54 146 98 94
0.408857 -0.230914 -0.54 146 98 94
0.409886 -0.230914 -0.54 146 98 94
0.410914 -0.230914 -0.54 145 97 93
0.411943 -0.230914 -0.54 144 96 92
0.412207 -0.230487 -0.539 145 97 93
0.413233 -0.230487 -0.539 145 97 93
0.413491 -0.230059 -0.538 144 97 91
0.414516 -0.230059 -0.538 144 97 91
0.414769 -0.229631 -0.537 145 98 92
0.415791 -0.229631 -0.537 144 97 91
0.416814 -0.229631 -0.537 143 96 90
0.417059 -0.229204 -0.536 143 96 90
0.41808 -0.229204 -0.536 144 95 90
0.419101 -0.229204 -0.536 144 95 90
0.420122 -0.229204 -0.536 145 96 91
0.421143 -0.229204 -0.536 145 96 91
0.421376 -0.228776 -0.535 146 97 90
0.422395 -0.228776 -0.535 146 97 90
0.423414 -0.228776 -0.535 146 97 90
0.424433 -0.228776 -0.535 145 96 89
0.425452 -0.228776 -0.535 143 93 86
0.426471 -0.228776 -0.535 140 90 83
0.42749 -0.228776 -0.535 140 91 84
0.42851 -0.228776 -0.535 140 91 84
0.429529 -0.228776 -0.535 141 92 85
0.430548 -0.228776 -0.535 141 92 85
0.431567 -0.228776 -0.535 140 91 84
0.431777 -0.228349 -0.534 140 91 84
0.432794 -0.228349 -0.534 142 93 86
0.433811 -0.228349 -0.534 144 95 88
0.434829 -0.228349 -0.534 143 94 87
0.435846 -0.228349 -0.534 142 94 84
0.436863 -0.228349 -0.534 142 94 84
0.43788 -0.228349 -0.534 143 95 85
0.438897 -0.228349 -0.534 144 96 86
0.43909 -0.227921 -0.533 144 96 86
0.440106 -0.227921 -0.533 145 97 87
0.441121 -0.227921 -0.533 145 97 87
0.442136 -0.227921 -0.533 145 97 87
0.443151 -0.227921 -0.533 145 99 86
0.443333 -0.227493 -0.532 145 99 86
0.444347 -0.227493 -0.532 144 98 85
0.44536 -0.227493 -0.532 142 96 83
0.446373 -0.227493 -0.532 141 95 82
0.447387 -0.227493 -0.532 142 96 83
0.4484 -0.227493 -0.532 143 97 84
0.449413 -0.227493 -0.532 143 97 84
0.450427 -0.227493 -0.532 142 95 85
0.45144 -0.227493 -0.532 143 96 86
0.452453 -0.227493 -0.532 144 96 86
0.453467 -0.227493 -0.532 143 95 85
0.45448 -0.227493 -0.532 143 95 85
0.455493 -0.227493 -0.532 143 95 85
0.456507 -0.227493 -0.532 143 95 85
0.45752 -0.227493 -0.532 143 96 86
0.458533 -0.227493 -0.532 144 97 87
0.459547 -0.227493 -0.532 147 99 89
0.46056 -0.227493 -0.532 146 98 88
0.462441 -0.227921 -0.533 144 96 86
0.463456 -0.227921 -0.533 145 97 87
0.465343 -0.228349 -0.534 147 99 89
0.467233 -0.228776 -0.535 147 99 89
0.469128 -0.229204 -0.536 146 98 88
0.471026 -0.229631 -0.537 144 96 86
0.473807 -0.230487 -0.539 142 94 84
0.475714 -0.230914 -0.54 140 92 82
0.477626 -0.231342 -0.541 139 91 81
0.480426 -0.232197 -0.543 140 92 82
0.483233 -0.233052 -0.545 140 92 82
0.486049 -0.233908 -0.547 142 94 84
0.488871 -0.234763 -0.549 144 96 86
0.491702 -0.235618 -0.551 145 97 87
0.493646 -0.236046 -0.552 143 93 84
0.49649 -0.236901 -0.554 143 93 84
0.500239 -0.238184 -0.557 140 95 89
0.504 -0.239467 -0.56 141 96 90
0.507772 -0.24075 -0.563 142 98 87
-0.133095 -0.27919 -0.65 119 120 122
-0.131249 -0.277902 -0.647 118 119 123
-0.129413 -0.276613 -0.644 119 120 124
-0.127191 -0.274466 -0.639 118 119 124
-0.124989 -0.272318 -0.634 120 121 126
-0.122219 -0.268882 -0.626 123 124 129
-0.119287 -0.265016 -0.617 122 123 128
-0.11658 -0.26158 -0.609 120 121 126
-0.114093 -0.258573 -0.602 120 121 126
-0.111821 -0.255996 -0.596 121 122 127
-0.109943 -0.254278 -0.592 121 122 127
-0.108264 -0.25299 -0.589 120 121 126
-0.106778 -0.25213 -0.587 120 121 126
-0.1053 -0.251271 -0.585 121 122 127
-0.104008 -0.250842 -0.584 120 121 126
-0.102719 -0.250412 -0.583 119 120 125
-0.101609 -0.250412 -0.583 119 120 125
-0.100498 -0.250412 -0.583 114 115 120
-0.0995581 -0.250842 -0.584 114 115 120
-0.0986143 -0.251271 -0.585 114 115 120
-0.0976667 -0.251701 -0.586 104 105 110
-0.09688 -0.25256 -0.588 82 82 90
-0.0960857 -0.253419 -0.59 63 63 71
