ply
format ascii 1.0
comment Created by Open3D
element vertex 1293
property double x
property double y
property double z
property uchar red
property uchar green
property uchar blue
end_header
0.249406 -0.36424 -0.628 67 76 109
0.250602 -0.36424 -0.628 67 76 109
0.251798 -0.36424 -0.628 97 102 140
0.252994 -0.36424 -0.628 136 141 179
0.25419 -0.36424 -0.628 168 167 199
0.255387 -0.36424 -0.628 182 181 213
0.256174 -0.36366 -0.627 191 187 212
0.257369 -0.36366 -0.627 192 188 213
0.25815 -0.36308 -0.626 184 185 215
0.259343 -0.36308 -0.626 170 171 201
0.260535 -0.36308 -0.626 143 152 191
0.261728 -0.36308 -0.626 129 138 177
0.26292 -0.36308 -0.626 113 131 181
0.26369 -0.3625 -0.625 122 140 190
0.264881 -0.3625 -0.625 133 148 191
0.266071 -0.3625 -0.625 150 165 208
0.267262 -0.3625 -0.625 153 165 203
0.268452 -0.3625 -0.625 148 160 198
0.270074 -0.36308 -0.626 144 157 191
0.271267 -0.36308 -0.626 148 161 195
0.272459 -0.36308 -0.626 167 176 207
0.273651 -0.36308 -0.626 188 197 228
0.274844 -0.36308 -0.626 214 220 246
0.276036 -0.36308 -0.626 222 228 254
0.277229 -0.36308 -0.626 223 227 254
0.278421 -0.36308 -0.626 228 232 255
0.279613 -0.36308 -0.626 224 229 255
0.280806 -0.36308 -0.626 212 217 246
0.281998 -0.36308 -0.626 189 190 218
0.28319 -0.36308 -0.626 167 168 196
0.284383 -0.36308 -0.626 162 166 193
0.285575 -0.36308 -0.626 169 173 200
0.286768 -0.36308 -0.626 169 173 200
0.28796 -0.36308 -0.626 219 224 246
0.289614 -0.36366 -0.627 238 243 255
0.290809 -0.36366 -0.627 234 240 255
0.292003 -0.36366 -0.627 235 241 255
0.293197 -0.36366 -0.627 238 241 255
0.294391 -0.36366 -0.627 239 242 255
0.295586 -0.36366 -0.627 239 242 255
0.297253 -0.36424 -0.628 238 241 255
0.29845 -0.36424 -0.628 230 233 252
0.299646 -0.36424 -0.628 210 213 232
0.300842 -0.36424 -0.628 218 221 240
0.302038 -0.36424 -0.628 234 237 255
0.303234 -0.36424 -0.628 243 245 255
0.30443 -0.36424 -0.628 244 246 255
0.305627 -0.36424 -0.628 245 248 255
0.306823 -0.36424 -0.628 243 246 253
0.308019 -0.36424 -0.628 239 246 254
0.309215 -0.36424 -0.628 246 253 255
0.310411 -0.36424 -0.628 236 245 255
0.311608 -0.36424 -0.628 208 217 232
0.312804 -0.36424 -0.628 164 172 195
0.314 -0.36424 -0.628 164 172 195
0.315196 -0.36424 -0.628 187 192 214
0.316392 -0.36424 -0.628 219 224 246
0.317589 -0.36424 -0.628 244 248 255
0.319292 -0.36482 -0.629 248 252 255
0.32049 -0.36482 -0.629 243 252 251
0.321689 -0.36482 -0.629 243 252 251
0.322887 -0.36482 -0.629 240 249 248
0.324085 -0.36482 -0.629 249 252 255
0.325283 -0.36482 -0.629 224 227 232
0.326481 -0.36482 -0.629 203 208 240
0.327679 -0.36482 -0.629 185 190 222
0.328877 -0.36482 -0.629 180 191 219
0.330075 -0.36482 -0.629 180 191 219
0.331273 -0.36482 -0.629 187 200 235
0.332471 -0.36482 -0.629 197 210 245
0.33367 -0.36482 -0.629 184 196 234
0.334868 -0.36482 -0.629 175 187 225
0.3366 -0.3654 -0.63 179 193 222
0.3378 -0.3654 -0.63 179 193 222
0.339 -0.3654 -0.63 202 211 244
0.3402 -0.3654 -0.63 221 230 255
0.3414 -0.3654 -0.63 244 251 255
0.3426 -0.3654 -0.63 248 255 255
0.3438 -0.3654 -0.63 246 250 249
0.345 -0.3654 -0.63 247 251 250
0.3462 -0.3654 -0.63 243 246 255
0.3474 -0.3654 -0.63 226 229 238
0.3486 -0.3654 -0.63 199 204 224
0.3498 -0.3654 -0.63 174 179 199
0.351 -0.3654 -0.63 173 180 199
0.3522 -0.3654 -0.63 217 224 243
0.3534 -0.3654 -0.63 239 249 255
0.3546 -0.3654 -0.63 239 249 255
0.3558 -0.3654 -0.63 242 252 255
0.357 -0.3654 -0.63 242 252 253
0.3582 -0.3654 -0.63 240 250 251
0.3594 -0.3654 -0.63 246 251 254
0.3606 -0.3654 -0.63 250 255 255
0.362374 -0.36598 -0.631 251 254 255
0.363576 -0.36598 -0.631 244 247 252
0.364778 -0.36598 -0.631 221 228 236
0.36598 -0.36598 -0.631 211 218 226
0.367182 -0.36598 -0.631 234 241 251
0.368384 -0.36598 -0.631 244 251 255
0.369586 -0.36598 -0.631 244 251 255
0.371375 -0.36656 -0.632 245 252 255
0.372579 -0.36656 -0.632 245 254 253
0.373783 -0.36656 -0.632 244 253 252
0.374987 -0.36656 -0.632 244 251 255
0.37619 -0.36656 -0.632 249 255 255
0.377394 -0.36656 -0.632 231 238 255
0.378598 -0.36656 -0.632 183 190 208
0.379802 -0.36656 -0.632 163 169 191
0.381006 -0.36656 -0.632 180 186 208
0.38221 -0.36656 -0.632 208 213 233
0.383413 -0.36656 -0.632 236 241 255
0.384617 -0.36656 -0.632 247 255 255
0.386431 -0.36714 -0.633 247 255 255
0.387637 -0.36714 -0.633 248 253 255
0.388843 -0.36714 -0.633 248 253 255
0.390049 -0.36714 -0.633 251 255 255
0.391254 -0.36714 -0.633 234 240 252
0.39246 -0.36714 -0.633 216 222 234
0.393666 -0.36714 -0.633 187 199 223
0.394871 -0.36714 -0.633 180 192 216
0.396077 -0.36714 -0.633 179 195 229
0.397283 -0.36714 -0.633 195 211 245
0.398489 -0.36714 -0.633 187 205 243
0.399063 -0.36656 -0.632 177 195 233
0.400267 -0.36656 -0.632 179 193 230
0.40147 -0.36656 -0.632 183 197 234
0.402674 -0.36656 -0.632 208 221 253
0.403878 -0.36656 -0.632 229 242 255
0.405082 -0.36656 -0.632 249 252 255
0.406286 -0.36656 -0.632 247 250 255
0.40749 -0.36656 -0.632 244 244 252
0.40934 -0.36714 -0.633 245 245 253
0.410546 -0.36714 -0.633 245 250 255
0.411751 -0.36714 -0.633 218 223 229
0.412957 -0.36714 -0.633 183 190 209
0.414163 -0.36714 -0.633 167 174 193
0.415369 -0.36714 -0.633 182 191 208
0.416574 -0.36714 -0.633 227 236 253
0.41778 -0.36714 -0.633 244 252 255
0.418986 -0.36714 -0.633 245 253 255
0.420191 -0.36714 -0.633 245 253 255
0.421397 -0.36714 -0.633 244 247 255
0.422603 -0.36714 -0.633 249 252 255
0.423809 -0.36714 -0.633 249 252 255
0.425014 -0.36714 -0.633 248 251 255
0.42622 -0.36714 -0.633 244 249 253
0.427426 -0.36714 -0.633 228 233 237
0.429309 -0.36772 -0.634 208 212 221
0.430516 -0.36772 -0.634 221 225 234
0.431043 -0.36714 -0.633 240 244 255
0.432249 -0.36714 -0.633 247 251 255
0.434139 -0.36772 -0.634 243 250 255
0.435347 -0.36772 -0.634 246 253 255
0.436554 -0.36772 -0.634 236 243 251
0.437762 -0.36772 -0.634 243 250 255
0.43897 -0.36772 -0.634 251 255 255
0.440177 -0.36772 -0.634 234 238 250
0.441385 -0.36772 -0.634 190 193 212
0.442592 -0.36772 -0.634 162 165 184
0.4445 -0.3683 -0.635 179 184 206
0.44571 -0.3683 -0.635 210 215 237
0.446919 -0.3683 -0.635 239 243 252
0.448129 -0.3683 -0.635 247 251 255
0.449338 -0.3683 -0.635 253 254 255
0.451257 -0.36888 -0.636 250 251 255
0.452469 -0.36888 -0.636 246 248 255
0.45368 -0.36888 -0.636 231 233 245
0.454891 -0.36888 -0.636 211 218 244
0.456103 -0.36888 -0.636 211 218 244
0.457314 -0.36888 -0.636 191 198 224
0.458526 -0.36888 -0.636 177 192 225
0.459737 -0.36888 -0.636 179 194 227
0.460949 -0.36888 -0.636 183 201 237
0.46216 -0.36888 -0.636 192 210 246
0.463371 -0.36888 -0.636 192 210 250
0.464583 -0.36888 -0.636 174 192 232
0.465794 -0.36888 -0.636 167 186 228
0.467006 -0.36888 -0.636 166 185 227
0.468217 -0.36888 -0.636 178 190 228
0.469429 -0.36888 -0.636 195 207 245
0.47138 -0.36946 -0.637 220 228 251
0.472593 -0.36946 -0.637 231 239 255
0.473807 -0.36946 -0.637 235 241 253
0.47502 -0.36946 -0.637 236 242 254
0.476233 -0.36946 -0.637 230 233 250
0.478196 -0.37004 -0.638 224 227 244
0.479411 -0.37004 -0.638 193 198 227
0.480627 -0.37004 -0.638 165 170 199
0.481842 -0.37004 -0.638 131 140 173
0.483057 -0.37004 -0.638 151 160 193
0.484272 -0.37004 -0.638 201 212 240
0.485488 -0.37004 -0.638 220 231 255
0.486703 -0.37004 -0.638 212 220 243
0.487918 -0.37004 -0.638 209 217 240
0.489133 -0.37004 -0.638 207 219 241
0.490349 -0.37004 -0.638 205 217 239
0.491564 -0.37004 -0.638 208 219 239
0.492779 -0.37004 -0.638 208 219 239
0.493994 -0.37004 -0.638 201 212 232
0.49521 -0.37004 -0.638 174 185 205
0.496425 -0.37004 -0.638 151 162 182
0.49764 -0.37004 -0.638 180 191 213
0.498855 -0.37004 -0.638 195 206 228
0.50007 -0.37004 -0.638 196 206 231
0.501286 -0.37004 -0.638 200 210 235
0.502501 -0.37004 -0.638 198 205 231
0.503716 -0.37004 -0.638 190 197 223
0.504931 -0.37004 -0.638 196 203 229
0.506147 -0.37004 -0.638 194 201 227
0.507362 -0.37004 -0.638 160 170 197
0.508577 -0.37004 -0.638 91 101 128
0.509792 -0.37004 -0.638 107 117 144
0.511008 -0.37004 -0.638 142 152 179
0.512223 -0.37004 -0.638 167 175 198
0.513438 -0.37004 -0.638 178 186 209
0.513847 -0.36946 -0.637 187 188 206
0.51506 -0.36946 -0.637 184 185 203
0.514652 -0.3683 -0.635 172 159 168
0.51505 -0.36772 -0.634 162 149 158
0.5017 -0.35322 -0.609 171 148 140
0.498731 -0.35032 -0.604 167 148 141
0.495744 -0.34742 -0.599 171 152 145
0.492737 -0.34452 -0.594 176 151 144
0.489711 -0.34162 -0.589 175 150 143
0.490833 -0.34162 -0.589 175 150 143
0.488614 -0.3393 -0.585 177 150 143
0.48638 -0.33698 -0.581 178 151 144
0.48413 -0.33466 -0.577 182 153 145
0.483548 -0.3335 -0.575 183 154 146
0.482114 -0.33176 -0.572 187 155 144
0.481514 -0.3306 -0.57 189 157 146
0.480907 -0.32944 -0.568 192 159 144
0.480291 -0.32828 -0.566 192 159 144
0.479669 -0.32712 -0.564 195 159 145
0.479038 -0.32596 -0.562 197 161 147
0.479254 -0.32538 -0.561 195 158 140
0.479467 -0.3248 -0.56 195 158 140
0.478817 -0.32364 -0.558 198 160 141
0.47902 -0.32306 -0.557 199 161 142
0.479219 -0.32248 -0.556 199 162 144
0.479414 -0.3219 -0.555 199 162 144
0.479606 -0.32132 -0.554 199 162 143
0.479793 -0.32074 -0.553 200 163 144
0.479977 -0.32016 -0.552 201 164 145
0.480157 -0.31958 -0.551 201 164 145
0.481207 -0.31958 -0.551 202 164 143
0.481381 -0.319 -0.55 201 163 142
0.482429 -0.319 -0.55 202 164 143
0.483476 -0.319 -0.55 203 165 144
0.483643 -0.31842 -0.549 203 165 142
0.484689 -0.31842 -0.549 201 163 140
0.485734 -0.31842 -0.549 199 161 138
0.485893 -0.31784 -0.548 201 163 140
0.486937 -0.31784 -0.548 202 162 137
0.487981 -0.31784 -0.548 199 159 134
0.488132 -0.31726 -0.547 200 159 139
0.489174 -0.31726 -0.547 199 158 138
0.490216 -0.31726 -0.547 199 158 136
0.491258 -0.31726 -0.547 199 158 136
0.4923 -0.31726 -0.547 197 156 134
0.49244 -0.31668 -0.546 195 154 132
0.49348 -0.31668 -0.546 195 154 132
0.49452 -0.31668 -0.546 193 151 129
0.49556 -0.31668 -0.546 191 149 127
0.4966 -0.31668 -0.546 191 146 123
0.49764 -0.31668 -0.546 189 144 121
0.49868 -0.31668 -0.546 193 147 123
0.49972 -0.31668 -0.546 191 145 121
0.501677 -0.31726 -0.547 186 140 114
0.502719 -0.31726 -0.547 186 140 114
0.504682 -0.31784 -0.548 183 137 113
0.506649 -0.31842 -0.549 175 129 105
0.508619 -0.319 -0.55 177 132 109
0.510593 -0.31958 -0.551 177 132 109
0.512571 -0.32016 -0.552 170 129 107
0.514553 -0.32074 -0.553 168 127 105
0.517471 -0.3219 -0.555 165 127 106
0.520397 -0.32306 -0.557 163 125 104
0.525203 -0.32538 -0.561 167 126 106
0.530024 -0.3277 -0.565 167 126 106
0.10501 -0.346815 -0.596 193 148 143
0.105432 -0.344488 -0.592 192 147 142
0.10548 -0.340996 -0.586 192 147 142
0.105505 -0.337505 -0.58 195 146 141
0.105874 -0.335177 -0.576 192 143 138
0.106229 -0.33285 -0.572 191 140 136
0.10713 -0.332268 -0.571 189 142 136
0.107839 -0.331104 -0.569 190 141 136
0.10854 -0.32994 -0.567 192 143 138
0.109427 -0.329358 -0.566 192 142 135
0.11031 -0.328776 -0.565 192 142 135
0.111189 -0.328194 -0.564 190 140 133
0.112064 -0.327612 -0.563 185 135 128
0.112935 -0.32703 -0.562 188 138 131
0.114006 -0.32703 -0.562 188 138 131
0.114871 -0.326449 -0.561 188 138 129
0.11594 -0.326449 -0.561 187 137 128
0.117009 -0.326449 -0.561 187 137 128
0.117867 -0.325867 -0.56 185 135 126
0.118933 -0.325867 -0.56 193 140 132
0.12 -0.325867 -0.56 190 137 129
0.121067 -0.325867 -0.56 179 127 116
0.121915 -0.325285 -0.559 186 134 123
0.12298 -0.325285 -0.559 191 139 128
0.124045 -0.325285 -0.559 185 133 122
0.124886 -0.324703 -0.558 180 128 117
0.125949 -0.324703 -0.558 181 129 118
0.126784 -0.324121 -0.557 181 127 115
0.127845 -0.324121 -0.557 182 128 116
0.128906 -0.324121 -0.557 183 129 117
0.129967 -0.324121 -0.557 181 127 115
0.131028 -0.324121 -0.557 177 123 111
0.131851 -0.323539 -0.556 179 125 113
0.13291 -0.323539 -0.556 180 126 114
0.13397 -0.323539 -0.556 178 124 112
0.135029 -0.323539 -0.556 178 124 112
0.136088 -0.323539 -0.556 176 122 110
0.137147 -0.323539 -0.556 175 121 109
0.138206 -0.323539 -0.556 173 119 107
0.139515 -0.324121 -0.557 167 113 101
0.140576 -0.324121 -0.557 167 113 101
0.141637 -0.324121 -0.557 166 112 100
0.142698 -0.324121 -0.557 165 111 99
0.143759 -0.324121 -0.557 162 108 96
0.14508 -0.324703 -0.558 156 102 90
0.146143 -0.324703 -0.558 160 106 94
0.14747 -0.325285 -0.559 161 108 100
0.148534 -0.325285 -0.559 155 102 94
0.149867 -0.325867 -0.56 151 98 90
0.150933 -0.325867 -0.56 148 95 87
0.152271 -0.326449 -0.561 147 94 86
0.153613 -0.32703 -0.562 147 94 86
0.154684 -0.32703 -0.562 145 92 84
0.156031 -0.327612 -0.563 145 92 84
0.157383 -0.328194 -0.564 144 91 83
0.158457 -0.328194 -0.564 145 92 84
0.159814 -0.328776 -0.565 142 89 81
0.161175 -0.329358 -0.566 143 90 82
0.162253 -0.329358 -0.566 142 89 81
0.163331 -0.329358 -0.566 140 87 79
0.16441 -0.329358 -0.566 142 89 81
0.16578 -0.32994 -0.567 142 89 81
0.167154 -0.330522 -0.568 141 88 80
0.168236 -0.330522 -0.568 137 84 76
0.169318 -0.330522 -0.568 140 87 79
0.1704 -0.330522 -0.568 139 86 78
0.171784 -0.331104 -0.569 134 84 77
0.172868 -0.331104 -0.569 134 84 77
0.173951 -0.331104 -0.569 134 84 77
0.175343 -0.331686 -0.57 133 83 76
0.176429 -0.331686 -0.57 130 81 76
0.177514 -0.331686 -0.57 129 80 75
0.178913 -0.332268 -0.571 129 80 75
0.180001 -0.332268 -0.571 129 80 75
0.181406 -0.33285 -0.572 128 79 74
0.182495 -0.33285 -0.572 128 79 74
0.183585 -0.33285 -0.572 128 79 75
0.184997 -0.333431 -0.573 128 79 75
0.186413 -0.334013 -0.574 124 79 74
0.187507 -0.334013 -0.574 122 77 72
0.188929 -0.334595 -0.575 122 77 72
0.190024 -0.334595 -0.575 122 77 72
0.191451 -0.335177 -0.576 123 78 73
0.192883 -0.335759 -0.577 122 77 72
0.193982 -0.335759 -0.577 122 77 72
0.195419 -0.336341 -0.578 122 79 73
0.19686 -0.336923 -0.579 123 80 74
0.198305 -0.337505 -0.58 122 78 75
0.199753 -0.338087 -0.581 121 77 74
0.201206 -0.338669 -0.582 119 75 72
0.202662 -0.33925 -0.583 120 76 73
0.204122 -0.339832 -0.584 118 77 73
0.205937 -0.340996 -0.586 117 76 72
0.207053 -0.340996 -0.586 115 74 72
0.20817 -0.340996 -0.586 117 76 74
0.21 -0.34216 -0.588 114 73 69
0.211479 -0.342742 -0.589 115 74 70
0.213323 -0.343906 -0.591 114 73 71
0.214811 -0.344488 -0.592 115 74 72
0.216669 -0.345651 -0.594 116 74 75
0.218533 -0.346815 -0.596 117 75 76
0.220406 -0.347979 -0.598 115 75 75
0.222656 -0.349725 -0.601 114 74 74
0.224546 -0.350889 -0.603 110 76 75
0.239914 -0.361945 -0.622 160 149 166
0.241874 -0.363109 -0.624 156 152 175
0.243452 -0.36369 -0.625 159 155 178
0.245034 -0.364272 -0.626 157 159 182
0.24662 -0.364854 -0.627 133 135 158
0.247814 -0.364854 -0.627 81 87 119
0.249406 -0.365436 -0.628 67 73 105
0.250602 -0.365436 -0.628 67 73 105
0.251397 -0.364854 -0.627 79 82 125
0.252591 -0.364854 -0.627 102 105 148
0.253786 -0.364854 -0.627 153 151 191
0.25498 -0.364854 -0.627 178 176 216
0.256174 -0.364854 -0.627 185 182 209
0.256958 -0.364272 -0.626 189 186 213
0.25815 -0.364272 -0.626 187 191 218
0.259343 -0.364272 -0.626 173 177 204
0.260535 -0.364272 -0.626 148 157 196
0.261728 -0.364272 -0.626 125 134 173
0.26292 -0.364272 -0.626 115 131 180
0.26369 -0.36369 -0.625 123 139 188
0.264881 -0.36369 -0.625 134 148 193
0.266071 -0.36369 -0.625 144 158 203
0.267262 -0.36369 -0.625 148 161 203
0.268452 -0.36369 -0.625 142 155 197
0.269643 -0.36369 -0.625 140 153 188
0.271267 -0.364272 -0.626 149 162 197
0.272459 -0.364272 -0.626 172 183 213
0.273651 -0.364272 -0.626 191 202 232
0.274844 -0.364272 -0.626 218 223 252
0.276036 -0.364272 -0.626 219 224 253
0.277229 -0.364272 -0.626 222 226 253
0.278421 -0.364272 -0.626 226 230 255
0.279613 -0.364272 -0.626 208 212 241
0.280806 -0.364272 -0.626 188 192 221
0.281998 -0.364272 -0.626 164 168 197
0.28319 -0.364272 -0.626 160 164 193
0.284383 -0.364272 -0.626 175 176 204
0.285575 -0.364272 -0.626 183 184 212
0.286768 -0.364272 -0.626 183 184 212
0.28796 -0.364272 -0.626 201 203 226
0.289152 -0.364272 -0.626 229 231 254
0.290345 -0.364272 -0.626 238 241 255
0.291537 -0.364272 -0.626 234 237 252
0.29273 -0.364272 -0.626 236 240 252
0.293922 -0.364272 -0.626 237 241 253
0.295586 -0.364854 -0.627 238 241 255
0.29678 -0.364854 -0.627 239 242 255
0.297974 -0.364854 -0.627 236 239 254
0.299169 -0.364854 -0.627 227 230 245
0.300363 -0.364854 -0.627 232 234 247
0.301557 -0.364854 -0.627 240 242 255
0.302751 -0.364854 -0.627 244 244 254
0.303946 -0.364854 -0.627 245 245 255
0.30514 -0.364854 -0.627 244 249 253
0.306334 -0.364854 -0.627 245 250 254
0.307529 -0.364854 -0.627 241 250 249
0.308723 -0.364854 -0.627 243 252 251
0.309917 -0.364854 -0.627 240 247 255
0.311111 -0.364854 -0.627 226 233 241
0.312306 -0.364854 -0.627 188 194 216
0.3135 -0.364854 -0.627 164 170 192
0.314694 -0.364854 -0.627 164 171 199
0.315889 -0.364854 -0.627 184 191 219
0.317589 -0.365436 -0.628 219 226 242
0.318785 -0.365436 -0.628 240 247 255
0.319981 -0.365436 -0.628 248 254 254
0.321177 -0.365436 -0.628 248 254 254
0.322373 -0.365436 -0.628 244 250 250
0.32357 -0.365436 -0.628 246 251 255
0.324766 -0.365436 -0.628 230 235 239
0.325962 -0.365436 -0.628 205 212 241
0.327158 -0.365436 -0.628 183 190 219
0.328354 -0.365436 -0.628 180 191 221
0.32955 -0.365436 -0.628 176 187 217
0.330747 -0.365436 -0.628 181 195 232
0.331943 -0.365436 -0.628 195 209 246
0.333139 -0.365436 -0.628 186 200 237
0.334868 -0.366018 -0.629 175 189 226
0.336066 -0.366018 -0.629 175 189 218
0.337264 -0.366018 -0.629 181 195 224
0.338462 -0.366018 -0.629 205 214 245
0.33966 -0.366018 -0.629 223 232 255
0.340858 -0.366018 -0.629 242 249 255
0.342056 -0.366018 -0.629 245 252 255
0.343254 -0.366018 -0.629 248 252 253
0.344452 -0.366018 -0.629 245 249 250
0.34565 -0.366018 -0.629 228 231 248
0.346849 -0.366018 -0.629 198 201 218
0.348047 -0.366018 -0.629 180 186 212
0.349245 -0.366018 -0.629 175 181 207
0.350443 -0.366018 -0.629 181 188 206
0.351641 -0.366018 -0.629 230 237 255
0.352839 -0.366018 -0.629 245 254 255
0.354037 -0.366018 -0.629 245 254 255
0.355235 -0.366018 -0.629 244 253 255
0.356433 -0.366018 -0.629 246 255 252
0.357631 -0.366018 -0.629 246 255 252
0.35883 -0.366018 -0.629 245 254 253
0.3606 -0.3666 -0.63 246 255 254
0.3618 -0.3666 -0.63 247 252 255
0.363 -0.3666 -0.63 246 251 255
0.3642 -0.3666 -0.63 237 241 250
0.3654 -0.3666 -0.63 232 236 245
0.3666 -0.3666 -0.63 242 249 255
0.3678 -0.3666 -0.63 245 252 255
0.369 -0.3666 -0.63 244 254 253
0.370788 -0.367182 -0.631 245 255 254
0.37199 -0.367182 -0.631 246 255 250
0.373191 -0.367182 -0.631 246 255 250
0.374393 -0.367182 -0.631 244 255 251
0.375595 -0.367182 -0.631 245 255 252
0.376797 -0.367182 -0.631 242 251 255
0.377999 -0.367182 -0.631 206 215 222
0.379201 -0.367182 -0.631 169 177 198
0.380403 -0.367182 -0.631 161 169 190
0.381605 -0.367182 -0.631 173 180 209
0.383413 -0.367764 -0.632 211 218 247
0.384617 -0.367764 -0.632 242 248 255
0.385821 -0.367764 -0.632 245 251 255
0.387025 -0.367764 -0.632 248 254 254
0.388229 -0.367764 -0.632 248 254 254
0.389432 -0.367764 -0.632 246 252 252
0.390636 -0.367764 -0.632 237 243 255
0.39184 -0.367764 -0.632 215 221 233
0.393044 -0.367764 -0.632 187 198 228
0.394248 -0.367764 -0.632 182 193 223
0.395451 -0.367764 -0.632 181 197 230
0.396655 -0.367764 -0.632 192 208 241
0.397859 -0.367764 -0.632 186 204 240
0.399063 -0.367764 -0.632 176 194 230
0.400267 -0.367764 -0.632 175 189 228
0.40147 -0.367764 -0.632 183 197 236
0.402674 -0.367764 -0.632 209 220 248
0.403878 -0.367764 -0.632 233 244 255
0.405082 -0.367764 -0.632 249 253 255
0.406286 -0.367764 -0.632 248 252 255
0.40749 -0.367764 -0.632 230 231 249
0.408693 -0.367764 -0.632 214 215 233
0.409897 -0.367764 -0.632 213 218 237
0.411101 -0.367764 -0.632 194 199 218
0.412305 -0.367764 -0.632 173 179 203
0.413509 -0.367764 -0.632 167 173 197
0.414712 -0.367764 -0.632 198 205 221
0.415916 -0.367764 -0.632 237 244 255
0.41778 -0.368346 -0.633 245 251 251
0.418986 -0.368346 -0.633 247 253 253
0.420191 -0.368346 -0.633 247 253 253
0.421397 -0.368346 -0.633 247 252 255
0.422603 -0.368346 -0.633 247 252 255
0.423809 -0.368346 -0.633 247 252 255
0.425014 -0.368346 -0.633 247 252 255
0.42622 -0.368346 -0.633 249 252 255
0.427426 -0.368346 -0.633 243 246 253
0.428631 -0.368346 -0.633 225 228 233
0.429837 -0.368346 -0.633 235 238 243
0.431043 -0.368346 -0.633 248 251 255
0.432249 -0.368346 -0.633 248 251 255
0.433454 -0.368346 -0.633 248 253 255
0.43466 -0.368346 -0.633 249 254 255
0.435866 -0.368346 -0.633 250 255 255
0.437762 -0.368928 -0.634 243 249 249
0.43897 -0.368928 -0.634 246 251 255
0.440177 -0.368928 -0.634 247 252 255
0.441385 -0.368928 -0.634 214 217 234
0.442592 -0.368928 -0.634 170 173 190
0.4438 -0.368928 -0.634 160 164 193
0.445008 -0.368928 -0.634 176 180 209
0.446919 -0.36951 -0.635 210 215 235
0.448129 -0.36951 -0.635 236 241 255
0.449338 -0.36951 -0.635 250 253 255
0.450548 -0.36951 -0.635 250 253 255
0.451757 -0.36951 -0.635 232 234 249
0.452967 -0.36951 -0.635 213 215 230
0.454176 -0.36951 -0.635 214 221 249
0.455386 -0.36951 -0.635 214 221 249
0.457314 -0.370091 -0.636 196 203 231
0.458526 -0.370091 -0.636 174 191 219
0.459737 -0.370091 -0.636 171 188 216
0.460949 -0.370091 -0.636 175 195 232
0.46216 -0.370091 -0.636 185 205 242
0.463371 -0.370091 -0.636 184 202 250
0.464583 -0.370091 -0.636 168 186 234
0.465794 -0.370091 -0.636 160 179 221
0.467006 -0.370091 -0.636 162 181 223
0.468217 -0.370091 -0.636 172 184 224
0.469429 -0.370091 -0.636 201 213 253
0.47064 -0.370091 -0.636 213 224 246
0.472593 -0.370673 -0.637 203 214 236
0.473807 -0.370673 -0.637 217 223 237
0.47502 -0.370673 -0.637 230 236 250
0.476233 -0.370673 -0.637 225 230 252
0.477447 -0.370673 -0.637 210 215 237
0.47866 -0.370673 -0.637 168 174 208
0.479873 -0.370673 -0.637 134 140 174
0.481087 -0.370673 -0.637 119 130 160
0.4823 -0.370673 -0.637 163 174 204
0.483513 -0.370673 -0.637 213 225 247
0.484727 -0.370673 -0.637 222 234 255
0.48594 -0.370673 -0.637 214 225 243
0.487153 -0.370673 -0.637 214 225 243
0.488367 -0.370673 -0.637 215 226 244
0.48958 -0.370673 -0.637 215 226 244
0.490793 -0.370673 -0.637 212 220 239
0.492007 -0.370673 -0.637 212 220 239
0.49322 -0.370673 -0.637 211 219 238
0.494433 -0.370673 -0.637 194 202 223
0.495647 -0.370673 -0.637 170 178 199
0.49686 -0.370673 -0.637 190 201 221
0.498073 -0.370673 -0.637 201 212 232
0.499287 -0.370673 -0.637 204 212 233
0.5005 -0.370673 -0.637 207 215 236
0.501713 -0.370673 -0.637 202 210 231
0.502927 -0.370673 -0.637 197 205 226
0.50414 -0.370673 -0.637 194 202 223
0.505353 -0.370673 -0.637 198 206 227
0.506567 -0.370673 -0.637 191 199 222
0.50778 -0.370673 -0.637 125 133 156
0.508993 -0.370673 -0.637 82 93 125
0.510207 -0.370673 -0.637 91 102 134
0.51142 -0.370673 -0.637 128 137 168
0.512633 -0.370673 -0.637 164 173 204
0.513847 -0.370673 -0.637 184 186 209
0.51506 -0.370673 -0.637 171 173 196
0.514652 -0.36951 -0.635 171 161 170
0.51505 -0.368928 -0.634 160 150 159
0.514629 -0.367764 -0.632 168 149 145
0.503348 -0.355544 -0.611 172 147 142
0.500383 -0.352634 -0.606 172 148 144
0.497399 -0.349725 -0.601 175 151 147
0.493567 -0.346233 -0.595 177 150 143
0.491374 -0.343906 -0.591 177 150 143
0.4925 -0.343906 -0.591 177 150 143
0.48945 -0.340996 -0.586 177 150 143
0.487217 -0.338669 -0.582 179 152 145
0.48497 -0.336341 -0.578 182 153 145
0.483548 -0.334595 -0.575 183 154 146
0.482957 -0.333431 -0.573 187 155 144
0.482359 -0.332268 -0.571 187 155 144
0.480907 -0.330522 -0.568 191 157 145
0.480291 -0.329358 -0.566 193 159 147
0.479669 -0.328194 -0.564 196 158 145
0.479038 -0.32703 -0.562 197 159 146
0.479254 -0.326449 -0.561 195 158 140
0.479467 -0.325867 -0.56 195 158 140
0.478817 -0.324703 -0.558 198 160 141
0.47902 -0.324121 -0.557 197 160 142
0.479219 -0.323539 -0.556 198 161 142
0.479414 -0.322957 -0.555 199 162 143
0.479606 -0.322375 -0.554 200 163 144
0.479793 -0.321793 -0.553 201 164 145
0.479977 -0.321211 -0.552 201 164 145
0.480157 -0.32063 -0.551 199 162 143
0.480333 -0.320048 -0.55 201 163 142
0.481381 -0.320048 -0.55 201 163 142
0.482429 -0.320048 -0.55 202 164 141
0.482597 -0.319466 -0.549 201 163 140
0.483643 -0.319466 -0.549 204 163 141
0.484689 -0.319466 -0.549 203 162 140
0.48485 -0.318884 -0.548 201 161 136
0.485893 -0.318884 -0.548 202 162 137
0.486049 -0.318302 -0.547 201 161 136
0.48709 -0.318302 -0.547 197 157 132
0.488132 -0.318302 -0.547 199 157 135
0.489174 -0.318302 -0.547 199 157 135
0.490216 -0.318302 -0.547 201 159 137
0.491258 -0.318302 -0.547 202 160 138
0.4914 -0.31772 -0.546 200 158 136
0.49244 -0.31772 -0.546 197 155 133
0.49348 -0.31772 -0.546 197 155 133
0.49452 -0.31772 -0.546 197 152 129
0.49556 -0.31772 -0.546 196 151 128
0.4966 -0.31772 -0.546 197 151 125
0.49764 -0.31772 -0.546 191 145 119
0.49868 -0.31772 -0.546 192 145 117
0.49972 -0.31772 -0.546 193 146 118
0.50076 -0.31772 -0.546 191 141 114
0.5018 -0.31772 -0.546 187 137 110
0.503761 -0.318302 -0.547 184 134 107
0.505726 -0.318884 -0.548 180 130 103
0.50677 -0.318884 -0.548 180 135 112
0.50874 -0.319466 -0.549 179 134 111
0.510714 -0.320048 -0.55 171 129 107
0.512692 -0.32063 -0.551 170 128 106
0.515607 -0.321793 -0.553 171 128 109
0.518529 -0.322957 -0.555 169 126 107
0.521458 -0.324121 -0.557 169 127 105
0.526271 -0.326449 -0.561 168 126 104
0.104397 -0.349702 -0.599 194 149 143
0.104657 -0.346783 -0.594 193 148 142
0.104898 -0.343864 -0.589 194 147 141
0.10494 -0.340361 -0.583 192 145 139
0.105141 -0.337442 -0.578 193 144 139
0.105874 -0.336274 -0.576 192 143 138
0.106229 -0.333939 -0.572 191 140 136
0.106943 -0.332771 -0.57 187 136 132
0.10765 -0.331604 -0.568 187 137 130
0.108349 -0.330436 -0.566 189 139 132
0.109427 -0.330436 -0.566 190 137 131
0.11031 -0.329852 -0.565 191 138 132
0.111189 -0.329269 -0.564 193 138 131
0.112064 -0.328685 -0.563 190 135 128
0.112935 -0.328101 -0.562 187 137 130
0.114006 -0.328101 -0.562 189 139 132
0.114871 -0.327517 -0.561 192 139 131
0.11594 -0.327517 -0.561 192 139 131
0.117009 -0.327517 -0.561 190 137 129
0.117867 -0.326933 -0.56 187 134 126
0.118933 -0.326933 -0.56 194 141 133
0.12 -0.326933 -0.56 191 138 130
0.12085 -0.32635 -0.559 186 134 123
0.121915 -0.32635 -0.559 186 134 123
0.12276 -0.325766 -0.558 189 135 125
0.123823 -0.325766 -0.558 187 133 123
0.124886 -0.325766 -0.558 185 131 121
0.125723 -0.325182 -0.557 185 131 121
0.126784 -0.325182 -0.557 182 128 116
0.127845 -0.325182 -0.557 181 127 115
0.128674 -0.324598 -0.556 184 131 117
0.129733 -0.324598 -0.556 182 129 115
0.130792 -0.324598 -0.556 179 126 112
0.131851 -0.324598 -0.556 179 126 112
0.13291 -0.324598 -0.556 179 126 112
0.13397 -0.324598 -0.556 178 125 111
0.135029 -0.324598 -0.556 178 125 111
0.136088 -0.324598 -0.556 178 125 111
0.137147 -0.324598 -0.556 176 123 109
0.138206 -0.324598 -0.556 170 117 103
0.139515 -0.325182 -0.557 162 109 95
0.140576 -0.325182 -0.557 163 110 96
0.141637 -0.325182 -0.557 164 111 97
0.142698 -0.325182 -0.557 165 112 98
0.144017 -0.325766 -0.558 165 112 98
0.14508 -0.325766 -0.558 161 108 94
0.146405 -0.32635 -0.559 162 109 95
0.14747 -0.32635 -0.559 162 110 99
0.1488 -0.326933 -0.56 151 99 88
0.149867 -0.326933 -0.56 150 98 87
0.151203 -0.327517 -0.561 151 99 88
0.152271 -0.327517 -0.561 147 95 84
0.153613 -0.328101 -0.562 145 93 82
0.154959 -0.328685 -0.563 146 94 83
0.156031 -0.328685 -0.563 145 93 82
0.157383 -0.329269 -0.564 145 93 82
0.158738 -0.329852 -0.565 146 94 83
0.159814 -0.329852 -0.565 143 90 82
0.161175 -0.330436 -0.566 142 89 81
0.162253 -0.330436 -0.566 142 89 81
0.16362 -0.33102 -0.567 140 87 79
0.1647 -0.33102 -0.567 141 88 80
0.16578 -0.33102 -0.567 139 86 78
0.167154 -0.331604 -0.568 137 84 78
0.168236 -0.331604 -0.568 133 80 74
0.169318 -0.331604 -0.568 134 84 77
0.1707 -0.332188 -0.569 135 85 78
0.171784 -0.332188 -0.569 135 85 78
0.172868 -0.332188 -0.569 135 85 78
0.174257 -0.332771 -0.57 133 83 76
0.175343 -0.332771 -0.57 132 82 75
0.176429 -0.332771 -0.57 129 80 75
0.177826 -0.333355 -0.571 129 80 75
0.178913 -0.333355 -0.571 130 81 76
0.180001 -0.333355 -0.571 129 80 75
0.181406 -0.333939 -0.572 127 79 75
0.182495 -0.333939 -0.572 127 79 75
0.183906 -0.334523 -0.573 126 78 74
0.184997 -0.334523 -0.573 127 79 75
0.186413 -0.335107 -0.574 126 79 73
0.187833 -0.33569 -0.575 125 78 72
0.188929 -0.33569 -0.575 125 78 72
0.190024 -0.33569 -0.575 122 77 72
0.191451 -0.336274 -0.576 122 77 72
0.192549 -0.336274 -0.576 123 78 73
0.194318 -0.337442 -0.578 123 78 73
0.195419 -0.337442 -0.578 123 78 73
0.19686 -0.338026 -0.579 124 79 74
0.198647 -0.339193 -0.581 122 78 75
0.199753 -0.339193 -0.581 120 76 73
0.201551 -0.340361 -0.583 117 76 72
0.20301 -0.340945 -0.584 117 76 72
0.204471 -0.341529 -0.585 117 76 72
0.205937 -0.342112 -0.586 117 76 72
0.207053 -0.342112 -0.586 115 74 72
0.20888 -0.34328 -0.588 114 73 71
0.210357 -0.343864 -0.589 115 71 68
0.211838 -0.344448 -0.59 116 72 69
0.213684 -0.345615 -0.592 116 72 69
0.215537 -0.346783 -0.594 114 70 67
0.217033 -0.347367 -0.595 115 71 70
0.219267 -0.349118 -0.598 118 74 73
0.221143 -0.350286 -0.6 116 77 78
0.223397 -0.352037 -0.603 117 78 79
0.239914 -0.36313 -0.622 165 154 171
0.242262 -0.364881 -0.625 160 157 178
0.243452 -0.364881 -0.625 166 163 184
0.245034 -0.365465 -0.626 160 163 182
0.246227 -0.365465 -0.626 151 154 173
0.247814 -0.366049 -0.627 124 129 159
0.249009 -0.366049 -0.627 124 129 159
0.250203 -0.366049 -0.627 102 107 137
0.251397 -0.366049 -0.627 85 89 134
0.252189 -0.365465 -0.626 84 88 133
0.253381 -0.365465 -0.626 107 108 152
0.254573 -0.365465 -0.626 147 148 192
0.255766 -0.365465 -0.626 176 180 209
0.256958 -0.365465 -0.626 185 189 218
0.257738 -0.364881 -0.625 181 188 214
0.258929 -0.364881 -0.625 172 179 205
0.260119 -0.364881 -0.625 157 170 205
0.26131 -0.364881 -0.625 130 143 178
0.2625 -0.364881 -0.625 117 133 182
0.26369 -0.364881 -0.625 126 142 191
0.264881 -0.364881 -0.625 140 154 201
0.266071 -0.364881 -0.625 144 158 205
0.267262 -0.364881 -0.625 150 164 209
0.268452 -0.364881 -0.625 146 160 205
0.269643 -0.364881 -0.625 145 159 198
0.270833 -0.364881 -0.625 160 174 213
0.272024 -0.364881 -0.625 182 193 225
0.273214 -0.364881 -0.625 197 208 240
0.274405 -0.364881 -0.625 214 221 250
0.275595 -0.364881 -0.625 215 222 251
0.276786 -0.364881 -0.625 217 221 250
0.277976 -0.364881 -0.625 201 205 234
0.279167 -0.364881 -0.625 179 178 209
0.280357 -0.364881 -0.625 166 165 196
0.281548 -0.364881 -0.625 164 167 198
0.282738 -0.364881 -0.625 181 184 215
0.283929 -0.364881 -0.625 203 204 232
0.285119 -0.364881 -0.625 203 204 232
0.28631 -0.364881 -0.625 213 214 242
0.2875 -0.364881 -0.625 195 196 217
0.289152 -0.365465 -0.626 210 211 232
0.290345 -0.365465 -0.626 242 244 255
0.291537 -0.365465 -0.626 240 242 255
0.29273 -0.365465 -0.626 238 242 254
0.293922 -0.365465 -0.626 237 241 253
0.295114 -0.365465 -0.626 239 243 255
0.296307 -0.365465 -0.626 240 244 255
0.297499 -0.365465 -0.626 239 241 253
0.299169 -0.366049 -0.627 237 239 251
0.300363 -0.366049 -0.627 243 243 253
0.301076 -0.365465 -0.626 246 246 255
0.302269 -0.365465 -0.626 244 244 254
0.303461 -0.365465 -0.626 246 246 255
0.30514 -0.366049 -0.627 243 248 252
0.306334 -0.366049 -0.627 245 250 254
0.307038 -0.365465 -0.626 246 251 254
0.30823 -0.365465 -0.626 245 250 253
0.309423 -0.365465 -0.626 244 247 252
0.311111 -0.366049 -0.627 240 243 248
0.312306 -0.366049 -0.627 219 224 243
0.3135 -0.366049 -0.627 194 199 218
0.314694 -0.366049 -0.627 174 183 212
0.315889 -0.366049 -0.627 166 175 204
0.317083 -0.366049 -0.627 185 193 216
0.318277 -0.366049 -0.627 209 217 240
0.319471 -0.366049 -0.627 241 248 255
0.320666 -0.366049 -0.627 241 248 255
0.32186 -0.366049 -0.627 247 254 255
0.323054 -0.366049 -0.627 240 248 251
0.324766 -0.366632 -0.628 231 239 242
0.325962 -0.366632 -0.628 217 224 250
0.327158 -0.366632 -0.628 195 202 228
0.328354 -0.366632 -0.628 177 190 222
0.32955 -0.366632 -0.628 177 190 222
0.330747 -0.366632 -0.628 188 203 246
0.331943 -0.366632 -0.628 194 209 252
0.333139 -0.366632 -0.628 190 205 248
0.334335 -0.366632 -0.628 178 193 236
0.335531 -0.366632 -0.628 178 191 223
0.336728 -0.366632 -0.628 192 205 237
0.337924 -0.366632 -0.628 210 220 247
0.33912 -0.366632 -0.628 224 234 255
0.340316 -0.366632 -0.628 240 250 252
0.341512 -0.366632 -0.628 245 255 255
0.342709 -0.366632 -0.628 242 249 255
0.343905 -0.366632 -0.628 217 224 232
0.345101 -0.366632 -0.628 192 198 220
0.346297 -0.366632 -0.628 177 183 205
0.347493 -0.366632 -0.628 181 188 216
0.34869 -0.366632 -0.628 192 199 227
0.349886 -0.366632 -0.628 196 205 220
0.351082 -0.366632 -0.628 228 237 252
0.352278 -0.366632 -0.628 244 254 255
0.353474 -0.366632 -0.628 244 254 255
0.35467 -0.366632 -0.628 242 252 253
0.356433 -0.367216 -0.629 244 253 250
0.357631 -0.367216 -0.629 245 254 251
0.35883 -0.367216 -0.629 246 255 254
0.360028 -0.367216 -0.629 244 253 252
0.361226 -0.367216 -0.629 243 251 253
0.363 -0.3678 -0.63 248 255 255
0.3642 -0.3678 -0.63 245 250 255
0.3654 -0.3678 -0.63 243 248 254
0.3666 -0.3678 -0.63 245 254 253
0.3678 -0.3678 -0.63 243 252 251
0.369 -0.3678 -0.63 243 254 248
0.3702 -0.3678 -0.63 244 255 249
0.3714 -0.3678 -0.63 246 255 251
0.3726 -0.3678 -0.63 244 255 249
0.3738 -0.3678 -0.63 245 255 250
0.375595 -0.368384 -0.631 245 255 250
0.376797 -0.368384 -0.631 246 255 255
0.377999 -0.368384 -0.631 232 242 243
0.379201 -0.368384 -0.631 204 213 230
0.380403 -0.368384 -0.631 184 193 210
0.381605 -0.368384 -0.631 167 176 209
0.382807 -0.368384 -0.631 178 187 220
0.384009 -0.368384 -0.631 207 212 234
0.385821 -0.368968 -0.632 229 234 255
0.387025 -0.368968 -0.632 248 254 254
0.388229 -0.368968 -0.632 248 254 254
0.389432 -0.368968 -0.632 245 251 251
0.390636 -0.368968 -0.632 240 246 255
0.39184 -0.368968 -0.632 214 220 232
0.393044 -0.368968 -0.632 188 197 230
0.394248 -0.368968 -0.632 182 191 224
0.394826 -0.368384 -0.631 185 201 235
0.396028 -0.368384 -0.631 194 210 244
0.39723 -0.368384 -0.631 188 206 246
0.398431 -0.368384 -0.631 176 194 234
0.399633 -0.368384 -0.631 179 192 234
0.400835 -0.368384 -0.631 194 207 249
0.402037 -0.368384 -0.631 212 224 248
0.403239 -0.368384 -0.631 229 241 255
0.404441 -0.368384 -0.631 242 251 250
0.405643 -0.368384 -0.631 249 255 255
0.406845 -0.368384 -0.631 229 234 255
0.408047 -0.368384 -0.631 194 199 221
0.409249 -0.368384 -0.631 180 186 212
0.41045 -0.368384 -0.631 172 178 204
0.411652 -0.368384 -0.631 179 185 211
0.412854 -0.368384 -0.631 193 199 225
0.414056 -0.368384 -0.631 221 227 241
0.415916 -0.368968 -0.632 245 251 255
0.41712 -0.368968 -0.632 247 253 253
0.418324 -0.368968 -0.632 249 255 255
0.419528 -0.368968 -0.632 249 255 255
0.420731 -0.368968 -0.632 248 253 255
0.421935 -0.368968 -0.632 245 250 254
0.423139 -0.368968 -0.632 244 253 252
0.424343 -0.368968 -0.632 248 255 255
0.425547 -0.368968 -0.632 249 252 255
0.42675 -0.368968 -0.632 250 253 255
0.427954 -0.368968 -0.632 241 245 248
0.429158 -0.368968 -0.632 245 249 252
0.430362 -0.368968 -0.632 251 255 255
0.431566 -0.368968 -0.632 248 252 255
0.43277 -0.368968 -0.632 247 253 253
0.433973 -0.368968 -0.632 247 253 253
0.435866 -0.369551 -0.633 251 255 255
0.437071 -0.369551 -0.633 246 252 250
0.438277 -0.369551 -0.633 247 253 253
0.439483 -0.369551 -0.633 249 255 255
0.440689 -0.369551 -0.633 233 239 251
0.441894 -0.369551 -0.633 205 211 223
0.4431 -0.369551 -0.633 180 184 213
0.444306 -0.369551 -0.633 165 169 198
0.446215 -0.370135 -0.634 173 179 203
0.447423 -0.370135 -0.634 199 205 229
0.44863 -0.370135 -0.634 236 239 254
0.449838 -0.370135 -0.634 225 228 243
0.451046 -0.370135 -0.634 205 208 223
0.452967 -0.370719 -0.635 218 221 236
0.454176 -0.370719 -0.635 218 226 249
0.455386 -0.370719 -0.635 218 226 249
0.456595 -0.370719 -0.635 203 211 234
0.457805 -0.370719 -0.635 177 194 222
0.459014 -0.370719 -0.635 170 187 215
0.460224 -0.370719 -0.635 177 199 238
0.461433 -0.370719 -0.635 186 208 247
0.462643 -0.370719 -0.635 183 204 251
0.463852 -0.370719 -0.635 173 194 241
0.465062 -0.370719 -0.635 164 183 226
0.466271 -0.370719 -0.635 162 181 224
0.467481 -0.370719 -0.635 179 193 230
0.469429 -0.371303 -0.636 199 213 250
0.47064 -0.371303 -0.636 221 232 252
0.471851 -0.371303 -0.636 213 224 244
0.473063 -0.371303 -0.636 189 195 209
0.474274 -0.371303 -0.636 197 203 217
0.475486 -0.371303 -0.636 215 219 248
0.476697 -0.371303 -0.636 174 178 207
0.47866 -0.371887 -0.637 144 150 186
0.47912 -0.371303 -0.636 140 146 182
0.480331 -0.371303 -0.636 151 162 190
0.481543 -0.371303 -0.636 188 199 227
0.482754 -0.371303 -0.636 215 228 245
0.484727 -0.371887 -0.637 216 229 246
0.48594 -0.371887 -0.637 214 225 243
0.487153 -0.371887 -0.637 219 230 248
0.488367 -0.371887 -0.637 216 225 240
0.48958 -0.371887 -0.637 217 226 241
0.490793 -0.371887 -0.637 214 221 239
0.492007 -0.371887 -0.637 214 221 239
0.49322 -0.371887 -0.637 215 222 240
0.494433 -0.371887 -0.637 211 218 237
0.495647 -0.371887 -0.637 195 202 221
0.49686 -0.371887 -0.637 203 210 229
0.498073 -0.371887 -0.637 208 215 234
0.499287 -0.371887 -0.637 206 213 231
0.5005 -0.371887 -0.637 205 212 230
0.501713 -0.371887 -0.637 204 211 227
0.502927 -0.371887 -0.637 202 209 225
0.50414 -0.371887 -0.637 199 206 224
0.505353 -0.371887 -0.637 196 203 221
0.506567 -0.371887 -0.637 193 200 219
0.50778 -0.371887 -0.637 167 174 193
0.508993 -0.371887 -0.637 117 125 161
0.510207 -0.371887 -0.637 88 96 132
0.51142 -0.371887 -0.637 90 98 134
0.512633 -0.371887 -0.637 118 126 162
0.51304 -0.371303 -0.636 145 149 176
0.514251 -0.371303 -0.636 138 142 169
0.514652 -0.370719 -0.635 162 156 166
0.51505 -0.370135 -0.634 164 158 168
0.514629 -0.368968 -0.632 166 151 148
0.501209 -0.354372 -0.607 176 148 145
0.498227 -0.351453 -0.602 177 149 146
0.495226 -0.348534 -0.597 177 149 145
0.492206 -0.345615 -0.592 177 149 145
0.493333 -0.345615 -0.592 177 149 145
0.490285 -0.342696 -0.587 177 149 145
0.488054 -0.340361 -0.583 178 150 146
0.486648 -0.33861 -0.58 180 153 144
0.484389 -0.336274 -0.576 181 154 145
0.482957 -0.334523 -0.573 183 153 143
0.482359 -0.333355 -0.571 184 154 144
0.481753 -0.332188 -0.569 190 156 144
0.48114 -0.33102 -0.567 191 157 145
0.480519 -0.329852 -0.565 195 157 144
0.47989 -0.328685 -0.563 196 158 145
0.479254 -0.327517 -0.561 195 158 140
0.479467 -0.326933 -0.56 193 156 138
0.478817 -0.325766 -0.558 195 158 140
0.47902 -0.325182 -0.557 197 160 142
0.479219 -0.324598 -0.556 198 161 142
0.479414 -0.324014 -0.555 199 162 144
0.479606 -0.32343 -0.554 199 160 143
0.479793 -0.322847 -0.553 199 160 143
0.479977 -0.322263 -0.552 199 161 142
0.480157 -0.321679 -0.551 199 161 142
0.480333 -0.321095 -0.55 201 163 144
0.480506 -0.320511 -0.549 201 163 144
0.481551 -0.320511 -0.549 202 161 141
0.482597 -0.320511 -0.549 198 157 137
0.482762 -0.319928 -0.548 200 159 137
0.483806 -0.319928 -0.548 203 162 140
0.48485 -0.319928 -0.548 201 160 138
0.485007 -0.319344 -0.547 200 159 137
0.486049 -0.319344 -0.547 201 161 136
0.48709 -0.319344 -0.547 200 160 135
0.48724 -0.31876 -0.546 197 155 133
0.48828 -0.31876 -0.546 197 155 133
0.48932 -0.31876 -0.546 199 157 135
0.49036 -0.31876 -0.546 201 159 137
0.4914 -0.31876 -0.546 201 159 137
0.49244 -0.31876 -0.546 198 156 134
0.49348 -0.31876 -0.546 198 156 134
0.493614 -0.318176 -0.545 197 152 129
0.494652 -0.318176 -0.545 195 150 127
0.49569 -0.318176 -0.545 197 151 125
0.496729 -0.318176 -0.545 193 147 121
0.497767 -0.318176 -0.545 194 147 119
0.498805 -0.318176 -0.545 192 145 117
0.499843 -0.318176 -0.545 190 140 113
0.5018 -0.31876 -0.546 185 135 108
0.50284 -0.31876 -0.546 182 132 107
0.504803 -0.319344 -0.547 180 130 105
0.505845 -0.319344 -0.547 183 139 114
0.507813 -0.319928 -0.548 182 138 113
0.509786 -0.320511 -0.549 176 131 108
0.511762 -0.321095 -0.55 174 129 106
0.513742 -0.321679 -0.551 177 132 111
0.51666 -0.322847 -0.553 175 130 109
0.519586 -0.324014 -0.555 173 127 104
0.522519 -0.325182 -0.557 172 126 103
0.586729 -0.357875 -0.613 170 160 161
0.104049 -0.349671 -0.597 196 149 143
0.104129 -0.346157 -0.591 196 149 143
0.104364 -0.343229 -0.586 192 145 139
0.1044 -0.339714 -0.58 188 141 135
0.105141 -0.338543 -0.578 193 144 139
0.105507 -0.3362 -0.574 191 142 137
0.105857 -0.333857 -0.57 185 135 128
0.106755 -0.333271 -0.569 182 132 125
0.10746 -0.3321 -0.567 185 135 128
0.108349 -0.331514 -0.566 187 137 130
0.109233 -0.330929 -0.565 188 135 127
0.110114 -0.330343 -0.564 189 136 128
0.110991 -0.329757 -0.563 192 137 130
0.112064 -0.329757 -0.563 192 137 130
0.112935 -0.329171 -0.562 188 138 129
0.113803 -0.328586 -0.561 188 138 129
0.114871 -0.328586 -0.561 193 140 132
0.11594 -0.328586 -0.561 192 139 131
0.1168 -0.328 -0.56 190 137 129
0.117867 -0.328 -0.56 188 135 127
0.118721 -0.327414 -0.559 194 141 133
0.119786 -0.327414 -0.559 192 139 131
0.12085 -0.327414 -0.559 189 137 126
0.121697 -0.326829 -0.558 185 133 122
0.12276 -0.326829 -0.558 185 131 121
0.123823 -0.326829 -0.558 187 133 123
0.124662 -0.326243 -0.557 188 134 124
0.125723 -0.326243 -0.557 186 132 122
0.126784 -0.326243 -0.557 182 128 118
0.127615 -0.325657 -0.556 180 126 116
0.128674 -0.325657 -0.556 180 128 114
0.129733 -0.325657 -0.556 179 127 113
0.130792 -0.325657 -0.556 176 124 110
0.131851 -0.325657 -0.556 176 124 110
0.13291 -0.325657 -0.556 175 123 109
0.13397 -0.325657 -0.556 175 123 109
0.135029 -0.325657 -0.556 174 122 108
0.136088 -0.325657 -0.556 177 124 110
0.137147 -0.325657 -0.556 177 124 110
0.138206 -0.325657 -0.556 169 116 102
0.139265 -0.325657 -0.556 162 109 95
0.140576 -0.326243 -0.557 164 111 97
0.141637 -0.326243 -0.557 166 113 99
0.142954 -0.326829 -0.558 166 113 99
0.144017 -0.326829 -0.558 166 113 99
0.14508 -0.326829 -0.558 163 110 96
0.146405 -0.327414 -0.559 161 108 94
0.147733 -0.328 -0.56 163 109 97
0.1488 -0.328 -0.56 151 97 85
0.150134 -0.328586 -0.561 150 96 84
0.151472 -0.329171 -0.562 151 97 85
0.152543 -0.329171 -0.562 146 92 80
0.153613 -0.329171 -0.562 145 91 79
0.154959 -0.329757 -0.563 148 94 82
0.156309 -0.330343 -0.564 147 93 81
0.157383 -0.330343 -0.564 147 95 82
0.158738 -0.330929 -0.565 146 94 81
0.159814 -0.330929 -0.565 144 92 81
0.161175 -0.331514 -0.566 143 91 80
0.162253 -0.331514 -0.566 142 90 79
0.16362 -0.3321 -0.567 142 90 79
0.1647 -0.3321 -0.567 141 89 78
0.16578 -0.3321 -0.567 138 86 75
0.167154 -0.332686 -0.568 135 85 78
0.168236 -0.332686 -0.568 131 81 74
0.169318 -0.332686 -0.568 131 81 74
0.1707 -0.333271 -0.569 134 84 77
0.171784 -0.333271 -0.569 137 87 80
0.172868 -0.333271 -0.569 136 86 79
0.174257 -0.333857 -0.57 133 84 79
0.175343 -0.333857 -0.57 131 82 77
0.176738 -0.334443 -0.571 129 80 75
0.177826 -0.334443 -0.571 129 80 75
0.178913 -0.334443 -0.571 129 80 75
0.180316 -0.335029 -0.572 128 79 74
0.181406 -0.335029 -0.572 128 80 76
0.182814 -0.335614 -0.573 128 80 76
0.183906 -0.335614 -0.573 128 80 76
0.18532 -0.3362 -0.574 128 80 76
0.186413 -0.3362 -0.574 128 81 75
0.187833 -0.336786 -0.575 127 80 74
0.188929 -0.336786 -0.575 127 80 74
0.190354 -0.337371 -0.576 124 76 72
0.191451 -0.337371 -0.576 123 75 71
0.192883 -0.337957 -0.577 123 78 73
0.194318 -0.338543 -0.578 124 79 74
0.195757 -0.339129 -0.579 123 78 73
0.1972 -0.339714 -0.58 124 79 74
0.198647 -0.3403 -0.581 122 78 75
0.200097 -0.340886 -0.582 120 76 73
0.201897 -0.342057 -0.584 117 76 72
0.20301 -0.342057 -0.584 117 76 72
0.204471 -0.342643 -0.585 117 76 72
0.205937 -0.343229 -0.586 115 74 70
0.20776 -0.3444 -0.588 114 73 69
0.209235 -0.344986 -0.589 113 72 68
0.210714 -0.345571 -0.59 120 75 72
0.212556 -0.346743 -0.592 119 74 71
0.214045 -0.347329 -0.593 117 72 69
0.2159 -0.3485 -0.595 116 71 68
0.217763 -0.349671 -0.597 114 73 71
0.219633 -0.350843 -0.599 117 76 74
0.22188 -0.3526 -0.602 115 81 82
0.238346 -0.363729 -0.621 163 154 171
0.2403 -0.3649 -0.623 167 158 175
0.242262 -0.366071 -0.625 164 161 182
0.243452 -0.366071 -0.625 165 162 183
0.245034 -0.366657 -0.626 162 163 181
0.246227 -0.366657 -0.626 166 167 185
0.247419 -0.366657 -0.626 154 158 187
0.248611 -0.366657 -0.626 154 158 187
0.250203 -0.367243 -0.627 132 136 165
0.250996 -0.366657 -0.626 110 113 156
0.252189 -0.366657 -0.626 99 102 145
0.253381 -0.366657 -0.626 98 101 144
0.254573 -0.366657 -0.626 120 123 166
0.255766 -0.366657 -0.626 174 180 212
0.256548 -0.366071 -0.625 182 188 220
0.257738 -0.366071 -0.625 170 181 209
0.258929 -0.366071 -0.625 174 185 213
0.260119 -0.366071 -0.625 162 176 211
0.26131 -0.366071 -0.625 148 162 197
0.2625 -0.366071 -0.625 120 134 183
0.26369 -0.366071 -0.625 126 140 189
0.264881 -0.366071 -0.625 141 157 206
0.266071 -0.366071 -0.625 147 163 212
0.267262 -0.366071 -0.625 147 164 210
0.268452 -0.366071 -0.625 138 155 201
0.269643 -0.366071 -0.625 146 161 204
0.270833 -0.366071 -0.625 176 191 234
0.272024 -0.366071 -0.625 190 203 238
0.273214 -0.366071 -0.625 198 211 246
0.274405 -0.366071 -0.625 213 222 253
0.275595 -0.366071 -0.625 218 227 255
0.276786 -0.366071 -0.625 209 212 243
0.277976 -0.366071 -0.625 177 180 211
0.279167 -0.366071 -0.625 172 171 202
0.280357 -0.366071 -0.625 178 177 208
0.281548 -0.366071 -0.625 195 199 228
0.282738 -0.366071 -0.625 208 212 241
0.283929 -0.366071 -0.625 227 229 254
0.285119 -0.366071 -0.625 227 229 254
0.28631 -0.366071 -0.625 232 234 255
0.2875 -0.366071 -0.625 227 228 248
0.28869 -0.366071 -0.625 209 210 230
0.289881 -0.366071 -0.625 232 234 247
0.291537 -0.366657 -0.626 241 243 255
0.29273 -0.366657 -0.626 242 246 255
0.293922 -0.366657 -0.626 238 242 253
0.295114 -0.366657 -0.626 239 243 252
0.296307 -0.366657 -0.626 241 245 254
0.297499 -0.366657 -0.626 241 244 253
0.298691 -0.366657 -0.626 241 244 253
0.299884 -0.366657 -0.626 244 244 254
0.301076 -0.366657 -0.626 244 244 254
0.301786 -0.366071 -0.625 244 247 254
0.303461 -0.366657 -0.626 247 250 255
0.304653 -0.366657 -0.626 243 248 254
0.305846 -0.366657 -0.626 243 248 254
0.307038 -0.366657 -0.626 246 251 255
0.30823 -0.366657 -0.626 245 250 254
0.309423 -0.366657 -0.626 246 247 252
0.310615 -0.366657 -0.626 247 248 253
0.311808 -0.366657 -0.626 241 244 255
0.313 -0.366657 -0.626 223 226 241
0.314192 -0.366657 -0.626 203 210 236
0.315385 -0.366657 -0.626 183 190 216
0.316577 -0.366657 -0.626 175 185 210
0.31777 -0.366657 -0.626 186 196 221
0.318962 -0.366657 -0.626 230 235 255
0.320154 -0.366657 -0.626 230 235 255
0.321347 -0.366657 -0.626 245 250 255
0.322539 -0.366657 -0.626 237 245 248
0.324249 -0.367243 -0.627 230 238 241
0.325443 -0.367243 -0.627 225 233 255
0.326637 -0.367243 -0.627 206 214 237
0.327831 -0.367243 -0.627 176 189 224
0.329026 -0.367243 -0.627 176 189 224
0.33022 -0.367243 -0.627 191 205 252
0.331414 -0.367243 -0.627 195 209 255
0.332609 -0.367243 -0.627 185 199 246
0.333803 -0.367243 -0.627 172 186 233
0.334997 -0.367243 -0.627 177 190 225
0.336191 -0.367243 -0.627 205 218 253
0.337386 -0.367243 -0.627 219 230 252
0.33858 -0.367243 -0.627 226 237 255
0.339774 -0.367243 -0.627 241 251 253
0.340969 -0.367243 -0.627 246 255 255
0.342163 -0.367243 -0.627 226 234 253
0.343357 -0.367243 -0.627 191 199 218
0.344551 -0.367243 -0.627 182 189 215
0.345746 -0.367243 -0.627 193 200 226
0.34694 -0.367243 -0.627 206 214 237
0.348134 -0.367243 -0.627 220 228 251
0.349329 -0.367243 -0.627 218 226 237
0.350523 -0.367243 -0.627 223 231 242
0.351717 -0.367243 -0.627 248 253 255
0.352911 -0.367243 -0.627 248 253 255
0.354106 -0.367243 -0.627 246 251 254
0.355867 -0.367829 -0.628 246 251 254
0.357063 -0.367829 -0.628 245 250 253
0.358259 -0.367829 -0.628 249 254 255
0.359455 -0.367829 -0.628 251 255 255
0.360651 -0.367829 -0.628 245 254 253
0.362424 -0.368414 -0.629 247 255 255
0.363622 -0.368414 -0.629 248 249 254
0.36482 -0.368414 -0.629 249 250 255
0.366018 -0.368414 -0.629 249 253 252
0.367216 -0.368414 -0.629 247 251 250
0.368414 -0.368414 -0.629 249 255 251
0.369612 -0.368414 -0.629 249 255 251
0.37081 -0.368414 -0.629 249 255 255
0.3726 -0.369 -0.63 246 255 252
0.3738 -0.369 -0.63 250 255 254
0.375 -0.369 -0.63 250 255 254
0.3762 -0.369 -0.63 249 255 253
0.3774 -0.369 -0.63 248 254 252
0.3786 -0.369 -0.63 231 237 249
0.3798 -0.369 -0.63 216 222 234
0.381 -0.369 -0.63 194 201 229
0.3822 -0.369 -0.63 181 188 216
0.384009 -0.369586 -0.631 185 189 216
0.38521 -0.369586 -0.631 211 215 242
0.386412 -0.369586 -0.631 247 255 255
0.387614 -0.369586 -0.631 247 255 255
0.388816 -0.369586 -0.631 244 252 255
0.390018 -0.369586 -0.631 233 241 252
0.39122 -0.369586 -0.631 213 221 232
0.392422 -0.369586 -0.631 201 210 243
0.393624 -0.369586 -0.631 188 197 230
0.3942 -0.369 -0.63 177 193 229
