ply
format ascii 1.0
comment Created by Open3D
element vertex 1286
property double x
property double y
property double z
property uchar red
property uchar green
property uchar blue
end_header
0.496226 -0.394711 -0.627 147 152 190
0.49742 -0.394711 -0.627 167 172 210
0.498614 -0.394711 -0.627 164 172 183
0.500606 -0.395341 -0.628 170 178 189
0.501802 -0.395341 -0.628 171 169 180
0.502998 -0.395341 -0.628 138 136 147
0.504194 -0.395341 -0.628 135 135 145
0.50539 -0.395341 -0.628 166 166 176
0.506587 -0.395341 -0.628 171 178 186
0.507783 -0.395341 -0.628 165 172 180
0.508979 -0.395341 -0.628 133 148 171
0.510175 -0.395341 -0.628 102 117 140
0.511371 -0.395341 -0.628 85 108 152
0.512568 -0.395341 -0.628 86 109 153
0.513764 -0.395341 -0.628 97 126 170
0.51414 -0.394711 -0.627 110 139 183
0.515334 -0.394711 -0.627 110 138 175
0.516529 -0.394711 -0.627 121 149 186
0.517723 -0.394711 -0.627 115 139 183
0.518917 -0.394711 -0.627 96 120 164
0.520111 -0.394711 -0.627 89 115 152
0.521306 -0.394711 -0.627 96 122 159
0.5225 -0.394711 -0.627 119 127 150
0.523694 -0.394711 -0.627 135 143 166
0.524889 -0.394711 -0.627 181 180 194
0.526083 -0.394711 -0.627 186 185 199
0.526436 -0.394082 -0.626 184 188 200
0.527629 -0.394082 -0.626 186 190 202
0.528821 -0.394082 -0.626 187 191 203
0.530013 -0.394082 -0.626 183 187 199
0.531206 -0.394082 -0.626 183 187 199
0.532398 -0.394082 -0.626 190 188 201
0.53359 -0.394082 -0.626 189 187 200
0.534783 -0.394082 -0.626 179 181 202
0.535975 -0.394082 -0.626 142 144 165
0.537168 -0.394082 -0.626 89 102 137
0.53836 -0.394082 -0.626 85 98 133
0.539552 -0.394082 -0.626 117 133 169
0.540745 -0.394082 -0.626 131 147 183
0.533511 -0.379603 -0.603 147 121 122
0.50401 -0.35631 -0.566 163 126 117
0.497056 -0.350645 -0.557 165 127 114
0.491857 -0.346238 -0.55 166 128 115
0.488424 -0.34309 -0.545 167 130 114
0.484971 -0.339943 -0.54 167 130 114
0.4824 -0.337425 -0.536 168 129 114
0.481617 -0.336166 -0.534 170 131 116
0.479923 -0.334277 -0.531 173 131 115
0.478217 -0.332389 -0.528 174 132 116
0.477408 -0.33113 -0.526 172 130 114
0.47659 -0.32987 -0.524 172 130 114
0.475766 -0.328611 -0.522 172 129 112
0.475847 -0.327982 -0.521 172 129 112
0.475009 -0.326723 -0.519 171 128 111
0.47508 -0.326093 -0.518 174 131 114
0.474229 -0.324834 -0.516 178 135 118
0.475211 -0.324834 -0.516 178 135 118
0.475271 -0.324205 -0.515 178 135 116
0.474403 -0.322946 -0.513 178 135 116
0.47538 -0.322946 -0.513 178 135 116
0.475429 -0.322316 -0.512 177 135 113
0.476404 -0.322316 -0.512 177 135 113
0.476447 -0.321687 -0.511 180 135 114
0.476486 -0.321057 -0.51 181 136 115
0.477457 -0.321057 -0.51 182 137 116
0.47749 -0.320428 -0.509 183 138 117
0.47846 -0.320428 -0.509 178 133 110
0.478488 -0.319798 -0.508 178 133 112
0.479455 -0.319798 -0.508 177 132 109
0.479477 -0.319169 -0.507 175 130 107
0.479495 -0.318539 -0.506 176 130 107
0.480459 -0.318539 -0.506 178 132 109
0.481423 -0.318539 -0.506 180 134 111
0.481433 -0.31791 -0.505 179 133 110
0.482395 -0.31791 -0.505 180 134 111
0.4824 -0.31728 -0.504 179 133 110
0.48336 -0.31728 -0.504 178 134 109
0.48432 -0.31728 -0.504 178 134 109
0.48528 -0.31728 -0.504 177 132 109
0.485275 -0.31665 -0.503 176 131 108
0.486233 -0.31665 -0.503 176 131 108
0.487191 -0.31665 -0.503 175 130 107
0.48815 -0.31665 -0.503 179 134 111
0.489108 -0.31665 -0.503 180 135 112
0.490066 -0.31665 -0.503 181 136 113
0.491024 -0.31665 -0.503 181 136 113
0.491982 -0.31665 -0.503 178 133 110
0.49294 -0.31665 -0.503 173 128 105
0.49488 -0.31728 -0.504 170 125 102
0.49584 -0.31728 -0.504 170 125 102
0.4968 -0.31728 -0.504 169 124 105
0.49776 -0.31728 -0.504 169 124 105
0.49872 -0.31728 -0.504 169 124 105
0.500671 -0.31791 -0.505 169 124 105
0.502627 -0.318539 -0.506 168 125 108
0.50359 -0.318539 -0.506 165 122 105
0.505551 -0.319169 -0.507 157 115 99
0.507516 -0.319798 -0.508 156 114 98
0.509485 -0.320428 -0.509 157 115 99
0.511457 -0.321057 -0.51 158 116 100
0.513433 -0.321687 -0.511 159 117 103
0.515413 -0.322316 -0.512 159 117 103
0.517397 -0.322946 -0.513 156 116 104
0.520395 -0.324205 -0.515 153 113 101
0.523401 -0.325464 -0.517 152 112 100
0.526414 -0.326723 -0.519 152 112 100
1.14542 -0.397859 -0.632 202 204 193
1.14481 -0.39723 -0.631 202 204 193
0.0837238 -0.372543 -0.59 192 148 137
0.0841286 -0.369386 -0.585 191 147 136
0.08466 -0.36686 -0.581 193 149 138
0.0850286 -0.363703 -0.576 196 149 141
0.0852286 -0.359914 -0.57 195 148 140
0.0855571 -0.356757 -0.565 194 146 134
0.0861733 -0.354863 -0.562 196 148 136
0.0866229 -0.352337 -0.558 196 148 136
0.0875286 -0.351706 -0.557 196 148 136
0.0882714 -0.350443 -0.555 195 149 136
0.0891676 -0.349811 -0.554 195 149 136
0.0902229 -0.349811 -0.554 196 150 137
0.0911133 -0.34918 -0.553 197 151 138
0.0921667 -0.34918 -0.553 199 151 137
0.09322 -0.34918 -0.553 200 152 138
0.0942733 -0.34918 -0.553 200 151 136
0.0953267 -0.34918 -0.553 199 150 135
0.09638 -0.34918 -0.553 197 148 133
0.0974333 -0.34918 -0.553 194 145 130
0.0984867 -0.34918 -0.553 192 143 126
0.09936 -0.348549 -0.552 191 142 125
0.100411 -0.348549 -0.552 191 142 125
0.101463 -0.348549 -0.552 190 141 124
0.102514 -0.348549 -0.552 192 141 122
0.103378 -0.347917 -0.551 191 140 121
0.104428 -0.347917 -0.551 192 141 122
0.105286 -0.347286 -0.55 192 141 122
0.106333 -0.347286 -0.55 192 141 122
0.107381 -0.347286 -0.55 193 142 123
0.108429 -0.347286 -0.55 191 140 119
0.109476 -0.347286 -0.55 191 140 119
0.110323 -0.346654 -0.549 191 139 117
0.111369 -0.346654 -0.549 190 138 116
0.112414 -0.346654 -0.549 190 138 116
0.113667 -0.347286 -0.55 186 134 112
0.114714 -0.347286 -0.55 182 130 108
0.115762 -0.347286 -0.55 182 130 109
0.11681 -0.347286 -0.55 181 129 108
0.117857 -0.347286 -0.55 179 127 106
0.119121 -0.347917 -0.551 179 127 106
0.12017 -0.347917 -0.551 175 122 104
0.12122 -0.347917 -0.551 168 115 97
0.122491 -0.348549 -0.552 164 111 95
0.123767 -0.34918 -0.553 165 112 96
0.125046 -0.349811 -0.554 163 110 94
0.126329 -0.350443 -0.555 159 106 90
0.127615 -0.351074 -0.556 156 103 89
0.128906 -0.351706 -0.557 155 102 88
0.1302 -0.352337 -0.558 147 100 92
0.131498 -0.352969 -0.559 145 98 90
0.1328 -0.3536 -0.56 144 97 87
0.134106 -0.354231 -0.561 142 95 85
0.135415 -0.354863 -0.562 140 93 85
0.136729 -0.355494 -0.563 138 91 83
0.138046 -0.356126 -0.564 134 89 83
0.139367 -0.356757 -0.565 131 86 80
0.140691 -0.357389 -0.566 130 85 79
0.14202 -0.35802 -0.567 131 86 80
0.143352 -0.358651 -0.568 132 87 81
0.144434 -0.358651 -0.568 131 86 80
0.146029 -0.359914 -0.57 129 84 79
0.147372 -0.360546 -0.571 129 84 79
0.14872 -0.361177 -0.572 129 84 79
0.14981 -0.361177 -0.572 128 83 78
0.151163 -0.361809 -0.573 124 83 79
0.15252 -0.36244 -0.574 124 83 79
0.153881 -0.363071 -0.575 123 82 80
0.155246 -0.363703 -0.576 122 81 79
0.156614 -0.364334 -0.577 120 80 78
0.157713 -0.364334 -0.577 121 81 79
0.159088 -0.364966 -0.578 122 83 78
0.160466 -0.365597 -0.579 123 84 79
0.161848 -0.366229 -0.58 121 82 77
0.163514 -0.367491 -0.582 122 83 78
0.164906 -0.368123 -0.583 121 84 78
0.166301 -0.368754 -0.584 120 83 77
0.167987 -0.370017 -0.586 120 83 77
0.169391 -0.370649 -0.587 121 84 78
0.17109 -0.371911 -0.589 121 84 78
0.172505 -0.372543 -0.59 120 83 77
0.174217 -0.373806 -0.592 121 82 87
0.175641 -0.374437 -0.593 120 81 86
0.177069 -0.375069 -0.594 120 81 82
0.19992 -0.386434 -0.612 153 145 166
0.201086 -0.386434 -0.612 151 143 164
0.202582 -0.387066 -0.613 148 144 161
0.204082 -0.387697 -0.614 153 149 166
0.205251 -0.387697 -0.614 154 151 168
0.206757 -0.388329 -0.615 151 148 165
0.207929 -0.388329 -0.615 154 152 174
0.2091 -0.388329 -0.615 157 155 177
0.210271 -0.388329 -0.615 120 119 151
0.211443 -0.388329 -0.615 61 60 92
0.212614 -0.388329 -0.615 61 64 97
0.213786 -0.388329 -0.615 78 81 114
0.214957 -0.388329 -0.615 106 109 140
0.216129 -0.388329 -0.615 116 119 150
0.2173 -0.388329 -0.615 141 147 173
0.218471 -0.388329 -0.615 143 149 175
0.22 -0.38896 -0.616 107 121 158
0.221173 -0.38896 -0.616 65 79 116
0.222347 -0.38896 -0.616 41 61 114
0.22352 -0.38896 -0.616 63 83 136
0.224693 -0.38896 -0.616 112 126 165
0.225867 -0.38896 -0.616 141 155 194
0.22704 -0.38896 -0.616 139 146 175
0.228213 -0.38896 -0.616 113 120 149
0.229387 -0.38896 -0.616 103 112 151
0.23056 -0.38896 -0.616 74 83 122
0.231733 -0.38896 -0.616 53 62 105
0.232907 -0.38896 -0.616 71 80 123
0.23408 -0.38896 -0.616 130 134 171
0.235253 -0.38896 -0.616 164 168 205
0.236427 -0.38896 -0.616 164 168 205
0.2376 -0.38896 -0.616 165 171 183
0.238773 -0.38896 -0.616 173 179 191
0.239557 -0.388329 -0.615 174 174 198
0.240729 -0.388329 -0.615 173 173 197
0.2419 -0.388329 -0.615 178 179 199
0.243071 -0.388329 -0.615 181 182 202
0.244243 -0.388329 -0.615 177 178 196
0.245414 -0.388329 -0.615 179 180 198
0.246586 -0.388329 -0.615 173 174 194
0.247757 -0.388329 -0.615 130 131 151
0.248929 -0.388329 -0.615 100 121 164
0.2501 -0.388329 -0.615 101 122 165
0.251271 -0.388329 -0.615 109 128 171
0.252443 -0.388329 -0.615 122 141 184
0.253614 -0.388329 -0.615 114 136 177
0.254786 -0.388329 -0.615 112 134 175
0.255957 -0.388329 -0.615 126 148 187
0.257129 -0.388329 -0.615 121 143 182
0.2583 -0.388329 -0.615 107 126 169
0.259471 -0.388329 -0.615 114 133 176
0.260643 -0.388329 -0.615 116 137 180
0.261814 -0.388329 -0.615 156 177 220
0.262986 -0.388329 -0.615 197 200 217
0.264157 -0.388329 -0.615 203 206 223
0.265329 -0.388329 -0.615 205 204 220
0.2665 -0.388329 -0.615 207 206 222
0.267671 -0.388329 -0.615 201 207 219
0.268843 -0.388329 -0.615 201 207 219
0.270014 -0.388329 -0.615 209 208 226
0.271186 -0.388329 -0.615 207 206 224
0.272357 -0.388329 -0.615 209 210 231
0.273529 -0.388329 -0.615 180 181 202
0.2747 -0.388329 -0.615 180 181 202
0.29744 -0.38896 -0.616 100 114 159
0.298613 -0.38896 -0.616 154 168 213
0.299787 -0.38896 -0.616 198 203 225
0.30096 -0.38896 -0.616 200 205 227
0.302133 -0.38896 -0.616 208 207 225
0.303307 -0.38896 -0.616 207 206 224
0.3085 -0.389591 -0.617 203 209 225
0.309675 -0.389591 -0.617 205 206 226
0.31085 -0.389591 -0.617 202 203 223
0.312026 -0.389591 -0.617 202 203 223
0.313201 -0.389591 -0.617 155 165 201
0.314376 -0.389591 -0.617 132 142 178
0.315551 -0.389591 -0.617 108 137 181
0.316727 -0.389591 -0.617 99 128 172
0.317902 -0.389591 -0.617 126 150 198
0.319594 -0.390223 -0.618 132 156 204
0.320771 -0.390223 -0.618 121 149 189
0.321949 -0.390223 -0.618 133 161 201
0.323126 -0.390223 -0.618 111 145 190
0.324303 -0.390223 -0.618 99 133 178
0.32548 -0.390223 -0.618 98 129 173
0.326657 -0.390223 -0.618 115 146 190
0.327834 -0.390223 -0.618 170 184 211
0.329011 -0.390223 -0.618 189 203 230
0.330189 -0.390223 -0.618 196 204 217
0.331366 -0.390223 -0.618 198 206 219
0.332543 -0.390223 -0.618 193 205 219
0.33372 -0.390223 -0.618 189 201 215
0.334897 -0.390223 -0.618 195 202 218
0.336074 -0.390223 -0.618 202 209 225
0.337251 -0.390223 -0.618 189 189 197
0.338429 -0.390223 -0.618 152 152 160
0.339606 -0.390223 -0.618 154 160 192
0.340783 -0.390223 -0.618 114 120 152
0.34196 -0.390223 -0.618 69 89 139
0.343692 -0.390854 -0.619 81 101 151
0.344871 -0.390854 -0.619 119 140 183
0.34605 -0.390854 -0.619 129 150 193
0.34723 -0.390854 -0.619 129 150 193
0.348409 -0.390854 -0.619 162 181 211
0.349588 -0.390854 -0.619 173 192 222
0.351333 -0.391486 -0.62 143 163 200
0.352514 -0.391486 -0.62 90 110 147
0.353125 -0.390854 -0.619 41 78 148
0.354304 -0.390854 -0.619 68 105 175
0.355483 -0.390854 -0.619 143 157 192
0.357238 -0.391486 -0.62 173 187 222
0.358419 -0.391486 -0.62 167 181 208
0.3596 -0.391486 -0.62 139 153 180
0.360781 -0.391486 -0.62 125 146 193
0.361962 -0.391486 -0.62 90 111 158
0.363143 -0.391486 -0.62 62 83 136
0.364324 -0.391486 -0.62 83 104 157
0.365505 -0.391486 -0.62 162 177 210
0.366686 -0.391486 -0.62 181 196 229
0.367867 -0.391486 -0.62 187 193 209
0.369048 -0.391486 -0.62 190 196 212
0.370229 -0.391486 -0.62 191 197 211
0.37141 -0.391486 -0.62 190 196 210
0.37259 -0.391486 -0.62 187 194 210
0.373771 -0.391486 -0.62 188 195 211
0.374952 -0.391486 -0.62 190 196 210
0.376133 -0.391486 -0.62 188 194 208
0.377314 -0.391486 -0.62 159 173 200
0.378495 -0.391486 -0.62 102 116 143
0.379676 -0.391486 -0.62 95 119 157
0.380857 -0.391486 -0.62 95 119 157
0.382038 -0.391486 -0.62 91 115 153
0.383219 -0.391486 -0.62 108 132 176
0.3844 -0.391486 -0.62 125 149 193
0.385581 -0.391486 -0.62 119 147 194
0.386762 -0.391486 -0.62 104 132 179
0.388569 -0.392117 -0.621 84 115 169
0.389751 -0.392117 -0.621 95 126 180
0.390934 -0.392117 -0.621 115 137 176
0.392117 -0.392117 -0.621 162 184 223
0.3933 -0.392117 -0.621 185 192 210
0.394483 -0.392117 -0.621 189 196 214
0.395666 -0.392117 -0.621 195 198 207
0.396849 -0.392117 -0.621 162 165 174
0.398031 -0.392117 -0.621 143 146 155
0.399214 -0.392117 -0.621 179 182 191
0.401042 -0.392749 -0.622 187 191 203
0.402227 -0.392749 -0.622 189 193 205
0.403411 -0.392749 -0.622 184 186 207
0.404596 -0.392749 -0.622 138 140 161
0.405781 -0.392749 -0.622 60 77 123
0.406966 -0.392749 -0.622 68 85 131
0.40815 -0.392749 -0.622 109 122 167
0.409335 -0.392749 -0.622 134 147 192
0.41052 -0.392749 -0.622 140 159 192
0.411705 -0.392749 -0.622 165 184 217
0.41289 -0.392749 -0.622 148 169 200
0.414074 -0.392749 -0.622 107 128 159
0.415259 -0.392749 -0.622 107 128 159
0.416444 -0.392749 -0.622 49 78 138
0.417629 -0.392749 -0.622 49 78 138
0.418813 -0.392749 -0.622 108 134 183
0.420673 -0.39338 -0.623 148 174 223
0.42186 -0.39338 -0.623 165 178 212
0.423047 -0.39338 -0.623 135 148 182
0.424233 -0.39338 -0.623 129 143 178
0.42542 -0.39338 -0.623 94 108 143
0.427291 -0.394011 -0.624 66 87 134
0.42848 -0.394011 -0.624 61 82 129
0.429669 -0.394011 -0.624 138 148 183
0.430857 -0.394011 -0.624 172 182 217
0.432046 -0.394011 -0.624 183 182 198
0.433234 -0.394011 -0.624 185 184 200
0.434423 -0.394011 -0.624 185 187 199
0.435611 -0.394011 -0.624 185 187 199
0.4368 -0.394011 -0.624 184 191 207
0.437989 -0.394011 -0.624 165 172 188
0.438473 -0.39338 -0.623 143 142 150
0.43966 -0.39338 -0.623 164 163 171
0.440847 -0.39338 -0.623 164 169 188
0.442033 -0.39338 -0.623 119 124 143
0.443931 -0.394011 -0.624 84 118 166
0.44512 -0.394011 -0.624 78 112 160
0.446309 -0.394011 -0.624 81 109 157
0.447497 -0.394011 -0.624 107 135 183
0.448686 -0.394011 -0.624 88 118 168
0.449874 -0.394011 -0.624 98 128 178
0.451063 -0.394011 -0.624 98 128 178
0.452251 -0.394011 -0.624 94 124 174
0.45344 -0.394011 -0.624 81 111 161
0.454629 -0.394011 -0.624 79 107 155
0.455817 -0.394011 -0.624 82 110 158
0.457006 -0.394011 -0.624 102 121 163
0.458194 -0.394011 -0.624 153 172 214
0.459383 -0.394011 -0.624 137 137 149
0.460571 -0.394011 -0.624 123 123 135
0.46176 -0.394011 -0.624 163 163 175
0.46369 -0.394643 -0.625 177 177 189
0.464881 -0.394643 -0.625 176 176 188
0.466071 -0.394643 -0.625 175 175 187
0.467262 -0.394643 -0.625 176 177 195
0.468452 -0.394643 -0.625 178 179 197
0.470394 -0.395274 -0.626 146 155 184
0.471587 -0.395274 -0.626 73 82 111
0.472779 -0.395274 -0.626 60 78 118
0.473214 -0.394643 -0.625 93 111 151
0.474405 -0.394643 -0.625 123 138 177
0.475595 -0.394643 -0.625 134 149 188
0.476786 -0.394643 -0.625 152 161 192
0.477976 -0.394643 -0.625 162 171 202
0.479167 -0.394643 -0.625 143 159 192
0.480357 -0.394643 -0.625 111 127 160
0.481548 -0.394643 -0.625 66 87 140
0.482738 -0.394643 -0.625 72 93 146
0.483929 -0.394643 -0.625 118 136 174
0.485119 -0.394643 -0.625 149 167 205
0.48631 -0.394643 -0.625 159 166 195
0.48828 -0.395274 -0.626 149 156 185
0.489472 -0.395274 -0.626 136 144 180
0.490665 -0.395274 -0.626 136 144 180
0.491857 -0.395274 -0.626 108 116 152
0.49305 -0.395274 -0.626 88 96 133
0.494242 -0.395274 -0.626 68 76 113
0.495434 -0.395274 -0.626 98 102 140
0.496627 -0.395274 -0.626 158 162 200
0.498614 -0.395906 -0.627 166 175 192
0.499809 -0.395906 -0.627 170 179 196
0.501003 -0.395906 -0.627 179 177 190
0.502197 -0.395906 -0.627 160 158 171
0.503391 -0.395906 -0.627 131 131 141
0.504586 -0.395906 -0.627 130 130 140
0.50578 -0.395906 -0.627 154 158 167
0.506974 -0.395906 -0.627 172 176 185
0.508169 -0.395906 -0.627 136 149 168
0.509363 -0.395906 -0.627 91 104 123
0.510557 -0.395906 -0.627 86 105 147
0.511751 -0.395906 -0.627 84 103 145
0.512946 -0.395906 -0.627 92 119 162
0.51414 -0.395906 -0.627 113 140 183
0.515334 -0.395906 -0.627 120 150 188
0.516529 -0.395906 -0.627 128 158 196
0.517723 -0.395906 -0.627 113 137 181
0.518917 -0.395906 -0.627 92 116 160
0.520111 -0.395906 -0.627 86 110 146
0.521306 -0.395906 -0.627 93 117 153
0.521667 -0.395274 -0.626 103 111 134
0.522859 -0.395274 -0.626 153 161 184
0.524051 -0.395274 -0.626 184 183 199
0.525244 -0.395274 -0.626 183 182 198
0.526436 -0.395274 -0.626 188 190 205
0.527629 -0.395274 -0.626 190 192 207
0.528821 -0.395274 -0.626 185 187 202
0.530013 -0.395274 -0.626 189 191 206
0.531206 -0.395274 -0.626 189 191 206
0.532398 -0.395274 -0.626 189 187 201
0.53359 -0.395274 -0.626 191 189 203
0.534783 -0.395274 -0.626 170 172 193
0.535281 -0.382014 -0.605 143 122 121
0.530227 -0.377594 -0.598 147 126 125
0.508462 -0.360546 -0.571 162 127 121
0.500626 -0.354231 -0.561 165 127 114
0.49454 -0.34918 -0.553 166 128 115
0.490216 -0.345391 -0.547 168 128 116
0.486768 -0.342234 -0.542 167 127 115
0.4833 -0.339077 -0.537 167 128 113
0.481617 -0.337183 -0.534 169 130 115
0.480827 -0.33592 -0.532 171 132 117
0.479123 -0.334026 -0.529 172 133 118
0.478315 -0.332763 -0.527 172 130 114
0.47659 -0.330869 -0.524 173 131 115
0.476677 -0.330237 -0.523 173 130 114
0.475847 -0.328974 -0.521 172 129 113
0.475009 -0.327711 -0.519 173 130 113
0.47508 -0.32708 -0.518 174 131 114
0.474229 -0.325817 -0.516 178 135 118
0.475211 -0.325817 -0.516 180 137 120
0.475271 -0.325186 -0.515 178 135 116
0.475328 -0.324554 -0.514 178 135 116
0.47538 -0.323923 -0.513 178 135 116
0.476357 -0.323923 -0.513 178 135 116
0.476404 -0.323291 -0.512 178 135 116
0.476447 -0.32266 -0.511 180 135 114
0.476486 -0.322029 -0.51 181 136 115
0.477457 -0.322029 -0.51 182 137 116
0.47749 -0.321397 -0.509 182 137 116
0.47846 -0.321397 -0.509 179 134 113
0.478488 -0.320766 -0.508 178 133 112
0.479455 -0.320766 -0.508 178 133 112
0.479477 -0.320134 -0.507 177 132 111
0.479495 -0.319503 -0.506 176 129 109
0.480459 -0.319503 -0.506 178 131 111
0.481423 -0.319503 -0.506 180 134 111
0.481433 -0.318871 -0.505 180 134 111
0.48144 -0.31824 -0.504 179 134 111
0.4824 -0.31824 -0.504 178 133 110
0.48336 -0.31824 -0.504 179 135 110
0.48432 -0.31824 -0.504 180 136 111
0.48528 -0.31824 -0.504 178 133 110
0.485275 -0.317609 -0.503 177 132 109
0.486233 -0.317609 -0.503 176 131 108
0.487191 -0.317609 -0.503 176 131 108
0.48815 -0.317609 -0.503 176 131 108
0.488135 -0.316977 -0.502 179 134 111
0.489091 -0.316977 -0.502 181 136 113
0.490048 -0.316977 -0.502 181 136 113
0.491982 -0.317609 -0.503 179 134 111
0.49294 -0.317609 -0.503 173 128 105
0.493898 -0.317609 -0.503 169 124 103
0.494856 -0.317609 -0.503 171 126 105
0.495814 -0.317609 -0.503 171 124 106
0.49776 -0.31824 -0.504 171 124 106
0.49872 -0.31824 -0.504 170 123 105
0.49968 -0.31824 -0.504 169 122 104
0.501633 -0.318871 -0.505 170 124 108
0.502595 -0.318871 -0.505 168 122 106
0.504554 -0.319503 -0.506 161 115 99
0.506517 -0.320134 -0.507 158 112 96
0.508484 -0.320766 -0.508 158 115 99
0.510454 -0.321397 -0.509 158 115 99
0.512429 -0.322029 -0.51 159 116 100
0.514407 -0.32266 -0.511 160 117 101
0.516389 -0.323291 -0.512 160 117 101
0.518374 -0.323923 -0.513 159 116 100
0.521376 -0.325186 -0.515 156 114 100
0.524386 -0.326449 -0.517 155 113 99
0.528419 -0.328343 -0.52 150 108 96
0.533482 -0.330869 -0.524 151 109 97
0.53856 -0.333394 -0.528 151 112 97
0.544675 -0.336551 -0.533 147 108 93
1.14542 -0.399063 -0.632 202 204 193
1.14481 -0.398431 -0.631 202 204 193
0.08246 -0.373033 -0.589 195 147 137
0.0831562 -0.371133 -0.586 192 144 134
0.0835533 -0.367967 -0.581 191 147 136
0.0839314 -0.3648 -0.576 192 148 137
0.0842905 -0.361633 -0.571 193 149 138
0.084481 -0.357833 -0.565 193 149 138
0.0851029 -0.355933 -0.562 195 149 134
0.0857133 -0.354033 -0.559 197 151 136
0.0863124 -0.352133 -0.556 197 149 135
0.0872143 -0.3515 -0.555 197 149 135
0.0881124 -0.350867 -0.554 196 150 137
0.0890067 -0.350233 -0.553 196 150 137
0.09006 -0.350233 -0.553 197 149 135
0.0911133 -0.350233 -0.553 198 150 136
0.0921667 -0.350233 -0.553 200 151 136
0.0930514 -0.3496 -0.552 201 152 137
0.0941029 -0.3496 -0.552 200 151 134
0.0951543 -0.3496 -0.552 199 150 133
0.0962057 -0.3496 -0.552 197 148 131
0.0972571 -0.3496 -0.552 195 146 129
0.0983086 -0.3496 -0.552 194 145 128
0.09936 -0.3496 -0.552 193 144 127
0.100411 -0.3496 -0.552 192 144 124
0.101279 -0.348967 -0.551 192 144 124
0.102329 -0.348967 -0.551 193 142 123
0.10319 -0.348333 -0.55 192 141 122
0.104238 -0.348333 -0.55 193 142 123
0.105286 -0.348333 -0.55 191 140 121
0.106333 -0.348333 -0.55 191 140 121
0.107381 -0.348333 -0.55 192 141 122
0.108429 -0.348333 -0.55 192 141 120
0.109277 -0.3477 -0.549 191 140 119
0.110323 -0.3477 -0.549 192 140 116
0.111369 -0.3477 -0.549 192 140 116
0.112414 -0.3477 -0.549 191 139 115
0.11346 -0.3477 -0.549 189 137 115
0.114714 -0.348333 -0.55 187 135 113
0.115762 -0.348333 -0.55 186 134 113
0.11681 -0.348333 -0.55 183 131 110
0.117857 -0.348333 -0.55 180 127 109
0.119121 -0.348967 -0.551 178 125 107
0.12017 -0.348967 -0.551 173 120 104
0.12144 -0.3496 -0.552 165 112 96
0.122491 -0.3496 -0.552 162 109 95
0.123767 -0.350233 -0.553 163 110 96
0.125046 -0.350867 -0.554 160 108 95
0.126329 -0.3515 -0.555 155 103 90
0.127615 -0.352133 -0.556 152 100 87
0.128906 -0.352767 -0.557 152 100 87
0.1302 -0.3534 -0.558 146 102 93
0.131498 -0.354033 -0.559 143 99 90
0.1328 -0.354667 -0.56 143 96 86
0.134345 -0.355933 -0.562 142 95 85
0.135656 -0.356567 -0.563 140 93 85
0.136971 -0.3572 -0.564 138 91 83
0.13829 -0.357833 -0.565 134 89 83
0.139613 -0.358467 -0.566 132 87 81
0.14094 -0.3591 -0.567 130 85 80
0.14227 -0.359733 -0.568 131 86 81
0.143605 -0.360367 -0.569 134 86 82
0.144689 -0.360367 -0.569 133 85 81
0.146029 -0.361 -0.57 130 85 80
0.147372 -0.361633 -0.571 129 84 79
0.14872 -0.362267 -0.572 129 84 81
0.150071 -0.3629 -0.573 129 84 81
0.151427 -0.363533 -0.574 126 85 81
0.152786 -0.364167 -0.575 126 85 81
0.154149 -0.3648 -0.576 123 83 81
0.155515 -0.365433 -0.577 122 82 80
0.156614 -0.365433 -0.577 120 80 78
0.157987 -0.366067 -0.578 120 80 78
0.159363 -0.3667 -0.579 122 82 80
0.16102 -0.367967 -0.581 123 83 81
0.162406 -0.3686 -0.582 121 81 79
0.163795 -0.369233 -0.583 121 81 79
0.165471 -0.3705 -0.585 120 82 79
0.16687 -0.371133 -0.586 121 83 80
0.16856 -0.3724 -0.588 122 84 81
0.169969 -0.373033 -0.589 122 84 81
0.171671 -0.3743 -0.591 122 84 81
0.17309 -0.374933 -0.592 121 83 80
0.19992 -0.3876 -0.612 149 144 167
0.201414 -0.388233 -0.613 148 143 166
0.202582 -0.388233 -0.613 150 145 165
0.204082 -0.388867 -0.614 153 148 168
0.205251 -0.388867 -0.614 150 147 166
0.206421 -0.388867 -0.614 157 154 173
0.20759 -0.388867 -0.614 157 155 179
0.20876 -0.388867 -0.614 138 136 160
0.20993 -0.388867 -0.614 68 67 99
0.211099 -0.388867 -0.614 51 50 82
0.212269 -0.388867 -0.614 78 79 110
0.213438 -0.388867 -0.614 92 93 124
0.214608 -0.388867 -0.614 128 132 159
0.215777 -0.388867 -0.614 130 134 161
0.216947 -0.388867 -0.614 152 158 180
0.218116 -0.388867 -0.614 140 146 168
0.219643 -0.3895 -0.615 111 123 161
0.220814 -0.3895 -0.615 75 87 125
0.221986 -0.3895 -0.615 56 74 124
0.223157 -0.3895 -0.615 82 100 150
0.224329 -0.3895 -0.615 121 135 170
0.2255 -0.3895 -0.615 145 159 194
0.226671 -0.3895 -0.615 146 153 181
0.227843 -0.3895 -0.615 138 145 173
0.229014 -0.3895 -0.615 120 130 165
0.230186 -0.3895 -0.615 107 117 152
0.231357 -0.3895 -0.615 87 97 133
0.232529 -0.3895 -0.615 73 83 119
0.2337 -0.3895 -0.615 106 110 147
0.234871 -0.3895 -0.615 162 166 203
0.236043 -0.3895 -0.615 162 166 203
0.237214 -0.3895 -0.615 171 178 197
0.238386 -0.3895 -0.615 169 176 195
0.239557 -0.3895 -0.615 175 175 199
0.240337 -0.388867 -0.614 175 175 199
0.241507 -0.388867 -0.614 177 178 199
0.242676 -0.388867 -0.614 178 179 200
0.243846 -0.388867 -0.614 178 179 199
0.245015 -0.388867 -0.614 182 183 203
0.246185 -0.388867 -0.614 174 175 196
0.247354 -0.388867 -0.614 129 130 151
0.248524 -0.388867 -0.614 103 122 165
0.249693 -0.388867 -0.614 104 123 166
0.250863 -0.388867 -0.614 107 124 167
0.252032 -0.388867 -0.614 126 143 186
0.253202 -0.388867 -0.614 128 147 189
0.254371 -0.388867 -0.614 124 143 185
0.255541 -0.388867 -0.614 132 151 191
0.25671 -0.388867 -0.614 122 141 181
0.25788 -0.388867 -0.614 116 134 172
0.25905 -0.388867 -0.614 115 133 171
0.260219 -0.388867 -0.614 120 139 179
0.261389 -0.388867 -0.614 167 186 226
0.262558 -0.388867 -0.614 204 205 223
0.263728 -0.388867 -0.614 203 204 222
0.264897 -0.388867 -0.614 207 204 223
0.266067 -0.388867 -0.614 209 206 225
0.267236 -0.388867 -0.614 203 206 223
0.306827 -0.390133 -0.616 202 208 224
0.308 -0.390133 -0.616 201 207 223
0.309173 -0.390133 -0.616 205 207 228
0.310347 -0.390133 -0.616 196 198 219
0.31152 -0.390133 -0.616 196 198 219
0.312693 -0.390133 -0.616 140 153 188
0.313867 -0.390133 -0.616 117 130 165
0.31504 -0.390133 -0.616 107 135 175
0.316213 -0.390133 -0.616 101 129 169
0.317902 -0.390767 -0.617 111 134 178
0.319077 -0.390767 -0.617 116 139 183
0.320252 -0.390767 -0.617 132 157 197
0.321428 -0.390767 -0.617 125 150 190
0.322603 -0.390767 -0.617 110 143 186
0.323778 -0.390767 -0.617 93 126 169
0.324953 -0.390767 -0.617 108 137 179
0.326129 -0.390767 -0.617 100 129 171
0.327304 -0.390767 -0.617 169 180 208
0.328479 -0.390767 -0.617 192 203 231
0.329654 -0.390767 -0.617 199 205 219
0.33083 -0.390767 -0.617 195 201 215
0.332005 -0.390767 -0.617 193 202 217
0.33318 -0.390767 -0.617 198 207 222
0.334355 -0.390767 -0.617 194 201 219
0.33553 -0.390767 -0.617 180 187 205
0.336706 -0.390767 -0.617 143 145 158
0.337881 -0.390767 -0.617 155 157 170
0.339056 -0.390767 -0.617 146 151 183
0.340231 -0.390767 -0.617 85 90 122
0.341407 -0.390767 -0.617 99 116 159
0.343137 -0.3914 -0.618 117 134 177
0.344314 -0.3914 -0.618 153 169 205
0.345491 -0.3914 -0.618 160 176 212
0.346669 -0.3914 -0.618 160 176 212
0.347846 -0.3914 -0.618 177 191 217
0.349023 -0.3914 -0.618 182 196 222
0.3502 -0.3914 -0.618 157 176 209
0.351946 -0.392033 -0.619 115 134 167
0.352554 -0.3914 -0.618 62 97 163
0.353731 -0.3914 -0.618 89 124 190
0.354909 -0.3914 -0.618 154 169 202
0.356662 -0.392033 -0.619 175 190 223
0.357841 -0.392033 -0.619 181 193 215
0.35902 -0.392033 -0.619 164 176 198
0.360199 -0.392033 -0.619 149 167 207
0.361378 -0.392033 -0.619 118 136 176
0.362557 -0.392033 -0.619 87 108 155
0.363736 -0.392033 -0.619 76 97 144
0.364915 -0.392033 -0.619 127 140 174
0.366094 -0.392033 -0.619 176 189 223
0.367273 -0.392033 -0.619 189 194 214
0.368452 -0.392033 -0.619 189 194 214
0.369631 -0.392033 -0.619 191 194 211
0.37081 -0.392033 -0.619 191 194 211
0.37199 -0.392033 -0.619 191 197 213
0.373169 -0.392033 -0.619 189 195 211
0.374348 -0.392033 -0.619 188 196 207
0.375527 -0.392033 -0.619 187 195 206
0.376706 -0.392033 -0.619 156 167 195
0.377885 -0.392033 -0.619 108 119 147
0.379064 -0.392033 -0.619 95 115 150
0.380243 -0.392033 -0.619 95 115 150
0.381422 -0.392033 -0.619 86 106 141
0.382601 -0.392033 -0.619 114 137 179
0.38378 -0.392033 -0.619 129 152 194
0.384959 -0.392033 -0.619 115 141 190
0.386138 -0.392033 -0.619 105 131 180
0.387943 -0.392667 -0.62 88 118 168
0.389124 -0.392667 -0.62 85 115 165
0.390305 -0.392667 -0.62 109 129 166
0.391486 -0.392667 -0.62 160 180 217
0.392667 -0.392667 -0.62 190 196 212
0.393848 -0.392667 -0.62 187 193 209
0.395029 -0.392667 -0.62 169 172 179
0.396849 -0.3933 -0.621 128 131 138
0.398031 -0.3933 -0.621 162 162 174
0.399214 -0.3933 -0.621 194 194 206
0.400397 -0.3933 -0.621 185 190 209
0.40158 -0.3933 -0.621 186 191 210
0.402763 -0.3933 -0.621 168 174 198
0.403946 -0.3933 -0.621 97 103 127
0.405129 -0.3933 -0.621 81 99 137
0.406311 -0.3933 -0.621 103 121 159
0.407494 -0.3933 -0.621 137 146 185
0.408677 -0.3933 -0.621 160 169 208
0.40986 -0.3933 -0.621 159 176 204
0.411043 -0.3933 -0.621 171 188 216
0.412226 -0.3933 -0.621 158 177 209
0.413409 -0.3933 -0.621 133 152 184
0.414591 -0.3933 -0.621 133 152 184
0.415774 -0.3933 -0.621 72 101 161
0.416957 -0.3933 -0.621 75 104 164
0.41814 -0.3933 -0.621 128 151 192
0.419998 -0.393933 -0.622 155 178 219
0.421183 -0.393933 -0.622 172 184 210
0.422368 -0.393933 -0.622 159 171 197
0.423552 -0.393933 -0.622 152 166 195
0.424737 -0.393933 -0.622 124 138 167
0.426607 -0.394567 -0.623 98 116 156
0.427793 -0.394567 -0.623 72 90 130
0.42898 -0.394567 -0.623 90 99 130
0.430167 -0.394567 -0.623 160 169 200
0.431353 -0.394567 -0.623 186 187 205
0.433234 -0.3952 -0.624 183 184 202
0.434423 -0.3952 -0.624 186 189 206
0.434913 -0.394567 -0.623 181 184 201
0.4361 -0.394567 -0.623 181 187 209
0.437287 -0.394567 -0.623 179 185 207
0.438473 -0.394567 -0.623 158 157 165
0.43966 -0.394567 -0.623 139 138 146
0.440847 -0.394567 -0.623 140 143 160
0.442033 -0.394567 -0.623 116 119 136
0.44322 -0.394567 -0.623 84 115 161
0.444407 -0.394567 -0.623 82 113 159
0.445593 -0.394567 -0.623 80 108 155
0.44678 -0.394567 -0.623 102 130 177
0.447967 -0.394567 -0.623 109 137 184
0.449153 -0.394567 -0.623 107 135 182
0.45034 -0.394567 -0.623 95 123 170
0.451527 -0.394567 -0.623 95 123 170
0.452713 -0.394567 -0.623 84 112 159
0.454629 -0.3952 -0.624 80 107 154
0.455817 -0.3952 -0.624 79 106 153
0.457006 -0.3952 -0.624 102 121 163
0.458194 -0.3952 -0.624 153 172 214
0.459383 -0.3952 -0.624 137 137 149
0.460571 -0.3952 -0.624 163 165 180
0.46176 -0.3952 -0.624 179 178 192
0.462949 -0.3952 -0.624 177 176 190
0.464137 -0.3952 -0.624 179 178 194
0.466071 -0.395833 -0.625 180 179 195
0.467262 -0.395833 -0.625 176 181 203
0.468452 -0.395833 -0.625 174 179 201
0.469643 -0.395833 -0.625 138 147 178
0.470833 -0.395833 -0.625 102 111 142
0.472024 -0.395833 -0.625 139 152 186
0.473214 -0.395833 -0.625 137 150 184
0.474405 -0.395833 -0.625 142 151 182
0.475595 -0.395833 -0.625 158 167 198
0.476786 -0.395833 -0.625 164 169 198
0.477976 -0.395833 -0.625 164 169 198
0.479167 -0.395833 -0.625 149 162 194
0.480357 -0.395833 -0.625 120 133 165
0.481548 -0.395833 -0.625 68 89 132
0.482738 -0.395833 -0.625 67 88 131
0.483929 -0.395833 -0.625 123 139 172
0.485119 -0.395833 -0.625 151 167 200
0.48631 -0.395833 -0.625 165 171 195
0.4875 -0.395833 -0.625 161 167 191
0.48869 -0.395833 -0.625 152 157 186
0.489881 -0.395833 -0.625 152 157 186
0.491857 -0.396467 -0.626 140 145 174
0.49305 -0.396467 -0.626 138 143 175
0.494242 -0.396467 -0.626 128 133 165
0.495434 -0.396467 -0.626 87 90 121
0.496627 -0.396467 -0.626 149 152 183
0.497819 -0.396467 -0.626 165 176 196
0.499011 -0.396467 -0.626 168 179 199
0.500204 -0.396467 -0.626 175 174 188
0.501396 -0.396467 -0.626 179 178 192
0.502589 -0.396467 -0.626 165 167 180
0.503781 -0.396467 -0.626 142 144 157
0.504973 -0.396467 -0.626 158 162 171
0.506166 -0.396467 -0.626 170 174 183
0.507358 -0.396467 -0.626 156 167 187
0.50855 -0.396467 -0.626 117 128 148
0.509743 -0.396467 -0.626 91 109 149
0.510935 -0.396467 -0.626 90 108 148
0.512128 -0.396467 -0.626 100 127 170
0.51332 -0.396467 -0.626 118 145 188
0.514512 -0.396467 -0.626 126 156 194
0.515705 -0.396467 -0.626 129 159 197
0.516897 -0.396467 -0.626 118 142 186
0.51809 -0.396467 -0.626 106 130 174
0.519282 -0.396467 -0.626 93 117 151
0.520474 -0.396467 -0.626 88 112 146
0.521667 -0.396467 -0.626 119 129 156
0.522859 -0.396467 -0.626 166 176 203
0.524051 -0.396467 -0.626 185 184 202
0.525244 -0.396467 -0.626 184 183 201
0.526436 -0.396467 -0.626 189 188 204
0.526786 -0.395833 -0.625 188 187 203
0.527976 -0.395833 -0.625 187 188 206
0.529167 -0.395833 -0.625 188 189 207
0.530357 -0.395833 -0.625 183 184 204
0.531548 -0.395833 -0.625 183 184 204
0.532738 -0.395833 -0.625 193 194 214
0.533929 -0.395833 -0.625 167 171 196
0.535119 -0.395833 -0.625 110 114 139
0.53631 -0.395833 -0.625 136 145 176
0.5375 -0.395833 -0.625 154 163 194
0.53869 -0.395833 -0.625 158 164 188
0.539881 -0.395833 -0.625 169 175 199
0.532887 -0.380633 -0.601 143 125 123
0.513805 -0.365433 -0.577 161 126 122
0.504195 -0.357833 -0.565 167 129 116
0.497223 -0.352133 -0.556 167 129 116
0.492905 -0.348333 -0.55 166 128 115
0.488564 -0.344533 -0.544 166 128 115
0.4851 -0.341367 -0.539 169 130 115
0.482519 -0.338833 -0.535 170 131 116
0.480827 -0.336933 -0.532 170 131 116
0.480029 -0.335667 -0.53 171 132 117
0.478315 -0.333767 -0.527 171 132 115
0.4775 -0.3325 -0.525 173 134 117
0.476677 -0.331233 -0.523 174 132 116
0.475847 -0.329967 -0.521 173 131 115
0.475924 -0.329333 -0.52 174 131 115
0.47508 -0.328067 -0.518 175 132 116
0.475148 -0.327433 -0.517 175 134 116
0.475211 -0.3268 -0.516 180 139 121
0.475271 -0.326167 -0.515 179 136 117
0.475328 -0.325533 -0.514 178 135 116
0.47538 -0.3249 -0.513 178 135 116
0.476357 -0.3249 -0.513 178 135 116
0.476404 -0.324267 -0.512 178 135 116
0.476447 -0.323633 -0.511 181 136 117
0.476486 -0.323 -0.51 181 136 117
0.477457 -0.323 -0.51 181 136 117
0.47749 -0.322367 -0.509 180 135 116
0.47846 -0.322367 -0.509 178 133 112
0.478488 -0.321733 -0.508 178 133 112
0.479455 -0.321733 -0.508 178 133 112
0.479477 -0.3211 -0.507 177 132 113
0.479495 -0.320467 -0.506 176 131 110
0.480459 -0.320467 -0.506 177 132 111
0.481423 -0.320467 -0.506 179 134 113
0.481433 -0.319833 -0.505 179 134 113
0.48144 -0.3192 -0.504 178 133 112
0.4824 -0.3192 -0.504 177 132 111
0.482401 -0.318567 -0.503 178 133 110
0.483359 -0.318567 -0.503 180 135 112
0.484317 -0.318567 -0.503 179 134 111
0.485275 -0.318567 -0.503 177 132 109
0.486233 -0.318567 -0.503 176 131 110
0.487191 -0.318567 -0.503 177 132 111
0.487179 -0.317933 -0.502 176 131 110
0.488135 -0.317933 -0.502 179 134 113
0.489091 -0.317933 -0.502 180 135 114
0.490048 -0.317933 -0.502 180 135 114
0.491004 -0.317933 -0.502 178 133 112
0.49294 -0.318567 -0.503 173 128 107
0.493898 -0.318567 -0.503 169 124 103
0.494856 -0.318567 -0.503 169 124 103
0.495814 -0.318567 -0.503 169 122 106
0.496772 -0.318567 -0.503 170 123 107
0.49872 -0.3192 -0.504 170 123 105
0.49968 -0.3192 -0.504 168 121 103
0.50064 -0.3192 -0.504 171 124 106
0.502595 -0.319833 -0.505 170 123 105
0.503557 -0.319833 -0.505 162 116 100
0.505518 -0.320467 -0.506 158 112 96
0.507483 -0.3211 -0.507 160 114 99
0.509451 -0.321733 -0.508 161 115 100
0.511424 -0.322367 -0.509 162 116 100
0.5134 -0.323 -0.51 162 116 100
0.51538 -0.323633 -0.511 163 117 101
0.517364 -0.324267 -0.512 162 116 100
0.519351 -0.3249 -0.513 159 116 100
0.522357 -0.326167 -0.515 156 113 97
0.526387 -0.328067 -0.518 153 109 98
0.52941 -0.329333 -0.52 153 109 98
0.53448 -0.331867 -0.524 152 110 96
0.540588 -0.335033 -0.529 151 109 95
1.14481 -0.399633 -0.631 201 203 190
0.0813381 -0.374155 -0.589 193 143 134
0.08204 -0.37225 -0.586 196 148 136
0.0825886 -0.369709 -0.582 194 146 134
0.0828343 -0.365897 -0.576 192 148 137
0.0832029 -0.362721 -0.571 189 145 134
0.0835524 -0.359545 -0.566 188 144 131
0.0838829 -0.356369 -0.561 190 146 133
0.0846486 -0.355098 -0.559 190 144 128
0.0852533 -0.353192 -0.556 193 147 131
0.0861571 -0.352557 -0.555 197 150 134
0.0869 -0.351287 -0.553 197 150 134
0.0877943 -0.350651 -0.552 196 150 137
0.0888457 -0.350651 -0.552 196 150 137
0.0898971 -0.350651 -0.552 197 149 135
0.0909486 -0.350651 -0.552 197 149 135
0.092 -0.350651 -0.552 200 149 130
0.0928829 -0.350016 -0.551 200 149 130
0.0939324 -0.350016 -0.551 196 147 132
0.0949819 -0.350016 -0.551 196 147 132
0.0960314 -0.350016 -0.551 195 146 131
0.097081 -0.350016 -0.551 195 146 131
0.0981305 -0.350016 -0.551 194 145 128
0.09918 -0.350016 -0.551 193 144 127
0.10023 -0.350016 -0.551 193 144 127
0.101095 -0.349381 -0.55 192 143 126
0.102143 -0.349381 -0.55 193 142 125
0.10319 -0.349381 -0.55 192 141 124
0.104238 -0.349381 -0.55 193 142 125
0.105094 -0.348746 -0.549 191 140 123
0.10614 -0.348746 -0.549 190 139 122
0.107186 -0.348746 -0.549 192 141 124
0.108231 -0.348746 -0.549 193 142 123
0.109277 -0.348746 -0.549 193 142 123
0.110323 -0.348746 -0.549 193 142 123
0.111166 -0.34811 -0.548 191 139 115
0.112414 -0.348746 -0.549 190 138 114
0.11346 -0.348746 -0.549 189 137 115
0.114506 -0.348746 -0.549 188 136 114
0.115762 -0.349381 -0.55 187 135 114
0.11681 -0.349381 -0.55 184 132 111
0.117857 -0.349381 -0.55 179 126 108
0.119121 -0.350016 -0.551 176 123 105
0.120389 -0.350651 -0.552 170 118 104
0.12144 -0.350651 -0.552 162 110 96
0.122713 -0.351287 -0.553 159 107 94
0.123767 -0.351287 -0.553 162 110 97
0.125046 -0.351922 -0.554 159 107 96
0.126329 -0.352557 -0.555 153 101 90
0.127615 -0.353192 -0.556 151 99 88
0.128906 -0.353828 -0.557 152 100 89
0.1302 -0.354463 -0.558 141 97 88
0.131498 -0.355098 -0.559 138 94 85
0.133037 -0.356369 -0.561 137 93 82
0.134345 -0.357004 -0.562 137 93 82
0.135656 -0.357639 -0.563 136 92 83
0.136971 -0.358274 -0.564 134 90 81
0.13829 -0.35891 -0.565 133 88 82
0.139613 -0.359545 -0.566 132 87 81
0.141189 -0.360815 -0.568 133 88 83
0.142521 -0.36145 -0.569 132 87 82
0.143857 -0.362086 -0.57 130 85 80
0.144943 -0.362086 -0.57 129 84 79
0.146285 -0.362721 -0.571 129 84 79
0.14763 -0.363356 -0.572 129 84 79
0.14898 -0.363991 -0.573 128 83 80
0.150333 -0.364627 -0.574 128 83 80
0.15169 -0.365262 -0.575 124 84 82
0.153051 -0.365897 -0.576 123 83 81
0.154149 -0.365897 -0.576 123 83 81
0.155515 -0.366532 -0.577 122 82 80
0.156886 -0.367168 -0.578 120 80 78
0.15826 -0.367803 -0.579 120 80 78
0.159913 -0.369073 -0.581 120 80 78
0.161297 -0.369709 -0.582 120 80 78
0.162685 -0.370344 -0.583 120 82 81
0.164357 -0.371614 -0.585 120 82 81
0.165754 -0.37225 -0.586 120 81 82
0.16744 -0.37352 -0.588 120 81 82
0.168847 -0.374155 -0.589 119 83 83
0.170546 -0.375426 -0.591 119 83 83
0.196102 -0.38813 -0.611 127 127 153
0.197266 -0.38813 -0.611 143 141 163
0.198754 -0.388766 -0.612 145 143 165
0.19992 -0.388766 -0.612 144 139 169
0.201414 -0.389401 -0.613 148 143 173
0.202582 -0.389401 -0.613 151 149 171
0.204082 -0.390036 -0.614 150 148 170
0.205251 -0.390036 -0.614 147 145 167
0.206421 -0.390036 -0.614 153 151 173
0.20759 -0.390036 -0.614 142 142 168
0.20876 -0.390036 -0.614 110 110 136
0.20993 -0.390036 -0.614 72 73 103
0.211099 -0.390036 -0.614 112 113 143
0.212269 -0.390036 -0.614 115 116 144
0.213438 -0.390036 -0.614 123 124 152
0.214608 -0.390036 -0.614 142 146 171
0.215777 -0.390036 -0.614 147 151 176
0.216947 -0.390036 -0.614 153 158 180
0.218116 -0.390036 -0.614 146 151 173
0.219286 -0.390036 -0.614 119 124 164
0.220455 -0.390036 -0.614 78 83 123
0.221625 -0.390036 -0.614 58 72 119
0.222794 -0.390036 -0.614 97 111 158
0.223964 -0.390036 -0.614 132 146 173
0.2255 -0.390671 -0.615 150 164 191
0.226671 -0.390671 -0.615 149 155 179
0.227843 -0.390671 -0.615 151 157 181
0.228642 -0.390036 -0.614 136 145 174
0.229811 -0.390036 -0.614 123 132 161
0.230981 -0.390036 -0.614 139 148 177
0.23215 -0.390036 -0.614 114 123 152
0.23332 -0.390036 -0.614 109 113 148
0.23449 -0.390036 -0.614 109 113 148
0.236043 -0.390671 -0.615 153 157 192
0.237214 -0.390671 -0.615 171 178 207
0.238386 -0.390671 -0.615 176 183 212
0.239168 -0.390036 -0.614 175 175 201
0.240337 -0.390036 -0.614 178 178 204
0.241507 -0.390036 -0.614 178 179 200
0.242676 -0.390036 -0.614 177 178 199
0.243846 -0.390036 -0.614 179 181 202
0.245015 -0.390036 -0.614 182 184 205
0.246185 -0.390036 -0.614 176 177 198
0.247354 -0.390036 -0.614 140 141 162
0.248524 -0.390036 -0.614 107 126 168
0.249693 -0.390036 -0.614 112 131 173
0.250454 -0.389401 -0.613 127 142 183
0.251622 -0.389401 -0.613 142 157 198
0.25279 -0.389401 -0.613 143 161 201
0.253957 -0.389401 -0.613 140 158 198
0.255125 -0.389401 -0.613 142 161 201
0.256292 -0.389401 -0.613 139 158 198
0.260219 -0.390036 -0.614 137 155 191
0.261389 -0.390036 -0.614 179 197 233
0.262558 -0.390036 -0.614 202 203 221
0.263728 -0.390036 -0.614 203 204 222
0.264897 -0.390036 -0.614 208 204 229
0.266067 -0.390036 -0.614 207 203 228
0.267236 -0.390036 -0.614 205 207 228
0.268406 -0.390036 -0.614 207 209 230
0.269575 -0.390036 -0.614 203 203 227
0.270745 -0.390036 -0.614 201 201 225
0.271914 -0.390036 -0.614 180 183 202
0.273084 -0.390036 -0.614 148 151 170
0.274253 -0.390036 -0.614 148 151 170
0.302814 -0.390671 -0.615 205 209 234
0.303986 -0.390671 -0.615 206 208 231
0.305157 -0.390671 -0.615 206 208 231
0.306329 -0.390671 -0.615 206 209 228
0.317387 -0.391307 -0.616 132 154 195
0.31856 -0.391307 -0.616 127 149 190
0.319733 -0.391307 -0.616 142 166 202
0.320907 -0.391307 -0.616 130 154 190
0.32208 -0.391307 -0.616 124 156 197
0.323253 -0.391307 -0.616 107 139 180
0.324427 -0.391307 -0.616 108 136 176
0.3256 -0.391307 -0.616 118 146 186
0.326773 -0.391307 -0.616 178 190 216
0.327947 -0.391307 -0.616 195 207 233
0.32912 -0.391307 -0.616 198 204 220
0.330293 -0.391307 -0.616 194 200 216
0.331467 -0.391307 -0.616 192 199 217
0.33553 -0.391942 -0.617 173 178 197
0.336706 -0.391942 -0.617 176 181 203
0.337881 -0.391942 -0.617 186 191 213
0.339056 -0.391942 -0.617 126 131 161
0.340231 -0.391942 -0.617 126 131 161
0.341407 -0.391942 -0.617 164 179 212
0.342582 -0.391942 -0.617 151 166 199
0.343757 -0.391942 -0.617 172 183 211
0.344932 -0.391942 -0.617 175 186 214
0.346108 -0.391942 -0.617 175 186 214
0.347283 -0.391942 -0.617 184 195 215
0.348458 -0.391942 -0.617 185 196 216
0.349633 -0.391942 -0.617 163 178 207
0.350809 -0.391942 -0.617 125 140 169
0.351984 -0.391942 -0.617 66 100 161
0.353159 -0.391942 -0.617 98 132 193
0.354909 -0.392577 -0.618 156 171 202
0.356086 -0.392577 -0.618 177 192 223
0.357263 -0.392577 -0.618 187 195 214
0.35844 -0.392577 -0.618 184 192 211
0.359617 -0.392577 -0.618 168 182 211
0.360794 -0.392577 -0.618 151 165 194
0.361971 -0.392577 -0.618 158 174 210
0.363149 -0.392577 -0.618 125 141 177
0.364326 -0.392577 -0.618 118 129 161
0.365503 -0.392577 -0.618 180 191 223
0.367273 -0.393212 -0.619 193 197 222
0.368452 -0.393212 -0.619 190 194 219
0.369631 -0.393212 -0.619 191 194 213
0.370211 -0.392577 -0.618 189 192 211
0.371389 -0.392577 -0.618 189 196 212
0.373169 -0.393212 -0.619 187 194 210
0.374348 -0.393212 -0.619 187 195 208
0.375527 -0.393212 -0.619 187 195 208
0.376706 -0.393212 -0.619 174 184 209
0.377885 -0.393212 -0.619 131 141 166
0.379064 -0.393212 -0.619 105 124 154
0.380243 -0.393212 -0.619 105 124 154
0.381422 -0.393212 -0.619 101 120 150
0.382601 -0.393212 -0.619 127 149 190
0.38378 -0.393212 -0.619 135 157 198
0.384959 -0.393212 -0.619 133 157 205
0.386138 -0.393212 -0.619 125 149 197
0.387317 -0.393212 -0.619 99 127 174
0.388496 -0.393212 -0.619 90 118 165
0.389675 -0.393212 -0.619 136 152 185
0.390854 -0.393212 -0.619 170 186 219
0.392667 -0.393848 -0.62 189 192 209
0.393848 -0.393848 -0.62 184 187 204
0.395029 -0.393848 -0.62 167 168 173
0.39621 -0.393848 -0.62 176 177 182
0.39739 -0.393848 -0.62 193 192 208
0.398571 -0.393848 -0.62 197 196 212
0.399752 -0.393848 -0.62 190 196 220
0.400933 -0.393848 -0.62 191 197 221
0.402114 -0.393848 -0.62 151 158 186
0.403295 -0.393848 -0.62 111 118 146
0.404476 -0.393848 -0.62 150 167 195
0.405657 -0.393848 -0.62 146 163 191
0.406838 -0.393848 -0.62 157 164 193
0.408019 -0.393848 -0.62 172 179 208
0.4092 -0.393848 -0.62 173 188 209
0.410381 -0.393848 -0.62 175 190 211
0.412226 -0.394483 -0.621 163 178 207
0.413409 -0.394483 -0.621 137 152 181
0.414591 -0.394483 -0.621 137 152 181
0.415774 -0.394483 -0.621 71 94 144
0.416957 -0.394483 -0.621 71 94 144
0.41814 -0.394483 -0.621 130 146 179
0.419323 -0.394483 -0.621 159 175 208
0.420506 -0.394483 -0.621 176 184 205
0.422368 -0.395118 -0.622 172 180 201
0.423552 -0.395118 -0.622 167 179 203
0.424737 -0.395118 -0.622 154 166 190
0.425922 -0.395118 -0.622 153 168 201
0.427107 -0.395118 -0.622 146 161 194
0.42898 -0.395753 -0.623 108 113 142
0.430167 -0.395753 -0.623 145 150 179
0.431353 -0.395753 -0.623 179 182 201
0.43254 -0.395753 -0.623 183 186 205
0.433727 -0.395753 -0.623 177 184 203
0.434913 -0.395753 -0.623 178 185 204
0.4354 -0.395118 -0.622 180 184 209
0.436585 -0.395118 -0.622 180 184 209
0.43777 -0.395118 -0.622 189 187 200
0.438954 -0.395118 -0.622 167 165 178
0.440139 -0.395118 -0.622 156 159 176
0.441324 -0.395118 -0.622 137 140 157
0.442509 -0.395118 -0.622 93 125 166
0.443693 -0.395118 -0.622 87 119 160
0.444878 -0.395118 -0.622 96 125 169
0.446063 -0.395118 -0.622 109 138 182
0.447248 -0.395118 -0.622 121 149 196
0.448432 -0.395118 -0.622 110 138 185
0.449617 -0.395118 -0.622 112 141 185
0.450802 -0.395118 -0.622 112 141 185
0.452713 -0.395753 -0.623 98 127 171
0.4539 -0.395753 -0.623 90 114 160
0.455087 -0.395753 -0.623 87 111 157
0.456273 -0.395753 -0.623 121 138 181
0.45746 -0.395753 -0.623 151 168 211
0.458647 -0.395753 -0.623 147 149 164
0.460571 -0.396389 -0.624 163 165 180
0.46176 -0.396389 -0.624 179 178 192
0.462949 -0.396389 -0.624 177 176 190
0.463393 -0.395753 -0.623 179 177 198
0.465326 -0.396389 -0.624 170 168 189
0.466514 -0.396389 -0.624 152 159 187
0.467703 -0.396389 -0.624 131 138 166
0.468891 -0.396389 -0.624 109 120 150
0.47008 -0.396389 -0.624 146 157 187
0.472024 -0.397024 -0.625 164 171 197
0.473214 -0.397024 -0.625 163 170 196
0.473646 -0.396389 -0.624 163 168 190
0.474834 -0.396389 -0.624 172 177 199
0.476023 -0.396389 -0.624 170 172 197
0.477211 -0.396389 -0.624 172 174 199
0.4784 -0.396389 -0.624 156 163 189
0.479589 -0.396389 -0.624 138 145 171
0.480777 -0.396389 -0.624 79 99 126
0.481966 -0.396389 -0.624 65 85 112
0.483154 -0.396389 -0.624 121 137 163
0.484343 -0.396389 -0.624 147 163 189
0.485531 -0.396389 -0.624 166 173 192
0.48672 -0.396389 -0.624 170 177 196
0.48869 -0.397024 -0.625 163 169 191
0.489881 -0.397024 -0.625 163 169 191
0.491071 -0.397024 -0.625 161 167 189
0.492262 -0.397024 -0.625 162 166 193
0.493452 -0.397024 -0.625 162 166 193
0.494643 -0.397024 -0.625 154 156 177
0.495833 -0.397024 -0.625 127 129 150
0.497024 -0.397024 -0.625 145 151 175
0.498214 -0.397024 -0.625 152 158 182
0.499405 -0.397024 -0.625 167 168 186
0.500595 -0.397024 -0.625 166 167 185
0.501786 -0.397024 -0.625 171 174 189
0.502976 -0.397024 -0.625 168 171 186
0.504167 -0.397024 -0.625 171 175 186
0.505357 -0.397024 -0.625 169 173 184
0.506548 -0.397024 -0.625 161 169 190
0.507738 -0.397024 -0.625 134 142 163
0.508929 -0.397024 -0.625 94 109 150
0.510119 -0.397024 -0.625 96 111 152
0.51131 -0.397024 -0.625 107 131 175
0.5125 -0.397024 -0.625 116 140 184
0.514512 -0.397659 -0.626 120 148 187
0.515705 -0.397659 -0.626 121 149 188
0.516897 -0.397659 -0.626 116 140 184
0.51809 -0.397659 -0.626 114 138 182
0.519282 -0.397659 -0.626 103 126 160
0.520474 -0.397659 -0.626 91 114 148
0.520833 -0.397024 -0.625 130 144 171
0.522024 -0.397024 -0.625 157 171 198
0.523214 -0.397024 -0.625 182 183 203
0.524405 -0.397024 -0.625 184 185 205
0.525595 -0.397024 -0.625 187 185 199
0.526786 -0.397024 -0.625 188 186 200
0.527976 -0.397024 -0.625 192 191 209
0.529167 -0.397024 -0.625 186 185 203
0.530357 -0.397024 -0.625 178 182 207
0.531548 -0.397024 -0.625 178 182 207
0.531886 -0.396389 -0.624 160 164 189
0.533074 -0.396389 -0.624 147 153 179
0.534263 -0.396389 -0.624 146 152 178
0.535547 -0.383684 -0.604 139 128 126
0.508657 -0.362086 -0.57 166 128 115
0.499906 -0.355098 -0.559 166 128 115
0.494697 -0.350651 -0.552 166 128 115
0.49036 -0.34684 -0.546 167 129 116
0.4869 -0.343664 -0.541 168 131 115
0.483421 -0.340488 -0.536 168 131 115
0.48173 -0.338582 -0.533 168 131 115
0.480029 -0.336676 -0.53 168 131 115
0.479223 -0.335406 -0.528 171 132 117
0.4775 -0.3335 -0.525 171 132 117
0.476677 -0.33223 -0.523 172 133 116
0.47676 -0.331594 -0.522 171 132 115
0.475924 -0.330324 -0.52 174 132 116
0.475997 -0.329689 -0.519 174 132 116
0.475148 -0.328418 -0.517 172 133 116
0.475211 -0.327783 -0.516 178 139 122
0.475271 -0.327148 -0.515 180 137 120
0.475328 -0.326512 -0.514 177 134 117
0.47538 -0.325877 -0.513 177 134 117
0.475429 -0.325242 -0.512 178 135 118
0.476404 -0.325242 -0.512 178 135 118
0.476447 -0.324607 -0.511 178 135 118
0.476486 -0.323971 -0.51 178 135 118
0.476521 -0.323336 -0.509 177 134 115
0.47749 -0.323336 -0.509 175 132 113
0.47846 -0.323336 -0.509 177 132 113
0.478488 -0.322701 -0.508 177 132 113
0.479455 -0.322701 -0.508 178 133 114
0.479477 -0.322066 -0.507 177 132 113
0.479495 -0.32143 -0.506 176 131 112
0.480459 -0.32143 -0.506 178 133 114
0.481423 -0.32143 -0.506 180 135 116
