ply
format ascii 1.0
comment Created by Open3D
element vertex 1282
property double x
property double y
property double z
property uchar red
property uchar green
property uchar blue
end_header
0.445973 -0.425676 -0.592 160 182 219
0.447856 -0.426395 -0.593 196 208 230
0.448986 -0.426395 -0.593 222 234 255
0.450115 -0.426395 -0.593 234 238 249
0.451245 -0.426395 -0.593 237 241 252
0.451611 -0.425676 -0.592 241 240 255
0.452739 -0.425676 -0.592 241 240 255
0.453867 -0.425676 -0.592 237 241 252
0.455763 -0.426395 -0.593 236 240 251
0.456892 -0.426395 -0.593 235 238 247
0.458022 -0.426395 -0.593 218 221 230
0.459151 -0.426395 -0.593 207 210 225
0.460281 -0.426395 -0.593 186 189 204
0.460632 -0.425676 -0.592 147 161 187
0.46176 -0.425676 -0.592 125 139 165
0.46367 -0.426395 -0.593 116 140 176
0.464799 -0.426395 -0.593 128 152 188
0.465929 -0.426395 -0.593 147 175 215
0.467058 -0.426395 -0.593 163 191 231
0.468188 -0.426395 -0.593 177 202 243
0.469317 -0.426395 -0.593 164 189 230
0.47124 -0.427114 -0.594 117 140 181
0.472371 -0.427114 -0.594 114 137 178
0.473503 -0.427114 -0.594 170 194 232
0.474634 -0.427114 -0.594 167 191 229
0.475766 -0.427114 -0.594 144 167 199
0.4777 -0.427833 -0.595 130 153 185
0.478833 -0.427833 -0.595 117 137 172
0.479967 -0.427833 -0.595 117 137 172
0.4811 -0.427833 -0.595 96 116 151
0.482233 -0.427833 -0.595 96 114 150
0.483367 -0.427833 -0.595 107 125 161
0.4845 -0.427833 -0.595 152 168 193
0.485633 -0.427833 -0.595 179 195 220
0.486767 -0.427833 -0.595 192 202 211
0.4879 -0.427833 -0.595 203 213 222
0.489033 -0.427833 -0.595 210 214 223
0.490167 -0.427833 -0.595 207 211 220
0.4913 -0.427833 -0.595 207 210 227
0.492433 -0.427833 -0.595 210 213 230
0.493567 -0.427833 -0.595 206 210 219
0.4947 -0.427833 -0.595 206 210 219
0.495833 -0.427833 -0.595 195 201 217
0.496967 -0.427833 -0.595 162 168 184
0.4981 -0.427833 -0.595 112 142 180
0.499233 -0.427833 -0.595 94 124 162
0.500367 -0.427833 -0.595 101 134 177
0.5015 -0.427833 -0.595 110 143 186
0.502633 -0.427833 -0.595 137 161 199
0.50292 -0.427114 -0.594 143 167 205
0.503203 -0.426395 -0.593 133 149 182
0.497554 -0.414171 -0.576 172 142 132
0.495189 -0.411295 -0.572 172 142 132
0.493675 -0.409138 -0.569 171 141 130
0.491281 -0.406262 -0.565 171 141 130
0.489743 -0.404105 -0.562 172 143 129
0.489067 -0.402667 -0.56 170 141 127
0.486632 -0.39979 -0.556 173 144 130
0.48506 -0.397633 -0.553 172 143 129
0.483476 -0.395476 -0.55 172 140 125
0.481881 -0.393319 -0.547 172 140 125
0.481157 -0.391881 -0.545 174 143 125
0.479541 -0.389724 -0.542 175 144 126
0.480573 -0.389724 -0.542 175 144 126
0.479829 -0.388286 -0.54 174 143 125
0.479076 -0.386848 -0.538 174 143 125
0.478316 -0.38541 -0.536 178 142 126
0.477549 -0.383971 -0.534 178 142 126
0.476773 -0.382533 -0.532 179 143 127
0.47599 -0.381095 -0.53 178 142 126
0.4752 -0.379657 -0.528 180 143 125
0.474402 -0.378219 -0.526 180 143 125
0.473596 -0.376781 -0.524 184 147 128
0.472783 -0.375343 -0.522 185 148 129
0.47287 -0.374624 -0.521 187 149 128
0.472043 -0.373186 -0.519 186 148 127
0.47212 -0.372467 -0.518 187 149 128
0.47128 -0.371029 -0.516 187 149 128
0.471348 -0.37031 -0.515 189 151 128
0.471411 -0.36959 -0.514 190 152 129
0.47239 -0.36959 -0.514 190 150 125
0.472449 -0.368871 -0.513 191 151 126
0.472503 -0.368152 -0.512 192 152 126
0.472553 -0.367433 -0.511 194 154 128
0.4726 -0.366714 -0.51 194 154 128
0.472643 -0.365995 -0.509 194 154 128
0.473612 -0.365995 -0.509 196 156 130
0.47365 -0.365276 -0.508 195 155 129
0.473683 -0.364557 -0.507 194 155 126
0.474649 -0.364557 -0.507 194 155 126
0.474676 -0.363838 -0.506 196 157 128
0.4747 -0.363119 -0.505 195 156 127
0.475662 -0.363119 -0.505 195 156 127
0.47568 -0.3624 -0.504 194 155 126
0.475694 -0.361681 -0.503 195 156 125
0.476652 -0.361681 -0.503 197 158 127
0.476661 -0.360962 -0.502 198 157 127
0.476666 -0.360243 -0.501 195 154 124
0.47762 -0.360243 -0.501 196 155 127
0.477619 -0.359524 -0.5 195 154 126
0.478571 -0.359524 -0.5 190 149 121
0.479524 -0.359524 -0.5 191 150 122
0.479515 -0.358805 -0.499 191 150 122
0.479503 -0.358086 -0.498 194 153 125
0.480451 -0.358086 -0.498 194 153 125
0.480433 -0.357367 -0.497 192 151 123
0.48138 -0.357367 -0.497 193 149 120
0.482327 -0.357367 -0.497 195 151 122
0.482301 -0.356648 -0.496 194 150 121
0.483246 -0.356648 -0.496 193 149 120
0.48419 -0.356648 -0.496 192 148 119
0.484157 -0.355929 -0.495 191 147 118
0.48412 -0.35521 -0.494 191 147 118
0.485061 -0.35521 -0.494 193 149 120
0.486002 -0.35521 -0.494 193 148 119
0.485957 -0.35449 -0.493 192 147 118
0.486896 -0.35449 -0.493 189 145 116
0.487835 -0.35449 -0.493 188 144 115
0.488774 -0.35449 -0.493 190 146 117
0.489713 -0.35449 -0.493 190 146 117
0.490652 -0.35449 -0.493 190 146 117
0.491591 -0.35449 -0.493 189 144 113
0.49253 -0.35449 -0.493 190 145 114
0.49347 -0.35449 -0.493 188 143 112
0.494409 -0.35449 -0.493 187 142 111
0.495348 -0.35449 -0.493 187 142 111
0.49528 -0.353771 -0.492 187 142 111
0.496217 -0.353771 -0.492 186 141 110
0.497154 -0.353771 -0.492 184 139 108
0.499104 -0.35449 -0.493 183 138 105
0.499029 -0.353771 -0.492 184 139 106
0.500982 -0.35449 -0.493 181 137 102
0.501921 -0.35449 -0.493 181 137 102
0.50286 -0.35449 -0.493 180 136 101
0.503799 -0.35449 -0.493 179 135 100
0.505762 -0.35521 -0.494 179 134 101
0.507729 -0.355929 -0.495 178 133 100
0.509699 -0.356648 -0.496 176 131 98
0.511673 -0.357367 -0.497 174 129 96
0.513651 -0.358086 -0.498 171 128 96
0.515633 -0.358805 -0.499 170 127 95
0.518654 -0.360243 -0.501 163 123 97
0.521683 -0.361681 -0.503 159 119 93
0.525758 -0.363838 -0.506 154 118 96
0.530886 -0.366714 -0.51 152 116 94
0.0557 -0.40157 -0.557 203 155 135
0.0563533 -0.398687 -0.553 203 155 135
0.0569914 -0.395803 -0.549 200 157 125
0.0576143 -0.392919 -0.545 198 155 123
0.0583295 -0.390756 -0.542 198 156 132
0.0590333 -0.388593 -0.539 201 159 135
0.0598371 -0.387151 -0.537 206 160 136
0.0606333 -0.38571 -0.535 204 158 134
0.0614219 -0.384268 -0.533 203 159 134
0.06232 -0.383547 -0.532 202 158 133
0.0632143 -0.382826 -0.531 201 157 132
0.0641048 -0.382105 -0.53 201 157 132
0.0649914 -0.381384 -0.529 201 157 132
0.0658743 -0.380663 -0.528 204 160 135
0.06688 -0.380663 -0.528 204 160 135
0.0678857 -0.380663 -0.528 204 160 135
0.068761 -0.379942 -0.527 205 161 134
0.0697648 -0.379942 -0.527 206 162 135
0.0707686 -0.379942 -0.527 206 162 135
0.0717724 -0.379942 -0.527 206 162 135
0.0726381 -0.379221 -0.526 206 162 135
0.07364 -0.379221 -0.526 205 161 134
0.0746419 -0.379221 -0.526 204 158 132
0.0755 -0.3785 -0.525 205 159 133
0.0766457 -0.379221 -0.526 203 157 131
0.0776476 -0.379221 -0.526 199 153 127
0.0786495 -0.379221 -0.526 199 153 127
0.0796514 -0.379221 -0.526 201 155 129
0.0806533 -0.379221 -0.526 203 157 131
0.0816552 -0.379221 -0.526 202 156 130
0.0826571 -0.379221 -0.526 200 154 128
0.0836591 -0.379221 -0.526 199 153 127
0.084661 -0.379221 -0.526 199 153 127
0.0858257 -0.379942 -0.527 198 152 126
0.0868295 -0.379942 -0.527 195 149 125
0.088 -0.380663 -0.528 192 146 122
0.0890057 -0.380663 -0.528 189 145 120
0.0900114 -0.380663 -0.528 186 142 117
0.0911895 -0.381384 -0.529 190 138 117
0.0921971 -0.381384 -0.529 186 134 113
0.0933809 -0.382105 -0.53 179 127 106
0.0945686 -0.382826 -0.531 178 126 105
0.09558 -0.382826 -0.531 177 125 104
0.0967733 -0.383547 -0.532 175 123 102
0.0979705 -0.384268 -0.533 176 124 103
0.0991714 -0.384989 -0.534 175 123 102
0.100376 -0.38571 -0.535 178 123 103
0.101585 -0.38643 -0.536 177 122 102
0.102606 -0.38643 -0.536 175 120 100
0.10382 -0.387151 -0.537 173 118 98
0.105038 -0.387872 -0.538 172 116 99
0.10626 -0.388593 -0.539 171 115 98
0.107486 -0.389314 -0.54 170 115 95
0.108715 -0.390035 -0.541 168 113 93
0.109949 -0.390756 -0.542 160 111 96
0.111186 -0.391477 -0.543 159 108 91
0.112427 -0.392198 -0.544 154 108 95
0.113671 -0.392919 -0.545 151 105 92
0.11513 -0.394361 -0.547 146 103 94
0.116385 -0.395082 -0.548 144 101 92
0.117857 -0.396524 -0.55 139 99 89
0.119121 -0.397245 -0.551 138 98 88
0.120389 -0.397966 -0.552 143 100 91
0.12188 -0.399408 -0.554 143 100 91
0.123379 -0.40085 -0.556 139 99 91
0.124886 -0.402291 -0.558 135 95 87
0.1264 -0.403733 -0.56 132 95 89
0.140614 -0.417431 -0.579 99 82 88
0.141717 -0.417431 -0.579 86 82 97
0.143313 -0.418873 -0.581 77 73 88
0.14442 -0.418873 -0.581 77 73 88
0.145777 -0.419594 -0.582 47 49 70
0.146886 -0.419594 -0.582 60 62 83
0.147994 -0.419594 -0.582 86 92 118
0.149103 -0.419594 -0.582 96 102 128
0.15047 -0.420315 -0.583 85 92 120
0.15158 -0.420315 -0.583 78 85 113
0.15269 -0.420315 -0.583 71 78 106
0.153801 -0.420315 -0.583 56 63 91
0.154646 -0.419594 -0.582 52 58 90
0.155754 -0.419594 -0.582 51 57 89
0.156863 -0.419594 -0.582 85 91 123
0.157971 -0.419594 -0.582 118 124 156
0.15908 -0.419594 -0.582 127 133 157
0.160189 -0.419594 -0.582 141 147 171
0.161297 -0.419594 -0.582 153 154 172
0.162406 -0.419594 -0.582 157 158 176
0.163514 -0.419594 -0.582 164 162 175
0.164906 -0.420315 -0.583 147 145 158
0.166016 -0.420315 -0.583 109 109 111
0.167127 -0.420315 -0.583 123 123 125
0.168237 -0.420315 -0.583 146 150 153
0.169057 -0.419594 -0.582 157 161 164
0.170166 -0.419594 -0.582 132 134 155
0.171274 -0.419594 -0.582 111 113 134
0.172383 -0.419594 -0.582 75 104 144
0.173491 -0.419594 -0.582 91 120 160
0.1743 -0.418873 -0.581 114 143 183
0.175407 -0.418873 -0.581 136 165 205
0.176513 -0.418873 -0.581 128 156 193
0.17762 -0.418873 -0.581 124 152 189
0.178727 -0.418873 -0.581 139 161 198
0.179833 -0.418873 -0.581 148 170 207
0.18094 -0.418873 -0.581 134 159 200
0.182047 -0.418873 -0.581 119 144 185
0.183153 -0.418873 -0.581 99 126 171
0.18426 -0.418873 -0.581 107 134 179
0.185367 -0.418873 -0.581 139 160 191
0.186473 -0.418873 -0.581 173 194 225
0.18758 -0.418873 -0.581 201 210 225
0.188687 -0.418873 -0.581 203 212 227
0.19012 -0.419594 -0.582 205 212 230
0.191229 -0.419594 -0.582 203 210 228
0.192337 -0.419594 -0.582 208 215 233
0.193446 -0.419594 -0.582 208 215 233
0.194554 -0.419594 -0.582 211 214 231
0.195663 -0.419594 -0.582 210 213 230
0.196771 -0.419594 -0.582 211 216 236
0.19754 -0.418873 -0.581 202 207 227
0.198647 -0.418873 -0.581 165 180 211
0.199753 -0.418873 -0.581 114 129 160
0.20086 -0.418873 -0.581 104 133 175
0.201967 -0.418873 -0.581 104 133 175
0.203423 -0.419594 -0.582 90 123 168
0.204531 -0.419594 -0.582 110 142 189
0.20564 -0.419594 -0.582 134 166 213
0.206749 -0.419594 -0.582 162 184 225
0.207857 -0.419594 -0.582 179 201 242
0.208966 -0.419594 -0.582 189 207 245
0.210074 -0.419594 -0.582 164 182 220
0.211183 -0.419594 -0.582 115 131 165
0.212291 -0.419594 -0.582 164 180 214
0.2134 -0.419594 -0.582 191 207 233
0.214509 -0.419594 -0.582 184 200 226
0.215617 -0.419594 -0.582 160 178 202
0.216726 -0.419594 -0.582 153 171 195
0.217834 -0.419594 -0.582 130 153 187
0.218943 -0.419594 -0.582 120 143 177
0.220051 -0.419594 -0.582 121 143 190
0.22116 -0.419594 -0.582 138 160 207
0.222269 -0.419594 -0.582 187 200 235
0.223377 -0.419594 -0.582 207 220 255
0.224486 -0.419594 -0.582 216 218 231
0.225594 -0.419594 -0.582 230 232 245
0.226703 -0.419594 -0.582 216 215 223
0.227811 -0.419594 -0.582 195 194 202
0.22892 -0.419594 -0.582 207 208 210
0.230029 -0.419594 -0.582 222 223 225
0.231137 -0.419594 -0.582 236 234 247
0.232246 -0.419594 -0.582 241 239 252
0.233354 -0.419594 -0.582 229 236 252
0.234463 -0.419594 -0.582 211 218 234
0.235571 -0.419594 -0.582 170 194 228
0.23668 -0.419594 -0.582 148 172 206
0.237789 -0.419594 -0.582 153 183 217
0.238897 -0.419594 -0.582 172 202 236
0.240006 -0.419594 -0.582 192 215 255
0.250412 -0.420315 -0.583 162 182 215
0.251523 -0.420315 -0.583 187 207 240
0.252633 -0.420315 -0.583 218 233 254
0.253744 -0.420315 -0.583 232 247 255
0.254854 -0.420315 -0.583 240 250 255
0.255965 -0.420315 -0.583 239 249 255
0.257075 -0.420315 -0.583 240 249 255
0.258186 -0.420315 -0.583 239 248 255
0.259296 -0.420315 -0.583 238 245 255
0.260407 -0.420315 -0.583 240 247 255
0.261517 -0.420315 -0.583 239 246 254
0.262628 -0.420315 -0.583 230 237 245
0.263738 -0.420315 -0.583 216 228 254
0.264849 -0.420315 -0.583 182 194 220
0.39032 -0.42392 -0.588 236 240 252
0.39144 -0.42392 -0.588 227 231 243
0.413422 -0.424641 -0.589 137 153 186
0.414544 -0.424641 -0.589 128 141 175
0.415666 -0.424641 -0.589 181 194 228
0.416788 -0.424641 -0.589 221 226 245
0.432105 -0.425362 -0.59 154 174 209
0.433229 -0.425362 -0.59 179 203 237
0.434352 -0.425362 -0.59 189 213 247
0.435476 -0.425362 -0.59 188 212 248
0.4366 -0.425362 -0.59 188 212 248
0.437724 -0.425362 -0.59 172 196 232
0.439591 -0.426083 -0.591 183 210 240
0.440717 -0.426083 -0.591 195 222 252
0.441843 -0.426083 -0.591 179 205 238
0.442969 -0.426083 -0.591 158 184 217
0.444094 -0.426083 -0.591 148 168 203
0.445973 -0.426804 -0.592 165 185 220
0.447101 -0.426804 -0.592 198 209 229
0.448229 -0.426804 -0.592 220 231 251
0.449356 -0.426804 -0.592 233 237 248
0.450484 -0.426804 -0.592 237 241 252
0.451611 -0.426804 -0.592 241 238 255
0.451974 -0.426083 -0.591 241 238 255
0.453867 -0.426804 -0.592 238 242 254
0.454994 -0.426804 -0.592 234 238 250
0.456122 -0.426804 -0.592 237 241 252
0.45725 -0.426804 -0.592 230 234 245
0.458377 -0.426804 -0.592 222 229 247
0.459505 -0.426804 -0.592 191 198 216
0.460632 -0.426804 -0.592 139 155 180
0.46176 -0.426804 -0.592 130 146 171
0.462888 -0.426804 -0.592 133 150 180
0.464015 -0.426804 -0.592 144 161 191
0.465929 -0.427525 -0.593 172 188 214
0.467058 -0.427525 -0.593 184 200 226
0.468188 -0.427525 -0.593 202 217 246
0.469317 -0.427525 -0.593 200 215 244
0.470447 -0.427525 -0.593 138 157 190
0.471576 -0.427525 -0.593 132 151 184
0.473503 -0.428246 -0.594 198 210 236
0.474634 -0.428246 -0.594 186 198 224
0.475766 -0.428246 -0.594 149 161 185
0.476897 -0.428246 -0.594 145 157 181
0.478029 -0.428246 -0.594 141 156 187
0.47916 -0.428246 -0.594 111 126 157
0.480291 -0.428246 -0.594 111 126 157
0.481423 -0.428246 -0.594 103 125 162
0.482554 -0.428246 -0.594 104 126 163
0.483686 -0.428246 -0.594 161 182 209
0.484817 -0.428246 -0.594 186 207 234
0.485949 -0.428246 -0.594 201 214 223
0.48708 -0.428246 -0.594 204 217 226
0.488211 -0.428246 -0.594 208 212 221
0.489343 -0.428246 -0.594 209 213 222
0.490474 -0.428246 -0.594 213 216 233
0.491606 -0.428246 -0.594 209 212 229
0.492737 -0.428246 -0.594 206 210 222
0.493869 -0.428246 -0.594 207 211 223
0.495 -0.428246 -0.594 201 205 217
0.496131 -0.428246 -0.594 175 179 191
0.497263 -0.428246 -0.594 128 153 184
0.499233 -0.428967 -0.595 100 125 156
0.500367 -0.428967 -0.595 104 137 178
0.500657 -0.428246 -0.594 119 152 193
0.501789 -0.428246 -0.594 139 163 201
0.502073 -0.427525 -0.593 145 169 207
0.503203 -0.427525 -0.593 144 155 185
0.496054 -0.413106 -0.573 171 143 131
0.493675 -0.410222 -0.569 170 142 130
0.491281 -0.407338 -0.565 171 143 131
0.489743 -0.405175 -0.562 172 143 129
0.488193 -0.403012 -0.559 170 141 127
0.487508 -0.40157 -0.557 174 142 127
0.48506 -0.398687 -0.553 173 141 126
0.483476 -0.396524 -0.55 173 142 124
0.481881 -0.394361 -0.547 173 142 124
0.481157 -0.392919 -0.545 175 142 125
0.479541 -0.390756 -0.542 175 142 125
0.4788 -0.389314 -0.54 176 143 124
0.479829 -0.389314 -0.54 176 143 124
0.479076 -0.387872 -0.538 177 144 125
0.478316 -0.38643 -0.536 179 144 125
0.477549 -0.384989 -0.534 177 142 123
0.476773 -0.383547 -0.532 179 142 124
0.47599 -0.382105 -0.53 178 141 123
0.4752 -0.380663 -0.528 183 146 127
0.474402 -0.379221 -0.526 181 144 125
0.473596 -0.377779 -0.524 183 147 125
0.472783 -0.376337 -0.522 182 146 124
0.47287 -0.375616 -0.521 184 146 125
0.472043 -0.374174 -0.519 185 147 126
0.47212 -0.373453 -0.518 187 149 126
0.47128 -0.372011 -0.516 188 150 127
0.471348 -0.37129 -0.515 189 152 126
0.471411 -0.37057 -0.514 189 152 126
0.471471 -0.369849 -0.513 188 151 125
0.472449 -0.369849 -0.513 189 152 126
0.472503 -0.369128 -0.512 192 152 126
0.472553 -0.368407 -0.511 193 153 127
0.4726 -0.367686 -0.51 193 153 127
0.472643 -0.366965 -0.509 193 153 127
0.472682 -0.366244 -0.508 195 155 129
0.47365 -0.366244 -0.508 194 154 128
0.473683 -0.365523 -0.507 192 153 124
0.473712 -0.364802 -0.506 190 151 122
0.474676 -0.364802 -0.506 191 152 123
0.4747 -0.364081 -0.505 193 154 125
0.47472 -0.36336 -0.504 195 156 125
0.47568 -0.36336 -0.504 194 155 124
0.475694 -0.362639 -0.503 194 155 124
0.475705 -0.361918 -0.502 196 157 126
0.476661 -0.361918 -0.502 195 156 125
0.476666 -0.361197 -0.501 193 154 123
0.476667 -0.360476 -0.5 193 152 122
0.477619 -0.360476 -0.5 193 152 122
0.478571 -0.360476 -0.5 191 150 120
0.478565 -0.359755 -0.499 192 151 121
0.479515 -0.359755 -0.499 193 152 122
0.479503 -0.359034 -0.498 195 154 124
0.480451 -0.359034 -0.498 195 154 126
0.480433 -0.358313 -0.497 193 152 124
0.48138 -0.358313 -0.497 192 151 123
0.481356 -0.357592 -0.496 194 153 125
0.482301 -0.357592 -0.496 196 152 125
0.483246 -0.357592 -0.496 194 150 123
0.483214 -0.356871 -0.495 193 149 122
0.484157 -0.356871 -0.495 191 147 120
0.48412 -0.35615 -0.494 190 146 119
0.485061 -0.35615 -0.494 191 147 120
0.485018 -0.35543 -0.493 193 148 119
0.485957 -0.35543 -0.493 193 148 119
0.486896 -0.35543 -0.493 192 147 118
0.486846 -0.354709 -0.492 191 146 117
0.487783 -0.354709 -0.492 190 145 116
0.48872 -0.354709 -0.492 189 144 115
0.489657 -0.354709 -0.492 189 144 115
0.490594 -0.354709 -0.492 189 144 115
0.491531 -0.354709 -0.492 190 145 116
0.492469 -0.354709 -0.492 189 144 113
0.493406 -0.354709 -0.492 187 142 111
0.494343 -0.354709 -0.492 185 142 110
0.49528 -0.354709 -0.492 185 142 110
0.496217 -0.354709 -0.492 185 142 110
0.496144 -0.353988 -0.491 183 140 108
0.498091 -0.354709 -0.492 184 139 106
0.498014 -0.353988 -0.491 184 141 109
0.499966 -0.354709 -0.492 184 140 105
0.500903 -0.354709 -0.492 182 138 103
0.50184 -0.354709 -0.492 180 136 101
0.502777 -0.354709 -0.492 178 134 99
0.504738 -0.35543 -0.493 179 133 100
0.506703 -0.35615 -0.494 178 132 99
0.508671 -0.356871 -0.495 177 131 98
0.510644 -0.357592 -0.496 176 130 97
0.51262 -0.358313 -0.497 171 127 98
0.5146 -0.359034 -0.498 170 126 97
0.516584 -0.359755 -0.499 165 125 99
0.520646 -0.361918 -0.502 160 120 94
0.52368 -0.36336 -0.504 153 117 95
0.527763 -0.365523 -0.507 152 116 94
0.61701 -0.418152 -0.58 207 204 199
0.0554 -0.400463 -0.554 203 155 135
0.0560476 -0.397571 -0.55 203 155 135
0.05668 -0.39468 -0.546 200 156 127
0.0572971 -0.391789 -0.542 199 155 126
0.0580067 -0.38962 -0.539 197 155 130
0.0588143 -0.388174 -0.537 197 155 130
0.0595029 -0.386006 -0.534 202 158 133
0.0604067 -0.385283 -0.533 202 158 133
0.0613067 -0.38456 -0.532 203 159 134
0.0622029 -0.383837 -0.531 201 157 132
0.0630952 -0.383114 -0.53 200 156 131
0.0639838 -0.382391 -0.529 201 157 132
0.0648686 -0.381669 -0.528 203 157 133
0.0658743 -0.381669 -0.528 207 161 137
0.0667533 -0.380946 -0.527 204 158 132
0.0677571 -0.380946 -0.527 204 158 132
0.0686305 -0.380223 -0.526 204 160 133
0.0696324 -0.380223 -0.526 205 161 134
0.0706343 -0.380223 -0.526 205 161 134
0.0716362 -0.380223 -0.526 205 161 134
0.0726381 -0.380223 -0.526 206 160 134
0.0735 -0.3795 -0.525 205 159 133
0.0745 -0.3795 -0.525 202 156 130
0.0755 -0.3795 -0.525 203 157 131
0.0765 -0.3795 -0.525 202 156 130
0.0775 -0.3795 -0.525 199 153 127
0.0786495 -0.380223 -0.526 199 153 127
0.0796514 -0.380223 -0.526 201 155 129
0.0806533 -0.380223 -0.526 202 156 130
0.0816552 -0.380223 -0.526 202 156 130
0.0826571 -0.380223 -0.526 198 152 126
0.0836591 -0.380223 -0.526 197 151 125
0.084661 -0.380223 -0.526 197 151 125
0.0856629 -0.380223 -0.526 195 149 123
0.0868295 -0.380946 -0.527 189 143 119
0.0878333 -0.380946 -0.527 186 140 116
0.0890057 -0.381669 -0.528 185 139 115
0.0900114 -0.381669 -0.528 183 137 113
0.0911895 -0.382391 -0.529 186 134 113
0.0921971 -0.382391 -0.529 182 130 109
0.0933809 -0.383114 -0.53 178 123 103
0.0945686 -0.383837 -0.531 176 121 101
0.09558 -0.383837 -0.531 177 121 104
0.0967733 -0.38456 -0.532 177 121 104
0.0979705 -0.385283 -0.533 178 123 103
0.0991714 -0.386006 -0.534 177 122 102
0.100376 -0.386729 -0.535 176 120 103
0.101585 -0.387451 -0.536 175 119 102
0.102606 -0.387451 -0.536 175 118 101
0.10382 -0.388174 -0.537 173 116 99
0.105038 -0.388897 -0.538 172 115 98
0.10626 -0.38962 -0.539 171 114 97
0.107486 -0.390343 -0.54 168 112 95
0.108715 -0.391066 -0.541 166 110 93
0.109949 -0.391789 -0.542 162 111 94
0.111186 -0.392511 -0.543 158 109 94
0.112427 -0.393234 -0.544 154 108 95
0.113671 -0.393957 -0.545 150 104 91
0.11513 -0.395403 -0.547 144 101 92
0.116385 -0.396126 -0.548 143 100 91
0.117857 -0.397571 -0.55 139 99 91
0.119121 -0.398294 -0.551 139 99 91
0.120607 -0.39974 -0.553 143 100 91
0.12188 -0.400463 -0.554 142 99 90
0.123379 -0.401909 -0.556 142 99 90
0.124886 -0.403354 -0.558 139 96 87
0.1264 -0.4048 -0.56 133 96 90
0.13927 -0.417811 -0.578 97 84 93
0.140614 -0.418534 -0.579 96 83 92
0.141962 -0.419257 -0.58 93 89 104
0.143067 -0.419257 -0.58 93 89 104
0.144171 -0.419257 -0.58 83 79 94
0.145527 -0.41998 -0.581 61 62 82
0.146886 -0.420703 -0.582 77 78 98
0.147994 -0.420703 -0.582 99 104 126
0.149103 -0.420703 -0.582 105 110 132
0.150211 -0.420703 -0.582 93 99 123
0.15132 -0.420703 -0.582 90 96 120
0.152429 -0.420703 -0.582 84 91 117
0.153537 -0.420703 -0.582 74 81 107
0.154646 -0.420703 -0.582 64 71 97
0.155754 -0.420703 -0.582 44 51 77
0.156863 -0.420703 -0.582 71 80 109
0.157971 -0.420703 -0.582 118 127 156
0.15908 -0.420703 -0.582 137 145 168
0.160189 -0.420703 -0.582 149 157 180
0.161297 -0.420703 -0.582 155 160 179
0.162406 -0.420703 -0.582 158 163 182
0.163514 -0.420703 -0.582 166 164 178
0.164623 -0.420703 -0.582 136 134 148
0.165731 -0.420703 -0.582 127 125 130
0.167127 -0.421426 -0.583 156 154 159
0.167949 -0.420703 -0.582 171 174 183
0.169057 -0.420703 -0.582 158 161 170
0.170166 -0.420703 -0.582 140 145 175
0.171274 -0.420703 -0.582 121 126 156
0.172383 -0.420703 -0.582 86 115 157
0.173193 -0.41998 -0.581 95 124 166
0.1743 -0.41998 -0.581 111 140 180
0.175407 -0.41998 -0.581 135 164 204
0.176513 -0.41998 -0.581 144 170 207
0.17762 -0.41998 -0.581 144 170 207
0.178419 -0.419257 -0.58 149 171 208
0.179524 -0.419257 -0.58 148 170 207
0.180629 -0.419257 -0.58 128 151 193
0.181733 -0.419257 -0.58 117 140 182
0.182838 -0.419257 -0.58 110 133 175
0.183943 -0.419257 -0.58 132 155 197
0.185367 -0.41998 -0.581 160 177 205
0.186152 -0.419257 -0.58 184 201 229
0.187257 -0.419257 -0.58 206 212 226
0.188687 -0.41998 -0.581 214 220 234
0.189793 -0.41998 -0.581 210 215 234
0.1909 -0.41998 -0.581 207 212 231
0.192007 -0.41998 -0.581 207 214 233
0.193113 -0.41998 -0.581 209 216 235
0.19422 -0.41998 -0.581 212 217 237
0.195327 -0.41998 -0.581 211 216 236
0.196433 -0.41998 -0.581 209 215 237
0.19754 -0.41998 -0.581 187 193 215
0.198647 -0.41998 -0.581 137 152 181
0.199753 -0.41998 -0.581 121 136 165
0.20086 -0.41998 -0.581 142 164 201
0.201967 -0.41998 -0.581 104 133 175
0.203073 -0.41998 -0.581 116 145 187
0.20418 -0.41998 -0.581 141 168 211
0.205287 -0.41998 -0.581 158 185 228
0.206393 -0.41998 -0.581 186 202 238
0.2075 -0.41998 -0.581 199 215 251
0.208607 -0.41998 -0.581 201 214 246
0.209713 -0.41998 -0.581 179 192 224
0.21082 -0.41998 -0.581 138 153 182
0.211927 -0.41998 -0.581 183 198 227
0.213033 -0.41998 -0.581 210 225 248
0.21414 -0.41998 -0.581 206 221 244
0.215247 -0.41998 -0.581 170 183 202
0.216353 -0.41998 -0.581 158 171 190
0.21746 -0.41998 -0.581 166 183 213
0.218567 -0.41998 -0.581 141 158 188
0.219673 -0.41998 -0.581 127 146 188
0.22078 -0.41998 -0.581 133 152 194
0.221887 -0.41998 -0.581 188 201 233
0.222993 -0.41998 -0.581 220 233 255
0.2241 -0.41998 -0.581 232 234 246
0.225207 -0.41998 -0.581 233 235 247
0.226313 -0.41998 -0.581 206 206 218
0.22742 -0.41998 -0.581 197 197 209
0.228527 -0.41998 -0.581 220 223 228
0.248874 -0.420703 -0.582 161 183 220
0.249983 -0.420703 -0.582 180 197 227
0.251091 -0.420703 -0.582 202 219 249
0.2522 -0.420703 -0.582 224 237 253
0.253309 -0.420703 -0.582 235 248 255
0.406 -0.42504 -0.588 207 222 245
0.414544 -0.425763 -0.589 138 151 183
0.415666 -0.425763 -0.589 149 162 194
0.416788 -0.425763 -0.589 207 212 232
0.41791 -0.425763 -0.589 235 240 255
0.419031 -0.425763 -0.589 239 239 251
0.420153 -0.425763 -0.589 239 239 251
0.421275 -0.425763 -0.589 238 240 252
0.422397 -0.425763 -0.589 238 240 252
0.423519 -0.425763 -0.589 241 245 255
0.424641 -0.425763 -0.589 241 245 255
0.425763 -0.425763 -0.589 241 243 255
0.426885 -0.425763 -0.589 236 238 253
0.428007 -0.425763 -0.589 219 227 250
0.429129 -0.425763 -0.589 200 208 231
0.43025 -0.425763 -0.589 169 186 216
0.431372 -0.425763 -0.589 159 176 206
0.434352 -0.426486 -0.59 184 204 237
0.435476 -0.426486 -0.59 189 212 246
0.4366 -0.426486 -0.59 189 212 246
0.437724 -0.426486 -0.59 184 207 241
0.438848 -0.426486 -0.59 191 216 247
0.439971 -0.426486 -0.59 190 215 246
0.441843 -0.427209 -0.591 175 199 233
0.442969 -0.427209 -0.591 159 183 217
0.444094 -0.427209 -0.591 159 177 213
0.44522 -0.427209 -0.591 181 199 235
0.446346 -0.427209 -0.591 205 218 237
0.447471 -0.427209 -0.591 223 236 255
0.448597 -0.427209 -0.591 237 241 252
0.449723 -0.427209 -0.591 237 241 252
0.450849 -0.427209 -0.591 238 237 253
0.451974 -0.427209 -0.591 238 237 253
0.4531 -0.427209 -0.591 238 240 253
0.454226 -0.427209 -0.591 238 240 253
0.456122 -0.427931 -0.592 237 240 255
0.45725 -0.427931 -0.592 234 237 252
0.458377 -0.427931 -0.592 221 229 248
0.459505 -0.427931 -0.592 176 184 203
0.460632 -0.427931 -0.592 126 142 168
0.46098 -0.427209 -0.591 141 157 183
0.462106 -0.427209 -0.591 151 167 192
0.464015 -0.427931 -0.592 160 176 201
0.465143 -0.427931 -0.592 181 189 210
0.46627 -0.427931 -0.592 200 208 229
0.467398 -0.427931 -0.592 214 225 247
0.468526 -0.427931 -0.592 211 222 244
0.469653 -0.427931 -0.592 157 174 202
0.471576 -0.428654 -0.593 150 167 195
0.472706 -0.428654 -0.593 199 207 230
0.473835 -0.428654 -0.593 198 206 229
0.474965 -0.428654 -0.593 167 175 194
0.476094 -0.428654 -0.593 164 172 191
0.477224 -0.428654 -0.593 169 183 209
0.478353 -0.428654 -0.593 145 159 185
0.479483 -0.428654 -0.593 145 159 185
0.480612 -0.428654 -0.593 120 143 177
0.481742 -0.428654 -0.593 89 112 146
0.482871 -0.428654 -0.593 125 146 177
0.484001 -0.428654 -0.593 176 197 228
0.48513 -0.428654 -0.593 208 220 236
0.48626 -0.428654 -0.593 202 214 230
0.48739 -0.428654 -0.593 207 211 222
0.488519 -0.428654 -0.593 209 213 224
0.489649 -0.428654 -0.593 206 209 228
0.491606 -0.429377 -0.594 204 207 226
0.492737 -0.429377 -0.594 209 212 227
0.493869 -0.429377 -0.594 207 210 225
0.495 -0.429377 -0.594 203 207 219
0.496131 -0.429377 -0.594 181 185 197
0.497263 -0.429377 -0.594 146 165 195
0.498394 -0.429377 -0.594 113 132 162
0.499526 -0.429377 -0.594 99 132 175
0.500657 -0.429377 -0.594 113 146 189
0.501789 -0.429377 -0.594 137 160 201
0.502073 -0.428654 -0.593 143 166 207
0.502354 -0.427931 -0.592 151 160 189
0.503482 -0.427931 -0.592 143 152 181
0.496054 -0.414197 -0.573 169 141 129
0.493675 -0.411306 -0.569 170 142 130
0.49215 -0.409137 -0.566 172 142 131
0.489743 -0.406246 -0.562 172 143 129
0.488193 -0.404077 -0.559 171 142 128
0.486632 -0.401909 -0.556 173 141 126
0.48506 -0.39974 -0.553 172 140 125
0.483476 -0.397571 -0.55 173 140 125
0.482762 -0.396126 -0.548 174 141 126
0.481157 -0.393957 -0.545 175 142 125
0.479541 -0.391789 -0.542 175 142 125
0.4788 -0.390343 -0.54 176 143 126
0.479829 -0.390343 -0.54 176 143 126
0.479076 -0.388897 -0.538 177 144 127
0.478316 -0.387451 -0.536 179 144 125
0.477549 -0.386006 -0.534 176 141 122
0.476773 -0.38456 -0.532 178 143 123
0.47599 -0.383114 -0.53 178 143 123
0.4752 -0.381669 -0.528 184 147 128
0.474402 -0.380223 -0.526 182 145 126
0.4745 -0.3795 -0.525 182 146 124
0.473689 -0.378054 -0.523 180 144 122
0.47287 -0.376609 -0.521 182 146 124
0.472043 -0.375163 -0.519 183 147 125
0.47212 -0.37444 -0.518 188 150 127
0.47128 -0.372994 -0.516 189 151 128
0.471348 -0.372271 -0.515 188 151 125
0.471411 -0.371549 -0.514 189 152 126
0.471471 -0.370826 -0.513 188 151 125
0.471528 -0.370103 -0.512 189 152 126
0.472503 -0.370103 -0.512 192 152 126
0.472553 -0.36938 -0.511 192 152 126
0.4726 -0.368657 -0.51 193 153 127
0.472643 -0.367934 -0.509 193 153 127
0.472682 -0.367211 -0.508 192 152 126
0.472717 -0.366489 -0.507 192 152 126
0.473683 -0.366489 -0.507 191 151 125
0.473712 -0.365766 -0.506 188 148 122
0.473738 -0.365043 -0.505 188 149 120
0.4747 -0.365043 -0.505 193 154 125
0.47472 -0.36432 -0.504 196 157 128
0.474736 -0.363597 -0.503 196 157 128
0.475694 -0.363597 -0.503 196 157 128
0.475705 -0.362874 -0.502 195 156 127
0.475711 -0.362151 -0.501 194 155 124
0.476666 -0.362151 -0.501 193 154 123
0.476667 -0.361429 -0.5 191 152 123
0.477619 -0.361429 -0.5 191 152 123
0.477614 -0.360706 -0.499 191 150 122
0.478565 -0.360706 -0.499 191 150 122
0.479515 -0.360706 -0.499 192 151 123
0.479503 -0.359983 -0.498 193 152 124
0.480451 -0.359983 -0.498 195 154 126
0.480433 -0.35926 -0.497 194 153 125
0.480411 -0.358537 -0.496 193 152 124
0.481356 -0.358537 -0.496 193 152 124
0.482301 -0.358537 -0.496 196 152 125
0.482271 -0.357814 -0.495 194 150 123
0.483214 -0.357814 -0.495 192 148 121
0.483179 -0.357091 -0.494 191 147 120
0.48412 -0.357091 -0.494 191 147 120
0.484079 -0.356369 -0.493 189 145 118
0.485018 -0.356369 -0.493 192 148 121
0.485957 -0.356369 -0.493 192 148 121
0.485909 -0.355646 -0.492 194 149 120
0.486846 -0.355646 -0.492 193 148 119
0.487783 -0.355646 -0.492 190 145 116
0.487727 -0.354923 -0.491 189 144 115
0.488662 -0.354923 -0.491 188 144 115
0.489597 -0.354923 -0.491 188 144 115
0.490532 -0.354923 -0.491 187 143 114
0.491468 -0.354923 -0.491 189 145 116
0.492403 -0.354923 -0.491 187 143 114
0.494343 -0.355646 -0.492 186 143 111
0.494273 -0.354923 -0.491 185 142 110
0.495209 -0.354923 -0.491 184 141 109
0.496144 -0.354923 -0.491 183 140 108
0.497079 -0.354923 -0.491 183 140 108
0.498014 -0.354923 -0.491 184 141 109
0.49895 -0.354923 -0.491 184 139 106
0.499885 -0.354923 -0.491 181 136 103
0.50082 -0.354923 -0.491 179 133 99
0.501755 -0.354923 -0.491 178 132 98
0.503714 -0.355646 -0.492 178 132 98
0.505677 -0.356369 -0.493 178 132 98
0.507644 -0.357091 -0.494 177 131 98
0.508585 -0.357091 -0.494 175 129 96
0.510557 -0.357814 -0.495 173 129 100
0.512533 -0.358537 -0.496 170 126 97
0.514513 -0.35926 -0.497 165 123 98
0.518571 -0.361429 -0.5 161 119 94
0.521602 -0.362874 -0.502 153 117 95
0.525681 -0.365043 -0.505 151 115 93
0.613818 -0.417089 -0.577 207 202 196
0.618114 -0.419257 -0.58 204 205 200
0.0544429 -0.402243 -0.555 199 156 137
0.0551 -0.399344 -0.551 202 156 133
0.0557419 -0.396445 -0.547 202 156 133
0.0563686 -0.393546 -0.543 202 156 132
0.05698 -0.390647 -0.539 200 154 130
0.0576838 -0.388472 -0.536 198 152 128
0.0584857 -0.387023 -0.534 198 152 128
0.05928 -0.385573 -0.532 199 155 130
0.06018 -0.384849 -0.531 201 157 132
0.0610762 -0.384124 -0.53 202 158 133
0.0619686 -0.383399 -0.529 201 157 132
0.0629762 -0.383399 -0.529 201 157 132
0.0638629 -0.382674 -0.528 203 159 134
0.0647457 -0.38195 -0.527 205 159 135
0.0657495 -0.38195 -0.527 208 162 138
0.0666267 -0.381225 -0.526 205 159 133
0.0676286 -0.381225 -0.526 206 160 134
0.0686305 -0.381225 -0.526 206 160 134
0.0695 -0.3805 -0.525 206 160 134
0.0705 -0.3805 -0.525 206 160 134
0.0715 -0.3805 -0.525 206 160 134
0.0725 -0.3805 -0.525 205 159 133
0.0735 -0.3805 -0.525 205 159 133
0.0745 -0.3805 -0.525 202 156 130
0.0755 -0.3805 -0.525 201 155 129
0.0765 -0.3805 -0.525 200 154 128
0.0775 -0.3805 -0.525 197 151 125
0.0785 -0.3805 -0.525 197 151 125
0.0795 -0.3805 -0.525 199 153 127
0.0805 -0.3805 -0.525 201 155 129
0.0815 -0.3805 -0.525 201 155 129
0.0826571 -0.381225 -0.526 196 150 124
0.0836591 -0.381225 -0.526 195 149 123
0.084661 -0.381225 -0.526 195 149 123
0.0856629 -0.381225 -0.526 193 147 121
0.0868295 -0.38195 -0.527 186 140 116
0.0878333 -0.38195 -0.527 183 137 113
0.0888371 -0.38195 -0.527 182 136 112
0.0900114 -0.382674 -0.528 180 134 110
0.0910171 -0.382674 -0.528 185 133 112
0.0921971 -0.383399 -0.529 181 129 108
0.0933809 -0.384124 -0.53 179 124 104
0.0945686 -0.384849 -0.531 176 121 101
0.09558 -0.384849 -0.531 177 121 104
0.0967733 -0.385573 -0.532 178 122 105
0.0979705 -0.386298 -0.533 177 122 102
0.0991714 -0.387023 -0.534 175 120 100
0.100376 -0.387748 -0.535 175 119 102
0.101585 -0.388472 -0.536 173 117 100
0.102606 -0.388472 -0.536 174 116 102
0.10382 -0.389197 -0.537 173 115 101
0.105038 -0.389922 -0.538 170 112 98
0.10626 -0.390647 -0.539 169 111 97
0.107486 -0.391371 -0.54 167 110 93
0.108715 -0.392096 -0.541 166 109 92
0.109949 -0.392821 -0.542 162 111 94
0.111186 -0.393546 -0.543 159 108 91
0.112427 -0.39427 -0.544 155 107 93
0.11388 -0.39572 -0.546 151 103 89
0.11513 -0.396445 -0.547 146 102 93
0.116385 -0.39717 -0.548 146 102 93
0.117857 -0.398619 -0.55 143 100 93
0.119121 -0.399344 -0.551 143 100 93
0.120607 -0.400793 -0.553 143 100 91
0.1221 -0.402243 -0.555 142 99 90
0.123601 -0.403692 -0.557 142 99 90
0.12511 -0.405142 -0.559 140 97 88
0.13927 -0.418912 -0.578 90 79 93
0.140614 -0.419637 -0.579 94 83 97
0.141717 -0.419637 -0.579 94 83 97
0.143067 -0.420362 -0.58 92 89 108
0.144171 -0.420362 -0.58 79 76 95
0.145527 -0.421087 -0.581 69 70 90
0.146633 -0.421087 -0.581 85 86 106
0.147994 -0.421811 -0.582 103 105 126
0.149103 -0.421811 -0.582 109 111 132
0.150211 -0.421811 -0.582 98 104 126
0.15132 -0.421811 -0.582 94 100 122
0.152167 -0.421087 -0.581 91 97 119
0.153273 -0.421087 -0.581 93 99 121
0.15438 -0.421087 -0.581 87 93 115
0.155487 -0.421087 -0.581 53 59 81
0.156593 -0.421087 -0.581 63 70 96
0.1577 -0.421087 -0.581 112 119 145
0.158807 -0.421087 -0.581 141 152 174
0.159913 -0.421087 -0.581 154 165 187
0.16102 -0.421087 -0.581 157 162 182
0.162127 -0.421087 -0.581 158 163 183
0.163233 -0.421087 -0.581 162 159 176
0.16434 -0.421087 -0.581 152 149 166
0.165731 -0.421811 -0.582 164 162 167
0.16684 -0.421811 -0.582 177 175 180
0.167949 -0.421811 -0.582 179 181 194
0.168767 -0.421087 -0.581 166 168 181
0.169873 -0.421087 -0.581 153 159 195
0.17098 -0.421087 -0.581 123 129 165
0.172087 -0.421087 -0.581 91 120 162
0.173193 -0.421087 -0.581 99 128 170
0.174 -0.420362 -0.58 110 140 178
0.175105 -0.420362 -0.58 129 159 197
0.17621 -0.420362 -0.58 148 174 209
0.177314 -0.420362 -0.58 149 175 210
0.178419 -0.420362 -0.58 147 169 208
0.179524 -0.420362 -0.58 143 165 204
0.180317 -0.419637 -0.579 131 154 196
0.18142 -0.419637 -0.579 116 139 181
0.182523 -0.419637 -0.579 119 141 180
0.183626 -0.419637 -0.579 149 171 210
0.185048 -0.420362 -0.58 180 194 221
0.186152 -0.420362 -0.58 197 211 238
0.187257 -0.420362 -0.58 208 214 228
0.188362 -0.420362 -0.58 211 217 231
0.189467 -0.420362 -0.58 210 215 234
0.190571 -0.420362 -0.58 210 215 234
0.191676 -0.420362 -0.58 209 216 235
0.192781 -0.420362 -0.58 211 218 237
0.193886 -0.420362 -0.58 215 223 244
0.19499 -0.420362 -0.58 210 218 239
0.196095 -0.420362 -0.58 193 204 226
0.1972 -0.420362 -0.58 171 182 204
0.198305 -0.420362 -0.58 144 158 184
0.19941 -0.420362 -0.58 169 183 209
0.200514 -0.420362 -0.58 169 183 209
0.201967 -0.421087 -0.581 142 164 201
0.203073 -0.421087 -0.581 156 178 215
0.20418 -0.421087 -0.581 171 191 226
0.205287 -0.421087 -0.581 176 196 231
0.206393 -0.421087 -0.581 197 208 238
0.207143 -0.420362 -0.58 210 221 251
0.208248 -0.420362 -0.58 209 220 242
0.209352 -0.420362 -0.58 190 201 223
0.210457 -0.420362 -0.58 172 184 210
0.211562 -0.420362 -0.58 196 208 234
0.212667 -0.420362 -0.58 215 225 250
0.213771 -0.420362 -0.58 213 223 248
0.214876 -0.420362 -0.58 189 200 220
0.215981 -0.420362 -0.58 178 189 209
0.217086 -0.420362 -0.58 178 192 219
0.221887 -0.421087 -0.581 170 181 211
0.222993 -0.421087 -0.581 215 226 255
0.2241 -0.421087 -0.581 235 241 253
0.225207 -0.421087 -0.581 223 229 241
0.226313 -0.421087 -0.581 214 216 231
0.22742 -0.421087 -0.581 220 222 237
0.228527 -0.421087 -0.581 234 238 247
0.229633 -0.421087 -0.581 238 242 251
0.23074 -0.421087 -0.581 243 241 255
0.231847 -0.421087 -0.581 242 240 254
0.232953 -0.421087 -0.581 234 237 252
0.23406 -0.421087 -0.581 228 231 246
0.235167 -0.421087 -0.581 192 211 241
0.236273 -0.421087 -0.581 172 191 221
0.23738 -0.421087 -0.581 159 184 215
0.238487 -0.421087 -0.581 171 196 227
0.239593 -0.421087 -0.581 186 205 245
0.2407 -0.421087 -0.581 201 220 255
0.241807 -0.421087 -0.581 195 218 250
0.251091 -0.421811 -0.582 211 226 255
0.2522 -0.421811 -0.582 229 241 255
0.253309 -0.421811 -0.582 236 248 255
0.254417 -0.421811 -0.582 241 250 255
0.255526 -0.421811 -0.582 237 246 251
0.256634 -0.421811 -0.582 239 246 254
0.257743 -0.421811 -0.582 243 250 255
0.258851 -0.421811 -0.582 238 245 255
0.367785 -0.42471 -0.586 177 186 217
0.368901 -0.42471 -0.586 167 183 216
0.390774 -0.425435 -0.587 202 213 231
0.391892 -0.425435 -0.587 162 179 209
0.39301 -0.425435 -0.587 164 181 211
0.394129 -0.425435 -0.587 196 211 230
0.41272 -0.42616 -0.588 199 211 233
0.41384 -0.42616 -0.588 185 196 224
0.41496 -0.42616 -0.588 155 166 194
0.41608 -0.42616 -0.588 184 192 215
0.4172 -0.42616 -0.588 216 224 247
0.41832 -0.42616 -0.588 232 237 255
0.41944 -0.42616 -0.588 235 240 255
0.432494 -0.426885 -0.589 166 185 218
0.433616 -0.426885 -0.589 177 196 229
0.434738 -0.426885 -0.589 187 207 244
0.43586 -0.426885 -0.589 187 207 244
0.436982 -0.426885 -0.589 195 215 252
0.438104 -0.426885 -0.589 193 218 249
0.439971 -0.42761 -0.59 180 205 236
0.441095 -0.42761 -0.59 172 195 229
0.442219 -0.42761 -0.59 162 185 219
0.443343 -0.42761 -0.59 157 175 211
0.444467 -0.42761 -0.59 182 200 236
0.446346 -0.428334 -0.591 202 217 238
0.447471 -0.428334 -0.591 219 234 255
0.448597 -0.428334 -0.591 234 243 252
0.449723 -0.428334 -0.591 235 244 253
0.450849 -0.428334 -0.591 239 241 255
0.451974 -0.428334 -0.591 239 241 255
0.4531 -0.428334 -0.591 238 240 255
0.454226 -0.428334 -0.591 237 239 254
0.455351 -0.428334 -0.591 234 237 252
0.456477 -0.428334 -0.591 231 234 249
0.457603 -0.428334 -0.591 205 213 232
0.458729 -0.428334 -0.591 169 177 196
0.459854 -0.428334 -0.591 147 161 187
0.46098 -0.428334 -0.591 177 191 217
0.462106 -0.428334 -0.591 179 194 217
0.463231 -0.428334 -0.591 179 194 217
0.465143 -0.429059 -0.592 185 196 216
0.46627 -0.429059 -0.592 200 211 231
0.467398 -0.429059 -0.592 212 223 245
0.468526 -0.429059 -0.592 212 223 245
0.469653 -0.429059 -0.592 179 195 220
0.470781 -0.429059 -0.592 171 187 212
0.471909 -0.429059 -0.592 198 205 231
0.473036 -0.429059 -0.592 202 209 235
0.474164 -0.429059 -0.592 192 201 218
0.475291 -0.429059 -0.592 186 195 212
0.476419 -0.429059 -0.592 179 192 209
0.477547 -0.429059 -0.592 170 183 200
0.478674 -0.429059 -0.592 170 183 200
0.479802 -0.429059 -0.592 166 183 211
0.48093 -0.429059 -0.592 140 157 185
0.482871 -0.429784 -0.593 115 132 162
0.484001 -0.429784 -0.593 152 169 199
0.48513 -0.429784 -0.593 197 208 228
0.48626 -0.429784 -0.593 206 217 237
0.48739 -0.429784 -0.593 209 215 229
0.488519 -0.429784 -0.593 209 215 229
0.489649 -0.429784 -0.593 206 212 228
0.490778 -0.429784 -0.593 206 212 228
0.491908 -0.429784 -0.593 207 213 227
0.493037 -0.429784 -0.593 203 209 223
0.494167 -0.429784 -0.593 207 210 225
0.495296 -0.429784 -0.593 191 194 209
0.496426 -0.429784 -0.593 166 181 210
0.497555 -0.429784 -0.593 137 152 181
0.498685 -0.429784 -0.593 100 131 175
0.499814 -0.429784 -0.593 109 140 184
0.500944 -0.429784 -0.593 127 152 192
0.502073 -0.429784 -0.593 136 161 201
0.502354 -0.429059 -0.592 152 164 190
0.496054 -0.415289 -0.573 167 139 128
0.493675 -0.41239 -0.569 170 140 129
0.49215 -0.410215 -0.566 172 142 131
0.489743 -0.407316 -0.562 173 141 130
0.488193 -0.405142 -0.559 174 142 131
0.486632 -0.402968 -0.556 173 141 128
0.48506 -0.400793 -0.553 171 139 126
0.484355 -0.399344 -0.551 170 138 123
0.482762 -0.39717 -0.548 172 140 125
0.481157 -0.394995 -0.545 175 142 127
0.480426 -0.393546 -0.543 176 143 128
0.4788 -0.391371 -0.54 177 144 129
0.478051 -0.389922 -0.538 176 143 128
0.479076 -0.389922 -0.538 176 143 128
0.478316 -0.388472 -0.536 178 142 126
0.477549 -0.387023 -0.534 178 142 126
0.476773 -0.385573 -0.532 180 145 126
0.47599 -0.384124 -0.53 180 145 126
0.4761 -0.383399 -0.529 182 147 127
0.475304 -0.38195 -0.527 180 145 125
0.4745 -0.3805 -0.525 181 144 125
0.473689 -0.37905 -0.523 181 144 125
0.47287 -0.377601 -0.521 183 147 125
0.472043 -0.376151 -0.519 183 147 125
0.47212 -0.375427 -0.518 187 149 126
0.47128 -0.373977 -0.516 188 150 127
0.471348 -0.373252 -0.515 188 151 125
0.471411 -0.372528 -0.514 189 152 126
0.471471 -0.371803 -0.513 188 151 125
0.471528 -0.371078 -0.512 188 151 125
0.47158 -0.370353 -0.511 192 152 127
0.472553 -0.370353 -0.511 191 151 126
0.4726 -0.369629 -0.51 193 153 128
0.472643 -0.368904 -0.509 193 153 128
0.472682 -0.368179 -0.508 190 150 125
0.472717 -0.367454 -0.507 190 150 125
0.472749 -0.36673 -0.506 190 150 124
0.473712 -0.36673 -0.506 188 148 122
0.473738 -0.366005 -0.505 187 147 121
0.47376 -0.36528 -0.504 193 153 127
0.47472 -0.36528 -0.504 196 156 130
0.474736 -0.364555 -0.503 195 155 129
0.474749 -0.36383 -0.502 194 155 126
0.475705 -0.36383 -0.502 194 155 126
0.475711 -0.363106 -0.501 194 153 125
0.475714 -0.362381 -0.5 193 152 124
0.476667 -0.362381 -0.5 190 151 122
0.476664 -0.361656 -0.499 190 151 122
0.477614 -0.361656 -0.499 190 151 122
0.478565 -0.361656 -0.499 189 150 121
0.478554 -0.360931 -0.498 192 151 123
0.479503 -0.360931 -0.498 190 149 121
0.479487 -0.360207 -0.497 193 152 124
0.480433 -0.360207 -0.497 192 151 123
0.480411 -0.359482 -0.496 192 151 123
0.481356 -0.359482 -0.496 192 151 123
0.481329 -0.358757 -0.495 193 152 124
0.482271 -0.358757 -0.495 192 151 123
0.483214 -0.358757 -0.495 192 148 121
0.483179 -0.358032 -0.494 191 147 120
0.48314 -0.357308 -0.493 191 147 120
0.484079 -0.357308 -0.493 189 145 118
0.485018 -0.357308 -0.493 193 149 122
0.484971 -0.356583 -0.492 192 148 121
0.485909 -0.356583 -0.492 193 149 120
0.486846 -0.356583 -0.492 193 149 120
0.486791 -0.355858 -0.491 190 146 117
0.487727 -0.355858 -0.491 189 145 116
0.488662 -0.355858 -0.491 189 145 116
0.489597 -0.355858 -0.491 187 143 114
0.490532 -0.355858 -0.491 187 143 114
0.491468 -0.355858 -0.491 189 145 116
0.492403 -0.355858 -0.491 188 144 115
0.493338 -0.355858 -0.491 187 142 111
0.494273 -0.355858 -0.491 186 141 110
0.4942 -0.355133 -0.49 185 140 109
0.495133 -0.355133 -0.49 184 139 108
0.496067 -0.355133 -0.49 183 140 108
0.498014 -0.355858 -0.491 184 141 109
0.497933 -0.355133 -0.49 184 138 105
0.498867 -0.355133 -0.49 182 136 103
0.50082 -0.355858 -0.491 180 134 100
0.501755 -0.355858 -0.491 179 133 99
0.50269 -0.355858 -0.491 181 132 99
0.504651 -0.356583 -0.492 180 131 98
0.506616 -0.357308 -0.493 176 130 97
0.507555 -0.357308 -0.493 175 129 96
0.509526 -0.358032 -0.494 174 130 101
0.5115 -0.358757 -0.495 171 127 98
0.513478 -0.359482 -0.496 165 123 98
0.516497 -0.360931 -0.498 160 118 93
0.519524 -0.362381 -0.5 153 117 93
0.522558 -0.36383 -0.502 151 115 91
0.0533857 -0.4033 -0.555 198 157 135
0.0541486 -0.40112 -0.552 198 157 135
0.0548 -0.398213 -0.548 201 157 130
0.0554362 -0.395307 -0.544 201 157 130
0.0560571 -0.3924 -0.54 202 156 133
0.0566629 -0.389493 -0.536 200 154 131
0.0574686 -0.38804 -0.534 198 150 128
0.0582667 -0.386587 -0.532 198 150 128
0.0591686 -0.38586 -0.531 198 154 129
0.0600667 -0.385133 -0.53 200 156 131
0.060961 -0.384407 -0.529 201 157 132
0.0619686 -0.384407 -0.529 201 157 132
0.0628571 -0.38368 -0.528 202 158 133
0.0637419 -0.382953 -0.527 204 160 135
0.0646229 -0.382227 -0.526 206 160 136
0.0656248 -0.382227 -0.526 208 162 138
0.0666267 -0.382227 -0.526 207 161 135
0.0676286 -0.382227 -0.526 208 162 136
0.0685 -0.3815 -0.525 208 162 136
0.0695 -0.3815 -0.525 208 162 136
0.0705 -0.3815 -0.525 207 161 135
0.0715 -0.3815 -0.525 206 160 134
0.0725 -0.3815 -0.525 205 158 132
0.0735 -0.3815 -0.525 205 158 132
0.0745 -0.3815 -0.525 202 156 130
0.0755 -0.3815 -0.525 199 153 127
0.0765 -0.3815 -0.525 197 151 125
0.0775 -0.3815 -0.525 196 150 124
0.0785 -0.3815 -0.525 195 149 123
0.0795 -0.3815 -0.525 197 151 125
0.0805 -0.3815 -0.525 200 154 128
0.0815 -0.3815 -0.525 198 152 126
0.0825 -0.3815 -0.525 194 148 122
0.0835 -0.3815 -0.525 193 147 121
0.084661 -0.382227 -0.526 194 148 122
0.0856629 -0.382227 -0.526 192 146 120
0.0866648 -0.382227 -0.526 186 140 116
0.0878333 -0.382953 -0.527 182 136 112
0.0888371 -0.382953 -0.527 182 134 111
0.089841 -0.382953 -0.527 181 133 110
0.0910171 -0.38368 -0.528 187 135 114
0.0921971 -0.384407 -0.529 182 130 109
0.0933809 -0.385133 -0.53 182 127 107
0.0945686 -0.38586 -0.531 178 123 103
0.09558 -0.38586 -0.531 178 122 105
0.0967733 -0.386587 -0.532 180 124 107
0.0979705 -0.387313 -0.533 176 121 101
0.0991714 -0.38804 -0.534 174 119 99
0.100376 -0.388767 -0.535 174 118 101
0.101585 -0.389493 -0.536 173 117 100
0.102606 -0.389493 -0.536 174 116 102
0.10382 -0.39022 -0.537 173 115 101
0.105038 -0.390947 -0.538 169 111 97
0.10626 -0.391673 -0.539 167 109 95
0.107486 -0.3924 -0.54 167 109 95
0.108715 -0.393127 -0.541 166 108 94
0.109949 -0.393853 -0.542 161 109 95
0.111186 -0.39458 -0.543 160 108 94
0.112633 -0.396033 -0.545 157 108 94
0.11388 -0.39676 -0.546 153 104 90
0.11513 -0.397487 -0.547 147 103 94
0.116385 -0.398213 -0.548 147 103 94
0.117857 -0.399667 -0.55 144 101 94
0.119337 -0.40112 -0.552 144 101 94
0.120607 -0.401847 -0.553 144 101 94
0.1221 -0.4033 -0.555 144 101 94
0.123601 -0.404753 -0.557 142 99 92
0.12511 -0.406207 -0.559 139 96 89
0.13927 -0.420013 -0.578 89 82 98
0.140371 -0.420013 -0.578 89 82 98
0.141717 -0.42074 -0.579 93 86 102
0.14282 -0.42074 -0.579 88 87 105
0.144171 -0.421467 -0.58 73 72 90
0.145527 -0.422193 -0.581 73 74 92
0.146633 -0.422193 -0.581 90 91 109
0.14774 -0.422193 -0.581 103 106 125
0.148847 -0.422193 -0.581 112 115 134
0.149953 -0.422193 -0.581 110 115 134
0.15106 -0.422193 -0.581 107 112 131
0.152167 -0.422193 -0.581 103 109 125
0.153273 -0.422193 -0.581 112 118 134
0.15438 -0.422193 -0.581 117 123 145
0.155219 -0.421467 -0.58 94 100 122
0.156324 -0.421467 -0.58 74 84 109
0.1577 -0.422193 -0.581 88 98 123
0.158807 -0.422193 -0.581 113 125 149
0.159913 -0.422193 -0.581 137 149 173
0.16102 -0.422193 -0.581 155 163 184
0.162127 -0.422193 -0.581 164 172 193
0.163233 -0.422193 -0.581 174 173 189
0.16434 -0.422193 -0.581 170 169 185
0.165447 -0.422193 -0.581 176 175 181
0.166553 -0.422193 -0.581 179 178 184
0.16766 -0.422193 -0.581 179 185 197
0.168767 -0.422193 -0.581 164 170 182
0.169873 -0.422193 -0.581 144 156 194
0.17098 -0.422193 -0.581 123 135 173
0.172087 -0.422193 -0.581 92 121 165
0.172895 -0.421467 -0.58 102 131 175
0.174 -0.421467 -0.58 111 140 180
0.175105 -0.421467 -0.58 125 154 194
0.17621 -0.421467 -0.58 147 173 210
0.177314 -0.421467 -0.58 150 176 213
0.178111 -0.42074 -0.579 144 167 208
0.179214 -0.42074 -0.579 138 161 202
0.180317 -0.42074 -0.579 128 149 192
0.18142 -0.42074 -0.579 114 135 178
0.182523 -0.42074 -0.579 128 148 185
0.183626 -0.42074 -0.579 156 176 213
0.184729 -0.42074 -0.579 182 196 222
0.185831 -0.42074 -0.579 201 215 241
0.187257 -0.421467 -0.58 211 218 234
0.188362 -0.421467 -0.58 213 220 236
0.189467 -0.421467 -0.58 214 217 236
0.190243 -0.42074 -0.579 216 219 238
0.191346 -0.42074 -0.579 214 220 242
0.192449 -0.42074 -0.579 206 212 234
0.193886 -0.421467 -0.58 192 204 228
0.19499 -0.421467 -0.58 170 182 206
0.195757 -0.42074 -0.579 146 160 186
0.19686 -0.42074 -0.579 160 174 200
0.197963 -0.42074 -0.579 189 201 225
0.199066 -0.42074 -0.579 204 216 240
0.200514 -0.421467 -0.58 169 183 209
0.201619 -0.421467 -0.58 191 206 235
0.202724 -0.421467 -0.58 180 195 224
0.203829 -0.421467 -0.58 185 199 226
0.204933 -0.421467 -0.58 190 204 231
0.206038 -0.421467 -0.58 205 216 238
0.207143 -0.421467 -0.58 215 226 248
0.208248 -0.421467 -0.58 209 217 236
0.209352 -0.421467 -0.58 190 198 217
0.210457 -0.421467 -0.58 186 194 217
0.211562 -0.421467 -0.58 204 212 235
0.212667 -0.421467 -0.58 216 223 249
0.213771 -0.421467 -0.58 212 219 245
0.214876 -0.421467 -0.58 211 219 242
0.215981 -0.421467 -0.58 205 213 236
0.217086 -0.421467 -0.58 190 200 227
0.2204 -0.421467 -0.58 167 178 208
0.221505 -0.421467 -0.58 169 179 206
0.22261 -0.421467 -0.58 193 203 230
0.223714 -0.421467 -0.58 221 230 247
0.224819 -0.421467 -0.58 228 237 254
0.225924 -0.421467 -0.58 228 233 252
0.227029 -0.421467 -0.58 233 238 255
