ply
format ascii 1.0
comment Created by Open3D
element vertex 1295
property double x
property double y
property double z
property uchar red
property uchar green
property uchar blue
end_header
0.0753343 -0.354022 -0.517 195 149 125
0.0761714 -0.353337 -0.516 196 150 126
0.0771543 -0.353337 -0.516 199 153 129
0.0781371 -0.353337 -0.516 199 153 129
0.07912 -0.353337 -0.516 199 151 129
0.0801029 -0.353337 -0.516 200 152 130
0.0810857 -0.353337 -0.516 198 150 127
0.0820686 -0.353337 -0.516 200 152 129
0.0830514 -0.353337 -0.516 201 154 128
0.0840343 -0.353337 -0.516 200 153 127
0.0851819 -0.354022 -0.517 200 150 125
0.0861667 -0.354022 -0.517 197 147 122
0.0871514 -0.354022 -0.517 194 144 121
0.0883067 -0.354707 -0.518 192 142 119
0.0892933 -0.354707 -0.518 191 144 116
0.09028 -0.354707 -0.518 185 138 110
0.0912667 -0.354707 -0.518 182 133 103
0.0922533 -0.354707 -0.518 178 129 99
0.09342 -0.355391 -0.519 171 120 91
0.0945905 -0.356076 -0.52 166 115 86
0.0955809 -0.356076 -0.52 165 114 87
0.0967571 -0.356761 -0.521 160 109 82
0.0977495 -0.356761 -0.521 158 106 82
0.0989314 -0.357446 -0.522 157 105 81
0.100117 -0.35813 -0.523 156 105 84
0.101113 -0.35813 -0.523 155 104 83
0.102305 -0.358815 -0.524 149 100 83
0.1035 -0.3595 -0.525 142 93 76
0.104699 -0.360185 -0.526 137 91 76
0.105902 -0.36087 -0.527 139 93 78
0.107109 -0.361554 -0.528 133 90 81
0.108114 -0.361554 -0.528 132 89 80
0.109327 -0.362239 -0.529 132 88 77
0.110543 -0.362924 -0.53 132 88 77
0.111973 -0.364293 -0.532 134 88 75
0.113199 -0.364978 -0.533 133 87 74
0.114429 -0.365663 -0.534 129 85 74
0.115662 -0.366348 -0.535 128 84 73
0.117117 -0.367717 -0.537 128 85 76
0.11836 -0.368402 -0.538 125 82 73
0.119829 -0.369771 -0.54 120 80 72
0.121081 -0.370456 -0.541 121 81 73
0.122337 -0.371141 -0.542 117 80 74
0.123825 -0.37251 -0.544 116 79 73
0.12532 -0.37388 -0.546 109 78 75
0.126823 -0.37525 -0.548 105 74 71
0.128567 -0.377304 -0.551 100 67 60
0.130322 -0.379358 -0.554 103 70 63
0.131851 -0.380728 -0.556 104 73 70
0.133628 -0.382782 -0.559 105 74 71
0.135415 -0.384836 -0.562 110 90 89
0.137214 -0.38689 -0.565 157 137 136
0.13927 -0.38963 -0.569 173 168 165
0.14134 -0.392369 -0.573 168 163 160
0.143426 -0.395108 -0.577 168 168 170
0.145527 -0.397847 -0.581 189 189 191
0.147643 -0.400586 -0.585 192 189 198
0.164214 -0.414281 -0.605 133 139 175
0.165367 -0.414281 -0.605 163 169 205
0.166519 -0.414281 -0.605 174 179 199
0.167671 -0.414281 -0.605 174 179 199
0.168824 -0.414281 -0.605 176 181 201
0.169976 -0.414281 -0.605 171 174 193
0.171129 -0.414281 -0.605 133 136 155
0.172281 -0.414281 -0.605 108 114 146
0.173433 -0.414281 -0.605 99 105 137
0.174586 -0.414281 -0.605 89 104 147
0.175738 -0.414281 -0.605 93 108 151
0.17689 -0.414281 -0.605 102 125 167
0.178043 -0.414281 -0.605 99 122 164
0.179195 -0.414281 -0.605 83 111 151
0.180348 -0.414281 -0.605 94 122 162
0.197633 -0.414281 -0.605 81 94 129
0.198786 -0.414281 -0.605 161 174 209
0.199938 -0.414281 -0.605 181 183 204
0.20109 -0.414281 -0.605 185 187 208
0.337665 -0.413596 -0.604 71 101 151
0.338815 -0.413596 -0.604 66 96 146
0.339966 -0.413596 -0.604 58 88 140
0.341116 -0.413596 -0.604 53 83 135
0.342267 -0.413596 -0.604 61 94 148
0.343417 -0.413596 -0.604 40 73 127
0.344568 -0.413596 -0.604 34 67 121
0.345718 -0.413596 -0.604 36 69 123
0.346869 -0.413596 -0.604 55 85 137
0.348019 -0.413596 -0.604 63 93 145
0.34917 -0.413596 -0.604 93 116 158
0.35032 -0.413596 -0.604 140 163 205
0.35147 -0.413596 -0.604 170 168 190
0.352621 -0.413596 -0.604 173 171 193
0.37448 -0.413596 -0.604 86 112 163
0.37563 -0.413596 -0.604 66 95 139
0.376781 -0.413596 -0.604 74 103 147
0.377931 -0.413596 -0.604 89 106 160
0.379082 -0.413596 -0.604 130 147 201
0.380232 -0.413596 -0.604 164 171 187
0.381383 -0.413596 -0.604 162 169 185
0.382533 -0.413596 -0.604 168 169 173
0.383684 -0.413596 -0.604 171 172 176
0.384834 -0.413596 -0.604 168 168 180
0.385985 -0.413596 -0.604 169 169 181
0.387135 -0.413596 -0.604 172 171 185
0.388286 -0.413596 -0.604 171 170 184
0.389436 -0.413596 -0.604 170 178 201
0.390587 -0.413596 -0.604 160 168 191
0.391737 -0.413596 -0.604 139 161 200
0.392888 -0.413596 -0.604 118 140 179
0.394038 -0.413596 -0.604 81 117 167
0.395189 -0.413596 -0.604 60 96 146
0.396995 -0.414281 -0.605 35 74 129
0.398148 -0.414281 -0.605 23 62 117
0.3993 -0.414281 -0.605 25 57 114
0.400452 -0.414281 -0.605 16 48 105
0.401605 -0.414281 -0.605 34 59 123
0.402757 -0.414281 -0.605 18 43 107
0.40391 -0.414281 -0.605 27 52 119
0.405062 -0.414281 -0.605 29 54 121
0.406214 -0.414281 -0.605 37 70 137
0.407367 -0.414281 -0.605 37 70 137
0.408519 -0.414281 -0.605 69 102 169
0.409671 -0.414281 -0.605 99 129 179
0.410824 -0.414281 -0.605 124 154 204
0.411976 -0.414281 -0.605 157 169 195
0.413129 -0.414281 -0.605 150 162 188
0.413596 -0.413596 -0.604 158 157 173
0.414747 -0.413596 -0.604 169 168 184
0.415897 -0.413596 -0.604 165 170 189
0.417048 -0.413596 -0.604 164 169 188
0.418198 -0.413596 -0.604 166 176 188
0.419349 -0.413596 -0.604 166 176 188
0.420499 -0.413596 -0.604 166 172 186
0.42165 -0.413596 -0.604 163 169 183
0.4228 -0.413596 -0.604 147 153 179
0.42395 -0.413596 -0.604 142 148 174
0.425101 -0.413596 -0.604 69 102 147
0.426251 -0.413596 -0.604 62 95 140
0.427402 -0.413596 -0.604 81 106 163
0.428552 -0.413596 -0.604 85 110 167
0.429703 -0.413596 -0.604 74 111 166
0.430853 -0.413596 -0.604 55 92 147
0.432004 -0.413596 -0.604 35 80 145
0.433154 -0.413596 -0.604 28 73 138
0.434305 -0.413596 -0.604 38 77 146
0.435455 -0.413596 -0.604 49 88 157
0.436606 -0.413596 -0.604 68 101 155
0.438481 -0.414281 -0.605 69 102 156
0.439633 -0.414281 -0.605 67 100 153
0.440786 -0.414281 -0.605 64 97 150
0.441938 -0.414281 -0.605 62 94 143
0.44309 -0.414281 -0.605 62 94 143
0.444243 -0.414281 -0.605 107 139 188
0.445395 -0.414281 -0.605 108 117 134
0.446548 -0.414281 -0.605 112 121 138
0.4477 -0.414281 -0.605 142 148 160
0.448852 -0.414281 -0.605 167 173 185
0.450749 -0.414966 -0.606 164 167 184
0.451903 -0.414966 -0.606 127 130 147
0.453057 -0.414966 -0.606 92 103 131
0.453462 -0.414281 -0.605 75 86 114
0.454614 -0.414281 -0.605 70 92 133
0.455767 -0.414281 -0.605 83 105 146
0.456919 -0.414281 -0.605 70 100 150
0.458071 -0.414281 -0.605 57 87 137
0.459224 -0.414281 -0.605 45 78 132
0.460376 -0.414281 -0.605 33 66 120
0.461529 -0.414281 -0.605 26 58 117
0.462681 -0.414281 -0.605 22 54 113
0.463833 -0.414281 -0.605 22 57 123
0.464986 -0.414281 -0.605 18 53 119
0.466138 -0.414281 -0.605 13 54 118
0.46729 -0.414281 -0.605 15 56 120
0.468443 -0.414281 -0.605 14 53 118
0.469595 -0.414281 -0.605 17 56 121
0.470748 -0.414281 -0.605 25 56 113
0.4719 -0.414281 -0.605 32 63 120
0.473834 -0.414966 -0.606 33 65 112
0.474989 -0.414966 -0.606 34 66 113
0.476143 -0.414966 -0.606 29 66 119
0.477297 -0.414966 -0.606 39 76 129
0.478451 -0.414966 -0.606 38 69 123
0.479606 -0.414966 -0.606 39 70 124
0.48076 -0.414966 -0.606 57 77 110
0.481914 -0.414966 -0.606 72 92 125
0.483069 -0.414966 -0.606 72 92 125
0.484223 -0.414966 -0.606 105 112 120
0.485377 -0.414966 -0.606 144 151 159
0.486531 -0.414966 -0.606 132 144 160
0.487686 -0.414966 -0.606 89 101 117
0.48884 -0.414966 -0.606 66 90 118
0.489994 -0.414966 -0.606 67 91 119
0.491149 -0.414966 -0.606 47 78 125
0.493115 -0.41565 -0.607 45 76 123
0.493457 -0.414966 -0.606 45 76 120
0.494611 -0.414966 -0.606 31 62 106
0.495766 -0.414966 -0.606 24 59 117
0.49692 -0.414966 -0.606 26 61 119
0.498074 -0.414966 -0.606 21 59 122
0.499229 -0.414966 -0.606 16 54 117
0.499557 -0.414281 -0.605 27 58 123
0.50071 -0.414281 -0.605 28 59 124
0.501862 -0.414281 -0.605 24 63 128
0.503014 -0.414281 -0.605 18 57 122
0.504167 -0.414281 -0.605 26 65 122
0.505319 -0.414281 -0.605 48 91 146
0.506471 -0.414281 -0.605 58 94 146
0.507624 -0.414281 -0.605 81 117 169
0.507935 -0.413596 -0.604 129 149 174
0.509086 -0.413596 -0.604 127 147 172
0.510236 -0.413596 -0.604 128 135 145
0.511387 -0.413596 -0.604 146 153 163
0.512537 -0.413596 -0.604 157 164 180
0.513688 -0.413596 -0.604 161 168 184
0.514838 -0.413596 -0.604 143 157 168
0.515989 -0.413596 -0.604 141 155 166
0.517139 -0.413596 -0.604 134 147 163
0.51829 -0.413596 -0.604 141 154 170
0.51944 -0.413596 -0.604 147 157 184
0.52059 -0.413596 -0.604 147 157 184
0.521741 -0.413596 -0.604 124 147 191
0.522891 -0.413596 -0.604 98 121 165
0.524042 -0.413596 -0.604 56 90 138
0.525192 -0.413596 -0.604 56 90 138
0.526343 -0.413596 -0.604 31 65 113
0.527493 -0.413596 -0.604 25 57 106
0.528644 -0.413596 -0.604 23 55 104
0.529794 -0.413596 -0.604 29 55 112
0.530945 -0.413596 -0.604 28 54 111
0.529343 -0.398531 -0.582 137 119 115
0.52316 -0.393053 -0.574 148 121 104
0.516033 -0.38689 -0.565 148 121 104
0.508872 -0.380728 -0.556 152 120 99
0.502594 -0.37525 -0.548 155 123 102
0.498124 -0.371141 -0.542 156 125 105
0.495472 -0.368402 -0.538 156 125 105
0.492806 -0.365663 -0.534 162 123 106
0.491973 -0.364293 -0.532 164 125 108
0.490207 -0.362239 -0.529 164 125 108
0.489357 -0.36087 -0.527 165 126 109
0.4885 -0.3595 -0.525 168 127 109
0.487635 -0.35813 -0.523 169 128 110
0.486763 -0.356761 -0.521 170 129 109
0.485883 -0.355391 -0.519 167 126 106
0.485933 -0.354707 -0.518 172 131 111
0.48598 -0.354022 -0.517 172 131 111
0.486023 -0.353337 -0.516 168 130 107
0.486062 -0.352652 -0.515 167 129 106
0.485151 -0.351283 -0.513 170 130 105
0.485181 -0.350598 -0.512 172 132 107
0.485207 -0.349913 -0.511 174 132 108
0.485229 -0.349229 -0.51 170 128 104
0.485247 -0.348544 -0.509 172 129 110
0.486216 -0.348544 -0.509 171 128 109
0.486229 -0.347859 -0.508 171 126 105
0.486237 -0.347174 -0.507 170 125 104
0.486242 -0.34649 -0.506 171 126 105
0.487206 -0.34649 -0.506 171 126 105
0.48817 -0.34649 -0.506 175 130 109
0.488167 -0.345805 -0.505 176 133 114
0.48816 -0.34512 -0.504 175 132 113
0.48912 -0.34512 -0.504 177 132 111
0.489108 -0.344435 -0.503 177 132 111
0.489091 -0.34375 -0.502 174 127 107
0.490048 -0.34375 -0.502 172 125 105
0.491004 -0.34375 -0.502 176 129 109
0.49098 -0.343066 -0.501 179 132 112
0.490952 -0.342381 -0.5 176 131 110
0.491905 -0.342381 -0.5 174 129 108
0.491871 -0.341696 -0.499 179 133 110
0.492822 -0.341696 -0.499 174 128 105
0.493772 -0.341696 -0.499 168 122 99
0.494723 -0.341696 -0.499 176 130 107
0.495673 -0.341696 -0.499 180 134 110
0.495629 -0.341011 -0.498 176 130 106
0.496577 -0.341011 -0.498 173 127 103
0.497526 -0.341011 -0.498 171 125 101
0.498474 -0.341011 -0.498 166 120 94
0.499423 -0.341011 -0.498 164 118 92
0.500371 -0.341011 -0.498 166 120 94
0.502327 -0.341696 -0.499 168 122 96
0.503277 -0.341696 -0.499 170 125 96
0.504228 -0.341696 -0.499 169 124 95
0.505178 -0.341696 -0.499 166 121 92
0.506129 -0.341696 -0.499 167 122 93
0.507079 -0.341696 -0.499 168 122 98
0.509048 -0.342381 -0.5 168 122 98
0.51 -0.342381 -0.5 171 125 101
0.510952 -0.342381 -0.5 171 125 101
0.512929 -0.343066 -0.501 170 124 100
0.513883 -0.343066 -0.501 169 123 99
0.514837 -0.343066 -0.501 166 120 96
0.516821 -0.34375 -0.502 165 119 95
0.517777 -0.34375 -0.502 165 119 95
0.519767 -0.344435 -0.503 164 118 94
0.520725 -0.344435 -0.503 162 118 93
0.52272 -0.34512 -0.504 161 117 92
0.524719 -0.345805 -0.505 161 117 92
0.526722 -0.34649 -0.506 160 116 91
0.528729 -0.347174 -0.507 159 115 90
0.530739 -0.347859 -0.508 159 115 90
0.5338 -0.349229 -0.51 156 114 92
0.536869 -0.350598 -0.512 155 113 91
0.539945 -0.351968 -0.514 149 111 88
0.544081 -0.354022 -0.517 148 110 87
0.549283 -0.356761 -0.521 148 110 87
0.5545 -0.3595 -0.525 145 107 84
0.56079 -0.362924 -0.53 147 106 84
0.610698 -0.390999 -0.571 162 146 133
0.616071 -0.393738 -0.575 197 181 168
0.622533 -0.397162 -0.58 204 195 190
0.627939 -0.399901 -0.584 208 199 194
-0.35784 -0.40376 -0.588 237 238 232
-0.35672 -0.40376 -0.588 237 238 232
-0.3556 -0.40376 -0.588 236 237 231
-0.35448 -0.40376 -0.588 235 236 230
-0.35336 -0.40376 -0.588 236 237 231
-0.35224 -0.40376 -0.588 237 238 233
-0.35112 -0.40376 -0.588 236 237 232
-0.35 -0.40376 -0.588 236 237 232
-0.34888 -0.40376 -0.588 235 236 231
-0.34776 -0.40376 -0.588 236 237 231
-0.34664 -0.40376 -0.588 235 236 230
-0.34552 -0.40376 -0.588 235 236 230
-0.3164 -0.40376 -0.588 239 241 230
-0.31528 -0.40376 -0.588 239 240 232
-0.31416 -0.40376 -0.588 239 240 232
-0.31304 -0.40376 -0.588 238 239 231
-0.31192 -0.40376 -0.588 238 239 231
-0.3108 -0.40376 -0.588 239 241 230
-0.30968 -0.40376 -0.588 240 242 231
-0.30856 -0.40376 -0.588 240 242 231
-0.30744 -0.40376 -0.588 240 242 231
-0.30632 -0.40376 -0.588 239 240 232
-0.3052 -0.40376 -0.588 238 239 231
-0.30408 -0.40376 -0.588 240 241 233
-0.30296 -0.40376 -0.588 240 241 233
0.0596143 -0.4017 -0.585 196 149 131
0.0602095 -0.398267 -0.58 197 150 132
0.0605743 -0.39346 -0.573 196 154 129
0.06006 -0.370113 -0.539 200 153 133
0.06018 -0.36462 -0.531 200 153 133
0.0608457 -0.36256 -0.528 200 153 133
0.0615 -0.3605 -0.525 200 154 131
0.0622619 -0.359127 -0.523 201 155 132
0.0632581 -0.359127 -0.523 201 155 132
0.0641314 -0.35844 -0.522 203 157 134
0.065001 -0.357753 -0.521 204 158 135
0.0659933 -0.357753 -0.521 203 157 134
0.0668571 -0.357067 -0.52 202 156 133
0.0677171 -0.35638 -0.519 203 157 133
0.0687057 -0.35638 -0.519 203 157 133
0.06956 -0.355693 -0.518 202 156 132
0.0705467 -0.355693 -0.518 201 155 131
0.0715333 -0.355693 -0.518 201 155 131
0.07238 -0.355007 -0.517 200 154 130
0.0733648 -0.355007 -0.517 201 153 131
0.0742057 -0.35432 -0.516 201 153 131
0.0751886 -0.35432 -0.516 200 152 130
0.0761714 -0.35432 -0.516 200 152 130
0.0771543 -0.35432 -0.516 201 153 130
0.0781371 -0.35432 -0.516 201 153 130
0.07912 -0.35432 -0.516 200 152 130
0.0801029 -0.35432 -0.516 200 152 130
0.0810857 -0.35432 -0.516 199 151 128
0.0820686 -0.35432 -0.516 201 153 130
0.0830514 -0.35432 -0.516 202 154 131
0.0840343 -0.35432 -0.516 201 153 130
0.0850171 -0.35432 -0.516 201 151 126
0.0861667 -0.355007 -0.517 197 147 122
0.0871514 -0.355007 -0.517 193 143 120
0.0881362 -0.355007 -0.517 190 140 117
0.089121 -0.355007 -0.517 188 141 113
0.09028 -0.355693 -0.518 182 135 107
0.0912667 -0.355693 -0.518 179 129 102
0.0922533 -0.355693 -0.518 175 125 98
0.09342 -0.35638 -0.519 169 118 89
0.0945905 -0.357067 -0.52 164 113 84
0.0955809 -0.357067 -0.52 163 112 85
0.0967571 -0.357753 -0.521 160 109 82
0.0979371 -0.35844 -0.522 158 106 84
0.0989314 -0.35844 -0.522 158 106 84
0.100117 -0.359127 -0.523 156 105 86
0.101307 -0.359813 -0.524 154 103 84
0.102305 -0.359813 -0.524 147 100 84
0.1035 -0.3605 -0.525 141 94 78
0.104699 -0.361187 -0.526 137 91 78
0.105902 -0.361873 -0.527 138 92 79
0.107109 -0.36256 -0.528 133 90 81
0.108319 -0.363247 -0.529 133 90 81
0.109327 -0.363247 -0.529 133 89 78
0.110543 -0.363933 -0.53 133 89 78
0.111973 -0.365307 -0.532 136 89 79
0.113199 -0.365993 -0.533 135 88 78
0.114429 -0.36668 -0.534 130 86 75
0.115662 -0.367367 -0.535 129 85 74
0.117117 -0.36874 -0.537 126 86 76
0.11836 -0.369427 -0.538 125 85 75
0.119829 -0.3708 -0.54 120 80 72
0.121081 -0.371487 -0.541 119 79 71
0.122563 -0.37286 -0.543 115 78 72
0.124052 -0.374233 -0.545 115 78 72
0.12555 -0.375607 -0.547 108 77 74
0.127054 -0.37698 -0.549 106 75 72
0.1288 -0.37904 -0.552 105 72 67
0.130557 -0.3811 -0.555 103 70 65
0.132089 -0.382473 -0.557 102 74 71
0.134106 -0.38522 -0.561 106 78 75
0.135897 -0.38728 -0.564 130 114 115
0.1377 -0.38934 -0.567 172 156 157
0.139759 -0.392087 -0.571 154 149 153
0.141833 -0.394833 -0.575 142 137 141
0.143923 -0.39758 -0.579 171 170 176
0.146028 -0.400327 -0.583 192 191 197
0.147895 -0.402387 -0.586 190 187 198
0.162792 -0.414747 -0.604 137 143 179
0.163943 -0.414747 -0.604 167 171 200
0.165093 -0.414747 -0.604 176 180 209
0.166244 -0.414747 -0.604 176 180 209
0.167394 -0.414747 -0.604 175 178 195
0.168545 -0.414747 -0.604 177 180 197
0.169695 -0.414747 -0.604 168 173 192
0.170846 -0.414747 -0.604 144 149 168
0.171996 -0.414747 -0.604 108 114 146
0.173147 -0.414747 -0.604 94 100 132
0.174297 -0.414747 -0.604 89 104 145
0.175448 -0.414747 -0.604 96 111 152
0.176598 -0.414747 -0.604 112 134 175
0.177749 -0.414747 -0.604 119 141 182
0.178899 -0.414747 -0.604 93 118 159
0.18005 -0.414747 -0.604 94 119 160
0.1812 -0.414747 -0.604 89 111 160
0.18235 -0.414747 -0.604 88 110 159
0.183501 -0.414747 -0.604 92 109 155
0.196156 -0.414747 -0.604 71 85 114
0.197307 -0.414747 -0.604 79 93 132
0.198457 -0.414747 -0.604 124 138 177
0.199608 -0.414747 -0.604 175 180 209
0.200758 -0.414747 -0.604 181 186 215
0.201909 -0.414747 -0.604 169 169 195
0.203059 -0.414747 -0.604 174 174 200
0.20421 -0.414747 -0.604 175 180 200
0.20536 -0.414747 -0.604 161 166 186
0.20651 -0.414747 -0.604 127 134 150
0.207661 -0.414747 -0.604 153 160 176
0.208811 -0.414747 -0.604 143 149 175
0.209962 -0.414747 -0.604 96 102 128
0.342267 -0.414747 -0.604 35 69 130
0.343417 -0.414747 -0.604 33 67 128
0.344568 -0.414747 -0.604 32 67 123
0.345718 -0.414747 -0.604 50 85 141
0.346869 -0.414747 -0.604 76 106 158
0.348019 -0.414747 -0.604 102 132 184
0.396339 -0.414747 -0.604 47 86 145
0.39749 -0.414747 -0.604 28 67 126
0.39864 -0.414747 -0.604 19 60 122
0.39979 -0.414747 -0.604 16 57 119
0.400941 -0.414747 -0.604 15 53 118
0.402091 -0.414747 -0.604 17 55 120
0.403242 -0.414747 -0.604 19 56 126
0.404392 -0.414747 -0.604 22 59 129
0.405543 -0.414747 -0.604 33 69 131
0.406693 -0.414747 -0.604 33 69 131
0.407844 -0.414747 -0.604 67 103 165
0.408994 -0.414747 -0.604 97 128 185
0.410145 -0.414747 -0.604 111 142 199
0.411295 -0.414747 -0.604 125 143 181
0.412446 -0.414747 -0.604 128 146 184
0.413596 -0.414747 -0.604 127 139 161
0.430853 -0.414747 -0.604 33 82 140
0.432004 -0.414747 -0.604 30 80 139
0.433154 -0.414747 -0.604 25 75 134
0.434305 -0.414747 -0.604 39 74 138
0.435455 -0.414747 -0.604 40 75 139
0.436606 -0.414747 -0.604 40 75 141
0.437756 -0.414747 -0.604 49 84 150
0.438907 -0.414747 -0.604 51 91 152
0.440786 -0.415433 -0.605 55 95 156
0.441938 -0.415433 -0.605 59 89 149
0.44309 -0.415433 -0.605 59 89 149
0.444243 -0.415433 -0.605 72 102 162
0.445395 -0.415433 -0.605 106 116 141
0.446548 -0.415433 -0.605 79 89 114
0.4477 -0.415433 -0.605 83 86 101
0.448852 -0.415433 -0.605 138 141 156
0.450005 -0.415433 -0.605 155 158 173
0.451157 -0.415433 -0.605 112 115 130
0.45231 -0.415433 -0.605 74 89 122
0.453462 -0.415433 -0.605 58 73 106
0.454614 -0.415433 -0.605 52 77 131
0.455767 -0.415433 -0.605 47 72 126
0.456919 -0.415433 -0.605 49 79 139
0.458071 -0.415433 -0.605 41 71 131
0.459224 -0.415433 -0.605 37 67 127
0.460376 -0.415433 -0.605 33 63 123
0.461529 -0.415433 -0.605 19 51 110
0.462681 -0.415433 -0.605 19 51 110
0.463833 -0.415433 -0.605 19 52 123
0.464986 -0.415433 -0.605 18 51 122
0.466138 -0.415433 -0.605 26 54 127
0.46729 -0.415433 -0.605 25 53 126
0.468443 -0.415433 -0.605 18 53 119
0.469595 -0.415433 -0.605 20 55 121
0.470748 -0.415433 -0.605 18 58 120
0.4719 -0.415433 -0.605 17 57 119
0.473052 -0.415433 -0.605 29 62 115
0.474205 -0.415433 -0.605 35 68 121
0.475357 -0.415433 -0.605 39 72 123
0.47651 -0.415433 -0.605 54 87 138
0.477662 -0.415433 -0.605 60 88 138
0.478814 -0.415433 -0.605 73 101 151
0.479967 -0.415433 -0.605 79 95 120
0.481119 -0.415433 -0.605 75 91 116
0.482271 -0.415433 -0.605 75 91 116
0.483424 -0.415433 -0.605 134 143 150
0.484576 -0.415433 -0.605 158 167 174
0.485729 -0.415433 -0.605 154 167 176
0.486881 -0.415433 -0.605 136 149 158
0.488033 -0.415433 -0.605 108 125 155
0.489186 -0.415433 -0.605 103 120 150
0.490338 -0.415433 -0.605 86 105 148
0.492303 -0.41612 -0.606 59 78 121
0.493457 -0.41612 -0.606 42 79 132
0.494611 -0.41612 -0.606 33 70 123
0.494948 -0.415433 -0.605 37 70 124
0.4961 -0.415433 -0.605 35 68 122
0.497252 -0.415433 -0.605 27 61 125
0.498405 -0.415433 -0.605 19 53 117
0.499557 -0.415433 -0.605 21 61 122
0.50071 -0.415433 -0.605 21 61 122
0.501862 -0.415433 -0.605 35 71 131
0.503014 -0.415433 -0.605 45 81 141
0.504167 -0.415433 -0.605 40 83 138
0.505319 -0.415433 -0.605 48 91 146
0.505634 -0.414747 -0.604 55 91 143
0.506785 -0.414747 -0.604 72 108 160
0.507935 -0.414747 -0.604 134 154 179
0.509086 -0.414747 -0.604 142 162 187
0.510236 -0.414747 -0.604 141 148 158
0.51054 -0.41406 -0.603 114 121 131
0.511689 -0.41406 -0.603 130 134 146
0.512837 -0.41406 -0.603 160 164 176
0.513986 -0.41406 -0.603 158 168 177
0.515134 -0.41406 -0.603 152 162 171
0.516283 -0.41406 -0.603 155 164 179
0.517431 -0.41406 -0.603 155 164 179
0.51944 -0.414747 -0.604 155 162 181
0.52059 -0.414747 -0.604 157 164 183
0.521741 -0.414747 -0.604 122 144 185
0.522891 -0.414747 -0.604 97 119 160
0.524042 -0.414747 -0.604 62 94 143
0.525192 -0.414747 -0.604 31 63 112
0.526343 -0.414747 -0.604 31 63 112
0.52662 -0.41406 -0.603 23 55 104
0.527769 -0.41406 -0.603 29 61 110
0.528917 -0.41406 -0.603 24 53 109
0.530066 -0.41406 -0.603 21 50 106
0.531214 -0.41406 -0.603 20 49 105
0.532363 -0.41406 -0.603 28 57 113
0.533511 -0.41406 -0.603 35 62 109
0.53466 -0.41406 -0.603 31 58 105
0.535809 -0.41406 -0.603 49 70 113
0.531162 -0.401013 -0.584 138 122 122
0.526806 -0.396893 -0.578 142 116 103
0.518773 -0.390027 -0.568 144 118 105
0.512533 -0.384533 -0.56 157 122 103
0.506263 -0.37904 -0.552 155 120 101
0.500881 -0.374233 -0.545 160 123 105
0.497314 -0.3708 -0.54 162 125 107
0.494651 -0.368053 -0.536 160 121 104
0.492898 -0.365993 -0.533 162 123 106
0.491133 -0.363933 -0.53 163 124 107
0.490286 -0.36256 -0.528 164 125 108
0.4885 -0.3605 -0.525 165 127 108
0.487635 -0.359127 -0.523 167 129 110
0.486763 -0.357753 -0.521 172 131 113
0.485883 -0.35638 -0.519 171 130 112
0.485933 -0.355693 -0.518 170 132 111
0.48598 -0.355007 -0.517 170 132 111
0.486023 -0.35432 -0.516 168 130 107
0.486062 -0.353633 -0.515 167 129 106
0.486097 -0.352947 -0.514 171 130 108
0.486129 -0.35226 -0.513 173 132 110
0.486156 -0.351573 -0.512 173 132 110
0.485229 -0.3502 -0.51 170 129 107
0.485247 -0.349513 -0.509 169 126 107
0.486216 -0.349513 -0.509 170 127 108
0.486229 -0.348827 -0.508 172 127 106
0.486237 -0.34814 -0.507 172 127 106
0.486242 -0.347453 -0.506 172 127 106
0.487206 -0.347453 -0.506 175 130 109
0.48817 -0.347453 -0.506 175 130 109
0.488167 -0.346767 -0.505 176 131 112
0.48816 -0.34608 -0.504 176 131 112
0.48912 -0.34608 -0.504 177 132 111
0.489108 -0.345393 -0.503 177 132 111
0.489091 -0.344707 -0.502 176 129 109
0.490048 -0.344707 -0.502 175 128 108
0.491004 -0.344707 -0.502 179 132 112
0.49098 -0.34402 -0.501 179 132 112
0.490952 -0.343333 -0.5 176 131 110
0.491905 -0.343333 -0.5 177 132 111
0.491871 -0.342647 -0.499 178 132 109
0.492822 -0.342647 -0.499 173 127 104
0.493772 -0.342647 -0.499 169 123 100
0.493731 -0.34196 -0.498 175 129 106
0.49468 -0.34196 -0.498 180 134 110
0.495629 -0.34196 -0.498 173 127 104
0.496577 -0.34196 -0.498 172 126 102
0.497526 -0.34196 -0.498 172 126 102
0.498474 -0.34196 -0.498 170 124 100
0.49842 -0.341273 -0.497 168 122 98
0.500371 -0.34196 -0.498 166 120 94
0.50132 -0.34196 -0.498 168 122 96
0.502269 -0.34196 -0.498 171 124 98
0.503217 -0.34196 -0.498 169 122 96
0.504166 -0.34196 -0.498 167 120 94
0.506129 -0.342647 -0.499 171 124 98
0.507079 -0.342647 -0.499 169 121 98
0.50803 -0.342647 -0.499 170 122 99
0.51 -0.343333 -0.5 173 125 102
0.510952 -0.343333 -0.5 173 125 102
0.511905 -0.343333 -0.5 172 124 101
0.513883 -0.34402 -0.501 169 121 98
0.514837 -0.34402 -0.501 164 118 94
0.515791 -0.34402 -0.501 163 117 93
0.517777 -0.344707 -0.502 168 122 98
0.518733 -0.344707 -0.502 166 120 96
0.519689 -0.344707 -0.502 165 119 95
0.521683 -0.345393 -0.503 163 117 93
0.52368 -0.34608 -0.504 159 115 90
0.52464 -0.34608 -0.504 160 116 91
0.526643 -0.346767 -0.505 161 117 92
0.529694 -0.34814 -0.507 160 116 91
0.531707 -0.348827 -0.508 161 116 93
0.534771 -0.3502 -0.51 161 116 93
0.537844 -0.351573 -0.512 157 115 91
0.540924 -0.352947 -0.514 154 112 88
0.545066 -0.355007 -0.517 152 111 89
0.550275 -0.357753 -0.521 151 110 88
-0.357231 -0.404191 -0.587 236 237 229
-0.356113 -0.404191 -0.587 236 237 229
-0.354995 -0.404191 -0.587 236 237 229
-0.353877 -0.404191 -0.587 235 236 228
-0.35336 -0.40488 -0.588 236 237 229
-0.35224 -0.40488 -0.588 236 237 229
-0.35112 -0.40488 -0.588 235 236 228
-0.349405 -0.404191 -0.587 236 237 231
-0.348287 -0.404191 -0.587 236 237 231
-0.347169 -0.404191 -0.587 236 237 229
-0.34664 -0.40488 -0.588 236 237 229
-0.34552 -0.40488 -0.588 235 236 228
-0.3444 -0.40488 -0.588 236 237 229
-0.34328 -0.40488 -0.588 237 238 232
-0.34216 -0.40488 -0.588 236 237 231
-0.34104 -0.40488 -0.588 238 239 231
-0.33992 -0.40488 -0.588 238 239 231
-0.3388 -0.40488 -0.588 237 238 230
-0.33768 -0.40488 -0.588 237 238 230
-0.33656 -0.40488 -0.588 237 238 230
-0.33544 -0.40488 -0.588 237 238 230
-0.33432 -0.40488 -0.588 238 239 231
-0.3332 -0.40488 -0.588 238 239 231
-0.32648 -0.40488 -0.588 238 239 231
-0.32536 -0.40488 -0.588 238 239 231
-0.32424 -0.40488 -0.588 238 239 231
-0.32312 -0.40488 -0.588 238 239 231
-0.322 -0.40488 -0.588 239 240 232
-0.32088 -0.40488 -0.588 239 240 232
-0.31976 -0.40488 -0.588 239 241 230
-0.31864 -0.40488 -0.588 238 240 229
-0.31752 -0.40488 -0.588 238 240 229
-0.3164 -0.40488 -0.588 238 240 229
-0.31528 -0.40488 -0.588 239 240 232
-0.31416 -0.40488 -0.588 239 240 232
-0.31304 -0.40488 -0.588 239 240 232
-0.31192 -0.40488 -0.588 239 240 232
-0.3108 -0.40488 -0.588 239 241 230
-0.30968 -0.40488 -0.588 240 242 231
-0.30856 -0.40488 -0.588 240 242 231
-0.30744 -0.40488 -0.588 239 241 230
-0.30632 -0.40488 -0.588 239 240 232
-0.3052 -0.40488 -0.588 238 239 231
-0.30408 -0.40488 -0.588 240 241 233
-0.30296 -0.40488 -0.588 240 241 233
-0.30184 -0.40488 -0.588 240 241 233
-0.30072 -0.40488 -0.588 239 240 232
-0.2996 -0.40488 -0.588 239 240 232
-0.29848 -0.40488 -0.588 238 239 231
-0.29736 -0.40488 -0.588 239 240 232
-0.29624 -0.40488 -0.588 239 240 232
-0.29512 -0.40488 -0.588 239 240 232
-0.294 -0.40488 -0.588 239 240 232
-0.29288 -0.40488 -0.588 239 240 232
-0.29176 -0.40488 -0.588 239 240 232
-0.29064 -0.40488 -0.588 240 241 233
-0.28952 -0.40488 -0.588 240 241 233
0.0587 -0.404191 -0.587 199 151 129
0.0595124 -0.402126 -0.584 196 149 129
0.0600019 -0.397994 -0.578 196 149 129
0.0602571 -0.392486 -0.57 197 153 128
0.0600514 -0.384223 -0.558 198 154 129
0.059581 -0.374583 -0.544 201 154 134
0.0597257 -0.369074 -0.536 201 154 134
0.0599533 -0.364254 -0.529 200 153 133
0.060961 -0.364254 -0.529 200 153 133
0.0617343 -0.362877 -0.527 200 153 133
0.062381 -0.360811 -0.524 201 155 132
0.0632581 -0.360123 -0.523 202 156 133
0.0641314 -0.359434 -0.522 203 157 134
0.065001 -0.358746 -0.521 204 158 135
0.0658667 -0.358057 -0.52 203 157 134
0.0668571 -0.358057 -0.52 202 156 133
0.0677171 -0.357369 -0.519 202 158 133
0.0687057 -0.357369 -0.519 202 158 133
0.06956 -0.35668 -0.518 201 157 132
0.0704105 -0.355991 -0.517 200 156 131
0.0713952 -0.355991 -0.517 199 155 130
0.07238 -0.355991 -0.517 199 155 130
0.0732229 -0.355303 -0.516 200 154 131
0.0742057 -0.355303 -0.516 201 155 132
0.0751886 -0.355303 -0.516 201 153 130
0.0761714 -0.355303 -0.516 201 153 130
0.0771543 -0.355303 -0.516 202 154 131
0.0781371 -0.355303 -0.516 202 154 131
0.07912 -0.355303 -0.516 201 153 130
0.0799476 -0.354614 -0.515 200 152 129
0.0810857 -0.355303 -0.516 199 151 128
0.0820686 -0.355303 -0.516 200 152 129
0.0830514 -0.355303 -0.516 201 154 128
0.0840343 -0.355303 -0.516 201 154 128
0.0850171 -0.355303 -0.516 199 152 126
0.086 -0.355303 -0.516 195 148 122
0.0871514 -0.355991 -0.517 190 143 117
0.0881362 -0.355991 -0.517 185 138 112
0.089121 -0.355991 -0.517 185 135 108
0.09028 -0.35668 -0.518 180 130 103
0.0912667 -0.35668 -0.518 177 126 97
0.0922533 -0.35668 -0.518 175 124 95
0.09342 -0.357369 -0.519 171 117 89
0.0945905 -0.358057 -0.52 167 113 85
0.0955809 -0.358057 -0.52 166 112 86
0.0967571 -0.358746 -0.521 162 108 82
0.0979371 -0.359434 -0.522 159 107 85
0.0989314 -0.359434 -0.522 157 105 83
0.100117 -0.360123 -0.523 155 104 85
0.101307 -0.360811 -0.524 152 101 82
0.102305 -0.360811 -0.524 146 98 84
0.1035 -0.3615 -0.525 141 93 79
0.104699 -0.362189 -0.526 138 92 79
0.105902 -0.362877 -0.527 138 92 79
0.107109 -0.363566 -0.528 134 90 81
0.108319 -0.364254 -0.529 134 90 81
0.109533 -0.364943 -0.53 134 90 79
0.110751 -0.365631 -0.531 134 90 79
0.111973 -0.36632 -0.532 137 90 80
0.113199 -0.367009 -0.533 135 88 78
0.114429 -0.367697 -0.534 131 87 76
0.115662 -0.368386 -0.535 129 85 74
0.117117 -0.369763 -0.537 126 86 78
0.11836 -0.370451 -0.538 125 85 77
0.119829 -0.371829 -0.54 121 82 75
0.121305 -0.373206 -0.542 117 78 71
0.122789 -0.374583 -0.544 113 78 74
0.12428 -0.37596 -0.546 112 77 73
0.125779 -0.377337 -0.548 108 77 74
0.127286 -0.378714 -0.55 107 76 73
0.129033 -0.38078 -0.553 103 69 68
0.130792 -0.382846 -0.556 107 73 72
0.132563 -0.384911 -0.559 101 75 74
0.134345 -0.386977 -0.562 122 96 95
0.136379 -0.389731 -0.566 146 134 138
0.138186 -0.391797 -0.569 153 141 145
0.140249 -0.394551 -0.573 138 135 144
0.142327 -0.397306 -0.577 161 158 167
0.14442 -0.40006 -0.581 190 188 201
0.146529 -0.402814 -0.585 193 191 204
0.174297 -0.415897 -0.604 88 102 139
0.175448 -0.415897 -0.604 96 110 147
0.176598 -0.415897 -0.604 124 140 176
0.177749 -0.415897 -0.604 137 153 189
0.178899 -0.415897 -0.604 109 132 174
0.197307 -0.415897 -0.604 119 131 171
0.198457 -0.415897 -0.604 107 119 159
0.199608 -0.415897 -0.604 124 132 168
0.200758 -0.415897 -0.604 160 168 204
0.201909 -0.415897 -0.604 151 156 188
0.203059 -0.415897 -0.604 151 156 188
0.20421 -0.415897 -0.604 162 164 189
0.20536 -0.415897 -0.604 118 120 145
0.20651 -0.415897 -0.604 141 148 167
0.207661 -0.415897 -0.604 165 172 191
0.208811 -0.415897 -0.604 134 145 175
0.338254 -0.415209 -0.603 38 70 131
0.339403 -0.415209 -0.603 57 87 149
0.340551 -0.415209 -0.603 37 67 129
0.3417 -0.415209 -0.603 34 70 130
0.342849 -0.415209 -0.603 28 64 124
0.343997 -0.415209 -0.603 29 66 121
0.345146 -0.415209 -0.603 59 96 151
0.346294 -0.415209 -0.603 93 126 177
0.347443 -0.415209 -0.603 115 148 199
0.348591 -0.415209 -0.603 155 176 203
0.34974 -0.415209 -0.603 159 180 207
0.350889 -0.415209 -0.603 165 171 187
0.352037 -0.415209 -0.603 168 174 190
0.353186 -0.415209 -0.603 174 177 194
0.354334 -0.415209 -0.603 172 175 192
0.355483 -0.415209 -0.603 174 180 202
0.356631 -0.415209 -0.603 172 178 200
0.35778 -0.415209 -0.603 176 175 193
0.358929 -0.415209 -0.603 182 181 199
0.360077 -0.415209 -0.603 173 175 198
0.361226 -0.415209 -0.603 149 151 174
0.362374 -0.415209 -0.603 89 109 146
0.363523 -0.415209 -0.603 84 104 141
0.364671 -0.415209 -0.603 77 110 155
0.36582 -0.415209 -0.603 77 110 155
0.366969 -0.415209 -0.603 82 110 160
0.368117 -0.415209 -0.603 66 94 144
0.369266 -0.415209 -0.603 55 88 142
0.370414 -0.415209 -0.603 55 88 142
0.371563 -0.415209 -0.603 66 99 153
0.372711 -0.415209 -0.603 77 106 162
0.37386 -0.415209 -0.603 82 111 167
0.375009 -0.415209 -0.603 81 108 163
0.376157 -0.415209 -0.603 75 102 157
0.377306 -0.415209 -0.603 66 93 140
0.378454 -0.415209 -0.603 116 143 190
0.379603 -0.415209 -0.603 146 162 188
0.380751 -0.415209 -0.603 158 174 200
0.3819 -0.415209 -0.603 169 172 187
0.383049 -0.415209 -0.603 165 168 183
0.384197 -0.415209 -0.603 173 178 198
0.385346 -0.415209 -0.603 167 172 192
0.386494 -0.415209 -0.603 158 166 189
0.387643 -0.415209 -0.603 146 154 177
0.388791 -0.415209 -0.603 132 143 173
0.38994 -0.415209 -0.603 135 146 176
0.391089 -0.415209 -0.603 132 149 192
0.392237 -0.415209 -0.603 121 138 181
0.393386 -0.415209 -0.603 99 129 179
0.394534 -0.415209 -0.603 78 108 158
0.395683 -0.415209 -0.603 42 79 134
0.396831 -0.415209 -0.603 27 64 119
0.39798 -0.415209 -0.603 20 60 121
0.399129 -0.415209 -0.603 18 58 119
0.400277 -0.415209 -0.603 17 55 120
0.401426 -0.415209 -0.603 18 56 121
0.402574 -0.415209 -0.603 21 56 124
0.403723 -0.415209 -0.603 20 55 123
0.404871 -0.415209 -0.603 24 59 123
0.40602 -0.415209 -0.603 24 59 123
0.407169 -0.415209 -0.603 35 70 134
0.408317 -0.415209 -0.603 53 88 144
0.409466 -0.415209 -0.603 64 99 155
0.410614 -0.415209 -0.603 76 100 144
0.411763 -0.415209 -0.603 81 105 149
0.412911 -0.415209 -0.603 76 98 135
0.425546 -0.415209 -0.603 57 87 139
0.426694 -0.415209 -0.603 58 91 145
0.427843 -0.415209 -0.603 44 77 131
0.428991 -0.415209 -0.603 28 75 131
0.43014 -0.415209 -0.603 28 75 131
0.431289 -0.415209 -0.603 27 76 135
0.432437 -0.415209 -0.603 20 69 128
0.433586 -0.415209 -0.603 32 67 131
0.434734 -0.415209 -0.603 35 70 134
0.435883 -0.415209 -0.603 32 67 133
0.437031 -0.415209 -0.603 33 68 134
0.438907 -0.415897 -0.604 34 74 135
0.440057 -0.415897 -0.604 46 86 147
0.441208 -0.415897 -0.604 46 78 135
0.442358 -0.415897 -0.604 46 78 135
0.443509 -0.415897 -0.604 58 90 147
0.444659 -0.415897 -0.604 79 93 120
0.44581 -0.415897 -0.604 78 92 119
0.44696 -0.415897 -0.604 99 104 123
0.44811 -0.415897 -0.604 103 108 127
0.449261 -0.415897 -0.604 137 140 155
0.450411 -0.415897 -0.604 111 114 129
0.451562 -0.415897 -0.604 70 81 109
0.452712 -0.415897 -0.604 70 81 109
0.453863 -0.415897 -0.604 66 89 133
0.455013 -0.415897 -0.604 70 93 137
0.456164 -0.415897 -0.604 61 89 139
0.457314 -0.415897 -0.604 53 81 131
0.458465 -0.415897 -0.604 40 71 125
0.459615 -0.415897 -0.604 32 63 117
0.460766 -0.415897 -0.604 23 60 113
0.461916 -0.415897 -0.604 14 51 104
0.463067 -0.415897 -0.604 20 53 120
0.464217 -0.415897 -0.604 22 55 122
0.465368 -0.415897 -0.604 26 56 126
0.466518 -0.415897 -0.604 23 53 123
0.467669 -0.415897 -0.604 18 54 116
0.468819 -0.415897 -0.604 18 54 116
0.46997 -0.415897 -0.604 18 56 118
0.47112 -0.415897 -0.604 27 65 127
0.473052 -0.416586 -0.605 41 72 126
0.474205 -0.416586 -0.605 70 101 155
0.475357 -0.416586 -0.605 93 121 160
0.47651 -0.416586 -0.605 102 130 169
0.477662 -0.416586 -0.605 114 134 169
0.478814 -0.416586 -0.605 109 129 164
0.479967 -0.416586 -0.605 118 133 152
0.481119 -0.416586 -0.605 127 142 161
0.482271 -0.416586 -0.605 127 142 161
0.483424 -0.416586 -0.605 155 164 173
0.484576 -0.416586 -0.605 161 170 179
0.485729 -0.416586 -0.605 162 175 183
0.486881 -0.416586 -0.605 157 170 178
0.488033 -0.416586 -0.605 136 152 178
0.489186 -0.416586 -0.605 136 152 178
0.490338 -0.416586 -0.605 118 137 177
0.49149 -0.416586 -0.605 74 93 133
0.492643 -0.416586 -0.605 49 88 143
0.493795 -0.416586 -0.605 46 85 140
0.494948 -0.416586 -0.605 56 91 147
0.4961 -0.416586 -0.605 52 87 143
0.49643 -0.415897 -0.604 41 76 140
0.497581 -0.415897 -0.604 32 67 131
0.498731 -0.415897 -0.604 29 69 130
0.499882 -0.415897 -0.604 28 68 129
0.501032 -0.415897 -0.604 44 80 142
0.502183 -0.415897 -0.604 51 87 149
0.503333 -0.415897 -0.604 50 93 148
0.504484 -0.415897 -0.604 45 88 143
0.505634 -0.415897 -0.604 55 91 143
0.506785 -0.415897 -0.604 67 104 156
0.507935 -0.415897 -0.604 123 142 172
0.509086 -0.415897 -0.604 150 169 199
0.510236 -0.415897 -0.604 161 165 176
0.51054 -0.415209 -0.603 148 152 163
0.511689 -0.415209 -0.603 121 121 129
0.512837 -0.415209 -0.603 127 127 135
0.513986 -0.415209 -0.603 163 168 171
0.515134 -0.415209 -0.603 162 167 170
0.516283 -0.415209 -0.603 166 170 182
0.517431 -0.415209 -0.603 158 162 174
0.51858 -0.415209 -0.603 159 165 179
0.519729 -0.415209 -0.603 156 162 176
0.520877 -0.415209 -0.603 129 147 185
0.522026 -0.415209 -0.603 108 126 164
0.523174 -0.415209 -0.603 58 88 138
0.524323 -0.415209 -0.603 28 58 108
0.525471 -0.415209 -0.603 28 58 108
0.52662 -0.415209 -0.603 29 62 113
0.527769 -0.415209 -0.603 28 61 112
0.528917 -0.415209 -0.603 25 56 111
0.530066 -0.415209 -0.603 31 62 117
0.531214 -0.415209 -0.603 30 61 115
0.52954 -0.40006 -0.581 137 112 105
0.52334 -0.394551 -0.573 141 116 109
0.515279 -0.387666 -0.563 155 119 103
0.509014 -0.382157 -0.555 156 120 104
0.503638 -0.377337 -0.548 162 121 103
0.499156 -0.373206 -0.542 164 123 105
0.495574 -0.369763 -0.537 161 119 105
0.493823 -0.367697 -0.534 163 121 107
0.49206 -0.365631 -0.531 160 121 104
0.491214 -0.364254 -0.529 160 121 104
0.48943 -0.362189 -0.526 162 123 106
0.488568 -0.360811 -0.524 164 125 108
0.487697 -0.359434 -0.522 168 130 111
0.486819 -0.358057 -0.52 169 131 112
0.486871 -0.357369 -0.519 170 129 111
0.48692 -0.35668 -0.518 171 130 112
0.486023 -0.355303 -0.516 170 129 109
0.486062 -0.354614 -0.515 171 130 110
0.486097 -0.353926 -0.514 172 131 111
0.486129 -0.353237 -0.513 172 131 111
0.486156 -0.352549 -0.512 171 130 108
0.48618 -0.35186 -0.511 169 128 106
0.4862 -0.351171 -0.51 169 126 107
0.486216 -0.350483 -0.509 170 127 108
0.486229 -0.349794 -0.508 173 128 107
0.486237 -0.349106 -0.507 173 128 107
0.486242 -0.348417 -0.506 173 128 107
0.487206 -0.348417 -0.506 175 130 109
0.487205 -0.347729 -0.505 176 131 112
0.488167 -0.347729 -0.505 176 131 112
0.48816 -0.34704 -0.504 175 130 111
0.48912 -0.34704 -0.504 176 131 110
0.489108 -0.346351 -0.503 176 131 110
0.489091 -0.345663 -0.502 175 128 108
0.490048 -0.345663 -0.502 175 128 108
0.491004 -0.345663 -0.502 177 130 110
0.49098 -0.344974 -0.501 176 129 109
0.490952 -0.344286 -0.5 175 128 108
0.491905 -0.344286 -0.5 178 131 111
0.491871 -0.343597 -0.499 177 131 108
0.492822 -0.343597 -0.499 173 127 104
0.493772 -0.343597 -0.499 169 123 100
0.493731 -0.342909 -0.498 171 125 102
0.49468 -0.342909 -0.498 174 128 105
0.495629 -0.342909 -0.498 173 127 104
0.496577 -0.342909 -0.498 167 121 98
0.497526 -0.342909 -0.498 169 123 100
0.498474 -0.342909 -0.498 169 123 99
0.49842 -0.34222 -0.497 167 121 97
0.499367 -0.34222 -0.497 166 118 95
0.50132 -0.342909 -0.498 170 122 99
0.502269 -0.342909 -0.498 172 125 99
0.503217 -0.342909 -0.498 169 122 96
0.504166 -0.342909 -0.498 169 122 96
0.505114 -0.342909 -0.498 172 125 99
0.506063 -0.342909 -0.498 169 121 98
0.50803 -0.343597 -0.499 169 121 98
0.50898 -0.343597 -0.499 171 123 100
0.50993 -0.343597 -0.499 171 123 100
0.511905 -0.344286 -0.5 170 122 99
0.512857 -0.344286 -0.5 167 119 96
0.51381 -0.344286 -0.5 162 116 92
0.515791 -0.344974 -0.501 162 116 92
0.516746 -0.344974 -0.501 164 118 94
0.5177 -0.344974 -0.501 165 119 95
0.519689 -0.345663 -0.502 164 120 95
0.520646 -0.345663 -0.502 162 118 93
0.522641 -0.346351 -0.503 160 116 91
0.523599 -0.346351 -0.503 161 117 92
0.5256 -0.34704 -0.504 162 118 93
0.527605 -0.347729 -0.505 162 118 93
0.53066 -0.349106 -0.507 161 117 92
0.532674 -0.349794 -0.508 162 118 93
0.535743 -0.351171 -0.51 163 118 95
0.538819 -0.352549 -0.512 159 114 91
0.541903 -0.353926 -0.514 155 114 94
0.54605 -0.355991 -0.517 154 113 93
0.631243 -0.402814 -0.585 199 201 198
-0.356623 -0.404619 -0.586 235 237 226
-0.356113 -0.40531 -0.587 235 237 226
-0.354995 -0.40531 -0.587 235 237 226
-0.353877 -0.40531 -0.587 235 237 226
-0.352759 -0.40531 -0.587 235 237 226
-0.351641 -0.40531 -0.587 236 238 227
-0.350523 -0.40531 -0.587 235 237 226
-0.349405 -0.40531 -0.587 236 237 229
-0.348287 -0.40531 -0.587 236 237 229
-0.347169 -0.40531 -0.587 236 238 227
-0.34605 -0.40531 -0.587 237 239 228
-0.344932 -0.40531 -0.587 236 237 229
-0.343814 -0.40531 -0.587 235 236 228
-0.342696 -0.40531 -0.587 235 236 228
-0.341578 -0.40531 -0.587 235 236 228
-0.34046 -0.40531 -0.587 237 238 230
-0.339342 -0.40531 -0.587 237 238 230
-0.338224 -0.40531 -0.587 237 238 230
-0.337106 -0.40531 -0.587 237 238 230
-0.335988 -0.40531 -0.587 237 238 230
-0.314744 -0.40531 -0.587 238 239 231
-0.313626 -0.40531 -0.587 239 240 232
-0.312508 -0.40531 -0.587 239 240 232
-0.31139 -0.40531 -0.587 239 240 232
-0.310271 -0.40531 -0.587 239 241 230
-0.309153 -0.40531 -0.587 239 241 230
-0.308035 -0.40531 -0.587 239 241 230
-0.306917 -0.40531 -0.587 239 241 230
-0.305799 -0.40531 -0.587 239 240 232
-0.304681 -0.40531 -0.587 238 239 231
-0.303563 -0.40531 -0.587 239 240 232
-0.302445 -0.40531 -0.587 239 240 232
-0.301327 -0.40531 -0.587 239 240 232
-0.297972 -0.40531 -0.587 238 239 231
-0.296854 -0.40531 -0.587 238 239 231
-0.295736 -0.40531 -0.587 239 240 232
-0.294618 -0.40531 -0.587 239 240 232
-0.280083 -0.40531 -0.587 240 242 231
0.0585 -0.403929 -0.585 200 152 132
0.0593086 -0.401857 -0.582 196 151 132
0.0595867 -0.396333 -0.574 195 150 131
0.0598343 -0.39081 -0.566 196 151 128
0.059621 -0.382524 -0.554 199 154 131
0.0606762 -0.382524 -0.554 199 154 131
0.0603943 -0.374238 -0.542 202 155 135
0.06052 -0.368714 -0.534 201 154 134
0.0608457 -0.364571 -0.528 201 154 134
0.0616171 -0.36319 -0.526 201 154 134
0.062381 -0.36181 -0.524 202 156 133
0.0631371 -0.360429 -0.522 202 156 133
0.0640086 -0.359738 -0.521 201 156 133
0.0648762 -0.359048 -0.52 202 157 134
0.0658667 -0.359048 -0.52 204 160 135
0.0667286 -0.358357 -0.519 203 159 134
0.0677171 -0.358357 -0.519 202 158 133
0.0685733 -0.357667 -0.518 202 158 133
0.06956 -0.357667 -0.518 201 157 132
0.0704105 -0.356976 -0.517 200 156 131
0.0713952 -0.356976 -0.517 200 156 131
0.07224 -0.356286 -0.516 201 157 132
0.0732229 -0.356286 -0.516 201 155 131
0.0742057 -0.356286 -0.516 201 155 131
0.0750429 -0.355595 -0.515 200 154 130
0.0760238 -0.355595 -0.515 199 153 129
0.0770048 -0.355595 -0.515 200 154 130
0.0779857 -0.355595 -0.515 201 155 131
0.0789667 -0.355595 -0.515 200 154 128
0.0799476 -0.355595 -0.515 199 153 127
0.0809286 -0.355595 -0.515 198 152 126
0.0819095 -0.355595 -0.515 199 153 127
0.0828905 -0.355595 -0.515 198 152 126
0.0840343 -0.356286 -0.516 196 150 124
0.0850171 -0.356286 -0.516 194 147 121
0.086 -0.356286 -0.516 190 143 117
0.0871514 -0.356976 -0.517 185 138 110
0.0881362 -0.356976 -0.517 181 134 106
0.089121 -0.356976 -0.517 181 131 104
0.09028 -0.357667 -0.518 177 127 100
0.0912667 -0.357667 -0.518 176 125 98
0.0922533 -0.357667 -0.518 175 124 97
0.09342 -0.358357 -0.519 173 119 93
0.0945905 -0.359048 -0.52 169 115 89
0.0955809 -0.359048 -0.52 168 112 87
0.0967571 -0.359738 -0.521 164 108 83
0.0977495 -0.359738 -0.521 163 108 87
0.0989314 -0.360429 -0.522 159 104 83
0.100117 -0.361119 -0.523 153 102 83
0.101113 -0.361119 -0.523 150 99 80
0.102305 -0.36181 -0.524 146 97 83
0.1035 -0.3625 -0.525 143 94 80
0.104699 -0.36319 -0.526 141 93 81
0.105902 -0.363881 -0.527 141 93 81
0.107109 -0.364571 -0.528 138 91 81
0.108319 -0.365262 -0.529 137 90 80
0.109533 -0.365952 -0.53 137 90 80
0.110751 -0.366643 -0.531 137 90 80
0.111973 -0.367333 -0.532 137 90 80
0.113199 -0.368024 -0.533 135 88 78
0.114429 -0.368714 -0.534 131 87 76
0.115662 -0.369405 -0.535 129 85 74
0.117117 -0.370786 -0.537 127 87 79
0.11836 -0.371476 -0.538 125 85 77
0.119829 -0.372857 -0.54 120 83 77
0.121305 -0.374238 -0.542 116 79 73
0.122789 -0.375619 -0.544 112 78 76
0.12428 -0.377 -0.546 111 77 75
0.126009 -0.379071 -0.549 107 77 75
0.127517 -0.380452 -0.551 106 76 74
0.129267 -0.382524 -0.554 103 69 70
0.131028 -0.384595 -0.557 106 72 73
0.1328 -0.386667 -0.56 105 84 83
0.134823 -0.389429 -0.564 124 103 102
0.13662 -0.3915 -0.567 132 126 130
0.138671 -0.394262 -0.571 147 141 145
0.140738 -0.397024 -0.575 163 162 176
0.14282 -0.399786 -0.579 185 184 198
0.144917 -0.402548 -0.583 185 182 201
0.161374 -0.416357 -0.603 170 172 197
0.162523 -0.416357 -0.603 180 182 207
0.163671 -0.416357 -0.603 174 173 191
0.16482 -0.416357 -0.603 174 173 191
0.165969 -0.416357 -0.603 181 180 198
0.167117 -0.416357 -0.603 181 182 200
0.168266 -0.416357 -0.603 178 179 197
0.169414 -0.416357 -0.603 150 156 180
0.170563 -0.416357 -0.603 135 141 165
0.171711 -0.416357 -0.603 101 112 142
0.17286 -0.416357 -0.603 100 111 141
0.174009 -0.416357 -0.603 94 107 141
0.175157 -0.416357 -0.603 100 113 147
0.176306 -0.416357 -0.603 122 135 167
0.177454 -0.416357 -0.603 145 158 190
0.178603 -0.416357 -0.603 114 136 175
0.179751 -0.416357 -0.603 110 132 171
0.1809 -0.416357 -0.603 103 121 167
0.19698 -0.416357 -0.603 154 164 199
0.198129 -0.416357 -0.603 101 111 146
0.199277 -0.416357 -0.603 84 93 132
0.200426 -0.416357 -0.603 116 125 164
0.201574 -0.416357 -0.603 128 133 171
0.202723 -0.416357 -0.603 147 152 190
0.203871 -0.416357 -0.603 134 138 165
0.20502 -0.416357 -0.603 144 148 175
0.206169 -0.416357 -0.603 170 176 200
0.207317 -0.416357 -0.603 171 177 201
0.208466 -0.416357 -0.603 121 135 170
0.209614 -0.416357 -0.603 78 92 127
0.343997 -0.416357 -0.603 45 84 141
0.345146 -0.416357 -0.603 71 110 167
0.346294 -0.416357 -0.603 100 137 189
0.347443 -0.416357 -0.603 129 166 218
0.409933 -0.415667 -0.602 44 76 125
0.41108 -0.415667 -0.602 51 83 132
0.412227 -0.415667 -0.602 50 80 132
0.413373 -0.415667 -0.602 50 80 132
0.41452 -0.415667 -0.602 49 76 121
0.415667 -0.415667 -0.602 59 86 131
0.416813 -0.415667 -0.602 112 127 146
0.41796 -0.415667 -0.602 122 137 156
0.419107 -0.415667 -0.602 102 106 117
0.420253 -0.415667 -0.602 101 105 116
0.4214 -0.415667 -0.602 85 93 116
0.422547 -0.415667 -0.602 89 97 120
0.423693 -0.415667 -0.602 62 88 137
0.42484 -0.415667 -0.602 54 80 129
0.425987 -0.415667 -0.602 48 81 135
0.427133 -0.415667 -0.602 33 66 120
0.42828 -0.415667 -0.602 20 65 122
0.429427 -0.415667 -0.602 22 67 124
0.430573 -0.415667 -0.602 22 68 128
0.432437 -0.416357 -0.603 12 58 118
0.433586 -0.416357 -0.603 19 57 122
0.434734 -0.416357 -0.603 24 62 127
0.435883 -0.416357 -0.603 24 63 128
0.437031 -0.416357 -0.603 26 65 130
0.43818 -0.416357 -0.603 28 70 130
0.439329 -0.416357 -0.603 45 87 147
0.440477 -0.416357 -0.603 47 82 138
0.441626 -0.416357 -0.603 69 104 160
0.442774 -0.416357 -0.603 69 104 160
0.443923 -0.416357 -0.603 102 117 148
0.445071 -0.416357 -0.603 113 128 159
0.44622 -0.416357 -0.603 146 153 172
0.447369 -0.416357 -0.603 147 154 173
0.448517 -0.416357 -0.603 144 146 159
0.449666 -0.416357 -0.603 157 159 172
0.450814 -0.416357 -0.603 117 125 146
0.451963 -0.416357 -0.603 112 120 141
0.453111 -0.416357 -0.603 118 133 164
0.45426 -0.416357 -0.603 115 130 161
0.455409 -0.416357 -0.603 109 131 168
0.456557 -0.416357 -0.603 104 126 163
0.457706 -0.416357 -0.603 83 114 158
0.458854 -0.416357 -0.603 58 89 133
0.460003 -0.416357 -0.603 24 64 113
0.461151 -0.416357 -0.603 15 55 104
0.463067 -0.417048 -0.604 18 52 115
0.464217 -0.417048 -0.604 23 57 120
0.465368 -0.417048 -0.604 24 57 124
0.466518 -0.417048 -0.604 20 53 120
0.467669 -0.417048 -0.604 22 57 115
0.468819 -0.417048 -0.604 22 57 115
0.46997 -0.417048 -0.604 21 55 119
0.47112 -0.417048 -0.604 31 65 129
0.47227 -0.417048 -0.604 66 97 151
0.473421 -0.417048 -0.604 92 123 177
0.474571 -0.417048 -0.604 133 150 176
0.475722 -0.417048 -0.604 142 159 185
0.476872 -0.417048 -0.604 144 153 170
0.478023 -0.417048 -0.604 99 108 125
0.479173 -0.417048 -0.604 137 150 159
0.480324 -0.417048 -0.604 157 170 179
0.481474 -0.417048 -0.604 164 171 181
0.482625 -0.417048 -0.604 164 171 181
0.483775 -0.417048 -0.604 158 165 175
0.484926 -0.417048 -0.604 161 170 179
0.486076 -0.417048 -0.604 162 171 180
0.487227 -0.417048 -0.604 151 163 185
0.488377 -0.417048 -0.604 151 163 185
0.489528 -0.417048 -0.604 132 148 182
0.490678 -0.417048 -0.604 78 94 128
0.491829 -0.417048 -0.604 54 93 148
0.492979 -0.417048 -0.604 45 84 139
0.49413 -0.417048 -0.604 53 89 147
0.49528 -0.417048 -0.604 49 85 143
0.49643 -0.417048 -0.604 45 83 146
0.497581 -0.417048 -0.604 43 81 144
0.498731 -0.417048 -0.604 36 75 134
0.499882 -0.417048 -0.604 31 70 129
0.501032 -0.417048 -0.604 40 76 138
0.502183 -0.417048 -0.604 51 87 149
0.503333 -0.417048 -0.604 47 90 145
0.504484 -0.417048 -0.604 40 83 138
0.505634 -0.417048 -0.604 56 93 145
0.506785 -0.417048 -0.604 67 104 156
0.507094 -0.416357 -0.603 103 124 155
0.508243 -0.416357 -0.603 137 158 189
0.509391 -0.416357 -0.603 164 166 178
0.51054 -0.416357 -0.603 169 171 183
0.511689 -0.416357 -0.603 167 165 170
0.512837 -0.416357 -0.603 132 130 135
0.513986 -0.416357 -0.603 120 120 118
0.515134 -0.416357 -0.603 139 139 137
0.516283 -0.416357 -0.603 163 163 173
0.517431 -0.416357 -0.603 167 167 177
0.51858 -0.416357 -0.603 153 159 171
0.519729 -0.416357 -0.603 140 146 158
0.520877 -0.416357 -0.603 115 133 169
0.522026 -0.416357 -0.603 95 113 149
0.523174 -0.416357 -0.603 53 81 129
0.524323 -0.416357 -0.603 35 63 111
0.5246 -0.415667 -0.602 36 68 117
0.525747 -0.415667 -0.602 36 68 117
0.526893 -0.415667 -0.602 31 63 112
0.52804 -0.415667 -0.602 29 61 112
0.529187 -0.415667 -0.602 56 88 139
0.530333 -0.415667 -0.602 65 97 144
0.53148 -0.415667 -0.602 41 73 120
0.532627 -0.415667 -0.602 37 65 105
0.533773 -0.415667 -0.602 50 78 118
0.53492 -0.415667 -0.602 56 75 117
0.531363 -0.402548 -0.583 140 117 111
0.52608 -0.397714 -0.576 144 121 115
0.519855 -0.39219 -0.568 149 115 103
0.512683 -0.385976 -0.559 156 122 110
0.506395 -0.380452 -0.551 159 121 102
0.501919 -0.37631 -0.545 159 121 102
