ply
format ascii 1.0
comment Created by Open3D
element vertex 1295
property double x
property double y
property double z
property uchar red
property uchar green
property uchar blue
end_header
0.272748 -0.36951 -0.635 216 220 245
0.273957 -0.36951 -0.635 220 222 245
0.275167 -0.36951 -0.635 217 219 242
0.276376 -0.36951 -0.635 212 214 237
0.277586 -0.36951 -0.635 189 191 214
0.278795 -0.36951 -0.635 171 175 202
0.280005 -0.36951 -0.635 186 190 217
0.320423 -0.370091 -0.636 138 152 187
0.321634 -0.370091 -0.636 142 164 205
0.322846 -0.370091 -0.636 154 176 217
0.324057 -0.370091 -0.636 133 161 208
0.325269 -0.370091 -0.636 133 161 208
0.32648 -0.370091 -0.636 108 136 183
0.330633 -0.370673 -0.637 138 156 192
0.331847 -0.370673 -0.637 157 175 211
0.33306 -0.370673 -0.637 192 199 228
0.334273 -0.370673 -0.637 197 204 233
0.335487 -0.370673 -0.637 202 206 233
0.3367 -0.370673 -0.637 200 204 231
0.337913 -0.370673 -0.637 194 199 228
0.339127 -0.370673 -0.637 179 184 213
0.340874 -0.371255 -0.638 139 144 176
0.34209 -0.371255 -0.638 101 106 138
0.342767 -0.370673 -0.637 88 95 124
0.34398 -0.370673 -0.637 154 161 190
0.345193 -0.370673 -0.637 185 197 223
0.346407 -0.370673 -0.637 189 201 227
0.34762 -0.370673 -0.637 188 195 221
0.348833 -0.370673 -0.637 188 195 221
0.350047 -0.370673 -0.637 189 197 220
0.35126 -0.370673 -0.637 186 194 217
0.352473 -0.370673 -0.637 186 194 217
0.353687 -0.370673 -0.637 178 186 209
0.3549 -0.370673 -0.637 150 157 183
0.356672 -0.371255 -0.638 145 152 178
0.357888 -0.371255 -0.638 176 183 209
0.359103 -0.371255 -0.638 176 183 209
0.360318 -0.371255 -0.638 182 189 215
0.361533 -0.371255 -0.638 184 191 217
0.362749 -0.371255 -0.638 185 192 218
0.363964 -0.371255 -0.638 184 191 217
0.365179 -0.371255 -0.638 179 186 212
0.366969 -0.371837 -0.639 182 192 219
0.368186 -0.371837 -0.639 183 193 220
0.369403 -0.371837 -0.639 152 168 201
0.37062 -0.371837 -0.639 86 102 135
0.371837 -0.371837 -0.639 67 85 123
0.373638 -0.372419 -0.64 79 97 135
0.374857 -0.372419 -0.64 122 138 174
0.375489 -0.371837 -0.639 160 176 212
0.376706 -0.371837 -0.639 174 183 212
0.377923 -0.371837 -0.639 174 183 212
0.379733 -0.372419 -0.64 186 192 218
0.380952 -0.372419 -0.64 175 181 207
0.382171 -0.372419 -0.64 160 169 200
0.38339 -0.372419 -0.64 125 134 165
0.38461 -0.372419 -0.64 84 103 145
0.385829 -0.372419 -0.64 80 99 141
0.387048 -0.372419 -0.64 92 120 168
0.388267 -0.372419 -0.64 97 125 173
0.389486 -0.372419 -0.64 80 112 163
0.390705 -0.372419 -0.64 71 103 154
0.391924 -0.372419 -0.64 79 101 150
0.393143 -0.372419 -0.64 79 101 150
0.394362 -0.372419 -0.64 101 123 172
0.395581 -0.372419 -0.64 143 157 194
0.3968 -0.372419 -0.64 165 179 216
0.398019 -0.372419 -0.64 176 184 207
0.399238 -0.372419 -0.64 164 172 195
0.399831 -0.371837 -0.639 118 128 153
0.401049 -0.371837 -0.639 112 122 147
0.402266 -0.371837 -0.639 93 106 140
0.403483 -0.371837 -0.639 70 83 117
0.4047 -0.371837 -0.639 72 82 117
0.405917 -0.371837 -0.639 100 110 145
0.407134 -0.371837 -0.639 149 156 182
0.408351 -0.371837 -0.639 173 180 206
0.409569 -0.371837 -0.639 173 179 201
0.410143 -0.371255 -0.638 170 176 198
0.411358 -0.371255 -0.638 172 178 200
0.412573 -0.371255 -0.638 170 176 198
0.42174 -0.371837 -0.639 170 176 198
0.422957 -0.371837 -0.639 167 173 195
0.424174 -0.371837 -0.639 167 173 195
0.425391 -0.371837 -0.639 169 175 199
0.426609 -0.371837 -0.639 169 175 199
0.427826 -0.371837 -0.639 167 173 197
0.429043 -0.371837 -0.639 167 173 197
0.43026 -0.371837 -0.639 168 172 201
0.431477 -0.371837 -0.639 159 163 192
0.432694 -0.371837 -0.639 126 135 166
0.433911 -0.371837 -0.639 95 104 135
0.435129 -0.371837 -0.639 72 85 119
0.436346 -0.371837 -0.639 69 82 116
0.437563 -0.371837 -0.639 83 94 122
0.43878 -0.371837 -0.639 129 140 168
0.439997 -0.371837 -0.639 149 155 181
0.441214 -0.371837 -0.639 111 117 143
0.442431 -0.371837 -0.639 140 145 175
0.443649 -0.371837 -0.639 150 155 185
0.444866 -0.371837 -0.639 125 138 180
0.446083 -0.371837 -0.639 103 116 158
0.448 -0.372419 -0.64 78 101 151
0.449219 -0.372419 -0.64 86 109 159
0.450438 -0.372419 -0.64 99 125 184
0.451657 -0.372419 -0.64 101 127 186
0.452876 -0.372419 -0.64 99 123 185
0.454095 -0.372419 -0.64 82 106 168
0.455314 -0.372419 -0.64 84 104 155
0.456533 -0.372419 -0.64 105 125 176
0.457752 -0.372419 -0.64 128 143 174
0.458971 -0.372419 -0.64 128 143 174
0.46091 -0.373001 -0.641 150 165 196
0.46213 -0.373001 -0.641 159 165 187
0.463351 -0.373001 -0.641 145 151 173
0.464572 -0.373001 -0.641 106 110 139
0.465793 -0.373001 -0.641 94 98 127
0.467014 -0.373001 -0.641 78 84 116
0.468235 -0.373001 -0.641 86 92 124
0.469456 -0.373001 -0.641 101 112 142
0.470677 -0.373001 -0.641 129 140 170
0.471898 -0.373001 -0.641 154 160 182
0.473119 -0.373001 -0.641 167 173 195
0.47434 -0.373001 -0.641 164 169 189
0.475561 -0.373001 -0.641 165 170 190
0.476782 -0.373001 -0.641 166 171 191
0.478003 -0.373001 -0.641 168 173 193
0.479224 -0.373001 -0.641 167 172 192
0.480445 -0.373001 -0.641 168 173 193
0.480914 -0.372419 -0.64 168 173 193
0.482133 -0.372419 -0.64 168 173 193
0.483352 -0.372419 -0.64 166 169 186
0.484571 -0.372419 -0.64 171 174 191
0.48579 -0.372419 -0.64 171 172 190
0.48701 -0.372419 -0.64 175 176 194
0.488229 -0.372419 -0.64 175 178 197
0.489448 -0.372419 -0.64 176 179 198
0.490667 -0.372419 -0.64 176 181 200
0.491886 -0.372419 -0.64 175 180 199
0.493105 -0.372419 -0.64 176 178 199
0.494324 -0.372419 -0.64 176 178 199
0.495543 -0.372419 -0.64 182 184 205
0.496762 -0.372419 -0.64 178 180 203
0.497981 -0.372419 -0.64 170 172 195
0.507306 -0.373001 -0.641 187 194 222
0.508527 -0.373001 -0.641 175 182 210
0.509748 -0.373001 -0.641 161 169 205
0.510969 -0.373001 -0.641 158 166 202
0.51219 -0.373001 -0.641 128 141 194
0.51341 -0.373001 -0.641 115 128 181
0.514631 -0.373001 -0.641 111 131 184
0.515852 -0.373001 -0.641 118 138 191
0.517073 -0.373001 -0.641 125 150 204
0.518294 -0.373001 -0.641 118 143 197
0.519515 -0.373001 -0.641 110 134 180
0.520736 -0.373001 -0.641 118 142 188
0.521957 -0.373001 -0.641 168 182 217
0.523178 -0.373001 -0.641 167 181 216
0.524399 -0.373001 -0.641 185 191 217
0.52562 -0.373001 -0.641 169 175 201
0.526841 -0.373001 -0.641 193 199 223
0.528062 -0.373001 -0.641 155 161 185
0.526287 -0.362527 -0.623 112 92 91
0.521547 -0.358453 -0.616 132 102 94
0.49779 -0.339832 -0.584 134 100 91
0.489506 -0.333431 -0.573 138 99 92
0.484604 -0.329358 -0.566 139 100 93
0.479675 -0.325285 -0.559 145 105 97
0.47816 -0.323539 -0.556 140 102 91
0.47491 -0.32063 -0.551 147 105 91
0.47164 -0.31772 -0.546 149 107 93
0.469217 -0.315392 -0.542 154 108 93
0.467647 -0.313647 -0.539 156 110 95
0.466934 -0.312483 -0.537 159 110 95
0.465343 -0.310737 -0.534 159 110 95
0.465487 -0.310155 -0.533 165 109 94
0.464751 -0.308991 -0.531 166 110 95
0.464886 -0.30841 -0.53 168 111 92
0.464137 -0.307246 -0.528 170 113 94
0.464262 -0.306664 -0.527 174 116 94
0.464383 -0.306082 -0.526 176 118 96
0.4645 -0.3055 -0.525 176 120 95
0.464613 -0.304918 -0.524 176 120 95
0.465611 -0.304918 -0.524 178 122 97
0.465719 -0.304336 -0.523 180 124 99
0.466715 -0.304336 -0.523 179 121 97
0.466817 -0.303754 -0.522 180 122 98
0.467811 -0.303754 -0.522 182 124 100
0.467908 -0.303172 -0.521 183 125 101
0.468 -0.30259 -0.52 183 125 101
0.46899 -0.30259 -0.52 185 127 103
0.469981 -0.30259 -0.52 185 127 103
0.470971 -0.30259 -0.52 189 131 107
0.471962 -0.30259 -0.52 192 134 110
0.472952 -0.30259 -0.52 191 133 109
0.473031 -0.302009 -0.519 192 134 110
0.47402 -0.302009 -0.519 192 134 110
0.475009 -0.302009 -0.519 192 134 110
0.475997 -0.302009 -0.519 193 135 111
0.476986 -0.302009 -0.519 194 136 112
0.477974 -0.302009 -0.519 191 133 109
0.47804 -0.301427 -0.518 187 129 105
0.479027 -0.301427 -0.518 187 130 103
0.480013 -0.301427 -0.518 187 130 103
0.481 -0.301427 -0.518 188 132 107
0.481987 -0.301427 -0.518 186 130 105
0.482973 -0.301427 -0.518 183 127 102
0.484894 -0.302009 -0.519 182 126 101
0.485883 -0.302009 -0.519 179 125 99
0.485933 -0.301427 -0.518 179 125 99
0.48692 -0.301427 -0.518 177 123 99
0.487907 -0.301427 -0.518 178 124 100
0.489837 -0.302009 -0.519 175 123 99
0.490826 -0.302009 -0.519 172 120 96
0.491814 -0.302009 -0.519 171 119 95
0.492803 -0.302009 -0.519 171 119 95
0.494743 -0.30259 -0.52 169 117 93
0.495733 -0.30259 -0.52 168 116 92
0.496724 -0.30259 -0.52 163 116 96
0.498671 -0.303172 -0.521 163 116 96
0.500623 -0.303754 -0.522 160 115 94
0.501617 -0.303754 -0.522 158 113 92
0.504537 -0.304918 -0.524 154 113 93
0.5065 -0.3055 -0.525 153 112 92
0.509433 -0.306664 -0.527 151 113 92
0.511406 -0.307246 -0.528 150 112 91
0.514352 -0.30841 -0.53 152 115 96
0.517307 -0.309573 -0.532 151 114 95
0.520269 -0.310737 -0.534 150 112 93
0.52519 -0.313065 -0.538 148 110 91
0.52915 -0.31481 -0.541 150 108 92
0.5341 -0.317138 -0.545 150 108 92
1.14114 -0.370673 -0.637 202 204 190
1.14056 -0.370091 -0.636 202 204 190
0.09454 -0.35554 -0.609 198 149 142
0.0950714 -0.353205 -0.605 196 147 140
0.0954286 -0.350286 -0.6 195 149 136
0.0956057 -0.346783 -0.594 195 149 136
0.09576 -0.34328 -0.588 195 146 142
0.0960562 -0.340361 -0.583 196 147 143
0.0963333 -0.337442 -0.578 196 146 145
0.0970971 -0.336274 -0.576 192 142 141
0.0976829 -0.334523 -0.573 191 140 136
0.0984295 -0.333355 -0.571 190 139 135
0.0993429 -0.332771 -0.57 190 139 135
0.100076 -0.331604 -0.568 189 138 134
0.10098 -0.33102 -0.567 191 138 134
0.1017 -0.329852 -0.565 189 136 132
0.102594 -0.329269 -0.564 187 134 130
0.103669 -0.329269 -0.564 187 136 132
0.104557 -0.328685 -0.563 188 135 131
0.10563 -0.328685 -0.563 188 135 131
0.106512 -0.328101 -0.562 189 136 130
0.107583 -0.328101 -0.562 187 134 128
0.108653 -0.328101 -0.562 188 133 128
0.109529 -0.327517 -0.561 189 134 129
0.110597 -0.327517 -0.561 185 130 125
0.111467 -0.326933 -0.56 181 126 121
0.112533 -0.326933 -0.56 181 128 122
0.1136 -0.326933 -0.56 178 125 119
0.114462 -0.32635 -0.559 180 127 121
0.115527 -0.32635 -0.559 183 130 124
0.116383 -0.325766 -0.558 181 128 120
0.117446 -0.325766 -0.558 182 129 121
0.118509 -0.325766 -0.558 183 130 122
0.119571 -0.325766 -0.558 179 126 118
0.120418 -0.325182 -0.557 179 127 116
0.121479 -0.325182 -0.557 171 119 108
0.12254 -0.325182 -0.557 175 123 112
0.123601 -0.325182 -0.557 169 117 106
0.124662 -0.325182 -0.557 171 119 108
0.125723 -0.325182 -0.557 167 115 104
0.126784 -0.325182 -0.557 170 118 107
0.127845 -0.325182 -0.557 172 120 109
0.128906 -0.325182 -0.557 168 116 105
0.129967 -0.325182 -0.557 165 113 102
0.131028 -0.325182 -0.557 162 110 99
0.132089 -0.325182 -0.557 160 108 97
0.133389 -0.325766 -0.558 159 107 96
0.134692 -0.32635 -0.559 157 105 94
0.135757 -0.32635 -0.559 157 105 94
0.136822 -0.32635 -0.559 153 100 92
0.138133 -0.326933 -0.56 147 94 86
0.1392 -0.326933 -0.56 144 91 83
0.140517 -0.327517 -0.561 145 92 84
0.141586 -0.327517 -0.561 145 92 86
0.142654 -0.327517 -0.561 145 92 86
0.143979 -0.328101 -0.562 146 91 86
0.145308 -0.328685 -0.563 145 90 85
0.14664 -0.329269 -0.564 144 89 84
0.147714 -0.329269 -0.564 140 85 80
0.149052 -0.329852 -0.565 139 86 80
0.150129 -0.329852 -0.565 139 86 80
0.151472 -0.330436 -0.566 137 84 78
0.15255 -0.330436 -0.566 136 83 77
0.1539 -0.33102 -0.567 136 83 77
0.15498 -0.33102 -0.567 136 83 77
0.15606 -0.33102 -0.567 134 81 77
0.157417 -0.331604 -0.568 133 80 76
0.158499 -0.331604 -0.568 132 81 77
0.159581 -0.331604 -0.568 131 80 76
0.160663 -0.331604 -0.568 131 80 77
0.161745 -0.331604 -0.568 131 80 77
0.163113 -0.332188 -0.569 129 78 75
0.164197 -0.332188 -0.569 128 77 74
0.165281 -0.332188 -0.569 129 78 75
0.166657 -0.332771 -0.57 130 79 76
0.167743 -0.332771 -0.57 128 79 72
0.169125 -0.333355 -0.571 127 78 71
0.170212 -0.333355 -0.571 125 76 71
0.1716 -0.333939 -0.572 123 74 69
0.172991 -0.334523 -0.573 124 75 70
0.174387 -0.335107 -0.574 125 76 71
0.17548 -0.335107 -0.574 125 78 72
0.176573 -0.335107 -0.574 125 78 72
0.177976 -0.33569 -0.575 123 75 71
0.179383 -0.336274 -0.576 125 77 73
0.180793 -0.336858 -0.577 123 78 73
0.182208 -0.337442 -0.578 120 75 70
0.183309 -0.337442 -0.578 117 72 67
0.184729 -0.338026 -0.579 116 71 66
0.186152 -0.33861 -0.58 116 71 66
0.18758 -0.339193 -0.581 117 72 67
0.189011 -0.339777 -0.582 117 72 69
0.190447 -0.340361 -0.583 115 70 67
0.191557 -0.340361 -0.583 115 70 67
0.192998 -0.340945 -0.584 113 72 70
0.194775 -0.342112 -0.586 114 73 71
0.196226 -0.342696 -0.587 113 71 72
0.198016 -0.343864 -0.589 111 69 70
0.199476 -0.344448 -0.59 110 68 69
0.20128 -0.345615 -0.592 111 69 70
0.203091 -0.346783 -0.594 108 67 65
0.205254 -0.348534 -0.597 111 70 68
0.207083 -0.349702 -0.599 107 71 71
0.209267 -0.351453 -0.602 108 72 72
0.211462 -0.353205 -0.605 96 71 75
0.212966 -0.353789 -0.606 96 69 74
0.21518 -0.35554 -0.609 91 74 82
0.217406 -0.357291 -0.612 101 84 92
0.219643 -0.359043 -0.615 95 93 115
0.259034 -0.370135 -0.634 163 178 211
0.260242 -0.370135 -0.634 156 171 204
0.26145 -0.370135 -0.634 147 158 190
0.262657 -0.370135 -0.634 146 157 189
0.263865 -0.370135 -0.634 150 156 188
0.26549 -0.370719 -0.635 175 181 213
0.2667 -0.370719 -0.635 190 196 220
0.26791 -0.370719 -0.635 214 220 244
0.269119 -0.370719 -0.635 217 221 246
0.270329 -0.370719 -0.635 211 215 240
0.273957 -0.370719 -0.635 208 210 233
0.275167 -0.370719 -0.635 188 190 213
0.276376 -0.370719 -0.635 163 167 192
0.32648 -0.371303 -0.636 104 133 177
0.327691 -0.371303 -0.636 110 139 183
0.328903 -0.371303 -0.636 106 135 179
0.330114 -0.371303 -0.636 141 159 195
0.331326 -0.371303 -0.636 164 182 218
0.332537 -0.371303 -0.636 195 202 230
0.333749 -0.371303 -0.636 193 200 228
0.33496 -0.371303 -0.636 201 209 232
0.336171 -0.371303 -0.636 200 208 231
0.337383 -0.371303 -0.636 177 184 213
0.338594 -0.371303 -0.636 144 151 180
0.34034 -0.371887 -0.637 109 115 149
0.341553 -0.371887 -0.637 98 104 138
0.342767 -0.371887 -0.637 117 123 155
0.34398 -0.371887 -0.637 175 181 213
0.345193 -0.371887 -0.637 193 205 227
0.346407 -0.371887 -0.637 189 201 223
0.34762 -0.371887 -0.637 191 197 221
0.348833 -0.371887 -0.637 192 198 222
0.350047 -0.371887 -0.637 191 197 221
0.35126 -0.371887 -0.637 189 195 219
0.352473 -0.371887 -0.637 187 195 218
0.353687 -0.371887 -0.637 187 195 218
0.3549 -0.371887 -0.637 176 184 207
0.356113 -0.371887 -0.637 173 181 204
0.357327 -0.371887 -0.637 187 195 218
0.35854 -0.371887 -0.637 187 195 218
0.360318 -0.37247 -0.638 187 195 218
0.361533 -0.37247 -0.638 187 195 218
0.362749 -0.37247 -0.638 182 190 213
0.363964 -0.37247 -0.638 185 196 218
0.365179 -0.37247 -0.638 184 195 217
0.366394 -0.37247 -0.638 182 193 215
0.36761 -0.37247 -0.638 181 192 214
0.368825 -0.37247 -0.638 168 184 210
0.37004 -0.37247 -0.638 127 143 169
0.371255 -0.37247 -0.638 94 114 151
0.373054 -0.373054 -0.639 73 93 130
0.374271 -0.373054 -0.639 76 95 137
0.375489 -0.373054 -0.639 110 129 171
0.376706 -0.373054 -0.639 156 169 201
0.377923 -0.373054 -0.639 166 179 211
0.37914 -0.373054 -0.639 184 190 214
0.380357 -0.373054 -0.639 178 184 208
0.382171 -0.373638 -0.64 162 171 200
0.38339 -0.373638 -0.64 120 129 158
0.38461 -0.373638 -0.64 87 106 148
0.385829 -0.373638 -0.64 85 104 146
0.386443 -0.373054 -0.639 95 125 175
0.38766 -0.373054 -0.639 96 126 176
0.388877 -0.373054 -0.639 86 119 172
0.390094 -0.373054 -0.639 77 110 163
0.391924 -0.373638 -0.64 89 111 160
0.393143 -0.373638 -0.64 89 111 160
0.393746 -0.373054 -0.639 115 137 186
0.394963 -0.373054 -0.639 151 164 199
0.39618 -0.373054 -0.639 164 177 212
0.397397 -0.373054 -0.639 173 183 208
0.398614 -0.373054 -0.639 165 175 200
0.399206 -0.37247 -0.638 124 135 163
0.400421 -0.37247 -0.638 88 99 127
0.401636 -0.37247 -0.638 77 91 126
0.402851 -0.37247 -0.638 82 96 131
0.404067 -0.37247 -0.638 103 116 148
0.405282 -0.37247 -0.638 141 154 186
0.406497 -0.37247 -0.638 166 174 195
0.407712 -0.37247 -0.638 172 180 201
0.408928 -0.37247 -0.638 170 178 197
0.410143 -0.37247 -0.638 169 177 196
0.411358 -0.37247 -0.638 172 180 199
0.412573 -0.37247 -0.638 171 179 198
0.413789 -0.37247 -0.638 171 179 198
0.415004 -0.37247 -0.638 169 177 196
0.416219 -0.37247 -0.638 169 177 196
0.417434 -0.37247 -0.638 164 172 191
0.41865 -0.37247 -0.638 166 174 193
0.419865 -0.37247 -0.638 168 176 195
0.42108 -0.37247 -0.638 169 177 196
0.422295 -0.37247 -0.638 167 175 194
0.42351 -0.37247 -0.638 167 175 194
0.424726 -0.37247 -0.638 170 177 196
0.425941 -0.37247 -0.638 171 178 197
0.427156 -0.37247 -0.638 169 176 195
0.428371 -0.37247 -0.638 170 177 196
0.429587 -0.37247 -0.638 167 171 196
0.430802 -0.37247 -0.638 173 177 202
0.432017 -0.37247 -0.638 162 169 198
0.433232 -0.37247 -0.638 138 145 174
0.434448 -0.37247 -0.638 113 124 154
0.435663 -0.37247 -0.638 90 101 131
0.436878 -0.37247 -0.638 73 87 114
0.438093 -0.37247 -0.638 86 100 127
0.439309 -0.37247 -0.638 113 120 146
0.440524 -0.37247 -0.638 148 155 181
0.4473 -0.373054 -0.639 80 106 157
0.448517 -0.373054 -0.639 76 102 153
0.449734 -0.373054 -0.639 85 115 175
0.450951 -0.373054 -0.639 96 126 186
0.452169 -0.373054 -0.639 91 119 184
0.453386 -0.373054 -0.639 75 103 168
0.454603 -0.373054 -0.639 85 108 162
0.456533 -0.373638 -0.64 119 142 196
0.457752 -0.373638 -0.64 142 158 191
0.458971 -0.373638 -0.64 142 158 191
0.46019 -0.373638 -0.64 148 164 197
0.46141 -0.373638 -0.64 163 174 196
0.462629 -0.373638 -0.64 163 174 196
0.463848 -0.373638 -0.64 126 131 161
0.465067 -0.373638 -0.64 95 100 130
0.466286 -0.373638 -0.64 101 107 141
0.467505 -0.373638 -0.64 112 118 152
0.468724 -0.373638 -0.64 136 146 173
0.469943 -0.373638 -0.64 155 165 192
0.471162 -0.373638 -0.64 168 173 192
0.472381 -0.373638 -0.64 167 172 191
0.4736 -0.373638 -0.64 171 174 193
0.474819 -0.373638 -0.64 171 174 193
0.476038 -0.373638 -0.64 170 173 192
0.477257 -0.373638 -0.64 169 172 191
0.478476 -0.373638 -0.64 169 172 191
0.479695 -0.373638 -0.64 170 173 192
0.480914 -0.373638 -0.64 168 171 190
0.482133 -0.373638 -0.64 171 174 193
0.483352 -0.373638 -0.64 171 172 190
0.484571 -0.373638 -0.64 173 174 192
0.490667 -0.373638 -0.64 173 180 199
0.491886 -0.373638 -0.64 173 180 199
0.493105 -0.373638 -0.64 178 180 201
0.494324 -0.373638 -0.64 178 180 201
0.495543 -0.373638 -0.64 178 180 201
0.500419 -0.373638 -0.64 161 163 184
0.501638 -0.373638 -0.64 138 144 166
0.502857 -0.373638 -0.64 118 124 146
0.504076 -0.373638 -0.64 111 118 144
0.505295 -0.373638 -0.64 161 168 194
0.506514 -0.373638 -0.64 184 193 226
0.507733 -0.373638 -0.64 171 180 213
0.508952 -0.373638 -0.64 160 169 210
0.510171 -0.373638 -0.64 163 172 213
0.51139 -0.373638 -0.64 124 141 195
0.51341 -0.374222 -0.641 98 115 169
0.514631 -0.374222 -0.641 99 121 178
0.515852 -0.374222 -0.641 107 129 186
0.517073 -0.374222 -0.641 115 141 198
0.518294 -0.374222 -0.641 104 130 187
0.519515 -0.374222 -0.641 94 117 167
0.520736 -0.374222 -0.641 98 121 171
0.521957 -0.374222 -0.641 145 160 201
0.523178 -0.374222 -0.641 164 179 220
0.524399 -0.374222 -0.641 170 176 208
0.52562 -0.374222 -0.641 187 193 225
0.526841 -0.374222 -0.641 170 177 206
0.524933 -0.361962 -0.62 129 102 95
0.520174 -0.357875 -0.613 134 107 100
0.488029 -0.332771 -0.57 139 101 92
0.483108 -0.328685 -0.563 143 105 94
0.47816 -0.324598 -0.556 140 102 91
0.47491 -0.321679 -0.551 147 105 91
0.473368 -0.319928 -0.548 147 107 95
0.470949 -0.317592 -0.544 152 108 97
0.469382 -0.315841 -0.541 152 108 97
0.467804 -0.31409 -0.538 156 108 96
0.466214 -0.312338 -0.535 159 111 99
0.465487 -0.31117 -0.533 164 111 97
0.465627 -0.310587 -0.532 164 111 97
0.464886 -0.309419 -0.53 165 108 91
0.464137 -0.308251 -0.528 168 111 94
0.464262 -0.307668 -0.527 174 115 97
0.464383 -0.307084 -0.526 177 118 100
0.465385 -0.307084 -0.526 177 119 99
0.4655 -0.3065 -0.525 178 120 100
0.465611 -0.305916 -0.524 178 122 99
0.465719 -0.305332 -0.523 179 123 100
0.466715 -0.305332 -0.523 180 122 100
0.466817 -0.304749 -0.522 180 122 100
0.467811 -0.304749 -0.522 181 123 101
0.467908 -0.304165 -0.521 182 124 102
0.468 -0.303581 -0.52 184 126 104
0.46899 -0.303581 -0.52 187 129 107
0.469981 -0.303581 -0.52 187 129 107
0.470971 -0.303581 -0.52 190 132 110
0.471962 -0.303581 -0.52 191 133 111
0.472952 -0.303581 -0.52 191 133 111
0.473031 -0.302997 -0.519 191 133 111
0.47402 -0.302997 -0.519 194 136 114
0.475009 -0.302997 -0.519 197 139 117
0.475997 -0.302997 -0.519 198 140 118
0.476986 -0.302997 -0.519 194 136 114
0.477053 -0.302413 -0.518 190 132 110
0.47804 -0.302413 -0.518 188 130 108
0.479027 -0.302413 -0.518 188 130 106
0.480013 -0.302413 -0.518 188 130 106
0.481 -0.302413 -0.518 189 131 107
0.481987 -0.302413 -0.518 187 129 105
0.482973 -0.302413 -0.518 186 128 104
0.48396 -0.302413 -0.518 185 127 103
0.484947 -0.302413 -0.518 182 126 101
0.485933 -0.302413 -0.518 184 128 103
0.48692 -0.302413 -0.518 183 127 104
0.487907 -0.302413 -0.518 182 126 103
0.488893 -0.302413 -0.518 179 125 101
0.48988 -0.302413 -0.518 176 122 98
0.490867 -0.302413 -0.518 173 118 97
0.491853 -0.302413 -0.518 174 119 98
0.493791 -0.302997 -0.519 174 119 98
0.49478 -0.302997 -0.519 173 118 97
0.496724 -0.303581 -0.52 166 115 94
0.497714 -0.303581 -0.52 168 117 96
0.499664 -0.304165 -0.521 165 117 97
0.501617 -0.304749 -0.522 163 115 95
0.503574 -0.305332 -0.523 159 114 93
0.505535 -0.305916 -0.524 157 112 91
0.508467 -0.307084 -0.526 153 112 92
0.510437 -0.307668 -0.527 151 110 90
0.513382 -0.308835 -0.529 152 114 93
0.515362 -0.309419 -0.53 151 113 92
0.519294 -0.31117 -0.533 150 112 93
0.523238 -0.312922 -0.536 149 111 92
0.527193 -0.314673 -0.539 148 109 92
0.53116 -0.316425 -0.542 148 109 92
1.14056 -0.371303 -0.636 202 204 190
0.0943848 -0.356114 -0.608 198 150 138
0.0949143 -0.353771 -0.604 197 149 137
0.0952695 -0.350843 -0.599 196 149 141
0.0952838 -0.346743 -0.592 195 148 140
0.0955971 -0.343814 -0.587 195 148 142
0.0957267 -0.3403 -0.581 195 148 142
0.0961667 -0.337957 -0.577 191 147 144
0.0969286 -0.336786 -0.575 188 144 141
0.0975124 -0.335029 -0.572 190 139 135
0.0984295 -0.334443 -0.571 190 139 135
0.0991686 -0.333271 -0.569 188 137 133
0.100076 -0.332686 -0.568 187 136 132
0.100802 -0.331514 -0.566 190 137 133
0.1017 -0.330929 -0.565 189 136 132
0.102594 -0.330343 -0.564 187 134 130
0.103485 -0.329757 -0.563 187 134 130
0.104557 -0.329757 -0.563 188 135 129
0.105442 -0.329171 -0.562 188 135 129
0.106512 -0.329171 -0.562 190 135 130
0.107583 -0.329171 -0.562 188 133 128
0.10846 -0.328586 -0.561 189 134 129
0.109529 -0.328586 -0.561 189 134 129
0.110597 -0.328586 -0.561 184 131 125
0.111467 -0.328 -0.56 181 128 122
0.112533 -0.328 -0.56 181 128 122
0.113397 -0.327414 -0.559 177 124 118
0.114462 -0.327414 -0.559 179 126 120
0.115527 -0.327414 -0.559 181 128 122
0.116383 -0.326829 -0.558 180 127 121
0.117446 -0.326829 -0.558 182 129 123
0.118509 -0.326829 -0.558 183 130 124
0.119357 -0.326243 -0.557 178 125 119
0.120418 -0.326243 -0.557 171 118 110
0.121479 -0.326243 -0.557 163 110 102
0.12254 -0.326243 -0.557 168 115 107
0.123601 -0.326243 -0.557 168 115 107
0.124662 -0.326243 -0.557 172 119 111
0.125723 -0.326243 -0.557 170 117 109
0.127011 -0.326829 -0.558 169 116 108
0.128074 -0.326829 -0.558 165 112 104
0.129137 -0.326829 -0.558 163 110 102
0.1302 -0.326829 -0.558 162 109 101
0.131263 -0.326829 -0.558 163 110 102
0.132326 -0.326829 -0.558 162 109 101
0.133389 -0.326829 -0.558 158 105 97
0.134451 -0.326829 -0.558 158 105 97
0.135757 -0.327414 -0.559 152 99 91
0.137067 -0.328 -0.56 148 95 89
0.138133 -0.328 -0.56 144 91 85
0.139449 -0.328586 -0.561 144 91 85
0.140517 -0.328586 -0.561 146 93 87
0.141586 -0.328586 -0.561 146 93 87
0.142909 -0.329171 -0.562 146 93 87
0.144235 -0.329757 -0.563 145 90 85
0.145566 -0.330343 -0.564 144 89 84
0.14664 -0.330343 -0.564 144 89 86
0.147976 -0.330929 -0.565 141 86 83
0.149052 -0.330929 -0.565 139 89 82
0.150394 -0.331514 -0.566 139 89 82
0.151472 -0.331514 -0.566 138 85 81
0.15282 -0.3321 -0.567 136 83 79
0.1539 -0.3321 -0.567 135 84 80
0.15498 -0.3321 -0.567 134 83 79
0.156335 -0.332686 -0.568 131 80 76
0.157417 -0.332686 -0.568 130 79 75
0.158499 -0.332686 -0.568 129 80 75
0.159862 -0.333271 -0.569 127 78 73
0.160946 -0.333271 -0.569 127 78 74
0.16203 -0.333271 -0.569 128 79 75
0.163113 -0.333271 -0.569 127 78 74
0.164197 -0.333271 -0.569 127 78 74
0.165571 -0.333857 -0.57 128 79 75
0.166657 -0.333857 -0.57 128 79 75
0.167743 -0.333857 -0.57 128 80 76
0.169125 -0.334443 -0.571 127 79 75
0.17051 -0.335029 -0.572 124 76 72
0.1716 -0.335029 -0.572 122 74 70
0.172991 -0.335614 -0.573 124 76 72
0.174387 -0.3362 -0.574 124 76 72
0.175786 -0.336786 -0.575 123 75 71
0.176881 -0.336786 -0.575 122 74 70
0.177976 -0.336786 -0.575 120 75 72
0.179383 -0.337371 -0.576 121 76 73
0.180793 -0.337957 -0.577 120 75 72
0.182208 -0.338543 -0.578 118 73 70
0.183626 -0.339129 -0.579 117 71 71
0.185048 -0.339714 -0.58 115 69 69
0.186473 -0.3403 -0.581 115 69 69
0.187903 -0.340886 -0.582 116 70 70
0.189336 -0.341471 -0.583 116 72 71
0.190773 -0.342057 -0.584 114 70 69
0.191886 -0.342057 -0.584 114 70 69
0.193329 -0.342643 -0.585 111 69 70
0.194775 -0.343229 -0.586 113 71 72
0.19656 -0.3444 -0.588 113 71 72
0.198352 -0.345571 -0.59 111 69 70
0.199814 -0.346157 -0.591 110 69 67
0.20162 -0.347329 -0.593 110 69 67
0.203775 -0.349086 -0.596 109 69 67
0.205598 -0.350257 -0.598 112 72 70
0.207774 -0.352014 -0.601 104 73 71
0.209267 -0.3526 -0.602 108 72 72
0.211462 -0.354357 -0.605 96 71 75
0.213669 -0.356114 -0.608 99 74 78
0.215887 -0.357871 -0.611 105 88 98
0.218116 -0.359629 -0.614 104 87 97
0.253803 -0.370757 -0.633 116 130 175
0.255009 -0.370757 -0.633 115 129 174
0.260242 -0.371343 -0.634 142 156 191
0.263865 -0.371343 -0.634 148 157 186
0.265072 -0.371343 -0.634 175 184 213
0.26628 -0.371343 -0.634 196 200 225
0.267488 -0.371343 -0.634 213 217 242
0.268695 -0.371343 -0.634 214 216 241
0.269903 -0.371343 -0.634 214 216 241
0.27111 -0.371343 -0.634 220 222 247
0.273526 -0.371343 -0.634 184 188 215
0.274733 -0.371343 -0.634 155 159 186
0.275941 -0.371343 -0.634 145 151 175
0.277149 -0.371343 -0.634 155 161 185
0.325967 -0.371929 -0.635 113 144 190
0.327176 -0.371929 -0.635 102 130 180
0.328386 -0.371929 -0.635 109 137 187
0.329595 -0.371929 -0.635 150 165 204
0.330805 -0.371929 -0.635 170 185 224
0.332014 -0.371929 -0.635 192 202 227
0.333224 -0.371929 -0.635 194 204 229
0.334433 -0.371929 -0.635 193 204 226
0.335643 -0.371929 -0.635 173 184 206
0.336852 -0.371929 -0.635 133 144 172
0.338594 -0.372514 -0.636 99 110 138
0.339806 -0.372514 -0.636 106 112 146
0.341017 -0.372514 -0.636 112 118 152
0.342229 -0.372514 -0.636 123 130 159
0.34344 -0.372514 -0.636 177 184 213
0.344651 -0.372514 -0.636 188 200 222
0.345863 -0.372514 -0.636 188 200 222
0.347074 -0.372514 -0.636 193 200 219
0.348286 -0.372514 -0.636 191 198 217
0.349497 -0.372514 -0.636 191 197 219
0.350709 -0.372514 -0.636 192 198 220
0.35192 -0.372514 -0.636 188 196 217
0.353131 -0.372514 -0.636 189 197 218
0.354343 -0.372514 -0.636 183 191 212
0.355554 -0.372514 -0.636 182 190 211
0.357327 -0.3731 -0.637 185 193 214
0.35854 -0.3731 -0.637 185 193 214
0.359753 -0.3731 -0.637 185 193 214
0.360967 -0.3731 -0.637 190 198 219
0.36218 -0.3731 -0.637 183 191 212
0.363393 -0.3731 -0.637 182 193 213
0.364607 -0.3731 -0.637 182 193 213
0.36582 -0.3731 -0.637 181 192 212
0.367033 -0.3731 -0.637 181 192 212
0.368247 -0.3731 -0.637 174 189 208
0.36946 -0.3731 -0.637 165 180 199
0.371255 -0.373686 -0.638 137 153 187
0.37247 -0.373686 -0.638 108 124 158
0.373686 -0.373686 -0.638 84 101 144
0.374901 -0.373686 -0.638 64 81 124
0.376116 -0.373686 -0.638 94 109 142
0.377331 -0.373686 -0.638 149 164 197
0.378547 -0.373686 -0.638 180 191 213
0.379762 -0.373686 -0.638 175 186 208
0.381574 -0.374271 -0.639 153 162 191
0.382791 -0.374271 -0.639 122 131 160
0.384009 -0.374271 -0.639 112 131 173
0.385226 -0.374271 -0.639 94 113 155
0.386443 -0.374271 -0.639 88 118 172
0.387053 -0.373686 -0.638 91 121 175
0.388269 -0.373686 -0.638 77 113 171
0.390094 -0.374271 -0.639 71 107 165
0.391311 -0.374271 -0.639 102 125 175
0.392529 -0.374271 -0.639 102 125 175
0.393746 -0.374271 -0.639 131 154 204
0.394345 -0.373686 -0.638 147 159 197
0.39556 -0.373686 -0.638 157 169 207
0.396775 -0.373686 -0.638 174 183 212
0.39799 -0.373686 -0.638 163 172 201
0.399206 -0.373686 -0.638 107 118 148
0.399793 -0.3731 -0.637 89 100 130
0.401007 -0.3731 -0.637 89 102 136
0.40222 -0.3731 -0.637 113 126 160
0.403433 -0.3731 -0.637 144 155 183
0.404647 -0.3731 -0.637 166 177 205
0.40586 -0.3731 -0.637 171 179 198
0.407073 -0.3731 -0.637 173 181 200
0.408287 -0.3731 -0.637 170 178 197
0.4095 -0.3731 -0.637 170 178 197
0.410713 -0.3731 -0.637 171 179 198
0.411927 -0.3731 -0.637 170 178 197
0.41314 -0.3731 -0.637 173 181 200
0.414353 -0.3731 -0.637 170 178 197
0.415567 -0.3731 -0.637 169 177 196
0.41678 -0.3731 -0.637 167 175 194
0.417993 -0.3731 -0.637 166 174 193
0.419207 -0.3731 -0.637 168 176 195
0.42042 -0.3731 -0.637 169 176 195
0.421633 -0.3731 -0.637 168 175 194
0.422847 -0.3731 -0.637 169 176 195
0.42406 -0.3731 -0.637 169 176 195
0.425273 -0.3731 -0.637 169 176 195
0.4466 -0.373686 -0.638 71 96 150
0.447815 -0.373686 -0.638 61 86 140
0.44903 -0.373686 -0.638 77 109 170
0.450951 -0.374271 -0.639 92 124 185
0.452169 -0.374271 -0.639 75 102 169
0.453386 -0.374271 -0.639 51 78 145
0.454603 -0.374271 -0.639 63 85 142
0.45582 -0.374271 -0.639 106 128 185
0.457037 -0.374271 -0.639 138 156 192
0.458254 -0.374271 -0.639 138 156 192
0.46019 -0.374857 -0.64 136 154 190
0.46141 -0.374857 -0.64 152 166 193
0.462629 -0.374857 -0.64 152 166 193
0.463848 -0.374857 -0.64 118 124 158
0.465067 -0.374857 -0.64 89 95 129
0.466286 -0.374857 -0.64 94 99 131
0.467505 -0.374857 -0.64 129 134 166
0.468724 -0.374857 -0.64 162 166 191
0.469943 -0.374857 -0.64 166 170 195
0.471162 -0.374857 -0.64 173 174 192
0.472381 -0.374857 -0.64 168 169 187
0.4736 -0.374857 -0.64 172 173 191
0.474819 -0.374857 -0.64 173 174 192
0.476038 -0.374857 -0.64 173 174 194
0.476511 -0.374271 -0.639 171 172 192
0.477729 -0.374271 -0.639 170 171 189
0.478946 -0.374271 -0.639 169 170 188
0.480163 -0.374271 -0.639 171 172 192
0.48138 -0.374271 -0.639 169 170 190
0.482597 -0.374271 -0.639 163 166 185
0.483814 -0.374271 -0.639 162 165 184
0.485031 -0.374271 -0.639 170 173 192
0.488683 -0.374271 -0.639 175 178 197
0.4899 -0.374271 -0.639 173 180 199
0.491117 -0.374271 -0.639 175 182 201
0.492334 -0.374271 -0.639 180 182 203
0.493551 -0.374271 -0.639 180 182 203
0.494769 -0.374271 -0.639 176 178 199
0.495986 -0.374271 -0.639 178 179 199
0.499637 -0.374271 -0.639 149 150 168
0.500854 -0.374271 -0.639 156 161 180
0.502071 -0.374271 -0.639 132 137 156
0.503289 -0.374271 -0.639 102 112 139
0.504506 -0.374271 -0.639 117 127 154
0.505723 -0.374271 -0.639 139 151 189
0.50694 -0.374271 -0.639 150 162 200
0.508157 -0.374271 -0.639 143 156 201
0.510171 -0.374857 -0.64 147 160 205
0.51139 -0.374857 -0.64 113 132 188
0.51261 -0.374857 -0.64 83 102 158
0.513829 -0.374857 -0.64 84 109 166
0.515048 -0.374857 -0.64 90 115 172
0.516267 -0.374857 -0.64 99 125 184
0.517486 -0.374857 -0.64 87 113 172
0.518705 -0.374857 -0.64 78 101 155
0.519924 -0.374857 -0.64 79 102 156
0.521143 -0.374857 -0.64 122 139 185
0.522362 -0.374857 -0.64 145 162 208
0.523581 -0.374857 -0.64 149 158 197
0.5248 -0.374857 -0.64 151 160 199
0.526019 -0.374857 -0.64 125 133 169
0.527238 -0.374857 -0.64 127 135 171
0.524417 -0.361971 -0.618 124 103 100
0.493166 -0.337371 -0.576 138 100 89
0.48654 -0.3321 -0.567 142 102 92
0.48074 -0.327414 -0.559 139 99 89
0.476633 -0.3239 -0.553 144 104 92
0.473368 -0.320971 -0.548 147 107 95
0.470949 -0.318629 -0.544 152 108 97
0.47025 -0.317457 -0.542 149 109 99
0.468673 -0.3157 -0.539 156 109 99
0.467086 -0.313943 -0.536 159 112 102
0.46636 -0.312771 -0.534 165 113 100
0.465627 -0.3116 -0.532 164 112 99
0.464886 -0.310429 -0.53 167 109 95
0.465016 -0.309843 -0.529 169 111 97
0.464262 -0.308671 -0.527 173 116 99
0.465266 -0.308671 -0.527 175 118 101
0.465385 -0.308086 -0.526 176 119 100
0.4655 -0.3075 -0.525 177 120 101
0.465611 -0.306914 -0.524 179 121 101
0.46661 -0.306914 -0.524 179 121 101
0.466715 -0.306329 -0.523 180 122 100
0.466817 -0.305743 -0.522 181 123 101
0.467811 -0.305743 -0.522 180 122 100
0.467908 -0.305157 -0.521 182 124 102
0.4689 -0.305157 -0.521 186 128 106
0.46899 -0.304571 -0.52 188 130 108
0.469981 -0.304571 -0.52 189 131 109
0.470971 -0.304571 -0.52 189 131 109
0.471962 -0.304571 -0.52 190 132 110
0.472952 -0.304571 -0.52 192 134 112
0.473031 -0.303986 -0.519 192 134 112
0.47402 -0.303986 -0.519 195 137 115
0.475009 -0.303986 -0.519 199 141 119
0.475997 -0.303986 -0.519 198 140 118
0.476067 -0.3034 -0.518 192 134 112
0.477053 -0.3034 -0.518 189 131 109
0.47804 -0.3034 -0.518 190 132 110
0.479027 -0.3034 -0.518 189 129 105
0.480013 -0.3034 -0.518 189 129 105
0.481 -0.3034 -0.518 187 129 105
0.481987 -0.3034 -0.518 187 129 105
0.482973 -0.3034 -0.518 189 131 107
0.48396 -0.3034 -0.518 188 130 106
0.484947 -0.3034 -0.518 184 128 105
0.485933 -0.3034 -0.518 184 128 105
0.48692 -0.3034 -0.518 185 129 106
0.487907 -0.3034 -0.518 182 126 103
0.488893 -0.3034 -0.518 179 125 101
0.48988 -0.3034 -0.518 175 121 97
0.490867 -0.3034 -0.518 173 119 95
0.491853 -0.3034 -0.518 175 121 97
0.49284 -0.3034 -0.518 176 121 100
0.493827 -0.3034 -0.518 174 119 98
0.495769 -0.303986 -0.519 169 117 96
0.496757 -0.303986 -0.519 171 119 98
0.498705 -0.304571 -0.52 169 118 97
0.500656 -0.305157 -0.521 167 116 95
0.502611 -0.305743 -0.522 161 116 95
0.50457 -0.306329 -0.523 157 112 91
0.5075 -0.3075 -0.525 153 112 90
0.509469 -0.308086 -0.526 152 111 89
0.512411 -0.309257 -0.528 151 113 92
0.51439 -0.309843 -0.529 149 111 90
0.517346 -0.311014 -0.531 148 111 92
0.521286 -0.312771 -0.534 148 111 92
0.525237 -0.314529 -0.537 148 110 91
0.5292 -0.316286 -0.54 148 110 91
1.14056 -0.372514 -0.636 202 204 190
0.0936867 -0.359035 -0.611 190 151 146
0.0942295 -0.356685 -0.607 196 150 137
0.0947571 -0.354334 -0.603 197 151 138
0.0949514 -0.350809 -0.597 196 151 148
0.0949619 -0.346695 -0.59 195 150 147
0.0952714 -0.343757 -0.585 191 150 144
0.0953971 -0.340231 -0.579 190 149 143
0.096 -0.338469 -0.576 184 149 145
0.0965914 -0.336706 -0.573 181 146 142
0.0973419 -0.33553 -0.571 191 140 136
0.0982571 -0.334943 -0.57 190 139 135
0.0989943 -0.333768 -0.568 186 135 131
0.0999 -0.33318 -0.567 184 133 129
0.100624 -0.332005 -0.565 186 135 131
0.1017 -0.332005 -0.565 189 136 132
0.102594 -0.331417 -0.564 185 135 128
0.103485 -0.33083 -0.563 183 133 126
0.104371 -0.330242 -0.562 185 135 128
0.105442 -0.330242 -0.562 184 134 127
0.106512 -0.330242 -0.562 187 134 128
0.107583 -0.330242 -0.562 186 133 127
0.10846 -0.329654 -0.561 186 133 127
0.109529 -0.329654 -0.561 187 134 128
0.110597 -0.329654 -0.561 185 132 126
0.111467 -0.329067 -0.56 182 129 123
0.112533 -0.329067 -0.56 181 130 126
0.113397 -0.328479 -0.559 177 126 122
0.114462 -0.328479 -0.559 179 129 122
0.11532 -0.327891 -0.558 180 130 123
0.116383 -0.327891 -0.558 178 128 121
0.117446 -0.327891 -0.558 181 131 124
0.118509 -0.327891 -0.558 184 131 125
0.119357 -0.327304 -0.557 179 126 120
0.120418 -0.327304 -0.557 170 117 111
0.121479 -0.327304 -0.557 167 114 108
0.12254 -0.327304 -0.557 168 115 109
0.123601 -0.327304 -0.557 170 117 111
0.124886 -0.327891 -0.558 172 119 113
0.125949 -0.327891 -0.558 171 118 112
0.127011 -0.327891 -0.558 168 115 109
0.128074 -0.327891 -0.558 163 110 104
0.129137 -0.327891 -0.558 158 108 101
0.1302 -0.327891 -0.558 159 109 102
0.131263 -0.327891 -0.558 161 111 104
0.132326 -0.327891 -0.558 161 111 104
0.133389 -0.327891 -0.558 161 111 104
0.134692 -0.328479 -0.559 157 104 98
0.136 -0.329067 -0.56 149 96 90
0.137067 -0.329067 -0.56 144 91 85
0.138133 -0.329067 -0.56 144 91 85
0.139449 -0.329654 -0.561 143 90 84
0.140517 -0.329654 -0.561 146 93 87
0.141838 -0.330242 -0.562 147 94 90
0.142909 -0.330242 -0.562 146 93 89
0.144235 -0.33083 -0.563 144 91 87
0.145566 -0.331417 -0.564 143 90 86
0.1469 -0.332005 -0.565 144 91 87
0.147976 -0.332005 -0.565 140 87 83
0.149316 -0.332592 -0.566 138 88 81
0.150394 -0.332592 -0.566 140 90 83
0.15174 -0.33318 -0.567 139 88 84
0.15282 -0.33318 -0.567 137 86 82
0.1539 -0.33318 -0.567 136 85 81
0.155253 -0.333768 -0.568 134 83 79
0.156335 -0.333768 -0.568 131 82 77
0.157417 -0.333768 -0.568 129 80 75
0.158778 -0.334355 -0.569 128 79 74
0.159862 -0.334355 -0.569 127 78 73
0.160946 -0.334355 -0.569 127 78 74
0.16203 -0.334355 -0.569 127 78 74
0.163113 -0.334355 -0.569 125 77 73
0.164486 -0.334943 -0.57 126 78 74
0.165571 -0.334943 -0.57 127 80 74
0.16695 -0.33553 -0.571 126 79 73
0.168037 -0.33553 -0.571 125 80 75
0.169125 -0.33553 -0.571 123 78 73
0.17051 -0.336118 -0.572 123 78 73
0.1719 -0.336706 -0.573 123 78 73
0.172991 -0.336706 -0.573 123 78 73
0.174387 -0.337293 -0.574 122 77 72
0.175786 -0.337881 -0.575 120 75 72
0.177189 -0.338469 -0.576 118 73 70
0.178286 -0.338469 -0.576 119 74 71
0.179383 -0.338469 -0.576 118 73 70
0.181107 -0.339644 -0.578 117 73 72
0.182523 -0.340231 -0.579 118 74 73
0.183943 -0.340819 -0.58 117 73 72
0.185367 -0.341407 -0.581 115 71 70
0.186473 -0.341407 -0.581 114 70 69
0.188226 -0.342582 -0.583 114 70 69
0.189661 -0.34317 -0.584 113 71 72
0.1911 -0.343757 -0.585 112 70 71
0.192214 -0.343757 -0.585 112 70 71
0.193659 -0.344345 -0.586 111 71 71
0.19544 -0.34552 -0.588 112 72 72
0.196894 -0.346108 -0.589 114 72 73
0.198689 -0.347283 -0.591 111 69 70
0.20049 -0.348458 -0.593 112 68 67
0.2023 -0.349633 -0.595 112 68 67
0.204459 -0.351396 -0.598 113 72 70
0.205598 -0.351396 -0.598 112 72 70
0.207774 -0.353159 -0.601 104 73 71
0.209962 -0.354922 -0.604 102 71 69
0.212161 -0.356685 -0.607 93 72 77
0.214371 -0.358448 -0.61 108 87 92
0.216593 -0.36021 -0.613 121 107 120
0.259831 -0.371963 -0.633 133 147 184
0.261037 -0.371963 -0.633 136 146 181
0.262243 -0.371963 -0.633 140 150 185
0.263449 -0.371963 -0.633 148 157 186
0.264654 -0.371963 -0.633 175 184 213
0.26628 -0.37255 -0.634 200 204 231
0.267488 -0.37255 -0.634 210 214 241
0.268271 -0.371963 -0.633 212 216 243
0.269477 -0.371963 -0.633 213 217 244
0.270683 -0.371963 -0.633 203 209 235
0.271889 -0.371963 -0.633 176 182 208
0.273094 -0.371963 -0.633 152 159 185
0.2743 -0.371963 -0.633 143 150 176
0.275506 -0.371963 -0.633 152 159 185
0.276711 -0.371963 -0.633 170 177 203
0.314585 -0.37255 -0.634 193 200 229
0.315792 -0.37255 -0.634 172 185 217
0.317 -0.37255 -0.634 153 166 198
0.318208 -0.37255 -0.634 122 141 181
0.319415 -0.37255 -0.634 124 143 183
0.320623 -0.37255 -0.634 134 161 206
0.32183 -0.37255 -0.634 142 169 214
0.323038 -0.37255 -0.634 133 165 214
0.324246 -0.37255 -0.634 133 165 214
0.325453 -0.37255 -0.634 114 146 195
0.328386 -0.373138 -0.635 131 160 216
0.329595 -0.373138 -0.635 167 185 223
0.330805 -0.373138 -0.635 171 189 227
0.332014 -0.373138 -0.635 189 200 222
0.333224 -0.373138 -0.635 197 208 230
0.334433 -0.373138 -0.635 176 191 214
0.335643 -0.373138 -0.635 128 143 166
0.336852 -0.373138 -0.635 101 115 144
0.338062 -0.373138 -0.635 112 126 155
0.339271 -0.373138 -0.635 135 142 171
0.340481 -0.373138 -0.635 164 171 200
0.34169 -0.373138 -0.635 146 152 176
0.3429 -0.373138 -0.635 166 172 196
0.34411 -0.373138 -0.635 189 200 220
0.345319 -0.373138 -0.635 192 203 223
0.346529 -0.373138 -0.635 192 199 217
0.347738 -0.373138 -0.635 190 197 215
0.348948 -0.373138 -0.635 189 196 214
0.350157 -0.373138 -0.635 193 200 218
0.351367 -0.373138 -0.635 191 198 216
0.353131 -0.373726 -0.636 191 198 216
0.354343 -0.373726 -0.636 186 193 211
0.355554 -0.373726 -0.636 186 193 211
0.356766 -0.373726 -0.636 189 198 215
0.357977 -0.373726 -0.636 189 198 215
0.359189 -0.373726 -0.636 185 194 211
0.3604 -0.373726 -0.636 189 197 216
0.361611 -0.373726 -0.636 187 195 214
0.362823 -0.373726 -0.636 185 193 212
0.364034 -0.373726 -0.636 184 192 211
0.365246 -0.373726 -0.636 184 192 211
0.366457 -0.373726 -0.636 185 193 212
0.367669 -0.373726 -0.636 180 192 208
0.36888 -0.373726 -0.636 179 191 207
0.370673 -0.374313 -0.637 172 183 211
0.371887 -0.374313 -0.637 153 164 192
0.3731 -0.374313 -0.637 130 144 181
0.374313 -0.374313 -0.637 105 119 156
0.375527 -0.374313 -0.637 100 113 148
0.37674 -0.374313 -0.637 130 143 178
0.377953 -0.374313 -0.637 182 193 221
0.379762 -0.374901 -0.638 170 181 209
0.380977 -0.374901 -0.638 152 165 197
0.382192 -0.374901 -0.638 143 156 188
0.383408 -0.374901 -0.638 129 150 195
0.384623 -0.374901 -0.638 83 104 149
0.385838 -0.374901 -0.638 76 105 165
0.387053 -0.374901 -0.638 86 115 175
0.388269 -0.374901 -0.638 61 99 161
0.389484 -0.374901 -0.638 54 92 154
0.390699 -0.374901 -0.638 98 125 180
0.391914 -0.374901 -0.638 98 125 180
0.39313 -0.374901 -0.638 139 166 221
0.394345 -0.374901 -0.638 148 162 207
0.39556 -0.374901 -0.638 163 177 222
0.396153 -0.374313 -0.637 174 184 220
0.397367 -0.374313 -0.637 147 157 193
0.39858 -0.374313 -0.637 94 105 137
0.399793 -0.374313 -0.637 93 104 136
0.401007 -0.374313 -0.637 120 131 161
0.40222 -0.374313 -0.637 144 155 185
0.403433 -0.374313 -0.637 156 163 189
0.404011 -0.373726 -0.636 172 179 205
0.405223 -0.373726 -0.636 177 186 201
0.406434 -0.373726 -0.636 172 181 196
0.407646 -0.373726 -0.636 170 177 196
0.408857 -0.373726 -0.636 170 177 196
0.410069 -0.373726 -0.636 171 178 197
0.41128 -0.373726 -0.636 170 177 196
0.436193 -0.374313 -0.637 112 122 149
0.437407 -0.374313 -0.637 87 97 124
0.43862 -0.374313 -0.637 96 107 137
0.439833 -0.374313 -0.637 116 127 157
0.441047 -0.374313 -0.637 147 159 199
0.44226 -0.374313 -0.637 129 141 181
0.443473 -0.374313 -0.637 122 138 189
0.444687 -0.374313 -0.637 106 122 173
0.4459 -0.374313 -0.637 61 86 143
0.447113 -0.374313 -0.637 41 66 123
0.448327 -0.374313 -0.637 57 93 155
0.450246 -0.374901 -0.638 77 113 175
0.451461 -0.374901 -0.638 63 93 157
0.452676 -0.374901 -0.638 40 70 134
0.453891 -0.374901 -0.638 49 71 129
0.455107 -0.374901 -0.638 83 105 163
0.456322 -0.374901 -0.638 119 138 181
0.457537 -0.374901 -0.638 119 138 181
0.459471 -0.375489 -0.639 115 134 177
0.460689 -0.375489 -0.639 120 135 174
0.461906 -0.375489 -0.639 106 121 160
0.463123 -0.375489 -0.639 96 105 144
0.46434 -0.375489 -0.639 96 105 144
0.465557 -0.375489 -0.639 122 127 157
0.466774 -0.375489 -0.639 109 114 144
0.467991 -0.375489 -0.639 136 139 158
0.469209 -0.375489 -0.639 171 174 193
0.470426 -0.375489 -0.639 177 176 192
0.471643 -0.375489 -0.639 173 172 188
0.47286 -0.375489 -0.639 172 173 191
0.474077 -0.375489 -0.639 170 171 189
0.475294 -0.375489 -0.639 174 175 195
0.476511 -0.375489 -0.639 173 174 194
0.477729 -0.375489 -0.639 169 170 188
0.478946 -0.375489 -0.639 171 172 190
0.480163 -0.375489 -0.639 172 173 193
0.480627 -0.374901 -0.638 163 164 184
0.481842 -0.374901 -0.638 147 152 172
0.483057 -0.374901 -0.638 142 147 167
0.484272 -0.374901 -0.638 160 165 187
0.485488 -0.374901 -0.638 167 172 194
0.486703 -0.374901 -0.638 171 176 196
0.487918 -0.374901 -0.638 172 177 197
0.489133 -0.374901 -0.638 173 179 195
0.490349 -0.374901 -0.638 174 180 196
0.492334 -0.375489 -0.639 175 178 195
0.493551 -0.375489 -0.639 175 178 195
0.494769 -0.375489 -0.639 179 182 199
0.495986 -0.375489 -0.639 183 182 198
0.496425 -0.374901 -0.638 160 159 175
0.500854 -0.375489 -0.639 179 182 197
0.502071 -0.375489 -0.639 175 178 193
0.503289 -0.375489 -0.639 149 159 186
0.504506 -0.375489 -0.639 103 113 140
0.505723 -0.375489 -0.639 81 94 136
0.50694 -0.375489 -0.639 107 120 162
0.508157 -0.375489 -0.639 108 124 175
0.509374 -0.375489 -0.639 119 135 186
0.510591 -0.375489 -0.639 94 117 169
0.511809 -0.375489 -0.639 70 93 145
0.513026 -0.375489 -0.639 69 94 151
0.515048 -0.376076 -0.64 72 97 154
0.516267 -0.376076 -0.64 80 106 165
0.517486 -0.376076 -0.64 73 99 158
0.518705 -0.376076 -0.64 70 92 149
0.519111 -0.375489 -0.639 69 91 148
0.520329 -0.375489 -0.639 92 110 160
0.521546 -0.375489 -0.639 118 136 186
0.522763 -0.375489 -0.639 122 136 181
0.52398 -0.375489 -0.639 100 114 159
0.525197 -0.375489 -0.639 98 110 150
0.526414 -0.375489 -0.639 122 134 174
0.527631 -0.375489 -0.639 149 158 191
0.528849 -0.375489 -0.639 155 164 197
0.526963 -0.364911 -0.621 119 103 104
0.49083 -0.336118 -0.572 145 105 97
0.48418 -0.33083 -0.563 145 105 97
0.480081 -0.327304 -0.557 143 105 94
0.475959 -0.323778 -0.551 146 108 97
0.47268 -0.32084 -0.546 149 109 99
0.47025 -0.31849 -0.542 149 109 99
0.468673 -0.316727 -0.539 156 109 99
0.467957 -0.315551 -0.537 156 112 101
0.467233 -0.314376 -0.535 163 111 98
0.466502 -0.313201 -0.533 165 113 100
0.465763 -0.312026 -0.531 169 113 100
0.465016 -0.31085 -0.529 170 114 101
0.465143 -0.310263 -0.528 173 117 102
0.465266 -0.309675 -0.527 173 117 102
0.465385 -0.309088 -0.526 175 118 101
0.4655 -0.3085 -0.525 177 120 103
0.4665 -0.3085 -0.525 179 122 103
0.46661 -0.307912 -0.524 179 122 103
0.466715 -0.307325 -0.523 177 119 99
0.466817 -0.306737 -0.522 180 122 102
0.467811 -0.306737 -0.522 182 124 104
0.467908 -0.30615 -0.521 183 125 105
0.4689 -0.30615 -0.521 185 127 105
0.469892 -0.30615 -0.521 186 128 106
0.469981 -0.305562 -0.52 187 129 107
0.470971 -0.305562 -0.52 187 129 107
0.471962 -0.305562 -0.52 188 130 108
0.472952 -0.305562 -0.52 192 134 112
0.473031 -0.304974 -0.519 194 136 114
0.47402 -0.304974 -0.519 195 137 115
0.475009 -0.304974 -0.519 196 138 116
0.47508 -0.304387 -0.518 195 137 115
0.476067 -0.304387 -0.518 191 133 111
0.477053 -0.304387 -0.518 189 131 109
0.477117 -0.303799 -0.517 189 131 109
0.478102 -0.303799 -0.517 190 130 106
0.479087 -0.303799 -0.517 190 130 106
0.480071 -0.303799 -0.517 187 129 105
0.481056 -0.303799 -0.517 188 130 106
0.482041 -0.303799 -0.517 190 132 108
0.483026 -0.303799 -0.517 188 130 106
0.48401 -0.303799 -0.517 185 129 106
0.484995 -0.303799 -0.517 184 128 105
0.48598 -0.303799 -0.517 184 128 105
0.486965 -0.303799 -0.517 182 126 103
0.48795 -0.303799 -0.517 178 124 98
0.488934 -0.303799 -0.517 175 121 95
0.489919 -0.303799 -0.517 173 119 93
0.490904 -0.303799 -0.517 174 120 94
0.49284 -0.304387 -0.518 175 121 97
0.493827 -0.304387 -0.518 174 120 96
0.494813 -0.304387 -0.518 172 117 97
0.496757 -0.304974 -0.519 173 118 98
0.497746 -0.304974 -0.519 169 118 97
0.499695 -0.305562 -0.52 167 116 95
0.501649 -0.30615 -0.521 161 114 94
0.503606 -0.306737 -0.522 158 111 91
0.505567 -0.307325 -0.523 154 113 93
0.5085 -0.3085 -0.525 153 112 92
0.51047 -0.309088 -0.526 150 114 92
0.513417 -0.310263 -0.528 149 113 91
0.516371 -0.311438 -0.53 148 111 92
0.519333 -0.312613 -0.532 147 110 91
0.523281 -0.314376 -0.535 146 109 90
0.52724 -0.316139 -0.538 147 110 91
1.13998 -0.373138 -0.635 203 205 192
0.0935333 -0.35961 -0.61 188 149 142
0.0940743 -0.357251 -0.606 190 151 144
0.0944429 -0.354304 -0.601 190 151 144
0.0946333 -0.350767 -0.595 189 154 150
0.09464 -0.34664 -0.588 189 154 150
0.0949457 -0.343692 -0.583 188 149 144
0.0950676 -0.340155 -0.577 187 148 143
0.0956667 -0.338387 -0.574 190 145 140
0.0964229 -0.337208 -0.572 188 143 138
0.0971714 -0.336029 -0.57 191 142 137
0.0980848 -0.335439 -0.569 189 140 135
0.09882 -0.33426 -0.567 187 137 130
0.0999 -0.33426 -0.567 184 133 129
0.100624 -0.333081 -0.565 186 135 131
0.10152 -0.332491 -0.564 187 136 132
0.102412 -0.331902 -0.563 185 135 128
0.103301 -0.331312 -0.562 184 134 127
0.104371 -0.331312 -0.562 182 132 125
0.105442 -0.331312 -0.562 182 132 125
0.106512 -0.331312 -0.562 185 132 126
0.107583 -0.331312 -0.562 184 131 125
0.10846 -0.330723 -0.561 185 132 126
0.109529 -0.330723 -0.561 187 134 128
0.1104 -0.330133 -0.56 182 132 125
0.111467 -0.330133 -0.56 180 130 123
0.112533 -0.330133 -0.56 179 129 122
0.113397 -0.329544 -0.559 178 128 121
0.114257 -0.328954 -0.558 181 131 124
0.11532 -0.328954 -0.558 181 131 124
0.116383 -0.328954 -0.558 178 128 121
0.117446 -0.328954 -0.558 179 129 122
0.118509 -0.328954 -0.558 182 129 123
0.119357 -0.328365 -0.557 177 124 118
0.120418 -0.328365 -0.557 176 123 117
0.121479 -0.328365 -0.557 176 123 117
0.12254 -0.328365 -0.557 172 119 113
0.123601 -0.328365 -0.557 172 119 113
0.124662 -0.328365 -0.557 170 117 111
0.125949 -0.328954 -0.558 168 115 109
0.127011 -0.328954 -0.558 167 114 108
0.128074 -0.328954 -0.558 166 113 107
0.129137 -0.328954 -0.558 159 109 102
0.1302 -0.328954 -0.558 159 109 102
0.131263 -0.328954 -0.558 159 109 102
0.132326 -0.328954 -0.558 158 108 101
0.133389 -0.328954 -0.558 158 108 101
0.134692 -0.329544 -0.559 155 105 98
