ply
format ascii 1.0
comment Created by Open3D
element vertex 1282
property double x
property double y
property double z
property uchar red
property uchar green
property uchar blue
end_header
0.0749248 -0.422258 -0.521 170 122 99
0.0759171 -0.422258 -0.521 170 122 99
0.0770571 -0.423069 -0.522 170 123 97
0.078201 -0.423879 -0.523 169 122 96
0.0793486 -0.42469 -0.524 167 121 95
0.0805 -0.4255 -0.525 166 120 94
0.0816552 -0.42631 -0.526 165 119 95
0.0828143 -0.427121 -0.527 164 118 94
0.0839771 -0.427931 -0.528 161 116 95
0.0853048 -0.429552 -0.53 160 115 94
0.0864771 -0.430363 -0.531 153 112 94
0.0876533 -0.431173 -0.532 149 108 90
0.0888333 -0.431984 -0.533 142 109 94
0.0901857 -0.433605 -0.535 140 107 92
0.0913752 -0.434415 -0.536 134 105 91
0.092741 -0.436036 -0.538 132 103 89
0.0941143 -0.437657 -0.54 125 103 92
0.0954952 -0.439278 -0.542 125 103 92
0.0968838 -0.440899 -0.544 124 99 94
0.109529 -0.454677 -0.561 48 36 38
0.110794 -0.455488 -0.562 77 71 73
0.112064 -0.456298 -0.563 94 88 90
0.113337 -0.457109 -0.564 104 102 103
0.114411 -0.457109 -0.564 111 109 110
0.115486 -0.457109 -0.564 118 113 119
0.11656 -0.457109 -0.564 126 121 127
0.117634 -0.457109 -0.564 135 133 138
0.118709 -0.457109 -0.564 144 142 147
0.11957 -0.456298 -0.563 150 149 157
0.120643 -0.456298 -0.563 154 153 161
0.121715 -0.456298 -0.563 154 154 162
0.122788 -0.456298 -0.563 135 135 143
0.12386 -0.456298 -0.563 97 97 105
0.124932 -0.456298 -0.563 149 149 157
0.126005 -0.456298 -0.563 146 145 150
0.127077 -0.456298 -0.563 119 118 123
0.12815 -0.456298 -0.563 138 133 137
0.129222 -0.456298 -0.563 184 179 183
0.130294 -0.456298 -0.563 195 189 191
0.131367 -0.456298 -0.563 194 188 190
0.132439 -0.456298 -0.563 190 192 204
0.133511 -0.456298 -0.563 191 193 205
0.134584 -0.456298 -0.563 196 194 205
0.135656 -0.456298 -0.563 198 196 207
0.136729 -0.456298 -0.563 188 195 205
0.137556 -0.455488 -0.562 156 163 173
0.138627 -0.455488 -0.562 106 125 158
0.139697 -0.455488 -0.562 79 98 131
0.140768 -0.455488 -0.562 104 125 168
0.141838 -0.455488 -0.562 126 147 190
0.142909 -0.455488 -0.562 176 185 214
0.143979 -0.455488 -0.562 195 204 233
0.14505 -0.455488 -0.562 212 213 234
0.14612 -0.455488 -0.562 216 217 238
0.14719 -0.455488 -0.562 207 209 224
0.148261 -0.455488 -0.562 177 179 194
0.149331 -0.455488 -0.562 160 164 176
0.150402 -0.455488 -0.562 189 193 205
0.151472 -0.455488 -0.562 164 184 211
0.152543 -0.455488 -0.562 131 151 178
0.153613 -0.455488 -0.562 104 144 193
0.154684 -0.455488 -0.562 97 137 186
0.155754 -0.455488 -0.562 98 141 192
0.156825 -0.455488 -0.562 103 146 197
0.157895 -0.455488 -0.562 110 146 194
0.158966 -0.455488 -0.562 133 169 217
0.160036 -0.455488 -0.562 185 206 237
0.161107 -0.455488 -0.562 193 214 245
0.162177 -0.455488 -0.562 195 207 229
0.163248 -0.455488 -0.562 195 207 229
0.177164 -0.455488 -0.562 234 237 252
0.178234 -0.455488 -0.562 235 238 253
0.179305 -0.455488 -0.562 237 240 255
0.43578 -0.45954 -0.567 223 228 234
0.43686 -0.45954 -0.567 220 223 230
0.43794 -0.45954 -0.567 222 225 232
0.43902 -0.45954 -0.567 221 224 231
0.4401 -0.45954 -0.567 219 222 229
0.44118 -0.45954 -0.567 218 221 226
0.44226 -0.45954 -0.567 219 222 227
0.44334 -0.45954 -0.567 220 223 228
0.44442 -0.45954 -0.567 221 224 229
0.4455 -0.45954 -0.567 218 221 228
0.44658 -0.45954 -0.567 218 221 228
0.44845 -0.46035 -0.568 221 221 229
0.449531 -0.46035 -0.568 220 220 228
0.450613 -0.46035 -0.568 222 223 228
0.451695 -0.46035 -0.568 219 220 225
0.452777 -0.46035 -0.568 216 221 227
0.453859 -0.46035 -0.568 219 224 230
0.454941 -0.46035 -0.568 219 222 227
0.456023 -0.46035 -0.568 215 218 223
0.457105 -0.46035 -0.568 213 213 221
0.458187 -0.46035 -0.568 214 214 222
0.459269 -0.46035 -0.568 210 212 225
0.46035 -0.46035 -0.568 198 200 213
0.461432 -0.46035 -0.568 160 173 190
0.462514 -0.46035 -0.568 140 153 170
0.464412 -0.461161 -0.569 124 142 166
0.465496 -0.461161 -0.569 117 135 159
0.46658 -0.461161 -0.569 142 159 177
0.467664 -0.461161 -0.569 190 207 225
0.468748 -0.461161 -0.569 203 213 222
0.469831 -0.461161 -0.569 198 208 217
0.470915 -0.461161 -0.569 184 195 215
0.471999 -0.461161 -0.569 184 195 215
0.473083 -0.461161 -0.569 155 181 216
0.474167 -0.461161 -0.569 120 146 181
0.47525 -0.461161 -0.569 93 134 180
0.476334 -0.461161 -0.569 102 143 189
0.477418 -0.461161 -0.569 86 133 179
0.478502 -0.461161 -0.569 85 132 178
0.479586 -0.461161 -0.569 105 149 198
0.48067 -0.461161 -0.569 105 149 198
0.481753 -0.461161 -0.569 103 147 196
0.481989 -0.46035 -0.568 95 133 180
0.48307 -0.46035 -0.568 102 140 187
0.484152 -0.46035 -0.568 152 176 204
0.485234 -0.46035 -0.568 158 182 210
0.486316 -0.46035 -0.568 140 151 153
0.487398 -0.46035 -0.568 176 187 189
0.48848 -0.46035 -0.568 197 197 205
0.490424 -0.461161 -0.569 198 198 206
0.491508 -0.461161 -0.569 146 154 175
0.492591 -0.461161 -0.569 111 119 140
0.493675 -0.461161 -0.569 83 99 132
0.494759 -0.461161 -0.569 90 106 139
0.495843 -0.461161 -0.569 101 118 146
0.4978 -0.461971 -0.57 126 143 171
0.498886 -0.461971 -0.57 157 170 186
0.499971 -0.461971 -0.57 181 194 210
0.500178 -0.461161 -0.569 192 199 207
0.501262 -0.461161 -0.569 189 196 204
0.502346 -0.461161 -0.569 198 198 206
0.50343 -0.461161 -0.569 199 199 207
0.504513 -0.461161 -0.569 199 199 209
0.505597 -0.461161 -0.569 195 195 205
0.506681 -0.461161 -0.569 189 194 200
0.506872 -0.46035 -0.568 192 195 204
0.507954 -0.46035 -0.568 192 194 206
0.509036 -0.46035 -0.568 190 192 204
0.510118 -0.46035 -0.568 171 173 185
0.5112 -0.46035 -0.568 181 183 195
0.512282 -0.46035 -0.568 190 193 198
0.513364 -0.46035 -0.568 183 186 191
0.514446 -0.46035 -0.568 187 188 190
0.515528 -0.46035 -0.568 189 190 192
0.51661 -0.46035 -0.568 185 186 190
0.517691 -0.46035 -0.568 183 184 188
0.525471 -0.444951 -0.549 130 109 104
0.521722 -0.440899 -0.544 131 110 105
0.517953 -0.436847 -0.539 133 110 104
0.514166 -0.432794 -0.534 132 109 103
0.511324 -0.429552 -0.53 137 110 101
0.509433 -0.427121 -0.527 141 114 105
0.506563 -0.423879 -0.523 144 114 103
0.504648 -0.421448 -0.52 147 117 106
0.502721 -0.419016 -0.517 153 117 105
0.501757 -0.417395 -0.515 153 117 105
0.49981 -0.414964 -0.512 154 116 103
0.498829 -0.413343 -0.51 154 116 103
0.49686 -0.410911 -0.507 158 119 104
0.496844 -0.410101 -0.506 163 124 109
0.49584 -0.40848 -0.504 170 125 104
0.495814 -0.40767 -0.503 168 123 102
0.494797 -0.406049 -0.501 170 125 104
0.494762 -0.405238 -0.5 172 127 106
0.493731 -0.403617 -0.498 172 125 105
0.493687 -0.402807 -0.497 173 126 106
0.493638 -0.401996 -0.496 173 127 104
0.493586 -0.401186 -0.495 171 125 102
0.49353 -0.400375 -0.494 169 123 100
0.49347 -0.399565 -0.493 170 124 101
0.494409 -0.399565 -0.493 171 125 102
0.494343 -0.398754 -0.492 172 126 103
0.494273 -0.397944 -0.491 176 128 106
0.4942 -0.397133 -0.49 178 130 108
0.494123 -0.396323 -0.489 178 130 108
0.494042 -0.395512 -0.488 177 129 107
0.494971 -0.395512 -0.488 176 128 105
0.494885 -0.394702 -0.487 179 131 108
0.495812 -0.394702 -0.487 180 133 107
0.49674 -0.394702 -0.487 178 131 105
0.496646 -0.393891 -0.486 179 132 106
0.497571 -0.393891 -0.486 181 134 108
0.498497 -0.393891 -0.486 181 134 108
0.498395 -0.393081 -0.485 183 136 110
0.49829 -0.39227 -0.484 179 132 106
0.499211 -0.39227 -0.484 179 132 106
0.500133 -0.39227 -0.484 181 131 104
0.50002 -0.39146 -0.483 185 135 108
0.50094 -0.39146 -0.483 184 134 107
0.50186 -0.39146 -0.483 180 130 103
0.501739 -0.39065 -0.482 180 130 103
0.502657 -0.39065 -0.482 183 133 106
0.503575 -0.39065 -0.482 181 134 106
0.504493 -0.39065 -0.482 180 133 105
0.504363 -0.389839 -0.481 183 136 108
0.504229 -0.389029 -0.48 182 135 107
0.505143 -0.389029 -0.48 179 132 102
0.505003 -0.388218 -0.479 181 134 104
0.505915 -0.388218 -0.479 181 134 104
0.506828 -0.388218 -0.479 179 132 102
0.50774 -0.388218 -0.479 179 132 102
0.50759 -0.387408 -0.478 178 131 101
0.508501 -0.387408 -0.478 177 131 98
0.509411 -0.387408 -0.478 176 130 97
0.510322 -0.387408 -0.478 176 130 97
0.510163 -0.386597 -0.477 176 130 97
0.511071 -0.386597 -0.477 177 131 98
0.51198 -0.386597 -0.477 178 132 99
0.511813 -0.385787 -0.476 179 130 98
0.51272 -0.385787 -0.476 176 127 95
0.513627 -0.385787 -0.476 176 127 95
0.514533 -0.385787 -0.476 178 129 97
0.51544 -0.385787 -0.476 179 130 98
0.516347 -0.385787 -0.476 178 129 97
0.517253 -0.385787 -0.476 175 126 94
0.51816 -0.385787 -0.476 172 123 91
0.517976 -0.384976 -0.475 174 125 95
0.518881 -0.384976 -0.475 176 127 97
0.519786 -0.384976 -0.475 176 126 99
0.52069 -0.384976 -0.475 175 125 98
0.522693 -0.385787 -0.476 176 126 99
0.5236 -0.385787 -0.476 176 126 99
0.524507 -0.385787 -0.476 174 125 95
0.525413 -0.385787 -0.476 170 121 91
0.52632 -0.385787 -0.476 165 121 92
0.527227 -0.385787 -0.476 163 119 90
0.528133 -0.385787 -0.476 162 118 89
0.530151 -0.386597 -0.477 161 117 88
0.532173 -0.387408 -0.478 161 117 90
0.533084 -0.387408 -0.478 160 116 89
0.535111 -0.388218 -0.479 156 115 87
0.536024 -0.388218 -0.479 155 114 86
0.539178 -0.389839 -0.481 156 115 87
0.541217 -0.39065 -0.482 156 115 87
0.54326 -0.39146 -0.483 155 115 89
0.546433 -0.393081 -0.485 154 114 88
0.550743 -0.395512 -0.488 152 112 86
0.0211248 -0.439498 -0.541 192 153 122
0.0220324 -0.437061 -0.538 193 152 122
0.0228857 -0.433811 -0.534 192 151 121
0.023679 -0.42975 -0.529 189 148 120
0.0245467 -0.427312 -0.526 187 146 118
0.0254029 -0.424875 -0.523 188 146 121
0.0262981 -0.42325 -0.521 192 150 125
0.0271857 -0.421626 -0.519 196 153 121
0.02812 -0.420813 -0.518 197 154 122
0.0290505 -0.420001 -0.517 199 156 124
0.0299771 -0.419189 -0.516 200 157 125
0.0309 -0.418376 -0.515 202 159 127
0.031819 -0.417564 -0.514 203 160 128
0.0327981 -0.417564 -0.514 205 162 128
0.0337114 -0.416751 -0.513 205 162 128
0.0346886 -0.416751 -0.513 206 161 128
0.0356657 -0.416751 -0.513 203 158 125
0.0365714 -0.415939 -0.512 201 156 123
0.0375467 -0.415939 -0.512 201 156 123
0.0385219 -0.415939 -0.512 201 156 123
0.0394971 -0.415939 -0.512 203 158 125
0.0403933 -0.415127 -0.511 204 160 125
0.0413667 -0.415127 -0.511 201 157 122
0.04234 -0.415127 -0.511 202 157 126
0.0433133 -0.415127 -0.511 201 156 125
0.0442867 -0.415127 -0.511 202 157 124
0.0451714 -0.414314 -0.51 198 153 120
0.0461429 -0.414314 -0.51 195 150 119
0.0471143 -0.414314 -0.51 196 151 120
0.0480857 -0.414314 -0.51 195 150 119
0.0490571 -0.414314 -0.51 195 150 119
0.0500286 -0.414314 -0.51 191 146 115
0.051 -0.414314 -0.51 187 142 111
0.0519714 -0.414314 -0.51 188 143 114
0.0529429 -0.414314 -0.51 189 144 115
0.05402 -0.415127 -0.511 188 143 114
0.0549933 -0.415127 -0.511 189 144 115
0.0559667 -0.415127 -0.511 189 142 114
0.05694 -0.415127 -0.511 186 139 111
0.0580267 -0.415939 -0.512 186 139 111
0.0590019 -0.415939 -0.512 186 139 111
0.0599771 -0.415939 -0.512 186 139 109
0.0610714 -0.416751 -0.513 186 139 109
0.0620486 -0.416751 -0.513 185 138 110
0.0630257 -0.416751 -0.513 183 136 108
0.0641276 -0.417564 -0.514 179 132 104
0.0651067 -0.417564 -0.514 176 129 101
0.0662143 -0.418376 -0.515 177 130 104
0.0673257 -0.419189 -0.516 177 130 104
0.0683086 -0.419189 -0.516 177 130 104
0.0694257 -0.420001 -0.517 176 129 103
0.0704105 -0.420001 -0.517 175 128 102
0.0715333 -0.420813 -0.518 172 125 99
0.07266 -0.421626 -0.519 169 122 96
0.0737905 -0.422438 -0.52 169 122 96
0.0749248 -0.42325 -0.521 169 123 99
0.0759171 -0.42325 -0.521 170 124 100
0.0770571 -0.424063 -0.522 170 124 100
0.078201 -0.424875 -0.523 168 122 98
0.0793486 -0.425688 -0.524 167 119 96
0.0805 -0.4265 -0.525 166 118 95
0.0816552 -0.427312 -0.526 163 117 94
0.0828143 -0.428125 -0.527 161 115 92
0.0839771 -0.428937 -0.528 156 114 92
0.0851438 -0.42975 -0.529 153 111 89
0.0864771 -0.431374 -0.531 147 110 92
0.0876533 -0.432187 -0.532 146 109 91
0.0888333 -0.432999 -0.533 141 107 95
0.0901857 -0.434624 -0.535 141 107 95
0.0913752 -0.435436 -0.536 137 105 94
0.092741 -0.437061 -0.538 133 101 90
0.0941143 -0.438686 -0.54 125 103 92
0.0954952 -0.44031 -0.542 124 102 91
0.0968838 -0.441935 -0.544 122 99 93
0.110794 -0.456558 -0.562 88 82 86
0.111865 -0.456558 -0.562 96 90 94
0.113136 -0.45737 -0.563 106 105 103
0.114411 -0.458183 -0.564 115 114 112
0.115486 -0.458183 -0.564 123 118 124
0.11656 -0.458183 -0.564 131 126 132
0.117426 -0.45737 -0.563 139 136 143
0.118498 -0.45737 -0.563 148 145 152
0.11957 -0.45737 -0.563 154 153 161
0.120429 -0.456558 -0.562 160 159 167
0.121499 -0.456558 -0.562 162 161 169
0.12257 -0.456558 -0.562 153 152 160
0.12364 -0.456558 -0.562 140 139 147
0.12471 -0.456558 -0.562 167 166 174
0.125781 -0.456558 -0.562 172 170 175
0.126851 -0.456558 -0.562 133 131 136
0.127922 -0.456558 -0.562 117 111 113
0.128992 -0.456558 -0.562 176 170 172
0.130063 -0.456558 -0.562 194 185 186
0.131133 -0.456558 -0.562 200 191 192
0.132204 -0.456558 -0.562 192 196 207
0.133274 -0.456558 -0.562 194 198 209
0.134345 -0.456558 -0.562 200 197 208
0.135415 -0.456558 -0.562 200 197 208
0.136486 -0.456558 -0.562 195 197 209
0.137556 -0.456558 -0.562 182 184 196
0.138627 -0.456558 -0.562 136 157 184
0.139697 -0.456558 -0.562 98 119 146
0.140768 -0.456558 -0.562 78 102 146
0.141838 -0.456558 -0.562 88 112 156
0.142909 -0.456558 -0.562 157 170 205
0.143979 -0.456558 -0.562 193 206 241
0.14505 -0.456558 -0.562 212 215 234
0.14612 -0.456558 -0.562 204 207 226
0.14719 -0.456558 -0.562 190 192 204
0.147997 -0.455746 -0.561 172 174 186
0.149066 -0.455746 -0.561 180 186 202
0.150134 -0.455746 -0.561 204 210 226
0.151203 -0.455746 -0.561 159 179 212
0.152271 -0.455746 -0.561 124 144 177
0.15334 -0.455746 -0.561 94 139 196
0.183587 -0.456558 -0.562 236 239 248
0.184657 -0.456558 -0.562 239 244 250
0.185728 -0.456558 -0.562 239 244 250
0.186798 -0.456558 -0.562 230 234 243
0.187869 -0.456558 -0.562 229 233 242
0.188939 -0.456558 -0.562 229 232 241
0.19001 -0.456558 -0.562 208 211 220
0.19108 -0.456558 -0.562 183 186 195
0.19215 -0.456558 -0.562 204 207 216
0.193221 -0.456558 -0.562 240 243 252
0.194291 -0.456558 -0.562 238 241 250
0.422074 -0.459808 -0.566 223 229 253
0.423152 -0.459808 -0.566 209 215 239
0.42423 -0.459808 -0.566 157 164 190
0.425309 -0.459808 -0.566 154 161 187
0.426387 -0.459808 -0.566 159 171 193
0.427465 -0.459808 -0.566 177 189 211
0.428543 -0.459808 -0.566 197 206 221
0.429621 -0.459808 -0.566 208 217 232
0.430699 -0.459808 -0.566 208 217 232
0.431777 -0.459808 -0.566 222 227 233
0.432855 -0.459808 -0.566 220 225 231
0.433933 -0.459808 -0.566 223 226 235
0.435011 -0.459808 -0.566 221 224 233
0.43609 -0.459808 -0.566 222 225 234
0.44658 -0.46062 -0.567 220 220 230
0.44766 -0.46062 -0.567 219 219 229
0.44874 -0.46062 -0.567 220 220 230
0.44982 -0.46062 -0.567 220 223 230
0.4509 -0.46062 -0.567 217 220 227
0.45198 -0.46062 -0.567 220 221 226
0.45306 -0.46062 -0.567 220 221 226
0.45414 -0.46062 -0.567 219 218 223
0.45522 -0.46062 -0.567 218 217 222
0.457105 -0.461432 -0.568 218 219 224
0.458187 -0.461432 -0.568 217 218 223
0.459269 -0.461432 -0.568 192 201 216
0.46035 -0.461432 -0.568 169 178 193
0.461432 -0.461432 -0.568 134 150 176
0.462514 -0.461432 -0.568 115 131 157
0.463596 -0.461432 -0.568 108 124 147
0.464678 -0.461432 -0.568 115 131 154
0.46576 -0.461432 -0.568 166 176 186
0.466842 -0.461432 -0.568 205 215 225
0.467924 -0.461432 -0.568 206 213 219
0.469006 -0.461432 -0.568 202 209 215
0.470088 -0.461432 -0.568 189 200 218
0.47117 -0.461432 -0.568 178 189 207
0.472251 -0.461432 -0.568 146 170 204
0.473333 -0.461432 -0.568 114 138 172
0.474415 -0.461432 -0.568 106 143 187
0.475497 -0.461432 -0.568 114 151 195
0.476579 -0.461432 -0.568 96 139 181
0.477661 -0.461432 -0.568 86 129 171
0.478743 -0.461432 -0.568 105 148 191
0.479825 -0.461432 -0.568 108 151 194
0.480907 -0.461432 -0.568 108 151 194
0.481989 -0.461432 -0.568 99 136 180
0.48307 -0.461432 -0.568 96 133 177
0.484152 -0.461432 -0.568 126 150 176
0.485234 -0.461432 -0.568 128 152 178
0.486316 -0.461432 -0.568 135 144 149
0.487398 -0.461432 -0.568 187 196 201
0.48848 -0.461432 -0.568 200 200 212
0.489562 -0.461432 -0.568 203 203 215
0.490644 -0.461432 -0.568 188 195 211
0.491726 -0.461432 -0.568 167 174 190
0.492808 -0.461432 -0.568 119 136 162
0.494759 -0.462245 -0.569 95 112 138
0.495843 -0.462245 -0.569 79 102 133
0.496927 -0.462245 -0.569 85 108 139
0.49801 -0.462245 -0.569 119 135 158
0.499094 -0.462245 -0.569 155 171 194
0.500178 -0.462245 -0.569 190 197 207
0.501262 -0.462245 -0.569 190 197 207
0.501463 -0.461432 -0.568 194 195 200
0.502545 -0.461432 -0.568 192 193 198
0.503627 -0.461432 -0.568 198 198 210
0.504709 -0.461432 -0.568 197 197 209
0.50579 -0.461432 -0.568 194 197 206
0.506872 -0.461432 -0.568 187 190 199
0.507954 -0.461432 -0.568 188 190 202
0.509036 -0.461432 -0.568 185 187 199
0.523101 -0.461432 -0.568 78 88 113
0.524183 -0.461432 -0.568 72 82 107
0.525265 -0.461432 -0.568 90 102 118
0.526347 -0.461432 -0.568 102 114 130
0.526429 -0.44681 -0.55 130 110 103
0.522681 -0.442748 -0.545 130 110 103
0.518914 -0.438686 -0.54 133 110 104
0.515129 -0.434624 -0.535 133 110 104
0.512289 -0.431374 -0.531 137 110 101
0.5104 -0.428937 -0.528 141 114 105
0.507531 -0.425688 -0.524 145 115 104
0.505618 -0.42325 -0.521 145 115 104
0.503693 -0.420813 -0.518 151 115 101
0.501757 -0.418376 -0.515 152 116 102
0.500786 -0.416751 -0.513 153 117 103
0.499807 -0.415127 -0.511 153 117 103
0.49784 -0.41269 -0.508 155 119 105
0.496844 -0.411065 -0.506 158 122 108
0.496824 -0.410252 -0.505 170 125 102
0.495814 -0.408628 -0.503 168 123 100
0.495785 -0.407815 -0.502 169 124 101
0.494762 -0.40619 -0.5 171 126 103
0.494723 -0.405378 -0.499 173 127 104
0.49468 -0.404566 -0.498 174 128 105
0.493638 -0.402941 -0.496 174 128 104
0.493586 -0.402129 -0.495 173 127 103
0.49353 -0.401316 -0.494 174 128 104
0.49347 -0.400504 -0.493 175 129 105
0.494409 -0.400504 -0.493 173 127 103
0.494343 -0.399691 -0.492 175 129 105
0.494273 -0.398879 -0.491 177 129 106
0.4942 -0.398067 -0.49 177 129 106
0.494123 -0.397254 -0.489 179 131 108
0.494042 -0.396442 -0.488 180 132 109
0.494971 -0.396442 -0.488 178 130 107
0.494885 -0.39563 -0.487 179 131 108
0.495812 -0.39563 -0.487 180 133 107
0.49674 -0.39563 -0.487 178 131 105
0.496646 -0.394817 -0.486 180 133 107
0.497571 -0.394817 -0.486 184 137 111
0.497471 -0.394005 -0.485 186 139 113
0.498395 -0.394005 -0.485 183 136 110
0.499319 -0.394005 -0.485 181 134 108
0.499211 -0.393192 -0.484 181 134 108
0.4991 -0.39238 -0.483 180 133 107
0.50002 -0.39238 -0.483 181 134 108
0.50094 -0.39238 -0.483 179 132 106
0.500821 -0.391568 -0.482 176 129 103
0.501739 -0.391568 -0.482 182 132 105
0.502657 -0.391568 -0.482 185 135 108
0.50253 -0.390755 -0.481 188 138 111
0.503447 -0.390755 -0.481 186 136 109
0.504363 -0.390755 -0.481 186 136 109
0.504229 -0.389943 -0.48 185 135 108
0.505143 -0.389943 -0.48 182 133 103
0.505003 -0.38913 -0.479 183 134 104
0.505915 -0.38913 -0.479 182 133 103
0.506828 -0.38913 -0.479 181 132 102
0.50668 -0.388318 -0.478 181 132 102
0.50759 -0.388318 -0.478 180 131 101
0.508501 -0.388318 -0.478 179 130 98
0.508346 -0.387506 -0.477 178 129 97
0.509254 -0.387506 -0.477 177 128 96
0.510163 -0.387506 -0.477 176 127 95
0.511071 -0.387506 -0.477 178 129 97
0.510907 -0.386693 -0.476 180 131 99
0.511813 -0.386693 -0.476 178 129 99
0.51272 -0.386693 -0.476 177 128 98
0.513627 -0.386693 -0.476 176 127 95
0.514533 -0.386693 -0.476 177 128 96
0.51544 -0.386693 -0.476 178 129 97
0.516347 -0.386693 -0.476 177 128 96
0.516167 -0.385881 -0.475 177 128 96
0.517071 -0.385881 -0.475 177 128 96
0.517976 -0.385881 -0.475 175 126 96
0.518881 -0.385881 -0.475 175 126 96
0.519786 -0.385881 -0.475 175 125 98
0.52069 -0.385881 -0.475 174 124 97
0.521595 -0.385881 -0.475 176 126 99
0.5225 -0.385881 -0.475 177 127 100
0.523405 -0.385881 -0.475 174 125 95
0.52431 -0.385881 -0.475 171 122 92
0.525214 -0.385881 -0.475 168 123 94
0.526119 -0.385881 -0.475 165 120 91
0.528133 -0.386693 -0.476 161 117 88
0.52904 -0.386693 -0.476 160 116 87
0.53106 -0.387506 -0.477 160 116 87
0.531969 -0.387506 -0.477 160 116 87
0.533994 -0.388318 -0.478 159 115 88
0.536024 -0.38913 -0.479 158 114 87
0.536936 -0.38913 -0.479 158 117 89
0.540094 -0.390755 -0.481 157 116 88
0.542135 -0.391568 -0.482 155 115 89
0.54418 -0.39238 -0.483 154 114 88
0.547357 -0.394005 -0.485 152 112 86
0.0201314 -0.441343 -0.542 194 153 121
0.0210467 -0.4389 -0.539 192 151 119
0.0219095 -0.435643 -0.535 193 150 118
0.0227143 -0.431571 -0.53 192 149 117
0.0235895 -0.429129 -0.527 190 146 119
0.0244533 -0.426686 -0.524 189 145 118
0.0253057 -0.424243 -0.521 191 146 123
0.0261971 -0.422614 -0.519 195 150 127
0.0271333 -0.4218 -0.518 196 153 121
0.0280114 -0.420171 -0.516 197 154 122
0.0289943 -0.420171 -0.516 199 156 124
0.029919 -0.419357 -0.515 200 157 125
0.03084 -0.418543 -0.514 202 159 127
0.0317571 -0.417729 -0.513 204 161 129
0.0327343 -0.417729 -0.513 205 162 130
0.0337114 -0.417729 -0.513 204 161 129
0.034621 -0.416914 -0.512 206 161 128
0.0355962 -0.416914 -0.512 203 158 125
0.0365 -0.4161 -0.511 200 155 124
0.0374733 -0.4161 -0.511 199 154 123
0.0384467 -0.4161 -0.511 199 154 123
0.03942 -0.4161 -0.511 201 156 125
0.0403933 -0.4161 -0.511 203 158 125
0.0412857 -0.415286 -0.51 202 157 124
0.0422571 -0.415286 -0.51 203 158 127
0.0432286 -0.415286 -0.51 201 156 125
0.0442 -0.415286 -0.51 198 153 122
0.0451714 -0.415286 -0.51 194 149 118
0.0461429 -0.415286 -0.51 190 145 114
0.0471143 -0.415286 -0.51 192 147 116
0.0479914 -0.414471 -0.509 194 147 117
0.0490571 -0.415286 -0.51 194 147 117
0.0500286 -0.415286 -0.51 191 144 116
0.051 -0.415286 -0.51 188 141 113
0.0519714 -0.415286 -0.51 190 143 115
0.0529429 -0.415286 -0.51 190 143 115
0.0539143 -0.415286 -0.51 188 141 113
0.0548857 -0.415286 -0.51 189 142 114
0.0559667 -0.4161 -0.511 188 141 113
0.05694 -0.4161 -0.511 185 138 110
0.0579133 -0.4161 -0.511 187 140 110
0.0590019 -0.416914 -0.512 187 140 110
0.0599771 -0.416914 -0.512 187 140 110
0.0609524 -0.416914 -0.512 187 140 110
0.0619276 -0.416914 -0.512 187 140 110
0.0630257 -0.417729 -0.513 184 137 107
0.0640029 -0.417729 -0.513 179 132 104
0.0651067 -0.418543 -0.514 175 128 100
0.0660857 -0.418543 -0.514 177 130 104
0.0671952 -0.419357 -0.515 179 132 106
0.0683086 -0.420171 -0.516 179 132 106
0.0694257 -0.420986 -0.517 177 130 104
0.0704105 -0.420986 -0.517 175 128 102
0.0715333 -0.4218 -0.518 172 125 99
0.07266 -0.422614 -0.519 170 122 99
0.0737905 -0.423429 -0.52 171 123 100
0.0749248 -0.424243 -0.521 171 126 103
0.0759171 -0.424243 -0.521 172 127 104
0.0770571 -0.425057 -0.522 173 127 104
0.078201 -0.425871 -0.523 170 124 101
0.0793486 -0.426686 -0.524 167 119 97
0.0805 -0.4275 -0.525 165 117 95
0.0816552 -0.428314 -0.526 162 116 93
0.0828143 -0.429129 -0.527 160 114 91
0.0839771 -0.429943 -0.528 153 112 92
0.0851438 -0.430757 -0.529 150 109 89
0.0864771 -0.432386 -0.531 145 109 93
0.0876533 -0.4332 -0.532 143 107 91
0.089 -0.434829 -0.534 138 106 95
0.0901857 -0.435643 -0.535 137 105 94
0.0913752 -0.436457 -0.536 136 103 94
0.092741 -0.438086 -0.538 132 99 90
0.0941143 -0.439714 -0.54 122 99 91
0.0954952 -0.441343 -0.542 122 99 91
0.109333 -0.456 -0.56 84 73 79
0.110597 -0.456814 -0.561 91 86 90
0.111865 -0.457629 -0.562 99 94 98
0.113136 -0.458443 -0.563 108 107 105
0.114209 -0.458443 -0.563 119 118 116
0.115281 -0.458443 -0.563 129 122 129
0.116353 -0.458443 -0.563 134 127 134
0.117426 -0.458443 -0.563 143 138 145
0.118288 -0.457629 -0.562 154 149 156
0.119358 -0.457629 -0.562 158 155 164
0.120429 -0.457629 -0.562 164 161 170
0.121499 -0.457629 -0.562 166 165 173
0.12257 -0.457629 -0.562 166 165 173
0.12364 -0.457629 -0.562 167 166 174
0.12471 -0.457629 -0.562 174 173 181
0.125781 -0.457629 -0.562 185 183 188
0.126851 -0.457629 -0.562 168 166 171
0.127922 -0.457629 -0.562 142 136 138
0.128992 -0.457629 -0.562 169 163 165
0.130063 -0.457629 -0.562 177 168 169
0.131133 -0.457629 -0.562 202 193 194
0.132204 -0.457629 -0.562 193 199 211
0.133274 -0.457629 -0.562 195 201 213
0.134345 -0.457629 -0.562 202 198 212
0.135415 -0.457629 -0.562 204 200 214
0.136486 -0.457629 -0.562 200 200 212
0.137556 -0.457629 -0.562 196 196 208
0.138627 -0.457629 -0.562 163 181 201
0.139697 -0.457629 -0.562 134 152 172
0.140768 -0.457629 -0.562 80 105 146
0.141838 -0.457629 -0.562 70 95 136
0.142909 -0.457629 -0.562 119 134 175
0.143979 -0.457629 -0.562 175 190 231
0.144791 -0.456814 -0.561 206 213 231
0.14586 -0.456814 -0.561 176 183 201
0.146929 -0.456814 -0.561 165 169 180
0.147997 -0.456814 -0.561 177 181 192
0.149066 -0.456814 -0.561 183 195 219
0.150134 -0.456814 -0.561 189 201 225
0.177917 -0.456814 -0.561 233 239 255
0.178986 -0.456814 -0.561 232 238 254
0.181123 -0.456814 -0.561 235 238 253
0.182191 -0.456814 -0.561 237 237 247
0.18326 -0.456814 -0.561 240 240 248
0.184329 -0.456814 -0.561 237 241 250
0.410567 -0.460071 -0.565 145 183 230
0.439324 -0.460886 -0.566 222 225 234
0.440402 -0.460886 -0.566 224 227 236
0.44148 -0.460886 -0.566 221 224 233
0.442558 -0.460886 -0.566 223 223 233
0.443636 -0.460886 -0.566 223 223 233
0.444714 -0.460886 -0.566 218 216 227
0.445792 -0.460886 -0.566 221 219 230
0.44687 -0.460886 -0.566 217 217 227
0.44874 -0.4617 -0.567 219 219 229
0.44982 -0.4617 -0.567 218 221 230
0.4509 -0.4617 -0.567 217 220 229
0.45198 -0.4617 -0.567 219 222 229
0.45306 -0.4617 -0.567 220 223 230
0.45414 -0.4617 -0.567 223 218 225
0.45522 -0.4617 -0.567 223 218 225
0.4563 -0.4617 -0.567 216 215 223
0.45738 -0.4617 -0.567 209 208 216
0.45846 -0.4617 -0.567 168 185 205
0.45954 -0.4617 -0.567 132 149 169
0.46062 -0.4617 -0.567 104 126 163
0.4617 -0.4617 -0.567 100 122 159
0.46278 -0.4617 -0.567 119 133 159
0.46386 -0.4617 -0.567 130 144 170
0.46576 -0.462514 -0.568 175 182 188
0.466842 -0.462514 -0.568 203 210 216
0.467924 -0.462514 -0.568 212 215 224
0.46818 -0.4617 -0.567 210 213 222
0.46926 -0.4617 -0.567 192 203 221
0.47034 -0.4617 -0.567 169 180 198
0.47142 -0.4617 -0.567 126 149 181
0.4725 -0.4617 -0.567 114 137 169
0.47358 -0.4617 -0.567 109 142 183
0.475497 -0.462514 -0.568 125 158 199
0.476579 -0.462514 -0.568 106 145 184
0.477661 -0.462514 -0.568 104 143 182
0.478743 -0.462514 -0.568 116 155 196
0.479825 -0.462514 -0.568 118 157 198
0.480907 -0.462514 -0.568 118 157 198
0.481989 -0.462514 -0.568 101 136 176
0.48222 -0.4617 -0.567 98 133 173
0.4833 -0.4617 -0.567 105 126 155
0.48438 -0.4617 -0.567 106 127 156
0.486316 -0.462514 -0.568 149 158 167
0.487398 -0.462514 -0.568 191 200 209
0.48848 -0.462514 -0.568 201 203 216
0.489562 -0.462514 -0.568 197 199 212
0.490644 -0.462514 -0.568 197 201 212
0.491726 -0.462514 -0.568 194 198 209
0.492808 -0.462514 -0.568 165 178 195
0.49389 -0.462514 -0.568 132 145 162
0.494971 -0.462514 -0.568 90 111 140
0.496053 -0.462514 -0.568 79 100 129
0.497135 -0.462514 -0.568 81 100 130
0.498217 -0.462514 -0.568 127 146 176
0.499299 -0.462514 -0.568 187 194 210
0.500381 -0.462514 -0.568 188 195 211
0.501463 -0.462514 -0.568 194 194 202
0.502545 -0.462514 -0.568 191 191 199
0.503627 -0.462514 -0.568 194 192 203
0.504709 -0.462514 -0.568 196 194 205
0.50579 -0.462514 -0.568 189 192 201
0.50598 -0.4617 -0.567 188 188 200
0.50706 -0.4617 -0.567 189 188 202
0.50814 -0.4617 -0.567 184 183 197
0.50922 -0.4617 -0.567 145 144 158
0.5103 -0.4617 -0.567 141 140 154
0.51138 -0.4617 -0.567 164 166 178
0.51246 -0.4617 -0.567 180 182 194
0.51354 -0.4617 -0.567 185 188 195
0.51462 -0.4617 -0.567 183 186 193
0.5157 -0.4617 -0.567 184 187 196
0.51678 -0.4617 -0.567 173 176 185
0.51786 -0.4617 -0.567 173 175 190
0.51894 -0.4617 -0.567 181 183 198
0.52002 -0.4617 -0.567 170 172 193
0.5211 -0.4617 -0.567 144 146 167
0.52218 -0.4617 -0.567 83 93 118
0.52326 -0.4617 -0.567 82 92 117
0.527386 -0.448671 -0.551 133 110 104
0.52364 -0.4446 -0.546 132 109 103
0.519875 -0.440529 -0.541 136 111 106
0.516091 -0.436457 -0.536 137 112 107
0.513253 -0.4332 -0.532 139 112 103
0.5104 -0.429943 -0.528 143 116 107
0.5085 -0.4275 -0.525 144 114 103
0.506589 -0.425057 -0.522 144 114 103
0.503693 -0.4218 -0.518 149 116 101
0.501757 -0.419357 -0.515 151 118 103
0.500786 -0.417729 -0.513 152 119 104
0.499807 -0.4161 -0.511 152 119 104
0.49882 -0.414471 -0.509 153 120 105
0.497826 -0.412843 -0.507 154 121 106
0.496824 -0.411214 -0.505 168 123 100
0.4968 -0.4104 -0.504 169 124 101
0.495785 -0.408771 -0.502 170 126 101
0.495751 -0.407957 -0.501 171 127 102
0.494723 -0.406329 -0.499 174 128 104
0.49468 -0.405514 -0.498 173 127 103
0.494633 -0.4047 -0.497 172 126 102
0.494583 -0.403886 -0.496 173 127 103
0.494529 -0.403071 -0.495 175 129 105
0.49447 -0.402257 -0.494 176 130 106
0.494409 -0.401443 -0.493 175 129 103
0.494343 -0.400629 -0.492 177 131 105
0.494273 -0.399814 -0.491 177 130 104
0.495209 -0.399814 -0.491 175 128 102
0.494123 -0.398186 -0.489 178 131 105
0.494042 -0.397371 -0.488 178 131 105
0.494971 -0.397371 -0.488 179 131 108
0.494885 -0.396557 -0.487 178 130 107
0.495812 -0.396557 -0.487 179 131 108
0.49674 -0.396557 -0.487 178 130 107
0.496646 -0.395743 -0.486 180 132 109
0.497571 -0.395743 -0.486 186 138 115
0.497471 -0.394929 -0.485 185 138 112
0.498395 -0.394929 -0.485 183 136 110
0.49829 -0.394114 -0.484 183 136 110
0.499211 -0.394114 -0.484 182 135 109
0.4991 -0.3933 -0.483 182 135 109
0.50002 -0.3933 -0.483 182 135 109
0.499903 -0.392486 -0.482 180 133 107
0.500821 -0.392486 -0.482 178 131 105
0.501739 -0.392486 -0.482 181 134 106
0.501614 -0.391671 -0.481 183 136 108
0.50253 -0.391671 -0.481 186 139 111
0.503447 -0.391671 -0.481 185 138 110
0.504363 -0.391671 -0.481 185 138 110
0.504229 -0.390857 -0.48 184 137 109
0.50409 -0.390043 -0.479 185 135 108
0.505003 -0.390043 -0.479 184 134 107
0.505915 -0.390043 -0.479 183 133 106
0.50577 -0.389229 -0.478 181 131 104
0.50668 -0.389229 -0.478 179 130 100
0.50759 -0.389229 -0.478 180 131 101
0.507437 -0.388414 -0.477 180 131 101
0.508346 -0.388414 -0.477 180 131 101
0.509254 -0.388414 -0.477 178 129 99
0.510163 -0.388414 -0.477 177 128 98
0.51 -0.3876 -0.476 178 129 99
0.510907 -0.3876 -0.476 180 131 101
0.511813 -0.3876 -0.476 179 130 100
0.51272 -0.3876 -0.476 178 129 99
0.512548 -0.386786 -0.475 176 127 95
0.513452 -0.386786 -0.475 176 127 95
0.514357 -0.386786 -0.475 177 128 96
0.515262 -0.386786 -0.475 177 128 96
0.516167 -0.386786 -0.475 176 127 97
0.517071 -0.386786 -0.475 176 127 97
0.517976 -0.386786 -0.475 175 126 96
0.518881 -0.386786 -0.475 176 127 97
0.519786 -0.386786 -0.475 176 127 97
0.52069 -0.386786 -0.475 175 126 96
0.521595 -0.386786 -0.475 175 126 96
0.5225 -0.386786 -0.475 175 126 96
0.523405 -0.386786 -0.475 173 124 94
0.52431 -0.386786 -0.475 171 122 92
0.525214 -0.386786 -0.475 169 124 93
0.526119 -0.386786 -0.475 168 123 92
0.527024 -0.386786 -0.475 164 119 88
0.527929 -0.386786 -0.475 162 117 86
0.529947 -0.3876 -0.476 161 117 88
0.531969 -0.388414 -0.477 161 117 88
0.532877 -0.388414 -0.477 160 116 87
0.534905 -0.389229 -0.478 160 116 87
0.535815 -0.389229 -0.478 160 116 87
0.537849 -0.390043 -0.479 159 115 86
0.539886 -0.390857 -0.48 156 115 87
0.543053 -0.392486 -0.482 155 114 86
0.5451 -0.3933 -0.483 153 114 85
0.55787 -0.399814 -0.491 148 104 75
0.019099 -0.442375 -0.542 190 147 115
0.02002 -0.439927 -0.539 198 153 120
0.0209295 -0.437478 -0.536 194 149 116
0.0217457 -0.433397 -0.531 191 148 116
0.0225857 -0.430132 -0.527 191 148 116
0.0234552 -0.427684 -0.524 191 147 120
0.02436 -0.426051 -0.522 191 147 120
0.0252086 -0.423603 -0.519 194 149 126
0.0261467 -0.422787 -0.518 197 152 129
0.027081 -0.42197 -0.517 195 152 120
0.0279571 -0.420338 -0.515 197 154 122
0.0288819 -0.419522 -0.514 199 156 124
0.029861 -0.419522 -0.514 200 157 125
0.03078 -0.418706 -0.513 202 159 127
0.0317571 -0.418706 -0.513 204 161 129
0.0326705 -0.41789 -0.512 205 162 130
0.0336457 -0.41789 -0.512 204 161 129
0.034621 -0.41789 -0.512 204 159 128
0.0355267 -0.417073 -0.511 203 158 127
0.0365 -0.417073 -0.511 201 156 125
0.0374733 -0.417073 -0.511 199 154 123
0.0384467 -0.417073 -0.511 198 153 122
0.03942 -0.417073 -0.511 199 154 123
0.0403143 -0.416257 -0.51 200 155 122
0.0412857 -0.416257 -0.51 201 156 123
0.0422571 -0.416257 -0.51 202 157 126
0.0432286 -0.416257 -0.51 201 156 125
0.0442 -0.416257 -0.51 197 154 122
0.0451714 -0.416257 -0.51 192 147 116
0.0461429 -0.416257 -0.51 190 145 114
0.0471143 -0.416257 -0.51 192 147 116
0.0479914 -0.415441 -0.509 193 146 116
0.048961 -0.415441 -0.509 192 145 115
0.0500286 -0.416257 -0.51 189 142 114
0.051 -0.416257 -0.51 188 141 113
0.0519714 -0.416257 -0.51 190 145 116
0.0529429 -0.416257 -0.51 190 145 116
0.0539143 -0.416257 -0.51 187 142 113
0.0548857 -0.416257 -0.51 187 142 113
0.0558571 -0.416257 -0.51 187 140 112
0.05694 -0.417073 -0.511 186 139 111
0.0579133 -0.417073 -0.511 189 142 112
0.0588867 -0.417073 -0.511 188 141 111
0.0599771 -0.41789 -0.512 188 141 111
0.0609524 -0.41789 -0.512 187 140 110
0.0619276 -0.41789 -0.512 186 139 109
0.0629029 -0.41789 -0.512 184 137 107
0.0640029 -0.418706 -0.513 181 134 106
0.0651067 -0.419522 -0.514 177 130 102
0.0660857 -0.419522 -0.514 178 131 105
0.0671952 -0.420338 -0.515 180 133 107
0.0683086 -0.421154 -0.516 180 133 107
0.0694257 -0.42197 -0.517 177 130 104
0.0704105 -0.42197 -0.517 175 127 104
0.0715333 -0.422787 -0.518 173 125 102
0.07266 -0.423603 -0.519 172 124 101
0.0736486 -0.423603 -0.519 172 124 101
0.0747809 -0.424419 -0.52 174 128 105
0.0759171 -0.425235 -0.521 174 128 105
0.0770571 -0.426051 -0.522 172 127 104
0.078201 -0.426868 -0.523 169 124 101
0.0793486 -0.427684 -0.524 167 121 98
0.0805 -0.4285 -0.525 165 119 96
0.0816552 -0.429316 -0.526 163 117 94
0.0828143 -0.430132 -0.527 160 114 91
0.0839771 -0.430949 -0.528 153 110 91
0.0851438 -0.431765 -0.529 150 107 88
0.0864771 -0.433397 -0.531 143 107 91
0.0876533 -0.434213 -0.532 142 106 90
0.089 -0.435846 -0.534 136 104 93
0.0901857 -0.436662 -0.535 135 103 92
0.0915457 -0.438294 -0.537 132 102 92
0.0929133 -0.439927 -0.539 130 100 90
0.0942886 -0.441559 -0.541 120 97 91
0.0956714 -0.443191 -0.543 120 97 91
0.109333 -0.457067 -0.56 90 80 81
0.110597 -0.457883 -0.561 95 91 92
0.111865 -0.458699 -0.562 106 102 103
0.112935 -0.458699 -0.562 114 112 113
0.114209 -0.459515 -0.563 123 121 122
0.115281 -0.459515 -0.563 134 128 132
0.116353 -0.459515 -0.563 139 133 137
0.117217 -0.458699 -0.562 147 142 148
0.118288 -0.458699 -0.562 157 152 158
0.119358 -0.458699 -0.562 160 157 164
0.120429 -0.458699 -0.562 166 163 170
0.121499 -0.458699 -0.562 165 164 172
0.12257 -0.458699 -0.562 170 169 177
0.12364 -0.458699 -0.562 165 164 170
0.12471 -0.458699 -0.562 177 176 182
0.125557 -0.457883 -0.561 182 180 185
0.126626 -0.457883 -0.561 186 184 189
0.127694 -0.457883 -0.561 169 163 165
0.128763 -0.457883 -0.561 149 143 145
0.129831 -0.457883 -0.561 148 139 140
0.1309 -0.457883 -0.561 201 192 193
0.131969 -0.457883 -0.561 194 201 211
0.133037 -0.457883 -0.561 197 204 214
0.134106 -0.457883 -0.561 202 201 215
0.135174 -0.457883 -0.561 205 204 218
0.136243 -0.457883 -0.561 204 204 216
0.137311 -0.457883 -0.561 202 202 214
0.13838 -0.457883 -0.561 180 194 207
0.139449 -0.457883 -0.561 166 180 193
0.140517 -0.457883 -0.561 116 135 175
0.141586 -0.457883 -0.561 71 90 130
0.142654 -0.457883 -0.561 78 95 138
0.143723 -0.457883 -0.561 152 169 212
0.144791 -0.457883 -0.561 193 206 223
0.14586 -0.457883 -0.561 159 172 189
0.146929 -0.457883 -0.561 161 168 186
0.147997 -0.457883 -0.561 170 177 195
0.1488 -0.457067 -0.56 166 187 218
0.149867 -0.457067 -0.56 171 192 223
0.150933 -0.457067 -0.56 128 159 203
0.152 -0.457067 -0.56 103 134 178
0.153067 -0.457067 -0.56 87 131 194
0.154133 -0.457067 -0.56 88 132 195
0.1552 -0.457067 -0.56 94 135 201
0.156267 -0.457067 -0.56 89 130 196
0.157333 -0.457067 -0.56 96 130 193
0.1584 -0.457067 -0.56 130 164 227
0.184329 -0.457883 -0.561 235 239 251
0.185397 -0.457883 -0.561 229 233 245
0.186466 -0.457883 -0.561 211 214 229
0.187534 -0.457883 -0.561 185 188 203
0.188603 -0.457883 -0.561 189 192 207
0.189671 -0.457883 -0.561 220 223 238
0.19074 -0.457883 -0.561 223 227 239
0.191809 -0.457883 -0.561 217 221 233
0.192877 -0.457883 -0.561 226 230 241
0.193946 -0.457883 -0.561 230 234 245
0.195014 -0.457883 -0.561 236 240 251
0.196083 -0.457883 -0.561 240 244 255
0.197151 -0.457883 -0.561 238 242 253
0.19822 -0.457883 -0.561 238 242 253
0.199289 -0.457883 -0.561 240 244 255
0.200357 -0.457883 -0.561 238 242 254
0.201426 -0.457883 -0.561 242 244 255
0.202494 -0.457883 -0.561 242 244 255
0.203563 -0.457883 -0.561 237 239 254
0.204631 -0.457883 -0.561 238 240 255
0.2057 -0.457883 -0.561 224 229 248
0.206769 -0.457883 -0.561 200 205 224
0.207837 -0.457883 -0.561 151 161 188
0.208906 -0.457883 -0.561 139 149 176
0.209974 -0.457883 -0.561 125 141 177
0.211043 -0.457883 -0.561 124 140 176
0.412719 -0.461148 -0.565 147 187 236
0.420252 -0.461148 -0.565 210 225 246
0.421329 -0.461148 -0.565 222 226 237
0.422405 -0.461148 -0.565 186 190 201
0.423481 -0.461148 -0.565 184 190 204
0.424557 -0.461148 -0.565 168 174 188
0.425633 -0.461148 -0.565 136 152 177
0.437471 -0.461148 -0.565 221 224 233
0.438548 -0.461148 -0.565 222 225 234
0.439624 -0.461148 -0.565 224 224 234
0.4407 -0.461148 -0.565 221 221 231
0.441776 -0.461148 -0.565 224 224 234
0.44687 -0.461964 -0.566 219 219 229
0.447949 -0.461964 -0.566 222 222 232
0.449027 -0.461964 -0.566 219 222 231
0.450105 -0.461964 -0.566 218 221 230
0.451183 -0.461964 -0.566 217 222 228
0.452261 -0.461964 -0.566 215 220 226
0.453339 -0.461964 -0.566 224 218 228
0.454417 -0.461964 -0.566 222 216 226
0.455495 -0.461964 -0.566 219 219 231
0.456573 -0.461964 -0.566 210 210 222
0.45846 -0.46278 -0.567 144 164 189
0.45954 -0.46278 -0.567 108 128 153
0.46062 -0.46278 -0.567 96 122 159
0.4617 -0.46278 -0.567 110 136 173
0.46278 -0.46278 -0.567 155 170 191
0.46386 -0.46278 -0.567 151 166 187
0.46494 -0.46278 -0.567 157 160 165
0.46602 -0.46278 -0.567 179 182 187
0.4671 -0.46278 -0.567 210 210 220
0.46818 -0.46278 -0.567 212 212 222
0.46926 -0.46278 -0.567 196 208 224
0.47034 -0.46278 -0.567 174 186 202
0.47142 -0.46278 -0.567 132 153 184
0.4725 -0.46278 -0.567 126 147 178
0.47358 -0.46278 -0.567 104 136 175
0.47466 -0.46278 -0.567 123 155 194
0.47574 -0.46278 -0.567 112 148 184
0.47682 -0.46278 -0.567 123 159 195
0.4779 -0.46278 -0.567 130 168 204
0.47898 -0.46278 -0.567 120 158 194
0.48006 -0.46278 -0.567 103 137 175
0.48114 -0.46278 -0.567 103 137 175
0.48222 -0.46278 -0.567 97 131 169
0.4833 -0.46278 -0.567 107 128 157
0.48438 -0.46278 -0.567 118 139 168
0.48546 -0.46278 -0.567 160 167 183
0.48654 -0.46278 -0.567 187 194 210
0.48762 -0.46278 -0.567 201 204 219
0.4887 -0.46278 -0.567 198 201 216
0.48978 -0.46278 -0.567 203 203 211
0.49086 -0.46278 -0.567 201 201 209
0.49194 -0.46278 -0.567 193 200 210
0.49302 -0.46278 -0.567 179 186 196
0.494971 -0.463596 -0.568 132 148 173
0.496053 -0.463596 -0.568 98 114 139
0.497135 -0.463596 -0.568 81 98 128
0.498217 -0.463596 -0.568 85 102 132
0.499299 -0.463596 -0.568 155 166 188
0.500381 -0.463596 -0.568 185 196 218
0.50058 -0.46278 -0.567 194 196 208
0.50166 -0.46278 -0.567 192 194 206
0.50274 -0.46278 -0.567 192 189 200
0.50382 -0.46278 -0.567 191 188 199
0.5049 -0.46278 -0.567 192 192 204
0.50598 -0.46278 -0.567 184 186 198
0.50706 -0.46278 -0.567 187 189 202
0.50814 -0.46278 -0.567 175 177 190
0.50922 -0.46278 -0.567 138 140 155
0.51462 -0.46278 -0.567 171 178 188
0.5157 -0.46278 -0.567 169 175 187
0.51678 -0.46278 -0.567 156 162 174
0.51786 -0.46278 -0.567 161 168 186
0.51894 -0.46278 -0.567 173 180 198
0.52434 -0.46278 -0.567 156 162 174
0.52542 -0.46278 -0.567 168 174 186
0.5265 -0.46278 -0.567 171 175 184
0.525558 -0.447272 -0.548 131 107 103
0.521797 -0.443191 -0.543 136 111 106
0.517054 -0.438294 -0.537 136 111 106
0.514218 -0.43503 -0.533 140 111 103
0.511367 -0.431765 -0.529 145 116 108
0.5085 -0.4285 -0.525 143 113 102
0.506589 -0.426051 -0.522 143 113 102
0.504666 -0.423603 -0.519 147 115 102
0.502731 -0.421154 -0.516 149 117 104
0.500786 -0.418706 -0.513 151 118 103
0.499807 -0.417073 -0.511 152 119 104
0.49882 -0.415441 -0.509 154 121 106
0.497826 -0.413809 -0.507 154 121 106
0.496824 -0.412176 -0.505 166 121 98
0.4968 -0.41136 -0.504 169 124 101
0.496772 -0.410544 -0.503 170 125 102
0.495751 -0.408911 -0.501 170 125 102
0.495714 -0.408095 -0.5 172 126 103
0.49468 -0.406463 -0.498 171 125 102
0.494633 -0.405647 -0.497 170 124 101
0.494583 -0.40483 -0.496 173 127 104
0.494529 -0.404014 -0.495 177 131 107
0.49447 -0.403198 -0.494 176 130 106
0.494409 -0.402382 -0.493 175 129 105
0.494343 -0.401566 -0.492 176 130 106
0.494273 -0.40075 -0.491 177 129 106
0.495209 -0.40075 -0.491 176 128 105
0.495133 -0.399933 -0.49 177 129 106
0.495054 -0.399117 -0.489 178 130 107
0.494971 -0.398301 -0.488 179 131 108
0.494885 -0.397485 -0.487 178 130 107
0.495812 -0.397485 -0.487 180 132 109
0.49674 -0.397485 -0.487 178 130 107
0.496646 -0.396669 -0.486 179 131 108
0.496548 -0.395852 -0.485 184 136 113
0.497471 -0.395852 -0.485 184 137 111
0.497368 -0.395036 -0.484 184 137 111
0.49829 -0.395036 -0.484 183 136 110
0.499211 -0.395036 -0.484 183 136 110
0.4991 -0.39422 -0.483 183 136 108
0.50002 -0.39422 -0.483 184 137 109
0.499903 -0.393404 -0.482 182 135 107
0.500821 -0.393404 -0.482 181 134 106
0.500698 -0.392588 -0.481 183 136 108
0.501614 -0.392588 -0.481 182 135 107
0.50253 -0.392588 -0.481 184 137 107
0.503447 -0.392588 -0.481 185 138 108
0.503314 -0.391771 -0.48 184 137 107
0.504229 -0.391771 -0.48 184 137 107
0.50409 -0.390955 -0.479 182 135 105
0.505003 -0.390955 -0.479 180 133 103
0.504859 -0.390139 -0.478 180 133 103
0.50577 -0.390139 -0.478 176 129 99
0.50668 -0.390139 -0.478 175 128 98
0.506529 -0.389323 -0.477 176 129 99
0.507437 -0.389323 -0.477 180 131 101
0.508346 -0.389323 -0.477 181 132 102
0.509254 -0.389323 -0.477 179 130 100
0.509093 -0.388507 -0.476 178 129 99
0.51 -0.388507 -0.476 178 129 99
0.510907 -0.388507 -0.476 178 129 99
0.511813 -0.388507 -0.476 179 130 98
0.511643 -0.38769 -0.475 178 129 97
0.512548 -0.38769 -0.475 177 128 96
0.513452 -0.38769 -0.475 177 128 96
0.514357 -0.38769 -0.475 177 128 96
0.515262 -0.38769 -0.475 178 129 97
0.516167 -0.38769 -0.475 177 128 98
0.517071 -0.38769 -0.475 175 126 96
0.516886 -0.386874 -0.474 176 127 95
0.517789 -0.386874 -0.474 177 128 96
0.518691 -0.386874 -0.474 178 129 97
0.519594 -0.386874 -0.474 177 128 96
0.520497 -0.386874 -0.474 175 126 94
0.5214 -0.386874 -0.474 174 125 93
0.522303 -0.386874 -0.474 173 124 94
0.52431 -0.38769 -0.475 172 123 93
0.525214 -0.38769 -0.475 170 124 91
0.526119 -0.38769 -0.475 170 124 91
0.527024 -0.38769 -0.475 166 121 88
0.527929 -0.38769 -0.475 164 119 86
0.528833 -0.38769 -0.475 165 120 89
0.529738 -0.38769 -0.475 164 119 88
0.53176 -0.388507 -0.476 163 118 87
0.533786 -0.389323 -0.477 163 118 87
0.534694 -0.389323 -0.477 162 117 86
0.536726 -0.390139 -0.478 161 116 85
0.538761 -0.390955 -0.479 160 117 85
0.5408 -0.391771 -0.48 159 116 84
0.542843 -0.392588 -0.481 156 115 83
0.54602 -0.39422 -0.483 155 114 82
0.549205 -0.395852 -0.485 156 113 81
0.550129 -0.395852 -0.485 158 113 80
0.554461 -0.398301 -0.488 155 110 79
0.639685 -0.449721 -0.551 198 200 187
0.64306 -0.451353 -0.553 197 199 188
0.0189933 -0.440953 -0.539 194 150 121
0.0199086 -0.438499 -0.536 194 150 125
0.0207733 -0.435227 -0.532 193 149 124
0.0216229 -0.431954 -0.528 192 148 123
0.0224143 -0.427864 -0.523 192 148 123
0.023321 -0.426228 -0.521 193 148 119
0.02422 -0.424591 -0.519 194 149 120
0.0251114 -0.422955 -0.517 195 150 119
0.0260457 -0.422137 -0.516 195 150 119
0.0269762 -0.421319 -0.515 195 150 119
0.0279029 -0.420501 -0.514 198 153 122
0.0288819 -0.420501 -0.514 200 155 124
0.0298029 -0.419683 -0.513 203 158 127
0.03072 -0.418865 -0.512 203 158 127
0.0316952 -0.418865 -0.512 204 159 128
0.0326067 -0.418047 -0.511 205 160 129
0.03358 -0.418047 -0.511 201 156 125
0.0345533 -0.418047 -0.511 202 157 124
0.0355267 -0.418047 -0.511 202 157 124
0.0365 -0.418047 -0.511 200 155 122
0.0374733 -0.418047 -0.511 199 154 121
0.0383714 -0.417229 -0.51 200 155 122
0.0393429 -0.417229 -0.51 202 157 124
0.0403143 -0.417229 -0.51 201 156 123
0.0412857 -0.417229 -0.51 200 155 122
0.0421743 -0.41641 -0.509 200 153 123
0.0431438 -0.41641 -0.509 199 152 122
0.0441133 -0.41641 -0.509 198 151 121
0.0451714 -0.417229 -0.51 192 149 117
0.0461429 -0.417229 -0.51 193 148 117
0.0470219 -0.41641 -0.509 195 150 119
0.0479914 -0.41641 -0.509 191 146 115
0.048961 -0.41641 -0.509 188 143 112
0.0499305 -0.41641 -0.509 187 140 110
0.051 -0.417229 -0.51 188 141 111
0.0518695 -0.41641 -0.509 190 145 114
0.052839 -0.41641 -0.509 190 145 114
0.0538086 -0.41641 -0.509 188 143 112
0.0548857 -0.417229 -0.51 187 142 111
0.0558571 -0.417229 -0.51 187 140 110
0.0568286 -0.417229 -0.51 189 142 112
0.0579133 -0.418047 -0.511 191 144 114
0.0588867 -0.418047 -0.511 189 142 112
0.05986 -0.418047 -0.511 189 142 112
0.0609524 -0.418865 -0.512 187 140 110
0.0619276 -0.418865 -0.512 184 137 107
0.0629029 -0.418865 -0.512 183 136 106
0.0640029 -0.419683 -0.513 182 135 109
0.06498 -0.419683 -0.513 179 132 106
0.0660857 -0.420501 -0.514 179 131 108
0.0671952 -0.421319 -0.515 181 133 110
0.0683086 -0.422137 -0.516 180 133 107
0.0694257 -0.422955 -0.517 177 130 104
0.0704105 -0.422955 -0.517 174 126 103
0.0715333 -0.423773 -0.518 173 125 102
0.07266 -0.424591 -0.519 173 125 103
0.0736486 -0.424591 -0.519 173 125 103
0.0747809 -0.42541 -0.52 174 126 104
0.0759171 -0.426228 -0.521 173 125 103
0.0770571 -0.427046 -0.522 169 124 101
0.078201 -0.427864 -0.523 167 122 99
0.0793486 -0.428682 -0.524 162 120 96
0.0805 -0.4295 -0.525 161 119 95
0.0816552 -0.430318 -0.526 161 116 93
0.0828143 -0.431136 -0.527 158 113 90
0.0839771 -0.431954 -0.528 151 108 89
0.0851438 -0.432772 -0.529 149 106 87
0.0864771 -0.434409 -0.531 143 106 90
0.0876533 -0.435227 -0.532 142 105 89
0.089 -0.436863 -0.534 137 105 94
0.0903543 -0.438499 -0.536 134 102 91
0.0915457 -0.439317 -0.537 129 101 90
0.0929133 -0.440953 -0.539 127 99 88
0.0942886 -0.44259 -0.541 121 98 92
0.107009 -0.457315 -0.559 97 78 80
0.108267 -0.458133 -0.56 91 80 78
0.109333 -0.458133 -0.56 94 84 83
0.110597 -0.458951 -0.561 101 97 96
0.111865 -0.45977 -0.562 112 108 107
0.112935 -0.45977 -0.562 118 116 119
0.114006 -0.45977 -0.562 127 125 128
0.115076 -0.45977 -0.562 138 133 137
0.116147 -0.45977 -0.562 145 140 144
0.117217 -0.45977 -0.562 152 150 155
0.118288 -0.45977 -0.562 160 158 163
0.119146 -0.458951 -0.561 162 161 167
0.120214 -0.458951 -0.561 169 168 174
0.121283 -0.458951 -0.561 163 163 171
0.122351 -0.458951 -0.561 163 163 171
0.12342 -0.458951 -0.561 168 168 176
0.124489 -0.458951 -0.561 177 177 185
0.125557 -0.458951 -0.561 177 176 182
0.126626 -0.458951 -0.561 188 187 193
0.127694 -0.458951 -0.561 187 182 186
0.128763 -0.458951 -0.561 152 147 151
0.129831 -0.458951 -0.561 142 136 138
0.1309 -0.458951 -0.561 199 193 195
0.131969 -0.458951 -0.561 197 204 210
0.133037 -0.458951 -0.561 201 208 214
0.134106 -0.458951 -0.561 204 206 218
0.135174 -0.458951 -0.561 205 207 219
0.136243 -0.458951 -0.561 205 205 217
0.137311 -0.458951 -0.561 205 205 217
0.13838 -0.458951 -0.561 192 199 207
0.139449 -0.458951 -0.561 189 196 204
0.140267 -0.458133 -0.56 147 161 198
0.141333 -0.458133 -0.56 89 103 140
0.1424 -0.458133 -0.56 79 97 143
0.143467 -0.458133 -0.56 139 157 203
0.144533 -0.458133 -0.56 167 185 209
0.1456 -0.458133 -0.56 153 171 195
0.146667 -0.458133 -0.56 156 167 197
0.147733 -0.458133 -0.56 148 159 189
0.1488 -0.458133 -0.56 152 176 212
0.149867 -0.458133 -0.56 161 185 221
0.150933 -0.458133 -0.56 114 148 196
0.152 -0.458133 -0.56 93 127 175
0.153067 -0.458133 -0.56 81 121 183
0.154133 -0.458133 -0.56 78 118 180
0.1552 -0.458133 -0.56 80 122 196
0.181867 -0.458133 -0.56 211 217 233
0.182933 -0.458133 -0.56 211 217 233
0.184 -0.458133 -0.56 218 224 240
0.185067 -0.458133 -0.56 216 222 238
0.186133 -0.458133 -0.56 197 203 219
0.1872 -0.458133 -0.56 167 173 189
0.188267 -0.458133 -0.56 173 179 195
0.410914 -0.461406 -0.564 152 185 226
0.411989 -0.461406 -0.564 149 186 231
0.413063 -0.461406 -0.564 134 171 216
0.414137 -0.461406 -0.564 126 159 200
0.439624 -0.462224 -0.565 221 223 235
0.4407 -0.462224 -0.565 223 225 237
0.441776 -0.462224 -0.565 223 223 233
0.442852 -0.462224 -0.565 217 217 227
0.443929 -0.462224 -0.565 197 200 209
0.445005 -0.462224 -0.565 198 201 210
