ply
format ascii 1.0
comment Created by Open3D
element vertex 1276
property double x
property double y
property double z
property uchar red
property uchar green
property uchar blue
end_header
0.50341 -0.421098 -0.527 149 121 109
0.501543 -0.418701 -0.524 152 123 109
0.499664 -0.416304 -0.521 152 123 109
0.497773 -0.413907 -0.518 152 123 109
0.496834 -0.412309 -0.516 153 124 110
0.495888 -0.41071 -0.514 156 124 109
0.494933 -0.409112 -0.512 156 124 109
0.493003 -0.406715 -0.509 158 125 108
0.492031 -0.405117 -0.507 157 124 107
0.491052 -0.403519 -0.505 160 125 106
0.490066 -0.401921 -0.503 161 126 107
0.489071 -0.400323 -0.501 162 127 107
0.489048 -0.399524 -0.5 162 127 107
0.48804 -0.397926 -0.498 164 127 108
0.488007 -0.397127 -0.497 165 128 109
0.486986 -0.395529 -0.495 165 128 102
0.486943 -0.39473 -0.494 166 129 103
0.486896 -0.39393 -0.493 167 130 104
0.486846 -0.393131 -0.492 168 131 105
0.486791 -0.392332 -0.491 169 132 106
0.486733 -0.391533 -0.49 170 133 107
0.486671 -0.390734 -0.489 173 133 107
0.486606 -0.389935 -0.488 173 133 107
0.486536 -0.389136 -0.487 175 133 108
0.486463 -0.388337 -0.486 175 133 108
0.486386 -0.387538 -0.485 176 135 107
0.486305 -0.386739 -0.484 178 137 109
0.487227 -0.386739 -0.484 181 140 110
0.48714 -0.38594 -0.483 181 140 110
0.48806 -0.38594 -0.483 181 137 108
0.487968 -0.385141 -0.482 179 135 106
0.487871 -0.384342 -0.481 178 134 107
0.488788 -0.384342 -0.481 179 135 108
0.488686 -0.383543 -0.48 179 135 108
0.4896 -0.383543 -0.48 180 136 109
0.489492 -0.382744 -0.479 181 137 110
0.489381 -0.381945 -0.478 182 138 111
0.490291 -0.381945 -0.478 181 137 108
0.491202 -0.381945 -0.478 180 136 107
0.491083 -0.381146 -0.477 180 137 105
0.491991 -0.381146 -0.477 181 138 106
0.4929 -0.381146 -0.477 183 140 108
0.492773 -0.380347 -0.476 183 140 108
0.49368 -0.380347 -0.476 181 138 106
0.493548 -0.379548 -0.475 180 137 105
0.494452 -0.379548 -0.475 180 137 105
0.494314 -0.378749 -0.474 181 138 106
0.495217 -0.378749 -0.474 181 138 106
0.49612 -0.378749 -0.474 181 138 106
0.495974 -0.37795 -0.473 181 138 106
0.496875 -0.37795 -0.473 180 137 105
0.497776 -0.37795 -0.473 179 134 101
0.498677 -0.37795 -0.473 178 133 100
0.498522 -0.37715 -0.472 178 133 100
0.499421 -0.37715 -0.472 180 135 102
0.50032 -0.37715 -0.472 180 135 102
0.500157 -0.376351 -0.471 180 135 102
0.501054 -0.376351 -0.471 181 136 103
0.501951 -0.376351 -0.471 180 135 102
0.502849 -0.376351 -0.471 178 133 100
0.503746 -0.376351 -0.471 176 131 98
0.504643 -0.376351 -0.471 174 129 96
0.504467 -0.375552 -0.47 173 128 95
0.505362 -0.375552 -0.47 176 132 97
0.50518 -0.374753 -0.469 177 133 98
0.506073 -0.374753 -0.469 179 135 100
0.506967 -0.374753 -0.469 180 136 101
0.50786 -0.374753 -0.469 180 135 102
0.507669 -0.373954 -0.468 178 133 100
0.50856 -0.373954 -0.468 177 132 99
0.509451 -0.373954 -0.468 178 133 100
0.510343 -0.373954 -0.468 177 132 99
0.511234 -0.373954 -0.468 175 130 97
0.512126 -0.373954 -0.468 174 129 96
0.513017 -0.373954 -0.468 173 128 95
0.51281 -0.373155 -0.467 173 128 95
0.5137 -0.373155 -0.467 172 127 94
0.51459 -0.373155 -0.467 171 126 93
0.515479 -0.373155 -0.467 170 125 92
0.516369 -0.373155 -0.467 170 127 93
0.518366 -0.373954 -0.468 168 125 91
0.519257 -0.373954 -0.468 165 122 88
0.52126 -0.374753 -0.469 163 120 86
0.522153 -0.374753 -0.469 161 120 88
0.523047 -0.374753 -0.469 161 120 88
0.525057 -0.375552 -0.47 160 119 87
0.525952 -0.375552 -0.47 158 117 85
0.527969 -0.376351 -0.471 157 118 85
0.529989 -0.37715 -0.472 156 117 84
0.532012 -0.37795 -0.473 155 116 85
0.53404 -0.378749 -0.474 155 116 85
0.536071 -0.379548 -0.475 154 117 88
0.539237 -0.381146 -0.477 154 117 88
0.91008 -0.460251 -0.576 207 210 193
0.911177 -0.460251 -0.576 207 210 193
0.912274 -0.460251 -0.576 207 210 193
0.913371 -0.460251 -0.576 206 209 192
0.914469 -0.460251 -0.576 206 209 192
0.915566 -0.460251 -0.576 207 210 193
0.916663 -0.460251 -0.576 207 210 193
0.91776 -0.460251 -0.576 207 210 193
0.980991 -0.462649 -0.579 206 208 194
0.982094 -0.462649 -0.579 205 208 191
0.983197 -0.462649 -0.579 204 207 190
0.9843 -0.462649 -0.579 204 207 190
0.985403 -0.462649 -0.579 204 207 190
0.986506 -0.462649 -0.579 205 208 191
0.987609 -0.462649 -0.579 205 208 191
0.988711 -0.462649 -0.579 204 206 192
0.996431 -0.462649 -0.579 203 205 191
0.997534 -0.462649 -0.579 205 208 191
0.998637 -0.462649 -0.579 205 208 191
1.00368 -0.463448 -0.58 203 206 189
1.00478 -0.463448 -0.58 203 206 189
1.00589 -0.463448 -0.58 203 206 189
1.00699 -0.463448 -0.58 203 206 189
1.0081 -0.463448 -0.58 205 207 194
1.0092 -0.463448 -0.58 204 206 193
1.0103 -0.463448 -0.58 204 206 193
1.05481 -0.465046 -0.582 203 206 189
1.05591 -0.465046 -0.582 203 206 189
1.05702 -0.465046 -0.582 203 206 189
0.0208905 -0.42851 -0.535 195 148 120
0.0217867 -0.426107 -0.532 198 147 118
0.0226286 -0.422903 -0.528 196 145 116
0.0234552 -0.419699 -0.524 191 147 112
0.02436 -0.418097 -0.522 191 147 112
0.0252086 -0.415694 -0.519 192 147 116
0.0259952 -0.41249 -0.515 195 148 118
0.0269238 -0.41169 -0.514 194 147 117
0.0277943 -0.410088 -0.512 197 148 116
0.0287695 -0.410088 -0.512 196 147 115
0.0296867 -0.409287 -0.511 198 149 117
0.0306 -0.408486 -0.51 203 154 122
0.0315714 -0.408486 -0.51 206 160 127
0.0325429 -0.408486 -0.51 207 161 128
0.0334486 -0.407685 -0.509 208 162 129
0.0344181 -0.407685 -0.509 205 159 126
0.0353876 -0.407685 -0.509 205 156 123
0.0362857 -0.406884 -0.508 204 155 122
0.0372533 -0.406884 -0.508 205 156 123
0.038221 -0.406884 -0.508 205 156 123
0.0391886 -0.406884 -0.508 205 156 124
0.0401562 -0.406884 -0.508 204 155 123
0.0411238 -0.406884 -0.508 201 157 122
0.0420914 -0.406884 -0.508 202 158 123
0.043059 -0.406884 -0.508 202 157 124
0.0440267 -0.406884 -0.508 201 156 123
0.0449943 -0.406884 -0.508 200 155 124
0.0459619 -0.406884 -0.508 199 154 123
0.0469295 -0.406884 -0.508 197 152 121
0.0478971 -0.406884 -0.508 195 150 119
0.0488648 -0.406884 -0.508 195 148 118
0.0498324 -0.406884 -0.508 193 146 116
0.0508 -0.406884 -0.508 192 145 117
0.0517676 -0.406884 -0.508 190 143 115
0.0527352 -0.406884 -0.508 190 143 115
0.0537029 -0.406884 -0.508 188 141 115
0.0546705 -0.406884 -0.508 190 143 117
0.0556381 -0.406884 -0.508 192 145 119
0.0567171 -0.407685 -0.509 192 145 119
0.0576867 -0.407685 -0.509 191 144 116
0.0586562 -0.407685 -0.509 190 143 115
0.0596257 -0.407685 -0.509 190 143 115
0.0605952 -0.407685 -0.509 191 144 116
0.0615648 -0.407685 -0.509 191 144 116
0.0625343 -0.407685 -0.509 192 145 117
0.0636286 -0.408486 -0.51 193 146 118
0.0646 -0.408486 -0.51 194 147 119
0.0655714 -0.408486 -0.51 193 146 120
0.0666733 -0.409287 -0.511 191 144 118
0.0676467 -0.409287 -0.511 191 144 118
0.0687543 -0.410088 -0.512 192 145 119
0.0697295 -0.410088 -0.512 191 144 118
0.0708429 -0.410889 -0.513 190 143 117
0.07182 -0.410889 -0.513 188 141 115
0.072939 -0.41169 -0.514 186 139 113
0.0739181 -0.41169 -0.514 184 136 113
0.0750429 -0.41249 -0.515 183 135 112
0.0761714 -0.413291 -0.516 182 136 110
0.0773038 -0.414092 -0.517 182 136 110
0.07844 -0.414893 -0.518 179 135 110
0.0794267 -0.414893 -0.518 177 133 108
0.0805686 -0.415694 -0.519 174 129 108
0.0817143 -0.416495 -0.52 171 126 105
0.0828638 -0.417296 -0.521 170 125 106
0.0840171 -0.418097 -0.522 169 124 105
0.0851743 -0.418898 -0.523 165 122 103
0.0863352 -0.419699 -0.524 164 121 102
0.0875 -0.4205 -0.525 160 119 101
0.0888371 -0.422102 -0.527 155 114 96
0.0900114 -0.422903 -0.528 153 110 94
0.0913619 -0.424505 -0.53 153 110 94
0.0925457 -0.425306 -0.531 144 112 99
0.0939095 -0.426908 -0.533 140 108 95
0.0951029 -0.427709 -0.534 134 104 96
0.09648 -0.42931 -0.536 132 102 94
0.0978648 -0.430912 -0.538 125 100 96
0.0992571 -0.432514 -0.54 123 98 94
0.113397 -0.447732 -0.559 56 51 57
0.114667 -0.448533 -0.56 79 81 96
0.115733 -0.448533 -0.56 102 104 119
0.117009 -0.449334 -0.561 121 121 131
0.118077 -0.449334 -0.561 129 129 139
0.119146 -0.449334 -0.561 138 139 143
0.120214 -0.449334 -0.561 149 150 154
0.121283 -0.449334 -0.561 154 155 159
0.122133 -0.448533 -0.56 164 165 169
0.1232 -0.448533 -0.56 168 169 174
0.124267 -0.448533 -0.56 172 173 178
0.125333 -0.448533 -0.56 175 175 183
0.1264 -0.448533 -0.56 177 177 185
0.127467 -0.448533 -0.56 172 171 179
0.128533 -0.448533 -0.56 158 157 165
0.1296 -0.448533 -0.56 184 183 191
0.130667 -0.448533 -0.56 185 184 192
0.131733 -0.448533 -0.56 155 154 160
0.132563 -0.447732 -0.559 144 143 149
0.133628 -0.447732 -0.559 183 178 182
0.134692 -0.447732 -0.559 201 196 200
0.135757 -0.447732 -0.559 202 202 212
0.136822 -0.447732 -0.559 204 204 214
0.137887 -0.447732 -0.559 201 207 219
0.138951 -0.447732 -0.559 204 210 222
0.140016 -0.447732 -0.559 204 210 222
0.141081 -0.447732 -0.559 201 207 219
0.142146 -0.447732 -0.559 174 189 210
0.14321 -0.447732 -0.559 151 166 187
0.144275 -0.447732 -0.559 113 136 170
0.14534 -0.447732 -0.559 104 127 161
0.146405 -0.447732 -0.559 135 153 193
0.14747 -0.447732 -0.559 164 182 222
0.148534 -0.447732 -0.559 206 207 225
0.149599 -0.447732 -0.559 220 221 239
0.150664 -0.447732 -0.559 224 226 238
0.151729 -0.447732 -0.559 216 218 230
0.152793 -0.447732 -0.559 189 192 201
0.451608 -0.458145 -0.572 216 219 224
0.452697 -0.458145 -0.572 215 218 223
0.453787 -0.458145 -0.572 211 211 219
0.454876 -0.458145 -0.572 211 211 219
0.455966 -0.458145 -0.572 209 214 218
0.457055 -0.458145 -0.572 214 219 223
0.458946 -0.458946 -0.573 216 220 221
0.460037 -0.458946 -0.573 217 221 222
0.461129 -0.458946 -0.573 193 193 193
0.46222 -0.458946 -0.573 161 161 161
0.463311 -0.458946 -0.573 184 184 184
0.464403 -0.458946 -0.573 210 210 210
0.465494 -0.458946 -0.573 215 216 220
0.466586 -0.458946 -0.573 214 215 219
0.467677 -0.458946 -0.573 207 211 220
0.468769 -0.458946 -0.573 204 208 217
0.46986 -0.458946 -0.573 187 198 216
0.470951 -0.458946 -0.573 161 172 190
0.472043 -0.458946 -0.573 120 137 163
0.473134 -0.458946 -0.573 80 97 123
0.474226 -0.458946 -0.573 109 129 162
0.475317 -0.458946 -0.573 152 172 205
0.476409 -0.458946 -0.573 193 205 229
0.4775 -0.458946 -0.573 194 206 230
0.478591 -0.458946 -0.573 187 194 213
0.479683 -0.458946 -0.573 173 180 199
0.480774 -0.458946 -0.573 167 182 211
0.481866 -0.458946 -0.573 167 182 211
0.4838 -0.459747 -0.574 163 178 207
0.484893 -0.459747 -0.574 113 146 197
0.485987 -0.459747 -0.574 85 118 169
0.48708 -0.459747 -0.574 67 115 179
0.488173 -0.459747 -0.574 61 109 173
0.489267 -0.459747 -0.574 61 111 174
0.49036 -0.459747 -0.574 64 114 177
0.491453 -0.459747 -0.574 91 136 193
0.492547 -0.459747 -0.574 131 176 233
0.49364 -0.459747 -0.574 168 181 200
0.494733 -0.459747 -0.574 161 174 193
0.495827 -0.459747 -0.574 166 182 205
0.49692 -0.459747 -0.574 183 199 222
0.498013 -0.459747 -0.574 192 197 216
0.499107 -0.459747 -0.574 170 175 194
0.5002 -0.459747 -0.574 105 121 155
0.501293 -0.459747 -0.574 64 80 114
0.502387 -0.459747 -0.574 81 101 136
0.50348 -0.459747 -0.574 133 153 188
0.504573 -0.459747 -0.574 168 168 178
0.505667 -0.459747 -0.574 162 162 172
0.507643 -0.460548 -0.575 145 143 146
0.508738 -0.460548 -0.575 168 166 169
0.509833 -0.460548 -0.575 188 190 202
0.510929 -0.460548 -0.575 193 195 207
0.512024 -0.460548 -0.575 192 192 200
0.52546 -0.447732 -0.559 144 119 112
0.521815 -0.443728 -0.554 144 119 112
0.52287 -0.443728 -0.554 144 119 112
0.519197 -0.439723 -0.549 150 120 109
0.515505 -0.435718 -0.544 150 120 109
0.511793 -0.431713 -0.539 149 120 104
0.508063 -0.427709 -0.534 150 121 105
0.50622 -0.425306 -0.531 147 119 107
0.50341 -0.422102 -0.527 149 121 109
0.5025 -0.4205 -0.525 151 123 111
0.499664 -0.417296 -0.521 151 123 111
0.498734 -0.415694 -0.519 153 124 110
0.496834 -0.413291 -0.516 153 124 110
0.495888 -0.41169 -0.514 155 123 108
0.494933 -0.410088 -0.512 157 125 110
0.493971 -0.408486 -0.51 158 125 110
0.492031 -0.406083 -0.507 157 124 109
0.491052 -0.404481 -0.505 158 125 108
0.490066 -0.402879 -0.503 159 126 109
0.489071 -0.401277 -0.501 161 126 107
0.489048 -0.400476 -0.5 162 127 108
0.48804 -0.398874 -0.498 163 128 109
0.488007 -0.398073 -0.497 163 128 109
0.48797 -0.397272 -0.496 167 129 106
0.486943 -0.39567 -0.494 167 129 106
0.486896 -0.39487 -0.493 169 131 108
0.486846 -0.394069 -0.492 169 131 108
0.486791 -0.393268 -0.491 169 131 108
0.486733 -0.392467 -0.49 170 132 109
0.486671 -0.391666 -0.489 173 133 108
0.486606 -0.390865 -0.488 173 133 108
0.486536 -0.390064 -0.487 174 132 107
0.486463 -0.389263 -0.486 175 133 108
0.486386 -0.388462 -0.485 176 135 107
0.486305 -0.387661 -0.484 178 137 109
0.48622 -0.38686 -0.483 180 139 111
0.48714 -0.38686 -0.483 180 139 111
0.48705 -0.386059 -0.482 181 137 110
0.487968 -0.386059 -0.482 180 136 109
0.487871 -0.385258 -0.481 177 136 108
0.487771 -0.384457 -0.48 177 136 108
0.488686 -0.384457 -0.48 177 136 106
0.4896 -0.384457 -0.48 178 137 107
0.489492 -0.383656 -0.479 179 138 108
0.489381 -0.382855 -0.478 179 138 108
0.490291 -0.382855 -0.478 180 136 107
0.491202 -0.382855 -0.478 180 139 109
0.491083 -0.382054 -0.477 182 139 107
0.491991 -0.382054 -0.477 183 140 108
0.491867 -0.381253 -0.476 184 141 109
0.492773 -0.381253 -0.476 183 140 108
0.49368 -0.381253 -0.476 181 138 106
0.493548 -0.380452 -0.475 180 137 105
0.494452 -0.380452 -0.475 180 137 105
0.494314 -0.379651 -0.474 182 139 107
0.495217 -0.379651 -0.474 180 137 105
0.495073 -0.37885 -0.473 181 138 106
0.495974 -0.37885 -0.473 182 139 107
0.496875 -0.37885 -0.473 181 138 106
0.497776 -0.37885 -0.473 179 136 102
0.497623 -0.37805 -0.472 177 134 100
0.498522 -0.37805 -0.472 178 133 100
0.499421 -0.37805 -0.472 179 134 101
0.49926 -0.377249 -0.471 180 135 102
0.500157 -0.377249 -0.471 181 136 103
0.501054 -0.377249 -0.471 181 137 102
0.501951 -0.377249 -0.471 179 135 100
0.502849 -0.377249 -0.471 178 134 99
0.503746 -0.377249 -0.471 177 133 98
0.504643 -0.377249 -0.471 176 132 97
0.504467 -0.376448 -0.47 174 130 95
0.505362 -0.376448 -0.47 175 131 96
0.50518 -0.375647 -0.469 178 134 99
0.506073 -0.375647 -0.469 180 136 101
0.505886 -0.374846 -0.468 181 137 102
0.506777 -0.374846 -0.468 180 136 101
0.507669 -0.374846 -0.468 179 135 100
0.50856 -0.374846 -0.468 179 135 100
0.509451 -0.374846 -0.468 179 135 100
0.510343 -0.374846 -0.468 178 133 100
0.511234 -0.374846 -0.468 176 131 98
0.512126 -0.374846 -0.468 174 129 96
0.511921 -0.374045 -0.467 174 129 96
0.51281 -0.374045 -0.467 174 129 96
0.5137 -0.374045 -0.467 173 128 95
0.51459 -0.374045 -0.467 171 126 93
0.515479 -0.374045 -0.467 170 125 92
0.516369 -0.374045 -0.467 171 127 92
0.517258 -0.374045 -0.467 171 127 92
0.519257 -0.374846 -0.468 167 122 89
0.520149 -0.374846 -0.468 163 118 85
0.52104 -0.374846 -0.468 163 120 88
0.523047 -0.375647 -0.469 164 121 89
0.52394 -0.375647 -0.469 164 121 89
0.524833 -0.375647 -0.469 163 120 88
0.526848 -0.376448 -0.47 159 118 86
0.528866 -0.377249 -0.471 158 117 85
0.529763 -0.377249 -0.471 157 116 86
0.532913 -0.37885 -0.473 156 115 85
0.534943 -0.379651 -0.474 156 117 88
0.536976 -0.380452 -0.475 156 117 88
0.923246 -0.461349 -0.576 205 207 193
0.981499 -0.46295 -0.578 204 207 190
0.9826 -0.46295 -0.578 204 207 190
0.983701 -0.46295 -0.578 204 207 190
0.984802 -0.46295 -0.578 205 208 191
0.985903 -0.46295 -0.578 205 208 191
0.993123 -0.463751 -0.579 204 206 192
0.994226 -0.463751 -0.579 204 206 192
0.995329 -0.463751 -0.579 204 206 192
0.996431 -0.463751 -0.579 204 206 192
0.997534 -0.463751 -0.579 205 207 193
0.998637 -0.463751 -0.579 204 206 192
0.99974 -0.463751 -0.579 203 205 191
1.00084 -0.463751 -0.579 203 205 191
1.00195 -0.463751 -0.579 203 205 191
1.00305 -0.463751 -0.579 203 205 191
1.00415 -0.463751 -0.579 204 206 192
0.0199086 -0.430331 -0.536 194 150 125
0.0208124 -0.427923 -0.533 191 147 122
0.0216638 -0.424711 -0.529 191 147 122
0.0225 -0.4215 -0.525 192 148 123
0.023321 -0.418289 -0.521 193 148 117
0.02422 -0.416683 -0.519 192 147 116
0.0251114 -0.415077 -0.517 195 147 111
0.0259952 -0.413471 -0.515 195 147 111
0.0269238 -0.412669 -0.514 194 148 115
0.0277943 -0.411063 -0.512 194 148 115
0.0287133 -0.41026 -0.511 195 149 116
0.0296286 -0.409457 -0.51 195 149 116
0.0306 -0.409457 -0.51 197 151 118
0.0315095 -0.408654 -0.509 201 155 122
0.032479 -0.408654 -0.509 204 158 125
0.0334486 -0.408654 -0.509 205 159 126
0.0344181 -0.408654 -0.509 204 158 125
0.0353181 -0.407851 -0.508 205 159 126
0.0362857 -0.407851 -0.508 204 158 125
0.0372533 -0.407851 -0.508 203 157 124
0.038221 -0.407851 -0.508 202 156 123
0.0391886 -0.407851 -0.508 200 154 121
0.0401562 -0.407851 -0.508 201 155 122
0.0411238 -0.407851 -0.508 204 158 125
0.0420914 -0.407851 -0.508 202 157 124
0.043059 -0.407851 -0.508 202 158 123
0.0440267 -0.407851 -0.508 201 156 125
0.0449943 -0.407851 -0.508 200 155 124
0.0459619 -0.407851 -0.508 200 155 126
0.0469295 -0.407851 -0.508 198 153 124
0.0478971 -0.407851 -0.508 194 149 118
0.0488648 -0.407851 -0.508 192 147 116
0.0498324 -0.407851 -0.508 194 147 117
0.0508 -0.407851 -0.508 192 145 115
0.0517676 -0.407851 -0.508 191 144 116
0.0527352 -0.407851 -0.508 191 144 116
0.0537029 -0.407851 -0.508 191 144 118
0.0546705 -0.407851 -0.508 192 145 119
0.0556381 -0.407851 -0.508 192 145 119
0.0566057 -0.407851 -0.508 191 144 118
0.0576867 -0.408654 -0.509 191 144 116
0.058541 -0.407851 -0.508 190 143 115
0.0595086 -0.407851 -0.508 190 143 115
0.0605952 -0.408654 -0.509 190 143 115
0.0615648 -0.408654 -0.509 190 143 115
0.0625343 -0.408654 -0.509 190 143 115
0.0635038 -0.408654 -0.509 192 145 117
0.0646 -0.409457 -0.51 194 147 119
0.0655714 -0.409457 -0.51 193 146 118
0.0665429 -0.409457 -0.51 191 144 116
0.0676467 -0.41026 -0.511 189 142 116
0.0687543 -0.411063 -0.512 189 142 116
0.0697295 -0.411063 -0.512 189 142 116
0.0708429 -0.411866 -0.513 188 141 115
0.07182 -0.411866 -0.513 187 140 114
0.072939 -0.412669 -0.514 186 139 113
0.0739181 -0.412669 -0.514 184 136 113
0.0750429 -0.413471 -0.515 182 134 111
0.0761714 -0.414274 -0.516 181 135 109
0.0773038 -0.415077 -0.517 182 136 110
0.07844 -0.41588 -0.518 178 134 109
0.0794267 -0.41588 -0.518 175 131 106
0.0805686 -0.416683 -0.519 174 127 107
0.0817143 -0.417486 -0.52 171 124 104
0.0828638 -0.418289 -0.521 170 125 104
0.0840171 -0.419091 -0.522 168 123 102
0.0851743 -0.419894 -0.523 164 121 102
0.0863352 -0.420697 -0.524 164 121 102
0.0875 -0.4215 -0.525 163 120 101
0.0888371 -0.423106 -0.527 158 115 96
0.0900114 -0.423909 -0.528 153 110 93
0.0913619 -0.425514 -0.53 152 109 92
0.0925457 -0.426317 -0.531 141 111 100
0.0939095 -0.427923 -0.533 136 106 95
0.095281 -0.429529 -0.535 130 101 93
0.09666 -0.431134 -0.537 128 99 91
0.0980467 -0.43274 -0.539 124 99 95
0.112131 -0.447994 -0.558 48 43 50
0.113397 -0.448797 -0.559 77 72 79
0.114462 -0.448797 -0.559 90 89 105
0.115733 -0.4496 -0.56 113 112 128
0.1168 -0.4496 -0.56 126 125 133
0.117867 -0.4496 -0.56 138 137 145
0.118933 -0.4496 -0.56 142 142 144
0.12 -0.4496 -0.56 152 152 154
0.121067 -0.4496 -0.56 163 164 166
0.122133 -0.4496 -0.56 166 167 169
0.12298 -0.448797 -0.559 172 171 177
0.124045 -0.448797 -0.559 177 176 182
0.12511 -0.448797 -0.559 180 177 186
0.126174 -0.448797 -0.559 182 179 188
0.127239 -0.448797 -0.559 180 177 186
0.128533 -0.4496 -0.56 179 176 185
0.1296 -0.4496 -0.56 192 191 197
0.130667 -0.4496 -0.56 192 191 197
0.131498 -0.448797 -0.559 173 174 179
0.132563 -0.448797 -0.559 157 158 163
0.133628 -0.448797 -0.559 180 174 176
0.134692 -0.448797 -0.559 192 186 188
0.135757 -0.448797 -0.559 204 201 208
0.136822 -0.448797 -0.559 210 207 214
0.13764 -0.447994 -0.558 205 211 223
0.138703 -0.447994 -0.558 206 212 224
0.139766 -0.447994 -0.558 201 208 218
0.140829 -0.447994 -0.558 203 210 220
0.148534 -0.448797 -0.559 199 201 224
0.149599 -0.448797 -0.559 217 219 242
0.150664 -0.448797 -0.559 214 217 232
0.151729 -0.448797 -0.559 198 201 216
0.152793 -0.448797 -0.559 176 180 189
0.182933 -0.4496 -0.56 236 238 251
0.184 -0.4496 -0.56 238 240 255
0.185067 -0.4496 -0.56 237 239 254
0.186133 -0.4496 -0.56 236 239 254
0.1872 -0.4496 -0.56 238 241 255
0.188267 -0.4496 -0.56 237 244 252
0.447555 -0.458431 -0.571 215 223 226
0.453787 -0.459234 -0.572 197 201 213
0.454876 -0.459234 -0.572 196 200 212
0.455966 -0.459234 -0.572 206 215 222
0.457055 -0.459234 -0.572 212 221 228
0.458145 -0.459234 -0.572 215 219 222
0.459234 -0.459234 -0.572 215 219 222
0.460324 -0.459234 -0.572 193 193 193
0.461413 -0.459234 -0.572 164 164 164
0.462503 -0.459234 -0.572 199 198 203
0.463592 -0.459234 -0.572 216 215 220
0.464682 -0.459234 -0.572 216 217 222
0.465771 -0.459234 -0.572 213 214 219
0.466861 -0.459234 -0.572 209 212 219
0.46795 -0.459234 -0.572 214 217 224
0.46904 -0.459234 -0.572 201 209 222
0.47013 -0.459234 -0.572 184 192 205
0.471219 -0.459234 -0.572 160 175 198
0.474226 -0.460037 -0.573 74 94 127
0.475317 -0.460037 -0.573 117 137 170
0.476409 -0.460037 -0.573 180 197 225
0.4775 -0.460037 -0.573 195 212 240
0.478591 -0.460037 -0.573 180 194 220
0.479683 -0.460037 -0.573 158 172 198
0.480774 -0.460037 -0.573 148 171 203
0.481866 -0.460037 -0.573 148 171 203
0.482957 -0.460037 -0.573 149 172 204
0.484049 -0.460037 -0.573 104 140 192
0.48514 -0.460037 -0.573 76 112 164
0.486231 -0.460037 -0.573 62 110 176
0.487323 -0.460037 -0.573 59 107 173
0.488414 -0.460037 -0.573 55 105 168
0.489506 -0.460037 -0.573 57 107 170
0.490597 -0.460037 -0.573 78 120 178
0.491689 -0.460037 -0.573 115 157 215
0.49278 -0.460037 -0.573 153 173 198
0.493871 -0.460037 -0.573 144 164 189
0.494963 -0.460037 -0.573 155 177 201
0.498013 -0.46084 -0.574 183 200 230
0.499107 -0.46084 -0.574 145 162 192
0.5002 -0.46084 -0.574 77 96 136
0.501293 -0.46084 -0.574 52 71 111
0.502387 -0.46084 -0.574 107 122 155
0.50348 -0.46084 -0.574 155 170 203
0.504573 -0.46084 -0.574 183 183 191
0.505667 -0.46084 -0.574 172 172 180
0.50676 -0.46084 -0.574 152 150 151
0.507853 -0.46084 -0.574 164 162 163
0.508947 -0.46084 -0.574 185 185 193
0.51004 -0.46084 -0.574 199 199 207
0.511133 -0.46084 -0.574 193 194 198
0.522757 -0.445586 -0.555 147 120 113
0.519095 -0.441571 -0.55 150 120 109
0.520143 -0.441571 -0.55 150 120 109
0.516452 -0.437557 -0.545 150 120 109
0.512743 -0.433543 -0.54 149 122 105
0.508063 -0.428726 -0.534 150 123 106
0.50622 -0.426317 -0.531 148 120 106
0.50341 -0.423106 -0.527 150 122 108
0.5025 -0.4215 -0.525 153 124 110
0.500623 -0.419091 -0.522 154 125 111
0.498734 -0.416683 -0.519 154 125 111
0.497797 -0.415077 -0.517 153 124 110
0.495888 -0.412669 -0.514 156 124 109
0.494933 -0.411063 -0.512 157 125 110
0.493971 -0.409457 -0.51 158 125 110
0.493002 -0.407851 -0.508 157 124 109
0.492025 -0.406246 -0.506 160 124 108
0.490066 -0.403837 -0.503 161 125 109
0.490048 -0.403034 -0.502 161 125 109
0.489048 -0.401429 -0.5 162 126 110
0.48902 -0.400626 -0.499 164 127 111
0.488007 -0.39902 -0.497 163 126 110
0.48797 -0.398217 -0.496 166 129 110
0.487929 -0.397414 -0.495 166 129 110
0.486896 -0.395809 -0.493 168 132 110
0.486846 -0.395006 -0.492 168 132 110
0.486791 -0.394203 -0.491 168 132 110
0.486733 -0.3934 -0.49 169 133 111
0.486671 -0.392597 -0.489 173 132 110
0.486606 -0.391794 -0.488 172 131 109
0.486536 -0.390991 -0.487 173 133 108
0.486463 -0.390189 -0.486 173 133 108
0.486386 -0.389386 -0.485 175 133 108
0.486305 -0.388583 -0.484 177 135 110
0.48622 -0.38778 -0.483 179 137 112
0.48714 -0.38778 -0.483 179 137 112
0.48705 -0.386977 -0.482 181 137 110
0.486955 -0.386174 -0.481 180 136 109
0.487871 -0.386174 -0.481 178 137 109
0.487771 -0.385371 -0.48 177 136 108
0.488686 -0.385371 -0.48 177 136 106
0.48858 -0.384569 -0.479 178 137 107
0.489492 -0.384569 -0.479 178 137 107
0.489381 -0.383766 -0.478 178 137 107
0.490291 -0.383766 -0.478 179 138 108
0.491202 -0.383766 -0.478 182 141 111
0.491083 -0.382963 -0.477 181 140 110
0.491991 -0.382963 -0.477 182 141 111
0.491867 -0.38216 -0.476 184 141 109
0.492773 -0.38216 -0.476 184 141 109
0.492643 -0.381357 -0.475 182 139 107
0.493548 -0.381357 -0.475 181 138 106
0.494452 -0.381357 -0.475 180 137 105
0.494314 -0.380554 -0.474 180 137 105
0.495217 -0.380554 -0.474 181 138 106
0.495073 -0.379751 -0.473 181 138 106
0.495974 -0.379751 -0.473 181 138 104
0.495825 -0.378949 -0.472 180 137 103
0.496724 -0.378949 -0.472 178 135 101
0.497623 -0.378949 -0.472 177 134 100
0.498522 -0.378949 -0.472 177 134 100
0.498363 -0.378146 -0.471 178 135 101
0.49926 -0.378146 -0.471 178 135 100
0.500157 -0.378146 -0.471 179 136 101
0.501054 -0.378146 -0.471 178 135 100
0.501951 -0.378146 -0.471 177 134 99
0.502849 -0.378146 -0.471 177 135 97
0.503746 -0.378146 -0.471 177 135 97
0.503571 -0.377343 -0.47 176 134 96
0.504467 -0.377343 -0.47 175 133 95
0.505362 -0.377343 -0.47 176 132 97
0.50518 -0.37654 -0.469 179 135 100
0.506073 -0.37654 -0.469 181 137 102
0.505886 -0.375737 -0.468 180 136 101
0.506777 -0.375737 -0.468 179 135 100
0.507669 -0.375737 -0.468 179 135 100
0.50856 -0.375737 -0.468 179 135 100
0.509451 -0.375737 -0.468 180 136 101
0.510343 -0.375737 -0.468 180 136 101
0.510142 -0.374934 -0.467 177 133 98
0.511031 -0.374934 -0.467 174 129 96
0.511921 -0.374934 -0.467 173 128 95
0.51281 -0.374934 -0.467 173 128 95
0.5126 -0.374131 -0.466 173 128 95
0.513488 -0.374131 -0.466 172 127 94
0.515479 -0.374934 -0.467 172 127 94
0.516369 -0.374934 -0.467 169 125 90
0.517258 -0.374934 -0.467 171 127 92
0.518148 -0.374934 -0.467 168 123 90
0.520149 -0.375737 -0.468 164 119 86
0.52104 -0.375737 -0.468 164 119 86
0.521931 -0.375737 -0.468 165 120 87
0.522823 -0.375737 -0.468 164 121 87
0.524833 -0.37654 -0.469 164 121 87
0.525727 -0.37654 -0.469 163 120 88
0.527743 -0.377343 -0.47 161 118 86
0.529763 -0.378146 -0.471 159 118 88
0.53066 -0.378146 -0.471 157 116 86
0.533814 -0.379751 -0.473 156 115 85
0.535846 -0.380554 -0.474 156 115 85
0.537881 -0.381357 -0.475 156 115 85
0.547424 -0.386174 -0.481 152 115 88
0.55062 -0.38778 -0.483 147 110 84
0.9826 -0.464051 -0.578 203 205 191
0.983701 -0.464051 -0.578 204 206 192
0.984802 -0.464051 -0.578 205 207 193
0.985903 -0.464051 -0.578 205 207 193
0.987004 -0.464051 -0.578 204 206 193
0.988105 -0.464051 -0.578 205 207 194
0.989206 -0.464051 -0.578 204 206 193
0.990307 -0.464051 -0.578 204 206 193
0.99361 -0.464051 -0.578 204 206 192
0.99471 -0.464051 -0.578 204 206 192
0.995811 -0.464051 -0.578 205 207 193
0.996912 -0.464051 -0.578 204 206 192
0.998013 -0.464051 -0.578 203 205 191
0.999114 -0.464051 -0.578 203 205 191
1.00022 -0.464051 -0.578 204 206 192
1.00636 -0.464854 -0.579 204 206 192
1.0541 -0.46646 -0.581 203 205 191
1.05521 -0.46646 -0.581 203 205 191
1.05631 -0.46646 -0.581 203 205 191
0.0197971 -0.428938 -0.533 196 150 126
0.0206562 -0.425719 -0.529 194 148 124
0.021541 -0.423305 -0.526 191 147 122
0.0223714 -0.420086 -0.522 191 147 122
0.0231867 -0.416867 -0.518 193 148 119
0.0241267 -0.416062 -0.517 193 148 119
0.0250143 -0.414452 -0.515 195 146 113
0.0258943 -0.412843 -0.513 195 146 113
0.026819 -0.412038 -0.512 194 148 115
0.02774 -0.411233 -0.511 194 148 115
0.0286571 -0.410429 -0.51 195 149 116
0.0295705 -0.409624 -0.509 196 150 117
0.03054 -0.409624 -0.509 199 153 120
0.0314476 -0.408819 -0.508 201 155 122
0.0324152 -0.408819 -0.508 203 157 124
0.0333829 -0.408819 -0.508 204 158 125
0.0343505 -0.408819 -0.508 203 157 124
0.0353181 -0.408819 -0.508 204 158 125
0.0362143 -0.408014 -0.507 204 158 125
0.03718 -0.408014 -0.507 203 157 124
0.0381457 -0.408014 -0.507 202 156 123
0.0391114 -0.408014 -0.507 201 155 122
0.0400771 -0.408014 -0.507 202 156 123
0.0410429 -0.408014 -0.507 204 158 125
0.0420086 -0.408014 -0.507 202 158 123
0.0429743 -0.408014 -0.507 201 157 122
0.0440267 -0.408819 -0.508 200 155 122
0.0449943 -0.408819 -0.508 200 155 122
0.0459619 -0.408819 -0.508 197 152 119
0.0468371 -0.408014 -0.507 194 149 116
0.0478029 -0.408014 -0.507 193 148 115
0.0487686 -0.408014 -0.507 194 149 116
0.0497343 -0.408014 -0.507 191 146 113
0.0507 -0.408014 -0.507 191 146 113
0.0516657 -0.408014 -0.507 192 147 114
0.0526314 -0.408014 -0.507 192 147 114
0.0535971 -0.408014 -0.507 190 145 112
0.0545629 -0.408014 -0.507 189 144 111
0.0556381 -0.408819 -0.508 192 146 113
0.0566057 -0.408819 -0.508 192 146 113
0.0575733 -0.408819 -0.508 192 145 115
0.058541 -0.408819 -0.508 192 145 115
0.0595086 -0.408819 -0.508 191 146 117
0.0604762 -0.408819 -0.508 191 146 117
0.0615648 -0.409624 -0.509 191 146 117
0.0625343 -0.409624 -0.509 190 145 116
0.0635038 -0.409624 -0.509 191 144 116
0.0644733 -0.409624 -0.509 191 144 116
0.0655714 -0.410429 -0.51 193 146 120
0.0665429 -0.410429 -0.51 191 144 118
0.0676467 -0.411233 -0.511 186 140 116
0.06862 -0.411233 -0.511 186 140 116
0.0697295 -0.412038 -0.512 187 141 117
0.0708429 -0.412843 -0.513 187 141 117
0.07182 -0.412843 -0.513 185 138 112
0.072939 -0.413648 -0.514 184 137 111
0.0739181 -0.413648 -0.514 183 137 111
0.0750429 -0.414452 -0.515 182 136 110
0.0761714 -0.415257 -0.516 182 135 109
0.0773038 -0.416062 -0.517 181 134 108
0.07844 -0.416867 -0.518 182 132 109
0.0794267 -0.416867 -0.518 180 130 107
0.0805686 -0.417671 -0.519 174 126 104
0.0817143 -0.418476 -0.52 173 125 103
0.0828638 -0.419281 -0.521 169 124 105
0.0840171 -0.420086 -0.522 168 123 104
0.0851743 -0.42089 -0.523 165 122 105
0.0863352 -0.421695 -0.524 165 122 105
0.0876667 -0.423305 -0.526 159 120 103
0.0888371 -0.42411 -0.527 155 116 99
0.0901819 -0.425719 -0.529 147 114 97
0.0913619 -0.426524 -0.53 142 109 92
0.09272 -0.428133 -0.532 145 109 95
0.0939095 -0.428938 -0.533 141 105 91
0.095281 -0.430548 -0.535 135 102 95
0.09666 -0.432157 -0.537 132 99 92
0.0980467 -0.433767 -0.539 124 99 95
0.11193 -0.448252 -0.557 70 67 76
0.113194 -0.449057 -0.558 89 86 95
0.114462 -0.449862 -0.559 107 105 119
0.115527 -0.449862 -0.559 117 115 129
0.1168 -0.450667 -0.56 133 132 140
0.117867 -0.450667 -0.56 140 139 147
0.118933 -0.450667 -0.56 147 147 149
0.12 -0.450667 -0.56 161 161 163
0.12085 -0.449862 -0.559 160 160 162
0.121915 -0.449862 -0.559 170 170 172
0.12298 -0.449862 -0.559 173 170 177
0.124045 -0.449862 -0.559 181 178 185
0.12511 -0.449862 -0.559 185 179 189
0.126174 -0.449862 -0.559 187 181 191
0.127239 -0.449862 -0.559 184 181 188
0.128304 -0.449862 -0.559 188 185 192
0.129369 -0.449862 -0.559 190 189 195
0.130433 -0.449862 -0.559 194 193 199
0.131498 -0.449862 -0.559 188 187 193
0.132563 -0.449862 -0.559 179 178 184
0.133389 -0.449057 -0.558 178 168 167
0.134451 -0.449057 -0.558 173 163 162
0.135514 -0.449057 -0.558 199 192 199
0.136577 -0.449057 -0.558 213 206 213
0.13764 -0.449057 -0.558 207 211 222
0.138703 -0.449057 -0.558 210 214 225
0.139766 -0.449057 -0.558 208 213 219
0.140829 -0.449057 -0.558 209 214 220
0.141891 -0.449057 -0.558 198 208 217
0.142954 -0.449057 -0.558 184 194 203
0.144017 -0.449057 -0.558 156 176 201
0.14508 -0.449057 -0.558 120 140 165
0.146143 -0.449057 -0.558 86 110 148
0.147206 -0.449057 -0.558 118 142 180
0.148269 -0.449057 -0.558 182 186 213
0.149331 -0.449057 -0.558 215 219 246
0.150394 -0.449057 -0.558 197 200 217
0.151457 -0.449057 -0.558 170 173 190
0.15252 -0.449057 -0.558 175 179 190
0.153583 -0.449057 -0.558 193 197 208
0.452993 -0.459519 -0.571 181 186 205
0.454081 -0.459519 -0.571 169 174 193
0.455169 -0.459519 -0.571 189 203 216
0.456256 -0.459519 -0.571 206 220 233
0.457344 -0.459519 -0.571 214 219 225
0.459234 -0.460324 -0.572 208 213 219
0.460324 -0.460324 -0.572 194 194 196
0.461413 -0.460324 -0.572 193 193 195
0.462503 -0.460324 -0.572 214 214 222
0.463592 -0.460324 -0.572 212 212 220
0.464682 -0.460324 -0.572 220 220 230
0.465771 -0.460324 -0.572 217 217 227
0.466861 -0.460324 -0.572 214 214 222
0.46795 -0.460324 -0.572 213 213 221
0.46904 -0.460324 -0.572 211 215 226
0.47013 -0.460324 -0.572 205 209 220
0.471219 -0.460324 -0.572 184 195 213
0.472309 -0.460324 -0.572 148 159 177
0.473398 -0.460324 -0.572 86 106 139
0.474488 -0.460324 -0.572 103 123 156
0.475577 -0.460324 -0.572 145 165 200
0.476667 -0.460324 -0.572 157 177 212
0.477756 -0.460324 -0.572 144 166 203
0.478846 -0.460324 -0.572 124 146 183
0.479935 -0.460324 -0.572 123 152 196
0.481025 -0.460324 -0.572 133 162 206
0.482114 -0.460324 -0.572 133 162 206
0.483204 -0.460324 -0.572 97 136 191
0.484293 -0.460324 -0.572 69 108 163
0.49278 -0.461129 -0.573 132 160 200
0.493871 -0.461129 -0.573 119 147 187
0.494963 -0.461129 -0.573 126 150 188
0.496054 -0.461129 -0.573 147 171 209
0.497146 -0.461129 -0.573 144 172 219
0.498237 -0.461129 -0.573 118 146 193
0.5002 -0.461933 -0.574 78 99 144
0.501293 -0.461933 -0.574 77 98 143
0.502387 -0.461933 -0.574 136 143 169
0.50348 -0.461933 -0.574 173 180 206
0.504573 -0.461933 -0.574 190 193 198
0.505667 -0.461933 -0.574 190 193 198
0.50676 -0.461933 -0.574 181 181 181
0.506969 -0.461129 -0.573 172 172 172
0.50806 -0.461129 -0.573 178 178 186
0.522757 -0.446643 -0.555 147 120 113
0.519095 -0.442619 -0.55 150 120 109
0.520143 -0.442619 -0.55 150 120 109
0.516452 -0.438595 -0.545 150 120 109
0.512743 -0.434571 -0.54 148 122 107
0.509014 -0.430548 -0.535 149 123 108
0.50622 -0.427329 -0.531 150 121 105
0.50341 -0.42411 -0.527 151 122 106
0.501543 -0.421695 -0.524 153 124 108
0.500623 -0.420086 -0.522 155 126 110
0.498734 -0.417671 -0.519 156 124 109
0.497797 -0.416062 -0.517 156 124 109
0.496852 -0.414452 -0.515 157 126 108
0.494933 -0.412038 -0.512 158 127 109
0.493971 -0.410429 -0.51 157 124 107
0.493002 -0.408819 -0.508 157 124 107
0.492025 -0.40721 -0.506 160 124 108
0.49104 -0.4056 -0.504 161 125 109
0.490048 -0.40399 -0.502 161 126 107
0.490026 -0.403186 -0.501 162 127 108
0.48902 -0.401576 -0.499 163 126 108
0.488989 -0.400771 -0.498 162 125 107
0.48797 -0.399162 -0.496 165 130 110
0.487929 -0.398357 -0.495 165 130 110
0.486896 -0.396748 -0.493 165 130 110
0.486846 -0.395943 -0.492 166 131 111
0.486791 -0.395138 -0.491 167 131 109
0.486733 -0.394333 -0.49 169 133 111
0.486671 -0.393529 -0.489 171 133 110
0.486606 -0.392724 -0.488 170 132 109
0.486536 -0.391919 -0.487 173 133 108
0.486463 -0.391114 -0.486 172 132 107
0.486386 -0.39031 -0.485 173 133 107
0.486305 -0.389505 -0.484 175 135 109
0.48622 -0.3887 -0.483 178 136 111
0.486131 -0.387895 -0.482 180 138 113
0.48705 -0.387895 -0.482 182 138 111
0.486955 -0.38709 -0.481 180 136 109
0.487871 -0.38709 -0.481 178 137 109
0.487771 -0.386286 -0.48 177 136 108
0.487668 -0.385481 -0.479 177 136 108
0.48858 -0.385481 -0.479 178 137 109
0.489492 -0.385481 -0.479 178 137 107
0.489381 -0.384676 -0.478 178 137 107
0.490291 -0.384676 -0.478 180 139 109
0.490174 -0.383871 -0.477 181 140 110
0.491083 -0.383871 -0.477 184 141 109
0.491991 -0.383871 -0.477 183 140 108
0.491867 -0.383067 -0.476 183 140 106
0.491738 -0.382262 -0.475 182 139 105
0.492643 -0.382262 -0.475 181 138 104
0.493548 -0.382262 -0.475 180 137 103
0.493411 -0.381457 -0.474 181 138 106
0.494314 -0.381457 -0.474 182 139 107
0.495217 -0.381457 -0.474 182 138 103
0.49612 -0.381457 -0.474 182 138 103
0.495974 -0.380652 -0.473 182 138 103
0.495825 -0.379848 -0.472 181 137 102
0.496724 -0.379848 -0.472 179 135 100
0.497623 -0.379848 -0.472 177 133 98
0.497466 -0.379043 -0.471 177 133 98
0.498363 -0.379043 -0.471 178 134 99
0.49926 -0.379043 -0.471 177 134 99
0.500157 -0.379043 -0.471 178 135 100
0.501054 -0.379043 -0.471 179 136 101
0.500886 -0.378238 -0.47 177 134 99
0.501781 -0.378238 -0.47 177 134 99
0.502676 -0.378238 -0.47 177 134 99
0.503571 -0.378238 -0.47 175 133 95
0.504467 -0.378238 -0.47 175 133 95
0.505362 -0.378238 -0.47 178 136 96
0.50518 -0.377433 -0.469 177 135 95
0.506073 -0.377433 -0.469 178 136 98
0.505886 -0.376629 -0.468 180 138 100
0.506777 -0.376629 -0.468 180 138 100
0.507669 -0.376629 -0.468 179 137 99
0.50856 -0.376629 -0.468 180 136 99
0.509451 -0.376629 -0.468 180 136 99
0.509252 -0.375824 -0.467 179 135 98
0.510142 -0.375824 -0.467 178 134 97
0.511031 -0.375824 -0.467 176 133 98
0.511921 -0.375824 -0.467 174 131 96
0.511712 -0.375019 -0.466 173 130 95
0.5126 -0.375019 -0.466 173 130 95
0.513488 -0.375019 -0.466 173 129 94
0.514375 -0.375019 -0.466 172 128 93
0.515263 -0.375019 -0.466 171 128 94
0.51615 -0.375019 -0.466 169 126 92
0.518148 -0.375824 -0.467 168 125 91
0.519037 -0.375824 -0.467 166 123 89
0.519927 -0.375824 -0.467 164 121 87
0.521931 -0.376629 -0.468 163 120 86
0.522823 -0.376629 -0.468 164 121 87
0.523714 -0.376629 -0.468 162 119 85
0.525727 -0.377433 -0.469 164 121 87
0.527743 -0.378238 -0.47 163 120 86
0.528638 -0.378238 -0.47 162 119 85
0.53066 -0.379043 -0.471 160 117 83
0.532686 -0.379848 -0.472 160 117 85
0.534715 -0.380652 -0.473 160 117 85
0.536749 -0.381457 -0.474 159 116 84
0.53992 -0.383067 -0.476 158 115 83
0.541963 -0.383871 -0.477 153 114 85
0.545148 -0.385481 -0.479 153 114 85
0.54948 -0.387895 -0.482 150 110 84
0.978702 -0.464348 -0.577 204 206 192
0.979801 -0.464348 -0.577 204 206 192
0.9809 -0.464348 -0.577 204 206 192
0.981999 -0.464348 -0.577 204 206 192
0.983098 -0.464348 -0.577 205 207 193
0.984197 -0.464348 -0.577 205 207 193
0.985296 -0.464348 -0.577 205 207 193
0.986395 -0.464348 -0.577 204 206 192
0.987494 -0.464348 -0.577 204 206 192
0.995811 -0.465152 -0.578 204 206 192
0.996912 -0.465152 -0.578 204 206 192
0.998013 -0.465152 -0.578 204 206 192
0.999114 -0.465152 -0.578 205 207 193
1.00022 -0.465152 -0.578 205 207 193
1.00132 -0.465152 -0.578 205 207 193
1.00242 -0.465152 -0.578 205 207 193
1.00352 -0.465152 -0.578 205 207 193
0.0178667 -0.432373 -0.536 200 150 123
0.0188171 -0.43076 -0.534 196 146 119
0.0196857 -0.427533 -0.53 196 149 123
0.020539 -0.424307 -0.526 196 149 123
0.0213771 -0.42108 -0.522 193 147 123
0.0222 -0.417853 -0.518 193 147 123
0.0230971 -0.41624 -0.516 195 148 120
0.0239867 -0.414627 -0.514 195 148 120
0.0249171 -0.41382 -0.513 196 147 115
0.0258438 -0.413013 -0.512 196 147 115
0.0267667 -0.412207 -0.511 196 147 117
0.0276857 -0.4114 -0.51 197 148 118
0.0286571 -0.4114 -0.51 198 149 119
0.0295705 -0.410593 -0.509 200 151 121
0.03048 -0.409787 -0.508 203 154 122
0.0314476 -0.409787 -0.508 204 155 123
0.0324152 -0.409787 -0.508 202 156 123
0.0333829 -0.409787 -0.508 203 157 124
0.0343505 -0.409787 -0.508 202 156 123
0.0352486 -0.40898 -0.507 203 157 124
0.0362143 -0.40898 -0.507 203 157 124
0.03718 -0.40898 -0.507 202 156 123
0.0381457 -0.40898 -0.507 202 156 123
0.0391114 -0.40898 -0.507 201 155 122
0.0400771 -0.40898 -0.507 201 155 122
0.0410429 -0.40898 -0.507 203 157 124
0.0420086 -0.40898 -0.507 201 157 122
0.0429743 -0.40898 -0.507 200 156 121
0.04394 -0.40898 -0.507 200 156 121
0.0449057 -0.40898 -0.507 199 155 120
0.0458714 -0.40898 -0.507 197 153 118
0.0468371 -0.40898 -0.507 195 151 116
0.0478029 -0.40898 -0.507 193 148 115
0.0487686 -0.40898 -0.507 193 148 115
0.0497343 -0.40898 -0.507 191 146 113
0.0507 -0.40898 -0.507 191 146 113
0.0516657 -0.40898 -0.507 191 146 113
0.0526314 -0.40898 -0.507 190 145 112
0.0535971 -0.40898 -0.507 188 142 109
0.0545629 -0.40898 -0.507 189 143 110
0.0555286 -0.40898 -0.507 191 145 112
0.0566057 -0.409787 -0.508 193 147 114
0.0575733 -0.409787 -0.508 193 146 116
0.058541 -0.409787 -0.508 193 146 116
0.0595086 -0.409787 -0.508 192 147 118
0.0604762 -0.409787 -0.508 191 146 117
0.0614438 -0.409787 -0.508 191 146 117
0.0625343 -0.410593 -0.509 190 145 116
0.0635038 -0.410593 -0.509 191 144 116
0.0644733 -0.410593 -0.509 191 144 116
0.0655714 -0.4114 -0.51 192 145 117
0.0665429 -0.4114 -0.51 190 143 115
0.0676467 -0.412207 -0.511 188 142 116
0.06862 -0.412207 -0.511 187 141 115
0.0697295 -0.413013 -0.512 186 140 114
0.0708429 -0.41382 -0.513 184 138 112
0.07182 -0.41382 -0.513 183 136 110
0.072939 -0.414627 -0.514 182 135 109
0.0739181 -0.414627 -0.514 181 135 109
0.0750429 -0.415433 -0.515 181 135 109
0.0761714 -0.41624 -0.516 181 133 110
0.0773038 -0.417047 -0.517 181 133 110
0.07844 -0.417853 -0.518 181 133 111
0.0794267 -0.417853 -0.518 178 130 108
0.0805686 -0.41866 -0.519 173 126 106
0.0817143 -0.419467 -0.52 170 123 103
0.0828638 -0.420273 -0.521 168 123 104
0.0840171 -0.42108 -0.522 168 123 104
0.0853371 -0.422693 -0.524 164 121 104
0.0865 -0.4235 -0.525 163 120 103
0.0876667 -0.424307 -0.526 156 119 101
0.0890057 -0.42592 -0.528 153 116 98
0.0901819 -0.426727 -0.529 146 113 96
0.0915343 -0.42834 -0.531 141 108 91
0.09272 -0.429147 -0.532 141 107 95
0.0940857 -0.43076 -0.534 138 104 92
0.095281 -0.431567 -0.535 131 101 93
0.09666 -0.43318 -0.537 129 99 91
0.0980467 -0.434793 -0.539 122 98 94
0.11067 -0.448507 -0.556 72 65 72
0.11193 -0.449313 -0.557 86 86 94
0.113194 -0.45012 -0.558 101 101 109
0.114257 -0.45012 -0.558 113 112 118
0.115527 -0.450927 -0.559 124 123 129
0.116591 -0.450927 -0.559 135 134 140
0.117656 -0.450927 -0.559 141 140 146
0.118721 -0.450927 -0.559 149 148 154
0.119786 -0.450927 -0.559 158 157 163
0.12085 -0.450927 -0.559 163 162 170
0.121915 -0.450927 -0.559 165 164 172
0.12298 -0.450927 -0.559 171 170 178
0.124045 -0.450927 -0.559 177 176 184
0.12511 -0.450927 -0.559 180 179 185
0.126174 -0.450927 -0.559 182 181 187
0.127011 -0.45012 -0.558 179 178 186
0.128074 -0.45012 -0.558 179 178 186
0.129137 -0.45012 -0.558 187 186 194
0.1302 -0.45012 -0.558 197 196 204
0.131263 -0.45012 -0.558 194 189 193
0.132326 -0.45012 -0.558 189 184 188
0.133389 -0.45012 -0.558 168 163 160
0.13421 -0.449313 -0.557 163 158 155
0.135271 -0.449313 -0.557 198 196 197
0.136332 -0.449313 -0.557 214 212 213
0.137393 -0.449313 -0.557 208 212 223
0.138454 -0.449313 -0.557 209 213 224
0.139515 -0.449313 -0.557 208 214 226
0.140576 -0.449313 -0.557 208 214 226
0.141637 -0.449313 -0.557 213 217 229
0.142698 -0.449313 -0.557 201 205 217
0.149331 -0.45012 -0.558 200 215 244
0.150394 -0.45012 -0.558 175 186 206
0.182607 -0.450927 -0.559 238 242 254
0.183671 -0.450927 -0.559 240 241 255
0.184736 -0.450927 -0.559 239 240 255
0.185801 -0.450927 -0.559 239 242 249
0.186866 -0.450927 -0.559 239 242 249
0.18793 -0.450927 -0.559 238 242 254
0.188995 -0.450927 -0.559 239 243 255
0.19006 -0.450927 -0.559 234 243 250
0.457344 -0.460607 -0.571 198 205 213
0.458431 -0.460607 -0.571 202 209 217
0.459519 -0.460607 -0.571 199 198 203
0.460607 -0.460607 -0.571 214 213 218
0.461694 -0.460607 -0.571 209 209 219
0.462782 -0.460607 -0.571 199 199 209
0.46387 -0.460607 -0.571 210 212 224
0.464957 -0.460607 -0.571 216 218 230
0.466045 -0.460607 -0.571 219 219 227
0.46795 -0.461413 -0.572 215 215 223
0.46904 -0.461413 -0.572 209 213 222
0.47013 -0.461413 -0.572 204 208 217
0.471219 -0.461413 -0.572 200 209 226
0.472309 -0.461413 -0.572 180 189 206
0.473398 -0.461413 -0.572 135 155 188
0.474488 -0.461413 -0.572 112 132 165
0.475577 -0.461413 -0.572 99 122 163
0.476667 -0.461413 -0.572 96 119 160
0.477756 -0.461413 -0.572 97 125 173
0.478846 -0.461413 -0.572 91 119 167
0.479935 -0.461413 -0.572 100 133 186
0.481025 -0.461413 -0.572 121 154 207
0.482114 -0.461413 -0.572 121 154 207
0.483204 -0.461413 -0.572 92 132 191
0.485383 -0.461413 -0.572 42 90 152
0.486472 -0.461413 -0.572 37 85 147
0.487562 -0.461413 -0.572 36 81 146
0.488651 -0.461413 -0.572 44 89 154
0.489741 -0.461413 -0.572 59 98 163
0.49083 -0.461413 -0.572 96 135 200
0.49192 -0.461413 -0.572 117 149 206
0.49301 -0.461413 -0.572 100 132 189
0.494099 -0.461413 -0.572 94 121 168
0.495189 -0.461413 -0.572 93 120 167
0.496278 -0.461413 -0.572 80 116 174
0.498237 -0.46222 -0.573 76 112 170
0.499329 -0.46222 -0.573 77 101 147
0.50042 -0.46222 -0.573 105 129 175
0.501511 -0.46222 -0.573 164 169 188
0.502603 -0.46222 -0.573 186 191 210
0.503694 -0.46222 -0.573 181 186 189
0.504786 -0.46222 -0.573 180 185 188
0.505877 -0.46222 -0.573 195 197 194
0.506969 -0.46222 -0.573 196 198 195
0.50806 -0.46222 -0.573 195 195 203
0.509151 -0.46222 -0.573 196 196 204
0.510243 -0.46222 -0.573 189 192 197
0.523699 -0.448507 -0.556 143 120 114
0.520039 -0.444473 -0.551 148 120 108
0.51636 -0.44044 -0.546 146 118 106
0.5174 -0.44044 -0.546 146 118 106
0.513692 -0.436407 -0.541 146 123 105
0.509014 -0.431567 -0.535 144 121 103
0.50622 -0.42834 -0.531 151 123 111
0.504366 -0.42592 -0.528 149 121 109
0.5025 -0.4235 -0.525 152 122 111
0.500623 -0.42108 -0.522 154 124 113
0.498734 -0.41866 -0.519 153 124 110
0.497797 -0.417047 -0.517 153 124 110
0.496852 -0.415433 -0.515 157 125 112
0.494933 -0.413013 -0.512 157 125 112
0.493971 -0.4114 -0.51 158 125 110
0.493002 -0.409787 -0.508 158 125 110
0.492025 -0.408173 -0.506 159 126 109
0.49104 -0.40656 -0.504 159 126 109
0.491024 -0.405753 -0.503 161 126 107
0.490026 -0.40414 -0.501 162 127 108
0.49 -0.403333 -0.5 163 128 109
0.488989 -0.40172 -0.498 162 127 108
0.488953 -0.400913 -0.497 163 126 108
0.487929 -0.3993 -0.495 165 128 110
0.487884 -0.398493 -0.494 167 130 114
0.486846 -0.39688 -0.492 167 130 114
0.486791 -0.396073 -0.491 169 132 114
0.486733 -0.395267 -0.49 168 131 113
0.486671 -0.39446 -0.489 169 131 110
0.486606 -0.393653 -0.488 170 132 111
0.486536 -0.392847 -0.487 174 133 111
0.486463 -0.39204 -0.486 174 133 111
0.486386 -0.391233 -0.485 173 133 108
0.48731 -0.391233 -0.485 174 134 109
0.487227 -0.390427 -0.484 179 137 112
0.48714 -0.38962 -0.483 180 138 113
0.48705 -0.388813 -0.482 179 138 110
0.486955 -0.388007 -0.481 178 137 109
0.487871 -0.388007 -0.481 177 136 106
0.487771 -0.3872 -0.48 177 136 106
0.488686 -0.3872 -0.48 177 136 106
0.48858 -0.386393 -0.479 178 137 107
0.489492 -0.386393 -0.479 179 138 106
0.489381 -0.385587 -0.478 179 138 106
0.490291 -0.385587 -0.478 179 138 108
0.490174 -0.38478 -0.477 181 140 110
0.491083 -0.38478 -0.477 184 140 111
0.491991 -0.38478 -0.477 184 140 111
0.491867 -0.383973 -0.476 181 138 106
0.491738 -0.383167 -0.475 180 137 105
0.492643 -0.383167 -0.475 181 138 106
0.492509 -0.38236 -0.474 181 138 106
0.493411 -0.38236 -0.474 181 138 106
0.494314 -0.38236 -0.474 182 139 107
0.495217 -0.38236 -0.474 183 139 104
0.495073 -0.381553 -0.473 182 138 103
0.495974 -0.381553 -0.473 182 137 104
0.495825 -0.380747 -0.472 181 136 103
0.496724 -0.380747 -0.472 180 135 102
0.496569 -0.37994 -0.471 179 134 101
0.497466 -0.37994 -0.471 178 134 99
0.498363 -0.37994 -0.471 178 134 99
0.49926 -0.37994 -0.471 178 134 99
0.500157 -0.37994 -0.471 178 134 99
0.501054 -0.37994 -0.471 179 135 100
0.500886 -0.379133 -0.47 178 134 99
0.501781 -0.379133 -0.47 178 134 99
0.502676 -0.379133 -0.47 179 135 100
0.503571 -0.379133 -0.47 176 134 96
0.503393 -0.378327 -0.469 176 134 96
0.504287 -0.378327 -0.469 177 135 95
0.50518 -0.378327 -0.469 177 135 95
0.506073 -0.378327 -0.469 178 136 98
0.505886 -0.37752 -0.468 179 137 99
0.506777 -0.37752 -0.468 179 137 99
0.506584 -0.376713 -0.467 179 137 99
0.507473 -0.376713 -0.467 179 135 98
0.508363 -0.376713 -0.467 180 136 99
0.509252 -0.376713 -0.467 179 135 98
0.510142 -0.376713 -0.467 177 133 96
0.511031 -0.376713 -0.467 175 132 97
0.510825 -0.375907 -0.466 174 131 96
0.511712 -0.375907 -0.466 172 129 94
0.5126 -0.375907 -0.466 171 128 93
0.513488 -0.375907 -0.466 173 129 92
0.514375 -0.375907 -0.466 172 128 91
0.515263 -0.375907 -0.466 172 129 95
0.51615 -0.375907 -0.466 170 127 93
0.517038 -0.375907 -0.466 168 125 91
0.519037 -0.376713 -0.467 166 123 89
0.519927 -0.376713 -0.467 164 121 87
0.520816 -0.376713 -0.467 165 122 88
0.522823 -0.37752 -0.468 165 122 88
0.523714 -0.37752 -0.468 163 120 86
0.525727 -0.378327 -0.469 163 120 88
0.52662 -0.378327 -0.469 163 120 88
0.528638 -0.379133 -0.47 163 120 88
0.529533 -0.379133 -0.47 162 119 87
0.531557 -0.37994 -0.471 160 117 85
0.533585 -0.380747 -0.472 160 117 85
0.535616 -0.381553 -0.473 159 116 84
0.538786 -0.383167 -0.475 159 116 84
0.540827 -0.383973 -0.476 157 113 84
0.54401 -0.385587 -0.478 156 112 83
0.5472 -0.3872 -0.48 150 109 79
0.655667 -0.453347 -0.562 203 203 193
0.981394 -0.46464 -0.576 204 206 192
0.982491 -0.46464 -0.576 205 207 193
0.983589 -0.46464 -0.576 204 206 192
0.986395 -0.465447 -0.577 204 206 192
0.987494 -0.465447 -0.577 204 206 192
0.988593 -0.465447 -0.577 205 207 193
0.989692 -0.465447 -0.577 204 206 192
0.990791 -0.465447 -0.577 205 207 193
0.991891 -0.465447 -0.577 205 207 193
0.99299 -0.465447 -0.577 205 207 193
0.994089 -0.465447 -0.577 204 206 192
0.995188 -0.465447 -0.577 204 206 192
0.996287 -0.465447 -0.577 205 207 193
0.997386 -0.465447 -0.577 206 208 194
0.998485 -0.465447 -0.577 206 208 194
0.999584 -0.465447 -0.577 204 206 192
1.00068 -0.465447 -0.577 204 207 190
0.0178 -0.431777 -0.534 198 149 119
0.0187114 -0.429351 -0.531 195 146 116
0.0195743 -0.426117 -0.527 195 145 118
0.0204219 -0.422883 -0.523 197 147 120
0.0212952 -0.420457 -0.52 195 149 123
