ply
format ascii 1.0
comment Created by Open3D
element vertex 1295
property double x
property double y
property double z
property uchar red
property uchar green
property uchar blue
end_header
0.11218 -0.395527 -0.553 140 98 84
0.113438 -0.396242 -0.554 142 100 86
0.1147 -0.396957 -0.555 148 100 86
0.115966 -0.397672 -0.556 145 97 83
0.117656 -0.399818 -0.559 141 94 86
0.119146 -0.401249 -0.561 138 91 83
0.120643 -0.402679 -0.563 126 90 92
0.122148 -0.40411 -0.565 126 90 92
0.12366 -0.40554 -0.567 120 89 94
0.138966 -0.41913 -0.586 21 28 56
0.140321 -0.419845 -0.587 27 34 62
0.14168 -0.42056 -0.588 28 37 66
0.1428 -0.42056 -0.588 28 37 66
0.144165 -0.421275 -0.589 26 37 67
0.145287 -0.421275 -0.589 25 36 66
0.146409 -0.421275 -0.589 30 43 78
0.14753 -0.421275 -0.589 66 79 114
0.148652 -0.421275 -0.589 84 93 132
0.149774 -0.421275 -0.589 84 93 132
0.150896 -0.421275 -0.589 104 113 152
0.152018 -0.421275 -0.589 121 128 157
0.15314 -0.421275 -0.589 130 137 166
0.154 -0.42056 -0.588 139 146 162
0.15512 -0.42056 -0.588 142 149 165
0.15624 -0.42056 -0.588 141 149 168
0.15736 -0.42056 -0.588 144 152 171
0.15848 -0.42056 -0.588 147 153 169
0.159871 -0.421275 -0.589 150 156 172
0.160993 -0.421275 -0.589 157 158 176
0.162115 -0.421275 -0.589 152 153 171
0.163237 -0.421275 -0.589 148 150 173
0.164359 -0.421275 -0.589 130 132 155
0.165481 -0.421275 -0.589 79 92 124
0.166603 -0.421275 -0.589 65 78 110
0.167725 -0.421275 -0.589 59 83 127
0.16856 -0.42056 -0.588 65 89 133
0.16968 -0.42056 -0.588 52 85 138
0.1708 -0.42056 -0.588 48 81 134
0.17192 -0.42056 -0.588 38 73 131
0.17304 -0.42056 -0.588 38 73 131
0.17416 -0.42056 -0.588 54 91 146
0.17528 -0.42056 -0.588 62 99 154
0.1764 -0.42056 -0.588 62 98 156
0.17752 -0.42056 -0.588 61 97 155
0.17864 -0.42056 -0.588 70 108 171
0.17976 -0.42056 -0.588 66 104 167
0.18088 -0.42056 -0.588 58 103 170
0.182 -0.42056 -0.588 76 121 188
0.18312 -0.42056 -0.588 157 158 178
0.18424 -0.42056 -0.588 186 187 207
0.18536 -0.42056 -0.588 185 191 205
0.18648 -0.42056 -0.588 186 192 206
0.1876 -0.42056 -0.588 189 198 207
0.18872 -0.42056 -0.588 189 198 207
0.18984 -0.42056 -0.588 192 204 216
0.19096 -0.42056 -0.588 188 200 212
0.19208 -0.42056 -0.588 194 204 216
0.1932 -0.42056 -0.588 195 205 217
0.19432 -0.42056 -0.588 190 198 219
0.19544 -0.42056 -0.588 189 197 218
0.19656 -0.42056 -0.588 164 182 218
0.19768 -0.42056 -0.588 150 168 204
0.1988 -0.42056 -0.588 102 136 184
0.19992 -0.42056 -0.588 68 102 150
0.20104 -0.42056 -0.588 65 100 154
0.20216 -0.42056 -0.588 64 99 153
0.20328 -0.42056 -0.588 74 101 154
0.2044 -0.42056 -0.588 94 121 174
0.213723 -0.421275 -0.589 133 160 213
0.214845 -0.421275 -0.589 161 188 241
0.215967 -0.421275 -0.589 188 204 238
0.217089 -0.421275 -0.589 200 216 250
0.21821 -0.421275 -0.589 215 223 244
0.219332 -0.421275 -0.589 216 224 245
0.220454 -0.421275 -0.589 215 222 240
0.221576 -0.421275 -0.589 214 221 239
0.222698 -0.421275 -0.589 217 225 244
0.22382 -0.421275 -0.589 219 227 246
0.224942 -0.421275 -0.589 224 230 246
0.226064 -0.421275 -0.589 222 228 244
0.227186 -0.421275 -0.589 224 224 236
0.228308 -0.421275 -0.589 207 207 219
0.350177 -0.424851 -0.594 201 210 217
0.351309 -0.424851 -0.594 171 180 187
0.35244 -0.424851 -0.594 154 154 154
0.353571 -0.424851 -0.594 168 168 168
0.354703 -0.424851 -0.594 196 195 201
0.356433 -0.425567 -0.595 205 204 210
0.357567 -0.425567 -0.595 201 201 211
0.3587 -0.425567 -0.595 204 204 214
0.359833 -0.425567 -0.595 193 196 201
0.360967 -0.425567 -0.595 159 162 167
0.3621 -0.425567 -0.595 88 129 181
0.363233 -0.425567 -0.595 83 124 176
0.364367 -0.425567 -0.595 94 133 192
0.3655 -0.425567 -0.595 94 133 192
0.366633 -0.425567 -0.595 94 133 192
0.367767 -0.425567 -0.595 90 126 186
0.3689 -0.425567 -0.595 93 129 189
0.370033 -0.425567 -0.595 89 130 186
0.371167 -0.425567 -0.595 90 131 187
0.3723 -0.425567 -0.595 83 130 186
0.373433 -0.425567 -0.595 83 130 186
0.374567 -0.425567 -0.595 83 124 178
0.3757 -0.425567 -0.595 76 117 171
0.376833 -0.425567 -0.595 137 157 192
0.377967 -0.425567 -0.595 174 194 229
0.3791 -0.425567 -0.595 198 198 210
0.380233 -0.425567 -0.595 198 198 210
0.381367 -0.425567 -0.595 196 196 222
0.3825 -0.425567 -0.595 198 198 224
0.383633 -0.425567 -0.595 191 198 206
0.384767 -0.425567 -0.595 190 197 205
0.3859 -0.425567 -0.595 191 197 213
0.387033 -0.425567 -0.595 187 193 209
0.388167 -0.425567 -0.595 177 185 198
0.3893 -0.425567 -0.595 124 132 145
0.390433 -0.425567 -0.595 101 115 141
0.391567 -0.425567 -0.595 86 100 126
0.3927 -0.425567 -0.595 72 99 129
0.393833 -0.425567 -0.595 68 95 125
0.41947 -0.426282 -0.596 187 194 202
0.420606 -0.426282 -0.596 187 194 202
0.421741 -0.426282 -0.596 183 193 202
0.428134 -0.426997 -0.597 66 107 161
0.429271 -0.426997 -0.597 73 112 169
0.430409 -0.426997 -0.597 79 118 175
0.431546 -0.426997 -0.597 80 116 174
0.432683 -0.426997 -0.597 77 113 171
0.43382 -0.426997 -0.597 81 122 174
0.434957 -0.426997 -0.597 77 118 170
0.436094 -0.426997 -0.597 70 111 165
0.437231 -0.426997 -0.597 70 111 165
0.438369 -0.426997 -0.597 63 102 161
0.439506 -0.426997 -0.597 76 115 174
0.440643 -0.426997 -0.597 76 115 174
0.44178 -0.426997 -0.597 105 134 176
0.442917 -0.426997 -0.597 144 173 215
0.444798 -0.427712 -0.598 179 182 187
0.445937 -0.427712 -0.598 182 185 190
0.447076 -0.427712 -0.598 183 183 191
0.448215 -0.427712 -0.598 186 186 194
0.449354 -0.427712 -0.598 177 184 192
0.450493 -0.427712 -0.598 176 183 191
0.451632 -0.427712 -0.598 182 179 190
0.452771 -0.427712 -0.598 185 182 193
0.45391 -0.427712 -0.598 166 172 186
0.45505 -0.427712 -0.598 112 118 132
0.456189 -0.427712 -0.598 78 94 119
0.457328 -0.427712 -0.598 72 88 113
0.458467 -0.427712 -0.598 53 81 128
0.459606 -0.427712 -0.598 60 88 135
0.460745 -0.427712 -0.598 55 85 135
0.461884 -0.427712 -0.598 65 95 145
0.463023 -0.427712 -0.598 65 96 150
0.464938 -0.428428 -0.599 61 92 146
0.466079 -0.428428 -0.599 79 115 165
0.46722 -0.428428 -0.599 76 112 162
0.468361 -0.428428 -0.599 64 97 150
0.469502 -0.428428 -0.599 60 93 146
0.470643 -0.428428 -0.599 58 86 136
0.471784 -0.428428 -0.599 48 76 126
0.472925 -0.428428 -0.599 64 87 129
0.474066 -0.428428 -0.599 59 82 124
0.475207 -0.428428 -0.599 61 80 110
0.477143 -0.429143 -0.6 83 102 132
0.478286 -0.429143 -0.6 134 138 163
0.479429 -0.429143 -0.6 167 171 196
0.480571 -0.429143 -0.6 178 180 193
0.481714 -0.429143 -0.6 176 178 191
0.482857 -0.429143 -0.6 172 179 195
0.484 -0.429143 -0.6 172 179 195
0.485143 -0.429143 -0.6 172 179 195
0.486286 -0.429143 -0.6 170 177 196
0.487429 -0.429143 -0.6 171 178 197
0.488571 -0.429143 -0.6 174 182 203
0.489714 -0.429143 -0.6 171 179 200
0.490857 -0.429143 -0.6 132 152 179
0.492 -0.429143 -0.6 97 117 144
0.493143 -0.429143 -0.6 64 99 141
0.494286 -0.429143 -0.6 70 105 147
0.496254 -0.429858 -0.601 73 106 157
0.497399 -0.429858 -0.601 83 116 167
0.498544 -0.429858 -0.601 104 131 186
0.499689 -0.429858 -0.601 109 136 191
0.500833 -0.429858 -0.601 96 129 174
0.501978 -0.429858 -0.601 85 118 163
0.503123 -0.429858 -0.601 77 112 166
0.504268 -0.429858 -0.601 71 106 160
0.505412 -0.429858 -0.601 67 104 156
0.506557 -0.429858 -0.601 64 101 153
0.507702 -0.429858 -0.601 79 109 163
0.508847 -0.429858 -0.601 111 141 195
0.509991 -0.429858 -0.601 167 167 175
0.511136 -0.429858 -0.601 173 173 181
0.512281 -0.429858 -0.601 174 172 183
0.513426 -0.429858 -0.601 172 170 181
0.51457 -0.429858 -0.601 182 177 181
0.515715 -0.429858 -0.601 179 174 178
0.51772 -0.430573 -0.602 165 156 157
0.518867 -0.430573 -0.602 111 102 103
0.51915 -0.429858 -0.601 107 109 122
0.520294 -0.429858 -0.601 115 117 130
0.521439 -0.429858 -0.601 91 98 126
0.522584 -0.429858 -0.601 72 79 107
0.523729 -0.429858 -0.601 58 77 119
0.524873 -0.429858 -0.601 62 81 123
0.526018 -0.429858 -0.601 65 92 137
0.527163 -0.429858 -0.601 78 105 150
0.528308 -0.429858 -0.601 108 132 168
0.529452 -0.429858 -0.601 109 133 169
0.530597 -0.429858 -0.601 83 104 131
0.531742 -0.429858 -0.601 83 104 131
0.532129 -0.414123 -0.579 144 120 108
0.526785 -0.409116 -0.572 140 116 104
0.519569 -0.402679 -0.563 146 118 106
0.513243 -0.396957 -0.555 149 121 109
0.506887 -0.391235 -0.547 149 121 107
0.502357 -0.386944 -0.541 148 120 106
0.497805 -0.382652 -0.535 150 121 105
0.495094 -0.379791 -0.531 151 122 106
0.493303 -0.377646 -0.528 156 123 106
0.490564 -0.374785 -0.524 158 125 108
0.488748 -0.372639 -0.521 161 124 105
0.48692 -0.370493 -0.518 161 124 105
0.486023 -0.369063 -0.516 163 125 102
0.485118 -0.367632 -0.514 167 129 106
0.485151 -0.366917 -0.513 171 131 106
0.484233 -0.365487 -0.511 171 131 106
0.484257 -0.364771 -0.51 174 132 107
0.483326 -0.363341 -0.508 174 132 107
0.48334 -0.362626 -0.507 174 133 115
0.48335 -0.36191 -0.506 169 128 110
0.483357 -0.361195 -0.505 167 126 106
0.48336 -0.36048 -0.504 176 135 115
0.483359 -0.359765 -0.503 177 136 116
0.483354 -0.35905 -0.502 171 130 110
0.483346 -0.358334 -0.501 174 131 112
0.483333 -0.357619 -0.5 175 132 113
0.483317 -0.356904 -0.499 174 131 112
0.484268 -0.356904 -0.499 171 128 109
0.484246 -0.356189 -0.498 175 133 111
0.48422 -0.355473 -0.497 176 134 112
0.485167 -0.355473 -0.497 171 129 105
0.486113 -0.355473 -0.497 171 129 105
0.48608 -0.354758 -0.496 178 133 112
0.487025 -0.354758 -0.496 182 137 116
0.48797 -0.354758 -0.496 178 133 110
0.487929 -0.354043 -0.495 177 132 109
0.488871 -0.354043 -0.495 176 131 108
0.489814 -0.354043 -0.495 176 131 108
0.490757 -0.354043 -0.495 175 130 107
0.4917 -0.354043 -0.495 175 130 107
0.492643 -0.354043 -0.495 174 129 106
0.493586 -0.354043 -0.495 175 131 106
0.49353 -0.353328 -0.494 179 135 110
0.49447 -0.353328 -0.494 178 132 108
0.495411 -0.353328 -0.494 178 132 108
0.496352 -0.353328 -0.494 180 134 110
0.497293 -0.353328 -0.494 180 134 110
0.498234 -0.353328 -0.494 178 132 108
0.499175 -0.353328 -0.494 176 130 106
0.499104 -0.352612 -0.493 175 128 102
0.500043 -0.352612 -0.493 172 125 99
0.500982 -0.352612 -0.493 173 126 100
0.501921 -0.352612 -0.493 175 128 102
0.50286 -0.352612 -0.493 175 128 102
0.503799 -0.352612 -0.493 173 126 100
0.504738 -0.352612 -0.493 173 126 100
0.505677 -0.352612 -0.493 173 126 100
0.505589 -0.351897 -0.492 170 123 97
0.507555 -0.352612 -0.493 165 118 92
0.508494 -0.352612 -0.493 170 123 97
0.509433 -0.352612 -0.493 171 124 98
0.510372 -0.352612 -0.493 170 122 99
0.511311 -0.352612 -0.493 169 121 98
0.51329 -0.353328 -0.494 170 122 99
0.51423 -0.353328 -0.494 170 122 99
0.515171 -0.353328 -0.494 169 121 98
0.516112 -0.353328 -0.494 169 121 98
0.517053 -0.353328 -0.494 169 119 96
0.517994 -0.353328 -0.494 169 119 96
0.518935 -0.353328 -0.494 169 119 96
0.520929 -0.354043 -0.495 169 119 96
0.521871 -0.354043 -0.495 166 118 96
0.52387 -0.354758 -0.496 164 116 94
0.525873 -0.355473 -0.497 163 116 96
0.52788 -0.356189 -0.498 161 114 94
0.52989 -0.356904 -0.499 158 113 92
0.531905 -0.357619 -0.5 157 112 91
0.536054 -0.359765 -0.503 155 110 91
0.539148 -0.361195 -0.505 155 110 91
0.544388 -0.364056 -0.509 155 110 91
0.549643 -0.366917 -0.513 154 109 90
0.0521029 -0.404469 -0.564 197 157 132
0.0528943 -0.402317 -0.561 197 157 132
0.0535781 -0.399449 -0.557 200 156 129
0.0541486 -0.395863 -0.552 201 157 130
0.0549 -0.393711 -0.549 202 157 134
0.0555381 -0.390843 -0.545 201 156 133
0.0563686 -0.389409 -0.543 202 155 127
0.0571914 -0.387974 -0.541 201 154 126
0.0580067 -0.38654 -0.539 201 156 137
0.0589238 -0.385823 -0.538 204 159 140
0.0598371 -0.385106 -0.537 205 159 135
0.0606333 -0.383671 -0.535 207 161 137
0.0616524 -0.383671 -0.535 208 162 138
0.0625543 -0.382954 -0.534 208 162 138
0.0634524 -0.382237 -0.533 207 161 137
0.0644676 -0.382237 -0.533 206 160 136
0.06536 -0.38152 -0.532 205 159 135
0.0663733 -0.38152 -0.532 204 158 134
0.0673867 -0.38152 -0.532 206 160 136
0.0682714 -0.380803 -0.531 207 161 137
0.0692829 -0.380803 -0.531 206 160 134
0.0701619 -0.380086 -0.53 206 160 134
0.0711714 -0.380086 -0.53 206 160 134
0.0721809 -0.380086 -0.53 204 158 132
0.0731905 -0.380086 -0.53 203 157 131
0.0742 -0.380086 -0.53 204 158 132
0.0752095 -0.380086 -0.53 203 159 132
0.076219 -0.380086 -0.53 200 156 129
0.0772286 -0.380086 -0.53 201 157 128
0.0782381 -0.380086 -0.53 201 157 128
0.0792476 -0.380086 -0.53 200 154 128
0.0804086 -0.380803 -0.531 198 152 126
0.08142 -0.380803 -0.531 197 150 124
0.0824314 -0.380803 -0.531 194 147 121
0.0836 -0.38152 -0.532 192 144 121
0.0846133 -0.38152 -0.532 192 144 121
0.0856267 -0.38152 -0.532 191 141 118
0.0868029 -0.382237 -0.533 187 137 114
0.0878181 -0.382237 -0.533 185 133 111
0.089 -0.382954 -0.534 182 130 108
0.0901857 -0.383671 -0.535 181 129 107
0.0912048 -0.383671 -0.535 181 129 107
0.0923962 -0.384389 -0.536 183 124 108
0.0935914 -0.385106 -0.537 181 122 106
0.0946143 -0.385106 -0.537 181 122 104
0.0958152 -0.385823 -0.538 182 123 105
0.09702 -0.38654 -0.539 179 122 103
0.0982286 -0.387257 -0.54 176 119 100
0.099441 -0.387974 -0.541 169 117 96
0.100471 -0.387974 -0.541 166 114 93
0.10169 -0.388691 -0.542 161 113 93
0.102911 -0.389409 -0.543 159 111 91
0.104137 -0.390126 -0.544 156 109 93
0.10556 -0.39156 -0.546 154 107 91
0.106795 -0.392277 -0.547 150 104 91
0.108034 -0.392994 -0.548 147 101 88
0.109476 -0.394429 -0.55 143 99 90
0.110725 -0.395146 -0.551 142 98 89
0.11218 -0.39658 -0.553 141 99 87
0.113438 -0.397297 -0.554 142 100 88
0.1147 -0.398014 -0.555 145 99 84
0.116174 -0.399449 -0.557 143 97 82
0.117656 -0.400883 -0.559 138 95 88
0.119146 -0.402317 -0.561 135 92 85
0.120643 -0.403751 -0.563 125 91 92
0.122148 -0.405186 -0.565 124 90 91
0.12366 -0.40662 -0.567 120 90 92
0.138966 -0.420246 -0.586 27 34 62
0.140321 -0.420963 -0.587 30 37 65
0.141439 -0.420963 -0.587 28 37 68
0.1428 -0.42168 -0.588 28 37 68
0.14392 -0.42168 -0.588 30 41 71
0.14504 -0.42168 -0.588 27 38 68
0.14616 -0.42168 -0.588 33 43 78
0.14728 -0.42168 -0.588 62 72 107
0.1484 -0.42168 -0.588 62 72 107
0.14952 -0.42168 -0.588 84 92 129
0.15064 -0.42168 -0.588 105 113 150
0.15176 -0.42168 -0.588 124 129 159
0.15288 -0.42168 -0.588 137 142 172
0.154 -0.42168 -0.588 142 148 164
0.15512 -0.42168 -0.588 145 151 167
0.15624 -0.42168 -0.588 145 151 167
0.15736 -0.42168 -0.588 144 150 166
0.15848 -0.42168 -0.588 151 155 167
0.1596 -0.42168 -0.588 155 159 171
0.16072 -0.42168 -0.588 156 155 169
0.16184 -0.42168 -0.588 157 156 170
0.16296 -0.42168 -0.588 147 150 169
0.16408 -0.42168 -0.588 116 119 138
0.1652 -0.42168 -0.588 72 86 115
0.16632 -0.42168 -0.588 69 83 112
0.16744 -0.42168 -0.588 69 94 135
0.16856 -0.42168 -0.588 80 105 146
0.16968 -0.42168 -0.588 64 96 145
0.1708 -0.42168 -0.588 55 87 136
0.17192 -0.42168 -0.588 51 84 138
0.17304 -0.42168 -0.588 53 86 140
0.17416 -0.42168 -0.588 72 109 161
0.17528 -0.42168 -0.588 78 115 167
0.1764 -0.42168 -0.588 74 109 165
0.177218 -0.420963 -0.587 77 112 168
0.178336 -0.420963 -0.587 87 123 183
0.179454 -0.420963 -0.587 77 113 173
0.180572 -0.420963 -0.587 61 105 168
0.18169 -0.420963 -0.587 79 123 186
0.182809 -0.420963 -0.587 162 163 183
0.183927 -0.420963 -0.587 189 190 210
0.185045 -0.420963 -0.587 188 194 208
0.186163 -0.420963 -0.587 189 195 209
0.187281 -0.420963 -0.587 192 201 210
0.188399 -0.420963 -0.587 192 201 210
0.189517 -0.420963 -0.587 194 206 218
0.190635 -0.420963 -0.587 192 204 216
0.19208 -0.42168 -0.588 196 204 215
0.20664 -0.42168 -0.588 95 122 177
0.21 -0.42168 -0.588 77 113 171
0.21112 -0.42168 -0.588 85 114 174
0.21224 -0.42168 -0.588 80 109 169
0.21336 -0.42168 -0.588 125 153 203
0.21448 -0.42168 -0.588 147 175 225
0.2156 -0.42168 -0.588 174 193 226
0.217089 -0.422397 -0.589 191 210 243
0.21821 -0.422397 -0.589 213 220 238
0.219332 -0.422397 -0.589 213 220 238
0.220454 -0.422397 -0.589 221 227 239
0.221576 -0.422397 -0.589 218 224 236
0.222698 -0.422397 -0.589 212 224 240
0.22382 -0.422397 -0.589 211 223 239
0.224942 -0.422397 -0.589 219 227 240
0.226064 -0.422397 -0.589 210 218 231
0.227186 -0.422397 -0.589 199 196 203
0.348458 -0.425266 -0.593 154 177 221
0.349588 -0.425266 -0.593 176 177 182
0.350717 -0.425266 -0.593 150 151 156
0.351847 -0.425266 -0.593 168 162 174
0.352976 -0.425266 -0.593 198 192 204
0.354106 -0.425266 -0.593 196 203 211
0.355834 -0.425983 -0.594 197 204 212
0.356966 -0.425983 -0.594 193 203 213
0.358097 -0.425983 -0.594 194 204 214
0.359229 -0.425983 -0.594 201 202 206
0.36036 -0.425983 -0.594 176 177 181
0.361491 -0.425983 -0.594 114 147 190
0.362623 -0.425983 -0.594 86 119 162
0.363754 -0.425983 -0.594 81 124 179
0.364886 -0.425983 -0.594 81 124 179
0.366017 -0.425983 -0.594 93 136 191
0.367149 -0.425983 -0.594 104 141 193
0.36828 -0.425983 -0.594 106 143 195
0.369411 -0.425983 -0.594 106 146 198
0.370543 -0.425983 -0.594 99 139 191
0.371674 -0.425983 -0.594 88 128 180
0.372806 -0.425983 -0.594 79 119 171
0.373937 -0.425983 -0.594 76 118 168
0.375069 -0.425983 -0.594 94 136 186
0.3762 -0.425983 -0.594 158 174 200
0.377331 -0.425983 -0.594 180 196 222
0.378463 -0.425983 -0.594 190 194 206
0.379594 -0.425983 -0.594 193 197 209
0.380726 -0.425983 -0.594 194 201 211
0.381857 -0.425983 -0.594 189 196 206
0.424011 -0.427417 -0.596 147 164 192
0.425147 -0.427417 -0.596 112 129 157
0.426282 -0.427417 -0.596 75 108 153
0.427417 -0.427417 -0.596 81 114 159
0.428552 -0.427417 -0.596 88 129 181
0.429688 -0.427417 -0.596 96 137 189
0.430823 -0.427417 -0.596 94 132 179
0.431958 -0.427417 -0.596 93 131 178
0.433093 -0.427417 -0.596 107 139 188
0.434229 -0.427417 -0.596 107 139 188
0.435364 -0.427417 -0.596 94 127 181
0.436499 -0.427417 -0.596 82 115 169
0.439506 -0.428134 -0.597 80 116 168
0.440643 -0.428134 -0.597 80 116 168
0.44178 -0.428134 -0.597 118 142 170
0.442917 -0.428134 -0.597 153 177 205
0.444054 -0.428134 -0.597 174 184 196
0.445191 -0.428134 -0.597 175 185 197
0.447076 -0.428851 -0.598 181 185 197
0.448215 -0.428851 -0.598 180 184 196
0.449354 -0.428851 -0.598 180 179 193
0.450493 -0.428851 -0.598 185 184 198
0.451632 -0.428851 -0.598 181 181 191
0.452771 -0.428851 -0.598 172 172 182
0.45391 -0.428851 -0.598 144 151 167
0.45505 -0.428851 -0.598 116 123 139
0.456189 -0.428851 -0.598 82 97 128
0.457328 -0.428851 -0.598 72 87 118
0.458467 -0.428851 -0.598 56 82 115
0.459606 -0.428851 -0.598 67 93 126
0.460745 -0.428851 -0.598 71 100 144
0.461884 -0.428851 -0.598 92 121 165
0.463023 -0.428851 -0.598 108 134 183
0.464162 -0.428851 -0.598 93 119 168
0.465301 -0.428851 -0.598 60 83 125
0.46644 -0.428851 -0.598 72 95 137
0.467579 -0.428851 -0.598 98 122 160
0.468718 -0.428851 -0.598 111 135 173
0.469857 -0.428851 -0.598 83 108 148
0.470996 -0.428851 -0.598 75 100 140
0.472135 -0.428851 -0.598 62 87 128
0.473274 -0.428851 -0.598 53 78 119
0.474413 -0.428851 -0.598 50 74 110
0.476348 -0.429569 -0.599 67 91 127
0.477489 -0.429569 -0.599 104 124 151
0.47863 -0.429569 -0.599 128 148 175
0.47977 -0.429569 -0.599 158 166 177
0.480911 -0.429569 -0.599 175 183 194
0.482052 -0.429569 -0.599 170 179 188
0.483193 -0.429569 -0.599 170 179 188
0.484334 -0.429569 -0.599 174 183 192
0.485475 -0.429569 -0.599 171 180 195
0.486616 -0.429569 -0.599 169 178 193
0.487757 -0.429569 -0.599 171 177 189
0.488898 -0.429569 -0.599 171 177 189
0.490857 -0.430286 -0.6 151 168 184
0.492 -0.430286 -0.6 114 131 147
0.493143 -0.430286 -0.6 76 109 142
0.494286 -0.430286 -0.6 69 102 135
0.495429 -0.430286 -0.6 81 114 159
0.496571 -0.430286 -0.6 91 124 169
0.498544 -0.431003 -0.601 114 141 184
0.499689 -0.431003 -0.601 115 142 185
0.500833 -0.431003 -0.601 106 134 174
0.501978 -0.431003 -0.601 100 128 168
0.503123 -0.431003 -0.601 106 134 181
0.504268 -0.431003 -0.601 85 113 160
0.505412 -0.431003 -0.601 75 105 157
0.506557 -0.431003 -0.601 71 101 153
0.507702 -0.431003 -0.601 88 115 162
0.508847 -0.431003 -0.601 121 148 195
0.509991 -0.431003 -0.601 164 166 178
0.511136 -0.431003 -0.601 168 170 182
0.512281 -0.431003 -0.601 163 173 175
0.513426 -0.431003 -0.601 165 175 177
0.51457 -0.431003 -0.601 169 177 179
0.515715 -0.431003 -0.601 168 176 178
0.51686 -0.431003 -0.601 173 176 185
0.518005 -0.431003 -0.601 147 150 159
0.51915 -0.431003 -0.601 107 109 122
0.520294 -0.431003 -0.601 114 116 129
0.521439 -0.431003 -0.601 86 96 121
0.522584 -0.431003 -0.601 73 83 108
0.523729 -0.431003 -0.601 61 79 117
0.524 -0.430286 -0.6 68 86 124
0.525143 -0.430286 -0.6 83 106 147
0.526286 -0.430286 -0.6 95 118 159
0.527429 -0.430286 -0.6 120 140 173
0.528571 -0.430286 -0.6 134 154 187
0.529714 -0.430286 -0.6 114 134 158
0.530857 -0.430286 -0.6 73 93 117
0.532 -0.430286 -0.6 73 93 117
0.533967 -0.41666 -0.581 138 116 105
0.529548 -0.412357 -0.575 138 116 105
0.52326 -0.40662 -0.567 146 118 107
0.516017 -0.400166 -0.558 148 120 109
0.50874 -0.393711 -0.549 149 121 109
0.504214 -0.389409 -0.543 149 121 109
0.499666 -0.385106 -0.537 150 121 107
0.496959 -0.382237 -0.533 151 122 108
0.494237 -0.379369 -0.529 156 123 106
0.4915 -0.3765 -0.525 157 124 107
0.489686 -0.374349 -0.522 162 125 106
0.48786 -0.372197 -0.519 162 125 106
0.486965 -0.370763 -0.517 163 125 104
0.486062 -0.369329 -0.515 166 128 107
0.485151 -0.367894 -0.513 171 130 108
0.485181 -0.367177 -0.512 172 131 109
0.484257 -0.365743 -0.51 173 131 107
0.484277 -0.365026 -0.509 172 130 106
0.48334 -0.363591 -0.507 175 132 113
0.48335 -0.362874 -0.506 172 129 110
0.483357 -0.362157 -0.505 170 128 106
0.48336 -0.36144 -0.504 175 133 111
0.483359 -0.360723 -0.503 175 133 111
0.484317 -0.360723 -0.503 173 131 109
0.48431 -0.360006 -0.502 174 132 110
0.4843 -0.359289 -0.501 173 131 109
0.483317 -0.357854 -0.499 174 132 110
0.484268 -0.357854 -0.499 171 129 107
0.484246 -0.357137 -0.498 177 132 109
0.48422 -0.35642 -0.497 177 132 109
0.485167 -0.35642 -0.497 172 127 104
0.486113 -0.35642 -0.497 173 128 105
0.48608 -0.355703 -0.496 178 133 110
0.487025 -0.355703 -0.496 182 137 114
0.48797 -0.355703 -0.496 179 134 111
0.487929 -0.354986 -0.495 177 132 109
0.488871 -0.354986 -0.495 175 130 109
0.489814 -0.354986 -0.495 175 130 109
0.490757 -0.354986 -0.495 175 130 109
0.4917 -0.354986 -0.495 174 129 108
0.492643 -0.354986 -0.495 173 128 107
0.493586 -0.354986 -0.495 175 129 106
0.49353 -0.354269 -0.494 179 133 110
0.49447 -0.354269 -0.494 179 133 109
0.495411 -0.354269 -0.494 179 133 109
0.496352 -0.354269 -0.494 180 134 110
0.497293 -0.354269 -0.494 180 134 110
0.498234 -0.354269 -0.494 178 132 108
0.498165 -0.353551 -0.493 176 130 106
0.499104 -0.353551 -0.493 177 129 106
0.500043 -0.353551 -0.493 175 127 104
0.500982 -0.353551 -0.493 176 129 101
0.501921 -0.353551 -0.493 176 129 101
0.50286 -0.353551 -0.493 175 128 100
0.503799 -0.353551 -0.493 173 126 98
0.504738 -0.353551 -0.493 172 125 97
0.505677 -0.353551 -0.493 174 127 99
0.505589 -0.352834 -0.492 171 124 98
0.506526 -0.352834 -0.492 166 119 93
0.507463 -0.352834 -0.492 170 123 97
0.5084 -0.352834 -0.492 172 125 99
0.510372 -0.353551 -0.493 170 123 97
0.511311 -0.353551 -0.493 168 121 95
0.51225 -0.353551 -0.493 169 122 96
0.51319 -0.353551 -0.493 170 123 97
0.514129 -0.353551 -0.493 169 122 96
0.515068 -0.353551 -0.493 170 123 97
0.516007 -0.353551 -0.493 167 120 94
0.516946 -0.353551 -0.493 168 121 95
0.517885 -0.353551 -0.493 168 121 95
0.519876 -0.354269 -0.494 168 121 95
0.521871 -0.354986 -0.495 167 119 96
0.522814 -0.354986 -0.495 165 117 94
0.524815 -0.355703 -0.496 164 118 95
0.52682 -0.35642 -0.497 162 116 93
0.528829 -0.357137 -0.498 160 115 92
0.530841 -0.357854 -0.499 159 114 91
0.533923 -0.359289 -0.501 156 111 90
0.537012 -0.360723 -0.503 155 110 89
0.541179 -0.362874 -0.506 155 110 91
0.641251 -0.420246 -0.586 203 202 197
0.0510286 -0.405543 -0.564 202 156 132
0.0518257 -0.403386 -0.561 201 157 132
0.0526114 -0.401229 -0.558 202 158 133
0.0532895 -0.398352 -0.554 199 154 125
0.0539524 -0.395476 -0.55 201 156 127
0.0547 -0.393319 -0.547 202 158 133
0.0553343 -0.390443 -0.543 202 158 133
0.056161 -0.389005 -0.541 203 156 128
0.05698 -0.387567 -0.539 201 154 126
0.0577914 -0.386129 -0.537 199 156 137
0.0587048 -0.38541 -0.536 202 159 140
0.0597257 -0.38541 -0.536 205 159 135
0.06052 -0.383971 -0.534 206 160 136
0.0615371 -0.383971 -0.534 207 161 137
0.0624371 -0.383252 -0.533 207 161 137
0.0633333 -0.382533 -0.532 206 160 134
0.0643467 -0.382533 -0.532 206 160 134
0.06536 -0.382533 -0.532 205 159 133
0.0662486 -0.381814 -0.531 205 159 133
0.06726 -0.381814 -0.531 207 161 135
0.0681429 -0.381095 -0.53 206 160 134
0.0691524 -0.381095 -0.53 206 160 134
0.0701619 -0.381095 -0.53 207 161 135
0.0710371 -0.380376 -0.529 206 161 132
0.0720448 -0.380376 -0.529 204 159 130
0.0730524 -0.380376 -0.529 202 157 128
0.07406 -0.380376 -0.529 202 157 128
0.0750676 -0.380376 -0.529 200 159 129
0.0760752 -0.380376 -0.529 198 157 127
0.0772286 -0.381095 -0.53 201 157 128
0.0782381 -0.381095 -0.53 201 157 128
0.0792476 -0.381095 -0.53 201 154 126
0.0802571 -0.381095 -0.53 198 151 123
0.08142 -0.381814 -0.531 196 149 123
0.0824314 -0.381814 -0.531 192 145 119
0.0834429 -0.381814 -0.531 191 144 118
0.0846133 -0.382533 -0.532 190 143 117
0.0856267 -0.382533 -0.532 189 139 116
0.08664 -0.382533 -0.532 185 135 112
0.0878181 -0.383252 -0.533 184 132 110
0.089 -0.383971 -0.534 181 129 107
0.0900171 -0.383971 -0.534 181 126 105
0.0912048 -0.38469 -0.535 180 125 104
0.0923962 -0.38541 -0.536 181 122 104
0.0934171 -0.38541 -0.536 179 120 102
0.0946143 -0.386129 -0.537 180 123 103
0.0958152 -0.386848 -0.538 180 123 103
0.09684 -0.386848 -0.538 175 120 99
0.0980467 -0.387567 -0.539 171 116 95
0.0992571 -0.388286 -0.54 168 116 95
0.100471 -0.389005 -0.541 166 114 93
0.10169 -0.389724 -0.542 161 113 93
0.102911 -0.390443 -0.543 159 111 91
0.104137 -0.391162 -0.544 154 107 91
0.105367 -0.391881 -0.545 152 105 89
0.106795 -0.393319 -0.547 147 103 92
0.108034 -0.394038 -0.548 144 100 89
0.109476 -0.395476 -0.55 142 99 90
0.110725 -0.396195 -0.551 141 98 89
0.11218 -0.397633 -0.553 142 100 88
0.113438 -0.398352 -0.554 142 100 88
0.114907 -0.39979 -0.556 142 98 85
0.116174 -0.40051 -0.557 139 95 82
0.117656 -0.401948 -0.559 133 94 87
0.119146 -0.403386 -0.561 130 91 84
0.120857 -0.405543 -0.564 122 90 91
0.122364 -0.406981 -0.566 122 90 91
0.138729 -0.420643 -0.585 39 48 77
0.140082 -0.421362 -0.586 37 46 75
0.141439 -0.422081 -0.587 29 40 70
0.1428 -0.4228 -0.588 28 39 69
0.14392 -0.4228 -0.588 36 47 77
0.14504 -0.4228 -0.588 36 47 77
0.14616 -0.4228 -0.588 36 45 78
0.14728 -0.4228 -0.588 36 45 78
0.1484 -0.4228 -0.588 53 62 95
0.14952 -0.4228 -0.588 73 79 115
0.15064 -0.4228 -0.588 86 92 128
0.15176 -0.4228 -0.588 107 111 140
0.15288 -0.4228 -0.588 133 137 166
0.153738 -0.422081 -0.587 144 147 164
0.154856 -0.422081 -0.587 148 151 168
0.155974 -0.422081 -0.587 148 150 165
0.157092 -0.422081 -0.587 153 155 170
0.15821 -0.422081 -0.587 157 157 169
0.159329 -0.422081 -0.587 155 155 167
0.16072 -0.4228 -0.588 157 155 166
0.16184 -0.4228 -0.588 162 160 171
0.162683 -0.422081 -0.587 138 139 157
0.163801 -0.422081 -0.587 104 105 123
0.164919 -0.422081 -0.587 70 81 111
0.166037 -0.422081 -0.587 77 88 118
0.167155 -0.422081 -0.587 73 96 137
0.168273 -0.422081 -0.587 80 103 144
0.169391 -0.422081 -0.587 67 98 145
0.17051 -0.422081 -0.587 61 92 139
0.171628 -0.422081 -0.587 63 95 144
0.172746 -0.422081 -0.587 72 104 153
0.173864 -0.422081 -0.587 92 125 176
0.174982 -0.422081 -0.587 92 125 176
0.1761 -0.422081 -0.587 74 109 163
0.177218 -0.422081 -0.587 76 111 165
0.178336 -0.422081 -0.587 82 117 173
0.179454 -0.422081 -0.587 75 110 166
0.180572 -0.422081 -0.587 73 112 169
0.18169 -0.422081 -0.587 101 140 197
0.182809 -0.422081 -0.587 173 176 195
0.183927 -0.422081 -0.587 192 195 214
0.185045 -0.422081 -0.587 191 197 209
0.190635 -0.422081 -0.587 198 207 222
0.191753 -0.422081 -0.587 203 209 221
0.192871 -0.422081 -0.587 203 209 221
0.19399 -0.422081 -0.587 159 174 205
0.206289 -0.422081 -0.587 124 150 201
0.2156 -0.4228 -0.588 142 162 199
0.21672 -0.4228 -0.588 169 189 226
0.21784 -0.4228 -0.588 207 215 236
0.21896 -0.4228 -0.588 217 225 246
0.22008 -0.4228 -0.588 217 220 235
0.2212 -0.4228 -0.588 222 225 240
0.22232 -0.4228 -0.588 218 226 239
0.22344 -0.4228 -0.588 220 228 241
0.22456 -0.4228 -0.588 215 219 230
0.22568 -0.4228 -0.588 190 194 205
0.2268 -0.4228 -0.588 185 183 186
0.22792 -0.4228 -0.588 205 203 206
0.260843 -0.423519 -0.589 145 161 186
0.350717 -0.426395 -0.593 156 159 168
0.351847 -0.426395 -0.593 190 187 198
0.352976 -0.426395 -0.593 206 203 214
0.354106 -0.426395 -0.593 200 207 215
0.355235 -0.426395 -0.593 199 206 214
0.356365 -0.426395 -0.593 196 206 215
0.357494 -0.426395 -0.593 197 207 216
0.358624 -0.426395 -0.593 204 205 210
0.359753 -0.426395 -0.593 187 188 193
0.360883 -0.426395 -0.593 137 163 200
0.362012 -0.426395 -0.593 108 134 171
0.363142 -0.426395 -0.593 91 131 180
0.364271 -0.426395 -0.593 91 131 180
0.365401 -0.426395 -0.593 105 145 194
0.36653 -0.426395 -0.593 121 155 203
0.36766 -0.426395 -0.593 123 157 205
0.36879 -0.426395 -0.593 127 163 213
0.369919 -0.426395 -0.593 123 159 209
0.38412 -0.427114 -0.594 191 195 206
0.385251 -0.427114 -0.594 182 188 204
0.386383 -0.427114 -0.594 166 172 188
0.387514 -0.427114 -0.594 143 158 181
0.388646 -0.427114 -0.594 112 127 150
0.389777 -0.427114 -0.594 67 88 119
0.390909 -0.427114 -0.594 71 92 123
0.39204 -0.427114 -0.594 79 103 139
0.393171 -0.427114 -0.594 83 107 143
0.4233 -0.427833 -0.595 160 175 198
0.424433 -0.427833 -0.595 123 138 161
0.437634 -0.428552 -0.596 70 102 151
0.43877 -0.428552 -0.596 85 117 166
0.439905 -0.428552 -0.596 85 117 166
0.44104 -0.428552 -0.596 121 142 171
0.442175 -0.428552 -0.596 155 176 205
0.44331 -0.428552 -0.596 174 184 196
0.445191 -0.429271 -0.597 176 186 198
0.446329 -0.429271 -0.597 182 186 198
0.447466 -0.429271 -0.597 180 184 196
0.448603 -0.429271 -0.597 181 180 194
0.44974 -0.429271 -0.597 181 180 194
0.451632 -0.42999 -0.598 180 180 190
0.452771 -0.42999 -0.598 173 173 183
0.45391 -0.42999 -0.598 155 162 178
0.45505 -0.42999 -0.598 129 136 152
0.456189 -0.42999 -0.598 83 100 128
0.457328 -0.42999 -0.598 69 86 114
0.4577 -0.429271 -0.597 66 89 123
0.458837 -0.429271 -0.597 79 102 136
0.459974 -0.429271 -0.597 93 116 150
0.461111 -0.429271 -0.597 117 140 174
0.462249 -0.429271 -0.597 138 160 197
0.463386 -0.429271 -0.597 128 150 187
0.464523 -0.429271 -0.597 79 101 138
0.46566 -0.429271 -0.597 69 91 128
0.466797 -0.429271 -0.597 129 152 184
0.468718 -0.42999 -0.598 129 152 184
0.469857 -0.42999 -0.598 91 115 143
0.470996 -0.42999 -0.598 85 109 137
0.472135 -0.42999 -0.598 76 97 128
0.473274 -0.42999 -0.598 60 81 112
0.474413 -0.42999 -0.598 58 78 115
0.475552 -0.42999 -0.598 68 88 125
0.476691 -0.42999 -0.598 117 134 162
0.47783 -0.42999 -0.598 145 162 190
0.47897 -0.42999 -0.598 155 163 176
0.480109 -0.42999 -0.598 166 174 187
0.481248 -0.42999 -0.598 168 175 185
0.482387 -0.42999 -0.598 168 175 185
0.484334 -0.43071 -0.599 170 177 187
0.485475 -0.43071 -0.599 172 179 195
0.486616 -0.43071 -0.599 171 178 194
0.487757 -0.43071 -0.599 172 175 190
0.488898 -0.43071 -0.599 173 176 191
0.490039 -0.43071 -0.599 157 173 189
0.49118 -0.43071 -0.599 126 142 158
0.492321 -0.43071 -0.599 89 118 150
0.493462 -0.43071 -0.599 75 104 136
0.494603 -0.43071 -0.599 84 113 155
0.495744 -0.43071 -0.599 101 130 172
0.497714 -0.431429 -0.6 121 146 187
0.498857 -0.431429 -0.6 121 146 187
0.5 -0.431429 -0.6 112 138 175
0.501143 -0.431429 -0.6 111 137 174
0.502286 -0.431429 -0.6 121 148 191
0.503429 -0.431429 -0.6 104 131 174
0.504571 -0.431429 -0.6 85 113 163
0.505714 -0.431429 -0.6 73 101 151
0.506857 -0.431429 -0.6 89 116 159
0.508 -0.431429 -0.6 118 145 188
0.509143 -0.431429 -0.6 164 167 176
0.510286 -0.431429 -0.6 172 175 184
0.511429 -0.431429 -0.6 168 176 179
0.512571 -0.431429 -0.6 167 175 178
0.513714 -0.431429 -0.6 171 177 177
0.515715 -0.432148 -0.601 172 178 178
0.51686 -0.432148 -0.601 170 170 180
0.518005 -0.432148 -0.601 169 169 179
0.51915 -0.432148 -0.601 148 150 163
0.520294 -0.432148 -0.601 114 116 129
0.520571 -0.431429 -0.6 84 95 117
0.521714 -0.431429 -0.6 65 76 98
0.522857 -0.431429 -0.6 72 88 121
0.524 -0.431429 -0.6 87 103 136
0.525143 -0.431429 -0.6 105 124 157
0.525409 -0.43071 -0.599 112 131 164
0.52655 -0.43071 -0.599 125 142 168
0.52769 -0.43071 -0.599 144 161 187
0.528831 -0.43071 -0.599 131 148 168
0.529972 -0.43071 -0.599 87 104 124
0.531113 -0.43071 -0.599 87 104 124
0.532254 -0.43071 -0.599 99 116 134
0.534886 -0.418486 -0.582 134 114 105
0.530469 -0.414171 -0.576 138 118 109
0.526029 -0.409857 -0.57 145 118 109
0.518791 -0.403386 -0.561 145 118 109
0.51152 -0.396914 -0.552 148 120 109
0.506071 -0.391881 -0.545 149 121 110
0.501527 -0.387567 -0.539 149 119 108
0.497891 -0.383971 -0.534 150 120 109
0.495171 -0.381095 -0.53 155 122 107
0.492436 -0.378219 -0.526 156 123 108
0.490624 -0.376062 -0.523 160 125 106
0.4888 -0.373905 -0.52 161 126 107
0.486965 -0.371748 -0.517 162 124 105
0.486062 -0.37031 -0.515 165 127 108
0.485151 -0.368871 -0.513 170 129 107
0.485181 -0.368152 -0.512 171 130 108
0.484257 -0.366714 -0.51 171 129 107
0.484277 -0.365995 -0.509 170 128 106
0.484293 -0.365276 -0.508 173 131 109
0.48335 -0.363838 -0.506 173 131 109
0.483357 -0.363119 -0.505 172 130 108
0.48336 -0.3624 -0.504 172 130 108
0.483359 -0.361681 -0.503 173 131 109
0.484317 -0.361681 -0.503 174 132 110
0.48431 -0.360962 -0.502 176 131 110
0.4843 -0.360243 -0.501 174 129 108
0.484286 -0.359524 -0.5 177 132 111
0.484268 -0.358805 -0.499 174 129 108
0.484246 -0.358086 -0.498 176 131 108
0.485194 -0.358086 -0.498 176 131 108
0.485167 -0.357367 -0.497 172 127 104
0.486113 -0.357367 -0.497 173 128 105
0.48608 -0.356648 -0.496 177 132 109
0.487025 -0.356648 -0.496 180 135 112
0.48797 -0.356648 -0.496 178 133 112
0.487929 -0.355929 -0.495 177 132 111
0.488871 -0.355929 -0.495 175 130 109
0.489814 -0.355929 -0.495 175 130 109
0.490757 -0.355929 -0.495 174 129 108
0.4917 -0.355929 -0.495 174 129 108
0.492643 -0.355929 -0.495 172 127 106
0.493586 -0.355929 -0.495 174 128 105
0.49353 -0.35521 -0.494 179 133 110
0.49447 -0.35521 -0.494 180 134 111
0.495411 -0.35521 -0.494 180 134 111
0.496352 -0.35521 -0.494 182 134 112
0.497293 -0.35521 -0.494 181 133 111
0.498234 -0.35521 -0.494 180 132 110
0.498165 -0.35449 -0.493 179 131 109
0.499104 -0.35449 -0.493 177 129 106
0.500043 -0.35449 -0.493 179 129 106
0.500982 -0.35449 -0.493 176 129 101
0.501921 -0.35449 -0.493 177 130 102
0.50286 -0.35449 -0.493 175 128 100
0.503799 -0.35449 -0.493 172 125 97
0.504738 -0.35449 -0.493 172 125 97
0.505677 -0.35449 -0.493 174 127 99
0.505589 -0.353771 -0.492 174 127 99
0.506526 -0.353771 -0.492 170 123 95
0.507463 -0.353771 -0.492 169 122 96
0.5084 -0.353771 -0.492 171 124 98
0.509337 -0.353771 -0.492 170 123 97
0.510274 -0.353771 -0.492 168 121 95
0.51225 -0.35449 -0.493 169 122 96
0.51319 -0.35449 -0.493 170 123 97
0.514129 -0.35449 -0.493 169 122 96
0.515068 -0.35449 -0.493 170 123 97
0.516007 -0.35449 -0.493 168 121 93
0.516946 -0.35449 -0.493 169 122 94
0.517885 -0.35449 -0.493 169 122 94
0.518824 -0.35449 -0.493 169 122 94
0.520817 -0.35521 -0.494 166 120 94
0.521758 -0.35521 -0.494 165 119 93
0.523757 -0.355929 -0.495 165 119 93
0.52576 -0.356648 -0.496 162 116 90
0.527767 -0.357367 -0.497 160 116 91
0.529777 -0.358086 -0.498 159 115 90
0.532857 -0.359524 -0.5 157 112 89
0.535945 -0.360962 -0.502 155 110 87
0.53904 -0.3624 -0.504 155 110 89
0.637969 -0.419205 -0.583 203 200 195
0.642368 -0.421362 -0.586 202 203 198
0.0507571 -0.404454 -0.561 201 157 130
0.0515486 -0.402291 -0.558 201 157 132
0.0522343 -0.399408 -0.554 203 159 134
0.0529048 -0.396524 -0.55 199 154 125
0.0536581 -0.394361 -0.547 201 156 127
0.0544 -0.392198 -0.544 203 159 130
0.0551305 -0.390035 -0.541 205 161 132
0.0559533 -0.388593 -0.539 205 158 130
0.0567686 -0.387151 -0.537 203 156 128
0.0576838 -0.38643 -0.536 197 157 132
0.0585952 -0.38571 -0.535 197 157 132
0.0595029 -0.384989 -0.534 204 158 132
0.06052 -0.384989 -0.534 204 158 132
0.0614219 -0.384268 -0.533 204 160 133
0.06232 -0.383547 -0.532 204 160 133
0.0633333 -0.383547 -0.532 204 160 133
0.0642257 -0.382826 -0.531 204 160 133
0.0652371 -0.382826 -0.531 204 160 131
0.0661238 -0.382105 -0.53 204 160 131
0.0671333 -0.382105 -0.53 205 161 132
0.0681429 -0.382105 -0.53 204 160 131
0.0691524 -0.382105 -0.53 204 160 131
0.0700295 -0.381384 -0.529 205 161 132
0.0710371 -0.381384 -0.529 204 160 131
0.0720448 -0.381384 -0.529 203 159 130
0.0730524 -0.381384 -0.529 203 159 130
0.07406 -0.381384 -0.529 203 159 130
0.0750676 -0.381384 -0.529 203 159 130
0.0760752 -0.381384 -0.529 201 157 128
0.0770829 -0.381384 -0.529 204 159 130
0.0780905 -0.381384 -0.529 203 158 129
0.0792476 -0.382105 -0.53 199 152 124
0.0802571 -0.382105 -0.53 195 148 120
0.0812667 -0.382105 -0.53 196 146 121
0.0824314 -0.382826 -0.531 193 143 118
0.0834429 -0.382826 -0.531 193 143 118
0.0844543 -0.382826 -0.531 191 141 116
0.0856267 -0.383547 -0.532 188 138 115
0.08664 -0.383547 -0.532 185 135 112
0.0878181 -0.384268 -0.533 184 129 108
0.0888333 -0.384268 -0.533 181 126 105
0.0900171 -0.384989 -0.534 181 124 104
0.0912048 -0.38571 -0.535 180 123 103
0.0922238 -0.38571 -0.535 181 123 103
0.0934171 -0.38643 -0.536 178 120 100
0.0946143 -0.387151 -0.537 178 121 101
0.0956371 -0.387151 -0.537 177 120 100
0.09684 -0.387872 -0.538 171 116 95
0.0980467 -0.388593 -0.539 169 114 93
0.0992571 -0.389314 -0.54 165 114 93
0.100471 -0.390035 -0.541 163 112 91
0.10169 -0.390756 -0.542 157 110 92
0.102911 -0.391477 -0.543 155 108 90
0.104137 -0.392198 -0.544 152 106 91
0.105367 -0.392919 -0.545 150 104 89
0.106795 -0.394361 -0.547 146 102 93
0.108034 -0.395082 -0.548 144 100 91
0.109476 -0.396524 -0.55 142 99 93
0.110725 -0.397245 -0.551 141 98 92
0.11218 -0.398687 -0.553 139 99 91
0.113438 -0.399408 -0.554 142 100 88
0.114907 -0.40085 -0.556 138 98 88
0.116383 -0.402291 -0.558 135 95 85
0.117867 -0.403733 -0.56 126 93 88
0.119358 -0.405175 -0.562 123 90 85
0.120857 -0.406617 -0.564 119 91 90
0.122364 -0.408059 -0.566 119 91 90
0.137379 -0.421036 -0.584 34 41 67
0.138729 -0.421757 -0.585 52 61 90
0.140082 -0.422478 -0.586 46 55 84
0.141198 -0.422478 -0.586 34 48 77
0.142557 -0.423199 -0.587 31 45 74
0.143675 -0.423199 -0.587 40 52 78
0.144793 -0.423199 -0.587 44 56 82
0.145911 -0.423199 -0.587 44 56 82
0.14703 -0.423199 -0.587 36 45 74
0.148148 -0.423199 -0.587 42 51 80
0.149266 -0.423199 -0.587 53 58 90
0.150384 -0.423199 -0.587 62 67 99
0.151502 -0.423199 -0.587 90 94 121
0.15262 -0.423199 -0.587 132 136 163
0.153738 -0.423199 -0.587 151 154 171
0.154856 -0.423199 -0.587 149 152 169
0.155974 -0.423199 -0.587 154 153 167
0.157092 -0.423199 -0.587 153 152 166
0.15821 -0.423199 -0.587 152 149 158
0.159329 -0.423199 -0.587 157 154 163
0.160447 -0.423199 -0.587 164 161 170
0.161565 -0.423199 -0.587 157 154 163
0.162683 -0.423199 -0.587 117 118 136
0.163801 -0.423199 -0.587 95 96 114
0.164638 -0.422478 -0.586 83 94 124
0.165754 -0.422478 -0.586 73 84 114
0.16687 -0.422478 -0.586 71 92 135
0.167987 -0.422478 -0.586 79 100 143
0.169103 -0.422478 -0.586 69 97 144
0.170219 -0.422478 -0.586 80 108 155
0.171335 -0.422478 -0.586 93 121 168
0.172451 -0.422478 -0.586 98 126 173
0.173568 -0.422478 -0.586 105 138 183
0.174684 -0.422478 -0.586 106 139 184
0.1758 -0.422478 -0.586 87 119 168
0.176916 -0.422478 -0.586 83 115 164
0.178032 -0.422478 -0.586 77 109 160
0.179149 -0.422478 -0.586 80 112 163
0.180265 -0.422478 -0.586 100 134 180
0.181381 -0.422478 -0.586 141 175 221
0.182497 -0.422478 -0.586 184 190 206
0.183613 -0.422478 -0.586 193 199 215
0.18473 -0.422478 -0.586 194 201 211
0.185846 -0.422478 -0.586 194 201 211
0.186962 -0.422478 -0.586 198 205 215
0.188078 -0.422478 -0.586 199 206 216
0.189194 -0.422478 -0.586 198 206 219
0.19031 -0.422478 -0.586 199 207 220
0.191427 -0.422478 -0.586 200 206 218
0.192871 -0.423199 -0.587 186 192 204
0.193659 -0.422478 -0.586 141 159 195
0.210761 -0.423199 -0.587 102 126 172
0.211879 -0.423199 -0.587 110 134 180
0.212997 -0.423199 -0.587 98 126 173
0.214115 -0.423199 -0.587 103 131 178
0.215233 -0.423199 -0.587 118 141 182
0.216351 -0.423199 -0.587 141 164 205
0.21784 -0.42392 -0.588 200 210 235
0.21896 -0.42392 -0.588 217 227 252
0.22008 -0.42392 -0.588 225 227 240
0.2212 -0.42392 -0.588 223 225 238
0.22232 -0.42392 -0.588 224 227 236
0.22344 -0.42392 -0.588 222 225 234
0.22456 -0.42392 -0.588 193 193 201
0.350126 -0.426804 -0.592 179 185 199
0.351253 -0.426804 -0.592 202 200 213
0.352381 -0.426804 -0.592 207 205 218
0.353509 -0.426804 -0.592 198 205 211
0.354636 -0.426804 -0.592 200 207 213
0.355764 -0.426804 -0.592 198 207 216
0.356891 -0.426804 -0.592 196 205 214
0.359753 -0.427525 -0.593 193 193 201
0.360883 -0.427525 -0.593 143 162 192
0.362012 -0.427525 -0.593 116 135 165
0.363142 -0.427525 -0.593 93 127 172
0.364271 -0.427525 -0.593 93 127 172
0.365401 -0.427525 -0.593 112 146 191
0.36653 -0.427525 -0.593 131 162 206
0.36766 -0.427525 -0.593 133 164 208
0.36879 -0.427525 -0.593 138 172 218
0.369919 -0.427525 -0.593 137 171 217
0.371049 -0.427525 -0.593 115 146 190
0.372178 -0.427525 -0.593 95 126 170
0.373308 -0.427525 -0.593 94 126 167
0.374437 -0.427525 -0.593 115 147 188
0.375567 -0.427525 -0.593 170 181 201
0.376696 -0.427525 -0.593 188 199 219
0.377826 -0.427525 -0.593 195 198 207
0.378955 -0.427525 -0.593 194 197 206
0.380085 -0.427525 -0.593 197 199 212
0.381214 -0.427525 -0.593 199 201 214
0.382344 -0.427525 -0.593 193 197 208
0.383473 -0.427525 -0.593 191 195 206
0.384603 -0.427525 -0.593 186 196 208
0.425567 -0.428967 -0.595 100 126 161
0.4267 -0.428967 -0.595 88 114 149
0.427833 -0.428967 -0.595 103 138 180
0.428967 -0.428967 -0.595 120 155 197
0.4301 -0.428967 -0.595 132 164 205
0.431233 -0.428967 -0.595 114 146 187
0.432367 -0.428967 -0.595 117 145 185
0.4335 -0.428967 -0.595 134 162 202
0.434633 -0.428967 -0.595 122 151 195
0.435767 -0.428967 -0.595 102 131 175
0.4369 -0.428967 -0.595 79 107 155
0.438033 -0.428967 -0.595 97 125 173
0.439905 -0.429688 -0.596 128 148 175
0.44104 -0.429688 -0.596 128 148 175
0.442175 -0.429688 -0.596 156 176 203
0.44331 -0.429688 -0.596 174 184 196
0.444446 -0.429688 -0.596 175 185 197
0.445581 -0.429688 -0.596 181 185 197
0.447466 -0.430409 -0.597 180 184 196
0.448603 -0.430409 -0.597 182 181 195
0.44974 -0.430409 -0.597 178 177 191
0.450877 -0.430409 -0.597 178 180 192
0.452014 -0.430409 -0.597 175 177 189
0.453151 -0.430409 -0.597 165 174 191
0.454289 -0.430409 -0.597 126 135 152
0.455426 -0.430409 -0.597 72 89 115
0.456563 -0.430409 -0.597 72 89 115
0.4577 -0.430409 -0.597 77 96 128
0.458837 -0.430409 -0.597 89 108 140
0.459204 -0.429688 -0.596 113 131 155
0.460339 -0.429688 -0.596 136 154 178
0.461474 -0.429688 -0.596 155 173 197
0.46261 -0.429688 -0.596 152 170 194
0.463745 -0.429688 -0.596 106 125 157
0.46488 -0.429688 -0.596 92 111 143
0.466797 -0.430409 -0.597 138 158 185
0.467934 -0.430409 -0.597 135 155 182
0.469071 -0.430409 -0.597 101 120 137
0.470209 -0.430409 -0.597 106 125 142
0.471346 -0.430409 -0.597 113 131 153
0.472483 -0.430409 -0.597 89 107 129
0.47362 -0.430409 -0.597 69 87 125
0.474757 -0.430409 -0.597 55 73 111
0.476691 -0.43113 -0.598 97 112 143
0.47783 -0.43113 -0.598 153 168 199
0.47897 -0.43113 -0.598 172 179 195
0.480109 -0.43113 -0.598 168 175 191
0.481248 -0.43113 -0.598 168 174 186
0.482387 -0.43113 -0.598 170 176 188
0.483526 -0.43113 -0.598 170 176 188
0.484665 -0.43113 -0.598 170 176 192
0.485804 -0.43113 -0.598 174 180 196
0.486943 -0.43113 -0.598 172 175 192
0.488082 -0.43113 -0.598 173 176 193
0.490039 -0.43185 -0.599 163 176 193
0.49118 -0.43185 -0.599 143 156 173
0.492321 -0.43185 -0.599 109 132 163
0.493462 -0.43185 -0.599 86 109 140
0.494603 -0.43185 -0.599 87 112 152
0.495744 -0.43185 -0.599 104 129 169
0.496885 -0.43185 -0.599 120 144 182
0.498026 -0.43185 -0.599 125 149 187
0.499167 -0.43185 -0.599 123 147 183
0.500308 -0.43185 -0.599 122 146 182
0.501449 -0.43185 -0.599 123 148 188
0.50259 -0.43185 -0.599 108 133 173
0.50373 -0.43185 -0.599 87 114 161
0.504871 -0.43185 -0.599 78 105 152
0.506012 -0.43185 -0.599 99 122 163
0.508 -0.432571 -0.6 122 145 186
0.509143 -0.432571 -0.6 165 165 173
0.510286 -0.432571 -0.6 171 171 179
0.511429 -0.432571 -0.6 167 172 176
0.512571 -0.432571 -0.6 169 174 178
0.513714 -0.432571 -0.6 172 173 177
0.514857 -0.432571 -0.6 172 173 177
0.516 -0.432571 -0.6 169 169 177
0.517143 -0.432571 -0.6 167 167 175
0.518286 -0.432571 -0.6 168 172 184
0.519429 -0.432571 -0.6 135 139 151
0.519704 -0.43185 -0.599 88 99 121
0.520845 -0.43185 -0.599 81 92 114
0.521986 -0.43185 -0.599 104 118 145
0.523127 -0.43185 -0.599 107 121 148
0.524268 -0.43185 -0.599 111 125 152
0.525409 -0.43185 -0.599 119 133 160
0.52655 -0.43185 -0.599 133 145 167
0.52769 -0.43185 -0.599 146 158 180
0.528831 -0.43185 -0.599 136 149 166
0.529972 -0.43185 -0.599 106 119 136
0.53231 -0.41671 -0.578 133 115 105
0.526951 -0.411664 -0.571 142 115 106
0.521566 -0.406617 -0.564 142 115 106
0.5143 -0.400129 -0.555 145 116 108
0.507929 -0.394361 -0.547 147 118 110
0.503388 -0.390035 -0.541 148 118 107
0.499756 -0.38643 -0.536 149 119 108
0.496106 -0.382826 -0.531 153 121 108
0.493372 -0.379942 -0.527 155 123 110
0.491562 -0.377779 -0.524 159 123 107
0.48974 -0.375616 -0.521 160 124 108
0.487907 -0.373453 -0.518 160 123 104
0.487006 -0.372011 -0.516 163 126 107
0.486097 -0.37057 -0.514 169 128 108
0.485181 -0.369128 -0.512 169 128 108
0.484257 -0.367686 -0.51 169 128 106
0.484277 -0.366965 -0.509 168 127 105
0.484293 -0.366244 -0.508 171 129 107
0.484306 -0.365523 -0.507 171 129 107
0.483357 -0.364081 -0.505 172 130 108
0.48336 -0.36336 -0.504 172 130 108
0.483359 -0.362639 -0.503 172 130 108
0.484317 -0.362639 -0.503 173 131 109
0.48431 -0.361918 -0.502 173 131 109
0.4843 -0.361197 -0.501 173 131 109
0.484286 -0.360476 -0.5 177 132 111
0.484268 -0.359755 -0.499 174 129 108
0.485218 -0.359755 -0.499 175 130 107
0.485194 -0.359034 -0.498 175 130 107
0.485167 -0.358313 -0.497 173 128 105
0.486113 -0.358313 -0.497 174 129 106
0.48608 -0.357592 -0.496 176 131 108
0.487025 -0.357592 -0.496 176 131 108
0.48797 -0.357592 -0.496 177 132 111
0.487929 -0.356871 -0.495 176 131 110
0.488871 -0.356871 -0.495 176 131 110
0.489814 -0.356871 -0.495 177 132 111
0.490757 -0.356871 -0.495 175 130 109
0.4917 -0.356871 -0.495 173 128 107
0.492643 -0.356871 -0.495 173 128 107
0.493586 -0.356871 -0.495 175 129 106
0.49353 -0.35615 -0.494 180 134 111
0.49447 -0.35615 -0.494 180 134 111
0.495411 -0.35615 -0.494 180 134 111
0.496352 -0.35615 -0.494 181 133 110
0.497293 -0.35615 -0.494 181 133 110
0.498234 -0.35615 -0.494 180 132 109
0.498165 -0.35543 -0.493 179 131 108
0.499104 -0.35543 -0.493 180 130 107
0.500043 -0.35543 -0.493 181 131 106
0.500982 -0.35543 -0.493 176 129 101
0.501921 -0.35543 -0.493 177 130 102
0.50286 -0.35543 -0.493 175 128 100
0.502777 -0.354709 -0.492 173 126 98
0.503714 -0.354709 -0.492 173 126 98
0.504651 -0.354709 -0.492 175 128 100
0.505589 -0.354709 -0.492 175 128 100
0.506526 -0.354709 -0.492 173 126 98
0.507463 -0.354709 -0.492 169 122 96
0.507367 -0.353988 -0.491 172 125 99
0.509337 -0.354709 -0.492 171 124 98
0.510274 -0.354709 -0.492 169 122 96
0.511211 -0.354709 -0.492 170 123 97
0.512149 -0.354709 -0.492 169 122 96
0.513086 -0.354709 -0.492 168 121 95
0.515068 -0.35543 -0.493 169 122 96
0.516007 -0.35543 -0.493 172 123 93
0.516946 -0.35543 -0.493 172 123 93
0.517885 -0.35543 -0.493 169 122 92
0.518824 -0.35543 -0.493 168 121 91
0.519763 -0.35543 -0.493 168 121 91
0.521758 -0.35615 -0.494 167 120 90
0.522699 -0.35615 -0.494 166 119 91
0.5247 -0.356871 -0.495 164 117 89
0.526705 -0.357592 -0.496 161 115 89
0.528713 -0.358313 -0.497 160 114 88
0.530726 -0.359034 -0.498 158 114 89
0.53381 -0.360476 -0.5 156 112 87
0.536901 -0.361918 -0.502 154 109 86
0.633591 -0.417431 -0.579 202 199 194
0.639079 -0.420315 -0.583 201 201 199
0.0498657 -0.406969 -0.563 199 158 130
0.0505762 -0.404077 -0.559 197 156 128
0.0512714 -0.401186 -0.555 201 157 132
0.0519514 -0.398294 -0.551 203 159 134
0.0527124 -0.396126 -0.548 202 156 130
0.0534619 -0.393957 -0.545 203 157 131
0.0542 -0.391789 -0.542 202 161 131
0.0549267 -0.38962 -0.539 203 162 132
0.0558495 -0.388897 -0.538 205 160 131
0.0566629 -0.387451 -0.536 203 158 129
0.0575762 -0.386729 -0.535 195 158 131
0.0584857 -0.386006 -0.534 194 157 130
0.0593914 -0.385283 -0.533 202 158 129
0.0602933 -0.38456 -0.532 202 158 129
