ply
format ascii 1.0
comment Created by Open3D
element vertex 1285
property double x
property double y
property double z
property uchar red
property uchar green
property uchar blue
end_header
0.0856429 -0.360738 -0.545 196 150 126
0.086681 -0.360738 -0.545 197 149 126
0.0877191 -0.360738 -0.545 198 150 127
0.0887571 -0.360738 -0.545 197 149 126
0.0897952 -0.360738 -0.545 198 150 127
0.0908333 -0.360738 -0.545 200 152 129
0.0918714 -0.360738 -0.545 200 152 129
0.0929095 -0.360738 -0.545 201 153 130
0.0939476 -0.360738 -0.545 202 155 129
0.0949857 -0.360738 -0.545 201 154 128
0.0960238 -0.360738 -0.545 200 152 129
0.0970619 -0.360738 -0.545 198 150 127
0.0981 -0.360738 -0.545 195 147 124
0.0991381 -0.360738 -0.545 192 144 121
0.10036 -0.3614 -0.546 192 142 119
0.1014 -0.3614 -0.546 191 141 118
0.10244 -0.3614 -0.546 192 142 119
0.10367 -0.362062 -0.547 190 140 117
0.104711 -0.362062 -0.547 189 137 116
0.105947 -0.362724 -0.548 178 126 105
0.107186 -0.363386 -0.549 174 122 101
0.108231 -0.363386 -0.549 164 112 91
0.109476 -0.364048 -0.55 159 107 85
0.110725 -0.36471 -0.551 153 101 79
0.111977 -0.365371 -0.552 149 97 86
0.113233 -0.366033 -0.553 145 93 82
0.114493 -0.366695 -0.554 144 95 81
0.115757 -0.367357 -0.555 146 97 83
0.117025 -0.368019 -0.556 144 95 81
0.118296 -0.368681 -0.557 143 94 80
0.119571 -0.369343 -0.558 139 93 78
0.12085 -0.370005 -0.559 138 92 77
0.122133 -0.370667 -0.56 135 89 76
0.12342 -0.371329 -0.561 134 88 75
0.12471 -0.37199 -0.562 134 87 77
0.126005 -0.372652 -0.563 134 87 77
0.127529 -0.373976 -0.565 132 87 81
0.128832 -0.374638 -0.566 130 85 79
0.13014 -0.3753 -0.567 126 83 77
0.131683 -0.376624 -0.569 125 82 76
0.133 -0.377286 -0.57 124 83 79
0.134321 -0.377948 -0.571 124 83 79
0.135883 -0.379271 -0.573 122 83 78
0.137213 -0.379933 -0.574 121 82 77
0.138789 -0.381257 -0.576 120 82 81
0.140371 -0.382581 -0.578 119 81 80
0.141717 -0.383243 -0.579 114 80 79
0.143313 -0.384567 -0.581 113 79 78
0.144917 -0.38589 -0.583 112 80 81
0.146529 -0.387214 -0.585 111 79 80
0.148148 -0.388538 -0.587 109 79 79
0.171411 -0.401114 -0.606 46 56 83
0.172566 -0.401114 -0.606 53 63 90
0.17372 -0.401114 -0.606 48 62 97
0.174874 -0.401114 -0.606 44 58 93
0.176029 -0.401114 -0.606 29 47 95
0.177183 -0.401114 -0.606 29 47 95
0.178337 -0.401114 -0.606 26 44 92
0.179491 -0.401114 -0.606 30 44 91
0.180646 -0.401114 -0.606 28 42 89
0.1821 -0.401776 -0.607 28 44 96
0.183256 -0.401776 -0.607 29 45 97
0.184412 -0.401776 -0.607 27 48 101
0.185569 -0.401776 -0.607 27 48 101
0.186725 -0.401776 -0.607 41 69 119
0.187881 -0.401776 -0.607 57 85 135
0.189037 -0.401776 -0.607 46 74 124
0.190193 -0.401776 -0.607 34 62 112
0.19135 -0.401776 -0.607 37 57 107
0.192506 -0.401776 -0.607 41 61 111
0.193662 -0.401776 -0.607 120 128 165
0.194818 -0.401776 -0.607 146 154 191
0.195974 -0.401776 -0.607 160 161 182
0.19713 -0.401776 -0.607 165 166 187
0.198287 -0.401776 -0.607 162 163 183
0.199443 -0.401776 -0.607 161 162 182
0.200599 -0.401776 -0.607 163 162 180
0.201755 -0.401776 -0.607 164 163 181
0.202911 -0.401776 -0.607 166 165 183
0.204068 -0.401776 -0.607 167 166 184
0.205224 -0.401776 -0.607 167 168 186
0.349725 -0.404424 -0.611 194 196 208
0.350889 -0.404424 -0.611 196 195 209
0.367783 -0.405086 -0.612 159 183 219
0.40458 -0.405748 -0.613 188 192 201
0.405748 -0.405748 -0.613 187 191 200
0.406915 -0.405748 -0.613 186 190 201
0.408083 -0.405748 -0.613 184 188 199
0.40925 -0.405748 -0.613 184 188 200
0.410418 -0.405748 -0.613 188 192 204
0.411586 -0.405748 -0.613 188 192 204
0.412753 -0.405748 -0.613 185 189 201
0.413921 -0.405748 -0.613 187 191 203
0.415089 -0.405748 -0.613 187 189 201
0.416256 -0.405748 -0.613 182 184 196
0.417424 -0.405748 -0.613 168 167 173
0.418591 -0.405748 -0.613 172 171 177
0.432139 -0.40641 -0.614 159 174 205
0.433309 -0.40641 -0.614 152 167 198
0.434478 -0.40641 -0.614 144 169 210
0.435648 -0.40641 -0.614 101 126 167
0.436817 -0.40641 -0.614 71 104 157
0.437987 -0.40641 -0.614 85 118 171
0.439156 -0.40641 -0.614 96 131 189
0.440326 -0.40641 -0.614 90 125 183
0.441495 -0.40641 -0.614 72 107 163
0.442665 -0.40641 -0.614 63 98 154
0.443834 -0.40641 -0.614 76 109 160
0.445004 -0.40641 -0.614 119 152 203
0.446173 -0.40641 -0.614 142 166 204
0.447343 -0.40641 -0.614 142 166 204
0.448512 -0.40641 -0.614 145 169 207
0.449682 -0.40641 -0.614 166 180 206
0.451586 -0.407071 -0.615 173 187 213
0.452757 -0.407071 -0.615 128 145 171
0.453929 -0.407071 -0.615 97 114 140
0.4551 -0.407071 -0.615 100 115 146
0.456271 -0.407071 -0.615 109 124 155
0.457443 -0.407071 -0.615 137 146 175
0.458614 -0.407071 -0.615 158 167 196
0.460533 -0.407733 -0.616 177 178 196
0.461707 -0.407733 -0.616 171 172 190
0.46288 -0.407733 -0.616 173 174 179
0.464053 -0.407733 -0.616 180 181 186
0.465227 -0.407733 -0.616 164 167 172
0.4664 -0.407733 -0.616 170 173 178
0.467573 -0.407733 -0.616 178 181 190
0.468747 -0.407733 -0.616 176 179 188
0.46992 -0.407733 -0.616 179 177 190
0.470329 -0.407071 -0.615 179 177 190
0.472267 -0.407733 -0.616 177 177 187
0.47344 -0.407733 -0.616 179 179 189
0.474613 -0.407733 -0.616 180 180 192
0.475787 -0.407733 -0.616 177 177 189
0.47696 -0.407733 -0.616 177 176 190
0.478133 -0.407733 -0.616 176 175 189
0.479307 -0.407733 -0.616 172 170 181
0.48048 -0.407733 -0.616 169 167 178
0.481653 -0.407733 -0.616 170 169 175
0.482827 -0.407733 -0.616 162 161 167
0.484786 -0.408395 -0.617 175 178 187
0.485961 -0.408395 -0.617 175 178 187
0.487136 -0.408395 -0.617 160 167 186
0.488311 -0.408395 -0.617 160 167 186
0.489487 -0.408395 -0.617 152 159 178
0.490662 -0.408395 -0.617 127 134 163
0.491837 -0.408395 -0.617 105 112 141
0.493012 -0.408395 -0.617 92 105 140
0.494989 -0.409057 -0.618 86 99 134
0.495363 -0.408395 -0.617 146 153 179
0.496538 -0.408395 -0.617 163 170 196
0.497713 -0.408395 -0.617 161 167 189
0.498889 -0.408395 -0.617 154 160 182
0.500064 -0.408395 -0.617 137 152 183
0.501239 -0.408395 -0.617 120 135 166
0.502414 -0.408395 -0.617 84 111 158
0.50359 -0.408395 -0.617 82 109 156
0.504765 -0.408395 -0.617 82 114 171
0.50594 -0.408395 -0.617 70 102 159
0.507115 -0.408395 -0.617 68 99 153
0.50829 -0.408395 -0.617 86 117 171
0.509466 -0.408395 -0.617 80 109 153
0.509813 -0.407733 -0.616 77 106 150
0.510987 -0.407733 -0.616 100 120 157
0.51216 -0.407733 -0.616 125 145 182
0.513333 -0.407733 -0.616 146 162 188
0.514507 -0.407733 -0.616 154 170 196
0.51568 -0.407733 -0.616 172 180 199
0.530074 -0.393171 -0.594 152 123 107
0.524051 -0.387876 -0.586 150 121 105
0.514413 -0.379933 -0.574 156 120 106
0.505628 -0.372652 -0.563 160 124 110
0.4977 -0.366033 -0.553 167 123 112
0.49244 -0.3614 -0.546 166 122 111
0.488961 -0.35809 -0.541 166 122 109
0.485463 -0.354781 -0.536 167 123 110
0.483761 -0.352795 -0.533 168 124 111
0.482048 -0.35081 -0.53 170 126 113
0.480323 -0.348824 -0.527 170 128 112
0.4795 -0.3475 -0.525 170 128 112
0.47867 -0.346176 -0.523 170 127 110
0.477831 -0.344852 -0.521 170 127 110
0.476986 -0.343529 -0.519 172 126 110
0.477053 -0.342867 -0.518 172 126 110
0.477117 -0.342205 -0.517 170 127 110
0.476252 -0.340881 -0.515 169 126 109
0.476307 -0.340219 -0.514 170 127 110
0.476357 -0.339557 -0.513 170 127 110
0.477334 -0.339557 -0.513 169 126 109
0.477379 -0.338895 -0.512 170 127 110
0.47742 -0.338233 -0.511 174 129 110
0.478393 -0.338233 -0.511 175 130 111
0.478429 -0.337571 -0.51 176 131 112
0.47846 -0.33691 -0.509 174 129 110
0.478488 -0.336248 -0.508 175 130 111
0.479455 -0.336248 -0.508 177 132 113
0.480423 -0.336248 -0.508 177 132 113
0.480443 -0.335586 -0.507 176 131 112
0.481409 -0.335586 -0.507 175 130 111
0.482374 -0.335586 -0.507 176 129 109
0.482387 -0.334924 -0.506 176 129 109
0.482395 -0.334262 -0.505 174 127 107
0.483357 -0.334262 -0.505 175 128 108
0.484319 -0.334262 -0.505 174 127 107
0.48432 -0.3336 -0.504 174 127 107
0.484317 -0.332938 -0.503 174 127 107
0.485275 -0.332938 -0.503 172 125 105
0.485267 -0.332276 -0.502 154 107 87
0.486223 -0.332276 -0.502 158 111 91
0.487179 -0.332276 -0.502 170 124 101
0.487163 -0.331614 -0.501 174 128 105
0.488117 -0.331614 -0.501 176 129 109
0.488095 -0.330952 -0.5 176 129 109
0.489048 -0.330952 -0.5 177 130 110
0.49 -0.330952 -0.5 176 129 109
0.48997 -0.33029 -0.499 177 130 110
0.490921 -0.33029 -0.499 179 132 112
0.491871 -0.33029 -0.499 174 128 105
0.492822 -0.33029 -0.499 172 126 103
0.493772 -0.33029 -0.499 170 125 102
0.494723 -0.33029 -0.499 168 123 100
0.495673 -0.33029 -0.499 165 120 97
0.497619 -0.330952 -0.5 165 120 97
0.499569 -0.331614 -0.501 168 123 100
0.500523 -0.331614 -0.501 168 123 100
0.502478 -0.332276 -0.502 167 122 101
0.503434 -0.332276 -0.502 169 124 103
0.505395 -0.332938 -0.503 164 122 100
0.506353 -0.332938 -0.503 157 115 93
0.50832 -0.3336 -0.504 158 116 94
0.51029 -0.334262 -0.505 155 113 91
0.512265 -0.334924 -0.506 157 115 93
0.514243 -0.335586 -0.507 160 118 96
0.516225 -0.336248 -0.508 161 116 97
0.51821 -0.33691 -0.509 157 112 93
0.52122 -0.338233 -0.511 154 111 92
0.523215 -0.338895 -0.512 154 111 92
0.527262 -0.340881 -0.515 150 112 91
-0.34762 -0.380363 -0.573 233 234 228
-0.346529 -0.380363 -0.573 233 234 228
-0.345437 -0.380363 -0.573 234 235 229
-0.344346 -0.380363 -0.573 234 235 229
-0.312147 -0.381027 -0.574 237 238 230
-0.311053 -0.381027 -0.574 237 238 230
-0.30996 -0.381027 -0.574 237 238 230
-0.308867 -0.381027 -0.574 237 238 230
-0.307773 -0.381027 -0.574 237 238 230
-0.30668 -0.381027 -0.574 238 239 231
-0.305587 -0.381027 -0.574 238 239 231
-0.304493 -0.381027 -0.574 238 239 231
-0.3034 -0.381027 -0.574 238 239 231
-0.302307 -0.381027 -0.574 237 238 230
-0.301213 -0.381027 -0.574 237 238 230
-0.30012 -0.381027 -0.574 237 238 230
0.0660733 -0.387001 -0.583 198 153 134
0.0667229 -0.384346 -0.579 200 155 136
0.0673571 -0.38169 -0.575 202 157 138
0.0678571 -0.378371 -0.57 202 157 138
0.0683381 -0.375052 -0.565 201 158 141
0.0686771 -0.37107 -0.559 201 158 141
0.0692429 -0.368414 -0.555 202 159 140
0.06992 -0.366423 -0.552 203 160 141
0.0707143 -0.365095 -0.55 204 159 138
0.0716314 -0.364431 -0.549 203 158 137
0.0724124 -0.363104 -0.547 202 157 134
0.07332 -0.36244 -0.546 202 157 134
0.07436 -0.36244 -0.546 202 157 134
0.0754 -0.36244 -0.546 203 158 135
0.0763 -0.361776 -0.545 200 155 132
0.0773381 -0.361776 -0.545 202 157 134
0.0783762 -0.361776 -0.545 200 155 132
0.0794143 -0.361776 -0.545 199 154 131
0.0804524 -0.361776 -0.545 202 156 133
0.0814905 -0.361776 -0.545 197 151 128
0.0825286 -0.361776 -0.545 191 145 121
0.0835667 -0.361776 -0.545 192 146 122
0.0844495 -0.361112 -0.544 196 150 126
0.0854857 -0.361112 -0.544 196 150 126
0.0865219 -0.361112 -0.544 198 150 128
0.0875581 -0.361112 -0.544 198 150 128
0.0885943 -0.361112 -0.544 198 150 127
0.0896305 -0.361112 -0.544 199 151 128
0.0906667 -0.361112 -0.544 199 151 128
0.0917029 -0.361112 -0.544 200 152 129
0.0927391 -0.361112 -0.544 200 152 129
0.0937752 -0.361112 -0.544 199 153 129
0.0949857 -0.361776 -0.545 199 153 129
0.0960238 -0.361776 -0.545 201 153 131
0.0970619 -0.361776 -0.545 200 152 130
0.0981 -0.361776 -0.545 196 148 126
0.0991381 -0.361776 -0.545 193 145 123
0.10036 -0.36244 -0.546 192 142 119
0.1014 -0.36244 -0.546 189 139 116
0.10244 -0.36244 -0.546 187 136 115
0.10367 -0.363104 -0.547 184 133 112
0.104711 -0.363104 -0.547 183 131 110
0.105947 -0.363768 -0.548 171 119 98
0.107186 -0.364431 -0.549 169 117 96
0.108231 -0.364431 -0.549 159 107 86
0.109476 -0.365095 -0.55 158 103 83
0.110725 -0.365759 -0.551 152 97 77
0.111977 -0.366423 -0.552 147 97 88
0.113233 -0.367087 -0.553 144 94 85
0.114493 -0.36775 -0.554 147 95 82
0.115757 -0.368414 -0.555 148 96 83
0.117025 -0.369078 -0.556 145 96 81
0.118296 -0.369742 -0.557 144 95 80
0.119571 -0.370406 -0.558 139 93 78
0.12085 -0.37107 -0.559 137 91 76
0.122133 -0.371733 -0.56 133 89 76
0.12342 -0.372397 -0.561 133 89 76
0.12471 -0.373061 -0.562 133 89 80
0.126005 -0.373725 -0.563 133 89 80
0.127529 -0.375052 -0.565 131 88 82
0.128832 -0.375716 -0.566 128 85 79
0.13014 -0.37638 -0.567 123 82 80
0.131683 -0.377708 -0.569 122 81 79
0.133 -0.378371 -0.57 123 83 81
0.134556 -0.379699 -0.572 123 83 81
0.135883 -0.380363 -0.573 122 82 80
0.137213 -0.381027 -0.574 121 82 77
0.138789 -0.382354 -0.576 120 82 79
0.140371 -0.383682 -0.578 119 81 78
0.141962 -0.38501 -0.58 115 80 78
0.14356 -0.386337 -0.582 115 80 78
0.145166 -0.387665 -0.584 111 80 78
0.146779 -0.388992 -0.586 112 81 79
0.148148 -0.389656 -0.587 110 80 80
0.166519 -0.401605 -0.605 101 102 130
0.167671 -0.401605 -0.605 81 82 110
0.172566 -0.402269 -0.606 62 70 93
0.178337 -0.402269 -0.606 31 48 94
0.179491 -0.402269 -0.606 38 56 106
0.180646 -0.402269 -0.606 37 55 105
0.1818 -0.402269 -0.606 31 51 104
0.183256 -0.402932 -0.607 32 52 105
0.184109 -0.402269 -0.606 30 53 107
0.185263 -0.402269 -0.606 33 56 110
0.186417 -0.402269 -0.606 59 87 137
0.187571 -0.402269 -0.606 78 106 156
0.188726 -0.402269 -0.606 72 99 146
0.18988 -0.402269 -0.606 74 101 148
0.191034 -0.402269 -0.606 55 73 119
0.192189 -0.402269 -0.606 66 84 130
0.193343 -0.402269 -0.606 88 98 134
0.194497 -0.402269 -0.606 118 128 164
0.195651 -0.402269 -0.606 147 151 176
0.196806 -0.402269 -0.606 166 170 195
0.19796 -0.402269 -0.606 164 165 186
0.199114 -0.402269 -0.606 162 163 184
0.200269 -0.402269 -0.606 165 163 184
0.201423 -0.402269 -0.606 167 165 186
0.202577 -0.402269 -0.606 169 167 188
0.366018 -0.405588 -0.611 181 192 224
0.367182 -0.405588 -0.611 177 192 221
0.368346 -0.405588 -0.611 166 181 210
0.402754 -0.406251 -0.612 190 193 200
0.40392 -0.406251 -0.612 187 190 199
0.405086 -0.406251 -0.612 184 187 196
0.406251 -0.406251 -0.612 186 188 200
0.416256 -0.406915 -0.613 185 189 201
0.417424 -0.406915 -0.613 184 184 194
0.418591 -0.406915 -0.613 184 184 194
0.419759 -0.406915 -0.613 163 163 171
0.420927 -0.406915 -0.613 163 163 171
0.422094 -0.406915 -0.613 164 171 189
0.423262 -0.406915 -0.613 136 143 161
0.42443 -0.406915 -0.613 109 126 154
0.425597 -0.406915 -0.613 87 104 132
0.426765 -0.406915 -0.613 92 108 141
0.427932 -0.406915 -0.613 126 142 175
0.4291 -0.406915 -0.613 163 175 201
0.430268 -0.406915 -0.613 175 187 213
0.431435 -0.406915 -0.613 168 179 207
0.432603 -0.406915 -0.613 156 167 195
0.43377 -0.406915 -0.613 139 163 201
0.434938 -0.406915 -0.613 103 127 165
0.436106 -0.406915 -0.613 79 113 161
0.437273 -0.406915 -0.613 90 124 172
0.438441 -0.406915 -0.613 96 133 185
0.439609 -0.406915 -0.613 93 130 182
0.449682 -0.407579 -0.614 167 177 204
0.450851 -0.407579 -0.614 174 184 211
0.452021 -0.407579 -0.614 153 165 187
0.45319 -0.407579 -0.614 102 114 136
0.45436 -0.407579 -0.614 77 94 124
0.456271 -0.408243 -0.615 80 97 127
0.457443 -0.408243 -0.615 100 115 148
0.458614 -0.408243 -0.615 124 139 172
0.459786 -0.408243 -0.615 153 158 178
0.460957 -0.408243 -0.615 145 150 170
0.462129 -0.408243 -0.615 137 135 146
0.4633 -0.408243 -0.615 170 168 179
0.464471 -0.408243 -0.615 179 179 187
0.465643 -0.408243 -0.615 175 175 183
0.466814 -0.408243 -0.615 172 174 186
0.467986 -0.408243 -0.615 180 182 194
0.469157 -0.408243 -0.615 176 176 188
0.470329 -0.408243 -0.615 177 177 189
0.4715 -0.408243 -0.615 176 176 184
0.472671 -0.408243 -0.615 173 173 181
0.473843 -0.408243 -0.615 175 175 187
0.475014 -0.408243 -0.615 178 178 190
0.476186 -0.408243 -0.615 179 178 194
0.477357 -0.408243 -0.615 178 177 193
0.478529 -0.408243 -0.615 175 175 187
0.48048 -0.408907 -0.616 178 178 190
0.481653 -0.408907 -0.616 166 166 174
0.482827 -0.408907 -0.616 128 128 136
0.484 -0.408907 -0.616 144 147 156
0.485173 -0.408907 -0.616 172 175 184
0.486347 -0.408907 -0.616 153 159 181
0.48752 -0.408907 -0.616 153 159 181
0.488693 -0.408907 -0.616 124 130 152
0.489867 -0.408907 -0.616 93 101 137
0.49104 -0.408907 -0.616 80 88 124
0.492213 -0.408907 -0.616 80 90 125
0.494188 -0.40957 -0.617 104 114 149
0.495363 -0.40957 -0.617 146 153 179
0.495733 -0.408907 -0.616 166 172 194
0.496907 -0.408907 -0.616 169 174 193
0.49808 -0.408907 -0.616 158 163 182
0.499253 -0.408907 -0.616 127 141 170
0.500427 -0.408907 -0.616 103 117 146
0.5016 -0.408907 -0.616 78 102 148
0.502773 -0.408907 -0.616 78 102 148
0.503947 -0.408907 -0.616 86 118 169
0.50512 -0.408907 -0.616 81 113 164
0.507115 -0.40957 -0.617 82 113 160
0.507467 -0.408907 -0.616 88 119 166
0.50864 -0.408907 -0.616 79 106 149
0.509813 -0.408907 -0.616 72 99 142
0.510987 -0.408907 -0.616 79 101 140
0.51216 -0.408907 -0.616 103 125 164
0.513333 -0.408907 -0.616 137 152 181
0.531859 -0.39563 -0.596 150 122 108
0.527629 -0.391648 -0.59 149 121 107
0.518894 -0.384346 -0.579 155 121 109
0.510118 -0.377044 -0.568 158 124 112
0.5013 -0.369742 -0.557 167 125 113
0.495146 -0.364431 -0.549 165 123 111
0.490769 -0.360449 -0.543 165 121 110
0.487274 -0.35713 -0.538 166 122 111
0.484669 -0.354474 -0.534 166 124 110
0.482957 -0.352483 -0.531 169 127 113
0.481234 -0.350491 -0.528 171 129 113
0.4795 -0.3485 -0.525 171 129 113
0.479585 -0.347836 -0.524 170 129 111
0.478749 -0.346509 -0.522 169 128 110
0.477905 -0.345181 -0.52 170 127 110
0.477974 -0.344517 -0.519 172 129 112
0.477117 -0.34319 -0.517 169 126 109
0.477177 -0.342526 -0.516 169 126 109
0.476307 -0.341198 -0.514 170 127 110
0.476357 -0.340534 -0.513 171 128 111
0.477334 -0.340534 -0.513 171 128 111
0.477379 -0.33987 -0.512 171 128 111
0.47742 -0.339207 -0.511 175 130 111
0.478393 -0.339207 -0.511 175 130 111
0.478429 -0.338543 -0.51 178 133 114
0.47846 -0.337879 -0.509 175 130 111
0.478488 -0.337215 -0.508 175 130 111
0.479455 -0.337215 -0.508 177 132 113
0.479477 -0.336551 -0.507 176 131 112
0.480443 -0.336551 -0.507 176 131 112
0.481409 -0.336551 -0.507 176 131 112
0.481423 -0.335888 -0.506 178 131 111
0.482387 -0.335888 -0.506 176 129 109
0.482395 -0.335224 -0.505 175 128 108
0.483357 -0.335224 -0.505 175 128 108
0.48336 -0.33456 -0.504 173 126 108
0.48432 -0.33456 -0.504 175 128 110
0.484317 -0.333896 -0.503 174 127 109
0.485275 -0.333896 -0.503 171 124 106
0.485267 -0.333232 -0.502 156 109 89
0.486223 -0.333232 -0.502 155 108 88
0.487179 -0.333232 -0.502 166 119 99
0.487163 -0.332569 -0.501 172 125 105
0.488117 -0.332569 -0.501 175 128 108
0.488095 -0.331905 -0.5 176 129 109
0.489048 -0.331905 -0.5 177 130 110
0.49 -0.331905 -0.5 176 129 109
0.48997 -0.331241 -0.499 177 130 110
0.490921 -0.331241 -0.499 177 130 110
0.491871 -0.331241 -0.499 176 130 107
0.492822 -0.331241 -0.499 174 128 105
0.493772 -0.331241 -0.499 171 127 102
0.494723 -0.331241 -0.499 169 125 100
0.495673 -0.331241 -0.499 166 122 97
0.497619 -0.331905 -0.5 166 122 97
0.498571 -0.331905 -0.5 168 123 100
0.500523 -0.332569 -0.501 169 124 101
0.501477 -0.332569 -0.501 167 122 101
0.503434 -0.333232 -0.502 169 124 103
0.50439 -0.333232 -0.502 166 124 100
0.506353 -0.333896 -0.503 157 115 91
0.50832 -0.33456 -0.504 157 115 91
0.51029 -0.335224 -0.505 155 113 89
0.511252 -0.335224 -0.505 157 115 93
0.513229 -0.335888 -0.506 159 117 95
0.515209 -0.336551 -0.507 162 116 100
0.517192 -0.337215 -0.508 159 113 97
0.51918 -0.337879 -0.509 157 112 91
0.522193 -0.339207 -0.511 157 112 91
0.524191 -0.33987 -0.512 154 113 91
-0.327974 -0.381454 -0.573 234 235 227
-0.326883 -0.381454 -0.573 235 236 228
-0.325791 -0.381454 -0.573 235 236 228
-0.3247 -0.381454 -0.573 235 236 228
-0.323609 -0.381454 -0.573 235 236 228
-0.322517 -0.381454 -0.573 236 238 227
-0.321426 -0.381454 -0.573 235 237 226
-0.320334 -0.381454 -0.573 235 237 226
0.0650743 -0.388777 -0.584 195 150 129
0.0658467 -0.38678 -0.581 199 154 135
0.0664924 -0.384117 -0.577 200 155 136
0.0670057 -0.380789 -0.572 200 155 136
0.0675 -0.37746 -0.567 202 157 138
0.0680962 -0.374797 -0.563 200 157 140
0.0684314 -0.370803 -0.557 203 160 143
0.0689933 -0.36814 -0.553 202 159 140
0.06992 -0.367474 -0.552 202 159 140
0.0705857 -0.365477 -0.549 203 158 137
0.0715009 -0.364811 -0.548 203 158 137
0.0724124 -0.364146 -0.547 203 159 134
0.07332 -0.36348 -0.546 203 159 134
0.07436 -0.36348 -0.546 202 158 133
0.0752619 -0.362814 -0.545 202 158 133
0.0763 -0.362814 -0.545 201 157 130
0.0771962 -0.362149 -0.544 202 158 131
0.0782324 -0.362149 -0.544 201 155 131
0.0792686 -0.362149 -0.544 199 153 129
0.0803048 -0.362149 -0.544 200 154 130
0.081341 -0.362149 -0.544 194 148 124
0.0823771 -0.362149 -0.544 185 139 113
0.0834133 -0.362149 -0.544 188 142 116
0.0844495 -0.362149 -0.544 197 150 124
0.0854857 -0.362149 -0.544 198 151 125
0.0865219 -0.362149 -0.544 198 150 127
0.0875581 -0.362149 -0.544 197 149 126
0.0885943 -0.362149 -0.544 197 149 126
0.0896305 -0.362149 -0.544 199 151 128
0.0906667 -0.362149 -0.544 200 152 129
0.0917029 -0.362149 -0.544 201 154 128
0.0927391 -0.362149 -0.544 201 154 128
0.0937752 -0.362149 -0.544 200 154 130
0.0948114 -0.362149 -0.544 200 154 130
0.0958476 -0.362149 -0.544 202 156 133
0.0968838 -0.362149 -0.544 201 155 132
0.0981 -0.362814 -0.545 198 150 128
0.0991381 -0.362814 -0.545 193 145 123
0.100176 -0.362814 -0.545 191 141 118
0.1014 -0.36348 -0.546 187 137 114
0.10244 -0.36348 -0.546 180 130 107
0.10367 -0.364146 -0.547 176 126 103
0.104711 -0.364146 -0.547 174 122 101
0.105947 -0.364811 -0.548 161 109 88
0.107186 -0.365477 -0.549 163 108 88
0.108231 -0.365477 -0.549 155 100 80
0.109476 -0.366143 -0.55 156 101 80
0.110725 -0.366809 -0.551 154 99 78
0.111977 -0.367474 -0.552 147 97 90
0.113233 -0.36814 -0.553 144 94 87
0.114493 -0.368806 -0.554 146 96 85
0.115966 -0.370137 -0.556 146 96 85
0.117235 -0.370803 -0.557 145 96 81
0.118509 -0.371469 -0.558 144 95 80
0.119786 -0.372134 -0.559 139 93 78
0.121067 -0.3728 -0.56 138 92 77
0.122351 -0.373466 -0.561 133 91 79
0.12364 -0.374131 -0.562 134 92 80
0.124932 -0.374797 -0.563 134 91 84
0.126229 -0.375463 -0.564 133 90 83
0.127529 -0.376129 -0.565 129 88 84
0.128832 -0.376794 -0.566 124 83 79
0.13037 -0.378126 -0.568 121 79 80
0.131683 -0.378791 -0.569 121 79 80
0.133233 -0.380123 -0.571 120 85 83
0.134556 -0.380789 -0.572 121 86 84
0.135883 -0.381454 -0.573 122 82 80
0.137452 -0.382786 -0.575 120 80 78
0.13903 -0.384117 -0.577 118 80 77
0.140614 -0.385449 -0.579 117 79 76
0.142207 -0.38678 -0.581 113 79 78
0.143807 -0.388111 -0.583 114 80 79
0.145414 -0.389443 -0.585 110 80 80
0.169976 -0.402757 -0.605 82 84 109
0.171129 -0.402757 -0.605 69 74 94
0.172281 -0.402757 -0.605 71 76 96
0.173433 -0.402757 -0.605 80 94 123
0.174586 -0.402757 -0.605 80 94 123
0.175738 -0.402757 -0.605 60 74 103
0.17689 -0.402757 -0.605 31 52 97
0.178043 -0.402757 -0.605 45 66 111
0.179195 -0.402757 -0.605 49 75 126
0.180348 -0.402757 -0.605 45 71 122
0.1818 -0.403423 -0.606 38 63 119
0.182954 -0.403423 -0.606 41 66 122
0.184109 -0.403423 -0.606 42 64 121
0.185263 -0.403423 -0.606 50 72 129
0.18611 -0.402757 -0.605 88 110 157
0.187262 -0.402757 -0.605 102 124 171
0.188414 -0.402757 -0.605 97 116 156
0.189567 -0.402757 -0.605 123 142 182
0.356124 -0.406086 -0.61 191 193 206
0.357286 -0.406086 -0.61 174 179 199
0.358448 -0.406086 -0.61 157 162 182
0.35961 -0.406086 -0.61 121 130 161
0.405086 -0.407417 -0.612 186 188 201
0.406251 -0.407417 -0.612 180 182 195
0.407417 -0.407417 -0.612 184 186 199
0.408583 -0.407417 -0.612 186 188 203
0.409749 -0.407417 -0.612 188 190 205
0.410914 -0.407417 -0.612 188 190 205
0.41208 -0.407417 -0.612 189 192 209
0.413246 -0.407417 -0.612 185 188 205
0.414411 -0.407417 -0.612 188 191 206
0.415577 -0.407417 -0.612 185 188 203
0.416743 -0.407417 -0.612 186 188 200
0.417909 -0.407417 -0.612 184 186 198
0.419074 -0.407417 -0.612 154 156 168
0.42024 -0.407417 -0.612 116 118 130
0.421406 -0.407417 -0.612 124 131 150
0.422571 -0.407417 -0.612 100 107 126
0.423737 -0.407417 -0.612 82 96 125
0.424903 -0.407417 -0.612 88 102 131
0.426069 -0.407417 -0.612 118 132 159
0.427234 -0.407417 -0.612 156 170 197
0.44895 -0.408083 -0.613 171 178 204
0.450117 -0.408083 -0.613 183 190 216
0.451285 -0.408083 -0.613 173 180 196
0.452452 -0.408083 -0.613 155 162 178
0.45362 -0.408083 -0.613 112 126 152
0.45553 -0.408749 -0.614 84 98 124
0.456699 -0.408749 -0.614 73 88 119
0.457869 -0.408749 -0.614 79 94 125
0.459038 -0.408749 -0.614 114 122 145
0.460208 -0.408749 -0.614 108 116 139
0.461377 -0.408749 -0.614 129 128 142
0.4633 -0.409414 -0.615 173 172 186
0.463716 -0.408749 -0.614 178 176 187
0.465643 -0.409414 -0.615 179 177 188
0.466814 -0.409414 -0.615 176 178 190
0.467986 -0.409414 -0.615 173 175 187
0.469157 -0.409414 -0.615 177 179 192
0.470329 -0.409414 -0.615 177 179 192
0.4715 -0.409414 -0.615 171 175 184
0.472671 -0.409414 -0.615 160 164 173
0.473843 -0.409414 -0.615 169 171 183
0.475014 -0.409414 -0.615 178 180 192
0.476186 -0.409414 -0.615 175 174 190
0.477357 -0.409414 -0.615 175 174 190
0.478529 -0.409414 -0.615 176 178 190
0.4797 -0.409414 -0.615 172 174 186
0.480871 -0.409414 -0.615 174 177 184
0.482043 -0.409414 -0.615 132 135 142
0.483214 -0.409414 -0.615 102 106 115
0.485173 -0.41008 -0.616 130 134 143
0.486347 -0.41008 -0.616 128 134 156
0.48752 -0.41008 -0.616 128 134 156
0.488693 -0.41008 -0.616 93 99 121
0.489867 -0.41008 -0.616 76 84 120
0.49104 -0.41008 -0.616 74 82 118
0.492213 -0.41008 -0.616 101 112 144
0.493387 -0.41008 -0.616 142 153 185
0.49456 -0.41008 -0.616 164 170 192
0.495733 -0.41008 -0.616 166 172 194
0.496907 -0.41008 -0.616 169 174 193
0.49808 -0.41008 -0.616 161 167 183
0.499253 -0.41008 -0.616 133 147 173
0.500427 -0.41008 -0.616 106 120 146
0.5016 -0.41008 -0.616 80 103 144
0.502773 -0.41008 -0.616 80 103 144
0.503947 -0.41008 -0.616 93 120 167
0.50512 -0.41008 -0.616 96 123 170
0.506293 -0.41008 -0.616 104 131 174
0.506643 -0.409414 -0.615 99 126 169
0.507814 -0.409414 -0.615 87 110 151
0.508986 -0.409414 -0.615 77 100 141
0.510157 -0.409414 -0.615 87 110 151
0.511329 -0.409414 -0.615 92 115 156
0.5125 -0.409414 -0.615 127 142 175
0.533644 -0.398097 -0.598 144 120 108
0.529417 -0.394103 -0.592 144 120 108
0.522479 -0.388111 -0.583 153 121 110
0.513711 -0.380789 -0.572 157 125 114
0.5049 -0.373466 -0.561 162 124 113
0.49695 -0.366809 -0.551 162 124 113
0.492576 -0.362814 -0.545 162 122 110
0.489086 -0.359486 -0.54 163 123 111
0.485576 -0.356157 -0.535 165 126 111
0.483867 -0.35416 -0.532 166 127 112
0.482146 -0.352163 -0.529 168 129 112
0.480413 -0.350166 -0.526 168 129 112
0.479585 -0.348834 -0.524 169 128 110
0.478749 -0.347503 -0.522 169 128 110
0.478824 -0.346837 -0.521 169 128 110
0.477974 -0.345506 -0.519 171 130 112
0.47804 -0.34484 -0.518 168 125 109
0.477177 -0.343509 -0.516 169 126 110
0.477233 -0.342843 -0.515 170 127 111
0.476357 -0.341511 -0.513 171 128 112
0.477334 -0.341511 -0.513 173 130 114
0.477379 -0.340846 -0.512 172 129 113
0.47742 -0.34018 -0.511 172 129 112
0.478393 -0.34018 -0.511 172 129 112
0.478429 -0.339514 -0.51 177 132 113
0.47846 -0.338849 -0.509 175 130 111
0.478488 -0.338183 -0.508 176 131 112
0.479455 -0.338183 -0.508 177 132 113
0.479477 -0.337517 -0.507 176 131 112
0.479495 -0.336851 -0.506 176 131 112
0.480459 -0.336851 -0.506 176 131 112
0.481423 -0.336851 -0.506 176 131 110
0.482387 -0.336851 -0.506 174 129 108
0.482395 -0.336186 -0.505 174 129 108
0.483357 -0.336186 -0.505 174 129 108
0.48336 -0.33552 -0.504 173 128 109
0.483359 -0.334854 -0.503 174 129 110
0.484317 -0.334854 -0.503 172 127 108
0.485275 -0.334854 -0.503 170 125 106
0.485267 -0.334189 -0.502 166 119 99
0.486223 -0.334189 -0.502 163 116 96
0.486209 -0.333523 -0.501 167 120 100
0.487163 -0.333523 -0.501 172 125 105
0.487143 -0.332857 -0.5 173 126 106
0.488095 -0.332857 -0.5 176 129 109
0.489048 -0.332857 -0.5 177 130 110
0.48902 -0.332191 -0.499 176 129 109
0.48997 -0.332191 -0.499 178 132 109
0.490921 -0.332191 -0.499 176 130 107
0.491871 -0.332191 -0.499 179 133 110
0.492822 -0.332191 -0.499 176 130 107
0.493772 -0.332191 -0.499 171 127 102
0.494723 -0.332191 -0.499 169 125 100
0.495673 -0.332191 -0.499 167 123 98
0.497619 -0.332857 -0.5 167 123 98
0.498571 -0.332857 -0.5 168 123 100
0.499524 -0.332857 -0.5 168 123 100
0.501477 -0.333523 -0.501 167 122 101
0.502431 -0.333523 -0.501 168 123 102
0.50439 -0.334189 -0.502 167 125 101
0.505347 -0.334189 -0.502 158 116 92
0.507311 -0.334854 -0.503 156 114 90
0.50928 -0.33552 -0.504 155 113 89
0.511252 -0.336186 -0.505 157 115 93
0.512214 -0.336186 -0.505 159 117 95
0.514192 -0.336851 -0.506 161 115 99
0.516174 -0.337517 -0.507 158 112 96
0.51714 -0.337517 -0.507 156 111 90
0.52015 -0.338849 -0.509 156 111 90
0.523167 -0.34018 -0.511 156 114 90
0.525166 -0.340846 -0.512 155 113 89
0.529224 -0.342843 -0.515 150 114 88
0.532264 -0.344174 -0.517 151 115 89
-0.342655 -0.381878 -0.572 233 234 226
-0.341566 -0.381878 -0.572 232 233 225
-0.340476 -0.381878 -0.572 233 234 226
-0.339387 -0.381878 -0.572 234 235 227
-0.338297 -0.381878 -0.572 234 235 227
-0.337208 -0.381878 -0.572 235 236 228
-0.336118 -0.381878 -0.572 235 236 230
-0.308329 -0.382546 -0.573 237 238 230
-0.307237 -0.382546 -0.573 237 238 230
-0.306146 -0.382546 -0.573 236 237 229
-0.305054 -0.382546 -0.573 238 239 231
-0.303963 -0.382546 -0.573 238 239 231
-0.302871 -0.382546 -0.573 237 238 230
0.0648514 -0.388554 -0.582 197 154 135
0.0655067 -0.385884 -0.578 198 155 136
0.0662619 -0.383881 -0.575 197 154 135
0.0666543 -0.379875 -0.569 198 155 136
0.0671429 -0.376537 -0.564 199 156 137
0.0677333 -0.373867 -0.56 202 157 138
0.0681857 -0.370529 -0.555 205 160 141
0.0688686 -0.368526 -0.552 204 159 138
0.0696667 -0.36719 -0.55 201 156 135
0.0705857 -0.366523 -0.549 202 157 136
0.0713705 -0.365188 -0.547 202 157 136
0.07228 -0.36452 -0.546 201 156 135
0.0731857 -0.363852 -0.545 203 158 137
0.0742238 -0.363852 -0.545 204 159 138
0.0752619 -0.363852 -0.545 200 155 134
0.07616 -0.363185 -0.544 200 156 131
0.0771962 -0.363185 -0.544 202 158 133
0.0782324 -0.363185 -0.544 201 155 131
0.0792686 -0.363185 -0.544 199 153 129
0.0803048 -0.363185 -0.544 197 151 125
0.0811914 -0.362517 -0.543 191 145 119
0.0822257 -0.362517 -0.543 189 143 119
0.08326 -0.362517 -0.543 194 148 124
0.0842943 -0.362517 -0.543 198 152 126
0.0853286 -0.362517 -0.543 198 152 126
0.0863629 -0.362517 -0.543 198 152 126
0.0873971 -0.362517 -0.543 200 153 127
0.0884314 -0.362517 -0.543 200 153 127
0.0894657 -0.362517 -0.543 200 153 125
0.0905 -0.362517 -0.543 199 152 124
0.0915343 -0.362517 -0.543 200 153 127
0.0925686 -0.362517 -0.543 201 154 128
0.0936029 -0.362517 -0.543 203 156 128
0.0946371 -0.362517 -0.543 203 156 128
0.0958476 -0.363185 -0.544 202 155 127
0.0968838 -0.363185 -0.544 196 149 121
0.09792 -0.363185 -0.544 192 145 115
0.0991381 -0.363852 -0.545 190 143 113
0.100176 -0.363852 -0.545 187 140 110
0.1014 -0.36452 -0.546 184 137 107
0.10244 -0.36452 -0.546 179 129 102
0.10348 -0.36452 -0.546 171 121 94
0.104711 -0.365188 -0.547 165 115 92
0.105947 -0.365855 -0.548 160 110 87
0.107186 -0.366523 -0.549 156 105 86
0.108429 -0.36719 -0.55 156 105 86
0.109476 -0.36719 -0.55 155 104 87
0.110725 -0.367858 -0.551 153 102 85
0.111977 -0.368526 -0.552 149 97 84
0.113233 -0.369193 -0.553 149 97 84
0.114493 -0.369861 -0.554 147 95 81
0.115966 -0.371196 -0.556 148 96 82
0.117235 -0.371864 -0.557 148 96 82
0.118509 -0.372531 -0.558 145 93 79
0.119786 -0.373199 -0.559 141 89 76
0.121067 -0.373867 -0.56 142 90 77
0.122351 -0.374534 -0.561 141 91 80
0.12364 -0.375202 -0.562 139 89 78
0.124932 -0.37587 -0.563 137 90 80
0.126229 -0.376537 -0.564 136 89 79
0.127529 -0.377205 -0.565 127 86 80
0.12906 -0.37854 -0.567 125 84 78
0.13037 -0.379208 -0.568 122 84 81
0.131914 -0.380543 -0.57 120 82 79
0.133233 -0.38121 -0.571 115 84 82
0.134791 -0.382546 -0.573 115 84 82
0.13612 -0.383213 -0.574 119 84 82
0.137691 -0.384549 -0.576 117 82 80
0.13903 -0.385216 -0.577 115 81 80
0.140614 -0.386551 -0.579 112 78 77
0.142451 -0.388554 -0.582 108 78 80
0.144053 -0.38989 -0.584 108 78 80
0.145663 -0.391225 -0.586 106 80 83
0.165093 -0.403242 -0.604 68 68 96
0.166244 -0.403242 -0.604 59 58 90
0.167394 -0.403242 -0.604 71 70 102
0.168545 -0.403242 -0.604 114 111 138
0.169695 -0.403242 -0.604 100 97 124
0.171129 -0.40391 -0.605 88 90 111
0.172281 -0.40391 -0.605 107 109 130
0.173433 -0.40391 -0.605 102 116 145
0.174586 -0.40391 -0.605 102 116 145
0.175448 -0.403242 -0.604 71 85 114
0.179195 -0.40391 -0.605 58 88 142
0.180348 -0.40391 -0.605 52 82 136
0.1815 -0.40391 -0.605 46 72 129
0.182954 -0.404577 -0.606 51 77 134
0.183805 -0.40391 -0.605 53 76 130
0.184957 -0.40391 -0.605 64 87 141
0.18611 -0.40391 -0.605 109 128 170
0.187262 -0.40391 -0.605 120 139 181
0.188414 -0.40391 -0.605 129 142 176
0.189567 -0.40391 -0.605 138 151 185
0.190719 -0.40391 -0.605 151 159 195
0.191871 -0.40391 -0.605 110 118 154
0.2057 -0.40391 -0.605 169 172 187
0.206852 -0.40391 -0.605 173 175 190
0.398605 -0.407915 -0.611 171 176 182
0.399769 -0.407915 -0.611 187 192 198
0.400932 -0.407915 -0.611 187 194 202
0.402096 -0.407915 -0.611 184 191 199
0.40326 -0.407915 -0.611 187 191 203
0.404424 -0.407915 -0.611 187 191 203
0.405588 -0.407915 -0.611 172 174 189
0.406751 -0.407915 -0.611 175 177 192
0.407915 -0.407915 -0.611 188 189 209
0.409079 -0.407915 -0.611 187 188 208
0.410243 -0.407915 -0.611 187 188 208
0.411407 -0.407915 -0.611 185 188 207
0.41257 -0.407915 -0.611 189 192 211
0.413734 -0.407915 -0.611 190 192 205
0.417909 -0.408583 -0.612 188 191 200
0.419074 -0.408583 -0.612 178 181 196
0.42024 -0.408583 -0.612 119 122 137
0.421406 -0.408583 -0.612 97 105 126
0.422571 -0.408583 -0.612 87 95 116
0.423737 -0.408583 -0.612 90 100 125
0.424903 -0.408583 -0.612 131 141 166
0.426069 -0.408583 -0.612 160 168 189
0.427234 -0.408583 -0.612 172 180 201
0.4284 -0.408583 -0.612 177 183 197
0.429566 -0.408583 -0.612 178 184 198
0.430731 -0.408583 -0.612 173 181 200
0.431897 -0.408583 -0.612 151 159 178
0.433063 -0.408583 -0.612 111 131 164
0.434229 -0.408583 -0.612 94 114 147
0.435394 -0.408583 -0.612 84 113 155
0.43656 -0.408583 -0.612 90 119 161
0.437726 -0.408583 -0.612 106 133 178
0.438891 -0.408583 -0.612 104 131 176
0.440057 -0.408583 -0.612 92 119 164
0.441223 -0.408583 -0.612 75 102 147
0.442389 -0.408583 -0.612 79 106 153
0.443554 -0.408583 -0.612 86 113 160
0.44472 -0.408583 -0.612 109 127 165
0.445886 -0.408583 -0.612 109 127 165
0.447051 -0.408583 -0.612 142 160 198
0.448217 -0.408583 -0.612 172 178 204
0.451285 -0.40925 -0.613 169 178 187
0.452452 -0.40925 -0.613 171 180 189
0.45362 -0.40925 -0.613 154 165 183
0.454788 -0.40925 -0.613 119 130 148
0.455955 -0.40925 -0.613 88 100 126
0.457869 -0.409918 -0.614 73 85 111
0.459038 -0.409918 -0.614 80 88 111
0.460208 -0.409918 -0.614 100 108 131
0.461377 -0.409918 -0.614 155 156 174
0.462547 -0.409918 -0.614 175 176 194
0.463716 -0.409918 -0.614 176 176 188
0.464886 -0.409918 -0.614 173 173 185
0.466055 -0.409918 -0.614 177 176 190
0.467225 -0.409918 -0.614 179 178 192
0.468394 -0.409918 -0.614 175 177 192
0.469564 -0.409918 -0.614 173 175 190
0.470733 -0.409918 -0.614 165 173 186
0.471903 -0.409918 -0.614 143 151 164
0.473072 -0.409918 -0.614 154 158 170
0.474242 -0.409918 -0.614 173 177 189
0.475411 -0.409918 -0.614 173 175 187
0.476581 -0.409918 -0.614 173 175 187
0.47775 -0.409918 -0.614 177 179 191
0.47892 -0.409918 -0.614 174 176 188
0.48009 -0.409918 -0.614 168 172 183
0.481259 -0.409918 -0.614 164 168 179
0.482429 -0.409918 -0.614 136 140 152
0.484386 -0.410586 -0.615 110 114 126
0.485557 -0.410586 -0.615 89 94 116
0.486729 -0.410586 -0.615 89 94 116
0.4879 -0.410586 -0.615 75 80 102
0.489071 -0.410586 -0.615 75 81 113
0.490243 -0.410586 -0.615 99 105 137
0.491414 -0.410586 -0.615 139 151 177
0.492586 -0.410586 -0.615 160 172 198
0.493757 -0.410586 -0.615 169 174 193
0.494929 -0.410586 -0.615 167 172 191
0.496907 -0.411253 -0.616 168 174 190
0.49808 -0.411253 -0.616 161 167 183
0.499253 -0.411253 -0.616 133 147 173
0.499614 -0.410586 -0.615 110 122 148
0.500786 -0.410586 -0.615 84 104 141
0.501957 -0.410586 -0.615 85 105 142
0.503129 -0.410586 -0.615 96 119 161
0.5043 -0.410586 -0.615 102 125 167
0.505471 -0.410586 -0.615 120 143 184
0.506643 -0.410586 -0.615 114 137 178
0.506989 -0.409918 -0.614 100 122 161
0.508158 -0.409918 -0.614 85 107 146
0.509328 -0.409918 -0.614 80 103 144
0.510497 -0.409918 -0.614 89 112 153
0.511667 -0.409918 -0.614 123 135 173
0.512836 -0.409918 -0.614 142 154 192
0.514006 -0.409918 -0.614 172 172 196
0.531206 -0.396566 -0.594 141 119 108
0.525168 -0.391225 -0.586 150 120 110
0.517303 -0.384549 -0.576 154 124 114
0.5085 -0.377205 -0.565 160 123 114
0.500557 -0.370529 -0.555 160 123 114
0.494384 -0.365188 -0.547 162 124 113
0.489991 -0.361182 -0.541 163 125 114
0.487391 -0.358511 -0.537 163 125 112
0.484776 -0.355841 -0.533 164 126 113
0.483057 -0.353838 -0.53 166 129 111
0.481327 -0.351835 -0.527 167 130 112
0.4805 -0.3505 -0.525 168 130 111
0.479666 -0.349165 -0.523 168 130 111
0.478824 -0.34783 -0.521 169 128 110
0.478895 -0.347162 -0.52 168 127 109
0.47804 -0.345827 -0.518 168 126 110
0.478102 -0.345159 -0.517 168 126 110
0.477233 -0.343824 -0.515 168 125 109
0.477286 -0.343156 -0.514 170 127 111
0.477334 -0.342489 -0.513 173 130 114
0.477379 -0.341821 -0.512 173 130 114
0.47742 -0.341153 -0.511 171 128 111
0.478393 -0.341153 -0.511 172 129 112
0.478429 -0.340486 -0.51 173 130 111
0.47846 -0.339818 -0.509 173 130 111
0.478488 -0.33915 -0.508 177 132 113
0.479455 -0.33915 -0.508 178 133 114
0.479477 -0.338483 -0.507 176 131 112
0.479495 -0.337815 -0.506 174 129 110
0.480459 -0.337815 -0.506 174 129 110
0.481423 -0.337815 -0.506 174 129 108
0.481433 -0.337148 -0.505 173 128 107
0.482395 -0.337148 -0.505 172 127 106
0.483357 -0.337148 -0.505 174 129 108
0.48336 -0.33648 -0.504 175 130 111
0.483359 -0.335812 -0.503 176 131 112
0.484317 -0.335812 -0.503 172 127 108
0.48431 -0.335145 -0.502 171 126 107
0.485267 -0.335145 -0.502 174 129 108
0.486223 -0.335145 -0.502 170 125 104
0.486209 -0.334477 -0.501 170 125 104
0.487163 -0.334477 -0.501 173 128 107
0.487143 -0.33381 -0.5 170 125 104
0.488095 -0.33381 -0.5 173 128 107
0.48807 -0.333142 -0.499 177 130 110
0.48902 -0.333142 -0.499 176 129 109
0.48997 -0.333142 -0.499 177 130 110
0.490921 -0.333142 -0.499 175 128 108
0.491871 -0.333142 -0.499 181 134 114
0.491834 -0.332474 -0.498 178 131 111
0.492783 -0.332474 -0.498 169 122 104
0.494723 -0.333142 -0.499 172 125 107
0.495673 -0.333142 -0.499 169 122 102
0.496624 -0.333142 -0.499 168 121 101
0.498571 -0.33381 -0.5 166 121 98
0.499524 -0.33381 -0.5 168 123 100
0.500476 -0.33381 -0.5 167 122 99
0.502431 -0.334477 -0.501 169 124 101
0.503386 -0.334477 -0.501 169 124 103
0.505347 -0.335145 -0.502 162 117 96
0.506303 -0.335145 -0.502 157 112 89
0.50827 -0.335812 -0.503 159 114 91
0.51024 -0.33648 -0.504 158 116 92
0.5112 -0.33648 -0.504 159 117 93
0.513176 -0.337148 -0.505 159 118 96
0.515156 -0.337815 -0.506 156 115 93
0.51612 -0.337815 -0.506 156 114 92
0.518106 -0.338483 -0.507 156 114 92
0.521119 -0.339818 -0.509 153 112 90
0.52414 -0.341153 -0.511 152 111 89
0.526141 -0.341821 -0.512 151 113 94
0.530205 -0.343824 -0.515 151 113 94
-0.323044 -0.382968 -0.572 235 236 228
-0.321954 -0.382968 -0.572 237 239 228
-0.320865 -0.382968 -0.572 236 238 227
-0.319775 -0.382968 -0.572 236 238 227
-0.318686 -0.382968 -0.572 235 237 226
-0.317596 -0.382968 -0.572 235 237 226
-0.311059 -0.382968 -0.572 236 237 229
-0.30997 -0.382968 -0.572 236 237 229
-0.30888 -0.382968 -0.572 235 236 228
-0.30779 -0.382968 -0.572 236 237 229
-0.306701 -0.382968 -0.572 237 238 230
-0.305611 -0.382968 -0.572 235 236 228
0.0638524 -0.390332 -0.583 194 151 132
0.0646286 -0.388324 -0.58 196 153 134
0.0653933 -0.386315 -0.577 198 155 136
0.0660314 -0.383637 -0.573 198 155 136
0.06642 -0.37962 -0.567 198 156 134
0.0669048 -0.376272 -0.562 198 156 134
0.0673705 -0.372925 -0.557 200 158 136
0.06794 -0.370247 -0.553 203 161 139
0.0687438 -0.368908 -0.551 201 159 137
0.06954 -0.367569 -0.549 200 158 136
0.0704571 -0.366899 -0.548 203 158 137
0.0713705 -0.36623 -0.547 203 158 137
0.07228 -0.36556 -0.546 203 158 135
0.0731857 -0.36489 -0.545 203 158 135
0.0742238 -0.36489 -0.545 203 158 135
0.0751238 -0.364221 -0.544 200 155 132
0.07616 -0.364221 -0.544 201 156 133
0.0771962 -0.364221 -0.544 201 156 133
0.0780886 -0.363551 -0.543 201 155 131
0.0791229 -0.363551 -0.543 200 154 130
0.0801571 -0.363551 -0.543 200 154 130
0.0811914 -0.363551 -0.543 197 151 127
0.0822257 -0.363551 -0.543 196 150 126
0.08326 -0.363551 -0.543 199 153 129
0.0842943 -0.363551 -0.543 198 152 128
0.0853286 -0.363551 -0.543 198 152 128
0.0862038 -0.362882 -0.542 198 152 128
0.0872362 -0.362882 -0.542 200 153 127
0.0884314 -0.363551 -0.543 200 153 127
0.0894657 -0.363551 -0.543 200 153 127
0.0905 -0.363551 -0.543 200 153 127
0.0915343 -0.363551 -0.543 200 154 130
0.0925686 -0.363551 -0.543 201 155 131
0.0936029 -0.363551 -0.543 204 157 131
0.0946371 -0.363551 -0.543 203 156 130
0.0956714 -0.363551 -0.543 199 152 124
0.0968838 -0.364221 -0.544 193 146 118
0.09792 -0.364221 -0.544 188 141 113
0.0989562 -0.364221 -0.544 185 138 110
0.100176 -0.36489 -0.545 186 137 107
0.101214 -0.36489 -0.545 184 135 105
0.10244 -0.36556 -0.546 178 128 101
0.10348 -0.36556 -0.546 168 118 91
0.104711 -0.36623 -0.547 164 112 90
0.105947 -0.366899 -0.548 161 109 87
0.107186 -0.367569 -0.549 159 106 88
0.108429 -0.368238 -0.55 157 104 86
0.109675 -0.368908 -0.551 155 102 86
0.110725 -0.368908 -0.551 155 102 86
0.111977 -0.369577 -0.552 149 97 84
0.113233 -0.370247 -0.553 148 96 83
0.114493 -0.370916 -0.554 148 96 82
0.115966 -0.372255 -0.556 148 96 82
0.117235 -0.372925 -0.557 148 97 80
0.118509 -0.373594 -0.558 146 95 78
0.119786 -0.374264 -0.559 144 92 78
0.121067 -0.374933 -0.56 145 93 79
0.122351 -0.375603 -0.561 142 90 77
0.12364 -0.376272 -0.562 141 89 76
0.124932 -0.376942 -0.563 138 90 78
0.126229 -0.377611 -0.564 137 89 77
0.127754 -0.37895 -0.566 132 88 79
0.12906 -0.37962 -0.567 130 86 77
0.130599 -0.380959 -0.569 124 83 77
0.131914 -0.381629 -0.57 120 79 73
0.133467 -0.382968 -0.572 116 82 83
0.134791 -0.383637 -0.573 115 84 82
0.136357 -0.384976 -0.575 112 82 80
0.137691 -0.385646 -0.576 111 81 79
0.13927 -0.386985 -0.578 110 80 82
0.140857 -0.388324 -0.58 108 78 80
0.142451 -0.389663 -0.582 107 75 80
0.1443 -0.391671 -0.585 107 75 80
0.162523 -0.403723 -0.603 83 83 107
0.166244 -0.404392 -0.604 63 69 93
0.167394 -0.404392 -0.604 93 99 123
0.168545 -0.404392 -0.604 120 121 142
0.169695 -0.404392 -0.604 117 118 139
0.170846 -0.404392 -0.604 117 115 137
0.171996 -0.404392 -0.604 108 106 128
0.173147 -0.404392 -0.604 108 106 128
0.174297 -0.404392 -0.604 107 113 147
0.175448 -0.404392 -0.604 77 83 117
0.176598 -0.404392 -0.604 52 73 118
0.177749 -0.404392 -0.604 59 80 125
0.178899 -0.404392 -0.604 63 89 138
0.18005 -0.404392 -0.604 56 82 131
0.1815 -0.405062 -0.605 58 81 131
0.182652 -0.405062 -0.605 59 82 132
0.183805 -0.405062 -0.605 54 76 125
0.184957 -0.405062 -0.605 75 97 146
0.185802 -0.404392 -0.604 113 132 174
0.186952 -0.404392 -0.604 116 135 177
0.188103 -0.404392 -0.604 127 140 174
0.189253 -0.404392 -0.604 144 157 191
0.190404 -0.404392 -0.604 148 159 187
0.191554 -0.404392 -0.604 118 129 157
0.192705 -0.404392 -0.604 73 88 119
0.193855 -0.404392 -0.604 63 78 109
0.195006 -0.404392 -0.604 68 90 129
0.196156 -0.404392 -0.604 85 107 146
0.197307 -0.404392 -0.604 122 132 157
0.3567 -0.40774 -0.609 111 121 146
0.35786 -0.40774 -0.609 84 94 119
0.35902 -0.40774 -0.609 81 100 132
0.36018 -0.40774 -0.609 105 124 156
0.36134 -0.40774 -0.609 116 130 156
0.3625 -0.40774 -0.609 125 139 165
0.36366 -0.40774 -0.609 188 191 206
0.36482 -0.40774 -0.609 192 195 210
0.36598 -0.40774 -0.609 188 194 210
0.39679 -0.40841 -0.61 168 172 184
0.397952 -0.40841 -0.61 183 190 198
0.399114 -0.40841 -0.61 182 189 197
0.400276 -0.40841 -0.61 182 192 201
0.401438 -0.40841 -0.61 183 193 202
0.416062 -0.409079 -0.611 186 189 198
0.417226 -0.409079 -0.611 186 189 198
0.41839 -0.409079 -0.611 176 182 196
0.419553 -0.409079 -0.611 114 120 134
0.420717 -0.409079 -0.611 84 92 113
0.421881 -0.409079 -0.611 89 97 118
0.423045 -0.409079 -0.611 118 124 146
0.424209 -0.409079 -0.611 162 168 190
0.425372 -0.409079 -0.611 174 180 196
0.426536 -0.409079 -0.611 180 186 202
0.4277 -0.409079 -0.611 179 183 192
0.428864 -0.409079 -0.611 185 189 198
0.430028 -0.409079 -0.611 174 183 200
0.431191 -0.409079 -0.611 153 162 179
0.432355 -0.409079 -0.611 108 128 161
0.433519 -0.409079 -0.611 95 115 148
0.434683 -0.409079 -0.611 83 110 155
0.435847 -0.409079 -0.611 86 113 158
0.445886 -0.409749 -0.612 134 152 192
0.447051 -0.409749 -0.612 134 152 192
0.448217 -0.409749 -0.612 164 170 196
0.449383 -0.409749 -0.612 180 186 212
0.450549 -0.409749 -0.612 170 179 184
0.451714 -0.409749 -0.612 171 180 185
0.45362 -0.410418 -0.613 168 176 189
0.454788 -0.410418 -0.613 160 168 181
0.455955 -0.410418 -0.613 129 135 159
0.457123 -0.410418 -0.613 93 99 123
0.45829 -0.410418 -0.613 78 86 109
0.459458 -0.410418 -0.613 81 89 112
0.460626 -0.410418 -0.613 148 153 172
0.462547 -0.411088 -0.614 172 177 196
0.462961 -0.410418 -0.613 180 179 193
0.464129 -0.410418 -0.613 171 170 184
0.465296 -0.410418 -0.613 174 173 187
0.466464 -0.410418 -0.613 178 177 191
0.467631 -0.410418 -0.613 176 178 193
0.468799 -0.410418 -0.613 175 177 192
0.469967 -0.410418 -0.613 156 167 185
0.471134 -0.410418 -0.613 120 131 149
0.472302 -0.410418 -0.613 123 129 143
0.47347 -0.410418 -0.613 154 160 174
0.474637 -0.410418 -0.613 173 175 187
0.476581 -0.411088 -0.614 173 175 187
0.47775 -0.411088 -0.614 171 173 185
0.47892 -0.411088 -0.614 171 173 185
0.48009 -0.411088 -0.614 163 166 181
0.481259 -0.411088 -0.614 174 177 192
0.482429 -0.411088 -0.614 161 164 183
0.483598 -0.411088 -0.614 128 131 150
0.484768 -0.411088 -0.614 84 86 111
0.486729 -0.411757 -0.615 74 76 101
0.4879 -0.411757 -0.615 74 76 101
0.489071 -0.411757 -0.615 97 102 132
0.490243 -0.411757 -0.615 132 137 167
0.491414 -0.411757 -0.615 152 162 187
0.492586 -0.411757 -0.615 166 176 201
0.493757 -0.411757 -0.615 172 175 192
0.494929 -0.411757 -0.615 172 175 192
0.4961 -0.411757 -0.615 173 176 191
0.497271 -0.411757 -0.615 162 165 180
0.498443 -0.411757 -0.615 129 141 167
0.499614 -0.411757 -0.615 110 122 148
0.499971 -0.411088 -0.614 79 102 143
0.501141 -0.411088 -0.614 90 113 154
0.50231 -0.411088 -0.614 96 124 163
0.50348 -0.411088 -0.614 101 129 168
0.50465 -0.411088 -0.614 119 145 182
0.505819 -0.411088 -0.614 127 153 190
0.506989 -0.411088 -0.614 110 136 171
0.532994 -0.399036 -0.596 135 120 123
0.527856 -0.39435 -0.589 141 118 112
0.520895 -0.388324 -0.58 150 127 121
0.5121 -0.380959 -0.569 158 121 113
0.503263 -0.373594 -0.558 160 123 115
0.497095 -0.368238 -0.55 159 120 103
0.491803 -0.363551 -0.543 163 124 107
0.489207 -0.360873 -0.539 163 126 110
0.486595 -0.358195 -0.535 163 126 110
0.483969 -0.355517 -0.531 163 125 116
0.48224 -0.353509 -0.528 164 126 117
0.4805 -0.3515 -0.525 169 128 108
0.479666 -0.350161 -0.523 170 129 109
0.479743 -0.349491 -0.522 172 127 108
0.478895 -0.348152 -0.52 170 125 106
0.478963 -0.347483 -0.519 167 125 109
0.478102 -0.346144 -0.517 169 127 111
0.47816 -0.345474 -0.516 169 127 111
0.477286 -0.344135 -0.514 171 129 113
0.477334 -0.343466 -0.513 174 132 116
0.477379 -0.342796 -0.512 172 130 114
0.47742 -0.342127 -0.511 172 129 112
0.478393 -0.342127 -0.511 172 129 112
0.478429 -0.341457 -0.51 174 131 114
0.47846 -0.340788 -0.509 173 130 113
0.478488 -0.340118 -0.508 174 131 112
0.479455 -0.340118 -0.508 175 132 113
0.479477 -0.339449 -0.507 176 131 112
0.479495 -0.338779 -0.506 175 130 111
0.480459 -0.338779 -0.506 174 129 110
0.481423 -0.338779 -0.506 174 129 110
0.481433 -0.33811 -0.505 175 130 111
0.482395 -0.33811 -0.505 172 127 106
0.483357 -0.33811 -0.505 171 126 105
0.48336 -0.33744 -0.504 171 126 105
0.483359 -0.33677 -0.503 174 129 108
0.484317 -0.33677 -0.503 174 129 108
0.48431 -0.336101 -0.502 173 128 107
0.485267 -0.336101 -0.502 174 129 108
0.485254 -0.335431 -0.501 173 128 107
0.486209 -0.335431 -0.501 174 129 108
0.487163 -0.335431 -0.501 172 127 106
0.487143 -0.334762 -0.5 174 127 107
0.488095 -0.334762 -0.5 174 127 107
0.48807 -0.334092 -0.499 173 126 106
0.48902 -0.334092 -0.499 175 128 108
0.48997 -0.334092 -0.499 177 130 110
0.490921 -0.334092 -0.499 177 130 110
0.491871 -0.334092 -0.499 181 134 114
0.491834 -0.333423 -0.498 178 131 111
0.492783 -0.333423 -0.498 172 125 105
0.493731 -0.333423 -0.498 173 126 106
0.495673 -0.334092 -0.499 169 124 103
0.496624 -0.334092 -0.499 168 123 102
0.497574 -0.334092 -0.499 166 121 98
