ply
format ascii 1.0
comment Created by Open3D
element vertex 1284
property double x
property double y
property double z
property uchar red
property uchar green
property uchar blue
end_header
0.389121 -0.20162 -0.593 62 39 45
0.390909 -0.20196 -0.594 73 50 58
0.39402 -0.20298 -0.597 80 57 65
0.396481 -0.20366 -0.599 72 49 57
0.39895 -0.20434 -0.601 73 50 58
0.407968 -0.19924 -0.586 166 115 111
0.409084 -0.19924 -0.586 166 115 111
0.4088 -0.19856 -0.584 159 108 104
0.408509 -0.19788 -0.582 153 104 100
0.408913 -0.19754 -0.581 156 107 103
0.409314 -0.1972 -0.58 160 109 106
0.409711 -0.19686 -0.579 161 110 107
0.410105 -0.19652 -0.578 163 109 107
0.410494 -0.19618 -0.577 164 110 108
0.411593 -0.19618 -0.577 168 114 112
0.411977 -0.19584 -0.576 168 114 112
0.413074 -0.19584 -0.576 167 113 111
0.414171 -0.19584 -0.576 167 113 111
0.414548 -0.1955 -0.575 169 115 113
0.415643 -0.1955 -0.575 167 113 111
0.416013 -0.19516 -0.574 165 109 108
0.417107 -0.19516 -0.574 163 107 106
0.4182 -0.19516 -0.574 163 105 104
0.419293 -0.19516 -0.574 160 102 101
0.420387 -0.19516 -0.574 159 103 102
0.420746 -0.19482 -0.573 162 106 105
0.421837 -0.19482 -0.573 167 112 109
0.42219 -0.19448 -0.572 164 109 106
0.42328 -0.19448 -0.572 165 110 107
0.42437 -0.19448 -0.572 166 111 108
0.425459 -0.19448 -0.572 166 111 108
0.426549 -0.19448 -0.572 165 110 107
0.427638 -0.19448 -0.572 163 108 105
0.427978 -0.19414 -0.571 164 109 104
0.429066 -0.19414 -0.571 163 108 103
0.430153 -0.19414 -0.571 165 110 105
0.430486 -0.1938 -0.57 167 112 107
0.431571 -0.1938 -0.57 167 112 107
0.432657 -0.1938 -0.57 167 112 107
0.433743 -0.1938 -0.57 167 112 107
0.434829 -0.1938 -0.57 166 111 106
0.43515 -0.19346 -0.569 167 112 107
0.437 -0.1938 -0.57 167 112 107
0.437317 -0.19346 -0.569 161 108 100
0.438401 -0.19346 -0.569 160 107 99
0.439485 -0.19346 -0.569 158 105 97
0.441343 -0.1938 -0.57 157 104 96
0.442429 -0.1938 -0.57 157 104 96
0.443514 -0.1938 -0.57 157 104 96
0.4446 -0.1938 -0.57 156 103 95
0.445686 -0.1938 -0.57 156 103 95
0.446771 -0.1938 -0.57 158 105 97
0.447857 -0.1938 -0.57 159 106 98
0.448943 -0.1938 -0.57 159 106 98
0.450029 -0.1938 -0.57 160 107 99
0.451114 -0.1938 -0.57 160 107 99
0.4522 -0.1938 -0.57 160 107 99
0.453286 -0.1938 -0.57 160 107 99
0.454371 -0.1938 -0.57 160 107 99
0.456256 -0.19414 -0.571 159 106 98
0.457344 -0.19414 -0.571 159 107 94
0.458431 -0.19414 -0.571 159 107 94
0.459519 -0.19414 -0.571 159 107 94
0.460607 -0.19414 -0.571 156 104 91
0.462503 -0.19448 -0.572 155 103 90
0.463592 -0.19448 -0.572 154 102 89
0.464682 -0.19448 -0.572 152 102 91
0.466586 -0.19482 -0.573 151 101 90
0.468493 -0.19516 -0.574 148 98 89
0.469587 -0.19516 -0.574 146 96 87
0.4715 -0.1955 -0.575 143 95 85
0.474239 -0.19618 -0.577 144 96 86
0.476162 -0.19652 -0.578 147 98 91
0.478914 -0.1972 -0.58 147 98 91
0.480847 -0.19754 -0.581 145 96 89
0.483612 -0.19822 -0.583 146 97 90
0.488049 -0.19958 -0.587 143 101 89
0.4925 -0.20094 -0.591 139 97 85
0.497802 -0.20264 -0.596 139 97 81
-0.323264 -0.221896 -0.649 253 253 251
-0.320539 -0.22087 -0.646 253 253 251
-0.317826 -0.219845 -0.643 253 253 251
-0.315124 -0.218819 -0.64 253 253 251
-0.310962 -0.216768 -0.634 252 253 248
-0.308289 -0.215742 -0.631 253 254 249
-0.306113 -0.215058 -0.629 251 251 249
-0.30443 -0.214716 -0.628 255 255 253
-0.302269 -0.214032 -0.626 251 251 249
-0.301076 -0.214032 -0.626 249 249 247
-0.299405 -0.21369 -0.625 253 255 250
-0.297737 -0.213349 -0.624 247 249 244
-0.296549 -0.213349 -0.624 238 240 235
-0.29536 -0.213349 -0.624 213 215 210
-0.294171 -0.213349 -0.624 184 186 181
-0.292983 -0.213349 -0.624 157 159 154
-0.291794 -0.213349 -0.624 140 142 137
-0.290606 -0.213349 -0.624 134 136 131
-0.289417 -0.213349 -0.624 131 133 128
-0.288229 -0.213349 -0.624 129 131 126
-0.263818 -0.215742 -0.631 255 255 253
-0.263032 -0.216084 -0.632 253 254 249
-0.262243 -0.216426 -0.633 253 254 249
-0.26145 -0.216768 -0.634 252 254 249
-0.260242 -0.216768 -0.634 252 254 249
-0.259443 -0.21711 -0.635 252 254 249
-0.25864 -0.217451 -0.636 252 255 248
-0.257833 -0.217793 -0.637 252 255 248
-0.257023 -0.218135 -0.638 251 252 246
-0.256209 -0.218477 -0.639 251 252 246
-0.25539 -0.218819 -0.64 252 253 247
-0.255363 -0.219845 -0.643 252 253 247
-0.255324 -0.22087 -0.646 252 253 247
-0.255273 -0.221896 -0.649 252 253 247
-0.159095 -0.222238 -0.65 181 182 176
-0.1564 -0.220187 -0.644 182 183 177
-0.15421 -0.218819 -0.64 187 187 179
-0.152034 -0.217451 -0.636 187 187 179
-0.150349 -0.216768 -0.634 189 186 177
-0.148906 -0.216426 -0.633 189 186 177
-0.147467 -0.216084 -0.632 189 186 177
-0.146031 -0.215742 -0.631 189 186 177
-0.14483 -0.215742 -0.631 189 186 177
-0.143628 -0.215742 -0.631 189 186 177
-0.142426 -0.215742 -0.631 186 186 176
-0.141448 -0.216084 -0.632 186 186 176
-0.140466 -0.216426 -0.633 187 187 177
-0.1397 -0.21711 -0.635 187 187 177
-0.138927 -0.217793 -0.637 188 188 176
-0.13793 -0.218135 -0.638 188 188 176
-0.137143 -0.218819 -0.64 189 189 177
-0.136136 -0.219161 -0.641 189 189 177
-0.135126 -0.219503 -0.642 188 188 176
-0.134111 -0.219845 -0.643 188 188 176
-0.133093 -0.220187 -0.644 189 189 177
-0.132071 -0.220529 -0.645 189 189 177
-0.131046 -0.22087 -0.646 190 188 176
-0.130016 -0.221212 -0.647 189 187 175
-0.128784 -0.221212 -0.647 188 186 174
-0.127749 -0.221554 -0.648 187 185 173
-0.12671 -0.221896 -0.649 185 185 173
-0.125667 -0.222238 -0.65 183 183 171
-0.0377038 -0.221896 -0.649 66 64 75
-0.036299 -0.22087 -0.646 68 66 77
-0.0348514 -0.219503 -0.642 69 67 80
-0.0334714 -0.218477 -0.639 70 68 81
-0.0322038 -0.218135 -0.638 70 70 82
-0.03094 -0.217793 -0.637 71 71 83
-0.02968 -0.217451 -0.636 74 72 85
-0.0284686 -0.217451 -0.636 75 73 86
-0.0272571 -0.217451 -0.636 75 73 84
-0.0260457 -0.217451 -0.636 74 72 83
-0.0248733 -0.217793 -0.637 75 73 84
-0.0237343 -0.218477 -0.639 76 74 85
-0.0225876 -0.219161 -0.641 78 76 89
-0.0214333 -0.219845 -0.643 81 79 92
-0.0203029 -0.22087 -0.646 79 77 91
-0.019161 -0.221896 -0.649 82 80 94
0.373638 -0.218819 -0.64 145 98 108
0.371343 -0.216768 -0.634 142 94 106
0.369612 -0.215058 -0.629 141 93 105
0.368452 -0.21369 -0.625 133 90 100
0.367277 -0.212323 -0.621 132 89 99
0.366087 -0.210955 -0.617 135 88 98
0.366071 -0.210271 -0.615 138 91 101
0.365451 -0.209246 -0.612 150 94 105
0.365419 -0.208562 -0.61 157 101 112
0.364778 -0.207536 -0.607 154 98 111
0.364729 -0.206852 -0.605 156 100 113
0.364067 -0.205827 -0.602 150 102 114
0.364 -0.205143 -0.6 151 103 115
0.364534 -0.204801 -0.599 157 107 118
0.364454 -0.204117 -0.597 155 105 116
0.365591 -0.204117 -0.597 155 105 116
0.366114 -0.203775 -0.596 153 103 112
0.366633 -0.203433 -0.595 152 102 111
0.367149 -0.203091 -0.594 150 100 109
0.36828 -0.203091 -0.594 146 96 105
0.36879 -0.20275 -0.593 140 93 101
0.369295 -0.202408 -0.592 137 90 98
0.370423 -0.202408 -0.592 136 89 95
0.37155 -0.202408 -0.592 132 85 91
0.372049 -0.202066 -0.591 133 86 92
0.373174 -0.202066 -0.591 132 85 91
0.373667 -0.201724 -0.59 129 82 88
0.37479 -0.201724 -0.59 119 72 78
0.375277 -0.201382 -0.589 117 72 75
0.376399 -0.201382 -0.589 115 70 73
0.377521 -0.201382 -0.589 98 66 71
0.378 -0.20104 -0.588 89 57 62
0.37912 -0.20104 -0.588 76 47 52
0.38024 -0.20104 -0.588 60 31 36
0.38136 -0.20104 -0.588 46 21 25
0.38313 -0.201382 -0.589 43 18 22
0.384905 -0.201724 -0.59 46 26 28
0.386029 -0.201724 -0.59 46 26 28
0.387152 -0.201724 -0.59 58 38 40
0.389592 -0.202408 -0.592 72 52 54
0.39072 -0.202408 -0.592 78 58 60
0.393171 -0.203091 -0.594 72 50 53
0.396294 -0.204117 -0.597 72 50 53
0.4097 -0.203433 -0.595 159 111 111
0.407381 -0.201724 -0.59 160 112 112
0.40712 -0.20104 -0.588 166 115 114
0.406851 -0.200356 -0.586 167 116 115
0.406575 -0.199672 -0.584 169 113 112
0.407688 -0.199672 -0.584 169 113 112
0.4081 -0.19933 -0.583 169 113 112
0.407807 -0.198647 -0.581 168 110 109
0.40821 -0.198305 -0.58 161 103 102
0.408609 -0.197963 -0.579 160 106 106
0.409004 -0.197621 -0.578 162 108 108
0.409395 -0.197279 -0.577 160 106 106
0.410494 -0.197279 -0.577 160 106 106
0.41088 -0.196937 -0.576 166 112 110
0.411977 -0.196937 -0.576 169 115 113
0.412357 -0.196595 -0.575 168 114 112
0.413452 -0.196595 -0.575 167 113 111
0.414548 -0.196595 -0.575 168 114 112
0.41492 -0.196253 -0.574 166 112 110
0.416013 -0.196253 -0.574 165 111 109
0.417107 -0.196253 -0.574 166 112 110
0.4182 -0.196253 -0.574 165 112 108
0.419293 -0.196253 -0.574 161 108 104
0.419654 -0.195911 -0.573 160 107 103
0.420746 -0.195911 -0.573 164 111 107
0.421837 -0.195911 -0.573 166 112 110
0.42219 -0.19557 -0.572 167 113 111
0.42328 -0.19557 -0.572 166 113 109
0.42437 -0.19557 -0.572 164 111 107
0.425459 -0.19557 -0.572 164 111 107
0.426549 -0.19557 -0.572 165 112 106
0.427638 -0.19557 -0.572 165 112 106
0.427978 -0.195228 -0.571 165 112 108
0.429066 -0.195228 -0.571 165 112 108
0.4294 -0.194886 -0.57 168 115 109
0.430486 -0.194886 -0.57 166 113 107
0.431571 -0.194886 -0.57 167 114 106
0.432657 -0.194886 -0.57 168 115 107
0.433743 -0.194886 -0.57 167 115 104
0.434066 -0.194544 -0.569 167 115 104
0.43515 -0.194544 -0.569 167 114 106
0.436233 -0.194544 -0.569 166 113 105
0.437317 -0.194544 -0.569 165 110 103
0.438401 -0.194544 -0.569 160 105 98
0.439485 -0.194544 -0.569 156 102 92
0.440569 -0.194544 -0.569 155 101 91
0.441652 -0.194544 -0.569 156 102 92
0.442736 -0.194544 -0.569 157 103 93
0.44382 -0.194544 -0.569 158 104 94
0.444904 -0.194544 -0.569 159 105 95
0.445988 -0.194544 -0.569 163 109 99
0.447071 -0.194544 -0.569 161 107 97
0.448943 -0.194886 -0.57 162 108 98
0.450029 -0.194886 -0.57 162 108 98
0.451114 -0.194886 -0.57 162 108 98
0.4522 -0.194886 -0.57 160 106 96
0.453286 -0.194886 -0.57 159 105 95
0.454371 -0.194886 -0.57 160 106 96
0.455457 -0.194886 -0.57 161 107 97
0.456543 -0.194886 -0.57 160 108 95
0.457629 -0.194886 -0.57 160 108 95
0.459519 -0.195228 -0.571 159 107 94
0.460607 -0.195228 -0.571 158 106 93
0.461694 -0.195228 -0.571 154 104 93
0.462782 -0.195228 -0.571 152 102 91
0.464682 -0.19557 -0.572 152 102 91
0.465771 -0.19557 -0.572 152 102 91
0.467677 -0.195911 -0.573 149 101 91
0.469587 -0.196253 -0.574 146 98 88
0.4715 -0.196595 -0.575 143 95 85
0.473417 -0.196937 -0.576 144 96 86
0.475338 -0.197279 -0.577 145 98 90
0.478089 -0.197963 -0.579 146 99 91
0.480019 -0.198305 -0.58 145 98 90
0.482783 -0.198989 -0.582 144 97 89
0.486386 -0.200014 -0.585 146 96 85
0.490833 -0.201382 -0.589 146 96 85
0.496131 -0.203091 -0.594 143 96 86
-0.323762 -0.223476 -0.65 253 253 251
-0.321035 -0.222445 -0.647 253 253 251
-0.31832 -0.221413 -0.644 253 253 251
-0.315616 -0.220382 -0.641 253 253 251
-0.311452 -0.218319 -0.635 254 255 250
-0.309266 -0.217631 -0.633 252 253 248
-0.3066 -0.2166 -0.63 254 255 250
-0.30443 -0.215912 -0.628 255 255 251
-0.302269 -0.215225 -0.626 253 254 249
-0.301076 -0.215225 -0.626 251 252 247
-0.299405 -0.214881 -0.625 250 251 246
-0.297737 -0.214537 -0.624 252 253 248
-0.296549 -0.214537 -0.624 254 255 251
-0.29536 -0.214537 -0.624 249 251 246
-0.294171 -0.214537 -0.624 239 241 236
-0.292983 -0.214537 -0.624 210 212 207
-0.291794 -0.214537 -0.624 178 181 174
-0.290606 -0.214537 -0.624 159 162 155
-0.289417 -0.214537 -0.624 146 148 143
-0.288229 -0.214537 -0.624 136 138 133
-0.28704 -0.214537 -0.624 139 139 137
-0.2658 -0.2166 -0.63 243 242 240
-0.26502 -0.216944 -0.631 255 255 251
-0.264236 -0.217288 -0.632 255 255 251
-0.263032 -0.217288 -0.632 253 254 249
-0.262243 -0.217631 -0.633 253 254 249
-0.261037 -0.217631 -0.633 252 254 249
-0.260652 -0.218319 -0.635 252 254 249
-0.259443 -0.218319 -0.635 252 254 249
-0.25864 -0.218663 -0.636 252 255 248
-0.257833 -0.219007 -0.637 252 255 248
-0.257023 -0.21935 -0.638 252 253 247
-0.256209 -0.219694 -0.639 252 253 247
-0.25579 -0.220382 -0.641 252 253 247
-0.25576 -0.221413 -0.644 252 253 247
-0.255719 -0.222445 -0.647 252 253 247
-0.255273 -0.223132 -0.649 252 253 247
-0.159095 -0.223476 -0.65 181 182 176
-0.156643 -0.221757 -0.645 182 183 177
-0.15421 -0.220038 -0.64 187 187 179
-0.152034 -0.218663 -0.636 187 187 179
-0.150349 -0.217975 -0.634 189 186 179
-0.148906 -0.217631 -0.633 189 186 179
-0.147467 -0.217288 -0.632 189 186 177
-0.146031 -0.216944 -0.631 189 186 177
-0.14483 -0.216944 -0.631 189 186 177
-0.143628 -0.216944 -0.631 189 186 177
-0.142651 -0.217288 -0.632 185 187 176
-0.141448 -0.217288 -0.632 186 188 177
-0.140688 -0.217975 -0.634 186 188 177
-0.1397 -0.218319 -0.635 186 188 177
-0.138927 -0.219007 -0.637 188 188 178
-0.13793 -0.21935 -0.638 188 188 178
-0.137143 -0.220038 -0.64 189 189 179
-0.136136 -0.220382 -0.641 189 189 179
-0.135126 -0.220726 -0.642 188 188 176
-0.134111 -0.22107 -0.643 188 188 176
-0.133093 -0.221413 -0.644 190 188 176
-0.132071 -0.221757 -0.645 191 189 177
-0.131046 -0.222101 -0.646 191 189 177
-0.130016 -0.222445 -0.647 190 188 176
-0.128784 -0.222445 -0.647 189 187 175
-0.127749 -0.222789 -0.648 188 186 174
-0.12671 -0.223132 -0.649 183 183 171
-0.125667 -0.223476 -0.65 182 182 170
-0.03888 -0.222789 -0.648 67 65 76
-0.0374133 -0.221413 -0.644 67 65 78
-0.0361305 -0.22107 -0.643 67 65 78
-0.0347429 -0.220038 -0.64 68 66 79
-0.0333667 -0.219007 -0.637 69 67 80
-0.0321029 -0.218663 -0.636 69 68 82
-0.0308429 -0.218319 -0.635 70 69 83
-0.0295867 -0.217975 -0.634 74 72 83
-0.0284686 -0.218663 -0.636 75 73 84
-0.0272571 -0.218663 -0.636 76 74 85
-0.0260457 -0.218663 -0.636 76 74 85
-0.0249124 -0.21935 -0.638 76 74 85
-0.0237714 -0.220038 -0.64 76 74 85
-0.0226229 -0.220726 -0.642 78 76 89
-0.0214667 -0.221413 -0.644 81 79 92
-0.0203029 -0.222101 -0.646 82 80 93
-0.019161 -0.223132 -0.649 82 80 93
0.376557 -0.221757 -0.645 141 95 106
0.374271 -0.219694 -0.639 143 95 107
0.371963 -0.217631 -0.633 144 96 108
0.37081 -0.216256 -0.629 134 91 101
0.369643 -0.214881 -0.625 131 88 98
0.36846 -0.213506 -0.621 137 89 101
0.367857 -0.212474 -0.618 141 93 105
0.367243 -0.211443 -0.615 151 97 110
0.366617 -0.210411 -0.612 155 101 114
0.36598 -0.20938 -0.609 150 96 109
0.365331 -0.208349 -0.606 151 97 110
0.365276 -0.207661 -0.604 146 100 111
0.364607 -0.20663 -0.601 147 101 112
0.364534 -0.205942 -0.599 152 102 113
0.365065 -0.205598 -0.598 151 101 112
0.366204 -0.205598 -0.598 151 101 112
0.366114 -0.20491 -0.596 151 101 112
0.366633 -0.204567 -0.595 151 101 112
0.36653 -0.203879 -0.593 149 99 108
0.36766 -0.203879 -0.593 145 95 104
0.368168 -0.203535 -0.592 138 91 99
0.368671 -0.203191 -0.591 136 89 97
0.369797 -0.203191 -0.591 136 89 97
0.370295 -0.202848 -0.59 134 87 95
0.371419 -0.202848 -0.59 136 89 95
0.371911 -0.202504 -0.589 139 92 98
0.373033 -0.202504 -0.589 139 92 98
0.374155 -0.202504 -0.589 130 83 89
0.37464 -0.20216 -0.588 129 82 88
0.37576 -0.20216 -0.588 127 80 86
0.376239 -0.201816 -0.587 116 76 84
0.377357 -0.201816 -0.587 113 73 81
0.378475 -0.201816 -0.587 107 72 78
0.379593 -0.201816 -0.587 100 65 71
0.380711 -0.201816 -0.587 86 57 61
0.38183 -0.201816 -0.587 72 43 47
0.3836 -0.20216 -0.588 55 33 35
0.38472 -0.20216 -0.588 55 33 35
0.38584 -0.20216 -0.588 51 29 31
0.387618 -0.202504 -0.589 75 53 55
0.38874 -0.202504 -0.589 81 59 61
0.390524 -0.202848 -0.59 83 57 60
0.40582 -0.203191 -0.591 153 109 108
0.405569 -0.202504 -0.589 157 109 109
0.40531 -0.201816 -0.587 160 112 112
0.405043 -0.201129 -0.585 164 113 112
0.404769 -0.200441 -0.583 165 114 113
0.405183 -0.200097 -0.582 167 113 111
0.406291 -0.200097 -0.582 167 113 111
0.4067 -0.199753 -0.581 168 114 112
0.407105 -0.19941 -0.58 169 113 112
0.407506 -0.199066 -0.579 167 111 110
0.407903 -0.198722 -0.578 163 109 109
0.408296 -0.198378 -0.577 166 112 112
0.409395 -0.198378 -0.577 164 110 108
0.409783 -0.198034 -0.576 162 108 106
0.41088 -0.198034 -0.576 166 112 110
0.411262 -0.19769 -0.575 168 114 112
0.412357 -0.19769 -0.575 168 114 112
0.412733 -0.197347 -0.574 169 115 113
0.413827 -0.197347 -0.574 167 113 111
0.41492 -0.197347 -0.574 168 114 112
0.415289 -0.197003 -0.573 168 115 111
0.41638 -0.197003 -0.573 169 116 112
0.417471 -0.197003 -0.573 171 116 113
0.418563 -0.197003 -0.573 169 114 111
0.419654 -0.197003 -0.573 166 111 108
0.420011 -0.196659 -0.572 165 110 107
0.421101 -0.196659 -0.572 167 112 109
0.42219 -0.196659 -0.572 167 112 109
0.42328 -0.196659 -0.572 168 113 108
0.42437 -0.196659 -0.572 168 113 108
0.425459 -0.196659 -0.572 168 113 108
0.426549 -0.196659 -0.572 168 113 108
0.427638 -0.196659 -0.572 168 113 108
0.427978 -0.196315 -0.571 168 113 108
0.429066 -0.196315 -0.571 169 114 109
0.4294 -0.195971 -0.57 171 116 109
0.430486 -0.195971 -0.57 169 114 107
0.431571 -0.195971 -0.57 168 113 106
0.432657 -0.195971 -0.57 169 114 107
0.433743 -0.195971 -0.57 169 115 105
0.434066 -0.195628 -0.569 169 115 105
0.43515 -0.195628 -0.569 168 113 106
0.436233 -0.195628 -0.569 167 112 105
0.437317 -0.195628 -0.569 167 113 103
0.438401 -0.195628 -0.569 161 107 97
0.439485 -0.195628 -0.569 158 104 94
0.440569 -0.195628 -0.569 158 104 94
0.441652 -0.195628 -0.569 158 104 94
0.442736 -0.195628 -0.569 156 102 92
0.44382 -0.195628 -0.569 157 103 93
0.444904 -0.195628 -0.569 159 105 95
0.445988 -0.195628 -0.569 164 110 100
0.447071 -0.195628 -0.569 163 109 99
0.448155 -0.195628 -0.569 162 108 98
0.450029 -0.195971 -0.57 161 107 97
0.451114 -0.195971 -0.57 161 107 97
0.4522 -0.195971 -0.57 160 106 96
0.453286 -0.195971 -0.57 160 106 96
0.454371 -0.195971 -0.57 161 107 97
0.455457 -0.195971 -0.57 162 108 98
0.456543 -0.195971 -0.57 161 109 96
0.457629 -0.195971 -0.57 161 109 96
0.459519 -0.196315 -0.571 158 106 93
0.460607 -0.196315 -0.571 156 104 91
0.461694 -0.196315 -0.571 155 103 90
0.462782 -0.196315 -0.571 154 102 89
0.46387 -0.196315 -0.571 151 101 90
0.465771 -0.196659 -0.572 152 102 91
0.467677 -0.197003 -0.573 150 100 89
0.468769 -0.197003 -0.573 148 98 87
0.47068 -0.197347 -0.574 145 97 87
0.472595 -0.19769 -0.575 146 98 88
0.475338 -0.198378 -0.577 149 101 91
0.477263 -0.198722 -0.578 151 103 93
0.479191 -0.199066 -0.579 150 102 92
0.481953 -0.199753 -0.581 148 100 90
0.485554 -0.200785 -0.584 148 100 90
0.489167 -0.201816 -0.587 147 99 89
0.493626 -0.203191 -0.591 144 97 89
-0.323762 -0.224714 -0.65 253 254 249
-0.321531 -0.224023 -0.648 253 253 251
-0.318814 -0.222986 -0.645 253 253 251
-0.316109 -0.221949 -0.642 253 253 251
-0.311943 -0.219874 -0.636 254 255 250
-0.309266 -0.218837 -0.633 253 254 249
-0.307087 -0.218146 -0.631 253 255 250
-0.304915 -0.217454 -0.629 249 251 246
-0.302751 -0.216763 -0.627 251 254 247
-0.301076 -0.216417 -0.626 254 255 250
-0.299405 -0.216071 -0.625 251 252 247
-0.298214 -0.216071 -0.625 252 253 248
-0.296549 -0.215726 -0.624 255 255 251
-0.29536 -0.215726 -0.624 255 255 251
-0.294171 -0.215726 -0.624 254 255 250
-0.292983 -0.215726 -0.624 252 255 248
-0.291794 -0.215726 -0.624 237 240 233
-0.290606 -0.215726 -0.624 216 219 212
-0.289417 -0.215726 -0.624 187 190 183
-0.288229 -0.215726 -0.624 162 165 158
-0.28704 -0.215726 -0.624 148 150 147
-0.28631 -0.216071 -0.625 141 143 140
-0.285119 -0.216071 -0.625 138 140 137
-0.2682 -0.2178 -0.63 128 127 125
-0.267 -0.2178 -0.63 179 179 177
-0.266222 -0.218146 -0.631 221 221 219
-0.26502 -0.218146 -0.631 253 254 249
-0.264236 -0.218491 -0.632 255 255 251
-0.263449 -0.218837 -0.633 253 254 249
-0.262243 -0.218837 -0.633 253 254 249
-0.26145 -0.219183 -0.634 252 254 249
-0.260652 -0.219529 -0.635 252 255 248
-0.259851 -0.219874 -0.636 252 255 248
-0.259047 -0.22022 -0.637 252 255 248
-0.258238 -0.220566 -0.638 252 255 248
-0.257426 -0.220911 -0.639 253 254 249
-0.25661 -0.221257 -0.64 252 253 248
-0.256189 -0.221949 -0.642 252 253 248
-0.256157 -0.222986 -0.645 252 253 248
-0.255719 -0.223677 -0.647 252 253 248
-0.255667 -0.224714 -0.65 251 252 247
-0.159095 -0.224714 -0.65 183 184 176
-0.156643 -0.222986 -0.645 182 183 175
-0.15421 -0.221257 -0.64 187 187 179
-0.152034 -0.219874 -0.636 186 186 178
-0.150349 -0.219183 -0.634 188 185 178
-0.148906 -0.218837 -0.633 189 186 179
-0.147467 -0.218491 -0.632 189 186 177
-0.146031 -0.218146 -0.631 190 187 178
-0.14483 -0.218146 -0.631 190 187 178
-0.143855 -0.218491 -0.632 190 187 178
-0.142651 -0.218491 -0.632 187 187 177
-0.141448 -0.218491 -0.632 187 187 177
-0.140688 -0.219183 -0.634 187 187 177
-0.1397 -0.219529 -0.635 188 188 178
-0.138927 -0.22022 -0.637 188 188 178
-0.13793 -0.220566 -0.638 189 189 179
-0.137143 -0.221257 -0.64 189 189 179
-0.136136 -0.221603 -0.641 190 190 180
-0.135126 -0.221949 -0.642 192 189 180
-0.134111 -0.222294 -0.643 191 188 179
-0.133093 -0.22264 -0.644 191 188 179
-0.132071 -0.222986 -0.645 190 187 178
-0.131046 -0.223331 -0.646 191 188 179
-0.130016 -0.223677 -0.647 190 187 178
-0.128784 -0.223677 -0.647 189 186 177
-0.127749 -0.224023 -0.648 188 185 176
-0.12671 -0.224369 -0.649 183 183 171
-0.125667 -0.224714 -0.65 183 183 171
-0.0414762 -0.224714 -0.65 66 65 71
-0.0400524 -0.223677 -0.647 66 64 75
-0.03858 -0.222294 -0.643 67 65 76
-0.037181 -0.221257 -0.64 67 65 78
-0.0358495 -0.220566 -0.638 68 66 79
-0.03458 -0.22022 -0.637 68 67 81
-0.0332619 -0.219529 -0.635 69 68 82
-0.0320019 -0.219183 -0.634 70 69 83
-0.0307943 -0.219183 -0.634 70 69 83
-0.02954 -0.218837 -0.633 72 70 83
-0.028379 -0.219183 -0.634 74 72 85
-0.0272571 -0.219874 -0.636 76 74 87
-0.0260457 -0.219874 -0.636 76 74 87
-0.0249124 -0.220566 -0.638 77 75 88
-0.0238086 -0.221603 -0.641 77 75 88
-0.0226581 -0.222294 -0.643 79 77 90
-0.0215 -0.222986 -0.645 80 78 91
-0.0203343 -0.223677 -0.647 82 80 93
-0.0191905 -0.224714 -0.65 80 78 91
0.3772 -0.22264 -0.644 142 94 106
0.374901 -0.220566 -0.638 143 95 107
0.373169 -0.218837 -0.633 136 90 101
0.372009 -0.217454 -0.629 134 88 99
0.370833 -0.216071 -0.625 142 94 106
0.369643 -0.214689 -0.621 146 98 110
0.369034 -0.213651 -0.618 151 99 111
0.368414 -0.212614 -0.615 151 99 111
0.367182 -0.211231 -0.611 144 94 105
0.366537 -0.210194 -0.608 146 96 107
0.365881 -0.209157 -0.605 141 98 107
0.36582 -0.208466 -0.603 142 99 108
0.365143 -0.207429 -0.6 149 99 110
0.365065 -0.206737 -0.598 149 99 110
0.366204 -0.206737 -0.598 149 99 110
0.366114 -0.206046 -0.596 150 100 111
0.366633 -0.2057 -0.595 149 99 110
0.36653 -0.205009 -0.593 147 97 108
0.36704 -0.204663 -0.592 142 92 103
0.367546 -0.204317 -0.591 138 88 99
0.368048 -0.203971 -0.59 137 87 98
0.368546 -0.203626 -0.589 134 87 95
0.369668 -0.203626 -0.589 133 86 94
0.37079 -0.203626 -0.589 138 88 97
0.37128 -0.20328 -0.588 142 92 101
0.3724 -0.20328 -0.588 145 95 104
0.372885 -0.202934 -0.587 140 90 99
0.374003 -0.202934 -0.587 139 92 100
0.375121 -0.202934 -0.587 138 91 99
0.375598 -0.202589 -0.586 138 91 99
0.376714 -0.202589 -0.586 133 86 94
0.37783 -0.202589 -0.586 127 84 93
0.378947 -0.202589 -0.586 127 84 93
0.380063 -0.202589 -0.586 121 86 90
0.381179 -0.202589 -0.586 118 83 87
0.382295 -0.202589 -0.586 112 84 83
0.383411 -0.202589 -0.586 112 84 83
0.384528 -0.202589 -0.586 109 81 80
0.386302 -0.202934 -0.587 111 83 82
0.38742 -0.202934 -0.587 115 87 86
0.388538 -0.202934 -0.587 119 85 86
0.39032 -0.20328 -0.588 122 88 89
0.39144 -0.20328 -0.588 133 92 96
0.393228 -0.203626 -0.589 137 96 100
0.395019 -0.203971 -0.59 145 99 102
0.396814 -0.204317 -0.591 150 104 107
0.398613 -0.204663 -0.592 150 109 107
0.399741 -0.204663 -0.592 150 109 107
0.400191 -0.204317 -0.591 154 110 107
0.400638 -0.203971 -0.59 155 111 108
0.401762 -0.203971 -0.59 154 110 109
0.402203 -0.203626 -0.589 153 109 108
0.401955 -0.202934 -0.587 156 110 110
0.402387 -0.202589 -0.586 156 110 110
0.402814 -0.202243 -0.585 158 110 108
0.403238 -0.201897 -0.584 159 111 109
0.402966 -0.201206 -0.582 162 113 109
0.40338 -0.20086 -0.581 163 114 110
0.40379 -0.200514 -0.58 166 115 112
0.404895 -0.200514 -0.58 166 115 112
0.4053 -0.200169 -0.579 167 116 113
0.406403 -0.200169 -0.579 168 117 116
0.406802 -0.199823 -0.578 170 119 118
0.407197 -0.199477 -0.577 167 116 113
0.407589 -0.199131 -0.576 169 118 115
0.408686 -0.199131 -0.576 167 113 111
0.409071 -0.198786 -0.575 164 110 108
0.410167 -0.198786 -0.575 167 113 111
0.411262 -0.198786 -0.575 168 114 112
0.41164 -0.19844 -0.574 167 113 111
0.412733 -0.19844 -0.574 169 115 113
0.413827 -0.19844 -0.574 168 114 112
0.414197 -0.198094 -0.573 170 116 114
0.415289 -0.198094 -0.573 172 117 114
0.41638 -0.198094 -0.573 170 115 112
0.417471 -0.198094 -0.573 171 116 113
0.418563 -0.198094 -0.573 172 117 114
0.418922 -0.197749 -0.572 171 116 113
0.420011 -0.197749 -0.572 168 113 110
0.421101 -0.197749 -0.572 169 114 109
0.42219 -0.197749 -0.572 168 113 108
0.42328 -0.197749 -0.572 169 114 109
0.42437 -0.197749 -0.572 169 114 109
0.425459 -0.197749 -0.572 169 114 109
0.426549 -0.197749 -0.572 169 114 107
0.42689 -0.197403 -0.571 170 115 108
0.427978 -0.197403 -0.571 171 116 109
0.428314 -0.197057 -0.57 171 116 109
0.4294 -0.197057 -0.57 170 115 108
0.430486 -0.197057 -0.57 170 115 108
0.431571 -0.197057 -0.57 169 115 105
0.432657 -0.197057 -0.57 169 115 105
0.433743 -0.197057 -0.57 170 116 106
0.434066 -0.196711 -0.569 170 116 106
0.43515 -0.196711 -0.569 168 114 104
0.436233 -0.196711 -0.569 167 113 103
0.437317 -0.196711 -0.569 167 113 103
0.438401 -0.196711 -0.569 161 107 97
0.439485 -0.196711 -0.569 158 104 94
0.440569 -0.196711 -0.569 160 106 96
0.441652 -0.196711 -0.569 160 106 96
0.442736 -0.196711 -0.569 156 102 92
0.44382 -0.196711 -0.569 156 102 92
0.444904 -0.196711 -0.569 159 105 95
0.445988 -0.196711 -0.569 164 110 100
0.447071 -0.196711 -0.569 164 110 100
0.448155 -0.196711 -0.569 163 109 99
0.450029 -0.197057 -0.57 162 108 98
0.451114 -0.197057 -0.57 162 108 98
0.4522 -0.197057 -0.57 163 109 97
0.453286 -0.197057 -0.57 163 109 97
0.454371 -0.197057 -0.57 162 108 96
0.455457 -0.197057 -0.57 162 108 96
0.456543 -0.197057 -0.57 163 110 96
0.457629 -0.197057 -0.57 162 109 95
0.458714 -0.197057 -0.57 159 106 92
0.460607 -0.197403 -0.571 156 103 89
0.461694 -0.197403 -0.571 155 103 90
0.462782 -0.197403 -0.571 154 102 89
0.46387 -0.197403 -0.571 153 101 88
0.464957 -0.197403 -0.571 153 101 88
0.466861 -0.197749 -0.572 149 99 88
0.468769 -0.198094 -0.573 147 97 86
0.47068 -0.19844 -0.574 146 96 85
0.472595 -0.198786 -0.575 148 98 87
0.474514 -0.199131 -0.576 150 102 92
0.476437 -0.199477 -0.577 151 103 93
0.479191 -0.200169 -0.579 151 103 93
0.481124 -0.200514 -0.58 149 101 91
0.484723 -0.201551 -0.583 149 101 91
0.488333 -0.202589 -0.586 148 100 90
0.491955 -0.203626 -0.589 146 97 90
-0.322028 -0.225605 -0.649 253 254 249
-0.319803 -0.22491 -0.647 253 254 249
-0.317093 -0.223867 -0.644 253 254 249
-0.312924 -0.221781 -0.638 254 255 250
-0.309754 -0.22039 -0.634 253 254 249
-0.307087 -0.219348 -0.631 252 254 249
-0.304915 -0.218652 -0.629 249 251 246
-0.302751 -0.217957 -0.627 250 252 247
-0.301076 -0.21761 -0.626 253 255 250
-0.299405 -0.217262 -0.625 253 254 249
-0.298214 -0.217262 -0.625 252 253 248
-0.296549 -0.216914 -0.624 255 255 251
-0.29536 -0.216914 -0.624 255 255 251
-0.294171 -0.216914 -0.624 254 255 250
-0.292983 -0.216914 -0.624 254 255 250
-0.291794 -0.216914 -0.624 254 255 250
-0.290606 -0.216914 -0.624 254 255 250
-0.289417 -0.216914 -0.624 244 245 240
-0.288229 -0.216914 -0.624 225 226 221
-0.2875 -0.217262 -0.625 197 199 196
-0.28631 -0.217262 -0.625 181 183 180
-0.285119 -0.217262 -0.625 165 167 164
-0.283929 -0.217262 -0.625 154 156 153
-0.2694 -0.219 -0.63 63 63 61
-0.2682 -0.219 -0.63 91 91 89
-0.267424 -0.219348 -0.631 160 160 158
-0.266222 -0.219348 -0.631 201 201 199
-0.26544 -0.219695 -0.632 239 239 237
-0.264654 -0.220043 -0.633 255 255 253
-0.263449 -0.220043 -0.633 252 253 248
-0.262657 -0.22039 -0.634 253 254 249
-0.26145 -0.22039 -0.634 252 254 249
-0.261063 -0.221086 -0.636 252 255 248
-0.259851 -0.221086 -0.636 252 255 248
-0.259453 -0.221781 -0.638 252 255 248
-0.258643 -0.222129 -0.639 251 254 247
-0.257829 -0.222476 -0.64 253 254 249
-0.25701 -0.222824 -0.641 253 254 249
-0.256588 -0.223519 -0.643 253 254 249
-0.256554 -0.224562 -0.646 252 253 248
-0.256114 -0.225257 -0.648 252 253 248
-0.156643 -0.224214 -0.645 182 183 175
-0.15445 -0.222824 -0.641 186 186 178
-0.152034 -0.221086 -0.636 186 186 178
-0.150349 -0.22039 -0.634 188 185 176
-0.148906 -0.220043 -0.633 189 186 177
-0.147467 -0.219695 -0.632 190 187 178
-0.146263 -0.219695 -0.632 190 187 178
-0.14483 -0.219348 -0.631 190 188 176
-0.143628 -0.219348 -0.631 190 188 176
-0.142651 -0.219695 -0.632 188 188 180
-0.141671 -0.220043 -0.633 188 188 180
-0.140688 -0.22039 -0.634 188 188 180
-0.13992 -0.221086 -0.636 189 189 181
-0.138927 -0.221433 -0.637 189 189 179
-0.138146 -0.222129 -0.639 189 189 179
-0.137143 -0.222476 -0.64 190 190 180
-0.136136 -0.222824 -0.641 190 190 180
-0.135336 -0.223519 -0.643 192 189 180
-0.13432 -0.223867 -0.644 192 189 180
-0.133093 -0.223867 -0.644 192 189 180
-0.132071 -0.224214 -0.645 191 188 179
-0.131046 -0.224562 -0.646 190 187 178
-0.130016 -0.22491 -0.647 189 186 177
-0.128784 -0.22491 -0.647 188 185 176
-0.127749 -0.225257 -0.648 188 185 176
-0.12671 -0.225605 -0.649 187 184 175
-0.125473 -0.225605 -0.649 185 182 173
-0.124429 -0.225952 -0.65 184 182 170
-0.0426486 -0.225605 -0.649 69 68 76
-0.041221 -0.224562 -0.646 63 62 70
-0.0398048 -0.223519 -0.643 69 67 80
-0.03834 -0.222129 -0.639 67 65 78
-0.0369486 -0.221086 -0.636 66 65 79
-0.035681 -0.220738 -0.635 68 67 81
-0.0344171 -0.22039 -0.634 69 69 81
-0.0331571 -0.220043 -0.633 69 69 81
-0.0319514 -0.220043 -0.633 70 70 82
-0.0306971 -0.219695 -0.632 69 69 81
-0.02954 -0.220043 -0.633 71 69 82
-0.028379 -0.22039 -0.634 73 71 84
-0.0272143 -0.220738 -0.635 75 73 86
-0.0260457 -0.221086 -0.636 77 75 88
-0.0249514 -0.222129 -0.639 77 75 88
-0.0238086 -0.222824 -0.641 78 76 89
-0.0226933 -0.223867 -0.644 79 77 91
-0.0215333 -0.224562 -0.646 79 77 91
-0.0203657 -0.225257 -0.648 81 79 93
-0.0191905 -0.225952 -0.65 79 77 91
0.379602 -0.224562 -0.646 138 90 102
0.377295 -0.222476 -0.64 136 88 100
0.375557 -0.220738 -0.635 140 92 104
0.374393 -0.219348 -0.631 146 98 110
0.373214 -0.217957 -0.627 148 100 112
0.37202 -0.216567 -0.623 149 97 110
0.37081 -0.215176 -0.619 147 95 108
0.369586 -0.213786 -0.615 141 91 102
0.368346 -0.212395 -0.611 144 94 105
0.36709 -0.211005 -0.607 138 95 102
0.366427 -0.209962 -0.604 138 95 102
0.365751 -0.208919 -0.601 146 96 107
0.365675 -0.208224 -0.599 147 97 108
0.366816 -0.208224 -0.599 147 97 108
0.366729 -0.207529 -0.597 149 99 110
0.366633 -0.206833 -0.595 147 97 108
0.367149 -0.206486 -0.594 144 94 105
0.36704 -0.20579 -0.592 139 89 100
0.367546 -0.205443 -0.591 137 87 98
0.368048 -0.205095 -0.59 136 86 97
0.368546 -0.204748 -0.589 136 86 97
0.369668 -0.204748 -0.589 134 84 95
0.37016 -0.2044 -0.588 135 85 96
0.37128 -0.2044 -0.588 138 88 99
0.371767 -0.204052 -0.587 142 92 103
0.372885 -0.204052 -0.587 140 90 101
0.373366 -0.203705 -0.586 144 94 105
0.374482 -0.203705 -0.586 146 96 107
0.375598 -0.203705 -0.586 146 97 103
0.376071 -0.203357 -0.585 147 98 104
0.377186 -0.203357 -0.585 142 97 102
0.3783 -0.203357 -0.585 143 98 103
0.379414 -0.203357 -0.585 139 98 102
0.380529 -0.203357 -0.585 138 97 101
0.381643 -0.203357 -0.585 136 100 100
0.382757 -0.203357 -0.585 136 100 100
0.383871 -0.203357 -0.585 133 97 97
0.384986 -0.203357 -0.585 141 106 104
0.3861 -0.203357 -0.585 143 108 106
0.387214 -0.203357 -0.585 146 106 106
0.388992 -0.203705 -0.586 146 106 106
0.390109 -0.203705 -0.586 153 107 109
0.391892 -0.204052 -0.587 153 107 109
0.39368 -0.2044 -0.588 155 107 107
0.3948 -0.2044 -0.588 159 111 111
0.396593 -0.204748 -0.589 156 111 108
0.39704 -0.2044 -0.588 156 111 108
0.39816 -0.2044 -0.588 156 111 108
0.39928 -0.2044 -0.588 158 113 110
0.399719 -0.204052 -0.587 160 112 112
0.400154 -0.203705 -0.586 160 112 112
0.400586 -0.203357 -0.585 161 113 111
0.401013 -0.20301 -0.584 162 114 112
0.401437 -0.202662 -0.583 161 113 111
0.401857 -0.202314 -0.582 161 113 111
0.402273 -0.201967 -0.581 162 113 109
0.402686 -0.201619 -0.58 164 115 111
0.403094 -0.201271 -0.579 165 115 114
0.404197 -0.201271 -0.579 165 115 114
0.4046 -0.200924 -0.578 165 115 114
0.405701 -0.200924 -0.578 167 117 116
0.406098 -0.200576 -0.577 169 119 118
0.406491 -0.200229 -0.576 170 119 116
0.407589 -0.200229 -0.576 170 119 116
0.408686 -0.200229 -0.576 165 114 111
0.409071 -0.199881 -0.575 162 111 108
0.409453 -0.199533 -0.574 165 114 111
0.410547 -0.199533 -0.574 165 114 111
0.41164 -0.199533 -0.574 165 111 109
0.412014 -0.199186 -0.573 167 113 111
0.413106 -0.199186 -0.573 168 115 111
0.414197 -0.199186 -0.573 171 118 114
0.414564 -0.198838 -0.572 174 119 116
0.415653 -0.198838 -0.572 172 117 114
0.416743 -0.198838 -0.572 171 116 113
0.417832 -0.198838 -0.572 172 117 114
0.418922 -0.198838 -0.572 173 118 115
0.420011 -0.198838 -0.572 172 117 114
0.420365 -0.19849 -0.571 171 116 111
0.421452 -0.19849 -0.571 169 114 109
0.42254 -0.19849 -0.571 169 114 109
0.423628 -0.19849 -0.571 169 114 109
0.424715 -0.19849 -0.571 169 114 109
0.425803 -0.19849 -0.571 169 114 107
0.42689 -0.19849 -0.571 170 115 108
0.427229 -0.198143 -0.57 171 116 109
0.428314 -0.198143 -0.57 172 117 110
0.4294 -0.198143 -0.57 169 114 107
0.42973 -0.197795 -0.569 169 114 107
0.430814 -0.197795 -0.569 169 114 107
0.431898 -0.197795 -0.569 168 113 106
0.432982 -0.197795 -0.569 169 114 107
0.434066 -0.197795 -0.569 169 114 107
0.43515 -0.197795 -0.569 168 113 106
0.436233 -0.197795 -0.569 167 112 105
0.437317 -0.197795 -0.569 166 112 102
0.438401 -0.197795 -0.569 162 108 98
0.439485 -0.197795 -0.569 160 106 96
0.440569 -0.197795 -0.569 161 107 97
0.441652 -0.197795 -0.569 161 107 97
0.442736 -0.197795 -0.569 159 105 95
0.44382 -0.197795 -0.569 159 105 95
0.444904 -0.197795 -0.569 162 108 98
0.445988 -0.197795 -0.569 164 110 100
0.447857 -0.198143 -0.57 164 110 100
0.448943 -0.198143 -0.57 165 111 101
0.450029 -0.198143 -0.57 165 111 101
0.451114 -0.198143 -0.57 165 111 101
0.4522 -0.198143 -0.57 166 112 102
0.453286 -0.198143 -0.57 166 112 102
0.454371 -0.198143 -0.57 164 110 100
0.455457 -0.198143 -0.57 162 108 98
0.457344 -0.19849 -0.571 162 109 95
0.458431 -0.19849 -0.571 161 108 94
0.459519 -0.19849 -0.571 159 106 92
0.460607 -0.19849 -0.571 157 104 90
0.461694 -0.19849 -0.571 156 104 91
0.462782 -0.19849 -0.571 154 102 89
0.46387 -0.19849 -0.571 153 101 88
0.464957 -0.19849 -0.571 153 101 88
0.466861 -0.198838 -0.572 149 99 88
0.46795 -0.198838 -0.572 148 98 87
0.46986 -0.199186 -0.573 147 97 86
0.471773 -0.199533 -0.574 148 98 87
0.47369 -0.199881 -0.575 149 101 91
0.476437 -0.200576 -0.577 150 102 92
0.478364 -0.200924 -0.578 150 102 92
0.480294 -0.201271 -0.579 149 101 91
0.483891 -0.202314 -0.582 148 99 92
0.4875 -0.203357 -0.585 147 98 91
-0.322524 -0.22719 -0.65 253 254 249
-0.320297 -0.226491 -0.648 253 254 249
-0.317586 -0.225443 -0.645 253 254 249
-0.313414 -0.223346 -0.639 255 255 253
-0.310731 -0.222297 -0.636 253 253 251
-0.30806 -0.221249 -0.633 252 254 249
-0.304915 -0.21985 -0.629 254 255 251
-0.303234 -0.219501 -0.628 253 255 250
-0.301557 -0.219151 -0.627 250 252 247
-0.299884 -0.218802 -0.626 253 254 249
-0.298214 -0.218452 -0.625 253 254 249
-0.296549 -0.218103 -0.624 255 255 251
-0.29536 -0.218103 -0.624 255 255 251
-0.294171 -0.218103 -0.624 255 255 250
-0.292983 -0.218103 -0.624 255 255 250
-0.291794 -0.218103 -0.624 254 255 249
-0.290606 -0.218103 -0.624 253 254 248
-0.289417 -0.218103 -0.624 255 255 251
-0.28869 -0.218452 -0.625 255 255 251
-0.2875 -0.218452 -0.625 252 253 248
-0.28631 -0.218452 -0.625 242 243 238
-0.285119 -0.218452 -0.625 232 233 228
-0.284383 -0.218802 -0.626 224 225 220
-0.28319 -0.218802 -0.626 213 214 209
-0.271369 -0.21985 -0.629 235 235 235
-0.2706 -0.2202 -0.63 184 184 184
-0.2694 -0.2202 -0.63 101 101 101
-0.268626 -0.22055 -0.631 65 65 65
-0.267424 -0.22055 -0.631 126 126 124
-0.266644 -0.220899 -0.632 183 183 181
-0.26586 -0.221249 -0.633 205 205 203
-0.264654 -0.221249 -0.633 245 245 243
-0.263449 -0.221249 -0.633 252 253 248
-0.262657 -0.221598 -0.634 252 253 248
-0.261862 -0.221948 -0.635 251 253 248
-0.261063 -0.222297 -0.636 251 253 248
-0.26026 -0.222647 -0.637 251 253 248
-0.25986 -0.223346 -0.639 251 254 247
-0.259048 -0.223695 -0.64 251 254 247
-0.258231 -0.224045 -0.641 253 254 249
-0.257812 -0.224744 -0.643 253 254 249
-0.256987 -0.225093 -0.644 253 254 249
-0.256951 -0.226142 -0.647 252 253 248
-0.256905 -0.22719 -0.65 252 253 248
-0.157129 -0.226142 -0.647 183 184 178
-0.15445 -0.224045 -0.641 187 187 179
-0.152034 -0.222297 -0.636 187 187 179
-0.150349 -0.221598 -0.634 189 186 179
-0.149141 -0.221598 -0.634 190 187 180
-0.1477 -0.221249 -0.633 190 187 178
-0.146263 -0.220899 -0.632 190 187 178
-0.145059 -0.220899 -0.632 190 188 176
-0.143855 -0.220899 -0.632 191 189 177
-0.142651 -0.220899 -0.632 189 189 179
-0.141671 -0.221249 -0.633 189 189 179
-0.140688 -0.221598 -0.634 189 189 179
-0.13992 -0.222297 -0.636 189 189 179
-0.139145 -0.222996 -0.638 190 190 180
-0.138146 -0.223346 -0.639 190 190 180
-0.137143 -0.223695 -0.64 193 190 181
-0.136349 -0.224394 -0.642 193 190 181
-0.135336 -0.224744 -0.643 193 190 181
-0.13432 -0.225093 -0.644 193 190 181
-0.1333 -0.225443 -0.645 193 190 181
-0.132276 -0.225792 -0.646 192 189 180
-0.131046 -0.225792 -0.646 190 187 178
-0.130016 -0.226142 -0.647 189 186 177
-0.128784 -0.226142 -0.647 188 185 176
-0.127749 -0.226491 -0.648 187 184 175
-0.12671 -0.226841 -0.649 187 184 175
-0.125473 -0.226841 -0.649 186 183 174
-0.124429 -0.22719 -0.65 183 180 171
-0.0425171 -0.226142 -0.647 64 63 69
-0.0409019 -0.224045 -0.641 60 58 69
-0.039619 -0.223695 -0.64 70 68 81
-0.03816 -0.222297 -0.636 67 65 78
-0.0368324 -0.221598 -0.634 66 65 79
-0.0356248 -0.221598 -0.634 68 67 81
-0.0343629 -0.221249 -0.633 69 69 81
-0.0331048 -0.220899 -0.632 68 68 80
-0.031901 -0.220899 -0.632 68 68 80
-0.0306971 -0.220899 -0.632 71 71 83
-0.0294933 -0.220899 -0.632 71 69 82
-0.028379 -0.221598 -0.634 73 71 84
-0.0272571 -0.222297 -0.636 76 74 88
-0.0260867 -0.222647 -0.637 77 75 89
-0.0249514 -0.223346 -0.639 77 75 89
-0.0238457 -0.224394 -0.642 77 75 89
-0.0226933 -0.225093 -0.644 78 76 90
-0.0215667 -0.226142 -0.647 78 76 90
-0.0203657 -0.226491 -0.648 80 78 92
-0.0191905 -0.22719 -0.65 80 78 92
0.382601 -0.226841 -0.649 138 92 102
0.380289 -0.224744 -0.643 134 88 98
0.378547 -0.222996 -0.638 145 99 109
0.376786 -0.221249 -0.633 148 102 112
0.375006 -0.219501 -0.628 147 97 108
0.373806 -0.218103 -0.624 144 94 105
0.371389 -0.216006 -0.618 140 90 101
0.370154 -0.214608 -0.614 143 93 104
0.368905 -0.21321 -0.61 138 93 100
0.36764 -0.211811 -0.606 137 92 99
0.36636 -0.210413 -0.602 144 92 104
0.366286 -0.209714 -0.6 146 94 106
0.367429 -0.209714 -0.6 146 94 106
0.366729 -0.208666 -0.597 147 95 107
0.366633 -0.207967 -0.595 146 94 106
0.367149 -0.207617 -0.594 142 90 102
0.36766 -0.207268 -0.593 139 87 99
0.367546 -0.206569 -0.591 137 85 97
0.368048 -0.206219 -0.59 137 85 97
0.368546 -0.20587 -0.589 137 85 97
0.36904 -0.20552 -0.588 136 84 96
0.37016 -0.20552 -0.588 136 84 96
0.370649 -0.20517 -0.587 136 84 96
0.371767 -0.20517 -0.587 140 88 100
0.37225 -0.204821 -0.586 139 87 99
0.373366 -0.204821 -0.586 145 94 103
0.374482 -0.204821 -0.586 148 97 106
0.374957 -0.204471 -0.585 148 102 105
0.376071 -0.204471 -0.585 153 107 110
0.376541 -0.204122 -0.584 153 107 110
0.377653 -0.204122 -0.584 152 106 109
0.378766 -0.204122 -0.584 151 105 107
0.379878 -0.204122 -0.584 151 105 107
0.38099 -0.204122 -0.584 154 108 110
0.382103 -0.204122 -0.584 154 108 110
0.383215 -0.204122 -0.584 153 107 109
0.384328 -0.204122 -0.584 156 110 110
0.38544 -0.204122 -0.584 156 110 110
0.386552 -0.204122 -0.584 156 110 110
0.387665 -0.204122 -0.584 156 110 110
0.389443 -0.204471 -0.585 158 113 110
0.390557 -0.204471 -0.585 157 112 109
0.391671 -0.204471 -0.585 155 110 107
0.393457 -0.204821 -0.586 158 113 110
0.394573 -0.204821 -0.586 160 110 109
0.395014 -0.204471 -0.585 160 110 109
0.396129 -0.204471 -0.585 161 111 110
0.397243 -0.204471 -0.585 163 113 112
0.397676 -0.204122 -0.584 163 115 115
0.398106 -0.203772 -0.583 164 116 116
0.398531 -0.203423 -0.582 164 116 114
0.39964 -0.203423 -0.582 165 117 115
0.40006 -0.203073 -0.581 165 117 115
0.401167 -0.203073 -0.581 163 115 113
0.401581 -0.202724 -0.58 163 115 111
0.401991 -0.202374 -0.579 165 117 113
0.402398 -0.202025 -0.578 165 117 115
0.403499 -0.202025 -0.578 165 117 115
0.4039 -0.201675 -0.577 165 117 115
0.404999 -0.201675 -0.577 166 118 116
0.405394 -0.201326 -0.576 168 120 118
0.406491 -0.201326 -0.576 169 120 116
0.406881 -0.200976 -0.575 167 118 114
0.407976 -0.200976 -0.575 165 114 111
0.40836 -0.200627 -0.574 164 113 110
0.40874 -0.200277 -0.573 165 114 111
0.409831 -0.200277 -0.573 165 114 111
0.410923 -0.200277 -0.573 164 113 109
0.412014 -0.200277 -0.573 165 114 110
0.413106 -0.200277 -0.573 169 116 112
0.413474 -0.199928 -0.572 169 116 112
0.414564 -0.199928 -0.572 171 118 114
0.415653 -0.199928 -0.572 173 120 116
0.416743 -0.199928 -0.572 174 119 116
0.417832 -0.199928 -0.572 174 119 116
0.418922 -0.199928 -0.572 174 119 114
0.420011 -0.199928 -0.572 175 120 115
0.420365 -0.199578 -0.571 173 118 113
0.421452 -0.199578 -0.571 171 116 111
0.42254 -0.199578 -0.571 169 114 109
0.423628 -0.199578 -0.571 170 115 110
0.424715 -0.199578 -0.571 170 115 110
0.425803 -0.199578 -0.571 171 116 111
0.426143 -0.199229 -0.57 171 116 111
0.427229 -0.199229 -0.57 171 116 109
0.428314 -0.199229 -0.57 172 117 110
0.428647 -0.198879 -0.569 171 116 109
0.42973 -0.198879 -0.569 169 114 107
0.430814 -0.198879 -0.569 168 113 106
0.431898 -0.198879 -0.569 167 112 105
0.432982 -0.198879 -0.569 167 112 105
0.434066 -0.198879 -0.569 169 114 107
0.43515 -0.198879 -0.569 169 114 107
0.436233 -0.198879 -0.569 168 113 106
0.437317 -0.198879 -0.569 166 111 104
0.438401 -0.198879 -0.569 165 110 103
0.439485 -0.198879 -0.569 164 109 102
0.440569 -0.198879 -0.569 163 108 101
0.441652 -0.198879 -0.569 163 108 101
0.442736 -0.198879 -0.569 164 109 102
0.44382 -0.198879 -0.569 165 110 103
0.444904 -0.198879 -0.569 165 110 103
0.445988 -0.198879 -0.569 164 110 100
0.447857 -0.199229 -0.57 165 111 101
0.448943 -0.199229 -0.57 166 112 102
0.450029 -0.199229 -0.57 167 113 103
0.451114 -0.199229 -0.57 167 113 103
0.4522 -0.199229 -0.57 167 113 103
0.453286 -0.199229 -0.57 168 114 104
0.454371 -0.199229 -0.57 166 112 102
0.455457 -0.199229 -0.57 164 110 100
0.456543 -0.199229 -0.57 164 111 97
0.458431 -0.199578 -0.571 162 109 95
0.459519 -0.199578 -0.571 160 108 94
0.460607 -0.199578 -0.571 158 106 92
0.461694 -0.199578 -0.571 155 103 90
0.462782 -0.199578 -0.571 154 102 89
0.46387 -0.199578 -0.571 152 103 89
0.464957 -0.199578 -0.571 151 102 88
0.466861 -0.199928 -0.572 151 101 90
0.46795 -0.199928 -0.572 150 100 89
0.46986 -0.200277 -0.573 148 100 88
0.471773 -0.200627 -0.574 148 100 88
0.47369 -0.200976 -0.575 148 100 90
0.475611 -0.201326 -0.576 149 101 91
0.477536 -0.201675 -0.577 150 102 92
0.479465 -0.202025 -0.578 150 102 92
0.48306 -0.203073 -0.581 148 101 91
0.486667 -0.204122 -0.584 146 99 89
-0.320791 -0.228077 -0.649 253 253 251
-0.318078 -0.227023 -0.646 253 253 251
-0.315867 -0.22632 -0.644 253 253 251
-0.311709 -0.224211 -0.638 253 254 248
-0.309033 -0.223157 -0.635 253 254 248
-0.305885 -0.221751 -0.631 253 254 248
-0.303234 -0.220697 -0.628 253 254 248
-0.301557 -0.220346 -0.627 253 254 248
-0.299884 -0.219994 -0.626 253 254 249
-0.298691 -0.219994 -0.626 253 254 249
-0.297024 -0.219643 -0.625 252 253 248
-0.295833 -0.219643 -0.625 252 253 248
-0.294643 -0.219643 -0.625 252 253 248
-0.293452 -0.219643 -0.625 252 253 248
-0.292262 -0.219643 -0.625 252 253 248
-0.291071 -0.219643 -0.625 252 253 248
-0.289881 -0.219643 -0.625 252 253 248
-0.28869 -0.219643 -0.625 252 253 248
-0.2875 -0.219643 -0.625 252 252 250
-0.28631 -0.219643 -0.625 252 252 250
-0.285575 -0.219994 -0.626 252 253 248
-0.284383 -0.219994 -0.626 252 253 248
-0.28319 -0.219994 -0.626 252 253 248
-0.281998 -0.219994 -0.626 252 252 250
-0.281254 -0.220346 -0.627 252 252 250
-0.28006 -0.220346 -0.627 252 252 252
-0.278866 -0.220346 -0.627 252 252 252
-0.277671 -0.220346 -0.627 252 252 250
-0.276918 -0.220697 -0.628 252 252 250
-0.275722 -0.220697 -0.628 252 252 250
-0.274963 -0.221049 -0.629 252 252 250
-0.273765 -0.221049 -0.629 252 252 252
-0.272567 -0.221049 -0.629 252 252 252
-0.2718 -0.2214 -0.63 250 250 250
-0.2706 -0.2214 -0.63 242 242 242
-0.269828 -0.221751 -0.631 198 198 196
-0.268626 -0.221751 -0.631 106 106 104
-0.267848 -0.222103 -0.632 80 80 78
-0.267066 -0.222454 -0.633 160 160 158
-0.26586 -0.222454 -0.633 171 171 171
-0.264654 -0.222454 -0.633 245 245 243
-0.263865 -0.222806 -0.634 252 252 250
-0.263071 -0.223157 -0.635 252 252 250
-0.262274 -0.223509 -0.636 252 253 248
-0.261473 -0.22386 -0.637 251 253 248
-0.260669 -0.224211 -0.638 251 253 248
-0.260267 -0.224914 -0.64 251 253 248
-0.259452 -0.225266 -0.641 251 253 248
-0.259037 -0.225969 -0.643 253 254 249
-0.258213 -0.22632 -0.644 253 254 249
-0.257785 -0.227023 -0.646 252 253 248
-0.257746 -0.228077 -0.649 252 253 248
-0.157371 -0.227726 -0.648 184 185 179
-0.154691 -0.225617 -0.642 188 188 180
-0.152034 -0.223509 -0.636 188 188 180
-0.150349 -0.222806 -0.634 190 187 180
-0.149141 -0.222806 -0.634 190 187 180
-0.1477 -0.222454 -0.633 190 187 178
-0.146494 -0.222454 -0.633 190 187 178
-0.145059 -0.222103 -0.632 190 188 176
-0.143855 -0.222103 -0.632 190 188 176
-0.142651 -0.222103 -0.632 191 188 179
-0.141671 -0.222454 -0.633 191 188 179
-0.140688 -0.222806 -0.634 192 189 180
-0.13992 -0.223509 -0.636 192 189 180
-0.139145 -0.224211 -0.638 192 189 180
-0.138146 -0.224563 -0.639 193 190 181
-0.137357 -0.225266 -0.641 193 190 181
-0.136349 -0.225617 -0.642 193 190 181
-0.135336 -0.225969 -0.643 192 189 180
-0.13432 -0.22632 -0.644 192 189 180
-0.1333 -0.226671 -0.645 192 189 180
-0.132276 -0.227023 -0.646 192 189 180
-0.131249 -0.227374 -0.647 191 188 179
-0.130016 -0.227374 -0.647 190 187 178
-0.128983 -0.227726 -0.648 188 186 174
-0.127749 -0.227726 -0.648 187 185 173
-0.12671 -0.228077 -0.649 185 182 173
-0.125473 -0.228077 -0.649 186 183 174
-0.124429 -0.228429 -0.65 186 183 174
-0.12319 -0.228429 -0.65 188 185 176
-0.045121 -0.228077 -0.649 69 68 73
-0.0436819 -0.227023 -0.646 70 69 77
-0.0421886 -0.225617 -0.642 63 62 70
-0.0405829 -0.223509 -0.636 57 55 68
-0.0393095 -0.223157 -0.635 67 65 79
-0.03798 -0.222454 -0.633 67 65 79
-0.0367162 -0.222103 -0.632 66 65 79
-0.0354562 -0.221751 -0.631 66 65 79
-0.0342543 -0.221751 -0.631 67 69 82
-0.0330524 -0.221751 -0.631 68 70 83
-0.0318505 -0.221751 -0.631 69 69 79
-0.0306486 -0.221751 -0.631 75 75 85
-0.0294933 -0.222103 -0.632 72 70 83
-0.028379 -0.222806 -0.634 73 71 84
-0.0272571 -0.223509 -0.636 76 74 88
-0.0261276 -0.224211 -0.638 77 75 89
-0.0249905 -0.224914 -0.64 76 74 88
-0.0238829 -0.225969 -0.643 77 75 89
-0.0227286 -0.226671 -0.645 78 76 89
-0.0215667 -0.227374 -0.647 77 75 88
-0.0203971 -0.228077 -0.649 77 75 89
0.379186 -0.223157 -0.635 145 98 108
0.3774 -0.2214 -0.63 141 94 104
0.374393 -0.21894 -0.623 139 89 100
0.372566 -0.217183 -0.618 142 92 103
0.370719 -0.215426 -0.613 138 91 99
0.368853 -0.213669 -0.608 139 92 100
0.367577 -0.212263 -0.604 143 89 102
0.366896 -0.211209 -0.601 144 90 103
0.368041 -0.211209 -0.601 144 90 103
0.367957 -0.210506 -0.599 143 91 103
0.36725 -0.209451 -0.596 141 89 101
0.367149 -0.208749 -0.594 139 88 97
0.36766 -0.208397 -0.593 138 87 96
0.368168 -0.208046 -0.592 138 85 95
0.368048 -0.207343 -0.59 138 85 95
0.368546 -0.206991 -0.589 134 83 92
0.36904 -0.20664 -0.588 134 83 92
0.37016 -0.20664 -0.588 135 84 93
0.370649 -0.206289 -0.587 136 85 94
0.371767 -0.206289 -0.587 139 88 97
0.37225 -0.205937 -0.586 138 87 96
0.373366 -0.205937 -0.586 143 92 101
0.373843 -0.205586 -0.585 145 94 103
0.374957 -0.205586 -0.585 147 101 103
0.376071 -0.205586 -0.585 151 105 107
0.376541 -0.205234 -0.584 154 105 108
0.377653 -0.205234 -0.584 154 105 108
0.378766 -0.205234 -0.584 154 106 106
0.379878 -0.205234 -0.584 155 107 107
0.380338 -0.204883 -0.583 159 109 110
0.381449 -0.204883 -0.583 159 109 110
0.382559 -0.204883 -0.583 161 111 112
0.38367 -0.204883 -0.583 163 113 114
0.38478 -0.204883 -0.583 163 113 114
0.38589 -0.204883 -0.583 161 113 111
0.387001 -0.204883 -0.583 160 112 110
0.388777 -0.205234 -0.584 160 115 112
0.38989 -0.205234 -0.584 159 114 111
0.391002 -0.205234 -0.584 158 113 110
0.392114 -0.205234 -0.584 160 115 112
0.393227 -0.205234 -0.584 162 112 111
