ply
format ascii 1.0
comment Created by Open3D
element vertex 1314
property double x
property double y
property double z
property uchar red
property uchar green
property uchar blue
end_header
0.347729 -0.125529 -0.505 134 103 109
0.34869 -0.125529 -0.505 133 102 108
0.349652 -0.125529 -0.505 122 93 98
0.34992 -0.12528 -0.504 105 76 81
0.35088 -0.12528 -0.504 105 76 81
0.35184 -0.12528 -0.504 113 84 89
0.3528 -0.12528 -0.504 127 98 103
0.354462 -0.125529 -0.505 134 103 109
0.355424 -0.125529 -0.505 134 103 109
0.357091 -0.125777 -0.506 139 104 111
0.358055 -0.125777 -0.506 135 100 107
0.359729 -0.126026 -0.507 114 91 97
0.362829 -0.126771 -0.51 80 57 63
0.365227 -0.127269 -0.512 49 34 39
0.368348 -0.128014 -0.515 46 31 36
0.372197 -0.129009 -0.519 44 27 33
0.376062 -0.130003 -0.523 46 29 35
0.379942 -0.130997 -0.527 50 31 37
0.382391 -0.131494 -0.529 54 35 41
0.384124 -0.131743 -0.53 59 40 44
0.38586 -0.131991 -0.531 64 45 49
0.385414 -0.131494 -0.529 77 51 54
0.384961 -0.130997 -0.527 89 63 66
0.385232 -0.130749 -0.526 113 72 76
0.384766 -0.130251 -0.524 128 87 91
0.385028 -0.130003 -0.523 147 91 90
0.385286 -0.129754 -0.522 159 103 102
0.38628 -0.129754 -0.522 159 103 102
0.386532 -0.129506 -0.521 167 113 111
0.387525 -0.129506 -0.521 178 124 122
0.387771 -0.129257 -0.52 190 136 134
0.388014 -0.129009 -0.519 193 139 137
0.389003 -0.129009 -0.519 192 137 134
0.389991 -0.129009 -0.519 191 136 133
0.39098 -0.129009 -0.519 190 135 132
0.391969 -0.129009 -0.519 189 134 131
0.392957 -0.129009 -0.519 186 131 128
0.393946 -0.129009 -0.519 184 129 126
0.395695 -0.129257 -0.52 182 127 124
0.398211 -0.129754 -0.522 181 126 123
0.39997 -0.130003 -0.523 179 121 119
0.401733 -0.130251 -0.524 173 115 113
0.404269 -0.130749 -0.526 163 113 106
0.406811 -0.131246 -0.528 158 108 101
0.40859 -0.131494 -0.529 156 106 97
0.410371 -0.131743 -0.53 153 103 94
0.412933 -0.13224 -0.532 146 96 89
0.413947 -0.13224 -0.532 152 102 95
0.41574 -0.132489 -0.533 159 106 102
0.417537 -0.132737 -0.534 165 112 108
0.418554 -0.132737 -0.534 171 118 112
0.420357 -0.132986 -0.535 172 119 113
0.421376 -0.132986 -0.535 172 119 113
0.422395 -0.132986 -0.535 174 121 113
0.423414 -0.132986 -0.535 174 121 113
0.424433 -0.132986 -0.535 175 122 114
0.425452 -0.132986 -0.535 177 124 116
0.426471 -0.132986 -0.535 177 122 119
0.42749 -0.132986 -0.535 173 118 115
0.42851 -0.132986 -0.535 169 118 115
0.429529 -0.132986 -0.535 169 118 115
0.430548 -0.132986 -0.535 169 113 112
0.432373 -0.133234 -0.536 164 108 107
0.434203 -0.133483 -0.537 165 107 106
0.262052 -0.141519 -0.565 84 68 78
0.263129 -0.141519 -0.565 87 74 81
0.263737 -0.141269 -0.564 84 71 78
0.263403 -0.140517 -0.561 85 68 74
0.263529 -0.140016 -0.559 93 76 82
0.265067 -0.140267 -0.56 69 57 61
0.267084 -0.140768 -0.562 61 49 53
0.268154 -0.140768 -0.562 60 43 51
0.269225 -0.140768 -0.562 62 45 53
0.270295 -0.140768 -0.562 61 44 50
0.271366 -0.140768 -0.562 60 43 49
0.272436 -0.140768 -0.562 60 43 49
0.273993 -0.141018 -0.563 64 47 55
0.275066 -0.141018 -0.563 61 44 52
0.276138 -0.141018 -0.563 63 48 55
0.27721 -0.141018 -0.563 62 47 54
0.278283 -0.141018 -0.563 67 52 59
0.278859 -0.140768 -0.562 97 82 89
0.27993 -0.140768 -0.562 103 88 95
0.281 -0.140768 -0.562 98 83 90
0.28207 -0.140768 -0.562 86 73 80
0.283645 -0.141018 -0.563 108 95 102
0.284717 -0.141018 -0.563 96 83 90
0.28579 -0.141018 -0.563 81 68 75
0.286862 -0.141018 -0.563 90 77 84
0.287934 -0.141018 -0.563 80 67 74
0.289007 -0.141018 -0.563 95 83 87
0.290079 -0.141018 -0.563 85 73 77
0.291151 -0.141018 -0.563 78 65 72
0.292224 -0.141018 -0.563 96 83 90
0.293296 -0.141018 -0.563 78 62 72
0.293846 -0.140768 -0.562 79 63 73
0.294916 -0.140768 -0.562 79 63 73
0.29546 -0.140517 -0.561 71 55 65
0.296529 -0.140517 -0.561 71 55 65
0.297067 -0.140267 -0.56 55 40 47
0.297069 -0.139766 -0.558 66 51 58
0.296529 -0.139014 -0.555 67 52 57
0.294905 -0.137762 -0.55 53 38 43
0.293262 -0.13651 -0.545 92 69 75
0.2916 -0.135257 -0.54 136 113 119
0.289919 -0.134005 -0.535 139 108 113
0.288763 -0.133003 -0.531 142 111 116
0.288137 -0.132251 -0.528 140 107 114
0.288048 -0.13175 -0.526 140 107 114
0.28795 -0.13125 -0.524 138 105 112
0.287846 -0.130749 -0.522 139 106 113
0.288287 -0.130498 -0.521 139 106 113
0.289279 -0.130498 -0.521 140 107 114
0.289714 -0.130248 -0.52 142 109 116
0.290705 -0.130248 -0.52 142 109 116
0.291134 -0.129997 -0.519 140 107 114
0.292123 -0.129997 -0.519 139 106 113
0.293111 -0.129997 -0.519 138 105 112
0.2941 -0.129997 -0.519 138 105 112
0.295089 -0.129997 -0.519 140 107 114
0.296077 -0.129997 -0.519 140 107 114
0.296493 -0.129747 -0.518 140 107 114
0.29748 -0.129747 -0.518 139 106 113
0.298467 -0.129747 -0.518 139 106 113
0.299453 -0.129747 -0.518 141 108 115
0.29986 -0.129496 -0.517 140 107 114
0.300845 -0.129496 -0.517 139 106 113
0.30183 -0.129496 -0.517 138 105 112
0.302814 -0.129496 -0.517 138 105 112
0.303799 -0.129496 -0.517 138 105 112
0.304784 -0.129496 -0.517 137 104 111
0.305177 -0.129246 -0.516 137 104 111
0.30616 -0.129246 -0.516 139 106 113
0.307143 -0.129246 -0.516 138 105 112
0.308126 -0.129246 -0.516 139 106 113
0.30851 -0.128995 -0.515 139 106 113
0.30949 -0.128995 -0.515 138 105 112
0.310471 -0.128995 -0.515 139 106 113
0.310848 -0.128745 -0.514 140 107 114
0.311827 -0.128745 -0.514 140 107 114
0.312806 -0.128745 -0.514 138 105 112
0.313785 -0.128745 -0.514 139 106 113
0.314764 -0.128745 -0.514 139 106 113
0.315743 -0.128745 -0.514 138 105 112
0.316106 -0.128494 -0.513 138 105 112
0.317083 -0.128494 -0.513 139 106 113
0.31806 -0.128494 -0.513 138 105 112
0.319037 -0.128494 -0.513 138 105 112
0.31939 -0.128244 -0.512 139 106 113
0.320366 -0.128244 -0.512 136 103 110
0.321341 -0.128244 -0.512 137 104 111
0.322316 -0.128244 -0.512 137 106 112
0.32266 -0.127993 -0.511 137 106 112
0.323633 -0.127993 -0.511 138 107 113
0.324607 -0.127993 -0.511 138 107 113
0.324943 -0.127743 -0.51 138 107 113
0.325914 -0.127743 -0.51 139 108 114
0.326886 -0.127743 -0.51 139 108 114
0.327857 -0.127743 -0.51 138 107 113
0.328184 -0.127492 -0.509 137 106 114
0.329153 -0.127492 -0.509 136 105 113
0.330123 -0.127492 -0.509 136 105 113
0.331092 -0.127492 -0.509 136 105 113
0.332062 -0.127492 -0.509 136 105 111
0.333031 -0.127492 -0.509 136 105 111
0.333345 -0.127242 -0.508 136 105 111
0.334312 -0.127242 -0.508 133 102 108
0.33528 -0.127242 -0.508 130 99 105
0.336248 -0.127242 -0.508 127 96 104
0.337215 -0.127242 -0.508 125 94 102
0.338183 -0.127242 -0.508 127 96 104
0.33915 -0.127242 -0.508 127 96 104
0.340118 -0.127242 -0.508 126 95 101
0.341086 -0.127242 -0.508 127 96 102
0.342053 -0.127242 -0.508 128 97 103
0.342346 -0.126991 -0.507 126 95 101
0.343311 -0.126991 -0.507 125 94 100
0.344277 -0.126991 -0.507 121 90 96
0.345243 -0.126991 -0.507 119 88 94
0.346209 -0.126991 -0.507 115 84 90
0.34649 -0.126741 -0.506 117 86 92
0.347453 -0.126741 -0.506 134 103 109
0.347729 -0.12649 -0.505 135 104 110
0.34869 -0.12649 -0.505 132 101 107
0.34896 -0.12624 -0.504 121 92 97
0.34992 -0.12624 -0.504 113 84 89
0.35088 -0.12624 -0.504 113 84 89
0.35184 -0.12624 -0.504 125 96 101
0.3528 -0.12624 -0.504 133 104 109
0.354462 -0.12649 -0.505 136 105 111
0.355424 -0.12649 -0.505 135 104 110
0.357091 -0.126741 -0.506 136 103 110
0.358055 -0.126741 -0.506 132 99 106
0.359729 -0.126991 -0.507 106 85 90
0.36354 -0.127993 -0.511 71 50 55
0.366653 -0.128745 -0.514 47 35 39
0.369063 -0.129246 -0.516 47 35 39
0.373631 -0.130498 -0.521 48 33 38
0.378219 -0.13175 -0.526 52 37 42
0.382105 -0.132752 -0.53 57 42 47
0.38456 -0.133253 -0.532 62 47 52
0.384849 -0.133003 -0.531 69 54 57
0.386587 -0.133253 -0.532 75 60 63
0.386143 -0.132752 -0.53 89 64 67
0.386422 -0.132502 -0.529 91 66 69
0.385965 -0.132001 -0.527 105 69 73
0.3855 -0.1315 -0.525 121 85 89
0.385764 -0.13125 -0.524 144 90 90
0.386024 -0.130999 -0.523 155 101 101
0.38702 -0.130999 -0.523 155 101 101
0.387274 -0.130749 -0.522 163 109 107
0.387525 -0.130498 -0.521 174 120 118
0.387771 -0.130248 -0.52 187 133 131
0.388762 -0.130248 -0.52 192 138 136
0.389003 -0.129997 -0.519 192 136 135
0.389991 -0.129997 -0.519 191 135 134
0.390227 -0.129747 -0.518 188 132 131
0.391213 -0.129747 -0.518 186 130 129
0.392957 -0.129997 -0.519 187 132 129
0.393946 -0.129997 -0.519 190 135 132
0.395695 -0.130248 -0.52 186 131 128
0.397449 -0.130498 -0.521 184 129 126
0.39997 -0.130999 -0.523 184 126 124
0.401733 -0.13125 -0.524 175 117 115
0.4035 -0.1315 -0.525 168 115 109
0.406041 -0.132001 -0.527 163 110 104
0.40859 -0.132502 -0.529 159 106 98
0.410371 -0.132752 -0.53 156 103 95
0.412157 -0.133003 -0.531 145 92 84
0.413947 -0.133253 -0.532 146 93 85
0.41574 -0.133504 -0.533 153 98 93
0.417537 -0.133754 -0.534 157 102 97
0.418554 -0.133754 -0.534 164 109 106
0.420357 -0.134005 -0.535 169 114 111
0.421376 -0.134005 -0.535 169 114 111
0.422395 -0.134005 -0.535 175 120 115
0.423414 -0.134005 -0.535 178 123 118
0.424433 -0.134005 -0.535 176 121 116
0.425452 -0.134005 -0.535 173 118 113
0.426471 -0.134005 -0.535 170 112 110
0.42749 -0.134005 -0.535 163 105 103
0.42851 -0.134005 -0.535 156 100 99
0.429529 -0.134005 -0.535 154 98 97
0.430548 -0.134005 -0.535 151 93 92
0.432373 -0.134255 -0.536 151 93 92
0.434203 -0.134506 -0.537 154 94 94
0.436036 -0.134756 -0.538 149 89 89
0.262052 -0.142595 -0.565 82 69 78
0.262663 -0.142343 -0.564 85 74 80
0.263737 -0.142343 -0.564 87 76 82
0.263403 -0.141586 -0.561 92 77 82
0.263529 -0.141081 -0.559 80 65 70
0.265067 -0.141333 -0.56 56 45 49
0.266609 -0.141586 -0.561 55 44 48
0.267677 -0.141586 -0.561 62 42 51
0.268746 -0.141586 -0.561 62 42 51
0.269814 -0.141586 -0.561 61 44 50
0.270883 -0.141586 -0.561 61 44 50
0.271951 -0.141586 -0.561 61 44 50
0.273507 -0.141838 -0.562 63 46 52
0.274577 -0.141838 -0.562 60 43 49
0.275648 -0.141838 -0.562 63 46 54
0.276718 -0.141838 -0.562 64 47 55
0.277789 -0.141838 -0.562 73 58 65
0.278363 -0.141586 -0.561 107 92 99
0.27993 -0.141838 -0.562 112 97 104
0.281 -0.141838 -0.562 95 80 87
0.281569 -0.141586 -0.561 100 87 94
0.282637 -0.141586 -0.561 113 100 107
0.284211 -0.141838 -0.562 105 92 101
0.285282 -0.141838 -0.562 100 87 96
0.286352 -0.141838 -0.562 91 78 87
0.287423 -0.141838 -0.562 89 76 85
0.288493 -0.141838 -0.562 112 100 104
0.289564 -0.141838 -0.562 88 76 80
0.290634 -0.141838 -0.562 92 77 84
0.291705 -0.141838 -0.562 113 98 105
0.292775 -0.141838 -0.562 91 74 84
0.293323 -0.141586 -0.561 107 90 100
0.294391 -0.141586 -0.561 98 82 92
0.294933 -0.141333 -0.56 85 69 79
0.296 -0.141333 -0.56 85 69 79
0.296536 -0.141081 -0.559 77 61 71
0.296004 -0.140324 -0.556 94 78 88
0.29546 -0.139567 -0.553 82 65 71
0.293832 -0.138305 -0.548 71 54 60
0.292186 -0.137043 -0.543 117 94 100
0.29052 -0.135781 -0.538 132 109 115
0.289377 -0.134771 -0.534 140 109 114
0.288219 -0.133762 -0.53 138 107 112
0.287591 -0.133005 -0.527 140 107 114
0.2875 -0.1325 -0.525 140 107 114
0.28795 -0.132248 -0.524 139 106 113
0.287846 -0.131743 -0.522 140 107 114
0.288287 -0.13149 -0.521 140 107 114
0.288724 -0.131238 -0.52 140 107 114
0.289714 -0.131238 -0.52 142 109 116
0.290705 -0.131238 -0.52 142 109 116
0.291134 -0.130986 -0.519 139 106 113
0.292123 -0.130986 -0.519 138 105 112
0.293111 -0.130986 -0.519 138 105 112
0.2941 -0.130986 -0.519 138 105 112
0.29452 -0.130733 -0.518 140 107 114
0.295507 -0.130733 -0.518 140 107 114
0.296493 -0.130733 -0.518 140 107 114
0.29748 -0.130733 -0.518 139 106 113
0.298467 -0.130733 -0.518 138 105 112
0.299453 -0.130733 -0.518 140 107 114
0.29986 -0.130481 -0.517 141 108 115
0.300845 -0.130481 -0.517 139 106 113
0.30183 -0.130481 -0.517 137 104 111
0.302814 -0.130481 -0.517 137 104 111
0.303799 -0.130481 -0.517 137 104 111
0.304784 -0.130481 -0.517 137 104 111
0.305177 -0.130229 -0.516 138 105 112
0.30616 -0.130229 -0.516 138 105 112
0.307143 -0.130229 -0.516 138 105 112
0.308126 -0.130229 -0.516 139 106 113
0.309109 -0.130229 -0.516 139 106 113
0.30949 -0.129976 -0.515 138 105 112
0.310471 -0.129976 -0.515 139 106 113
0.311452 -0.129976 -0.515 140 107 114
0.311827 -0.129724 -0.514 140 107 114
0.312806 -0.129724 -0.514 139 106 113
0.313785 -0.129724 -0.514 139 106 113
0.314764 -0.129724 -0.514 139 106 113
0.315743 -0.129724 -0.514 139 106 113
0.316106 -0.129471 -0.513 139 106 113
0.317083 -0.129471 -0.513 139 106 113
0.31806 -0.129471 -0.513 139 106 113
0.318415 -0.129219 -0.512 138 105 112
0.31939 -0.129219 -0.512 138 105 112
0.320366 -0.129219 -0.512 139 108 114
0.321341 -0.129219 -0.512 137 106 112
0.322316 -0.129219 -0.512 138 107 113
0.32266 -0.128967 -0.511 140 109 115
0.323633 -0.128967 -0.511 138 107 113
0.323971 -0.128714 -0.51 135 104 110
0.324943 -0.128714 -0.51 137 106 112
0.325914 -0.128714 -0.51 139 108 114
0.326245 -0.128462 -0.509 139 108 114
0.327214 -0.128462 -0.509 138 107 113
0.328184 -0.128462 -0.509 136 107 112
0.329153 -0.128462 -0.509 136 107 112
0.330123 -0.128462 -0.509 137 108 113
0.330442 -0.12821 -0.508 137 108 113
0.33141 -0.12821 -0.508 134 105 110
0.332377 -0.12821 -0.508 134 105 110
0.333345 -0.12821 -0.508 133 104 109
0.334312 -0.12821 -0.508 135 106 111
0.33528 -0.12821 -0.508 138 109 114
0.336248 -0.12821 -0.508 136 106 114
0.337215 -0.12821 -0.508 133 103 111
0.338183 -0.12821 -0.508 131 104 111
0.33915 -0.12821 -0.508 134 107 114
0.340118 -0.12821 -0.508 136 106 114
0.341086 -0.12821 -0.508 132 102 110
0.342053 -0.12821 -0.508 130 101 106
0.342346 -0.127957 -0.507 134 105 110
0.343311 -0.127957 -0.507 134 103 109
0.344277 -0.127957 -0.507 133 102 108
0.345243 -0.127957 -0.507 134 103 109
0.346209 -0.127957 -0.507 132 101 107
0.34649 -0.127705 -0.506 131 100 106
0.347453 -0.127705 -0.506 134 103 109
0.347729 -0.127452 -0.505 132 103 108
0.34869 -0.127452 -0.505 123 94 99
0.34896 -0.1272 -0.504 111 84 89
0.34992 -0.1272 -0.504 111 84 89
0.35088 -0.1272 -0.504 111 84 89
0.35184 -0.1272 -0.504 128 99 104
0.3528 -0.1272 -0.504 133 104 109
0.354462 -0.127452 -0.505 134 103 109
0.355424 -0.127452 -0.505 132 101 107
0.357091 -0.127705 -0.506 135 104 110
0.358763 -0.127957 -0.507 131 100 106
0.359729 -0.127957 -0.507 97 78 82
0.36354 -0.128967 -0.511 63 44 48
0.366653 -0.129724 -0.514 46 35 39
0.369778 -0.130481 -0.517 49 38 42
0.374349 -0.131743 -0.522 50 38 42
0.378938 -0.133005 -0.527 56 44 48
0.383547 -0.134267 -0.532 62 50 54
0.387451 -0.135276 -0.536 69 57 61
0.387748 -0.135024 -0.535 75 63 65
0.38804 -0.134771 -0.534 83 71 73
0.3876 -0.134267 -0.532 99 77 79
0.387152 -0.133762 -0.53 94 72 74
0.386697 -0.133257 -0.528 100 68 71
0.386234 -0.132752 -0.526 115 83 86
0.3865 -0.1325 -0.525 142 88 88
0.386024 -0.131995 -0.523 153 99 99
0.38702 -0.131995 -0.523 153 99 99
0.387274 -0.131743 -0.522 160 106 106
0.387525 -0.13149 -0.521 170 116 116
0.387771 -0.131238 -0.52 181 127 125
0.388762 -0.131238 -0.52 188 134 132
0.389752 -0.131238 -0.52 192 136 135
0.389991 -0.130986 -0.519 194 138 137
0.39098 -0.130986 -0.519 193 138 135
0.391213 -0.130733 -0.518 190 135 132
0.392957 -0.130986 -0.519 190 135 132
0.393946 -0.130986 -0.519 192 137 134
0.395695 -0.131238 -0.52 185 130 127
0.397449 -0.13149 -0.521 183 128 125
0.399206 -0.131743 -0.522 186 128 124
0.400967 -0.131995 -0.523 175 117 113
0.4035 -0.1325 -0.525 170 115 110
0.40527 -0.132752 -0.526 165 110 105
0.407817 -0.133257 -0.528 159 104 97
0.409597 -0.13351 -0.529 158 103 96
0.412157 -0.134014 -0.531 148 93 86
0.413947 -0.134267 -0.532 142 87 80
0.41574 -0.134519 -0.533 144 89 84
0.417537 -0.134771 -0.534 148 93 88
0.418554 -0.134771 -0.534 151 96 93
0.419571 -0.134771 -0.534 159 104 101
0.420589 -0.134771 -0.534 159 104 101
0.421606 -0.134771 -0.534 172 114 112
0.422623 -0.134771 -0.534 177 119 117
0.424433 -0.135024 -0.535 176 118 116
0.425452 -0.135024 -0.535 174 116 114
0.426471 -0.135024 -0.535 170 112 110
0.42749 -0.135024 -0.535 166 108 106
0.42851 -0.135024 -0.535 163 108 105
0.429529 -0.135024 -0.535 165 110 107
0.430548 -0.135024 -0.535 167 109 107
0.431567 -0.135024 -0.535 163 105 103
0.433394 -0.135276 -0.536 157 99 98
0.436036 -0.135781 -0.538 147 89 88
0.437873 -0.136033 -0.539 142 86 85
0.262052 -0.143671 -0.565 77 66 74
0.263129 -0.143671 -0.565 82 73 78
0.263737 -0.143417 -0.564 92 83 88
0.263403 -0.142654 -0.561 90 78 82
0.263529 -0.142146 -0.559 58 46 50
0.264593 -0.142146 -0.559 61 49 53
0.266133 -0.1424 -0.56 56 44 48
0.2672 -0.1424 -0.56 63 43 54
0.268267 -0.1424 -0.56 62 42 53
0.269333 -0.1424 -0.56 63 44 50
0.2704 -0.1424 -0.56 64 45 51
0.271467 -0.1424 -0.56 64 45 51
0.272533 -0.1424 -0.56 63 46 52
0.2736 -0.1424 -0.56 64 47 53
0.274667 -0.1424 -0.56 65 48 56
0.275733 -0.1424 -0.56 63 46 54
0.2768 -0.1424 -0.56 69 52 60
0.277867 -0.1424 -0.56 86 69 77
0.279431 -0.142654 -0.561 85 70 77
0.2805 -0.142654 -0.561 73 58 65
0.281569 -0.142654 -0.561 82 67 74
0.282133 -0.1424 -0.56 83 68 75
0.2832 -0.1424 -0.56 77 61 71
0.284267 -0.1424 -0.56 80 64 74
0.285333 -0.1424 -0.56 75 62 71
0.286911 -0.142654 -0.561 87 74 83
0.28798 -0.142654 -0.561 88 76 80
0.289049 -0.142654 -0.561 74 62 66
0.290117 -0.142654 -0.561 97 82 89
0.291186 -0.142654 -0.561 93 78 85
0.292254 -0.142654 -0.561 85 68 78
0.2928 -0.1424 -0.56 86 69 79
0.293867 -0.1424 -0.56 94 78 89
0.294933 -0.1424 -0.56 88 72 83
0.296 -0.1424 -0.56 88 72 83
0.296006 -0.141891 -0.558 99 83 93
0.295471 -0.141129 -0.555 107 91 101
0.294926 -0.140366 -0.552 90 73 79
0.293296 -0.139094 -0.547 103 86 92
0.29111 -0.137569 -0.541 133 108 114
0.28944 -0.136297 -0.536 138 113 119
0.288293 -0.13528 -0.532 146 115 121
0.287675 -0.134517 -0.529 140 109 115
0.287046 -0.133754 -0.526 139 106 113
0.2875 -0.1335 -0.525 140 107 114
0.287401 -0.132991 -0.523 140 107 114
0.287846 -0.132737 -0.522 141 108 115
0.288287 -0.132483 -0.521 142 109 116
0.288724 -0.132229 -0.52 141 108 115
0.289714 -0.132229 -0.52 142 109 116
0.290146 -0.131974 -0.519 141 108 115
0.291134 -0.131974 -0.519 138 105 112
0.292123 -0.131974 -0.519 137 104 111
0.293111 -0.131974 -0.519 138 105 112
0.2941 -0.131974 -0.519 139 106 113
0.29452 -0.13172 -0.518 140 107 114
0.295507 -0.13172 -0.518 140 107 114
0.296493 -0.13172 -0.518 140 107 114
0.29748 -0.13172 -0.518 139 106 113
0.298467 -0.13172 -0.518 138 105 112
0.299453 -0.13172 -0.518 139 106 113
0.29986 -0.131466 -0.517 140 107 114
0.300845 -0.131466 -0.517 140 107 114
0.30183 -0.131466 -0.517 139 106 113
0.302814 -0.131466 -0.517 137 104 111
0.303799 -0.131466 -0.517 138 105 112
0.304784 -0.131466 -0.517 139 106 113
0.305769 -0.131466 -0.517 138 105 112
0.30616 -0.131211 -0.516 138 105 112
0.307143 -0.131211 -0.516 138 105 112
0.308126 -0.131211 -0.516 139 106 113
0.309109 -0.131211 -0.516 139 106 113
0.310091 -0.131211 -0.516 140 107 114
0.310471 -0.130957 -0.515 140 107 114
0.311452 -0.130957 -0.515 140 107 114
0.311827 -0.130703 -0.514 139 106 113
0.312806 -0.130703 -0.514 139 107 112
0.313785 -0.130703 -0.514 139 107 112
0.314764 -0.130703 -0.514 139 107 112
0.315743 -0.130703 -0.514 139 107 112
0.316722 -0.130703 -0.514 139 107 112
0.317083 -0.130449 -0.513 139 107 112
0.31806 -0.130449 -0.513 139 107 112
0.319037 -0.130449 -0.513 138 107 112
0.31939 -0.130194 -0.512 138 107 112
0.320366 -0.130194 -0.512 139 108 113
0.321341 -0.130194 -0.512 137 106 111
0.322316 -0.130194 -0.512 138 107 112
0.32266 -0.12994 -0.511 140 109 114
0.323633 -0.12994 -0.511 137 108 112
0.324607 -0.12994 -0.511 137 108 112
0.324943 -0.129686 -0.51 140 111 115
0.325914 -0.129686 -0.51 139 110 114
0.326245 -0.129431 -0.509 137 106 111
0.327214 -0.129431 -0.509 137 106 111
0.328184 -0.129431 -0.509 139 108 113
0.329153 -0.129431 -0.509 139 108 113
0.330123 -0.129431 -0.509 139 108 113
0.330442 -0.129177 -0.508 139 108 113
0.33141 -0.129177 -0.508 136 107 112
0.332377 -0.129177 -0.508 136 107 112
0.333345 -0.129177 -0.508 135 106 111
0.334312 -0.129177 -0.508 136 107 112
0.33528 -0.129177 -0.508 133 104 109
0.336248 -0.129177 -0.508 135 106 111
0.337215 -0.129177 -0.508 138 109 114
0.338183 -0.129177 -0.508 133 104 109
0.33915 -0.129177 -0.508 131 102 107
0.340118 -0.129177 -0.508 134 105 110
0.341086 -0.129177 -0.508 132 103 108
0.342053 -0.129177 -0.508 134 105 110
0.342346 -0.128923 -0.507 137 108 113
0.343311 -0.128923 -0.507 135 104 110
0.344277 -0.128923 -0.507 133 102 108
0.345243 -0.128923 -0.507 133 102 108
0.345526 -0.128669 -0.506 134 103 109
0.34649 -0.128669 -0.506 133 104 109
0.347453 -0.128669 -0.506 130 101 106
0.347729 -0.128414 -0.505 133 104 109
0.34869 -0.128414 -0.505 118 89 94
0.349652 -0.128414 -0.505 105 78 83
0.34992 -0.12816 -0.504 110 83 88
0.35088 -0.12816 -0.504 110 83 88
0.35184 -0.12816 -0.504 129 100 105
0.3535 -0.128414 -0.505 135 106 111
0.354462 -0.128414 -0.505 135 106 111
0.355424 -0.128414 -0.505 132 103 108
0.357091 -0.128669 -0.506 135 106 111
0.358763 -0.128923 -0.507 127 98 103
0.360438 -0.129177 -0.508 88 69 73
0.364963 -0.130449 -0.513 58 39 43
0.36808 -0.131211 -0.516 50 39 43
0.371924 -0.132229 -0.52 53 42 46
0.389922 -0.136806 -0.538 81 66 69
0.39022 -0.136551 -0.537 90 75 78
0.389057 -0.135789 -0.534 105 83 85
0.387883 -0.135026 -0.531 98 76 78
0.38743 -0.134517 -0.529 98 66 69
0.386969 -0.134009 -0.527 110 78 81
0.3865 -0.1335 -0.525 135 81 81
0.386762 -0.133246 -0.524 147 93 93
0.38776 -0.133246 -0.524 147 93 93
0.388016 -0.132991 -0.523 158 104 102
0.388269 -0.132737 -0.522 168 114 112
0.388517 -0.132483 -0.521 178 124 122
0.388762 -0.132229 -0.52 185 131 129
0.389752 -0.132229 -0.52 190 136 134
0.389991 -0.131974 -0.519 192 138 136
0.39098 -0.131974 -0.519 194 139 136
0.391213 -0.13172 -0.518 193 138 135
0.3922 -0.13172 -0.518 192 137 134
0.393946 -0.131974 -0.519 190 135 132
0.394934 -0.131974 -0.519 183 128 123
0.396686 -0.132229 -0.52 183 128 123
0.398441 -0.132483 -0.521 185 130 125
0.400967 -0.132991 -0.523 173 118 113
0.402731 -0.133246 -0.524 167 112 107
0.4045 -0.1335 -0.525 164 109 104
0.407045 -0.134009 -0.527 160 105 100
0.409597 -0.134517 -0.529 162 107 102
0.411381 -0.134771 -0.53 155 100 95
0.413169 -0.135026 -0.531 145 90 85
0.41496 -0.13528 -0.532 141 86 81
0.416755 -0.135534 -0.533 147 92 87
0.418554 -0.135789 -0.534 149 94 91
0.419571 -0.135789 -0.534 157 102 99
0.420589 -0.135789 -0.534 157 102 99
0.421606 -0.135789 -0.534 166 108 107
0.422623 -0.135789 -0.534 169 111 110
0.42364 -0.135789 -0.534 170 112 111
0.424657 -0.135789 -0.534 170 112 111
0.425674 -0.135789 -0.534 171 113 111
0.426691 -0.135789 -0.534 171 113 111
0.427709 -0.135789 -0.534 172 117 114
0.429529 -0.136043 -0.535 167 112 109
0.430548 -0.136043 -0.535 165 107 105
0.431567 -0.136043 -0.535 161 103 101
0.433394 -0.136297 -0.536 158 103 100
0.436036 -0.136806 -0.538 156 101 98
0.437873 -0.13706 -0.539 152 101 98
0.442971 -0.138331 -0.544 155 104 101
0.448089 -0.139603 -0.549 162 106 105
0.265595 -0.14731 -0.575 80 70 79
0.262052 -0.144748 -0.565 79 69 78
0.262663 -0.144491 -0.564 86 77 82
0.26327 -0.144235 -0.563 93 84 89
0.263403 -0.143723 -0.561 67 52 59
0.263529 -0.14321 -0.559 58 43 50
0.264593 -0.14321 -0.559 57 44 51
0.265658 -0.14321 -0.559 59 46 53
0.266723 -0.14321 -0.559 61 44 54
0.267788 -0.14321 -0.559 61 44 54
0.268852 -0.14321 -0.559 64 47 55
0.269917 -0.14321 -0.559 64 47 55
0.270982 -0.14321 -0.559 64 47 55
0.272047 -0.14321 -0.559 62 45 53
0.273111 -0.14321 -0.559 66 49 57
0.274176 -0.14321 -0.559 67 50 58
0.275241 -0.14321 -0.559 66 49 57
0.276306 -0.14321 -0.559 68 51 59
0.27737 -0.14321 -0.559 68 51 59
0.278435 -0.14321 -0.559 66 51 58
0.28 -0.143467 -0.56 68 53 60
0.281067 -0.143467 -0.56 62 47 54
0.282133 -0.143467 -0.56 69 54 61
0.282694 -0.14321 -0.559 72 57 64
0.283759 -0.14321 -0.559 66 51 58
0.284824 -0.14321 -0.559 71 55 65
0.285889 -0.14321 -0.559 71 55 65
0.287467 -0.143467 -0.56 66 55 61
0.288533 -0.143467 -0.56 65 54 60
0.2896 -0.143467 -0.56 76 61 68
0.290667 -0.143467 -0.56 68 53 60
0.291212 -0.14321 -0.559 75 58 68
0.292277 -0.14321 -0.559 69 52 62
0.293342 -0.14321 -0.559 73 57 68
0.29388 -0.142954 -0.558 70 54 65
0.294943 -0.142954 -0.558 70 54 65
0.294945 -0.142442 -0.556 78 65 74
0.294407 -0.141673 -0.553 77 64 73
0.293857 -0.140905 -0.55 73 56 62
0.292224 -0.139624 -0.545 94 77 83
0.29111 -0.138599 -0.541 133 108 114
0.28944 -0.137318 -0.536 133 108 114
0.288293 -0.136293 -0.532 140 111 116
0.287131 -0.135269 -0.528 140 111 116
0.287046 -0.134756 -0.526 138 105 112
0.286952 -0.134244 -0.524 140 107 114
0.287401 -0.133988 -0.523 140 107 114
0.287846 -0.133731 -0.522 141 108 115
0.288287 -0.133475 -0.521 142 109 116
0.288724 -0.133219 -0.52 141 108 115
0.289714 -0.133219 -0.52 141 108 115
0.290146 -0.132963 -0.519 140 107 114
0.291134 -0.132963 -0.519 137 104 111
0.292123 -0.132963 -0.519 137 104 111
0.293111 -0.132963 -0.519 137 104 111
0.2941 -0.132963 -0.519 139 106 113
0.29452 -0.132707 -0.518 140 107 114
0.295507 -0.132707 -0.518 140 107 114
0.296493 -0.132707 -0.518 141 108 115
0.29748 -0.132707 -0.518 140 107 114
0.298467 -0.132707 -0.518 139 106 113
0.299453 -0.132707 -0.518 139 106 113
0.29986 -0.13245 -0.517 139 106 113
0.300845 -0.13245 -0.517 139 106 113
0.30183 -0.13245 -0.517 139 106 113
0.302814 -0.13245 -0.517 138 105 112
0.303799 -0.13245 -0.517 139 106 113
0.304784 -0.13245 -0.517 140 107 114
0.305769 -0.13245 -0.517 138 105 112
0.30616 -0.132194 -0.516 139 106 113
0.307143 -0.132194 -0.516 140 107 114
0.308126 -0.132194 -0.516 139 106 113
0.309109 -0.132194 -0.516 140 107 114
0.310091 -0.132194 -0.516 140 107 114
0.310471 -0.131938 -0.515 140 107 114
0.311452 -0.131938 -0.515 139 106 113
0.312433 -0.131938 -0.515 139 106 113
0.312806 -0.131682 -0.514 137 106 111
0.313785 -0.131682 -0.514 137 106 111
0.314764 -0.131682 -0.514 137 106 111
0.315743 -0.131682 -0.514 138 107 112
0.316722 -0.131682 -0.514 138 107 112
0.317083 -0.131426 -0.513 138 107 112
0.31806 -0.131426 -0.513 138 107 112
0.319037 -0.131426 -0.513 139 108 113
0.31939 -0.13117 -0.512 138 107 112
0.320366 -0.13117 -0.512 136 105 110
0.321341 -0.13117 -0.512 139 108 113
0.322316 -0.13117 -0.512 139 108 113
0.32266 -0.130913 -0.511 138 107 112
0.323633 -0.130913 -0.511 138 109 113
0.324607 -0.130913 -0.511 140 111 115
0.324943 -0.130657 -0.51 138 109 113
0.325914 -0.130657 -0.51 134 105 109
0.326886 -0.130657 -0.51 139 108 114
0.327857 -0.130657 -0.51 140 109 115
0.328829 -0.130657 -0.51 141 110 115
0.329153 -0.130401 -0.509 140 109 114
0.330123 -0.130401 -0.509 138 107 112
0.331092 -0.130401 -0.509 136 105 110
0.332062 -0.130401 -0.509 136 105 111
0.333031 -0.130401 -0.509 136 105 111
0.334001 -0.130401 -0.509 137 106 112
0.33497 -0.130401 -0.509 139 108 114
0.33594 -0.130401 -0.509 137 106 112
0.33691 -0.130401 -0.509 138 107 112
0.337215 -0.130145 -0.508 132 101 106
0.338183 -0.130145 -0.508 124 93 98
0.33915 -0.130145 -0.508 130 99 104
0.340118 -0.130145 -0.508 138 107 113
0.341086 -0.130145 -0.508 136 105 111
0.34138 -0.129889 -0.507 136 106 114
0.342346 -0.129889 -0.507 136 106 114
0.343311 -0.129889 -0.507 133 103 111
0.344277 -0.129889 -0.507 134 104 112
0.345243 -0.129889 -0.507 133 103 111
0.345526 -0.129632 -0.506 133 103 111
0.34649 -0.129632 -0.506 137 107 115
0.346767 -0.129376 -0.505 135 105 113
0.347729 -0.129376 -0.505 129 99 107
0.34869 -0.129376 -0.505 113 83 91
0.349652 -0.129376 -0.505 105 75 83
0.350614 -0.129376 -0.505 110 80 88
0.351576 -0.129376 -0.505 110 80 88
0.352538 -0.129376 -0.505 127 97 105
0.3535 -0.129376 -0.505 133 103 111
0.354462 -0.129376 -0.505 132 102 110
0.356128 -0.129632 -0.506 129 99 107
0.357091 -0.129632 -0.506 134 104 112
0.358763 -0.129889 -0.507 121 91 99
0.360438 -0.130145 -0.508 78 59 63
0.364963 -0.131426 -0.513 56 37 41
0.369507 -0.132707 -0.518 55 43 47
0.37407 -0.133988 -0.523 58 46 50
0.39572 -0.13988 -0.546 83 68 71
0.3924 -0.138343 -0.54 90 75 78
0.391243 -0.137574 -0.537 104 82 84
0.389344 -0.13655 -0.533 97 75 77
0.388162 -0.135781 -0.53 97 65 68
0.387703 -0.135269 -0.528 106 74 77
0.387236 -0.134756 -0.526 128 74 72
0.386762 -0.134244 -0.524 140 86 84
0.38776 -0.134244 -0.524 140 86 84
0.388016 -0.133988 -0.523 154 100 98
0.388269 -0.133731 -0.522 166 112 110
0.388517 -0.133475 -0.521 175 121 119
0.388762 -0.133219 -0.52 182 128 126
0.389752 -0.133219 -0.52 187 133 131
0.389991 -0.132963 -0.519 188 134 132
0.39098 -0.132963 -0.519 187 132 129
0.391213 -0.132707 -0.518 189 134 131
0.3922 -0.132707 -0.518 191 136 133
0.393187 -0.132707 -0.518 190 135 132
0.394934 -0.132963 -0.519 185 130 127
0.396686 -0.133219 -0.52 184 129 126
0.397676 -0.133219 -0.52 183 128 123
0.4002 -0.133731 -0.522 172 117 112
0.401963 -0.133988 -0.523 168 115 109
0.4045 -0.1345 -0.525 167 114 108
0.406272 -0.134756 -0.526 163 108 105
0.408823 -0.135269 -0.528 163 108 105
0.411381 -0.135781 -0.53 158 103 100
0.413169 -0.136037 -0.531 147 92 89
0.41496 -0.136293 -0.532 138 83 78
0.416755 -0.13655 -0.533 143 88 83
0.41777 -0.13655 -0.533 152 97 94
0.418786 -0.13655 -0.533 160 105 102
0.419801 -0.13655 -0.533 160 105 102
0.420816 -0.13655 -0.533 167 109 108
0.421831 -0.13655 -0.533 168 110 109
0.42364 -0.136806 -0.534 170 112 111
0.424657 -0.136806 -0.534 170 112 111
0.425674 -0.136806 -0.534 169 111 109
0.426691 -0.136806 -0.534 169 111 109
0.427709 -0.136806 -0.534 167 111 110
0.428726 -0.136806 -0.534 165 109 108
0.430548 -0.137062 -0.535 165 107 106
0.431567 -0.137062 -0.535 163 105 104
0.433394 -0.137318 -0.536 160 104 103
0.436036 -0.13783 -0.538 159 103 102
0.437873 -0.138087 -0.539 151 102 98
0.442971 -0.139368 -0.544 148 99 95
0.448089 -0.140649 -0.549 157 103 103
0.453225 -0.14193 -0.554 167 113 113
0.26634 -0.149437 -0.579 85 72 79
0.264671 -0.147889 -0.573 78 71 79
0.262516 -0.146082 -0.566 75 68 76
0.262663 -0.145566 -0.564 92 85 92
0.262802 -0.14505 -0.562 80 73 80
0.262933 -0.144533 -0.56 60 40 49
0.263057 -0.144017 -0.558 63 43 52
0.26412 -0.144017 -0.558 62 45 55
0.265183 -0.144017 -0.558 60 43 53
0.266246 -0.144017 -0.558 61 45 56
0.267309 -0.144017 -0.558 63 47 58
0.268371 -0.144017 -0.558 68 51 59
0.269434 -0.144017 -0.558 66 49 57
0.270497 -0.144017 -0.558 66 49 57
0.27156 -0.144017 -0.558 65 48 56
0.272623 -0.144017 -0.558 67 50 58
0.273686 -0.144017 -0.558 67 50 58
0.274749 -0.144017 -0.558 69 52 60
0.275811 -0.144017 -0.558 70 54 64
0.276874 -0.144017 -0.558 68 52 62
0.277937 -0.144017 -0.558 71 55 65
0.279 -0.144017 -0.558 69 53 63
0.280565 -0.144275 -0.559 67 51 61
0.28163 -0.144275 -0.559 68 52 62
0.282189 -0.144017 -0.558 71 55 65
0.283251 -0.144017 -0.558 68 52 62
0.284314 -0.144017 -0.558 70 54 64
0.285377 -0.144017 -0.558 74 58 68
0.28644 -0.144017 -0.558 66 55 61
0.288018 -0.144275 -0.559 68 57 63
0.289083 -0.144275 -0.559 71 54 62
0.290148 -0.144275 -0.559 69 52 60
0.290691 -0.144017 -0.558 73 53 64
0.291754 -0.144017 -0.558 72 52 63
0.292292 -0.143759 -0.557 65 49 60
0.293353 -0.143759 -0.557 67 51 62
0.294414 -0.143759 -0.557 67 51 62
0.294414 -0.143243 -0.555 63 50 59
0.293342 -0.14221 -0.551 62 49 58
0.292254 -0.141178 -0.547 67 48 54
0.291151 -0.140146 -0.543 86 67 73
0.290033 -0.139113 -0.539 139 114 120
0.2889 -0.138081 -0.535 134 109 115
0.288293 -0.137307 -0.532 140 111 116
0.287131 -0.136274 -0.528 143 114 119
0.287046 -0.135758 -0.526 138 105 112
0.286952 -0.135242 -0.524 140 107 114
0.287401 -0.134984 -0.523 140 107 114
0.287846 -0.134726 -0.522 141 108 115
0.288287 -0.134468 -0.521 142 109 116
0.288724 -0.13421 -0.52 141 108 115
0.289714 -0.13421 -0.52 141 108 115
0.290146 -0.133951 -0.519 140 107 114
0.291134 -0.133951 -0.519 139 106 113
0.292123 -0.133951 -0.519 138 105 112
0.293111 -0.133951 -0.519 137 104 111
0.2941 -0.133951 -0.519 138 105 112
0.29452 -0.133693 -0.518 140 107 114
0.295507 -0.133693 -0.518 140 107 114
0.296493 -0.133693 -0.518 141 108 115
0.29748 -0.133693 -0.518 140 107 114
0.298467 -0.133693 -0.518 140 107 114
0.298875 -0.133435 -0.517 140 107 114
0.29986 -0.133435 -0.517 139 106 113
0.300845 -0.133435 -0.517 139 106 113
0.30183 -0.133435 -0.517 139 106 113
0.302814 -0.133435 -0.517 139 106 113
0.303799 -0.133435 -0.517 140 107 114
0.304784 -0.133435 -0.517 140 107 114
0.305769 -0.133435 -0.517 139 106 113
0.30616 -0.133177 -0.516 140 107 114
0.307143 -0.133177 -0.516 140 107 114
0.308126 -0.133177 -0.516 140 107 114
0.309109 -0.133177 -0.516 139 106 113
0.30949 -0.132919 -0.515 140 107 114
0.310471 -0.132919 -0.515 140 107 114
0.311452 -0.132919 -0.515 139 106 113
0.312433 -0.132919 -0.515 139 106 113
0.313414 -0.132919 -0.515 137 106 111
0.313785 -0.132661 -0.514 137 106 111
0.314764 -0.132661 -0.514 137 106 111
0.315743 -0.132661 -0.514 138 107 113
0.316106 -0.132403 -0.513 138 107 113
0.317083 -0.132403 -0.513 138 107 113
0.31806 -0.132403 -0.513 138 107 113
0.319037 -0.132403 -0.513 139 108 113
0.320014 -0.132403 -0.513 138 107 112
0.320366 -0.132145 -0.512 138 107 112
0.321341 -0.132145 -0.512 142 111 116
0.322316 -0.132145 -0.512 140 109 115
0.32266 -0.131887 -0.511 138 107 113
0.323633 -0.131887 -0.511 140 109 115
0.324607 -0.131887 -0.511 137 106 112
0.32558 -0.131887 -0.511 133 102 107
0.325914 -0.131629 -0.51 142 111 116
0.326886 -0.131629 -0.51 142 112 120
0.327857 -0.131629 -0.51 141 111 119
0.328829 -0.131629 -0.51 136 107 112
0.3298 -0.131629 -0.51 136 107 112
0.330123 -0.13137 -0.509 141 110 116
0.331092 -0.13137 -0.509 140 109 115
0.332062 -0.13137 -0.509 137 107 115
0.333031 -0.13137 -0.509 137 107 115
0.334001 -0.13137 -0.509 135 105 113
0.33497 -0.13137 -0.509 134 103 111
0.33594 -0.13137 -0.509 136 105 113
0.33691 -0.13137 -0.509 134 103 109
0.337215 -0.131112 -0.508 120 89 95
0.338183 -0.131112 -0.508 115 82 89
0.33915 -0.131112 -0.508 130 97 104
0.340118 -0.131112 -0.508 138 107 113
0.341086 -0.131112 -0.508 133 102 108
0.34138 -0.130854 -0.507 136 107 112
0.342346 -0.130854 -0.507 136 107 112
0.343311 -0.130854 -0.507 133 104 109
0.344277 -0.130854 -0.507 135 106 111
0.345243 -0.130854 -0.507 135 106 111
0.345526 -0.130596 -0.506 133 104 109
0.34649 -0.130596 -0.506 136 107 112
0.346767 -0.130338 -0.505 136 107 112
0.347729 -0.130338 -0.505 132 103 108
0.34869 -0.130338 -0.505 122 93 98
0.349652 -0.130338 -0.505 121 90 96
0.350614 -0.130338 -0.505 122 91 97
0.351576 -0.130338 -0.505 122 91 97
0.352538 -0.130338 -0.505 133 102 108
0.3535 -0.130338 -0.505 136 105 111
0.354462 -0.130338 -0.505 132 103 108
0.356128 -0.130596 -0.506 132 103 108
0.357797 -0.130854 -0.507 131 104 111
0.358763 -0.130854 -0.507 111 84 91
0.360438 -0.131112 -0.508 71 52 56
0.397487 -0.141178 -0.547 90 75 78
0.394157 -0.13963 -0.541 102 77 80
0.391535 -0.138339 -0.536 98 73 76
0.389627 -0.137307 -0.532 98 66 71
0.388437 -0.136532 -0.529 103 71 76
0.387972 -0.136016 -0.527 126 72 70
0.3875 -0.1355 -0.525 138 84 82
0.3885 -0.1355 -0.525 138 84 82
0.388016 -0.134984 -0.523 150 96 94
0.388269 -0.134726 -0.522 161 107 105
0.389263 -0.134726 -0.522 170 116 114
0.38951 -0.134468 -0.521 177 123 121
0.389752 -0.13421 -0.52 183 129 127
0.389991 -0.133951 -0.519 185 131 129
0.39098 -0.133951 -0.519 183 129 127
0.391213 -0.133693 -0.518 187 133 131
0.3922 -0.133693 -0.518 191 136 133
0.393187 -0.133693 -0.518 191 136 133
0.394173 -0.133693 -0.518 188 133 130
0.395923 -0.133951 -0.519 182 127 124
0.397676 -0.13421 -0.52 176 121 118
0.399433 -0.134468 -0.521 170 115 112
0.401194 -0.134726 -0.522 173 120 114
0.40373 -0.135242 -0.524 170 117 111
0.406272 -0.135758 -0.526 163 109 107
0.408049 -0.136016 -0.527 159 105 103
0.410605 -0.136532 -0.529 155 101 99
0.41239 -0.13679 -0.53 151 97 95
0.41418 -0.137049 -0.531 137 84 80
0.415973 -0.137307 -0.532 135 82 78
0.41777 -0.137565 -0.533 144 91 85
0.418786 -0.137565 -0.533 152 99 93
0.419801 -0.137565 -0.533 152 99 93
0.420816 -0.137565 -0.533 162 107 104
0.421831 -0.137565 -0.533 167 112 109
0.422847 -0.137565 -0.533 170 114 113
0.423862 -0.137565 -0.533 171 115 114
0.425674 -0.137823 -0.534 169 114 111
0.426691 -0.137823 -0.534 169 114 111
0.427709 -0.137823 -0.534 168 112 111
0.428726 -0.137823 -0.534 163 107 106
0.430548 -0.138081 -0.535 162 104 103
0.431567 -0.138081 -0.535 163 105 104
0.433394 -0.138339 -0.536 162 108 106
0.435226 -0.138597 -0.537 159 105 103
0.437873 -0.139113 -0.539 147 99 97
0.442157 -0.140146 -0.543 144 96 94
0.448089 -0.141694 -0.549 147 96 95
0.2645 -0.1495 -0.575 86 71 78
0.262824 -0.14794 -0.569 80 73 81
0.262052 -0.1469 -0.565 79 72 80
0.262663 -0.14664 -0.564 99 92 99
0.262802 -0.14612 -0.562 68 61 68
0.262464 -0.14534 -0.559 66 44 56
0.262586 -0.14482 -0.557 74 52 64
0.263647 -0.14482 -0.557 64 44 55
0.264708 -0.14482 -0.557 65 45 56
0.265769 -0.14482 -0.557 63 47 60
0.26683 -0.14482 -0.557 65 49 62
0.26789 -0.14482 -0.557 69 53 63
0.268951 -0.14482 -0.557 67 51 61
0.270012 -0.14482 -0.557 67 51 61
0.271073 -0.14482 -0.557 70 54 64
0.272134 -0.14482 -0.557 67 51 61
0.273195 -0.14482 -0.557 65 49 59
0.274256 -0.14482 -0.557 68 52 62
0.275317 -0.14482 -0.557 68 52 62
0.276378 -0.14482 -0.557 71 55 65
0.277439 -0.14482 -0.557 68 52 62
0.2785 -0.14482 -0.557 72 56 66
0.279561 -0.14482 -0.557 74 58 68
0.280622 -0.14482 -0.557 89 73 83
0.281683 -0.14482 -0.557 97 81 91
0.282744 -0.14482 -0.557 90 74 84
0.283805 -0.14482 -0.557 88 72 82
0.284866 -0.14482 -0.557 81 65 75
0.285927 -0.14482 -0.557 84 73 79
0.286988 -0.14482 -0.557 71 60 66
0.288049 -0.14482 -0.557 87 70 78
0.28911 -0.14482 -0.557 77 60 68
0.29017 -0.14482 -0.557 76 56 67
0.290709 -0.14456 -0.556 76 56 67
0.291768 -0.14456 -0.556 69 53 64
0.2923 -0.1443 -0.555 70 54 65
0.293357 -0.1443 -0.555 70 54 65
0.293353 -0.14378 -0.553 61 48 58
0.292277 -0.14274 -0.549 64 51 61
0.29172 -0.14196 -0.546 63 44 50
0.290079 -0.14066 -0.541 97 78 84
0.288957 -0.13962 -0.537 138 111 118
0.28836 -0.13884 -0.534 141 114 121
0.287751 -0.13806 -0.531 142 113 118
0.287131 -0.13728 -0.528 138 109 114
0.287046 -0.13676 -0.526 138 105 112
0.286952 -0.13624 -0.524 141 108 115
0.287401 -0.13598 -0.523 140 107 114
0.287846 -0.13572 -0.522 141 108 115
0.28884 -0.13572 -0.522 142 109 116
0.289279 -0.13546 -0.521 141 108 115
0.289714 -0.1352 -0.52 140 107 114
0.290705 -0.1352 -0.52 140 107 114
0.291134 -0.13494 -0.519 141 108 115
0.292123 -0.13494 -0.519 141 108 115
0.293111 -0.13494 -0.519 138 105 112
0.2941 -0.13494 -0.519 137 104 111
0.29452 -0.13468 -0.518 140 107 114
0.295507 -0.13468 -0.518 140 107 114
0.296493 -0.13468 -0.518 140 107 114
0.29748 -0.13468 -0.518 139 106 113
0.298467 -0.13468 -0.518 140 107 114
0.299453 -0.13468 -0.518 138 105 112
0.29986 -0.13442 -0.517 139 106 113
0.300845 -0.13442 -0.517 140 107 114
0.30183 -0.13442 -0.517 140 107 114
0.302814 -0.13442 -0.517 141 108 115
0.303799 -0.13442 -0.517 140 107 114
0.304784 -0.13442 -0.517 139 106 113
0.305177 -0.13416 -0.516 139 106 113
0.30616 -0.13416 -0.516 139 106 113
0.307143 -0.13416 -0.516 140 107 114
0.308126 -0.13416 -0.516 139 106 113
0.309109 -0.13416 -0.516 139 106 113
0.30949 -0.1339 -0.515 140 107 114
0.310471 -0.1339 -0.515 139 106 113
0.311452 -0.1339 -0.515 139 106 113
0.312433 -0.1339 -0.515 141 108 115
0.313414 -0.1339 -0.515 138 107 112
0.313785 -0.13364 -0.514 137 106 111
0.314764 -0.13364 -0.514 137 106 111
0.315743 -0.13364 -0.514 138 107 113
0.316106 -0.13338 -0.513 138 107 113
0.317083 -0.13338 -0.513 138 107 113
0.31806 -0.13338 -0.513 138 107 113
0.319037 -0.13338 -0.513 140 108 113
0.320014 -0.13338 -0.513 139 107 112
0.320366 -0.13312 -0.512 140 108 113
0.321341 -0.13312 -0.512 140 108 113
0.322316 -0.13312 -0.512 138 105 112
0.32266 -0.13286 -0.511 139 106 113
0.323633 -0.13286 -0.511 144 111 118
0.324607 -0.13286 -0.511 138 105 112
0.32558 -0.13286 -0.511 140 108 113
0.326553 -0.13286 -0.511 168 136 141
0.326886 -0.1326 -0.51 192 166 175
0.327857 -0.1326 -0.51 177 151 160
0.328829 -0.1326 -0.51 148 121 128
0.3298 -0.1326 -0.51 135 108 115
0.330771 -0.1326 -0.51 138 111 118
0.331092 -0.13234 -0.509 137 110 117
0.332062 -0.13234 -0.509 135 108 115
0.333031 -0.13234 -0.509 135 108 115
0.334001 -0.13234 -0.509 133 106 113
0.33497 -0.13234 -0.509 136 109 116
0.33594 -0.13234 -0.509 133 106 113
0.33691 -0.13234 -0.509 136 105 111
0.337215 -0.13208 -0.508 129 98 104
0.338183 -0.13208 -0.508 127 96 102
0.33915 -0.13208 -0.508 137 106 112
0.340118 -0.13208 -0.508 139 109 117
0.341086 -0.13208 -0.508 137 107 115
0.34138 -0.13182 -0.507 137 108 113
0.342346 -0.13182 -0.507 139 110 115
0.343311 -0.13182 -0.507 135 106 111
0.344277 -0.13182 -0.507 134 105 110
0.345243 -0.13182 -0.507 136 107 112
0.345526 -0.13156 -0.506 136 107 112
0.34649 -0.13156 -0.506 136 107 112
0.346767 -0.1313 -0.505 135 106 111
0.347729 -0.1313 -0.505 137 106 112
0.34869 -0.1313 -0.505 133 102 108
0.349652 -0.1313 -0.505 136 103 110
0.350614 -0.1313 -0.505 132 99 106
0.351576 -0.1313 -0.505 132 99 106
0.352538 -0.1313 -0.505 136 105 111
0.3535 -0.1313 -0.505 135 104 110
0.354462 -0.1313 -0.505 131 102 107
0.356128 -0.13156 -0.506 134 105 110
0.357797 -0.13182 -0.507 128 103 109
0.35947 -0.13208 -0.508 105 80 86
0.361148 -0.13234 -0.509 67 48 52
0.40112 -0.14352 -0.552 89 74 77
0.3978 -0.14196 -0.546 99 74 77
0.392266 -0.13962 -0.537 99 74 77
0.390359 -0.13858 -0.533 101 69 74
0.389171 -0.1378 -0.53 103 71 76
0.388709 -0.13728 -0.528 125 74 71
0.388238 -0.13676 -0.526 137 86 83
0.38924 -0.13676 -0.526 137 86 83
0.388758 -0.13624 -0.524 148 94 92
0.389012 -0.13598 -0.523 157 103 101
0.389263 -0.13572 -0.522 166 112 110
0.38951 -0.13546 -0.521 173 119 117
0.389752 -0.1352 -0.52 180 126 124
0.390743 -0.1352 -0.52 184 130 128
0.39098 -0.13494 -0.519 183 129 127
0.391969 -0.13494 -0.519 185 131 129
0.3922 -0.13468 -0.518 190 134 133
0.393187 -0.13468 -0.518 190 134 133
0.394173 -0.13468 -0.518 188 132 131
0.395923 -0.13494 -0.519 181 125 124
0.396911 -0.13494 -0.519 174 118 117
0.398667 -0.1352 -0.52 174 118 117
0.401194 -0.13572 -0.522 172 122 115
0.402959 -0.13598 -0.523 169 119 112
0.4055 -0.1365 -0.525 165 111 109
0.408049 -0.13702 -0.527 161 107 105
0.409829 -0.13728 -0.528 164 110 110
0.411612 -0.13754 -0.529 169 115 115
0.4134 -0.1378 -0.53 154 101 97
0.415191 -0.13806 -0.531 144 91 87
0.416987 -0.13832 -0.532 141 88 82
0.418 -0.13832 -0.532 148 95 89
0.419013 -0.13832 -0.532 148 95 89
0.420816 -0.13858 -0.533 158 103 100
0.421831 -0.13858 -0.533 163 108 105
0.422847 -0.13858 -0.533 165 109 108
0.423862 -0.13858 -0.533 166 110 109
0.424877 -0.13858 -0.533 165 112 108
0.426691 -0.13884 -0.534 165 112 108
0.427709 -0.13884 -0.534 168 112 111
0.428726 -0.13884 -0.534 166 110 109
0.430548 -0.1391 -0.535 165 109 108
0.431567 -0.1391 -0.535 164 108 107
0.433394 -0.13936 -0.536 159 108 105
0.435226 -0.13962 -0.537 151 100 97
0.437061 -0.13988 -0.538 139 94 89
0.442157 -0.14118 -0.543 142 97 92
0.26358 -0.150071 -0.573 88 76 80
0.262362 -0.148762 -0.568 81 74 81
0.261589 -0.147714 -0.564 87 80 87
0.261731 -0.14719 -0.562 81 74 81
0.261867 -0.146667 -0.56 57 50 57
0.262464 -0.146405 -0.559 61 48 57
0.262586 -0.145881 -0.557 66 53 62
0.263647 -0.145881 -0.557 64 44 55
0.264232 -0.145619 -0.556 66 46 57
0.265291 -0.145619 -0.556 71 50 59
0.26635 -0.145619 -0.556 69 48 57
0.26741 -0.145619 -0.556 64 48 58
0.268469 -0.145619 -0.556 64 48 58
0.269528 -0.145619 -0.556 64 48 58
0.270587 -0.145619 -0.556 65 49 59
0.271646 -0.145619 -0.556 65 49 59
0.272705 -0.145619 -0.556 65 48 58
0.273764 -0.145619 -0.556 65 48 58
0.274823 -0.145619 -0.556 65 49 59
0.275882 -0.145619 -0.556 67 51 61
0.276941 -0.145619 -0.556 65 50 57
0.278 -0.145619 -0.556 75 60 67
0.279059 -0.145619 -0.556 84 73 79
0.280118 -0.145619 -0.556 103 92 98
0.281177 -0.145619 -0.556 103 90 97
0.282236 -0.145619 -0.556 105 92 99
0.283295 -0.145619 -0.556 112 97 104
0.284354 -0.145619 -0.556 98 83 90
0.285413 -0.145619 -0.556 112 97 104
0.286472 -0.145619 -0.556 105 90 97
0.287531 -0.145619 -0.556 110 98 108
0.28859 -0.145619 -0.556 93 81 91
0.28965 -0.145619 -0.556 103 93 104
0.290709 -0.145619 -0.556 88 78 89
0.291243 -0.145357 -0.555 87 77 86
0.291773 -0.145095 -0.554 88 78 87
0.292829 -0.145095 -0.554 88 78 87
0.292292 -0.14431 -0.551 82 69 79
0.291745 -0.143524 -0.548 85 72 82
0.290651 -0.142476 -0.544 75 55 66
0.289543 -0.141429 -0.54 119 99 110
0.288419 -0.140381 -0.536 137 110 119
0.28782 -0.139595 -0.533 136 109 118
0.28721 -0.13881 -0.53 138 105 112
0.286588 -0.138024 -0.527 139 106 113
0.287046 -0.137762 -0.526 139 108 114
0.286952 -0.137238 -0.524 139 108 114
0.287401 -0.136976 -0.523 139 108 114
0.287846 -0.136714 -0.522 139 108 114
0.288287 -0.136452 -0.521 141 110 116
0.289279 -0.136452 -0.521 142 111 117
0.289714 -0.13619 -0.52 141 108 115
0.290705 -0.13619 -0.52 139 106 113
0.291134 -0.135929 -0.519 139 106 113
0.292123 -0.135929 -0.519 140 107 114
0.293111 -0.135929 -0.519 140 107 114
0.2941 -0.135929 -0.519 140 107 114
0.295089 -0.135929 -0.519 141 108 115
0.296077 -0.135929 -0.519 141 108 115
0.296493 -0.135667 -0.518 141 108 115
0.29748 -0.135667 -0.518 140 107 114
0.298467 -0.135667 -0.518 139 106 113
0.299453 -0.135667 -0.518 139 106 113
0.30044 -0.135667 -0.518 139 106 113
0.300845 -0.135405 -0.517 140 108 113
0.30183 -0.135405 -0.517 139 107 112
0.302814 -0.135405 -0.517 140 108 113
0.303799 -0.135405 -0.517 140 108 113
0.304784 -0.135405 -0.517 139 106 113
0.305177 -0.135143 -0.516 140 107 114
0.30616 -0.135143 -0.516 138 107 113
0.307143 -0.135143 -0.516 138 107 113
0.308126 -0.135143 -0.516 138 107 112
0.309109 -0.135143 -0.516 138 107 112
0.30949 -0.134881 -0.515 138 107 112
0.310471 -0.134881 -0.515 138 107 112
0.311452 -0.134881 -0.515 138 107 113
0.312433 -0.134881 -0.515 138 107 113
0.313414 -0.134881 -0.515 138 107 112
0.313785 -0.134619 -0.514 138 107 112
0.314764 -0.134619 -0.514 138 107 112
0.315743 -0.134619 -0.514 138 107 112
0.316106 -0.134357 -0.513 138 107 112
0.317083 -0.134357 -0.513 138 106 111
0.31806 -0.134357 -0.513 138 106 111
0.319037 -0.134357 -0.513 138 106 111
0.320014 -0.134357 -0.513 138 106 111
0.320366 -0.134095 -0.512 138 107 112
0.321341 -0.134095 -0.512 137 106 111
0.322316 -0.134095 -0.512 137 108 113
0.323291 -0.134095 -0.512 135 106 111
0.323633 -0.133833 -0.511 141 110 116
0.324607 -0.133833 -0.511 137 106 112
0.32558 -0.133833 -0.511 138 105 112
0.326553 -0.133833 -0.511 206 173 180
0.327527 -0.133833 -0.511 226 217 218
0.327857 -0.133571 -0.51 223 214 215
0.328829 -0.133571 -0.51 215 194 201
0.3298 -0.133571 -0.51 174 153 160
0.330771 -0.133571 -0.51 146 114 125
0.331743 -0.133571 -0.51 141 109 120
0.332062 -0.13331 -0.509 134 103 111
0.333031 -0.13331 -0.509 134 103 111
0.334001 -0.13331 -0.509 131 100 108
0.33497 -0.13331 -0.509 133 103 111
0.33594 -0.13331 -0.509 136 106 114
0.33691 -0.13331 -0.509 132 101 109
0.337215 -0.133048 -0.508 139 108 116
0.338183 -0.133048 -0.508 134 103 111
0.33915 -0.133048 -0.508 134 103 111
0.340118 -0.133048 -0.508 139 110 115
0.341086 -0.133048 -0.508 136 107 112
0.34138 -0.132786 -0.507 133 106 113
0.342346 -0.132786 -0.507 133 106 113
0.343311 -0.132786 -0.507 133 106 111
0.344277 -0.132786 -0.507 135 108 113
0.345243 -0.132786 -0.507 133 106 111
0.345526 -0.132524 -0.506 133 106 111
0.34649 -0.132524 -0.506 135 106 111
0.346767 -0.132262 -0.505 137 108 113
0.347729 -0.132262 -0.505 137 106 112
0.34869 -0.132262 -0.505 135 104 110
0.349652 -0.132262 -0.505 133 104 109
0.350614 -0.132262 -0.505 135 106 111
0.351576 -0.132262 -0.505 135 106 111
0.352538 -0.132262 -0.505 137 106 112
0.3535 -0.132262 -0.505 133 102 108
0.354462 -0.132262 -0.505 137 104 111
0.356128 -0.132524 -0.506 134 101 108
0.357797 -0.132786 -0.507 123 100 108
0.35947 -0.133048 -0.508 91 68 76
0.361857 -0.133571 -0.51 61 40 47
0.404753 -0.145881 -0.557 85 69 72
0.400714 -0.144048 -0.55 93 71 74
0.395918 -0.141952 -0.542 93 71 74
0.391091 -0.139857 -0.534 92 65 72
0.39064 -0.139333 -0.532 93 66 73
0.389445 -0.138548 -0.529 112 66 69
0.388976 -0.138024 -0.527 129 83 86
0.38998 -0.138024 -0.527 129 83 86
0.3895 -0.1375 -0.525 147 95 97
0.389756 -0.137238 -0.524 155 103 105
0.389263 -0.136714 -0.522 171 113 112
0.38951 -0.136452 -0.521 179 121 120
0.390502 -0.136452 -0.521 183 125 123
0.390743 -0.13619 -0.52 188 130 128
0.39098 -0.135929 -0.519 184 129 124
0.391969 -0.135929 -0.519 186 131 126
0.392957 -0.135929 -0.519 187 134 128
0.393187 -0.135667 -0.518 190 137 131
0.394173 -0.135667 -0.518 188 133 130
0.395923 -0.135929 -0.519 181 126 123
0.396911 -0.135929 -0.519 177 121 120
0.398667 -0.13619 -0.52 177 121 120
0.400426 -0.136452 -0.521 174 118 117
0.402189 -0.136714 -0.522 169 113 112
0.404728 -0.137238 -0.524 168 112 111
0.407274 -0.137762 -0.526 172 116 115
