ply
format ascii 1.0
comment Created by Open3D
element vertex 1303
property double x
property double y
property double z
property uchar red
property uchar green
property uchar blue
end_header
0.293296 -0.486049 -0.547 213 214 216
0.294338 -0.486049 -0.547 212 213 215
0.29592 -0.486937 -0.548 212 212 214
0.296964 -0.486937 -0.548 211 211 213
0.298008 -0.486937 -0.548 211 211 213
0.299597 -0.487826 -0.549 210 210 212
0.300643 -0.487826 -0.549 210 210 210
0.301689 -0.487826 -0.549 210 210 210
0.302734 -0.487826 -0.549 209 209 209
0.30378 -0.487826 -0.549 207 207 207
0.304826 -0.487826 -0.549 207 207 207
0.305871 -0.487826 -0.549 206 206 206
0.306917 -0.487826 -0.549 205 205 205
0.307963 -0.487826 -0.549 205 205 205
0.309571 -0.488714 -0.55 204 204 204
0.310619 -0.488714 -0.55 202 202 202
0.311667 -0.488714 -0.55 201 201 203
0.312714 -0.488714 -0.55 200 200 202
0.314332 -0.489603 -0.551 199 199 201
0.315382 -0.489603 -0.551 199 199 201
0.316431 -0.489603 -0.551 197 197 199
0.317481 -0.489603 -0.551 194 194 196
0.31853 -0.489603 -0.551 196 196 196
0.31958 -0.489603 -0.551 196 196 196
0.32063 -0.489603 -0.551 196 196 198
0.321679 -0.489603 -0.551 195 195 197
0.323314 -0.490491 -0.552 195 195 197
0.324366 -0.490491 -0.552 195 195 197
0.325417 -0.490491 -0.552 194 194 196
0.326469 -0.490491 -0.552 193 193 195
0.32752 -0.490491 -0.552 192 192 194
0.328571 -0.490491 -0.552 191 191 193
0.329623 -0.490491 -0.552 191 189 194
0.330674 -0.490491 -0.552 191 189 194
0.332327 -0.49138 -0.553 191 189 194
0.33338 -0.49138 -0.553 189 187 192
0.335038 -0.492269 -0.554 185 183 186
0.336093 -0.492269 -0.554 183 181 184
0.337149 -0.492269 -0.554 183 182 187
0.338204 -0.492269 -0.554 182 181 186
0.339871 -0.493157 -0.555 180 179 184
0.340929 -0.493157 -0.555 178 177 182
0.341986 -0.493157 -0.555 175 174 179
0.343043 -0.493157 -0.555 175 174 179
0.3441 -0.493157 -0.555 172 171 176
0.345779 -0.494046 -0.556 168 167 172
0.346838 -0.494046 -0.556 167 166 171
0.347897 -0.494046 -0.556 167 166 171
0.348956 -0.494046 -0.556 163 162 167
0.350645 -0.494934 -0.557 160 159 164
0.351706 -0.494934 -0.557 157 156 161
0.352767 -0.494934 -0.557 156 155 160
0.353828 -0.494934 -0.557 154 153 158
0.354889 -0.494934 -0.557 151 150 155
0.356589 -0.495823 -0.558 148 147 152
0.357651 -0.495823 -0.558 148 146 151
0.358714 -0.495823 -0.558 144 142 147
0.359777 -0.495823 -0.558 140 138 143
0.36084 -0.495823 -0.558 136 134 139
0.362551 -0.496711 -0.559 132 130 135
0.363616 -0.496711 -0.559 129 127 132
0.365333 -0.4976 -0.56 125 124 129
0.3664 -0.4976 -0.56 122 121 126
0.367467 -0.4976 -0.56 119 118 123
0.368533 -0.4976 -0.56 116 115 120
0.3696 -0.4976 -0.56 114 113 119
0.370667 -0.4976 -0.56 112 111 117
0.372397 -0.498489 -0.561 109 108 114
0.373466 -0.498489 -0.561 106 105 111
0.374534 -0.498489 -0.561 102 101 107
0.375603 -0.498489 -0.561 98 97 103
0.376671 -0.498489 -0.561 98 95 102
0.37774 -0.498489 -0.561 95 92 99
0.379484 -0.499377 -0.562 93 90 97
0.380554 -0.499377 -0.562 89 86 93
0.381625 -0.499377 -0.562 85 82 89
0.382695 -0.499377 -0.562 82 79 86
0.383766 -0.499377 -0.562 81 78 85
0.384836 -0.499377 -0.562 79 76 83
0.385907 -0.499377 -0.562 77 74 81
0.387666 -0.500266 -0.563 78 75 82
0.388738 -0.500266 -0.563 77 74 81
0.38981 -0.500266 -0.563 76 73 80
0.390883 -0.500266 -0.563 74 71 80
0.391955 -0.500266 -0.563 72 69 78
0.393028 -0.500266 -0.563 72 69 76
0.3941 -0.500266 -0.563 72 69 76
0.395172 -0.500266 -0.563 72 69 76
0.396245 -0.500266 -0.563 71 68 75
0.398023 -0.501154 -0.564 70 67 74
0.399097 -0.501154 -0.564 69 66 73
0.400171 -0.501154 -0.564 69 66 73
0.401246 -0.501154 -0.564 70 67 74
0.403751 -0.500266 -0.563 68 65 72
0.405543 -0.501154 -0.564 68 67 73
0.406617 -0.501154 -0.564 67 66 72
0.408414 -0.502043 -0.565 66 65 71
0.40949 -0.502043 -0.565 64 63 69
0.410567 -0.502043 -0.565 64 63 69
0.410914 -0.501154 -0.564 64 63 69
0.412719 -0.502043 -0.565 65 64 70
0.413795 -0.502043 -0.565 67 66 72
0.415606 -0.502931 -0.566 64 63 69
0.415211 -0.501154 -0.564 63 62 68
0.415548 -0.500266 -0.563 63 62 70
0.41662 -0.500266 -0.563 63 62 70
0.41695 -0.499377 -0.562 64 63 71
0.418021 -0.499377 -0.562 64 63 71
0.419091 -0.499377 -0.562 64 63 71
0.420162 -0.499377 -0.562 64 63 71
0.421232 -0.499377 -0.562 64 63 71
0.421551 -0.498489 -0.561 63 62 70
0.42262 -0.498489 -0.561 64 63 71
0.423689 -0.498489 -0.561 63 62 70
0.425514 -0.499377 -0.562 62 61 69
0.426585 -0.499377 -0.562 62 61 69
0.427655 -0.499377 -0.562 63 62 70
0.428726 -0.499377 -0.562 63 62 70
0.429796 -0.499377 -0.562 62 63 68
0.430867 -0.499377 -0.562 61 62 67
0.431937 -0.499377 -0.562 61 62 67
0.433008 -0.499377 -0.562 61 62 67
0.434078 -0.499377 -0.562 60 61 66
0.435923 -0.500266 -0.563 61 62 67
0.436995 -0.500266 -0.563 62 62 70
0.438068 -0.500266 -0.563 60 60 68
0.43914 -0.500266 -0.563 60 60 68
0.440212 -0.500266 -0.563 60 60 68
0.441285 -0.500266 -0.563 60 60 68
0.442357 -0.500266 -0.563 60 60 68
0.44343 -0.500266 -0.563 60 60 68
0.445291 -0.501154 -0.564 61 61 69
0.446366 -0.501154 -0.564 61 61 69
0.44744 -0.501154 -0.564 59 59 67
0.448514 -0.501154 -0.564 57 57 65
0.449589 -0.501154 -0.564 61 61 69
0.469006 -0.504709 -0.568 42 42 52
0.470915 -0.505597 -0.569 41 41 51
0.472829 -0.506486 -0.57 40 40 50
0.473914 -0.506486 -0.57 40 40 50
0.475833 -0.507374 -0.571 39 39 49
0.477756 -0.508263 -0.572 36 36 48
0.479683 -0.509151 -0.573 33 33 45
0.481613 -0.51004 -0.574 32 32 44
0.483548 -0.510929 -0.575 30 30 42
0.486329 -0.512706 -0.577 26 26 38
0.488272 -0.513594 -0.578 24 24 36
0.491067 -0.515371 -0.58 23 23 35
0.51839 -0.470943 -0.53 102 92 90
0.51646 -0.468277 -0.527 106 96 94
0.5155 -0.4665 -0.525 112 94 82
0.514532 -0.464723 -0.523 113 95 83
0.512571 -0.462057 -0.52 119 97 86
0.511587 -0.46028 -0.518 122 100 89
0.510594 -0.458503 -0.516 126 99 88
0.509594 -0.456726 -0.514 126 99 88
0.508587 -0.454949 -0.512 128 102 89
0.506576 -0.452283 -0.509 129 103 90
0.506549 -0.451394 -0.508 128 105 89
0.505518 -0.449617 -0.506 129 106 90
0.50448 -0.44784 -0.504 131 105 88
0.503434 -0.446063 -0.502 131 105 88
0.503386 -0.445174 -0.501 134 105 87
0.503333 -0.444286 -0.5 136 107 89
0.502269 -0.442509 -0.498 141 108 91
0.501196 -0.440731 -0.496 141 108 91
0.501129 -0.439843 -0.495 142 109 90
0.500043 -0.438066 -0.493 140 107 88
0.499966 -0.437177 -0.492 141 109 88
0.498867 -0.4354 -0.49 143 111 90
0.49878 -0.434511 -0.489 149 114 92
0.49869 -0.433623 -0.488 151 116 94
0.498595 -0.432734 -0.487 153 117 93
0.498497 -0.431846 -0.486 154 118 94
0.498395 -0.430957 -0.485 158 118 92
0.49829 -0.430069 -0.484 158 118 92
0.49818 -0.42918 -0.483 161 120 92
0.498067 -0.428291 -0.482 163 122 94
0.49795 -0.427403 -0.481 163 122 92
0.497829 -0.426514 -0.48 163 122 92
0.497704 -0.425626 -0.479 167 124 92
0.498616 -0.425626 -0.479 168 125 93
0.498486 -0.424737 -0.478 169 126 94
0.499396 -0.424737 -0.478 169 126 94
0.49926 -0.423849 -0.477 169 126 94
0.49912 -0.42296 -0.476 169 126 94
0.498976 -0.422071 -0.475 168 125 93
0.499881 -0.422071 -0.475 167 124 92
0.499731 -0.421183 -0.474 171 128 94
0.500634 -0.421183 -0.474 173 130 96
0.500479 -0.420294 -0.473 172 127 94
0.50138 -0.420294 -0.473 174 129 96
0.502281 -0.420294 -0.473 174 129 96
0.502118 -0.419406 -0.472 174 129 96
0.503017 -0.419406 -0.472 175 130 97
0.503916 -0.419406 -0.472 176 131 98
0.503746 -0.418517 -0.471 176 131 98
0.504643 -0.418517 -0.471 176 131 98
0.504467 -0.417629 -0.47 177 133 98
0.505362 -0.417629 -0.47 177 133 98
0.50518 -0.41674 -0.469 174 130 95
0.506073 -0.41674 -0.469 174 130 95
0.506967 -0.41674 -0.469 174 130 95
0.506777 -0.415851 -0.468 173 129 94
0.507669 -0.415851 -0.468 175 131 96
0.507473 -0.414963 -0.467 172 128 93
0.508363 -0.414963 -0.467 175 131 96
0.509252 -0.414963 -0.467 175 131 96
0.50905 -0.414074 -0.466 177 131 97
0.508843 -0.413186 -0.465 178 132 98
0.509729 -0.413186 -0.465 179 133 99
0.510614 -0.413186 -0.465 178 132 98
0.5115 -0.413186 -0.465 176 130 96
0.511284 -0.412297 -0.464 175 129 95
0.511064 -0.411409 -0.463 176 130 94
0.511946 -0.411409 -0.463 176 130 94
0.51172 -0.41052 -0.462 177 133 96
0.5126 -0.41052 -0.462 178 134 97
0.51348 -0.41052 -0.462 175 131 94
0.513247 -0.409631 -0.461 174 130 93
0.514125 -0.409631 -0.461 174 128 92
0.513886 -0.408743 -0.46 173 127 91
0.514762 -0.408743 -0.46 174 128 92
0.515638 -0.408743 -0.46 172 126 90
0.515391 -0.407854 -0.459 171 125 89
0.516266 -0.407854 -0.459 169 123 87
0.51714 -0.407854 -0.459 173 127 91
0.518014 -0.407854 -0.459 173 127 91
0.517758 -0.406966 -0.458 174 128 92
0.51863 -0.406966 -0.458 172 126 90
0.519503 -0.406966 -0.458 171 125 91
0.519239 -0.406077 -0.457 170 124 90
0.52011 -0.406077 -0.457 169 123 89
0.52098 -0.406077 -0.457 169 123 89
0.52185 -0.406077 -0.457 168 122 88
0.522721 -0.406077 -0.457 170 124 90
0.523591 -0.406077 -0.457 171 125 91
0.524462 -0.406077 -0.457 171 125 91
0.525332 -0.406077 -0.457 170 124 88
0.526203 -0.406077 -0.457 170 124 88
0.527073 -0.406077 -0.457 170 124 88
0.527944 -0.406077 -0.457 170 124 88
0.528814 -0.406077 -0.457 168 122 86
0.529685 -0.406077 -0.457 167 121 85
0.530555 -0.406077 -0.457 165 119 83
0.531426 -0.406077 -0.457 162 116 80
0.532296 -0.406077 -0.457 165 115 80
0.533167 -0.406077 -0.457 164 114 79
0.534037 -0.406077 -0.457 164 114 79
0.534908 -0.406077 -0.457 165 115 80
0.53695 -0.406966 -0.458 167 118 85
0.537823 -0.406966 -0.458 168 119 86
0.538695 -0.406966 -0.458 163 117 84
0.540746 -0.407854 -0.459 160 114 81
0.54162 -0.407854 -0.459 158 113 82
0.542494 -0.407854 -0.459 158 113 82
0.544552 -0.408743 -0.46 154 110 81
0.546614 -0.409631 -0.461 151 107 78
0.547492 -0.409631 -0.461 150 106 77
0.54956 -0.41052 -0.462 146 102 73
0.55044 -0.41052 -0.462 143 99 72
0.552513 -0.411409 -0.463 143 99 72
0.553395 -0.411409 -0.463 143 104 73
0.554277 -0.411409 -0.463 141 102 71
0.555159 -0.411409 -0.463 142 102 76
0.556041 -0.411409 -0.463 137 100 73
0.556923 -0.411409 -0.463 134 96 73
-0.00250476 -0.46839 -0.526 187 146 124
-0.0015 -0.4675 -0.525 185 146 117
-0.000496191 -0.463938 -0.521 186 147 118
0.000492381 -0.460376 -0.517 191 149 124
0.00146571 -0.456814 -0.513 191 149 124
0.00241905 -0.452362 -0.508 189 148 120
0.00335333 -0.44791 -0.503 189 148 120
0.00428571 -0.445238 -0.5 190 151 118
0.00521714 -0.443457 -0.498 192 153 120
0.00612857 -0.440786 -0.495 190 153 126
0.00705714 -0.439895 -0.494 188 151 124
0.0079819 -0.439005 -0.493 194 149 126
0.00890286 -0.438114 -0.492 196 151 128
0.00982 -0.437224 -0.491 201 153 117
0.0107333 -0.436333 -0.49 200 152 116
0.0116667 -0.436333 -0.49 197 152 121
0.0126 -0.436333 -0.49 197 152 121
0.0135333 -0.436333 -0.49 198 153 124
0.0144667 -0.436333 -0.49 197 152 123
0.0154 -0.436333 -0.49 195 150 121
0.0163333 -0.436333 -0.49 194 149 120
0.0172667 -0.436333 -0.49 197 152 121
0.0181629 -0.435443 -0.489 199 154 123
0.0190943 -0.435443 -0.489 199 154 123
0.0200257 -0.435443 -0.489 198 153 124
0.0209571 -0.435443 -0.489 197 152 123
0.0218886 -0.435443 -0.489 196 151 122
0.02282 -0.435443 -0.489 196 151 122
0.0238 -0.436333 -0.49 197 150 120
0.0247333 -0.436333 -0.49 197 150 120
0.0256667 -0.436333 -0.49 196 151 120
0.0266 -0.436333 -0.49 195 150 119
0.0275333 -0.436333 -0.49 195 150 119
0.0284667 -0.436333 -0.49 194 149 118
0.0294 -0.436333 -0.49 196 151 120
0.0303333 -0.436333 -0.49 196 151 120
0.0312667 -0.436333 -0.49 192 146 113
0.0322 -0.436333 -0.49 186 140 107
0.033201 -0.437224 -0.491 191 145 112
0.0341362 -0.437224 -0.491 192 146 113
0.0350714 -0.437224 -0.491 191 145 112
0.0360067 -0.437224 -0.491 189 143 110
0.0369419 -0.437224 -0.491 188 142 109
0.0378771 -0.437224 -0.491 187 141 108
0.0388124 -0.437224 -0.491 183 137 104
0.0397476 -0.437224 -0.491 178 132 99
0.0407657 -0.438114 -0.492 179 132 102
0.0417029 -0.438114 -0.492 179 132 102
0.04264 -0.438114 -0.492 176 129 101
0.0436657 -0.439005 -0.493 172 125 97
0.0446952 -0.439895 -0.494 170 123 97
0.0456362 -0.439895 -0.494 170 123 97
0.0466714 -0.440786 -0.495 168 122 96
0.0477105 -0.441676 -0.496 167 121 95
0.0486552 -0.441676 -0.496 162 117 94
0.0497 -0.442567 -0.497 160 115 92
0.0507486 -0.443457 -0.498 158 113 94
0.0516971 -0.443457 -0.498 157 112 93
0.0527514 -0.444348 -0.499 155 109 93
0.0538095 -0.445238 -0.5 152 106 90
0.0549809 -0.447019 -0.502 147 104 87
0.0560486 -0.44791 -0.503 145 102 85
0.05712 -0.4488 -0.504 139 102 86
0.0581952 -0.44969 -0.505 137 100 84
0.0592743 -0.450581 -0.506 137 98 83
0.0603571 -0.451471 -0.507 135 96 81
0.0614438 -0.452362 -0.508 132 95 79
0.0625343 -0.453252 -0.509 131 94 78
0.0636286 -0.454143 -0.51 128 92 78
0.0647267 -0.455033 -0.511 126 90 76
0.0659571 -0.456814 -0.513 123 91 80
0.0670648 -0.457705 -0.514 121 89 78
0.0681762 -0.458595 -0.515 112 87 80
0.0694257 -0.460376 -0.517 108 83 76
0.0706829 -0.462157 -0.519 100 81 77
0.0718095 -0.463048 -0.52 98 79 75
0.07308 -0.464829 -0.522 95 80 77
0.0743581 -0.46661 -0.524 94 79 76
0.0755 -0.4675 -0.525 92 78 77
0.0767914 -0.469281 -0.527 92 78 77
0.0884314 -0.483529 -0.543 88 77 81
0.0896305 -0.484419 -0.544 82 71 75
0.0908333 -0.48531 -0.545 66 63 72
0.0918714 -0.48531 -0.545 50 47 56
0.0929095 -0.48531 -0.545 40 42 55
0.0939476 -0.48531 -0.545 40 42 55
0.0949857 -0.48531 -0.545 45 47 60
0.0960238 -0.48531 -0.545 52 55 72
0.0970619 -0.48531 -0.545 52 55 72
0.09792 -0.484419 -0.544 77 81 90
0.0989562 -0.484419 -0.544 103 107 116
0.0999924 -0.484419 -0.544 107 114 122
0.100843 -0.483529 -0.543 95 102 110
0.101877 -0.483529 -0.543 73 81 100
0.102911 -0.483529 -0.543 60 68 87
0.103946 -0.483529 -0.543 42 58 92
0.10498 -0.483529 -0.543 56 72 106
0.106014 -0.483529 -0.543 58 85 130
0.107049 -0.483529 -0.543 58 85 130
0.108083 -0.483529 -0.543 51 82 136
0.109117 -0.483529 -0.543 51 82 136
0.110151 -0.483529 -0.543 47 79 140
0.111186 -0.483529 -0.543 38 70 131
0.11222 -0.483529 -0.543 37 68 125
0.113254 -0.483529 -0.543 33 64 121
0.114289 -0.483529 -0.543 32 65 119
0.115323 -0.483529 -0.543 34 67 121
0.116357 -0.483529 -0.543 31 66 120
0.117391 -0.483529 -0.543 33 68 122
0.118426 -0.483529 -0.543 35 71 131
0.121529 -0.483529 -0.543 37 67 129
0.122789 -0.484419 -0.544 54 83 141
0.123825 -0.484419 -0.544 71 100 158
0.124861 -0.484419 -0.544 88 118 168
0.125897 -0.484419 -0.544 104 134 184
0.126933 -0.484419 -0.544 124 156 197
0.12797 -0.484419 -0.544 127 159 200
0.129006 -0.484419 -0.544 117 140 174
0.130042 -0.484419 -0.544 127 150 184
0.131078 -0.484419 -0.544 139 154 185
0.132114 -0.484419 -0.544 156 171 202
0.13315 -0.484419 -0.544 194 202 215
0.13394 -0.483529 -0.543 207 215 228
0.134974 -0.483529 -0.543 207 211 222
0.136009 -0.483529 -0.543 210 214 225
0.137043 -0.483529 -0.543 198 211 220
0.138077 -0.483529 -0.543 193 206 215
0.139111 -0.483529 -0.543 182 208 225
0.140146 -0.483529 -0.543 131 157 174
0.217082 -0.484419 -0.544 148 170 194
0.218118 -0.484419 -0.544 152 174 198
0.219154 -0.484419 -0.544 157 174 190
0.22019 -0.484419 -0.544 156 173 189
0.221227 -0.484419 -0.544 166 176 186
0.222263 -0.484419 -0.544 171 181 191
0.223299 -0.484419 -0.544 187 192 195
0.224335 -0.484419 -0.544 189 194 197
0.225371 -0.484419 -0.544 196 198 195
0.226408 -0.484419 -0.544 199 201 198
0.227444 -0.484419 -0.544 204 205 200
0.235733 -0.484419 -0.544 212 215 220
0.23677 -0.484419 -0.544 211 214 219
0.237806 -0.484419 -0.544 215 216 221
0.238842 -0.484419 -0.544 214 215 220
0.239878 -0.484419 -0.544 213 216 221
0.240914 -0.484419 -0.544 215 218 223
0.242395 -0.48531 -0.545 213 217 220
0.243433 -0.48531 -0.545 211 215 218
0.244471 -0.48531 -0.545 211 215 218
0.24551 -0.48531 -0.545 212 216 217
0.246548 -0.48531 -0.545 210 214 215
0.247586 -0.48531 -0.545 211 214 221
0.248624 -0.48531 -0.545 210 213 220
0.249662 -0.48531 -0.545 211 212 217
0.2507 -0.48531 -0.545 211 212 217
0.251738 -0.48531 -0.545 212 211 216
0.252776 -0.48531 -0.545 212 211 216
0.253814 -0.48531 -0.545 213 212 218
0.254852 -0.48531 -0.545 213 212 218
0.25589 -0.48531 -0.545 213 213 221
0.256929 -0.48531 -0.545 213 213 221
0.257967 -0.48531 -0.545 214 215 220
0.259005 -0.48531 -0.545 214 215 220
0.260043 -0.48531 -0.545 214 214 216
0.261081 -0.48531 -0.545 212 212 214
0.262119 -0.48531 -0.545 212 211 209
0.263157 -0.48531 -0.545 212 211 209
0.264195 -0.48531 -0.545 212 214 213
0.265233 -0.48531 -0.545 212 214 213
0.266271 -0.48531 -0.545 212 214 213
0.26731 -0.48531 -0.545 212 214 213
0.268348 -0.48531 -0.545 212 214 213
0.269386 -0.48531 -0.545 212 214 213
0.270424 -0.48531 -0.545 212 214 213
0.271462 -0.48531 -0.545 212 214 213
0.273 -0.4862 -0.546 212 213 215
0.27404 -0.4862 -0.546 212 213 215
0.27508 -0.4862 -0.546 212 213 215
0.27612 -0.4862 -0.546 211 212 214
0.27716 -0.4862 -0.546 211 212 214
0.2782 -0.4862 -0.546 211 212 214
0.27924 -0.4862 -0.546 211 212 214
0.28028 -0.4862 -0.546 211 212 214
0.28132 -0.4862 -0.546 209 211 210
0.28236 -0.4862 -0.546 208 210 209
0.2834 -0.4862 -0.546 209 211 210
0.28444 -0.4862 -0.546 209 211 210
0.286003 -0.48709 -0.547 209 211 210
0.287045 -0.48709 -0.547 207 209 208
0.288087 -0.48709 -0.547 205 207 206
0.289129 -0.48709 -0.547 205 207 206
0.29017 -0.48709 -0.547 203 203 203
0.291212 -0.48709 -0.547 202 202 202
0.292254 -0.48709 -0.547 202 202 202
0.293832 -0.487981 -0.548 202 202 204
0.294876 -0.487981 -0.548 201 201 203
0.29592 -0.487981 -0.548 199 199 201
0.297506 -0.488871 -0.549 199 199 201
0.298551 -0.488871 -0.549 199 199 201
0.299597 -0.488871 -0.549 199 199 201
0.300643 -0.488871 -0.549 198 196 197
0.301689 -0.488871 -0.549 198 196 197
0.302734 -0.488871 -0.549 196 194 195
0.30378 -0.488871 -0.549 194 192 193
0.304826 -0.488871 -0.549 194 192 193
0.306429 -0.489762 -0.55 193 191 192
0.307476 -0.489762 -0.55 192 190 191
0.308524 -0.489762 -0.55 191 189 190
0.310134 -0.490652 -0.551 191 189 192
0.311184 -0.490652 -0.551 189 187 190
0.312233 -0.490652 -0.551 188 186 189
0.313283 -0.490652 -0.551 188 186 189
0.314903 -0.491543 -0.552 188 186 189
0.315954 -0.491543 -0.552 188 186 189
0.317006 -0.491543 -0.552 187 185 188
0.318057 -0.491543 -0.552 186 184 187
0.319109 -0.491543 -0.552 185 185 187
0.32016 -0.491543 -0.552 183 183 185
0.321211 -0.491543 -0.552 180 180 182
0.322263 -0.491543 -0.552 177 177 179
0.3239 -0.492433 -0.553 177 177 179
0.324953 -0.492433 -0.553 177 177 179
0.326007 -0.492433 -0.553 174 174 176
0.32706 -0.492433 -0.553 171 171 173
0.328113 -0.492433 -0.553 170 168 173
0.329167 -0.492433 -0.553 168 166 171
0.33022 -0.492433 -0.553 166 164 169
0.331273 -0.492433 -0.553 165 163 168
0.332928 -0.493324 -0.554 164 162 167
0.334586 -0.494214 -0.555 161 159 164
0.335643 -0.494214 -0.555 156 154 159
0.3367 -0.494214 -0.555 152 150 155
0.337757 -0.494214 -0.555 148 147 153
0.339425 -0.495105 -0.556 145 144 150
0.341096 -0.495995 -0.557 143 142 148
0.342157 -0.495995 -0.557 142 141 147
0.343218 -0.495995 -0.557 141 140 146
0.344279 -0.495995 -0.557 141 140 146
0.34596 -0.496886 -0.558 137 136 142
0.347023 -0.496886 -0.558 132 131 136
0.348086 -0.496886 -0.558 130 129 134
0.349149 -0.496886 -0.558 126 125 130
0.350839 -0.497776 -0.559 123 122 127
0.351904 -0.497776 -0.559 120 119 124
0.352969 -0.497776 -0.559 117 116 121
0.354033 -0.497776 -0.559 115 114 119
0.355733 -0.498667 -0.56 112 111 116
0.3568 -0.498667 -0.56 109 108 113
0.357867 -0.498667 -0.56 107 106 111
0.359574 -0.499557 -0.561 105 102 109
0.360643 -0.499557 -0.561 102 99 106
0.361711 -0.499557 -0.561 98 95 102
0.36278 -0.499557 -0.561 95 92 99
0.363849 -0.499557 -0.561 92 91 97
0.365568 -0.500448 -0.562 90 89 95
0.36729 -0.501338 -0.563 87 86 92
0.368363 -0.501338 -0.563 85 84 90
0.369435 -0.501338 -0.563 81 80 86
0.370508 -0.501338 -0.563 80 79 85
0.37158 -0.501338 -0.563 80 79 85
0.373314 -0.502229 -0.564 79 78 84
0.374389 -0.502229 -0.564 77 76 82
0.376129 -0.503119 -0.565 75 74 80
0.377205 -0.503119 -0.565 73 72 78
0.378281 -0.503119 -0.565 71 70 76
0.379357 -0.503119 -0.565 74 71 78
0.380433 -0.503119 -0.565 73 70 77
0.382185 -0.50401 -0.566 72 69 76
0.383263 -0.50401 -0.566 70 67 74
0.384341 -0.50401 -0.566 70 67 74
0.3861 -0.5049 -0.567 70 67 74
0.38718 -0.5049 -0.567 69 68 74
0.38826 -0.5049 -0.567 68 67 73
0.38934 -0.5049 -0.567 67 66 72
0.391109 -0.50579 -0.568 67 66 72
0.39219 -0.50579 -0.568 67 66 72
0.393272 -0.50579 -0.568 66 65 71
0.394354 -0.50579 -0.568 65 64 72
0.395436 -0.50579 -0.568 65 64 72
0.397216 -0.506681 -0.569 65 64 70
0.3983 -0.506681 -0.569 65 64 70
0.399384 -0.506681 -0.569 65 64 70
0.400468 -0.506681 -0.569 65 62 71
0.401551 -0.506681 -0.569 64 61 70
0.403343 -0.507571 -0.57 64 61 70
0.404429 -0.507571 -0.57 64 61 70
0.406226 -0.508462 -0.571 65 62 71
0.407313 -0.508462 -0.571 66 63 72
0.421329 -0.503119 -0.565 61 60 68
0.421657 -0.502229 -0.564 60 59 67
0.422731 -0.502229 -0.564 62 61 69
0.423806 -0.502229 -0.564 61 60 68
0.42488 -0.502229 -0.564 61 60 68
0.425199 -0.501338 -0.563 62 61 69
0.427029 -0.502229 -0.564 61 60 68
0.428103 -0.502229 -0.564 62 61 69
0.429177 -0.502229 -0.564 63 61 72
0.430251 -0.502229 -0.564 64 62 73
0.431326 -0.502229 -0.564 60 61 66
0.4324 -0.502229 -0.564 61 62 67
0.433474 -0.502229 -0.564 61 62 67
0.433778 -0.501338 -0.563 60 61 66
0.435623 -0.502229 -0.564 59 60 65
0.436697 -0.502229 -0.564 60 61 66
0.438548 -0.503119 -0.565 61 61 69
0.439624 -0.503119 -0.565 60 60 68
0.4407 -0.503119 -0.565 57 57 65
0.441776 -0.503119 -0.565 56 56 64
0.442852 -0.503119 -0.565 54 54 62
0.444714 -0.50401 -0.566 53 53 61
0.445792 -0.50401 -0.566 54 54 62
0.44687 -0.50401 -0.566 54 54 62
0.447949 -0.50401 -0.566 53 53 61
0.449027 -0.50401 -0.566 49 49 57
0.450105 -0.50401 -0.566 45 45 53
0.451183 -0.50401 -0.566 43 43 53
0.51646 -0.469281 -0.527 105 95 96
0.5155 -0.4675 -0.525 113 95 83
0.514532 -0.465719 -0.523 114 96 84
0.513557 -0.463938 -0.521 118 96 85
0.512574 -0.462157 -0.519 120 98 87
0.510594 -0.459486 -0.516 126 99 88
0.509594 -0.457705 -0.514 126 99 88
0.508587 -0.455924 -0.512 127 101 88
0.507571 -0.454143 -0.51 128 102 89
0.506549 -0.452362 -0.508 127 104 88
0.505518 -0.450581 -0.506 129 103 88
0.50448 -0.4488 -0.504 130 104 87
0.504437 -0.44791 -0.503 130 104 87
0.503386 -0.446129 -0.501 134 105 89
0.503333 -0.445238 -0.5 136 107 91
0.502269 -0.443457 -0.498 141 108 93
0.502207 -0.442567 -0.497 141 108 93
0.501129 -0.440786 -0.495 141 108 89
0.500043 -0.439005 -0.493 141 108 89
0.499966 -0.438114 -0.492 141 108 89
0.499885 -0.437224 -0.491 142 109 90
0.4998 -0.436333 -0.49 147 112 92
0.499711 -0.435443 -0.489 149 114 94
0.499619 -0.434552 -0.488 150 114 90
0.498497 -0.432771 -0.486 152 116 92
0.498395 -0.431881 -0.485 154 117 91
0.49829 -0.43099 -0.484 154 117 91
0.49818 -0.4301 -0.483 159 120 91
0.498067 -0.42921 -0.482 161 122 93
0.49795 -0.428319 -0.481 162 121 91
0.497829 -0.427429 -0.48 163 122 92
0.497704 -0.426538 -0.479 167 123 94
0.498616 -0.426538 -0.479 167 123 94
0.498486 -0.425648 -0.478 166 125 93
0.499396 -0.425648 -0.478 165 124 92
0.49926 -0.424757 -0.477 165 124 92
0.49912 -0.423867 -0.476 165 124 92
0.498976 -0.422976 -0.475 164 123 91
0.499881 -0.422976 -0.475 165 124 92
0.499731 -0.422086 -0.474 171 128 94
0.500634 -0.422086 -0.474 172 129 95
0.500479 -0.421195 -0.473 171 128 94
0.50138 -0.421195 -0.473 172 129 95
0.501219 -0.420305 -0.472 171 128 94
0.502118 -0.420305 -0.472 171 128 94
0.503017 -0.420305 -0.472 173 130 96
0.503916 -0.420305 -0.472 173 130 96
0.503746 -0.419414 -0.471 174 130 95
0.504643 -0.419414 -0.471 175 131 96
0.504467 -0.418524 -0.47 174 130 95
0.505362 -0.418524 -0.47 175 131 96
0.50518 -0.417633 -0.469 174 130 95
0.506073 -0.417633 -0.469 174 130 95
0.506967 -0.417633 -0.469 174 130 95
0.506777 -0.416743 -0.468 172 128 93
0.507669 -0.416743 -0.468 171 127 92
0.507473 -0.415852 -0.467 170 126 91
0.508363 -0.415852 -0.467 175 131 96
0.509252 -0.415852 -0.467 176 132 97
0.50905 -0.414962 -0.466 178 134 99
0.509937 -0.414962 -0.466 179 135 100
0.509729 -0.414071 -0.465 179 135 100
0.510614 -0.414071 -0.465 177 133 98
0.5104 -0.413181 -0.464 177 131 97
0.511284 -0.413181 -0.464 177 131 97
0.511064 -0.41229 -0.463 172 128 91
0.511946 -0.41229 -0.463 173 127 91
0.51172 -0.4114 -0.462 178 132 98
0.5126 -0.4114 -0.462 180 134 100
0.512369 -0.41051 -0.461 177 131 97
0.513247 -0.41051 -0.461 175 129 95
0.514125 -0.41051 -0.461 173 127 93
0.513886 -0.409619 -0.46 173 127 93
0.514762 -0.409619 -0.46 174 128 92
0.515638 -0.409619 -0.46 171 125 89
0.515391 -0.408729 -0.459 171 125 89
0.516266 -0.408729 -0.459 169 123 87
0.516013 -0.407838 -0.458 175 129 93
0.516886 -0.407838 -0.458 175 129 93
0.517758 -0.407838 -0.458 174 128 94
0.51863 -0.407838 -0.458 172 126 92
0.518369 -0.406948 -0.457 173 124 91
0.519239 -0.406948 -0.457 171 122 89
0.52011 -0.406948 -0.457 171 122 89
0.52098 -0.406948 -0.457 171 122 89
0.520709 -0.406057 -0.456 170 121 88
0.521577 -0.406057 -0.456 171 122 89
0.522446 -0.406057 -0.456 172 123 90
0.523314 -0.406057 -0.456 172 123 90
0.524183 -0.406057 -0.456 170 124 88
0.526203 -0.406948 -0.457 169 123 87
0.527073 -0.406948 -0.457 169 123 87
0.527944 -0.406948 -0.457 169 123 87
0.528814 -0.406948 -0.457 168 122 86
0.529685 -0.406948 -0.457 167 121 85
0.530555 -0.406948 -0.457 165 119 83
0.531426 -0.406948 -0.457 164 118 82
0.532296 -0.406948 -0.457 166 116 83
0.533167 -0.406948 -0.457 164 114 81
0.534037 -0.406948 -0.457 162 113 80
0.534908 -0.406948 -0.457 164 115 82
0.535778 -0.406948 -0.457 167 118 86
0.537823 -0.407838 -0.458 168 119 87
0.538695 -0.407838 -0.458 164 118 85
0.539568 -0.407838 -0.458 162 116 83
0.54162 -0.408729 -0.459 160 115 84
0.542494 -0.408729 -0.459 159 114 83
0.543369 -0.408729 -0.459 157 112 83
0.545429 -0.409619 -0.46 154 109 80
0.547492 -0.41051 -0.461 150 106 77
0.54837 -0.41051 -0.461 147 103 74
0.55044 -0.4114 -0.462 144 100 73
0.55132 -0.4114 -0.462 143 99 72
0.5522 -0.4114 -0.462 143 104 73
0.554277 -0.41229 -0.463 142 103 72
0.55396 -0.4114 -0.462 139 102 76
0.55484 -0.4114 -0.462 138 101 75
0.55572 -0.4114 -0.462 137 101 77
-0.0025 -0.4685 -0.525 186 146 121
-0.00149429 -0.466715 -0.523 186 146 120
-0.000493333 -0.462253 -0.518 187 147 121
0.000489524 -0.458684 -0.514 189 149 123
0.00145714 -0.455114 -0.51 189 149 123
0.00240476 -0.450652 -0.505 188 146 121
0.00334 -0.447083 -0.501 188 146 121
0.00427714 -0.445298 -0.499 192 150 125
0.00519619 -0.442621 -0.496 192 150 125
0.00611619 -0.440836 -0.494 192 151 123
0.00704286 -0.439944 -0.493 192 151 123
0.00794952 -0.438159 -0.491 195 154 126
0.00888476 -0.438159 -0.491 198 157 129
0.0098 -0.437267 -0.49 199 155 128
0.0107333 -0.437267 -0.49 196 152 125
0.0116429 -0.436374 -0.489 196 153 121
0.0125743 -0.436374 -0.489 196 153 121
0.0135333 -0.437267 -0.49 196 152 123
0.0144371 -0.436374 -0.489 194 150 121
0.0153686 -0.436374 -0.489 193 149 120
0.0163 -0.436374 -0.489 194 150 121
0.0172314 -0.436374 -0.489 198 153 122
0.0181629 -0.436374 -0.489 200 155 124
0.0190943 -0.436374 -0.489 198 153 122
0.0200257 -0.436374 -0.489 197 152 121
0.0209571 -0.436374 -0.489 196 152 123
0.0218886 -0.436374 -0.489 195 151 122
0.02282 -0.436374 -0.489 196 152 123
0.0237514 -0.436374 -0.489 198 153 122
0.0247333 -0.437267 -0.49 197 152 121
0.0256667 -0.437267 -0.49 196 151 120
0.0266 -0.437267 -0.49 196 151 120
0.0275333 -0.437267 -0.49 194 149 118
0.0284667 -0.437267 -0.49 192 147 116
0.0294 -0.437267 -0.49 193 146 116
0.0303333 -0.437267 -0.49 192 145 115
0.0312667 -0.437267 -0.49 187 140 110
0.0322 -0.437267 -0.49 182 135 105
0.0331333 -0.437267 -0.49 188 141 111
0.0340667 -0.437267 -0.49 190 143 113
0.0350714 -0.438159 -0.491 193 144 114
0.0360067 -0.438159 -0.491 191 142 112
0.0369419 -0.438159 -0.491 190 141 109
0.0378771 -0.438159 -0.491 189 140 108
0.0388124 -0.438159 -0.491 186 137 105
0.0397476 -0.438159 -0.491 182 133 101
0.0406829 -0.438159 -0.491 178 131 103
0.0417029 -0.439051 -0.492 179 132 104
0.04264 -0.439051 -0.492 177 130 102
0.0436657 -0.439944 -0.493 173 126 98
0.0446048 -0.439944 -0.493 172 125 99
0.0456362 -0.440836 -0.494 170 123 97
0.0466714 -0.441729 -0.495 167 121 97
0.0477105 -0.442621 -0.496 165 119 95
0.0486552 -0.442621 -0.496 159 114 93
0.0497 -0.443513 -0.497 159 114 93
0.0507486 -0.444406 -0.498 158 112 96
0.0516971 -0.444406 -0.498 157 111 95
0.0527514 -0.445298 -0.499 155 109 94
0.0538095 -0.44619 -0.5 151 105 90
0.0549809 -0.447975 -0.502 145 102 85
0.0560486 -0.448868 -0.503 145 102 85
0.05712 -0.44976 -0.504 137 101 87
0.0581952 -0.450652 -0.505 137 101 87
0.0592743 -0.451545 -0.506 136 100 86
0.0602381 -0.451545 -0.506 132 96 82
0.0614438 -0.45333 -0.508 129 93 79
0.0625343 -0.454222 -0.509 129 93 79
0.0636286 -0.455114 -0.51 126 90 76
0.0647267 -0.456007 -0.511 124 88 74
0.0659571 -0.457791 -0.513 120 90 79
0.0670648 -0.458684 -0.514 117 87 76
0.0683086 -0.460469 -0.516 109 86 78
0.0694257 -0.461361 -0.517 105 82 74
0.0706829 -0.463146 -0.519 97 79 75
0.0719476 -0.464931 -0.521 96 78 74
0.07308 -0.465823 -0.522 94 79 76
0.0743581 -0.467608 -0.524 94 79 76
0.0756438 -0.469392 -0.526 92 76 76
0.0884314 -0.484563 -0.543 88 77 81
0.0896305 -0.485455 -0.544 80 69 73
0.0906667 -0.485455 -0.544 80 69 73
0.0917029 -0.485455 -0.544 62 59 68
0.0929095 -0.486348 -0.545 49 46 55
0.0939476 -0.486348 -0.545 52 52 64
0.0949857 -0.486348 -0.545 62 62 74
0.0960238 -0.486348 -0.545 66 69 86
0.0968838 -0.485455 -0.544 80 83 100
0.09792 -0.485455 -0.544 100 104 113
0.0989562 -0.485455 -0.544 115 119 128
0.0998086 -0.484563 -0.543 116 125 134
0.100843 -0.484563 -0.543 103 112 121
0.101877 -0.484563 -0.543 85 96 116
0.102911 -0.484563 -0.543 82 93 113
0.103946 -0.484563 -0.543 76 90 116
0.10498 -0.484563 -0.543 87 101 127
0.122563 -0.484563 -0.543 95 126 181
0.123597 -0.484563 -0.543 118 149 204
0.124631 -0.484563 -0.543 144 168 206
0.125666 -0.484563 -0.543 153 177 215
0.1267 -0.484563 -0.543 163 184 205
0.127734 -0.484563 -0.543 162 183 204
0.128769 -0.484563 -0.543 171 180 195
0.129803 -0.484563 -0.543 177 186 201
0.130837 -0.484563 -0.543 189 197 218
0.131871 -0.484563 -0.543 200 208 229
0.132906 -0.484563 -0.543 206 214 225
0.13394 -0.484563 -0.543 207 215 226
0.134974 -0.484563 -0.543 208 217 226
0.136009 -0.484563 -0.543 209 218 227
0.137043 -0.484563 -0.543 200 213 221
0.138077 -0.484563 -0.543 203 216 224
0.139111 -0.484563 -0.543 178 201 215
0.140146 -0.484563 -0.543 124 147 161
0.14118 -0.484563 -0.543 110 143 184
0.142214 -0.484563 -0.543 128 161 202
0.208409 -0.484563 -0.543 175 185 194
0.209443 -0.484563 -0.543 171 181 190
0.210477 -0.484563 -0.543 175 188 194
0.211511 -0.484563 -0.543 183 196 202
0.212546 -0.484563 -0.543 191 199 202
0.21358 -0.484563 -0.543 191 199 202
0.214614 -0.484563 -0.543 196 205 210
0.216046 -0.485455 -0.544 201 210 215
0.217082 -0.485455 -0.544 203 212 217
0.218118 -0.485455 -0.544 206 215 220
0.219154 -0.485455 -0.544 209 216 222
0.22019 -0.485455 -0.544 210 217 223
0.221227 -0.485455 -0.544 212 217 223
0.222263 -0.485455 -0.544 212 217 223
0.223299 -0.485455 -0.544 215 218 225
0.224335 -0.485455 -0.544 213 216 223
0.225371 -0.485455 -0.544 215 216 221
0.226408 -0.485455 -0.544 216 217 222
0.227444 -0.485455 -0.544 220 219 224
0.22848 -0.485455 -0.544 216 215 220
0.229516 -0.485455 -0.544 211 215 218
0.230552 -0.485455 -0.544 212 216 219
0.231589 -0.485455 -0.544 214 218 221
0.232625 -0.485455 -0.544 214 218 221
0.233661 -0.485455 -0.544 212 217 220
0.234697 -0.485455 -0.544 210 215 218
0.235733 -0.485455 -0.544 209 214 218
0.23677 -0.485455 -0.544 209 214 218
0.238243 -0.486348 -0.545 210 215 219
0.239281 -0.486348 -0.545 209 214 218
0.240319 -0.486348 -0.545 211 214 219
0.241357 -0.486348 -0.545 210 213 218
0.242395 -0.486348 -0.545 212 213 218
0.243433 -0.486348 -0.545 212 213 218
0.244471 -0.486348 -0.545 211 212 217
0.24596 -0.48724 -0.546 214 215 220
0.247 -0.48724 -0.546 212 213 218
0.24804 -0.48724 -0.546 210 216 214
0.24908 -0.48724 -0.546 208 214 212
0.25012 -0.48724 -0.546 208 212 211
0.25116 -0.48724 -0.546 209 213 212
0.251738 -0.486348 -0.545 212 214 211
0.252776 -0.486348 -0.545 213 215 212
0.253814 -0.486348 -0.545 213 215 212
0.254852 -0.486348 -0.545 214 216 213
0.25589 -0.486348 -0.545 212 214 213
0.256929 -0.486348 -0.545 212 214 213
0.257967 -0.486348 -0.545 212 214 213
0.259005 -0.486348 -0.545 214 216 215
0.260043 -0.486348 -0.545 216 216 218
0.261081 -0.486348 -0.545 215 215 217
0.2626 -0.48724 -0.546 216 214 219
0.26364 -0.48724 -0.546 217 215 220
0.26468 -0.48724 -0.546 216 216 216
0.26572 -0.48724 -0.546 216 216 216
0.26676 -0.48724 -0.546 215 215 215
0.2678 -0.48724 -0.546 214 214 214
0.26884 -0.48724 -0.546 212 212 212
0.26988 -0.48724 -0.546 211 211 211
0.27092 -0.48724 -0.546 210 210 210
0.27196 -0.48724 -0.546 210 210 210
0.273 -0.48724 -0.546 209 209 209
0.27404 -0.48724 -0.546 207 207 207
0.27508 -0.48724 -0.546 206 206 208
0.276626 -0.488132 -0.547 204 204 206
0.277668 -0.488132 -0.547 202 202 204
0.27871 -0.488132 -0.547 201 201 203
0.279751 -0.488132 -0.547 201 201 203
0.280793 -0.488132 -0.547 202 202 204
0.281835 -0.488132 -0.547 200 201 203
0.282877 -0.488132 -0.547 198 199 201
0.284438 -0.489025 -0.548 197 198 200
0.285482 -0.489025 -0.548 196 197 199
0.286526 -0.489025 -0.548 195 195 197
0.28757 -0.489025 -0.548 194 194 196
0.288613 -0.489025 -0.548 194 194 196
0.290186 -0.489917 -0.549 195 195 197
0.291231 -0.489917 -0.549 193 193 195
0.292277 -0.489917 -0.549 193 193 195
0.293323 -0.489917 -0.549 193 193 195
0.294369 -0.489917 -0.549 192 192 194
0.295414 -0.489917 -0.549 191 191 193
0.297 -0.49081 -0.55 191 189 192
0.298048 -0.49081 -0.55 189 187 190
0.299095 -0.49081 -0.55 188 186 189
0.300689 -0.491702 -0.551 187 185 188
0.301738 -0.491702 -0.551 186 184 187
0.302788 -0.491702 -0.551 185 183 186
0.303837 -0.491702 -0.551 184 182 185
0.304887 -0.491702 -0.551 182 180 183
0.305936 -0.491702 -0.551 182 180 183
0.306986 -0.491702 -0.551 182 180 183
0.308594 -0.492594 -0.552 180 178 181
0.309646 -0.492594 -0.552 178 176 179
0.310697 -0.492594 -0.552 176 174 179
0.312313 -0.493487 -0.553 174 172 177
0.313367 -0.493487 -0.553 171 169 174
0.31442 -0.493487 -0.553 168 166 171
0.316044 -0.494379 -0.554 166 164 169
0.317099 -0.494379 -0.554 163 161 166
0.318154 -0.494379 -0.554 159 157 162
0.31921 -0.494379 -0.554 157 155 160
0.320265 -0.494379 -0.554 158 157 162
0.32132 -0.494379 -0.554 154 153 158
0.322375 -0.494379 -0.554 150 149 154
0.32343 -0.494379 -0.554 147 146 151
0.325071 -0.495271 -0.555 146 145 150
0.326129 -0.495271 -0.555 144 143 148
0.327186 -0.495271 -0.555 141 139 144
0.328243 -0.495271 -0.555 136 134 139
0.3293 -0.495271 -0.555 138 135 142
0.330357 -0.495271 -0.555 134 131 138
0.331414 -0.495271 -0.555 130 127 134
0.332471 -0.495271 -0.555 127 124 131
0.33413 -0.496164 -0.556 125 122 129
0.335791 -0.497056 -0.557 123 120 127
0.336852 -0.497056 -0.557 120 117 124
0.33852 -0.497949 -0.558 117 114 121
0.339583 -0.497949 -0.558 113 110 117
0.340646 -0.497949 -0.558 109 106 113
0.342321 -0.498841 -0.559 104 101 108
0.344 -0.499733 -0.56 102 99 106
0.345067 -0.499733 -0.56 100 97 104
0.346133 -0.499733 -0.56 100 97 104
0.3472 -0.499733 -0.56 96 93 100
0.348889 -0.500626 -0.561 93 90 97
0.349957 -0.500626 -0.561 90 87 94
0.351026 -0.500626 -0.561 90 87 94
0.352094 -0.500626 -0.561 88 85 92
0.353792 -0.501518 -0.562 85 83 88
0.354863 -0.501518 -0.562 82 80 85
0.355933 -0.501518 -0.562 81 79 84
0.357004 -0.501518 -0.562 79 77 82
0.358074 -0.501518 -0.562 78 76 81
0.359784 -0.50241 -0.563 78 76 81
0.360856 -0.50241 -0.563 79 76 83
0.362571 -0.503303 -0.564 78 75 82
0.363646 -0.503303 -0.564 76 73 80
0.36472 -0.503303 -0.564 76 73 80
0.365794 -0.503303 -0.564 75 74 80
0.367519 -0.504195 -0.565 74 73 79
0.369248 -0.505088 -0.566 72 71 77
0.370326 -0.505088 -0.566 70 69 75
0.371404 -0.505088 -0.566 70 69 75
0.372482 -0.505088 -0.566 70 69 75
0.37356 -0.505088 -0.566 70 69 75
0.3753 -0.50598 -0.567 70 69 75
0.37638 -0.50598 -0.567 70 69 75
0.378126 -0.506872 -0.568 69 68 74
0.379208 -0.506872 -0.568 68 67 73
0.380959 -0.507765 -0.569 69 68 74
0.382043 -0.507765 -0.569 69 68 74
0.383127 -0.507765 -0.569 69 68 74
0.38421 -0.507765 -0.569 69 68 74
0.385971 -0.508657 -0.57 68 67 73
0.387057 -0.508657 -0.57 68 67 73
0.388824 -0.50955 -0.571 67 66 72
0.390594 -0.510442 -0.572 67 66 72
0.391684 -0.510442 -0.572 68 67 73
0.392773 -0.510442 -0.572 69 68 76
0.394551 -0.511334 -0.573 68 67 75
0.395643 -0.511334 -0.573 66 67 72
0.396734 -0.511334 -0.573 66 67 72
0.397826 -0.511334 -0.573 65 65 73
0.398917 -0.511334 -0.573 64 64 72
0.400707 -0.512227 -0.574 63 63 71
0.4018 -0.512227 -0.574 63 63 71
0.402893 -0.512227 -0.574 63 63 71
0.40469 -0.513119 -0.575 67 64 75
0.405786 -0.513119 -0.575 66 63 74
0.406881 -0.513119 -0.575 66 63 74
0.408686 -0.514011 -0.576 66 63 74
0.410494 -0.514904 -0.577 64 62 73
0.411593 -0.514904 -0.577 64 62 73
0.425057 -0.508657 -0.57 60 59 67
0.425395 -0.507765 -0.569 60 59 67
0.42573 -0.506872 -0.568 60 59 67
0.426811 -0.506872 -0.568 58 57 65
0.42714 -0.50598 -0.567 56 55 63
0.42822 -0.50598 -0.567 54 53 61
0.4293 -0.50598 -0.567 52 50 61
0.43038 -0.50598 -0.567 50 48 59
0.43146 -0.50598 -0.567 49 47 58
0.43254 -0.50598 -0.567 49 47 58
0.43362 -0.50598 -0.567 47 47 55
0.447368 -0.506872 -0.568 23 23 33
0.44845 -0.506872 -0.568 23 23 33
0.449531 -0.506872 -0.568 23 23 33
0.450613 -0.506872 -0.568 20 20 30
0.451695 -0.506872 -0.568 17 17 27
0.51744 -0.471177 -0.528 105 95 96
0.5155 -0.4685 -0.525 113 95 83
0.514532 -0.466715 -0.523 114 96 84
0.513557 -0.464931 -0.521 118 94 84
0.512574 -0.463146 -0.519 119 95 85
0.511584 -0.461361 -0.517 126 98 87
0.509594 -0.458684 -0.514 127 99 88
0.508587 -0.456899 -0.512 126 98 86
0.507571 -0.455114 -0.51 127 99 87
0.506549 -0.45333 -0.508 126 103 89
0.505518 -0.451545 -0.506 126 103 89
0.50448 -0.44976 -0.504 129 103 88
0.504437 -0.448868 -0.503 130 104 89
0.503386 -0.447083 -0.501 134 105 89
0.503333 -0.44619 -0.5 136 107 91
0.502269 -0.444406 -0.498 140 107 92
0.502207 -0.443513 -0.497 141 108 93
0.501129 -0.441729 -0.495 140 107 88
0.500043 -0.439944 -0.493 141 108 89
0.499966 -0.439051 -0.492 143 110 91
0.499885 -0.438159 -0.491 144 111 92
0.4998 -0.437267 -0.49 145 113 92
0.499711 -0.436374 -0.489 146 114 93
0.499619 -0.435482 -0.488 150 114 92
0.498497 -0.433697 -0.486 150 114 92
0.498395 -0.432805 -0.485 153 116 90
0.49829 -0.431912 -0.484 152 115 89
0.49818 -0.43102 -0.483 155 118 91
0.498067 -0.430128 -0.482 158 121 94
0.49795 -0.429235 -0.481 161 122 93
0.497829 -0.428343 -0.48 161 122 93
0.497704 -0.42745 -0.479 163 122 94
0.498616 -0.42745 -0.479 163 122 94
0.498486 -0.426558 -0.478 167 124 92
0.499396 -0.426558 -0.478 167 124 92
0.49926 -0.425666 -0.477 165 124 94
0.49912 -0.424773 -0.476 166 125 95
0.498976 -0.423881 -0.475 165 124 92
0.498829 -0.422989 -0.474 165 124 92
0.499731 -0.422989 -0.474 171 128 96
0.500634 -0.422989 -0.474 171 128 96
0.500479 -0.422096 -0.473 171 126 93
0.50138 -0.422096 -0.473 172 127 94
0.501219 -0.421204 -0.472 171 128 96
0.502118 -0.421204 -0.472 171 128 96
0.503017 -0.421204 -0.472 172 129 95
0.502849 -0.420311 -0.471 172 129 95
0.503746 -0.420311 -0.471 172 127 94
0.504643 -0.420311 -0.471 173 128 95
0.504467 -0.419419 -0.47 174 129 96
0.504287 -0.418527 -0.469 174 129 96
0.50518 -0.418527 -0.469 175 130 97
0.506073 -0.418527 -0.469 174 129 96
0.505886 -0.417634 -0.468 174 130 95
0.506777 -0.417634 -0.468 170 126 91
0.507669 -0.417634 -0.468 166 122 87
0.507473 -0.416742 -0.467 168 124 89
0.507274 -0.41585 -0.466 177 131 97
0.508162 -0.41585 -0.466 179 133 99
0.50905 -0.41585 -0.466 182 136 102
0.509937 -0.41585 -0.466 182 136 102
0.509729 -0.414957 -0.465 181 135 101
0.509516 -0.414065 -0.464 180 134 100
0.5104 -0.414065 -0.464 178 132 98
0.511284 -0.414065 -0.464 177 131 97
0.511064 -0.413172 -0.463 172 126 90
0.511946 -0.413172 -0.463 175 129 95
0.51172 -0.41228 -0.462 178 132 98
0.5126 -0.41228 -0.462 179 133 99
0.512369 -0.411388 -0.461 177 131 98
0.513247 -0.411388 -0.461 174 128 95
0.514125 -0.411388 -0.461 172 126 92
0.513886 -0.410495 -0.46 173 127 93
0.514762 -0.410495 -0.46 174 128 94
0.515638 -0.410495 -0.46 172 126 92
0.515391 -0.409603 -0.459 171 125 89
0.516266 -0.409603 -0.459 170 124 88
0.516013 -0.40871 -0.458 178 129 96
0.516886 -0.40871 -0.458 178 129 96
0.517758 -0.40871 -0.458 177 128 95
0.517498 -0.407818 -0.457 174 125 92
0.518369 -0.407818 -0.457 172 123 90
0.519239 -0.407818 -0.457 170 121 88
0.52011 -0.407818 -0.457 171 122 89
0.52098 -0.407818 -0.457 172 123 90
0.520709 -0.406926 -0.456 171 122 89
0.521577 -0.406926 -0.456 171 122 89
0.522446 -0.406926 -0.456 172 123 90
0.523314 -0.406926 -0.456 172 123 90
0.524183 -0.406926 -0.456 171 123 87
0.525051 -0.406926 -0.456 171 123 87
0.52592 -0.406926 -0.456 170 122 86
0.526789 -0.406926 -0.456 169 121 85
0.527657 -0.406926 -0.456 167 121 85
0.528526 -0.406926 -0.456 166 120 84
0.529394 -0.406926 -0.456 166 120 84
0.530263 -0.406926 -0.456 166 120 84
0.531131 -0.406926 -0.456 167 116 85
0.533167 -0.407818 -0.457 165 114 83
0.534037 -0.407818 -0.457 162 113 81
0.534908 -0.407818 -0.457 163 114 82
0.535778 -0.407818 -0.457 164 118 85
0.536649 -0.407818 -0.457 166 120 87
0.537519 -0.407818 -0.457 163 118 87
0.539568 -0.40871 -0.458 162 117 86
0.54044 -0.40871 -0.458 161 114 84
0.541312 -0.40871 -0.458 160 113 83
0.543369 -0.409603 -0.459 157 112 83
0.544243 -0.409603 -0.459 154 109 80
0.546305 -0.410495 -0.46 150 106 79
0.547181 -0.410495 -0.46 147 103 76
0.549249 -0.411388 -0.461 142 101 73
0.550127 -0.411388 -0.461 141 100 72
0.5522 -0.41228 -0.462 140 101 70
0.55308 -0.41228 -0.462 142 103 72
0.55396 -0.41228 -0.462 135 101 74
0.55484 -0.41228 -0.462 136 102 75
0.55572 -0.41228 -0.462 136 100 74
0.5566 -0.41228 -0.462 135 99 73
-0.0035 -0.4695 -0.525 187 147 121
-0.00248571 -0.466817 -0.522 186 146 120
-0.00148286 -0.464134 -0.519 186 146 120
-0.000489524 -0.459663 -0.514 187 147 121
0.000485714 -0.456086 -0.51 190 150 124
0.00144571 -0.452509 -0.506 189 149 123
0.00239048 -0.448931 -0.502 187 145 120
0.00332 -0.445354 -0.498 186 144 119
0.00425143 -0.443566 -0.496 194 150 125
0.00517524 -0.441777 -0.494 194 150 125
0.00609143 -0.439989 -0.492 192 151 123
0.00701429 -0.439094 -0.491 192 151 123
0.00793333 -0.4382 -0.49 197 153 126
0.00886667 -0.4382 -0.49 199 155 128
0.00978 -0.437306 -0.489 199 155 128
0.0107114 -0.437306 -0.489 197 153 126
0.0116429 -0.437306 -0.489 197 153 124
0.0125743 -0.437306 -0.489 197 153 124
0.0135057 -0.437306 -0.489 196 153 121
0.0144371 -0.437306 -0.489 195 152 120
0.0153686 -0.437306 -0.489 196 151 122
0.0163 -0.437306 -0.489 197 152 123
0.0172314 -0.437306 -0.489 197 153 124
0.0181629 -0.437306 -0.489 197 153 124
0.0190943 -0.437306 -0.489 197 153 124
0.0200257 -0.437306 -0.489 195 151 122
0.0209571 -0.437306 -0.489 195 150 121
0.0218886 -0.437306 -0.489 195 150 121
0.02282 -0.437306 -0.489 196 149 121
0.0237514 -0.437306 -0.489 199 152 124
0.0246829 -0.437306 -0.489 199 154 125
0.0256143 -0.437306 -0.489 198 151 123
0.0265457 -0.437306 -0.489 197 150 122
0.0274771 -0.437306 -0.489 194 149 120
0.0284667 -0.4382 -0.49 193 148 119
0.0294 -0.4382 -0.49 193 148 119
0.0303333 -0.4382 -0.49 187 142 113
0.0312667 -0.4382 -0.49 182 135 107
0.0322 -0.4382 -0.49 181 134 106
0.0331333 -0.4382 -0.49 186 139 111
0.0340667 -0.4382 -0.49 189 142 114
0.035 -0.4382 -0.49 190 143 115
0.0360067 -0.439094 -0.491 189 142 114
0.0369419 -0.439094 -0.491 189 142 114
0.0378771 -0.439094 -0.491 187 140 112
0.0388124 -0.439094 -0.491 183 136 108
0.0397476 -0.439094 -0.491 180 133 105
0.0406829 -0.439094 -0.491 179 132 106
0.0416181 -0.439094 -0.491 180 133 107
0.04264 -0.439989 -0.492 178 128 101
0.0435771 -0.439989 -0.492 175 125 98
0.0446048 -0.440883 -0.493 172 125 97
0.0456362 -0.441777 -0.494 172 125 97
0.0466714 -0.442671 -0.495 166 121 98
0.0476143 -0.442671 -0.495 164 119 96
0.0486552 -0.443566 -0.496 160 115 96
0.0497 -0.44446 -0.497 158 113 94
0.0507486 -0.445354 -0.498 158 112 96
0.051801 -0.446249 -0.499 157 111 95
0.0527514 -0.446249 -0.499 152 109 92
0.0539171 -0.448037 -0.501 148 105 88
0.0549809 -0.448931 -0.502 144 102 86
0.0560486 -0.449826 -0.503 144 102 86
0.05712 -0.45072 -0.504 141 101 89
0.0581952 -0.451614 -0.505 138 98 86
0.0592743 -0.452509 -0.506 132 96 82
0.0603571 -0.453403 -0.507 132 96 82
0.0614438 -0.454297 -0.508 127 94 79
0.0625343 -0.455191 -0.509 126 93 78
0.0636286 -0.456086 -0.51 123 90 75
0.0648533 -0.457874 -0.512 121 88 73
0.0659571 -0.458769 -0.513 118 88 77
0.0670648 -0.459663 -0.514 115 85 74
0.0683086 -0.461451 -0.516 107 84 78
0.0694257 -0.462346 -0.517 104 81 75
0.0706829 -0.464134 -0.519 97 79 75
0.0719476 -0.465923 -0.521 96 78 74
0.07322 -0.467711 -0.523 94 79 76
0.0743581 -0.468606 -0.524 93 78 75
0.0756438 -0.470394 -0.526 91 75 75
0.0882686 -0.484703 -0.542 88 74 74
0.0896305 -0.486491 -0.544 88 77 81
0.0906667 -0.486491 -0.544 80 69 73
0.0917029 -0.486491 -0.544 61 58 65
0.0927391 -0.486491 -0.544 52 49 56
0.0937752 -0.486491 -0.544 64 64 76
0.0948114 -0.486491 -0.544 77 77 89
0.0958476 -0.486491 -0.544 83 86 101
0.0968838 -0.486491 -0.544 95 98 113
0.09792 -0.486491 -0.544 112 116 125
0.0987743 -0.485597 -0.543 123 127 136
0.0998086 -0.485597 -0.543 122 130 141
0.100843 -0.485597 -0.543 121 129 140
0.10169 -0.484703 -0.542 115 128 145
0.102722 -0.484703 -0.542 114 127 144
0.103754 -0.484703 -0.542 116 130 143
0.104787 -0.484703 -0.542 115 129 142
0.105819 -0.484703 -0.542 127 142 149
0.106851 -0.484703 -0.542 136 151 158
0.107884 -0.484703 -0.542 129 150 171
0.108916 -0.484703 -0.542 129 150 171
0.109949 -0.484703 -0.542 102 134 175
0.110981 -0.484703 -0.542 72 104 145
0.112013 -0.484703 -0.542 38 79 141
0.113046 -0.484703 -0.542 30 71 133
0.114078 -0.484703 -0.542 31 69 131
0.11511 -0.484703 -0.542 28 66 128
0.116143 -0.484703 -0.542 30 66 126
0.117175 -0.484703 -0.542 32 68 128
0.118208 -0.484703 -0.542 33 68 132
0.11924 -0.484703 -0.542 41 76 140
0.120272 -0.484703 -0.542 46 84 146
0.121305 -0.484703 -0.542 64 102 164
0.122337 -0.484703 -0.542 110 144 190
0.123597 -0.485597 -0.543 141 173 224
0.124631 -0.485597 -0.543 173 194 221
0.125434 -0.484703 -0.542 179 200 227
0.1267 -0.485597 -0.543 189 198 205
0.127734 -0.485597 -0.543 189 198 205
0.128769 -0.485597 -0.543 187 193 205
0.129803 -0.485597 -0.543 194 200 212
0.130837 -0.485597 -0.543 198 205 223
0.131871 -0.485597 -0.543 201 208 226
0.132906 -0.485597 -0.543 205 214 223
0.13394 -0.485597 -0.543 206 215 224
0.134974 -0.485597 -0.543 206 215 224
0.136009 -0.485597 -0.543 208 217 226
0.137043 -0.485597 -0.543 201 216 221
0.138077 -0.485597 -0.543 204 219 224
0.139111 -0.485597 -0.543 176 200 210
0.140146 -0.485597 -0.543 137 161 171
0.14118 -0.485597 -0.543 120 153 188
0.198066 -0.485597 -0.543 216 215 221
0.207374 -0.485597 -0.543 215 216 221
0.208409 -0.485597 -0.543 217 219 218
0.209443 -0.485597 -0.543 215 217 216
0.210477 -0.485597 -0.543 218 219 214
0.211511 -0.485597 -0.543 219 220 215
0.212546 -0.485597 -0.543 221 218 211
0.21358 -0.485597 -0.543 219 216 209
0.21501 -0.486491 -0.544 219 219 217
0.216046 -0.486491 -0.544 220 220 218
0.217082 -0.486491 -0.544 217 219 218
0.218519 -0.487386 -0.545 217 219 218
0.219557 -0.487386 -0.545 218 219 221
0.220595 -0.487386 -0.545 217 218 220
0.221633 -0.487386 -0.545 212 216 219
0.222671 -0.487386 -0.545 213 217 220
0.22371 -0.487386 -0.545 212 217 221
0.224748 -0.487386 -0.545 211 216 220
0.225786 -0.487386 -0.545 213 216 221
0.226824 -0.487386 -0.545 214 217 222
0.227862 -0.487386 -0.545 220 220 222
0.22848 -0.486491 -0.544 218 218 220
0.229516 -0.486491 -0.544 221 216 222
0.230552 -0.486491 -0.544 221 216 222
0.231589 -0.486491 -0.544 218 216 217
0.232625 -0.486491 -0.544 217 215 216
0.233661 -0.486491 -0.544 216 216 214
0.234697 -0.486491 -0.544 216 216 214
0.235733 -0.486491 -0.544 215 217 214
0.237205 -0.487386 -0.545 215 217 214
0.238243 -0.487386 -0.545 213 215 212
0.239281 -0.487386 -0.545 216 218 215
0.240319 -0.487386 -0.545 218 219 214
0.241357 -0.487386 -0.545 213 214 209
0.242395 -0.487386 -0.545 216 215 211
0.243433 -0.487386 -0.545 216 215 211
0.24492 -0.48828 -0.546 218 217 213
0.24596 -0.48828 -0.546 219 217 218
0.247 -0.48828 -0.546 216 214 215
0.24804 -0.48828 -0.546 214 214 212
0.24908 -0.48828 -0.546 213 213 211
0.25012 -0.48828 -0.546 214 214 214
0.25116 -0.48828 -0.546 216 216 216
0.2522 -0.48828 -0.546 217 217 217
0.25324 -0.48828 -0.546 216 216 216
