ply
format ascii 1.0
comment Created by Open3D
element vertex 1288
property double x
property double y
property double z
property uchar red
property uchar green
property uchar blue
end_header
-0.2921 -0.257024 -0.635 251 252 247
-0.291349 -0.257429 -0.636 251 252 247
-0.290137 -0.257429 -0.636 252 254 249
-0.28938 -0.257833 -0.637 248 250 245
-0.288167 -0.257833 -0.637 225 227 222
-0.287404 -0.258238 -0.638 175 177 172
-0.286637 -0.258643 -0.639 111 113 108
-0.28542 -0.258643 -0.639 109 111 106
-0.284648 -0.259048 -0.64 163 164 159
-0.283429 -0.259048 -0.64 186 187 182
-0.283091 -0.259857 -0.642 228 227 225
-0.281869 -0.259857 -0.642 245 245 243
-0.281083 -0.260262 -0.643 253 254 249
-0.280293 -0.260667 -0.644 251 252 247
-0.2795 -0.261071 -0.645 255 255 251
-0.279134 -0.261881 -0.647 251 252 247
-0.278331 -0.262286 -0.648 251 252 247
-0.277525 -0.26269 -0.649 251 252 247
-0.17112 -0.260667 -0.644 195 195 187
-0.168047 -0.257833 -0.637 190 190 182
-0.16631 -0.257024 -0.635 189 189 179
-0.1651 -0.257024 -0.635 189 189 179
-0.16389 -0.257024 -0.635 190 188 176
-0.162681 -0.257024 -0.635 189 187 175
-0.161471 -0.257024 -0.635 192 189 180
-0.160514 -0.257429 -0.636 193 190 181
-0.159553 -0.257833 -0.637 194 191 182
-0.158837 -0.258643 -0.639 194 192 180
-0.157867 -0.259048 -0.64 196 194 182
-0.157137 -0.259857 -0.642 197 195 183
-0.156157 -0.260262 -0.643 197 195 183
-0.155173 -0.260667 -0.644 197 195 183
-0.154186 -0.261071 -0.645 196 194 182
-0.153194 -0.261476 -0.646 195 193 181
-0.152199 -0.261881 -0.647 194 192 180
-0.1512 -0.262286 -0.648 193 191 179
-0.150197 -0.26269 -0.649 192 190 178
-0.14919 -0.263095 -0.65 191 189 177
-0.084679 -0.26269 -0.649 161 161 159
-0.0831857 -0.261881 -0.647 118 117 122
-0.0815733 -0.260667 -0.644 84 83 88
-0.0798476 -0.259048 -0.64 71 70 78
-0.0781371 -0.257429 -0.636 71 70 78
-0.0766838 -0.256619 -0.634 69 67 78
-0.0752381 -0.25581 -0.632 69 67 78
-0.0738 -0.255 -0.63 68 68 80
-0.0724848 -0.254595 -0.629 67 67 79
-0.0711733 -0.25419 -0.628 67 67 79
-0.0698657 -0.253786 -0.627 67 67 79
-0.0686714 -0.253786 -0.627 70 68 81
-0.0673695 -0.253381 -0.626 71 69 82
-0.0660714 -0.252976 -0.625 69 67 78
-0.064881 -0.252976 -0.625 69 67 78
-0.0636905 -0.252976 -0.625 69 67 78
-0.0625 -0.252976 -0.625 68 66 77
-0.0613095 -0.252976 -0.625 68 66 77
-0.0602152 -0.253381 -0.626 68 66 77
-0.0591171 -0.253786 -0.627 67 65 76
-0.0581076 -0.254595 -0.629 67 65 76
-0.057 -0.255 -0.63 67 65 76
-0.0558886 -0.255405 -0.631 68 66 77
-0.05486 -0.256214 -0.633 68 67 75
-0.053739 -0.256619 -0.634 68 67 75
-0.0526143 -0.257024 -0.635 70 69 77
-0.0515667 -0.257833 -0.637 69 68 76
-0.0505114 -0.258643 -0.639 69 68 76
-0.0493714 -0.259048 -0.64 69 68 76
-0.0482276 -0.259452 -0.641 71 70 76
-0.04708 -0.259857 -0.642 70 69 75
-0.046 -0.260667 -0.644 71 70 76
-0.0448429 -0.261071 -0.645 71 70 76
-0.0437495 -0.261881 -0.647 71 70 76
-0.0426486 -0.26269 -0.649 72 71 77
-0.0414762 -0.263095 -0.65 73 72 80
0.246777 -0.231524 -0.572 118 97 112
0.242667 -0.226667 -0.56 121 100 115
0.240687 -0.223833 -0.553 131 98 107
0.239117 -0.221405 -0.547 129 96 105
0.239281 -0.220595 -0.545 131 95 105
0.239878 -0.22019 -0.544 134 98 108
0.240471 -0.219786 -0.543 127 101 114
0.240616 -0.218976 -0.541 127 101 114
0.2412 -0.218571 -0.54 132 101 107
0.242229 -0.218571 -0.54 131 100 106
0.243257 -0.218571 -0.54 127 101 110
0.243833 -0.218167 -0.539 126 100 109
0.24486 -0.218167 -0.539 126 99 108
0.24543 -0.217762 -0.538 126 99 108
0.245997 -0.217357 -0.537 126 99 106
0.24702 -0.217357 -0.537 126 99 106
0.247581 -0.216952 -0.536 129 99 107
0.248602 -0.216952 -0.536 130 100 108
0.249623 -0.216952 -0.536 129 100 105
0.250644 -0.216952 -0.536 129 100 105
0.251665 -0.216952 -0.536 132 101 107
0.252214 -0.216548 -0.535 133 102 108
0.253233 -0.216548 -0.535 132 101 106
0.253777 -0.216143 -0.534 131 100 105
0.254794 -0.216143 -0.534 133 102 107
0.255811 -0.216143 -0.534 133 102 107
0.256829 -0.216143 -0.534 133 102 107
0.257846 -0.216143 -0.534 131 104 111
0.258378 -0.215738 -0.533 130 103 110
0.259393 -0.215738 -0.533 130 103 110
0.25992 -0.215333 -0.532 131 104 111
0.260933 -0.215333 -0.532 132 105 112
0.261947 -0.215333 -0.532 132 105 112
0.262466 -0.214929 -0.531 134 104 112
0.263477 -0.214929 -0.531 133 103 111
0.264489 -0.214929 -0.531 135 105 113
0.2655 -0.214929 -0.531 135 105 113
0.26601 -0.214524 -0.53 134 104 112
0.267019 -0.214524 -0.53 135 105 113
0.267523 -0.214119 -0.529 137 107 115
0.26853 -0.214119 -0.529 136 106 114
0.269029 -0.213714 -0.528 136 106 114
0.270034 -0.213714 -0.528 137 107 115
0.27104 -0.213714 -0.528 135 105 115
0.27153 -0.21331 -0.527 137 107 117
0.272534 -0.21331 -0.527 136 106 116
0.273019 -0.212905 -0.526 136 106 116
0.274021 -0.212905 -0.526 142 115 124
0.2745 -0.2125 -0.525 145 118 127
0.2755 -0.2125 -0.525 145 118 127
0.2765 -0.2125 -0.525 142 115 124
0.276971 -0.212095 -0.524 145 118 127
0.27797 -0.212095 -0.524 143 116 125
0.278435 -0.21169 -0.523 144 117 126
0.279431 -0.21169 -0.523 143 117 126
0.280428 -0.21169 -0.523 143 117 126
0.280886 -0.211286 -0.522 143 117 126
0.28188 -0.211286 -0.522 145 119 128
0.282332 -0.210881 -0.521 147 121 130
0.283325 -0.210881 -0.521 146 120 129
0.284317 -0.210881 -0.521 147 120 127
0.28531 -0.210881 -0.521 144 117 124
0.286302 -0.210881 -0.521 143 116 123
0.286743 -0.210476 -0.52 140 113 120
0.287733 -0.210476 -0.52 140 113 120
0.288724 -0.210476 -0.52 141 114 121
0.289714 -0.210476 -0.52 140 113 120
0.290705 -0.210476 -0.52 139 112 119
0.291134 -0.210071 -0.519 139 112 119
0.292123 -0.210071 -0.519 139 112 119
0.293111 -0.210071 -0.519 136 109 114
0.2941 -0.210071 -0.519 137 110 115
0.295089 -0.210071 -0.519 137 110 115
0.295507 -0.209667 -0.518 132 105 110
0.296493 -0.209667 -0.518 136 109 114
0.29748 -0.209667 -0.518 135 108 113
0.298467 -0.209667 -0.518 137 110 115
0.299453 -0.209667 -0.518 141 111 121
0.29986 -0.209262 -0.517 138 108 118
0.300845 -0.209262 -0.517 137 107 117
0.30183 -0.209262 -0.517 137 107 117
0.302814 -0.209262 -0.517 138 108 118
0.303211 -0.208857 -0.516 140 110 120
0.304194 -0.208857 -0.516 142 112 122
0.305177 -0.208857 -0.516 143 113 123
0.30616 -0.208857 -0.516 144 114 124
0.306548 -0.208452 -0.515 145 115 125
0.307529 -0.208452 -0.515 146 116 126
0.30851 -0.208452 -0.515 146 116 126
0.30949 -0.208452 -0.515 143 116 125
0.309869 -0.208048 -0.514 141 114 123
0.310848 -0.208048 -0.514 140 113 122
0.311827 -0.208048 -0.514 141 114 123
0.312806 -0.208048 -0.514 146 116 126
0.313785 -0.208048 -0.514 147 117 127
0.314764 -0.208048 -0.514 147 117 127
0.315743 -0.208048 -0.514 149 119 129
0.316722 -0.208048 -0.514 146 116 126
0.317701 -0.208048 -0.514 144 114 124
0.31806 -0.207643 -0.513 144 114 124
0.319037 -0.207643 -0.513 140 113 122
0.320014 -0.207643 -0.513 140 113 122
0.320366 -0.207238 -0.512 139 112 121
0.321341 -0.207238 -0.512 138 111 120
0.322316 -0.207238 -0.512 138 108 118
0.323291 -0.207238 -0.512 136 106 116
0.324267 -0.207238 -0.512 135 105 115
0.325242 -0.207238 -0.512 135 105 115
0.326217 -0.207238 -0.512 133 106 115
0.326553 -0.206833 -0.511 134 107 116
0.327527 -0.206833 -0.511 129 108 115
0.3285 -0.206833 -0.511 130 109 116
0.329473 -0.206833 -0.511 134 108 117
0.330447 -0.206833 -0.511 131 105 114
0.33142 -0.206833 -0.511 159 136 146
0.332393 -0.206833 -0.511 209 186 196
0.332714 -0.206429 -0.51 214 198 209
0.333686 -0.206429 -0.51 212 196 207
0.334657 -0.206429 -0.51 212 196 207
0.335629 -0.206429 -0.51 187 167 179
0.3366 -0.206429 -0.51 137 117 129
0.337571 -0.206429 -0.51 137 109 121
0.338543 -0.206429 -0.51 134 106 118
0.34018 -0.206833 -0.511 131 105 114
0.341821 -0.207238 -0.512 134 108 117
0.344135 -0.208048 -0.514 114 102 104
0.346457 -0.208857 -0.516 83 71 73
0.348787 -0.209667 -0.518 50 46 61
0.409531 -0.223429 -0.552 127 91 95
0.407608 -0.22181 -0.548 135 89 89
0.404923 -0.219786 -0.543 138 92 92
0.405957 -0.219786 -0.543 138 92 92
0.405492 -0.218976 -0.541 144 94 95
0.404269 -0.217762 -0.538 148 98 99
0.40454 -0.217357 -0.537 155 104 103
0.404052 -0.216548 -0.535 159 108 107
0.404314 -0.216143 -0.534 164 107 100
0.404572 -0.215738 -0.533 163 106 99
0.404827 -0.215333 -0.532 163 106 97
0.40584 -0.215333 -0.532 161 104 95
0.406089 -0.214929 -0.531 155 105 98
0.406333 -0.214524 -0.53 156 106 99
0.406574 -0.214119 -0.529 157 102 97
0.407582 -0.214119 -0.529 155 100 95
0.40859 -0.214119 -0.529 153 98 93
0.408823 -0.213714 -0.528 152 97 92
0.409829 -0.213714 -0.528 151 96 91
0.410056 -0.21331 -0.527 150 95 90
0.41106 -0.21331 -0.527 150 95 90
0.412064 -0.21331 -0.527 150 95 90
0.413068 -0.21331 -0.527 155 100 95
0.414071 -0.21331 -0.527 156 101 96
0.415075 -0.21331 -0.527 154 99 94
0.416079 -0.21331 -0.527 151 96 91
0.417083 -0.21331 -0.527 152 97 92
0.418087 -0.21331 -0.527 154 99 94
0.41909 -0.21331 -0.527 156 101 94
0.420094 -0.21331 -0.527 156 101 94
0.421098 -0.21331 -0.527 157 102 95
0.422102 -0.21331 -0.527 157 104 96
0.423106 -0.21331 -0.527 157 104 96
0.42411 -0.21331 -0.527 157 102 97
0.425113 -0.21331 -0.527 156 101 96
0.426117 -0.21331 -0.527 157 102 97
0.427121 -0.21331 -0.527 158 103 98
0.428125 -0.21331 -0.527 151 98 90
0.429129 -0.21331 -0.527 142 89 81
0.430132 -0.21331 -0.527 133 85 75
0.431136 -0.21331 -0.527 133 85 75
0.43214 -0.21331 -0.527 134 85 78
0.433144 -0.21331 -0.527 134 85 78
0.434148 -0.21331 -0.527 135 85 78
0.435151 -0.21331 -0.527 135 85 78
0.436155 -0.21331 -0.527 138 88 79
0.437989 -0.213714 -0.528 142 92 83
0.438994 -0.213714 -0.528 141 92 85
0.440833 -0.214119 -0.529 141 92 85
0.442676 -0.214524 -0.53 139 92 84
0.443686 -0.214524 -0.53 138 91 83
0.445534 -0.214929 -0.531 139 92 84
0.446546 -0.214929 -0.531 141 94 86
0.4484 -0.215333 -0.532 142 95 85
0.450258 -0.215738 -0.533 142 95 85
0.45212 -0.216143 -0.534 140 93 83
0.454834 -0.216952 -0.536 137 90 80
0.456706 -0.217357 -0.537 133 89 78
0.459433 -0.218167 -0.539 132 88 77
0.46046 -0.218167 -0.539 132 88 77
0.462343 -0.218571 -0.54 133 89 78
0.465088 -0.219381 -0.542 136 92 81
0.46784 -0.22019 -0.544 137 93 80
0.4706 -0.221 -0.546 135 91 78
0.473368 -0.22181 -0.548 138 90 78
0.476143 -0.222619 -0.55 140 92 80
0.479793 -0.223833 -0.553 136 89 81
0.482586 -0.224643 -0.555 136 89 81
0.486257 -0.225857 -0.558 136 93 86
0.491687 -0.227881 -0.563 134 91 84
0.49626 -0.2295 -0.567 134 95 88
0.501726 -0.231524 -0.572 137 98 91
-0.335109 -0.26352 -0.648 252 253 248
-0.332329 -0.2623 -0.645 252 253 248
-0.32956 -0.26108 -0.642 252 253 248
-0.326803 -0.25986 -0.639 252 253 248
-0.324567 -0.259047 -0.637 252 253 248
-0.322846 -0.25864 -0.636 251 252 247
-0.321129 -0.258233 -0.635 251 252 247
-0.319415 -0.257827 -0.634 251 253 248
-0.317706 -0.25742 -0.633 253 255 250
-0.3165 -0.25742 -0.633 253 255 250
-0.314796 -0.257013 -0.632 251 253 248
-0.313592 -0.257013 -0.632 251 253 248
-0.312389 -0.257013 -0.632 250 252 247
-0.311185 -0.257013 -0.632 249 251 246
-0.309981 -0.257013 -0.632 250 252 247
-0.308777 -0.257013 -0.632 255 255 251
-0.307573 -0.257013 -0.632 255 255 251
-0.30637 -0.257013 -0.632 254 255 250
-0.305166 -0.257013 -0.632 253 254 249
-0.304443 -0.25742 -0.633 251 252 247
-0.303237 -0.25742 -0.633 250 251 246
-0.302031 -0.25742 -0.633 252 253 248
-0.300826 -0.25742 -0.633 249 250 245
-0.29962 -0.25742 -0.633 247 248 243
-0.298414 -0.25742 -0.633 250 251 246
-0.297678 -0.257827 -0.634 254 255 250
-0.29647 -0.257827 -0.634 254 255 250
-0.295263 -0.257827 -0.634 255 255 251
-0.294519 -0.258233 -0.635 255 255 251
-0.29331 -0.258233 -0.635 255 255 251
-0.29256 -0.25864 -0.636 254 255 251
-0.291349 -0.25864 -0.636 254 255 251
-0.290593 -0.259047 -0.637 255 255 251
-0.28938 -0.259047 -0.637 253 254 249
-0.288619 -0.259453 -0.638 254 254 252
-0.287404 -0.259453 -0.638 237 237 235
-0.286637 -0.25986 -0.639 195 197 192
-0.285867 -0.260267 -0.64 136 138 133
-0.284648 -0.260267 -0.64 132 133 128
-0.283871 -0.260673 -0.641 162 163 158
-0.283091 -0.26108 -0.642 188 188 186
-0.282308 -0.261487 -0.643 224 224 222
-0.281083 -0.261487 -0.643 253 253 251
-0.280729 -0.2623 -0.645 254 255 253
-0.280367 -0.263113 -0.647 249 251 248
-0.279566 -0.26352 -0.648 253 254 248
-0.27919 -0.264333 -0.65 253 254 248
-0.171917 -0.263113 -0.647 205 205 197
-0.168838 -0.260267 -0.64 194 194 186
-0.16631 -0.258233 -0.635 193 190 181
-0.1651 -0.258233 -0.635 192 189 180
-0.16389 -0.258233 -0.635 192 190 178
-0.162681 -0.258233 -0.635 193 191 179
-0.161471 -0.258233 -0.635 193 190 181
-0.160262 -0.258233 -0.635 194 191 182
-0.159303 -0.25864 -0.636 195 192 183
-0.15834 -0.259047 -0.637 195 192 183
-0.15762 -0.25986 -0.639 197 195 183
-0.156892 -0.260673 -0.641 197 195 183
-0.155914 -0.26108 -0.642 197 195 183
-0.154932 -0.261487 -0.643 196 194 182
-0.153947 -0.261893 -0.644 196 194 182
-0.152957 -0.2623 -0.645 196 194 182
-0.151964 -0.262707 -0.646 195 193 181
-0.150967 -0.263113 -0.647 194 192 180
-0.150197 -0.263927 -0.649 193 191 179
-0.14919 -0.264333 -0.65 191 189 177
-0.0885238 -0.264333 -0.65 204 205 200
-0.0870171 -0.26352 -0.648 171 172 167
-0.0853857 -0.2623 -0.645 129 131 130
-0.0838962 -0.261487 -0.643 97 99 98
-0.0824143 -0.260673 -0.641 76 77 82
-0.08094 -0.25986 -0.639 67 68 73
-0.0792238 -0.258233 -0.635 67 65 76
-0.0776457 -0.257013 -0.632 69 67 78
-0.076321 -0.256607 -0.631 70 68 79
-0.074881 -0.255793 -0.629 70 68 79
-0.0734486 -0.25498 -0.627 70 68 79
-0.0722543 -0.25498 -0.627 69 67 78
-0.0709467 -0.254573 -0.626 69 67 78
-0.0696429 -0.254167 -0.625 69 67 78
-0.0684524 -0.254167 -0.625 70 68 79
-0.0673695 -0.254573 -0.626 70 68 79
-0.0660714 -0.254167 -0.625 68 66 77
-0.064881 -0.254167 -0.625 68 66 77
-0.0637924 -0.254573 -0.626 68 66 77
-0.0625 -0.254167 -0.625 68 66 77
-0.0614076 -0.254573 -0.626 68 66 77
-0.0603114 -0.25498 -0.627 68 66 77
-0.0593057 -0.255793 -0.629 68 66 77
-0.0582 -0.2562 -0.63 68 66 77
-0.0570905 -0.256607 -0.631 67 66 74
-0.0559771 -0.257013 -0.632 68 67 75
-0.0549467 -0.257827 -0.634 68 67 75
-0.0538238 -0.258233 -0.635 69 68 76
-0.0526971 -0.25864 -0.636 70 69 77
-0.0515667 -0.259047 -0.637 70 69 77
-0.0505114 -0.25986 -0.639 69 68 76
-0.0493714 -0.260267 -0.64 70 69 77
-0.0483029 -0.26108 -0.642 70 69 75
-0.0471533 -0.261487 -0.643 69 68 74
-0.046 -0.261893 -0.644 69 68 74
-0.0449124 -0.262707 -0.646 70 69 75
-0.0437495 -0.263113 -0.647 71 70 76
-0.0426486 -0.263927 -0.649 71 70 76
-0.0414762 -0.264333 -0.65 73 72 80
0.247209 -0.23302 -0.573 121 100 115
0.2431 -0.22814 -0.561 119 98 113
0.241122 -0.225293 -0.554 130 97 106
0.239554 -0.222853 -0.548 130 97 106
0.23972 -0.22204 -0.546 132 96 106
0.239878 -0.221227 -0.544 133 97 107
0.240914 -0.221227 -0.544 127 101 114
0.241506 -0.22082 -0.543 128 102 115
0.242093 -0.220413 -0.542 132 101 107
0.242677 -0.220007 -0.541 128 97 103
0.243257 -0.2196 -0.54 127 100 109
0.244286 -0.2196 -0.54 126 99 108
0.245314 -0.2196 -0.54 126 99 108
0.245887 -0.219193 -0.539 126 99 108
0.246455 -0.218787 -0.538 127 100 109
0.24702 -0.21838 -0.537 128 101 110
0.248043 -0.21838 -0.537 132 102 110
0.249066 -0.21838 -0.537 134 104 112
0.250089 -0.21838 -0.537 129 99 107
0.251111 -0.21838 -0.537 130 100 108
0.251665 -0.217973 -0.536 132 103 108
0.252686 -0.217973 -0.536 132 103 108
0.253233 -0.217567 -0.535 132 101 107
0.254252 -0.217567 -0.535 132 101 107
0.255271 -0.217567 -0.535 133 102 108
0.25629 -0.217567 -0.535 133 102 108
0.256829 -0.21716 -0.534 132 101 107
0.257846 -0.21716 -0.534 130 103 110
0.258863 -0.21716 -0.534 130 103 110
0.259393 -0.216753 -0.533 131 104 111
0.260409 -0.216753 -0.533 131 104 111
0.260933 -0.216347 -0.532 133 103 111
0.261947 -0.216347 -0.532 133 103 111
0.26296 -0.216347 -0.532 133 103 111
0.263477 -0.21594 -0.531 134 104 112
0.264489 -0.21594 -0.531 136 106 114
0.265 -0.215533 -0.53 135 105 113
0.26601 -0.215533 -0.53 136 106 114
0.267019 -0.215533 -0.53 137 107 115
0.267523 -0.215127 -0.529 137 107 115
0.26853 -0.215127 -0.529 136 106 114
0.269029 -0.21472 -0.528 137 107 115
0.270034 -0.21472 -0.528 138 108 116
0.27104 -0.21472 -0.528 136 106 116
0.27153 -0.214313 -0.527 138 108 118
0.272534 -0.214313 -0.527 135 105 115
0.273019 -0.213907 -0.526 136 106 116
0.274021 -0.213907 -0.526 144 114 124
0.2745 -0.2135 -0.525 147 117 127
0.2755 -0.2135 -0.525 147 117 127
0.2765 -0.2135 -0.525 143 116 125
0.276971 -0.213093 -0.524 144 117 126
0.27797 -0.213093 -0.524 144 117 126
0.278968 -0.213093 -0.524 145 118 127
0.279431 -0.212687 -0.523 144 117 126
0.280428 -0.212687 -0.523 143 116 125
0.280886 -0.21228 -0.522 144 117 126
0.28188 -0.21228 -0.522 145 118 127
0.282874 -0.21228 -0.522 146 119 128
0.283325 -0.211873 -0.521 147 120 129
0.284317 -0.211873 -0.521 146 119 126
0.28531 -0.211873 -0.521 144 117 124
0.286302 -0.211873 -0.521 141 114 121
0.287294 -0.211873 -0.521 138 111 118
0.287733 -0.211467 -0.52 137 110 117
0.288724 -0.211467 -0.52 138 111 118
0.289714 -0.211467 -0.52 140 113 120
0.290705 -0.211467 -0.52 141 114 121
0.291134 -0.21106 -0.519 139 112 119
0.292123 -0.21106 -0.519 138 111 118
0.293111 -0.21106 -0.519 136 109 116
0.2941 -0.21106 -0.519 136 109 116
0.295089 -0.21106 -0.519 136 109 116
0.296077 -0.21106 -0.519 137 107 115
0.296493 -0.210653 -0.518 138 108 116
0.29748 -0.210653 -0.518 138 108 116
0.298467 -0.210653 -0.518 138 108 116
0.299453 -0.210653 -0.518 139 109 119
0.30044 -0.210653 -0.518 138 108 118
0.300845 -0.210247 -0.517 138 108 118
0.30183 -0.210247 -0.517 138 108 118
0.302814 -0.210247 -0.517 138 108 118
0.303211 -0.20984 -0.516 140 110 120
0.304194 -0.20984 -0.516 142 112 122
0.305177 -0.20984 -0.516 142 112 122
0.30616 -0.20984 -0.516 144 114 124
0.306548 -0.209433 -0.515 147 117 127
0.307529 -0.209433 -0.515 147 117 127
0.30851 -0.209433 -0.515 147 117 127
0.30889 -0.209027 -0.514 144 117 126
0.309869 -0.209027 -0.514 142 115 124
0.310848 -0.209027 -0.514 141 114 123
0.311827 -0.209027 -0.514 142 115 124
0.312806 -0.209027 -0.514 147 120 129
0.313785 -0.209027 -0.514 147 120 129
0.314764 -0.209027 -0.514 147 120 129
0.315743 -0.209027 -0.514 148 118 128
0.316106 -0.20862 -0.513 145 115 125
0.317083 -0.20862 -0.513 144 114 124
0.31806 -0.20862 -0.513 143 113 123
0.319037 -0.20862 -0.513 139 112 121
0.320014 -0.20862 -0.513 140 113 122
0.320366 -0.208213 -0.512 140 113 122
0.321341 -0.208213 -0.512 139 112 121
0.322316 -0.208213 -0.512 137 110 119
0.323291 -0.208213 -0.512 135 108 117
0.324267 -0.208213 -0.512 134 107 116
0.325242 -0.208213 -0.512 135 108 117
0.326217 -0.208213 -0.512 136 109 118
0.326553 -0.207807 -0.511 137 110 119
0.327527 -0.207807 -0.511 128 105 113
0.3285 -0.207807 -0.511 138 115 123
0.329473 -0.207807 -0.511 136 110 119
0.330447 -0.207807 -0.511 128 102 111
0.33142 -0.207807 -0.511 133 110 120
0.332393 -0.207807 -0.511 140 117 127
0.333367 -0.207807 -0.511 155 139 150
0.333686 -0.2074 -0.51 180 164 175
0.334657 -0.2074 -0.51 180 164 175
0.335629 -0.2074 -0.51 217 197 209
0.3366 -0.2074 -0.51 147 127 139
0.337571 -0.2074 -0.51 135 107 121
0.339207 -0.207807 -0.511 135 107 121
0.34018 -0.207807 -0.511 135 109 118
0.341821 -0.208213 -0.512 131 105 114
0.344135 -0.209027 -0.514 108 96 100
0.346457 -0.20984 -0.516 72 60 64
0.348787 -0.210653 -0.518 55 51 66
0.40879 -0.224073 -0.551 136 97 100
0.406864 -0.222447 -0.547 147 97 96
0.404923 -0.22082 -0.543 147 97 96
0.405957 -0.22082 -0.543 147 97 96
0.405492 -0.220007 -0.541 147 96 95
0.404269 -0.218787 -0.538 148 97 96
0.40454 -0.21838 -0.537 155 101 101
0.404808 -0.217973 -0.536 158 104 104
0.405071 -0.217567 -0.535 162 104 100
0.404572 -0.216753 -0.533 162 104 100
0.404827 -0.216347 -0.532 162 103 95
0.40584 -0.216347 -0.532 161 102 94
0.406089 -0.21594 -0.531 156 101 94
0.4071 -0.21594 -0.531 156 101 94
0.407343 -0.215533 -0.53 152 97 92
0.407582 -0.215127 -0.529 152 97 92
0.40859 -0.215127 -0.529 152 97 92
0.408823 -0.21472 -0.528 152 97 92
0.409829 -0.21472 -0.528 152 97 92
0.410834 -0.21472 -0.528 151 96 91
0.41106 -0.214313 -0.527 151 96 91
0.412064 -0.214313 -0.527 152 97 92
0.413068 -0.214313 -0.527 156 101 96
0.414071 -0.214313 -0.527 156 101 96
0.415075 -0.214313 -0.527 153 98 93
0.416079 -0.214313 -0.527 150 95 90
0.417083 -0.214313 -0.527 152 97 92
0.418087 -0.214313 -0.527 154 99 94
0.41909 -0.214313 -0.527 157 102 97
0.420094 -0.214313 -0.527 159 104 99
0.421098 -0.214313 -0.527 159 104 99
0.422102 -0.214313 -0.527 156 106 97
0.423106 -0.214313 -0.527 158 108 99
0.42411 -0.214313 -0.527 159 106 100
0.425113 -0.214313 -0.527 156 103 97
0.426117 -0.214313 -0.527 153 100 94
0.427121 -0.214313 -0.527 150 97 91
0.428125 -0.214313 -0.527 143 93 84
0.429129 -0.214313 -0.527 137 87 78
0.430132 -0.214313 -0.527 132 84 74
0.431136 -0.214313 -0.527 132 84 74
0.43214 -0.214313 -0.527 133 84 77
0.433144 -0.214313 -0.527 134 85 78
0.434148 -0.214313 -0.527 135 86 79
0.435151 -0.214313 -0.527 137 88 81
0.436155 -0.214313 -0.527 140 92 82
0.437989 -0.21472 -0.528 143 95 85
0.438994 -0.21472 -0.528 143 94 87
0.44 -0.21472 -0.528 141 92 85
0.441841 -0.215127 -0.529 138 89 82
0.443686 -0.215533 -0.53 136 87 80
0.445534 -0.21594 -0.531 139 90 83
0.446546 -0.21594 -0.531 141 92 85
0.4484 -0.216347 -0.532 140 93 83
0.450258 -0.216753 -0.533 139 92 82
0.45212 -0.21716 -0.534 137 90 80
0.453986 -0.217567 -0.535 135 88 78
0.456706 -0.21838 -0.537 134 87 77
0.458581 -0.218787 -0.538 134 87 77
0.459606 -0.218787 -0.538 134 87 77
0.461487 -0.219193 -0.539 135 88 78
0.46423 -0.220007 -0.541 139 92 82
0.46698 -0.22082 -0.543 140 93 83
0.469738 -0.221633 -0.545 139 92 82
0.472504 -0.222447 -0.547 139 90 76
0.476143 -0.223667 -0.55 142 93 79
0.478926 -0.22448 -0.552 135 88 78
0.481716 -0.225293 -0.554 132 85 75
0.485386 -0.226513 -0.557 130 87 78
0.48994 -0.22814 -0.561 127 84 75
0.49451 -0.229767 -0.565 128 88 80
-0.336143 -0.265571 -0.65 252 253 248
-0.333874 -0.264754 -0.648 252 253 248
-0.3311 -0.263529 -0.645 252 253 248
-0.328337 -0.262303 -0.642 252 253 248
-0.326095 -0.261486 -0.64 252 253 248
-0.323353 -0.26026 -0.637 251 252 247
-0.321634 -0.259851 -0.636 251 252 247
-0.319919 -0.259443 -0.635 252 254 249
-0.318208 -0.259034 -0.634 253 255 250
-0.3165 -0.258626 -0.633 252 254 249
-0.314796 -0.258217 -0.632 251 253 248
-0.313592 -0.258217 -0.632 251 253 248
-0.312389 -0.258217 -0.632 251 253 248
-0.311185 -0.258217 -0.632 251 253 248
-0.309981 -0.258217 -0.632 251 253 248
-0.308777 -0.258217 -0.632 255 255 251
-0.307573 -0.258217 -0.632 255 255 251
-0.30637 -0.258217 -0.632 255 255 250
-0.305649 -0.258626 -0.633 255 255 250
-0.304443 -0.258626 -0.633 254 255 249
-0.303237 -0.258626 -0.633 253 254 249
-0.302031 -0.258626 -0.633 254 255 250
-0.300826 -0.258626 -0.633 255 255 251
-0.29962 -0.258626 -0.633 254 255 250
-0.298414 -0.258626 -0.633 255 255 251
-0.297678 -0.259034 -0.634 255 255 251
-0.29647 -0.259034 -0.634 255 255 251
-0.295263 -0.259034 -0.634 255 255 251
-0.294519 -0.259443 -0.635 255 255 253
-0.29331 -0.259443 -0.635 255 255 253
-0.29256 -0.259851 -0.636 254 255 251
-0.291807 -0.26026 -0.637 254 255 251
-0.290593 -0.26026 -0.637 255 255 251
-0.289834 -0.260669 -0.638 252 253 248
-0.288619 -0.260669 -0.638 255 255 251
-0.287854 -0.261077 -0.639 250 251 246
-0.287086 -0.261486 -0.64 240 241 236
-0.285867 -0.261486 -0.64 199 200 195
-0.285092 -0.261894 -0.641 153 155 150
-0.284314 -0.262303 -0.642 150 152 147
-0.283532 -0.262711 -0.643 163 163 161
-0.282747 -0.26312 -0.644 187 187 185
-0.28152 -0.26312 -0.644 245 245 243
-0.281164 -0.263937 -0.646 250 250 248
-0.2808 -0.264754 -0.648 250 250 248
-0.280429 -0.265571 -0.65 253 254 248
-0.172449 -0.265163 -0.649 223 223 215
-0.169366 -0.262303 -0.642 205 205 197
-0.166833 -0.26026 -0.637 196 196 186
-0.1651 -0.259443 -0.635 192 192 182
-0.163632 -0.259034 -0.634 192 189 180
-0.162425 -0.259034 -0.634 195 192 183
-0.161217 -0.259034 -0.634 194 191 182
-0.16001 -0.259034 -0.634 195 192 183
-0.159052 -0.259443 -0.635 196 193 184
-0.158091 -0.259851 -0.636 196 193 184
-0.157373 -0.260669 -0.638 198 196 184
-0.156403 -0.261077 -0.639 198 196 184
-0.155671 -0.261894 -0.641 197 195 183
-0.154691 -0.262303 -0.642 197 195 183
-0.153708 -0.262711 -0.643 197 195 183
-0.15272 -0.26312 -0.644 197 195 183
-0.151729 -0.263529 -0.645 197 195 183
-0.150733 -0.263937 -0.646 195 193 181
-0.150197 -0.265163 -0.649 193 191 179
-0.14919 -0.265571 -0.65 192 190 178
-0.0922381 -0.265571 -0.65 224 220 211
-0.09086 -0.265163 -0.649 204 199 195
-0.0893476 -0.264346 -0.647 181 176 172
-0.0878429 -0.263529 -0.645 143 143 143
-0.0863457 -0.262711 -0.643 108 108 108
-0.0847238 -0.261486 -0.64 80 80 82
-0.0831133 -0.26026 -0.637 73 73 75
-0.0816429 -0.259443 -0.635 71 70 78
-0.08018 -0.258626 -0.633 68 67 75
-0.0786 -0.2574 -0.63 68 66 79
-0.0771543 -0.256583 -0.628 68 66 79
-0.0758371 -0.256174 -0.627 69 67 80
-0.0746429 -0.256174 -0.627 70 68 81
-0.0732143 -0.255357 -0.625 70 68 79
-0.0720238 -0.255357 -0.625 69 67 78
-0.07072 -0.254949 -0.624 69 67 78
-0.0695314 -0.254949 -0.624 69 67 78
-0.0683429 -0.254949 -0.624 69 67 78
-0.0671543 -0.254949 -0.624 67 65 76
-0.0659657 -0.254949 -0.624 68 66 77
-0.064881 -0.255357 -0.625 68 66 77
-0.0636905 -0.255357 -0.625 69 67 78
-0.0626 -0.255766 -0.626 69 67 78
-0.0614076 -0.255766 -0.626 68 66 77
-0.0604076 -0.256583 -0.628 68 66 77
-0.0594 -0.2574 -0.63 68 66 77
-0.0582924 -0.257809 -0.631 68 66 77
-0.057181 -0.258217 -0.632 69 68 76
-0.0561543 -0.259034 -0.634 69 68 76
-0.0550333 -0.259443 -0.635 69 68 76
-0.0539086 -0.259851 -0.636 69 68 76
-0.05278 -0.26026 -0.637 69 68 76
-0.0516476 -0.260669 -0.638 69 68 76
-0.0505114 -0.261077 -0.639 70 69 77
-0.0494486 -0.261894 -0.641 70 69 77
-0.0483029 -0.262303 -0.642 69 68 73
-0.0471533 -0.262711 -0.643 69 68 73
-0.046 -0.26312 -0.644 68 67 72
-0.0449124 -0.263937 -0.646 70 69 74
-0.0438171 -0.264754 -0.648 71 70 76
-0.0426486 -0.265163 -0.649 72 71 77
0.241992 -0.227166 -0.556 128 95 106
0.240429 -0.224714 -0.55 129 96 107
0.240598 -0.223897 -0.548 128 95 106
0.24076 -0.22308 -0.546 128 95 106
0.241357 -0.222671 -0.545 124 97 112
0.24195 -0.222263 -0.544 126 99 114
0.24254 -0.221854 -0.543 130 100 108
0.243126 -0.221446 -0.542 127 97 105
0.243708 -0.221037 -0.541 126 99 108
0.244738 -0.221037 -0.541 125 98 107
0.245314 -0.220629 -0.54 125 98 107
0.246343 -0.220629 -0.54 126 99 108
0.246913 -0.22022 -0.539 129 99 109
0.24748 -0.219811 -0.538 129 99 109
0.248505 -0.219811 -0.538 128 98 108
0.24953 -0.219811 -0.538 129 99 109
0.250089 -0.219403 -0.537 129 99 107
0.251111 -0.219403 -0.537 130 100 108
0.252134 -0.219403 -0.537 132 102 110
0.253157 -0.219403 -0.537 132 102 110
0.253707 -0.218994 -0.536 131 101 109
0.254728 -0.218994 -0.536 131 101 109
0.255271 -0.218586 -0.535 131 101 109
0.25629 -0.218586 -0.535 131 101 109
0.25731 -0.218586 -0.535 131 101 109
0.257846 -0.218177 -0.534 130 103 110
0.258863 -0.218177 -0.534 130 103 110
0.259393 -0.217769 -0.533 133 103 111
0.260409 -0.217769 -0.533 133 103 111
0.260933 -0.21736 -0.532 132 102 110
0.261947 -0.21736 -0.532 132 102 110
0.26296 -0.21736 -0.532 133 103 111
0.263477 -0.216951 -0.531 133 103 111
0.264489 -0.216951 -0.531 137 107 115
0.265 -0.216543 -0.53 136 106 114
0.26601 -0.216543 -0.53 137 107 115
0.267019 -0.216543 -0.53 138 108 116
0.267523 -0.216134 -0.529 137 107 115
0.26853 -0.216134 -0.529 137 107 115
0.269538 -0.216134 -0.529 138 108 116
0.270034 -0.215726 -0.528 138 108 116
0.270527 -0.215317 -0.527 137 107 117
0.27153 -0.215317 -0.527 139 109 119
0.272534 -0.215317 -0.527 135 105 115
0.273019 -0.214909 -0.526 138 108 118
0.274021 -0.214909 -0.526 145 115 125
0.2745 -0.2145 -0.525 147 117 127
0.2755 -0.2145 -0.525 147 117 127
0.2765 -0.2145 -0.525 147 117 127
0.2775 -0.2145 -0.525 147 117 127
0.27797 -0.214091 -0.524 146 116 126
0.278968 -0.214091 -0.524 147 117 127
0.279431 -0.213683 -0.523 146 116 126
0.280428 -0.213683 -0.523 146 116 126
0.280886 -0.213274 -0.522 147 117 127
0.28188 -0.213274 -0.522 148 118 128
0.282874 -0.213274 -0.522 145 118 127
0.283325 -0.212866 -0.521 146 119 128
0.284317 -0.212866 -0.521 146 119 128
0.28531 -0.212866 -0.521 144 117 126
0.286302 -0.212866 -0.521 138 111 120
0.287294 -0.212866 -0.521 137 110 119
0.287733 -0.212457 -0.52 137 110 119
0.288724 -0.212457 -0.52 137 110 119
0.289714 -0.212457 -0.52 142 112 122
0.290705 -0.212457 -0.52 142 112 122
0.291134 -0.212049 -0.519 141 111 119
0.292123 -0.212049 -0.519 139 109 117
0.293111 -0.212049 -0.519 138 108 116
0.2941 -0.212049 -0.519 137 107 115
0.295089 -0.212049 -0.519 137 107 115
0.296077 -0.212049 -0.519 139 109 117
0.296493 -0.21164 -0.518 137 107 115
0.29748 -0.21164 -0.518 138 108 116
0.298467 -0.21164 -0.518 139 109 117
0.299453 -0.21164 -0.518 138 108 118
0.30044 -0.21164 -0.518 138 108 118
0.300845 -0.211231 -0.517 139 109 119
0.30183 -0.211231 -0.517 140 110 120
0.302814 -0.211231 -0.517 140 110 120
0.303211 -0.210823 -0.516 142 112 122
0.304194 -0.210823 -0.516 143 113 123
0.305177 -0.210823 -0.516 142 112 122
0.30616 -0.210823 -0.516 144 114 124
0.306548 -0.210414 -0.515 147 117 127
0.307529 -0.210414 -0.515 147 117 127
0.30851 -0.210414 -0.515 147 117 127
0.30949 -0.210414 -0.515 145 118 127
0.309869 -0.210006 -0.514 144 117 126
0.310848 -0.210006 -0.514 143 116 125
0.311827 -0.210006 -0.514 144 117 126
0.312806 -0.210006 -0.514 149 122 131
0.313785 -0.210006 -0.514 149 122 131
0.314764 -0.210006 -0.514 149 122 131
0.315743 -0.210006 -0.514 145 118 127
0.316106 -0.209597 -0.513 143 116 125
0.317083 -0.209597 -0.513 144 117 126
0.31806 -0.209597 -0.513 142 115 124
0.319037 -0.209597 -0.513 140 113 122
0.320014 -0.209597 -0.513 141 114 123
0.320366 -0.209189 -0.512 140 113 122
0.321341 -0.209189 -0.512 139 112 121
0.321687 -0.20878 -0.511 137 110 119
0.32266 -0.20878 -0.511 135 108 117
0.323633 -0.20878 -0.511 135 108 117
0.324607 -0.20878 -0.511 135 108 117
0.32558 -0.20878 -0.511 135 109 118
0.326553 -0.20878 -0.511 136 110 119
0.327527 -0.20878 -0.511 131 108 114
0.327857 -0.208371 -0.51 133 110 116
0.328829 -0.208371 -0.51 136 110 119
0.3298 -0.208371 -0.51 140 114 123
0.330771 -0.208371 -0.51 195 171 184
0.331743 -0.208371 -0.51 205 181 194
0.332714 -0.208371 -0.51 183 165 177
0.333686 -0.208371 -0.51 190 172 184
0.334657 -0.208371 -0.51 190 172 184
0.335629 -0.208371 -0.51 221 199 212
0.3366 -0.208371 -0.51 152 130 143
0.337571 -0.208371 -0.51 136 108 122
0.339207 -0.20878 -0.511 137 109 123
0.340846 -0.209189 -0.512 135 109 120
0.342489 -0.209597 -0.513 126 100 111
0.344135 -0.210006 -0.514 107 92 97
0.347129 -0.211231 -0.517 67 52 57
0.34946 -0.212049 -0.519 56 54 68
0.41662 -0.230026 -0.563 137 98 99
0.40879 -0.225123 -0.551 139 100 101
0.406864 -0.223489 -0.547 151 102 98
0.404923 -0.221854 -0.543 151 102 98
0.405957 -0.221854 -0.543 151 102 98
0.405492 -0.221037 -0.541 147 96 93
0.40502 -0.22022 -0.539 145 94 91
0.40454 -0.219403 -0.537 154 100 100
0.404808 -0.218994 -0.536 156 102 102
0.405071 -0.218586 -0.535 161 103 99
0.405331 -0.218177 -0.534 161 103 99
0.405588 -0.217769 -0.533 159 102 95
0.40584 -0.21736 -0.532 158 101 94
0.406853 -0.21736 -0.532 156 101 94
0.4071 -0.216951 -0.531 155 100 93
0.407343 -0.216543 -0.53 151 98 92
0.408352 -0.216543 -0.53 152 99 93
0.40859 -0.216134 -0.529 152 99 93
0.409597 -0.216134 -0.529 152 99 93
0.409829 -0.215726 -0.528 152 99 93
0.410834 -0.215726 -0.528 153 100 94
0.41184 -0.215726 -0.528 154 101 95
0.412846 -0.215726 -0.528 154 101 95
0.413851 -0.215726 -0.528 158 103 98
0.414071 -0.215317 -0.527 156 101 96
0.415075 -0.215317 -0.527 153 98 93
0.416079 -0.215317 -0.527 151 96 91
0.417083 -0.215317 -0.527 152 97 92
0.418087 -0.215317 -0.527 154 99 94
0.41909 -0.215317 -0.527 156 101 96
0.420094 -0.215317 -0.527 159 104 99
0.421098 -0.215317 -0.527 159 104 99
0.422903 -0.215726 -0.528 158 105 99
0.423909 -0.215726 -0.528 158 105 99
0.424914 -0.215726 -0.528 158 105 99
0.425113 -0.215317 -0.527 155 102 96
0.426117 -0.215317 -0.527 148 98 91
0.427121 -0.215317 -0.527 142 92 85
0.428125 -0.215317 -0.527 136 88 78
0.429129 -0.215317 -0.527 133 85 75
0.430132 -0.215317 -0.527 132 84 74
0.431136 -0.215317 -0.527 132 84 74
0.43214 -0.215317 -0.527 136 86 77
0.433144 -0.215317 -0.527 138 88 79
0.434148 -0.215317 -0.527 138 90 80
0.435151 -0.215317 -0.527 140 92 82
0.436155 -0.215317 -0.527 141 94 84
0.437989 -0.215726 -0.528 142 95 85
0.438994 -0.215726 -0.528 144 96 86
0.44 -0.215726 -0.528 141 93 83
0.441841 -0.216134 -0.529 136 88 78
0.442849 -0.216134 -0.529 137 89 79
0.444695 -0.216543 -0.53 142 94 84
0.446546 -0.216951 -0.531 143 95 85
0.4484 -0.21736 -0.532 140 92 82
0.450258 -0.217769 -0.533 138 90 80
0.45212 -0.218177 -0.534 141 93 83
0.453986 -0.218586 -0.535 138 90 80
0.455855 -0.218994 -0.536 136 89 79
0.458581 -0.219811 -0.538 136 89 79
0.459606 -0.219811 -0.538 136 89 79
0.461487 -0.22022 -0.539 137 90 80
0.463371 -0.220629 -0.54 138 91 81
0.46612 -0.221446 -0.542 139 92 82
0.469738 -0.222671 -0.545 139 92 82
0.472504 -0.223489 -0.547 144 95 81
0.475277 -0.224306 -0.549 144 95 81
0.478058 -0.225123 -0.551 138 91 81
0.481716 -0.226349 -0.554 136 89 79
0.484514 -0.227166 -0.556 134 91 82
0.489067 -0.2288 -0.56 130 87 78
0.492759 -0.230026 -0.563 130 87 78
-0.33439 -0.266399 -0.649 252 253 248
-0.332127 -0.265578 -0.647 252 253 248
-0.329871 -0.264757 -0.645 252 253 248
-0.327114 -0.263526 -0.642 252 253 248
-0.324876 -0.262705 -0.64 251 252 247
-0.322646 -0.261884 -0.638 251 252 247
-0.320423 -0.261063 -0.636 253 254 249
-0.31871 -0.260652 -0.635 254 255 250
-0.317 -0.260242 -0.634 254 255 251
-0.315792 -0.260242 -0.634 253 255 250
-0.314089 -0.259831 -0.633 253 255 250
-0.312883 -0.259831 -0.633 253 255 250
-0.311677 -0.259831 -0.633 251 253 248
-0.310471 -0.259831 -0.633 249 251 246
-0.309266 -0.259831 -0.633 255 255 250
-0.30806 -0.259831 -0.633 255 255 250
-0.306854 -0.259831 -0.633 255 255 250
-0.305649 -0.259831 -0.633 255 255 250
-0.304443 -0.259831 -0.633 255 255 250
-0.303716 -0.260242 -0.634 255 255 251
-0.302509 -0.260242 -0.634 255 255 251
-0.301301 -0.260242 -0.634 255 255 251
-0.300093 -0.260242 -0.634 255 255 251
-0.298886 -0.260242 -0.634 255 255 251
-0.297678 -0.260242 -0.634 255 255 251
-0.296938 -0.260652 -0.635 255 255 251
-0.295729 -0.260652 -0.635 255 255 251
-0.294983 -0.261063 -0.636 255 255 253
-0.293771 -0.261063 -0.636 255 255 253
-0.29302 -0.261473 -0.637 254 255 250
-0.291807 -0.261473 -0.637 254 255 250
-0.29105 -0.261884 -0.638 255 255 251
-0.290289 -0.262294 -0.639 255 255 251
-0.289071 -0.262294 -0.639 252 251 247
-0.288305 -0.262705 -0.64 253 252 248
-0.287534 -0.263115 -0.641 251 252 247
-0.28676 -0.263526 -0.642 244 245 240
-0.285537 -0.263526 -0.642 208 210 205
-0.2852 -0.264347 -0.644 163 165 160
-0.284855 -0.265168 -0.646 137 137 135
-0.283625 -0.265168 -0.646 151 151 149
-0.281957 -0.264757 -0.645 219 219 217
-0.281599 -0.265578 -0.647 241 242 237
-0.281233 -0.266399 -0.649 249 250 245
-0.170157 -0.264757 -0.645 226 225 220
-0.167357 -0.262294 -0.639 212 212 204
-0.16562 -0.261473 -0.637 202 202 194
-0.16389 -0.260652 -0.635 194 194 186
-0.162425 -0.260242 -0.634 192 192 184
-0.161217 -0.260242 -0.634 196 193 184
-0.16001 -0.260242 -0.634 195 192 183
-0.158802 -0.260242 -0.634 196 193 184
-0.157843 -0.260652 -0.635 197 194 185
-0.157127 -0.261473 -0.637 199 197 185
-0.156158 -0.261884 -0.638 199 197 185
-0.155429 -0.262705 -0.64 199 197 185
-0.15445 -0.263115 -0.641 199 197 185
-0.153469 -0.263526 -0.642 198 196 184
-0.152483 -0.263936 -0.643 198 196 184
-0.151493 -0.264347 -0.644 197 195 183
-0.150733 -0.265168 -0.646 195 193 181
-0.149734 -0.265578 -0.647 194 192 180
-0.148961 -0.266399 -0.649 193 191 179
-0.147952 -0.26681 -0.65 193 191 179
-0.146714 -0.26681 -0.65 192 190 178
-0.0959524 -0.26681 -0.65 239 235 226
-0.0945686 -0.266399 -0.649 228 224 215
-0.0931886 -0.265989 -0.648 208 204 201
-0.0916705 -0.265168 -0.646 183 179 176
-0.09016 -0.264347 -0.644 146 142 141
-0.0886571 -0.263526 -0.642 108 104 103
-0.0871619 -0.262705 -0.64 87 86 91
-0.0856743 -0.261884 -0.638 76 75 80
-0.0840619 -0.260652 -0.635 71 70 76
-0.0823305 -0.25901 -0.631 70 69 75
-0.081 -0.2586 -0.63 67 65 76
-0.0795467 -0.257779 -0.628 66 64 75
-0.078101 -0.256958 -0.626 67 65 78
-0.0767857 -0.256548 -0.625 65 63 76
-0.0754743 -0.256137 -0.624 69 67 81
-0.0742857 -0.256137 -0.624 69 67 81
-0.0730971 -0.256137 -0.624 70 68 81
-0.0717933 -0.255727 -0.623 69 67 80
-0.0706067 -0.255727 -0.623 69 67 78
-0.06942 -0.255727 -0.623 70 68 79
-0.0683429 -0.256137 -0.624 70 68 79
-0.0671543 -0.256137 -0.624 70 68 79
-0.0659657 -0.256137 -0.624 69 67 78
-0.064881 -0.256548 -0.625 69 67 78
-0.0637924 -0.256958 -0.626 69 67 78
-0.0626 -0.256958 -0.626 69 67 78
-0.0615057 -0.257369 -0.627 68 66 77
-0.0605038 -0.25819 -0.629 68 66 77
-0.0594 -0.2586 -0.63 68 67 75
-0.0583848 -0.259421 -0.632 68 67 75
-0.0572714 -0.259831 -0.633 70 69 77
-0.0561543 -0.260242 -0.634 69 68 76
-0.0550333 -0.260652 -0.635 69 68 76
-0.0539086 -0.261063 -0.636 69 68 76
-0.05278 -0.261473 -0.637 69 68 76
-0.0516476 -0.261884 -0.638 69 68 76
-0.0505905 -0.262705 -0.64 70 69 77
-0.0494486 -0.263115 -0.641 70 69 77
-0.0483029 -0.263526 -0.642 69 70 74
-0.0471533 -0.263936 -0.643 69 70 74
-0.046 -0.264347 -0.644 68 69 73
-0.0449124 -0.265168 -0.646 69 70 74
-0.0438171 -0.265989 -0.648 70 71 75
-0.0426486 -0.266399 -0.649 71 72 76
-0.0414762 -0.26681 -0.65 72 71 76
0.184651 -0.247928 -0.604 181 131 130
0.185187 -0.247107 -0.602 181 131 130
0.186024 -0.246696 -0.601 184 134 133
0.18748 -0.247107 -0.602 184 133 132
0.188627 -0.247107 -0.602 184 133 132
0.190089 -0.247517 -0.603 177 126 125
0.191237 -0.247517 -0.603 173 122 119
0.192386 -0.247517 -0.603 175 124 121
0.193534 -0.247517 -0.603 177 126 123
0.195006 -0.247928 -0.604 176 125 122
0.196481 -0.248338 -0.605 175 125 124
0.19796 -0.248749 -0.606 175 125 124
0.199443 -0.249159 -0.607 169 119 118
0.20093 -0.24957 -0.608 163 113 112
0.202752 -0.25039 -0.61 161 111 112
0.204249 -0.250801 -0.611 160 110 111
0.205749 -0.251211 -0.612 157 109 109
0.20759 -0.252032 -0.614 158 110 110
0.2091 -0.252443 -0.615 157 108 111
0.210955 -0.253264 -0.617 154 105 108
0.212474 -0.253674 -0.618 153 104 107
0.214343 -0.254495 -0.62 155 106 109
0.216219 -0.255316 -0.622 152 106 108
0.218103 -0.256137 -0.624 152 106 108
0.220346 -0.257369 -0.627 155 109 112
0.222247 -0.25819 -0.629 154 108 111
0.224155 -0.25901 -0.631 151 106 109
0.226071 -0.259831 -0.633 146 101 104
0.228713 -0.261473 -0.637 154 102 106
0.23137 -0.263115 -0.641 152 100 104
0.23368 -0.264347 -0.644 165 110 115
0.244169 -0.230277 -0.561 126 94 105
0.242177 -0.227404 -0.554 127 95 106
0.241915 -0.226172 -0.551 127 95 108
0.242083 -0.225351 -0.549 130 98 111
0.242243 -0.22453 -0.547 127 101 114
0.24284 -0.22412 -0.546 127 101 114
0.243433 -0.22371 -0.545 128 101 108
0.244023 -0.223299 -0.544 127 100 107
0.244609 -0.222889 -0.543 129 99 109
0.24519 -0.222478 -0.542 128 98 108
0.246223 -0.222478 -0.542 128 98 108
0.246799 -0.222068 -0.541 129 99 109
0.24783 -0.222068 -0.541 130 100 110
0.2484 -0.221657 -0.54 130 100 110
0.249429 -0.221657 -0.54 130 100 110
0.249993 -0.221247 -0.539 131 101 111
0.250554 -0.220836 -0.538 129 99 109
0.251579 -0.220836 -0.538 131 101 111
0.252604 -0.220836 -0.538 133 103 113
0.253157 -0.220426 -0.537 132 102 112
0.25418 -0.220426 -0.537 129 102 111
0.254728 -0.220015 -0.536 129 102 111
0.255271 -0.219605 -0.535 128 101 110
0.25629 -0.219605 -0.535 128 101 110
0.25731 -0.219605 -0.535 128 101 110
0.258329 -0.219605 -0.535 132 102 110
0.258863 -0.219194 -0.534 132 102 110
0.259393 -0.218784 -0.533 132 102 110
0.260409 -0.218784 -0.533 132 102 110
0.260933 -0.218373 -0.532 132 102 110
0.261947 -0.218373 -0.532 132 102 110
0.26296 -0.218373 -0.532 133 103 111
0.263973 -0.218373 -0.532 132 102 110
0.264489 -0.217963 -0.531 136 106 114
0.265 -0.217552 -0.53 135 105 113
0.26601 -0.217552 -0.53 136 106 114
0.266515 -0.217142 -0.529 137 107 115
0.267523 -0.217142 -0.529 137 107 115
0.26853 -0.217142 -0.529 138 108 116
0.269538 -0.217142 -0.529 138 108 116
0.270034 -0.216731 -0.528 138 108 116
0.270527 -0.216321 -0.527 136 106 116
0.27153 -0.216321 -0.527 139 109 119
0.272534 -0.216321 -0.527 135 105 115
0.273019 -0.21591 -0.526 140 110 120
0.274021 -0.21591 -0.526 146 116 126
0.2745 -0.2155 -0.525 146 116 126
0.2755 -0.2155 -0.525 146 116 126
0.2765 -0.2155 -0.525 148 118 128
0.276971 -0.21509 -0.524 147 117 127
0.27797 -0.21509 -0.524 145 115 125
0.278968 -0.21509 -0.524 145 115 125
0.279431 -0.214679 -0.523 145 115 125
0.280428 -0.214679 -0.523 146 116 126
0.280886 -0.214269 -0.522 147 117 127
0.28188 -0.214269 -0.522 147 117 127
0.282332 -0.213858 -0.521 147 117 127
0.283325 -0.213858 -0.521 148 118 128
0.284317 -0.213858 -0.521 147 120 129
0.28531 -0.213858 -0.521 144 117 126
0.286302 -0.213858 -0.521 137 110 119
0.286743 -0.213448 -0.52 137 110 119
0.287733 -0.213448 -0.52 138 111 120
0.288724 -0.213448 -0.52 137 110 119
0.289714 -0.213448 -0.52 142 112 120
0.290705 -0.213448 -0.52 140 110 118
0.291134 -0.213037 -0.519 141 111 119
0.292123 -0.213037 -0.519 139 109 117
0.293111 -0.213037 -0.519 140 110 118
0.2941 -0.213037 -0.519 136 106 114
0.295089 -0.213037 -0.519 136 106 114
0.296077 -0.213037 -0.519 139 109 117
0.296493 -0.212627 -0.518 136 106 114
0.29748 -0.212627 -0.518 138 108 116
0.298467 -0.212627 -0.518 139 109 117
0.299453 -0.212627 -0.518 139 109 119
0.30044 -0.212627 -0.518 140 110 120
0.300845 -0.212216 -0.517 141 111 121
0.30183 -0.212216 -0.517 142 112 122
0.302814 -0.212216 -0.517 143 113 123
0.303799 -0.212216 -0.517 144 114 124
0.304194 -0.211806 -0.516 144 114 124
0.305177 -0.211806 -0.516 143 113 123
0.30616 -0.211806 -0.516 141 111 121
0.306548 -0.211395 -0.515 145 115 125
0.307529 -0.211395 -0.515 147 117 127
0.30851 -0.211395 -0.515 147 117 127
0.30949 -0.211395 -0.515 145 118 127
0.309869 -0.210985 -0.514 145 118 127
0.310848 -0.210985 -0.514 144 117 126
0.311827 -0.210985 -0.514 144 117 126
0.312806 -0.210985 -0.514 148 121 130
0.313785 -0.210985 -0.514 147 120 129
0.314764 -0.210985 -0.514 147 120 129
0.315743 -0.210985 -0.514 144 117 126
0.316106 -0.210574 -0.513 144 117 126
0.317083 -0.210574 -0.513 145 118 127
0.31806 -0.210574 -0.513 142 115 124
0.319037 -0.210574 -0.513 143 116 125
0.320014 -0.210574 -0.513 142 115 124
0.320366 -0.210164 -0.512 141 114 123
0.321341 -0.210164 -0.512 140 113 122
0.321687 -0.209753 -0.511 138 111 120
0.32266 -0.209753 -0.511 137 110 119
0.323633 -0.209753 -0.511 136 109 118
0.324607 -0.209753 -0.511 136 109 118
0.32558 -0.209753 -0.511 136 109 118
0.326553 -0.209753 -0.511 136 109 118
0.327527 -0.209753 -0.511 134 111 117
0.327857 -0.209343 -0.51 132 109 115
0.328829 -0.209343 -0.51 134 108 117
0.3298 -0.209343 -0.51 131 105 114
0.330771 -0.209343 -0.51 171 150 159
0.331743 -0.209343 -0.51 195 174 183
0.332714 -0.209343 -0.51 209 191 203
0.333686 -0.209343 -0.51 216 198 210
0.334657 -0.209343 -0.51 216 198 210
0.335629 -0.209343 -0.51 191 169 182
0.3366 -0.209343 -0.51 145 123 136
0.338233 -0.209753 -0.511 136 108 122
0.339207 -0.209753 -0.511 134 106 120
0.340846 -0.210164 -0.512 134 108 119
0.342489 -0.210574 -0.513 126 100 111
0.344805 -0.211395 -0.515 102 87 92
0.3478 -0.212627 -0.518 56 41 46
0.350807 -0.213858 -0.521 64 62 75
0.4144 -0.229867 -0.56 135 97 96
0.408048 -0.225762 -0.55 136 98 97
0.40612 -0.22412 -0.546 149 100 95
0.404177 -0.222478 -0.542 150 101 96
0.40521 -0.222478 -0.542 150 101 96
0.405492 -0.222068 -0.541 146 97 93
0.40502 -0.221247 -0.539 143 94 90
0.405293 -0.220836 -0.538 147 97 96
0.405563 -0.220426 -0.537 150 100 99
0.405071 -0.219605 -0.535 155 102 98
0.405331 -0.219194 -0.534 156 103 99
0.405588 -0.218784 -0.533 155 100 95
0.406603 -0.218784 -0.533 154 99 94
0.406853 -0.218373 -0.532 154 101 95
0.4071 -0.217963 -0.531 154 101 95
0.408111 -0.217963 -0.531 155 102 98
0.408352 -0.217552 -0.53 154 101 97
0.409362 -0.217552 -0.53 154 101 97
0.409597 -0.217142 -0.529 153 100 96
0.410605 -0.217142 -0.529 154 101 97
0.410834 -0.216731 -0.528 155 102 98
0.41184 -0.216731 -0.528 155 102 96
0.412846 -0.216731 -0.528 155 102 96
0.413851 -0.216731 -0.528 156 103 97
0.414857 -0.216731 -0.528 154 101 95
0.415075 -0.216321 -0.527 151 98 92
0.416079 -0.216321 -0.527 151 98 92
0.417083 -0.216321 -0.527 151 98 92
0.418087 -0.216321 -0.527 151 98 92
0.41909 -0.216321 -0.527 153 100 94
0.420094 -0.216321 -0.527 156 103 97
0.421098 -0.216321 -0.527 156 103 97
0.422102 -0.216321 -0.527 154 101 95
0.423106 -0.216321 -0.527 152 99 93
0.42411 -0.216321 -0.527 149 99 92
0.42592 -0.216731 -0.528 148 98 91
0.426117 -0.216321 -0.527 144 94 87
0.427121 -0.216321 -0.527 138 88 81
0.428125 -0.216321 -0.527 134 85 78
0.429129 -0.216321 -0.527 133 84 77
0.430132 -0.216321 -0.527 136 86 77
0.431136 -0.216321 -0.527 137 87 78
0.43214 -0.216321 -0.527 139 89 80
0.433144 -0.216321 -0.527 140 90 81
0.434148 -0.216321 -0.527 140 92 82
0.435151 -0.216321 -0.527 141 93 83
0.436155 -0.216321 -0.527 141 94 84
0.437159 -0.216321 -0.527 141 94 84
0.438994 -0.216731 -0.528 143 95 85
0.44 -0.216731 -0.528 140 92 82
0.441841 -0.217142 -0.529 138 90 80
0.442849 -0.217142 -0.529 140 92 82
0.444695 -0.217552 -0.53 144 96 86
0.446546 -0.217963 -0.531 144 96 86
0.4484 -0.218373 -0.532 141 93 83
0.450258 -0.218784 -0.533 138 90 80
0.45212 -0.219194 -0.534 139 92 82
0.453986 -0.219605 -0.535 138 91 81
0.455855 -0.220015 -0.536 138 91 81
0.457729 -0.220426 -0.537 138 91 81
0.458751 -0.220426 -0.537 138 91 81
0.46063 -0.220836 -0.538 138 91 81
0.463371 -0.221657 -0.54 139 92 82
0.46612 -0.222478 -0.542 140 93 83
0.468876 -0.223299 -0.544 141 94 84
0.47164 -0.22412 -0.546 143 95 83
0.474411 -0.224941 -0.548 139 91 79
0.478058 -0.226172 -0.551 135 91 80
0.480847 -0.226993 -0.553 135 91 80
0.483643 -0.227814 -0.555 136 93 84
0.48732 -0.229046 -0.558 133 90 81
0.491884 -0.230688 -0.562 129 87 75
-0.333667 -0.268048 -0.65 252 253 247
-0.331406 -0.267223 -0.648 252 253 248
-0.329152 -0.266398 -0.646 252 253 248
-0.326399 -0.265161 -0.643 251 252 247
-0.324163 -0.264336 -0.641 251 252 247
-0.321934 -0.263511 -0.639 251 252 247
-0.319713 -0.262687 -0.637 251 252 247
-0.318 -0.262274 -0.636 251 252 247
-0.316789 -0.262274 -0.636 252 253 248
-0.315081 -0.261862 -0.635 252 253 248
-0.313377 -0.26145 -0.634 252 253 248
-0.31217 -0.26145 -0.634 251 252 247
-0.310962 -0.26145 -0.634 251 252 247
-0.309754 -0.26145 -0.634 252 253 248
-0.308547 -0.26145 -0.634 253 254 249
-0.307339 -0.26145 -0.634 252 253 247
-0.305649 -0.261037 -0.633 251 252 246
-0.304924 -0.26145 -0.634 253 254 248
-0.303716 -0.26145 -0.634 251 252 247
-0.302509 -0.26145 -0.634 252 253 248
-0.301776 -0.261862 -0.635 253 254 249
-0.300567 -0.261862 -0.635 253 254 249
-0.299357 -0.261862 -0.635 253 254 248
-0.298148 -0.261862 -0.635 253 254 248
-0.297406 -0.262274 -0.636 253 254 249
-0.296194 -0.262274 -0.636 253 254 249
-0.294983 -0.262274 -0.636 253 254 249
-0.294233 -0.262687 -0.637 253 254 249
-0.29348 -0.263099 -0.638 252 255 248
-0.292265 -0.263099 -0.638 252 255 248
-0.291506 -0.263511 -0.639 251 253 248
-0.290743 -0.263924 -0.64 251 253 248
-0.289524 -0.263924 -0.64 251 253 248
-0.288755 -0.264336 -0.641 251 253 248
-0.287983 -0.264749 -0.642 251 253 248
-0.287207 -0.265161 -0.643 251 253 248
-0.285982 -0.265161 -0.643 244 245 240
-0.285643 -0.265986 -0.645 211 212 207
-0.284855 -0.266398 -0.646 171 171 169
-0.284942 -0.267635 -0.649 119 119 119
-0.282831 -0.26681 -0.647 173 173 171
-0.28247 -0.267635 -0.649 213 214 209
-0.171212 -0.267635 -0.649 242 243 237
-0.168143 -0.264749 -0.642 230 231 225
-0.16588 -0.263099 -0.638 218 219 213
-0.164149 -0.262274 -0.636 205 206 200
-0.162425 -0.26145 -0.634 197 198 192
-0.160709 -0.260625 -0.632 196 193 184
-0.159757 -0.261037 -0.633 196 193 184
-0.158551 -0.261037 -0.633 196 193 184
-0.157346 -0.261037 -0.633 197 194 185
-0.15688 -0.262274 -0.636 199 197 185
-0.155913 -0.262687 -0.637 200 198 186
-0.154943 -0.263099 -0.638 201 199 187
-0.153969 -0.263511 -0.639 201 199 187
-0.15299 -0.263924 -0.64 199 197 185
-0.152483 -0.265161 -0.643 198 196 184
-0.151493 -0.265573 -0.644 197 195 183
-0.1505 -0.265986 -0.645 196 194 182
-0.149503 -0.266398 -0.646 194 192 180
-0.148502 -0.26681 -0.647 194 192 180
-0.147497 -0.267223 -0.648 194 192 180
-0.146489 -0.267635 -0.649 193 191 179
-0.145476 -0.268048 -0.65 196 194 182
-0.0995133 -0.267635 -0.649 247 244 229
