ply
format ascii 1.0
comment Created by Open3D
element vertex 1297
property double x
property double y
property double z
property uchar red
property uchar green
property uchar blue
end_header
0.340858 -0.357631 -0.629 204 213 246
0.342056 -0.357631 -0.629 204 213 246
0.343254 -0.357631 -0.629 207 213 229
0.344452 -0.357631 -0.629 207 213 229
0.34565 -0.357631 -0.629 204 211 229
0.346849 -0.357631 -0.629 208 215 233
0.348047 -0.357631 -0.629 212 219 237
0.349245 -0.357631 -0.629 201 208 226
0.351 -0.3582 -0.63 209 212 227
0.3522 -0.3582 -0.63 207 210 225
0.3534 -0.3582 -0.63 185 187 200
0.3546 -0.3582 -0.63 152 154 167
0.3558 -0.3582 -0.63 152 154 167
0.357 -0.3582 -0.63 142 145 162
0.3582 -0.3582 -0.63 175 178 195
0.3594 -0.3582 -0.63 160 166 188
0.3606 -0.3582 -0.63 133 139 161
0.3618 -0.3582 -0.63 143 155 181
0.363 -0.3582 -0.63 164 176 202
0.3642 -0.3582 -0.63 170 177 205
0.3654 -0.3582 -0.63 177 184 212
0.3666 -0.3582 -0.63 188 189 209
0.3678 -0.3582 -0.63 197 198 218
0.369 -0.3582 -0.63 201 204 219
0.3702 -0.3582 -0.63 198 201 216
0.3714 -0.3582 -0.63 193 205 221
0.3726 -0.3582 -0.63 195 207 223
0.3738 -0.3582 -0.63 202 209 225
0.375 -0.3582 -0.63 197 204 220
0.376797 -0.358769 -0.631 192 191 205
0.377999 -0.358769 -0.631 156 155 169
0.379201 -0.358769 -0.631 150 155 184
0.380403 -0.358769 -0.631 129 134 163
0.381605 -0.358769 -0.631 96 116 167
0.382807 -0.358769 -0.631 85 105 156
0.384009 -0.358769 -0.631 79 110 165
0.38521 -0.358769 -0.631 81 112 167
0.386412 -0.358769 -0.631 83 115 172
0.387614 -0.358769 -0.631 83 115 172
0.388816 -0.358769 -0.631 101 133 190
0.390018 -0.358769 -0.631 89 123 184
0.39122 -0.358769 -0.631 61 95 156
0.392422 -0.358769 -0.631 57 93 155
0.393624 -0.358769 -0.631 59 95 157
0.394826 -0.358769 -0.631 71 107 169
0.396028 -0.358769 -0.631 104 140 202
0.3966 -0.3582 -0.63 94 129 187
0.3978 -0.3582 -0.63 90 125 183
0.399 -0.3582 -0.63 106 134 184
0.4002 -0.3582 -0.63 112 140 190
0.4014 -0.3582 -0.63 94 118 162
0.4026 -0.3582 -0.63 55 79 123
0.4038 -0.3582 -0.63 94 111 154
0.405 -0.3582 -0.63 152 169 212
0.406845 -0.358769 -0.631 172 179 207
0.408047 -0.358769 -0.631 183 190 218
0.409249 -0.358769 -0.631 189 190 211
0.41045 -0.358769 -0.631 189 190 211
0.411652 -0.358769 -0.631 189 191 206
0.412854 -0.358769 -0.631 188 190 205
0.414056 -0.358769 -0.631 176 178 190
0.415258 -0.358769 -0.631 141 143 155
0.41646 -0.358769 -0.631 132 132 144
0.417662 -0.358769 -0.631 180 180 192
0.418864 -0.358769 -0.631 180 180 192
0.420066 -0.358769 -0.631 185 187 199
0.421268 -0.358769 -0.631 183 185 197
0.42247 -0.358769 -0.631 166 172 194
0.423 -0.3582 -0.63 147 153 175
0.4242 -0.3582 -0.63 159 165 187
0.4254 -0.3582 -0.63 178 184 206
0.4266 -0.3582 -0.63 184 187 204
0.4278 -0.3582 -0.63 182 185 202
0.429 -0.3582 -0.63 184 183 197
0.4302 -0.3582 -0.63 185 184 198
0.4314 -0.3582 -0.63 183 181 195
0.4326 -0.3582 -0.63 128 126 140
0.4338 -0.3582 -0.63 139 139 151
0.435 -0.3582 -0.63 175 175 187
0.4362 -0.3582 -0.63 175 179 190
0.4374 -0.3582 -0.63 173 177 188
0.4386 -0.3582 -0.63 150 160 185
0.4398 -0.3582 -0.63 122 132 157
0.441 -0.3582 -0.63 72 84 126
0.4422 -0.3582 -0.63 62 74 116
0.4434 -0.3582 -0.63 116 134 170
0.443894 -0.357631 -0.629 158 176 212
0.445092 -0.357631 -0.629 157 175 213
0.44629 -0.357631 -0.629 133 151 189
0.447489 -0.357631 -0.629 124 142 188
0.448687 -0.357631 -0.629 131 149 195
0.449885 -0.357631 -0.629 131 149 195
0.451083 -0.357631 -0.629 87 114 169
0.452281 -0.357631 -0.629 60 87 142
0.453479 -0.357631 -0.629 59 95 157
0.454677 -0.357631 -0.629 58 94 156
0.455875 -0.357631 -0.629 50 88 150
0.457073 -0.357631 -0.629 55 93 155
0.458271 -0.357631 -0.629 97 129 180
0.45947 -0.357631 -0.629 120 152 203
0.459935 -0.357063 -0.628 114 137 179
0.461131 -0.357063 -0.628 131 154 196
0.462328 -0.357063 -0.628 156 171 202
0.461898 -0.345123 -0.607 124 96 92
0.45924 -0.34228 -0.602 128 92 94
0.445664 -0.328066 -0.577 124 87 78
0.442117 -0.324654 -0.571 123 86 77
0.4401 -0.32238 -0.567 122 88 79
0.438068 -0.320106 -0.563 122 88 79
0.4368 -0.3184 -0.56 118 88 78
0.434739 -0.316126 -0.556 118 88 78
0.433447 -0.31442 -0.553 121 89 78
0.432929 -0.313283 -0.551 120 88 77
0.431615 -0.311577 -0.548 119 85 75
0.43108 -0.31044 -0.546 118 84 74
0.430537 -0.309303 -0.544 121 81 73
0.429987 -0.308166 -0.542 119 79 71
0.429429 -0.307029 -0.54 121 76 70
0.42966 -0.30646 -0.539 122 77 71
0.429089 -0.305323 -0.537 121 83 72
0.42851 -0.304186 -0.535 120 82 71
0.428726 -0.303617 -0.534 119 81 70
0.428133 -0.30248 -0.532 118 80 69
0.42834 -0.301911 -0.531 118 78 68
0.427734 -0.300774 -0.529 118 78 68
0.427931 -0.300206 -0.528 119 79 69
0.428937 -0.300206 -0.528 119 79 69
0.429129 -0.299637 -0.527 120 80 68
0.429316 -0.299069 -0.526 122 82 70
0.4295 -0.2985 -0.525 125 83 71
0.4305 -0.2985 -0.525 126 84 72
0.430678 -0.297931 -0.524 128 86 74
0.430852 -0.297363 -0.523 130 88 76
0.431849 -0.297363 -0.523 129 87 75
0.432845 -0.297363 -0.523 131 89 77
0.433841 -0.297363 -0.523 131 89 77
0.434837 -0.297363 -0.523 139 88 71
0.435 -0.296794 -0.522 140 89 72
0.435994 -0.296794 -0.522 143 90 74
0.436151 -0.296226 -0.521 146 93 77
0.437144 -0.296226 -0.521 147 94 80
0.437295 -0.295657 -0.52 147 94 80
0.438286 -0.295657 -0.52 148 95 79
0.438431 -0.295089 -0.519 150 97 81
0.43942 -0.295089 -0.519 149 97 76
0.43956 -0.29452 -0.518 150 98 77
0.440547 -0.29452 -0.518 153 101 79
0.440681 -0.293951 -0.517 154 102 80
0.441666 -0.293951 -0.517 155 100 79
0.44265 -0.293951 -0.517 155 100 79
0.442777 -0.293383 -0.516 154 102 81
0.44376 -0.293383 -0.516 154 102 81
0.443881 -0.292814 -0.515 154 102 81
0.444862 -0.292814 -0.515 158 106 85
0.445843 -0.292814 -0.515 161 109 88
0.446824 -0.292814 -0.515 161 109 88
0.446935 -0.292246 -0.514 160 108 87
0.447914 -0.292246 -0.514 160 108 87
0.448893 -0.292246 -0.514 160 108 87
0.448997 -0.291677 -0.513 160 108 87
0.449974 -0.291677 -0.513 158 106 85
0.450951 -0.291677 -0.513 159 107 86
0.451929 -0.291677 -0.513 161 109 88
0.452906 -0.291677 -0.513 161 109 88
0.453883 -0.291677 -0.513 159 107 86
0.455747 -0.292246 -0.514 156 104 83
0.456726 -0.292246 -0.514 155 103 81
0.458595 -0.292814 -0.515 154 102 80
0.459576 -0.292814 -0.515 149 104 85
0.461451 -0.293383 -0.516 143 98 79
0.46333 -0.293951 -0.517 140 94 78
0.464315 -0.293951 -0.517 140 94 78
0.4671 -0.295089 -0.519 138 92 76
0.469892 -0.296226 -0.521 136 90 75
0.472692 -0.297363 -0.523 138 92 77
0.4755 -0.2985 -0.525 137 94 78
0.478315 -0.299637 -0.527 136 93 77
0.481138 -0.300774 -0.529 136 93 77
0.48488 -0.30248 -0.532 139 96 80
0.48772 -0.303617 -0.534 138 96 82
0.491483 -0.305323 -0.537 139 97 83
0.495257 -0.307029 -0.54 139 97 85
0.499962 -0.309303 -0.544 140 98 86
0.560981 -0.340006 -0.598 169 163 173
0.56682 -0.342849 -0.603 188 191 196
0.572678 -0.345691 -0.608 201 204 209
1.00762 -0.345123 -0.607 206 208 194
1.00878 -0.345123 -0.607 206 208 194
1.00993 -0.345123 -0.607 207 210 193
0.0500457 -0.344568 -0.604 187 149 138
0.0500943 -0.337151 -0.591 189 149 139
0.04706 -0.309769 -0.543 189 149 139
0.0469429 -0.302352 -0.53 189 149 139
0.0475905 -0.30007 -0.526 192 152 142
0.0485924 -0.30007 -0.526 192 152 142
0.0492171 -0.297789 -0.522 195 155 143
0.050019 -0.296648 -0.52 192 152 140
0.0509114 -0.296077 -0.519 199 155 144
0.0518 -0.295507 -0.518 202 158 147
0.0526848 -0.294936 -0.517 202 158 147
0.0535657 -0.294366 -0.516 206 162 151
0.0545486 -0.294366 -0.516 205 161 150
0.0555314 -0.294366 -0.516 199 155 144
0.0565143 -0.294366 -0.516 204 157 147
0.0574971 -0.294366 -0.516 204 157 147
0.05848 -0.294366 -0.516 203 156 146
0.0594629 -0.294366 -0.516 203 156 146
0.0603286 -0.293795 -0.515 203 156 146
0.0613095 -0.293795 -0.515 203 156 146
0.0622905 -0.293795 -0.515 204 157 147
0.0632714 -0.293795 -0.515 205 158 148
0.0642524 -0.293795 -0.515 203 156 146
0.0652333 -0.293795 -0.515 203 156 146
0.0660857 -0.293225 -0.514 200 152 142
0.0670648 -0.293225 -0.514 197 149 139
0.0680438 -0.293225 -0.514 198 150 140
0.0688886 -0.292654 -0.513 200 152 142
0.0698657 -0.292654 -0.513 201 153 143
0.0708429 -0.292654 -0.513 201 153 143
0.07168 -0.292084 -0.512 199 152 144
0.0726552 -0.292084 -0.512 205 158 150
0.0736305 -0.292084 -0.512 205 158 150
0.0746057 -0.292084 -0.512 203 156 148
0.075581 -0.292084 -0.512 204 155 148
0.0765562 -0.292084 -0.512 202 153 146
0.0775314 -0.292084 -0.512 201 152 145
0.0785067 -0.292084 -0.512 201 152 145
0.0796371 -0.292654 -0.513 201 152 145
0.0806143 -0.292654 -0.513 198 149 142
0.0815914 -0.292654 -0.513 197 148 141
0.0825686 -0.292654 -0.513 196 147 140
0.0835457 -0.292654 -0.513 196 147 140
0.0845229 -0.292654 -0.513 196 147 140
0.0855 -0.292654 -0.513 195 146 139
0.0864771 -0.292654 -0.513 192 143 136
0.0874543 -0.292654 -0.513 192 145 139
0.0886038 -0.293225 -0.514 190 143 137
0.0895829 -0.293225 -0.514 192 143 138
0.0905619 -0.293225 -0.514 189 140 135
0.091541 -0.293225 -0.514 183 134 129
0.0927 -0.293795 -0.515 181 132 127
0.0936809 -0.293795 -0.515 181 134 128
0.0946619 -0.293795 -0.515 178 131 125
0.0958286 -0.294366 -0.516 176 129 121
0.0968114 -0.294366 -0.516 175 128 120
0.0979838 -0.294936 -0.517 175 128 120
0.0989686 -0.294936 -0.517 174 127 119
0.100147 -0.295507 -0.518 172 125 117
0.101329 -0.296077 -0.519 167 120 112
0.102514 -0.296648 -0.52 161 114 106
0.103505 -0.296648 -0.52 158 111 103
0.104696 -0.297218 -0.521 161 116 110
0.105891 -0.297789 -0.522 158 111 103
0.10709 -0.298359 -0.523 151 106 100
0.108293 -0.29893 -0.524 149 104 98
0.1095 -0.2995 -0.525 144 103 99
0.11071 -0.30007 -0.526 141 100 96
0.112137 -0.301211 -0.528 136 96 94
0.113357 -0.301782 -0.529 134 94 92
0.114797 -0.302923 -0.531 131 95 97
0.116027 -0.303493 -0.532 128 92 94
0.11748 -0.304634 -0.534 121 89 94
0.119163 -0.306346 -0.537 118 86 91
0.120633 -0.307487 -0.539 116 87 92
0.122111 -0.308628 -0.541 115 86 91
0.123825 -0.310339 -0.544 114 84 92
0.12555 -0.31205 -0.547 115 85 93
0.127286 -0.313762 -0.55 108 81 88
0.129267 -0.316044 -0.554 118 91 98
0.131263 -0.318326 -0.558 113 84 88
0.133274 -0.320608 -0.562 125 96 100
0.168332 -0.35883 -0.629 246 245 253
0.16953 -0.35883 -0.629 252 251 255
0.170729 -0.35883 -0.629 249 248 254
0.171927 -0.35883 -0.629 250 249 255
0.173125 -0.35883 -0.629 251 250 255
0.174323 -0.35883 -0.629 248 247 253
0.175521 -0.35883 -0.629 252 253 255
0.176719 -0.35883 -0.629 250 251 255
0.177917 -0.35883 -0.629 252 253 255
0.179115 -0.35883 -0.629 251 252 255
0.180313 -0.35883 -0.629 249 253 255
0.181511 -0.35883 -0.629 245 249 252
0.18271 -0.35883 -0.629 247 248 253
0.183908 -0.35883 -0.629 242 243 248
0.185106 -0.35883 -0.629 215 221 245
0.186304 -0.35883 -0.629 190 196 220
0.187502 -0.35883 -0.629 176 185 218
0.1887 -0.35883 -0.629 188 197 230
0.189898 -0.35883 -0.629 200 214 241
0.191096 -0.35883 -0.629 206 220 247
0.192294 -0.35883 -0.629 203 216 248
0.193492 -0.35883 -0.629 195 208 240
0.19469 -0.35883 -0.629 166 178 216
0.195889 -0.35883 -0.629 144 156 194
0.199166 -0.358259 -0.628 157 174 228
0.200362 -0.358259 -0.628 146 163 217
0.201558 -0.358259 -0.628 143 161 209
0.202754 -0.358259 -0.628 140 158 206
0.204275 -0.35883 -0.629 172 182 231
0.205473 -0.35883 -0.629 197 207 255
0.206671 -0.35883 -0.629 188 199 245
0.20787 -0.35883 -0.629 177 188 234
0.209068 -0.35883 -0.629 162 175 210
0.210266 -0.35883 -0.629 162 175 210
0.211464 -0.35883 -0.629 177 190 225
0.212662 -0.35883 -0.629 217 225 244
0.21386 -0.35883 -0.629 241 249 255
0.215058 -0.35883 -0.629 245 250 253
0.216256 -0.35883 -0.629 248 253 255
0.217454 -0.35883 -0.629 250 250 250
0.218652 -0.35883 -0.629 253 253 253
0.21985 -0.35883 -0.629 252 251 255
0.221049 -0.35883 -0.629 253 252 255
0.221893 -0.358259 -0.628 253 252 255
0.22309 -0.358259 -0.628 253 252 255
0.224286 -0.358259 -0.628 253 254 255
0.225482 -0.358259 -0.628 245 246 250
0.226678 -0.358259 -0.628 237 237 247
0.227874 -0.358259 -0.628 222 222 232
0.22907 -0.358259 -0.628 216 215 229
0.230267 -0.358259 -0.628 218 217 231
0.231463 -0.358259 -0.628 217 216 232
0.232659 -0.358259 -0.628 230 229 245
0.233855 -0.358259 -0.628 234 233 247
0.235051 -0.358259 -0.628 232 231 245
0.236248 -0.358259 -0.628 229 229 241
0.237444 -0.358259 -0.628 233 233 245
0.23864 -0.358259 -0.628 245 246 251
0.239836 -0.358259 -0.628 251 252 255
0.241032 -0.358259 -0.628 252 252 254
0.242229 -0.358259 -0.628 251 251 253
0.243425 -0.358259 -0.628 255 254 255
0.244621 -0.358259 -0.628 252 251 255
0.245817 -0.358259 -0.628 254 254 252
0.247013 -0.358259 -0.628 251 251 249
0.24821 -0.358259 -0.628 252 253 255
0.249406 -0.358259 -0.628 250 251 255
0.261368 -0.358259 -0.628 134 150 210
0.262564 -0.358259 -0.628 128 144 204
0.26376 -0.358259 -0.628 131 156 212
0.264956 -0.358259 -0.628 129 154 210
0.266152 -0.358259 -0.628 129 152 204
0.267349 -0.358259 -0.628 127 150 202
0.268545 -0.358259 -0.628 138 159 214
0.269741 -0.358259 -0.628 145 166 221
0.270937 -0.358259 -0.628 152 169 225
0.330747 -0.358259 -0.628 111 142 197
0.331943 -0.358259 -0.628 140 171 226
0.333139 -0.358259 -0.628 127 158 213
0.334335 -0.358259 -0.628 100 131 186
0.335531 -0.358259 -0.628 90 120 180
0.336728 -0.358259 -0.628 79 109 169
0.337924 -0.358259 -0.628 99 122 174
0.33912 -0.358259 -0.628 134 157 209
0.340316 -0.358259 -0.628 183 197 234
0.341512 -0.358259 -0.628 204 218 255
0.342709 -0.358259 -0.628 212 219 237
0.343905 -0.358259 -0.628 209 216 234
0.345101 -0.358259 -0.628 213 220 238
0.346297 -0.358259 -0.628 210 217 235
0.347493 -0.358259 -0.628 209 216 235
0.349245 -0.35883 -0.629 206 213 232
0.350443 -0.35883 -0.629 211 216 235
0.351641 -0.35883 -0.629 204 209 228
0.352839 -0.35883 -0.629 209 210 228
0.354037 -0.35883 -0.629 209 210 228
0.355235 -0.35883 -0.629 196 197 215
0.356433 -0.35883 -0.629 167 170 187
0.357631 -0.35883 -0.629 177 180 197
0.35883 -0.35883 -0.629 169 176 194
0.360028 -0.35883 -0.629 142 149 167
0.361226 -0.35883 -0.629 146 158 180
0.362424 -0.35883 -0.629 183 195 217
0.363622 -0.35883 -0.629 194 200 226
0.36482 -0.35883 -0.629 194 200 226
0.366018 -0.35883 -0.629 198 199 217
0.367216 -0.35883 -0.629 202 203 221
0.368414 -0.35883 -0.629 202 205 220
0.369612 -0.35883 -0.629 202 205 220
0.37081 -0.35883 -0.629 199 211 227
0.372009 -0.35883 -0.629 196 208 224
0.373207 -0.35883 -0.629 197 204 220
0.375 -0.3594 -0.63 167 174 190
0.3762 -0.3594 -0.63 165 164 182
0.3774 -0.3594 -0.63 171 170 188
0.3786 -0.3594 -0.63 137 142 172
0.3798 -0.3594 -0.63 95 100 130
0.381 -0.3594 -0.63 97 116 159
0.3822 -0.3594 -0.63 145 164 207
0.3834 -0.3594 -0.63 151 174 216
0.3846 -0.3594 -0.63 135 158 200
0.3858 -0.3594 -0.63 118 144 193
0.387 -0.3594 -0.63 118 144 193
0.3882 -0.3594 -0.63 127 153 202
0.3894 -0.3594 -0.63 109 141 198
0.3906 -0.3594 -0.63 79 111 168
0.3918 -0.3594 -0.63 78 112 175
0.393 -0.3594 -0.63 78 112 175
0.3942 -0.3594 -0.63 91 123 180
0.3954 -0.3594 -0.63 122 154 211
0.3966 -0.3594 -0.63 118 144 193
0.3978 -0.3594 -0.63 128 154 203
0.398367 -0.35883 -0.629 155 177 218
0.399565 -0.35883 -0.629 168 190 231
0.400763 -0.35883 -0.629 139 159 196
0.401961 -0.35883 -0.629 67 87 124
0.403159 -0.35883 -0.629 54 73 116
0.404357 -0.35883 -0.629 109 128 171
0.4062 -0.3594 -0.63 159 169 205
0.4074 -0.3594 -0.63 168 178 214
0.4086 -0.3594 -0.63 187 192 212
0.4098 -0.3594 -0.63 184 189 209
0.411 -0.3594 -0.63 189 192 209
0.4122 -0.3594 -0.63 187 190 207
0.4134 -0.3594 -0.63 188 190 203
0.4146 -0.3594 -0.63 169 171 184
0.4158 -0.3594 -0.63 138 138 146
0.417 -0.3594 -0.63 170 170 178
0.4182 -0.3594 -0.63 170 170 178
0.4194 -0.3594 -0.63 183 185 200
0.4206 -0.3594 -0.63 185 187 202
0.4218 -0.3594 -0.63 180 187 203
0.423 -0.3594 -0.63 170 177 193
0.4242 -0.3594 -0.63 181 184 201
0.4254 -0.3594 -0.63 176 179 196
0.4266 -0.3594 -0.63 181 184 199
0.4278 -0.3594 -0.63 184 187 202
0.429 -0.3594 -0.63 186 187 205
0.4302 -0.3594 -0.63 184 185 203
0.4314 -0.3594 -0.63 182 181 199
0.4326 -0.3594 -0.63 154 153 171
0.433111 -0.35883 -0.629 177 175 188
0.43431 -0.35883 -0.629 176 174 187
0.435508 -0.35883 -0.629 179 183 195
0.436706 -0.35883 -0.629 169 173 185
0.437904 -0.35883 -0.629 130 142 166
0.439102 -0.35883 -0.629 80 92 116
0.4403 -0.35883 -0.629 55 70 113
0.441498 -0.35883 -0.629 89 104 147
0.442696 -0.35883 -0.629 141 159 197
0.443894 -0.35883 -0.629 163 181 219
0.445092 -0.35883 -0.629 157 173 209
0.44629 -0.35883 -0.629 139 155 191
0.447489 -0.35883 -0.629 130 148 188
0.448687 -0.35883 -0.629 142 160 200
0.449885 -0.35883 -0.629 142 160 200
0.451083 -0.35883 -0.629 103 127 175
0.452281 -0.35883 -0.629 70 94 142
0.452758 -0.358259 -0.628 67 100 154
0.453954 -0.358259 -0.628 71 104 158
0.45515 -0.358259 -0.628 65 98 152
0.456347 -0.358259 -0.628 64 97 151
0.457543 -0.358259 -0.628 98 125 172
0.458739 -0.358259 -0.628 129 156 203
0.459935 -0.358259 -0.628 125 144 184
0.461131 -0.358259 -0.628 135 154 194
0.461591 -0.357689 -0.627 156 167 197
0.462786 -0.357689 -0.627 163 174 204
0.463817 -0.34685 -0.608 119 90 95
0.461151 -0.343997 -0.603 118 89 94
0.4577 -0.340574 -0.597 125 86 81
0.454994 -0.337722 -0.592 128 89 84
0.456122 -0.337722 -0.592 128 89 84
0.452615 -0.334299 -0.586 126 87 82
0.43943 -0.320608 -0.562 121 88 79
0.43815 -0.318896 -0.559 120 88 77
0.436071 -0.316614 -0.555 119 87 76
0.434766 -0.314903 -0.552 119 85 73
0.434238 -0.313762 -0.55 119 85 73
0.432911 -0.31205 -0.547 119 82 73
0.432367 -0.31091 -0.545 118 81 72
0.431814 -0.309769 -0.543 118 79 72
0.431254 -0.308628 -0.541 117 78 71
0.430687 -0.307487 -0.539 119 81 70
0.430111 -0.306346 -0.537 119 81 70
0.430331 -0.305775 -0.536 118 80 69
0.429743 -0.304634 -0.534 117 79 68
0.429147 -0.303493 -0.532 117 79 68
0.429351 -0.302923 -0.531 116 78 67
0.429552 -0.302352 -0.53 116 78 67
0.42975 -0.301782 -0.529 116 78 67
0.429943 -0.301211 -0.528 119 79 67
0.430132 -0.300641 -0.527 119 79 67
0.430318 -0.30007 -0.526 120 80 68
0.43132 -0.30007 -0.526 121 81 69
0.4315 -0.2995 -0.525 122 82 70
0.431676 -0.29893 -0.524 124 84 72
0.431849 -0.298359 -0.523 129 87 75
0.432845 -0.298359 -0.523 131 89 77
0.433841 -0.298359 -0.523 131 89 77
0.434837 -0.298359 -0.523 133 84 70
0.435833 -0.298359 -0.523 135 86 72
0.435994 -0.297789 -0.522 137 88 73
0.436989 -0.297789 -0.522 139 90 75
0.437144 -0.297218 -0.521 141 92 77
0.437295 -0.296648 -0.52 141 92 77
0.438286 -0.296648 -0.52 143 94 79
0.438431 -0.296077 -0.519 145 96 81
0.43942 -0.296077 -0.519 147 96 79
0.43956 -0.295507 -0.518 147 96 79
0.440547 -0.295507 -0.518 150 99 80
0.441533 -0.295507 -0.518 151 100 81
0.441666 -0.294936 -0.517 150 98 77
0.44265 -0.294936 -0.517 150 98 77
0.443635 -0.294936 -0.517 152 101 82
0.44376 -0.294366 -0.516 154 103 84
0.444743 -0.294366 -0.516 154 102 81
0.444862 -0.293795 -0.515 157 105 84
0.445843 -0.293795 -0.515 161 109 88
0.446824 -0.293795 -0.515 162 110 89
0.446935 -0.293225 -0.514 160 109 88
0.447914 -0.293225 -0.514 160 109 88
0.448893 -0.293225 -0.514 161 110 89
0.448997 -0.292654 -0.513 162 111 90
0.449974 -0.292654 -0.513 161 110 89
0.450951 -0.292654 -0.513 161 110 89
0.451929 -0.292654 -0.513 161 110 89
0.452906 -0.292654 -0.513 161 110 89
0.453883 -0.292654 -0.513 159 108 87
0.45486 -0.292654 -0.513 156 105 84
0.455837 -0.292654 -0.513 155 104 83
0.457705 -0.293225 -0.514 154 103 82
0.458684 -0.293225 -0.514 152 105 89
0.460557 -0.293795 -0.515 147 100 84
0.462434 -0.294366 -0.516 145 99 84
0.465213 -0.295507 -0.518 143 97 82
0.4662 -0.295507 -0.518 143 97 82
0.46899 -0.296648 -0.52 140 94 81
0.470885 -0.297218 -0.521 140 94 81
0.473689 -0.298359 -0.523 140 94 81
0.4765 -0.2995 -0.525 139 93 80
0.480229 -0.301211 -0.528 138 94 81
0.483057 -0.302352 -0.53 140 96 83
0.486807 -0.304064 -0.533 140 96 83
0.489652 -0.305205 -0.535 140 96 83
0.492506 -0.306346 -0.537 139 97 85
0.496286 -0.308057 -0.54 141 99 87
0.572892 -0.346279 -0.607 177 178 183
1.00596 -0.345709 -0.606 206 209 192
1.00711 -0.345709 -0.606 206 209 192
1.00827 -0.345709 -0.606 207 210 193
1.07522 -0.345709 -0.606 203 206 189
1.07637 -0.345709 -0.606 203 206 189
1.07753 -0.345709 -0.606 204 207 190
1.07868 -0.345709 -0.606 204 207 190
1.07983 -0.345709 -0.606 204 207 190
1.08099 -0.345709 -0.606 204 207 190
1.08214 -0.345709 -0.606 204 207 190
1.0833 -0.345709 -0.606 203 205 191
1.08445 -0.345709 -0.606 203 205 191
1.08561 -0.345709 -0.606 203 205 191
1.08676 -0.345709 -0.606 203 205 191
0.0497971 -0.344001 -0.601 187 149 138
0.0479171 -0.309658 -0.541 187 147 137
0.0477714 -0.302217 -0.528 188 148 138
0.0485 -0.3005 -0.525 192 152 142
0.0491229 -0.29821 -0.521 195 155 145
0.0499229 -0.297066 -0.519 192 152 142
0.0508133 -0.296493 -0.518 201 157 146
0.0517 -0.295921 -0.517 203 159 148
0.0526848 -0.295921 -0.517 202 158 147
0.0535657 -0.295349 -0.516 204 160 149
0.0544429 -0.294776 -0.515 198 154 143
0.0554238 -0.294776 -0.515 188 144 133
0.0564048 -0.294776 -0.515 202 155 145
0.0573857 -0.294776 -0.515 202 155 145
0.0583667 -0.294776 -0.515 203 156 146
0.0593476 -0.294776 -0.515 204 157 147
0.0603286 -0.294776 -0.515 203 156 146
0.0613095 -0.294776 -0.515 204 157 147
0.0622905 -0.294776 -0.515 205 158 148
0.0631486 -0.294204 -0.514 204 157 147
0.0641276 -0.294204 -0.514 201 154 144
0.0651067 -0.294204 -0.514 201 154 144
0.0660857 -0.294204 -0.514 200 152 142
0.0669343 -0.293631 -0.513 197 149 139
0.0679114 -0.293631 -0.513 198 150 140
0.0688886 -0.293631 -0.513 201 153 143
0.0698657 -0.293631 -0.513 204 156 146
0.0707048 -0.293059 -0.512 205 157 147
0.07168 -0.293059 -0.512 202 153 146
0.0726552 -0.293059 -0.512 207 158 151
0.0736305 -0.293059 -0.512 205 156 149
0.0746057 -0.293059 -0.512 203 154 147
0.075581 -0.293059 -0.512 203 154 147
0.0765562 -0.293059 -0.512 202 153 146
0.0775314 -0.293059 -0.512 200 151 144
0.0785067 -0.293059 -0.512 200 151 144
0.0794819 -0.293059 -0.512 202 153 146
0.0806143 -0.293631 -0.513 199 150 143
0.0815914 -0.293631 -0.513 197 148 141
0.0825686 -0.293631 -0.513 194 145 138
0.0835457 -0.293631 -0.513 192 143 136
0.0845229 -0.293631 -0.513 192 143 136
0.0855 -0.293631 -0.513 193 144 137
0.0864771 -0.293631 -0.513 192 143 136
0.0874543 -0.293631 -0.513 192 143 138
0.0884314 -0.293631 -0.513 191 142 137
0.0895829 -0.294204 -0.514 192 143 138
0.0905619 -0.294204 -0.514 187 138 133
0.091541 -0.294204 -0.514 180 131 124
0.0927 -0.294776 -0.515 179 130 123
0.0936809 -0.294776 -0.515 177 130 122
0.0946619 -0.294776 -0.515 175 128 120
0.0958286 -0.295349 -0.516 175 128 120
0.0968114 -0.295349 -0.516 173 126 118
0.0979838 -0.295921 -0.517 172 123 116
0.09916 -0.296493 -0.518 171 122 115
0.100147 -0.296493 -0.518 169 120 113
0.101329 -0.297066 -0.519 165 116 109
0.102514 -0.297638 -0.52 159 112 102
0.103704 -0.29821 -0.521 156 109 99
0.104696 -0.29821 -0.521 161 116 110
0.105891 -0.298783 -0.522 155 110 104
0.10709 -0.299355 -0.523 146 105 99
0.1085 -0.3005 -0.525 144 103 97
0.109709 -0.301072 -0.526 141 101 99
0.110921 -0.301645 -0.527 139 99 97
0.112137 -0.302217 -0.528 134 96 95
0.113571 -0.303362 -0.53 133 95 94
0.114797 -0.303934 -0.531 128 94 95
0.116245 -0.305079 -0.533 127 93 94
0.1177 -0.306224 -0.535 120 89 95
0.119385 -0.307941 -0.538 116 85 91
0.120857 -0.309086 -0.54 115 85 93
0.122337 -0.31023 -0.542 114 84 92
0.12428 -0.31252 -0.546 113 83 91
0.126009 -0.314237 -0.549 114 84 92
0.127749 -0.315954 -0.552 115 85 93
0.129733 -0.318244 -0.556 116 86 94
0.131733 -0.320533 -0.56 116 85 90
0.133511 -0.32225 -0.563 127 96 101
0.168065 -0.359455 -0.628 224 224 232
0.169261 -0.359455 -0.628 243 243 251
0.170457 -0.359455 -0.628 246 246 254
0.171653 -0.359455 -0.628 247 247 255
0.17285 -0.359455 -0.628 250 249 255
0.174046 -0.359455 -0.628 251 250 255
0.175242 -0.359455 -0.628 251 251 255
0.176438 -0.359455 -0.628 250 250 255
0.177634 -0.359455 -0.628 250 251 255
0.17883 -0.359455 -0.628 250 251 255
0.180027 -0.359455 -0.628 252 253 255
0.181223 -0.359455 -0.628 249 250 252
0.182419 -0.359455 -0.628 251 252 254
0.183615 -0.359455 -0.628 248 249 251
0.184811 -0.359455 -0.628 237 243 255
0.186008 -0.359455 -0.628 225 231 245
0.187204 -0.359455 -0.628 192 205 239
0.1884 -0.359455 -0.628 159 172 206
0.189596 -0.359455 -0.628 153 171 209
0.190792 -0.359455 -0.628 165 183 221
0.191989 -0.359455 -0.628 180 194 239
0.193492 -0.360028 -0.629 177 191 236
0.194381 -0.359455 -0.628 150 163 208
0.195577 -0.359455 -0.628 142 155 200
0.196773 -0.359455 -0.628 143 157 202
0.19797 -0.359455 -0.628 147 161 206
0.199166 -0.359455 -0.628 135 154 210
0.200362 -0.359455 -0.628 130 149 205
0.201558 -0.359455 -0.628 131 157 206
0.202754 -0.359455 -0.628 131 157 206
0.20395 -0.359455 -0.628 159 168 223
0.205147 -0.359455 -0.628 163 172 227
0.206343 -0.359455 -0.628 153 169 220
0.207539 -0.359455 -0.628 149 165 216
0.208735 -0.359455 -0.628 154 172 210
0.209931 -0.359455 -0.628 154 172 210
0.211128 -0.359455 -0.628 189 207 245
0.212324 -0.359455 -0.628 226 237 255
0.21352 -0.359455 -0.628 234 245 255
0.214716 -0.359455 -0.628 247 250 255
0.215912 -0.359455 -0.628 249 252 255
0.217454 -0.360028 -0.629 250 251 253
0.218652 -0.360028 -0.629 252 253 255
0.21985 -0.360028 -0.629 249 250 254
0.220697 -0.359455 -0.628 250 251 255
0.221893 -0.359455 -0.628 251 250 255
0.22309 -0.359455 -0.628 255 254 255
0.224286 -0.359455 -0.628 237 240 245
0.225482 -0.359455 -0.628 220 223 228
0.226678 -0.359455 -0.628 222 222 234
0.227874 -0.359455 -0.628 227 227 239
0.22907 -0.359455 -0.628 215 214 230
0.230267 -0.359455 -0.628 200 199 215
0.231463 -0.359455 -0.628 202 203 221
0.232659 -0.359455 -0.628 216 217 235
0.233855 -0.359455 -0.628 219 220 238
0.235051 -0.359455 -0.628 221 222 240
0.236248 -0.359455 -0.628 217 216 232
0.237444 -0.359455 -0.628 233 233 245
0.23864 -0.359455 -0.628 245 246 251
0.239836 -0.359455 -0.628 251 252 255
0.241032 -0.359455 -0.628 251 252 254
0.242229 -0.359455 -0.628 251 252 254
0.277671 -0.358883 -0.627 240 247 253
0.278866 -0.358883 -0.627 239 246 252
0.290809 -0.358883 -0.627 216 219 236
0.292003 -0.358883 -0.627 201 204 221
0.293197 -0.358883 -0.627 187 189 210
0.294391 -0.358883 -0.627 185 187 208
0.295586 -0.358883 -0.627 186 191 211
0.29678 -0.358883 -0.627 201 206 226
0.297974 -0.358883 -0.627 211 214 233
0.299169 -0.358883 -0.627 218 221 240
0.300363 -0.358883 -0.627 219 222 241
0.301557 -0.358883 -0.627 225 228 247
0.302751 -0.358883 -0.627 237 236 254
0.303946 -0.358883 -0.627 241 240 255
0.30514 -0.358883 -0.627 239 242 255
0.306334 -0.358883 -0.627 239 242 255
0.311111 -0.358883 -0.627 234 240 254
0.312306 -0.358883 -0.627 226 231 253
0.3135 -0.358883 -0.627 196 201 223
0.314694 -0.358883 -0.627 165 170 202
0.319471 -0.358883 -0.627 131 149 199
0.320666 -0.358883 -0.627 148 166 216
0.32186 -0.358883 -0.627 148 166 216
0.323054 -0.358883 -0.627 155 185 239
0.324249 -0.358883 -0.627 124 154 208
0.325443 -0.358883 -0.627 99 133 194
0.326637 -0.358883 -0.627 99 133 194
0.327831 -0.358883 -0.627 94 129 193
0.329026 -0.358883 -0.627 91 126 190
0.33022 -0.358883 -0.627 106 138 195
0.331414 -0.358883 -0.627 149 181 238
0.333139 -0.359455 -0.628 139 169 219
0.334335 -0.359455 -0.628 120 150 200
0.335531 -0.359455 -0.628 139 167 215
0.336728 -0.359455 -0.628 139 167 215
0.337924 -0.359455 -0.628 137 159 206
0.33912 -0.359455 -0.628 107 129 176
0.340316 -0.359455 -0.628 132 149 192
0.341512 -0.359455 -0.628 178 195 238
0.342709 -0.359455 -0.628 206 214 235
0.343905 -0.359455 -0.628 208 216 237
0.345101 -0.359455 -0.628 212 219 238
0.346297 -0.359455 -0.628 206 213 232
0.347493 -0.359455 -0.628 208 213 233
0.34869 -0.359455 -0.628 211 216 236
0.349886 -0.359455 -0.628 208 213 233
0.351082 -0.359455 -0.628 206 211 231
0.352278 -0.359455 -0.628 212 215 234
0.353474 -0.359455 -0.628 212 215 234
0.35467 -0.359455 -0.628 206 209 228
0.355867 -0.359455 -0.628 202 205 220
0.357063 -0.359455 -0.628 167 170 185
0.358259 -0.359455 -0.628 147 154 170
0.359455 -0.359455 -0.628 169 176 192
0.360651 -0.359455 -0.628 172 184 200
0.361848 -0.359455 -0.628 192 204 220
0.363044 -0.359455 -0.628 203 208 230
0.36424 -0.359455 -0.628 201 206 228
0.365436 -0.359455 -0.628 202 205 220
0.366632 -0.359455 -0.628 205 208 223
0.368414 -0.360028 -0.629 201 207 223
0.369612 -0.360028 -0.629 201 207 223
0.37081 -0.360028 -0.629 201 208 227
0.372009 -0.360028 -0.629 195 202 221
0.373207 -0.360028 -0.629 198 201 218
0.374405 -0.360028 -0.629 151 154 171
0.375603 -0.360028 -0.629 154 154 178
0.376801 -0.360028 -0.629 164 164 188
0.377999 -0.360028 -0.629 106 112 144
0.379197 -0.360028 -0.629 67 73 105
0.380395 -0.360028 -0.629 113 129 163
0.381593 -0.360028 -0.629 173 189 223
0.382791 -0.360028 -0.629 183 202 232
0.38399 -0.360028 -0.629 165 184 214
0.385188 -0.360028 -0.629 146 168 209
0.386386 -0.360028 -0.629 146 168 209
0.387584 -0.360028 -0.629 153 175 216
0.388782 -0.360028 -0.629 134 161 216
0.38998 -0.360028 -0.629 101 128 183
0.391178 -0.360028 -0.629 96 128 187
0.392376 -0.360028 -0.629 91 123 182
0.393574 -0.360028 -0.629 108 138 192
0.394772 -0.360028 -0.629 144 174 228
0.39597 -0.360028 -0.629 145 167 208
0.397169 -0.360028 -0.629 147 169 210
0.398367 -0.360028 -0.629 171 187 220
0.39893 -0.359455 -0.628 183 199 232
0.400126 -0.359455 -0.628 170 186 219
0.401322 -0.359455 -0.628 123 139 172
0.402518 -0.359455 -0.628 53 72 114
0.404357 -0.360028 -0.629 55 74 116
0.405555 -0.360028 -0.629 115 128 170
0.406753 -0.360028 -0.629 156 169 211
0.407951 -0.360028 -0.629 179 187 208
0.40915 -0.360028 -0.629 183 191 212
0.410348 -0.360028 -0.629 182 185 202
0.411546 -0.360028 -0.629 186 189 206
0.412744 -0.360028 -0.629 182 184 196
0.413942 -0.360028 -0.629 187 189 201
0.41514 -0.360028 -0.629 176 179 186
0.416338 -0.360028 -0.629 174 177 184
0.417536 -0.360028 -0.629 174 177 184
0.418734 -0.360028 -0.629 182 185 204
0.419932 -0.360028 -0.629 190 193 212
0.42113 -0.360028 -0.629 181 187 201
0.422329 -0.360028 -0.629 177 183 197
0.423527 -0.360028 -0.629 183 186 201
0.424725 -0.360028 -0.629 180 183 198
0.425923 -0.360028 -0.629 183 189 203
0.427121 -0.360028 -0.629 179 185 199
0.428319 -0.360028 -0.629 179 182 199
0.429517 -0.360028 -0.629 181 184 201
0.430715 -0.360028 -0.629 184 183 201
0.431913 -0.360028 -0.629 181 180 198
0.433111 -0.360028 -0.629 183 181 194
0.43431 -0.360028 -0.629 159 157 170
0.435508 -0.360028 -0.629 159 163 175
0.436706 -0.360028 -0.629 152 156 168
0.437904 -0.360028 -0.629 96 108 132
0.439102 -0.360028 -0.629 72 84 108
0.4403 -0.360028 -0.629 79 94 133
0.441498 -0.360028 -0.629 115 130 169
0.442696 -0.360028 -0.629 155 169 204
0.443189 -0.359455 -0.628 167 181 216
0.444385 -0.359455 -0.628 161 174 208
0.445581 -0.359455 -0.628 149 162 196
0.446777 -0.359455 -0.628 136 152 188
0.447973 -0.359455 -0.628 137 153 189
0.44917 -0.359455 -0.628 137 153 189
0.450366 -0.359455 -0.628 105 127 174
0.451562 -0.359455 -0.628 79 101 148
0.452758 -0.359455 -0.628 83 113 165
0.453954 -0.359455 -0.628 93 123 175
0.45515 -0.359455 -0.628 89 119 169
0.456347 -0.359455 -0.628 74 104 154
0.457543 -0.359455 -0.628 94 117 161
0.458009 -0.358883 -0.627 124 147 191
0.459203 -0.358883 -0.627 127 145 185
0.460397 -0.358883 -0.627 134 152 192
0.461591 -0.358883 -0.627 161 170 201
0.462786 -0.358883 -0.627 164 173 204
0.463833 -0.34629 -0.605 123 89 90
0.460374 -0.342856 -0.599 122 88 89
0.461515 -0.342856 -0.599 122 88 89
0.459567 -0.340567 -0.595 123 88 86
0.445686 -0.326257 -0.57 123 89 80
0.443636 -0.323968 -0.566 125 88 79
0.441571 -0.321678 -0.562 123 86 77
0.438704 -0.318816 -0.557 121 85 73
0.438186 -0.317671 -0.555 121 85 73
0.436077 -0.315382 -0.551 120 84 72
0.43554 -0.314237 -0.549 120 84 72
0.4342 -0.31252 -0.546 119 82 73
0.433646 -0.311375 -0.544 117 80 71
0.433084 -0.31023 -0.542 118 81 72
0.432514 -0.309086 -0.54 117 80 71
0.431937 -0.307941 -0.538 117 79 70
0.431352 -0.306796 -0.536 117 79 70
0.43076 -0.305651 -0.534 118 80 71
0.43016 -0.304507 -0.532 117 79 70
0.430363 -0.303934 -0.531 117 79 68
0.430562 -0.303362 -0.53 117 79 68
0.430757 -0.30279 -0.529 118 78 68
0.430949 -0.302217 -0.528 119 79 69
0.431136 -0.301645 -0.527 120 80 70
0.43132 -0.301072 -0.526 121 81 71
0.432322 -0.301072 -0.526 122 80 68
0.4325 -0.3005 -0.525 123 81 69
0.432674 -0.299928 -0.524 125 83 71
0.432845 -0.299355 -0.523 127 85 73
0.433841 -0.299355 -0.523 127 85 73
0.434837 -0.299355 -0.523 133 84 70
0.435833 -0.299355 -0.523 135 86 72
0.435994 -0.298783 -0.522 133 85 71
0.436989 -0.298783 -0.522 136 88 74
0.437144 -0.29821 -0.521 138 89 75
0.438136 -0.29821 -0.521 141 92 78
0.438286 -0.297638 -0.52 144 95 81
0.439276 -0.297638 -0.52 145 96 82
0.43942 -0.297066 -0.519 145 96 82
0.440409 -0.297066 -0.519 144 95 81
0.440547 -0.296493 -0.518 146 94 80
0.441533 -0.296493 -0.518 147 95 81
0.44252 -0.296493 -0.518 146 95 78
0.44265 -0.295921 -0.517 146 95 78
0.443635 -0.295921 -0.517 151 100 83
0.44462 -0.295921 -0.517 157 106 89
0.444743 -0.295349 -0.516 158 106 85
0.445726 -0.295349 -0.516 159 107 86
0.445843 -0.294776 -0.515 161 109 88
0.446824 -0.294776 -0.515 161 109 88
0.446935 -0.294204 -0.514 162 110 89
0.447914 -0.294204 -0.514 163 111 90
0.448893 -0.294204 -0.514 163 112 91
0.448997 -0.293631 -0.513 165 114 93
0.449974 -0.293631 -0.513 163 112 91
0.450951 -0.293631 -0.513 163 112 91
0.451929 -0.293631 -0.513 162 111 90
0.452906 -0.293631 -0.513 161 110 89
0.453883 -0.293631 -0.513 159 108 87
0.45486 -0.293631 -0.513 156 105 84
0.455837 -0.293631 -0.513 156 105 84
0.456814 -0.293631 -0.513 157 106 85
0.458684 -0.294204 -0.514 155 107 93
0.459663 -0.294204 -0.514 150 102 88
0.462434 -0.295349 -0.516 148 102 87
0.464315 -0.295921 -0.517 144 98 83
0.4653 -0.295921 -0.517 144 98 83
0.467187 -0.296493 -0.518 140 94 79
0.469981 -0.297638 -0.52 141 95 80
0.472783 -0.298783 -0.522 142 96 81
0.475592 -0.299928 -0.524 140 94 79
0.47841 -0.301072 -0.526 141 95 82
0.481234 -0.302217 -0.528 142 96 83
0.48498 -0.303934 -0.531 142 98 85
0.487822 -0.305079 -0.533 141 97 84
0.490671 -0.306224 -0.535 139 97 83
0.493529 -0.307369 -0.537 142 100 86
0.56723 -0.344001 -0.601 184 178 188
0.573103 -0.346863 -0.606 209 203 213
0.0506876 -0.343423 -0.598 188 150 139
0.04774 -0.30954 -0.539 190 150 140
0.047681 -0.302649 -0.527 187 145 133
0.0484076 -0.300926 -0.524 193 151 139
0.0490286 -0.298629 -0.52 195 153 141
0.0499229 -0.298054 -0.519 195 153 141
0.0508133 -0.29748 -0.518 198 155 146
0.0517 -0.296906 -0.517 201 158 149
0.0525829 -0.296331 -0.516 201 157 146
0.0535657 -0.296331 -0.516 202 158 147
0.0544429 -0.295757 -0.515 198 151 141
0.0554238 -0.295757 -0.515 179 132 122
0.0564048 -0.295757 -0.515 197 150 140
0.0573857 -0.295757 -0.515 199 152 142
0.0583667 -0.295757 -0.515 202 158 149
0.0593476 -0.295757 -0.515 200 156 147
0.0603286 -0.295757 -0.515 203 159 150
0.0613095 -0.295757 -0.515 202 158 149
0.0621695 -0.295183 -0.514 204 157 147
0.0631486 -0.295183 -0.514 199 152 142
0.0641276 -0.295183 -0.514 203 155 145
0.0651067 -0.295183 -0.514 203 155 145
0.0659571 -0.294609 -0.513 199 152 144
0.0669343 -0.294609 -0.513 197 150 142
0.0679114 -0.294609 -0.513 199 152 144
0.0688886 -0.294609 -0.513 202 155 147
0.0698657 -0.294609 -0.513 204 156 146
0.0707048 -0.294034 -0.512 205 157 147
0.07168 -0.294034 -0.512 204 156 146
0.0726552 -0.294034 -0.512 204 156 146
0.0736305 -0.294034 -0.512 203 155 145
0.0746057 -0.294034 -0.512 203 155 145
0.075581 -0.294034 -0.512 205 157 147
0.0765562 -0.294034 -0.512 203 155 145
0.0775314 -0.294034 -0.512 199 152 144
0.0785067 -0.294034 -0.512 199 152 144
0.0794819 -0.294034 -0.512 198 151 143
0.0804571 -0.294034 -0.512 201 154 146
0.0814324 -0.294034 -0.512 198 151 143
0.0824076 -0.294034 -0.512 191 144 136
0.0833829 -0.294034 -0.512 188 141 135
0.0845229 -0.294609 -0.513 189 142 136
0.0855 -0.294609 -0.513 187 142 136
0.0864771 -0.294609 -0.513 188 143 137
0.0874543 -0.294609 -0.513 191 142 138
0.0884314 -0.294609 -0.513 190 141 137
0.0895829 -0.295183 -0.514 188 139 134
0.0905619 -0.295183 -0.514 188 139 134
0.091541 -0.295183 -0.514 184 135 130
0.0927 -0.295757 -0.515 178 129 124
0.0936809 -0.295757 -0.515 176 129 123
0.0948457 -0.296331 -0.516 177 130 124
0.0958286 -0.296331 -0.516 177 130 124
0.0969991 -0.296906 -0.517 173 126 120
0.0979838 -0.296906 -0.517 169 122 114
0.09916 -0.29748 -0.518 169 122 114
0.10034 -0.298054 -0.519 168 121 113
0.101329 -0.298054 -0.519 161 114 106
0.102514 -0.298629 -0.52 159 112 102
0.103704 -0.299203 -0.521 156 109 99
0.104696 -0.299203 -0.521 155 112 106
0.105891 -0.299777 -0.522 150 107 101
0.107295 -0.300926 -0.524 143 102 98
0.1085 -0.3015 -0.525 141 100 96
0.109709 -0.302074 -0.526 138 100 99
0.111131 -0.303223 -0.528 135 97 96
0.11235 -0.303797 -0.529 131 95 95
0.113786 -0.304946 -0.531 129 93 93
0.115013 -0.30552 -0.532 125 90 94
0.116463 -0.306669 -0.534 125 90 94
0.11792 -0.307817 -0.536 118 89 94
0.119607 -0.30954 -0.539 114 85 90
0.121081 -0.310689 -0.541 111 84 91
0.122789 -0.312411 -0.544 110 83 90
0.124508 -0.314134 -0.547 107 80 87
0.126238 -0.315857 -0.55 105 78 85
0.12798 -0.31758 -0.553 112 82 90
0.1302 -0.320451 -0.558 116 86 94
0.131969 -0.322174 -0.561 121 90 95
0.133986 -0.324471 -0.565 124 93 98
0.166603 -0.360077 -0.627 201 199 213
0.168065 -0.360651 -0.628 202 202 214
0.169261 -0.360651 -0.628 226 226 238
0.170457 -0.360651 -0.628 240 240 250
0.171653 -0.360651 -0.628 238 238 248
0.17285 -0.360651 -0.628 240 238 251
0.174046 -0.360651 -0.628 250 248 255
0.175242 -0.360651 -0.628 252 250 255
0.176438 -0.360651 -0.628 253 251 255
0.177634 -0.360651 -0.628 249 249 255
0.17883 -0.360651 -0.628 249 249 255
0.180027 -0.360651 -0.628 251 252 255
0.181223 -0.360651 -0.628 248 249 253
0.182419 -0.360651 -0.628 250 251 253
0.183615 -0.360651 -0.628 246 247 249
0.184811 -0.360651 -0.628 240 245 249
0.186008 -0.360651 -0.628 232 237 241
0.187204 -0.360651 -0.628 201 214 248
0.1881 -0.360077 -0.627 162 175 209
0.189294 -0.360077 -0.627 146 167 214
0.190489 -0.360077 -0.627 141 162 209
0.191989 -0.360651 -0.628 146 161 216
0.193185 -0.360651 -0.628 139 154 209
0.194381 -0.360651 -0.628 140 152 204
0.195577 -0.360651 -0.628 147 159 211
0.19646 -0.360077 -0.627 139 153 202
0.197654 -0.360077 -0.627 133 147 196
0.198849 -0.360077 -0.627 123 145 202
0.200043 -0.360077 -0.627 122 144 201
0.201237 -0.360077 -0.627 118 149 196
0.202431 -0.360077 -0.627 123 154 201
0.203626 -0.360077 -0.627 140 149 208
0.205147 -0.360651 -0.628 139 148 207
0.206343 -0.360651 -0.628 144 164 214
0.207539 -0.360651 -0.628 150 170 220
0.208735 -0.360651 -0.628 150 170 220
0.209931 -0.360651 -0.628 151 173 210
0.211128 -0.360651 -0.628 178 200 237
0.212324 -0.360651 -0.628 213 223 250
0.21318 -0.360077 -0.627 227 237 255
0.214374 -0.360077 -0.627 238 237 251
0.215569 -0.360077 -0.627 246 245 255
0.217109 -0.360651 -0.628 249 253 254
0.218305 -0.360651 -0.628 249 253 254
0.219501 -0.360651 -0.628 247 251 250
0.220697 -0.360651 -0.628 251 255 254
0.22154 -0.360077 -0.627 253 252 255
0.222734 -0.360077 -0.627 254 253 255
0.223929 -0.360077 -0.627 233 236 243
0.225123 -0.360077 -0.627 213 216 223
0.226317 -0.360077 -0.627 223 222 236
0.227511 -0.360077 -0.627 224 223 237
0.228706 -0.360077 -0.627 215 214 232
0.2299 -0.360077 -0.627 206 205 223
0.231094 -0.360077 -0.627 191 192 212
0.232289 -0.360077 -0.627 202 203 223
0.233483 -0.360077 -0.627 219 220 240
0.235051 -0.360651 -0.628 221 222 240
0.236248 -0.360651 -0.628 217 216 232
0.237444 -0.360651 -0.628 221 220 236
0.23826 -0.360077 -0.627 241 241 249
0.239454 -0.360077 -0.627 251 251 255
0.240649 -0.360077 -0.627 247 251 252
0.241843 -0.360077 -0.627 250 254 255
0.243037 -0.360077 -0.627 251 254 255
0.244231 -0.360077 -0.627 252 255 255
0.245426 -0.360077 -0.627 255 255 255
0.24662 -0.360077 -0.627 251 251 253
0.247814 -0.360077 -0.627 246 246 254
0.249009 -0.360077 -0.627 243 243 251
0.250203 -0.360077 -0.627 219 225 249
0.251397 -0.360077 -0.627 219 225 249
0.252591 -0.360077 -0.627 182 188 212
0.253786 -0.360077 -0.627 157 171 208
0.25498 -0.360077 -0.627 162 176 213
0.256174 -0.360077 -0.627 156 173 216
0.257369 -0.360077 -0.627 160 177 220
0.258563 -0.360077 -0.627 164 182 232
0.259757 -0.360077 -0.627 160 178 228
0.260951 -0.360077 -0.627 149 165 224
0.262146 -0.360077 -0.627 141 157 216
0.26334 -0.360077 -0.627 135 156 209
0.264534 -0.360077 -0.627 137 158 211
0.265729 -0.360077 -0.627 154 172 222
0.266923 -0.360077 -0.627 175 193 243
0.268117 -0.360077 -0.627 173 190 242
0.269311 -0.360077 -0.627 150 167 219
0.270506 -0.360077 -0.627 140 159 215
0.331414 -0.360077 -0.627 158 189 244
0.332609 -0.360077 -0.627 160 182 229
0.333803 -0.360077 -0.627 152 174 221
0.334997 -0.360077 -0.627 182 202 239
0.336191 -0.360077 -0.627 196 216 253
0.337386 -0.360077 -0.627 176 195 235
0.33858 -0.360077 -0.627 101 120 160
0.339774 -0.360077 -0.627 87 106 149
0.340969 -0.360077 -0.627 145 164 207
0.342163 -0.360077 -0.627 187 199 225
0.343357 -0.360077 -0.627 198 210 236
0.344551 -0.360077 -0.627 209 215 237
0.345746 -0.360077 -0.627 211 217 239
0.34694 -0.360077 -0.627 211 214 233
0.348134 -0.360077 -0.627 211 214 233
0.349329 -0.360077 -0.627 209 212 231
0.350523 -0.360077 -0.627 211 214 233
0.351717 -0.360077 -0.627 209 215 231
0.352911 -0.360077 -0.627 209 215 231
0.354106 -0.360077 -0.627 205 211 227
0.3553 -0.360077 -0.627 210 214 226
0.356494 -0.360077 -0.627 192 196 208
0.357689 -0.360077 -0.627 163 169 181
0.358883 -0.360077 -0.627 178 184 196
0.360077 -0.360077 -0.627 199 206 222
0.361271 -0.360077 -0.627 198 205 221
0.362466 -0.360077 -0.627 202 205 224
0.36366 -0.360077 -0.627 205 208 227
0.364854 -0.360077 -0.627 203 209 223
0.366632 -0.360651 -0.628 203 209 223
0.367829 -0.360651 -0.628 201 206 226
0.369025 -0.360651 -0.628 200 205 225
0.370221 -0.360651 -0.628 204 209 231
0.371417 -0.360651 -0.628 203 208 230
0.372613 -0.360651 -0.628 193 195 216
0.37381 -0.360651 -0.628 174 176 197
0.375006 -0.360651 -0.628 164 168 197
0.376202 -0.360651 -0.628 120 124 153
0.377398 -0.360651 -0.628 77 85 121
0.378594 -0.360651 -0.628 93 101 137
0.37979 -0.360651 -0.628 157 173 196
0.380987 -0.360651 -0.628 182 198 221
0.382183 -0.360651 -0.628 184 200 226
0.383379 -0.360651 -0.628 171 187 213
0.384575 -0.360651 -0.628 159 175 209
0.385771 -0.360651 -0.628 159 175 209
0.386968 -0.360651 -0.628 164 180 214
0.388164 -0.360651 -0.628 144 166 215
0.38936 -0.360651 -0.628 111 133 182
0.390556 -0.360651 -0.628 102 132 186
0.391752 -0.360651 -0.628 95 125 179
0.392949 -0.360651 -0.628 106 137 184
0.394145 -0.360651 -0.628 144 175 222
0.395341 -0.360651 -0.628 158 178 215
0.396537 -0.360651 -0.628 150 170 207
0.397733 -0.360651 -0.628 169 183 212
0.39893 -0.360651 -0.628 181 195 224
0.400126 -0.360651 -0.628 181 192 222
0.401322 -0.360651 -0.628 164 175 205
0.402518 -0.360651 -0.628 104 119 158
0.403714 -0.360651 -0.628 67 82 121
0.40491 -0.360651 -0.628 67 82 125
0.406107 -0.360651 -0.628 120 135 178
0.407303 -0.360651 -0.628 158 169 201
0.408499 -0.360651 -0.628 178 189 221
0.409695 -0.360651 -0.628 192 193 211
0.410891 -0.360651 -0.628 182 183 201
0.412744 -0.361226 -0.629 161 160 168
0.413942 -0.361226 -0.629 166 165 173
0.41514 -0.361226 -0.629 186 189 198
0.416338 -0.361226 -0.629 187 190 199
0.417536 -0.361226 -0.629 187 190 199
0.418734 -0.361226 -0.629 186 191 210
0.419932 -0.361226 -0.629 187 192 211
0.42113 -0.361226 -0.629 177 182 201
0.422329 -0.361226 -0.629 166 171 190
0.423527 -0.361226 -0.629 170 177 195
0.424725 -0.361226 -0.629 182 189 207
0.425923 -0.361226 -0.629 182 188 204
0.427121 -0.361226 -0.629 180 186 202
0.428319 -0.361226 -0.629 185 187 202
0.429517 -0.361226 -0.629 186 188 203
0.430715 -0.361226 -0.629 185 182 199
0.431913 -0.361226 -0.629 185 182 199
0.432423 -0.360651 -0.628 182 181 197
0.433619 -0.360651 -0.628 146 145 161
0.434815 -0.360651 -0.628 106 112 128
0.436011 -0.360651 -0.628 110 116 132
0.437208 -0.360651 -0.628 73 85 107
0.438404 -0.360651 -0.628 86 98 120
0.4396 -0.360651 -0.628 114 127 159
0.440796 -0.360651 -0.628 141 154 186
0.441992 -0.360651 -0.628 170 177 203
0.443189 -0.360651 -0.628 172 179 205
0.444385 -0.360651 -0.628 172 182 209
0.445581 -0.360651 -0.628 162 172 199
0.446777 -0.360651 -0.628 132 146 181
0.447973 -0.360651 -0.628 125 139 174
0.44917 -0.360651 -0.628 125 139 174
0.450366 -0.360651 -0.628 109 132 176
0.451562 -0.360651 -0.628 97 120 164
0.452758 -0.360651 -0.628 98 126 176
0.453954 -0.360651 -0.628 109 137 187
0.45515 -0.360651 -0.628 107 135 183
0.456347 -0.360651 -0.628 93 121 169
0.457543 -0.360651 -0.628 97 121 165
0.458009 -0.360077 -0.627 110 134 178
0.459203 -0.360077 -0.627 118 140 181
0.460397 -0.360077 -0.627 130 152 193
0.461591 -0.360077 -0.627 159 169 194
0.462786 -0.360077 -0.627 164 174 199
0.46324 -0.359503 -0.626 170 178 197
0.464432 -0.359503 -0.626 164 172 191
0.465625 -0.359503 -0.626 160 166 190
0.466817 -0.359503 -0.626 139 145 169
0.465754 -0.348017 -0.606 106 87 93
0.466909 -0.348017 -0.606 106 87 93
0.464973 -0.34572 -0.602 107 82 85
0.463023 -0.343423 -0.598 112 87 90
0.449907 -0.32964 -0.574 127 88 81
0.447071 -0.326769 -0.569 125 86 79
0.444217 -0.323897 -0.564 122 84 75
0.442133 -0.3216 -0.56 120 82 73
0.440034 -0.319303 -0.556 120 83 74
0.438713 -0.31758 -0.553 121 84 75
0.437381 -0.315857 -0.55 118 84 75
0.436834 -0.314709 -0.548 117 83 74
0.435481 -0.312986 -0.545 120 83 75
0.434116 -0.311263 -0.542 118 81 73
0.433543 -0.310114 -0.54 119 80 73
0.432962 -0.308966 -0.538 119 80 73
0.432373 -0.307817 -0.536 119 80 73
0.431777 -0.306669 -0.534 119 80 73
0.431984 -0.306094 -0.533 120 80 72
0.432187 -0.30552 -0.532 119 79 71
0.431571 -0.304371 -0.53 119 79 69
0.431765 -0.303797 -0.529 120 80 70
0.431954 -0.303223 -0.528 124 81 72
0.43214 -0.302649 -0.527 124 81 72
0.432322 -0.302074 -0.526 123 80 71
0.4325 -0.3015 -0.525 123 80 71
0.4335 -0.3015 -0.525 125 83 71
0.433672 -0.300926 -0.524 126 84 72
0.433841 -0.300351 -0.523 130 82 70
0.434837 -0.300351 -0.523 130 82 70
0.435833 -0.300351 -0.523 131 83 71
0.435994 -0.299777 -0.522 133 85 71
0.436989 -0.299777 -0.522 136 88 74
0.437144 -0.299203 -0.521 138 89 75
0.438136 -0.299203 -0.521 139 90 75
0.438286 -0.298629 -0.52 142 93 79
0.439276 -0.298629 -0.52 142 93 79
0.43942 -0.298054 -0.519 142 93 79
0.440409 -0.298054 -0.519 142 93 79
0.441397 -0.298054 -0.519 146 92 80
0.441533 -0.29748 -0.518 147 93 81
0.44252 -0.29748 -0.518 146 93 79
0.443507 -0.29748 -0.518 145 92 78
0.443635 -0.296906 -0.517 150 98 84
0.44462 -0.296906 -0.517 158 106 92
0.444743 -0.296331 -0.516 161 109 88
0.445726 -0.296331 -0.516 161 109 88
0.446709 -0.296331 -0.516 162 110 89
0.446824 -0.295757 -0.515 163 111 90
0.446935 -0.295183 -0.514 163 111 90
0.447914 -0.295183 -0.514 164 112 91
0.448893 -0.295183 -0.514 164 113 92
0.449872 -0.295183 -0.514 165 114 93
0.449974 -0.294609 -0.513 161 110 91
0.450951 -0.294609 -0.513 163 112 93
0.451929 -0.294609 -0.513 163 112 93
0.452906 -0.294609 -0.513 161 110 91
0.453883 -0.294609 -0.513 160 109 90
0.45486 -0.294609 -0.513 156 105 86
0.455837 -0.294609 -0.513 154 106 86
0.456814 -0.294609 -0.513 158 110 90
0.458684 -0.295183 -0.514 158 111 95
0.459663 -0.295183 -0.514 151 104 88
0.461538 -0.295757 -0.515 147 102 83
0.463417 -0.296331 -0.516 143 98 79
0.4644 -0.296331 -0.516 143 98 79
0.467187 -0.29748 -0.518 139 94 75
0.469077 -0.298054 -0.519 142 97 78
0.471877 -0.299203 -0.521 143 97 81
0.473777 -0.299777 -0.522 140 94 78
0.47659 -0.300926 -0.524 140 94 79
0.480323 -0.302649 -0.527 142 96 81
0.483153 -0.303797 -0.529 145 102 86
0.485991 -0.304946 -0.531 143 100 84
0.488837 -0.306094 -0.533 141 98 82
0.491691 -0.307243 -0.535 143 100 84
0.494551 -0.308391 -0.537 142 99 82
0.499266 -0.310689 -0.541 142 99 82
0.503071 -0.312411 -0.544 133 96 78
0.568374 -0.345146 -0.601 215 205 216
0.574257 -0.348017 -0.606 205 211 211
1.00315 -0.347443 -0.605 207 210 193
1.0043 -0.347443 -0.605 207 210 193
1.00545 -0.347443 -0.605 207 210 193
1.0066 -0.347443 -0.605 206 209 192
1.00776 -0.347443 -0.605 206 209 192
1.00891 -0.347443 -0.605 206 209 192
1.01006 -0.347443 -0.605 206 209 192
1.01121 -0.347443 -0.605 206 209 192
1.06307 -0.347443 -0.605 204 207 190
1.06422 -0.347443 -0.605 204 207 190
1.06538 -0.347443 -0.605 204 207 190
1.06653 -0.347443 -0.605 204 207 190
1.06768 -0.347443 -0.605 205 208 191
1.06883 -0.347443 -0.605 205 208 191
1.06999 -0.347443 -0.605 204 206 192
1.07114 -0.347443 -0.605 204 206 192
1.07229 -0.347443 -0.605 204 207 190
