ply
format ascii 1.0
comment Created by Open3D
element vertex 1275
property double x
property double y
property double z
property uchar red
property uchar green
property uchar blue
end_header
0.485856 -0.353988 -0.491 166 121 100
0.486791 -0.353988 -0.491 165 120 99
0.487727 -0.353988 -0.491 162 117 96
0.488662 -0.353988 -0.491 162 117 96
0.490594 -0.354709 -0.492 161 119 97
0.491531 -0.354709 -0.492 159 117 95
0.49347 -0.35543 -0.493 160 118 96
0.495411 -0.35615 -0.494 159 117 95
0.497357 -0.356871 -0.495 157 116 96
0.499307 -0.357592 -0.496 155 114 94
0.50126 -0.358313 -0.497 151 113 92
0.504228 -0.359755 -0.499 150 112 91
0.50619 -0.360476 -0.5 149 111 90
0.507143 -0.360476 -0.5 145 107 84
0.510128 -0.361918 -0.502 148 107 87
0.51312 -0.36336 -0.504 149 108 88
0.51612 -0.364802 -0.506 148 110 89
0.52015 -0.366965 -0.509 146 108 87
0.524191 -0.369128 -0.512 142 107 87
0.528243 -0.37129 -0.515 142 107 87
0.587156 -0.405175 -0.562 200 186 183
0.936458 -0.403012 -0.559 206 209 190
0.937523 -0.403012 -0.559 206 209 190
0.938588 -0.403012 -0.559 205 208 189
0.939652 -0.403012 -0.559 205 208 189
0.949235 -0.403012 -0.559 203 206 189
0.9503 -0.403012 -0.559 204 207 190
0.951365 -0.403012 -0.559 205 208 191
0.95243 -0.403012 -0.559 205 208 191
0.953494 -0.403012 -0.559 205 208 191
0.954559 -0.403012 -0.559 205 208 191
0.955624 -0.403012 -0.559 205 208 191
0.956689 -0.403012 -0.559 205 208 191
0.957753 -0.403012 -0.559 204 207 190
0.958818 -0.403012 -0.559 204 207 190
0.959883 -0.403012 -0.559 204 207 190
0.960948 -0.403012 -0.559 204 207 190
0.962012 -0.403012 -0.559 203 205 191
0.963077 -0.403012 -0.559 204 206 192
0.964142 -0.403012 -0.559 205 207 193
0.965207 -0.403012 -0.559 205 207 193
0.966271 -0.403012 -0.559 206 208 194
0.967336 -0.403012 -0.559 206 208 194
0.968401 -0.403012 -0.559 205 207 193
0.969466 -0.403012 -0.559 205 207 193
0.970531 -0.403012 -0.559 204 206 192
-0.00705714 -0.412029 -0.57 202 192 182
-0.00592952 -0.409137 -0.566 208 186 162
-0.00481714 -0.406246 -0.562 200 178 154
-0.00142286 -0.359983 -0.498 205 167 131
-0.000470476 -0.357091 -0.494 203 165 129
0.000465714 -0.353477 -0.489 205 164 132
0.00139429 -0.352754 -0.488 205 164 132
0.00231905 -0.352031 -0.487 204 163 133
0.00324 -0.351309 -0.486 204 163 133
0.00415714 -0.350586 -0.485 202 163 130
0.00508095 -0.350586 -0.485 201 162 129
0.00600476 -0.350586 -0.485 196 160 126
0.00692857 -0.350586 -0.485 194 158 124
0.00785238 -0.350586 -0.485 193 159 124
0.00877619 -0.350586 -0.485 193 159 124
0.0097 -0.350586 -0.485 198 159 126
0.0106457 -0.351309 -0.486 196 157 124
0.0115714 -0.351309 -0.486 193 157 123
0.0124971 -0.351309 -0.486 193 157 123
0.0134229 -0.351309 -0.486 194 155 122
0.0143781 -0.352031 -0.487 193 154 121
0.0153057 -0.352031 -0.487 192 151 121
0.0162333 -0.352031 -0.487 191 150 120
0.0171962 -0.352754 -0.488 191 150 120
0.0181257 -0.352754 -0.488 188 147 117
0.0190943 -0.353477 -0.489 187 146 116
0.0200257 -0.353477 -0.489 185 144 114
0.021 -0.3542 -0.49 182 141 111
0.0219781 -0.354923 -0.491 179 138 108
0.02296 -0.355646 -0.492 178 134 107
0.0239457 -0.356369 -0.493 176 132 105
0.0249352 -0.357091 -0.494 174 132 110
0.0258762 -0.357091 -0.494 172 130 108
0.0268714 -0.357814 -0.495 169 127 105
0.0278705 -0.358537 -0.496 166 124 102
0.0289314 -0.359983 -0.498 162 121 99
0.02994 -0.360706 -0.499 158 117 95
0.0309524 -0.361429 -0.5 152 114 93
0.0319686 -0.362151 -0.501 150 112 91
0.0330543 -0.363597 -0.503 148 111 93
0.03408 -0.36432 -0.504 146 109 91
0.035179 -0.365766 -0.506 141 107 95
0.0362143 -0.366489 -0.507 139 105 93
0.0373267 -0.367934 -0.509 136 103 94
0.0383714 -0.368657 -0.51 134 101 92
0.0394971 -0.370103 -0.512 131 98 93
0.0406305 -0.371549 -0.514 129 96 91
0.0417714 -0.372994 -0.516 123 98 93
0.04292 -0.37444 -0.518 120 95 90
0.0440762 -0.375886 -0.52 118 93 89
0.04524 -0.377331 -0.522 116 90 89
0.0464114 -0.378777 -0.524 115 91 89
0.0475905 -0.380223 -0.526 115 91 89
0.0487771 -0.381669 -0.528 114 90 90
0.0499714 -0.383114 -0.53 113 89 89
0.0511733 -0.38456 -0.532 113 89 89
0.0523829 -0.386006 -0.534 113 89 89
0.0536 -0.387451 -0.536 111 89 91
0.0548248 -0.388897 -0.538 111 89 91
0.0560571 -0.390343 -0.54 110 88 90
0.0572971 -0.391789 -0.542 111 89 91
0.0585448 -0.393234 -0.544 111 89 91
0.0598 -0.39468 -0.546 110 88 90
0.0611743 -0.396849 -0.549 113 89 89
0.0624467 -0.398294 -0.551 113 89 89
0.0637267 -0.39974 -0.553 111 91 90
0.0650143 -0.401186 -0.555 111 91 90
0.0663095 -0.402631 -0.557 112 91 90
0.0676124 -0.404077 -0.559 112 91 90
0.0690457 -0.406246 -0.562 115 90 93
0.0703657 -0.407691 -0.564 115 90 93
0.07182 -0.40986 -0.567 107 88 92
0.0731571 -0.411306 -0.569 135 116 120
0.0887371 -0.423594 -0.586 163 163 171
0.119786 -0.422871 -0.585 124 135 165
0.1209 -0.422871 -0.585 92 105 137
0.122014 -0.422871 -0.585 112 125 157
0.123129 -0.422871 -0.585 159 170 198
0.124243 -0.422871 -0.585 174 185 213
0.125357 -0.422871 -0.585 187 194 212
0.126471 -0.422871 -0.585 189 196 214
0.127586 -0.422871 -0.585 193 199 213
0.1287 -0.422871 -0.585 190 196 210
0.129814 -0.422871 -0.585 191 199 212
0.130929 -0.422871 -0.585 193 201 214
0.132043 -0.422871 -0.585 192 200 211
0.133157 -0.422871 -0.585 193 201 212
0.134271 -0.422871 -0.585 198 201 208
0.135386 -0.422871 -0.585 195 198 205
0.1365 -0.422871 -0.585 195 201 213
0.137614 -0.422871 -0.585 194 200 212
0.138729 -0.422871 -0.585 188 194 208
0.139843 -0.422871 -0.585 175 181 195
0.140957 -0.422871 -0.585 178 184 200
0.142071 -0.422871 -0.585 185 191 207
0.143186 -0.422871 -0.585 197 201 213
0.1443 -0.422871 -0.585 197 201 213
0.145414 -0.422871 -0.585 198 202 214
0.146529 -0.422871 -0.585 198 201 208
0.147643 -0.422871 -0.585 179 182 189
0.148757 -0.422871 -0.585 175 178 183
0.149871 -0.422871 -0.585 184 187 192
0.471993 -0.41998 -0.581 118 129 161
0.4731 -0.41998 -0.581 161 169 180
0.474207 -0.41998 -0.581 168 176 187
0.475313 -0.41998 -0.581 170 172 184
0.47642 -0.41998 -0.581 169 171 183
0.477527 -0.41998 -0.581 175 175 183
0.478633 -0.41998 -0.581 162 162 170
0.47974 -0.41998 -0.581 146 149 154
0.480847 -0.41998 -0.581 159 162 167
0.481953 -0.41998 -0.581 178 177 193
0.48306 -0.41998 -0.581 176 175 191
0.484167 -0.41998 -0.581 115 135 160
0.485273 -0.41998 -0.581 81 101 126
0.50241 -0.406969 -0.563 148 115 106
0.498117 -0.402631 -0.557 149 116 107
0.492905 -0.397571 -0.55 150 116 107
0.487666 -0.392511 -0.543 151 117 108
0.4833 -0.388174 -0.537 158 117 111
0.478911 -0.383837 -0.531 159 118 112
0.475404 -0.380223 -0.526 161 118 109
0.472783 -0.377331 -0.522 160 117 108
0.471054 -0.375163 -0.519 163 119 106
0.470224 -0.373717 -0.517 165 121 108
0.469386 -0.372271 -0.515 171 125 109
0.46854 -0.370826 -0.513 171 125 109
0.467687 -0.36938 -0.511 169 126 109
0.466826 -0.367934 -0.509 169 126 109
0.466876 -0.367211 -0.508 167 125 109
0.466002 -0.365766 -0.506 166 124 108
0.466043 -0.365043 -0.505 170 127 110
0.46608 -0.36432 -0.504 169 126 109
0.466113 -0.363597 -0.503 168 125 108
0.466143 -0.362874 -0.502 168 125 108
0.467099 -0.362874 -0.502 168 125 106
0.467123 -0.362151 -0.501 168 125 106
0.467143 -0.361429 -0.5 170 125 106
0.467159 -0.360706 -0.499 172 127 108
0.46811 -0.360706 -0.499 172 127 108
0.46812 -0.359983 -0.498 173 128 109
0.469069 -0.359983 -0.498 173 128 107
0.469073 -0.35926 -0.497 171 126 105
0.47002 -0.35926 -0.497 174 129 108
0.470019 -0.358537 -0.496 175 130 109
0.470014 -0.357814 -0.495 176 131 110
0.470957 -0.357814 -0.495 172 127 106
0.4719 -0.357814 -0.495 176 130 106
0.471888 -0.357091 -0.494 176 130 106
0.471871 -0.356369 -0.493 174 128 104
0.47281 -0.356369 -0.493 174 128 104
0.47375 -0.356369 -0.493 171 126 103
0.473726 -0.355646 -0.492 169 124 101
0.474663 -0.355646 -0.492 170 124 101
0.4756 -0.355646 -0.492 166 120 97
0.475569 -0.354923 -0.491 158 110 88
0.476504 -0.354923 -0.491 147 99 77
0.477439 -0.354923 -0.491 153 105 83
0.4774 -0.3542 -0.49 161 113 91
0.478333 -0.3542 -0.49 165 117 95
0.479267 -0.3542 -0.49 170 122 100
0.4802 -0.3542 -0.49 169 123 100
0.481133 -0.3542 -0.49 169 123 100
0.482067 -0.3542 -0.49 170 123 103
0.483 -0.3542 -0.49 172 125 105
0.483933 -0.3542 -0.49 171 124 104
0.484867 -0.3542 -0.49 171 124 104
0.4858 -0.3542 -0.49 166 121 100
0.487727 -0.354923 -0.491 163 118 97
0.488662 -0.354923 -0.491 160 118 96
0.489597 -0.354923 -0.491 160 118 96
0.490532 -0.354923 -0.491 159 117 95
0.492469 -0.355646 -0.492 159 117 95
0.494409 -0.356369 -0.493 159 117 95
0.496352 -0.357091 -0.494 156 115 93
0.4983 -0.357814 -0.495 155 114 92
0.500251 -0.358537 -0.496 154 113 91
0.503217 -0.359983 -0.498 153 112 90
0.505178 -0.360706 -0.499 147 109 86
0.507143 -0.361429 -0.5 145 107 84
0.508095 -0.361429 -0.5 150 107 90
0.511084 -0.362874 -0.502 151 108 91
0.51408 -0.36432 -0.504 150 109 89
0.517084 -0.365766 -0.506 149 108 88
0.521119 -0.367934 -0.509 145 107 86
0.584022 -0.404077 -0.559 198 180 176
0.58718 -0.405523 -0.561 189 188 186
0.929005 -0.404077 -0.559 205 208 189
0.954977 -0.403354 -0.558 205 208 191
0.95604 -0.403354 -0.558 205 208 191
0.957103 -0.403354 -0.558 205 208 191
0.958166 -0.403354 -0.558 205 207 193
0.959229 -0.403354 -0.558 205 207 193
1.00918 -0.403354 -0.558 203 206 189
-0.00704476 -0.41239 -0.569 197 187 175
-0.0058981 -0.408041 -0.563 207 182 160
-0.00479143 -0.405142 -0.559 198 173 151
-0.00141429 -0.358757 -0.495 205 164 132
-0.000468571 -0.356583 -0.492 204 163 131
0.00046381 -0.352959 -0.487 207 164 132
0.00139143 -0.352959 -0.487 207 164 132
0.00231429 -0.352234 -0.486 205 164 136
0.00323333 -0.35151 -0.485 203 162 134
0.00415714 -0.35151 -0.485 201 160 130
0.00508095 -0.35151 -0.485 200 159 129
0.00600476 -0.35151 -0.485 198 159 126
0.00692857 -0.35151 -0.485 196 157 124
0.00785238 -0.35151 -0.485 193 158 126
0.00877619 -0.35151 -0.485 194 159 127
0.0097 -0.35151 -0.485 198 159 126
0.0106238 -0.35151 -0.485 196 157 124
0.0115714 -0.352234 -0.486 194 155 122
0.0124971 -0.352234 -0.486 195 156 123
0.0134229 -0.352234 -0.486 194 155 122
0.0143781 -0.352959 -0.487 192 153 120
0.0153057 -0.352959 -0.487 191 150 120
0.0162667 -0.353684 -0.488 190 149 119
0.0171962 -0.353684 -0.488 191 150 122
0.0181257 -0.353684 -0.488 187 146 118
0.0190943 -0.354409 -0.489 185 144 114
0.0200667 -0.355133 -0.49 184 143 113
0.021 -0.355133 -0.49 181 140 112
0.0219781 -0.355858 -0.491 178 137 109
0.02296 -0.356583 -0.492 178 134 109
0.0239457 -0.357308 -0.493 174 130 105
0.0249352 -0.358032 -0.494 173 130 111
0.0259286 -0.358757 -0.495 170 127 108
0.0269257 -0.359482 -0.496 167 125 103
0.0279267 -0.360207 -0.497 165 123 101
0.0289314 -0.360931 -0.498 161 120 98
0.02994 -0.361656 -0.499 159 118 96
0.0309524 -0.362381 -0.5 153 115 94
0.0320324 -0.36383 -0.502 148 110 89
0.0330543 -0.364555 -0.503 146 111 92
0.0341476 -0.366005 -0.505 145 110 91
0.035179 -0.36673 -0.506 140 106 94
0.0362857 -0.368179 -0.508 138 104 92
0.0373267 -0.368904 -0.509 137 103 94
0.0384467 -0.370353 -0.511 135 101 92
0.0395743 -0.371803 -0.513 131 98 91
0.0407095 -0.373252 -0.515 129 96 89
0.0418524 -0.374702 -0.517 125 98 91
0.0430029 -0.376151 -0.519 123 96 89
0.044161 -0.377601 -0.521 121 94 87
0.04524 -0.378326 -0.522 117 92 88
0.0464114 -0.379775 -0.524 117 92 88
0.0475905 -0.381225 -0.526 116 91 87
0.0487771 -0.382674 -0.528 114 90 88
0.0499714 -0.384124 -0.53 113 89 87
0.0512695 -0.386298 -0.533 113 89 89
0.052481 -0.387748 -0.535 112 88 88
0.0537 -0.389197 -0.537 111 90 89
0.0549267 -0.390647 -0.539 111 90 89
0.056161 -0.392096 -0.541 111 89 91
0.0574029 -0.393546 -0.543 111 89 91
0.0586524 -0.394995 -0.545 111 89 91
0.0599095 -0.396445 -0.547 111 89 91
0.0611743 -0.397894 -0.549 113 89 89
0.0624467 -0.399344 -0.551 114 90 90
0.0637267 -0.400793 -0.553 111 91 90
0.0650143 -0.402243 -0.555 110 90 89
0.0663095 -0.403692 -0.557 111 90 89
0.0676124 -0.405142 -0.559 113 92 91
0.0690457 -0.407316 -0.562 115 90 93
0.0703657 -0.408766 -0.564 115 90 93
0.07182 -0.41094 -0.567 108 89 93
0.0863571 -0.423986 -0.585 188 191 200
0.0874714 -0.423986 -0.585 174 173 179
0.0885857 -0.423986 -0.585 164 163 169
0.0897 -0.423986 -0.585 164 163 171
0.109757 -0.423986 -0.585 51 80 148
0.110871 -0.423986 -0.585 42 71 139
0.111986 -0.423986 -0.585 47 76 142
0.1131 -0.423986 -0.585 73 102 168
0.114214 -0.423986 -0.585 110 136 193
0.115329 -0.423986 -0.585 107 133 190
0.116443 -0.423986 -0.585 93 113 163
0.117557 -0.423986 -0.585 75 95 145
0.118671 -0.423986 -0.585 104 118 155
0.119786 -0.423986 -0.585 99 113 150
0.1209 -0.423986 -0.585 128 141 173
0.122014 -0.423986 -0.585 150 163 195
0.123129 -0.423986 -0.585 185 192 218
0.124243 -0.423986 -0.585 191 198 224
0.135386 -0.423986 -0.585 188 192 203
0.1365 -0.423986 -0.585 184 191 207
0.137614 -0.423986 -0.585 184 191 207
0.138729 -0.423986 -0.585 176 183 202
0.139843 -0.423986 -0.585 160 167 186
0.140957 -0.423986 -0.585 167 174 193
0.142071 -0.423986 -0.585 177 184 203
0.143186 -0.423986 -0.585 177 184 203
0.1443 -0.423986 -0.585 189 192 209
0.145414 -0.423986 -0.585 186 189 206
0.495486 -0.420362 -0.58 81 105 141
0.49659 -0.420362 -0.58 79 102 144
0.497695 -0.420362 -0.58 69 92 134
0.4988 -0.420362 -0.58 118 118 128
0.499905 -0.420362 -0.58 161 161 171
0.50101 -0.420362 -0.58 165 169 180
0.502114 -0.420362 -0.58 159 163 174
0.499906 -0.405142 -0.559 147 117 109
0.495593 -0.400793 -0.553 151 117 108
0.49036 -0.39572 -0.546 152 118 109
0.4851 -0.390647 -0.539 156 118 109
0.481617 -0.387023 -0.534 157 119 110
0.477211 -0.382674 -0.528 161 118 109
0.474594 -0.379775 -0.524 161 118 109
0.471962 -0.376876 -0.52 162 118 107
0.471133 -0.375427 -0.518 162 118 107
0.470297 -0.373977 -0.516 169 123 107
0.469453 -0.372528 -0.514 171 125 109
0.468602 -0.371078 -0.512 170 127 110
0.467743 -0.369629 -0.51 170 127 110
0.466876 -0.368179 -0.508 167 126 108
0.466923 -0.367454 -0.507 166 125 107
0.466966 -0.36673 -0.506 168 125 108
0.46608 -0.36528 -0.504 169 126 109
0.466113 -0.364555 -0.503 168 125 108
0.467071 -0.364555 -0.503 167 124 107
0.467099 -0.36383 -0.502 168 125 106
0.467123 -0.363106 -0.501 168 125 106
0.467143 -0.362381 -0.5 170 125 106
0.467159 -0.361656 -0.499 172 127 108
0.46811 -0.361656 -0.499 172 127 108
0.46812 -0.360931 -0.498 173 128 109
0.469069 -0.360931 -0.498 173 128 107
0.469073 -0.360207 -0.497 171 126 105
0.47002 -0.360207 -0.497 175 130 109
0.470019 -0.359482 -0.496 174 129 108
0.470014 -0.358757 -0.495 176 131 110
0.470957 -0.358757 -0.495 173 128 107
0.470947 -0.358032 -0.494 179 133 109
0.471888 -0.358032 -0.494 177 131 107
0.471871 -0.357308 -0.493 173 127 103
0.47281 -0.357308 -0.493 174 128 104
0.47375 -0.357308 -0.493 174 128 104
0.473726 -0.356583 -0.492 173 127 103
0.474663 -0.356583 -0.492 172 126 102
0.4756 -0.356583 -0.492 165 119 95
0.475569 -0.355858 -0.491 166 118 96
0.476504 -0.355858 -0.491 163 115 93
0.477439 -0.355858 -0.491 164 116 94
0.4774 -0.355133 -0.49 164 116 94
0.478333 -0.355133 -0.49 166 118 96
0.479267 -0.355133 -0.49 169 121 99
0.47922 -0.354409 -0.489 168 122 99
0.480151 -0.354409 -0.489 170 124 101
0.481083 -0.354409 -0.489 172 126 103
0.482014 -0.354409 -0.489 173 127 104
0.482946 -0.354409 -0.489 172 126 103
0.483877 -0.354409 -0.489 173 127 104
0.484809 -0.354409 -0.489 168 121 101
0.486733 -0.355133 -0.49 165 118 98
0.487667 -0.355133 -0.49 159 117 95
0.489597 -0.355858 -0.491 157 115 93
0.490532 -0.355858 -0.491 157 115 93
0.491468 -0.355858 -0.491 158 116 94
0.493406 -0.356583 -0.492 159 117 95
0.495348 -0.357308 -0.493 156 115 93
0.497293 -0.358032 -0.494 154 113 91
0.499243 -0.358757 -0.495 154 113 91
0.501196 -0.359482 -0.496 151 110 88
0.504166 -0.360931 -0.498 147 109 86
0.506129 -0.361656 -0.499 147 109 86
0.507079 -0.361656 -0.499 150 107 90
0.510066 -0.363106 -0.501 150 107 90
0.51306 -0.364555 -0.503 153 108 87
0.516062 -0.366005 -0.505 154 109 88
0.519071 -0.367454 -0.507 149 108 86
0.580888 -0.402968 -0.556 190 167 161
0.585087 -0.405142 -0.559 190 186 183
0.588249 -0.406591 -0.561 192 188 185
0.936909 -0.404417 -0.558 205 208 191
0.937971 -0.404417 -0.558 205 208 191
0.939034 -0.404417 -0.558 204 207 190
0.940097 -0.404417 -0.558 205 208 191
0.94116 -0.404417 -0.558 205 208 191
0.942223 -0.404417 -0.558 206 209 192
0.950726 -0.404417 -0.558 206 208 194
0.951789 -0.404417 -0.558 205 207 193
0.952851 -0.404417 -0.558 205 207 193
0.953914 -0.404417 -0.558 205 207 193
0.954977 -0.404417 -0.558 205 207 193
0.95604 -0.404417 -0.558 205 207 193
0.957103 -0.404417 -0.558 205 207 193
0.958166 -0.404417 -0.558 205 207 193
0.959229 -0.404417 -0.558 205 207 193
0.960291 -0.404417 -0.558 204 206 192
0.961354 -0.404417 -0.558 204 206 192
0.962417 -0.404417 -0.558 204 206 192
0.96348 -0.404417 -0.558 204 206 192
0.964543 -0.404417 -0.558 204 206 192
0.965606 -0.404417 -0.558 204 206 192
0.966669 -0.404417 -0.558 204 206 192
0.967731 -0.404417 -0.558 204 206 192
0.968794 -0.404417 -0.558 203 205 191
0.969857 -0.404417 -0.558 205 208 191
0.97092 -0.404417 -0.558 205 208 191
-0.00811429 -0.412747 -0.568 212 194 174
-0.00699524 -0.410567 -0.565 202 184 164
-0.00584571 -0.40548 -0.558 209 174 144
-0.00474857 -0.402573 -0.554 205 170 140
-0.00140857 -0.358247 -0.493 203 167 135
-0.000465714 -0.35534 -0.489 202 166 134
0.00046381 -0.353887 -0.487 201 166 134
0.00138857 -0.35316 -0.486 202 167 135
0.00230952 -0.352433 -0.485 202 166 134
0.00323333 -0.352433 -0.485 199 163 131
0.00415714 -0.352433 -0.485 199 160 127
0.00508095 -0.352433 -0.485 198 159 126
0.00600476 -0.352433 -0.485 198 159 126
0.00692857 -0.352433 -0.485 197 158 125
0.00785238 -0.352433 -0.485 195 159 127
0.00877619 -0.352433 -0.485 195 159 127
0.0097 -0.352433 -0.485 194 155 122
0.0106238 -0.352433 -0.485 195 156 123
0.0115714 -0.35316 -0.486 195 156 123
0.0124971 -0.35316 -0.486 194 155 122
0.0134229 -0.35316 -0.486 194 155 122
0.0143781 -0.353887 -0.487 192 153 120
0.0153057 -0.353887 -0.487 190 151 120
0.0162667 -0.354613 -0.488 189 150 119
0.0171962 -0.354613 -0.488 188 147 117
0.0181629 -0.35534 -0.489 187 146 116
0.0190943 -0.35534 -0.489 187 146 116
0.0200667 -0.356067 -0.49 186 145 115
0.0210429 -0.356793 -0.491 182 141 113
0.0219781 -0.356793 -0.491 179 138 110
0.02296 -0.35752 -0.492 175 134 106
0.0239457 -0.358247 -0.493 170 129 101
0.0249352 -0.358973 -0.494 174 128 105
0.0259286 -0.3597 -0.495 174 128 105
0.0269257 -0.360427 -0.496 168 123 102
0.0279267 -0.361153 -0.497 165 120 99
0.0289314 -0.36188 -0.498 162 119 100
0.03 -0.363333 -0.5 158 115 96
0.0310143 -0.36406 -0.501 152 114 95
0.0320324 -0.364787 -0.502 148 110 91
0.03312 -0.36624 -0.504 146 110 94
0.0341476 -0.366967 -0.505 144 108 92
0.0352486 -0.36842 -0.507 139 107 94
0.0362857 -0.369147 -0.508 136 104 91
0.0373267 -0.369873 -0.509 133 103 92
0.0384467 -0.371327 -0.511 131 101 90
0.0395743 -0.37278 -0.513 128 100 89
0.0407095 -0.374233 -0.515 127 99 88
0.0418524 -0.375687 -0.517 126 97 89
0.0430029 -0.37714 -0.519 125 96 88
0.044161 -0.378593 -0.521 122 95 86
0.0453267 -0.380047 -0.523 120 93 86
0.0465 -0.3815 -0.525 120 92 88
0.0475905 -0.382227 -0.526 119 91 87
0.0487771 -0.38368 -0.528 116 91 87
0.0500657 -0.38586 -0.531 115 90 86
0.0512695 -0.387313 -0.533 114 90 88
0.052481 -0.388767 -0.535 112 88 86
0.0537 -0.39022 -0.537 112 88 86
0.0549267 -0.391673 -0.539 113 89 87
0.056161 -0.393127 -0.541 113 89 89
0.0574029 -0.39458 -0.543 112 88 88
0.0586524 -0.396033 -0.545 111 90 89
0.0599095 -0.397487 -0.547 110 89 88
0.0611743 -0.39894 -0.549 113 89 89
0.0624467 -0.400393 -0.551 114 90 90
0.0637267 -0.401847 -0.553 111 91 92
0.0650143 -0.4033 -0.555 111 91 92
0.0663095 -0.404753 -0.557 111 91 92
0.0676124 -0.406207 -0.559 112 92 93
0.0690457 -0.408387 -0.562 115 90 93
0.0703657 -0.40984 -0.564 114 89 92
0.07182 -0.41202 -0.567 112 93 97
0.0874714 -0.4251 -0.585 155 153 158
0.0885857 -0.4251 -0.585 184 182 187
0.116244 -0.424373 -0.584 62 89 144
0.117356 -0.424373 -0.584 62 89 144
0.118671 -0.4251 -0.585 81 98 142
0.119786 -0.4251 -0.585 115 132 176
0.1209 -0.4251 -0.585 172 181 214
0.122014 -0.4251 -0.585 184 193 226
0.123129 -0.4251 -0.585 190 192 213
0.12403 -0.424373 -0.584 191 193 214
0.125143 -0.424373 -0.584 194 197 212
0.134042 -0.424373 -0.584 173 179 191
0.135154 -0.424373 -0.584 170 176 188
0.136267 -0.424373 -0.584 169 176 195
0.137379 -0.424373 -0.584 168 175 194
0.138491 -0.424373 -0.584 161 169 192
0.139604 -0.424373 -0.584 146 154 177
0.140716 -0.424373 -0.584 156 163 189
0.141829 -0.424373 -0.584 156 163 189
0.142941 -0.424373 -0.584 167 174 200
0.144053 -0.424373 -0.584 171 176 195
0.145166 -0.424373 -0.584 156 161 180
0.146278 -0.424373 -0.584 133 140 150
0.14739 -0.424373 -0.584 139 146 156
0.148503 -0.424373 -0.584 179 186 194
0.149615 -0.424373 -0.584 195 202 210
0.4524 -0.421467 -0.58 132 148 181
0.483333 -0.421467 -0.58 140 152 174
0.502589 -0.408387 -0.562 144 115 109
0.498282 -0.404027 -0.556 149 116 107
0.493952 -0.399667 -0.55 150 117 108
0.4887 -0.39458 -0.543 155 118 109
0.483421 -0.389493 -0.536 156 119 110
0.479923 -0.38586 -0.531 157 119 110
0.476406 -0.382227 -0.526 159 121 112
0.473777 -0.37932 -0.522 161 118 109
0.472043 -0.37714 -0.519 160 117 108
0.471209 -0.375687 -0.517 165 122 106
0.469453 -0.373507 -0.514 168 125 109
0.468602 -0.372053 -0.512 169 126 109
0.467743 -0.3706 -0.51 169 126 109
0.467795 -0.369873 -0.509 165 127 108
0.466923 -0.36842 -0.507 164 126 107
0.466966 -0.367693 -0.506 166 123 106
0.467005 -0.366967 -0.505 168 125 108
0.46704 -0.36624 -0.504 168 125 108
0.467071 -0.365513 -0.503 167 124 107
0.467099 -0.364787 -0.502 168 125 106
0.467123 -0.36406 -0.501 170 127 108
0.467143 -0.363333 -0.5 172 126 110
0.467159 -0.362607 -0.499 171 125 109
0.46811 -0.362607 -0.499 170 125 106
0.46812 -0.36188 -0.498 173 128 109
0.469069 -0.36188 -0.498 173 128 107
0.469073 -0.361153 -0.497 172 127 106
0.47002 -0.361153 -0.497 176 131 110
0.470019 -0.360427 -0.496 175 130 109
0.470014 -0.3597 -0.495 175 130 109
0.470006 -0.358973 -0.494 173 128 107
0.470947 -0.358973 -0.494 179 133 109
0.471888 -0.358973 -0.494 177 131 107
0.471871 -0.358247 -0.493 173 127 103
0.47281 -0.358247 -0.493 173 127 103
0.472789 -0.35752 -0.492 172 126 103
0.473726 -0.35752 -0.492 172 126 103
0.474663 -0.35752 -0.492 173 127 104
0.474633 -0.356793 -0.491 167 121 98
0.475569 -0.356793 -0.491 168 122 99
0.476504 -0.356793 -0.491 170 124 101
0.476467 -0.356067 -0.49 170 124 101
0.4774 -0.356067 -0.49 169 123 100
0.478333 -0.356067 -0.49 171 123 101
0.478289 -0.35534 -0.489 170 122 100
0.47922 -0.35534 -0.489 169 121 99
0.480151 -0.35534 -0.489 170 122 100
0.481083 -0.35534 -0.489 174 126 104
0.482014 -0.35534 -0.489 175 127 105
0.482946 -0.35534 -0.489 171 123 101
0.483877 -0.35534 -0.489 174 126 104
0.484809 -0.35534 -0.489 169 123 100
0.48574 -0.35534 -0.489 165 119 96
0.487667 -0.356067 -0.49 159 114 93
0.4886 -0.356067 -0.49 159 114 93
0.489533 -0.356067 -0.49 159 117 95
0.490467 -0.356067 -0.49 159 117 95
0.492403 -0.356793 -0.491 159 117 95
0.494343 -0.35752 -0.492 157 115 93
0.496287 -0.358247 -0.493 156 114 92
0.498234 -0.358973 -0.494 153 112 90
0.500186 -0.3597 -0.495 151 110 88
0.503153 -0.361153 -0.497 147 109 88
0.505114 -0.36188 -0.498 148 110 89
0.506063 -0.36188 -0.498 152 106 90
0.50803 -0.362607 -0.499 151 105 89
0.51102 -0.36406 -0.501 154 107 87
0.514018 -0.365513 -0.503 155 108 88
0.517024 -0.366967 -0.505 151 109 85
0.520037 -0.36842 -0.507 149 107 83
0.525113 -0.371327 -0.511 145 108 82
0.570443 -0.397487 -0.547 139 114 107
0.575664 -0.400393 -0.551 161 136 129
0.581947 -0.404027 -0.556 187 182 179
0.586151 -0.406207 -0.559 192 187 184
0.590368 -0.408387 -0.562 193 189 186
0.920966 -0.40548 -0.558 205 208 191
0.922029 -0.40548 -0.558 206 209 192
0.923091 -0.40548 -0.558 206 209 192
0.924154 -0.40548 -0.558 206 209 192
0.925217 -0.40548 -0.558 206 209 192
0.928406 -0.40548 -0.558 205 208 191
0.929469 -0.40548 -0.558 204 207 190
0.930531 -0.40548 -0.558 204 207 188
0.953266 -0.404753 -0.557 205 207 193
0.954327 -0.404753 -0.557 205 207 193
0.955388 -0.404753 -0.557 205 207 193
0.956449 -0.404753 -0.557 205 207 193
0.957509 -0.404753 -0.557 205 207 193
0.95857 -0.404753 -0.557 204 206 192
0.959631 -0.404753 -0.557 204 206 192
0.967058 -0.404753 -0.557 203 205 191
0.968119 -0.404753 -0.557 205 208 191
0.986155 -0.404753 -0.557 204 206 192
0.987216 -0.404753 -0.557 204 206 192
0.988277 -0.404753 -0.557 204 207 190
1.00631 -0.404753 -0.557 203 206 189
1.00737 -0.404753 -0.557 202 205 188
1.00844 -0.404753 -0.557 202 205 188
1.0095 -0.404753 -0.557 202 205 188
1.01056 -0.404753 -0.557 203 206 189
1.01162 -0.404753 -0.557 203 206 189
-0.00808571 -0.412371 -0.566 210 189 168
-0.00695809 -0.409457 -0.562 198 177 156
-0.00580381 -0.403629 -0.554 205 170 140
-0.00336667 -0.367929 -0.505 204 168 136
-0.00235238 -0.359914 -0.494 204 168 136
-0.00140286 -0.357729 -0.491 203 167 135
-0.000464762 -0.355543 -0.488 202 166 134
0.000462857 -0.354086 -0.486 203 167 135
0.00138571 -0.353357 -0.485 204 168 136
0.00230952 -0.353357 -0.485 200 164 132
0.00322667 -0.352629 -0.484 199 163 131
0.00414857 -0.352629 -0.484 200 161 128
0.00507048 -0.352629 -0.484 199 160 127
0.00599238 -0.352629 -0.484 198 159 126
0.00692857 -0.353357 -0.485 197 158 125
0.00785238 -0.353357 -0.485 195 159 127
0.00877619 -0.353357 -0.485 195 159 127
0.0097 -0.353357 -0.485 195 156 123
0.0106238 -0.353357 -0.485 196 157 124
0.0115714 -0.354086 -0.486 197 158 125
0.0124971 -0.354086 -0.486 195 156 123
0.0134229 -0.354086 -0.486 193 154 123
0.0143781 -0.354814 -0.487 191 152 121
0.0153057 -0.354814 -0.487 189 150 119
0.0162667 -0.355543 -0.488 188 149 118
0.0171962 -0.355543 -0.488 188 147 119
0.0181629 -0.356271 -0.489 186 145 117
0.0191333 -0.357 -0.49 185 144 116
0.0200667 -0.357 -0.49 183 142 114
0.0210429 -0.357729 -0.491 181 140 112
0.0220229 -0.358457 -0.492 179 138 110
0.0230067 -0.359186 -0.493 175 134 106
0.0239943 -0.359914 -0.494 170 129 101
0.0249857 -0.360643 -0.495 173 127 104
0.0259286 -0.360643 -0.495 173 127 104
0.0269257 -0.361371 -0.496 168 123 102
0.0279829 -0.362829 -0.498 165 120 99
0.0289895 -0.363557 -0.499 161 118 99
0.03 -0.364286 -0.5 158 115 96
0.0310143 -0.365014 -0.501 152 113 96
0.0320324 -0.365743 -0.502 149 110 93
0.03312 -0.3672 -0.504 145 109 95
0.0341476 -0.367929 -0.505 143 107 93
0.0352486 -0.369386 -0.507 138 106 95
0.0362857 -0.370114 -0.508 136 104 93
0.0374 -0.371571 -0.51 132 102 92
0.0385219 -0.373029 -0.512 130 100 90
0.0396514 -0.374486 -0.514 126 97 89
0.0407886 -0.375943 -0.516 124 95 87
0.0419333 -0.3774 -0.518 124 95 87
0.0430029 -0.378129 -0.519 123 94 86
0.044161 -0.379586 -0.521 121 94 85
0.0453267 -0.381043 -0.523 120 93 84
0.0465 -0.3825 -0.525 119 92 85
0.047681 -0.383957 -0.527 118 91 84
0.0488695 -0.385414 -0.529 118 91 84
0.0500657 -0.386871 -0.531 118 91 84
0.0512695 -0.388329 -0.533 115 90 85
0.052481 -0.389786 -0.535 114 89 84
0.0537 -0.391243 -0.537 113 89 85
0.0549267 -0.3927 -0.539 113 89 85
0.056161 -0.394157 -0.541 110 89 86
0.0574029 -0.395614 -0.543 109 88 85
0.0586524 -0.397071 -0.545 112 88 86
0.0599095 -0.398529 -0.547 112 88 86
0.0611743 -0.399986 -0.549 113 89 85
0.0624467 -0.401443 -0.551 112 88 84
0.0637267 -0.4029 -0.553 115 91 89
0.0650143 -0.404357 -0.555 115 91 89
0.0663095 -0.405814 -0.557 112 91 90
0.0677333 -0.408 -0.56 112 91 90
0.0690457 -0.409457 -0.562 109 93 94
0.0704905 -0.411643 -0.565 110 94 95
0.07182 -0.4131 -0.567 108 101 108
0.0850971 -0.425486 -0.584 159 160 155
0.0862095 -0.425486 -0.584 139 140 135
0.0873219 -0.425486 -0.584 171 167 168
0.0884343 -0.425486 -0.584 193 189 190
0.0895467 -0.425486 -0.584 187 185 198
0.110682 -0.425486 -0.584 36 65 135
0.111794 -0.425486 -0.584 36 64 127
0.118469 -0.425486 -0.584 91 109 157
0.119581 -0.425486 -0.584 145 163 211
0.120693 -0.425486 -0.584 177 182 214
0.121806 -0.425486 -0.584 184 189 221
0.122918 -0.425486 -0.584 191 188 207
0.12403 -0.425486 -0.584 196 193 212
0.501249 -0.421843 -0.579 161 163 175
0.502351 -0.421843 -0.579 159 165 177
0.50097 -0.407271 -0.559 144 114 106
0.496647 -0.4029 -0.553 147 117 109
0.4914 -0.3978 -0.546 155 118 109
0.486127 -0.3927 -0.539 156 119 110
0.48173 -0.388329 -0.533 156 119 110
0.478217 -0.384686 -0.528 158 121 112
0.475592 -0.381771 -0.524 159 119 109
0.472952 -0.378857 -0.52 158 118 108
0.471209 -0.376671 -0.517 165 122 106
0.470367 -0.375214 -0.515 168 125 109
0.469517 -0.373757 -0.513 167 126 108
0.46866 -0.3723 -0.511 167 126 108
0.467795 -0.370843 -0.509 162 125 106
0.467844 -0.370114 -0.508 161 124 105
0.466966 -0.368657 -0.506 167 124 107
0.467005 -0.367929 -0.505 168 125 108
0.46704 -0.3672 -0.504 168 125 108
0.467071 -0.366471 -0.503 166 123 106
0.467099 -0.365743 -0.502 166 123 104
0.467123 -0.365014 -0.501 171 128 109
0.468077 -0.365014 -0.501 175 129 113
0.468095 -0.364286 -0.5 173 127 111
0.46811 -0.363557 -0.499 170 125 106
0.46812 -0.362829 -0.498 173 128 109
0.469069 -0.362829 -0.498 172 127 106
0.469073 -0.3621 -0.497 171 126 105
0.47002 -0.3621 -0.497 178 133 112
0.470019 -0.361371 -0.496 175 130 109
0.470014 -0.360643 -0.495 174 129 108
0.470006 -0.359914 -0.494 173 128 107
0.470947 -0.359914 -0.494 175 130 107
0.470932 -0.359186 -0.493 175 130 107
0.471871 -0.359186 -0.493 173 127 104
0.47281 -0.359186 -0.493 172 126 103
0.472789 -0.358457 -0.492 169 121 99
0.473726 -0.358457 -0.492 169 121 99
0.474663 -0.358457 -0.492 172 124 102
0.474633 -0.357729 -0.491 171 123 101
0.475569 -0.357729 -0.491 168 122 99
0.476504 -0.357729 -0.491 171 125 102
0.476467 -0.357 -0.49 169 123 100
0.4774 -0.357 -0.49 169 123 100
0.478333 -0.357 -0.49 172 124 102
0.478289 -0.356271 -0.489 171 123 101
0.47922 -0.356271 -0.489 170 122 100
0.480151 -0.356271 -0.489 170 122 100
0.480099 -0.355543 -0.488 174 126 103
0.481029 -0.355543 -0.488 174 126 103
0.481958 -0.355543 -0.488 172 121 100
0.483877 -0.356271 -0.489 175 124 103
0.484809 -0.356271 -0.489 170 122 100
0.48574 -0.356271 -0.489 167 119 97
0.486671 -0.356271 -0.489 159 114 91
0.4886 -0.357 -0.49 160 115 92
0.489533 -0.357 -0.49 161 116 95
0.490467 -0.357 -0.49 160 115 94
0.4914 -0.357 -0.49 160 115 94
0.493338 -0.357729 -0.491 158 116 94
0.49528 -0.358457 -0.492 157 115 93
0.497226 -0.359186 -0.493 155 112 93
0.499175 -0.359914 -0.494 152 109 90
0.501129 -0.360643 -0.495 147 109 88
0.5041 -0.3621 -0.497 147 109 88
0.506063 -0.362829 -0.498 152 106 90
0.507011 -0.362829 -0.498 152 110 88
0.50898 -0.363557 -0.499 154 109 86
0.511974 -0.365014 -0.501 152 107 84
0.514976 -0.366471 -0.503 151 109 87
0.517986 -0.367929 -0.505 151 109 87
0.52203 -0.370114 -0.508 149 108 88
0.526087 -0.3723 -0.511 150 109 89
0.531186 -0.375214 -0.515 146 108 89
0.581957 -0.404357 -0.555 196 182 171
0.587216 -0.407271 -0.559 190 186 177
0.590386 -0.408729 -0.561 199 195 186
0.929925 -0.405814 -0.557 205 208 191
0.930986 -0.405814 -0.557 205 208 189
0.932047 -0.405814 -0.557 205 208 189
0.938412 -0.405814 -0.557 205 208 191
0.939473 -0.405814 -0.557 204 207 190
0.940534 -0.405814 -0.557 204 207 190
0.941595 -0.405814 -0.557 205 208 191
0.942656 -0.405814 -0.557 205 208 191
0.943717 -0.405814 -0.557 205 207 193
0.944778 -0.405814 -0.557 204 206 192
0.951144 -0.405814 -0.557 204 206 192
0.952205 -0.405814 -0.557 204 206 192
0.953266 -0.405814 -0.557 204 206 192
0.954327 -0.405814 -0.557 204 206 192
0.955388 -0.405814 -0.557 205 207 193
0.956449 -0.405814 -0.557 205 207 193
0.957509 -0.405814 -0.557 205 207 193
0.95857 -0.405814 -0.557 204 206 192
0.959631 -0.405814 -0.557 204 206 192
0.960692 -0.405814 -0.557 205 207 193
0.961753 -0.405814 -0.557 205 207 193
0.964936 -0.405814 -0.557 205 207 193
0.965997 -0.405814 -0.557 204 206 192
0.967058 -0.405814 -0.557 203 205 191
0.968119 -0.405814 -0.557 204 207 190
0.96918 -0.405814 -0.557 204 207 190
0.970241 -0.405814 -0.557 204 206 192
0.971302 -0.405814 -0.557 204 206 192
0.972363 -0.405814 -0.557 204 206 192
1.00662 -0.405086 -0.556 202 205 188
-0.00918 -0.41418 -0.567 212 196 180
-0.00805714 -0.411989 -0.564 206 184 161
-0.00437143 -0.372543 -0.51 203 166 137
-0.00334667 -0.366699 -0.502 206 167 136
-0.00234286 -0.359394 -0.492 206 167 136
-0.0014 -0.357933 -0.49 206 167 136
-0.00046381 -0.355742 -0.487 205 166 135
0.000462857 -0.355011 -0.486 203 167 135
0.00138571 -0.354281 -0.485 203 167 135
0.00230476 -0.35355 -0.484 200 161 130
0.00322667 -0.35355 -0.484 200 161 130
0.00414857 -0.35355 -0.484 200 161 128
0.00507048 -0.35355 -0.484 198 159 126
0.00599238 -0.35355 -0.484 197 158 125
0.00691429 -0.35355 -0.484 196 157 124
0.00785238 -0.354281 -0.485 196 157 126
0.00877619 -0.354281 -0.485 196 157 126
0.0097 -0.354281 -0.485 194 158 124
0.0106238 -0.354281 -0.485 194 158 124
0.0115714 -0.355011 -0.486 195 159 125
0.0124971 -0.355011 -0.486 194 158 124
0.0134229 -0.355011 -0.486 193 154 123
0.0143781 -0.355742 -0.487 190 151 120
0.0153057 -0.355742 -0.487 189 150 119
0.0162667 -0.356472 -0.488 187 148 117
0.0171962 -0.356472 -0.488 187 146 118
0.0181629 -0.357203 -0.489 185 144 116
0.0191333 -0.357933 -0.49 183 141 116
0.0200667 -0.357933 -0.49 181 139 114
0.0210429 -0.358664 -0.491 181 137 112
0.0220229 -0.359394 -0.492 179 135 110
0.0230067 -0.360125 -0.493 176 132 107
0.0239943 -0.360855 -0.494 172 128 103
0.0249857 -0.361586 -0.495 171 126 105
0.025981 -0.362316 -0.496 171 126 105
0.02698 -0.363047 -0.497 165 123 101
0.0279829 -0.363777 -0.498 163 121 99
0.0289895 -0.364508 -0.499 160 119 101
0.03 -0.365238 -0.5 155 114 96
0.0310143 -0.365969 -0.501 150 113 97
0.0320962 -0.36743 -0.503 148 111 95
0.03312 -0.36816 -0.504 145 109 97
0.0341476 -0.36889 -0.505 143 107 95
0.0352486 -0.370351 -0.507 137 105 94
0.0363571 -0.371812 -0.509 135 103 92
0.0374 -0.372543 -0.51 131 101 93
0.0385219 -0.374004 -0.512 129 99 91
0.0396514 -0.375465 -0.514 125 96 90
0.0407886 -0.376926 -0.516 122 93 87
0.0419333 -0.378387 -0.518 121 93 89
0.0430857 -0.379848 -0.52 121 93 89
0.044161 -0.380578 -0.521 121 94 85
0.0453267 -0.382039 -0.523 119 92 83
0.0465 -0.3835 -0.525 119 92 85
0.047681 -0.384961 -0.527 118 91 84
0.0488695 -0.386422 -0.529 117 90 83
0.0500657 -0.387883 -0.531 118 91 84
0.0512695 -0.389344 -0.533 114 89 84
0.052481 -0.390805 -0.535 113 88 83
0.0538 -0.392996 -0.538 112 88 84
0.0549267 -0.393727 -0.539 111 87 83
0.056161 -0.395188 -0.541 112 88 84
0.0574029 -0.396649 -0.543 112 88 84
0.0586524 -0.39811 -0.545 112 88 84
0.0599095 -0.39957 -0.547 113 89 85
0.0611743 -0.401031 -0.549 115 91 89
0.0624467 -0.402492 -0.551 114 90 88
0.0637267 -0.403953 -0.553 115 91 89
0.0650143 -0.405414 -0.555 114 90 88
0.0663095 -0.406875 -0.557 114 90 90
0.0677333 -0.409067 -0.56 115 91 91
0.0690457 -0.410528 -0.562 109 93 94
0.0704905 -0.412719 -0.565 112 96 97
0.07182 -0.41418 -0.567 110 103 110
0.0873219 -0.426598 -0.584 186 185 190
0.0884343 -0.426598 -0.584 193 192 197
0.113824 -0.425868 -0.583 54 85 142
0.114934 -0.425868 -0.583 53 84 141
0.116045 -0.425868 -0.583 49 80 137
0.117155 -0.425868 -0.583 58 90 141
0.118266 -0.425868 -0.583 86 113 168
0.119376 -0.425868 -0.583 104 131 186
0.120487 -0.425868 -0.583 164 169 191
0.121597 -0.425868 -0.583 172 177 199
0.122708 -0.425868 -0.583 187 186 204
0.123818 -0.425868 -0.583 190 189 207
0.124929 -0.425868 -0.583 191 199 212
0.126039 -0.425868 -0.583 190 198 211
0.12715 -0.425868 -0.583 189 196 204
0.12826 -0.425868 -0.583 188 195 203
0.12937 -0.425868 -0.583 186 192 204
0.130481 -0.425868 -0.583 187 193 205
0.131591 -0.425868 -0.583 181 193 205
0.132702 -0.425868 -0.583 151 163 175
0.133812 -0.425868 -0.583 147 151 176
0.134923 -0.425868 -0.583 164 168 193
0.136033 -0.425868 -0.583 158 168 195
0.137144 -0.425868 -0.583 148 158 185
0.502763 -0.409797 -0.561 138 114 112
0.498443 -0.405414 -0.555 141 117 115
0.4941 -0.401031 -0.549 153 119 109
0.489734 -0.396649 -0.543 152 118 108
0.484442 -0.391535 -0.536 159 120 105
0.480934 -0.387883 -0.531 159 120 105
0.477408 -0.38423 -0.526 160 117 101
0.474771 -0.381309 -0.522 163 120 104
0.473031 -0.379117 -0.519 168 122 106
0.47128 -0.376926 -0.516 169 123 107
0.469517 -0.374734 -0.513 169 124 105
0.46866 -0.373273 -0.511 172 127 108
0.468714 -0.372543 -0.51 173 126 108
0.467844 -0.371082 -0.508 169 122 104
0.467889 -0.370351 -0.507 166 125 107
0.46793 -0.369621 -0.506 168 127 109
0.46704 -0.36816 -0.504 166 123 104
0.467071 -0.36743 -0.503 165 122 103
0.467099 -0.366699 -0.502 165 122 103
0.467123 -0.365969 -0.501 172 129 110
0.468077 -0.365969 -0.501 169 126 107
0.468095 -0.365238 -0.5 172 129 110
0.46811 -0.364508 -0.499 175 130 111
0.46812 -0.363777 -0.498 174 129 110
0.469069 -0.363777 -0.498 173 128 107
0.469073 -0.363047 -0.497 175 130 109
0.47002 -0.363047 -0.497 174 129 108
0.470019 -0.362316 -0.496 174 129 108
0.470014 -0.361586 -0.495 175 130 111
0.470006 -0.360855 -0.494 174 129 110
0.470947 -0.360855 -0.494 174 127 107
0.470932 -0.360125 -0.493 174 127 107
0.471871 -0.360125 -0.493 176 130 107
0.47281 -0.360125 -0.493 171 125 102
0.472789 -0.359394 -0.492 170 124 101
0.473726 -0.359394 -0.492 170 124 101
0.474663 -0.359394 -0.492 176 129 109
0.474633 -0.358664 -0.491 172 125 105
0.475569 -0.358664 -0.491 169 122 102
0.476504 -0.358664 -0.491 173 126 106
0.476467 -0.357933 -0.49 175 127 105
0.4774 -0.357933 -0.49 173 125 103
0.478333 -0.357933 -0.49 173 125 103
0.478289 -0.357203 -0.489 175 127 105
0.47922 -0.357203 -0.489 172 124 102
0.480151 -0.357203 -0.489 163 115 93
0.480099 -0.356472 -0.488 173 126 106
0.481029 -0.356472 -0.488 174 127 107
0.481958 -0.356472 -0.488 174 127 107
0.482888 -0.356472 -0.488 174 127 107
0.483817 -0.356472 -0.488 173 127 104
0.484747 -0.356472 -0.488 169 123 100
0.486671 -0.357203 -0.489 163 116 96
0.487603 -0.357203 -0.489 161 114 94
0.488534 -0.357203 -0.489 162 115 95
0.490467 -0.357933 -0.49 162 115 95
0.4914 -0.357933 -0.49 161 115 92
0.493338 -0.358664 -0.491 160 114 91
0.494273 -0.358664 -0.491 160 114 91
0.496217 -0.359394 -0.492 157 113 88
0.498165 -0.360125 -0.493 157 113 88
0.500116 -0.360855 -0.494 156 111 88
0.502071 -0.361586 -0.495 151 106 83
0.50403 -0.362316 -0.496 148 106 84
0.504975 -0.362316 -0.496 150 108 86
0.50796 -0.363777 -0.498 154 109 86
0.50993 -0.364508 -0.499 153 108 85
0.512929 -0.365969 -0.501 151 109 87
0.515934 -0.36743 -0.503 151 109 87
0.519975 -0.369621 -0.506 150 109 89
0.522998 -0.371082 -0.508 151 110 90
0.528091 -0.374004 -0.512 149 108 88
0.584065 -0.406145 -0.556 188 179 170
0.588281 -0.408336 -0.559 190 181 172
0.591454 -0.409797 -0.561 194 193 188
0.909767 -0.406875 -0.557 204 206 192
0.910828 -0.406875 -0.557 204 206 192
0.911889 -0.406875 -0.557 205 207 193
0.918254 -0.406875 -0.557 204 207 190
0.919315 -0.406875 -0.557 204 207 190
0.920376 -0.406875 -0.557 204 207 190
0.921437 -0.406875 -0.557 204 207 190
0.922498 -0.406875 -0.557 205 208 191
0.923559 -0.406875 -0.557 206 209 192
0.92462 -0.406875 -0.557 207 210 193
0.925681 -0.406875 -0.557 205 208 191
0.926742 -0.406875 -0.557 205 208 191
0.927803 -0.406875 -0.557 204 207 190
0.928864 -0.406875 -0.557 205 208 191
0.929925 -0.406875 -0.557 205 208 191
0.930986 -0.406875 -0.557 205 208 191
0.953672 -0.406145 -0.556 205 207 193
0.954731 -0.406145 -0.556 205 207 193
0.95579 -0.406145 -0.556 205 207 193
0.993916 -0.406145 -0.556 204 206 192
0.994975 -0.406145 -0.556 204 207 190
1.00345 -0.406145 -0.556 204 206 192
1.00451 -0.406145 -0.556 204 206 192
1.00557 -0.406145 -0.556 202 204 190
1.00662 -0.406145 -0.556 202 204 190
1.00768 -0.406145 -0.556 202 204 190
1.00874 -0.406145 -0.556 203 206 189
1.0098 -0.406145 -0.556 203 206 189
1.01086 -0.406145 -0.556 202 205 188
1.01192 -0.406145 -0.556 203 206 189
1.01298 -0.406145 -0.556 203 206 189
1.01404 -0.406145 -0.556 203 206 189
-0.00914762 -0.413795 -0.565 208 191 173
-0.00804286 -0.41233 -0.563 203 179 153
-0.00432857 -0.369852 -0.505 204 165 136
-0.00331333 -0.363993 -0.497 205 166 137
-0.0023381 -0.359599 -0.491 205 166 137
-0.00139714 -0.358134 -0.489 206 167 136
-0.000462857 -0.355937 -0.486 205 166 135
0.000461905 -0.355205 -0.485 204 165 134
0.00138286 -0.354472 -0.484 203 164 133
0.00230476 -0.354472 -0.484 200 161 130
0.00322667 -0.354472 -0.484 200 161 130
0.00414857 -0.354472 -0.484 200 161 130
0.00507048 -0.354472 -0.484 198 159 128
0.00599238 -0.354472 -0.484 196 157 126
0.00691429 -0.354472 -0.484 195 156 125
0.00783619 -0.354472 -0.484 194 158 126
0.00877619 -0.355205 -0.485 193 157 125
0.0097 -0.355205 -0.485 194 158 124
0.0106238 -0.355205 -0.485 193 157 123
0.0115714 -0.355937 -0.486 193 157 123
0.0124971 -0.355937 -0.486 192 156 122
0.0134229 -0.355937 -0.486 193 154 123
0.0143781 -0.35667 -0.487 190 151 120
0.0153057 -0.35667 -0.487 188 149 118
0.0162667 -0.357402 -0.488 186 147 116
0.0171962 -0.357402 -0.488 185 144 116
0.0181629 -0.358134 -0.489 184 143 115
0.0191333 -0.358867 -0.49 182 140 115
0.0200667 -0.358867 -0.49 180 138 113
0.0210429 -0.359599 -0.491 179 135 110
0.0220229 -0.360331 -0.492 177 133 108
0.0230067 -0.361064 -0.493 174 130 105
0.0239943 -0.361796 -0.494 172 128 103
0.0249857 -0.362529 -0.495 168 126 104
0.025981 -0.363261 -0.496 166 124 102
0.02698 -0.363993 -0.497 162 121 99
0.0279829 -0.364726 -0.498 161 120 98
0.0289895 -0.365458 -0.499 157 119 100
0.03006 -0.366923 -0.501 153 115 96
0.0310762 -0.367655 -0.502 148 111 95
0.0320962 -0.368388 -0.503 145 108 92
0.03312 -0.36912 -0.504 142 108 96
0.0342152 -0.370585 -0.506 141 107 95
0.0352486 -0.371317 -0.507 137 104 95
0.0363571 -0.372782 -0.509 134 101 92
0.0374733 -0.374247 -0.511 131 101 93
0.0385219 -0.374979 -0.512 129 99 91
0.0396514 -0.376444 -0.514 125 96 90
0.0407886 -0.377909 -0.516 122 93 87
0.0419333 -0.379373 -0.518 119 93 92
0.0430857 -0.380838 -0.52 119 93 92
0.0442457 -0.382303 -0.522 120 92 88
0.0454133 -0.383768 -0.524 119 91 87
0.0465886 -0.385232 -0.526 119 91 87
0.0477714 -0.386697 -0.528 118 90 86
0.0489619 -0.388162 -0.53 117 89 85
0.05016 -0.389627 -0.532 117 89 85
0.0513657 -0.391091 -0.534 114 89 85
0.052579 -0.392556 -0.536 114 89 85
0.0538 -0.394021 -0.538 112 87 83
0.0549267 -0.394753 -0.539 112 87 83
0.056161 -0.396218 -0.541 112 88 84
0.0574029 -0.397683 -0.543 112 88 84
0.0586524 -0.399148 -0.545 114 88 87
0.0599095 -0.400612 -0.547 115 89 88
0.0611743 -0.402077 -0.549 115 91 91
0.0624467 -0.403542 -0.551 116 92 92
0.0637267 -0.405007 -0.553 116 92 90
0.0650143 -0.406471 -0.555 114 90 88
0.0664286 -0.408669 -0.558 115 91 91
0.0677333 -0.410133 -0.56 115 91 91
0.0690457 -0.411598 -0.562 108 92 93
0.0704905 -0.413795 -0.565 112 96 97
0.0860619 -0.426978 -0.583 182 185 190
0.0871724 -0.426978 -0.583 184 187 196
0.0882829 -0.426978 -0.583 180 183 192
0.117155 -0.426978 -0.583 45 76 133
0.501137 -0.408669 -0.558 139 118 115
0.4968 -0.404274 -0.552 151 119 108
0.49244 -0.39988 -0.546 152 120 109
0.487153 -0.394753 -0.539 159 120 105
0.482746 -0.390359 -0.533 158 119 104
0.479223 -0.386697 -0.528 159 117 101
0.47659 -0.383768 -0.524 162 120 104
0.473943 -0.380838 -0.52 166 123 107
0.472193 -0.378641 -0.517 165 122 106
0.471348 -0.377176 -0.515 164 121 104
0.469577 -0.374979 -0.512 166 123 106
0.468714 -0.373514 -0.51 170 124 108
0.468765 -0.372782 -0.509 169 123 107
0.467889 -0.371317 -0.507 165 124 106
0.46793 -0.370585 -0.506 166 125 107
0.467967 -0.369852 -0.505 166 123 104
0.468 -0.36912 -0.504 166 123 104
0.46803 -0.368388 -0.503 166 123 104
0.467123 -0.366923 -0.501 169 126 107
0.468077 -0.366923 -0.501 169 126 107
0.468095 -0.36619 -0.5 173 130 111
0.46811 -0.365458 -0.499 177 132 113
0.46906 -0.365458 -0.499 174 129 110
0.469069 -0.364726 -0.498 173 128 107
0.469073 -0.363993 -0.497 173 128 107
0.47002 -0.363993 -0.497 174 127 107
0.470019 -0.363261 -0.496 175 128 108
0.470014 -0.362529 -0.495 176 129 109
0.470006 -0.361796 -0.494 175 128 108
0.470947 -0.361796 -0.494 172 125 105
0.470932 -0.361064 -0.493 172 125 105
0.471871 -0.361064 -0.493 174 127 107
0.47281 -0.361064 -0.493 168 121 101
0.472789 -0.360331 -0.492 163 116 96
0.473726 -0.360331 -0.492 165 118 98
0.474663 -0.360331 -0.492 175 128 108
0.474633 -0.359599 -0.491 174 127 107
0.475569 -0.359599 -0.491 173 126 106
0.475533 -0.358867 -0.49 176 129 109
0.476467 -0.358867 -0.49 177 129 107
0.4774 -0.358867 -0.49 176 128 106
0.477357 -0.358134 -0.489 175 127 105
0.478289 -0.358134 -0.489 175 127 105
0.47922 -0.358134 -0.489 174 126 104
0.480151 -0.358134 -0.489 170 122 100
0.480099 -0.357402 -0.488 170 122 102
0.481029 -0.357402 -0.488 174 126 106
0.481958 -0.357402 -0.488 176 130 107
0.482888 -0.357402 -0.488 175 129 106
0.483817 -0.357402 -0.488 175 129 106
0.484747 -0.357402 -0.488 170 124 101
0.485676 -0.357402 -0.488 162 116 93
0.487603 -0.358134 -0.489 160 114 91
0.488534 -0.358134 -0.489 162 116 93
0.489466 -0.358134 -0.489 161 115 92
0.4914 -0.358867 -0.49 161 117 92
0.492333 -0.358867 -0.49 159 115 90
0.494273 -0.359599 -0.491 157 113 88
0.495209 -0.359599 -0.491 157 113 88
0.497154 -0.360331 -0.492 158 114 89
0.499104 -0.361064 -0.493 157 112 89
0.501057 -0.361796 -0.494 152 107 84
0.503014 -0.362529 -0.495 146 104 82
0.504975 -0.363261 -0.496 150 108 86
0.50592 -0.363261 -0.496 152 107 86
0.508909 -0.364726 -0.498 153 108 87
0.510881 -0.365458 -0.499 152 107 86
0.513883 -0.366923 -0.501 153 108 87
0.51792 -0.36912 -0.504 152 110 88
0.520939 -0.370585 -0.506 153 111 89
0.524997 -0.372782 -0.509 151 110 88
0.580913 -0.405007 -0.553 173 159 148
0.585124 -0.407204 -0.556 197 183 172
0.589346 -0.409401 -0.559 191 188 181
0.920842 -0.407204 -0.556 205 208 189
0.921901 -0.407204 -0.556 205 208 191
0.92296 -0.407204 -0.556 206 209 192
0.924019 -0.407204 -0.556 206 209 192
0.925078 -0.407204 -0.556 206 209 190
0.926137 -0.407204 -0.556 205 208 189
0.927196 -0.407204 -0.556 205 208 189
0.928255 -0.407204 -0.556 205 208 189
0.929314 -0.407204 -0.556 205 208 189
0.930373 -0.407204 -0.556 204 207 188
0.931432 -0.407204 -0.556 205 208 191
0.932491 -0.407204 -0.556 205 208 191
0.93355 -0.407204 -0.556 205 208 189
0.93461 -0.407204 -0.556 204 207 188
0.935669 -0.407204 -0.556 204 207 190
0.936728 -0.407204 -0.556 204 207 190
0.937787 -0.407204 -0.556 204 206 192
0.938846 -0.407204 -0.556 204 206 192
0.939905 -0.407204 -0.556 204 206 192
0.940964 -0.407204 -0.556 204 206 192
0.942023 -0.407204 -0.556 205 207 193
0.943082 -0.407204 -0.556 205 207 193
0.944141 -0.407204 -0.556 205 207 193
0.9452 -0.407204 -0.556 205 207 193
0.946259 -0.407204 -0.556 205 207 194
0.947318 -0.407204 -0.556 206 208 195
0.948377 -0.407204 -0.556 202 206 191
0.951554 -0.407204 -0.556 204 208 193
0.952613 -0.407204 -0.556 203 207 192
0.953672 -0.407204 -0.556 204 208 193
0.954731 -0.407204 -0.556 204 208 193
0.95579 -0.407204 -0.556 204 208 193
0.95685 -0.407204 -0.556 204 208 193
0.957909 -0.407204 -0.556 204 208 193
0.958968 -0.407204 -0.556 204 208 193
0.966381 -0.407204 -0.556 203 205 192
0.96744 -0.407204 -0.556 203 205 192
0.968499 -0.407204 -0.556 203 205 192
0.969558 -0.407204 -0.556 203 205 192
0.970617 -0.407204 -0.556 203 205 192
0.971676 -0.407204 -0.556 204 206 193
0.972735 -0.407204 -0.556 204 206 193
0.973794 -0.407204 -0.556 203 205 192
-0.01134 -0.41634 -0.567 212 203 188
-0.0102419 -0.415606 -0.566 213 195 173
-0.00913143 -0.414137 -0.564 203 185 163
-0.00428571 -0.367143 -0.5 204 165 136
-0.00328667 -0.362003 -0.493 203 166 137
-0.00233333 -0.3598 -0.49 203 166 137
-0.00139143 -0.357597 -0.487 203 166 137
-0.000461905 -0.356129 -0.485 203 166 137
0.000461905 -0.356129 -0.485 203 164 133
0.00138286 -0.355394 -0.484 202 163 132
0.0023 -0.35466 -0.483 201 162 131
0.00322 -0.35466 -0.483 201 162 131
0.00414857 -0.355394 -0.484 197 161 129
0.00507048 -0.355394 -0.484 195 159 127
0.00599238 -0.355394 -0.484 193 157 125
0.00691429 -0.355394 -0.484 193 157 125
0.00783619 -0.355394 -0.484 193 157 125
0.0087581 -0.355394 -0.484 193 157 125
0.0097 -0.356129 -0.485 193 157 123
0.0106238 -0.356129 -0.485 193 157 123
0.0115714 -0.356863 -0.486 192 156 122
0.0124971 -0.356863 -0.486 191 155 121
0.0134229 -0.356863 -0.486 192 153 120
0.0143781 -0.357597 -0.487 190 151 118
0.0153057 -0.357597 -0.487 187 148 117
0.0162667 -0.358331 -0.488 185 146 115
0.0171962 -0.358331 -0.488 185 144 116
0.0181629 -0.359066 -0.489 184 143 115
0.0191333 -0.3598 -0.49 182 141 113
0.0200667 -0.3598 -0.49 180 139 111
0.0210429 -0.360534 -0.491 179 135 110
0.0220229 -0.361269 -0.492 175 131 106
0.0230067 -0.362003 -0.493 172 128 103
0.0239943 -0.362737 -0.494 170 126 101
