ply
format ascii 1.0
comment Created by Open3D
element vertex 1305
property double x
property double y
property double z
property uchar red
property uchar green
property uchar blue
end_header
0.361776 -0.238243 -0.545 74 58 68
0.359486 -0.236057 -0.54 76 60 71
0.356509 -0.233434 -0.534 86 70 81
0.350161 -0.228626 -0.523 111 91 103
0.347129 -0.226003 -0.517 134 114 126
0.344747 -0.223817 -0.512 134 123 131
0.344371 -0.222943 -0.51 155 144 152
0.343311 -0.221631 -0.507 168 157 165
0.343598 -0.221194 -0.506 163 152 160
0.343881 -0.220757 -0.505 123 110 117
0.40685 -0.234309 -0.536 162 108 108
0.406349 -0.233434 -0.534 161 110 107
0.405077 -0.232123 -0.531 161 110 107
0.405324 -0.231686 -0.53 159 111 107
0.4048 -0.230811 -0.528 159 111 107
0.405037 -0.230374 -0.527 164 110 108
0.4045 -0.2295 -0.525 164 110 108
0.4055 -0.2295 -0.525 164 111 107
0.4065 -0.2295 -0.525 163 110 106
0.406724 -0.229063 -0.524 162 109 105
0.406944 -0.228626 -0.523 161 108 104
0.40716 -0.228189 -0.522 161 106 103
0.408154 -0.228189 -0.522 163 108 105
0.408365 -0.227751 -0.521 163 108 105
0.409357 -0.227751 -0.521 165 110 107
0.41035 -0.227751 -0.521 165 110 105
0.410552 -0.227314 -0.52 162 107 102
0.410751 -0.226877 -0.519 160 105 100
0.410947 -0.22644 -0.518 160 105 100
0.411933 -0.22644 -0.518 163 105 101
0.41292 -0.22644 -0.518 166 108 104
0.413108 -0.226003 -0.517 164 109 104
0.414092 -0.226003 -0.517 164 109 104
0.415077 -0.226003 -0.517 164 109 104
0.416062 -0.226003 -0.517 158 103 98
0.417047 -0.226003 -0.517 158 103 98
0.417223 -0.225566 -0.516 160 105 100
0.418206 -0.225566 -0.516 161 106 101
0.419189 -0.225566 -0.516 165 110 105
0.420171 -0.225566 -0.516 163 108 103
0.421154 -0.225566 -0.516 162 107 102
0.422137 -0.225566 -0.516 162 107 102
0.42312 -0.225566 -0.516 159 104 99
0.424103 -0.225566 -0.516 158 103 98
0.425086 -0.225566 -0.516 160 105 100
0.426069 -0.225566 -0.516 159 104 99
0.427051 -0.225566 -0.516 158 103 98
0.428034 -0.225566 -0.516 157 102 97
0.429017 -0.225566 -0.516 150 101 96
0.43 -0.225566 -0.516 147 98 93
0.431818 -0.226003 -0.517 141 94 88
0.432803 -0.226003 -0.517 140 93 87
0.433788 -0.226003 -0.517 139 92 86
0.435613 -0.22644 -0.518 137 90 84
0.4366 -0.22644 -0.518 135 90 84
0.437587 -0.22644 -0.518 136 91 85
0.43942 -0.226877 -0.519 134 89 83
0.440409 -0.226877 -0.519 133 88 82
0.442248 -0.227314 -0.52 129 89 81
0.443238 -0.227314 -0.52 127 87 79
0.445083 -0.227751 -0.521 127 86 80
0.446931 -0.228189 -0.522 127 86 80
0.448784 -0.228626 -0.523 126 86 78
0.44978 -0.228626 -0.523 126 86 78
0.450776 -0.228626 -0.523 129 89 81
0.452636 -0.229063 -0.524 130 90 82
0.4545 -0.2295 -0.525 129 89 81
0.456368 -0.229937 -0.526 127 87 79
0.459109 -0.230811 -0.528 124 84 76
0.461857 -0.231686 -0.53 124 86 77
0.464613 -0.23256 -0.532 125 87 78
0.467377 -0.233434 -0.534 125 88 80
0.471026 -0.234746 -0.537 124 87 79
0.473807 -0.23562 -0.539 123 86 80
0.477476 -0.236931 -0.542 121 84 78
0.48204 -0.23868 -0.546 120 83 75
0.485734 -0.239991 -0.549 120 83 75
1.14398 -0.280646 -0.642 201 205 190
1.14342 -0.280209 -0.641 201 203 189
1.14286 -0.279771 -0.64 205 207 193
1.14229 -0.279334 -0.639 203 205 192
-0.124507 -0.282747 -0.644 110 115 119
-0.120983 -0.277478 -0.632 110 115 119
-0.117884 -0.273088 -0.622 109 114 118
-0.114823 -0.268697 -0.612 109 114 118
-0.112171 -0.265185 -0.604 108 113 117
-0.110102 -0.26299 -0.599 108 111 116
-0.108051 -0.260794 -0.594 107 110 115
-0.10638 -0.259477 -0.591 108 111 116
-0.105076 -0.259038 -0.59 109 112 117
-0.103776 -0.258599 -0.589 106 110 113
-0.10248 -0.25816 -0.588 104 108 111
-0.101705 -0.259038 -0.59 103 107 110
-0.100751 -0.259477 -0.591 103 107 110
-0.0997943 -0.259916 -0.592 95 99 102
-0.099 -0.260794 -0.594 80 84 87
-0.0981981 -0.261672 -0.596 70 69 77
-0.0973886 -0.26255 -0.598 66 65 73
-0.0965714 -0.263429 -0.6 72 71 77
-0.0957467 -0.264307 -0.602 78 77 83
-0.0950714 -0.265624 -0.605 78 77 83
-0.0942295 -0.266502 -0.607 76 75 81
-0.0935333 -0.267819 -0.61 72 71 77
-0.0929771 -0.269575 -0.614 69 68 74
-0.0921067 -0.270453 -0.616 68 67 73
-0.0912286 -0.271331 -0.618 67 66 72
-0.0903429 -0.27221 -0.62 66 65 71
-0.0895933 -0.273527 -0.623 64 63 69
-0.0886905 -0.274405 -0.625 62 61 67
-0.08778 -0.275283 -0.627 60 59 65
-0.0867238 -0.275722 -0.628 59 58 64
-0.0855276 -0.275722 -0.628 59 58 64
-0.0844657 -0.276161 -0.629 59 58 64
-0.0832676 -0.276161 -0.629 59 58 64
-0.0820695 -0.276161 -0.629 61 60 66
-0.081 -0.2766 -0.63 62 61 67
-0.0799267 -0.277039 -0.631 62 61 67
-0.0787248 -0.277039 -0.631 63 62 70
-0.0776457 -0.277478 -0.632 64 63 71
-0.0765629 -0.277917 -0.633 66 65 73
-0.0754762 -0.278356 -0.634 67 66 74
-0.0742686 -0.278356 -0.634 69 68 76
-0.0731762 -0.278795 -0.635 71 70 78
-0.07208 -0.279234 -0.636 73 71 82
-0.0708686 -0.279234 -0.636 73 71 82
-0.0697667 -0.279673 -0.637 73 71 82
-0.0685533 -0.279673 -0.637 73 71 82
-0.0674457 -0.280112 -0.638 73 71 82
-0.0662305 -0.280112 -0.638 73 71 82
-0.0651171 -0.280551 -0.639 74 72 83
-0.064 -0.28099 -0.64 75 73 84
-0.062781 -0.28099 -0.64 76 75 83
-0.0616581 -0.28143 -0.641 76 75 83
-0.0605314 -0.281869 -0.642 76 75 83
-0.0593086 -0.281869 -0.642 77 76 84
-0.0580857 -0.281869 -0.642 75 74 82
-0.0569514 -0.282308 -0.643 74 73 81
-0.0557267 -0.282308 -0.643 75 74 82
-0.0545019 -0.282308 -0.643 75 74 82
-0.0532771 -0.282308 -0.643 74 73 79
-0.0521333 -0.282747 -0.644 72 71 77
-0.0509067 -0.282747 -0.644 72 71 77
-0.0497571 -0.283186 -0.645 71 70 76
-0.0486038 -0.283625 -0.646 73 72 80
-0.0473733 -0.283625 -0.646 72 71 79
-0.0462143 -0.284064 -0.647 72 71 79
-0.0449819 -0.284064 -0.647 72 71 79
-0.0438171 -0.284503 -0.648 71 70 78
-0.0425829 -0.284503 -0.648 72 71 79
-0.0414124 -0.284942 -0.649 72 71 79
-0.0402381 -0.285381 -0.65 72 71 79
0.0998991 -0.257282 -0.586 199 159 159
0.100498 -0.255965 -0.583 202 158 159
0.101086 -0.254648 -0.58 199 155 156
0.102014 -0.254209 -0.579 200 154 156
0.102583 -0.252891 -0.576 199 153 155
0.10368 -0.252891 -0.576 198 148 149
0.104595 -0.252452 -0.575 194 144 145
0.105507 -0.252013 -0.574 200 145 148
0.1066 -0.252013 -0.574 199 144 147
0.107506 -0.251574 -0.573 199 139 141
0.108787 -0.252013 -0.574 195 135 137
0.10988 -0.252013 -0.574 194 129 133
0.111167 -0.252452 -0.575 191 126 130
0.112262 -0.252452 -0.575 191 126 130
0.113554 -0.252891 -0.576 192 127 131
0.11485 -0.25333 -0.577 194 128 130
0.11615 -0.25377 -0.578 189 123 125
0.117251 -0.25377 -0.578 182 116 117
0.118557 -0.254209 -0.579 176 110 111
0.119867 -0.254648 -0.58 167 102 100
0.12118 -0.255087 -0.581 155 90 88
0.122497 -0.255526 -0.582 155 90 88
0.123818 -0.255965 -0.583 171 106 104
0.124929 -0.255965 -0.583 181 117 117
0.126039 -0.255965 -0.583 185 121 121
0.12715 -0.255965 -0.583 189 123 125
0.12826 -0.255965 -0.583 189 123 125
0.129592 -0.256404 -0.584 192 126 128
0.130705 -0.256404 -0.584 193 127 131
0.131817 -0.256404 -0.584 193 127 131
0.133157 -0.256843 -0.585 193 128 136
0.134271 -0.256843 -0.585 193 128 136
0.135617 -0.257282 -0.586 187 127 127
0.136733 -0.257282 -0.586 186 126 126
0.138085 -0.257721 -0.587 187 125 126
0.13944 -0.25816 -0.588 189 127 128
0.14056 -0.25816 -0.588 189 125 126
0.141921 -0.258599 -0.589 182 118 119
0.143043 -0.258599 -0.589 178 109 112
0.14441 -0.259038 -0.59 175 106 109
0.14578 -0.259477 -0.591 173 107 109
0.147154 -0.259916 -0.592 185 119 121
0.148532 -0.260355 -0.593 193 133 135
0.149662 -0.260355 -0.593 206 146 148
0.151046 -0.260794 -0.594 205 151 151
0.152177 -0.260794 -0.594 200 146 146
0.153567 -0.261233 -0.595 195 144 143
0.15444 -0.260794 -0.594 189 138 137
0.155571 -0.260794 -0.594 191 131 139
0.156703 -0.260794 -0.594 191 131 139
0.1581 -0.261233 -0.595 192 133 139
0.159233 -0.261233 -0.595 192 133 139
0.160367 -0.261233 -0.595 190 131 137
0.1615 -0.261233 -0.595 186 127 133
0.162633 -0.261233 -0.595 178 122 131
0.164042 -0.261672 -0.596 171 115 124
0.165731 -0.26255 -0.598 171 118 128
0.16715 -0.26299 -0.599 174 121 131
0.169133 -0.264307 -0.602 170 117 127
0.170846 -0.265185 -0.604 166 113 123
0.394963 -0.284942 -0.649 152 106 119
0.359731 -0.255526 -0.582 142 95 105
0.3565 -0.252452 -0.575 139 92 102
0.355108 -0.250696 -0.571 135 92 101
0.353076 -0.248501 -0.566 140 97 106
0.352277 -0.247184 -0.563 154 108 121
0.351467 -0.245867 -0.56 151 105 118
0.351274 -0.244989 -0.558 151 100 115
0.351074 -0.24411 -0.556 151 100 115
0.3515 -0.243671 -0.555 152 102 114
0.351287 -0.242793 -0.553 149 99 111
0.351703 -0.242354 -0.552 140 95 102
0.352115 -0.241915 -0.551 136 91 98
0.353165 -0.241915 -0.551 132 92 93
0.353571 -0.241476 -0.55 124 84 85
0.354619 -0.241476 -0.55 113 79 80
0.355667 -0.241476 -0.55 106 72 73
0.356714 -0.241476 -0.55 89 60 62
0.357762 -0.241476 -0.55 76 47 49
0.35881 -0.241476 -0.55 74 49 53
0.359857 -0.241476 -0.55 83 58 62
0.360249 -0.241037 -0.549 100 81 87
0.361294 -0.241037 -0.549 100 81 87
0.36234 -0.241037 -0.549 95 76 82
0.362724 -0.240598 -0.548 79 62 72
0.361776 -0.239281 -0.545 71 54 64
0.360817 -0.237964 -0.542 74 56 68
0.357844 -0.23533 -0.536 73 55 67
0.354848 -0.232695 -0.53 81 61 73
0.349814 -0.228744 -0.521 104 84 96
0.348113 -0.226988 -0.517 127 116 124
0.347072 -0.22567 -0.514 113 102 110
0.34602 -0.224353 -0.511 93 82 90
0.346314 -0.223914 -0.51 159 148 156
0.346605 -0.223475 -0.509 144 131 138
0.410567 -0.239281 -0.545 145 99 101
0.408584 -0.237525 -0.541 149 103 105
0.405829 -0.23533 -0.536 160 106 104
0.405331 -0.234451 -0.534 161 107 105
0.404827 -0.233573 -0.532 161 108 104
0.404314 -0.232695 -0.53 161 108 104
0.403794 -0.231817 -0.528 159 110 105
0.404033 -0.231378 -0.527 159 110 105
0.404269 -0.230939 -0.526 162 109 105
0.4045 -0.2305 -0.525 164 111 107
0.404728 -0.230061 -0.524 164 111 107
0.405726 -0.230061 -0.524 162 109 105
0.406724 -0.230061 -0.524 161 108 104
0.406944 -0.229622 -0.523 159 106 102
0.40716 -0.229183 -0.522 161 106 103
0.408154 -0.229183 -0.522 164 109 106
0.408365 -0.228744 -0.521 163 108 103
0.409357 -0.228744 -0.521 164 109 104
0.41035 -0.228744 -0.521 166 111 106
0.410552 -0.228305 -0.52 167 112 107
0.410751 -0.227866 -0.519 166 111 106
0.41174 -0.227866 -0.519 164 109 104
0.411933 -0.227427 -0.518 160 105 100
0.41292 -0.227427 -0.518 157 102 97
0.413108 -0.226988 -0.517 160 105 100
0.414092 -0.226988 -0.517 162 107 102
0.415077 -0.226988 -0.517 162 107 102
0.416062 -0.226988 -0.517 158 103 98
0.417047 -0.226988 -0.517 157 102 97
0.418031 -0.226988 -0.517 159 104 99
0.418206 -0.226549 -0.516 159 104 99
0.419189 -0.226549 -0.516 161 106 101
0.420171 -0.226549 -0.516 161 106 101
0.420338 -0.22611 -0.515 163 108 103
0.421319 -0.22611 -0.515 163 108 103
0.4223 -0.22611 -0.515 161 106 101
0.423281 -0.22611 -0.515 159 104 99
0.424262 -0.22611 -0.515 159 104 99
0.426069 -0.226549 -0.516 158 103 98
0.427051 -0.226549 -0.516 154 99 94
0.428034 -0.226549 -0.516 152 97 92
0.429017 -0.226549 -0.516 150 101 96
0.43 -0.226549 -0.516 147 98 93
0.431818 -0.226988 -0.517 141 94 88
0.432803 -0.226988 -0.517 140 93 87
0.433788 -0.226988 -0.517 139 92 86
0.435613 -0.227427 -0.518 137 90 84
0.4366 -0.227427 -0.518 138 93 87
0.437587 -0.227427 -0.518 136 91 85
0.43942 -0.227866 -0.519 135 92 85
0.440409 -0.227866 -0.519 134 91 84
0.441397 -0.227866 -0.519 130 89 83
0.443238 -0.228305 -0.52 127 86 80
0.445083 -0.228744 -0.521 126 87 80
0.446075 -0.228744 -0.521 126 87 80
0.447926 -0.229183 -0.522 125 86 79
0.44892 -0.229183 -0.522 125 86 79
0.450776 -0.229622 -0.523 128 89 82
0.452636 -0.230061 -0.524 128 89 82
0.4545 -0.2305 -0.525 128 89 82
0.456368 -0.230939 -0.526 125 86 79
0.459109 -0.231817 -0.528 123 84 77
0.461857 -0.232695 -0.53 124 85 78
0.46374 -0.233134 -0.531 125 86 79
0.467377 -0.234451 -0.534 124 87 79
0.470149 -0.23533 -0.536 125 88 80
0.473807 -0.236647 -0.539 122 87 81
0.477476 -0.237964 -0.542 121 86 80
0.481157 -0.239281 -0.545 120 86 77
0.485734 -0.241037 -0.549 120 86 77
1.14454 -0.282308 -0.643 202 206 189
1.14398 -0.281869 -0.642 201 205 188
1.14342 -0.28143 -0.641 204 206 192
1.14286 -0.28099 -0.64 205 207 193
1.14229 -0.280551 -0.639 201 203 190
1.14172 -0.280112 -0.638 203 205 192
-0.124313 -0.283532 -0.643 108 113 117
-0.120983 -0.278682 -0.632 108 113 117
-0.117694 -0.273831 -0.621 107 112 116
-0.114635 -0.269422 -0.611 107 112 116
-0.111986 -0.265894 -0.603 105 110 114
-0.109918 -0.26369 -0.598 105 108 113
-0.10787 -0.261485 -0.593 104 107 112
-0.10638 -0.260603 -0.591 105 108 113
-0.105076 -0.260162 -0.59 106 109 114
-0.103776 -0.259721 -0.589 103 107 110
-0.10248 -0.25928 -0.588 100 104 107
-0.101532 -0.259721 -0.589 101 105 108
-0.100751 -0.260603 -0.591 99 103 106
-0.0997943 -0.261044 -0.592 90 94 97
-0.099 -0.261926 -0.594 77 81 84
-0.0981981 -0.262808 -0.596 68 67 73
-0.0973886 -0.26369 -0.598 68 67 73
-0.0965714 -0.264571 -0.6 77 76 82
-0.0957467 -0.265453 -0.602 82 81 87
-0.0950714 -0.266776 -0.605 80 79 85
-0.0943848 -0.268099 -0.608 79 78 84
-0.0935333 -0.268981 -0.61 76 75 81
-0.0931286 -0.271186 -0.615 71 70 76
-0.0922562 -0.272068 -0.617 70 69 75
-0.0913762 -0.27295 -0.619 69 68 74
-0.0904886 -0.273831 -0.621 68 67 73
-0.0895933 -0.274713 -0.623 64 63 69
-0.0888324 -0.276036 -0.626 61 60 66
-0.08792 -0.276918 -0.628 60 59 67
-0.0868619 -0.277359 -0.629 59 58 66
-0.0856638 -0.277359 -0.629 59 58 64
-0.0846 -0.2778 -0.63 58 57 63
-0.0834 -0.2778 -0.63 59 58 64
-0.0822 -0.2778 -0.63 60 59 65
-0.0811286 -0.278241 -0.631 61 60 68
-0.0799267 -0.278241 -0.631 61 60 68
-0.0788495 -0.278682 -0.632 61 60 68
-0.0777686 -0.279123 -0.633 62 61 69
-0.0765629 -0.279123 -0.633 63 62 70
-0.0754762 -0.279564 -0.634 65 64 72
-0.0743857 -0.280005 -0.635 66 65 73
-0.0731762 -0.280005 -0.635 68 67 75
-0.07208 -0.280446 -0.636 71 70 78
-0.07098 -0.280887 -0.637 71 70 78
-0.0697667 -0.280887 -0.637 71 70 78
-0.068661 -0.281328 -0.638 73 72 80
-0.0674457 -0.281328 -0.638 72 71 79
-0.0663343 -0.281769 -0.639 73 72 80
-0.0651171 -0.281769 -0.639 73 72 80
-0.064 -0.28221 -0.64 74 73 81
-0.062879 -0.28265 -0.641 76 75 83
-0.0616581 -0.28265 -0.641 76 75 83
-0.0605314 -0.283091 -0.642 75 74 82
-0.0593086 -0.283091 -0.642 76 75 83
-0.0581762 -0.283532 -0.643 74 73 81
-0.0569514 -0.283532 -0.643 73 72 80
-0.0557267 -0.283532 -0.643 74 73 81
-0.0545867 -0.283973 -0.644 75 74 82
-0.05336 -0.283973 -0.644 74 73 81
-0.0521333 -0.283973 -0.644 73 72 80
-0.0509857 -0.284414 -0.645 73 72 78
-0.0497571 -0.284414 -0.645 71 70 76
-0.0486038 -0.284855 -0.646 73 72 80
-0.0473733 -0.284855 -0.646 72 71 79
-0.0462143 -0.285296 -0.647 71 70 78
-0.0449819 -0.285296 -0.647 70 69 77
-0.0438171 -0.285737 -0.648 70 69 77
-0.0426486 -0.286178 -0.649 72 71 79
-0.0414124 -0.286178 -0.649 73 72 80
-0.0402381 -0.286619 -0.65 72 71 79
0.0974343 -0.25487 -0.578 196 152 151
0.0981943 -0.253989 -0.576 196 152 151
0.099119 -0.253548 -0.575 196 150 152
0.10004 -0.253107 -0.574 194 148 150
0.100957 -0.252666 -0.573 197 148 151
0.10187 -0.252225 -0.572 198 149 152
0.10278 -0.251784 -0.571 197 145 147
0.103868 -0.251784 -0.571 193 141 143
0.104955 -0.251784 -0.571 195 139 140
0.106043 -0.251784 -0.571 195 139 140
0.10713 -0.251784 -0.571 194 134 134
0.108218 -0.251784 -0.571 192 132 132
0.109497 -0.252225 -0.572 190 126 127
0.11078 -0.252666 -0.573 185 121 122
0.111871 -0.252666 -0.573 186 120 122
0.11316 -0.253107 -0.574 187 121 123
0.114452 -0.253548 -0.575 188 119 122
0.115749 -0.253989 -0.576 185 116 119
0.117049 -0.25443 -0.577 177 109 110
0.118352 -0.25487 -0.578 170 102 103
0.11966 -0.255311 -0.579 166 98 97
0.120971 -0.255752 -0.58 153 85 84
0.122287 -0.256193 -0.581 147 82 80
0.123606 -0.256634 -0.582 160 95 93
0.124714 -0.256634 -0.582 170 105 103
0.126039 -0.257075 -0.583 177 112 110
0.12715 -0.257075 -0.583 182 116 118
0.12826 -0.257075 -0.583 182 116 118
0.12937 -0.257075 -0.583 185 119 121
0.130481 -0.257075 -0.583 187 121 125
0.131591 -0.257075 -0.583 188 122 126
0.13293 -0.257516 -0.584 190 123 132
0.134042 -0.257516 -0.584 191 124 133
0.135154 -0.257516 -0.584 184 122 125
0.1365 -0.257957 -0.585 182 120 123
0.137614 -0.257957 -0.585 184 119 123
0.138966 -0.258398 -0.586 185 120 124
0.140082 -0.258398 -0.586 184 118 120
0.141439 -0.258839 -0.587 178 112 114
0.142557 -0.258839 -0.587 175 109 111
0.143675 -0.258839 -0.587 177 111 113
0.14504 -0.25928 -0.588 183 119 120
0.14616 -0.25928 -0.588 195 131 132
0.14728 -0.25928 -0.588 200 142 141
0.148652 -0.259721 -0.589 210 152 151
0.14952 -0.25928 -0.588 207 156 153
0.150896 -0.259721 -0.589 201 150 147
0.15176 -0.25928 -0.588 198 149 144
0.15288 -0.25928 -0.588 190 141 136
0.153738 -0.258839 -0.587 190 131 137
0.154856 -0.258839 -0.587 187 128 134
0.15624 -0.25928 -0.588 191 130 137
0.157628 -0.259721 -0.589 197 136 143
0.15875 -0.259721 -0.589 196 135 142
0.159871 -0.259721 -0.589 188 127 134
0.161267 -0.260162 -0.59 178 121 128
0.162941 -0.261044 -0.592 176 119 126
0.164346 -0.261485 -0.593 168 115 123
0.166312 -0.262808 -0.596 163 110 118
0.16801 -0.26369 -0.598 158 107 116
0.169714 -0.264571 -0.6 159 108 117
0.171711 -0.265894 -0.603 156 105 114
0.174007 -0.267658 -0.607 157 106 115
0.176317 -0.269422 -0.611 159 108 117
0.178643 -0.271186 -0.615 146 95 104
0.181276 -0.27339 -0.62 178 152 161
0.183929 -0.275595 -0.625 255 230 239
0.364058 -0.259721 -0.589 144 94 105
0.3596 -0.255752 -0.58 143 93 104
0.356351 -0.252666 -0.573 138 92 102
0.354948 -0.250902 -0.569 142 96 106
0.352903 -0.248697 -0.564 152 106 119
0.352094 -0.247374 -0.561 150 104 117
0.351274 -0.246051 -0.558 150 102 118
0.351074 -0.24517 -0.556 151 103 119
0.350867 -0.244288 -0.554 153 105 119
0.351287 -0.243847 -0.553 153 105 119
0.351703 -0.243406 -0.552 149 103 113
0.351476 -0.242524 -0.55 145 99 109
0.352524 -0.242524 -0.55 135 93 97
0.352929 -0.242083 -0.549 138 96 100
0.353974 -0.242083 -0.549 131 92 95
0.35502 -0.242083 -0.549 118 79 82
0.355417 -0.241642 -0.548 103 71 74
0.356461 -0.241642 -0.548 96 64 67
0.357505 -0.241642 -0.548 84 55 59
0.358549 -0.241642 -0.548 74 45 49
0.359592 -0.241642 -0.548 79 56 62
0.360636 -0.241642 -0.548 79 56 62
0.36102 -0.241201 -0.547 90 67 73
0.362062 -0.241201 -0.547 86 66 75
0.361776 -0.240319 -0.545 73 53 62
0.360817 -0.238996 -0.542 72 52 63
0.359179 -0.237232 -0.538 76 56 67
0.356856 -0.235028 -0.533 79 59 71
0.353171 -0.231941 -0.526 86 66 78
0.35148 -0.230177 -0.522 98 85 94
0.349773 -0.228413 -0.518 120 107 116
0.349406 -0.227531 -0.516 70 57 64
0.348351 -0.226209 -0.513 94 81 88
0.349329 -0.226209 -0.513 148 135 142
0.349623 -0.225768 -0.512 86 73 80
0.484714 -0.286619 -0.65 112 89 95
0.482962 -0.284855 -0.646 134 98 100
0.407553 -0.238555 -0.541 156 106 107
0.406318 -0.237232 -0.538 157 107 108
0.404314 -0.235469 -0.534 163 108 105
0.403813 -0.234587 -0.532 163 108 105
0.403305 -0.233705 -0.53 161 108 102
0.403551 -0.233264 -0.529 160 107 101
0.40303 -0.232382 -0.527 159 109 102
0.404033 -0.232382 -0.527 161 111 104
0.404269 -0.231941 -0.526 162 109 103
0.4045 -0.2315 -0.525 163 110 104
0.404728 -0.231059 -0.524 163 110 104
0.405726 -0.231059 -0.524 162 109 103
0.405948 -0.230618 -0.523 161 108 102
0.406944 -0.230618 -0.523 159 106 100
0.40716 -0.230177 -0.522 161 106 101
0.408154 -0.230177 -0.522 162 107 102
0.408365 -0.229736 -0.521 162 107 102
0.409357 -0.229736 -0.521 161 106 101
0.409562 -0.229295 -0.52 162 109 103
0.410552 -0.229295 -0.52 164 111 105
0.411543 -0.229295 -0.52 165 112 106
0.41174 -0.228854 -0.519 163 110 104
0.412729 -0.228854 -0.519 159 104 99
0.41292 -0.228413 -0.518 153 98 93
0.413907 -0.228413 -0.518 159 106 100
0.414092 -0.227972 -0.517 160 107 101
0.415077 -0.227972 -0.517 160 107 101
0.416062 -0.227972 -0.517 157 104 98
0.417047 -0.227972 -0.517 154 101 95
0.418031 -0.227972 -0.517 156 103 97
0.418206 -0.227531 -0.516 157 104 98
0.419189 -0.227531 -0.516 157 104 98
0.420171 -0.227531 -0.516 158 105 99
0.421154 -0.227531 -0.516 158 105 99
0.421319 -0.22709 -0.515 159 106 100
0.4223 -0.22709 -0.515 159 106 100
0.423281 -0.22709 -0.515 159 106 100
0.424262 -0.22709 -0.515 159 106 100
0.426069 -0.227531 -0.516 158 105 99
0.427051 -0.227531 -0.516 154 101 95
0.428034 -0.227531 -0.516 151 98 92
0.429017 -0.227531 -0.516 151 100 96
0.43 -0.227531 -0.516 148 97 93
0.431818 -0.227972 -0.517 143 94 89
0.432803 -0.227972 -0.517 142 93 88
0.433788 -0.227972 -0.517 140 93 87
0.435613 -0.228413 -0.518 139 92 86
0.4366 -0.228413 -0.518 138 93 87
0.437587 -0.228413 -0.518 136 91 85
0.43942 -0.228854 -0.519 135 92 85
0.440409 -0.228854 -0.519 134 91 84
0.441397 -0.228854 -0.519 130 89 83
0.443238 -0.229295 -0.52 127 86 80
0.444229 -0.229295 -0.52 127 88 81
0.446075 -0.229736 -0.521 127 88 81
0.447926 -0.230177 -0.522 125 86 79
0.44892 -0.230177 -0.522 125 86 79
0.449914 -0.230177 -0.522 126 87 80
0.451772 -0.230618 -0.523 124 90 81
0.4545 -0.2315 -0.525 124 90 81
0.456368 -0.231941 -0.526 124 87 79
0.459109 -0.232823 -0.528 123 86 78
0.460986 -0.233264 -0.529 124 87 79
0.46374 -0.234146 -0.531 125 88 80
0.466502 -0.235028 -0.533 123 89 80
0.470149 -0.23635 -0.536 123 89 80
0.472928 -0.237232 -0.538 121 88 79
0.476595 -0.238555 -0.541 119 86 77
0.481157 -0.240319 -0.545 119 86 77
0.485734 -0.242083 -0.549 119 86 77
0.48944 -0.243406 -0.552 120 87 78
1.14398 -0.283091 -0.642 201 205 188
1.14342 -0.28265 -0.641 206 209 192
1.14286 -0.28221 -0.64 203 206 189
1.14229 -0.281769 -0.639 205 207 193
1.14172 -0.281328 -0.638 206 208 194
1.13935 -0.280446 -0.636 204 206 193
-0.124313 -0.284757 -0.643 106 111 115
-0.120983 -0.279886 -0.632 105 110 113
-0.117694 -0.275014 -0.621 104 109 112
-0.114635 -0.270586 -0.611 103 108 111
-0.1118 -0.2666 -0.602 102 107 110
-0.109734 -0.264386 -0.597 102 105 110
-0.10787 -0.262614 -0.593 103 106 111
-0.1062 -0.261286 -0.59 103 106 111
-0.104898 -0.260843 -0.589 103 106 111
-0.1036 -0.2604 -0.588 100 104 107
-0.10248 -0.2604 -0.588 98 102 105
-0.101532 -0.260843 -0.589 96 100 103
-0.100751 -0.261729 -0.591 93 97 100
-0.0997943 -0.262171 -0.592 84 88 91
-0.099 -0.263057 -0.594 72 76 79
-0.0981981 -0.263943 -0.596 68 67 73
-0.0973886 -0.264829 -0.598 72 71 77
-0.0965714 -0.265714 -0.6 82 81 87
-0.0957467 -0.2666 -0.602 85 84 90
-0.0950714 -0.267929 -0.605 83 82 88
-0.0943848 -0.269257 -0.608 83 82 88
-0.0936867 -0.270586 -0.611 80 79 87
-0.0929771 -0.271914 -0.614 78 77 85
-0.0924057 -0.273686 -0.618 73 72 80
-0.0915238 -0.274571 -0.62 72 71 77
-0.0906343 -0.275457 -0.622 70 69 75
-0.0897371 -0.276343 -0.624 66 65 73
-0.0889743 -0.277671 -0.627 63 62 70
-0.08806 -0.278557 -0.629 61 60 68
-0.087 -0.279 -0.63 60 59 67
-0.0858 -0.279 -0.63 59 58 66
-0.0847343 -0.279443 -0.631 59 58 66
-0.0835324 -0.279443 -0.631 59 58 66
-0.0823305 -0.279443 -0.631 59 58 66
-0.0811286 -0.279443 -0.631 60 59 67
-0.0800533 -0.279886 -0.632 60 59 67
-0.0788495 -0.279886 -0.632 60 59 67
-0.0777686 -0.280329 -0.633 60 59 67
-0.0766838 -0.280771 -0.634 62 61 69
-0.0755952 -0.281214 -0.635 63 62 70
-0.0743857 -0.281214 -0.635 64 63 71
-0.0732914 -0.281657 -0.636 66 65 73
-0.0721933 -0.2821 -0.637 68 67 75
-0.07098 -0.2821 -0.637 70 69 77
-0.0697667 -0.2821 -0.637 71 70 78
-0.068661 -0.282543 -0.638 72 71 79
-0.0675514 -0.282986 -0.639 72 71 79
-0.0663343 -0.282986 -0.639 72 71 79
-0.0651171 -0.282986 -0.639 73 72 80
-0.064 -0.283429 -0.64 73 72 80
-0.062879 -0.283871 -0.641 74 73 81
-0.0617543 -0.284314 -0.642 75 74 82
-0.0605314 -0.284314 -0.642 75 74 82
-0.0593086 -0.284314 -0.642 75 74 82
-0.0580857 -0.284314 -0.642 73 72 78
-0.0569514 -0.284757 -0.643 74 73 79
-0.0557267 -0.284757 -0.643 74 73 79
-0.0545867 -0.2852 -0.644 74 73 79
-0.05336 -0.2852 -0.644 74 73 79
-0.0521333 -0.2852 -0.644 73 72 80
-0.0509857 -0.285643 -0.645 73 72 78
-0.0497571 -0.285643 -0.645 72 71 77
-0.0486038 -0.286086 -0.646 72 71 79
-0.0474467 -0.286529 -0.647 71 70 78
-0.0462143 -0.286529 -0.647 70 69 77
-0.0450514 -0.286971 -0.648 69 68 76
-0.0438171 -0.286971 -0.648 70 69 77
-0.0426486 -0.287414 -0.649 72 71 79
-0.0414762 -0.287857 -0.65 72 71 79
-0.0402381 -0.287857 -0.65 72 71 79
0.093679 -0.260843 -0.589 199 153 155
0.0939962 -0.258629 -0.584 197 151 151
0.0942943 -0.256414 -0.579 196 150 150
0.0950676 -0.255529 -0.577 196 151 148
0.0956667 -0.2542 -0.574 193 148 145
0.0965914 -0.253757 -0.573 191 146 143
0.0975124 -0.253314 -0.572 191 146 143
0.0984295 -0.252871 -0.571 192 144 144
0.0995171 -0.252871 -0.571 190 142 142
0.100429 -0.252429 -0.57 192 142 143
0.101514 -0.252429 -0.57 193 143 144
0.1026 -0.252429 -0.57 194 140 140
0.103504 -0.251986 -0.569 189 135 135
0.104771 -0.252429 -0.57 193 135 134
0.105857 -0.252429 -0.57 191 133 132
0.106943 -0.252429 -0.57 187 127 126
0.108218 -0.252871 -0.571 184 124 123
0.109497 -0.253314 -0.572 182 118 118
0.110587 -0.253314 -0.572 178 114 114
0.111871 -0.253757 -0.573 179 115 115
0.11316 -0.2542 -0.574 178 114 114
0.114452 -0.254643 -0.575 179 111 112
0.115749 -0.255086 -0.576 178 110 111
0.117049 -0.255529 -0.577 172 104 105
0.118352 -0.255971 -0.578 165 97 98
0.11966 -0.256414 -0.579 161 93 92
0.120971 -0.256857 -0.58 150 82 81
0.122287 -0.2573 -0.581 143 75 72
0.123606 -0.257743 -0.582 151 83 80
0.124714 -0.257743 -0.582 161 93 92
0.126039 -0.258186 -0.583 170 102 101
0.12715 -0.258186 -0.583 170 102 101
0.12826 -0.258186 -0.583 173 107 109
0.12937 -0.258186 -0.583 176 110 112
0.130481 -0.258186 -0.583 180 114 118
0.131591 -0.258186 -0.583 181 115 119
0.13293 -0.258629 -0.584 183 116 123
0.134042 -0.258629 -0.584 185 118 125
0.135154 -0.258629 -0.584 183 116 123
0.136267 -0.258629 -0.584 180 113 120
0.137614 -0.259071 -0.585 180 114 118
0.138729 -0.259071 -0.585 180 114 118
0.139843 -0.259071 -0.585 176 110 114
0.140957 -0.259071 -0.585 174 108 112
0.142314 -0.259514 -0.586 175 113 114
0.14343 -0.259514 -0.586 182 120 121
0.144547 -0.259514 -0.586 193 133 133
0.145414 -0.259071 -0.585 204 144 144
0.146278 -0.258629 -0.584 207 152 149
0.147643 -0.259071 -0.585 212 157 154
0.148503 -0.258629 -0.584 207 156 152
0.149359 -0.258186 -0.583 200 149 145
0.15047 -0.258186 -0.583 196 149 143
0.15132 -0.257743 -0.582 189 142 136
0.152429 -0.257743 -0.582 188 129 135
0.153537 -0.257743 -0.582 183 124 130
0.154646 -0.257743 -0.582 184 125 131
0.156022 -0.258186 -0.583 191 132 138
0.157402 -0.258629 -0.584 194 135 141
0.158514 -0.258629 -0.584 187 128 134
0.160173 -0.259514 -0.586 180 123 129
0.16184 -0.2604 -0.588 179 122 128
0.163514 -0.261286 -0.59 169 113 122
0.165196 -0.262171 -0.592 161 105 114
0.166886 -0.263057 -0.594 157 106 115
0.168866 -0.264386 -0.597 154 103 112
0.170857 -0.265714 -0.6 149 98 107
0.173147 -0.267486 -0.604 147 96 105
0.175451 -0.269257 -0.608 150 97 105
0.177771 -0.271029 -0.612 145 92 100
0.180399 -0.273243 -0.617 168 138 150
0.183046 -0.275457 -0.622 255 225 237
0.356819 -0.253314 -0.572 144 97 107
0.35478 -0.2511 -0.567 157 110 126
0.352722 -0.248886 -0.562 154 107 123
0.351904 -0.247557 -0.559 152 103 122
0.351074 -0.246229 -0.556 151 102 121
0.350867 -0.245343 -0.554 153 105 121
0.351287 -0.2449 -0.553 155 107 123
0.351066 -0.244014 -0.551 153 107 118
0.351476 -0.243571 -0.55 151 105 116
0.351883 -0.243129 -0.549 148 103 108
0.352286 -0.242686 -0.548 147 102 107
0.35333 -0.242686 -0.548 138 96 100
0.354373 -0.242686 -0.548 129 87 91
0.354769 -0.242243 -0.547 120 84 86
0.35581 -0.242243 -0.547 115 79 81
0.356852 -0.242243 -0.547 102 70 71
0.357894 -0.242243 -0.547 90 58 59
0.35828 -0.2418 -0.546 67 41 44
0.35932 -0.2418 -0.546 67 41 44
0.36036 -0.2418 -0.546 73 47 50
0.360738 -0.241357 -0.545 74 51 57
0.361112 -0.240914 -0.544 71 48 54
0.360817 -0.240029 -0.542 70 50 59
0.359179 -0.238257 -0.538 76 56 65
0.358195 -0.236929 -0.535 80 60 71
0.355857 -0.234714 -0.53 82 62 73
0.354847 -0.233386 -0.527 74 61 68
0.352474 -0.231171 -0.522 111 98 105
0.352114 -0.230286 -0.52 155 144 152
0.351747 -0.2294 -0.518 130 119 127
0.352052 -0.228957 -0.517 129 118 126
0.352354 -0.228514 -0.516 77 66 74
0.480986 -0.285643 -0.645 124 95 99
0.408948 -0.242243 -0.547 136 96 97
0.405492 -0.239586 -0.541 142 102 103
0.406523 -0.239586 -0.541 142 102 103
0.40454 -0.237814 -0.537 154 105 101
0.403297 -0.236486 -0.534 157 108 104
0.4028 -0.2356 -0.532 163 110 104
0.403054 -0.235157 -0.531 165 112 106
0.402544 -0.234271 -0.529 164 111 103
0.402789 -0.233829 -0.528 162 109 101
0.402265 -0.232943 -0.526 160 110 101
0.403267 -0.232943 -0.526 161 111 102
0.4035 -0.2325 -0.525 163 108 103
0.4045 -0.2325 -0.525 162 107 102
0.404728 -0.232057 -0.524 160 107 101
0.404951 -0.231614 -0.523 160 107 101
0.405948 -0.231614 -0.523 160 107 101
0.406166 -0.231171 -0.522 159 106 100
0.40716 -0.231171 -0.522 159 106 100
0.408154 -0.231171 -0.522 159 106 100
0.408365 -0.230729 -0.521 159 106 100
0.409357 -0.230729 -0.521 159 106 100
0.409562 -0.230286 -0.52 160 107 101
0.410552 -0.230286 -0.52 160 107 101
0.411543 -0.230286 -0.52 160 107 101
0.41174 -0.229843 -0.519 159 106 100
0.412729 -0.229843 -0.519 158 105 99
0.41292 -0.2294 -0.518 157 104 98
0.413907 -0.2294 -0.518 160 107 101
0.414893 -0.2294 -0.518 158 105 99
0.41588 -0.2294 -0.518 158 105 99
0.416062 -0.228957 -0.517 155 102 96
0.417047 -0.228957 -0.517 153 100 94
0.417223 -0.228514 -0.516 155 102 96
0.418206 -0.228514 -0.516 158 105 99
0.419189 -0.228514 -0.516 157 104 98
0.420171 -0.228514 -0.516 156 103 97
0.421154 -0.228514 -0.516 155 102 96
0.422137 -0.228514 -0.516 157 104 98
0.4223 -0.228071 -0.515 159 106 100
0.423281 -0.228071 -0.515 160 107 101
0.424262 -0.228071 -0.515 160 107 101
0.426069 -0.228514 -0.516 159 106 100
0.427051 -0.228514 -0.516 156 103 97
0.428034 -0.228514 -0.516 154 101 95
0.429017 -0.228514 -0.516 150 101 94
0.43 -0.228514 -0.516 148 99 92
0.430983 -0.228514 -0.516 145 96 89
0.432803 -0.228957 -0.517 143 94 87
0.433788 -0.228957 -0.517 142 95 89
0.435613 -0.2294 -0.518 141 94 88
0.4366 -0.2294 -0.518 139 94 88
0.437587 -0.2294 -0.518 136 91 85
0.43942 -0.229843 -0.519 135 92 85
0.440409 -0.229843 -0.519 134 91 84
0.441397 -0.229843 -0.519 131 90 84
0.443238 -0.230286 -0.52 128 87 81
0.444229 -0.230286 -0.52 127 88 81
0.446075 -0.230729 -0.521 127 88 81
0.447926 -0.231171 -0.522 125 86 79
0.44892 -0.231171 -0.522 125 86 79
0.449914 -0.231171 -0.522 126 87 80
0.451772 -0.231614 -0.523 126 89 80
0.453634 -0.232057 -0.524 125 88 79
0.456368 -0.232943 -0.526 125 88 79
0.458239 -0.233386 -0.527 125 88 79
0.460986 -0.234271 -0.529 125 88 79
0.46374 -0.235157 -0.531 125 88 79
0.466502 -0.236043 -0.533 125 88 79
0.469271 -0.236929 -0.535 124 87 78
0.472928 -0.238257 -0.538 122 88 78
0.476595 -0.239586 -0.541 119 85 75
0.480274 -0.240914 -0.544 118 85 76
0.48485 -0.242686 -0.548 119 86 77
0.48944 -0.244457 -0.552 119 86 77
1.14342 -0.283871 -0.641 203 206 189
1.14286 -0.283429 -0.64 202 205 188
1.14229 -0.282986 -0.639 202 205 188
1.14172 -0.282543 -0.638 201 204 187
1.13935 -0.281657 -0.636 201 204 187
1.13877 -0.281214 -0.635 202 205 188
1.13639 -0.280329 -0.633 203 205 191
-0.124313 -0.285982 -0.643 102 107 111
-0.120791 -0.280645 -0.631 101 106 109
-0.117694 -0.276197 -0.621 101 106 109
-0.114448 -0.271305 -0.61 100 105 108
-0.1118 -0.267747 -0.602 98 103 106
-0.10955 -0.265078 -0.596 98 101 106
-0.107506 -0.262854 -0.591 99 102 107
-0.10602 -0.261965 -0.589 99 102 107
-0.104898 -0.261965 -0.589 98 101 106
-0.1036 -0.26152 -0.588 97 101 104
-0.10248 -0.26152 -0.588 95 99 102
-0.101532 -0.261965 -0.589 91 95 98
-0.100751 -0.262854 -0.591 86 90 93
-0.0997943 -0.263299 -0.592 78 81 86
-0.099 -0.264189 -0.594 66 69 74
-0.0981981 -0.265078 -0.596 70 69 75
-0.0973886 -0.265968 -0.598 76 75 81
-0.0965714 -0.266857 -0.6 85 84 90
-0.0957467 -0.267747 -0.602 86 85 91
-0.0950714 -0.269081 -0.605 85 84 90
-0.0943848 -0.270415 -0.608 85 84 90
-0.0936867 -0.27175 -0.611 81 80 88
-0.0929771 -0.273084 -0.614 79 78 86
-0.0925552 -0.275308 -0.619 75 74 82
-0.0916714 -0.276197 -0.621 73 72 80
-0.09078 -0.277087 -0.623 71 70 78
-0.089881 -0.277976 -0.625 68 67 75
-0.0891162 -0.27931 -0.628 65 64 72
-0.0882 -0.2802 -0.63 64 62 73
-0.0871381 -0.280645 -0.631 62 60 71
-0.0860724 -0.28109 -0.632 58 57 65
-0.0848686 -0.28109 -0.632 59 58 66
-0.0836648 -0.28109 -0.632 59 58 66
-0.082461 -0.28109 -0.632 59 58 66
-0.0812571 -0.28109 -0.632 59 58 66
-0.08018 -0.281534 -0.633 60 59 67
-0.0789743 -0.281534 -0.633 60 59 67
-0.0778914 -0.281979 -0.634 60 59 67
-0.0768048 -0.282424 -0.635 61 60 68
-0.0755952 -0.282424 -0.635 61 60 68
-0.0745029 -0.282869 -0.636 64 63 71
-0.0734067 -0.283313 -0.637 66 65 73
-0.0721933 -0.283313 -0.637 68 67 75
-0.0710914 -0.283758 -0.638 69 68 76
-0.0698762 -0.283758 -0.638 70 69 77
-0.068661 -0.283758 -0.638 70 69 77
-0.0675514 -0.284203 -0.639 72 71 77
-0.0663343 -0.284203 -0.639 72 71 77
-0.0651171 -0.284203 -0.639 73 72 78
-0.064 -0.284648 -0.64 73 72 78
-0.062879 -0.285092 -0.641 72 71 77
-0.0617543 -0.285537 -0.642 73 72 78
-0.0605314 -0.285537 -0.642 74 73 79
-0.059401 -0.285982 -0.643 74 73 79
-0.0581762 -0.285982 -0.643 72 71 77
-0.0569514 -0.285982 -0.643 74 73 79
-0.0557267 -0.285982 -0.643 75 74 80
-0.0545867 -0.286427 -0.644 74 73 79
-0.05336 -0.286427 -0.644 74 73 79
-0.0521333 -0.286427 -0.644 74 73 79
-0.0509857 -0.286871 -0.645 74 73 79
-0.0498343 -0.287316 -0.646 73 72 78
-0.0486038 -0.287316 -0.646 72 71 79
-0.0474467 -0.287761 -0.647 72 71 79
-0.0462143 -0.287761 -0.647 72 71 79
-0.0450514 -0.288206 -0.648 71 70 78
-0.0438848 -0.28865 -0.649 71 70 78
-0.0426486 -0.28865 -0.649 71 70 78
-0.0414762 -0.289095 -0.65 71 70 78
-0.0402381 -0.289095 -0.65 71 70 78
0.0919295 -0.257072 -0.578 190 140 143
0.0927086 -0.256183 -0.576 189 138 137
0.0933171 -0.254849 -0.573 188 137 136
0.0942438 -0.254404 -0.572 189 136 132
0.0948333 -0.25307 -0.569 190 137 133
0.0959171 -0.25307 -0.569 192 141 140
0.097001 -0.25307 -0.569 192 141 140
0.0979124 -0.252625 -0.568 191 140 139
0.0989943 -0.252625 -0.568 188 137 136
0.100076 -0.252625 -0.568 189 135 135
0.101158 -0.252625 -0.568 190 136 136
0.10224 -0.252625 -0.568 189 133 132
0.103322 -0.252625 -0.568 186 130 129
0.104404 -0.252625 -0.568 189 131 129
0.105671 -0.25307 -0.569 185 127 125
0.106755 -0.25307 -0.569 181 121 120
0.108029 -0.253514 -0.57 178 118 117
0.109306 -0.253959 -0.571 176 115 114
0.110587 -0.254404 -0.572 173 112 111
0.111871 -0.254849 -0.573 173 109 109
0.11316 -0.255293 -0.574 171 107 107
0.114452 -0.255738 -0.575 172 103 106
0.115749 -0.256183 -0.576 172 103 106
0.117049 -0.256628 -0.577 168 100 101
0.118352 -0.257072 -0.578 160 92 93
0.11966 -0.257517 -0.579 154 86 85
0.120971 -0.257962 -0.58 146 78 77
0.122287 -0.258407 -0.581 139 71 68
0.123606 -0.258851 -0.582 141 73 70
0.124714 -0.258851 -0.582 154 86 85
0.126039 -0.259296 -0.583 164 96 95
0.12715 -0.259296 -0.583 164 96 95
0.12826 -0.259296 -0.583 166 100 102
0.12937 -0.259296 -0.583 168 102 104
0.130481 -0.259296 -0.583 173 107 111
0.131591 -0.259296 -0.583 175 109 113
0.13293 -0.259741 -0.584 176 109 116
0.134042 -0.259741 -0.584 179 112 119
0.135154 -0.259741 -0.584 177 110 117
0.136267 -0.259741 -0.584 175 108 115
0.137379 -0.259741 -0.584 176 107 112
0.138491 -0.259741 -0.584 174 105 110
0.139604 -0.259741 -0.584 170 104 108
0.140716 -0.259741 -0.584 174 108 112
0.141829 -0.259741 -0.584 182 122 122
0.142941 -0.259741 -0.584 194 134 134
0.144053 -0.259741 -0.584 200 145 142
0.144917 -0.259296 -0.583 209 154 151
0.145777 -0.258851 -0.582 211 158 152
0.146381 -0.257962 -0.58 213 160 154
0.147231 -0.257517 -0.579 206 157 150
0.148334 -0.257517 -0.579 197 148 141
0.149179 -0.257072 -0.578 189 145 136
0.15002 -0.256628 -0.577 183 139 130
0.151119 -0.256628 -0.577 186 127 131
0.152218 -0.256628 -0.577 183 124 128
0.153317 -0.256628 -0.577 178 119 123
0.154951 -0.257517 -0.579 178 119 123
0.156324 -0.257962 -0.58 180 123 129
0.1577 -0.258407 -0.581 182 125 131
0.159353 -0.259296 -0.583 181 124 130
0.161014 -0.260186 -0.585 181 124 130
0.162683 -0.261075 -0.587 179 124 130
0.164638 -0.26241 -0.59 166 111 117
0.166324 -0.263299 -0.592 153 102 109
0.1683 -0.264633 -0.595 145 94 101
0.170288 -0.265968 -0.598 145 95 104
0.172573 -0.267747 -0.602 149 99 108
0.174874 -0.269526 -0.606 148 97 104
0.17719 -0.271305 -0.61 144 93 100
0.179814 -0.273529 -0.615 148 114 128
0.182457 -0.275752 -0.62 237 203 217
0.185415 -0.278421 -0.626 255 249 255
0.188396 -0.28109 -0.632 255 249 255
0.1917 -0.284203 -0.639 248 255 255
0.19503 -0.287316 -0.646 246 255 254
0.196261 -0.287316 -0.646 246 255 254
0.356031 -0.25307 -0.569 157 113 126
0.353977 -0.250846 -0.564 155 111 124
0.352533 -0.249067 -0.56 154 107 123
0.351706 -0.247732 -0.557 153 106 122
0.350867 -0.246398 -0.554 156 108 122
0.350651 -0.245509 -0.552 158 110 124
0.351066 -0.245064 -0.551 156 110 121
0.350837 -0.244174 -0.549 155 109 120
0.351242 -0.24373 -0.548 155 110 115
0.352286 -0.24373 -0.548 148 103 108
0.352685 -0.243285 -0.547 142 97 100
0.353727 -0.243285 -0.547 140 95 98
0.35412 -0.24284 -0.546 134 94 94
0.35516 -0.24284 -0.546 125 85 85
0.3562 -0.24284 -0.546 113 78 76
0.35724 -0.24284 -0.546 107 72 70
0.357624 -0.242395 -0.545 86 56 54
0.358662 -0.242395 -0.545 86 56 54
0.3597 -0.242395 -0.545 81 51 49
0.360076 -0.24195 -0.544 67 41 42
0.360449 -0.241506 -0.543 59 33 34
0.360151 -0.240616 -0.541 63 42 47
0.359179 -0.239282 -0.538 72 51 56
0.358865 -0.238392 -0.536 74 54 63
0.3572 -0.236613 -0.532 79 59 68
0.356867 -0.235724 -0.53 76 63 70
0.35585 -0.23439 -0.527 90 77 84
0.354823 -0.233055 -0.524 160 147 156
0.355142 -0.23261 -0.523 182 169 178
0.355457 -0.232166 -0.522 137 125 135
0.356451 -0.232166 -0.522 85 73 83
0.405957 -0.241506 -0.543 147 103 104
0.403993 -0.239727 -0.539 145 101 102
0.40502 -0.239727 -0.539 145 101 102
0.403033 -0.237948 -0.535 151 102 98
0.402542 -0.237058 -0.533 154 105 101
0.402043 -0.236169 -0.531 160 110 103
0.402295 -0.235724 -0.53 164 114 107
0.401783 -0.234834 -0.528 164 114 107
0.402789 -0.234834 -0.528 161 111 104
0.402265 -0.233945 -0.526 160 110 101
0.403267 -0.233945 -0.526 160 110 101
0.4035 -0.2335 -0.525 161 108 104
0.4045 -0.2335 -0.525 159 106 102
0.404728 -0.233055 -0.524 157 104 100
0.404951 -0.23261 -0.523 156 103 99
0.405948 -0.23261 -0.523 155 102 98
0.406166 -0.232166 -0.522 157 104 100
0.40716 -0.232166 -0.522 158 105 101
0.408154 -0.232166 -0.522 159 106 102
0.408365 -0.231721 -0.521 159 106 102
0.409357 -0.231721 -0.521 160 107 103
0.409562 -0.231276 -0.52 160 107 103
0.410552 -0.231276 -0.52 159 106 102
0.411543 -0.231276 -0.52 158 105 101
0.41174 -0.230831 -0.519 157 104 100
0.412729 -0.230831 -0.519 158 105 101
0.41292 -0.230387 -0.518 160 107 103
0.413907 -0.230387 -0.518 160 105 100
0.414893 -0.230387 -0.518 157 102 97
0.41588 -0.230387 -0.518 157 102 97
0.416062 -0.229942 -0.517 155 100 95
0.417047 -0.229942 -0.517 155 100 95
0.418031 -0.229942 -0.517 156 101 96
0.418206 -0.229497 -0.516 160 105 100
0.419189 -0.229497 -0.516 160 105 100
0.420171 -0.229497 -0.516 159 104 99
0.421154 -0.229497 -0.516 160 105 100
0.421319 -0.229052 -0.515 161 106 101
0.4223 -0.229052 -0.515 161 106 101
0.423281 -0.229052 -0.515 161 106 101
0.424262 -0.229052 -0.515 160 105 100
0.425243 -0.229052 -0.515 159 104 99
0.427051 -0.229497 -0.516 155 100 95
0.428034 -0.229497 -0.516 152 97 92
0.429017 -0.229497 -0.516 150 101 94
0.43 -0.229497 -0.516 149 100 93
0.430983 -0.229497 -0.516 144 95 88
0.432803 -0.229942 -0.517 142 93 86
0.433788 -0.229942 -0.517 141 94 86
0.434772 -0.229942 -0.517 141 94 86
0.4366 -0.230387 -0.518 139 95 86
0.437587 -0.230387 -0.518 136 92 83
0.43942 -0.230831 -0.519 133 90 83
0.440409 -0.230831 -0.519 131 88 81
0.441397 -0.230831 -0.519 128 88 80
0.443238 -0.231276 -0.52 128 88 80
0.444229 -0.231276 -0.52 127 89 80
0.446075 -0.231721 -0.521 129 91 82
0.447068 -0.231721 -0.521 127 89 80
0.44892 -0.232166 -0.522 125 87 78
0.449914 -0.232166 -0.522 125 87 78
0.451772 -0.23261 -0.523 126 89 80
0.453634 -0.233055 -0.524 125 88 79
0.456368 -0.233945 -0.526 125 88 79
0.458239 -0.23439 -0.527 125 88 79
0.460986 -0.235279 -0.529 125 88 79
0.46374 -0.236169 -0.531 125 85 77
0.466502 -0.237058 -0.533 124 86 77
0.469271 -0.237948 -0.535 124 86 77
0.472928 -0.239282 -0.538 125 87 78
0.475714 -0.240171 -0.54 122 84 75
0.480274 -0.24195 -0.544 122 85 77
0.483965 -0.243285 -0.547 123 86 78
0.488553 -0.245064 -0.551 122 85 77
1.14286 -0.284648 -0.64 202 205 188
1.14229 -0.284203 -0.639 202 204 190
1.14172 -0.283758 -0.638 202 204 190
1.13935 -0.282869 -0.636 202 204 190
1.13877 -0.282424 -0.635 202 204 190
1.13639 -0.281534 -0.633 203 205 191
1.13579 -0.28109 -0.632 203 205 191
1.1334 -0.2802 -0.63 200 205 183
-0.12412 -0.28676 -0.642 103 107 110
-0.120791 -0.281847 -0.631 100 105 108
-0.117694 -0.27738 -0.621 99 104 107
-0.114448 -0.272467 -0.61 97 102 105
-0.1118 -0.268893 -0.602 96 101 104
-0.10955 -0.266213 -0.596 96 99 104
-0.107324 -0.263533 -0.59 97 100 105
-0.10602 -0.263087 -0.589 98 101 106
-0.10472 -0.26264 -0.588 97 100 105
-0.103424 -0.262193 -0.587 95 98 103
-0.102306 -0.262193 -0.587 92 95 100
-0.101532 -0.263087 -0.589 90 93 98
-0.100751 -0.26398 -0.591 85 88 93
-0.0997943 -0.264427 -0.592 78 78 86
-0.099 -0.26532 -0.594 70 70 78
-0.0981981 -0.266213 -0.596 68 67 73
-0.0973886 -0.267107 -0.598 80 79 85
-0.0965714 -0.268 -0.6 87 86 92
-0.0959057 -0.26934 -0.603 89 88 94
-0.0952286 -0.27068 -0.606 88 87 93
-0.09454 -0.27202 -0.609 84 83 89
-0.09384 -0.27336 -0.612 83 82 88
-0.0929771 -0.274253 -0.614 81 80 86
-0.0922562 -0.275593 -0.617 78 77 83
-0.091819 -0.277827 -0.622 75 74 80
-0.0909257 -0.27872 -0.624 74 73 79
-0.0900248 -0.279613 -0.626 71 70 76
-0.0892581 -0.280953 -0.629 69 68 74
-0.08834 -0.281847 -0.631 66 65 71
-0.0872762 -0.282293 -0.632 62 61 67
-0.0862086 -0.28274 -0.633 58 58 66
-0.0850029 -0.28274 -0.633 57 57 65
-0.0839295 -0.283187 -0.634 57 58 63
-0.0827219 -0.283187 -0.634 57 58 63
-0.0815143 -0.283187 -0.634 57 58 63
-0.0803067 -0.283187 -0.634 58 59 64
-0.079099 -0.283187 -0.634 59 59 67
-0.0780143 -0.283633 -0.635 58 58 66
-0.0768048 -0.283633 -0.635 60 59 67
-0.0757143 -0.28408 -0.636 61 60 68
-0.07462 -0.284527 -0.637 63 62 70
-0.0734067 -0.284527 -0.637 65 64 72
-0.0723067 -0.284973 -0.638 67 66 74
-0.0710914 -0.284973 -0.638 70 69 77
-0.0698762 -0.284973 -0.638 70 68 79
-0.0687686 -0.28542 -0.639 69 67 78
-0.0675514 -0.28542 -0.639 70 69 77
-0.0663343 -0.28542 -0.639 71 70 78
-0.065219 -0.285867 -0.64 72 71 79
-0.064 -0.285867 -0.64 72 71 79
-0.062879 -0.286313 -0.641 73 72 80
-0.0617543 -0.28676 -0.642 73 72 80
-0.0606257 -0.287207 -0.643 73 72 80
-0.059401 -0.287207 -0.643 72 71 79
-0.0581762 -0.287207 -0.643 74 73 81
-0.0569514 -0.287207 -0.643 73 72 80
-0.0557267 -0.287207 -0.643 75 74 80
-0.0545867 -0.287653 -0.644 74 73 79
-0.05336 -0.287653 -0.644 75 74 80
-0.0522143 -0.2881 -0.645 76 75 81
-0.0509857 -0.2881 -0.645 75 74 80
-0.0498343 -0.288547 -0.646 75 74 80
-0.048679 -0.288993 -0.647 75 74 82
-0.0474467 -0.288993 -0.647 74 73 81
-0.0462857 -0.28944 -0.648 73 72 80
-0.0450514 -0.28944 -0.648 72 71 79
-0.0438848 -0.289887 -0.649 71 70 78
-0.0427143 -0.290333 -0.65 70 69 77
-0.0414762 -0.290333 -0.65 70 69 77
0.0919543 -0.28944 -0.648 194 153 157
0.08832 -0.25728 -0.576 195 149 149
0.0887962 -0.255493 -0.572 197 151 151
0.0895714 -0.2546 -0.57 195 141 141
0.0904981 -0.254153 -0.569 186 132 132
0.091421 -0.253707 -0.568 188 130 129
0.09234 -0.25326 -0.567 184 126 125
0.09342 -0.25326 -0.567 182 123 119
0.0943333 -0.252813 -0.566 188 129 125
0.0954114 -0.252813 -0.566 187 131 132
0.0964895 -0.252813 -0.566 188 132 133
0.0975676 -0.252813 -0.566 188 132 131
0.0986457 -0.252813 -0.566 186 130 129
0.0997238 -0.252813 -0.566 187 131 130
0.10098 -0.25326 -0.567 186 130 129
0.10206 -0.25326 -0.567 186 128 127
0.10314 -0.25326 -0.567 184 126 125
0.104404 -0.253707 -0.568 183 123 123
0.105486 -0.253707 -0.568 179 119 119
0.106755 -0.254153 -0.569 176 116 115
0.108029 -0.2546 -0.57 173 113 112
0.109306 -0.255047 -0.571 172 111 110
0.110587 -0.255493 -0.572 170 109 108
0.111871 -0.25594 -0.573 168 104 104
0.11316 -0.256387 -0.574 164 100 100
0.114452 -0.256833 -0.575 167 98 101
0.115749 -0.25728 -0.576 165 96 99
0.117049 -0.257727 -0.577 159 93 94
0.118557 -0.25862 -0.579 153 87 88
0.119867 -0.259067 -0.58 147 82 80
0.12118 -0.259513 -0.581 138 73 71
0.122497 -0.25996 -0.582 131 66 62
0.123606 -0.25996 -0.582 131 66 62
0.124929 -0.260407 -0.583 144 79 75
0.126039 -0.260407 -0.583 144 79 75
0.12715 -0.260407 -0.583 156 91 87
0.12848 -0.260853 -0.584 160 94 95
0.129592 -0.260853 -0.584 161 95 96
0.130705 -0.260853 -0.584 164 99 103
0.131817 -0.260853 -0.584 167 102 106
0.13293 -0.260853 -0.584 170 104 108
0.134271 -0.2613 -0.585 171 105 109
0.135386 -0.2613 -0.585 175 104 112
0.1365 -0.2613 -0.585 172 101 109
0.137614 -0.2613 -0.585 170 99 105
0.138491 -0.260853 -0.584 169 98 104
0.139604 -0.260853 -0.584 171 105 107
0.140716 -0.260853 -0.584 181 115 117
0.141586 -0.260407 -0.583 193 133 133
0.142696 -0.260407 -0.583 206 146 146
0.14356 -0.25996 -0.582 210 157 151
0.144171 -0.259067 -0.58 214 161 155
0.145026 -0.25862 -0.579 214 161 153
0.145624 -0.257727 -0.577 213 160 152
0.146469 -0.25728 -0.576 207 157 146
0.14731 -0.256833 -0.575 198 148 137
0.148147 -0.256387 -0.574 189 143 130
0.14898 -0.25594 -0.573 185 139 126
0.150333 -0.256387 -0.574 186 126 126
0.151427 -0.256387 -0.574 182 122 122
0.15252 -0.256387 -0.574 173 117 120
0.154149 -0.25728 -0.576 169 113 116
0.155515 -0.257727 -0.577 168 113 118
0.157157 -0.25862 -0.579 170 115 120
0.158807 -0.259513 -0.581 174 118 121
0.160739 -0.260853 -0.584 175 119 122
0.162406 -0.261747 -0.586 174 119 124
0.164359 -0.263087 -0.589 168 113 118
0.166043 -0.26398 -0.591 152 101 106
0.168017 -0.26532 -0.594 141 90 95
0.170288 -0.267107 -0.598 137 88 94
0.172287 -0.268447 -0.601 140 91 97
0.174586 -0.270233 -0.605 142 91 98
0.17719 -0.272467 -0.61 144 93 100
0.179522 -0.274253 -0.614 140 103 111
0.182163 -0.276487 -0.619 199 162 170
0.185119 -0.279167 -0.625 255 239 250
0.188396 -0.282293 -0.632 255 246 255
0.1914 -0.284973 -0.638 245 250 254
0.194729 -0.2881 -0.645 245 250 254
0.195957 -0.2881 -0.645 245 250 254
0.198714 -0.290333 -0.65 239 248 255
0.359786 -0.256833 -0.575 151 111 122
0.35586 -0.25326 -0.567 151 111 122
0.353792 -0.251027 -0.562 155 109 122
0.352337 -0.24924 -0.558 155 109 122
0.3515 -0.2479 -0.555 158 110 122
0.350651 -0.24656 -0.552 158 110 122
0.351066 -0.246113 -0.551 156 110 120
0.350837 -0.24522 -0.549 156 110 120
0.351242 -0.244773 -0.548 151 106 113
0.351643 -0.244327 -0.547 152 107 114
0.35204 -0.24388 -0.546 149 104 107
0.35308 -0.24388 -0.546 143 98 101
0.353471 -0.243433 -0.545 139 95 96
0.35451 -0.243433 -0.545 138 94 95
0.355548 -0.243433 -0.545 127 88 83
0.355931 -0.242987 -0.544 117 78 73
0.356968 -0.242987 -0.544 104 71 66
0.358004 -0.242987 -0.544 104 71 66
0.35838 -0.24254 -0.543 95 62 57
0.358752 -0.242093 -0.542 78 48 46
0.359785 -0.242093 -0.542 61 31 29
0.359486 -0.2412 -0.54 52 27 30
0.359179 -0.240307 -0.538 62 37 40
0.358865 -0.239413 -0.536 70 49 54
0.357871 -0.238073 -0.533 76 55 60
0.35754 -0.23718 -0.531 75 58 64
0.357876 -0.236733 -0.53 75 58 64
0.357531 -0.23584 -0.528 95 80 87
0.357858 -0.235393 -0.527 132 117 124
0.358181 -0.234947 -0.526 102 90 102
0.359183 -0.234947 -0.526 78 66 78
0.360185 -0.234947 -0.526 81 73 88
0.481 -0.290333 -0.65 122 91 99
0.477045 -0.287207 -0.643 124 93 101
0.402219 -0.240307 -0.538 146 98 98
0.401745 -0.239413 -0.536 149 101 101
0.402766 -0.239413 -0.536 149 101 101
0.401527 -0.238073 -0.533 153 104 99
0.401031 -0.23718 -0.531 154 105 100
0.401286 -0.236733 -0.53 157 108 101
0.401536 -0.236287 -0.529 159 110 103
0.401783 -0.23584 -0.528 159 110 103
0.402026 -0.235393 -0.527 158 109 102
0.402265 -0.234947 -0.526 159 109 102
0.403267 -0.234947 -0.526 159 109 102
0.4035 -0.2345 -0.525 157 104 100
0.4045 -0.2345 -0.525 157 104 100
0.404728 -0.234053 -0.524 156 103 99
0.404951 -0.233607 -0.523 154 101 97
0.405948 -0.233607 -0.523 152 99 95
0.406166 -0.23316 -0.522 153 100 96
0.40716 -0.23316 -0.522 157 104 100
0.407372 -0.232713 -0.521 159 106 102
0.408365 -0.232713 -0.521 158 105 101
0.409357 -0.232713 -0.521 159 106 102
0.409562 -0.232267 -0.52 158 105 101
0.410552 -0.232267 -0.52 157 104 100
0.410751 -0.23182 -0.519 157 104 100
0.41174 -0.23182 -0.519 156 103 99
0.412729 -0.23182 -0.519 156 103 99
0.41292 -0.231373 -0.518 157 104 100
0.413907 -0.231373 -0.518 156 101 98
0.414893 -0.231373 -0.518 154 99 96
0.41588 -0.231373 -0.518 154 99 96
0.416062 -0.230927 -0.517 153 98 93
