ply
format ascii 1.0
comment Created by Open3D
element vertex 1274
property double x
property double y
property double z
property uchar red
property uchar green
property uchar blue
end_header
0.47377 -0.383438 -0.494 175 133 109
0.47375 -0.382662 -0.493 177 135 111
0.473726 -0.381886 -0.492 175 133 109
0.473698 -0.38111 -0.491 172 130 106
0.473667 -0.380333 -0.49 171 129 105
0.473631 -0.379557 -0.489 170 128 104
0.474563 -0.379557 -0.489 168 126 102
0.474522 -0.378781 -0.488 172 128 103
0.474477 -0.378005 -0.487 173 129 104
0.475405 -0.378005 -0.487 172 128 103
0.476332 -0.378005 -0.487 173 129 104
0.47628 -0.377229 -0.486 175 131 106
0.477206 -0.377229 -0.486 175 131 106
0.478131 -0.377229 -0.486 179 135 110
0.478071 -0.376452 -0.485 175 131 106
0.478995 -0.376452 -0.485 171 127 102
0.479919 -0.376452 -0.485 173 129 104
0.481834 -0.377229 -0.486 169 125 100
0.48276 -0.377229 -0.486 174 130 105
0.483686 -0.377229 -0.486 173 129 102
0.483614 -0.376452 -0.485 168 124 97
0.484538 -0.376452 -0.485 167 121 95
0.485462 -0.376452 -0.485 167 121 95
0.486386 -0.376452 -0.485 167 121 95
0.48731 -0.376452 -0.485 164 118 92
0.488233 -0.376452 -0.485 166 121 92
0.489157 -0.376452 -0.485 168 123 94
0.490081 -0.376452 -0.485 166 121 92
0.491005 -0.376452 -0.485 167 122 93
0.491929 -0.376452 -0.485 167 122 93
0.492852 -0.376452 -0.485 167 122 93
0.493776 -0.376452 -0.485 167 121 95
0.4947 -0.376452 -0.485 166 120 94
0.495624 -0.376452 -0.485 166 120 94
0.497571 -0.377229 -0.486 167 121 95
0.498497 -0.377229 -0.486 166 120 94
0.499423 -0.377229 -0.486 165 121 94
0.500349 -0.377229 -0.486 162 118 93
0.502306 -0.378005 -0.487 161 117 92
0.503233 -0.378005 -0.487 160 116 91
0.504161 -0.378005 -0.487 160 116 91
0.506126 -0.378781 -0.488 160 115 92
0.508094 -0.379557 -0.489 159 114 91
0.509026 -0.379557 -0.489 157 113 88
0.511 -0.380333 -0.49 155 111 86
0.512978 -0.38111 -0.491 151 109 84
0.513913 -0.38111 -0.491 151 109 84
0.516946 -0.382662 -0.493 151 109 85
0.518935 -0.383438 -0.494 152 110 86
0.520929 -0.384214 -0.495 152 110 86
0.52398 -0.385767 -0.497 150 108 84
0.527039 -0.387319 -0.499 145 108 82
0.529048 -0.388095 -0.5 143 106 80
0.581657 -0.419143 -0.54 158 134 110
0.585923 -0.421471 -0.543 192 180 164
0.591281 -0.424576 -0.547 197 185 169
0.594489 -0.426129 -0.549 194 194 186
0.595534 -0.426129 -0.549 194 194 186
0.597667 -0.426905 -0.55 196 196 188
-0.329544 -0.434955 -0.559 226 227 219
-0.328479 -0.434955 -0.559 226 227 219
-0.327414 -0.434955 -0.559 226 227 219
-0.32635 -0.434955 -0.559 226 227 219
-0.325285 -0.434955 -0.559 225 226 218
-0.32422 -0.434955 -0.559 226 227 219
-0.323155 -0.434955 -0.559 226 227 219
-0.321514 -0.434177 -0.558 227 228 222
-0.320451 -0.434177 -0.558 228 229 223
-0.319389 -0.434177 -0.558 227 228 222
-0.318326 -0.434177 -0.558 227 228 222
-0.317263 -0.434177 -0.558 226 227 221
-0.3162 -0.434177 -0.558 226 227 221
-0.315137 -0.434177 -0.558 227 228 222
-0.314074 -0.434177 -0.558 228 229 223
-0.313011 -0.434177 -0.558 227 228 222
-0.311949 -0.434177 -0.558 226 227 221
-0.310886 -0.434177 -0.558 226 227 221
-0.309823 -0.434177 -0.558 226 227 221
-0.30876 -0.434177 -0.558 226 227 221
-0.307697 -0.434177 -0.558 227 228 222
-0.306634 -0.434177 -0.558 228 229 223
-0.305571 -0.434177 -0.558 227 228 222
-0.304509 -0.434177 -0.558 227 228 220
-0.303446 -0.434177 -0.558 227 228 220
-0.302925 -0.434955 -0.559 227 228 220
-0.30186 -0.434955 -0.559 227 228 220
-0.300795 -0.434955 -0.559 227 228 220
-0.29973 -0.434955 -0.559 227 228 222
-0.298666 -0.434955 -0.559 228 229 223
-0.297601 -0.434955 -0.559 228 229 223
-0.296536 -0.434955 -0.559 228 229 223
-0.295471 -0.434955 -0.559 227 228 220
-0.294407 -0.434955 -0.559 227 228 220
-0.293342 -0.434955 -0.559 227 228 220
-0.292277 -0.434955 -0.559 228 229 221
-0.291212 -0.434955 -0.559 229 230 224
-0.290148 -0.434955 -0.559 229 230 224
-0.289083 -0.434955 -0.559 229 230 224
-0.283759 -0.434955 -0.559 228 229 221
-0.282694 -0.434955 -0.559 228 229 221
-0.28163 -0.434955 -0.559 228 229 221
-0.280565 -0.434955 -0.559 229 230 222
-0.2795 -0.434955 -0.559 229 230 222
-0.278435 -0.434955 -0.559 229 231 220
-0.25714 -0.434955 -0.559 229 231 218
-0.256075 -0.434955 -0.559 229 231 218
-0.25501 -0.434955 -0.559 230 231 223
0.0100429 -0.431843 -0.555 191 164 143
0.01108 -0.431065 -0.554 199 164 136
0.0120476 -0.427952 -0.55 198 163 135
0.0129762 -0.424062 -0.545 200 165 137
0.0155257 -0.384379 -0.494 199 162 135
0.0163667 -0.382045 -0.491 198 161 134
0.0171962 -0.37971 -0.488 198 161 134
0.0180886 -0.378932 -0.487 198 161 134
0.0189771 -0.378154 -0.486 199 162 135
0.0198619 -0.377376 -0.485 200 163 136
0.0208286 -0.378154 -0.486 201 164 137
0.0217543 -0.378154 -0.486 201 164 137
0.02268 -0.378154 -0.486 202 162 136
0.0236057 -0.378154 -0.486 201 161 135
0.0245314 -0.378154 -0.486 198 161 132
0.0254571 -0.378154 -0.486 198 161 132
0.0263829 -0.378154 -0.486 200 160 134
0.0273648 -0.378932 -0.487 198 158 132
0.0282924 -0.378932 -0.487 196 157 128
0.02922 -0.378932 -0.487 194 155 126
0.0301476 -0.378932 -0.487 193 154 125
0.031139 -0.37971 -0.488 193 154 125
0.0320686 -0.37971 -0.488 190 151 122
0.0330657 -0.380489 -0.489 188 149 120
0.0339971 -0.380489 -0.489 187 146 118
0.035 -0.381267 -0.49 181 140 112
0.0359333 -0.381267 -0.49 177 136 106
0.0369419 -0.382045 -0.491 174 133 103
0.0379543 -0.382823 -0.492 166 125 95
0.0389705 -0.383601 -0.493 163 122 92
0.0399905 -0.384379 -0.494 162 122 97
0.0409314 -0.384379 -0.494 160 120 95
0.0419571 -0.385157 -0.495 158 117 95
0.0430733 -0.386713 -0.497 156 115 93
0.0441086 -0.387491 -0.498 150 112 93
0.0451476 -0.38827 -0.499 148 110 91
0.0461905 -0.389048 -0.5 143 105 92
0.0473314 -0.390604 -0.502 135 97 84
0.04848 -0.39216 -0.504 128 95 86
0.0495381 -0.392938 -0.505 126 93 84
0.0507 -0.394494 -0.507 119 92 85
0.0518695 -0.39605 -0.509 116 89 82
0.0530467 -0.397607 -0.511 109 88 83
0.0543371 -0.399941 -0.514 107 86 81
0.0555314 -0.401497 -0.516 103 85 81
0.0567333 -0.403053 -0.518 102 84 80
0.0579429 -0.40461 -0.52 100 82 80
0.0592733 -0.406944 -0.523 100 82 80
0.0605 -0.4085 -0.525 100 82 82
0.0618514 -0.410834 -0.528 101 83 83
0.0630952 -0.41239 -0.53 102 84 84
0.0644676 -0.414725 -0.533 102 84 84
0.0657286 -0.416281 -0.535 99 83 83
0.0669971 -0.417837 -0.537 99 83 83
0.0684 -0.420171 -0.54 96 80 80
0.0696857 -0.421728 -0.542 97 81 81
0.0711095 -0.424062 -0.545 99 83 84
0.0724124 -0.425618 -0.547 99 83 84
0.0737229 -0.427174 -0.549 99 83 84
0.0751771 -0.429509 -0.552 98 82 83
0.0765048 -0.431065 -0.554 98 82 83
0.503381 -0.427952 -0.55 130 110 99
0.50076 -0.42484 -0.546 134 109 102
0.497205 -0.42095 -0.541 134 109 102
0.49363 -0.417059 -0.536 138 111 100
0.489114 -0.41239 -0.53 138 111 100
0.490124 -0.41239 -0.53 138 111 100
0.4865 -0.4085 -0.525 140 112 100
0.483786 -0.405388 -0.521 142 114 102
0.481987 -0.403053 -0.518 151 117 105
0.480176 -0.400719 -0.515 154 120 108
0.478354 -0.398385 -0.512 160 121 104
0.477457 -0.396829 -0.51 161 122 105
0.476552 -0.395272 -0.508 165 122 105
0.47658 -0.394494 -0.507 163 120 103
0.475662 -0.392938 -0.505 165 123 101
0.47568 -0.39216 -0.504 167 125 103
0.474749 -0.390604 -0.502 170 125 102
0.474757 -0.389826 -0.501 171 126 103
0.474762 -0.389048 -0.5 173 129 102
0.474763 -0.38827 -0.499 174 130 103
0.47476 -0.387491 -0.498 170 128 106
0.473798 -0.385935 -0.496 171 129 107
0.473786 -0.385157 -0.495 173 131 107
0.47377 -0.384379 -0.494 175 133 109
0.47375 -0.383601 -0.493 179 134 111
0.473726 -0.382823 -0.492 178 133 110
0.473698 -0.382045 -0.491 174 129 106
0.473667 -0.381267 -0.49 172 127 104
0.4746 -0.381267 -0.49 173 128 105
0.474563 -0.380489 -0.489 172 127 104
0.474522 -0.37971 -0.488 172 127 104
0.475451 -0.37971 -0.488 173 128 105
0.475405 -0.378932 -0.487 173 129 104
0.476332 -0.378932 -0.487 173 129 104
0.47628 -0.378154 -0.486 174 130 105
0.477206 -0.378154 -0.486 176 132 107
0.478131 -0.378154 -0.486 177 132 109
0.478071 -0.377376 -0.485 175 130 107
0.478995 -0.377376 -0.485 172 127 104
0.479919 -0.377376 -0.485 174 129 106
0.480843 -0.377376 -0.485 170 125 102
0.481767 -0.377376 -0.485 173 128 105
0.48269 -0.377376 -0.485 172 128 103
0.483614 -0.377376 -0.485 169 125 100
0.484538 -0.377376 -0.485 167 121 97
0.485462 -0.377376 -0.485 167 121 97
0.485383 -0.376598 -0.484 167 121 97
0.486305 -0.376598 -0.484 166 120 96
0.487227 -0.376598 -0.484 169 123 97
0.488149 -0.376598 -0.484 170 124 98
0.490081 -0.377376 -0.485 168 122 96
0.491005 -0.377376 -0.485 167 121 95
0.491929 -0.377376 -0.485 169 123 97
0.492852 -0.377376 -0.485 169 123 97
0.493776 -0.377376 -0.485 169 123 99
0.4947 -0.377376 -0.485 167 121 97
0.495624 -0.377376 -0.485 165 119 95
0.496548 -0.377376 -0.485 165 119 95
0.498497 -0.378154 -0.486 165 121 94
0.499423 -0.378154 -0.486 164 120 95
0.500349 -0.378154 -0.486 161 117 92
0.501274 -0.378154 -0.486 161 117 92
0.503233 -0.378932 -0.487 161 117 92
0.504161 -0.378932 -0.487 161 117 92
0.505089 -0.378932 -0.487 161 117 92
0.507055 -0.37971 -0.488 160 116 91
0.509026 -0.380489 -0.489 158 114 89
0.509957 -0.380489 -0.489 156 112 87
0.511933 -0.381267 -0.49 154 112 87
0.513913 -0.382045 -0.491 152 110 85
0.514849 -0.382045 -0.491 152 110 85
0.517885 -0.383601 -0.493 153 111 86
0.519876 -0.384379 -0.494 153 111 86
0.521871 -0.385157 -0.495 151 109 84
0.524927 -0.386713 -0.497 149 109 84
0.52799 -0.38827 -0.499 147 107 82
0.53106 -0.389826 -0.501 145 108 82
0.534138 -0.391382 -0.503 144 107 81
0.539351 -0.394494 -0.507 144 107 81
0.543514 -0.396829 -0.51 145 108 82
0.577349 -0.417059 -0.536 141 109 84
0.582686 -0.420171 -0.54 169 152 134
0.586957 -0.422506 -0.543 202 185 167
0.592323 -0.425618 -0.547 196 194 182
0.595534 -0.427174 -0.549 198 196 184
-0.340191 -0.43602 -0.559 226 227 219
-0.339127 -0.43602 -0.559 225 226 218
-0.338062 -0.43602 -0.559 225 226 218
-0.336997 -0.43602 -0.559 225 226 218
-0.335932 -0.43602 -0.559 225 226 218
-0.334868 -0.43602 -0.559 225 228 219
-0.333803 -0.43602 -0.559 225 228 219
-0.332738 -0.43602 -0.559 225 228 219
-0.331673 -0.43602 -0.559 225 228 219
-0.330609 -0.43602 -0.559 225 228 219
-0.329544 -0.43602 -0.559 224 227 218
-0.328479 -0.43602 -0.559 224 227 218
-0.327414 -0.43602 -0.559 224 227 218
-0.325766 -0.43524 -0.558 224 227 218
-0.324703 -0.43524 -0.558 226 227 221
-0.32364 -0.43524 -0.558 226 227 221
-0.322577 -0.43524 -0.558 226 227 221
-0.321514 -0.43524 -0.558 227 228 220
-0.320451 -0.43524 -0.558 227 228 222
-0.319389 -0.43524 -0.558 227 228 222
-0.318326 -0.43524 -0.558 227 228 222
-0.317263 -0.43524 -0.558 227 228 222
-0.3162 -0.43524 -0.558 226 227 221
-0.315137 -0.43524 -0.558 226 227 221
-0.314074 -0.43524 -0.558 227 228 222
-0.313011 -0.43524 -0.558 227 228 222
-0.311949 -0.43524 -0.558 226 227 221
-0.310886 -0.43524 -0.558 227 228 222
-0.309823 -0.43524 -0.558 227 228 222
-0.30876 -0.43524 -0.558 226 227 221
-0.307697 -0.43524 -0.558 227 228 222
-0.306634 -0.43524 -0.558 226 227 221
-0.305571 -0.43524 -0.558 227 228 222
-0.304509 -0.43524 -0.558 227 228 222
-0.303446 -0.43524 -0.558 227 228 222
-0.302383 -0.43524 -0.558 227 228 220
-0.30132 -0.43524 -0.558 228 229 221
-0.300257 -0.43524 -0.558 228 229 223
-0.299194 -0.43524 -0.558 228 229 223
-0.298131 -0.43524 -0.558 228 229 223
-0.297069 -0.43524 -0.558 228 229 223
-0.296006 -0.43524 -0.558 227 228 222
-0.294943 -0.43524 -0.558 227 228 220
-0.29388 -0.43524 -0.558 227 228 220
-0.292817 -0.43524 -0.558 227 228 220
-0.291754 -0.43524 -0.558 228 229 221
0.00898571 -0.4329 -0.555 196 164 139
0.0100248 -0.43212 -0.554 195 163 138
0.01104 -0.43056 -0.552 199 164 136
0.01196 -0.42588 -0.546 199 164 136
0.012881 -0.42198 -0.541 201 164 137
0.0154629 -0.38376 -0.492 196 159 132
0.0163333 -0.3822 -0.49 194 157 130
0.017161 -0.37986 -0.487 195 158 131
0.0180514 -0.37908 -0.486 196 159 132
0.0189771 -0.37908 -0.486 201 162 133
0.0198619 -0.3783 -0.485 202 163 134
0.0207857 -0.3783 -0.485 202 163 134
0.0217543 -0.37908 -0.486 202 163 134
0.02268 -0.37908 -0.486 202 163 134
0.0236057 -0.37908 -0.486 201 162 133
0.0245314 -0.37908 -0.486 197 160 133
0.0254571 -0.37908 -0.486 196 159 132
0.0263829 -0.37908 -0.486 196 159 132
0.0273086 -0.37908 -0.486 196 159 132
0.0282924 -0.37986 -0.487 197 158 129
0.02922 -0.37986 -0.487 195 156 127
0.0301476 -0.37986 -0.487 193 154 125
0.031139 -0.38064 -0.488 192 153 124
0.0320686 -0.38064 -0.488 189 150 121
0.0330657 -0.38142 -0.489 186 147 118
0.0339971 -0.38142 -0.489 185 146 117
0.035 -0.3822 -0.49 180 141 112
0.0359333 -0.3822 -0.49 175 134 104
0.0369419 -0.38298 -0.491 172 131 101
0.0379543 -0.38376 -0.492 165 124 96
0.0389705 -0.38454 -0.493 162 121 93
0.0399905 -0.38532 -0.494 162 122 97
0.0409314 -0.38532 -0.494 158 118 93
0.0420419 -0.38688 -0.496 156 115 93
0.0430733 -0.38766 -0.497 153 112 90
0.0441086 -0.38844 -0.498 147 109 90
0.0452381 -0.39 -0.5 145 107 88
0.0462829 -0.39078 -0.501 140 102 89
0.0474257 -0.39234 -0.503 135 97 84
0.04848 -0.39312 -0.504 128 95 86
0.0496362 -0.39468 -0.506 125 92 83
0.0508 -0.39624 -0.508 115 90 85
0.0519714 -0.3978 -0.51 112 87 82
0.0531505 -0.39936 -0.512 107 88 84
0.0543371 -0.40092 -0.514 106 87 83
0.0555314 -0.40248 -0.516 101 86 83
0.0568429 -0.40482 -0.519 98 83 80
0.0580543 -0.40638 -0.521 100 82 80
0.0592733 -0.40794 -0.523 101 83 81
0.0606152 -0.41028 -0.526 102 84 82
0.0618514 -0.41184 -0.528 102 84 82
0.0632143 -0.41418 -0.531 100 85 82
0.0644676 -0.41574 -0.533 99 84 81
0.0658514 -0.41808 -0.536 98 82 82
0.0671219 -0.41964 -0.538 98 82 82
0.0684 -0.4212 -0.54 97 81 81
0.0696857 -0.42276 -0.542 96 80 80
0.0711095 -0.4251 -0.545 98 82 82
0.0724124 -0.42666 -0.547 98 82 82
0.0738571 -0.429 -0.55 98 82 82
0.0751771 -0.43056 -0.552 99 83 83
0.502594 -0.42744 -0.548 135 110 103
0.499043 -0.42354 -0.543 136 111 104
0.496393 -0.42042 -0.539 136 112 100
0.491883 -0.41574 -0.533 136 112 100
0.488274 -0.41184 -0.528 139 111 100
0.48928 -0.41184 -0.528 139 111 100
0.485643 -0.40794 -0.523 141 113 102
0.482917 -0.40482 -0.519 149 117 104
0.481109 -0.40248 -0.516 152 120 107
0.479289 -0.40014 -0.513 158 119 104
0.478393 -0.39858 -0.511 160 121 106
0.47749 -0.39702 -0.509 166 120 104
0.47658 -0.39546 -0.507 164 118 102
0.476604 -0.39468 -0.506 167 120 100
0.47568 -0.39312 -0.504 170 123 103
0.475694 -0.39234 -0.503 170 124 101
0.474757 -0.39078 -0.501 172 126 103
0.474762 -0.39 -0.5 174 128 104
0.474763 -0.38922 -0.499 174 128 104
0.47476 -0.38844 -0.498 173 128 107
0.474753 -0.38766 -0.497 174 129 108
0.474743 -0.38688 -0.496 174 129 108
0.474729 -0.3861 -0.495 176 131 110
0.47471 -0.38532 -0.494 179 134 111
0.473726 -0.38376 -0.492 177 132 109
0.473698 -0.38298 -0.491 174 129 106
0.474633 -0.38298 -0.491 172 127 104
0.4746 -0.3822 -0.49 175 130 107
0.474563 -0.38142 -0.489 173 128 105
0.475494 -0.38142 -0.489 172 127 104
0.475451 -0.38064 -0.488 173 128 105
0.475405 -0.37986 -0.487 174 130 105
0.475354 -0.37908 -0.486 174 130 105
0.47628 -0.37908 -0.486 175 129 105
0.477206 -0.37908 -0.486 177 131 107
0.478131 -0.37908 -0.486 177 132 109
0.479057 -0.37908 -0.486 174 129 106
0.478995 -0.3783 -0.485 173 128 105
0.479919 -0.3783 -0.485 174 129 106
0.480843 -0.3783 -0.485 169 125 100
0.481767 -0.3783 -0.485 172 128 103
0.48269 -0.3783 -0.485 172 128 103
0.483614 -0.3783 -0.485 171 127 102
0.484538 -0.3783 -0.485 170 124 100
0.485462 -0.3783 -0.485 168 122 98
0.485383 -0.37752 -0.484 168 122 98
0.486305 -0.37752 -0.484 168 122 98
0.487227 -0.37752 -0.484 171 125 101
0.488149 -0.37752 -0.484 172 126 102
0.48907 -0.37752 -0.484 169 123 99
0.489992 -0.37752 -0.484 168 122 98
0.490914 -0.37752 -0.484 170 124 100
0.491836 -0.37752 -0.484 169 123 99
0.492758 -0.37752 -0.484 170 124 100
0.49368 -0.37752 -0.484 169 123 99
0.495624 -0.3783 -0.485 166 120 96
0.496548 -0.3783 -0.485 165 119 95
0.497471 -0.3783 -0.485 165 121 96
0.498395 -0.3783 -0.485 165 119 93
0.499319 -0.3783 -0.485 163 117 91
0.501274 -0.37908 -0.486 162 116 90
0.5022 -0.37908 -0.486 160 116 89
0.503126 -0.37908 -0.486 160 116 89
0.505089 -0.37986 -0.487 160 116 89
0.506016 -0.37986 -0.487 159 115 88
0.507985 -0.38064 -0.488 157 113 86
0.508914 -0.38064 -0.488 156 112 85
0.510889 -0.38142 -0.489 154 112 87
0.512867 -0.3822 -0.49 153 111 86
0.5138 -0.3822 -0.49 153 111 86
0.515784 -0.38298 -0.491 154 112 87
0.517771 -0.38376 -0.492 155 113 88
0.520817 -0.38532 -0.494 153 111 86
0.522814 -0.3861 -0.495 150 110 84
0.525873 -0.38766 -0.497 149 109 83
0.52894 -0.38922 -0.499 148 108 83
0.532014 -0.39078 -0.501 148 108 83
0.535096 -0.39234 -0.503 148 108 83
0.540317 -0.39546 -0.507 148 108 83
0.593365 -0.42666 -0.547 197 194 177
0.595493 -0.42744 -0.548 191 195 181
0.597626 -0.42822 -0.549 192 196 182
-0.339583 -0.436303 -0.558 225 226 218
-0.33852 -0.436303 -0.558 225 226 218
-0.337457 -0.436303 -0.558 225 226 218
-0.336394 -0.436303 -0.558 225 226 218
-0.335331 -0.436303 -0.558 226 227 219
-0.334269 -0.436303 -0.558 225 228 219
-0.333206 -0.436303 -0.558 225 228 219
-0.332143 -0.436303 -0.558 225 228 219
-0.33108 -0.436303 -0.558 225 228 219
-0.330017 -0.436303 -0.558 225 228 219
-0.328954 -0.436303 -0.558 224 227 220
-0.327891 -0.436303 -0.558 224 227 220
-0.326829 -0.436303 -0.558 224 227 220
-0.325766 -0.436303 -0.558 224 227 220
-0.324703 -0.436303 -0.558 225 226 218
-0.32364 -0.436303 -0.558 226 227 219
-0.322577 -0.436303 -0.558 226 227 219
-0.321514 -0.436303 -0.558 227 228 220
-0.320451 -0.436303 -0.558 227 228 222
-0.319389 -0.436303 -0.558 227 228 222
-0.318326 -0.436303 -0.558 227 228 222
-0.317263 -0.436303 -0.558 227 228 222
-0.3162 -0.436303 -0.558 226 227 221
-0.315137 -0.436303 -0.558 226 227 221
-0.314074 -0.436303 -0.558 227 228 222
-0.313011 -0.436303 -0.558 227 228 222
-0.311949 -0.436303 -0.558 227 228 222
-0.310329 -0.435521 -0.557 227 228 222
-0.309268 -0.435521 -0.557 227 228 222
-0.308207 -0.435521 -0.557 226 227 221
-0.307146 -0.435521 -0.557 227 228 222
-0.306085 -0.435521 -0.557 226 227 221
-0.305024 -0.435521 -0.557 227 228 222
-0.303963 -0.435521 -0.557 228 229 223
-0.302902 -0.435521 -0.557 228 229 223
-0.301841 -0.435521 -0.557 228 229 223
-0.30132 -0.436303 -0.558 228 229 223
-0.300257 -0.436303 -0.558 228 229 223
-0.299194 -0.436303 -0.558 228 229 223
-0.298131 -0.436303 -0.558 227 228 222
-0.297069 -0.436303 -0.558 228 229 223
-0.296006 -0.436303 -0.558 227 228 222
-0.294943 -0.436303 -0.558 227 228 220
-0.29388 -0.436303 -0.558 227 228 220
-0.292817 -0.436303 -0.558 227 228 220
-0.291754 -0.436303 -0.558 227 228 220
-0.290691 -0.436303 -0.558 228 229 221
-0.289629 -0.436303 -0.558 228 229 221
-0.288566 -0.436303 -0.558 229 230 224
-0.287503 -0.436303 -0.558 228 229 223
-0.260931 -0.436303 -0.558 229 231 220
-0.259869 -0.436303 -0.558 229 231 220
-0.258806 -0.436303 -0.558 229 231 220
-0.257743 -0.436303 -0.558 228 230 219
-0.25668 -0.436303 -0.558 228 230 219
-0.255617 -0.436303 -0.558 228 230 219
-0.254554 -0.436303 -0.558 229 230 222
-0.253491 -0.436303 -0.558 229 230 222
0.00896952 -0.433175 -0.554 198 164 137
0.00998857 -0.431611 -0.552 196 162 135
0.01098 -0.429266 -0.549 199 162 135
0.0118505 -0.42301 -0.541 199 162 135
0.0127619 -0.419101 -0.536 200 163 136
0.0154314 -0.383915 -0.491 194 157 128
0.0162667 -0.38157 -0.488 192 155 126
0.0171257 -0.380006 -0.486 197 158 129
0.0180514 -0.380006 -0.486 198 159 130
0.0189381 -0.379224 -0.485 201 162 133
0.0198619 -0.379224 -0.485 202 163 134
0.0207857 -0.379224 -0.485 200 161 132
0.0217095 -0.379224 -0.485 200 161 132
0.02268 -0.380006 -0.486 201 162 133
0.0236057 -0.380006 -0.486 200 161 132
0.0245314 -0.380006 -0.486 198 161 134
0.0254571 -0.380006 -0.486 196 159 132
0.0263829 -0.380006 -0.486 194 157 130
0.0273086 -0.380006 -0.486 194 157 130
0.0282924 -0.380788 -0.487 194 157 128
0.02922 -0.380788 -0.487 193 156 127
0.0302095 -0.38157 -0.488 192 153 124
0.031139 -0.38157 -0.488 190 151 122
0.0320686 -0.38157 -0.488 188 149 120
0.0330657 -0.382351 -0.489 184 145 116
0.0339971 -0.382351 -0.489 182 143 114
0.035 -0.383133 -0.49 178 139 110
0.0359333 -0.383133 -0.49 173 134 103
0.0369419 -0.383915 -0.491 168 129 98
0.0379543 -0.384697 -0.492 165 124 96
0.0389705 -0.385479 -0.493 162 121 93
0.0399905 -0.386261 -0.494 159 121 98
0.0410143 -0.387043 -0.495 157 117 92
0.0420419 -0.387825 -0.496 153 112 92
0.0430733 -0.388607 -0.497 150 109 89
0.0441086 -0.389389 -0.498 144 105 88
0.0452381 -0.390952 -0.5 141 102 85
0.0463752 -0.392516 -0.502 137 99 86
0.0474257 -0.393298 -0.503 133 95 82
0.0485762 -0.394862 -0.505 128 95 86
0.0497343 -0.396426 -0.507 125 92 83
0.0509 -0.39799 -0.509 114 89 84
0.0520733 -0.399553 -0.511 111 86 81
0.0532543 -0.401117 -0.513 106 87 83
0.0544429 -0.402681 -0.515 105 86 82
0.055639 -0.404245 -0.517 100 85 82
0.0568429 -0.405809 -0.519 98 83 80
0.0580543 -0.407372 -0.521 102 84 82
0.0593867 -0.409718 -0.524 102 84 82
0.0606152 -0.411282 -0.526 103 85 83
0.0619686 -0.413628 -0.529 103 85 83
0.0632143 -0.415191 -0.531 101 83 81
0.0645886 -0.417537 -0.534 100 82 80
0.0658514 -0.419101 -0.536 101 83 81
0.0671219 -0.420665 -0.538 100 82 80
0.0684 -0.422229 -0.54 99 81 79
0.0698143 -0.424574 -0.543 97 79 77
0.0711095 -0.426138 -0.545 96 80 80
0.0725448 -0.428484 -0.548 97 81 81
0.0738571 -0.430048 -0.55 98 82 82
0.0753133 -0.432393 -0.553 100 84 84
0.503511 -0.429266 -0.549 136 111 104
0.500881 -0.426138 -0.545 138 113 106
0.498235 -0.42301 -0.541 135 113 102
0.494651 -0.419101 -0.536 135 113 102
0.490124 -0.41441 -0.53 135 111 101
0.491133 -0.41441 -0.53 135 111 101
0.4875 -0.4105 -0.525 137 113 103
0.484778 -0.407372 -0.521 146 116 106
0.482041 -0.404245 -0.517 148 118 108
0.481157 -0.402681 -0.515 154 118 104
0.47933 -0.400335 -0.512 155 119 105
0.478429 -0.398771 -0.51 162 119 102
0.47752 -0.397208 -0.508 161 118 101
0.476604 -0.395644 -0.506 165 120 99
0.476624 -0.394862 -0.505 168 123 102
0.475694 -0.393298 -0.503 169 124 101
0.475705 -0.392516 -0.502 170 125 102
0.474762 -0.390952 -0.5 173 128 105
0.474763 -0.39017 -0.499 174 129 106
0.47476 -0.389389 -0.498 173 128 105
0.474753 -0.388607 -0.497 173 128 105
0.474743 -0.387825 -0.496 173 128 105
0.474729 -0.387043 -0.495 174 129 106
0.47471 -0.386261 -0.494 176 131 108
0.474689 -0.385479 -0.493 176 131 108
0.474663 -0.384697 -0.492 174 129 106
0.474633 -0.383915 -0.491 173 128 105
0.4746 -0.383133 -0.49 175 131 106
0.475533 -0.383133 -0.49 174 130 105
0.475494 -0.382351 -0.489 172 128 103
0.475451 -0.38157 -0.488 173 129 104
0.476381 -0.38157 -0.488 174 130 105
0.476332 -0.380788 -0.487 174 130 105
0.47628 -0.380006 -0.486 174 130 105
0.477206 -0.380006 -0.486 175 131 106
0.478131 -0.380006 -0.486 177 133 106
0.479057 -0.380006 -0.486 174 130 103
0.479983 -0.380006 -0.486 173 129 102
0.479919 -0.379224 -0.485 173 129 102
0.480843 -0.379224 -0.485 169 125 98
0.481767 -0.379224 -0.485 170 126 99
0.48269 -0.379224 -0.485 174 128 102
0.483614 -0.379224 -0.485 175 129 103
0.484538 -0.379224 -0.485 172 126 100
0.485462 -0.379224 -0.485 170 124 98
0.485383 -0.378442 -0.484 170 124 98
0.486305 -0.378442 -0.484 170 124 98
0.487227 -0.378442 -0.484 170 124 98
0.488149 -0.378442 -0.484 170 124 98
0.48907 -0.378442 -0.484 168 122 96
0.489992 -0.378442 -0.484 169 123 97
0.490914 -0.378442 -0.484 169 123 97
0.491836 -0.378442 -0.484 168 122 96
0.492758 -0.378442 -0.484 168 122 96
0.49368 -0.378442 -0.484 169 123 97
0.494602 -0.378442 -0.484 168 122 96
0.495524 -0.378442 -0.484 167 121 95
0.497471 -0.379224 -0.485 166 120 94
0.498395 -0.379224 -0.485 166 121 92
0.499319 -0.379224 -0.485 164 119 90
0.500243 -0.379224 -0.485 162 117 88
0.5022 -0.380006 -0.486 161 116 87
0.503126 -0.380006 -0.486 160 115 86
0.504051 -0.380006 -0.486 160 115 86
0.504977 -0.380006 -0.486 159 114 85
0.506944 -0.380788 -0.487 158 113 84
0.508914 -0.38157 -0.488 157 112 83
0.509844 -0.38157 -0.488 154 113 85
0.51182 -0.382351 -0.489 153 112 84
0.5138 -0.383133 -0.49 153 112 84
0.514733 -0.383133 -0.49 155 114 86
0.516719 -0.383915 -0.491 156 114 89
0.518709 -0.384697 -0.492 156 114 89
0.521758 -0.386261 -0.494 153 111 86
0.523757 -0.387043 -0.495 152 110 85
0.52682 -0.388607 -0.497 150 110 84
0.52989 -0.39017 -0.499 150 110 84
0.532969 -0.391734 -0.501 149 109 83
0.536054 -0.393298 -0.503 148 108 82
0.590111 -0.425356 -0.544 201 193 174
0.594407 -0.427702 -0.547 194 194 182
0.596537 -0.428484 -0.548 197 197 185
-0.339583 -0.437366 -0.558 224 225 217
-0.33852 -0.437366 -0.558 225 226 218
-0.337457 -0.437366 -0.558 225 226 218
-0.336394 -0.437366 -0.558 225 226 220
-0.335331 -0.437366 -0.558 225 226 220
-0.334269 -0.437366 -0.558 225 228 221
-0.333206 -0.437366 -0.558 225 228 221
-0.332143 -0.437366 -0.558 225 228 221
-0.330487 -0.436582 -0.557 225 228 221
-0.329426 -0.436582 -0.557 225 228 221
-0.328365 -0.436582 -0.557 224 227 220
-0.327304 -0.436582 -0.557 224 227 220
-0.326243 -0.436582 -0.557 224 227 220
-0.325182 -0.436582 -0.557 224 227 220
-0.324121 -0.436582 -0.557 225 226 218
-0.32306 -0.436582 -0.557 225 226 218
-0.321999 -0.436582 -0.557 226 227 219
-0.321514 -0.437366 -0.558 227 228 220
-0.319877 -0.436582 -0.557 227 228 220
-0.318816 -0.436582 -0.557 226 227 219
-0.317755 -0.436582 -0.557 226 227 221
-0.316694 -0.436582 -0.557 226 227 221
-0.315633 -0.436582 -0.557 226 227 221
-0.314572 -0.436582 -0.557 227 228 222
-0.313511 -0.436582 -0.557 227 228 222
-0.31245 -0.436582 -0.557 227 228 222
-0.31139 -0.436582 -0.557 227 228 222
-0.310329 -0.436582 -0.557 227 228 222
-0.309268 -0.436582 -0.557 227 228 222
-0.308207 -0.436582 -0.557 226 227 221
-0.307146 -0.436582 -0.557 226 227 221
-0.306085 -0.436582 -0.557 227 228 222
-0.305024 -0.436582 -0.557 228 229 223
-0.303417 -0.435798 -0.556 228 229 223
-0.302902 -0.436582 -0.557 228 229 223
-0.301841 -0.436582 -0.557 227 228 222
-0.30078 -0.436582 -0.557 228 229 223
-0.299719 -0.436582 -0.557 228 229 223
-0.298658 -0.436582 -0.557 227 228 222
-0.297597 -0.436582 -0.557 227 228 222
-0.296536 -0.436582 -0.557 228 229 223
-0.295475 -0.436582 -0.557 227 228 222
-0.294414 -0.436582 -0.557 227 228 220
-0.293353 -0.436582 -0.557 226 227 219
-0.292292 -0.436582 -0.557 227 228 220
-0.291231 -0.436582 -0.557 227 228 220
-0.29017 -0.436582 -0.557 228 229 221
0.00893714 -0.432663 -0.552 200 163 136
0.00995238 -0.431095 -0.55 196 159 132
0.01092 -0.42796 -0.546 197 160 133
0.0117848 -0.42169 -0.538 197 160 133
0.0130114 -0.396608 -0.506 199 162 133
0.0137543 -0.390337 -0.498 200 163 134
0.0144962 -0.38485 -0.491 199 162 133
0.0153686 -0.383283 -0.489 194 157 128
0.0162333 -0.381715 -0.487 193 156 127
0.0171257 -0.380931 -0.486 198 159 130
0.0180143 -0.380148 -0.485 199 160 131
0.0189381 -0.380148 -0.485 200 161 132
0.0198619 -0.380148 -0.485 200 161 132
0.0207857 -0.380148 -0.485 200 161 132
0.0217095 -0.380148 -0.485 200 161 132
0.0226333 -0.380148 -0.485 200 161 132
0.0235571 -0.380148 -0.485 200 161 132
0.024481 -0.380148 -0.485 201 161 135
0.0254571 -0.380931 -0.486 198 158 132
0.0263829 -0.380931 -0.486 195 156 127
0.0273086 -0.380931 -0.486 193 154 125
0.0282924 -0.381715 -0.487 193 154 125
0.02922 -0.381715 -0.487 193 154 125
0.0302095 -0.382499 -0.488 191 152 123
0.031139 -0.382499 -0.488 189 150 121
0.0321343 -0.383283 -0.489 187 148 119
0.0330657 -0.383283 -0.489 182 143 114
0.0339971 -0.383283 -0.489 179 138 108
0.035 -0.384067 -0.49 176 135 105
0.0359333 -0.384067 -0.49 172 131 101
0.0369419 -0.38485 -0.491 166 125 95
0.0379543 -0.385634 -0.492 163 122 92
0.0389705 -0.386418 -0.493 161 120 90
0.0399905 -0.387202 -0.494 158 122 100
0.0410143 -0.387986 -0.495 154 116 93
0.0420419 -0.38877 -0.496 149 111 92
0.0430733 -0.389553 -0.497 145 107 88
0.0441971 -0.391121 -0.499 140 103 87
0.0452381 -0.391905 -0.5 137 100 84
0.0463752 -0.393472 -0.502 133 97 85
0.04752 -0.39504 -0.504 129 93 81
0.0486724 -0.396608 -0.506 125 92 85
0.0498324 -0.398175 -0.508 122 89 82
0.0509 -0.398959 -0.509 113 88 84
0.0520733 -0.400527 -0.511 110 85 81
0.0532543 -0.402094 -0.513 104 84 83
0.0544429 -0.403662 -0.515 103 83 82
0.055639 -0.40523 -0.517 100 85 82
0.0568429 -0.406797 -0.519 99 84 81
0.0581657 -0.409149 -0.522 103 84 80
0.0593867 -0.410716 -0.524 102 83 79
0.0607305 -0.413068 -0.527 103 84 80
0.0619686 -0.414635 -0.529 104 85 81
0.0633333 -0.416987 -0.532 103 83 82
0.0645886 -0.418554 -0.534 103 83 82
0.0658514 -0.420122 -0.536 102 82 81
0.0671219 -0.42169 -0.538 100 80 79
0.0685267 -0.424041 -0.541 98 80 78
0.0698143 -0.425609 -0.543 97 79 77
0.0711095 -0.427176 -0.545 98 80 78
0.0725448 -0.429528 -0.548 98 80 78
0.0738571 -0.431095 -0.55 100 82 82
0.0751771 -0.432663 -0.552 102 84 84
0.502719 -0.428744 -0.547 131 108 100
0.500077 -0.425609 -0.543 130 110 101
0.496497 -0.42169 -0.538 130 110 101
0.492898 -0.41777 -0.533 133 110 102
0.48928 -0.413851 -0.528 136 113 105
0.490286 -0.413851 -0.528 136 113 105
0.486639 -0.409932 -0.523 141 112 104
0.483906 -0.406797 -0.519 144 115 107
0.482091 -0.404446 -0.516 150 116 104
0.480266 -0.402094 -0.513 150 116 104
0.479367 -0.400527 -0.511 158 119 102
0.47846 -0.398959 -0.509 158 119 102
0.477546 -0.397391 -0.507 161 118 99
0.476624 -0.395824 -0.505 162 119 100
0.47664 -0.39504 -0.504 166 124 102
0.475705 -0.393472 -0.502 168 126 104
0.474762 -0.391905 -0.5 169 128 106
0.474763 -0.391121 -0.499 171 130 108
0.47476 -0.390337 -0.498 173 129 104
0.474753 -0.389553 -0.497 171 127 102
0.474743 -0.38877 -0.496 172 128 103
0.474729 -0.387986 -0.495 173 129 104
0.47471 -0.387202 -0.494 174 130 105
0.474689 -0.386418 -0.493 175 131 106
0.474663 -0.385634 -0.492 175 131 106
0.474633 -0.38485 -0.491 174 130 105
0.4746 -0.384067 -0.49 174 130 105
0.475533 -0.384067 -0.49 173 129 104
0.475494 -0.383283 -0.489 173 129 102
0.475451 -0.382499 -0.488 173 129 102
0.476381 -0.382499 -0.488 173 129 102
0.476332 -0.381715 -0.487 173 129 102
0.47628 -0.380931 -0.486 174 130 103
0.477206 -0.380931 -0.486 174 130 103
0.478131 -0.380931 -0.486 178 133 104
0.479057 -0.380931 -0.486 174 129 100
0.479983 -0.380931 -0.486 174 129 100
0.479919 -0.380148 -0.485 174 129 100
0.480843 -0.380148 -0.485 172 127 98
0.481767 -0.380148 -0.485 172 127 98
0.48269 -0.380148 -0.485 175 130 101
0.483614 -0.380148 -0.485 175 130 101
0.484538 -0.380148 -0.485 174 129 100
0.484461 -0.379364 -0.484 172 127 98
0.485383 -0.379364 -0.484 172 127 98
0.486305 -0.379364 -0.484 171 126 97
0.487227 -0.379364 -0.484 171 126 97
0.488149 -0.379364 -0.484 170 125 96
0.48907 -0.379364 -0.484 168 123 94
0.489992 -0.379364 -0.484 169 124 95
0.490914 -0.379364 -0.484 170 123 95
0.491836 -0.379364 -0.484 169 122 94
0.492758 -0.379364 -0.484 168 121 93
0.49368 -0.379364 -0.484 169 122 94
0.494602 -0.379364 -0.484 170 123 95
0.495524 -0.379364 -0.484 169 122 94
0.496446 -0.379364 -0.484 166 121 92
0.497368 -0.379364 -0.484 168 121 91
0.499319 -0.380148 -0.485 165 118 88
0.500243 -0.380148 -0.485 164 117 87
0.501167 -0.380148 -0.485 162 115 85
0.50209 -0.380148 -0.485 161 114 84
0.503014 -0.380148 -0.485 161 116 85
0.504977 -0.380931 -0.486 160 115 84
0.505903 -0.380931 -0.486 159 114 83
0.507871 -0.381715 -0.487 158 113 82
0.508799 -0.381715 -0.487 156 112 85
0.510773 -0.382499 -0.488 156 112 85
0.512751 -0.383283 -0.489 155 111 84
0.513683 -0.383283 -0.489 156 112 85
0.515667 -0.384067 -0.49 157 116 88
0.517654 -0.38485 -0.491 157 116 88
0.519646 -0.385634 -0.492 155 113 88
0.521641 -0.386418 -0.493 154 112 87
0.5247 -0.387986 -0.495 153 111 86
0.527767 -0.389553 -0.497 153 111 86
0.530841 -0.391121 -0.499 150 110 84
0.533923 -0.392689 -0.501 148 108 82
0.587941 -0.424825 -0.542 189 173 150
0.591147 -0.426392 -0.544 200 194 182
0.595449 -0.428744 -0.547 198 192 180
0.597581 -0.429528 -0.548 194 193 188
-0.338974 -0.437643 -0.557 223 226 217
-0.337913 -0.437643 -0.557 224 227 218
-0.337457 -0.438429 -0.558 224 227 218
-0.336394 -0.438429 -0.558 223 226 219
-0.335331 -0.438429 -0.558 224 227 220
-0.33367 -0.437643 -0.557 225 228 221
-0.332609 -0.437643 -0.557 225 228 221
-0.331548 -0.437643 -0.557 225 228 221
-0.330487 -0.437643 -0.557 225 228 221
-0.329426 -0.437643 -0.557 225 228 221
-0.328365 -0.437643 -0.557 225 228 221
-0.327304 -0.437643 -0.557 224 227 220
-0.326243 -0.437643 -0.557 224 227 220
-0.325182 -0.437643 -0.557 224 227 220
-0.324121 -0.437643 -0.557 225 226 218
-0.32306 -0.437643 -0.557 225 226 218
-0.321999 -0.437643 -0.557 226 227 219
-0.320938 -0.437643 -0.557 227 228 220
-0.319877 -0.437643 -0.557 227 228 220
-0.318816 -0.437643 -0.557 227 228 220
-0.317755 -0.437643 -0.557 226 227 219
-0.316694 -0.437643 -0.557 226 227 219
-0.315067 -0.436857 -0.556 226 227 219
-0.314008 -0.436857 -0.556 227 228 222
-0.312949 -0.436857 -0.556 226 227 221
-0.31189 -0.436857 -0.556 226 227 221
-0.31083 -0.436857 -0.556 226 227 221
-0.309771 -0.436857 -0.556 226 227 221
-0.308712 -0.436857 -0.556 227 228 222
-0.307653 -0.436857 -0.556 227 228 222
-0.306594 -0.436857 -0.556 226 227 221
-0.305535 -0.436857 -0.556 228 229 223
-0.304476 -0.436857 -0.556 228 229 223
-0.303417 -0.436857 -0.556 228 229 223
-0.302358 -0.436857 -0.556 227 228 222
-0.301299 -0.436857 -0.556 227 228 222
-0.30024 -0.436857 -0.556 227 228 222
-0.299719 -0.437643 -0.557 228 229 223
-0.298658 -0.437643 -0.557 227 228 222
-0.297597 -0.437643 -0.557 227 228 222
-0.296004 -0.436857 -0.556 228 229 221
-0.294945 -0.436857 -0.556 227 228 220
-0.293886 -0.436857 -0.556 227 228 220
-0.292827 -0.436857 -0.556 226 227 219
-0.291768 -0.436857 -0.556 227 228 220
-0.291231 -0.437643 -0.557 227 228 220
-0.29017 -0.437643 -0.557 228 229 221
-0.28911 -0.437643 -0.557 228 229 221
-0.288049 -0.437643 -0.557 227 228 222
-0.286988 -0.437643 -0.557 227 228 222
-0.285927 -0.437643 -0.557 227 228 222
-0.261525 -0.437643 -0.557 227 228 220
-0.260464 -0.437643 -0.557 227 228 220
-0.259403 -0.437643 -0.557 228 229 221
-0.258342 -0.437643 -0.557 228 229 221
-0.257281 -0.437643 -0.557 228 229 221
-0.25622 -0.437643 -0.557 228 229 221
-0.255159 -0.437643 -0.557 228 229 221
-0.254098 -0.437643 -0.557 229 230 222
-0.253037 -0.437643 -0.557 229 230 222
-0.251976 -0.437643 -0.557 228 229 221
-0.249854 -0.437643 -0.557 229 230 222
-0.248793 -0.437643 -0.557 229 230 222
-0.247732 -0.437643 -0.557 229 230 222
-0.246671 -0.437643 -0.557 229 230 222
-0.24561 -0.437643 -0.557 229 230 222
-0.24455 -0.437643 -0.557 228 229 221
-0.243489 -0.437643 -0.557 228 229 221
-0.242428 -0.437643 -0.557 227 228 220
-0.162564 -0.436857 -0.556 232 233 227
-0.161505 -0.436857 -0.556 232 233 227
-0.160446 -0.436857 -0.556 232 233 227
-0.159387 -0.436857 -0.556 232 233 227
-0.158328 -0.436857 -0.556 232 233 227
0.00685905 -0.435286 -0.554 195 163 138
0.0079 -0.4345 -0.553 193 161 136
0.00892095 -0.432929 -0.551 200 161 132
0.00993429 -0.431357 -0.549 196 157 128
0.0129086 -0.394429 -0.502 198 161 132
0.0136714 -0.388929 -0.495 199 162 133
0.0144667 -0.385 -0.49 199 162 133
0.0153371 -0.383429 -0.488 199 160 131
0.0162 -0.381857 -0.486 198 159 130
0.0170905 -0.381071 -0.485 200 161 132
0.0180143 -0.381071 -0.485 199 160 131
0.0189381 -0.381071 -0.485 198 159 130
0.0198619 -0.381071 -0.485 198 159 130
0.0207857 -0.381071 -0.485 200 161 132
0.0217095 -0.381071 -0.485 201 162 133
0.0226333 -0.381071 -0.485 201 162 133
0.0235571 -0.381071 -0.485 200 161 132
0.024481 -0.381071 -0.485 199 160 131
0.0254571 -0.381857 -0.486 197 158 129
0.0263829 -0.381857 -0.486 194 155 126
0.0273086 -0.381857 -0.486 193 154 125
0.0282924 -0.382643 -0.487 192 153 122
0.02922 -0.382643 -0.487 191 152 121
0.0302095 -0.383429 -0.488 191 150 122
0.031139 -0.383429 -0.488 190 149 121
0.0321343 -0.384214 -0.489 188 147 119
0.0330657 -0.384214 -0.489 183 142 114
0.0339971 -0.384214 -0.489 176 135 105
0.035 -0.385 -0.49 174 133 103
0.0360067 -0.385786 -0.491 170 129 97
0.0369419 -0.385786 -0.491 163 122 90
0.0379543 -0.386571 -0.492 161 120 90
0.0389705 -0.387357 -0.493 159 118 88
0.0399905 -0.388143 -0.494 156 119 100
0.0410143 -0.388929 -0.495 151 115 93
0.0420419 -0.389714 -0.496 146 109 91
0.04316 -0.391286 -0.498 143 106 88
0.0441971 -0.392071 -0.499 139 101 88
0.0453286 -0.393643 -0.501 136 98 85
0.0464676 -0.395214 -0.503 132 95 86
0.04752 -0.396 -0.504 128 91 82
0.0486724 -0.397571 -0.506 123 90 83
0.0498324 -0.399143 -0.508 121 88 81
0.051 -0.400714 -0.51 112 87 83
0.0521752 -0.402286 -0.512 109 84 80
0.0533581 -0.403857 -0.514 104 84 83
0.0545486 -0.405429 -0.516 103 83 82
0.0557467 -0.407 -0.518 101 83 83
0.0569524 -0.408571 -0.52 101 83 83
0.0581657 -0.410143 -0.522 102 81 78
0.0595 -0.4125 -0.525 103 82 79
0.0607305 -0.414071 -0.527 105 84 81
0.0620857 -0.416429 -0.53 106 85 82
0.0633333 -0.418 -0.532 106 85 82
0.0647095 -0.420357 -0.535 105 84 81
0.0659743 -0.421929 -0.537 103 82 81
0.0672467 -0.4235 -0.539 100 79 78
0.0685267 -0.425071 -0.541 99 79 78
0.0698143 -0.426643 -0.543 100 80 79
0.0711095 -0.428214 -0.545 99 79 78
0.0725448 -0.430571 -0.548 99 79 78
0.0738571 -0.432143 -0.55 100 80 79
0.0751771 -0.433714 -0.552 103 83 82
0.501919 -0.428214 -0.545 126 107 100
0.498343 -0.424286 -0.54 128 109 102
0.494748 -0.420357 -0.535 135 112 104
0.491133 -0.416429 -0.53 137 114 106
0.4875 -0.4125 -0.525 139 112 103
0.4885 -0.4125 -0.525 139 112 103
0.485771 -0.409357 -0.521 141 114 105
0.48396 -0.407 -0.518 148 116 105
0.482138 -0.404643 -0.515 149 117 106
0.480305 -0.402286 -0.512 155 117 104
0.4794 -0.400714 -0.51 156 118 105
0.478488 -0.399143 -0.508 158 117 99
0.477568 -0.397571 -0.506 159 118 100
0.47664 -0.396 -0.504 164 123 103
0.475705 -0.394429 -0.502 167 126 106
0.474762 -0.392857 -0.5 165 127 106
0.474763 -0.392071 -0.499 167 129 108
0.47476 -0.391286 -0.498 172 128 103
0.474753 -0.3905 -0.497 170 126 101
0.474743 -0.389714 -0.496 171 127 102
0.474729 -0.388929 -0.495 172 128 103
0.47471 -0.388143 -0.494 173 129 102
0.474689 -0.387357 -0.493 175 131 104
0.474663 -0.386571 -0.492 175 131 104
0.474633 -0.385786 -0.491 173 129 102
0.4746 -0.385 -0.49 172 128 101
0.475533 -0.385 -0.49 173 129 102
0.475494 -0.384214 -0.489 174 130 103
0.475451 -0.383429 -0.488 173 129 102
0.476381 -0.383429 -0.488 172 128 101
0.476332 -0.382643 -0.487 173 129 102
0.47628 -0.381857 -0.486 174 130 101
0.477206 -0.381857 -0.486 174 130 101
0.477148 -0.381071 -0.485 178 132 106
0.478071 -0.381071 -0.485 175 129 103
0.478995 -0.381071 -0.485 175 129 103
0.479919 -0.381071 -0.485 173 127 101
0.480843 -0.381071 -0.485 172 126 100
0.481767 -0.381071 -0.485 171 125 99
0.48269 -0.381071 -0.485 175 130 101
0.483614 -0.381071 -0.485 175 130 101
0.484538 -0.381071 -0.485 175 130 101
0.484461 -0.380286 -0.484 172 127 98
0.485383 -0.380286 -0.484 172 127 98
0.486305 -0.380286 -0.484 171 126 97
0.487227 -0.380286 -0.484 171 126 97
0.488149 -0.380286 -0.484 172 127 98
0.48907 -0.380286 -0.484 170 125 96
0.489992 -0.380286 -0.484 170 125 96
0.490914 -0.380286 -0.484 169 122 92
0.491836 -0.380286 -0.484 170 123 93
0.492758 -0.380286 -0.484 170 123 93
0.49368 -0.380286 -0.484 170 123 93
0.494602 -0.380286 -0.484 171 124 94
0.495524 -0.380286 -0.484 169 122 92
0.496446 -0.380286 -0.484 167 120 90
0.497368 -0.380286 -0.484 168 121 91
0.49829 -0.380286 -0.484 165 118 90
0.500243 -0.381071 -0.485 164 117 89
0.501167 -0.381071 -0.485 164 117 87
0.50209 -0.381071 -0.485 164 117 87
0.503014 -0.381071 -0.485 163 118 87
0.503938 -0.381071 -0.485 162 117 86
0.504862 -0.381071 -0.485 160 115 86
0.506829 -0.381857 -0.486 158 113 84
0.507754 -0.381857 -0.486 158 112 86
0.509727 -0.382643 -0.487 158 112 86
0.511703 -0.383429 -0.488 156 112 85
0.512632 -0.383429 -0.488 156 112 85
0.514614 -0.384214 -0.489 157 113 86
0.5166 -0.385 -0.49 159 115 88
0.51859 -0.385786 -0.491 159 115 88
0.520583 -0.386571 -0.492 158 114 87
0.52258 -0.387357 -0.493 155 113 88
0.525643 -0.388929 -0.495 154 112 87
0.528713 -0.3905 -0.497 151 111 85
0.531791 -0.392071 -0.499 149 109 83
0.592183 -0.427429 -0.544 200 186 173
0.5954 -0.429 -0.546 195 190 186
-0.338974 -0.438704 -0.557 224 227 218
-0.337913 -0.438704 -0.557 224 227 218
-0.336852 -0.438704 -0.557 224 227 218
-0.335791 -0.438704 -0.557 224 227 218
-0.33473 -0.438704 -0.557 223 226 217
-0.33367 -0.438704 -0.557 224 227 220
-0.332609 -0.438704 -0.557 224 227 220
-0.331548 -0.438704 -0.557 224 227 220
-0.330487 -0.438704 -0.557 224 227 220
-0.328834 -0.437916 -0.556 225 228 221
-0.327775 -0.437916 -0.556 225 228 221
-0.326716 -0.437916 -0.556 225 228 221
-0.325657 -0.437916 -0.556 225 228 221
-0.324598 -0.437916 -0.556 225 228 221
-0.323539 -0.437916 -0.556 225 226 218
-0.32248 -0.437916 -0.556 226 227 219
-0.321421 -0.437916 -0.556 227 228 220
-0.320362 -0.437916 -0.556 227 228 220
-0.319877 -0.438704 -0.557 227 228 220
-0.318244 -0.437916 -0.556 227 228 220
-0.317185 -0.437916 -0.556 226 227 219
-0.316126 -0.437916 -0.556 226 227 219
-0.315067 -0.437916 -0.556 226 227 219
-0.314008 -0.437916 -0.556 226 227 219
-0.312949 -0.437916 -0.556 225 226 218
-0.31189 -0.437916 -0.556 225 226 220
-0.31083 -0.437916 -0.556 226 227 221
-0.309771 -0.437916 -0.556 226 227 221
-0.308157 -0.437129 -0.555 227 228 222
-0.3071 -0.437129 -0.555 227 228 222
-0.306043 -0.437129 -0.555 227 228 222
-0.304986 -0.437129 -0.555 227 228 222
-0.303929 -0.437129 -0.555 227 228 222
-0.302871 -0.437129 -0.555 227 228 222
-0.301814 -0.437129 -0.555 227 228 222
-0.301299 -0.437916 -0.556 227 228 222
-0.30024 -0.437916 -0.556 227 228 222
-0.299181 -0.437916 -0.556 228 229 221
-0.298122 -0.437916 -0.556 228 229 221
-0.297063 -0.437916 -0.556 228 229 221
-0.296004 -0.437916 -0.556 228 229 221
-0.294945 -0.437916 -0.556 228 229 221
-0.293886 -0.437916 -0.556 227 228 222
-0.292827 -0.437916 -0.556 227 228 222
-0.291768 -0.437916 -0.556 227 228 220
-0.290709 -0.437916 -0.556 227 228 220
-0.28965 -0.437916 -0.556 228 229 221
-0.28859 -0.437916 -0.556 228 229 221
-0.288049 -0.438704 -0.557 227 228 222
-0.286988 -0.438704 -0.557 227 228 222
-0.285927 -0.438704 -0.557 227 228 222
-0.258937 -0.437916 -0.556 228 229 221
-0.257878 -0.437916 -0.556 228 229 221
-0.256819 -0.437916 -0.556 228 229 221
-0.25576 -0.437916 -0.556 228 229 221
-0.254701 -0.437916 -0.556 228 229 221
-0.24411 -0.437916 -0.556 228 229 221
-0.243051 -0.437916 -0.556 228 229 221
-0.241992 -0.437916 -0.556 228 229 221
-0.240933 -0.437916 -0.556 227 228 220
0.00684667 -0.435553 -0.553 201 165 139
0.00787143 -0.433978 -0.551 199 163 137
0.00887238 -0.431615 -0.548 200 163 137
0.00988 -0.43004 -0.546 198 161 135
0.0128057 -0.392234 -0.498 196 159 130
0.0136162 -0.388296 -0.493 199 162 133
0.0144371 -0.385146 -0.489 199 162 133
0.0153057 -0.38357 -0.487 200 163 134
0.0161667 -0.381995 -0.485 198 161 132
0.0170552 -0.381208 -0.484 201 161 135
0.0179771 -0.381208 -0.484 199 159 133
0.018899 -0.381208 -0.484 197 157 131
0.0198619 -0.381995 -0.485 198 158 132
0.0207857 -0.381995 -0.485 201 161 135
0.0217095 -0.381995 -0.485 202 162 136
0.0226333 -0.381995 -0.485 200 160 134
0.0235571 -0.381995 -0.485 198 158 132
0.024481 -0.381995 -0.485 199 160 129
0.0254571 -0.382783 -0.486 196 157 126
0.0263829 -0.382783 -0.486 193 154 123
0.0273086 -0.382783 -0.486 192 153 122
0.0282343 -0.382783 -0.486 191 152 121
0.02922 -0.38357 -0.487 190 151 120
0.0301476 -0.38357 -0.487 190 151 122
0.031139 -0.384358 -0.488 188 149 120
0.0321343 -0.385146 -0.489 187 148 119
0.0330657 -0.385146 -0.489 181 142 113
0.0339971 -0.385146 -0.489 173 134 105
0.035 -0.385933 -0.49 170 131 102
0.0360067 -0.386721 -0.491 169 130 101
0.0370171 -0.387509 -0.492 165 126 97
0.0380314 -0.388296 -0.493 161 121 95
0.0389705 -0.388296 -0.493 155 115 89
0.0399905 -0.389084 -0.494 160 117 98
0.0410143 -0.389871 -0.495 149 112 93
0.0421267 -0.391447 -0.497 144 108 92
0.04316 -0.392234 -0.498 142 106 90
0.0442857 -0.39381 -0.5 137 101 87
0.0453286 -0.394597 -0.501 135 99 85
0.0464676 -0.396172 -0.503 133 96 87
0.0476143 -0.397748 -0.505 129 92 83
0.0486724 -0.398535 -0.506 123 90 85
0.0498324 -0.40011 -0.508 120 87 82
0.051 -0.401686 -0.51 111 85 84
0.0521752 -0.403261 -0.512 109 83 82
0.0533581 -0.404836 -0.514 104 84 85
0.0546543 -0.407199 -0.517 103 83 84
0.0558543 -0.408774 -0.519 100 82 82
0.0570619 -0.41035 -0.521 100 82 82
0.0582771 -0.411925 -0.523 102 81 78
0.0595 -0.4135 -0.525 104 83 80
0.0608457 -0.415863 -0.528 105 84 81
0.0620857 -0.417438 -0.53 105 84 81
0.0634524 -0.419801 -0.533 106 85 82
0.0647095 -0.421376 -0.535 104 83 80
0.0659743 -0.422951 -0.537 102 81 78
0.0672467 -0.424527 -0.539 101 80 77
0.0685267 -0.426102 -0.541 101 80 79
0.0698143 -0.427677 -0.543 102 81 80
0.0711095 -0.429252 -0.545 100 79 78
0.0725448 -0.431615 -0.548 101 80 79
0.0738571 -0.43319 -0.55 101 80 79
0.0751771 -0.434766 -0.552 104 83 82
0.50284 -0.43004 -0.546 125 106 99
0.500189 -0.42689 -0.542 128 109 102
0.496597 -0.422951 -0.537 136 113 105
0.49206 -0.418226 -0.531 138 115 107
0.488429 -0.414288 -0.526 142 112 102
0.485709 -0.411137 -0.522 143 113 103
0.486703 -0.411137 -0.522 143 113 103
0.484894 -0.408774 -0.519 148 114 104
0.483074 -0.406411 -0.516 149 115 105
0.481243 -0.404049 -0.513 153 117 103
0.48034 -0.402473 -0.511 155 119 105
0.478488 -0.40011 -0.508 157 118 101
0.477568 -0.398535 -0.506 156 117 100
0.477586 -0.397748 -0.505 160 122 101
0.476652 -0.396172 -0.503 163 125 104
0.475711 -0.394597 -0.501 164 126 105
0.474763 -0.393022 -0.499 165 127 106
0.47476 -0.392234 -0.498 171 127 102
0.474753 -0.391447 -0.497 170 126 101
0.474743 -0.390659 -0.496 170 126 101
0.474729 -0.389871 -0.495 172 128 103
0.47471 -0.389084 -0.494 173 129 104
0.474689 -0.388296 -0.493 174 130 105
0.474663 -0.387509 -0.492 174 130 103
0.474633 -0.386721 -0.491 172 128 101
0.4746 -0.385933 -0.49 172 128 101
0.475533 -0.385933 -0.49 174 130 103
0.475494 -0.385146 -0.489 174 130 103
0.475451 -0.384358 -0.488 172 128 101
0.476381 -0.384358 -0.488 173 127 101
0.476332 -0.38357 -0.487 175 129 103
0.47628 -0.382783 -0.486 176 131 102
0.477206 -0.382783 -0.486 175 130 101
0.477148 -0.381995 -0.485 177 131 105
0.478071 -0.381995 -0.485 175 129 103
0.478995 -0.381995 -0.485 176 130 104
0.479919 -0.381995 -0.485 173 127 101
0.479851 -0.381208 -0.484 173 127 101
0.480773 -0.381208 -0.484 171 125 99
0.481695 -0.381208 -0.484 175 130 101
0.482617 -0.381208 -0.484 175 130 101
0.483539 -0.381208 -0.484 175 130 101
0.484461 -0.381208 -0.484 172 127 98
0.485383 -0.381208 -0.484 172 127 98
0.486305 -0.381208 -0.484 171 126 97
0.487227 -0.381208 -0.484 171 126 97
0.488149 -0.381208 -0.484 173 128 99
0.48907 -0.381208 -0.484 172 127 96
0.489992 -0.381208 -0.484 171 126 95
0.490914 -0.381208 -0.484 170 123 93
0.491836 -0.381208 -0.484 170 123 93
0.492758 -0.381208 -0.484 170 124 91
0.49368 -0.381208 -0.484 169 123 90
0.494602 -0.381208 -0.484 169 122 92
0.495524 -0.381208 -0.484 168 121 91
0.496446 -0.381208 -0.484 168 121 91
0.49634 -0.38042 -0.483 169 122 94
0.49829 -0.381208 -0.484 164 119 90
0.499211 -0.381208 -0.484 164 119 90
0.500133 -0.381208 -0.484 164 119 90
0.50209 -0.381995 -0.485 164 119 90
0.503014 -0.381995 -0.485 164 119 90
0.503938 -0.381995 -0.485 163 118 89
0.504862 -0.381995 -0.485 160 114 88
0.505786 -0.381995 -0.485 157 111 85
0.507754 -0.382783 -0.486 160 114 88
0.50868 -0.382783 -0.486 159 113 87
0.510654 -0.38357 -0.487 157 113 86
0.511582 -0.38357 -0.487 156 112 85
0.513562 -0.384358 -0.488 156 112 85
0.515546 -0.385146 -0.489 159 115 88
0.517533 -0.385933 -0.49 160 116 89
0.519525 -0.386721 -0.491 159 115 88
0.52152 -0.387509 -0.492 156 115 87
0.523519 -0.388296 -0.493 154 113 85
0.525522 -0.389084 -0.494 152 112 86
0.59644 -0.43004 -0.546 196 188 185
0.598574 -0.430828 -0.547 194 191 186
-0.338366 -0.438975 -0.556 224 227 218
-0.337307 -0.438975 -0.556 224 227 218
-0.336248 -0.438975 -0.556 224 227 218
-0.335791 -0.439765 -0.557 225 228 219
-0.33473 -0.439765 -0.557 224 227 218
-0.33367 -0.439765 -0.557 224 227 218
-0.332011 -0.438975 -0.556 224 227 218
-0.330952 -0.438975 -0.556 224 227 220
-0.329893 -0.438975 -0.556 224 227 220
-0.328834 -0.438975 -0.556 224 227 220
-0.327775 -0.438975 -0.556 225 228 221
-0.326716 -0.438975 -0.556 225 228 221
-0.325657 -0.438975 -0.556 225 228 221
-0.324598 -0.438975 -0.556 225 228 221
-0.323539 -0.438975 -0.556 226 227 219
-0.32248 -0.438975 -0.556 227 228 220
-0.321421 -0.438975 -0.556 227 228 220
-0.320362 -0.438975 -0.556 227 228 220
-0.319303 -0.438975 -0.556 228 229 221
-0.318244 -0.438975 -0.556 227 228 220
-0.316614 -0.438186 -0.555 226 227 219
-0.315557 -0.438186 -0.555 226 227 219
