ply
format ascii 1.0
comment Created by Open3D
element vertex 1294
property double x
property double y
property double z
property uchar red
property uchar green
property uchar blue
end_header
0.346509 -0.0899829 -0.522 155 120 127
0.347503 -0.0899829 -0.522 151 116 123
0.348497 -0.0899829 -0.522 146 111 118
0.349491 -0.0899829 -0.522 146 113 120
0.350486 -0.0899829 -0.522 145 112 119
0.35148 -0.0899829 -0.522 145 109 119
0.352474 -0.0899829 -0.522 145 109 119
0.354146 -0.0901552 -0.523 145 109 119
0.354463 -0.0899829 -0.522 146 110 120
0.355457 -0.0899829 -0.522 146 111 118
0.356451 -0.0899829 -0.522 146 111 118
0.357446 -0.0899829 -0.522 146 111 118
0.35844 -0.0899829 -0.522 147 112 119
0.359434 -0.0899829 -0.522 145 110 116
0.360429 -0.0899829 -0.522 146 111 117
0.361423 -0.0899829 -0.522 145 113 116
0.362417 -0.0899829 -0.522 146 114 117
0.363411 -0.0899829 -0.522 148 116 119
0.364406 -0.0899829 -0.522 148 116 119
0.3654 -0.0899829 -0.522 149 117 120
0.366394 -0.0899829 -0.522 149 117 120
0.367389 -0.0899829 -0.522 149 117 120
0.368383 -0.0899829 -0.522 153 118 124
0.369377 -0.0899829 -0.522 153 118 124
0.370371 -0.0899829 -0.522 153 118 125
0.371366 -0.0899829 -0.522 154 119 126
0.373073 -0.0901552 -0.523 153 120 127
0.37407 -0.0901552 -0.523 152 119 126
0.375066 -0.0901552 -0.523 153 120 127
0.376781 -0.0903276 -0.524 155 122 129
0.377779 -0.0903276 -0.524 152 120 125
0.314877 -0.0998657 -0.573 83 70 79
0.315417 -0.0996914 -0.572 86 73 82
0.3154 -0.0993429 -0.57 83 70 80
0.316486 -0.0993429 -0.57 83 70 80
0.317571 -0.0993429 -0.57 85 71 86
0.318657 -0.0993429 -0.57 83 69 84
0.319743 -0.0993429 -0.57 84 72 86
0.320829 -0.0993429 -0.57 81 69 83
0.322479 -0.0995171 -0.571 85 73 87
0.323567 -0.0995171 -0.571 76 64 78
0.324654 -0.0995171 -0.571 65 53 63
0.325742 -0.0995171 -0.571 65 53 63
0.32683 -0.0995171 -0.571 107 95 105
0.328491 -0.0996914 -0.572 71 59 69
0.329581 -0.0996914 -0.572 63 51 61
0.33067 -0.0996914 -0.572 71 59 73
0.33118 -0.0995171 -0.571 119 107 121
0.332268 -0.0995171 -0.571 104 92 106
0.333355 -0.0995171 -0.571 101 89 103
0.334443 -0.0995171 -0.571 91 79 93
0.33553 -0.0995171 -0.571 80 68 82
0.336029 -0.0993429 -0.57 115 104 118
0.337114 -0.0993429 -0.57 172 161 175
0.337607 -0.0991686 -0.569 177 166 182
0.33869 -0.0991686 -0.569 172 161 177
0.339774 -0.0991686 -0.569 171 160 176
0.340259 -0.0989943 -0.568 171 160 176
0.34074 -0.09882 -0.567 168 159 176
0.34182 -0.09882 -0.567 166 157 174
0.342295 -0.0986457 -0.566 173 164 181
0.343373 -0.0986457 -0.566 172 163 180
0.343843 -0.0984714 -0.565 171 165 179
0.344919 -0.0984714 -0.565 167 161 175
0.345995 -0.0984714 -0.565 167 161 175
0.347071 -0.0984714 -0.565 158 154 168
0.347531 -0.0982971 -0.564 150 146 160
0.348606 -0.0982971 -0.564 149 147 160
0.34968 -0.0982971 -0.564 150 148 161
0.350754 -0.0982971 -0.564 133 131 142
0.351829 -0.0982971 -0.564 122 120 131
0.352903 -0.0982971 -0.564 109 106 115
0.353977 -0.0982971 -0.564 83 80 89
0.355051 -0.0982971 -0.564 85 78 86
0.354863 -0.0979486 -0.562 131 124 132
0.3553 -0.0977743 -0.561 120 107 117
0.354463 -0.0972514 -0.558 76 63 73
0.354251 -0.0969029 -0.556 86 69 79
0.352754 -0.0962057 -0.552 131 114 124
0.351242 -0.0955086 -0.548 142 109 116
0.349071 -0.0946371 -0.543 138 105 112
0.346237 -0.0935914 -0.537 142 111 117
0.34532 -0.0930686 -0.534 143 112 118
0.343743 -0.0923714 -0.53 143 112 118
0.343451 -0.0920229 -0.528 144 113 119
0.3425 -0.0915 -0.525 140 107 114
0.3435 -0.0915 -0.525 140 107 114
0.3445 -0.0915 -0.525 145 112 119
0.344184 -0.0911514 -0.523 146 111 118
0.34518 -0.0911514 -0.523 146 111 118
0.345514 -0.0909771 -0.522 152 117 124
0.346509 -0.0909771 -0.522 157 122 129
0.347503 -0.0909771 -0.522 148 113 120
0.348497 -0.0909771 -0.522 146 111 118
0.349491 -0.0909771 -0.522 144 111 118
0.350486 -0.0909771 -0.522 143 110 117
0.35148 -0.0909771 -0.522 144 108 118
0.352474 -0.0909771 -0.522 144 108 118
0.353469 -0.0909771 -0.522 145 110 117
0.354463 -0.0909771 -0.522 147 112 119
0.355457 -0.0909771 -0.522 147 112 119
0.356451 -0.0909771 -0.522 146 111 118
0.357446 -0.0909771 -0.522 146 111 118
0.35844 -0.0909771 -0.522 146 111 118
0.359434 -0.0909771 -0.522 143 111 116
0.359738 -0.0908029 -0.521 143 111 116
0.36073 -0.0908029 -0.521 143 111 114
0.361723 -0.0908029 -0.521 144 112 115
0.362715 -0.0908029 -0.521 144 112 115
0.363708 -0.0908029 -0.521 145 113 116
0.3647 -0.0908029 -0.521 146 114 117
0.365692 -0.0908029 -0.521 147 115 118
0.366685 -0.0908029 -0.521 147 115 118
0.367677 -0.0908029 -0.521 149 117 122
0.36867 -0.0908029 -0.521 148 116 121
0.369662 -0.0908029 -0.521 151 116 122
0.370654 -0.0908029 -0.521 152 117 123
0.37236 -0.0909771 -0.522 153 118 125
0.373354 -0.0909771 -0.522 153 118 125
0.375066 -0.0911514 -0.523 154 119 126
0.376062 -0.0911514 -0.523 153 118 125
0.377058 -0.0911514 -0.523 151 116 122
0.378777 -0.0913257 -0.524 154 119 125
0.314328 -0.100781 -0.572 84 71 80
0.314866 -0.100605 -0.571 84 71 80
0.314847 -0.100252 -0.569 85 71 84
0.316486 -0.100429 -0.57 83 69 82
0.317571 -0.100429 -0.57 83 69 84
0.318657 -0.100429 -0.57 81 67 82
0.319743 -0.100429 -0.57 82 68 83
0.320829 -0.100429 -0.57 87 73 88
0.322479 -0.100605 -0.571 83 71 85
0.323567 -0.100605 -0.571 66 54 68
0.324654 -0.100605 -0.571 96 84 96
0.325742 -0.100605 -0.571 96 84 96
0.32683 -0.100605 -0.571 81 69 81
0.327917 -0.100605 -0.571 58 46 56
0.329005 -0.100605 -0.571 67 55 65
0.330092 -0.100605 -0.571 101 89 103
0.33118 -0.100605 -0.571 89 77 91
0.332268 -0.100605 -0.571 75 63 77
0.332771 -0.100429 -0.57 87 75 89
0.333857 -0.100429 -0.57 119 108 122
0.334943 -0.100429 -0.57 145 134 148
0.336029 -0.100429 -0.57 156 145 159
0.336523 -0.100252 -0.569 178 167 181
0.337607 -0.100252 -0.569 170 159 175
0.33869 -0.100252 -0.569 167 156 172
0.339177 -0.100076 -0.568 169 161 176
0.340259 -0.100076 -0.568 170 162 177
0.34074 -0.0999 -0.567 170 162 177
0.341217 -0.0997238 -0.566 168 160 175
0.342295 -0.0997238 -0.566 173 164 181
0.343373 -0.0997238 -0.566 170 161 178
0.343843 -0.0995476 -0.565 152 148 163
0.344919 -0.0995476 -0.565 143 139 154
0.345995 -0.0995476 -0.565 143 139 154
0.347071 -0.0995476 -0.565 129 128 142
0.348148 -0.0995476 -0.565 89 88 102
0.348606 -0.0993714 -0.564 62 64 76
0.34968 -0.0993714 -0.564 68 70 82
0.350754 -0.0993714 -0.564 68 68 78
0.351829 -0.0993714 -0.564 72 72 82
0.352903 -0.0993714 -0.564 74 73 81
0.35335 -0.0991952 -0.563 63 62 70
0.354422 -0.0991952 -0.563 66 58 69
0.354231 -0.0988429 -0.561 89 81 92
0.354667 -0.0986667 -0.56 85 72 82
0.353828 -0.0981381 -0.557 68 55 65
0.35234 -0.0974333 -0.553 122 102 113
0.350837 -0.0967286 -0.549 139 119 130
0.348678 -0.0958476 -0.544 140 107 114
0.3465 -0.0949667 -0.539 145 112 119
0.344303 -0.0940857 -0.534 143 112 118
0.34338 -0.0935571 -0.531 141 110 116
0.342446 -0.0930286 -0.528 142 111 117
0.34215 -0.0926762 -0.526 141 110 116
0.341848 -0.0923238 -0.524 143 110 117
0.342846 -0.0923238 -0.524 143 110 117
0.343188 -0.0921476 -0.523 145 112 119
0.344184 -0.0921476 -0.523 147 112 119
0.34452 -0.0919714 -0.522 150 115 122
0.345514 -0.0919714 -0.522 157 122 129
0.346509 -0.0919714 -0.522 154 119 126
0.347503 -0.0919714 -0.522 144 109 116
0.348497 -0.0919714 -0.522 146 111 118
0.349491 -0.0919714 -0.522 144 109 116
0.350486 -0.0919714 -0.522 145 110 117
0.35148 -0.0919714 -0.522 144 109 116
0.352474 -0.0919714 -0.522 145 110 117
0.353469 -0.0919714 -0.522 146 111 118
0.354463 -0.0919714 -0.522 147 112 119
0.355457 -0.0919714 -0.522 145 112 119
0.356451 -0.0919714 -0.522 144 111 118
0.357446 -0.0919714 -0.522 143 111 116
0.357753 -0.0917952 -0.521 142 110 115
0.358746 -0.0917952 -0.521 142 110 115
0.359738 -0.0917952 -0.521 143 111 116
0.36073 -0.0917952 -0.521 144 112 115
0.361723 -0.0917952 -0.521 144 112 115
0.362715 -0.0917952 -0.521 144 112 115
0.363708 -0.0917952 -0.521 144 112 115
0.3647 -0.0917952 -0.521 144 112 115
0.365692 -0.0917952 -0.521 145 113 116
0.366685 -0.0917952 -0.521 145 113 116
0.367677 -0.0917952 -0.521 143 112 117
0.36867 -0.0917952 -0.521 143 112 117
0.369662 -0.0917952 -0.521 144 113 118
0.370654 -0.0917952 -0.521 146 115 120
0.371647 -0.0917952 -0.521 148 116 121
0.372639 -0.0917952 -0.521 149 117 122
0.374349 -0.0919714 -0.522 151 116 122
0.375343 -0.0919714 -0.522 150 115 121
0.376337 -0.0919714 -0.522 154 117 124
0.378054 -0.0921476 -0.523 154 117 124
0.37905 -0.0921476 -0.523 152 117 123
0.380047 -0.0921476 -0.523 151 116 122
0.381771 -0.0923238 -0.524 148 116 121
0.38277 -0.0923238 -0.524 146 114 119
0.316514 -0.103295 -0.58 94 78 88
0.314881 -0.102405 -0.575 88 72 82
0.313778 -0.101692 -0.571 87 74 84
0.314314 -0.101514 -0.57 86 73 83
0.314847 -0.101336 -0.569 82 68 81
0.31593 -0.101336 -0.569 81 67 80
0.317571 -0.101514 -0.57 83 69 84
0.318657 -0.101514 -0.57 78 64 79
0.319743 -0.101514 -0.57 87 73 90
0.320829 -0.101514 -0.57 84 70 87
0.322479 -0.101692 -0.571 76 64 78
0.323567 -0.101692 -0.571 91 79 93
0.325223 -0.10187 -0.572 78 66 78
0.326312 -0.10187 -0.572 78 66 78
0.32683 -0.101692 -0.571 56 44 56
0.327917 -0.101692 -0.571 70 58 68
0.329005 -0.101692 -0.571 100 88 98
0.330092 -0.101692 -0.571 87 76 90
0.3306 -0.101514 -0.57 73 62 76
0.331686 -0.101514 -0.57 79 68 82
0.332771 -0.101514 -0.57 108 97 111
0.333271 -0.101336 -0.569 151 140 154
0.334355 -0.101336 -0.569 158 147 161
0.335439 -0.101336 -0.569 169 158 174
0.336523 -0.101336 -0.569 173 162 178
0.337607 -0.101336 -0.569 158 147 163
0.338095 -0.101158 -0.568 151 140 156
0.339177 -0.101158 -0.568 154 143 160
0.33966 -0.10098 -0.567 155 144 161
0.34074 -0.10098 -0.567 158 149 166
0.34182 -0.10098 -0.567 161 152 169
0.342295 -0.100802 -0.566 161 152 169
0.343373 -0.100802 -0.566 153 144 161
0.343843 -0.100624 -0.565 130 129 143
0.344919 -0.100624 -0.565 111 110 124
0.345995 -0.100624 -0.565 111 110 124
0.347071 -0.100624 -0.565 76 80 92
0.348148 -0.100624 -0.565 48 52 64
0.349224 -0.100624 -0.565 39 46 56
0.34968 -0.100446 -0.564 39 46 56
0.350754 -0.100446 -0.564 39 43 52
0.351829 -0.100446 -0.564 38 42 51
0.352277 -0.100268 -0.563 44 44 52
0.35335 -0.100268 -0.563 43 43 51
0.353792 -0.10009 -0.562 59 53 63
0.3536 -0.0997333 -0.56 56 50 60
0.3534 -0.0993771 -0.558 50 37 47
0.351922 -0.0986648 -0.554 93 80 90
0.350429 -0.0979524 -0.55 145 123 136
0.348281 -0.0970619 -0.545 131 109 122
0.346114 -0.0961714 -0.54 140 109 115
0.343929 -0.095281 -0.535 144 113 119
0.342369 -0.0945686 -0.531 143 112 118
0.342087 -0.0942124 -0.529 143 112 118
0.341149 -0.0936781 -0.526 139 108 114
0.3415 -0.0935 -0.525 138 107 113
0.341195 -0.0931438 -0.523 148 113 120
0.342191 -0.0931438 -0.523 148 113 120
0.343188 -0.0931438 -0.523 144 109 116
0.343526 -0.0929657 -0.522 149 114 121
0.34452 -0.0929657 -0.522 154 119 126
0.344852 -0.0927876 -0.521 150 117 124
0.345845 -0.0927876 -0.521 145 112 119
0.346837 -0.0927876 -0.521 143 108 115
0.34783 -0.0927876 -0.521 146 111 118
0.348822 -0.0927876 -0.521 145 108 115
0.349814 -0.0927876 -0.521 148 111 118
0.350807 -0.0927876 -0.521 145 110 116
0.351799 -0.0927876 -0.521 146 111 117
0.352791 -0.0927876 -0.521 146 111 117
0.353784 -0.0927876 -0.521 145 110 116
0.354776 -0.0927876 -0.521 145 110 116
0.355769 -0.0927876 -0.521 145 110 116
0.356761 -0.0927876 -0.521 145 110 116
0.357753 -0.0927876 -0.521 144 109 115
0.358057 -0.0926095 -0.52 141 109 112
0.359048 -0.0926095 -0.52 143 111 114
0.360038 -0.0926095 -0.52 144 112 115
0.361029 -0.0926095 -0.52 144 112 115
0.362019 -0.0926095 -0.52 144 112 115
0.36301 -0.0926095 -0.52 145 113 116
0.364 -0.0926095 -0.52 144 112 115
0.36499 -0.0926095 -0.52 143 111 114
0.365981 -0.0926095 -0.52 143 111 114
0.366971 -0.0926095 -0.52 136 111 114
0.367962 -0.0926095 -0.52 137 112 115
0.368952 -0.0926095 -0.52 141 112 114
0.369943 -0.0926095 -0.52 141 112 114
0.371647 -0.0927876 -0.521 144 112 115
0.372639 -0.0927876 -0.521 146 114 117
0.373631 -0.0927876 -0.521 150 114 118
0.374624 -0.0927876 -0.521 149 113 117
0.375616 -0.0927876 -0.521 151 115 119
0.376609 -0.0927876 -0.521 152 116 120
0.378326 -0.0929657 -0.522 153 117 121
0.37932 -0.0929657 -0.522 153 117 121
0.381043 -0.0931438 -0.523 148 116 119
0.382039 -0.0931438 -0.523 148 116 119
0.383768 -0.0933219 -0.524 149 117 118
0.313786 -0.1035 -0.575 87 74 83
0.314333 -0.10332 -0.574 84 71 80
0.313229 -0.1026 -0.57 84 71 81
0.314314 -0.1026 -0.57 81 68 78
0.314847 -0.10242 -0.569 84 72 86
0.31593 -0.10242 -0.569 80 68 82
0.317571 -0.1026 -0.57 79 65 82
0.318657 -0.1026 -0.57 81 67 84
0.319743 -0.1026 -0.57 79 65 82
0.320829 -0.1026 -0.57 84 70 87
0.321914 -0.1026 -0.57 85 73 87
0.323567 -0.10278 -0.571 94 82 96
0.324654 -0.10278 -0.571 53 43 54
0.325742 -0.10278 -0.571 53 43 54
0.32683 -0.10278 -0.571 60 50 61
0.327343 -0.1026 -0.57 75 63 73
0.328429 -0.1026 -0.57 79 67 77
0.329514 -0.1026 -0.57 77 66 80
0.3306 -0.1026 -0.57 69 58 72
0.331104 -0.10242 -0.569 76 65 81
0.332188 -0.10242 -0.569 131 120 136
0.333271 -0.10242 -0.569 170 159 175
0.333768 -0.10224 -0.568 178 167 183
0.33485 -0.10224 -0.568 174 163 179
0.335931 -0.10224 -0.568 160 149 165
0.337013 -0.10224 -0.568 143 132 149
0.338095 -0.10224 -0.568 135 124 141
0.339177 -0.10224 -0.568 136 125 142
0.33966 -0.10206 -0.567 134 123 140
0.34074 -0.10206 -0.567 136 125 142
0.34182 -0.10206 -0.567 138 127 144
0.342295 -0.10188 -0.566 135 124 141
0.343373 -0.10188 -0.566 125 114 131
0.344451 -0.10188 -0.566 102 104 117
0.34553 -0.10188 -0.566 77 79 92
0.346608 -0.10188 -0.566 77 79 92
0.347071 -0.1017 -0.565 43 51 62
0.348148 -0.1017 -0.565 39 47 58
0.349224 -0.1017 -0.565 29 39 48
0.34968 -0.10152 -0.564 31 41 50
0.350754 -0.10152 -0.564 54 63 70
0.351829 -0.10152 -0.564 28 37 44
0.352277 -0.10134 -0.563 53 56 63
0.352094 -0.10098 -0.561 91 94 101
0.353163 -0.10098 -0.561 112 109 118
0.352337 -0.10044 -0.558 77 74 83
0.352133 -0.10008 -0.556 56 42 55
0.350016 -0.09918 -0.551 124 110 123
0.348517 -0.09846 -0.547 132 108 122
0.345725 -0.09738 -0.541 138 114 128
0.34355 -0.09648 -0.536 142 111 119
0.342 -0.09576 -0.532 141 110 118
0.341079 -0.09522 -0.529 143 112 120
0.340793 -0.09486 -0.527 145 114 122
0.3405 -0.0945 -0.525 144 111 118
0.34085 -0.09432 -0.524 142 109 116
0.341195 -0.09414 -0.523 145 110 117
0.342191 -0.09414 -0.523 145 110 117
0.342531 -0.09396 -0.522 145 110 117
0.343526 -0.09396 -0.522 148 113 120
0.34386 -0.09378 -0.521 155 120 127
0.344852 -0.09378 -0.521 144 112 117
0.345845 -0.09378 -0.521 141 109 114
0.346837 -0.09378 -0.521 146 111 117
0.34783 -0.09378 -0.521 147 112 118
0.348822 -0.09378 -0.521 147 107 115
0.349814 -0.09378 -0.521 150 110 118
0.350807 -0.09378 -0.521 145 110 116
0.351799 -0.09378 -0.521 145 110 116
0.352791 -0.09378 -0.521 146 111 115
0.353784 -0.09378 -0.521 145 110 114
0.354776 -0.09378 -0.521 145 110 114
0.355769 -0.09378 -0.521 145 110 114
0.356761 -0.09378 -0.521 145 110 114
0.357067 -0.0936 -0.52 144 109 113
0.358057 -0.0936 -0.52 143 108 112
0.359048 -0.0936 -0.52 145 110 114
0.360038 -0.0936 -0.52 145 110 114
0.361029 -0.0936 -0.52 145 110 114
0.362019 -0.0936 -0.52 145 110 114
0.36301 -0.0936 -0.52 146 112 113
0.364 -0.0936 -0.52 145 111 112
0.36499 -0.0936 -0.52 144 110 111
0.365981 -0.0936 -0.52 144 110 111
0.366971 -0.0936 -0.52 135 110 113
0.367962 -0.0936 -0.52 137 112 115
0.368952 -0.0936 -0.52 139 113 114
0.369943 -0.0936 -0.52 138 112 113
0.370933 -0.0936 -0.52 142 110 111
0.371924 -0.0936 -0.52 144 112 113
0.373631 -0.09378 -0.521 147 111 113
0.374624 -0.09378 -0.521 148 112 114
0.375616 -0.09378 -0.521 153 114 119
0.376609 -0.09378 -0.521 151 112 117
0.376876 -0.0936 -0.52 152 113 118
0.378593 -0.09378 -0.521 155 116 121
0.379586 -0.09378 -0.521 149 115 116
0.381309 -0.09396 -0.522 149 115 116
0.382303 -0.09396 -0.522 148 117 115
0.384031 -0.09414 -0.523 149 118 116
0.385764 -0.09432 -0.524 149 115 116
0.3875 -0.0945 -0.525 151 117 118
0.38924 -0.09468 -0.526 150 119 125
0.390242 -0.09468 -0.526 150 119 125
0.311603 -0.103868 -0.571 87 73 88
0.312143 -0.103686 -0.57 84 70 85
0.312679 -0.103504 -0.569 84 70 85
0.313763 -0.103504 -0.569 82 68 83
0.314847 -0.103504 -0.569 81 67 80
0.31593 -0.103504 -0.569 83 69 82
0.317014 -0.103504 -0.569 80 66 79
0.318657 -0.103686 -0.57 81 67 80
0.319743 -0.103686 -0.57 82 69 79
0.321391 -0.103868 -0.571 83 70 80
0.322479 -0.103868 -0.571 99 87 97
0.323567 -0.103868 -0.571 73 61 71
0.324086 -0.103686 -0.57 56 45 53
0.325171 -0.103686 -0.57 56 45 53
0.326257 -0.103686 -0.57 64 53 61
0.327343 -0.103686 -0.57 68 55 64
0.328429 -0.103686 -0.57 74 61 70
0.329514 -0.103686 -0.57 73 59 72
0.33002 -0.103504 -0.569 75 61 74
0.331104 -0.103504 -0.569 98 86 100
0.331604 -0.103322 -0.568 151 139 153
0.332686 -0.103322 -0.568 158 147 161
0.333768 -0.103322 -0.568 171 160 174
0.33485 -0.103322 -0.568 160 149 165
0.335931 -0.103322 -0.568 154 143 159
0.337013 -0.103322 -0.568 132 123 140
0.338095 -0.103322 -0.568 127 118 135
0.33858 -0.10314 -0.567 120 116 131
0.33966 -0.10314 -0.567 125 121 136
0.34074 -0.10314 -0.567 124 120 137
0.34182 -0.10314 -0.567 124 120 137
0.3429 -0.10314 -0.567 121 117 134
0.34398 -0.10314 -0.567 106 102 119
0.34506 -0.10314 -0.567 103 109 125
0.34553 -0.102958 -0.566 66 72 88
0.346608 -0.102958 -0.566 66 72 88
0.347686 -0.102958 -0.566 40 47 63
0.348764 -0.102958 -0.566 34 41 57
0.349224 -0.102776 -0.565 61 71 83
0.3503 -0.102776 -0.565 64 74 86
0.350754 -0.102594 -0.564 94 103 112
0.351829 -0.102594 -0.564 82 91 100
0.352277 -0.102412 -0.563 45 54 59
0.352094 -0.102049 -0.561 116 125 130
0.351904 -0.101685 -0.559 147 150 155
0.351706 -0.101321 -0.557 115 118 123
0.350867 -0.100775 -0.554 123 110 119
0.348746 -0.0998657 -0.549 129 116 125
0.345969 -0.0987743 -0.543 141 109 120
0.343169 -0.0976829 -0.537 140 108 119
0.341628 -0.0969552 -0.533 140 109 114
0.340071 -0.0962276 -0.529 143 112 117
0.33979 -0.0958638 -0.527 142 111 117
0.3395 -0.0955 -0.525 141 110 116
0.339851 -0.0953181 -0.524 146 113 120
0.340199 -0.0951362 -0.523 144 111 118
0.340543 -0.0949543 -0.522 141 109 114
0.341537 -0.0949543 -0.522 141 109 114
0.342531 -0.0949543 -0.522 146 114 119
0.342868 -0.0947724 -0.521 156 124 129
0.34386 -0.0947724 -0.521 148 116 121
0.34419 -0.0945905 -0.52 142 110 115
0.345181 -0.0945905 -0.52 142 110 115
0.346171 -0.0945905 -0.52 145 110 116
0.347162 -0.0945905 -0.52 146 111 117
0.348152 -0.0945905 -0.52 146 111 117
0.349143 -0.0945905 -0.52 145 110 116
0.350133 -0.0945905 -0.52 144 109 113
0.351124 -0.0945905 -0.52 144 109 113
0.352114 -0.0945905 -0.52 145 110 114
0.353105 -0.0945905 -0.52 145 110 114
0.354095 -0.0945905 -0.52 145 110 114
0.355086 -0.0945905 -0.52 145 110 114
0.356076 -0.0945905 -0.52 145 110 114
0.357067 -0.0945905 -0.52 144 109 113
0.358057 -0.0945905 -0.52 144 109 113
0.358357 -0.0944086 -0.519 144 109 113
0.359346 -0.0944086 -0.519 144 110 111
0.360334 -0.0944086 -0.519 145 111 112
0.361323 -0.0944086 -0.519 145 111 112
0.362311 -0.0944086 -0.519 145 111 112
0.3633 -0.0944086 -0.519 145 111 112
0.364289 -0.0944086 -0.519 146 112 113
0.365277 -0.0944086 -0.519 146 112 113
0.366266 -0.0944086 -0.519 145 110 114
0.367254 -0.0944086 -0.519 145 110 114
0.368243 -0.0944086 -0.519 145 110 114
0.369231 -0.0944086 -0.519 145 110 114
0.370933 -0.0945905 -0.52 144 109 113
0.371924 -0.0945905 -0.52 143 108 112
0.372914 -0.0945905 -0.52 144 109 113
0.373905 -0.0945905 -0.52 145 110 114
0.374895 -0.0945905 -0.52 144 112 115
0.375886 -0.0945905 -0.52 144 112 115
0.376876 -0.0945905 -0.52 144 112 115
0.377867 -0.0945905 -0.52 146 114 117
0.378857 -0.0945905 -0.52 147 115 118
0.380578 -0.0947724 -0.521 147 115 118
0.38157 -0.0947724 -0.521 147 115 118
0.383297 -0.0949543 -0.522 148 116 119
0.384291 -0.0949543 -0.522 148 116 119
0.386024 -0.0951362 -0.523 149 117 120
0.38776 -0.0953181 -0.524 151 117 118
0.388758 -0.0953181 -0.524 151 117 118
0.310515 -0.104955 -0.571 83 74 75
0.311057 -0.104771 -0.57 83 69 84
0.311595 -0.104588 -0.569 83 69 84
0.31213 -0.104404 -0.568 82 70 82
0.313763 -0.104588 -0.569 79 67 79
0.314847 -0.104588 -0.569 78 66 78
0.31593 -0.104588 -0.569 79 67 79
0.317571 -0.104771 -0.57 81 67 80
0.318657 -0.104771 -0.57 82 68 81
0.319743 -0.104771 -0.57 83 70 80
0.321391 -0.104955 -0.571 87 74 84
0.322479 -0.104955 -0.571 78 66 76
0.323567 -0.104955 -0.571 59 47 57
0.324654 -0.104955 -0.571 55 44 52
0.325742 -0.104955 -0.571 55 44 52
0.326257 -0.104771 -0.57 60 49 57
0.327343 -0.104771 -0.57 65 54 62
0.328429 -0.104771 -0.57 68 57 65
0.329514 -0.104771 -0.57 71 55 66
0.33002 -0.104588 -0.569 84 68 79
0.331104 -0.104588 -0.569 122 109 119
0.331604 -0.104404 -0.568 147 134 144
0.332686 -0.104404 -0.568 133 121 133
0.333768 -0.104404 -0.568 136 124 136
0.33485 -0.104404 -0.568 136 125 139
0.335931 -0.104404 -0.568 123 112 126
0.337013 -0.104404 -0.568 140 132 147
0.338095 -0.104404 -0.568 187 179 194
0.339177 -0.104404 -0.568 228 224 239
0.340259 -0.104404 -0.568 239 235 250
0.341341 -0.104404 -0.568 236 232 249
0.342423 -0.104404 -0.568 243 239 255
0.343505 -0.104404 -0.568 237 233 250
0.344587 -0.104404 -0.568 199 195 212
0.345669 -0.104404 -0.568 147 153 169
0.34675 -0.104404 -0.568 72 78 94
0.347832 -0.104404 -0.568 72 78 94
0.3483 -0.10422 -0.567 33 41 54
0.34938 -0.10422 -0.567 34 42 55
0.349842 -0.104036 -0.566 43 53 63
0.35092 -0.104036 -0.566 117 127 137
0.351376 -0.103852 -0.565 125 134 141
0.351829 -0.103669 -0.564 140 149 156
0.352277 -0.103485 -0.563 106 114 117
0.352094 -0.103117 -0.561 108 116 119
0.351274 -0.102566 -0.558 120 119 124
0.350443 -0.102014 -0.555 115 114 119
0.348967 -0.101279 -0.551 132 115 121
0.346205 -0.100176 -0.545 133 116 122
0.344057 -0.0992571 -0.54 140 107 116
0.341251 -0.0981543 -0.534 144 111 120
0.340346 -0.0976029 -0.531 140 109 114
0.338786 -0.0968676 -0.527 143 112 117
0.339145 -0.0966838 -0.526 142 111 117
0.338853 -0.0963162 -0.524 142 111 117
0.339203 -0.0961324 -0.523 143 112 118
0.339549 -0.0959486 -0.522 141 110 116
0.33989 -0.0957648 -0.521 144 112 117
0.340883 -0.0957648 -0.521 144 112 117
0.341875 -0.0957648 -0.521 151 119 124
0.342868 -0.0957648 -0.521 152 120 125
0.34386 -0.0957648 -0.521 146 114 119
0.34419 -0.0955809 -0.52 143 111 116
0.345181 -0.0955809 -0.52 144 112 117
0.346171 -0.0955809 -0.52 145 113 118
0.347162 -0.0955809 -0.52 145 113 118
0.348152 -0.0955809 -0.52 145 113 118
0.349143 -0.0955809 -0.52 144 112 117
0.350133 -0.0955809 -0.52 145 110 116
0.351124 -0.0955809 -0.52 145 110 116
0.352114 -0.0955809 -0.52 145 110 116
0.353105 -0.0955809 -0.52 145 110 116
0.354095 -0.0955809 -0.52 144 109 113
0.355086 -0.0955809 -0.52 144 109 113
0.356076 -0.0955809 -0.52 144 109 113
0.357067 -0.0955809 -0.52 144 109 113
0.358057 -0.0955809 -0.52 144 109 113
0.358357 -0.0953971 -0.519 144 109 113
0.359346 -0.0953971 -0.519 145 110 114
0.360334 -0.0953971 -0.519 145 110 114
0.361323 -0.0953971 -0.519 145 110 114
0.362311 -0.0953971 -0.519 146 112 113
0.3633 -0.0953971 -0.519 146 112 113
0.364289 -0.0953971 -0.519 144 112 113
0.365277 -0.0953971 -0.519 145 113 114
0.366266 -0.0953971 -0.519 145 110 114
0.367254 -0.0953971 -0.519 145 110 114
0.368243 -0.0953971 -0.519 145 110 114
0.369231 -0.0953971 -0.519 145 110 114
0.37022 -0.0953971 -0.519 145 110 114
0.371209 -0.0953971 -0.519 145 110 114
0.372197 -0.0953971 -0.519 144 109 113
0.373186 -0.0953971 -0.519 144 109 113
0.374174 -0.0953971 -0.519 141 109 112
0.375163 -0.0953971 -0.519 142 110 113
0.376151 -0.0953971 -0.519 143 111 114
0.37714 -0.0953971 -0.519 144 112 115
0.378129 -0.0953971 -0.519 146 114 117
0.379848 -0.0955809 -0.52 147 115 118
0.380838 -0.0955809 -0.52 147 115 118
0.382563 -0.0957648 -0.521 147 115 118
0.383555 -0.0957648 -0.521 146 114 117
0.384548 -0.0957648 -0.521 147 115 118
0.38554 -0.0957648 -0.521 149 115 116
0.386532 -0.0957648 -0.521 149 115 116
0.388269 -0.0959486 -0.522 148 114 115
0.30997 -0.106229 -0.572 86 74 74
0.309971 -0.105857 -0.57 83 71 71
0.310511 -0.105671 -0.569 79 65 80
0.311048 -0.105486 -0.568 81 67 82
0.31213 -0.105486 -0.568 80 68 80
0.313211 -0.105486 -0.568 79 67 79
0.314293 -0.105486 -0.568 77 65 77
0.31593 -0.105671 -0.569 77 65 77
0.317571 -0.105857 -0.57 80 67 77
0.318657 -0.105857 -0.57 78 65 75
0.320304 -0.106043 -0.571 81 69 79
0.321391 -0.106043 -0.571 88 76 86
0.322479 -0.106043 -0.571 60 49 57
0.323 -0.105857 -0.57 51 40 48
0.324086 -0.105857 -0.57 58 47 55
0.325171 -0.105857 -0.57 58 47 55
0.326257 -0.105857 -0.57 58 47 55
0.327343 -0.105857 -0.57 62 51 59
0.328429 -0.105857 -0.57 63 52 60
0.328936 -0.105671 -0.569 68 52 63
0.33002 -0.105671 -0.569 81 65 76
0.331104 -0.105671 -0.569 103 90 100
0.331604 -0.105486 -0.568 106 93 103
0.332686 -0.105486 -0.568 122 110 122
0.333768 -0.105486 -0.568 144 132 144
0.33485 -0.105486 -0.568 185 174 188
0.335931 -0.105486 -0.568 220 209 223
0.337013 -0.105486 -0.568 247 239 254
0.338095 -0.105486 -0.568 248 240 255
0.339177 -0.105486 -0.568 226 222 239
0.340858 -0.105671 -0.569 202 198 215
0.341942 -0.105671 -0.569 200 197 214
0.343026 -0.105671 -0.569 200 197 214
0.34411 -0.105671 -0.569 198 195 214
0.345193 -0.105671 -0.569 184 181 200
0.346277 -0.105671 -0.569 151 158 174
0.347361 -0.105671 -0.569 120 127 143
0.348445 -0.105671 -0.569 120 127 143
0.348914 -0.105486 -0.568 98 107 122
0.349996 -0.105486 -0.568 67 76 91
0.351078 -0.105486 -0.568 36 44 55
0.35154 -0.1053 -0.567 113 121 132
0.351998 -0.105114 -0.566 128 135 143
0.351829 -0.104743 -0.564 131 138 146
0.352277 -0.104557 -0.563 133 137 140
0.351467 -0.104 -0.56 100 104 107
0.351274 -0.103629 -0.558 110 104 108
0.34918 -0.1027 -0.553 121 115 119
0.3477 -0.101957 -0.549 135 114 119
0.344299 -0.100657 -0.542 133 112 117
0.341509 -0.0995429 -0.536 140 105 112
0.339334 -0.0986143 -0.531 146 111 118
0.338423 -0.0980571 -0.528 141 110 115
0.338143 -0.0976857 -0.526 142 111 116
0.337855 -0.0973143 -0.524 142 111 117
0.338207 -0.0971286 -0.523 143 112 118
0.338554 -0.0969429 -0.522 141 110 116
0.338898 -0.0967571 -0.521 141 110 116
0.33989 -0.0967571 -0.521 149 118 123
0.340883 -0.0967571 -0.521 149 118 123
0.341875 -0.0967571 -0.521 153 122 127
0.34221 -0.0965714 -0.52 145 113 118
0.3432 -0.0965714 -0.52 143 111 116
0.34419 -0.0965714 -0.52 142 110 115
0.345181 -0.0965714 -0.52 143 111 116
0.345506 -0.0963857 -0.519 144 112 117
0.346494 -0.0963857 -0.519 144 112 117
0.347483 -0.0963857 -0.519 144 112 117
0.348471 -0.0963857 -0.519 143 111 116
0.34946 -0.0963857 -0.519 146 111 117
0.350449 -0.0963857 -0.519 146 111 117
0.351437 -0.0963857 -0.519 145 110 116
0.352426 -0.0963857 -0.519 144 109 115
0.353414 -0.0963857 -0.519 145 110 116
0.354403 -0.0963857 -0.519 144 109 115
0.355391 -0.0963857 -0.519 144 109 113
0.35638 -0.0963857 -0.519 145 110 114
0.357369 -0.0963857 -0.519 145 110 114
0.358357 -0.0963857 -0.519 145 110 114
0.359346 -0.0963857 -0.519 145 110 114
0.360334 -0.0963857 -0.519 146 111 115
0.361323 -0.0963857 -0.519 146 111 115
0.362311 -0.0963857 -0.519 144 112 115
0.3633 -0.0963857 -0.519 144 112 115
0.364289 -0.0963857 -0.519 145 113 116
0.365277 -0.0963857 -0.519 145 113 116
0.366266 -0.0963857 -0.519 143 111 114
0.367254 -0.0963857 -0.519 143 111 114
0.367533 -0.0962 -0.518 143 111 114
0.36852 -0.0962 -0.518 143 111 114
0.37022 -0.0963857 -0.519 143 111 114
0.371209 -0.0963857 -0.519 144 112 115
0.372197 -0.0963857 -0.519 143 111 114
0.373186 -0.0963857 -0.519 142 110 113
0.374174 -0.0963857 -0.519 142 107 111
0.375163 -0.0963857 -0.519 143 108 112
0.376151 -0.0963857 -0.519 144 109 113
0.37714 -0.0963857 -0.519 144 109 113
0.378129 -0.0963857 -0.519 145 110 114
0.379117 -0.0963857 -0.519 146 111 115
0.380106 -0.0963857 -0.519 148 113 117
0.381829 -0.0965714 -0.52 148 113 117
0.382819 -0.0965714 -0.52 145 113 116
0.38381 -0.0965714 -0.52 147 115 118
0.3848 -0.0965714 -0.52 148 114 115
0.38579 -0.0965714 -0.52 148 114 115
0.386781 -0.0965714 -0.52 146 112 113
0.387771 -0.0965714 -0.52 147 113 114
0.38951 -0.0967571 -0.521 148 114 115
0.391251 -0.0969429 -0.522 149 113 115
0.392997 -0.0971286 -0.523 150 114 116
0.309428 -0.10713 -0.571 87 68 74
0.309428 -0.106755 -0.569 89 70 76
0.309966 -0.106568 -0.568 80 66 79
0.311048 -0.106568 -0.568 79 65 78
0.31213 -0.106568 -0.568 79 65 78
0.313211 -0.106568 -0.568 78 64 77
0.314293 -0.106568 -0.568 76 62 75
0.31593 -0.106755 -0.569 76 62 75
0.317571 -0.106943 -0.57 79 66 76
0.319216 -0.10713 -0.571 73 60 70
0.320304 -0.10713 -0.571 80 67 77
0.321391 -0.10713 -0.571 80 67 77
0.322479 -0.10713 -0.571 54 43 51
0.323567 -0.10713 -0.571 54 43 51
0.324086 -0.106943 -0.57 59 48 56
0.325171 -0.106943 -0.57 59 48 56
0.326257 -0.106943 -0.57 57 46 54
0.327343 -0.106943 -0.57 58 47 55
0.328429 -0.106943 -0.57 61 50 58
0.328936 -0.106755 -0.569 62 46 57
0.33002 -0.106755 -0.569 73 57 68
0.331104 -0.106755 -0.569 81 67 80
0.331604 -0.106568 -0.568 83 69 82
0.332686 -0.106568 -0.568 139 127 141
0.333768 -0.106568 -0.568 199 187 201
0.33485 -0.106568 -0.568 226 215 231
0.335931 -0.106568 -0.568 227 216 232
0.337607 -0.106755 -0.569 189 182 200
0.33869 -0.106755 -0.569 149 142 160
0.339774 -0.106755 -0.569 117 114 133
0.340858 -0.106755 -0.569 97 94 113
0.342543 -0.106943 -0.57 92 90 111
0.343629 -0.106943 -0.57 111 109 130
0.344714 -0.106943 -0.57 147 145 167
0.3458 -0.106943 -0.57 144 142 164
0.346886 -0.106943 -0.57 146 153 171
0.347971 -0.106943 -0.57 148 155 173
0.349057 -0.106943 -0.57 148 155 173
0.349529 -0.106755 -0.569 113 122 137
0.350612 -0.106755 -0.569 73 82 97
0.351078 -0.106568 -0.568 44 52 63
0.35216 -0.106568 -0.568 52 60 71
0.351998 -0.106192 -0.566 59 63 72
0.351829 -0.105817 -0.564 65 69 78
0.351026 -0.105254 -0.561 83 82 88
0.350839 -0.104879 -0.559 94 93 99
0.350015 -0.104316 -0.556 125 112 119
0.347917 -0.103378 -0.551 128 115 122
0.345167 -0.102252 -0.545 132 105 112
0.342393 -0.101127 -0.539 137 110 117
0.340234 -0.100189 -0.534 147 112 119
0.338056 -0.0992505 -0.529 145 110 117
0.337782 -0.0988752 -0.527 141 110 116
0.336857 -0.0983124 -0.524 142 111 117
0.33721 -0.0981248 -0.523 141 110 116
0.33756 -0.0979371 -0.522 143 112 118
0.337906 -0.0977495 -0.521 142 111 117
0.338898 -0.0977495 -0.521 145 114 120
0.33989 -0.0977495 -0.521 153 121 126
0.340883 -0.0977495 -0.521 153 121 126
0.341219 -0.0975619 -0.52 150 118 123
0.34221 -0.0975619 -0.52 141 109 114
0.3432 -0.0975619 -0.52 141 109 114
0.34419 -0.0975619 -0.52 141 109 114
0.345181 -0.0975619 -0.52 142 110 115
0.345506 -0.0973743 -0.519 142 110 115
0.346494 -0.0973743 -0.519 143 111 116
0.347483 -0.0973743 -0.519 143 111 116
0.348471 -0.0973743 -0.519 142 110 115
0.34946 -0.0973743 -0.519 146 111 117
0.350449 -0.0973743 -0.519 146 111 117
0.351437 -0.0973743 -0.519 144 109 115
0.352426 -0.0973743 -0.519 144 109 115
0.353414 -0.0973743 -0.519 145 110 116
0.354403 -0.0973743 -0.519 145 110 116
0.355391 -0.0973743 -0.519 144 109 113
0.35638 -0.0973743 -0.519 144 109 113
0.357369 -0.0973743 -0.519 145 110 114
0.358357 -0.0973743 -0.519 145 110 114
0.359346 -0.0973743 -0.519 143 111 114
0.360334 -0.0973743 -0.519 143 111 114
0.361323 -0.0973743 -0.519 143 111 114
0.362311 -0.0973743 -0.519 143 111 114
0.3633 -0.0973743 -0.519 143 111 114
0.364289 -0.0973743 -0.519 144 112 113
0.365277 -0.0973743 -0.519 144 112 113
0.366266 -0.0973743 -0.519 143 111 114
0.367254 -0.0973743 -0.519 143 111 114
0.367533 -0.0971867 -0.518 143 111 114
0.36852 -0.0971867 -0.518 142 110 113
0.369507 -0.0971867 -0.518 142 110 113
0.370493 -0.0971867 -0.518 143 111 114
0.37148 -0.0971867 -0.518 142 110 113
0.372467 -0.0971867 -0.518 141 109 112
0.373453 -0.0971867 -0.518 142 107 111
0.37444 -0.0971867 -0.518 143 108 112
0.375427 -0.0971867 -0.518 144 109 113
0.376413 -0.0971867 -0.518 143 108 112
0.3774 -0.0971867 -0.518 143 108 112
0.378387 -0.0971867 -0.518 144 109 113
0.379373 -0.0971867 -0.518 145 110 114
0.381094 -0.0973743 -0.519 146 111 115
0.382083 -0.0973743 -0.519 145 113 114
0.383071 -0.0973743 -0.519 148 116 117
0.38406 -0.0973743 -0.519 150 116 117
0.385049 -0.0973743 -0.519 150 116 117
0.386037 -0.0973743 -0.519 147 113 114
0.387026 -0.0973743 -0.519 145 111 112
0.388014 -0.0973743 -0.519 146 112 113
0.389752 -0.0975619 -0.52 148 112 114
0.391494 -0.0977495 -0.521 149 113 115
0.39324 -0.0979371 -0.522 148 109 112
0.308886 -0.108029 -0.57 83 65 77
0.308884 -0.10765 -0.568 79 61 73
0.309966 -0.10765 -0.568 82 68 81
0.3105 -0.10746 -0.567 78 64 77
0.31213 -0.10765 -0.568 76 62 75
0.313211 -0.10765 -0.568 76 62 75
0.314847 -0.107839 -0.569 73 59 72
0.31593 -0.107839 -0.569 74 60 73
0.317571 -0.108029 -0.57 78 65 75
0.318657 -0.108029 -0.57 72 59 69
0.320304 -0.108218 -0.571 81 68 78
0.321391 -0.108218 -0.571 65 52 62
0.322479 -0.108218 -0.571 54 41 50
0.323567 -0.108218 -0.571 57 44 53
0.324654 -0.108218 -0.571 55 42 51
0.325742 -0.108218 -0.571 55 42 51
0.326257 -0.108029 -0.57 57 44 53
0.327343 -0.108029 -0.57 54 41 50
0.328429 -0.108029 -0.57 60 47 56
0.328936 -0.107839 -0.569 58 45 55
0.33002 -0.107839 -0.569 59 46 56
0.331104 -0.107839 -0.569 63 49 62
0.332188 -0.107839 -0.569 65 51 64
0.332686 -0.10765 -0.568 87 75 89
0.333768 -0.10765 -0.568 121 109 123
0.33485 -0.10765 -0.568 127 119 134
0.335931 -0.10765 -0.568 123 115 130
0.337607 -0.107839 -0.569 113 109 126
0.33869 -0.107839 -0.569 110 106 123
0.339774 -0.107839 -0.569 101 98 117
0.341457 -0.108029 -0.57 89 86 105
0.342543 -0.108029 -0.57 90 88 109
0.343629 -0.108029 -0.57 85 83 104
0.345319 -0.108218 -0.571 87 88 109
0.3458 -0.108029 -0.57 79 80 101
0.346886 -0.108029 -0.57 79 88 103
0.347971 -0.108029 -0.57 59 68 83
0.349057 -0.108029 -0.57 59 68 83
0.350143 -0.108029 -0.57 44 54 66
0.350612 -0.107839 -0.569 63 73 85
0.351078 -0.10765 -0.568 78 86 97
0.35216 -0.10765 -0.568 82 90 101
0.351998 -0.10727 -0.566 79 83 92
0.351205 -0.106702 -0.563 103 107 116
0.3504 -0.106133 -0.56 142 135 142
0.349584 -0.105565 -0.557 140 133 140
0.348127 -0.104807 -0.553 135 116 122
0.346023 -0.103859 -0.548 131 112 118
0.343267 -0.102722 -0.542 141 110 116
0.339852 -0.101395 -0.535 141 110 116
0.338323 -0.100637 -0.531 143 108 114
0.336778 -0.099879 -0.527 141 106 112
0.3365 -0.0995 -0.525 142 109 116
0.336214 -0.099121 -0.523 143 110 117
0.336566 -0.0989314 -0.522 143 111 116
0.336913 -0.0987419 -0.521 145 113 118
0.337906 -0.0987419 -0.521 145 113 118
0.338248 -0.0985524 -0.52 150 118 123
0.339238 -0.0985524 -0.52 154 122 127
0.340229 -0.0985524 -0.52 154 122 127
0.341219 -0.0985524 -0.52 143 111 116
0.34221 -0.0985524 -0.52 143 111 116
0.3432 -0.0985524 -0.52 144 112 117
0.343529 -0.0983629 -0.519 145 110 116
0.344517 -0.0983629 -0.519 144 109 115
0.345506 -0.0983629 -0.519 145 110 116
0.346494 -0.0983629 -0.519 147 112 118
0.346813 -0.0981733 -0.518 146 111 117
0.3478 -0.0981733 -0.518 145 110 116
0.348787 -0.0981733 -0.518 145 110 116
0.349773 -0.0981733 -0.518 145 110 116
0.35076 -0.0981733 -0.518 145 110 114
0.351747 -0.0981733 -0.518 145 110 114
0.352733 -0.0981733 -0.518 145 110 114
0.35372 -0.0981733 -0.518 145 110 114
0.354707 -0.0981733 -0.518 144 109 113
0.355693 -0.0981733 -0.518 143 108 112
0.35668 -0.0981733 -0.518 142 110 113
0.357667 -0.0981733 -0.518 142 110 113
0.358653 -0.0981733 -0.518 142 110 111
0.35964 -0.0981733 -0.518 142 110 111
0.360627 -0.0981733 -0.518 142 110 111
0.361613 -0.0981733 -0.518 143 111 112
0.3626 -0.0981733 -0.518 143 111 112
0.363587 -0.0981733 -0.518 143 111 112
0.364573 -0.0981733 -0.518 144 112 113
0.36556 -0.0981733 -0.518 144 112 115
0.366547 -0.0981733 -0.518 144 112 115
0.367533 -0.0981733 -0.518 143 111 114
0.36852 -0.0981733 -0.518 142 110 113
0.369507 -0.0981733 -0.518 141 109 112
0.370493 -0.0981733 -0.518 141 109 112
0.37148 -0.0981733 -0.518 141 109 112
0.372467 -0.0981733 -0.518 140 108 111
0.373453 -0.0981733 -0.518 141 106 110
0.37444 -0.0981733 -0.518 143 108 112
0.375427 -0.0981733 -0.518 143 108 112
0.376413 -0.0981733 -0.518 143 108 112
0.3774 -0.0981733 -0.518 143 108 112
0.378387 -0.0981733 -0.518 143 108 112
0.379373 -0.0981733 -0.518 142 107 111
0.38036 -0.0981733 -0.518 142 107 111
0.381347 -0.0981733 -0.518 141 109 110
0.382333 -0.0981733 -0.518 142 110 111
0.38332 -0.0981733 -0.518 144 112 113
0.384307 -0.0981733 -0.518 144 112 113
0.385293 -0.0981733 -0.518 144 112 113
0.38628 -0.0981733 -0.518 144 110 111
0.387267 -0.0981733 -0.518 145 111 112
0.389003 -0.0983629 -0.519 147 111 113
0.389991 -0.0983629 -0.519 146 110 112
0.391733 -0.0985524 -0.52 150 111 114
0.393479 -0.0987419 -0.521 151 112 115
0.395986 -0.099121 -0.523 151 112 115
0.399259 -0.0996895 -0.526 154 115 118
0.402544 -0.100258 -0.529 153 112 116
0.30618 -0.10854 -0.567 79 66 75
0.30726 -0.10854 -0.567 74 60 75
0.30834 -0.10854 -0.567 74 60 75
0.30942 -0.10854 -0.567 79 65 78
0.3105 -0.10854 -0.567 76 62 75
0.31158 -0.10854 -0.567 77 61 74
0.313211 -0.108731 -0.568 77 61 74
0.314847 -0.108923 -0.569 75 59 72
0.31593 -0.108923 -0.569 75 59 72
0.317571 -0.109114 -0.57 75 62 72
0.318657 -0.109114 -0.57 73 60 70
0.320304 -0.109306 -0.571 79 66 76
0.321391 -0.109306 -0.571 54 41 51
0.322479 -0.109306 -0.571 55 42 51
0.323567 -0.109306 -0.571 57 44 53
0.324654 -0.109306 -0.571 53 40 49
0.325742 -0.109306 -0.571 53 40 49
0.32683 -0.109306 -0.571 58 45 54
0.327343 -0.109114 -0.57 54 41 48
0.328429 -0.109114 -0.57 58 45 52
0.328936 -0.108923 -0.569 53 41 51
0.33002 -0.108923 -0.569 59 47 57
0.331104 -0.108923 -0.569 57 45 55
0.332188 -0.108923 -0.569 62 50 60
0.333271 -0.108923 -0.569 80 70 81
0.333768 -0.108731 -0.568 99 89 100
0.33485 -0.108731 -0.568 94 88 100
0.335931 -0.108731 -0.568 101 95 107
0.337607 -0.108923 -0.569 100 96 110
0.33869 -0.108923 -0.569 97 93 107
0.339774 -0.108923 -0.569 83 81 95
0.341457 -0.109114 -0.57 81 79 93
0.342543 -0.109114 -0.57 103 102 118
0.344231 -0.109306 -0.571 110 109 125
0.345319 -0.109306 -0.571 107 108 126
0.346407 -0.109306 -0.571 97 98 116
0.347494 -0.109306 -0.571 47 57 69
0.347971 -0.109114 -0.57 28 38 50
0.349057 -0.109114 -0.57 28 38 50
0.350143 -0.109114 -0.57 61 69 80
0.350612 -0.108923 -0.569 83 91 102
0.351078 -0.108731 -0.568 77 86 93
0.35216 -0.108731 -0.568 79 88 95
0.351376 -0.108157 -0.565 67 70 75
0.350581 -0.107583 -0.562 61 64 69
0.349774 -0.107009 -0.559 124 113 119
0.348329 -0.106243 -0.555 142 131 137
0.346238 -0.105286 -0.55 139 114 120
0.344129 -0.104329 -0.545 134 109 115
0.341367 -0.10318 -0.539 142 110 115
0.338582 -0.102031 -0.533 143 111 116
0.337049 -0.101266 -0.529 146 111 117
0.3355 -0.1005 -0.525 144 109 115
0.335859 -0.100309 -0.524 142 109 116
0.335571 -0.0999257 -0.522 144 111 118
0.336566 -0.0999257 -0.522 144 112 117
0.336913 -0.0997343 -0.521 147 115 120
0.337257 -0.0995429 -0.52 148 116 121
0.338248 -0.0995429 -0.52 151 119 124
0.339238 -0.0995429 -0.52 150 117 124
0.340229 -0.0995429 -0.52 150 117 124
0.341219 -0.0995429 -0.52 140 107 114
0.34221 -0.0995429 -0.52 146 111 117
0.34254 -0.0993514 -0.519 146 111 117
0.343529 -0.0993514 -0.519 145 110 116
0.344517 -0.0993514 -0.519 144 109 115
0.345506 -0.0993514 -0.519 145 110 116
0.346494 -0.0993514 -0.519 146 111 117
0.346813 -0.09916 -0.518 146 111 117
0.3478 -0.09916 -0.518 146 111 117
0.348787 -0.09916 -0.518 145 110 114
0.349773 -0.09916 -0.518 144 109 113
0.35076 -0.09916 -0.518 145 110 114
0.351747 -0.09916 -0.518 145 110 114
0.352733 -0.09916 -0.518 143 108 112
0.35372 -0.09916 -0.518 142 107 111
0.354707 -0.09916 -0.518 141 109 112
0.355693 -0.09916 -0.518 140 108 111
0.35668 -0.09916 -0.518 140 108 111
0.357667 -0.09916 -0.518 141 109 112
0.358653 -0.09916 -0.518 141 109 110
0.35964 -0.09916 -0.518 142 110 111
0.360627 -0.09916 -0.518 142 110 111
0.361613 -0.09916 -0.518 143 111 112
0.3626 -0.09916 -0.518 143 111 112
0.363587 -0.09916 -0.518 144 112 113
0.36387 -0.0989686 -0.517 144 112 113
0.364854 -0.0989686 -0.517 144 112 115
0.365839 -0.0989686 -0.517 144 112 115
0.366824 -0.0989686 -0.517 142 110 113
0.367809 -0.0989686 -0.517 141 109 112
0.368793 -0.0989686 -0.517 141 109 112
0.369778 -0.0989686 -0.517 141 109 112
0.370763 -0.0989686 -0.517 141 109 112
0.371748 -0.0989686 -0.517 140 108 111
0.372732 -0.0989686 -0.517 141 106 110
0.373717 -0.0989686 -0.517 141 106 110
0.374702 -0.0989686 -0.517 141 106 110
0.375687 -0.0989686 -0.517 141 106 110
0.376671 -0.0989686 -0.517 142 107 111
0.377656 -0.0989686 -0.517 142 107 111
0.378641 -0.0989686 -0.517 141 106 110
0.379626 -0.0989686 -0.517 139 104 108
0.38061 -0.0989686 -0.517 138 106 107
0.381595 -0.0989686 -0.517 137 105 106
0.38258 -0.0989686 -0.517 139 107 110
0.383565 -0.0989686 -0.517 139 107 110
0.38455 -0.0989686 -0.517 141 109 112
0.385534 -0.0989686 -0.517 142 107 111
0.386519 -0.0989686 -0.517 144 109 113
0.388253 -0.09916 -0.518 147 111 113
0.38924 -0.09916 -0.518 147 111 113
0.39098 -0.0993514 -0.519 148 109 112
0.391969 -0.0993514 -0.519 150 111 114
0.393714 -0.0995429 -0.52 146 107 110
0.396223 -0.0999257 -0.522 151 112 115
0.398739 -0.100309 -0.524 150 109 113
0.4005 -0.1005 -0.525 150 109 113
0.30564 -0.109427 -0.566 80 64 75
0.30726 -0.10962 -0.567 73 54 74
0.30834 -0.10962 -0.567 75 56 76
0.30942 -0.10962 -0.567 75 61 74
0.3105 -0.10962 -0.567 75 61 74
0.31213 -0.109813 -0.568 76 60 73
0.313763 -0.110007 -0.569 75 59 72
0.3154 -0.1102 -0.57 77 61 74
0.316486 -0.1102 -0.57 74 58 71
0.317571 -0.1102 -0.57 70 57 67
0.319216 -0.110393 -0.571 74 61 71
0.320304 -0.110393 -0.571 67 54 63
0.321391 -0.110393 -0.571 51 38 47
0.322479 -0.110393 -0.571 53 40 49
0.323567 -0.110393 -0.571 55 42 51
0.324654 -0.110393 -0.571 54 41 50
0.325742 -0.110393 -0.571 54 41 50
0.326257 -0.1102 -0.57 58 45 54
0.327343 -0.1102 -0.57 58 45 52
0.328429 -0.1102 -0.57 56 43 50
0.329514 -0.1102 -0.57 49 39 47
0.33002 -0.110007 -0.569 53 43 51
0.331104 -0.110007 -0.569 53 43 51
0.332188 -0.110007 -0.569 60 50 58
0.333271 -0.110007 -0.569 79 69 78
0.334355 -0.110007 -0.569 90 80 89
0.335439 -0.110007 -0.569 86 80 90
0.336523 -0.110007 -0.569 91 85 95
0.337607 -0.110007 -0.569 83 80 91
0.33869 -0.110007 -0.569 83 80 91
0.339774 -0.110007 -0.569 69 67 80
0.341457 -0.1102 -0.57 72 70 83
0.343144 -0.110393 -0.571 91 90 104
0.344231 -0.110393 -0.571 94 93 107
0.345319 -0.110393 -0.571 72 74 87
0.346407 -0.110393 -0.571 46 48 61
0.347494 -0.110393 -0.571 38 46 57
0.348582 -0.110393 -0.571 34 42 53
0.34967 -0.110393 -0.571 34 42 53
0.350143 -0.1102 -0.57 80 87 95
0.350612 -0.110007 -0.569 82 89 97
0.351078 -0.109813 -0.568 79 86 92
0.35154 -0.10962 -0.567 88 95 101
0.350754 -0.10904 -0.564 116 117 122
0.349957 -0.10846 -0.561 111 112 117
0.348523 -0.107687 -0.557 135 120 127
0.347073 -0.106913 -0.553 139 124 131
0.34435 -0.105753 -0.547 138 108 116
0.342234 -0.104787 -0.542 139 109 117
0.3401 -0.10382 -0.537 144 109 115
0.337311 -0.10266 -0.531 144 109 115
0.336411 -0.10208 -0.528 143 111 116
0.334861 -0.101307 -0.524 143 111 116
0.335218 -0.101113 -0.523 143 110 117
0.334929 -0.100727 -0.521 144 111 118
0.335921 -0.100727 -0.521 145 113 118
0.336267 -0.100533 -0.52 149 117 122
0.337257 -0.100533 -0.52 151 119 124
0.337597 -0.10034 -0.519 148 116 121
0.338586 -0.10034 -0.519 144 111 118
0.339574 -0.10034 -0.519 144 111 118
0.340563 -0.10034 -0.519 142 109 116
0.341551 -0.10034 -0.519 143 108 114
0.34254 -0.10034 -0.519 144 109 115
0.343529 -0.10034 -0.519 144 109 115
0.344517 -0.10034 -0.519 144 109 115
0.345506 -0.10034 -0.519 145 110 116
0.346494 -0.10034 -0.519 145 110 116
0.346813 -0.100147 -0.518 145 110 116
0.3478 -0.100147 -0.518 145 110 116
0.348787 -0.100147 -0.518 144 109 115
0.349773 -0.100147 -0.518 144 109 115
0.35076 -0.100147 -0.518 145 110 116
0.351747 -0.100147 -0.518 144 109 115
0.352733 -0.100147 -0.518 141 109 112
0.353037 -0.0999533 -0.517 140 108 111
0.354022 -0.0999533 -0.517 140 108 111
0.355007 -0.0999533 -0.517 140 108 111
0.355991 -0.0999533 -0.517 141 109 112
0.356976 -0.0999533 -0.517 141 109 112
0.357961 -0.0999533 -0.517 141 109 112
0.358946 -0.0999533 -0.517 142 110 113
0.35993 -0.0999533 -0.517 142 110 113
0.360915 -0.0999533 -0.517 142 110 111
0.3619 -0.0999533 -0.517 143 111 112
0.362885 -0.0999533 -0.517 143 111 112
0.36387 -0.0999533 -0.517 143 111 112
0.364854 -0.0999533 -0.517 146 111 115
0.365839 -0.0999533 -0.517 145 110 114
0.366824 -0.0999533 -0.517 145 110 114
0.367809 -0.0999533 -0.517 145 110 114
0.368793 -0.0999533 -0.517 144 109 113
0.369778 -0.0999533 -0.517 144 109 113
0.370763 -0.0999533 -0.517 143 108 112
0.371748 -0.0999533 -0.517 143 108 112
0.372732 -0.0999533 -0.517 140 108 111
0.373717 -0.0999533 -0.517 139 107 110
0.374702 -0.0999533 -0.517 138 106 109
0.375687 -0.0999533 -0.517 138 106 109
0.376671 -0.0999533 -0.517 138 106 109
0.377656 -0.0999533 -0.517 139 107 110
0.378641 -0.0999533 -0.517 138 106 109
0.379626 -0.0999533 -0.517 138 106 109
0.38061 -0.0999533 -0.517 140 110 112
0.381595 -0.0999533 -0.517 138 108 110
0.38258 -0.0999533 -0.517 137 106 111
0.383565 -0.0999533 -0.517 137 106 111
0.38455 -0.0999533 -0.517 138 107 112
0.385534 -0.0999533 -0.517 138 106 109
0.386519 -0.0999533 -0.517 138 106 109
0.387504 -0.0999533 -0.517 143 109 110
0.388489 -0.0999533 -0.517 145 111 112
0.390227 -0.100147 -0.518 150 114 116
0.391213 -0.100147 -0.518 149 113 115
0.3922 -0.100147 -0.518 146 107 110
0.393946 -0.10034 -0.519 149 110 113
0.394934 -0.10034 -0.519 146 107 110
0.396686 -0.100533 -0.52 149 110 113
0.398441 -0.100727 -0.521 153 113 114
0.446893 -0.107107 -0.554 192 127 131
0.440671 -0.105367 -0.545 199 137 142
0.44171 -0.105367 -0.545 207 145 150
0.441935 -0.105173 -0.544 215 150 156
0.3051 -0.11031 -0.565 69 57 67
0.306718 -0.110505 -0.566 80 52 75
0.307796 -0.110505 -0.566 80 52 75
0.30942 -0.1107 -0.567 73 59 72
0.311048 -0.110895 -0.568 75 61 74
0.31213 -0.110895 -0.568 72 58 71
0.313763 -0.11109 -0.569 70 56 69
0.3154 -0.111286 -0.57 75 62 72
0.317041 -0.111481 -0.571 70 57 67
0.318129 -0.111481 -0.571 65 52 62
0.319216 -0.111481 -0.571 75 62 72
0.320304 -0.111481 -0.571 52 41 49
0.321954 -0.111676 -0.572 49 38 46
0.322479 -0.111481 -0.571 51 38 47
0.323567 -0.111481 -0.571 51 38 47
0.324654 -0.111481 -0.571 55 42 51
0.325742 -0.111481 -0.571 55 42 51
0.326257 -0.111286 -0.57 54 41 50
0.327343 -0.111286 -0.57 59 48 54
0.328429 -0.111286 -0.57 54 43 49
0.329514 -0.111286 -0.57 50 40 48
0.33002 -0.11109 -0.569 51 41 49
0.331104 -0.11109 -0.569 53 43 52
0.332188 -0.11109 -0.569 54 44 53
0.333271 -0.11109 -0.569 77 67 76
0.334355 -0.11109 -0.569 84 74 83
0.335439 -0.11109 -0.569 85 79 89
0.336523 -0.11109 -0.569 83 77 87
0.337607 -0.11109 -0.569 80 77 88
0.33869 -0.11109 -0.569 70 67 78
0.339774 -0.11109 -0.569 60 57 68
0.341457 -0.111286 -0.57 67 64 75
0.343144 -0.111481 -0.571 74 72 85
0.344231 -0.111481 -0.571 77 75 88
0.345924 -0.111676 -0.572 61 61 73
0.347013 -0.111676 -0.572 34 34 46
0.347494 -0.111481 -0.571 33 39 51
0.348582 -0.111481 -0.571 32 38 50
0.34967 -0.111481 -0.571 32 38 50
0.350143 -0.111286 -0.57 75 82 92
0.350612 -0.11109 -0.569 82 89 99
0.351078 -0.110895 -0.568 79 84 90
0.35092 -0.110505 -0.566 87 92 98
0.350132 -0.109919 -0.563 124 123 129
0.34871 -0.109138 -0.559 126 125 131
0.347271 -0.108357 -0.555 141 124 134
0.345818 -0.107576 -0.551 131 114 124
0.34309 -0.106405 -0.545 136 103 114
0.339709 -0.105038 -0.538 144 111 122
0.337567 -0.104062 -0.533 146 109 117
0.336041 -0.103281 -0.529 148 111 119
0.3345 -0.1025 -0.525 145 112 119
0.334222 -0.10211 -0.523 142 109 116
0.334577 -0.101914 -0.522 142 111 117
0.334929 -0.101719 -0.521 142 111 117
0.335276 -0.101524 -0.52 144 113 118
0.336267 -0.101524 -0.52 149 118 123
0.336609 -0.101329 -0.519 152 120 125
0.337597 -0.101329 -0.519 145 113 118
0.338586 -0.101329 -0.519 140 107 114
0.339574 -0.101329 -0.519 140 107 114
0.340563 -0.101329 -0.519 145 112 119
0.341551 -0.101329 -0.519 140 107 114
0.34254 -0.101329 -0.519 142 109 116
0.343529 -0.101329 -0.519 143 111 116
0.343853 -0.101133 -0.518 143 111 116
0.34484 -0.101133 -0.518 146 111 117
0.345827 -0.101133 -0.518 146 111 117
0.346813 -0.101133 -0.518 146 111 117
0.3478 -0.101133 -0.518 146 111 117
0.348787 -0.101133 -0.518 145 110 116
0.349773 -0.101133 -0.518 144 109 115
0.35076 -0.101133 -0.518 141 109 114
0.351747 -0.101133 -0.518 141 109 114
0.352733 -0.101133 -0.518 141 109 114
0.353037 -0.100938 -0.517 141 109 114
0.354022 -0.100938 -0.517 141 109 112
0.355007 -0.100938 -0.517 141 109 112
0.355991 -0.100938 -0.517 142 110 113
0.356976 -0.100938 -0.517 142 110 113
0.357961 -0.100938 -0.517 142 110 113
0.358946 -0.100938 -0.517 142 110 113
