ply
format ascii 1.0
Comment Generated by Floating Hands
element vertex 1115
Comment Left: (-0.1, -0.1, 0.1)
Comment Right: (0.1, -0.1, 0.2)
property double x
property double y
property double z
property uchar red
property uchar green
property uchar blue
end_header
0.1026476 0.01850207 0.2836677 255 0 255
0.1148845 0.01954789 0.2825865 255 0 255
0.08118203 0.01657178 0.2759166 255 0 255
0.08406282 0.01767226 0.2682621 255 0 255
0.08526416 0.01789679 0.2670031 255 0 255
0.07716437 0.0124725 0.2946384 255 0 255
0.08411401 0.01618667 0.2680825 255 0 255
0.09915428 0.01622563 0.2749625 255 0 255
0.08069875 0.01389713 0.272623 255 0 255
0.08656103 0.01516941 0.2653774 255 0 255
0.09053876 0.0156537 0.2635068 255 0 255
0.1092451 0.01574689 0.2722659 255 0 255
0.1155157 0.01689041 0.2674593 255 0 255
0.0884478 0.01357638 0.2668292 255 0 255
0.1059332 0.01414835 0.2708933 255 0 255
0.1127077 0.0143212 0.2732171 255 0 255
0.08446862 0.01161169 0.2684794 255 0 255
0.08588556 0.01172911 0.2681916 255 0 255
0.08058798 0.007369828 0.2861918 255 0 255
0.08789892 0.01099544 0.2635255 255 0 255
0.1037337 0.01223817 0.2618602 255 0 255
0.1137174 0.01168066 0.2705064 255 0 255
0.1179869 0.012189 0.2693066 255 0 255
0.06634054 0.00705836 0.2732925 255 0 255
0.08025986 0.006084904 0.2840267 255 0 255
0.08577352 0.008891588 0.2668099 255 0 255
0.0867605 0.009274571 0.2645815 255 0 255
0.08794829 0.009527454 0.2633184 255 0 255
0.09489202 0.01108029 0.2556673 255 0 255
0.1160626 0.01075191 0.2675962 255 0 255
0.05653324 0.004742418 0.2764425 255 0 255
0.06843524 0.006436863 0.2677457 255 0 255
0.07656314 0.007292194 0.2643496 255 0 255
0.08638167 0.008074375 0.262433 255 0 255
0.09558491 0.01017243 0.2522499 255 0 255
0.1012671 0.01060448 0.2518665 255 0 255
0.1053059 0.0102493 0.2559408 255 0 255
0.1141483 0.009335103 0.2658727 255 0 255
0.05809335 0.00482991 0.2660446 255 0 255
0.06019439 0.005699518 0.2607632 255 0 255
0.07097196 0.006666826 0.2570836 255 0 255
0.1139295 0.007971475 0.2646984 255 0 255
0.1156208 0.008007716 0.2652534 255 0 255
0.05925672 0.003739615 0.2636732 255 0 255
0.06483664 0.005464991 0.2538622 255 0 255
0.07303547 0.006011453 0.2524952 255 0 255
0.09046523 0.006645964 0.254042 255 0 255
0.09160127 0.006916379 0.252771 255 0 255
0.09520038 0.007596822 0.2498984 255 0 255
0.1170921 0.00668461 0.2646231 255 0 255
0.1193161 0.00730416 0.2619144 255 0 255
0.1213117 0.007213805 0.2633899 255 0 255
0.06607561 0.00428596 0.2524501 255 0 255
0.07503581 0.005394163 0.247897 255 0 255
0.08914237 0.005087698 0.2541204 255 0 255
0.09141679 0.005634488 0.2515848 255 0 255
0.09254093 0.005910333 0.250312 255 0 255
0.1003945 0.006884264 0.2473867 255 0 255
0.1140361 0.005858829 0.2590981 255 0 255
0.1204777 0.00613587 0.2603223 255 0 255
0.1269399 0.004853836 0.2707844 255 0 255
-0.06363771 0.01125221 0.2142345 255 0 255
0.05349428 -0.00107348 0.2739119 255 0 255
0.06815032 0.003670427 0.2478871 255 0 255
0.0787084 0.004617143 0.2449656 255 0 255
0.09123131 0.004361525 0.2503942 255 0 255
0.09258861 0.004492145 0.2500831 255 0 255
0.1188489 0.004620913 0.2595515 255 0 255
0.1338433 0.002794341 0.2767004 255 0 255
-0.06407266 0.01424617 0.1896628 255 0 255
-0.06510634 0.00998638 0.2147434 255 0 255
0.0614185 0.0003414063 0.2576995 255 0 255
0.08163211 0.0032955 0.2451656 255 0 255
0.09263556 0.003075076 0.2498487 255 0 255
0.09571099 0.004088939 0.2450585 255 0 255
0.09704883 0.00422764 0.2447314 255 0 255
0.1013168 0.004507364 0.244674 255 0 255
0.1091491 0.003777884 0.2517976 255 0 255
-0.0643519 0.0082883 0.2167231 255 0 255
-0.06210187 0.00786581 0.2181909 255 0 255
0.05269216 -0.004937014 0.2784807 255 0 255
0.0563207 -0.003751284 0.2720844 255 0 255
0.0690395 0.001462464 0.2442819 255 0 255
0.0701969 0.001717108 0.2430815 255 0 255
0.0901923 0.001241752 0.2511864 255 0 255
0.09379877 0.001949093 0.2483347 255 0 255
0.09709717 0.002828386 0.2444941 255 0 255
0.108371 0.002799046 0.2487083 255 0 255
0.119933 0.002927908 0.2525819 255 0 255
0.1219147 0.002810847 0.2540468 255 0 255
0.1274884 0.001851073 0.2616367 255 0 255
-0.06859493 0.008058238 0.2125746 255 0 255
-0.03867542 0.01363309 0.1700358 255 0 255
-0.02759229 0.01750355 0.1447122 255 0 255
0.05766099 -0.004994673 0.2706673 255 0 255
0.06756137 0.0001586028 0.2432975 255 0 255
0.07497299 0.001230162 0.2389765 255 0 255
0.07913107 0.001384297 0.2391725 255 0 255
0.0806603 0.001331906 0.2398698 255 0 255
0.08461004 0.0005860051 0.2450949 255 0 255
0.1011542 0.001861976 0.2432409 255 0 255
0.1149998 0.001415498 0.2507145 255 0 255
0.1180224 0.001608725 0.2508572 255 0 255
0.1262933 0.0009680948 0.2576295 255 0 255
0.1342176 -0.001056274 0.2717042 255 0 255
0.05645075 -0.008851471 0.2834672 255 0 255
0.06390298 -0.001815266 0.2456431 255 0 255
0.06990397 -0.0006927262 0.240662 255 0 255
0.07104637 -0.0004287254 0.2394607 255 0 255
0.08027778 0.0002975461 0.2377006 255 0 255
0.09206121 -0.0006752606 0.2462396 255 0 255
0.09316807 -0.000378122 0.2449696 255 0 255
0.09693974 0.0001964948 0.2430491 255 0 255
0.1194429 0.0003471384 0.2501933 255 0 255
0.1227864 0.0003979312 0.2512378 255 0 255
0.1384862 -0.002791266 0.2742187 255 0 255
-0.07177801 0.007294336 0.2043397 255 0 255
-0.07060847 0.006185046 0.2096797 255 0 255
-0.07034881 0.005385268 0.2137863 255 0 255
-0.06935954 0.005075017 0.2150193 255 0 255
-0.04195609 0.009375056 0.1821199 255 0 255
0.09075531 -0.002206711 0.2462935 255 0 255
0.09297139 -0.00160651 0.2437599 255 0 255
0.09455529 -0.001639549 0.2443985 255 0 255
0.09939568 -0.0007433482 0.241178 255 0 255
0.1049773 -0.0003100436 0.2407379 255 0 255
0.1361177 -0.004075065 0.2716176 255 0 255
0.1404514 -0.003441602 0.2701816 255 0 255
0.1415518 -0.003069644 0.2687651 255 0 255
-0.07213701 0.007700942 0.1959286 255 0 255
-0.04324807 0.008182857 0.182712 255 0 255
-0.03668396 0.004629207 0.1995948 255 0 255
-0.03448048 0.004279419 0.2008701 255 0 255
-0.03317619 0.00437291 0.2000389 255 0 255
0.0709279 -0.002972037 0.2379949 255 0 255
0.08341973 -0.002539599 0.2385763 255 0 255
0.0972828 -0.002756861 0.2434901 255 0 255
0.1181912 -0.002705708 0.2500722 255 0 255
0.1209187 -0.002346153 0.2492517 255 0 255
-0.06098924 0.00259099 0.2113091 255 0 255
-0.05812012 0.003854621 0.2038468 255 0 255
-0.0391312 0.004976574 0.1920916 255 0 255
-0.03829024 0.004525658 0.1941972 255 0 255
-0.03757925 0.00389558 0.1972735 255 0 255
-0.03608661 0.002636209 0.2034228 255 0 255
0.06484251 -0.005323784 0.2417569 255 0 255
0.06963892 -0.0044213 0.23797 255 0 255
0.09195223 -0.004697333 0.2445042 255 0 255
0.09682288 -0.003800584 0.2413219 255 0 255
0.1064026 -0.0029302 0.239856 255 0 255
0.1129825 -0.003981605 0.2472249 255 0 255
-0.05351043 0.005557335 0.1874821 255 0 255
-0.03930468 0.003639261 0.1928442 255 0 255
-0.03845952 0.003179959 0.1949487 255 0 255
-0.03652012 0.0008852549 0.2061149 255 0 255
0.06569948 -0.006045757 0.2383745 255 0 255
0.08437239 -0.004785035 0.2358556 255 0 255
0.08636428 -0.005208121 0.2384422 255 0 255
0.1005994 -0.004573946 0.2391009 255 0 255
0.1250138 -0.005527828 0.2515944 255 0 255
0.1333708 -0.007150096 0.2623731 255 0 255
-0.07854684 0.004593739 0.1956928 255 0 255
-0.07730014 0.003572617 0.2000862 255 0 255
-0.07097268 0.002109872 0.2046733 255 0 255
-0.07000957 0.0007426317 0.2109498 255 0 255
-0.05141626 0.005212974 0.1826617 255 0 255
0.08572345 -0.006018199 0.2353029 255 0 255
0.08998439 -0.007060445 0.2414019 255 0 255
0.1014354 -0.005441436 0.2365913 255 0 255
0.135177 -0.008613106 0.2625421 255 0 255
-0.07968188 0.002699165 0.1992424 255 0 255
-0.06548437 -0.0001995458 0.2076821 255 0 255
-0.04903641 0.004053516 0.1818838 255 0 255
-0.0449684 0.00324871 0.1845769 255 0 255
-0.0440264 0.00295691 0.185725 255 0 255
-0.03818214 -0.002015048 0.2084 255 0 255
0.06787387 -0.007991772 0.2344997 255 0 255
0.07292491 -0.007417476 0.232609 255 0 255
0.09700405 -0.006877073 0.2354273 255 0 255
0.1475371 -0.01164787 0.2736607 255 0 255
-0.07367527 -0.0001977422 0.20458 255 0 255
-0.05609996 0.0032603 0.1823158 255 0 255
-0.04230391 0.00104501 0.1887504 255 0 255
-0.03810059 -0.004891709 0.2160769 255 0 255
0.06527331 -0.009507616 0.2346601 255 0 255
0.09704517 -0.008237934 0.2351465 255 0 255
0.1025698 -0.007838846 0.234742 255 0 255
0.1231769 -0.009688223 0.2492787 255 0 255
-0.08355395 0.000629316 0.1987563 255 0 255
-0.07821134 -0.0005854405 0.2022059 255 0 255
-0.06868576 -0.001831715 0.2044913 255 0 255
-0.06655568 -0.001216106 0.2009435 255 0 255
-0.05246136 0.003249787 0.1758121 255 0 255
-0.05158195 0.002939705 0.1769801 255 0 255
-0.04979783 0.002322896 0.1793085 255 0 255
-0.04816826 0.001515321 0.182589 255 0 255
-0.04345797 4.5905E-06 0.1883402 255 0 255
-0.03973918 -0.003064385 0.2017671 255 0 255
0.08100855 -0.008338435 0.225476 255 0 255
0.08424588 -0.00869486 0.2277894 255 0 255
0.09277445 -0.01092967 0.2399348 255 0 255
0.09627374 -0.010127 0.2370812 255 0 255
0.1052394 -0.008892045 0.2337508 255 0 255
-0.07979393 -0.0008940776 0.1985127 255 0 255
-0.07254935 -0.002784068 0.204364 255 0 255
-0.06943127 -0.002509001 0.2020663 255 0 255
-0.05443621 0.002591226 0.1741991 255 0 255
-0.05227989 0.00235317 0.1746254 255 0 255
-0.04982256 0.001216436 0.179077 255 0 255
-0.04317414 -0.00224322 0.1931037 255 0 255
0.07631765 -0.01049535 0.2281523 255 0 255
0.09232878 -0.01190615 0.2377405 255 0 255
0.09738167 -0.01115332 0.2355149 255 0 255
0.1005349 -0.01012446 0.2316785 255 0 255
0.1290816 -0.01197386 0.2478671 255 0 255
-0.08277312 -0.001194108 0.1954384 255 0 255
-0.07327458 -0.003450412 0.2019273 255 0 255
-0.05554011 0.001625315 0.1737486 255 0 255
-0.04671738 -0.00175348 0.1863454 255 0 255
-0.0461208 -0.002473167 0.1894206 255 0 255
-0.04183598 -0.004836853 0.1989944 255 0 255
0.07505372 -0.01191845 0.2281147 255 0 255
0.09394082 -0.01333891 0.2380772 255 0 255
0.09584528 -0.01245451 0.2345972 255 0 255
0.1008431 -0.01167301 0.2323259 255 0 255
0.1047667 -0.01121368 0.2312826 255 0 255
0.1076617 -0.01109379 0.2315009 255 0 255
0.1418294 -0.0156088 0.2609017 255 0 255
0.1443163 -0.01497314 0.2589975 255 0 255
-0.07347125 -0.00370124 0.1975971 255 0 255
-0.06539336 -0.001498427 0.1854108 255 0 255
-0.05925498 0.0005134314 0.1747372 255 0 255
-0.0553484 0.0007423164 0.1725584 255 0 255
-0.05341087 0.0002952049 0.1739461 255 0 255
-0.04569681 -0.004557535 0.193206 255 0 255
-0.04233134 -0.006646615 0.2016314 255 0 255
0.1008827 -0.01302388 0.2320248 255 0 255
-0.08458535 -0.002815367 0.1924074 255 0 255
-0.08112054 -0.003337716 0.1933629 255 0 255
-0.0753209 -0.004166485 0.1948714 255 0 255
-0.06120871 -0.0001079984 0.1730714 255 0 255
-0.05099448 -0.001981274 0.1781545 255 0 255
-0.04752254 -0.00348519 0.1837373 255 0 255
-0.040014 -0.01187915 0.2184471 255 0 255
0.06767613 -0.0155691 0.2308481 255 0 255
0.07251742 -0.014755 0.2280104 255 0 255
0.07342096 -0.01422424 0.225856 255 0 255
0.07450867 -0.01390689 0.2246558 255 0 255
0.08047599 -0.01293403 0.2214651 255 0 255
0.08174638 -0.01281848 0.2211956 255 0 255
0.09855724 -0.01487782 0.2333328 255 0 255
0.104569 -0.01370574 0.2297377 255 0 255
0.1058714 -0.0135478 0.2293816 255 0 255
0.1090528 -0.01363523 0.2305247 255 0 255
0.1112408 -0.01408349 0.2329532 255 0 255
0.1229028 -0.01545089 0.241725 255 0 255
0.1309379 -0.01627307 0.2473851 255 0 255
0.1339829 -0.01706438 0.2515391 255 0 255
0.1391508 -0.01802895 0.2570398 255 0 255
-0.08746843 -0.003047556 0.1892901 255 0 255
-0.06207304 -0.000850185 0.1716368 255 0 255
-0.05839084 -0.0008295682 0.1704495 255 0 255
-0.05518333 -0.001208803 0.1711228 255 0 255
-0.05170934 -0.00253954 0.175789 255 0 255
-0.04939997 -0.00395416 0.181178 255 0 255
-0.04751201 -0.006008614 0.1894304 255 0 255
-0.04453636 -0.01022642 0.2066982 255 0 255
0.0703164 -0.0167041 0.2300909 255 0 255
0.1046086 -0.01504917 0.2294271 255 0 255
0.1056283 -0.01468097 0.2281353 255 0 255
0.1212857 -0.01683788 0.24089 255 0 255
0.1232666 -0.01706151 0.242326 255 0 255
0.1434291 -0.01884347 0.25524 255 0 255
0.1444765 -0.01841749 0.2538313 255 0 255
-0.08321778 -0.00513355 0.1912655 255 0 255
-0.07635774 -0.00515234 0.1890504 255 0 255
-0.06607543 -0.002145777 0.1734746 255 0 255
-0.05193876 -0.003848755 0.1764925 255 0 255
-0.04906777 -0.006053241 0.1849473 255 0 255
-0.04520715 -0.01232088 0.2102658 255 0 255
0.08307582 -0.01528591 0.2203192 255 0 255
0.1148608 -0.01709576 0.2343424 255 0 255
0.1193627 -0.01800266 0.2391167 255 0 255
0.1233131 -0.01846898 0.2419946 255 0 255
-0.08038326 -0.006228825 0.1897521 255 0 255
-0.0630299 -0.001657392 0.1659223 255 0 255
-0.05095326 -0.00650562 0.1823724 255 0 255
-0.04508714 -0.01713819 0.2247625 255 0 255
0.0711048 -0.01856625 0.2263662 255 0 255
0.07290763 -0.01746043 0.2220743 255 0 255
0.07525882 -0.01702749 0.2206332 255 0 255
0.08183403 -0.01669502 0.2202843 255 0 255
0.09270377 -0.0175894 0.2258127 255 0 255
0.1015284 -0.01760465 0.2276139 255 0 255
0.1247133 -0.0196832 0.2412346 255 0 255
0.1382828 -0.02183191 0.2532486 255 0 255
0.1462904 -0.02027959 0.2494036 255 0 255
-0.05526387 -0.004432329 0.170369 255 0 255
-0.04788041 -0.01477563 0.2102718 255 0 255
0.08844963 -0.01759424 0.2194991 255 0 255
0.1010195 -0.01849129 0.2254172 255 0 255
0.102312 -0.01833856 0.2250747 255 0 255
0.1201671 -0.02016383 0.2361868 255 0 255
0.126112 -0.02089269 0.2404645 255 0 255
0.1274636 -0.02069563 0.2400317 255 0 255
0.1414831 -0.02306705 0.2528459 255 0 255
0.1425301 -0.02263135 0.2514465 255 0 255
-0.0846708 -0.006587166 0.1829628 255 0 255
-0.0691474 -0.003714962 0.1669515 255 0 255
-0.0625903 -0.003328263 0.1635305 255 0 255
-0.05613931 -0.005152381 0.1689411 255 0 255
-0.05262815 -0.007814863 0.178566 255 0 255
-0.05014646 -0.0138056 0.2017329 255 0 255
0.06334274 -0.01628245 0.2053843 255 0 255
0.09766922 -0.019431 0.2229493 255 0 255
0.1080873 -0.01947451 0.2251909 255 0 255
0.1106721 -0.01914081 0.224451 255 0 255
0.1125667 -0.01941619 0.2259278 255 0 255
0.138383 -0.02475541 0.2525297 255 0 255
0.1425815 -0.02409093 0.2510846 255 0 255
-0.08470875 -0.007723474 0.1826849 255 0 255
-0.07570878 -0.006987284 0.1770783 255 0 255
-0.05334405 -0.008332472 0.1761831 255 0 255
-0.05241601 -0.01300287 0.1941503 255 0 255
-0.05174104 -0.01534713 0.2031459 255 0 255
-0.05092522 -0.01769641 0.2121476 255 0 255
-0.04777139 -0.01522894 0.2018273 255 0 255
0.08227829 -0.01949934 0.2152738 255 0 255
0.08353443 -0.01937938 0.2149988 255 0 255
0.09435498 -0.02033307 0.2204518 255 0 255
0.09770194 -0.02074175 0.222619 255 0 255
0.106254 -0.02050867 0.2233589 255 0 255
0.1142078 -0.02080267 0.2261325 255 0 255
0.1189974 -0.02202264 0.2318068 255 0 255
0.1252272 -0.02302471 0.2370064 255 0 255
0.1380889 -0.02599396 0.2512487 255 0 255
-0.08474657 -0.008858515 0.1824024 255 0 255
-0.08362221 -0.009037814 0.1827232 255 0 255
-0.07909254 -0.008663842 0.1799371 255 0 255
-0.06629721 -0.004397411 0.1601312 255 0 255
-0.06111025 -0.005101155 0.1613698 255 0 255
-0.05378653 -0.009896751 0.1778073 255 0 255
-0.05262845 -0.01286043 0.1888915 255 0 255
0.07319739 -0.02285704 0.2217382 255 0 255
0.09387033 -0.02115958 0.2182453 255 0 255
0.09693837 -0.02134577 0.2194783 255 0 255
0.1054265 -0.02113039 0.2202336 255 0 255
0.1085693 -0.02126777 0.2213678 255 0 255
0.1120382 -0.02162242 0.2234 255 0 255
0.1180969 -0.02269793 0.228693 255 0 255
0.1292804 -0.02492187 0.239451 255 0 255
0.1398819 -0.0274527 0.2513116 255 0 255
-0.08395797 -0.01039899 0.1833631 255 0 255
-0.07546076 -0.007890786 0.1715731 255 0 255
-0.07025702 -0.005679445 0.1618799 255 0 255
-0.05537646 -0.01003023 0.1742544 255 0 255
0.07833519 -0.02214112 0.2144715 255 0 255
0.08759383 -0.02178354 0.2144316 255 0 255
0.09951764 -0.0223467 0.2184817 255 0 255
0.125669 -0.02490953 0.2331129 255 0 255
0.131349 -0.02657728 0.2404701 255 0 255
0.1455216 -0.02800132 0.2489769 255 0 255
-0.08482182 -0.01112453 0.181824 255 0 255
-0.06092155 -0.006940254 0.1598972 255 0 255
-0.05988417 -0.00707565 0.1601325 255 0 255
-0.05436807 -0.01416499 0.1850361 255 0 255
0.05953962 -0.01405285 0.1772968 255 0 255
0.09214907 -0.02338796 0.2160089 255 0 255
0.09493794 -0.02335229 0.2163187 255 0 255
0.1086392 -0.02389232 0.2206787 255 0 255
0.1185332 -0.02450202 0.2248266 255 0 255
0.1307203 -0.02751667 0.2382727 255 0 255
0.1392814 -0.02989908 0.2487297 255 0 255
0.1410263 -0.02990797 0.2491585 255 0 255
0.1462927 -0.02991198 0.2504 255 0 255
-0.0593512 -0.008729117 0.1619723 255 0 255
0.1125173 -0.02469059 0.2192067 255 0 255
0.144221 -0.03113549 0.2486985 255 0 255
-0.06459815 -0.007953841 0.1565051 255 0 255
0.0846818 -0.02533592 0.2121066 255 0 255
0.1034251 -0.02576199 0.216417 255 0 255
0.1122451 -0.02575293 0.2179299 255 0 255
0.1397135 -0.03184799 0.2447517 255 0 255
-0.08261148 -0.01372789 0.1775498 255 0 255
-0.07466458 -0.01035627 0.1636531 255 0 255
-0.07086798 -0.009210033 0.1586471 255 0 255
-0.06308111 -0.009756864 0.1585892 255 0 255
-0.0588296 -0.01144399 0.1635187 255 0 255
0.07566623 -0.02881618 0.218579 255 0 255
0.07907256 -0.02796474 0.2159298 255 0 255
0.08846048 -0.02621084 0.2108958 255 0 255
0.1103954 -0.02672931 0.2161058 255 0 255
0.1122785 -0.02705512 0.2175688 255 0 255
0.1163985 -0.02794141 0.2213843 255 0 255
0.1209165 -0.02787848 0.2220089 255 0 255
0.127817 -0.02950025 0.2289443 255 0 255
0.141494 -0.03329501 0.2447789 255 0 255
-0.08548306 -0.01496689 0.1784497 255 0 255
-0.07193556 -0.01008573 0.1580894 255 0 255
-0.05967419 -0.01210014 0.1620625 255 0 255
-0.05810896 -0.01428825 0.1693169 255 0 255
-0.0581063 -0.01853474 0.1841049 255 0 255
-0.05781501 -0.0196976 0.1880988 255 0 255
0.0733173 -0.03056895 0.2196521 255 0 255
0.07887656 -0.02897104 0.2146326 255 0 255
0.08221745 -0.02809561 0.211957 255 0 255
0.09373821 -0.02718098 0.2102609 255 0 255
0.09525243 -0.02729664 0.2108749 255 0 255
0.1120042 -0.02810301 0.2162849 255 0 255
0.1225748 -0.02926185 0.2221346 255 0 255
0.1298565 -0.03115032 0.2299396 255 0 255
-0.08490673 -0.01558822 0.1763003 255 0 255
-0.08288705 -0.01502478 0.1738593 255 0 255
-0.07802419 -0.01313125 0.1661801 255 0 255
-0.06518243 -0.01035964 0.1535508 255 0 255
0.07442124 -0.03147628 0.2181021 255 0 255
0.0895074 -0.02832526 0.2089564 255 0 255
0.09527815 -0.02855751 0.2105147 255 0 255
0.1139298 -0.02973459 0.2173657 255 0 255
0.1161513 -0.03032196 0.219722 255 0 255
0.1390952 -0.0344104 0.2376593 255 0 255
-0.06697447 -0.01081612 0.1518282 255 0 255
-0.06029586 -0.01351911 0.1593739 255 0 255
-0.05808698 -0.01497348 0.1638031 255 0 255
0.07206299 -0.03322998 0.2191547 255 0 255
0.08203078 -0.03033605 0.2102994 255 0 255
0.08530707 -0.02942888 0.2076006 255 0 255
0.1086169 -0.03025302 0.2135324 255 0 255
0.1232754 -0.03120596 0.2191385 255 0 255
0.1275496 -0.03208767 0.2228196 255 0 255
-0.07572646 -0.01320262 0.1582121 255 0 255
-0.07351757 -0.01233657 0.1548141 255 0 255
-0.06217937 -0.01280935 0.1537084 255 0 255
-0.05894049 -0.01561836 0.1623391 255 0 255
0.07207894 -0.03450706 0.2187795 255 0 255
0.07893386 -0.03275821 0.2135355 255 0 255
0.08205036 -0.03158498 0.2099322 255 0 255
0.08307178 -0.03119062 0.2087254 255 0 255
0.09054412 -0.030416 0.2069994 255 0 255
0.1011712 -0.03127994 0.2112378 255 0 255
0.1055255 -0.03133561 0.2120393 255 0 255
0.1216901 -0.03245544 0.2182586 255 0 255
0.1350005 -0.03537472 0.2301106 255 0 255
0.1381091 -0.03644102 0.2341439 255 0 255
0.1429808 -0.0375254 0.2385723 255 0 255
0.1464539 -0.03756726 0.2393753 255 0 255
-0.07136876 -0.01246842 0.1511107 255 0 255
-0.06703447 -0.01282261 0.1512453 255 0 255
-0.06271319 -0.01314212 0.1513145 255 0 255
0.0802201 -0.03390175 0.2128979 255 0 255
0.08148744 -0.03378371 0.2126313 255 0 255
0.09633376 -0.03191219 0.2081611 255 0 255
0.0999367 -0.03270073 0.2111961 255 0 255
0.1042892 -0.03277102 0.212011 255 0 255
0.1133997 -0.03309782 0.2143943 255 0 255
0.1165798 -0.03326976 0.2154413 255 0 255
0.1463729 -0.03771298 0.2348855 255 0 255
-0.08167384 -0.0171225 0.1649572 255 0 255
-0.06780051 -0.01340454 0.1497669 255 0 255
-0.06450237 -0.01358303 0.1496025 255 0 255
-0.06172686 -0.01428312 0.1512568 255 0 255
-0.06121283 -0.0149658 0.1533508 255 0 255
-0.05840112 -0.01838062 0.163817 255 0 255
0.07339921 -0.03695341 0.217776 255 0 255
0.08884205 -0.03247663 0.2046977 255 0 255
0.09359439 -0.03317507 0.2074917 255 0 255
0.1046034 -0.03431677 0.2125432 255 0 255
0.1147014 -0.03420685 0.21362 255 0 255
0.1266308 -0.03528413 0.2189212 255 0 255
0.1433287 -0.03931953 0.2345577 255 0 255
-0.07114256 -0.01420395 0.1495928 255 0 255
-0.05853751 -0.02247908 0.1732821 255 0 255
0.07321591 -0.03793821 0.2164486 255 0 255
0.08003377 -0.03612982 0.2111994 255 0 255
0.08129819 -0.03601173 0.2109337 255 0 255
0.09335344 -0.03413985 0.206186 255 0 255
0.1009639 -0.0347955 0.2091706 255 0 255
0.1211252 -0.0358387 0.2152607 255 0 255
0.1266628 -0.03660166 0.2185164 255 0 255
0.1316826 -0.03807585 0.2239365 255 0 255
0.1371528 -0.03979161 0.2301987 255 0 255
0.1461148 -0.03791416 0.2259353 255 0 255
-0.07763451 -0.01671579 0.1554854 255 0 255
-0.07378405 -0.01542278 0.1505713 255 0 255
-0.07016274 -0.01535907 0.149557 255 0 255
-0.06177109 -0.01753454 0.1545934 255 0 255
-0.06043563 -0.01865381 0.1578458 255 0 255
-0.05892027 -0.02103274 0.1650433 255 0 255
-0.05875842 -0.02229603 0.1689956 255 0 255
0.07580142 -0.03899163 0.2155667 255 0 255
0.07878393 -0.03749626 0.2110715 255 0 255
0.08640435 -0.03520113 0.204517 255 0 255
0.1012681 -0.03633579 0.2096961 255 0 255
0.1097161 -0.03619315 0.210319 255 0 255
0.113172 -0.03667982 0.2122997 255 0 255
0.1144421 -0.03650018 0.2119171 255 0 255
0.1250615 -0.03784486 0.217632 255 0 255
0.1361211 -0.04034636 0.2270888 255 0 255
0.1392461 -0.04148071 0.2310899 255 0 255
0.1423032 -0.0412938 0.2310249 255 0 255
0.144759 -0.04186885 0.2332062 255 0 255
-0.06334439 -0.01769424 0.1519505 255 0 255
-0.05527627 -0.02191296 0.1635144 255 0 255
0.07493276 -0.04095328 0.2172823 255 0 255
0.08766133 -0.03629921 0.2038414 255 0 255
0.09975124 -0.03746457 0.2087174 255 0 255
0.1440545 -0.04271164 0.2309915 255 0 255
-0.07812043 -0.01803172 0.1527333 255 0 255
-0.07224526 -0.0170294 0.1483958 255 0 255
-0.06892977 -0.01722504 0.1482832 255 0 255
0.07775854 -0.04040396 0.211466 255 0 255
0.07881324 -0.0399927 0.2102786 255 0 255
0.0916493 -0.03741221 0.20348 255 0 255
0.09315036 -0.03756388 0.2040934 255 0 255
0.1007492 -0.03827387 0.2070662 255 0 255
0.105382 -0.03866054 0.208773 255 0 255
0.1129119 -0.03895159 0.2105802 255 0 255
0.1413856 -0.04455755 0.2315196 255 0 255
0.1416389 -0.04349345 0.2283728 255 0 255
-0.07097659 -0.01789887 0.1474372 255 0 255
-0.06996869 -0.01805789 0.1477042 255 0 255
-0.06389859 -0.01897206 0.1492309 255 0 255
0.07267328 -0.04208788 0.2120459 255 0 255
0.07987321 -0.04082155 0.208686 255 0 255
0.09895951 -0.03908977 0.2051658 255 0 255
0.1002069 -0.03893545 0.204834 255 0 255
0.1132587 -0.03917633 0.2070743 255 0 255
0.1167343 -0.03967646 0.2090103 255 0 255
0.1186494 -0.04006433 0.2104167 255 0 255
0.1205776 -0.0404476 0.211814 255 0 255
0.1290212 -0.04115644 0.2150877 255 0 255
0.1406922 -0.04537273 0.2292958 255 0 255
0.1444923 -0.04574934 0.2309884 255 0 255
-0.07533246 -0.01851525 0.1469241 255 0 255
-0.06971335 -0.01875746 0.146471 255 0 255
-0.06770121 -0.01906951 0.1469919 255 0 255
-0.0649416 -0.01981479 0.1486651 255 0 255
-0.06054651 -0.02273682 0.1565504 255 0 255
0.05375209 -0.01877208 0.1367311 255 0 255
-0.0737553 -0.01909184 0.1450654 255 0 255
-0.07145847 -0.01912893 0.1447036 255 0 255
-0.06945767 -0.01944828 0.1452364 255 0 255
-0.06191105 -0.02257522 0.1529837 255 0 255
-0.06137266 -0.02331375 0.1550616 255 0 255
-0.0596606 -0.02552983 0.1612933 255 0 255
0.07437512 -0.04509725 0.2128401 255 0 255
0.07928624 -0.04434116 0.2109054 255 0 255
0.08265256 -0.04336686 0.2082566 255 0 255
0.09170054 -0.04109192 0.2022707 255 0 255
0.09622655 -0.04156859 0.2040819 255 0 255
0.1030266 -0.04139684 0.2042467 255 0 255
0.1048598 -0.04183389 0.2057168 255 0 255
0.113305 -0.0416933 0.2062413 255 0 255
0.1267521 -0.04309506 0.211982 255 0 255
0.1393015 -0.04695294 0.2248469 255 0 255
0.1447874 -0.04740562 0.2269374 255 0 255
0.1511119 -0.04839018 0.230709 255 0 255
-0.07148869 -0.02010605 0.1443794 255 0 255
-0.06219059 -0.02388009 0.1535696 255 0 255
0.08139922 -0.04472874 0.2081083 255 0 255
0.09845929 -0.04219438 0.2021069 255 0 255
0.1045863 -0.04277709 0.2043893 255 0 255
0.1130116 -0.0426488 0.2049173 255 0 255
0.1164827 -0.04318135 0.206845 255 0 255
0.1219273 -0.04409862 0.2101247 255 0 255
0.1376365 -0.04823764 0.2239744 255 0 255
0.1434749 -0.04900746 0.2269658 255 0 255
0.1454033 -0.0479489 0.2242251 255 0 255
0.1480644 -0.04746329 0.2232294 255 0 255
0.008640671 -0.02142236 0.1352178 255 0 255
0.09173098 -0.04353664 0.2014408 255 0 255
0.09819826 -0.04311283 0.2007778 255 0 255
0.1061522 -0.04415909 0.2045184 255 0 255
0.1080059 -0.04460263 0.2059686 255 0 255
0.1089608 -0.04412467 0.2047032 255 0 255
0.1133478 -0.04420329 0.2053887 255 0 255
0.1271472 -0.04597274 0.2119957 255 0 255
0.1349073 -0.04861683 0.2204343 255 0 255
-0.06032993 -0.02786828 0.1581789 255 0 255
0.007670284 -0.02265987 0.1358548 255 0 255
0.01043192 -0.04627604 0.2038511 255 0 255
0.02300266 -0.03905494 0.1826245 255 0 255
0.0237756 -0.03083546 0.1589216 255 0 255
0.07993291 -0.0470049 0.2066011 255 0 255
0.08372203 -0.04663899 0.2057944 255 0 255
0.08498277 -0.04651226 0.2055167 255 0 255
0.08600231 -0.04606597 0.204317 255 0 255
0.08826268 -0.04548503 0.2028255 255 0 255
0.09024778 -0.04458068 0.200406 255 0 255
0.1200365 -0.04623833 0.2078671 255 0 255
0.1232475 -0.04645444 0.2088335 255 0 255
0.1420494 -0.05053507 0.2225112 255 0 255
-0.07357703 -0.02269832 0.1428385 255 0 255
0.007704824 -0.02755989 0.1468544 255 0 255
0.01608076 -0.05545365 0.2259565 255 0 255
0.07173937 -0.04793029 0.2048889 255 0 255
0.1058909 -0.04632896 0.2027511 255 0 255
0.1077418 -0.04678719 0.2041974 255 0 255
0.1137026 -0.04701769 0.205413 255 0 255
0.1181336 -0.04707929 0.2060374 255 0 255
0.1216606 -0.04761907 0.2079081 255 0 255
-0.0736073 -0.02366879 0.1424993 255 0 255
-0.06511193 -0.02572695 0.1466611 255 0 255
-0.06110693 -0.03086388 0.1602187 255 0 255
0.07401548 -0.05068607 0.2088347 255 0 255
0.0778458 -0.050353 0.2080901 255 0 255
0.0857848 -0.04819294 0.2025377 255 0 255
0.09700384 -0.04692652 0.1998183 255 0 255
0.1000461 -0.04725851 0.2009754 255 0 255
0.1043625 -0.04741318 0.2017618 255 0 255
0.1216812 -0.04888811 0.2074575 255 0 255
0.1457037 -0.05219811 0.2192282 255 0 255
0.1824328 -0.06509231 0.2589502 255 0 255
0.1883124 -0.05993684 0.2459969 255 0 255
-0.06514004 -0.02670723 0.1463135 255 0 255
0.02174711 -0.06037643 0.2314287 255 0 255
0.03522513 -0.05915722 0.2277809 255 0 255
0.07764026 -0.05125781 0.2067271 255 0 255
0.07869422 -0.0508116 0.2055524 255 0 255
0.1134232 -0.04920179 0.203625 255 0 255
0.1153195 -0.04965473 0.2050289 255 0 255
0.1226349 -0.04964037 0.2057046 255 0 255
0.1305101 -0.05132592 0.211078 255 0 255
0.140643 -0.05332138 0.2175797 255 0 255
0.1457293 -0.05353314 0.2187483 255 0 255
0.1736195 -0.06031 0.2404314 255 0 255
-0.06076568 -0.03083322 0.1537668 255 0 255
0.03432762 -0.06253439 0.2330347 255 0 255
0.03766934 -0.05935281 0.224283 255 0 255
0.03676075 -0.04663191 0.1894565 255 0 255
0.06828297 -0.05010372 0.199424 255 0 255
0.07255082 -0.05292721 0.2072604 255 0 255
0.09179427 -0.04961776 0.1992826 255 0 255
0.1314639 -0.05208236 0.2092882 255 0 255
0.1427314 -0.0550355 0.2183665 255 0 255
0.1501582 -0.05710924 0.2247182 255 0 255
0.1682625 -0.05660652 0.2256651 255 0 255
-0.07210231 -0.0261003 0.1399329 255 0 255
-0.06368099 -0.02961593 0.1479079 255 0 255
-0.06291065 -0.03009101 0.1490559 255 0 255
0.03301203 -0.06422277 0.2335892 255 0 255
0.06536407 -0.04833143 0.190909 255 0 255
0.06923939 -0.0530007 0.2035883 255 0 255
0.07127898 -0.05426007 0.2070422 255 0 255
0.08101649 -0.05268627 0.2032178 255 0 255
0.08432319 -0.051639 0.2005777 255 0 255
0.09056082 -0.05096964 0.1991378 255 0 255
0.1044058 -0.05109891 0.2004207 255 0 255
0.108453 -0.05091745 0.2002537 255 0 255
0.1191413 -0.05158547 0.2029361 255 0 255
0.127515 -0.05251077 0.2061693 255 0 255
0.1844 -0.06165677 0.236801 255 0 255
0.1835723 -0.05861214 0.22882 255 0 255
-0.06549147 -0.02996702 0.1461533 255 0 255
0.00484564 -0.02219034 0.1179502 255 0 255
0.01236422 -0.02647687 0.1290992 255 0 255
0.01933717 -0.04467709 0.1775932 255 0 255
0.02644063 -0.068096 0.2400822 255 0 255
0.03716789 -0.06544003 0.2327814 255 0 255
0.03864405 -0.06575163 0.2335982 255 0 255
0.0433607 -0.06278394 0.2256341 255 0 255
0.07765976 -0.05494261 0.2053711 255 0 255
0.07976085 -0.05402515 0.2030272 255 0 255
0.08683025 -0.05258841 0.1995639 255 0 255
0.08932476 -0.05231783 0.1989838 255 0 255
0.1010584 -0.05164973 0.197955 255 0 255
0.1025888 -0.05182193 0.1985147 255 0 255
0.105371 -0.05182356 0.1987197 255 0 255
0.1097155 -0.05196964 0.1994326 255 0 255
0.1275334 -0.053778 0.2056969 255 0 255
0.139226 -0.05600185 0.2126337 255 0 255
0.1362369 -0.03492827 0.1578647 255 0 255
0.1835742 -0.05756967 0.2220252 255 0 255
-0.07116702 -0.0281801 0.1394923 255 0 255
-0.06700795 -0.02997159 0.1434849 255 0 255
0.01330869 -0.0273778 0.1287352 255 0 255
0.0206703 -0.04717511 0.1808678 255 0 255
0.02350319 -0.05883745 0.2116329 255 0 255
0.03993535 -0.06667454 0.2320507 255 0 255
0.04437692 -0.0586856 0.2109339 255 0 255
0.09254046 -0.05241982 0.1958204 255 0 255
0.1053833 -0.05304256 0.1982598 255 0 255
0.1125379 -0.05316985 0.1991189 255 0 255
0.1564594 -0.06355587 0.229932 255 0 255
0.135352 -0.03337461 0.1506178 255 0 255
0.1710147 -0.05403701 0.2074336 255 0 255
0.1798429 -0.05527914 0.2117269 255 0 255
-0.07257907 -0.02814135 0.1368055 255 0 255
-0.06991027 -0.02896794 0.1384984 255 0 255
-0.06629582 -0.03143086 0.144271 255 0 255
-0.002009642 -0.01298203 0.08916333 255 0 255
0.0004949423 -0.02128755 0.1107231 255 0 255
0.006632512 -0.02714133 0.1257091 255 0 255
0.01038206 -0.02682928 0.1247289 255 0 255
0.02582529 -0.06683929 0.2288142 255 0 255
0.02807235 -0.07218246 0.2427203 255 0 255
0.03328583 -0.06958814 0.2358326 255 0 255
0.0346901 -0.0695581 0.2357298 255 0 255
0.08021406 -0.05715404 0.2039267 255 0 255
0.08355755 -0.05608704 0.2013022 255 0 255
0.08481723 -0.05595894 0.2010257 255 0 255
0.09033123 -0.05424679 0.1968687 255 0 255
0.1053948 -0.05425971 0.1977953 255 0 255
0.1063389 -0.0537501 0.1965516 255 0 255
0.1097413 -0.05441853 0.1985033 255 0 255
0.1308262 -0.05654081 0.2056203 255 0 255
0.15082 -0.06163101 0.2204493 255 0 255
0.155696 -0.06429263 0.2276821 255 0 255
0.1045485 -0.01366634 0.09443031 255 0 255
0.1587185 -0.04571773 0.1812954 255 0 255
0.1644644 -0.04854838 0.1890911 255 0 255
-0.07519428 -0.02941062 0.1376801 255 0 255
-0.06851849 -0.0309139 0.1404465 255 0 255
-0.002902796 -0.01440994 0.09071608 255 0 255
0.0003155732 -0.02427279 0.116001 255 0 255
0.004731504 -0.02835176 0.1263057 255 0 255
0.01038823 -0.02807039 0.1253226 255 0 255
0.01661317 -0.03350202 0.1391305 255 0 255
0.02986832 -0.0756771 0.2476991 255 0 255
0.03468225 -0.07088122 0.2352201 255 0 255
0.03706258 -0.06901093 0.2303557 255 0 255
0.04913644 -0.06750005 0.2263647 255 0 255
0.05100188 -0.0688754 0.229907 255 0 255
0.07532948 -0.05919052 0.2053831 255 0 255
0.1029108 -0.05580871 0.1980175 255 0 255
0.118871 -0.05622392 0.2001663 255 0 255
0.1317603 -0.05725565 0.2038182 255 0 255
-0.07491422 -0.03002527 0.1364238 255 0 255
-0.06580754 -0.03268697 0.1417268 255 0 255
0.0001917866 -0.02657291 0.1193965 255 0 255
0.01135842 -0.02968926 0.126821 255 0 255
0.03334275 -0.07259659 0.2357365 255 0 255
0.04268982 -0.07051117 0.2302818 255 0 255
0.04407587 -0.0704629 0.2301465 255 0 255
0.04799721 -0.06957591 0.2278627 255 0 255
0.05099761 -0.07018155 0.2293976 255 0 255
0.05402654 -0.07077508 0.2309096 255 0 255
0.07512619 -0.06005599 0.2039947 255 0 255
0.08459135 -0.0580269 0.1991805 255 0 255
0.112259 -0.0564989 0.196816 255 0 255
0.1163642 -0.05784567 0.2004686 255 0 255
0.1214787 -0.05863003 0.2027974 255 0 255
0.1451153 -0.06215456 0.2135203 255 0 255
0.1106757 -0.01436313 0.09213614 255 0 255
-0.06957613 -0.03266398 0.1394466 255 0 255
-0.06610693 -0.03399276 0.1422496 255 0 255
-0.06280033 -0.0371899 0.1497557 255 0 255
-0.00525075 -0.01543113 0.08910719 255 0 255
-0.002372599 -0.02550507 0.1143469 255 0 255
-0.001582927 -0.02663803 0.1171596 255 0 255
0.003739535 -0.03083728 0.1274696 255 0 255
0.004693035 -0.03085729 0.1274726 255 0 255
0.01138689 -0.03131448 0.1283301 255 0 255
0.01335504 -0.03206038 0.1301381 255 0 255
0.0212539 -0.04751636 0.1688939 255 0 255
0.02786749 -0.07511713 0.2383627 255 0 255
0.03704697 -0.07161412 0.229335 255 0 255
0.03843141 -0.07157663 0.2292192 255 0 255
0.05364086 -0.06726046 0.218249 255 0 255
0.07640392 -0.06116092 0.2032669 255 0 255
0.07746526 -0.06068585 0.2021075 255 0 255
0.08333877 -0.05935992 0.1989799 255 0 255
0.09764523 -0.05852158 0.1975002 255 0 255
0.09889576 -0.0583655 0.1971752 255 0 255
0.1019643 -0.05875083 0.1982945 255 0 255
0.1144738 -0.05857455 0.1986036 255 0 255
0.1176365 -0.05888807 0.1995903 255 0 255
0.1476059 -0.06422827 0.2150881 255 0 255
-0.07367893 -0.0317437 0.13507 255 0 255
-0.07269392 -0.03191431 0.135341 255 0 255
-0.06731967 -0.03359329 0.1386847 255 0 255
-0.001703254 -0.02859977 0.1196055 255 0 255
0.003715702 -0.03209869 0.1280436 255 0 255
0.006589536 -0.03178186 0.1271139 255 0 255
0.008497153 -0.03180924 0.1270965 255 0 255
0.009450966 -0.0318202 0.1270829 255 0 255
0.0144335 -0.03445249 0.1334588 255 0 255
0.02124463 -0.04857243 0.1684728 255 0 255
0.02399769 -0.05972283 0.1962127 255 0 255
0.03268187 -0.0793568 0.2449692 255 0 255
0.06831478 -0.06760837 0.2155884 255 0 255
0.07554094 -0.06321783 0.2048447 255 0 255
0.07810768 -0.06298907 0.2043433 255 0 255
0.09890252 -0.05957276 0.1966927 255 0 255
0.1116562 -0.0598181 0.1979851 255 0 255
0.1243849 -0.06106475 0.2018585 255 0 255
0.1195261 -0.01910901 0.09986976 255 0 255
-0.06466198 -0.03693467 0.1437636 255 0 255
0.006578683 -0.03267048 0.1267559 255 0 255
0.01677025 -0.03912365 0.1422767 255 0 255
0.0609396 -0.07089259 0.2199861 255 0 255
0.063476 -0.07035016 0.2186708 255 0 255
0.08662476 -0.06064082 0.195378 255 0 255
0.09488424 -0.06087851 0.1962738 255 0 255
0.1243961 -0.06231153 0.2013544 255 0 255
0.1272867 -0.06224276 0.2013833 255 0 255
-8.226932E-05 -0.03302376 0.1254272 255 0 255
0.04648155 -0.07442861 0.2250159 255 0 255
0.0573109 -0.07353017 0.2227795 255 0 255
0.1167277 -0.06312971 0.1993639 255 0 255
0.1363874 -0.06356686 0.2016801 255 0 255
0.1495155 -0.0669796 0.2107834 255 0 255
0.1528138 -0.06844854 0.2145305 255 0 255
-0.0708041 -0.03506566 0.1347339 255 0 255
-0.06981514 -0.03523181 0.1349939 255 0 255
-0.06520166 -0.03798993 0.1409479 255 0 255
-0.005480493 -0.03141188 0.1193631 255 0 255
0.001764156 -0.03472341 0.12694 255 0 255
0.03803829 -0.07522834 0.223438 255 0 255
0.04204453 -0.07471928 0.222147 255 0 255
0.05084335 -0.07629943 0.225858 255 0 255
0.0522235 -0.07623512 0.2256943 255 0 255
0.0571614 -0.0744307 0.221337 255 0 255
0.06196291 -0.07259082 0.2169213 255 0 255
0.07526479 -0.06886447 0.2081165 255 0 255
0.07724471 -0.06751043 0.2049084 255 0 255
0.07853607 -0.06739356 0.2046542 255 0 255
0.08172853 -0.06590625 0.2011654 255 0 255
0.09390348 -0.06379656 0.1964893 255 0 255
0.1104223 -0.06365597 0.1968591 255 0 255
0.1132513 -0.06365237 0.1969938 255 0 255
0.1192655 -0.06396901 0.1980692 255 0 255
0.1269582 -0.06437828 0.199492 255 0 255
0.1318397 -0.0647952 0.2007867 255 0 255
0.1388 -0.06565057 0.2032725 255 0 255
-0.07083172 -0.03600107 0.1343468 255 0 255
-0.06346535 -0.04123624 0.1457337 255 0 255
-0.006475713 -0.03261398 0.1198899 255 0 255
-0.00471269 -0.03346227 0.1218055 255 0 255
0.00751405 -0.03727519 0.130265 255 0 255
0.008488313 -0.03728862 0.1302541 255 0 255
0.01814107 -0.04544609 0.1493513 255 0 255
0.02180489 -0.0574196 0.1777977 255 0 255
0.02546575 -0.07519448 0.2200855 255 0 255
0.04635247 -0.0766106 0.2230344 255 0 255
0.0667984 -0.07234351 0.2128375 255 0 255
0.07506107 -0.06971771 0.2066987 255 0 255
0.08172845 -0.06711616 0.2006599 255 0 255
0.1070055 -0.06412247 0.194437 255 0 255
0.1126258 -0.06413751 0.1947342 255 0 255
0.1244242 -0.0660394 0.1998129 255 0 255
0.1408537 -0.06739037 0.2039846 255 0 255
-0.01030308 -0.02898333 0.1091852 255 0 255
-0.008284668 -0.03299937 0.1185238 255 0 255
-0.003832826 -0.03475454 0.1223924 255 0 255
-0.002850469 -0.03440057 0.1215005 255 0 255
0.03552022 -0.07901762 0.2253453 255 0 255
0.03929457 -0.07734756 0.221333 255 0 255
0.04202554 -0.0772604 0.2210806 255 0 255
0.05156669 -0.07687145 0.2200494 255 0 255
0.06984181 -0.07137058 0.2071221 255 0 255
0.07395406 -0.07143866 0.2073245 255 0 255
0.07917225 -0.06856894 0.2006753 255 0 255
0.09489704 -0.06566834 0.1942827 255 0 255
0.09641893 -0.0658921 0.1948541 255 0 255
0.1145217 -0.06589781 0.1955923 255 0 255
0.1293036 -0.06773285 0.2006101 255 0 255
0.1347737 -0.06720179 0.1997036 255 0 255
0.1360483 -0.06697164 0.1992504 255 0 255
-0.07255939 -0.03716074 0.1321525 255 0 255
-0.0611917 -0.04311317 0.1444836 255 0 255
-0.00849095 -0.03502806 0.1209142 255 0 255
-0.003846699 -0.03562341 0.1220225 255 0 255
-0.001962108 -0.03569202 0.1220759 255 0 255
0.004575223 -0.03862955 0.1285955 255 0 255
0.01048722 -0.0410804 0.1340543 255 0 255
0.01148145 -0.0410885 0.1340329 255 0 255
0.0316803 -0.09064885 0.2490335 255 0 255
0.03672092 -0.07947809 0.2228569 255 0 255
0.06044688 -0.07605775 0.2146179 255 0 255
0.06983767 -0.07259621 0.2065987 255 0 255
0.07095319 -0.07210565 0.2054683 255 0 255
0.08277356 -0.06901899 0.1984708 255 0 255
0.09364574 -0.06701086 0.1940838 255 0 255
0.09767428 -0.06693228 0.1940233 255 0 255
0.128958 -0.0686111 0.1992174 255 0 255
0.1311456 -0.06780397 0.1974896 255 0 255
0.1384553 -0.06907699 0.2008179 255 0 255
0.1436942 -0.07113547 0.2058317 255 0 255
-0.07356936 -0.03791371 0.131488 255 0 255
-0.06666821 -0.03908475 0.1332945 255 0 255
-0.06165856 -0.0464981 0.1496488 255 0 255
-0.01168484 -0.02854494 0.1037996 255 0 255
0.005523114 -0.04033737 0.1300451 255 0 255
0.006499582 -0.04114969 0.1318761 255 0 255
0.007488997 -0.04156296 0.132786 255 0 255
0.008486293 -0.04197439 0.1336924 255 0 255
0.01466467 -0.04480128 0.1399724 255 0 255
0.02758063 -0.0948645 0.2551188 255 0 255
0.03067265 -0.09522475 0.2558593 255 0 255
0.03324289 -0.08442083 0.2308581 255 0 255
0.0344222 -0.08319956 0.2280112 255 0 255
0.05413486 -0.07887308 0.2177177 255 0 255
0.06983289 -0.07381971 0.2060707 255 0 255
0.09642133 -0.06828146 0.1938278 255 0 255
0.1045117 -0.06807012 0.193598 255 0 255
0.1202193 -0.06829052 0.1947245 255 0 255
0.148788 -0.07275417 0.2063467 255 0 255
0.1504933 -0.07285911 0.206688 255 0 255
-0.07329008 -0.03846582 0.1302123 255 0 255
-0.06838416 -0.03931097 0.1315136 255 0 255
-0.06570416 -0.04017169 0.1331373 255 0 255
-0.06378797 -0.04215468 0.1373956 255 0 255
-0.007703453 -0.03759513 0.1220422 255 0 255
-0.001989694 -0.03742578 0.1213256 255 0 255
0.004549361 -0.04041569 0.1278222 255 0 255
0.006486697 -0.04205665 0.1314812 255 0 255
0.009468335 -0.04290095 0.1332795 255 0 255
0.01249692 -0.04372828 0.1350462 255 0 255
0.03686711 -0.0828217 0.2235792 255 0 255
0.05412592 -0.08013196 0.2171687 255 0 255
0.05548201 -0.08006047 0.2169938 255 0 255
0.05774878 -0.07871549 0.2139136 255 0 255
0.06161356 -0.07807383 0.2124342 255 0 255
0.06527664 -0.07701347 0.210015 255 0 255
0.0726336 -0.07522716 0.2059743 255 0 255
0.08886826 -0.07035709 0.1951353 255 0 255
0.1129588 -0.06933994 0.1935319 255 0 255
0.1138944 -0.06877114 0.1922871 255 0 255
0.1183017 -0.06894885 0.1928629 255 0 255
0.1253765 -0.0703932 0.1964138 255 0 255
0.1425634 -0.07258384 0.2021808 255 0 255
-0.06968606 -0.04044434 0.1317361 255 0 255
-0.06714165 -0.04001633 0.1304799 255 0 255
-0.06644026 -0.04055728 0.1316068 255 0 255
-0.005826629 -0.038547 0.1217401 255 0 255
-0.002946654 -0.0382565 0.1209204 255 0 255
0.03201147 -0.08826438 0.2325521 255 0 255
0.04844359 -0.08084231 0.2154534 255 0 255
0.0602687 -0.07939952 0.2120828 255 0 255
0.06394284 -0.07833897 0.2096793 255 0 255
0.07243382 -0.07605132 0.2045388 255 0 255
0.07484032 -0.07543435 0.2031644 255 0 255
0.07593341 -0.07492381 0.2020244 255 0 255
0.0795948 -0.07417364 0.2003708 255 0 255
0.08322337 -0.07340266 0.198682 255 0 255
0.08578163 -0.07314023 0.1981288 255 0 255
0.09364443 -0.07057626 0.1925275 255 0 255
0.09489781 -0.07042536 0.1922174 255 0 255
0.1060647 -0.07067676 0.1930736 255 0 255
0.1094892 -0.07148147 0.1949756 255 0 255
0.1234265 -0.0710694 0.1945697 255 0 255
0.1306071 -0.07248233 0.1980182 255 0 255
-0.06503753 -0.04256501 0.1334453 255 0 255
-0.06259246 -0.04550472 0.139687 255 0 255
0.01990935 -0.05822699 0.162269 255 0 255
0.02749043 -0.08800436 0.228595 255 0 255
0.03320101 -0.08832173 0.2291399 255 0 255
0.03951458 -0.08488469 0.221306 255 0 255
0.04572797 -0.08220291 0.2151946 255 0 255
0.05504327 -0.08135452 0.2131713 255 0 255
0.06755555 -0.07848252 0.2066964 255 0 255
0.07000116 -0.07787986 0.2053541 255 0 255
0.07722212 -0.07601725 0.2012361 255 0 255
0.07830179 -0.07549885 0.2000912 255 0 255
0.09489609 -0.07160936 0.1916896 255 0 255
0.09641917 -0.07184979 0.1922536 255 0 255
0.1004614 -0.07176503 0.1921574 255 0 255
0.112017 -0.07232048 0.1937041 255 0 255
0.11956 -0.07115855 0.1913991 255 0 255
0.1306111 -0.07371899 0.1974668 255 0 255
0.1335289 -0.07364849 0.1974372 255 0 255
0.1373563 -0.07295148 0.1960806 255 0 255
-0.07239203 -0.04139132 0.1292626 255 0 255
-0.07042984 -0.04173399 0.1297851 255 0 255
-0.01450946 -0.02864795 0.09579146 255 0 255
-0.005856735 -0.04027745 0.1209669 255 0 255
-0.004910122 -0.04031727 0.1210014 255 0 255
0.00842775 -0.04521026 0.1311671 255 0 255
0.0179136 -0.06214995 0.1682779 255 0 255
0.0384778 -0.08783675 0.2244848 255 0 255
0.06025058 -0.08187646 0.2109734 255 0 255
0.06158803 -0.08179231 0.2107776 255 0 255
0.06292463 -0.08170546 0.2105771 255 0 255
0.07280906 -0.07929362 0.205236 255 0 255
0.09264409 -0.07349057 0.192652 255 0 255
0.0994822 -0.07351205 0.1928259 255 0 255
0.1048063 -0.07324015 0.1923507 255 0 255
0.1060641 -0.07306669 0.1920024 255 0 255
0.1123294 -0.07391582 0.1940273 255 0 255
0.1344423 -0.07427259 0.1955848 255 0 255
0.1476357 -0.07675245 0.2015562 255 0 255
-0.0107468 -0.04173806 0.1221702 255 0 255
-0.0068186 -0.04109842 0.1205375 255 0 255
-0.002120695 -0.04170351 0.1216028 255 0 255
-0.001169324 -0.04173618 0.1216244 255 0 255
-0.0002467431 -0.04218166 0.1225522 255 0 255
0.003536489 -0.04353186 0.1253219 255 0 255
0.004494931 -0.04396883 0.1262336 255 0 255
0.005455947 -0.04481934 0.1280516 255 0 255
0.006432742 -0.04566823 0.1298663 255 0 255
0.007422755 -0.04610002 0.1307678 255 0 255
0.01282371 -0.05446555 0.1488615 255 0 255
0.03591476 -0.09043342 0.2268507 255 0 255
0.03855249 -0.08953058 0.2248087 255 0 255
0.04362352 -0.08728011 0.2197715 255 0 255
0.056223 -0.08334841 0.2109714 255 0 255
0.06039604 -0.08352347 0.2113093 255 0 255
0.06173759 -0.08343898 0.2111129 255 0 255
0.0654154 -0.08234771 0.2087052 255 0 255
0.08553221 -0.07632937 0.1956265 255 0 255
0.1079211 -0.07487655 0.1928412 255 0 255
0.1151777 -0.07513524 0.1935876 255 0 255
0.1331706 -0.07573346 0.1954704 255 0 255
-0.07214168 -0.04282783 0.127564 255 0 255
-0.06891489 -0.04294754 0.1274659 255 0 255
-0.06527919 -0.0439945 0.1293229 255 0 255
-0.06290649 -0.0469998 0.135531 255 0 255
-0.06087129 -0.04905188 0.139737 255 0 255
-0.0157847 -0.02840199 0.09134126 255 0 255
-0.006834221 -0.04195952 0.1201425 255 0 255
-0.005834925 -0.04158415 0.1192729 255 0 255
-0.004891949 -0.04162414 0.1193071 255 0 255
0.03503091 -0.0946845 0.2327012 255 0 255
0.03993719 -0.0907703 0.2240985 255 0 255
0.04580284 -0.08634952 0.2144003 255 0 255
0.05231885 -0.0852114 0.2118225 255 0 255
0.05473105 -0.08423879 0.2096837 255 0 255
0.06902983 -0.08245713 0.2057022 255 0 255
0.07461151 -0.07986029 0.2000855 255 0 255
0.08085945 -0.07885658 0.1979328 255 0 255
0.08320292 -0.07819241 0.1965131 255 0 255
0.0956873 -0.07636423 0.1927014 255 0 255
0.1209005 -0.07633825 0.1931823 255 0 255
0.1270062 -0.07667858 0.1940934 255 0 255
0.1468565 -0.07851327 0.1987283 255 0 255
0.1502391 -0.07876296 0.1994013 255 0 255
-0.0696202 -0.04328927 0.1259251 255 0 255
-0.06502729 -0.04450668 0.1280283 255 0 255
-0.06314482 -0.0465762 0.1322363 255 0 255
-0.0158251 -0.0402012 0.1146756 255 0 255
-0.008807465 -0.0431494 0.1205645 255 0 255
0.003481103 -0.04613581 0.1263229 255 0 255
0.0131043 -0.06233204 0.1606462 255 0 255
0.01443788 -0.06572005 0.1678604 255 0 255
0.04475668 -0.08890856 0.2166667 255 0 255
0.04714669 -0.08753593 0.2136772 255 0 255
0.05605633 -0.08539252 0.2089368 255 0 255
0.06423078 -0.08531357 0.2086722 255 0 255
0.07259024 -0.08252904 0.2026686 255 0 255
0.07698482 -0.08041574 0.1981487 255 0 255
0.1063543 -0.07704008 0.1912255 255 0 255
0.1331726 -0.07818936 0.1943348 255 0 255
0.1344474 -0.07795858 0.1938891 255 0 255
-0.0674121 -0.04412343 0.1251369 255 0 255
-0.06547023 -0.0444488 0.1256226 255 0 255
-0.004971742 -0.04375967 0.119414 255 0 255
-0.002166056 -0.04429492 0.1204014 255 0 255
-0.001280346 -0.04517856 0.1222316 255 0 255
0.0006393942 -0.04523958 0.1222647 255 0 255
0.007398988 -0.0522115 0.1367517 255 0 255
0.05470656 -0.08669107 0.2085389 255 0 255
0.06671566 -0.08593227 0.2067825 255 0 255
0.09847961 -0.07883018 0.1918261 255 0 255
0.0994671 -0.0782573 0.1906318 255 0 255
0.1237724 -0.07873893 0.1920928 255 0 255
0.1491598 -0.07724661 0.1897777 255 0 255
-0.01839781 -0.03391098 0.09733319 255 0 255
-0.01809259 -0.03956063 0.10917 255 0 255
-0.01718292 -0.04351601 0.1174141 255 0 255
-0.01081303 -0.04519842 0.1205583 255 0 255
0.0005989451 -0.04653672 0.1227568 255 0 255
0.005359069 -0.05138227 0.1327151 255 0 255
0.04847556 -0.08995444 0.2123581 255 0 255
0.05736807 -0.08776361 0.2076011 255 0 255
0.05988439 -0.0871766 0.2063333 255 0 255
0.0782575 -0.08268302 0.1967703 255 0 255
0.08492652 -0.08246963 0.1963185 255 0 255
0.1138997 -0.08013611 0.1917205 255 0 255
0.1306145 -0.08109157 0.1940576 255 0 255
0.137366 -0.08033243 0.1926677 255 0 255
0.1382604 -0.07969376 0.1913728 255 0 255
0.1457697 -0.07964242 0.1915008 255 0 255
-0.0646686 -0.04819451 0.1287279 255 0 255
-0.06367863 -0.04835363 0.1289621 255 0 255
-0.05944763 -0.05215937 0.1364309 255 0 255
-0.0003806824 -0.04737672 0.1223261 255 0 255
0.0005581527 -0.04783928 0.1232421 255 0 255
0.001483595 -0.04873291 0.1250562 255 0 255
0.002424871 -0.04962504 0.1268671 255 0 255
0.01081887 -0.06580402 0.1601535 255 0 255
0.03971602 -0.1019662 0.2343777 255 0 255
0.03996642 -0.09629973 0.2225925 255 0 255
0.04117705 -0.09539131 0.2206724 255 0 255
0.06002674 -0.08882278 0.2066403 255 0 255
0.06898779 -0.08731928 0.2034086 255 0 255
0.07824774 -0.0838725 0.1962005 255 0 255
0.08491771 -0.0836617 0.1957475 255 0 255
0.09692867 -0.08093799 0.1901527 255 0 255
0.09889823 -0.07978046 0.1877777 255 0 255
0.1221583 -0.08095205 0.1905041 255 0 255
0.1266499 -0.08112875 0.1909572 255 0 255
0.1340759 -0.08121969 0.1913132 255 0 255
0.1353458 -0.08098566 0.190865 255 0 255
0.1507925 -0.08127652 0.1919025 255 0 255
-0.07135965 -0.04612402 0.1228525 255 0 255
-0.06845712 -0.04663632 0.1236141 255 0 255
-0.06512726 -0.04811606 0.1263184 255 0 255
-0.06098569 -0.05014281 0.1300793 255 0 255
-0.02112274 -0.03876255 0.1035828 255 0 255
-0.01909763 -0.04508008 0.1164454 255 0 255
-0.003206261 -0.0472718 0.1200445 255 0 255
0.01216522 -0.07251388 0.171327 255 0 255
0.05763568 -0.09106915 0.2082056 255 0 255
0.06879328 -0.08809759 0.2019399 255 0 255
0.07476476 -0.08626921 0.1981304 255 0 255
0.08572351 -0.08386324 0.193146 255 0 255
0.09032986 -0.08245007 0.1902513 255 0 255
0.09159654 -0.08230362 0.1899533 255 0 255
0.09438909 -0.0824265 0.1902113 255 0 255
0.1208858 -0.08235908 0.1903264 255 0 255
0.1221537 -0.08215122 0.1899237 255 0 255
0.1416643 -0.08098755 0.187973 255 0 255
0.1429226 -0.08073752 0.187499 255 0 255
-0.07168911 -0.04742293 0.1232806 255 0 255
