ply
format ascii 1.0
Comment Generated by Floating Hands
element vertex 1108
Comment Left: (-0.1, -0.1, 0.1)
Comment Right: (0.1, -0.1, 0.2)
property double x
property double y
property double z
property uchar red
property uchar green
property uchar blue
end_header
0.1123586 0.07479439 0.1674001 255 0 255
0.1169026 0.0756471 0.1697328 255 0 255
0.08317855 0.06893968 0.1287519 255 0 255
0.09743749 0.07116104 0.1499556 255 0 255
0.1137887 0.07268375 0.1701871 255 0 255
0.08912416 0.06786771 0.1361811 255 0 255
0.1207223 0.07271864 0.1747946 255 0 255
0.1314926 0.07445914 0.1873842 255 0 255
0.1333964 0.0748022 0.188683 255 0 255
0.1027974 0.06879311 0.1543818 255 0 255
0.1298722 0.07167119 0.1860846 255 0 255
0.1346291 0.07142384 0.1849571 255 0 255
-0.03856475 0.03439147 0.2050862 255 0 255
-0.04007163 0.03375027 0.1987765 255 0 255
-0.02682393 0.03677909 0.1581493 255 0 255
-0.02726481 0.03340376 0.172947 255 0 255
-0.04202073 0.03049022 0.1962075 255 0 255
-0.04264192 0.02926568 0.2091865 255 0 255
-0.03712506 0.0287581 0.2128719 255 0 255
-0.03138077 0.02951996 0.2034656 255 0 255
-0.03711056 0.02752329 0.2127574 255 0 255
-0.03156397 0.02813268 0.2053352 255 0 255
-0.06205915 0.0281868 0.2037635 255 0 255
-0.0442454 0.02825831 0.1956753 255 0 255
-0.04324112 0.02726838 0.2048575 255 0 255
-0.04027404 0.02672228 0.2092557 255 0 255
-0.03709617 0.0262892 0.2126381 255 0 255
-0.03590943 0.02624731 0.2127697 255 0 255
0.09633961 0.024645 0.2825979 255 0 255
-0.03173044 0.02551977 0.2070761 255 0 255
-0.04206288 0.02480763 0.2047651 255 0 255
-0.03895219 0.02434032 0.2081618 255 0 255
0.06632245 0.01690337 0.3005708 255 0 255
0.09471117 0.02291128 0.2693838 255 0 255
-0.04321142 0.02365822 0.2044808 255 0 255
0.08895446 0.02081107 0.2696051 255 0 255
0.1000571 0.02159735 0.2719847 255 0 255
-0.05046732 0.02259495 0.2052953 255 0 255
0.08764207 0.01915121 0.2697563 255 0 255
0.09579132 0.02030168 0.2667658 255 0 255
0.1013636 0.02171752 0.2601541 255 0 255
-0.06956413 0.02172054 0.2096993 255 0 255
-0.07029904 0.02060692 0.2186842 255 0 255
-0.05446437 0.02125122 0.207524 255 0 255
-0.04203179 0.02120158 0.2043593 255 0 255
-0.03970955 0.02109955 0.2046539 255 0 255
0.0642051 0.01582007 0.2691822 255 0 255
0.06628716 0.01652308 0.2647909 255 0 255
0.08842367 0.0181435 0.2663542 255 0 255
-0.06745581 0.0193765 0.2170916 255 0 255
-0.04636372 0.0204721 0.2016123 255 0 255
0.06857236 0.01567584 0.2611856 255 0 255
0.076387 0.01675528 0.2576406 255 0 255
0.07796463 0.01679492 0.2583274 255 0 255
-0.07009225 0.01819298 0.2174085 255 0 255
-0.06101403 0.01790658 0.2161536 255 0 255
-0.04980873 0.01947361 0.200944 255 0 255
-0.04084944 0.01874916 0.2042141 255 0 255
-0.03642517 0.01830589 0.2067388 255 0 255
0.06625778 0.0137286 0.2634462 255 0 255
0.0682695 0.01446681 0.2590504 255 0 255
0.09163562 0.01542577 0.2662822 255 0 255
0.0972076 0.01614654 0.2648961 255 0 255
-0.07097838 0.01800446 0.2099591 255 0 255
-0.07087555 0.01728156 0.2150556 255 0 255
-0.06362375 0.0167032 0.2165164 255 0 255
-0.05943698 0.01682259 0.2142623 255 0 255
-0.05510083 0.01806064 0.2039446 255 0 255
-0.05095318 0.01835307 0.2006099 255 0 255
-0.04083882 0.01755025 0.2040597 255 0 255
0.0761234 0.01412544 0.2553259 255 0 255
-0.03953833 0.01643499 0.2030622 255 0 255
-0.03837768 0.01638605 0.2032021 255 0 255
0.08944612 0.01277333 0.2623664 255 0 255
0.09660943 0.01354524 0.2616232 255 0 255
-0.0668463 0.0147416 0.2135327 255 0 255
-0.06007631 0.01482215 0.2107931 255 0 255
-0.05421764 0.01633236 0.1987467 255 0 255
-0.05061528 0.01625034 0.1983371 255 0 255
-0.03569817 0.01551464 0.2003542 255 0 255
-0.03388197 0.0163021 0.1945751 255 0 255
0.06917864 0.008607643 0.2694227 255 0 255
0.07294682 0.01136632 0.2525681 255 0 255
0.08464128 0.01209015 0.2541301 255 0 255
0.08880418 0.01168256 0.2592739 255 0 255
0.1107326 0.01392883 0.2585735 255 0 255
0.168145 0.0017621 0.3768864 255 0 255
-0.07099095 0.01430832 0.2094605 255 0 255
-0.06221921 0.01298839 0.2152619 255 0 255
-0.05192188 0.01500357 0.1989635 255 0 255
-0.03488348 0.01532806 0.1933049 255 0 255
0.07353342 0.010624 0.2482183 255 0 255
0.08197655 0.01127363 0.2484457 255 0 255
-0.0515821 0.0141096 0.1968424 255 0 255
0.08812462 0.01013597 0.2498796 255 0 255
0.09910969 0.01061617 0.2532282 255 0 255
-0.07103686 0.01512381 0.1888148 255 0 255
-0.06424317 0.01096557 0.2125016 255 0 255
-0.050109 0.01316155 0.194901 255 0 255
-0.04141867 0.01221993 0.1991488 255 0 255
-0.03463024 0.01332222 0.1910009 255 0 255
0.08384334 0.009338577 0.2435684 255 0 255
0.09325756 0.008713866 0.2525035 255 0 255
-0.07292739 0.01280876 0.1963284 255 0 255
-0.06904794 0.01011852 0.2113528 255 0 255
-0.06544612 0.009822019 0.21208 255 0 255
-0.05857757 0.01110454 0.2023081 255 0 255
-0.05090287 0.01237123 0.1925932 255 0 255
-0.03923253 0.01078358 0.2002371 255 0 255
-0.0001804838 0.02573678 0.1037989 255 0 255
0.0008229281 0.02155764 0.1304675 255 0 255
0.07148907 0.005872348 0.2500443 255 0 255
0.08105052 0.00777654 0.2429911 255 0 255
0.09443156 0.007606968 0.2509818 255 0 255
0.1066195 0.008466383 0.2528073 255 0 255
0.1076762 0.008801236 0.2514699 255 0 255
0.1336204 0.008547817 0.2692304 255 0 255
-0.07311708 0.01233773 0.1920431 255 0 255
-0.06404616 0.008643059 0.2111525 255 0 255
-0.0622633 0.009009977 0.2084741 255 0 255
-0.04050784 0.009497583 0.2008877 255 0 255
-0.001799877 0.02093899 0.1283506 255 0 255
0.003241206 0.01448696 0.1688058 255 0 255
0.05643844 0.001880169 0.259423 255 0 255
0.08434241 0.007310099 0.2389835 255 0 255
0.09855282 0.006742777 0.2496984 255 0 255
0.1015175 0.006985861 0.2499206 255 0 255
0.1028607 0.007180242 0.2495484 255 0 255
0.1074721 0.007506322 0.2502936 255 0 255
0.1094151 0.007441103 0.2517886 255 0 255
0.128878 0.007304975 0.2643511 255 0 255
-0.05801509 0.009187234 0.1990208 255 0 255
-0.05185021 0.01029489 0.1910701 255 0 255
0.08883472 0.006155726 0.2397268 255 0 255
0.1013236 0.005708307 0.2487368 255 0 255
0.1313979 0.005653032 0.2664248 255 0 255
0.133168 0.006543885 0.2626716 255 0 255
0.132807 0.007446489 0.2575469 255 0 255
-0.07480571 0.008915559 0.1983759 255 0 255
-0.04734835 0.008865867 0.1915918 255 0 255
-0.03792188 0.007358045 0.1988247 255 0 255
-0.00746363 0.01628152 0.1447277 255 0 255
0.0003483707 0.006817029 0.2010174 255 0 255
0.003932234 0.005874976 0.2069054 255 0 255
0.05601152 0.001054042 0.2470517 255 0 255
0.05818058 0.001763683 0.2437165 255 0 255
0.06030053 0.002478432 0.2403693 255 0 255
0.09629618 0.004312534 0.2457753 255 0 255
0.1008468 0.004585187 0.2466003 255 0 255
0.1035121 0.004974581 0.2458574 255 0 255
0.1171936 0.004443573 0.2562474 255 0 255
0.1280163 0.003930903 0.2652497 255 0 255
-0.06246357 0.006265443 0.2028158 255 0 255
-0.05670603 0.007981881 0.1918487 255 0 255
-0.05373146 0.008483782 0.1883682 255 0 255
-0.04238853 0.006567197 0.1970744 255 0 255
-0.01033956 0.01019255 0.1740473 255 0 255
0.001601276 0.004458278 0.2077068 255 0 255
0.04694321 -0.001402097 0.2500739 255 0 255
0.0493626 -0.0008696554 0.2477709 255 0 255
0.05691596 0.0002800991 0.2436892 255 0 255
0.07694343 0.002121765 0.2410105 255 0 255
0.09931805 0.003138302 0.2457718 255 0 255
0.1111596 0.004149379 0.2464929 255 0 255
0.1323336 0.0039703 0.2593771 255 0 255
-0.04942632 0.006878034 0.1898804 255 0 255
-0.04523064 0.006268259 0.1925031 255 0 255
-0.03867845 0.005579786 0.1953533 255 0 255
-0.008588569 0.006490935 0.1886861 255 0 255
-0.007515747 0.006142145 0.1906822 255 0 255
0.004127346 0.00207114 0.2143632 255 0 255
0.0383746 -0.004793601 0.2587372 255 0 255
0.0770149 0.000755589 0.240768 255 0 255
0.08933806 0.002848151 0.2348774 255 0 255
0.1073736 0.002921026 0.2432722 255 0 255
0.1317399 0.002774046 0.2572607 255 0 255
-0.07058568 0.003614849 0.2057799 255 0 255
-0.06660563 0.003645075 0.2045952 255 0 255
-0.05726144 0.006280295 0.1883419 255 0 255
-0.05447676 0.006634992 0.1858407 255 0 255
-0.008694191 0.00446561 0.1934009 255 0 255
0.05421998 -0.002506521 0.2426317 255 0 255
0.1221515 -0.0003757707 0.2602172 255 0 255
0.1245201 -0.0005942403 0.2625716 255 0 255
0.1351589 0.003176427 0.2495145 255 0 255
-0.04107995 0.003187732 0.1956266 255 0 255
-0.01742439 0.004474787 0.1869315 255 0 255
-0.01549148 0.003351436 0.1929377 255 0 255
0.002959954 -0.0002336305 0.2129457 255 0 255
0.05412024 -0.003690824 0.2414082 255 0 255
0.08742622 0.0004703403 0.231846 255 0 255
0.09630466 -0.0001149158 0.2387336 255 0 255
0.1170234 -0.0002164994 0.2491651 255 0 255
-0.0729892 0.002408553 0.1997772 255 0 255
-0.04716519 0.003315772 0.1896044 255 0 255
-0.04393255 0.002938705 0.1910635 255 0 255
-0.019792 0.006015542 0.1727979 255 0 255
-0.006389553 0.001985917 0.1940083 255 0 255
-0.004136607 0.001437775 0.1969904 255 0 255
0.00173935 -0.0007346919 0.2087952 255 0 255
0.05485205 -0.00421764 0.2370718 255 0 255
0.06250108 -0.003325051 0.2348292 255 0 255
0.08724318 -0.0006980385 0.2306406 255 0 255
0.08878387 -0.0006960157 0.2312734 255 0 255
0.1033557 -0.001708328 0.242698 255 0 255
0.1316893 -0.001485477 0.2555164 255 0 255
-0.02083493 0.004969378 0.1725224 255 0 255
-0.0141794 0.001618875 0.1896136 255 0 255
-0.002982122 -0.000478466 0.2007052 255 0 255
-0.0006360644 -0.001406625 0.2056241 255 0 255
0.0005685525 -0.00196249 0.2085681 255 0 255
0.05831024 -0.004662048 0.2332928 255 0 255
0.06071661 -0.004239781 0.2318953 255 0 255
0.09169046 -0.001853852 0.2313108 255 0 255
0.1071117 -0.0023281 0.2403461 255 0 255
0.10843 -0.002122383 0.2399564 255 0 255
0.1091291 -0.001584709 0.2376885 255 0 255
0.1341775 -0.002290824 0.2533477 255 0 255
0.1379988 -0.002245767 0.2551228 255 0 255
-0.08334162 0.000277844 0.2008909 255 0 255
-0.0799768 0.000747573 0.197681 255 0 255
-0.07206143 -0.000268268 0.2005397 255 0 255
-0.06410161 0.001066286 0.1921779 255 0 255
-0.06214099 0.001717375 0.1885626 255 0 255
-0.05410472 0.002507171 0.1830679 255 0 255
-0.0161495 0.001481276 0.1843873 255 0 255
-0.01081223 0.0002693601 0.1905026 255 0 255
-0.007484053 -0.0003179013 0.1935387 255 0 255
-0.001799901 -0.002811464 0.2063671 255 0 255
0.06225109 -0.005620128 0.2323776 255 0 255
0.07930586 -0.005209866 0.2360389 255 0 255
0.083536 -0.003858847 0.2310447 255 0 255
0.0871309 -0.003184266 0.2291687 255 0 255
0.09332149 -0.003187089 0.2316587 255 0 255
0.1108334 -0.002919198 0.237954 255 0 255
0.1212992 -0.004706437 0.2511993 255 0 255
0.1315334 -0.004251828 0.2540196 255 0 255
-0.07625645 -0.0006204752 0.1973372 255 0 255
-0.05172169 0.001426267 0.1822599 255 0 255
-0.04874596 0.0008167565 0.1847294 255 0 255
-0.04779582 0.00055212 0.1858689 255 0 255
-0.04602303 -0.0001673066 0.1891082 255 0 255
-0.04306174 -0.0009434251 0.1924933 255 0 255
-0.01607858 0.0005667612 0.1831865 255 0 255
-0.007439247 -0.001268309 0.1923291 255 0 255
-0.004100439 -0.002841339 0.2002275 255 0 255
0.06489534 -0.006686845 0.2316519 255 0 255
0.08126851 -0.005693153 0.2323235 255 0 255
0.1281764 -0.00678218 0.2569798 255 0 255
-0.08493261 -0.003255226 0.2060945 255 0 255
-0.06906293 -0.002292431 0.197705 255 0 255
-0.06173267 -0.0001738667 0.1861903 255 0 255
-0.05539078 0.0001622738 0.1833905 255 0 255
-0.05410166 0.000276186 0.1826226 255 0 255
-0.02013544 0.0005400874 0.1778189 255 0 255
-0.01917947 0.0001157226 0.1798424 255 0 255
-0.005232531 -0.003821021 0.1989928 255 0 255
0.04776005 -0.01098174 0.2409936 255 0 255
0.0603459 -0.007618232 0.2282044 255 0 255
0.0929245 -0.005501485 0.2292221 255 0 255
0.1036782 -0.00726349 0.2415863 255 0 255
0.1195114 -0.006540875 0.2450398 255 0 255
0.1356263 -0.004558255 0.2436658 255 0 255
-0.08245355 -0.003643549 0.2014146 255 0 255
-0.07718268 -0.002666576 0.1956351 255 0 255
-0.07347467 -0.002828426 0.1954918 255 0 255
-0.06884573 -0.003274479 0.1965081 255 0 255
-0.06524635 -0.002297795 0.1912505 255 0 255
-0.06132292 -0.0009077658 0.1840415 255 0 255
-0.05630533 -0.0006703869 0.1820003 255 0 255
-0.04968084 -0.001148498 0.183132 255 0 255
-0.04245386 -0.004114039 0.1960525 255 0 255
-0.004079801 -0.005809021 0.2026783 255 0 255
0.05464362 -0.01029825 0.2328263 255 0 255
0.06443332 -0.00874135 0.2282185 255 0 255
0.07038575 -0.008980684 0.2310877 255 0 255
0.07800995 -0.01051457 0.2405472 255 0 255
0.09483095 -0.007020424 0.2304912 255 0 255
0.09939065 -0.007938487 0.2363861 255 0 255
0.108452 -0.007470193 0.2378925 255 0 255
-0.07255594 -0.004316018 0.196459 255 0 255
-0.05520212 -0.001867423 0.1819653 255 0 255
-0.03267662 -0.002525754 0.1821833 255 0 255
-0.01581543 -0.001914271 0.178591 255 0 255
-0.005197806 -0.006370129 0.1994782 255 0 255
-0.0004906527 -0.008430719 0.2092918 255 0 255
0.0500819 -0.01286227 0.237165 255 0 255
0.05240676 -0.01224339 0.2348616 255 0 255
0.05599799 -0.01150434 0.2323447 255 0 255
0.08869112 -0.00830766 0.2277491 255 0 255
0.09124696 -0.007958144 0.2271017 255 0 255
0.09889789 -0.008924319 0.2342135 255 0 255
0.1329277 -0.009648164 0.2514102 255 0 255
-0.08509372 -0.005974227 0.2012553 255 0 255
-0.07117107 -0.005401312 0.195513 255 0 255
-0.066824 -0.004908164 0.1924379 255 0 255
-0.06091445 -0.002738617 0.1816535 255 0 255
-0.05520112 -0.002978736 0.1817274 255 0 255
-0.04615345 -0.004917438 0.1891277 255 0 255
-0.02767741 -0.002515681 0.1765406 255 0 255
-0.02103064 -0.002267322 0.175108 255 0 255
-0.01057571 -0.004548282 0.1854168 255 0 255
0.05905421 -0.01144527 0.2266199 255 0 255
0.07029837 -0.01142063 0.2295594 255 0 255
0.08491432 -0.01013595 0.2283968 255 0 255
0.1072924 -0.01042639 0.2376852 255 0 255
0.1158255 -0.009517433 0.2371403 255 0 255
0.1357536 -0.007854396 0.2386148 255 0 255
-0.05920615 -0.0033138 0.178756 255 0 255
-0.0252372 -0.003015014 0.1735732 255 0 255
-0.01267058 -0.004997173 0.1821643 255 0 255
-0.00402507 -0.009794811 0.2038611 255 0 255
0.05689162 -0.01339619 0.2286723 255 0 255
0.06382899 -0.01183011 0.2235278 255 0 255
0.07035819 -0.01273549 0.2292667 255 0 255
0.08101224 -0.01311353 0.2340388 255 0 255
0.08703013 -0.01071998 0.2255928 255 0 255
0.1086885 -0.01159126 0.2369913 255 0 255
0.1211948 -0.01195128 0.2433849 255 0 255
-0.07302437 -0.007089682 0.192587 255 0 255
-0.05811295 -0.004505105 0.17872 255 0 255
-0.05482591 -0.004767189 0.1793214 255 0 255
-0.04966745 -0.005597884 0.1821687 255 0 255
-0.005126996 -0.009881885 0.1987031 255 0 255
0.06025872 -0.01370497 0.2248633 255 0 255
0.0636903 -0.01290681 0.2222781 255 0 255
0.07714449 -0.01492086 0.2345862 255 0 255
0.1007112 -0.01298482 0.2338888 255 0 255
0.1053944 -0.01397562 0.2396986 255 0 255
0.1216106 -0.01354947 0.243989 255 0 255
-0.08272828 -0.007669616 0.1919964 255 0 255
-0.0284307 -0.005049423 0.1728065 255 0 255
-0.02726365 -0.004861868 0.1719348 255 0 255
-0.0197058 -0.004839434 0.1715408 255 0 255
-0.006277923 -0.011054 0.1984162 255 0 255
0.08971027 -0.01299372 0.2243591 255 0 255
0.1108479 -0.0135099 0.2337171 255 0 255
0.1206952 -0.01437107 0.2408959 255 0 255
-0.07574008 -0.008394745 0.1884289 255 0 255
-0.0730347 -0.009408711 0.1920589 255 0 255
-0.0305644 -0.006036911 0.1723511 255 0 255
-0.02949223 -0.006077684 0.1724568 255 0 255
-0.02281407 -0.005596229 0.1700999 255 0 255
-0.006289746 -0.01267946 0.2000905 255 0 255
0.05430267 -0.01731151 0.2272091 255 0 255
0.05670523 -0.01686263 0.2258508 255 0 255
0.05908901 -0.01640606 0.2244766 255 0 255
0.06018211 -0.01606512 0.2233045 255 0 255
0.08308878 -0.01616241 0.2296829 255 0 255
0.112232 -0.01465478 0.2329975 255 0 255
-0.06291717 -0.00786689 0.1790073 255 0 255
-0.04949022 -0.008694615 0.1804411 255 0 255
-0.03162654 -0.007059502 0.1719899 255 0 255
-0.0216624 -0.006446444 0.1689584 255 0 255
-0.01848163 -0.006516352 0.1691689 255 0 255
0.06492025 -0.0163979 0.2201899 255 0 255
0.1063485 -0.01748319 0.2364848 255 0 255
0.1168822 -0.01576055 0.2332889 255 0 255
0.1195238 -0.01634789 0.2365508 255 0 255
0.1252295 -0.01770216 0.2439501 255 0 255
0.1272685 -0.01786343 0.2453336 255 0 255
0.1394022 -0.01556745 0.2410353 255 0 255
-0.08444391 -0.01146244 0.1927608 255 0 255
-0.0748587 -0.01103118 0.1890991 255 0 255
-0.07073973 -0.01195504 0.1920225 255 0 255
-0.03033244 -0.007696148 0.1699111 255 0 255
-0.02810313 -0.007540458 0.16915 255 0 255
0.06137152 -0.0182813 0.2215121 255 0 255
0.08735482 -0.01725766 0.2240551 255 0 255
0.1061209 -0.01863668 0.2352221 255 0 255
0.1270066 -0.01907635 0.2440719 255 0 255
0.140828 -0.01671329 0.2401891 255 0 255
-0.08787393 -0.01324638 0.1956069 255 0 255
-0.08169897 -0.01140735 0.187155 255 0 255
-0.076896 -0.01170104 0.1873414 255 0 255
-0.07600631 -0.01205468 0.1885537 255 0 255
-0.07236163 -0.01345614 0.1933792 255 0 255
-0.04965145 -0.01113347 0.1808659 255 0 255
-0.03543097 -0.01023743 0.1759411 255 0 255
-0.03138801 -0.008708657 0.1695444 255 0 255
-0.03021673 -0.008512581 0.1686877 255 0 255
-0.02684114 -0.008150609 0.1670565 255 0 255
-0.0246435 -0.007978851 0.1662703 255 0 255
-0.01166962 -0.01305073 0.186474 255 0 255
0.07006769 -0.01840284 0.2185998 255 0 255
0.08432394 -0.01973695 0.2274756 255 0 255
0.105892 -0.01978107 0.2339559 255 0 255
0.1250506 -0.02031305 0.2423407 255 0 255
-0.09017763 -0.01519237 0.1987314 255 0 255
-0.06010218 -0.01065695 0.1757935 255 0 255
-0.04482716 -0.01380053 0.186215 255 0 255
-0.01936587 -0.009156424 0.1663955 255 0 255
0.07330322 -0.0200811 0.2206125 255 0 255
0.0807366 -0.02176907 0.2289709 255 0 255
0.08227775 -0.02183663 0.2296238 255 0 255
0.08875698 -0.01969005 0.2230898 255 0 255
-0.06010339 -0.01174444 0.17552 255 0 255
-0.05643498 -0.01154198 0.1742378 255 0 255
-0.05534769 -0.01163081 0.1744351 255 0 255
-0.04497015 -0.01516801 0.1868896 255 0 255
-0.03811298 -0.01327256 0.1789856 255 0 255
-0.02235652 -0.009623722 0.1639814 255 0 255
-0.0107576 -0.01728259 0.1936937 255 0 255
-0.009734609 -0.01853031 0.1985699 255 0 255
0.05421751 -0.02329845 0.2236967 255 0 255
0.06765532 -0.02121931 0.2184465 255 0 255
0.1132655 -0.02076975 0.2290738 255 0 255
0.1364465 -0.02243157 0.2429112 255 0 255
-0.09076064 -0.01804754 0.1999909 255 0 255
-0.07397714 -0.01597324 0.1891636 255 0 255
-0.07282817 -0.01609389 0.1894232 255 0 255
-0.06557184 -0.01364137 0.1790855 255 0 255
-0.04708381 -0.01590364 0.1853196 255 0 255
-0.03907899 -0.01405806 0.1776096 255 0 255
-0.03103155 -0.01111633 0.1658593 255 0 255
-0.02671491 -0.01102693 0.1653011 255 0 255
-0.02242325 -0.01090587 0.1646805 255 0 255
-0.01270936 -0.0161425 0.1846134 255 0 255
-0.00977163 -0.02020153 0.2002031 255 0 255
-0.008554545 -0.01995256 0.1992673 255 0 255
0.06138586 -0.02313994 0.2192662 255 0 255
0.06770738 -0.02248763 0.2181166 255 0 255
0.07768156 -0.02266458 0.2210332 255 0 255
0.08296483 -0.02360565 0.2258252 255 0 255
0.08734139 -0.02222903 0.2217961 255 0 255
0.08861599 -0.02205592 0.2214827 255 0 255
0.09594816 -0.02073874 0.218577 255 0 255
0.1107311 -0.02254693 0.2295226 255 0 255
0.1120349 -0.02233085 0.2291257 255 0 255
0.1152912 -0.0223387 0.2301544 255 0 255
0.131742 -0.02418836 0.2421637 255 0 255
-0.09253266 -0.01956936 0.2012143 255 0 255
-0.07893733 -0.01575399 0.184703 255 0 255
-0.07259683 -0.01699485 0.1881855 255 0 255
-0.04225973 -0.01679307 0.183744 255 0 255
-0.02556108 -0.01184391 0.1641587 255 0 255
-0.0107202 -0.01957585 0.1930967 255 0 255
0.06859825 -0.02312984 0.2156452 255 0 255
0.06963638 -0.02274771 0.2144529 255 0 255
0.1031568 -0.02287809 0.2233079 255 0 255
0.1166693 -0.02346205 0.2293845 255 0 255
0.1263674 -0.02545257 0.2395322 255 0 255
0.1314649 -0.02537519 0.2408832 255 0 255
0.1331747 -0.0253417 0.2413189 255 0 255
-0.0496363 -0.0166383 0.1794542 255 0 255
-0.04639726 -0.01898135 0.1877588 255 0 255
-0.03312428 -0.01310026 0.165087 255 0 255
-0.02555047 -0.01287536 0.1638842 255 0 255
0.05802979 -0.02654098 0.2211303 255 0 255
0.07093634 -0.02386024 0.2138662 255 0 255
0.0882072 -0.02415989 0.2189254 255 0 255
0.1007478 -0.02344602 0.2196201 255 0 255
0.1138012 -0.02502479 0.2289264 255 0 255
0.1183804 -0.02481051 0.2295188 255 0 255
0.1399928 -0.0254308 0.238509 255 0 255
0.1409526 -0.02493882 0.2371107 255 0 255
-0.08008385 -0.0178808 0.1838223 255 0 255
-0.07693432 -0.01852554 0.1855871 255 0 255
-0.07260595 -0.01927525 0.1875791 255 0 255
-0.03429251 -0.01434815 0.1656471 255 0 255
-0.03206119 -0.01418439 0.1649213 255 0 255
-0.02238784 -0.01400206 0.1638563 255 0 255
0.05662401 -0.02767692 0.220036 255 0 255
0.07816834 -0.02536453 0.2159642 255 0 255
0.08015105 -0.02595075 0.2184989 255 0 255
0.08773685 -0.02495356 0.2167094 255 0 255
0.1224334 -0.02662327 0.231941 255 0 255
-0.09347475 -0.02276381 0.1989988 255 0 255
-0.08289351 -0.01923931 0.184801 255 0 255
-0.07490311 -0.02016741 0.1867491 255 0 255
-0.06317035 -0.0166006 0.1724946 255 0 255
-0.04524078 -0.02130878 0.187307 255 0 255
-0.04322695 -0.01979483 0.1817418 255 0 255
-0.03416397 -0.01512165 0.1644058 255 0 255
0.05940108 -0.02896527 0.2202227 255 0 255
0.06832609 -0.02638827 0.2127302 255 0 255
0.07602528 -0.02577413 0.212134 255 0 255
0.09687669 -0.02520198 0.2149899 255 0 255
-0.05949314 -0.01745331 0.1709607 255 0 255
-0.03919373 -0.01754354 0.1693326 255 0 255
0.06357165 -0.02842737 0.2142598 255 0 255
0.0748314 -0.02717299 0.2120505 255 0 255
0.07755969 -0.02712489 0.2124477 255 0 255
0.07929084 -0.02747953 0.2140425 255 0 255
0.0853253 -0.02784273 0.2166124 255 0 255
0.1242419 -0.02934278 0.2316508 255 0 255
-0.08684915 -0.02277129 0.18913 255 0 255
-0.07732698 -0.02100323 0.1815839 255 0 255
-0.07238308 -0.02242162 0.1857005 255 0 255
-0.03390732 -0.01664214 0.1619173 255 0 255
-0.01590371 -0.02219779 0.18073 255 0 255
-0.01374196 -0.02277854 0.1827531 255 0 255
0.05803521 -0.03135822 0.2187648 255 0 255
0.06342148 -0.02941187 0.2129592 255 0 255
0.08961017 -0.0276533 0.2122196 255 0 255
0.09950394 -0.02736246 0.213571 255 0 255
0.1290764 -0.03166478 0.2357925 255 0 255
-0.08210699 -0.02184237 0.1810718 255 0 255
-0.07377151 -0.0236962 0.186055 255 0 255
-0.05841101 -0.01968359 0.1705626 255 0 255
-0.05534387 -0.02023534 0.1721034 255 0 255
-0.05260448 -0.02131638 0.1755041 255 0 255
-0.03157592 -0.01721076 0.1599443 255 0 255
-0.02626891 -0.01714465 0.1594927 255 0 255
-0.02531914 -0.01745879 0.1605386 255 0 255
-0.0177837 -0.02158225 0.1745453 255 0 255
0.06680477 -0.02972417 0.2100229 255 0 255
0.0871664 -0.02926079 0.2124812 255 0 255
0.103935 -0.02854141 0.2139576 255 0 255
0.1157558 -0.03051861 0.2234949 255 0 255
-0.07443614 -0.02416147 0.1836033 255 0 255
-0.06580511 -0.02122212 0.1726984 255 0 255
-0.06296195 -0.0206189 0.1703411 255 0 255
-0.05929054 -0.02037644 0.1691076 255 0 255
-0.05443833 -0.02167083 0.1729277 255 0 255
-0.03716999 -0.01880406 0.1619056 255 0 255
-0.03030726 -0.01771069 0.1578496 255 0 255
-0.02635352 -0.01843852 0.1601524 255 0 255
0.07282347 -0.02998436 0.2074864 255 0 255
0.1174501 -0.03186505 0.2236011 255 0 255
0.1230643 -0.03241814 0.2268525 255 0 255
0.1383611 -0.03360358 0.2348367 255 0 255
-0.09175816 -0.02833994 0.195794 255 0 255
-0.06404932 -0.02157815 0.169805 255 0 255
-0.05515254 -0.02209378 0.170537 255 0 255
-0.05425091 -0.02246344 0.1716699 255 0 255
-0.03468553 -0.01908834 0.1590027 255 0 255
-0.03144751 -0.01895537 0.1583968 255 0 255
-0.0262503 -0.01916831 0.1588982 255 0 255
0.0812545 -0.03136947 0.2092156 255 0 255
0.08771723 -0.03079728 0.2086499 255 0 255
0.1319696 -0.03529228 0.2336507 255 0 255
-0.09148242 -0.02924633 0.1945246 255 0 255
-0.08020116 -0.02450435 0.1776052 255 0 255
-0.06274897 -0.02246826 0.1687749 255 0 255
-0.05425007 -0.02353067 0.1713507 255 0 255
-0.04882472 -0.02602777 0.1790307 255 0 255
-0.04239791 -0.0226063 0.1673755 255 0 255
-0.01708203 -0.02713183 0.1812975 255 0 255
0.06020532 -0.03531586 0.2140266 255 0 255
0.06273279 -0.0350644 0.2135924 255 0 255
0.08502587 -0.03211153 0.2079591 255 0 255
0.09481446 -0.03194233 0.2094269 255 0 255
0.09913786 -0.0319018 0.2102349 255 0 255
0.1398471 -0.03610175 0.2335119 255 0 255
-0.08605853 -0.02768031 0.184688 255 0 255
-0.07935131 -0.02602337 0.1784752 255 0 255
-0.06536396 -0.02387911 0.1698718 255 0 255
-0.06405409 -0.02370473 0.1691656 255 0 255
-0.0629681 -0.02381198 0.1693878 255 0 255
-0.05949912 -0.02383596 0.1690954 255 0 255
-0.05055552 -0.02609332 0.1755232 255 0 255
-0.04865818 -0.02683277 0.1777552 255 0 255
-0.04407788 -0.02474293 0.1706876 255 0 255
-0.03028419 -0.02072647 0.1569447 255 0 255
-0.02821205 -0.02081416 0.1571478 255 0 255
-0.02335374 -0.02217206 0.1614018 255 0 255
-0.01734318 -0.02969791 0.1857343 255 0 255
0.07128081 -0.03324728 0.2047618 255 0 255
0.0766632 -0.03321073 0.2055811 255 0 255
0.08851418 -0.03255585 0.2057364 255 0 255
0.09764994 -0.03308248 0.2092806 255 0 255
0.112083 -0.03390182 0.2150639 255 0 255
0.1262346 -0.03620803 0.2256539 255 0 255
-0.09093021 -0.03103219 0.1919786 255 0 255
-0.08834139 -0.02978554 0.1877077 255 0 255
-0.06166949 -0.02469059 0.1683465 255 0 255
-0.05712913 -0.02480109 0.1682417 255 0 255
-0.05477029 -0.02469778 0.1676954 255 0 255
-0.05038207 -0.02688184 0.1742495 255 0 255
0.06155431 -0.03767997 0.2130428 255 0 255
0.06301204 -0.03784 0.2137616 255 0 255
0.0806504 -0.034241 0.2052959 255 0 255
0.08583347 -0.03385576 0.2050463 255 0 255
0.09740853 -0.03405965 0.2079758 255 0 255
0.101741 -0.03401582 0.208749 255 0 255
0.1290436 -0.03835132 0.2283714 255 0 255
0.1391786 -0.03599255 0.2236934 255 0 255
-0.07823907 -0.02836825 0.1780694 255 0 255
-0.06824282 -0.02665073 0.1715341 255 0 255
-0.0649197 -0.02542445 0.1673539 255 0 255
-0.06037689 -0.02555829 0.1672975 255 0 255
-0.05113773 -0.02728193 0.1718577 255 0 255
-0.0385448 -0.02229883 0.1553661 255 0 255
-0.03130541 -0.02268328 0.156215 255 0 255
-0.02819585 -0.02281901 0.1565243 255 0 255
0.06286035 -0.03879447 0.2124319 255 0 255
0.08465116 -0.035252 0.2049596 255 0 255
0.08561679 -0.03479942 0.2037374 255 0 255
0.09900306 -0.03538882 0.2081494 255 0 255
0.1131365 -0.03597711 0.2129573 255 0 255
0.1300697 -0.03918161 0.226594 255 0 255
0.1324846 -0.03972254 0.2288087 255 0 255
-0.09835899 -0.03395718 0.1941522 255 0 255
-0.08807644 -0.03178675 0.1860766 255 0 255
-0.06232238 -0.02610553 0.1656059 255 0 255
-0.05003523 -0.0284322 0.1716963 255 0 255
-0.02173375 -0.02742057 0.1672456 255 0 255
0.09321048 -0.03655313 0.2063629 255 0 255
0.09473784 -0.03664948 0.2069472 255 0 255
0.09721854 -0.03626838 0.2062712 255 0 255
0.1015429 -0.03623919 0.2070435 255 0 255
0.1034058 -0.0365957 0.2085006 255 0 255
0.1062163 -0.03645998 0.2086697 255 0 255
0.1147945 -0.0373057 0.2130477 255 0 255
0.1167403 -0.03762683 0.2144398 255 0 255
0.1190432 -0.03821653 0.2167208 255 0 255
0.1286847 -0.03944632 0.2225954 255 0 255
-0.07885078 -0.02984554 0.1752567 255 0 255
-0.07799165 -0.03027672 0.17645 255 0 255
-0.05975068 -0.02676062 0.1638364 255 0 255
-0.05653552 -0.02705692 0.1644441 255 0 255
-0.05438806 -0.02724431 0.1648304 255 0 255
-0.04969071 -0.02889066 0.1694797 255 0 255
-0.04684824 -0.02783623 0.1660635 255 0 255
-0.04512991 -0.02669589 0.162468 255 0 255
-0.02921765 -0.02477477 0.1557858 255 0 255
-0.02347857 -0.02685687 0.1620135 255 0 255
0.06591047 -0.03968596 0.2072201 255 0 255
0.06673793 -0.03895646 0.2051227 255 0 255
0.0817683 -0.03745158 0.2029145 255 0 255
0.08448428 -0.03740942 0.2032507 255 0 255
0.08871362 -0.03746945 0.2041743 255 0 255
0.09202028 -0.03797385 0.2062878 255 0 255
0.1145155 -0.03830672 0.2117332 255 0 255
0.1345201 -0.04136286 0.2252184 255 0 255
-0.05260174 -0.02907629 0.1667317 255 0 255
-0.03796992 -0.02405212 0.1506426 255 0 255
-0.03695178 -0.02411269 0.1507724 255 0 255
-0.03311584 -0.02495636 0.1531417 255 0 255
-0.02178706 -0.02981468 0.1675175 255 0 255
0.06298237 -0.04250979 0.2112276 255 0 255
0.09122526 -0.0383344 0.203139 255 0 255
0.1214866 -0.04141413 0.218136 255 0 255
0.1244192 -0.04120902 0.2181644 255 0 255
0.1345845 -0.04270672 0.2247765 255 0 255
0.1375954 -0.04244636 0.2247034 255 0 255
0.1385264 -0.04190157 0.2233352 255 0 255
-0.07487634 -0.0331705 0.1774539 255 0 255
-0.05633781 -0.02882501 0.1628341 255 0 255
-0.03401332 -0.02557675 0.1517578 255 0 255
-0.03208112 -0.02599569 0.152928 255 0 255
-0.02608704 -0.0268951 0.1554172 255 0 255
-0.02443724 -0.02854717 0.1603151 255 0 255
0.06099406 -0.04264717 0.2073051 255 0 255
0.06784384 -0.04094051 0.2031552 255 0 255
0.07915129 -0.03990347 0.2017565 255 0 255
0.09307402 -0.03996222 0.2042331 255 0 255
-0.05331073 -0.03045078 0.1639908 255 0 255
-0.03286223 -0.02629502 0.1506042 255 0 255
-0.03093235 -0.02671409 0.1517653 255 0 255
0.04492212 -0.02275046 0.1431198 255 0 255
0.0586598 -0.04212666 0.2015139 255 0 255
0.09255105 -0.04059305 0.2019973 255 0 255
0.09805951 -0.04042684 0.2024766 255 0 255
0.1420579 -0.04458748 0.2232064 255 0 255
-0.07945898 -0.03344473 0.1717134 255 0 255
-0.07834827 -0.03358419 0.1719881 255 0 255
-0.07389449 -0.03412066 0.1730478 255 0 255
-0.06640195 -0.03056004 0.1620716 255 0 255
-0.06403495 -0.03047444 0.161603 255 0 255
-0.05680237 -0.02984381 0.1591617 255 0 255
-0.04591051 -0.02809388 0.1533213 255 0 255
-0.04336274 -0.02728733 0.1508294 255 0 255
-0.0289781 -0.02811204 0.152579 255 0 255
-0.02804841 -0.0284787 0.1536183 255 0 255
0.0632934 -0.0465235 0.2109092 255 0 255
0.06606977 -0.04456088 0.2055866 255 0 255
0.09411673 -0.04192644 0.2021623 255 0 255
0.1046006 -0.04233638 0.2051526 255 0 255
-0.09632187 -0.04024106 0.1894654 255 0 255
-0.05487865 -0.03137396 0.1601267 255 0 255
-0.0483253 -0.02956939 0.1545173 255 0 255
-0.03868326 -0.02724869 0.1473234 255 0 255
-0.03476445 -0.02781417 0.1487664 255 0 255
-0.03080658 -0.02835055 0.1501564 255 0 255
-0.02814252 -0.02979309 0.1542183 255 0 255
0.06333113 -0.04775716 0.2104824 255 0 255
0.06817542 -0.04486952 0.2028451 255 0 255
0.08270011 -0.04272188 0.1987519 255 0 255
0.08392055 -0.04255412 0.1984599 255 0 255
0.0938739 -0.04284127 0.2008325 255 0 255
0.1068136 -0.04285476 0.2030832 255 0 255
-0.05218912 -0.03160729 0.1573627 255 0 255
-0.02988647 -0.0297034 0.1508589 255 0 255
-0.0212092 -0.03769025 0.1733527 255 0 255
0.06171503 -0.04847552 0.2084153 255 0 255
0.07068962 -0.04579096 0.2019363 255 0 255
0.09820312 -0.04409502 0.2012063 255 0 255
0.1015901 -0.04461538 0.203212 255 0 255
0.1081006 -0.04387427 0.202274 255 0 255
0.1212991 -0.04618501 0.2110481 255 0 255
0.1236393 -0.04683525 0.2132781 255 0 255
-0.0789427 -0.03603334 0.1687776 255 0 255
-0.07426837 -0.03625852 0.1689301 255 0 255
-0.04642497 -0.02999674 0.1493428 255 0 255
-0.0307943 -0.0302994 0.1494735 255 0 255
-0.02660866 -0.03386033 0.1593383 255 0 255
-0.01855568 -0.03108789 0.1514271 255 0 255
0.1084769 -0.04541222 0.2027306 255 0 255
0.1116234 -0.04558517 0.2037459 255 0 255
-0.0948643 -0.04355642 0.1876866 255 0 255
-0.08447836 -0.03923827 0.1748013 255 0 255
-0.05410115 -0.03310811 0.1553574 255 0 255
-0.04967112 -0.03105702 0.1494239 255 0 255
-0.04069394 -0.03000818 0.1460308 255 0 255
-0.0327134 -0.03083208 0.1479737 255 0 255
0.08483685 -0.04710365 0.1999155 255 0 255
0.1044797 -0.04697297 0.20251 255 0 255
0.1233909 -0.04910276 0.2114757 255 0 255
0.1344334 -0.05028949 0.216685 255 0 255
-0.08170784 -0.03852611 0.1692713 255 0 255
-0.06879695 -0.03580236 0.1607082 255 0 255
-0.06772298 -0.03592378 0.1609444 255 0 255
-0.04084253 -0.03130714 0.1466125 255 0 255
-0.03881214 -0.03144171 0.1468866 255 0 255
-0.02606583 -0.03796823 0.1643157 255 0 255
0.06708103 -0.05193944 0.2071211 255 0 255
0.08584206 -0.04781153 0.1982709 255 0 255
0.115235 -0.04854568 0.2047196 255 0 255
0.1175243 -0.04924604 0.2069711 255 0 255
0.1243607 -0.04982753 0.2096957 255 0 255
0.1296573 -0.05029568 0.2118787 255 0 255
-0.09576426 -0.04534947 0.1856305 255 0 255
-0.08171362 -0.03959456 0.1688824 255 0 255
-0.07648852 -0.03917331 0.1672619 255 0 255
-0.05976671 -0.03528421 0.1554864 255 0 255
-0.04099114 -0.032612 0.1471878 255 0 255
-0.03486851 -0.03299542 0.14797 255 0 255
-0.03282347 -0.03310756 0.1482023 255 0 255
-0.02514022 -0.03972796 0.1658951 255 0 255
0.07003593 -0.05140185 0.2022802 255 0 255
0.08342434 -0.04935239 0.1984205 255 0 255
0.095325 -0.04870575 0.1983248 255 0 255
0.09838355 -0.04896118 0.1994457 255 0 255
0.1017749 -0.04952299 0.2014364 255 0 255
0.1054939 -0.0488994 0.2003511 255 0 255
0.1479159 -0.05549841 0.2249304 255 0 255
0.1786299 -0.0642239 0.2535345 255 0 255
-0.08006778 -0.04014113 0.1669639 255 0 255
-0.04185115 -0.03316117 0.1457623 255 0 255
-0.03880487 -0.03336758 0.1461779 255 0 255
-0.03179475 -0.03412832 0.1479546 255 0 255
-0.02513211 -0.04076365 0.165511 255 0 255
0.07558248 -0.05085291 0.1978196 255 0 255
0.08592197 -0.05020611 0.1973834 255 0 255
0.1095759 -0.0497951 0.199659 255 0 255
0.1351328 -0.05332218 0.2130271 255 0 255
0.1655541 -0.05798801 0.2306406 255 0 255
0.1785023 -0.06292424 0.2457992 255 0 255
-0.0884775 -0.04529299 0.1780007 255 0 255
-0.07095262 -0.03863201 0.1590887 255 0 255
-0.06337665 -0.03764817 0.1559303 255 0 255
-0.05559362 -0.03587594 0.1507588 255 0 255
-0.04387673 -0.03397315 0.1451083 255 0 255
-0.04200397 -0.03446987 0.1463269 255 0 255
-0.0388013 -0.03432829 0.1458179 255 0 255
-0.03269248 -0.03468988 0.1465531 255 0 255
-0.0290306 -0.03629863 0.1506932 255 0 255
0.07930529 -0.05156849 0.196561 255 0 255
0.08963993 -0.05086735 0.1960146 255 0 255
0.1071445 -0.05145219 0.1999535 255 0 255
0.1196328 -0.05341617 0.2069147 255 0 255
0.1225237 -0.05325161 0.2069494 255 0 255
0.1335141 -0.05457187 0.2121371 255 0 255
0.1398385 -0.0544214 0.2128327 255 0 255
0.1643601 -0.05723812 0.2244497 255 0 255
0.1863744 -0.0669571 0.2532445 255 0 255
0.1842003 -0.06420351 0.2458735 255 0 255
-0.05787685 -0.03700625 0.1509103 255 0 255
-0.04691301 -0.03469353 0.1442777 255 0 255
-0.03561264 -0.0351239 0.1449113 255 0 255
0.06124979 -0.05816776 0.2082475 255 0 255
0.0744225 -0.05338299 0.1971791 255 0 255
0.09183879 -0.05135604 0.1940289 255 0 255
0.1056269 -0.0525576 0.1989705 255 0 255
0.1382077 -0.05568306 0.2119569 255 0 255
0.1538743 -0.05004736 0.200548 255 0 255
0.1613284 -0.05399505 0.2118111 255 0 255
0.1693261 -0.05821869 0.223868 255 0 255
-0.07764438 -0.04173153 0.1615415 255 0 255
-0.07629432 -0.04152665 0.1609066 255 0 255
-0.05766796 -0.03764001 0.1496204 255 0 255
-0.05031771 -0.03610025 0.1452459 255 0 255
-0.04370894 -0.03553173 0.1434581 255 0 255
0.01869529 -0.07092922 0.2347938 255 0 255
0.02129293 -0.06975228 0.2318608 255 0 255
0.070977 -0.05536304 0.1983901 255 0 255
0.07198981 -0.05486893 0.1972308 255 0 255
0.08060448 -0.05377696 0.1953719 255 0 255
0.08576842 -0.0534426 0.1951164 255 0 255
0.1107047 -0.05444968 0.2009109 255 0 255
0.117071 -0.05485455 0.202849 255 0 255
0.1219045 -0.05511821 0.2042316 255 0 255
0.1349058 -0.05688297 0.2106786 255 0 255
0.140338 -0.0573383 0.2126968 255 0 255
0.143224 -0.05833006 0.2156481 255 0 255
0.1539326 -0.06408887 0.2317971 255 0 255
0.1367553 -0.03928665 0.1671745 255 0 255
0.1480694 -0.04608662 0.1860527 255 0 255
0.01063414 -0.07574638 0.2429648 255 0 255
0.01353611 -0.07604373 0.2438107 255 0 255
0.02907362 -0.06302096 0.2112361 255 0 255
0.08309081 -0.05462587 0.1943402 255 0 255
0.1268352 -0.05660629 0.2050598 255 0 255
0.1467006 -0.05970532 0.2158412 255 0 255
0.1586321 -0.06772116 0.2375576 255 0 255
0.1072686 -0.01866717 0.1082793 255 0 255
-0.07418104 -0.04231622 0.1567685 255 0 255
-0.04911498 -0.03774646 0.1437533 255 0 255
-0.04589567 -0.03763712 0.1433261 255 0 255
-0.03546804 -0.03761879 0.1428786 255 0 255
-0.03015337 -0.04051165 0.1500111 255 0 255
0.08312599 -0.05580622 0.1938736 255 0 255
0.1475629 -0.06167089 0.2170302 255 0 255
-0.0741848 -0.0433313 0.1563663 255 0 255
-0.05031541 -0.03897621 0.144117 255 0 255
-0.04791958 -0.03842161 0.1426273 255 0 255
-0.04136831 -0.0377966 0.1407968 255 0 255
-0.03368881 -0.03942157 0.1445792 255 0 255
-0.03278876 -0.03984736 0.1456138 255 0 255
-0.03188044 -0.0402716 0.1466456 255 0 255
0.01221359 -0.07950772 0.2446456 255 0 255
0.01365695 -0.0794728 0.2446004 255 0 255
0.02218475 -0.07846286 0.242371 255 0 255
0.02490873 -0.07761071 0.2403545 255 0 255
0.02640902 -0.07792171 0.2411912 255 0 255
0.03398527 -0.0738143 0.2313105 255 0 255
0.06861492 -0.06150998 0.2031571 255 0 255
0.08096143 -0.05767424 0.1948714 255 0 255
0.09929208 -0.05651082 0.194065 255 0 255
0.1073558 -0.05753703 0.1975748 255 0 255
-0.09023193 -0.05085382 0.1730398 255 0 255
-0.07286177 -0.0441195 0.1553161 255 0 255
-0.06892125 -0.04342558 0.1533514 255 0 255
-0.06457537 -0.0419777 0.149534 255 0 255
-0.05498898 -0.04065514 0.1457411 255 0 255
-0.03950318 -0.03924929 0.141611 255 0 255
-0.03647173 -0.039448 0.1419996 255 0 255
-0.02681035 -0.04601164 0.1579178 255 0 255
-0.02450945 -0.05591504 0.1822732 255 0 255
0.03309652 -0.07705357 0.235516 255 0 255
0.03539605 -0.07503736 0.230665 255 0 255
0.06737816 -0.06285576 0.2029059 255 0 255
0.07132785 -0.06046692 0.1974103 255 0 255
0.07358439 -0.05980667 0.1960031 255 0 255
0.07505663 -0.06001488 0.1966483 255 0 255
0.1165514 -0.0591165 0.1991354 255 0 255
0.1206519 -0.05874047 0.1987717 255 0 255
0.1389596 -0.06118884 0.2072102 255 0 255
-0.07023104 -0.0446621 0.1536053 255 0 255
0.0007383634 -0.08579186 0.2520639 255 0 255
0.002201163 -0.08502036 0.2502079 255 0 255
0.005145898 -0.08498657 0.2501814 255 0 255
0.00663869 -0.08534467 0.2510856 255 0 255
0.0136963 -0.08216459 0.243508 255 0 255
0.01930247 -0.08086213 0.2405048 255 0 255
0.0697273 -0.06340796 0.2010326 255 0 255
0.09140728 -0.05934393 0.1933074 255 0 255
-0.0951924 -0.05431367 0.1756146 255 0 255
-0.08707265 -0.05064889 0.1662652 255 0 255
-0.0856675 -0.05044651 0.1656758 255 0 255
-0.0741955 -0.04636638 0.1551358 255 0 255
-0.05601635 -0.04247941 0.144765 255 0 255
-0.04588903 -0.04143187 0.1417923 255 0 255
-0.03964507 -0.04151087 0.1417546 255 0 255
-0.03848694 -0.04120117 0.1409735 255 0 255
-0.03660066 -0.04171194 0.1421438 255 0 255
-0.02768246 -0.04720956 0.155165 255 0 255
0.002253206 -0.08791989 0.2533386 255 0 255
0.005196712 -0.08712004 0.2514644 255 0 255
0.02069409 -0.08176366 0.238963 255 0 255
0.03182606 -0.08013619 0.2354687 255 0 255
0.03647187 -0.08143017 0.2387926 255 0 255
0.06569761 -0.06702351 0.2060013 255 0 255
0.06870524 -0.06511919 0.2016813 255 0 255
0.08474951 -0.06070074 0.1925634 255 0 255
0.1175317 -0.06097698 0.1968535 255 0 255
0.1207352 -0.06119289 0.1977627 255 0 255
-0.0931368 -0.0544947 0.1728417 255 0 255
-0.0837096 -0.05055684 0.1628725 255 0 255
-0.07180236 -0.04727413 0.1543251 255 0 255
-0.02864663 -0.04777025 0.1537384 255 0 255
-0.02679143 -0.04901827 0.1566797 255 0 255
0.0192864 -0.08313786 0.2384791 255 0 255
0.03781467 -0.0822947 0.237191 255 0 255
0.1099917 -0.06192759 0.1948338 255 0 255
0.1204171 -0.06206407 0.1963864 255 0 255
-0.09254114 -0.05484395 0.1706275 255 0 255
-0.09050749 -0.05390908 0.1683014 255 0 255
-0.08012661 -0.0500464 0.158569 255 0 255
-0.06434997 -0.04551847 0.1470205 255 0 255
-0.05909486 -0.04408028 0.1433747 255 0 255
-0.05662447 -0.043533 0.1419694 255 0 255
-0.05336665 -0.04345417 0.1416303 255 0 255
-0.03220664 -0.04622072 0.1474188 255 0 255
0.01256194 -0.08894924 0.2483166 255 0 255
0.01659332 -0.08571827 0.2408043 255 0 255
0.02887659 -0.08212477 0.2327409 255 0 255
0.03019492 -0.08166997 0.2317208 255 0 255
0.03892737 -0.08237375 0.2337521 255 0 255
0.0630002 -0.07492968 0.2176334 255 0 255
0.06433288 -0.07199965 0.2108557 255 0 255
0.06749361 -0.06765678 0.2009098 255 0 255
0.07462743 -0.06601899 0.1976349 255 0 255
0.08286779 -0.0641349 0.1939384 255 0 255
0.08507781 -0.06341816 0.1924666 255 0 255
0.1163632 -0.06364606 0.1962356 255 0 255
0.1462317 -0.06819103 0.2103955 255 0 255
-0.07316804 -0.04787311 0.1503147 255 0 255
-0.06844541 -0.04764318 0.1495015 255 0 255
-0.05662488 -0.04448199 0.1415664 255 0 255
-0.05438353 -0.04430173 0.1410447 255 0 255
-0.04352691 -0.04364703 0.1390939 255 0 255
-0.0415091 -0.04380003 0.1393827 255 0 255
-0.03948887 -0.04394508 0.1396577 255 0 255
-0.02766506 -0.05018355 0.1539127 255 0 255
0.01530368 -0.08827048 0.2430462 255 0 255
0.02615961 -0.08394563 0.233292 255 0 255
0.07917503 -0.06581339 0.1942754 255 0 255
0.08563883 -0.06534168 0.1937416 255 0 255
0.08907731 -0.0644296 0.1919487 255 0 255
0.09182378 -0.06443154 0.1922079 255 0 255
0.09704579 -0.06402952 0.1917839 255 0 255
0.1053728 -0.0638936 0.1923144 255 0 255
0.1132212 -0.06460233 0.1947779 255 0 255
-0.06034229 -0.04626529 0.1432519 255 0 255
-0.05764397 -0.04532367 0.1409651 255 0 255
-0.05215402 -0.04505341 0.1401017 255 0 255
-0.04251618 -0.04465798 0.1388388 255 0 255
-0.04049674 -0.04480757 0.1391204 255 0 255
-0.02785351 -0.05196294 0.155314 255 0 255
0.07261755 -0.06946266 0.1989152 255 0 255
0.0819414 -0.06703817 0.1941006 255 0 255
0.1192847 -0.0659543 0.1952418 255 0 255
0.1375472 -0.06874192 0.203633 255 0 255
-0.08992939 -0.05634648 0.1651801 255 0 255
-0.07931492 -0.05196419 0.1546085 255 0 255
0.02478658 -0.08661152 0.2322495 255 0 255
0.03156652 -0.08509461 0.2290214 255 0 255
0.04145796 -0.08493125 0.2290487 255 0 255
0.04412591 -0.08434925 0.2278434 255 0 255
0.06671139 -0.07215528 0.2013908 255 0 255
0.07159788 -0.07119054 0.1995391 255 0 255
0.09558131 -0.06620728 0.1902151 255 0 255
0.1396611 -0.07043888 0.2042963 255 0 255
0.148898 -0.07283718 0.2107323 255 0 255
-0.0828855 -0.05459635 0.1580104 255 0 255
-0.06796356 -0.04980607 0.1464494 255 0 255
-0.06539685 -0.04927393 0.1451267 255 0 255
-0.03671655 -0.04774959 0.1406386 255 0 255
-0.02958289 -0.05223724 0.1506132 255 0 255
0.01410461 -0.09434424 0.2459156 255 0 255
0.01810574 -0.09099049 0.2384389 255 0 255
0.02480497 -0.08791173 0.2316764 255 0 255
0.03149455 -0.08598164 0.2275421 255 0 255
0.04402112 -0.08523801 0.2263673 255 0 255
0.04652895 -0.08424317 0.2242403 255 0 255
0.05935572 -0.07783042 0.210475 255 0 255
0.07162403 -0.07238248 0.1990131 255 0 255
0.07748613 -0.07082772 0.1959437 255 0 255
0.07850032 -0.07027716 0.1947855 255 0 255
0.08100268 -0.06994725 0.1942353 255 0 255
0.08766023 -0.06774439 0.1898362 255 0 255
0.09163097 -0.06757473 0.1897889 255 0 255
0.09314892 -0.06776745 0.1903487 255 0 255
0.09438107 -0.06757479 0.1900252 255 0 255
0.0956118 -0.0673797 0.1896976 255 0 255
0.1229378 -0.06899065 0.1959138 255 0 255
-0.0533655 -0.04816937 0.1395828 255 0 255
0.0302064 -0.08774021 0.2279864 255 0 255
0.04340868 -0.08450176 0.2212655 255 0 255
0.04574333 -0.08309894 0.2182409 255 0 255
0.05371252 -0.08205982 0.2163076 255 0 255
0.05607602 -0.08102489 0.2141257 255 0 255
0.0671699 -0.07533982 0.2021198 255 0 255
0.07396186 -0.07287464 0.1970892 255 0 255
0.08672605 -0.06947769 0.1904977 255 0 255
0.09993958 -0.06871492 0.18991 255 0 255
0.1055043 -0.06863523 0.1902322 255 0 255
-0.09219235 -0.05915649 0.163161 255 0 255
-0.08705737 -0.05732972 0.1588531 255 0 255
-0.08204698 -0.05546243 0.1544745 255 0 255
-0.07877643 -0.05419568 0.1515171 255 0 255
-0.05113661 -0.04889856 0.1386221 255 0 255
-0.02821996 -0.057566 0.1571893 255 0 255
0.0337241 -0.08594522 0.2207235 255 0 255
0.03603459 -0.08415584 0.2168555 255 0 255
0.04190749 -0.08087484 0.2098442 255 0 255
0.05436653 -0.08492792 0.2193476 255 0 255
0.05540647 -0.08400165 0.2173579 255 0 255
0.05659573 -0.08347844 0.2162652 255 0 255
0.06090389 -0.08056013 0.2100655 255 0 255
0.06630758 -0.07748033 0.2035963 255 0 255
0.1015129 -0.07006836 0.1899027 255 0 255
0.1058572 -0.07019929 0.1905654 255 0 255
0.1083308 -0.06975973 0.1898278 255 0 255
0.1210316 -0.07091919 0.193537 255 0 255
0.1299054 -0.07226232 0.1973309 255 0 255
0.1332053 -0.07246961 0.1981169 255 0 255
0.1419496 -0.07328325 0.2007963 255 0 255
-0.06217385 -0.05038955 0.1398392 255 0 255
-0.0328589 -0.05163123 0.1416513 255 0 255
0.01820774 -0.0953668 0.2375641 255 0 255
0.03189358 -0.08521087 0.215737 255 0 255
0.0401506 -0.07633731 0.1966518 255 0 255
0.05375623 -0.08455297 0.2151784 255 0 255
0.05526648 -0.08484581 0.2158893 255 0 255
0.06431568 -0.08017377 0.2061763 255 0 255
0.07857805 -0.07380402 0.1931957 255 0 255
0.08856242 -0.07241895 0.1908943 255 0 255
0.1086909 -0.07132672 0.1901513 255 0 255
0.1146675 -0.07156406 0.1911918 255 0 255
-0.09332457 -0.06107179 0.1618935 255 0 255
-0.09220199 -0.06125062 0.1622094 255 0 255
-0.09077714 -0.06103019 0.1616543 255 0 255
-0.05764655 -0.05096954 0.1384475 255 0 255
-0.05336459 -0.05097798 0.1383099 255 0 255
-0.05132561 -0.05117413 0.1386639 255 0 255
-0.04808296 -0.05104129 0.1382752 255 0 255
-0.03466042 -0.05161783 0.1391912 255 0 255
-0.03285522 -0.0525714 0.1412201 255 0 255
-0.02594016 -0.06471701 0.1673989 255 0 255
0.03453135 -0.07575155 0.1921227 255 0 255
0.06433818 -0.08138704 0.2056181 255 0 255
0.07066572 -0.07768387 0.1979948 255 0 255
0.08858857 -0.07358823 0.190356 255 0 255
0.1018816 -0.07281016 0.1896924 255 0 255
0.1071545 -0.07234098 0.1891178 255 0 255
0.1332749 -0.07493708 0.196987 255 0 255
-0.07136402 -0.05465075 0.1444296 255 0 255
-0.05764685 -0.0519044 0.138015 255 0 255
-0.05253915 -0.05242397 0.1389461 255 0 255
-0.04790309 -0.05155671 0.1369523 255 0 255
-0.03758283 -0.05193198 0.1374976 255 0 255
-0.02766585 -0.06313644 0.1613213 255 0 255
0.02478194 -0.08589794 0.2105693 255 0 255
0.0283733 -0.07766431 0.1930372 255 0 255
0.04311907 -0.07204054 0.1815218 255 0 255
0.06436006 -0.08259806 0.2050551 255 0 255
0.07196466 -0.07871965 0.1971986 255 0 255
-0.06852455 -0.05465004 0.1418244 255 0 255
-0.06572494 -0.05367108 0.1396451 255 0 255
-0.04993045 -0.05229839 0.1361895 255 0 255
-0.04062948 -0.05264005 0.1366704 255 0 255
-0.02662885 -0.06462536 0.1618367 255 0 255
-0.02437789 -0.06471459 0.1620072 255 0 255
0.02461079 -0.07898995 0.1927748 255 0 255
0.05112793 -0.08114558 0.1982518 255 0 255
0.07763448 -0.07788493 0.1927125 255 0 255
0.07864948 -0.07731152 0.1915647 255 0 255
0.09140394 -0.07595243 0.1895186 255 0 255
0.1289047 -0.07600141 0.1925405 255 0 255
-0.09018771 -0.06333262 0.1584756 255 0 255
-0.06572624 -0.05461386 0.1392 255 0 255
-0.05234391 -0.05387078 0.1371821 255 0 255
-0.05113328 -0.05354751 0.1364701 255 0 255
0.03481675 -0.07093216 0.1732247 255 0 255
0.06478815 -0.08585264 0.2056887 255 0 255
0.07455838 -0.08077573 0.1955798 255 0 255
0.07583168 -0.08061854 0.1953216 255 0 255
0.08017211 -0.07872427 0.1916161 255 0 255
0.08893627 -0.07749264 0.1895844 255 0 255
0.1289352 -0.07721049 0.1919667 255 0 255
0.1412401 -0.0802054 0.1992095 255 0 255
-0.08759063 -0.06247782 0.153982 255 0 255
-0.05581168 -0.05533761 0.1379594 255 0 255
-0.04772099 -0.0539018 0.1347557 255 0 255
-0.0446838 -0.05416294 0.1352216 255 0 255
-0.04383325 -0.05467315 0.1362593 255 0 255
-0.0243672 -0.06675 0.1610389 255 0 255
0.01730509 -0.07417461 0.1767645 255 0 255
0.02193023 -0.07312816 0.1746918 255 0 255
0.02970387 -0.07056676 0.1695745 255 0 255
0.05260939 -0.08381038 0.1978436 255 0 255
0.07375307 -0.08294783 0.1970281 255 0 255
0.07480749 -0.0823727 0.195894 255 0 255
0.08170096 -0.08013784 0.1916538 255 0 255
0.1088309 -0.07721579 0.1873844 255 0 255
0.1273321 -0.07828672 0.1909895 255 0 255
0.1350619 -0.07996026 0.1950438 255 0 255
-0.08670218 -0.06224219 0.1509165 255 0 255
-0.0790341 -0.05971779 0.1454191 255 0 255
-0.07346594 -0.05821536 0.1421164 255 0 255
-0.05336266 -0.05562353 0.1361149 255 0 255
-0.04754118 -0.05438893 0.1334282 255 0 255
-0.04653317 -0.05447797 0.1335862 255 0 255
-0.04297247 -0.05610701 0.1368483 255 0 255
-0.02799312 -0.06365989 0.1521369 255 0 255
-0.02643608 -0.06680357 0.1585872 255 0 255
0.01922771 -0.0721183 0.1698301 255 0 255
0.02272746 -0.07197379 0.1696105 255 0 255
0.04114125 -0.07395715 0.174216 255 0 255
0.04975573 -0.08079505 0.1885658 255 0 255
0.06482765 -0.08827288 0.2045228 255 0 255
0.06555423 -0.08685563 0.2016498 255 0 255
0.06884127 -0.08515377 0.198313 255 0 255
0.09050665 -0.08004809 0.1890225 255 0 255
0.1085262 -0.07797956 0.1859657 255 0 255
0.1326609 -0.08027279 0.1924121 255 0 255
-0.09432895 -0.06527087 0.1548897 255 0 255
-0.08670545 -0.06323904 0.1504319 255 0 255
-0.07875819 -0.06026791 0.1440835 255 0 255
-0.06320363 -0.05682662 0.1365312 255 0 255
-0.03566511 -0.05711067 0.1364311 255 0 255
-0.0347701 -0.05761278 0.137439 255 0 255
-0.0232304 -0.0688196 0.1601335 255 0 255
0.01236538 -0.07471633 0.1723385 255 0 255
