ply
format ascii 1.0
Comment Generated by Floating Hands
element vertex 1130
Comment Left: (0.0, 0.0, 0.0)
Comment Right: (0.1, -0.1, 0.2)
property double x
property double y
property double z
property uchar red
property uchar green
property uchar blue
end_header
0.07295608 -0.01076496 0.2572199 255 0 255
0.07433928 -0.01057188 0.256919 255 0 255
0.0930407 -0.01047369 0.2655837 255 0 255
0.09558395 -0.009846365 0.2638867 255 0 255
0.1022998 -0.00849197 0.2609811 255 0 255
0.1039992 -0.008409992 0.261512 255 0 255
0.1060125 -0.008486545 0.2629729 255 0 255
0.111341 -0.009267871 0.2696066 255 0 255
0.1130879 -0.009166368 0.2701003 255 0 255
0.1184588 -0.007934901 0.2673533 255 0 255
0.1198764 -0.007660926 0.266887 255 0 255
0.1233954 -0.007416347 0.2677903 255 0 255
0.07558499 -0.01162444 0.255371 255 0 255
0.08451428 -0.01200943 0.2613746 255 0 255
0.08916436 -0.01279312 0.2673256 255 0 255
0.09228066 -0.01251731 0.267549 255 0 255
0.1016144 -0.01053214 0.2629683 255 0 255
0.1027172 -0.01012079 0.2616252 255 0 255
0.1143171 -0.01024309 0.2684184 255 0 255
0.125291 -0.008797254 0.2679263 255 0 255
0.06524069 -0.0150979 0.2602599 255 0 255
0.07544753 -0.01286347 0.254125 255 0 255
0.07706414 -0.01284675 0.254769 255 0 255
0.09096623 -0.01422223 0.26761 255 0 255
0.09239196 -0.01399603 0.2672449 255 0 255
0.09354016 -0.01359185 0.2659295 255 0 255
0.107651 -0.01117706 0.2619528 255 0 255
0.1161915 -0.01164164 0.2685895 255 0 255
0.1176179 -0.01137093 0.2681327 255 0 255
0.1183731 -0.01076754 0.2658152 255 0 255
0.1201267 -0.0106577 0.2662769 255 0 255
0.1372719 -0.01185056 0.2812266 255 0 255
0.1420608 -0.01107111 0.280524 255 0 255
0.06352549 -0.01632961 0.2583061 255 0 255
0.06512825 -0.01634146 0.259 255 0 255
0.07025889 -0.01523247 0.2559714 255 0 255
0.08395361 -0.01436005 0.2579261 255 0 255
0.1023429 -0.0126974 0.259143 255 0 255
0.1118515 -0.01281983 0.2645143 255 0 255
0.1159859 -0.01297297 0.2673452 255 0 255
0.1220458 -0.01109528 0.2622455 255 0 255
0.126261 -0.01119295 0.2649682 255 0 255
0.1374063 -0.01341954 0.2808976 255 0 255
0.1440468 -0.01248357 0.2805556 255 0 255
0.06662077 -0.01758861 0.2584236 255 0 255
0.07540798 -0.01550321 0.2525735 255 0 255
0.08052061 -0.01565279 0.2554333 255 0 255
0.0974407 -0.01547286 0.2622862 255 0 255
0.09966417 -0.01463538 0.2596289 255 0 255
0.102456 -0.01415097 0.2588319 255 0 255
0.1113285 -0.01395078 0.2623356 255 0 255
0.1137077 -0.01421335 0.2646864 255 0 255
0.1164348 -0.01464347 0.2679535 255 0 255
0.118953 -0.01392488 0.266109 255 0 255
0.1371756 -0.01482007 0.2796461 255 0 255
0.140486 -0.015341 0.283689 255 0 255
0.1468026 -0.01422303 0.2823909 255 0 255
0.06412513 -0.01957056 0.259609 255 0 255
0.07067726 -0.0182633 0.2563139 255 0 255
0.07366133 -0.01672055 0.2506648 255 0 255
0.07550641 -0.01691169 0.2522665 255 0 255
0.07874352 -0.0168971 0.2535448 255 0 255
0.1117665 -0.01560308 0.2629444 255 0 255
0.1208341 -0.01531824 0.2662416 255 0 255
0.06499331 -0.02021849 0.2561539 255 0 255
0.06894084 -0.0194724 0.2543748 255 0 255
0.07009934 -0.01908711 0.2531368 255 0 255
0.07124905 -0.01870047 0.2518954 255 0 255
0.08022049 -0.01810738 0.2529109 255 0 255
0.09708416 -0.01801643 0.2597656 255 0 255
0.09958962 -0.01735229 0.2580526 255 0 255
0.1088817 -0.01642031 0.2583994 255 0 255
0.1209552 -0.01681408 0.2659092 255 0 255
0.1223781 -0.01653393 0.2654373 255 0 255
0.1367089 -0.01759383 0.2771298 255 0 255
0.1422419 -0.01818324 0.2824502 255 0 255
0.1450814 -0.01552765 0.2729693 255 0 255
0.06445661 -0.02102061 0.2529654 255 0 255
0.0660502 -0.02104592 0.2536532 255 0 255
0.07522111 -0.0193237 0.2497361 255 0 255
0.0849704 -0.01928681 0.2534913 255 0 255
0.08768111 -0.02005428 0.2578683 255 0 255
0.09015764 -0.02061753 0.2612881 255 0 255
0.0923887 -0.02097832 0.2637535 255 0 255
0.09436314 -0.02113834 0.2652672 255 0 255
0.1066552 -0.01756635 0.2557017 255 0 255
0.1242673 -0.01792668 0.2655421 255 0 255
0.1249888 -0.01727766 0.2632212 255 0 255
0.1445865 -0.01876546 0.2791736 255 0 255
0.06774322 -0.02247772 0.2540098 255 0 255
0.07281256 -0.02131364 0.2509627 255 0 255
0.07966366 -0.02032308 0.2494268 255 0 255
0.08128498 -0.02031983 0.2500503 255 0 255
0.08751731 -0.02129046 0.2565944 255 0 255
0.09249447 -0.0224409 0.2634163 255 0 255
0.09701074 -0.02072031 0.2581659 255 0 255
0.1036805 -0.01931675 0.2552617 255 0 255
0.104756 -0.01887525 0.2539224 255 0 255
0.1087892 -0.01913789 0.2568063 255 0 255
0.1148269 -0.02052069 0.2652093 255 0 255
0.1196717 -0.02111101 0.2698502 255 0 255
0.1207778 -0.02064403 0.2684615 255 0 255
0.1229623 -0.01970673 0.2656755 255 0 255
0.1251094 -0.01876518 0.2628783 255 0 255
0.131155 -0.01880857 0.2659753 255 0 255
0.1347736 -0.01960235 0.2709444 255 0 255
0.1384332 -0.02038451 0.2758928 255 0 255
0.0687784 -0.02327976 0.2514964 255 0 255
0.07653459 -0.02171016 0.2478334 255 0 255
0.08112717 -0.02151565 0.2487768 255 0 255
0.08249234 -0.02130763 0.2484498 255 0 255
0.09374235 -0.02346955 0.2617665 255 0 255
0.09487625 -0.0230358 0.2604564 255 0 255
0.09902459 -0.02108937 0.2542512 255 0 255
0.1031741 -0.02036055 0.2530623 255 0 255
0.1045538 -0.02011277 0.252656 255 0 255
0.1202228 -0.02176365 0.266265 255 0 255
0.1241598 -0.02072682 0.2639284 255 0 255
0.1407719 -0.02198724 0.2768146 255 0 255
0.1433293 -0.02116564 0.2748189 255 0 255
0.06611053 -0.02504499 0.2517122 255 0 255
0.08474365 -0.02311862 0.2506105 255 0 255
0.08965596 -0.02434546 0.2574471 255 0 255
0.0949809 -0.02448706 0.2601098 255 0 255
0.1032813 -0.02178985 0.2527209 255 0 255
0.1140781 -0.02289737 0.2617328 255 0 255
0.1168122 -0.0234169 0.2649809 255 0 255
0.1239301 -0.02202215 0.2626555 255 0 255
0.1267629 -0.02144675 0.2616892 255 0 255
0.144556 -0.01920468 0.2614094 255 0 255
0.07079791 -0.02483081 0.2464588 255 0 255
0.07463543 -0.02403883 0.2446309 255 0 255
0.07919523 -0.02387097 0.2455951 255 0 255
0.08080772 -0.02387994 0.2462188 255 0 255
0.08431441 -0.02409962 0.2483869 255 0 255
0.09814038 -0.02439536 0.2548814 255 0 255
0.09923478 -0.02394896 0.2535621 255 0 255
0.1162662 -0.02450117 0.262775 255 0 255
0.1208639 -0.02387333 0.2623216 255 0 255
0.1236988 -0.02330835 0.2613786 255 0 255
0.1439663 -0.02445099 0.2749784 255 0 255
0.1450484 -0.02393687 0.2735226 255 0 255
0.07020434 -0.0270637 0.2492473 255 0 255
0.0711183 -0.02643226 0.2470654 255 0 255
0.07224968 -0.02602115 0.2458287 255 0 255
0.07718423 -0.02480042 0.2427369 255 0 255
0.08361951 -0.02484768 0.2452215 255 0 255
0.08577851 -0.02528187 0.2477042 255 0 255
0.09015913 -0.02613234 0.252638 255 0 255
0.09265935 -0.02676229 0.256025 255 0 255
0.09462284 -0.02695858 0.2575288 255 0 255
0.09824391 -0.02582716 0.2545273 255 0 255
0.1004242 -0.02492478 0.2518879 255 0 255
0.1028763 -0.02422656 0.2501649 255 0 255
0.1195574 -0.02563169 0.2624195 255 0 255
0.1209785 -0.02535245 0.2619558 255 0 255
0.128053 -0.02391866 0.2595606 255 0 255
0.06637824 -0.02923502 0.2506771 255 0 255
0.06754138 -0.02882584 0.2494558 255 0 255
0.07097798 -0.02758997 0.2457712 255 0 255
0.0772761 -0.02617015 0.2423927 255 0 255
0.08998274 -0.02733107 0.2513455 255 0 255
0.1005274 -0.02634659 0.2515304 255 0 255
0.1057274 -0.02514499 0.2489962 255 0 255
0.1097607 -0.02547581 0.2518548 255 0 255
0.1200086 -0.02731675 0.262966 255 0 255
0.1235803 -0.02605816 0.2597275 255 0 255
0.1455973 -0.02610737 0.2694966 255 0 255
0.1462616 -0.02538852 0.2671418 255 0 255
0.1473048 -0.02486513 0.2656847 255 0 255
0.1463425 -0.02337107 0.2597446 255 0 255
0.07129747 -0.0291961 0.2463651 255 0 255
0.07466669 -0.02793411 0.2426514 255 0 255
0.07846224 -0.02711148 0.2407907 255 0 255
0.08516606 -0.02740031 0.2441859 255 0 255
0.09482524 -0.02983506 0.2567995 255 0 255
0.1014014 -0.0270886 0.2489181 255 0 255
0.1058315 -0.0265598 0.2486345 255 0 255
0.109867 -0.02690488 0.2514895 255 0 255
0.128967 -0.02616041 0.256502 255 0 255
0.1318364 -0.02668354 0.2596343 255 0 255
0.09184031 -0.03015222 0.2511949 255 0 255
0.09575719 -0.0305881 0.25419 255 0 255
0.09715414 -0.03035192 0.2538134 255 0 255
0.09854936 -0.03011323 0.2534316 255 0 255
0.09934673 -0.02942795 0.2511883 255 0 255
0.1001275 -0.02874281 0.248944 255 0 255
0.1053017 -0.02753553 0.2464212 255 0 255
0.1096485 -0.02811502 0.2501978 255 0 255
0.1220455 -0.02907076 0.2585281 255 0 255
0.1411039 -0.02992876 0.2694452 255 0 255
0.1458451 -0.029164 0.2687092 255 0 255
0.06873547 -0.03232986 0.2462075 255 0 255
0.07679757 -0.02956935 0.2385086 255 0 255
0.0824056 -0.02898506 0.2381809 255 0 255
0.08889356 -0.03041316 0.2455798 255 0 255
0.09585627 -0.03201443 0.2538134 255 0 255
0.1054035 -0.02893966 0.2460504 255 0 255
0.1091043 -0.02909481 0.2479826 255 0 255
0.1172381 -0.03093659 0.2576908 255 0 255
0.1239175 -0.02931692 0.2544634 255 0 255
0.126709 -0.02873917 0.2535035 255 0 255
0.1316994 -0.0294259 0.2579551 255 0 255
0.1386431 -0.0311383 0.2668689 255 0 255
0.1416029 -0.03166266 0.2699443 255 0 255
0.1430601 -0.031341 0.2694037 255 0 255
0.1445149 -0.03101668 0.2688577 255 0 255
0.1459673 -0.03068981 0.2683065 255 0 255
0.1503102 -0.02969349 0.2666212 255 0 255
0.1509455 -0.02894739 0.2642653 255 0 255
0.1478992 -0.02637014 0.2538967 255 0 255
0.07222355 -0.03241954 0.2421586 255 0 255
0.0768857 -0.03092166 0.2381459 255 0 255
0.07956111 -0.03051794 0.2375237 255 0 255
0.08410122 -0.03036374 0.2384229 255 0 255
0.08571252 -0.03038402 0.2390216 255 0 255
0.0909133 -0.03204331 0.2467184 255 0 255
0.1038236 -0.03036614 0.245158 255 0 255
0.109207 -0.03050779 0.2476035 255 0 255
0.121573 -0.03155702 0.2559253 255 0 255
0.1250673 -0.03026099 0.2526888 255 0 255
0.1285775 -0.0301126 0.2535328 255 0 255
0.1380102 -0.03222045 0.2646601 255 0 255
0.1409645 -0.03276086 0.2677343 255 0 255
0.1479323 -0.03209434 0.2682364 255 0 255
0.1498562 -0.02983707 0.2611871 255 0 255
0.07318725 -0.03310397 0.2396151 255 0 255
0.0756328 -0.03247104 0.2380818 255 0 255
0.07805783 -0.03183073 0.2365326 255 0 255
0.07964941 -0.03186811 0.2371559 255 0 255
0.08365335 -0.03124371 0.2361869 255 0 255
0.09874763 -0.03297561 0.2472727 255 0 255
0.09981988 -0.03250125 0.2459622 255 0 255
0.1083347 -0.03123298 0.2444656 255 0 255
0.11305 -0.03207711 0.2491121 255 0 255
0.1248188 -0.03148349 0.2513881 255 0 255
0.1315571 -0.03214657 0.2562568 255 0 255
0.1351968 -0.03315893 0.2611649 255 0 255
0.1432991 -0.03438978 0.2685795 255 0 255
0.1480531 -0.03361981 0.2678209 255 0 255
0.150381 -0.03155011 0.261668 255 0 255
0.06967907 -0.03552399 0.2419796 255 0 255
0.07168864 -0.03440282 0.2385909 255 0 255
0.07947889 -0.03297279 0.2358479 255 0 255
0.08723567 -0.03288545 0.237935 255 0 255
0.09190489 -0.03412161 0.2437384 255 0 255
0.1067487 -0.032655 0.2435765 255 0 255
0.1176114 -0.03410641 0.2523998 255 0 255
0.1415786 -0.03601364 0.2678003 255 0 255
0.1498726 -0.03382196 0.2635986 255 0 255
0.07555729 -0.03491907 0.2363934 255 0 255
0.091713 -0.03526049 0.2424228 255 0 255
0.09364964 -0.03551755 0.2439149 255 0 255
0.09559955 -0.03576965 0.2453982 255 0 255
0.1082086 -0.03379204 0.2427704 255 0 255
0.1166955 -0.03484254 0.2492632 255 0 255
0.1218973 -0.03470308 0.250622 255 0 255
0.1256992 -0.03361183 0.2482991 255 0 255
0.1314094 -0.03484545 0.2545397 255 0 255
0.1343047 -0.03544919 0.2576371 255 0 255
0.1379791 -0.03649584 0.2625161 255 0 255
0.1431502 -0.03720723 0.2668356 255 0 255
0.1468355 -0.03699816 0.267529 255 0 255
0.1499913 -0.03533142 0.2631747 255 0 255
0.07831613 -0.0358614 0.2354002 255 0 255
0.08418784 -0.03553156 0.2359823 255 0 255
0.08552472 -0.03531707 0.2356491 255 0 255
0.09316512 -0.03640842 0.2416697 255 0 255
0.09676927 -0.03667907 0.2437041 255 0 255
0.09753679 -0.0359512 0.2414821 255 0 255
0.1079811 -0.03494341 0.2414589 255 0 255
0.1240637 -0.03509593 0.2474645 255 0 255
0.131149 -0.03607111 0.2532241 255 0 255
0.1447193 -0.0383952 0.2658601 255 0 255
0.0710711 -0.04089975 0.2455084 255 0 255
0.07198535 -0.04018954 0.2433477 255 0 255
0.08694791 -0.03644614 0.2349215 255 0 255
0.09267879 -0.03728258 0.2394235 255 0 255
0.1158777 -0.03696478 0.2457189 255 0 255
0.1210511 -0.03685153 0.2470829 255 0 255
0.123809 -0.03628169 0.2461498 255 0 255
0.1276565 -0.03640889 0.2478976 255 0 255
0.1382034 -0.03948031 0.2616585 255 0 255
0.1495807 -0.03913867 0.2646487 255 0 255
0.07714713 -0.03874245 0.2349265 255 0 255
0.08115529 -0.03812937 0.23399 255 0 255
0.09576832 -0.03843682 0.2392126 255 0 255
0.0987763 -0.03821285 0.2393796 255 0 255
0.1061699 -0.03747435 0.2392368 255 0 255
0.1383138 -0.04096989 0.2612209 255 0 255
0.1427242 -0.04127407 0.2637367 255 0 255
0.1474548 -0.04052112 0.2629879 255 0 255
0.1493449 -0.03812579 0.2559927 255 0 255
0.07964487 -0.03941014 0.2329792 255 0 255
0.08097624 -0.03920366 0.2326633 255 0 255
0.08523582 -0.03883018 0.2326127 255 0 255
0.09362459 -0.03926651 0.2364112 255 0 255
0.1026082 -0.03859474 0.2368896 255 0 255
0.1079425 -0.03884504 0.2393275 255 0 255
0.1133487 -0.03905638 0.2416947 255 0 255
0.1184775 -0.03898117 0.2430857 255 0 255
0.1446718 -0.04268731 0.263639 255 0 255
0.1490123 -0.04168915 0.2619824 255 0 255
0.1478336 -0.03866807 0.2520186 255 0 255
0.06833071 -0.0451248 0.2439015 255 0 255
0.0692589 -0.04439455 0.2417551 255 0 255
0.07265539 -0.04301132 0.2381053 255 0 255
0.07463092 -0.04181341 0.2347244 255 0 255
0.08477127 -0.03963559 0.2303602 255 0 255
0.09341948 -0.04036001 0.2350819 255 0 255
0.1023842 -0.0397011 0.2355638 255 0 255
0.1120794 -0.04071466 0.2417048 255 0 255
0.122023 -0.04031824 0.2435509 255 0 255
0.1287002 -0.04118045 0.2484164 255 0 255
0.1464931 -0.04280459 0.2594268 255 0 255
0.1487256 -0.04295042 0.2606437 255 0 255
0.06841015 -0.0464912 0.2434827 255 0 255
0.07273547 -0.04435783 0.2376926 255 0 255
0.0768884 -0.0422067 0.2318576 255 0 255
0.08061437 -0.04132457 0.2300009 255 0 255
0.08457973 -0.0406923 0.2290306 255 0 255
0.08589862 -0.04047675 0.2286978 255 0 255
0.09129478 -0.04114299 0.232269 255 0 255
0.0932131 -0.04144429 0.2337496 255 0 255
0.1008189 -0.04104444 0.2346254 255 0 255
0.1038166 -0.04080978 0.2347512 255 0 255
0.1179754 -0.04127166 0.2404291 255 0 255
0.1259547 -0.04190182 0.2448743 255 0 255
0.07479074 -0.04448103 0.2339008 255 0 255
0.07804377 -0.0430549 0.2302136 255 0 255
0.08148401 -0.04189029 0.2274236 255 0 255
0.08438697 -0.04173984 0.2276982 255 0 255
0.08947398 -0.04216614 0.2303663 255 0 255
0.09493417 -0.04282353 0.2338849 255 0 255
0.1129582 -0.04270269 0.2386079 255 0 255
0.1453139 -0.04133258 0.2445158 255 0 255
0.07130202 -0.04695678 0.2362063 255 0 255
0.07241838 -0.04648326 0.2349917 255 0 255
0.0770475 -0.04485474 0.2310286 255 0 255
0.08024763 -0.04340879 0.2273271 255 0 255
0.08287928 -0.04299077 0.226689 255 0 255
0.09338424 -0.04412994 0.2329086 255 0 255
0.09800375 -0.0439649 0.2336312 255 0 255
0.101704 -0.04296495 0.2315686 255 0 255
0.1070031 -0.04327826 0.2340028 255 0 255
0.1106876 -0.04355379 0.2358883 255 0 255
0.1127127 -0.04381662 0.2372701 255 0 255
0.1154186 -0.04327571 0.2364021 255 0 255
0.1413421 -0.04749215 0.2570057 255 0 255
0.144989 -0.04734462 0.2577033 255 0 255
0.07384506 -0.04762262 0.2342769 255 0 255
0.077126 -0.04617618 0.2306063 255 0 255
0.08454861 -0.04436566 0.2268647 255 0 255
0.09510496 -0.04551234 0.2330313 255 0 255
0.1004572 -0.04455257 0.2315275 255 0 255
0.1111132 -0.0451878 0.2363549 255 0 255
0.1128044 -0.04518909 0.2368314 255 0 255
0.1268945 -0.0453181 0.2412751 255 0 255
0.128637 -0.04528257 0.2416848 255 0 255
0.1424894 -0.04838316 0.2551176 255 0 255
0.1473728 -0.04655105 0.2511829 255 0 255
0.07281049 -0.04943787 0.2350616 255 0 255
0.07392218 -0.04895439 0.2338456 255 0 255
0.0790861 -0.04623167 0.226797 255 0 255
0.08172221 -0.0458172 0.2261686 255 0 255
0.08462826 -0.04567599 0.2264402 255 0 255
0.0865039 -0.04602429 0.2279442 255 0 255
0.08810982 -0.04608601 0.2285228 255 0 255
0.0962282 -0.046339 0.2313161 255 0 255
0.100543 -0.0458928 0.2310933 255 0 255
0.1068528 -0.04571328 0.2322268 255 0 255
0.1085225 -0.04572783 0.2327199 255 0 255
0.114564 -0.04520694 0.2328244 255 0 255
0.1337514 -0.04766112 0.2455737 255 0 255
0.1444131 -0.04978229 0.254988 255 0 255
0.1454441 -0.049192 0.2535647 255 0 255
0.05075714 -0.0310582 0.1708983 255 0 255
0.07510148 -0.04979552 0.2321912 255 0 255
0.08338851 -0.04719879 0.2263373 255 0 255
0.08847358 -0.04769051 0.2290053 255 0 255
0.09008984 -0.04775128 0.2295753 255 0 255
0.09631164 -0.04767489 0.2308775 255 0 255
0.09795347 -0.04771759 0.2314147 255 0 255
0.1006278 -0.04723121 0.2306538 255 0 255
0.103616 -0.04701385 0.2307792 255 0 255
0.1086103 -0.04707902 0.2322762 255 0 255
0.1451502 -0.05039333 0.2522047 255 0 255
0.1465441 -0.04756585 0.2444284 255 0 255
0.04906127 -0.02973985 0.1631117 255 0 255
0.06616797 -0.04910361 0.2238926 255 0 255
0.07296217 -0.0521041 0.2341807 255 0 255
0.08478524 -0.0482914 0.2255759 255 0 255
0.09150184 -0.04884826 0.2287845 255 0 255
0.09505619 -0.0492457 0.230801 255 0 255
0.1040218 -0.04863581 0.2312375 255 0 255
0.1073544 -0.04868833 0.2322382 255 0 255
0.1107093 -0.04872523 0.2332106 255 0 255
0.1134002 -0.04819002 0.2323603 255 0 255
0.1150894 -0.04819616 0.2328241 255 0 255
0.1177761 -0.04764458 0.2319428 255 0 255
0.1211776 -0.04763187 0.2328246 255 0 255
0.1260744 -0.04869443 0.2372319 255 0 255
0.1408454 -0.05143868 0.2492705 255 0 255
0.1454683 -0.05072169 0.2485447 255 0 255
0.047142 -0.02805784 0.1544137 255 0 255
0.0730369 -0.05343448 0.2337324 255 0 255
0.08063492 -0.04993781 0.2251839 255 0 255
0.08486251 -0.04959641 0.225136 255 0 255
0.0883484 -0.05003791 0.2272082 255 0 255
0.09129042 -0.04987891 0.2274277 255 0 255
0.09483872 -0.05028809 0.2294427 255 0 255
0.09617342 -0.05005165 0.2290765 255 0 255
0.1041062 -0.04997719 0.2307854 255 0 255
0.1121429 -0.04981293 0.2323315 255 0 255
0.1148307 -0.04927184 0.231472 255 0 255
0.1430695 -0.04801824 0.2356167 255 0 255
0.004195656 -0.03214705 0.1563071 255 0 255
0.005237981 -0.03208783 0.1562576 255 0 255
0.004446454 -0.01556257 0.1079332 255 0 255
0.06562722 -0.0507591 0.2202466 255 0 255
0.07175459 -0.05495698 0.2335633 255 0 255
0.08493899 -0.05089969 0.2246911 255 0 255
0.09032844 -0.05171902 0.2282379 255 0 255
0.1058544 -0.05135151 0.2308295 255 0 255
0.1132309 -0.05060977 0.2305478 255 0 255
0.1152648 -0.05090791 0.231904 255 0 255
0.1183075 -0.05063778 0.2319144 255 0 255
0.1245285 -0.05147263 0.2358783 255 0 255
0.1294839 -0.05255982 0.2402415 255 0 255
0.1312384 -0.0525352 0.2406371 255 0 255
0.1369194 -0.05271239 0.2426583 255 0 255
0.1408752 -0.05289814 0.2442557 255 0 255
0.1426669 -0.05284654 0.244603 255 0 255
0.1444633 -0.05279065 0.2449425 255 0 255
-0.001947414 -0.01902646 0.1145743 255 0 255
0.06931249 -0.05493363 0.2287707 255 0 255
0.08078451 -0.05253693 0.2242908 255 0 255
0.08396765 -0.0527187 0.2254807 255 0 255
0.09040633 -0.05303794 0.2277818 255 0 255
0.1056122 -0.05239957 0.2294666 255 0 255
0.1133163 -0.05195589 0.2300823 255 0 255
0.1153512 -0.05226096 0.2314361 255 0 255
0.1170476 -0.05227279 0.2318893 255 0 255
0.1204567 -0.05228434 0.2327742 255 0 255
0.1225312 -0.05256951 0.2340932 255 0 255
0.1242526 -0.05256435 0.2345162 255 0 255
0.1263486 -0.05283901 0.2358168 255 0 255
0.12883 -0.05339106 0.237991 255 0 255
0.1354644 -0.05300659 0.2386559 255 0 255
0.1397875 -0.05348708 0.2411363 255 0 255
0.1433554 -0.05339082 0.2418293 255 0 255
-0.001863052 -0.02715236 0.1350596 255 0 255
0.009628578 -0.06273596 0.2376072 255 0 255
0.01592426 -0.0497064 0.2012935 255 0 255
0.0160433 -0.04569956 0.1899179 255 0 255
0.01239161 -0.02295313 0.1248015 255 0 255
0.08006097 -0.05465693 0.2259775 255 0 255
0.08112384 -0.05414082 0.2247505 255 0 255
0.08244722 -0.05392988 0.2244336 255 0 255
0.09181652 -0.0541262 0.2269708 255 0 255
0.1023755 -0.05364702 0.2279912 255 0 255
0.1130568 -0.05300717 0.2287192 255 0 255
0.1218947 -0.05335881 0.2318419 255 0 255
0.1239753 -0.0536468 0.2331512 255 0 255
0.1351694 -0.05412006 0.2372895 255 0 255
0.1369308 -0.05408815 0.2376581 255 0 255
0.143853 -0.05508773 0.2422049 255 0 255
0.003410682 -0.05900991 0.2222884 255 0 255
0.007238375 -0.06619988 0.2429069 255 0 255
0.01172131 -0.06729706 0.2464847 255 0 255
0.01449119 -0.06679592 0.2453941 255 0 255
0.01691903 -0.0649602 0.2405242 255 0 255
0.02163192 -0.06160336 0.2316805 255 0 255
0.01751743 -0.0332244 0.1515222 255 0 255
0.06968508 -0.05786119 0.2287706 255 0 255
0.08013391 -0.05595961 0.2255156 255 0 255
0.08252061 -0.05522827 0.2239732 255 0 255
0.09515475 -0.05558528 0.2275991 255 0 255
0.09915821 -0.05486393 0.2264876 255 0 255
0.1067848 -0.05451067 0.2272273 255 0 255
0.1101235 -0.05458445 0.2281954 255 0 255
0.1144772 -0.0540737 0.2278153 255 0 255
0.1175008 -0.05381632 0.2278301 255 0 255
0.131371 -0.05526748 0.2351601 255 0 255
0.1374143 -0.05576899 0.238038 255 0 255
0.14435 -0.05678996 0.2425723 255 0 255
0.1479539 -0.05668535 0.2432246 255 0 255
-0.004087401 -0.02534745 0.1241111 255 0 255
-0.0002580229 -0.0509437 0.1955764 255 0 255
0.004337496 -0.06666809 0.2397061 255 0 255
0.006134567 -0.06929348 0.2471813 255 0 255
0.007724002 -0.07023027 0.2499487 255 0 255
0.009220779 -0.07049039 0.2508303 255 0 255
0.01066326 -0.0704113 0.2507668 255 0 255
0.02048191 -0.06877875 0.2473662 255 0 255
0.02333596 -0.06857637 0.2471552 255 0 255
0.07268059 -0.05910326 0.2286617 255 0 255
0.07779802 -0.05798853 0.2265741 255 0 255
0.08551448 -0.05640682 0.2237688 255 0 255
0.08740031 -0.05681115 0.2252523 255 0 255
0.0972882 -0.05581084 0.2245881 255 0 255
0.1005676 -0.05593653 0.2256344 255 0 255
0.1189197 -0.05487446 0.2269048 255 0 255
0.1230497 -0.05548804 0.2295307 255 0 255
0.1293388 -0.05636586 0.2333962 255 0 255
0.135351 -0.05690075 0.2362972 255 0 255
0.01222705 -0.07203854 0.2511399 255 0 255
0.02378271 -0.07128497 0.2504076 255 0 255
0.02512388 -0.07084129 0.2493574 255 0 255
0.02864645 -0.06815214 0.2424407 255 0 255
0.02826953 -0.05538951 0.20748 255 0 255
0.05717409 -0.04836229 0.1927604 255 0 255
0.08851841 -0.05757718 0.2235348 255 0 255
0.09042073 -0.05798044 0.2250015 255 0 255
0.09175118 -0.05775117 0.2246531 255 0 255
0.09337644 -0.05783249 0.2252024 255 0 255
0.1072744 -0.05747048 0.2271615 255 0 255
0.1176671 -0.05649234 0.2268631 255 0 255
0.119362 -0.05651196 0.2273023 255 0 255
0.1269423 -0.05714506 0.2307435 255 0 255
0.1290482 -0.05743954 0.2320208 255 0 255
0.1475564 -0.06045463 0.2444742 255 0 255
0.1489628 -0.06011423 0.2439251 255 0 255
0.007941166 -0.07364741 0.2508281 255 0 255
0.01379887 -0.07366798 0.2514994 255 0 255
0.01933922 -0.07227469 0.2483451 255 0 255
0.02364673 -0.07197336 0.2480343 255 0 255
0.02518263 -0.07220856 0.2488552 255 0 255
0.02926933 -0.07119382 0.2466161 255 0 255
0.03193398 -0.06642828 0.2340791 255 0 255
0.03266784 -0.06461442 0.2292758 255 0 255
0.07147221 -0.06191124 0.2279874 255 0 255
0.07742865 -0.0599459 0.2237995 255 0 255
0.08114488 -0.05900244 0.2219695 255 0 255
0.08246583 -0.05879086 0.2216539 255 0 255
0.08538129 -0.05868025 0.2219146 255 0 255
0.09315424 -0.05882448 0.2238198 255 0 255
0.1010368 -0.05888018 0.2255681 255 0 255
0.1026899 -0.05894308 0.2260775 255 0 255
0.1076833 -0.05910824 0.2275644 255 0 255
0.1086913 -0.05853574 0.2262656 255 0 255
0.1150711 -0.05838343 0.2272457 255 0 255
0.1333846 -0.0593896 0.2340384 255 0 255
0.1446281 -0.06104361 0.2410262 255 0 255
0.005051903 -0.07481308 0.2494857 255 0 255
0.009617982 -0.07598222 0.2530684 255 0 255
0.01107721 -0.07590234 0.253004 255 0 255
0.01667671 -0.07451635 0.249891 255 0 255
0.01948149 -0.07398211 0.2487734 255 0 255
0.02534212 -0.07391848 0.249281 255 0 255
0.02955431 -0.07323907 0.2479756 255 0 255
0.03567072 -0.06989012 0.2398132 255 0 255
0.06171536 -0.05732341 0.2102414 255 0 255
0.07312766 -0.063351 0.2281335 255 0 255
0.07423354 -0.06282482 0.2269343 255 0 255
0.07962892 -0.06017316 0.2208928 255 0 255
0.08385579 -0.05986357 0.2208545 255 0 255
0.0867729 -0.05975041 0.2211038 255 0 255
0.09915295 -0.05980825 0.2236674 255 0 255
0.1144992 -0.06061469 0.2289494 255 0 255
0.1271111 -0.05985941 0.2297385 255 0 255
0.1305754 -0.05986281 0.2305272 255 0 255
0.1327004 -0.06016083 0.2317822 255 0 255
0.1421222 -0.06189233 0.2384336 255 0 255
0.1719995 -0.06516069 0.2540599 255 0 255
0.01405001 -0.07711232 0.2523417 255 0 255
0.01809628 -0.07544067 0.2483545 255 0 255
0.02223189 -0.0744486 0.2461929 255 0 255
0.02385914 -0.07504309 0.2479488 255 0 255
0.02539996 -0.07528529 0.2487667 255 0 255
0.02983939 -0.07529704 0.2493245 255 0 255
0.03783194 -0.06923947 0.2343553 255 0 255
0.06688109 -0.06408012 0.2250821 255 0 255
0.07539842 -0.06359512 0.2252429 255 0 255
0.08101667 -0.06124613 0.2200998 255 0 255
0.08233453 -0.06103451 0.2197853 255 0 255
0.08392542 -0.06114838 0.2203702 255 0 255
0.08684336 -0.06103824 0.2206185 255 0 255
0.08816285 -0.06081547 0.2202836 255 0 255
0.09034938 -0.06156644 0.2226446 255 0 255
0.09330013 -0.06142867 0.222844 255 0 255
0.1005562 -0.06086852 0.2227966 255 0 255
0.1055136 -0.06106922 0.2243035 255 0 255
0.1105215 -0.0612344 0.2257481 255 0 255
0.1155792 -0.06136356 0.2271296 255 0 255
0.1205804 -0.05992351 0.2244815 255 0 255
0.1323997 -0.06122166 0.2303965 255 0 255
0.1345342 -0.06152138 0.2316402 255 0 255
0.1400287 -0.06301427 0.2366965 255 0 255
0.1435975 -0.06296272 0.2373768 255 0 255
0.1699515 -0.06393889 0.2461068 255 0 255
0.1732435 -0.06345361 0.2456901 255 0 255
0.005156775 -0.07753708 0.2484555 255 0 255
0.009843417 -0.07944572 0.2538929 255 0 255
0.01131121 -0.07936548 0.2538281 255 0 255
0.0127122 -0.07892802 0.2528255 255 0 255
0.02690034 -0.07654079 0.2481278 255 0 255
0.02989795 -0.0766653 0.2488035 255 0 255
0.03814788 -0.07487057 0.2451381 255 0 255
0.04071637 -0.07390501 0.2429536 255 0 255
0.07326225 -0.06596068 0.2271443 255 0 255
0.07737748 -0.06348133 0.221434 255 0 255
0.08691301 -0.06232411 0.220128 255 0 255
0.08823283 -0.06210101 0.2197933 255 0 255
0.09663671 -0.06290676 0.2234189 255 0 255
0.09766103 -0.06233897 0.2221566 255 0 255
0.1119374 -0.06228936 0.2248256 255 0 255
0.1170021 -0.06241828 0.2261857 255 0 255
0.1233236 -0.06067253 0.2230644 255 0 255
0.1257768 -0.06131621 0.2252207 255 0 255
0.1393221 -0.06379189 0.2344354 255 0 255
0.1414975 -0.0640796 0.2356446 255 0 255
0.1428776 -0.06374991 0.2351188 255 0 255
0.1655511 -0.05870214 0.2277214 255 0 255
0.008538371 -0.08162171 0.2552845 255 0 255
0.01804215 -0.07744661 0.2454522 255 0 255
0.01939034 -0.07699489 0.2444286 255 0 255
0.03429013 -0.07766984 0.2478576 255 0 255
0.03949615 -0.0757396 0.2435272 255 0 255
0.06544659 -0.06649847 0.2234406 255 0 255
0.07308766 -0.066922 0.2257331 255 0 255
0.07553207 -0.06618506 0.2242495 255 0 255
0.08538161 -0.0634943 0.2190623 255 0 255
0.09020036 -0.06382407 0.2207534 255 0 255
0.09742434 -0.06330925 0.2207626 255 0 255
0.1364566 -0.06425087 0.2309548 255 0 255
0.1386135 -0.06455293 0.2321744 255 0 255
0.1407825 -0.06484901 0.2333838 255 0 255
0.1421558 -0.06452046 0.232861 255 0 255
0.1530392 -0.05555034 0.2129937 255 0 255
0.158408 -0.05786849 0.2199903 255 0 255
0.01154456 -0.08284948 0.2546192 255 0 255
0.01442544 -0.0823183 0.2535438 255 0 255
0.01834347 -0.07987865 0.2477133 255 0 255
0.02546849 -0.07901365 0.2462643 255 0 255
0.02701414 -0.07926378 0.2470725 255 0 255
0.03710213 -0.07842191 0.2460965 255 0 255
0.07339387 -0.06856231 0.2261346 255 0 255
0.08412948 -0.06499098 0.2188874 255 0 255
0.08704989 -0.06488989 0.2191321 255 0 255
0.09291748 -0.06464996 0.2195544 255 0 255
0.1040768 -0.06493339 0.2222924 255 0 255
0.1057365 -0.06500608 0.222784 255 0 255
0.1318747 -0.06466525 0.2270904 255 0 255
0.1365393 -0.06561778 0.2304211 255 0 255
0.141836 -0.06558733 0.2314628 255 0 255
0.1427959 -0.06494445 0.2300787 255 0 255
0.1441576 -0.06461184 0.2295491 255 0 255
0.1406646 -0.04966648 0.1919891 255 0 255
0.1448805 -0.05021472 0.1942927 255 0 255
0.008478914 -0.08329367 0.2514124 255 0 255
0.01433779 -0.0829683 0.2511432 255 0 255
0.02542204 -0.08000517 0.244804 255 0 255
0.02829394 -0.07978489 0.2445616 255 0 255
0.02995653 -0.0803951 0.2462832 255 0 255
0.07210579 -0.0700561 0.2259039 255 0 255
0.08314603 -0.066827 0.2196019 255 0 255
0.08447117 -0.06661043 0.2192814 255 0 255
0.09654444 -0.06647444 0.2210038 255 0 255
0.09787436 -0.06623192 0.2206366 255 0 255
0.1294541 -0.06535736 0.224446 255 0 255
0.1362273 -0.06666355 0.22902 255 0 255
0.1379848 -0.06666159 0.2293749 255 0 255
0.140706 -0.06601175 0.228346 255 0 255
0.1430065 -0.06503675 0.2264425 255 0 255
0.1435252 -0.06407591 0.2242048 255 0 255
0.1104058 -0.0292418 0.1322396 255 0 255
0.003938473 -0.07185512 0.2184984 255 0 255
0.01700367 -0.08268618 0.2467261 255 0 255
0.01836854 -0.08222515 0.2457108 255 0 255
0.02537476 -0.0809872 0.2433413 255 0 255
0.0282395 -0.0807674 0.2430995 255 0 255
0.06585567 -0.07069477 0.2228321 255 0 255
0.06719844 -0.07051089 0.2225724 255 0 255
0.07058139 -0.0711932 0.2247571 255 0 255
0.07193194 -0.07100005 0.224481 255 0 255
0.07328121 -0.0708043 0.2242002 255 0 255
0.07438401 -0.07025506 0.2230108 255 0 255
0.08746647 -0.06779253 0.219011 255 0 255
0.1102182 -0.06716458 0.2214127 255 0 255
0.1215649 -0.06559613 0.2197052 255 0 255
0.13242 -0.06768308 0.2268839 255 0 255
0.1359138 -0.06769989 0.2276164 255 0 255
0.1453653 -0.06540645 0.2239857 255 0 255
0.1243944 -0.03675444 0.1505747 255 0 255
0.01151377 -0.08587607 0.2501895 255 0 255
0.01297896 -0.08579338 0.2501196 255 0 255
0.02121732 -0.08301073 0.2440489 255 0 255
0.0341433 -0.0820063 0.2429355 255 0 255
0.04415784 -0.08107191 0.2417908 255 0 255
0.04511458 -0.07983063 0.238855 255 0 255
0.05914715 -0.06551725 0.2055615 255 0 255
0.07310273 -0.07173909 0.222776 255 0 255
0.07420184 -0.07118651 0.221589 255 0 255
0.08168104 -0.06924613 0.2179936 255 0 255
0.0920916 -0.06908142 0.2192563 255 0 255
0.09832162 -0.06916087 0.2204845 255 0 255
0.1042902 -0.068842 0.2207308 255 0 255
0.1056232 -0.06858394 0.2203374 255 0 255
0.1072863 -0.06866302 0.2208194 255 0 255
0.1156848 -0.06899793 0.2231251 255 0 255
0.1189832 -0.0674817 0.2200702 255 0 255
0.1216393 -0.06690609 0.2191759 255 0 255
0.1275056 -0.06767166 0.222122 255 0 255
0.1342428 -0.06904377 0.2267083 255 0 255
0.1377476 -0.06905814 0.2274235 255 0 255
0.1414084 -0.06775592 0.2250246 255 0 255
0.1415208 -0.06645928 0.2219441 255 0 255
0.1420249 -0.06548645 0.2197183 255 0 255
0.1433506 -0.06515494 0.2191926 255 0 255
0.1438287 -0.06418236 0.2169659 255 0 255
0.01566021 -0.08548221 0.2457128 255 0 255
0.01702976 -0.08501638 0.2447052 255 0 255
0.02414753 -0.08415123 0.2432879 255 0 255
0.04293645 -0.08292714 0.2423377 255 0 255
0.04907774 -0.07998056 0.2359072 255 0 255
0.07070554 -0.07377208 0.2237096 255 0 255
0.07776498 -0.07114537 0.2183901 255 0 255
0.08306824 -0.07030311 0.2171596 255 0 255
0.09838946 -0.07045387 0.2199561 255 0 255
0.1120372 -0.06984609 0.2208129 255 0 255
0.1144127 -0.07059357 0.223015 255 0 255
0.1194174 -0.06912771 0.2204046 255 0 255
0.1234103 -0.06825664 0.2190531 255 0 255
0.1279604 -0.06932923 0.2224438 255 0 255
0.1296847 -0.06935693 0.22283 255 0 255
0.137826 -0.07041221 0.2268702 255 0 255
0.1410788 -0.06877834 0.2236212 255 0 255
0.0183598 -0.08551148 0.2422177 255 0 255
0.01988311 -0.08579545 0.2430454 255 0 255
0.02123188 -0.08531896 0.2420256 255 0 255
0.02553602 -0.08500951 0.2417001 255 0 255
0.04156 -0.08441162 0.2419563 255 0 255
0.04427297 -0.08375645 0.2406886 255 0 255
0.04538658 -0.08286595 0.2386764 255 0 255
0.04822431 -0.08257007 0.2382969 255 0 255
0.06263238 -0.07616758 0.2247345 255 0 255
0.06737307 -0.07671996 0.2266893 255 0 255
0.07432547 -0.07374505 0.2205379 255 0 255
0.07675058 -0.07298067 0.219059 255 0 255
0.08048186 -0.07199885 0.2172596 255 0 255
0.082859 -0.07121434 0.215742 255 0 255
0.09355147 -0.07141145 0.2178516 255 0 255
0.09814659 -0.07139356 0.2185391 255 0 255
0.1044278 -0.07143719 0.2196643 255 0 255
0.1084233 -0.07065291 0.2184711 255 0 255
0.1175256 -0.07169154 0.2224808 255 0 255
0.1217849 -0.06951958 0.2181019 255 0 255
0.1340058 -0.0714032 0.2247439 255 0 255
0.1411565 -0.07012135 0.2230663 255 0 255
0.1425967 -0.068472 0.2194746 255 0 255
0.01681538 -0.086174 0.2399081 255 0 255
0.02415426 -0.08645178 0.241256 255 0 255
0.03393013 -0.08489339 0.2385244 255 0 255
0.04417615 -0.08471841 0.2392162 255 0 255
0.05286345 -0.0810321 0.2314653 255 0 255
0.06993494 -0.07726942 0.2247147 255 0 255
0.07547668 -0.07445542 0.2188197 255 0 255
0.08080834 -0.07362883 0.2176237 255 0 255
0.08319341 -0.07283888 0.216106 255 0 255
0.08479232 -0.07298208 0.2166779 255 0 255
0.08639732 -0.07312147 0.2172434 255 0 255
0.1028385 -0.07263562 0.2186328 255 0 255
0.1071613 -0.07221045 0.218333 255 0 255
0.1084915 -0.07194606 0.2179307 255 0 255
0.1101597 -0.07202815 0.2183973 255 0 255
0.11149 -0.07175787 0.2179846 255 0 255
0.1199223 -0.07209037 0.220183 255 0 255
0.1208939 -0.07145721 0.2188713 255 0 255
0.1239277 -0.07121408 0.218829 255 0 255
0.1252587 -0.07091682 0.2183683 255 0 255
0.1393389 -0.07278818 0.2252384 255 0 255
0.1406961 -0.07246003 0.2247241 255 0 255
0.1444843 -0.06847017 0.2161747 255 0 255
0.01812829 -0.08663648 0.2374232 255 0 255
0.02718197 -0.08795591 0.2413781 255 0 255
0.03125536 -0.08684462 0.2391604 255 0 255
0.03398374 -0.08621987 0.2379647 255 0 255
0.03696208 -0.08635039 0.2385792 255 0 255
0.04565668 -0.08590696 0.2384708 255 0 255
0.04708045 -0.08575973 0.2382831 255 0 255
0.05117326 -0.08492301 0.2367811 255 0 255
0.06908622 -0.07949287 0.2262383 255 0 255
0.07199982 -0.07705975 0.2209269 255 0 255
0.07310443 -0.07649359 0.2197503 255 0 255
0.07794839 -0.07494939 0.216801 255 0 255
0.09043782 -0.0737126 0.2157028 255 0 255
0.09338113 -0.07360685 0.2158943 255 0 255
0.09960736 -0.07371432 0.2170892 255 0 255
0.104887 -0.07437937 0.2194539 255 0 255
0.1182948 -0.07333844 0.2192056 255 0 255
0.1196305 -0.0730518 0.218765 255 0 255
0.1213299 -0.07310982 0.2191834 255 0 255
0.1222959 -0.07247081 0.2178699 255 0 255
0.1236256 -0.07217646 0.2174154 255 0 255
0.1352657 -0.07208277 0.2192151 255 0 255
0.1403245 -0.06645313 0.2071955 255 0 255
0.02272673 -0.08883171 0.2393175 255 0 255
0.02425757 -0.08911771 0.2401252 255 0 255
0.02712703 -0.08890295 0.2398933 255 0 255
0.03830273 -0.08716186 0.236943 255 0 255
0.04271162 -0.08713952 0.2373527 255 0 255
0.05211508 -0.08494636 0.2332867 255 0 255
0.05436749 -0.08348247 0.2301439 255 0 255
0.05594627 -0.08369949 0.2308314 255 0 255
0.06171599 -0.08339587 0.2308119 255 0 255
0.0711797 -0.0792786 0.2224511 255 0 255
0.0734057 -0.07813893 0.2201026 255 0 255
0.07933697 -0.07600524 0.2159611 255 0 255
0.09020842 -0.0746154 0.2142772 255 0 255
0.09476782 -0.07463997 0.2149976 255 0 255
0.09639662 -0.07476216 0.2155192 255 0 255
0.1029699 -0.07521149 0.2175387 255 0 255
0.1086252 -0.07452586 0.216835 255 0 255
0.1102943 -0.07461429 0.2172988 255 0 255
0.1116251 -0.07434315 0.2168865 255 0 255
0.1217652 -0.07476737 0.2194874 255 0 255
0.122735 -0.07412352 0.2181745 255 0 255
0.1240686 -0.07382786 0.2177188 255 0 255
0.125777 -0.07387799 0.2181168 255 0 255
0.1271101 -0.07357638 0.2176506 255 0 255
0.141252 -0.07549184 0.2244294 255 0 255
0.02268179 -0.0897648 0.2378312 255 0 255
0.02574375 -0.09034123 0.2394385 255 0 255
0.02707132 -0.08984043 0.2384063 255 0 255
0.0286126 -0.09012084 0.2391967 255 0 255
0.03525113 -0.08796117 0.2348594 255 0 255
0.03821765 -0.08809417 0.2354623 255 0 255
0.03977676 -0.08835053 0.2362109 255 0 255
0.04560933 -0.08817853 0.2364217 255 0 255
0.04986788 -0.08772899 0.2358456 255 0 255
0.05720303 -0.08445469 0.2291416 255 0 255
0.06177327 -0.08470417 0.2302474 255 0 255
0.06498143 -0.08510792 0.231556 255 0 255
0.06616382 -0.08454297 0.2304025 255 0 255
0.06920329 -0.08208013 0.2251277 255 0 255
0.08231937 -0.07721522 0.2156906 255 0 255
0.08630119 -0.07655802 0.2147322 255 0 255
0.1013818 -0.07638651 0.2164907 255 0 255
0.1043668 -0.07623889 0.2165974 255 0 255
0.1086907 -0.07581242 0.2162795 255 0 255
0.1177139 -0.0752325 0.2163608 255 0 255
0.1214678 -0.07572107 0.2180622 255 0 255
0.1271797 -0.07488253 0.2170868 255 0 255
0.1277423 -0.07387725 0.2149078 255 0 255
0.1417316 -0.0771822 0.224695 255 0 255
0.1439136 -0.0775365 0.2258635 255 0 255
0.01785705 -0.08859548 0.2311532 255 0 255
0.02425938 -0.09137828 0.2380608 255 0 255
0.02579436 -0.09166841 0.23886 255 0 255
0.03658316 -0.0887533 0.2332263 255 0 255
0.04676051 -0.08857244 0.2338455 255 0 255
0.04975322 -0.0886612 0.2343639 255 0 255
0.05503336 -0.08724843 0.2317238 255 0 255
0.05624675 -0.08669572 0.230602 255 0 255
0.06717522 -0.08489782 0.2277793 255 0 255
0.07241297 -0.081262 0.2201708 255 0 255
0.0748679 -0.08048383 0.2187144 255 0 255
0.07864071 -0.07949045 0.2169455 255 0 255
0.08104789 -0.07869156 0.21545 255 0 255
0.09386661 -0.07778472 0.2151299 255 0 255
0.09713498 -0.07804323 0.21617 255 0 255
0.107091 -0.07699801 0.2152511 255 0 255
0.1114122 -0.07655697 0.2149022 255 0 255
0.1134336 -0.07700688 0.2162165 255 0 255
0.1201972 -0.07731473 0.2179398 255 0 255
0.1291329 -0.0748674 0.2138697 255 0 255
0.1304529 -0.0745587 0.2133926 255 0 255
0.1321662 -0.07459876 0.2137596 255 0 255
0.1350814 -0.07568582 0.2166613 255 0 255
0.1427576 -0.07784607 0.2227435 255 0 255
0.1450526 -0.07682439 0.2208498 255 0 255
0.1405381 -0.07028848 0.2055404 255 0 255
0.03393867 -0.09070776 0.2338566 255 0 255
0.04822623 -0.08973593 0.233076 255 0 255
0.06467111 -0.08695457 0.228612 255 0 255
0.06701205 -0.08580977 0.2263111 255 0 255
0.07135203 -0.08311552 0.2207772 255 0 255
0.07786823 -0.08172688 0.2184616 255 0 255
0.07869832 -0.08075482 0.2163879 255 0 255
0.0827059 -0.08011719 0.2154692 255 0 255
0.09586211 -0.07956138 0.215969 255 0 255
0.1018253 -0.07931404 0.2162416 255 0 255
0.1091558 -0.07874665 0.2160204 255 0 255
0.1121649 -0.07857065 0.216066 255 0 255
0.1151814 -0.07838118 0.2160884 255 0 255
0.1267368 -0.07850925 0.2181166 255 0 255
0.1273158 -0.07748801 0.2159439 255 0 255
0.1303654 -0.07723056 0.2158486 255 0 255
0.1376908 -0.07773358 0.2181196 255 0 255
0.1433594 -0.07814807 0.219948 255 0 255
0.02158424 -0.09462575 0.2380133 255 0 255
0.02700689 -0.09299842 0.2348423 255 0 255
0.03979117 -0.09190159 0.2335643 255 0 255
0.04262394 -0.09162752 0.2332266 255 0 255
0.05635586 -0.08930241 0.2294468 255 0 255
0.06194091 -0.08861539 0.2285231 255 0 255
0.06333439 -0.08843684 0.2282801 255 0 255
0.06568559 -0.08728881 0.2259908 255 0 255
0.0700498 -0.08458364 0.2204805 255 0 255
0.07767073 -0.08261055 0.217009 255 0 255
0.08970318 -0.08064281 0.2141626 255 0 255
0.09103265 -0.08041122 0.2138233 255 0 255
0.09787124 -0.08134405 0.2167884 255 0 255
0.1005499 -0.08084551 0.2160486 255 0 255
0.1018867 -0.08059236 0.2156718 255 0 255
0.1042291 -0.07970472 0.2140356 255 0 255
0.1055569 -0.07944449 0.2136459 255 0 255
0.1105522 -0.07975987 0.2150414 255 0 255
0.1135619 -0.07958062 0.2150755 255 0 255
0.1179104 -0.07910313 0.2146538 255 0 255
0.1317639 -0.0782202 0.2147879 255 0 255
0.1364168 -0.07937548 0.2180337 255 0 255
0.1421884 -0.07841608 0.2168391 255 0 255
0.1435258 -0.07808028 0.2163177 255 0 255
0.1406751 -0.07283425 0.204412 255 0 255
0.02211049 -0.09177267 0.2282332 255 0 255
0.02390766 -0.0933001 0.2317594 255 0 255
0.03144347 -0.09437237 0.2347776 255 0 255
0.03558642 -0.09360104 0.2334453 255 0 255
0.04125922 -0.09307453 0.2328089 255 0 255
0.04534701 -0.09224879 0.2313785 255 0 255
0.05098061 -0.09164666 0.2306075 255 0 255
0.05622007 -0.09020387 0.2279641 255 0 255
0.06318048 -0.08933976 0.226801 255 0 255
0.06828023 -0.08781175 0.2240013 255 0 255
0.07368992 -0.0844841 0.2173047 255 0 255
0.07772673 -0.08387432 0.2164399 255 0 255
0.08442708 -0.08280565 0.2149055 255 0 255
0.08899973 -0.08290237 0.2156853 255 0 255
0.09434545 -0.08196416 0.2143114 255 0 255
0.09598158 -0.08210439 0.2148295 255 0 255
0.104616 -0.08135346 0.2143297 255 0 255
0.1089432 -0.0809364 0.2140077 255 0 255
0.1183334 -0.08075898 0.2149313 255 0 255
0.1257358 -0.08002228 0.2143953 255 0 255
0.1400965 -0.07935002 0.2150855 255 0 255
0.025576 -0.09531249 0.2328704 255 0 255
0.0286395 -0.09591349 0.2344419 255 0 255
0.03149267 -0.09568276 0.2341817 255 0 255
0.03732606 -0.0955955 0.2345055 255 0 255
0.05226107 -0.09238752 0.2289129 255 0 255
0.05487724 -0.09166264 0.2275935 255 0 255
0.06302553 -0.09023314 0.2253201 255 0 255
0.07374452 -0.08574638 0.2167303 255 0 255
0.08503085 -0.0848458 0.2160904 255 0 255
0.08637438 -0.08462269 0.2157679 255 0 255
0.09306923 -0.08346783 0.214086 255 0 255
0.1009847 -0.08377877 0.2157622 255 0 255
0.115723 -0.08261612 0.2152074 255 0 255
0.1200929 -0.08212975 0.2147615 255 0 255
0.1240928 -0.08124451 0.2134163 255 0 255
0.1340172 -0.08123095 0.2148127 255 0 255
0.1384214 -0.08062522 0.2141608 255 0 255
0.03023058 -0.0975205 0.2346165 255 0 255
0.04419249 -0.0954043 0.2312682 255 0 255
0.04826833 -0.09455491 0.229813 255 0 255
0.05231262 -0.09368318 0.2283174 255 0 255
0.07180722 -0.08859932 0.2193614 255 0 255
0.07758153 -0.0859983 0.2144049 255 0 255
0.08428162 -0.08711993 0.2175832 255 0 255
0.08536051 -0.08650427 0.2163862 255 0 255
0.08643039 -0.08588723 0.2151864 255 0 255
0.08777258 -0.08566119 0.2148594 255 0 255
0.09179019 -0.08496729 0.2138507 255 0 255
0.09476097 -0.08488066 0.214026 255 0 255
0.1023845 -0.08479907 0.2147983 255 0 255
0.1083994 -0.08451812 0.2149652 255 0 255
0.118098 -0.08295313 0.2129015 255 0 255
0.1197916 -0.08304093 0.2133172 255 0 255
0.1214905 -0.08312449 0.2137259 255 0 255
0.1241554 -0.08253073 0.2128249 255 0 255
0.1323522 -0.0824801 0.2138596 255 0 255
0.143311 -0.08165896 0.2136914 255 0 255
0.03313919 -0.0985925 0.233738 255 0 255
0.03456844 -0.09846967 0.2335953 255 0 255
0.03756024 -0.09863053 0.2341949 255 0 255
0.0389912 -0.09849893 0.234037 255 0 255
0.04707189 -0.09641391 0.2302972 255 0 255
0.05618643 -0.09366942 0.2252904 255 0 255
0.06035635 -0.09315887 0.2246095 255 0 255
0.06799239 -0.09085025 0.2204592 255 0 255
0.07026535 -0.08965966 0.2181586 255 0 255
0.07162438 -0.0894651 0.2178878 255 0 255
0.07789008 -0.08765181 0.2147028 255 0 255
0.08110102 -0.08802857 0.2158608 255 0 255
0.08433672 -0.08838991 0.2169932 255 0 255
0.0894543 -0.08708937 0.2148148 255 0 255
0.09451703 -0.08575186 0.2125695 255 0 255
0.1051199 -0.08555301 0.2134387 255 0 255
0.106456 -0.08528973 0.2130475 255 0 255
0.11647 -0.08413675 0.2118861 255 0 255
0.1198525 -0.08432265 0.2127217 255 0 255
0.1303014 -0.08334228 0.2120553 255 0 255
0.1316299 -0.08302886 0.211577 255 0 255
0.1333527 -0.08308532 0.2119331 255 0 255
0.1420418 -0.08330188 0.2136039 255 0 255
0.04175279 -0.09911972 0.2321953 255 0 255
0.04712157 -0.09771247 0.2296879 255 0 255
0.05118517 -0.09683938 0.2282083 255 0 255
0.05241375 -0.09626728 0.227111 255 0 255
0.0536336 -0.09569336 0.2260101 255 0 255
0.05642691 -0.09536537 0.225579 255 0 255
0.05762822 -0.09478505 0.2244661 255 0 255
0.07008507 -0.09051568 0.2166824 255 0 255
0.0830363 -0.08987751 0.2167127 255 0 255
0.09353451 -0.08764644 0.2131974 255 0 255
0.09457254 -0.08700977 0.211979 255 0 255
0.112186 -0.08586536 0.2116967 255 0 255
0.1148458 -0.08530764 0.2108617 255 0 255
0.1263644 -0.0855549 0.2128578 255 0 255
0.1328707 -0.08544558 0.2134896 255 0 255
0.1380879 -0.08560297 0.21452 255 0 255
0.1394295 -0.08527328 0.2140154 255 0 255
0.1367068 -0.07404138 0.190264 255 0 255
0.02512475 -0.08713965 0.2023505 255 0 255
0.03466402 -0.1010804 0.2323644 255 0 255
0.03908831 -0.1011163 0.2328029 255 0 255
0.04180131 -0.1004234 0.2315774 255 0 255
0.04982662 -0.09828686 0.2277955 255 0 255
0.05246333 -0.09755573 0.2265003 255 0 255
0.05368323 -0.09697809 0.2254011 255 0 255
0.05489439 -0.0963986 0.2242983 255 0 255
0.05767831 -0.09606569 0.223859 255 0 255
0.06302384 -0.09495322 0.2220371 255 0 255
0.06787076 -0.09297756 0.2183783 255 0 255
0.08173335 -0.09136064 0.2164224 255 0 255
0.08335635 -0.09154855 0.216987 255 0 255
0.08471496 -0.09132765 0.2166717 255 0 255
0.08793622 -0.08943992 0.2130857 255 0 255
0.09626508 -0.08842155 0.2118943 255 0 255
0.09893449 -0.08792668 0.21117 255 0 255
0.1008982 -0.08846912 0.2125245 255 0 255
0.1025557 -0.08860986 0.2130095 255 0 255
0.1055608 -0.08848438 0.2131006 255 0 255
0.1125891 -0.08752496 0.2119481 255 0 255
0.1139238 -0.0872462 0.211532 255 0 255
0.1189973 -0.08755773 0.2128011 255 0 255
0.1203353 -0.08726605 0.2123629 255 0 255
0.1233766 -0.08706024 0.2123173 255 0 255
0.1312028 -0.08667555 0.2125194 255 0 255
0.1456802 -0.08597472 0.2129858 255 0 255
0.1440386 -0.08302299 0.2066818 255 0 255
0.04580416 -0.1004498 0.2286399 255 0 255
0.04880003 -0.1005744 0.2291545 255 0 255
0.05652629 -0.09793174 0.2243563 255 0 255
0.06210178 -0.09724142 0.2234372 255 0 255
0.06905828 -0.09363472 0.2166311 255 0 255
0.07018663 -0.09302784 0.2154853 255 0 255
0.07400612 -0.09202296 0.2137844 255 0 255
0.08152249 -0.09221441 0.2149438 255 0 255
0.08933058 -0.09046481 0.2121536 255 0 255
0.09898894 -0.08918233 0.2105685 255 0 255
0.1026109 -0.08987538 0.2124034 255 0 255
0.1056165 -0.08975263 0.2124931 255 0 255
0.1217296 -0.08824936 0.2113081 255 0 255
0.1378074 -0.08782554 0.2124479 255 0 255
0.1444762 -0.08614939 0.2098874 255 0 255
0.1415457 -0.08204799 0.2011303 255 0 255
0.03096684 -0.09563175 0.2142664 255 0 255
0.03424476 -0.101962 0.227538 255 0 255
0.04601106 -0.1021679 0.2289056 255 0 255
0.05133178 -0.1007084 0.2263557 255 0 255
0.05916719 -0.09844879 0.2224031 255 0 255
0.06682454 -0.09610745 0.2183018 255 0 255
0.06797071 -0.09550004 0.2171642 255 0 255
0.07540446 -0.09306874 0.2128977 255 0 255
0.0767514 -0.0928636 0.2126102 255 0 255
0.07809699 -0.09265582 0.2123181 255 0 255
0.08454888 -0.093446 0.2145836 255 0 255
0.09264851 -0.09206461 0.2126012 255 0 255
0.09770825 -0.0906851 0.2103263 255 0 255
0.09904248 -0.09043561 0.2099622 255 0 255
0.1059986 -0.09142025 0.2127359 255 0 255
0.1127016 -0.09006201 0.2107268 255 0 255
0.1204505 -0.08981979 0.2111336 255 0 255
0.1313216 -0.08925059 0.21128 255 0 255
0.1413651 -0.08922262 0.212466 255 0 255
0.1427063 -0.08888505 0.2119515 255 0 255
0.1440451 -0.08854478 0.2114322 255 0 255
0.03662916 -0.1061508 0.2330073 255 0 255
0.03820576 -0.1064536 0.2337449 255 0 255
0.0487284 -0.1027315 0.2270098 255 0 255
0.05137931 -0.1019932 0.2257281 255 0 255
0.05242927 -0.1009781 0.2237522 255 0 255
0.06060522 -0.0995481 0.2215498 255 0 255
0.06593578 -0.09840174 0.2196973 255 0 255
0.07164136 -0.09533517 0.2139991 255 0 255
0.07275575 -0.09471701 0.2128499 255 0 255
0.07814677 -0.09390084 0.2117097 255 0 255
0.08324456 -0.09492517 0.2142828 255 0 255
0.08459992 -0.09470402 0.2139689 255 0 255
0.08595376 -0.09448015 0.2136502 255 0 255
0.09806944 -0.09234519 0.2105737 255 0 255
0.1114194 -0.09160425 0.2105196 255 0 255
0.1131025 -0.0917284 0.2109568 255 0 255
0.1140917 -0.09104684 0.2096933 255 0 255
0.1279344 -0.09037487 0.2099263 255 0 255
0.1317694 -0.09092611 0.211486 255 0 255
0.1335033 -0.09099846 0.2118371 255 0 255
0.04860768 -0.1035844 0.2254897 255 0 255
0.05018869 -0.103864 0.2261801 255 0 255
0.0592629 -0.1009926 0.2211542 255 0 255
0.06065292 -0.1008186 0.2209229 255 0 255
0.0620418 -0.1006418 0.2206869 255 0 255
0.07168972 -0.09658255 0.2133835 255 0 255
0.07439847 -0.09618355 0.2128306 255 0 255
0.0784517 -0.09556491 0.2119665 255 0 255
0.08141056 -0.09555931 0.2122356 255 0 255
0.08600415 -0.09573542 0.2130308 255 0 255
0.09005727 -0.09504686 0.2120474 255 0 255
0.09275165 -0.09457439 0.2113687 255 0 255
0.09543969 -0.09409127 0.2106714 255 0 255
0.1118156 -0.09327287 0.2107438 255 0 255
0.1182396 -0.09335067 0.2115972 255 0 255
0.1195839 -0.09305907 0.2111634 255 0 255
0.1335605 -0.09228627 0.2112017 255 0 255
0.1424091 -0.09108865 0.2098565 255 0 255
0.1378522 -0.08084872 0.1889778 255 0 255
0.04233751 -0.1123097 0.2392212 255 0 255
0.04519755 -0.1074965 0.2298341 255 0 255
0.0466296 -0.1073497 0.2296515 255 0 255
0.04756999 -0.1058889 0.2268106 255 0 255
0.04898861 -0.1057376 0.2266198 255 0 255
0.05040623 -0.1055835 0.2264241 255 0 255
0.05410447 -0.1037996 0.2231627 255 0 255
0.05550655 -0.1036356 0.2229494 255 0 255
0.06948169 -0.09907407 0.2150446 255 0 255
0.07333327 -0.09805638 0.2133605 255 0 255
0.07875612 -0.09723354 0.2122149 255 0 255
