ply
format ascii 1.0
Comment Generated by Floating Hands
element vertex 1133
Comment Left: (0.0, 0.0, 0.0)
Comment Right: (0.1, -0.1, 0.2)
property double x
property double y
property double z
property uchar red
property uchar green
property uchar blue
end_header
0.1245853 -0.02539576 0.2828882 255 0 255
0.1272154 -0.02461707 0.2809903 255 0 255
0.1370683 -0.02545696 0.2890359 255 0 255
0.1483668 -0.02566997 0.2954059 255 0 255
0.1506672 -0.02463036 0.2924444 255 0 255
0.1525775 -0.0244687 0.2927678 255 0 255
0.06834716 -0.03064418 0.2748167 255 0 255
0.07397224 -0.02964559 0.2727013 255 0 255
0.07542782 -0.02944336 0.2723977 255 0 255
0.07880913 -0.02945374 0.2736714 255 0 255
0.08074983 -0.02966423 0.2752452 255 0 255
0.08915982 -0.0308754 0.2833416 255 0 255
0.09540635 -0.03014341 0.2828178 255 0 255
0.09727861 -0.02883769 0.2782981 255 0 255
0.1160489 -0.02885827 0.2862499 255 0 255
0.1178726 -0.02877712 0.2867221 255 0 255
0.1250469 -0.02714511 0.2834392 255 0 255
0.1261985 -0.02665679 0.2820317 255 0 255
0.1469659 -0.02763031 0.2955859 255 0 255
0.1496594 -0.02677094 0.2935411 255 0 255
0.150805 -0.02624621 0.29206 255 0 255
0.1527164 -0.02608765 0.2923826 255 0 255
0.06969511 -0.0317159 0.2732226 255 0 255
0.07384566 -0.03090676 0.2713938 255 0 255
0.07698272 -0.03071578 0.2717313 255 0 255
0.09830054 -0.02969169 0.2756709 255 0 255
0.1176745 -0.03013907 0.2854173 255 0 255
0.1230079 -0.02859729 0.2817011 255 0 255
0.1278098 -0.0279125 0.281164 255 0 255
0.1296432 -0.02780874 0.2815837 255 0 255
0.144383 -0.03011047 0.2972191 255 0 255
0.1509418 -0.02786034 0.2916692 255 0 255
0.1543793 -0.02735864 0.2914037 255 0 255
0.1562972 -0.02719542 0.2917103 255 0 255
0.06979219 -0.03319306 0.2728589 255 0 255
0.07516704 -0.0319569 0.2697806 255 0 255
0.08610693 -0.03264309 0.2763467 255 0 255
0.0953553 -0.03299025 0.2811317 255 0 255
0.09629603 -0.03232207 0.2788774 255 0 255
0.09930504 -0.0305279 0.2730404 255 0 255
0.1068825 -0.02947103 0.2719483 255 0 255
0.1181139 -0.03190256 0.2859583 255 0 255
0.1213086 -0.03023155 0.2808719 255 0 255
0.1272433 -0.02906234 0.2789481 255 0 255
0.1374584 -0.0302212 0.2878821 255 0 255
0.14574 -0.03009814 0.2911659 255 0 255
0.1510773 -0.02947278 0.2912721 255 0 255
0.0805333 -0.05889519 0.3704854 255 0 255
0.06716963 -0.03527877 0.2740006 255 0 255
0.06988852 -0.03466865 0.2724894 255 0 255
0.07526509 -0.03342371 0.2694132 255 0 255
0.08373898 -0.03348042 0.2725404 255 0 255
0.08545186 -0.03348074 0.273145 255 0 255
0.09612919 -0.03362117 0.277561 255 0 255
0.09823637 -0.03248522 0.2739884 255 0 255
0.09970047 -0.03223888 0.273599 255 0 255
0.1037846 -0.03127118 0.2714687 255 0 255
0.105238 -0.03101518 0.2710592 255 0 255
0.1317314 -0.0308136 0.281222 255 0 255
0.1424464 -0.03216404 0.2909601 255 0 255
0.1432319 -0.03143795 0.2885974 255 0 255
0.1451235 -0.0313068 0.288952 255 0 255
0.1561762 -0.03023647 0.2900093 255 0 255
0.07849713 -0.03470302 0.2693653 255 0 255
0.08018896 -0.03471841 0.2699907 255 0 255
0.08139551 -0.03427923 0.2687237 255 0 255
0.09568535 -0.03469021 0.275305 255 0 255
0.1050466 -0.03229139 0.2697503 255 0 255
0.1109497 -0.0325806 0.2731208 255 0 255
0.1411063 -0.03295076 0.2869222 255 0 255
0.1426193 -0.03262507 0.2863792 255 0 255
0.1520931 -0.03195024 0.2880798 255 0 255
0.06691004 -0.03959765 0.278266 255 0 255
0.07355388 -0.03609132 0.2670712 255 0 255
0.07643916 -0.03568547 0.2664658 255 0 255
0.08319177 -0.03575809 0.2689565 255 0 255
0.08464161 -0.03553891 0.2686218 255 0 255
0.0921585 -0.03758288 0.2788352 255 0 255
0.09391549 -0.03757212 0.2794052 255 0 255
0.09458955 -0.03665678 0.2762259 255 0 255
0.1089795 -0.03391495 0.2713094 255 0 255
0.1141069 -0.03490295 0.2769128 255 0 255
0.1236235 -0.03363507 0.2759935 255 0 255
0.1571681 -0.0327018 0.2867958 255 0 255
0.06786834 -0.04018565 0.2747512 255 0 255
0.099448 -0.036275 0.270575 255 0 255
0.1108596 -0.03536654 0.2714119 255 0 255
0.1135861 -0.03598198 0.2746677 255 0 255
0.1219291 -0.03523436 0.2751493 255 0 255
0.1263399 -0.03435603 0.2737144 255 0 255
0.1285057 -0.03448773 0.2750491 255 0 255
0.1314459 -0.0338809 0.2740503 255 0 255
0.138021 -0.03538178 0.2820986 255 0 255
0.1500641 -0.03507679 0.2860244 255 0 255
0.1519664 -0.03494032 0.2863478 255 0 255
0.06880154 -0.04074893 0.2712359 255 0 255
0.07759386 -0.03790873 0.2635017 255 0 255
0.07878383 -0.0374625 0.2622472 255 0 255
0.09024432 -0.03873377 0.2705504 255 0 255
0.1033216 -0.03654811 0.267132 255 0 255
0.1130631 -0.03704419 0.2724207 255 0 255
0.1179379 -0.03783544 0.2770482 255 0 255
0.1217086 -0.03653404 0.2738269 255 0 255
0.1231779 -0.03624408 0.2733552 255 0 255
0.141116 -0.03748232 0.2847685 255 0 255
0.1509262 -0.03590194 0.2832325 255 0 255
0.156789 -0.03332908 0.2767358 255 0 255
0.06825561 -0.04148031 0.268 255 0 255
0.07744899 -0.03910988 0.2621695 255 0 255
0.081733 -0.03847653 0.2612152 255 0 255
0.0875743 -0.03925065 0.2658263 255 0 255
0.09848209 -0.03972617 0.2710911 255 0 255
0.1048717 -0.03776695 0.2663254 255 0 255
0.1149595 -0.0385008 0.2724908 255 0 255
0.1218224 -0.03804975 0.2734151 255 0 255
0.1229526 -0.03753471 0.2720301 255 0 255
0.1240734 -0.0370185 0.2706423 255 0 255
0.134957 -0.03772247 0.2772516 255 0 255
0.1442398 -0.03960108 0.2874086 255 0 255
0.1484206 -0.03837812 0.2848386 255 0 255
0.1581416 -0.03551839 0.278978 255 0 255
0.1588065 -0.03474313 0.2766013 255 0 255
0.0675178 -0.0438746 0.2707101 255 0 255
0.07037197 -0.04155346 0.2632608 255 0 255
0.08350792 -0.0399399 0.2614266 255 0 255
0.08519404 -0.03996307 0.2620275 255 0 255
0.08964727 -0.04096444 0.2669416 255 0 255
0.09858511 -0.04121247 0.270681 255 0 255
0.09976061 -0.04072645 0.2693657 255 0 255
0.1099301 -0.03892117 0.2665114 255 0 255
0.122386 -0.03858767 0.2697888 255 0 255
0.1314412 -0.03822782 0.2719021 255 0 255
0.1439914 -0.04096697 0.2860695 255 0 255
0.1466505 -0.0400784 0.2840649 255 0 255
0.1545843 -0.03857917 0.2821025 255 0 255
0.1578617 -0.03687497 0.2776575 255 0 255
0.06800984 -0.04388185 0.2653049 255 0 255
0.07024118 -0.04273872 0.2619162 255 0 255
0.07145014 -0.04229133 0.2606883 255 0 255
0.0769158 -0.04123509 0.258556 255 0 255
0.08141992 -0.0408526 0.2585455 255 0 255
0.09227435 -0.04317543 0.2699008 255 0 255
0.0984026 -0.04245472 0.2693377 255 0 255
0.1118 -0.04036627 0.2665872 255 0 255
0.1169715 -0.04146449 0.2721238 255 0 255
0.1202413 -0.04113117 0.272126 255 0 255
0.1239552 -0.03979617 0.2688954 255 0 255
0.1290251 -0.03936312 0.2692578 255 0 255
0.1377748 -0.04116591 0.2785854 255 0 255
0.1448824 -0.04176623 0.2832786 255 0 255
0.1494096 -0.04075404 0.2816034 255 0 255
0.15501 -0.03914763 0.2784043 255 0 255
0.0691121 -0.04462038 0.2627325 255 0 255
0.07867014 -0.04270264 0.2587777 255 0 255
0.08151266 -0.04227823 0.2581401 255 0 255
0.0834417 -0.042564 0.2596815 255 0 255
0.08681545 -0.04262141 0.260874 255 0 255
0.09529922 -0.04417522 0.2687462 255 0 255
0.09793371 -0.04344165 0.2670641 255 0 255
0.1016966 -0.04220445 0.2640477 255 0 255
0.1042728 -0.04145198 0.2623248 255 0 255
0.1185502 -0.04268626 0.2712429 255 0 255
0.1200183 -0.042401 0.2707847 255 0 255
0.1229482 -0.04182262 0.2698524 255 0 255
0.1255223 -0.04099928 0.2679912 255 0 255
0.1309537 -0.04079492 0.269238 255 0 255
0.133861 -0.04141259 0.2723468 255 0 255
0.1378926 -0.04271329 0.2781453 255 0 255
0.1412337 -0.04354083 0.2821199 255 0 255
0.1434894 -0.04367066 0.2833788 255 0 255
0.1465158 -0.04300285 0.2822789 255 0 255
0.1476416 -0.04243816 0.2808255 255 0 255
0.1540392 -0.04128559 0.2794334 255 0 255
0.07041845 -0.04560054 0.2610967 255 0 255
0.07425269 -0.04448759 0.2583468 255 0 255
0.07543922 -0.04402707 0.2571098 255 0 255
0.08664709 -0.04380594 0.259528 255 0 255
0.09256536 -0.04463116 0.2640494 255 0 255
0.09862047 -0.04391637 0.2634823 255 0 255
0.1023382 -0.04266972 0.2604639 255 0 255
0.1045781 -0.04166617 0.2578201 255 0 255
0.1083557 -0.04188071 0.2597498 255 0 255
0.115884 -0.04350144 0.267607 255 0 255
0.1288948 -0.04213282 0.2674921 255 0 255
0.1339754 -0.04293253 0.2719081 255 0 255
0.1372772 -0.04379017 0.275898 255 0 255
0.1402432 -0.04440381 0.2789706 255 0 255
0.1439933 -0.04421212 0.2796883 255 0 255
0.1473784 -0.04377287 0.2794798 255 0 255
0.1496544 -0.04389225 0.2807045 255 0 255
0.06928737 -0.04748689 0.2618995 255 0 255
0.07245844 -0.04558373 0.2563512 255 0 255
0.0800263 -0.04507887 0.2567005 255 0 255
0.09183888 -0.04531885 0.2608422 255 0 255
0.09957464 -0.0446195 0.2608245 255 0 255
0.1081421 -0.04308194 0.2584091 255 0 255
0.1146847 -0.04400225 0.2635211 255 0 255
0.1224848 -0.04433529 0.267164 255 0 255
0.1253937 -0.04374729 0.266216 255 0 255
0.1366595 -0.04485026 0.2736491 255 0 255
0.141486 -0.04539087 0.2770845 255 0 255
0.1433571 -0.04529761 0.2774411 255 0 255
0.1568726 -0.04347856 0.2764632 255 0 255
0.07419591 -0.0470602 0.2565742 255 0 255
0.07514229 -0.04632707 0.2544056 255 0 255
0.08995665 -0.04647359 0.2589171 255 0 255
0.09680132 -0.04655877 0.2611585 255 0 255
0.1262494 -0.04444756 0.2634852 255 0 255
0.1434736 -0.0468451 0.2769811 255 0 255
0.1453503 -0.04675071 0.2773287 255 0 255
0.1544056 -0.04597867 0.278059 255 0 255
0.06924162 -0.05007501 0.2601066 255 0 255
0.0704569 -0.04960941 0.2588888 255 0 255
0.07166331 -0.04914232 0.2576674 255 0 255
0.07428268 -0.04847288 0.2561485 255 0 255
0.08061476 -0.04663078 0.2518117 255 0 255
0.08755063 -0.04707883 0.2551284 255 0 255
0.09120315 -0.04741005 0.2572054 255 0 255
0.09318311 -0.04770027 0.2586941 255 0 255
0.1006078 -0.04674188 0.2577313 255 0 255
0.1077105 -0.04545665 0.2557175 255 0 255
0.1167718 -0.04562113 0.2590258 255 0 255
0.1260039 -0.04567754 0.2621371 255 0 255
0.1277992 -0.045626 0.262555 255 0 255
0.1428335 -0.04790438 0.2747283 255 0 255
0.1461937 -0.04747912 0.2745282 255 0 255
0.09442313 -0.04862936 0.256968 255 0 255
0.09898357 -0.0481631 0.256761 255 0 255
0.101827 -0.0476624 0.2559832 255 0 255
0.1035509 -0.0476698 0.2565024 255 0 255
0.1081244 -0.04714922 0.2561918 255 0 255
0.1127035 -0.04660133 0.255829 255 0 255
0.1144515 -0.04658374 0.2563018 255 0 255
0.1158704 -0.04630613 0.2558603 255 0 255
0.1275493 -0.04685073 0.2612037 255 0 255
0.1527457 -0.04920703 0.2768055 255 0 255
0.07540031 -0.05053639 0.2531189 255 0 255
0.07633013 -0.04977946 0.2509556 255 0 255
0.07863804 -0.04881389 0.2484816 255 0 255
0.09253172 -0.04975544 0.2550471 255 0 255
0.1061752 -0.04831986 0.2543354 255 0 255
0.1096414 -0.0483178 0.2553279 255 0 255
0.1191454 -0.04744062 0.2554193 255 0 255
0.1449316 -0.05089149 0.2741302 255 0 255
0.1468081 -0.05080369 0.2744696 255 0 255
0.1486893 -0.05071151 0.274801 255 0 255
0.1569448 -0.04945271 0.2736954 255 0 255
0.06891386 -0.05566517 0.2627993 255 0 255
0.0694939 -0.05433945 0.2587849 255 0 255
0.07500925 -0.05137579 0.2508188 255 0 255
0.0850812 -0.05016598 0.2495336 255 0 255
0.08701612 -0.05049385 0.2510436 255 0 255
0.09037545 -0.05058613 0.2521949 255 0 255
0.1080017 -0.04975014 0.2543858 255 0 255
0.1097382 -0.04975043 0.2548774 255 0 255
0.1108326 -0.04921541 0.2535456 255 0 255
0.1491925 -0.05250501 0.2752022 255 0 255
0.1506897 -0.05215973 0.2746387 255 0 255
0.1551668 -0.05110725 0.2729156 255 0 255
0.1562467 -0.05050328 0.2714514 255 0 255
0.06891959 -0.05489792 0.255535 255 0 255
0.07391954 -0.05325275 0.2516012 255 0 255
0.08656713 -0.05133441 0.2487537 255 0 255
0.0913151 -0.05120363 0.2495534 255 0 255
0.1049483 -0.05143077 0.2538393 255 0 255
0.1077801 -0.05090686 0.2530216 255 0 255
0.1109287 -0.05064202 0.2530907 255 0 255
0.1190023 -0.05005505 0.2536061 255 0 255
0.1343797 -0.05189934 0.2636956 255 0 255
0.1373204 -0.05262116 0.2667503 255 0 255
0.1406631 -0.0535927 0.2706796 255 0 255
0.1432819 -0.05403749 0.2728131 255 0 255
0.1485259 -0.05353718 0.2729408 255 0 255
0.06498688 -0.05300582 0.2441678 255 0 255
0.0699828 -0.05552888 0.2529413 255 0 255
0.07235852 -0.05455711 0.2505136 255 0 255
0.09140294 -0.05259969 0.2491023 255 0 255
0.1124373 -0.05179462 0.2522029 255 0 255
0.1152586 -0.05124256 0.251333 255 0 255
0.1170054 -0.05123288 0.2517917 255 0 255
0.1226279 -0.05144735 0.2540208 255 0 255
0.145265 -0.05549172 0.2726639 255 0 255
0.1533732 -0.05290737 0.267537 255 0 255
0.05351359 -0.04038897 0.1992595 255 0 255
0.07642117 -0.05504475 0.2482475 255 0 255
0.07922268 -0.05462716 0.2476332 255 0 255
0.08036773 -0.05412556 0.2463956 255 0 255
0.09400398 -0.05323666 0.2470102 255 0 255
0.1010837 -0.05366579 0.2500676 255 0 255
0.104824 -0.05399475 0.2520054 255 0 255
0.1097021 -0.05375958 0.2525865 255 0 255
0.1125318 -0.05321698 0.2517371 255 0 255
0.115354 -0.05266401 0.2508674 255 0 255
0.1199191 -0.05208758 0.250423 255 0 255
0.1284202 -0.05307166 0.2557002 255 0 255
0.1338511 -0.05433287 0.2609493 255 0 255
0.1397507 -0.05582755 0.2670299 255 0 255
0.02947741 -0.008811071 0.09665784 255 0 255
0.04976397 -0.03618956 0.1821201 255 0 255
0.07110851 -0.0575275 0.2498855 255 0 255
0.07275062 -0.05762561 0.2505269 255 0 255
0.07416414 -0.05742443 0.2502357 255 0 255
0.07557636 -0.05722068 0.2499395 255 0 255
0.07815039 -0.05651152 0.2484085 255 0 255
0.08323609 -0.05506917 0.2452971 255 0 255
0.0960684 -0.05495731 0.2480083 255 0 255
0.1011732 -0.05507071 0.2496014 255 0 255
0.1094737 -0.0548997 0.2512106 255 0 255
0.1171965 -0.05408035 0.2508529 255 0 255
0.120015 -0.0535094 0.2499511 255 0 255
0.1245965 -0.05430119 0.2534989 255 0 255
0.1303119 -0.05448738 0.255621 255 0 255
0.135029 -0.05521962 0.259065 255 0 255
0.1387275 -0.05652046 0.2638721 255 0 255
0.1480748 -0.05759944 0.2696738 255 0 255
0.1495594 -0.05725502 0.2691164 255 0 255
0.1521201 -0.05629374 0.2671087 255 0 255
0.02972831 -0.00987923 0.0973307 255 0 255
0.05916867 -0.04862094 0.2168195 255 0 255
0.08027728 -0.05657925 0.2445566 255 0 255
0.08470956 -0.05622233 0.2445071 255 0 255
0.08663756 -0.05658762 0.2460081 255 0 255
0.1035887 -0.05708231 0.2514602 255 0 255
0.1078329 -0.05629737 0.2502462 255 0 255
0.1127181 -0.05605594 0.2507887 255 0 255
0.1152057 -0.05521911 0.2490211 255 0 255
0.1180142 -0.05465537 0.2481344 255 0 255
0.1296802 -0.055386 0.2533554 255 0 255
0.1347574 -0.05641318 0.257685 255 0 255
0.1414325 -0.05850163 0.2654988 255 0 255
0.14592 -0.05891978 0.267952 255 0 255
0.1474003 -0.05857914 0.2674029 255 0 255
0.04755075 -0.03503717 0.1711632 255 0 255
0.07337198 -0.06100497 0.2514378 255 0 255
0.07831166 -0.05927406 0.247474 255 0 255
0.08479137 -0.05759364 0.2440402 255 0 255
0.09006469 -0.05810258 0.2466821 255 0 255
0.09314864 -0.05792846 0.246886 255 0 255
0.09426162 -0.0573945 0.2456123 255 0 255
0.09793813 -0.05778979 0.2476019 255 0 255
0.09964102 -0.05783422 0.2481307 255 0 255
0.1013496 -0.05787472 0.2486524 255 0 255
0.1061954 -0.05768253 0.2492713 255 0 255
0.1240798 -0.05660994 0.2507438 255 0 255
0.1344844 -0.0575973 0.2563017 255 0 255
0.1407754 -0.05944661 0.2632234 255 0 255
0.1456376 -0.06015646 0.2665572 255 0 255
0.07368219 -0.06270291 0.2518812 255 0 255
0.07605456 -0.06168072 0.2494467 255 0 255
0.0772273 -0.06116734 0.2482243 255 0 255
0.07839107 -0.06065246 0.2469986 255 0 255
0.08487231 -0.058963 0.2435678 255 0 255
0.09154864 -0.05925201 0.2458534 255 0 255
0.09323259 -0.05931469 0.2464077 255 0 255
0.09802374 -0.05918226 0.2471215 255 0 255
0.09972721 -0.05923004 0.2476492 255 0 255
0.1059694 -0.05879408 0.2478838 255 0 255
0.1129005 -0.05888715 0.2498181 255 0 255
0.114647 -0.0589003 0.2502836 255 0 255
0.1241742 -0.05803596 0.2502518 255 0 255
0.1457413 -0.06166217 0.2660378 255 0 255
0.1472188 -0.06132116 0.2654905 255 0 255
-0.0008078964 -0.0176827 0.1075363 255 0 255
0.07589339 -0.06275529 0.248043 255 0 255
0.07797557 -0.06141137 0.2446809 255 0 255
0.08190761 -0.06046357 0.2428252 255 0 255
0.09135017 -0.06032953 0.2444605 255 0 255
0.09303097 -0.06039619 0.2450147 255 0 255
0.1077818 -0.06022625 0.247888 255 0 255
0.1095124 -0.06025479 0.248374 255 0 255
0.1109228 -0.05998402 0.2479548 255 0 255
0.1253233 -0.05887254 0.2483953 255 0 255
0.1274572 -0.05914741 0.2496929 255 0 255
0.1292374 -0.05912956 0.2500954 255 0 255
0.1394546 -0.06128625 0.2586703 255 0 255
0.152143 -0.06206164 0.2641645 255 0 255
0.005147781 -0.05232276 0.2032946 255 0 255
0.007002272 -0.05556866 0.2126544 255 0 255
0.01045366 -0.05368379 0.2077563 255 0 255
0.01116358 -0.05128913 0.2010998 255 0 255
0.009481004 -0.0312502 0.1444727 255 0 255
0.04098231 -0.02978859 0.1452811 255 0 255
0.06529757 -0.0621575 0.2400216 255 0 255
0.07360521 -0.06517114 0.2499828 255 0 255
0.07455654 -0.06433921 0.2478512 255 0 255
0.07573099 -0.06382047 0.2466366 255 0 255
0.07689653 -0.0633002 0.2454187 255 0 255
0.08363897 -0.0619177 0.242935 255 0 255
0.09143163 -0.06170481 0.243974 255 0 255
0.09254298 -0.06116189 0.2427104 255 0 255
0.09590832 -0.0612928 0.2437996 255 0 255
0.101 -0.06145984 0.2453815 255 0 255
0.1024012 -0.06120516 0.2449926 255 0 255
0.1072316 -0.0610263 0.2455942 255 0 255
0.1110107 -0.06138766 0.2474581 255 0 255
0.119435 -0.05970536 0.2448387 255 0 255
0.1211839 -0.05970964 0.2452734 255 0 255
0.1232936 -0.06000284 0.2465885 255 0 255
0.1314873 -0.06082829 0.2508668 255 0 255
0.1395529 -0.06275588 0.2581503 255 0 255
0.1485038 -0.06369589 0.2630088 255 0 255
0.1507716 -0.06391567 0.264197 255 0 255
0.1518436 -0.06328187 0.2627622 255 0 255
0.003834898 -0.06102077 0.223662 255 0 255
0.01090302 -0.06977362 0.2488164 255 0 255
0.01225905 -0.06935279 0.2478042 255 0 255
0.01494647 -0.06850459 0.2457662 255 0 255
0.01120331 -0.02185892 0.115636 255 0 255
0.04208045 -0.0323562 0.1495546 255 0 255
0.07083046 -0.06695573 0.2500565 255 0 255
0.07248507 -0.06707605 0.250694 255 0 255
0.07344911 -0.06623748 0.2485679 255 0 255
0.07463275 -0.06571627 0.2473581 255 0 255
0.07952872 -0.06393196 0.2434004 255 0 255
0.08092628 -0.06371777 0.2430873 255 0 255
0.08371707 -0.06328159 0.2424465 255 0 255
0.08983617 -0.0630009 0.2429235 255 0 255
0.09569753 -0.06235982 0.2424018 255 0 255
0.09738583 -0.06242339 0.2429359 255 0 255
0.1107715 -0.06248667 0.2460604 255 0 255
0.1195241 -0.06110424 0.2443374 255 0 255
0.1212737 -0.06111169 0.2447711 255 0 255
0.1258665 -0.06200202 0.2482715 255 0 255
0.1341241 -0.06282552 0.2524975 255 0 255
0.139269 -0.06393228 0.2567472 255 0 255
0.1414858 -0.06418391 0.2579765 255 0 255
0.1433264 -0.06414004 0.2583205 255 0 255
0.003590505 -0.06981917 0.2439176 255 0 255
0.0107173 -0.07765293 0.2662295 255 0 255
0.01954542 -0.07640972 0.2638497 255 0 255
0.02478277 -0.06880413 0.2436331 255 0 255
0.06384361 -0.06469824 0.2383931 255 0 255
0.07256033 -0.06846276 0.2501913 255 0 255
0.08545457 -0.06473809 0.2425352 255 0 255
0.1084812 -0.06323287 0.2432859 255 0 255
0.1175226 -0.06218367 0.2425025 255 0 255
0.1234737 -0.06281863 0.2455734 255 0 255
0.1342178 -0.0642664 0.251975 255 0 255
0.1415825 -0.06565237 0.2574439 255 0 255
0.1481773 -0.06488146 0.2570294 255 0 255
0.1522951 -0.06505232 0.2585165 255 0 255
0.01267661 -0.0810434 0.2712603 255 0 255
0.02012258 -0.079873 0.2689474 255 0 255
0.0242734 -0.07818604 0.2648798 255 0 255
0.02894258 -0.06946089 0.2418316 255 0 255
0.0712042 -0.07004707 0.2499661 255 0 255
0.07454626 -0.06813912 0.2454401 255 0 255
0.08804805 -0.06532767 0.240456 255 0 255
0.09249698 -0.06494611 0.2403188 255 0 255
0.09924294 -0.06523459 0.242459 255 0 255
0.1048189 -0.06421132 0.2409035 255 0 255
0.112018 -0.06469278 0.2437281 255 0 255
0.1190018 -0.06328477 0.2415468 255 0 255
0.1364973 -0.06598391 0.2526944 255 0 255
0.1394596 -0.06685358 0.2556813 255 0 255
0.144974 -0.06674285 0.2567105 255 0 255
0.152394 -0.06653327 0.2579729 255 0 255
0.01433256 -0.08274081 0.2715834 255 0 255
0.01883396 -0.08210208 0.2703831 255 0 255
0.02330748 -0.08143915 0.2691365 255 0 255
0.02443393 -0.07995116 0.2652866 255 0 255
0.02941521 -0.07639531 0.2563882 255 0 255
0.06984525 -0.07162716 0.2497303 255 0 255
0.07105231 -0.07109939 0.248536 255 0 255
0.07225049 -0.07057 0.2473382 255 0 255
0.07343969 -0.07003902 0.2461369 255 0 255
0.07695355 -0.06843677 0.2425128 255 0 255
0.07950316 -0.06768775 0.2409911 255 0 255
0.08064234 -0.06714715 0.2397691 255 0 255
0.0848068 -0.06648968 0.2388066 255 0 255
0.08785023 -0.06636151 0.2390463 255 0 255
0.09118468 -0.06654222 0.2401665 255 0 255
0.09257498 -0.06630559 0.2398136 255 0 255
0.09593741 -0.06646432 0.240895 255 0 255
0.101807 -0.06578288 0.2402844 255 0 255
0.1062903 -0.06531966 0.239993 255 0 255
0.1149021 -0.06552426 0.2423551 255 0 255
0.1318557 -0.06654587 0.2487805 255 0 255
0.1387895 -0.06770679 0.2533929 255 0 255
0.1442839 -0.06761026 0.2544267 255 0 255
0.1580552 -0.07060903 0.2654819 255 0 255
0.1707015 -0.06413125 0.2519591 255 0 255
0.1712802 -0.06193083 0.2464712 255 0 255
0.0008155641 -0.07289661 0.2397099 255 0 255
0.005259996 -0.08504587 0.2723634 255 0 255
0.006947839 -0.08602025 0.2751174 255 0 255
0.01004005 -0.08585456 0.2749979 255 0 255
0.01897802 -0.08389212 0.2707759 255 0 255
0.02469221 -0.08206936 0.2666176 255 0 255
0.025998 -0.08126046 0.2646341 255 0 255
0.03470942 -0.08411068 0.2732666 255 0 255
0.07013918 -0.07334295 0.250127 255 0 255
0.07232306 -0.07194314 0.246822 255 0 255
0.07957686 -0.06904081 0.2404824 255 0 255
0.08210609 -0.06827938 0.238946 255 0 255
0.0960156 -0.06782836 0.2403821 255 0 255
0.103589 -0.06721199 0.240275 255 0 255
0.1230231 -0.0664041 0.242248 255 0 255
0.1247818 -0.06641667 0.2426634 255 0 255
0.1269096 -0.06673481 0.2439499 255 0 255
0.1294175 -0.0673561 0.2461037 255 0 255
0.1425408 -0.06910091 0.2535431 255 0 255
0.1499175 -0.06894026 0.2548388 255 0 255
0.1525883 -0.06948852 0.2568684 255 0 255
0.1760627 -0.07034241 0.2647314 255 0 255
0.1750357 -0.0656826 0.2526599 255 0 255
0.003566062 -0.08479276 0.2671909 255 0 255
0.01170864 -0.08757853 0.27531 255 0 255
0.01766835 -0.0861412 0.2721867 255 0 255
0.02766754 -0.08291552 0.2649012 255 0 255
0.03067621 -0.08267402 0.2646371 255 0 255
0.07119645 -0.07385149 0.2474953 255 0 255
0.0844207 -0.06852071 0.2359781 255 0 255
0.08938733 -0.06883095 0.2376838 255 0 255
0.09609289 -0.06919038 0.2398638 255 0 255
0.110209 -0.06848274 0.2408082 255 0 255
0.1122672 -0.06884964 0.2421648 255 0 255
0.119256 -0.06743475 0.2399861 255 0 255
0.121001 -0.06745962 0.2404162 255 0 255
0.1566079 -0.0724209 0.2608993 255 0 255
0.165964 -0.07778707 0.2766296 255 0 255
0.1703599 -0.06805677 0.2531618 255 0 255
0.008722845 -0.08956703 0.2758125 255 0 255
0.01183149 -0.08939477 0.2756814 255 0 255
0.01331829 -0.08894698 0.2746761 255 0 255
0.01619237 -0.08768729 0.2717194 255 0 255
0.02772981 -0.08433734 0.2643546 255 0 255
0.03423229 -0.08525591 0.2675159 255 0 255
0.06840699 -0.07561661 0.2475156 255 0 255
0.07223633 -0.07434213 0.2448621 255 0 255
0.07483632 -0.07359596 0.2433766 255 0 255
0.07692585 -0.07216372 0.2400576 255 0 255
0.07921679 -0.0710654 0.2376355 255 0 255
0.08779961 -0.07007475 0.2366048 255 0 255
0.09280373 -0.07037178 0.2382664 255 0 255
0.1034342 -0.06961717 0.2383373 255 0 255
0.1051395 -0.06968328 0.2388334 255 0 255
0.1068505 -0.0697453 0.2393222 255 0 255
0.1175985 -0.06878163 0.2390188 255 0 255
0.1207309 -0.06852248 0.2390047 255 0 255
0.1242305 -0.06856753 0.239843 255 0 255
0.1486531 -0.07221558 0.2542719 255 0 255
0.1546468 -0.07238321 0.256032 255 0 255
0.004245795 -0.09234978 0.2781946 255 0 255
0.008836939 -0.09138868 0.2761758 255 0 255
0.01786833 -0.08939467 0.2719979 255 0 255
0.02068902 -0.0881097 0.2690162 255 0 255
0.02487732 -0.08634606 0.2649739 255 0 255
0.03924865 -0.0873526 0.2692612 255 0 255
0.04300895 -0.08884191 0.2735381 255 0 255
0.07111149 -0.0762499 0.2455223 255 0 255
0.08180313 -0.07163303 0.2355858 255 0 255
0.09120376 -0.07162458 0.2371942 255 0 255
0.09397774 -0.0711472 0.2364865 255 0 255
0.09704317 -0.07099318 0.2366537 255 0 255
0.1058506 -0.07170682 0.2400807 255 0 255
0.112097 -0.07128274 0.2402107 255 0 255
0.1208129 -0.06989896 0.2384684 255 0 255
0.1243136 -0.06995031 0.2393043 255 0 255
0.1260718 -0.06996966 0.2397113 255 0 255
0.1299757 -0.07031468 0.2413746 255 0 255
0.005823703 -0.09337647 0.2766407 255 0 255
0.01792828 -0.09084155 0.2714289 255 0 255
0.0193863 -0.09037644 0.2704063 255 0 255
0.0235211 -0.08824116 0.2654558 255 0 255
0.02924814 -0.08669317 0.2621897 255 0 255
0.03086344 -0.08693246 0.2629808 255 0 255
0.03562611 -0.08726888 0.2643941 255 0 255
0.03713606 -0.08713445 0.2642377 255 0 255
0.06775677 -0.07960088 0.2494438 255 0 255
0.07682113 -0.0745103 0.2380973 255 0 255
0.0779675 -0.07395457 0.2368918 255 0 255
0.07910491 -0.07339734 0.2356831 255 0 255
0.0835201 -0.07308991 0.2356433 255 0 255
0.0893285 -0.072524 0.2352149 255 0 255
0.09573078 -0.07258743 0.2364893 255 0 255
0.102506 -0.07292834 0.238552 255 0 255
0.105928 -0.07307471 0.2395417 255 0 255
0.1083997 -0.07220694 0.2378464 255 0 255
0.1097912 -0.07193614 0.2374353 255 0 255
0.1115126 -0.07199382 0.2379027 255 0 255
0.1129041 -0.07171702 0.2374807 255 0 255
0.1226421 -0.07130421 0.2383472 255 0 255
0.1275498 -0.07104813 0.2386927 255 0 255
0.1387481 -0.07299537 0.2457695 255 0 255
0.1409509 -0.07330209 0.2469801 255 0 255
0.1449954 -0.07358034 0.2485088 255 0 255
0.1587846 -0.07683855 0.2594315 255 0 255
0.1178678 -0.03659578 0.1521917 255 0 255
0.1247579 -0.0402572 0.1626568 255 0 255
0.1408239 -0.04993658 0.1898379 255 0 255
0.1529984 -0.05683836 0.2093845 255 0 255
0.1621087 -0.06158881 0.2230076 255 0 255
0.01051279 -0.09422452 0.2749576 255 0 255
0.01207193 -0.09413684 0.2748891 255 0 255
0.01363068 -0.09404612 0.274815 255 0 255
0.02348624 -0.08929723 0.2639642 255 0 255
0.03568868 -0.088691 0.2638279 255 0 255
0.04339462 -0.08458487 0.2545288 255 0 255
0.04164779 -0.07684774 0.2350306 255 0 255
0.07175372 -0.07736909 0.2405319 255 0 255
0.07292847 -0.07681669 0.2393427 255 0 255
0.07433216 -0.07661368 0.2390559 255 0 255
0.07664452 -0.07550002 0.2366594 255 0 255
0.08220407 -0.07464468 0.2354307 255 0 255
0.08635846 -0.07397555 0.2344583 255 0 255
0.09273762 -0.07407594 0.2357771 255 0 255
0.09580418 -0.07393367 0.2359527 255 0 255
0.1039767 -0.07402764 0.2376199 255 0 255
0.1060043 -0.07444041 0.2389972 255 0 255
0.1244766 -0.07270931 0.2382108 255 0 255
0.135876 -0.07344636 0.2422561 255 0 255
0.1384469 -0.07409048 0.2443405 255 0 255
0.1436471 -0.07535544 0.2484708 255 0 255
0.1068096 -0.02821278 0.1266126 255 0 255
0.009010754 -0.09576602 0.2744347 255 0 255
0.01057061 -0.09568132 0.2743715 255 0 255
0.01524784 -0.09540939 0.2741494 255 0 255
0.03562455 -0.08974312 0.2623349 255 0 255
0.04000464 -0.08896517 0.2609311 255 0 255
0.07205141 -0.07907049 0.2408953 255 0 255
0.08253399 -0.07632834 0.2357928 255 0 255
0.08531326 -0.07588304 0.2351479 255 0 255
0.08697285 -0.07600567 0.2357147 255 0 255
0.1078003 -0.07587745 0.2389292 255 0 255
0.1119989 -0.0750581 0.2376903 255 0 255
0.1200101 -0.07464328 0.2381518 255 0 255
0.1217613 -0.07468311 0.2385745 255 0 255
0.1437333 -0.07678813 0.2478932 255 0 255
0.1498728 -0.0757282 0.2465832 255 0 255
0.1581372 -0.07917487 0.2565362 255 0 255
0.08173175 -0.01347581 0.08345775 255 0 255
0.08157411 -0.01265152 0.08146004 255 0 255
0.00740318 -0.09654916 0.2720509 255 0 255
0.0105082 -0.09638366 0.2719303 255 0 255
0.01834341 -0.09629289 0.2724587 255 0 255
0.0210139 -0.09421362 0.2676465 255 0 255
0.02369921 -0.09250186 0.2637409 255 0 255
0.02491853 -0.09126981 0.2608595 255 0 255
0.02652545 -0.09152944 0.2616629 255 0 255
0.03243235 -0.09067315 0.260214 255 0 255
0.03992867 -0.09000487 0.2594382 255 0 255
0.04646013 -0.08705542 0.2530347 255 0 255
0.04841323 -0.08800501 0.2555884 255 0 255
0.06651291 -0.08392064 0.2480439 255 0 255
0.06830888 -0.08172926 0.2429793 255 0 255
0.06951071 -0.08117393 0.2418036 255 0 255
0.07702544 -0.07852237 0.2364801 255 0 255
0.08399314 -0.07744073 0.234929 255 0 255
0.08843234 -0.07711221 0.2348344 255 0 255
0.09316771 -0.07710645 0.2355819 255 0 255
0.09624334 -0.07696865 0.2357531 255 0 255
0.1010255 -0.07691058 0.2364092 255 0 255
0.1061543 -0.07716524 0.2378924 255 0 255
0.1075541 -0.07689775 0.2374904 255 0 255
0.1127989 -0.07545987 0.2349562 255 0 255
0.1249973 -0.0757954 0.2379653 255 0 255
0.1356581 -0.07591698 0.2402581 255 0 255
0.1489149 -0.07486131 0.2403367 255 0 255
0.02242293 -0.09478155 0.26511 255 0 255
0.03076077 -0.09145081 0.2579362 255 0 255
0.03835764 -0.09117405 0.258108 255 0 255
0.04106104 -0.09014599 0.2559392 255 0 255
0.04417944 -0.09022773 0.2565006 255 0 255
0.04535893 -0.08933292 0.2544847 255 0 255
0.08545058 -0.07854767 0.2340554 255 0 255
0.0885013 -0.07844639 0.2342843 255 0 255
0.09462932 -0.07820439 0.2346727 255 0 255
0.09939902 -0.07816379 0.2353458 255 0 255
0.1062279 -0.07852431 0.237332 255 0 255
0.1100939 -0.07736624 0.2352336 255 0 255
0.1180707 -0.07699163 0.2357273 255 0 255
0.1219171 -0.07743075 0.2374479 255 0 255
0.1314109 -0.07660884 0.2372252 255 0 255
0.1353553 -0.07697616 0.2388228 255 0 255
0.1484081 -0.0772747 0.2420054 255 0 255
0.1502373 -0.07725168 0.2423062 255 0 255
0.01534944 -0.09938301 0.2714354 255 0 255
0.02684858 -0.09510446 0.2623358 255 0 255
0.02954638 -0.09372703 0.2593258 255 0 255
0.03093421 -0.09322517 0.2582735 255 0 255
0.03392986 -0.09297255 0.2579899 255 0 255
0.03529997 -0.09246336 0.2569235 255 0 255
0.03977398 -0.0920554 0.256445 255 0 255
0.04950751 -0.09303819 0.2599123 255 0 255
0.05900574 -0.08683933 0.2463326 255 0 255
0.06722807 -0.08499439 0.2430278 255 0 255
0.07201827 -0.08273882 0.2383308 255 0 255
0.07459833 -0.08196676 0.2368616 255 0 255
0.07855469 -0.08097457 0.2350756 255 0 255
0.08108672 -0.08018081 0.2335648 255 0 255
0.08247558 -0.07996183 0.2332508 255 0 255
0.09134578 -0.07930867 0.2330442 255 0 255
0.09747738 -0.07904869 0.2333875 255 0 255
0.1129475 -0.07816431 0.2338348 255 0 255
0.1244282 -0.07785752 0.2350925 255 0 255
0.135435 -0.07836406 0.2382442 255 0 255
0.1470722 -0.07903593 0.2419603 255 0 255
0.01533406 -0.1004403 0.2699084 255 0 255
0.02406351 -0.0975109 0.2638121 255 0 255
0.02548917 -0.09701426 0.2627794 255 0 255
0.03510526 -0.09309123 0.2545066 255 0 255
0.04252046 -0.09240013 0.2536876 255 0 255
0.04430129 -0.09301335 0.2553339 255 0 255
0.04727529 -0.09270969 0.2549581 255 0 255
0.05206834 -0.09298878 0.2561762 255 0 255
0.05363014 -0.08963819 0.2484743 255 0 255
0.06215836 -0.08821596 0.246186 255 0 255
0.06649582 -0.08765589 0.2454285 255 0 255
0.07325783 -0.08350381 0.2365862 255 0 255
0.0760667 -0.0830924 0.2360087 255 0 255
0.07836973 -0.08193548 0.23362 255 0 255
0.09447586 -0.08051728 0.232666 255 0 255
0.1029446 -0.08105072 0.2352215 255 0 255
0.1040271 -0.08043234 0.2339521 255 0 255
0.1241414 -0.07887441 0.2336525 255 0 255
0.13119 -0.07901947 0.2352104 255 0 255
0.1384697 -0.08078757 0.2405825 255 0 255
0.1406695 -0.08113576 0.2417794 255 0 255
0.1473533 -0.07470381 0.2281891 255 0 255
0.02286986 -0.1002018 0.2660698 255 0 255
0.02421617 -0.09931495 0.2641262 255 0 255
0.02847997 -0.09780611 0.2610176 255 0 255
0.03529016 -0.0948597 0.2548318 255 0 255
0.04003144 -0.09522177 0.2561798 255 0 255
0.04272624 -0.09416627 0.2540108 255 0 255
0.05179072 -0.09362148 0.2537645 255 0 255
0.05422341 -0.09214684 0.2506149 255 0 255
0.05825017 -0.09087214 0.2481295 255 0 255
0.05912994 -0.08955877 0.2451806 255 0 255
0.06532251 -0.08958368 0.2460087 255 0 255
0.06698336 -0.08976991 0.2466523 255 0 255
0.06800283 -0.08882456 0.2445862 255 0 255
0.06944525 -0.08862932 0.2443187 255 0 255
0.07043922 -0.08768155 0.2422469 255 0 255
0.0709616 -0.08598442 0.238375 255 0 255
0.07704033 -0.08346947 0.2333558 255 0 255
0.07818364 -0.0828869 0.2321623 255 0 255
0.09563457 -0.08123803 0.2308559 255 0 255
0.09900223 -0.08146463 0.2318863 255 0 255
0.1010017 -0.08193335 0.2332716 255 0 255
0.1037826 -0.08141418 0.2325019 255 0 255
0.1051703 -0.08115062 0.2321099 255 0 255
0.1124186 -0.08014832 0.2309487 255 0 255
0.11621 -0.08064759 0.2327081 255 0 255
0.1301346 -0.07934836 0.2320507 255 0 255
0.1439818 -0.07472224 0.2239299 255 0 255
0.01993286 -0.1022302 0.266578 255 0 255
0.02165187 -0.1029107 0.2683089 255 0 255
0.02301832 -0.1020182 0.2663723 255 0 255
0.030053 -0.09909152 0.2602826 255 0 255
0.03272512 -0.09767135 0.2572676 255 0 255
0.03398103 -0.09676348 0.2552976 255 0 255
0.03845993 -0.09636336 0.2548348 255 0 255
0.04606295 -0.09602574 0.2548693 255 0 255
0.04904403 -0.09571505 0.2544824 255 0 255
0.0544618 -0.09390622 0.2509288 255 0 255
0.05850065 -0.09262241 0.248445 255 0 255
0.06434394 -0.09189604 0.2474781 255 0 255
0.06580184 -0.09170744 0.2472237 255 0 255
0.0670463 -0.09113595 0.246064 255 0 255
0.06828181 -0.09056269 0.2449007 255 0 255
0.07147948 -0.08807655 0.2395944 255 0 255
0.07244014 -0.08712009 0.2375217 255 0 255
0.08319464 -0.08467211 0.2333419 255 0 255
0.08765082 -0.08436365 0.2332542 255 0 255
0.09097737 -0.08255102 0.2295784 255 0 255
0.09235641 -0.08231246 0.2292311 255 0 255
0.1052394 -0.08248618 0.2315345 255 0 255
0.1076842 -0.08158867 0.2298625 255 0 255
0.1253116 -0.08093023 0.2311662 255 0 255
0.1378492 -0.08288305 0.23768 255 0 255
0.1483242 -0.08256806 0.2387718 255 0 255
0.1480839 -0.08084792 0.23485 255 0 255
0.01876595 -0.1053437 0.269711 255 0 255
0.02471265 -0.1037286 0.2665551 255 0 255
0.02902422 -0.1021943 0.2634522 255 0 255
0.0303329 -0.1012837 0.2614965 255 0 255
0.03702505 -0.0978846 0.2543917 255 0 255
0.03987028 -0.09721704 0.2531582 255 0 255
0.05322114 -0.09583798 0.2514497 255 0 255
0.05469979 -0.09567042 0.2512343 255 0 255
0.05709754 -0.09416565 0.2480784 255 0 255
0.06834406 -0.09192254 0.2443088 255 0 255
0.07344621 -0.08748922 0.2348698 255 0 255
0.07667218 -0.08535052 0.2304293 255 0 255
0.07805875 -0.08513955 0.2301319 255 0 255
0.08518627 -0.08652382 0.2342207 255 0 255
0.09050453 -0.08522227 0.2320006 255 0 255
0.09132707 -0.08423878 0.229889 255 0 255
0.09271013 -0.08399922 0.2295409 255 0 255
0.1032896 -0.08334942 0.2295952 255 0 255
0.1160076 -0.08297787 0.2306759 255 0 255
0.1208661 -0.08282368 0.231086 255 0 255
0.1236357 -0.08222562 0.2301799 255 0 255
0.1271376 -0.08232851 0.2309706 255 0 255
0.1345883 -0.08283481 0.2333166 255 0 255
0.1405117 -0.08498855 0.2391183 255 0 255
0.1453437 -0.08605669 0.2423148 255 0 255
0.02194026 -0.1065728 0.2688822 255 0 255
0.02796362 -0.105323 0.266601 255 0 255
0.03191302 -0.1025677 0.2607413 255 0 255
0.04587125 -0.09801117 0.2518441 255 0 255
0.04883787 -0.09770155 0.2514593 255 0 255
0.05048602 -0.09793527 0.2521637 255 0 255
0.05180069 -0.09738044 0.2510541 255 0 255
0.05587383 -0.09609512 0.2486034 255 0 255
0.05862143 -0.09535705 0.2472484 255 0 255
0.05950438 -0.09401014 0.2443132 255 0 255
0.06260504 -0.0940378 0.244733 255 0 255
0.06674461 -0.09308638 0.2430773 255 0 255
0.07350744 -0.08881307 0.2342873 255 0 255
0.08972977 -0.08753702 0.2335251 255 0 255
0.09306329 -0.08569086 0.2298423 255 0 255
0.09444872 -0.08544762 0.2294886 255 0 255
0.09721465 -0.08495311 0.2287666 255 0 255
0.1036712 -0.08504444 0.229886 255 0 255
0.1153875 -0.08358679 0.2283569 255 0 255
0.1219632 -0.08350822 0.2291837 255 0 255
0.1325023 -0.08380925 0.2315035 255 0 255
0.134662 -0.08420029 0.2327158 255 0 255
0.1448375 -0.08535962 0.2369353 255 0 255
0.1468384 -0.08396474 0.2341794 255 0 255
0.1483835 -0.08221791 0.2305756 255 0 255
0.02364692 -0.108302 0.2690486 255 0 255
0.03726932 -0.1010473 0.2540775 255 0 255
0.04161451 -0.100229 0.2526768 255 0 255
0.04310505 -0.1000839 0.252502 255 0 255
0.04889588 -0.09907719 0.2508478 255 0 255
0.05721638 -0.09689584 0.246871 255 0 255
0.07380369 -0.09052227 0.2345907 255 0 255
0.07753573 -0.08912347 0.2319387 255 0 255
0.08224415 -0.08924396 0.2327979 255 0 255
0.08364593 -0.08902137 0.2324821 255 0 255
0.08671509 -0.08895042 0.2327195 255 0 255
0.09202495 -0.08762887 0.2304852 255 0 255
0.09341598 -0.08738732 0.2301354 255 0 255
0.09926771 -0.08677068 0.2295634 255 0 255
0.1026618 -0.08700678 0.2305551 255 0 255
0.10576 -0.0868528 0.2306481 255 0 255
0.1137349 -0.08483154 0.2273275 255 0 255
0.1255257 -0.0849701 0.2293883 255 0 255
0.1304265 -0.0847621 0.2296808 255 0 255
0.1422989 -0.08602371 0.234312 255 0 255
0.02712763 -0.1107291 0.2708989 255 0 255
0.02870071 -0.1106102 0.2707749 255 0 255
0.03354818 -0.1052493 0.2593453 255 0 255
0.03457594 -0.1035022 0.2555737 255 0 255
0.03745658 -0.102832 0.2543626 255 0 255
0.03895759 -0.1026947 0.2542024 255 0 255
0.04465152 -0.1013129 0.2517034 255 0 255
0.05010251 -0.09949092 0.2482285 255 0 255
0.05157616 -0.0993295 0.2480245 255 0 255
0.05322317 -0.09956439 0.2487156 255 0 255
0.0570888 -0.09785948 0.2453609 255 0 255
0.05981556 -0.09711011 0.2440022 255 0 255
0.0650002 -0.0951883 0.2403378 255 0 255
0.06643868 -0.09499854 0.2400821 255 0 255
0.07527395 -0.09163855 0.2337097 255 0 255
0.08064691 -0.09039685 0.2316295 255 0 255
0.08204657 -0.0901773 0.2313195 255 0 255
0.0848415 -0.08973002 0.2306849 255 0 255
0.08763048 -0.08927188 0.230031 255 0 255
0.08930047 -0.08942343 0.2305771 255 0 255
0.09069491 -0.08918697 0.2302371 255 0 255
0.09180247 -0.08856439 0.229014 255 0 255
0.09734264 -0.08758327 0.2275905 255 0 255
0.1058255 -0.08818261 0.2300503 255 0 255
0.1169003 -0.08595504 0.2267384 255 0 255
0.1182761 -0.08566451 0.2263028 255 0 255
0.1273497 -0.08637048 0.2291728 255 0 255
0.1322634 -0.08615579 0.229442 255 0 255
0.1391646 -0.08771387 0.2338807 255 0 255
0.1423721 -0.08739991 0.2336935 255 0 255
0.1463992 -0.08778732 0.2351619 255 0 255
0.03613755 -0.1047564 0.2547944 255 0 255
0.03914867 -0.1044838 0.2544784 255 0 255
0.04186983 -0.1033874 0.2523366 255 0 255
0.04321747 -0.1028359 0.2512592 255 0 255
0.04704948 -0.1007644 0.2471016 255 0 255
0.05439946 -0.09995865 0.2460845 255 0 255
0.05841736 -0.09863896 0.2436211 255 0 255
0.05948576 -0.09766061 0.2415975 255 0 255
0.06728389 -0.09495288 0.2365385 255 0 255
0.07320751 -0.09455554 0.2363441 255 0 255
0.0786456 -0.09332318 0.2342938 255 0 255
0.0812173 -0.09249622 0.2327998 255 0 255
0.09243522 -0.09065128 0.2301712 255 0 255
0.09383048 -0.09040838 0.2298208 255 0 255
0.1024789 -0.08927631 0.2284869 255 0 255
0.1083437 -0.08858924 0.227783 255 0 255
0.1152434 -0.08719186 0.2257076 255 0 255
0.1274184 -0.08771298 0.228563 255 0 255
0.1537856 -0.08918298 0.2356869 255 0 255
0.02740412 -0.1211744 0.2859974 255 0 255
0.03049326 -0.1137858 0.270234 255 0 255
0.04710485 -0.102122 0.2464788 255 0 255
0.05683064 -0.09975787 0.2423345 255 0 255
0.06099001 -0.09882303 0.2407456 255 0 255
0.06223461 -0.09823768 0.2396117 255 0 255
0.06490662 -0.0974636 0.2382243 255 0 255
0.06734139 -0.09627922 0.2359299 255 0 255
0.07587196 -0.09507208 0.2342765 255 0 255
0.08242539 -0.09320013 0.2310011 255 0 255
0.08914458 -0.09166359 0.2284984 255 0 255
0.09109938 -0.09220946 0.2299119 255 0 255
0.1135902 -0.0884158 0.2246672 255 0 255
0.1278571 -0.08942664 0.2287981 255 0 255
0.1296215 -0.08948605 0.2291744 255 0 255
0.1359517 -0.08894088 0.2289182 255 0 255
0.1373412 -0.08861138 0.2284175 255 0 255
0.1457292 -0.08982115 0.2322261 255 0 255
0.1475437 -0.08983587 0.2325274 255 0 255
0.1499319 -0.08876481 0.230608 255 0 255
0.03077522 -0.110111 0.2586018 255 0 255
0.03335113 -0.1081973 0.254717 255 0 255
0.03775234 -0.1073859 0.2533647 255 0 255
0.0393939 -0.1076619 0.2541043 255 0 255
0.04496943 -0.1058419 0.2507136 255 0 255
0.04960232 -0.1019305 0.2427705 255 0 255
0.05106113 -0.1017703 0.2425688 255 0 255
0.05543166 -0.1012727 0.2419335 255 0 255
0.05853044 -0.1013349 0.2423779 255 0 255
0.06393822 -0.09979455 0.2396376 255 0 255
0.07024729 -0.09721139 0.2347848 255 0 255
0.07309131 -0.09680851 0.2342339 255 0 255
0.08133557 -0.09513417 0.231583 255 0 255
0.08388684 -0.09429029 0.2300766 255 0 255
0.08528803 -0.09406376 0.2297564 255 0 255
0.0950532 -0.09240161 0.2273799 255 0 255
0.1109024 -0.0902907 0.2248904 255 0 255
0.1205603 -0.09009418 0.2257505 255 0 255
0.12194 -0.08979528 0.2253035 255 0 255
0.1240458 -0.0902511 0.2265536 255 0 255
0.1310799 -0.09051287 0.2280727 255 0 255
0.1356302 -0.0899172 0.2274505 255 0 255
0.1403845 -0.09111193 0.230645 255 0 255
0.03340409 -0.1095794 0.25407 255 0 255
0.03466749 -0.1086128 0.2521253 255 0 255
0.05111539 -0.1031118 0.2419406 255 0 255
0.06110193 -0.101499 0.2394988 255 0 255
0.06522892 -0.1005333 0.2378727 255 0 255
0.07314812 -0.098129 0.2336154 255 0 255
0.07973208 -0.09626546 0.2303934 255 0 255
0.08113782 -0.09604689 0.2300879 255 0 255
0.08647539 -0.09474493 0.2279419 255 0 255
0.09818994 -0.09360503 0.2269128 255 0 255
0.09988397 -0.09374447 0.2274106 255 0 255
0.1040526 -0.0929615 0.2262711 255 0 255
0.1068228 -0.09242593 0.2254875 255 0 255
0.1095858 -0.09187947 0.2246846 255 0 255
0.117509 -0.09162229 0.2251558 255 0 255
0.1209812 -0.09180097 0.2259824 255 0 255
0.1276179 -0.09172592 0.2267023 255 0 255
0.1307672 -0.09147512 0.2266002 255 0 255
0.1339225 -0.09121009 0.2264736 255 0 255
0.1370835 -0.09093072 0.2263226 255 0 255
0.1396587 -0.09172227 0.2283324 255 0 255
0.1418526 -0.09213214 0.229493 255 0 255
0.1485071 -0.09332366 0.232913 255 0 255
0.1486739 -0.09185703 0.2298768 255 0 255
0.1488169 -0.09039313 0.2268441 255 0 255
0.147247 -0.08745842 0.2205019 255 0 255
0.03297429 -0.1092691 0.2498243 255 0 255
0.03471982 -0.1099852 0.2514763 255 0 255
0.03759423 -0.1092971 0.2502744 255 0 255
0.0449257 -0.1081611 0.2485297 255 0 255
0.06425549 -0.102878 0.2392676 255 0 255
0.06816214 -0.1014789 0.236728 255 0 255
0.06937784 -0.1008711 0.2355786 255 0 255
0.07201154 -0.1000606 0.2341522 255 0 255
0.07320423 -0.09944702 0.2329917 255 0 255
0.07838152 -0.09779114 0.2300741 255 0 255
0.08680394 -0.09645328 0.2281984 255 0 255
0.09715567 -0.09556568 0.2275249 255 0 255
0.1030374 -0.09493306 0.2268985 255 0 255
0.1110258 -0.09291124 0.2236565 255 0 255
0.1231495 -0.09359752 0.2266057 255 0 255
0.1252674 -0.0940641 0.227846 255 0 255
0.135763 -0.09260111 0.226187 255 0 255
0.1380231 -0.07916062 0.1987044 255 0 255
0.03914472 -0.1105257 0.2494622 255 0 255
0.04092286 -0.1112337 0.2510866 255 0 255
0.04662479 -0.109794 0.2485869 255 0 255
0.05541135 -0.1048685 0.2391449 255 0 255
0.06140937 -0.1045828 0.2391176 255 0 255
0.06575885 -0.1040237 0.238378 255 0 255
0.07086505 -0.1019955 0.2346768 255 0 255
0.07843728 -0.09909859 0.2294492 255 0 255
0.08239579 -0.09803209 0.2276587 255 0 255
0.08658966 -0.09735168 0.2267021 255 0 255
0.09412895 -0.09697084 0.2267465 255 0 255
0.09860916 -0.09662263 0.2265334 255 0 255
0.1089811 -0.09556537 0.2255583 255 0 255
0.111756 -0.09500886 0.2247422 255 0 255
0.1148658 -0.09483546 0.22476 255 0 255
0.1165965 -0.09494011 0.2251858 255 0 255
0.120074 -0.09513656 0.2260162 255 0 255
0.1232122 -0.09492563 0.2259708 255 0 255
0.1267251 -0.09508895 0.2267461 255 0 255
0.1372144 -0.09360851 0.2250491 255 0 255
0.141184 -0.09408122 0.2265376 255 0 255
0.148114 -0.0923456 0.2239052 255 0 255
0.04069425 -0.1117484 0.2486395 255 0 255
0.04900877 -0.1091414 0.2439829 255 0 255
0.05436971 -0.1072147 0.2404946 255 0 255
0.05564712 -0.1066217 0.2393902 255 0 255
0.06020535 -0.1065182 0.2395962 255 0 255
0.07069402 -0.1028982 0.2331591 255 0 255
0.08385078 -0.0991083 0.2267169 255 0 255
0.08691683 -0.09906213 0.2269449 255 0 255
0.08859086 -0.09923909 0.2274852 255 0 255
0.094186 -0.09827594 0.2261163 255 0 255
0.1003657 -0.09807844 0.2263943 255 0 255
0.125028 -0.09633809 0.2257206 255 0 255
0.126419 -0.09602864 0.2252602 255 0 255
0.1278079 -0.09571639 0.2247948 255 0 255
0.1358914 -0.09527489 0.2249025 255 0 255
0.1416498 -0.09581002 0.22672 255 0 255
0.0407454 -0.113109 0.2479762 255 0 255
0.04403564 -0.1136801 0.2494119 255 0 255
0.04672929 -0.1125169 0.247266 255 0 255
0.05070459 -0.1107561 0.2440161 255 0 255
0.05442184 -0.1085493 0.2398439 255 0 255
0.06171454 -0.1076706 0.2387088 255 0 255
0.06586637 -0.1066853 0.2370866 255 0 255
0.07713707 -0.10192 0.2284793 255 0 255
0.0797018 -0.1010716 0.2270109 255 0 255
0.0825057 -0.1006307 0.2263978 255 0 255
0.08530375 -0.1001787 0.2257653 255 0 255
0.08724349 -0.1007772 0.2271793 255 0 255
0.09453256 -0.09998962 0.2263451 255 0 255
0.1018186 -0.09912622 0.2253809 255 0 255
0.1059953 -0.09832834 0.2242261 255 0 255
0.1111506 -0.09871564 0.2255867 255 0 255
0.1215852 -0.09747994 0.2242901 255 0 255
0.1324068 -0.09647901 0.2235609 255 0 255
0.1345647 -0.09693696 0.2247455 255 0 255
0.1385231 -0.09744476 0.2262521 255 0 255
0.142516 -0.09793098 0.2277236 255 0 255
0.1431081 -0.0968118 0.2255464 255 0 255
0.1476937 -0.09614854 0.2247889 255 0 255
0.1517375 -0.09658156 0.2261721 255 0 255
0.04423521 -0.115479 0.2496285 255 0 255
0.04827452 -0.1137189 0.2464072 255 0 255
0.05092381 -0.1125347 0.2442391 255 0 255
0.05739387 -0.1095381 0.2387491 255 0 255
0.06301948 -0.1083891 0.2369306 255 0 255
0.06591901 -0.1080123 0.2364331 255 0 255
0.0708003 -0.1055247 0.2318719 255 0 255
0.08562556 -0.1018921 0.2259954 255 0 255
0.09458796 -0.1012932 0.225703 255 0 255
0.107441 -0.09936066 0.2231894 255 0 255
0.1167748 -0.09888308 0.2232629 255 0 255
0.1233939 -0.09889472 0.2240353 255 0 255
0.1310811 -0.09812583 0.2233891 255 0 255
0.138191 -0.09839217 0.2247613 255 0 255
0.1437458 -0.09702827 0.2227125 255 0 255
0.1452615 -0.09516678 0.2191912 255 0 255
0.1470484 -0.09520283 0.2194828 255 0 255
0.1475709 -0.09407696 0.2173072 255 0 255
0.1459433 -0.09102775 0.2110402 255 0 255
0.04564103 -0.1162565 0.2478816 255 0 255
0.0511427 -0.1143178 0.2444534 255 0 255
0.05358911 -0.1126823 0.2413885 255 0 255
0.05506279 -0.1125135 0.2411749 255 0 255
0.05635198 -0.111908 0.2400742 255 0 255
0.0708523 -0.1068341 0.2312207 255 0 255
0.07205027 -0.106204 0.2300735 255 0 255
0.07724259 -0.1045178 0.2271934 255 0 255
0.07865223 -0.1043032 0.2268984 255 0 255
0.09295498 -0.1024221 0.2245442 255 0 255
0.1026983 -0.1006424 0.2220007 255 0 255
0.1044003 -0.1007904 0.2224719 255 0 255
0.1074971 -0.1006619 0.2225421 255 0 255
0.1115971 -0.1017503 0.225137 255 0 255
0.1289995 -0.09896678 0.221536 255 0 255
0.1433983 -0.09796746 0.2212264 255 0 255
0.03884871 -0.1155465 0.2425738 255 0 255
0.04403854 -0.1173253 0.2464949 255 0 255
0.05399114 -0.1148962 0.2424797 255 0 255
0.06891747 -0.1102692 0.2345936 255 0 255
0.06991882 -0.1092054 0.23258 255 0 255
0.07870393 -0.1055979 0.226248 255 0 255
0.08011229 -0.1053802 0.2259483 255 0 255
0.08318525 -0.1053631 0.2262004 255 0 255
0.0848574 -0.1055625 0.2267505 255 0 255
0.1027527 -0.1019352 0.2213513 255 0 255
0.1172355 -0.1019097 0.2227985 255 0 255
0.1227865 -0.1007128 0.2210421 255 0 255
0.1241692 -0.1004066 0.220591 255 0 255
0.1276738 -0.1005963 0.2213443 255 0 255
0.1357439 -0.1001908 0.2214428 255 0 255
0.1371277 -0.09985828 0.2209471 255 0 255
0.1393056 -0.1003212 0.2220985 255 0 255
0.1533213 -0.1002679 0.2236059 255 0 255
0.06191922 -0.1129792 0.2360557 255 0 255
0.06918667 -0.1120244 0.2347976 255 0 255
0.07041413 -0.1113888 0.2336589 255 0 255
0.07261209 -0.1096773 0.2305006 255 0 255
0.07900409 -0.1073222 0.2264594 255 0 255
0.0818273 -0.1068822 0.2258537 255 0 255
0.08464471 -0.106431 0.2252286 255 0 255
0.08605126 -0.1062011 0.2249089 255 0 255
0.08913556 -0.1061608 0.2251157 255 0 255
0.09194545 -0.1056803 0.2244406 255 0 255
0.09503992 -0.1056137 0.2246034 255 0 255
0.1003362 -0.1041716 0.2222999 255 0 255
0.1127709 -0.1036705 0.2225568 255 0 255
0.1183312 -0.1025083 0.2208634 255 0 255
0.1218159 -0.1027342 0.2216639 255 0 255
0.1259755 -0.1018119 0.2203078 255 0 255
0.1371858 -0.1011769 0.2202784 255 0 255
0.1612353 -0.1071578 0.2345455 255 0 255
0.04927664 -0.1213566 0.2480808 255 0 255
0.05046074 -0.1203024 0.2461241 255 0 255
0.0519651 -0.1201391 0.2459222 255 0 255
0.05593203 -0.1182967 0.2426538 255 0 255
0.06923676 -0.1133438 0.2341218 255 0 255
0.07480865 -0.1092548 0.226669 255 0 255
0.0790543 -0.1086152 0.2257971 255 0 255
0.08328737 -0.1079502 0.2248817 255 0 255
0.09368706 -0.1071587 0.2242896 255 0 255
0.09590542 -0.1058035 0.2218754 255 0 255
0.09729947 -0.105551 0.2215173 255 0 255
0.1008516 -0.1039265 0.2187137 255 0 255
0.1028587 -0.1045131 0.2200374 255 0 255
0.1114299 -0.1052572 0.2223008 255 0 255
0.1211545 -0.1032106 0.2193222 255 0 255
0.1309326 -0.1029896 0.2198985 255 0 255
0.1350763 -0.1020109 0.2184496 255 0 255
0.1439844 -0.102341 0.2200316 255 0 255
0.1461937 -0.1027957 0.2211426 255 0 255
