ply
format ascii 1.0
Comment Generated by Floating Hands
element vertex 1123
Comment Left: (-0.1, -0.1, 0.1)
Comment Right: (0.1, -0.1, 0.2)
property double x
property double y
property double z
property uchar red
property uchar green
property uchar blue
end_header
-0.06606272 -0.05471851 0.2105257 255 0 255
-0.05878425 -0.05416257 0.208039 255 0 255
-0.05178244 -0.05638023 0.213 255 0 255
-0.04720418 -0.05541788 0.2098781 255 0 255
-0.03357705 -0.058405 0.2162839 255 0 255
-0.03213921 -0.05816164 0.2154871 255 0 255
-0.01588598 -0.05709422 0.2111278 255 0 255
-0.01329029 -0.05722679 0.2112691 255 0 255
0.02800914 -0.04922073 0.187635 255 0 255
0.04941908 -0.05140024 0.1931534 255 0 255
0.0506436 -0.05134234 0.193 255 0 255
0.06197308 -0.0514091 0.1932731 255 0 255
0.0633717 -0.05167358 0.1939979 255 0 255
0.06922384 -0.05304763 0.197761 255 0 255
0.07358146 -0.05162057 0.1940955 255 0 255
0.0863064 -0.05115708 0.193345 255 0 255
0.08728562 -0.05068898 0.1921555 255 0 255
0.09405249 -0.04919839 0.1885763 255 0 255
0.09766516 -0.04876155 0.1876375 255 0 255
0.109412 -0.04981889 0.1911852 255 0 255
0.1272711 -0.05202772 0.1983772 255 0 255
0.1386586 -0.05549012 0.2084075 255 0 255
0.1324365 -0.03023948 0.1426845 255 0 255
0.1769019 -0.05119548 0.2017614 255 0 255
-0.06587688 -0.05560991 0.2091506 255 0 255
-0.06137985 -0.05507324 0.2071255 255 0 255
-0.05163548 -0.05727153 0.211615 255 0 255
-0.0333567 -0.05895186 0.2139586 255 0 255
-0.01189085 -0.05780726 0.2090056 255 0 255
-0.0107707 -0.0589245 0.2118668 255 0 255
0.02933749 -0.05104627 0.1889937 255 0 255
0.03568255 -0.05732438 0.2054007 255 0 255
0.04684005 -0.05232041 0.1920806 255 0 255
0.05553226 -0.05225106 0.1919044 255 0 255
0.06865731 -0.05319328 0.1945568 255 0 255
0.07112197 -0.05300186 0.1941117 255 0 255
0.07255328 -0.05325055 0.1947986 255 0 255
0.07994112 -0.05260338 0.1933305 255 0 255
0.08094155 -0.05214167 0.1921604 255 0 255
0.1033587 -0.05033113 0.1885652 255 0 255
0.1109532 -0.05117693 0.1912589 255 0 255
0.1627322 -0.07484937 0.2564246 255 0 255
0.1168165 -0.01998426 0.1118962 255 0 255
0.1335969 -0.03020732 0.1397229 255 0 255
0.1515098 -0.04181372 0.1711846 255 0 255
-0.07985569 -0.0477364 0.1873336 255 0 255
-0.07609572 -0.0498254 0.1921106 255 0 255
-0.06742334 -0.05700925 0.2093488 255 0 255
-0.05407936 -0.05787377 0.2098222 255 0 255
-0.0500177 -0.05794239 0.2095026 255 0 255
-0.03183263 -0.05958322 0.2117663 255 0 255
-0.03029718 -0.05897662 0.2100368 255 0 255
-0.02727123 -0.05775261 0.2065601 255 0 255
-0.02342222 -0.05801367 0.2068831 255 0 255
-0.01738086 -0.06017526 0.2119907 255 0 255
0.04383149 -0.05576551 0.1976112 255 0 255
0.04484859 -0.0550051 0.1956228 255 0 255
0.04695735 -0.0538354 0.1925644 255 0 255
0.04831057 -0.05413835 0.1933452 255 0 255
0.05063458 -0.05366848 0.1921168 255 0 255
0.05552871 -0.05341294 0.1914606 255 0 255
0.05797165 -0.05327109 0.1911069 255 0 255
0.08094414 -0.05331923 0.1917101 255 0 255
0.08484878 -0.05330517 0.1918148 255 0 255
0.08582976 -0.05283164 0.1906325 255 0 255
0.09406518 -0.05154295 0.1876846 255 0 255
0.09472555 -0.05071056 0.1855794 255 0 255
0.1341062 -0.0553147 0.2000592 255 0 255
0.09597775 -0.005659531 0.07108806 255 0 255
0.1194851 -0.02030227 0.1103826 255 0 255
0.1743011 -0.05317522 0.1988727 255 0 255
-0.04170566 -0.0618148 0.2148941 255 0 255
-0.0347205 -0.0613139 0.2128784 255 0 255
-0.01609743 -0.06147131 0.2115968 255 0 255
-0.01069818 -0.06065177 0.2090675 255 0 255
0.03959344 -0.05999701 0.2050706 255 0 255
0.04695117 -0.05499586 0.192116 255 0 255
0.05430177 -0.05464049 0.1911826 255 0 255
0.05918883 -0.05435645 0.1904754 255 0 255
0.06686641 -0.05457284 0.1911195 255 0 255
0.08049154 -0.0537891 0.1894399 255 0 255
0.09380125 -0.05236405 0.1863341 255 0 255
0.1003775 -0.05231481 0.1865407 255 0 255
0.1048818 -0.0528728 0.1882063 255 0 255
0.1060923 -0.052708 0.1878602 255 0 255
0.1237794 -0.05513352 0.1951647 255 0 255
0.1305217 -0.05599355 0.1978451 255 0 255
-0.07752524 -0.05040552 0.1870389 255 0 255
-0.07632229 -0.05059139 0.1873259 255 0 255
-0.06995184 -0.05685619 0.2021779 255 0 255
-0.06147795 -0.0587114 0.2057303 255 0 255
-0.05762864 -0.0591719 0.2064079 255 0 255
-0.04027179 -0.06281473 0.213651 255 0 255
-0.02593352 -0.05988858 0.2048139 255 0 255
-0.02237014 -0.06122775 0.207905 255 0 255
-0.0161928 -0.06305714 0.2120494 255 0 255
-0.0148132 -0.06276341 0.2111931 255 0 255
0.0377229 -0.0641925 0.2122407 255 0 255
0.0408656 -0.06116527 0.2044792 255 0 255
0.04193956 -0.06039547 0.202504 255 0 255
0.04392784 -0.05848586 0.1976204 255 0 255
0.0460741 -0.05729731 0.1945752 255 0 255
0.05307304 -0.05586395 0.1908958 255 0 255
0.0567424 -0.05566129 0.1903846 255 0 255
0.05902325 -0.05515267 0.1891045 255 0 255
0.07561805 -0.055404 0.1899862 255 0 255
0.08268882 -0.05436143 0.1875521 255 0 255
0.08847332 -0.05337249 0.1852658 255 0 255
0.09353659 -0.05317601 0.1849819 255 0 255
0.1362754 -0.05703576 0.1973193 255 0 255
0.1589498 -0.07435465 0.2420781 255 0 255
-0.08241434 -0.04764418 0.1776387 255 0 255
-0.07848894 -0.05101494 0.1854023 255 0 255
-0.06790661 -0.05910111 0.2040385 255 0 255
-0.06002331 -0.05972179 0.2045736 255 0 255
-0.05489925 -0.06032094 0.2054466 255 0 255
-0.05343017 -0.06010747 0.2047382 255 0 255
-0.04191 -0.06465204 0.2148466 255 0 255
-0.0343917 -0.062684 0.2091472 255 0 255
-0.01469758 -0.06325182 0.2088561 255 0 255
0.03508369 -0.06548741 0.2119669 255 0 255
0.04213743 -0.06232912 0.2038786 255 0 255
0.04528701 -0.05998533 0.1979423 255 0 255
0.06405804 -0.05634798 0.1887905 255 0 255
0.07705379 -0.05682194 0.1901878 255 0 255
0.07783787 -0.05598859 0.1881257 255 0 255
0.1112538 -0.05472944 0.1863873 255 0 255
0.1127829 -0.05490038 0.1868995 255 0 255
0.1250407 -0.05737666 0.1937896 255 0 255
0.1273335 -0.05820481 0.1959855 255 0 255
0.1296467 -0.05902689 0.1981696 255 0 255
0.1458342 -0.06552491 0.2153282 255 0 255
0.1421088 -0.0327643 0.1352917 255 0 255
-0.07353846 -0.05447925 0.1899613 255 0 255
-0.07256962 -0.05501076 0.191135 255 0 255
-0.06432198 -0.06116285 0.205212 255 0 255
-0.05346101 -0.06130962 0.2042603 255 0 255
-0.04179178 -0.06552623 0.2134342 255 0 255
-0.03859375 -0.06430089 0.21007 255 0 255
-0.02241825 -0.06364354 0.2069479 255 0 255
0.04074703 -0.06320068 0.2025992 255 0 255
0.04742113 -0.05995063 0.1944255 255 0 255
0.05535891 -0.05767231 0.188723 255 0 255
0.07114626 -0.05658019 0.1861319 255 0 255
0.07519235 -0.05700225 0.1872462 255 0 255
0.07905211 -0.05703475 0.1874095 255 0 255
0.1015975 -0.05566198 0.1848225 255 0 255
0.1227772 -0.05775094 0.1910977 255 0 255
0.1289466 -0.05957269 0.1959367 255 0 255
0.1326917 -0.05892996 0.1946343 255 0 255
0.1370464 -0.06020852 0.1980522 255 0 255
-0.07801186 -0.05258296 0.1827064 255 0 255
-0.06457189 -0.06273093 0.205634 255 0 255
-0.04947189 -0.06256145 0.2034549 255 0 255
-0.03677349 -0.06415632 0.2060515 255 0 255
-0.02611213 -0.06384555 0.2043081 255 0 255
-0.02141499 -0.06604806 0.2093275 255 0 255
-0.01384378 -0.06081456 0.1958608 255 0 255
-0.01096352 -0.05152846 0.1727975 255 0 255
0.04180789 -0.06360606 0.200149 255 0 255
0.05413254 -0.05888882 0.1884279 255 0 255
0.09714174 -0.05620622 0.1826609 255 0 255
0.1043059 -0.05686328 0.1845623 255 0 255
-0.07777285 -0.05335341 0.1813561 255 0 255
-0.07215472 -0.05858016 0.1931692 255 0 255
-0.06766088 -0.06000064 0.1960143 255 0 255
-0.05627626 -0.06378367 0.2037842 255 0 255
-0.05442353 -0.06282865 0.2012637 255 0 255
-0.05144029 -0.07401162 0.2280165 255 0 255
-0.0382314 -0.06561986 0.206331 255 0 255
0.0458353 -0.0654151 0.2011035 255 0 255
0.04789533 -0.06379767 0.1971459 255 0 255
0.05086402 -0.06135827 0.1911907 255 0 255
0.05427169 -0.06041322 0.1888729 255 0 255
0.0574687 -0.05907265 0.1856106 255 0 255
0.06386775 -0.05942834 0.1864818 255 0 255
0.0649009 -0.05896664 0.1853692 255 0 255
0.07783388 -0.05946126 0.1867193 255 0 255
0.0790493 -0.05934761 0.1864675 255 0 255
0.08026372 -0.05923157 0.1862115 255 0 255
0.09061948 -0.05734541 0.1819344 255 0 255
0.0986247 -0.05757153 0.1827569 255 0 255
0.104609 -0.05839121 0.1849673 255 0 255
0.1146629 -0.05897564 0.1868417 255 0 255
-0.07780743 -0.05447432 0.1808962 255 0 255
-0.05187925 -0.06156071 0.194612 255 0 255
-0.04731714 -0.06908651 0.2121561 255 0 255
-0.02024253 -0.06893475 0.209344 255 0 255
0.04617021 -0.0677553 0.2033605 255 0 255
0.04800869 -0.06535811 0.1975743 255 0 255
0.05883434 -0.06051596 0.1858692 255 0 255
0.06126127 -0.06035961 0.1854928 255 0 255
0.06953316 -0.0593603 0.1831392 255 0 255
0.07234546 -0.05991583 0.1844961 255 0 255
0.07376175 -0.06018907 0.1851661 255 0 255
0.08268765 -0.0601453 0.1852094 255 0 255
0.08681113 -0.06051381 0.1861805 255 0 255
0.08873305 -0.05950472 0.1838251 255 0 255
0.09061971 -0.0584895 0.1814603 255 0 255
0.1119119 -0.0601586 0.1862222 255 0 255
0.1143422 -0.05979568 0.1854785 255 0 255
0.123831 -0.06244376 0.1922186 255 0 255
0.1332246 -0.06168102 0.1909659 255 0 255
-0.07411814 -0.05779686 0.1851269 255 0 255
-0.0734203 -0.05871084 0.1871895 255 0 255
-0.07197546 -0.06053847 0.1913123 255 0 255
-0.07098477 -0.06108429 0.1924747 255 0 255
-0.0687409 -0.06180306 0.1938925 255 0 255
-0.06188311 -0.06630633 0.2037154 255 0 255
-0.06059561 -0.06646545 0.203945 255 0 255
-0.04424008 -0.05209553 0.1681455 255 0 255
-0.047642 -0.06200275 0.1919725 255 0 255
-0.04523026 -0.06855699 0.2072632 255 0 255
-0.04232038 -0.06805071 0.2057764 255 0 255
-0.04087593 -0.06779267 0.2050247 255 0 255
-0.03658482 -0.0669993 0.2027375 255 0 255
-0.03132339 -0.06704143 0.2023633 255 0 255
-0.0301567 -0.06752246 0.2034044 255 0 255
-0.02381059 -0.06836621 0.2048788 255 0 255
-0.02251655 -0.06845111 0.204977 255 0 255
0.0523578 -0.06437775 0.1918956 255 0 255
0.05345717 -0.06392892 0.1908196 255 0 255
0.07596365 -0.06073982 0.1833077 255 0 255
0.078597 -0.06089511 0.1837113 255 0 255
0.08268536 -0.06129631 0.1847273 255 0 255
0.09686586 -0.05928403 0.1803468 255 0 255
0.100115 -0.06009315 0.1823557 255 0 255
0.1119153 -0.0613363 0.1857287 255 0 255
0.1158885 -0.06115298 0.1854778 255 0 255
0.1302287 -0.0642698 0.1934837 255 0 255
0.1556964 -0.07669687 0.2239053 255 0 255
-0.08174717 -0.05318363 0.1722832 255 0 255
-0.07535914 -0.05874545 0.1843745 255 0 255
-0.07151416 -0.06095311 0.1890364 255 0 255
-0.06605328 -0.06293664 0.1930067 255 0 255
-0.06256292 -0.06621809 0.2002711 255 0 255
-0.0449416 -0.0690031 0.2049331 255 0 255
-0.04333529 -0.06836569 0.2032816 255 0 255
-0.04204657 -0.06848885 0.2034469 255 0 255
-0.03391459 -0.0680221 0.2016018 255 0 255
-0.02771565 -0.0692921 0.2040538 255 0 255
-0.0239327 -0.06994941 0.2052916 255 0 255
-0.02263449 -0.07003482 0.2053898 255 0 255
-0.01865587 -0.0698883 0.2047395 255 0 255
0.04541435 -0.07215485 0.2070597 255 0 255
0.04696133 -0.06854791 0.1985539 255 0 255
0.05669644 -0.06371537 0.1870882 255 0 255
0.06812649 -0.06133828 0.1815009 255 0 255
0.07072587 -0.06152927 0.1819619 255 0 255
0.08510502 -0.06219541 0.1837 255 0 255
0.08631466 -0.06206685 0.1834233 255 0 255
0.1028137 -0.06130172 0.1820853 255 0 255
0.1043159 -0.06151206 0.1826254 255 0 255
0.1158919 -0.06233127 0.1849787 255 0 255
0.1254308 -0.06502676 0.1916508 255 0 255
0.1388475 -0.06523816 0.1928561 255 0 255
-0.07606586 -0.05894581 0.1818353 255 0 255
-0.07392679 -0.05968884 0.1832798 255 0 255
-0.0722708 -0.06117226 0.1864967 255 0 255
-0.0658575 -0.06371973 0.1916163 255 0 255
-0.0600437 -0.06772464 0.200225 255 0 255
-0.05876624 -0.06788076 0.2004476 255 0 255
-0.05171945 -0.07312236 0.2118574 255 0 255
-0.04177247 -0.06891055 0.2011187 255 0 255
-0.03032613 -0.07029201 0.2033095 255 0 255
-0.02655358 -0.07096841 0.2045714 255 0 255
0.06279933 -0.06446931 0.1856635 255 0 255
0.06812025 -0.06246549 0.1810185 255 0 255
0.06932043 -0.06236978 0.1808006 255 0 255
0.08341344 -0.06269935 0.1816981 255 0 255
0.1250868 -0.06586716 0.190271 255 0 255
-0.07702666 -0.05950336 0.1801845 255 0 255
-0.03795248 -0.07044918 0.2010739 255 0 255
-0.03551514 -0.07106418 0.2022725 255 0 255
-0.03422555 -0.07117262 0.2024102 255 0 255
0.05088521 -0.07114174 0.1979961 255 0 255
0.05495837 -0.06811522 0.190985 255 0 255
0.06811341 -0.06359077 0.1805319 255 0 255
0.07979189 -0.06420007 0.181993 255 0 255
0.09154458 -0.06252131 0.1783407 255 0 255
0.1055218 -0.06365771 0.181287 255 0 255
0.115896 -0.06468175 0.1839667 255 0 255
0.1209007 -0.06560498 0.1862548 255 0 255
0.127925 -0.06702736 0.1897727 255 0 255
0.135721 -0.06608203 0.1880094 255 0 255
-0.07678992 -0.06024061 0.1788154 255 0 255
-0.05695695 -0.06924119 0.1969406 255 0 255
-0.04891478 -0.07219853 0.2028498 255 0 255
-0.04728644 -0.07155067 0.2012235 255 0 255
-0.02551008 -0.07424281 0.2054677 255 0 255
0.05314664 -0.07140111 0.1953438 255 0 255
0.05836586 -0.0682599 0.1881403 255 0 255
0.06950304 -0.0650137 0.1807201 255 0 255
0.1034169 -0.06382439 0.1785056 255 0 255
0.1295276 -0.0683948 0.1896754 255 0 255
0.1366526 -0.06534608 0.1831923 255 0 255
0.1465259 -0.07189651 0.1982905 255 0 255
-0.08433679 -0.05408033 0.1630601 255 0 255
-0.07682364 -0.0613502 0.1783288 255 0 255
-0.06796119 -0.06605975 0.1878345 255 0 255
-0.06672994 -0.06623183 0.1880838 255 0 255
-0.05972836 -0.07049406 0.1968875 255 0 255
-0.05698838 -0.07041284 0.1964257 255 0 255
-0.05387896 -0.06953476 0.1941443 255 0 255
-0.04426256 -0.07181057 0.1983401 255 0 255
-0.04282968 -0.07154035 0.1976026 255 0 255
-0.03786886 -0.07241562 0.1991326 255 0 255
-0.02814781 -0.07525436 0.2047211 255 0 255
-0.0268424 -0.07534916 0.2048328 255 0 255
0.05851326 -0.06980947 0.1885354 255 0 255
0.07089929 -0.06643852 0.1808952 255 0 255
0.07593621 -0.06641557 0.1808522 255 0 255
0.0831605 -0.06571092 0.1793212 255 0 255
0.08725801 -0.0661146 0.1802687 255 0 255
0.09086754 -0.06570601 0.1794049 255 0 255
0.09180292 -0.06517261 0.178228 255 0 255
0.09685849 -0.06497716 0.1778828 255 0 255
0.1004373 -0.06451124 0.1769202 255 0 255
0.108238 -0.0660058 0.1804446 255 0 255
0.1128155 -0.06662732 0.181959 255 0 255
0.1143532 -0.06682742 0.1824511 255 0 255
0.1249281 -0.06774666 0.1848557 255 0 255
0.1323806 -0.06954277 0.1891282 255 0 255
-0.0849879 -0.05589062 0.1643389 255 0 255
-0.0716487 -0.06454574 0.1818568 255 0 255
-0.05955429 -0.07127201 0.1954713 255 0 255
-0.05371909 -0.07029834 0.1927308 255 0 255
-0.05175644 -0.07177614 0.1958243 255 0 255
-0.04285873 -0.07271068 0.1970823 255 0 255
-0.02192271 -0.07236088 0.1946029 255 0 255
0.05353723 -0.07496551 0.1970121 255 0 255
0.07089098 -0.0675647 0.1803923 255 0 255
0.07735516 -0.0678339 0.1809926 255 0 255
0.09895436 -0.06540781 0.1758662 255 0 255
0.103113 -0.0657115 0.1766226 255 0 255
0.1128141 -0.06778882 0.1814401 255 0 255
0.1140265 -0.06760436 0.1810683 255 0 255
0.1224732 -0.06933942 0.1851416 255 0 255
0.1291714 -0.07042298 0.1877524 255 0 255
-0.07963765 -0.06007748 0.170043 255 0 255
-0.06375784 -0.07020295 0.1904616 255 0 255
-0.05178697 -0.07294161 0.195301 255 0 255
-0.04814938 -0.07376011 0.1967652 255 0 255
-0.04288786 -0.07387885 0.1965574 255 0 255
-0.03163295 -0.0757162 0.1996689 255 0 255
0.06220791 -0.07186781 0.1869366 255 0 255
0.06432796 -0.07088114 0.1847451 255 0 255
0.06782084 -0.07020116 0.1832235 255 0 255
0.06987031 -0.06919473 0.1810005 255 0 255
0.09325825 -0.06768631 0.1777913 255 0 255
0.1013255 -0.06621635 0.1747061 255 0 255
0.1155647 -0.06896696 0.1810286 255 0 255
0.1171108 -0.06916687 0.1815058 255 0 255
0.1240488 -0.07070573 0.1850563 255 0 255
0.1300489 -0.07101932 0.1859343 255 0 255
-0.08536452 -0.05839073 0.1642569 255 0 255
-0.08139823 -0.05997999 0.1672177 255 0 255
-0.06954139 -0.06753527 0.1822531 255 0 255
-0.06880853 -0.06850477 0.1842787 255 0 255
-0.06782234 -0.06907685 0.1854166 255 0 255
-0.05609022 -0.07190361 0.1903849 255 0 255
-0.03282381 -0.07637797 0.1981034 255 0 255
-0.024401 -0.0740855 0.1924598 255 0 255
0.05411021 -0.08318382 0.2087114 255 0 255
0.06052607 -0.07523639 0.1912803 255 0 255
0.064671 -0.07284141 0.1860147 255 0 255
0.06903233 -0.07123876 0.1824898 255 0 255
0.07470365 -0.0699064 0.1795666 255 0 255
0.09178695 -0.06855652 0.1767003 255 0 255
0.09499699 -0.06947345 0.1787199 255 0 255
0.09832421 -0.06861579 0.1769061 255 0 255
0.1136961 -0.06952542 0.1791579 255 0 255
0.1205589 -0.07111816 0.1827614 255 0 255
0.1272177 -0.07225224 0.1853903 255 0 255
0.1332559 -0.07254589 0.1862125 255 0 255
0.136585 -0.0714765 0.1840325 255 0 255
-0.07053883 -0.06807603 0.1806003 255 0 255
-0.06461795 -0.07152485 0.1874032 255 0 255
-0.05075823 -0.07581633 0.1953278 255 0 255
0.06083632 -0.07722927 0.1925354 255 0 255
0.06921409 -0.07278372 0.1828583 255 0 255
0.07611816 -0.07133173 0.179694 255 0 255
0.08216448 -0.07074489 0.1784258 255 0 255
0.08577915 -0.07036378 0.1776154 255 0 255
0.09860262 -0.07014982 0.1772546 255 0 255
0.1136924 -0.07067668 0.1786272 255 0 255
0.1284506 -0.07322573 0.1844218 255 0 255
0.1332546 -0.07374226 0.185661 255 0 255
0.1382648 -0.07142477 0.1808998 255 0 255
-0.08261302 -0.0619095 0.1659386 255 0 255
-0.07829487 -0.06310146 0.1679835 255 0 255
-0.07127515 -0.06820341 0.1780641 255 0 255
-0.0703228 -0.0687862 0.1792043 255 0 255
-0.06588824 -0.0724914 0.1866366 255 0 255
-0.05699627 -0.07322118 0.1873393 255 0 255
-0.05575476 -0.07337351 0.1875491 255 0 255
-0.04951464 -0.07711974 0.194977 255 0 255
0.05951577 -0.08191138 0.1995217 255 0 255
0.07610808 -0.07245616 0.1791705 255 0 255
0.08577066 -0.07148669 0.1770926 255 0 255
0.08792126 -0.07080852 0.1756566 255 0 255
0.08911783 -0.07067206 0.1753709 255 0 255
0.100706 -0.07055631 0.1752135 255 0 255
-0.08349165 -0.06236947 0.1642732 255 0 255
-0.08234829 -0.06257372 0.1645748 255 0 255
-0.07772836 -0.06516588 0.169513 255 0 255
-0.07656225 -0.06535889 0.1697945 255 0 255
-0.07566638 -0.0659521 0.1709461 255 0 255
-0.0747617 -0.06654418 0.1720955 255 0 255
-0.06744515 -0.07164595 0.1820863 255 0 255
-0.0654614 -0.07280773 0.1843396 255 0 255
-0.05558677 -0.07409465 0.1861294 255 0 255
-0.04395938 -0.07756761 0.1924573 255 0 255
-0.03648448 -0.07871167 0.1942769 255 0 255
0.06080088 -0.08302534 0.1987718 255 0 255
0.07015259 -0.0771519 0.1862316 255 0 255
0.07306792 -0.07516275 0.1820062 255 0 255
0.07631288 -0.07399753 0.1795246 255 0 255
0.07851989 -0.07335031 0.1781481 255 0 255
0.08191098 -0.0725726 0.1764973 255 0 255
0.08936687 -0.07220329 0.1757184 255 0 255
0.09470265 -0.0724563 0.1762696 255 0 255
0.1183119 -0.07361262 0.1789697 255 0 255
0.1233413 -0.07462152 0.1811753 255 0 255
0.1296776 -0.07537585 0.1828886 255 0 255
-0.07776098 -0.06623907 0.1690063 255 0 255
-0.07659471 -0.06643257 0.1692875 255 0 255
-0.07295827 -0.06881458 0.1738728 255 0 255
-0.07108726 -0.06999857 0.1761512 255 0 255
-0.06549332 -0.07393253 0.1838079 255 0 255
-0.04795655 -0.07873948 0.1922854 255 0 255
-0.04541897 -0.07900775 0.1926368 255 0 255
0.06476698 -0.08089347 0.1911891 255 0 255
0.06820119 -0.07976718 0.1887829 255 0 255
0.0703322 -0.07872255 0.1865718 255 0 255
0.07550789 -0.07607821 0.1809946 255 0 255
0.08478961 -0.07427616 0.1771824 255 0 255
0.08720473 -0.07401273 0.1766285 255 0 255
0.1277215 -0.0759661 0.1810694 255 0 255
0.1341107 -0.07668979 0.1827008 255 0 255
0.1374219 -0.07559631 0.1805224 255 0 255
0.1346651 -0.0656951 0.1600393 255 0 255
-0.08355768 -0.06447984 0.1632723 255 0 255
-0.07779349 -0.06731014 0.1684954 255 0 255
-0.05914906 -0.07546388 0.1835362 255 0 255
-0.05355141 -0.07748941 0.1872353 255 0 255
-0.03566517 -0.0824137 0.1960003 255 0 255
-0.03027583 -0.08198786 0.1947232 255 0 255
0.06255338 -0.08661287 0.2001076 255 0 255
0.06746996 -0.08230317 0.1910981 255 0 255
0.07261556 -0.07923783 0.1846838 255 0 255
0.07365478 -0.07870493 0.1835694 255 0 255
0.07591874 -0.07806011 0.1822116 255 0 255
0.08114702 -0.07577386 0.1774442 255 0 255
0.1066835 -0.0749203 0.1756973 255 0 255
0.1106116 -0.0748025 0.1754888 255 0 255
0.1341058 -0.07787317 0.1821327 255 0 255
0.1360942 -0.07845132 0.1833554 255 0 255
-0.07665933 -0.06857363 0.1682608 255 0 255
-0.05651117 -0.07647357 0.1825406 255 0 255
-0.05019214 -0.0799059 0.1890398 255 0 255
-0.03411962 -0.08724445 0.2028537 255 0 255
0.06500319 -0.09076002 0.2055289 255 0 255
0.07340173 -0.0821035 0.1876501 255 0 255
0.08281605 -0.07762469 0.1783853 255 0 255
0.0840345 -0.07749787 0.1781172 255 0 255
0.09587688 -0.0756712 0.1743453 255 0 255
0.1045594 -0.0749658 0.172927 255 0 255
0.1210644 -0.07708302 0.1773704 255 0 255
0.1241961 -0.07749663 0.1782497 255 0 255
0.1394681 -0.07707075 0.1776452 255 0 255
-0.08307582 -0.06761206 0.164277 255 0 255
-0.0612365 -0.07652693 0.18025 255 0 255
-0.05633876 -0.07716145 0.1811159 255 0 255
-0.0511136 -0.08004286 0.1865266 255 0 255
-0.0464417 -0.08145826 0.1890262 255 0 255
-0.04327968 -0.08357681 0.1930822 255 0 255
-0.04230512 -0.084568 0.1950208 255 0 255
-0.03972763 -0.08481611 0.1953312 255 0 255
-0.03327149 -0.08539125 0.1960303 255 0 255
0.07378709 -0.08412597 0.1888417 255 0 255
0.09157048 -0.07823543 0.176737 255 0 255
0.09946611 -0.07632028 0.1728485 255 0 255
0.1078705 -0.07700551 0.1742463 255 0 255
0.1292914 -0.07966817 0.1797829 255 0 255
-0.06834233 -0.07618119 0.1774096 255 0 255
-0.06371059 -0.07730091 0.1792474 255 0 255
-0.06004442 -0.0777965 0.1799275 255 0 255
-0.05759528 -0.07811463 0.18036 255 0 255
-0.04899316 -0.0823201 0.1881099 255 0 255
-0.0424877 -0.08616252 0.1953366 255 0 255
0.07609688 -0.08462762 0.1869145 255 0 255
0.08226234 -0.08129981 0.1801553 255 0 255
0.0832592 -0.08073901 0.1790196 255 0 255
0.1109024 -0.07862206 0.1746739 255 0 255
0.1129921 -0.07782801 0.1730964 255 0 255
0.1312445 -0.08144698 0.1804431 255 0 255
0.1315879 -0.0643084 0.146403 255 0 255
-0.07823758 -0.07011059 0.1635414 255 0 255
-0.07311828 -0.07423034 0.171235 255 0 255
-0.04884724 -0.08301704 0.1866636 255 0 255
0.07495497 -0.08908978 0.19294 255 0 255
0.0758377 -0.08809678 0.1909501 255 0 255
0.08741336 -0.08234718 0.1793664 255 0 255
0.09545737 -0.08047046 0.1755749 255 0 255
0.1084701 -0.0801144 0.1748241 255 0 255
0.1108916 -0.07975281 0.1741091 255 0 255
0.1324701 -0.08239309 0.1794244 255 0 255
-0.08538464 -0.06845612 0.1583804 255 0 255
-0.08172499 -0.07055548 0.1621489 255 0 255
-0.07498617 -0.07407082 0.1684303 255 0 255
-0.07127858 -0.07653826 0.1729494 255 0 255
-0.06719252 -0.07855368 0.1765594 255 0 255
-0.06476303 -0.07890195 0.1770394 255 0 255
-0.06354665 -0.0790724 0.1772732 255 0 255
-0.06232924 -0.07924042 0.1775029 255 0 255
-0.04852493 -0.08326468 0.1843357 255 0 255
-0.04653141 -0.08486104 0.1873325 255 0 255
-0.04095699 -0.08772158 0.1925659 255 0 255
0.07984578 -0.08658151 0.1850105 255 0 255
0.08862984 -0.0833405 0.1785128 255 0 255
0.1048142 -0.0817681 0.1752957 255 0 255
0.1340667 -0.08375539 0.1792236 255 0 255
0.1401804 -0.07510456 0.1624169 255 0 255
-0.08510657 -0.06906612 0.1570058 255 0 255
-0.08489498 -0.07054991 0.1598664 255 0 255
-0.08060613 -0.0718058 0.1619114 255 0 255
-0.07916666 -0.07158016 0.1613427 255 0 255
-0.07801714 -0.07177925 0.1616262 255 0 255
-0.07714627 -0.07240495 0.1627645 255 0 255
-0.07105688 -0.07718723 0.1715358 255 0 255
-0.05523319 -0.08173632 0.1791108 255 0 255
-0.05049845 -0.08277069 0.1807666 255 0 255
-0.04926264 -0.08291288 0.1809513 255 0 255
-0.04496963 -0.08523579 0.1851693 255 0 255
-0.04435725 -0.08714788 0.1888584 255 0 255
-0.03630283 -0.08654924 0.1871225 255 0 255
0.07387269 -0.09524437 0.1992014 255 0 255
0.07661828 -0.09222248 0.1932498 255 0 255
0.0891143 -0.08535563 0.1796599 255 0 255
0.09935392 -0.08268222 0.1743468 255 0 255
0.1020728 -0.08279504 0.1745444 255 0 255
0.1066191 -0.08167504 0.17234 255 0 255
0.1229266 -0.08346647 0.1757774 255 0 255
0.1372855 -0.08530629 0.1793816 255 0 255
0.1410418 -0.08307348 0.1750914 255 0 255
-0.08317849 -0.0709431 0.1579351 255 0 255
-0.07891054 -0.07219042 0.1599547 255 0 255
-0.07083492 -0.07782704 0.1701215 255 0 255
-0.06939455 -0.07757287 0.1695115 255 0 255
-0.06216836 -0.08098936 0.1755171 255 0 255
-0.05628753 -0.08223795 0.1774696 255 0 255
-0.04716308 -0.08519071 0.182496 255 0 255
-0.04499937 -0.0863565 0.1845947 255 0 255
-0.03715678 -0.0903816 0.1918361 255 0 255
0.07984353 -0.09169632 0.1892899 255 0 255
0.08046924 -0.090224 0.1864349 255 0 255
0.08129349 -0.08920133 0.1844449 255 0 255
0.09500537 -0.08531441 0.1767344 255 0 255
0.1060036 -0.08384826 0.1738002 255 0 255
0.1148055 -0.08300394 0.172124 255 0 255
0.1237849 -0.08396922 0.1739537 255 0 255
0.1345254 -0.08500305 0.1759429 255 0 255
0.136132 -0.08519698 0.1763187 255 0 255
0.1414355 -0.08010671 0.1666001 255 0 255
-0.08177396 -0.07174891 0.1568489 255 0 255
-0.07748888 -0.07493001 0.1625455 255 0 255
-0.07481199 -0.07682607 0.1659379 255 0 255
-0.0736372 -0.07701749 0.1662054 255 0 255
-0.06848313 -0.0792627 0.1700713 255 0 255
-0.06219912 -0.08207759 0.1749542 255 0 255
-0.0585512 -0.08256916 0.1756138 255 0 255
-0.05631785 -0.0833317 0.1769037 255 0 255
-0.05509412 -0.08348618 0.1771076 255 0 255
-0.05264379 -0.08378766 0.1775029 255 0 255
-0.05141725 -0.08393469 0.1776943 255 0 255
-0.04808543 -0.08526173 0.1799938 255 0 255
-0.04611531 -0.08688902 0.1829699 255 0 255
-0.04283106 -0.08864151 0.1860974 255 0 255
0.08276367 -0.09067537 0.1844494 255 0 255
0.08310592 -0.08873659 0.1807361 255 0 255
0.08411913 -0.08815566 0.1796064 255 0 255
0.08684485 -0.08834345 0.179916 255 0 255
0.09279155 -0.08718767 0.1776106 255 0 255
0.09402553 -0.08703918 0.1773087 255 0 255
0.09648968 -0.08673463 0.1766925 255 0 255
0.1023351 -0.0854833 0.1742322 255 0 255
0.1047725 -0.08514433 0.1735597 255 0 255
0.1117279 -0.08362594 0.1706054 255 0 255
0.1166652 -0.0848129 0.1728329 255 0 255
0.1194314 -0.0848533 0.1728949 255 0 255
0.128141 -0.08533319 0.1737776 255 0 255
0.1305767 -0.08488857 0.1729292 255 0 255
0.1353584 -0.0854954 0.17408 255 0 255
0.1418305 -0.08166214 0.1668224 255 0 255
-0.07723983 -0.07553551 0.1611467 255 0 255
-0.07547168 -0.07680718 0.1634047 255 0 255
-0.07223101 -0.07782155 0.1650589 255 0 255
-0.06732076 -0.08051145 0.1697583 255 0 255
-0.06465679 -0.08282261 0.1739271 255 0 255
-0.06344384 -0.08299427 0.1741591 255 0 255
-0.06101477 -0.08333025 0.1746108 255 0 255
-0.05837023 -0.08320668 0.174178 255 0 255
-0.05125896 -0.0845752 0.1762514 255 0 255
-0.05021962 -0.08517268 0.17731 255 0 255
-0.04614514 -0.08800121 0.1823886 255 0 255
-0.04190223 -0.09080604 0.1874204 255 0 255
-0.0406285 -0.09093235 0.1875744 255 0 255
0.08956388 -0.08965386 0.1796106 255 0 255
0.09329667 -0.08922035 0.178725 255 0 255
0.105671 -0.08564409 0.1717885 255 0 255
0.1093008 -0.08510998 0.1707401 255 0 255
0.1108255 -0.08537214 0.1712197 255 0 255
0.1120347 -0.08518601 0.1708568 255 0 255
0.1194171 -0.08598435 0.1723022 255 0 255
0.1381724 -0.08660424 0.1733932 255 0 255
0.1402162 -0.08568604 0.1716656 255 0 255
-0.07871579 -0.07484956 0.157487 255 0 255
-0.07134572 -0.07950661 0.1656196 255 0 255
-0.06948726 -0.08076973 0.1678424 255 0 255
-0.06566509 -0.08328084 0.1722586 255 0 255
-0.06082616 -0.08396222 0.1731744 255 0 255
-0.0571862 -0.08444738 0.1738179 255 0 255
-0.0549546 -0.08521301 0.1750943 255 0 255
-0.04902096 -0.08640661 0.1769169 255 0 255
-0.04208551 -0.09239445 0.1876994 255 0 255
0.07613523 -0.09598928 0.1890768 255 0 255
0.08854464 -0.09138372 0.1801526 255 0 255
0.09353992 -0.09080816 0.178977 255 0 255
0.09672832 -0.08943949 0.1763555 255 0 255
0.09891527 -0.08866876 0.1748752 255 0 255
0.1178494 -0.08686879 0.1712633 255 0 255
0.1190619 -0.08666795 0.1708766 255 0 255
0.1202727 -0.08646457 0.1704858 255 0 255
0.1333546 -0.08715197 0.1716798 255 0 255
0.1410169 -0.08460277 0.1669036 255 0 255
-0.08300032 -0.07460906 0.1549376 255 0 255
-0.0784585 -0.07543054 0.1560933 255 0 255
-0.06832948 -0.08201279 0.1675257 255 0 255
-0.06618761 -0.08282223 0.168869 255 0 255
-0.06305138 -0.08424947 0.1712896 255 0 255
-0.05942877 -0.08474912 0.1719551 255 0 255
-0.05821918 -0.08491073 0.1721686 255 0 255
-0.05478468 -0.08583878 0.1736509 255 0 255
0.1009763 -0.09099854 0.1764833 255 0 255
0.1242344 -0.08740669 0.1695117 255 0 255
0.1333394 -0.0882916 0.1710712 255 0 255
0.1439004 -0.07987619 0.155489 255 0 255
-0.0767713 -0.07774717 0.1577956 255 0 255
-0.07296503 -0.07987558 0.1614187 255 0 255
-0.0702284 -0.08179705 0.1647485 255 0 255
-0.04889967 -0.08811883 0.1748848 255 0 255
-0.04589665 -0.09039345 0.1788803 255 0 255
0.08017544 -0.09842391 0.1879402 255 0 255
0.09176612 -0.09475723 0.1809049 255 0 255
0.09875393 -0.09291339 0.1773641 255 0 255
0.1059226 -0.08943865 0.1708423 255 0 255
0.1074444 -0.08971893 0.1713313 255 0 255
0.1138433 -0.08924767 0.1703639 255 0 255
0.1178163 -0.0891127 0.1700592 255 0 255
0.1214495 -0.08850046 0.168888 255 0 255
0.1273564 -0.08899301 0.1697212 255 0 255
0.128934 -0.08921919 0.1701186 255 0 255
0.141792 -0.08774044 0.1672981 255 0 255
-0.0810887 -0.07751049 0.1552673 255 0 255
-0.0648179 -0.08466297 0.1671014 255 0 255
-0.04501337 -0.09256231 0.1801874 255 0 255
-0.04392248 -0.09316508 0.1812191 255 0 255
0.07738554 -0.09639744 0.1815734 255 0 255
0.0842495 -0.09967591 0.1873715 255 0 255
0.08971296 -0.09711923 0.1825666 255 0 255
0.1024636 -0.09354994 0.1757711 255 0 255
0.1062064 -0.09101079 0.1710719 255 0 255
0.107732 -0.09129366 0.1715581 255 0 255
0.1198788 -0.08936993 0.1678526 255 0 255
0.1373353 -0.0903006 0.1693181 255 0 255
0.1417757 -0.08887215 0.1666823 255 0 255
0.1445875 -0.08880812 0.1665411 255 0 255
-0.07912588 -0.07939372 0.1561229 255 0 255
-0.07095226 -0.08278612 0.161653 255 0 255
-0.06171247 -0.08716255 0.1689173 255 0 255
-0.05709873 -0.08828416 0.1706334 255 0 255
-0.0450433 -0.0936629 0.179584 255 0 255
0.0809853 -0.09966436 0.1847112 255 0 255
0.0851322 -0.10273 0.1901392 255 0 255
0.1007976 -0.09641229 0.1783233 255 0 255
0.1020522 -0.09624601 0.1779945 255 0 255
0.103975 -0.09497306 0.1756533 255 0 255
0.1226214 -0.09052272 0.1672695 255 0 255
0.1276828 -0.09169761 0.169305 255 0 255
0.1288986 -0.09147489 0.1688854 255 0 255
-0.07162891 -0.08270925 0.1591299 255 0 255
-0.06701872 -0.08595128 0.1646157 255 0 255
-0.06414748 -0.08788133 0.1678778 255 0 255
-0.06271821 -0.087586 0.167252 255 0 255
-0.06075826 -0.088861 0.1694057 255 0 255
-0.04811715 -0.09244532 0.1750124 255 0 255
-0.04507327 -0.09476105 0.1789763 255 0 255
-0.0391593 -0.09241807 0.1744086 255 0 255
0.09218552 -0.1016349 0.1852348 255 0 255
0.1016152 -0.09896111 0.1802035 255 0 255
0.1025978 -0.09832235 0.1790363 255 0 255
0.104827 -0.09750962 0.1775287 255 0 255
0.121047 -0.091384 0.1662344 255 0 255
0.122953 -0.09209507 0.1674686 255 0 255
0.1288795 -0.09259906 0.1682624 255 0 255
0.1372989 -0.09256693 0.1680679 255 0 255
-0.05979539 -0.09056321 0.1698828 255 0 255
-0.05312697 -0.08993273 0.1683343 255 0 255
-0.04635503 -0.09571965 0.1781971 255 0 255
-0.0452689 -0.09633591 0.1792263 255 0 255
0.08800171 -0.108296 0.1944863 255 0 255
0.08947807 -0.1056172 0.1896855 255 0 255
0.09576278 -0.1018598 0.1828363 255 0 255
0.0973077 -0.1021805 0.1833627 255 0 255
0.1008769 -0.10122 0.1815625 255 0 255
0.1050961 -0.09911797 0.1777252 255 0 255
0.1260677 -0.09370268 0.1676579 255 0 255
0.136504 -0.09278263 0.1658348 255 0 255
0.1421229 -0.09270628 0.1656042 255 0 255
0.146935 -0.09167513 0.1637068 255 0 255
0.146249 -0.08639123 0.1543902 255 0 255
0.1418029 -0.0803094 0.1437218 255 0 255
-0.07778477 -0.08218504 0.1538612 255 0 255
-0.0677716 -0.08691725 0.1615085 255 0 255
-0.06589151 -0.08822199 0.1636806 255 0 255
-0.05818738 -0.09083848 0.1677898 255 0 255
-0.05093063 -0.09176773 0.1689724 255 0 255
-0.04529906 -0.09743252 0.178608 255 0 255
-0.0440426 -0.09756781 0.1787712 255 0 255
0.09522719 -0.1046045 0.1850104 255 0 255
0.103686 -0.1025084 0.1810839 255 0 255
0.1082389 -0.09876814 0.1743887 255 0 255
0.1204863 -0.0947391 0.1670125 255 0 255
0.1460819 -0.09189013 0.1614977 255 0 255
-0.07145614 -0.08531274 0.156556 255 0 255
-0.06755456 -0.08747699 0.1600756 255 0 255
-0.05920733 -0.0912504 0.1661278 255 0 255
-0.05439227 -0.09188941 0.1669453 255 0 255
0.0918029 -0.1128202 0.1967672 255 0 255
0.09315261 -0.1126733 0.1964678 255 0 255
0.09753767 -0.1075413 0.1873833 255 0 255
0.1024834 -0.106404 0.1852524 255 0 255
0.1066025 -0.1016906 0.1769215 255 0 255
0.1113229 -0.0983833 0.1710316 255 0 255
0.1143711 -0.09685607 0.1682917 255 0 255
0.1296617 -0.09526239 0.1651408 255 0 255
0.1348695 -0.09479638 0.1642123 255 0 255
0.1360745 -0.09455667 0.1637691 255 0 255
0.1372776 -0.09431436 0.1633219 255 0 255
0.1470641 -0.0894753 0.1547203 255 0 255
0.1460733 -0.08693767 0.1503373 255 0 255
-0.07898676 -0.08399908 0.1524313 255 0 255
-0.07755893 -0.08373087 0.1518749 255 0 255
-0.06476278 -0.0904824 0.1627239 255 0 255
-0.0566229 -0.092141 0.165092 255 0 255
0.09961195 -0.1100088 0.188892 255 0 255
0.1047698 -0.1067386 0.1830826 255 0 255
0.117673 -0.09688922 0.1657086 255 0 255
0.1252858 -0.09609944 0.1641434 255 0 255
0.128063 -0.09612801 0.164121 255 0 255
0.1444333 -0.0939154 0.1599161 255 0 255
0.1456227 -0.09365476 0.1594407 255 0 255
0.1479954 -0.09312582 0.1584781 255 0 255
0.1474699 -0.09102371 0.1548733 255 0 255
0.1473446 -0.08938327 0.1520544 255 0 255
-0.05861793 -0.09188747 0.1623794 255 0 255
-0.0508301 -0.09444455 0.1663032 255 0 255
-0.04962121 -0.09459134 0.1664847 255 0 255
-0.04505788 -0.0997219 0.1750191 255 0 255
0.0977154 -0.1129769 0.1913451 255 0 255
0.1027625 -0.1118301 0.1892135 255 0 255
0.1079067 -0.108514 0.1833708 255 0 255
0.116766 -0.09867223 0.1662623 255 0 255
0.1204173 -0.09805743 0.1651047 255 0 255
0.1304516 -0.0967777 0.1626367 255 0 255
0.1455999 -0.09476033 0.1587996 255 0 255
0.1490451 -0.0923074 0.1545316 255 0 255
0.1408033 -0.07793617 0.1302204 255 0 255
0.1414118 -0.07722294 0.1289906 255 0 255
-0.0697348 -0.08970273 0.1569663 255 0 255
-0.06856599 -0.08988868 0.1572115 255 0 255
-0.06622501 -0.09025329 0.1576903 255 0 255
-0.06529234 -0.09091844 0.158764 255 0 255
-0.05626465 -0.09324577 0.162186 255 0 255
-0.05307769 -0.09469758 0.1644683 255 0 255
-0.04965065 -0.09563906 0.1658721 255 0 255
0.1038214 -0.1176143 0.1963046 255 0 255
0.1080161 -0.1123063 0.1871545 255 0 255
0.1098745 -0.1083276 0.1803428 255 0 255
0.1112214 -0.1059994 0.1763494 255 0 255
0.116741 -0.09977429 0.1656172 255 0 255
0.1219531 -0.0994293 0.1648715 255 0 255
0.1276497 -0.097857 0.1620363 255 0 255
0.1344156 -0.09765039 0.1614894 255 0 255
0.1388122 -0.09620256 0.1589139 255 0 255
0.1435612 -0.09518816 0.1570664 255 0 255
0.1447435 -0.09492818 0.1565946 255 0 255
0.1487957 -0.09626439 0.1587465 255 0 255
0.1487052 -0.09459813 0.1559304 255 0 255
0.1490217 -0.09339852 0.1538932 255 0 255
-0.06693093 -0.09011361 0.1551786 255 0 255
-0.06319835 -0.09278426 0.1594563 255 0 255
-0.0586767 -0.09395409 0.1611658 255 0 255
-0.05069961 -0.09604002 0.1642273 255 0 255
-0.04691779 -0.09960449 0.1700201 255 0 255
0.1070251 -0.1168073 0.1920912 255 0 255
0.1104432 -0.1104619 0.1812993 255 0 255
0.1158943 -0.1037139 0.1697689 255 0 255
0.1288278 -0.09872691 0.1609709 255 0 255
0.1383891 -0.09682368 0.1574818 255 0 255
0.1407605 -0.09632228 0.1565695 255 0 255
0.1419432 -0.09606775 0.1561073 255 0 255
0.1500191 -0.092542 0.1499597 255 0 255
0.1505451 -0.09013275 0.1459054 255 0 255
-0.08054923 -0.09042951 0.1542073 255 0 255
-0.06299566 -0.0933146 0.1580087 255 0 255
-0.05848943 -0.09448721 0.1597123 255 0 255
0.111599 -0.1184432 0.1919525 255 0 255
0.1133051 -0.11173 0.1806992 255 0 255
0.123977 -0.1007115 0.1619662 255 0 255
0.1387612 -0.09839188 0.1576155 255 0 255
0.1518545 -0.09259635 0.1475656 255 0 255
0.1516556 -0.09091672 0.144779 255 0 255
0.129353 -0.06408343 0.1008413 255 0 255
-0.08057852 -0.09144152 0.1535998 255 0 255
-0.07340533 -0.09000909 0.1508249 255 0 255
-0.06789994 -0.0914521 0.152902 255 0 255
-0.06490061 -0.09298683 0.1552733 255 0 255
-0.06302483 -0.09433343 0.1573968 255 0 255
0.1185508 -0.1038477 0.1648807 255 0 255
0.1206557 -0.102938 0.1633016 255 0 255
0.1243036 -0.1022937 0.1621063 255 0 255
0.1255161 -0.1020737 0.1616997 255 0 255
0.1267269 -0.1018511 0.161289 255 0 255
0.1291431 -0.1013981 0.1604555 255 0 255
0.143484 -0.09846293 0.1551158 255 0 255
-0.07458179 -0.09080716 0.1499614 255 0 255
-0.07343397 -0.09100454 0.1502218 255 0 255
-0.06701764 -0.09313512 0.1533641 255 0 255
-0.06468965 -0.09349599 0.1538296 255 0 255
-0.06069448 -0.09569446 0.1572192 255 0 255
-0.05854778 -0.09653234 0.1584783 255 0 255
-0.05399512 -0.09767945 0.1601173 255 0 255
-0.04874064 -0.1004587 0.1643987 255 0 255
0.1111188 -0.1176214 0.1852691 255 0 255
0.1177068 -0.1078426 0.1689915 255 0 255
0.1299481 -0.1017688 0.1585828 255 0 255
0.1430438 -0.09906767 0.1536838 255 0 255
0.1484054 -0.08680809 0.1334408 255 0 255
-0.07461034 -0.09179971 0.1493547 255 0 255
-0.0647184 -0.09449911 0.1532163 255 0 255
-0.06355284 -0.09467627 0.1534429 255 0 255
-0.05857692 -0.09755117 0.1578553 255 0 255
-0.04390696 -0.10206 0.1644288 255 0 255
0.1153855 -0.1236578 0.1922871 255 0 255
0.1158384 -0.1219431 0.1894829 255 0 255
0.1182167 -0.1210359 0.1879127 255 0 255
0.1180414 -0.1160958 0.1798947 255 0 255
0.1198336 -0.1080406 0.166739 255 0 255
0.1258162 -0.104752 0.1611617 255 0 255
0.1311191 -0.1026208 0.157494 255 0 255
0.1319378 -0.1018933 0.1562812 255 0 255
0.1359005 -0.1016627 0.1557535 255 0 255
0.1386776 -0.1016562 0.1556362 255 0 255
0.1406515 -0.1006633 0.1539491 255 0 255
0.1434274 -0.1006331 0.1537942 255 0 255
0.1510402 -0.1012197 0.1544582 255 0 255
-0.07693083 -0.09238599 0.1482129 255 0 255
-0.07606354 -0.09308916 0.1493005 255 0 255
-0.07207518 -0.09268191 0.1484371 255 0 255
-0.07092879 -0.09287471 0.1486883 255 0 255
-0.06591158 -0.09531967 0.1523687 255 0 255
-0.06358147 -0.09567735 0.1528253 255 0 255
-0.06241487 -0.09585251 0.1530477 255 0 255
-0.04636981 -0.1028209 0.1634642 255 0 255
0.1186291 -0.1115786 0.1700221 255 0 255
0.1282133 -0.1053911 0.1596622 255 0 255
0.1526472 -0.09189526 0.1369608 255 0 255
0.1491361 -0.0868478 0.1289791 255 0 255
-0.0769591 -0.09337269 0.147599 255 0 255
-0.06244348 -0.09685148 0.1524259 255 0 255
-0.06033189 -0.09770718 0.1536875 255 0 255
0.118483 -0.1289246 0.1952511 255 0 255
0.1207765 -0.1302528 0.1972725 255 0 255
0.1201864 -0.1129943 0.1697346 255 0 255
0.1382194 -0.1033245 0.1535229 255 0 255
0.1394062 -0.1030725 0.1530703 255 0 255
0.1441339 -0.1020387 0.1512204 255 0 255
0.1554702 -0.09158576 0.1340647 255 0 255
-0.07870323 -0.09516089 0.1483388 255 0 255
-0.06779101 -0.09592127 0.1490081 255 0 255
-0.06036059 -0.09870779 0.1530592 255 0 255
-0.0582297 -0.09955987 0.1543052 255 0 255
-0.05271929 -0.1013965 0.1569469 255 0 255
-0.04904134 -0.1051196 0.1626665 255 0 255
0.1197653 -0.1248884 0.1861172 255 0 255
0.121147 -0.115643 0.1714136 255 0 255
0.1217485 -0.1144092 0.1694327 255 0 255
0.1255671 -0.1097577 0.1618958 255 0 255
0.1264374 -0.1090272 0.1607002 255 0 255
0.1425114 -0.1028787 0.1502503 255 0 255
0.1452791 -0.1028454 0.1500752 255 0 255
-0.06366707 -0.09866553 0.1509489 255 0 255
-0.05610842 -0.1014104 0.1549007 255 0 255
-0.05414095 -0.1027726 0.1569467 255 0 255
-0.04750683 -0.1090668 0.1665175 255 0 255
0.1201209 -0.1243085 0.1825902 255 0 255
0.1214768 -0.1195511 0.175056 255 0 255
0.1264043 -0.1101162 0.1600104 255 0 255
0.1345831 -0.1062131 0.1535019 255 0 255
0.1452466 -0.1039143 0.1493984 255 0 255
-0.06963413 -0.09647839 0.1456414 255 0 255
-0.0571079 -0.1017271 0.1532346 255 0 255
-0.05592765 -0.1018901 0.1534337 255 0 255
-0.04928332 -0.107708 0.1621846 255 0 255
0.1216647 -0.1280717 0.1858146 255 0 255
0.1227503 -0.1227602 0.1774906 255 0 255
0.123688 -0.1197399 0.1727417 255 0 255
0.1252287 -0.1177513 0.1695707 255 0 255
0.1267273 -0.1117149 0.1600974 255 0 255
0.1325378 -0.1082744 0.1544592 255 0 255
0.1424454 -0.105009 0.1488955 255 0 255
0.1568677 -0.1021764 0.1437864 255 0 255
-0.07645106 -0.08547613 0.1268258 255 0 255
-0.0765814 -0.08772999 0.1303123 255 0 255
-0.07697412 -0.09050085 0.1346088 255 0 255
-0.05200333 -0.1056334 0.1568501 255 0 255
-0.04791707 -0.11222 0.1668332 255 0 255
0.1244701 -0.1339559 0.1921805 255 0 255
0.1252745 -0.1211699 0.172393 255 0 255
0.1277629 -0.1143489 0.1617336 255 0 255
0.1365047 -0.1073475 0.1504818 255 0 255
0.1408255 -0.1058253 0.1479134 255 0 255
0.1502987 -0.105451 0.1468583 255 0 255
0.1595602 -0.1000767 0.1380858 255 0 255
-0.07630966 -0.08813144 0.1289126 255 0 255
-0.07677455 -0.09319211 0.1366828 255 0 255
-0.05283544 -0.1054234 0.1543617 255 0 255
-0.05000445 -0.108014 0.1582017 255 0 255
-0.04847847 -0.1109817 0.1626766 255 0 255
-0.04794754 -0.1132674 0.1661519 255 0 255
0.1265235 -0.122077 0.1712479 255 0 255
0.1331415 -0.1132309 0.157355 255 0 255
0.1372561 -0.1094316 0.1513201 255 0 255
0.1439658 -0.1073717 0.147814 255 0 255
0.1463176 -0.1068349 0.1468682 255 0 255
0.1526011 -0.1059486 0.1451803 255 0 255
0.1540362 -0.104375 0.1426927 255 0 255
-0.07589892 -0.08624502 0.1240464 255 0 255
-0.06446423 -0.1013753 0.1465405 255 0 255
-0.04587506 -0.1117649 0.1615082 255 0 255
0.1269202 -0.1283879 0.1783591 255 0 255
0.131394 -0.115832 0.1590445 255 0 255
0.1359871 -0.1125429 0.1538001 255 0 255
0.1502262 -0.1075725 0.1454741 255 0 255
0.1565409 -0.1035486 0.1390094 255 0 255
-0.07575344 -0.08484932 0.1200013 255 0 255
-0.07682751 -0.09507304 0.1354439 255 0 255
-0.07167901 -0.1017474 0.1452862 255 0 255
-0.05388174 -0.1067252 0.1520396 255 0 255
0.1454871 -0.1097305 0.1467021 255 0 255
0.1478419 -0.109185 0.1457468 255 0 255
0.1517949 -0.1088557 0.1450268 255 0 255
0.1599193 -0.1036922 0.1367734 255 0 255
-0.06633492 -0.1018839 0.143176 255 0 255
-0.04821438 -0.1169378 0.1649036 255 0 255
0.1288363 -0.1315312 0.1779645 255 0 255
0.1298218 -0.1307672 0.1767676 255 0 255
0.1326303 -0.1219318 0.1634025 255 0 255
0.1426743 -0.1108045 0.1461869 255 0 255
0.1454484 -0.1107861 0.1459985 255 0 255
0.1489774 -0.1099626 0.1445606 255 0 255
-0.07462341 -0.08859132 0.1217308 255 0 255
-0.07577132 -0.09715028 0.134454 255 0 255
-0.06979907 -0.1022777 0.1418211 255 0 255
-0.06382477 -0.1026727 0.1421743 255 0 255
-0.05429969 -0.1063688 0.1472686 255 0 255
-0.05255413 -0.1083185 0.1500842 255 0 255
-0.05087047 -0.1142409 0.1587814 255 0 255
0.1307586 -0.1406561 0.1888884 255 0 255
0.1308054 -0.1382762 0.1853581 255 0 255
0.1378565 -0.1165503 0.1527315 255 0 255
0.1402871 -0.1142075 0.1491117 255 0 255
0.1442283 -0.1121087 0.1457619 255 0 255
0.1517159 -0.110966 0.1436144 255 0 255
-0.07593267 -0.08567981 0.1156006 255 0 255
-0.07434985 -0.08894238 0.1203388 255 0 255
-0.07477574 -0.09180616 0.1245624 255 0 255
-0.07497261 -0.1011666 0.1383225 255 0 255
-0.05549728 -0.10718 0.1464166 255 0 255
-0.05376554 -0.1091435 0.1492312 255 0 255
-0.05217859 -0.1116519 0.1528503 255 0 255
0.1321259 -0.1368327 0.1806098 255 0 255
0.1402464 -0.115266 0.148394 255 0 255
0.1472972 -0.1118201 0.1428854 255 0 255
0.1500689 -0.1117821 0.1426567 255 0 255
-0.07437413 -0.08981989 0.119738 255 0 255
-0.07438909 -0.09632523 0.1292193 255 0 255
-0.07471364 -0.09921681 0.1334444 255 0 255
-0.07273603 -0.1025175 0.1381838 255 0 255
-0.05281039 -0.1108335 0.1495555 255 0 255
-0.04991508 -0.1210051 0.1642478 255 0 255
0.1330306 -0.1348177 0.1751105 255 0 255
0.1346496 -0.1242101 0.1595344 255 0 255
0.1359007 -0.1239619 0.1590946 255 0 255
0.1397998 -0.1176414 0.1496247 255 0 255
-0.07423621 -0.09251312 0.1217567 255 0 255
-0.0741275 -0.09669594 0.1277992 255 0 255
-0.0733435 -0.1021755 0.135692 255 0 255
-0.06683238 -0.1038863 0.1379383 255 0 255
-0.05303806 -0.112369 0.1496861 255 0 255
-0.05048444 -0.1237133 0.1659642 255 0 255
0.1357179 -0.1269177 0.1610515 255 0 255
0.1383534 -0.1245471 0.1574513 255 0 255
0.1468833 -0.1152346 0.1434067 255 0 255
0.148063 -0.1149575 0.1429272 255 0 255
-0.07569347 -0.0877145 0.1130401 255 0 255
-0.07436576 -0.09576872 0.1245479 255 0 255
-0.0677363 -0.1040892 0.1362551 255 0 255
-0.06369241 -0.1059312 0.1387559 255 0 255
-0.05934456 -0.1071895 0.1404063 255 0 255
-0.05841689 -0.1079145 0.1414118 255 0 255
0.1342326 -0.1301398 0.1634322 255 0 255
0.1356729 -0.1280155 0.1602883 255 0 255
0.1400763 -0.1221664 0.1515968 255 0 255
0.1468394 -0.1162788 0.142681 255 0 255
0.1513994 -0.1132843 0.138063 255 0 255
-0.07417753 -0.09850439 0.1265344 255 0 255
-0.07284414 -0.1029455 0.1328074 255 0 255
-0.06949065 -0.1035372 0.1335415 255 0 255
-0.06863105 -0.1042811 0.1345711 255 0 255
-0.05937195 -0.108137 0.1397408 255 0 255
-0.05728993 -0.1090345 0.1409439 255 0 255
-0.05444105 -0.111206 0.1439281 255 0 255
0.1395081 -0.1264604 0.1554845 255 0 255
0.1420716 -0.122167 0.1491899 255 0 255
0.1463734 -0.1167859 0.1412182 255 0 255
0.1475494 -0.1165087 0.1407409 255 0 255
0.1487233 -0.1162289 0.1402597 255 0 255
0.1494633 -0.1154148 0.139046 255 0 255
0.1506295 -0.1151305 0.1385585 255 0 255
0.1548235 -0.1134401 0.1358486 255 0 255
-0.07613025 -0.088116 0.1100243 255 0 255
-0.07573949 -0.08941226 0.1118426 255 0 255
-0.07370567 -0.1031154 0.1311153 255 0 255
-0.06577743 -0.1068887 0.1361891 255 0 255
-0.05753602 -0.1105447 0.14107 255 0 255
-0.04913939 -0.1223037 0.1573375 255 0 255
0.1308276 -0.1385256 0.1708304 255 0 255
0.1372158 -0.1304976 0.1590552 255 0 255
0.140231 -0.1286317 0.1562099 255 0 255
0.1436367 -0.1216084 0.1460376 255 0 255
0.1479283 -0.11808 0.140739 255 0 255
0.1505837 -0.1161608 0.1378305 255 0 255
0.1577665 -0.1130392 0.1328837 255 0 255
-0.07607212 -0.0908062 0.1120154 255 0 255
-0.06868324 -0.1061357 0.133252 255 0 255
-0.05661922 -0.1122268 0.141385 255 0 255
-0.05274424 -0.1187081 0.1503087 255 0 255
-0.05192016 -0.1200029 0.1520887 255 0 255
0.1387095 -0.1499734 0.1839435 255 0 255
0.1373559 -0.1384223 0.1678459 255 0 255
0.1447916 -0.1223867 0.1448215 255 0 255
0.1577194 -0.114057 0.1321586 255 0 255
-0.07465123 -0.09745581 0.1194267 255 0 255
-0.07401586 -0.103072 0.1272049 255 0 255
-0.05874938 -0.1122697 0.1395104 255 0 255
-0.05590505 -0.1144806 0.1424835 255 0 255
0.1392626 -0.1316093 0.1558551 255 0 255
0.1470747 -0.1209701 0.1404641 255 0 255
0.1497544 -0.1190393 0.1375709 255 0 255
-0.07558368 -0.09568837 0.1151783 255 0 255
-0.05360993 -0.1193634 0.1471162 255 0 255
0.1399558 -0.149581 0.1783297 255 0 255
0.1395306 -0.1465204 0.1741375 255 0 255
0.1391317 -0.1390366 0.1638388 255 0 255
0.144711 -0.1263991 0.1459702 255 0 255
0.1470919 -0.1239235 0.1423671 255 0 255
0.1501368 -0.1206086 0.137548 255 0 255
-0.07675997 -0.09445262 0.1117166 255 0 255
-0.07590928 -0.09710522 0.1153219 255 0 255
-0.07296654 -0.1050782 0.126141 255 0 255
-0.06563344 -0.1100373 0.1327166 255 0 255
-0.06385294 -0.1115476 0.1347274 255 0 255
-0.05973459 -0.113407 0.1371454 255 0 255
-0.05617225 -0.1169607 0.1418845 255 0 255
0.1423387 -0.1362964 0.1575081 255 0 255
0.1450666 -0.1280025 0.1459305 255 0 255
0.1554811 -0.119623 0.1336067 255 0 255
0.1580313 -0.117633 0.1306651 255 0 255
-0.07749703 -0.09452593 0.1100619 255 0 255
-0.07678235 -0.09529739 0.1110926 255 0 255
-0.07548272 -0.09929717 0.1164863 255 0 255
-0.07472181 -0.1000678 0.1175135 255 0 255
-0.07244388 -0.107313 0.127276 255 0 255
-0.06363747 -0.1119006 0.1332604 255 0 255
-0.0606832 -0.1135898 0.1354645 255 0 255
-0.05620037 -0.1179122 0.1411818 255 0 255
0.1450037 -0.1309979 0.1478048 255 0 255
0.1493791 -0.1254341 0.1398836 255 0 255
0.1504665 -0.1232065 0.1367616 255 0 255
0.1535476 -0.121782 0.1345696 255 0 255
-0.0699821 -0.1080426 0.1263151 255 0 255
-0.06580175 -0.1093857 0.1280167 255 0 255
-0.05469013 -0.1215213 0.1439992 255 0 255
-0.05409617 -0.1234338 0.1465465 255 0 255
-0.05264396 -0.1266762 0.1508508 255 0 255
0.1446204 -0.1534085 0.1758508 255 0 255
0.1497502 -0.1270219 0.1398327 255 0 255
0.1534952 -0.1227999 0.1338141 255 0 255
0.1599977 -0.1204315 0.130059 255 0 255
-0.07221685 -0.1085397 0.1251586 255 0 255
-0.06073685 -0.1154433 0.1340785 255 0 255
-0.05721596 -0.1190532 0.138789 255 0 255
0.1451935 -0.1531552 0.1730415 255 0 255
0.1446892 -0.1500326 0.1689042 255 0 255
0.147352 -0.1325517 0.1452836 255 0 255
0.147751 -0.1311473 0.1433684 255 0 255
0.1515371 -0.1249578 0.1347506 255 0 255
-0.07746935 -0.09895702 0.1107217 255 0 255
-0.07525931 -0.1082392 0.122965 255 0 255
-0.07224126 -0.1094328 0.1244824 255 0 255
