ply
format ascii 1.0
Comment Generated by Floating Hands
element vertex 1075
Comment Left: (0.0, 0.0, 0.0)
Comment Right: (0.2, -0.1, 0.4)
property double x
property double y
property double z
property uchar red
property uchar green
property uchar blue
end_header
0.0990698 0.006157056 0.3977498 205 205 205
0.09887618 0.007578229 0.3925275 205 205 205
0.09937914 0.00801921 0.391258 205 205 205
0.09987348 0.008460063 0.389988 205 205 205
0.09929439 0.003685288 0.4027258 205 205 205
0.0990421 0.004505235 0.3996606 205 205 205
0.09929445 0.005768529 0.3953301 205 205 205
0.09955613 0.007648433 0.3888516 205 205 205
0.09859645 0.003025955 0.4006696 205 205 205
0.09928168 0.004119854 0.3972348 205 205 205
0.09939971 0.004758499 0.3950727 205 205 205
0.09991837 0.005209853 0.3938031 205 205 205
0.1000087 0.005845462 0.3916442 205 205 205
0.0987016 0.001997036 0.4004028 205 205 205
0.09938659 0.003103068 0.3969713 205 205 205
0.1001875 0.005490229 0.3892317 205 205 205
0.09920911 0.0007727037 0.4010257 205 205 205
0.09949081 0.00208753 0.3967037 205 205 205
0.100544 0.003009052 0.3941668 205 205 205
0.09810304 0.000343769 0.3980713 205 205 205
0.09959434 0.00107321 0.396432 205 205 205
0.1001253 0.001538182 0.3951651 205 205 205
0.1006476 0.002003114 0.3938976 205 205 205
0.1007404 0.002663511 0.3917437 205 205 205
0.0990129 -0.00108221 0.3995779 205 205 205
0.09956476 -0.0006121541 0.398312 205 205 205
0.1012643 0.001467534 0.3923575 205 205 205
0.1011597 -0.0008882185 0.3963855 205 205 205
0.1016891 -0.0004128989 0.3951176 205 205 205
0.0996215 -0.003340296 0.3998974 205 205 205
0.099769 -0.002650267 0.3977442 205 205 205
0.1007238 -0.002381457 0.3973671 205 205 205
0.100847 -0.001693312 0.3952154 205 205 205
0.1012372 -0.003611508 0.3979632 205 205 205
0.1013636 -0.002914465 0.3958125 205 205 205
0.102312 -0.002642206 0.3954301 205 205 205
0.1024139 -0.001947174 0.393281 205 205 205
0.1029261 -0.001463579 0.3920146 205 205 205
0.1013384 -0.004630544 0.3976683 205 205 205
0.101994 -0.003437833 0.3942558 205 205 205
0.1025149 -0.002950009 0.392991 205 205 205
0.09951795 -0.00618849 0.398122 205 205 205
0.1010263 -0.005427461 0.3964857 205 205 205
0.1015646 -0.004935458 0.3952234 205 205 205
0.1001691 -0.006710694 0.3965603 205 205 205
0.1016641 -0.005943994 0.3949229 205 205 205
0.1027148 -0.004951746 0.3923992 205 205 205
0.1010871 -0.008180945 0.3980201 205 205 205
0.1012244 -0.007451447 0.3958781 205 205 205
0.1017629 -0.006951167 0.3946184 205 205 205
0.1023898 -0.005725395 0.39122 205 205 205
0.1028987 -0.005226159 0.3899601 205 205 205
0.1011854 -0.009198741 0.3977078 205 205 205
0.1018609 -0.007956972 0.3943099 205 205 205
0.10197 -0.007222606 0.3921734 205 205 205
0.1024876 -0.006719192 0.3909153 205 205 205
0.1034242 -0.006443757 0.3905315 205 205 205
0.1029253 -0.0111617 0.400914 205 205 205
0.1023758 -0.009196059 0.3948753 205 205 205
0.1024881 -0.008452823 0.3927399 205 205 205
0.1035217 -0.007435751 0.3902231 205 205 205
0.1028908 -0.01044111 0.3954344 205 205 205
0.1034276 -0.009926367 0.3941753 205 205 205
0.1035309 -0.009175339 0.3920419 205 205 205
0.1040468 -0.008661647 0.3907832 205 205 205
0.1039437 -0.01370786 0.4020165 205 205 205
0.1032713 -0.01245501 0.3981225 205 205 205
0.1034057 -0.01169215 0.3959872 205 205 205
0.1035243 -0.01093125 0.393854 205 205 205
0.1036296 -0.01449446 0.400804 205 205 205
0.1036203 -0.01193477 0.3935287 205 205 205
0.1041485 -0.01141175 0.3922718 205 205 205
0.104668 -0.01088876 0.3910145 205 205 205
0.1026328 -0.01399105 0.3957086 205 205 205
0.1031785 -0.01346394 0.3944543 205 205 205
0.1027272 -0.01499991 0.3953725 205 205 205
0.103273 -0.01446869 0.3941196 205 205 205
0.10381 -0.01393742 0.3928662 205 205 205
0.1033667 -0.01547198 0.393781 205 205 205
0.1039038 -0.01493662 0.392529 205 205 205
0.1024974 -0.01675189 0.3938177 205 205 205
0.1046144 -0.01459815 0.38882 205 205 205
0.1035521 -0.01747413 0.3930919 205 205 205
0.1040893 -0.01693056 0.3918428 205 205 205
0.1047065 -0.01558251 0.3884791 205 205 205
0.103784 -0.02037725 0.3978437 205 205 205
0.1036437 -0.018473 0.3927415 205 205 205
0.1043667 -0.01630088 0.3872717 205 205 205
0.103606 -0.02029439 0.3944995 205 205 205
0.1037345 -0.01947033 0.392387 205 205 205
0.1031382 -0.02185473 0.3953831 205 205 205
0.1038247 -0.02046616 0.3920287 205 205 205
0.1039371 -0.01963645 0.3899213 205 205 205
0.1044621 -0.0190816 0.3886775 205 205 205
0.1041146 -0.01798321 0.3857132 205 205 205
0.1040262 -0.02062304 0.3895619 205 205 205
0.1042031 -0.01895441 0.3853596 205 205 205
0.101104 -0.02328937 0.3924243 205 205 205
0.1029019 -0.02358115 0.3937816 205 205 205
0.1034567 -0.02301722 0.3925413 205 205 205
0.1036891 -0.02132695 0.3883384 205 205 205
0.1042106 -0.02076502 0.3870991 205 205 205
0.1042909 -0.01992406 0.385002 205 205 205
0.100221 -0.02455687 0.3924213 205 205 205
0.1007792 -0.02399308 0.3911892 205 205 205
0.1025745 -0.02429266 0.3925455 205 205 205
0.1040907 -0.02344443 0.3909302 205 205 205
0.1027578 -0.027309 0.3972323 205 205 205
0.1041779 -0.02443408 0.3905563 205 205 205
0.1038629 -0.02328519 0.3876029 205 205 205
0.1043845 -0.02271514 0.3863668 205 205 205
0.1048973 -0.0221451 0.3851302 205 205 205
0.1033401 -0.02963108 0.3973159 205 205 205
0.1042237 -0.02728641 0.3918887 205 205 205
0.1043501 -0.02640859 0.3897967 205 205 205
0.1045555 -0.02465904 0.3856191 205 205 205
0.1050683 -0.0240809 0.3843857 205 205 205
0.1042448 -0.03125146 0.3986397 205 205 205
0.1040091 -0.03005586 0.3956845 205 205 205
0.1050705 -0.02592672 0.3860914 205 205 205
0.1055868 -0.0253435 0.3848583 205 205 205
0.1040943 -0.03106198 0.3952858 205 205 205
0.1042518 -0.03016492 0.3931956 205 205 205
0.1043935 -0.02926979 0.3911075 205 205 205
0.1049432 -0.02868046 0.3898748 205 205 205
0.1050567 -0.02778834 0.3877896 205 205 205
0.1051545 -0.02689831 0.3857067 205 205 205
0.1056708 -0.02631104 0.3844751 205 205 205
0.1046029 -0.02935828 0.3886282 205 205 205
0.1048065 -0.02756301 0.384469 205 205 205
0.1053193 -0.02697273 0.3832405 205 205 205
0.1018667 -0.03331923 0.3943646 205 205 205
0.1024481 -0.03272326 0.3931393 205 205 205
0.1026068 -0.0318131 0.3910587 205 205 205
0.1042612 -0.03002729 0.3873805 205 205 205
0.1048887 -0.02852776 0.384078 205 205 205
0.1049665 -0.02762569 0.382005 205 205 205
0.1021194 -0.03339902 0.3918771 205 205 205
0.1022744 -0.03248229 0.3898011 205 205 205
0.103379 -0.03128585 0.3873556 205 205 205
0.105483 -0.0288926 0.3824581 205 205 205
0.1019406 -0.03314265 0.3885425 205 205 205
0.1029118 -0.03286162 0.3881733 205 205 205
0.1034597 -0.03225936 0.386952 205 205 205
0.1044239 -0.03197512 0.3865775 205 205 205
0.1041006 -0.03073769 0.3836615 205 205 205
0.1050508 -0.03045239 0.3832846 205 205 205
0.1003078 -0.03593386 0.3917819 205 205 205
0.1022806 -0.03537556 0.3910528 205 205 205
0.1046984 -0.03109269 0.3820391 205 205 205
0.1052077 -0.03048744 0.3808188 205 205 205
0.1029292 -0.03575014 0.3894168 205 205 205
0.1034895 -0.03513889 0.3881982 205 205 205
0.104041 -0.03452759 0.386979 205 205 205
0.1045837 -0.03391622 0.3857591 205 205 205
0.1046884 -0.03298071 0.3836957 205 205 205
0.1017571 -0.03990364 0.3930632 205 205 205
0.103341 -0.03900029 0.3914807 205 205 205
0.1035016 -0.03804375 0.3894182 205 205 205
0.1040655 -0.03742351 0.3882017 205 205 205
0.1047405 -0.03585052 0.3849255 205 205 205
0.1054422 -0.03333427 0.379599 205 205 205
0.03573912 -0.04391172 0.3855027 205 205 205
0.04041705 -0.04282903 0.3838438 205 205 205
0.04117872 -0.04229958 0.3827835 205 205 205
0.04235698 -0.04253608 0.3835187 205 205 205
0.04332571 -0.04238646 0.3833514 205 205 205
0.102425 -0.04027182 0.3914161 205 205 205
0.1038311 -0.04032778 0.3918933 205 205 205
0.1039951 -0.0393627 0.3898327 205 205 205
0.1045625 -0.03873743 0.3886167 205 205 205
0.1046981 -0.03777526 0.3865588 205 205 205
0.1049216 -0.03585697 0.3824495 205 205 205
0.0312105 -0.04874972 0.3931351 205 205 205
0.03419032 -0.04587841 0.3871814 205 205 205
0.03579275 -0.04482981 0.3850957 205 205 205
0.03774874 -0.04455664 0.384802 205 205 205
0.03892303 -0.04480619 0.3855501 205 205 205
0.0401042 -0.04505246 0.3862935 205 205 205
0.04088208 -0.04451909 0.3852356 205 205 205
0.04186038 -0.04437237 0.3850735 205 205 205
0.04381453 -0.04407247 0.3847395 205 205 205
0.04434963 -0.04314763 0.382776 205 205 205
0.04531694 -0.04299359 0.3826022 205 205 205
0.1031279 -0.04292234 0.3947289 205 205 205
0.1039085 -0.04131706 0.3914551 205 205 205
0.1040721 -0.04034451 0.3893979 205 205 205
0.1046396 -0.03971529 0.3881837 205 205 205
0.1047749 -0.03874559 0.3861292 205 205 205
0.03486656 -0.04587978 0.3848269 205 205 205
0.03565982 -0.04535172 0.3837852 205 205 205
0.03682461 -0.04561055 0.3845399 205 205 205
0.04093695 -0.04543828 0.3848237 205 205 205
0.04289331 -0.04514232 0.3844965 205 205 205
0.04387026 -0.04499114 0.3843279 205 205 205
0.04462576 -0.04444837 0.3832618 205 205 205
0.04537279 -0.04390468 0.3821939 205 205 205
0.04755718 -0.0405624 0.375232 205 205 205
0.04258463 -0.0281607 0.3471279 205 205 205
0.1039852 -0.04230459 0.3910131 205 205 205
0.1047159 -0.04069133 0.3877469 205 205 205
0.1048509 -0.03971415 0.3856958 205 205 205
0.1049701 -0.038739 0.3836467 205 205 205
0.1050733 -0.0377659 0.3815999 205 205 205
0.1061077 -0.03650548 0.3791782 205 205 205
0.02638079 -0.05164429 0.393784 205 205 205
0.02872551 -0.05221481 0.3953601 205 205 205
0.03046108 -0.05116629 0.3933116 205 205 205
0.0316618 -0.04891066 0.3885508 205 205 205
0.03231775 -0.04798322 0.3866193 205 205 205
0.03295761 -0.04705565 0.3846865 205 205 205
0.03455409 -0.04599741 0.3826152 205 205 205
0.03552609 -0.04586475 0.3824745 205 205 205
0.03785592 -0.04638718 0.3839775 205 205 205
0.04001168 -0.04650077 0.384567 205 205 205
0.04176092 -0.04581392 0.3833517 205 205 205
0.04273516 -0.04566525 0.3831871 205 205 205
0.04392554 -0.04590809 0.3839127 205 205 205
0.04468111 -0.04536157 0.3828483 205 205 205
0.04542821 -0.04481411 0.3817821 205 205 205
0.04639519 -0.04465758 0.3816053 205 205 205
0.04903614 -0.04206401 0.3764241 205 205 205
0.04923744 -0.04073444 0.3735723 205 205 205
0.04891273 -0.03863095 0.3689484 205 205 205
0.104061 -0.04329028 0.3905672 205 205 205
0.1042241 -0.04230273 0.3885168 205 205 205
0.1050451 -0.03969829 0.3832129 205 205 205
0.1051481 -0.03871773 0.3811694 205 205 205
0.02964963 -0.0526412 0.3939025 205 205 205
0.03035373 -0.0517074 0.3919785 205 205 205
0.03171364 -0.04983875 0.3881262 205 205 205
0.03300918 -0.04796916 0.3842686 205 205 205
0.0338117 -0.04743686 0.3832357 205 205 205
0.03576465 -0.04717236 0.3829565 205 205 205
0.03674002 -0.04703691 0.3828121 205 205 205
0.04278952 -0.04657715 0.3827698 205 205 205
0.04473601 -0.04627309 0.3824312 205 205 205
0.04667906 -0.0459605 0.3820795 205 205 205
0.04885476 -0.04603351 0.3826032 205 205 205
0.05127316 -0.04474967 0.3802581 205 205 205
0.0519613 -0.03938604 0.3688615 205 205 205
0.1033562 -0.04591372 0.3933756 205 205 205
0.1056532 -0.04001661 0.3815674 205 205 205
0.1061783 -0.03937739 0.3803591 205 205 205
0.1062563 -0.03839157 0.3783209 205 205 205
0.02794875 -0.0546501 0.3955009 205 205 205
0.02867719 -0.05371072 0.3935843 205 205 205
0.0306023 -0.05048199 0.3869272 205 205 205
0.03159755 -0.05035731 0.3868003 205 205 205
0.03386297 -0.04834496 0.3828158 205 205 205
0.03815588 -0.04861519 0.3840324 205 205 205
0.0391377 -0.04847418 0.3838803 205 205 205
0.04032083 -0.04873412 0.3846176 205 205 205
0.04109898 -0.04818575 0.3835665 205 205 205
0.04305702 -0.04788871 0.3832397 205 205 205
0.04403478 -0.04773695 0.3830714 205 205 205
0.04793715 -0.04710855 0.3823657 205 205 205
0.05012317 -0.04717854 0.3828792 205 205 205
0.05182494 -0.04644594 0.3816083 205 205 205
0.05350764 -0.04570747 0.3803274 205 205 205
0.1030243 -0.04654758 0.3920768 205 205 205
0.104032 -0.04626055 0.3917093 205 205 205
0.1047903 -0.04461022 0.3884563 205 205 205
0.1053613 -0.04396413 0.3872481 205 205 205
0.1059233 -0.04331794 0.3860392 205 205 205
0.1060487 -0.04231828 0.3839977 205 205 205
0.1062518 -0.04032525 0.3799214 205 205 205
0.1063295 -0.03933197 0.3778867 205 205 205
0.02829673 -0.05643135 0.3968518 205 205 205
0.02918507 -0.05589711 0.3958356 205 205 205
0.02975279 -0.05453587 0.3930221 205 205 205
0.03081674 -0.05181502 0.3873934 205 205 205
0.03409311 -0.0496612 0.3832868 205 205 205
0.03605483 -0.04939507 0.3830068 205 205 205
0.0384029 -0.04993585 0.384498 205 205 205
0.0393888 -0.04979414 0.3843454 205 205 205
0.04213183 -0.04895054 0.3829786 205 205 205
0.04408875 -0.04864881 0.3826453 205 205 205
0.04506592 -0.04849473 0.3824739 205 205 205
0.04701763 -0.04818015 0.3821212 205 205 205
0.04799217 -0.04801963 0.3819401 205 205 205
0.05115447 -0.04792517 0.3822605 205 205 205
0.0523771 -0.0481547 0.3829482 205 205 205
0.0543309 -0.04780747 0.3825473 205 205 205
0.05478748 -0.04683615 0.3805813 205 205 205
0.05549113 -0.04626201 0.3794948 205 205 205
0.05741409 -0.04590186 0.3790729 205 205 205
0.1044464 -0.04522644 0.3871664 205 205 205
0.1054348 -0.04493642 0.3867943 205 205 205
0.1056939 -0.04292234 0.3827191 205 205 205
0.1057995 -0.04191841 0.3806847 205 205 205
0.1063245 -0.0412713 0.3794801 205 205 205
0.02889827 -0.06210428 0.406381 205 205 205
0.02894227 -0.05905964 0.3999855 205 205 205
0.02954127 -0.05768624 0.397177 205 205 205
0.0320347 -0.05302756 0.3877247 205 205 205
0.03450273 -0.05139631 0.3846435 205 205 205
0.0354919 -0.05126313 0.3845041 205 205 205
0.03648035 -0.05112781 0.3843614 205 205 205
0.03903957 -0.05208453 0.3867376 205 205 205
0.03983859 -0.05153023 0.3856935 205 205 205
0.04161756 -0.05082808 0.3844876 205 205 205
0.042395 -0.05027007 0.3834368 205 205 205
0.04436007 -0.04996684 0.3831024 205 205 205
0.04534135 -0.04981195 0.3829304 205 205 205
0.04632172 -0.04965492 0.3827551 205 205 205
0.05145449 -0.04924092 0.3827116 205 205 205
0.0539149 -0.04970185 0.3840777 205 205 205
0.05588235 -0.04934713 0.3836672 205 205 205
0.05784564 -0.04898378 0.3832437 205 205 205
0.06090359 -0.05020357 0.3863084 205 205 205
0.1015426 -0.04705542 0.3878041 205 205 205
0.1037683 -0.04786833 0.3899482 205 205 205
0.1047712 -0.0475792 0.3895791 205 205 205
0.1055077 -0.0459069 0.3863368 205 205 205
0.1056449 -0.04489139 0.3843017 205 205 205
0.1057661 -0.04387795 0.3822686 205 205 205
0.1063965 -0.04221556 0.379035 205 205 205
0.1069126 -0.04156457 0.3778318 205 205 205
0.02880598 -0.06267956 0.4050107 205 205 205
0.02929141 -0.06087287 0.4013121 205 205 205
0.03087882 -0.05629941 0.3920035 205 205 205
0.03173834 -0.05575425 0.3909837 205 205 205
0.03426651 -0.05411108 0.3879101 205 205 205
0.03509239 -0.0535609 0.3868809 205 205 205
0.03928694 -0.05342305 0.3871859 205 205 205
0.04028872 -0.0532788 0.3870311 205 205 205
0.04208336 -0.05257047 0.3858247 205 205 205
0.04561671 -0.05113452 0.3833799 205 205 205
0.05346657 -0.04981115 0.3818816 205 205 205
0.05444347 -0.04963601 0.3816797 205 205 205
0.05567922 -0.04986304 0.3823515 205 205 205
0.0573681 -0.04909762 0.3810546 205 205 205
0.1012064 -0.04765561 0.3865069 205 205 205
0.1030187 -0.04811053 0.3878139 205 205 205
0.1044291 -0.04819109 0.38828 205 205 205
0.1041728 -0.04679933 0.3854161 205 205 205
0.1052916 -0.04548766 0.3830155 205 205 205
0.105409 -0.04446788 0.3809875 205 205 205
0.1059428 -0.04381294 0.3797871 205 205 205
0.03040764 -0.06172557 0.4007208 205 205 205
0.03261109 -0.05880414 0.3949889 205 205 205
0.03669565 -0.05560844 0.3889619 205 205 205
0.0377077 -0.05546961 0.388816 205 205 205
0.04054019 -0.05462189 0.3874719 205 205 205
0.04254954 -0.05432529 0.3871513 205 205 205
0.04334242 -0.05375753 0.3861015 205 205 205
0.04512089 -0.05303384 0.384879 205 205 205
0.04763853 -0.05172979 0.382585 205 205 205
0.04862143 -0.05156743 0.3824027 205 205 205
0.04936612 -0.05099101 0.3813373 205 205 205
0.05010227 -0.05041373 0.3802702 205 205 205
0.05229503 -0.05048632 0.3807634 205 205 205
0.05352187 -0.05072301 0.3814424 205 205 205
0.05449904 -0.05054762 0.3812406 205 205 205
0.05573525 -0.05077797 0.3819108 205 205 205
0.05671414 -0.05059757 0.3817017 205 205 205
0.05866884 -0.0502303 0.3812738 205 205 205
0.05964459 -0.05004341 0.3810549 205 205 205
0.06089815 -0.05025868 0.3817039 205 205 205
0.06244082 -0.05087388 0.3832182 205 205 205
0.06313808 -0.05027551 0.3821177 205 205 205
0.1027079 -0.05114948 0.3914064 205 205 205
0.1024991 -0.04974128 0.3885423 205 205 205
0.1035007 -0.04945455 0.3881783 205 205 205
0.1053624 -0.0464435 0.3825557 205 205 205
0.1060133 -0.04475744 0.3793327 205 205 205
0.03091817 -0.06398277 0.4029196 205 205 205
0.03437522 -0.06132897 0.3979496 205 205 205
0.03508435 -0.06034383 0.396035 205 205 205
0.03595349 -0.05978299 0.395007 205 205 205
0.03663416 -0.05879673 0.3930891 205 205 205
0.03748257 -0.05823383 0.3920569 205 205 205
0.03832254 -0.0576697 0.3910224 205 205 205
0.03953721 -0.05794941 0.3917575 205 205 205
0.0401725 -0.05695985 0.389832 205 205 205
0.04119017 -0.05681305 0.389675 205 205 205
0.04381671 -0.05551982 0.3874182 205 205 205
0.04482338 -0.05536519 0.387249 205 205 205
0.04616734 -0.05379558 0.3842581 205 205 205
0.04693388 -0.05321885 0.3832008 205 205 205
0.0484413 -0.05206256 0.3810806 205 205 205
0.05112867 -0.05114962 0.37964 205 205 205
0.05234935 -0.0513931 0.3803222 205 205 205
0.05357665 -0.05163308 0.3809995 205 205 205
0.05703394 -0.05192118 0.3821302 205 205 205
0.06249842 -0.0517961 0.3827694 205 205 205
0.09975938 -0.05052417 0.387118 205 205 205
0.103571 -0.05042765 0.3877053 205 205 205
0.1043137 -0.04872479 0.3844849 205 205 205
0.1044554 -0.04768825 0.3824625 205 205 205
0.1050068 -0.04702561 0.3812671 205 205 205
0.1065157 -0.04606985 0.3796968 205 205 205
0.1071239 -0.04437461 0.3764802 205 205 205
0.02989742 -0.06194902 0.3962117 205 205 205
0.03188891 -0.06440765 0.4014219 205 205 205
0.03328241 -0.0651379 0.4030697 205 205 205
0.03560769 -0.06529813 0.4036868 205 205 205
0.03863884 -0.06173987 0.3969049 205 205 205
0.03912607 -0.06031573 0.3940995 205 205 205
0.04016479 -0.06017062 0.3939464 205 205 205
0.04061583 -0.05874673 0.3911393 205 205 205
0.04164143 -0.05859865 0.3909812 205 205 205
0.04225957 -0.05759956 0.3890549 205 205 205
0.04327589 -0.05744811 0.3888913 205 205 205
0.04429133 -0.05729438 0.3887243 205 205 205
0.04666506 -0.05555544 0.3855658 205 205 205
0.04896205 -0.05380751 0.3823896 205 205 205
0.05142742 -0.05246889 0.3800718 205 205 205
0.05240324 -0.05229807 0.3798774 205 205 205
0.05337806 -0.05212509 0.3796798 205 205 205
0.05584574 -0.05260246 0.3810185 205 205 205
0.06030818 -0.0526901 0.3819007 205 205 205
0.06353971 -0.0525204 0.3820862 205 205 205
0.0694665 -0.05599448 0.3900055 205 205 205
0.07470938 -0.06147657 0.4018233 205 205 205
0.07696073 -0.031664 0.3430901 205 205 205
0.1032529 -0.0534978 0.3912766 205 205 205
0.1045244 -0.04864077 0.3819948 205 205 205
0.106585 -0.0470141 0.3792334 205 205 205
0.1071928 -0.04530763 0.3760222 205 205 205
0.03381776 -0.0674235 0.4052408 205 205 205
0.03667354 -0.06888209 0.4085102 205 205 205
0.03777807 -0.06874043 0.4083663 205 205 205
0.03852866 -0.06773299 0.4064496 205 205 205
0.0389022 -0.06586287 0.4027633 205 205 205
0.0396127 -0.06485573 0.4008447 205 205 205
0.04011886 -0.06341822 0.3980418 205 205 205
0.04079308 -0.06241113 0.3961212 205 205 205
0.04125531 -0.06097487 0.3933177 205 205 205
0.04271871 -0.05938905 0.3903528 205 205 205
0.04578877 -0.05892387 0.3898482 205 205 205
0.04848804 -0.0557296 0.3838722 205 205 205
0.0490149 -0.05471856 0.3819374 205 205 205
0.04976348 -0.05413031 0.3808767 205 205 205
0.05343169 -0.05302805 0.3792316 205 205 205
0.05714435 -0.05374859 0.3812276 205 205 205
0.05839497 -0.05398165 0.3818832 205 205 205
0.05938005 -0.05379475 0.3816663 205 205 205
0.06190609 -0.05424411 0.3829546 205 205 205
0.06359649 -0.0534387 0.3816304 205 205 205
0.06487061 -0.05365273 0.3822596 205 205 205
0.06703483 -0.05509853 0.3854707 205 205 205
0.07024128 -0.05632376 0.3884191 205 205 205
0.0868635 -0.04214491 0.3635335 205 205 205
0.1006978 -0.05322519 0.3878273 205 205 205
0.1033222 -0.05448172 0.3907886 205 205 205
0.1039322 -0.0538079 0.3895955 205 205 205
0.1041213 -0.05275092 0.3875747 205 205 205
0.1034635 -0.050932 0.3839046 205 205 205
0.1044516 -0.05064263 0.3835387 205 205 205
0.1055702 -0.04929971 0.3811536 205 205 205
0.1061162 -0.04862812 0.3799602 205 205 205
0.1066534 -0.0479565 0.3787662 205 205 205
0.1071817 -0.04728487 0.3775717 205 205 205
0.03904209 -0.07279725 0.4140449 205 205 205
0.03981958 -0.0717791 0.4121283 205 205 205
0.04040024 -0.07032582 0.4093277 205 205 205
0.04095698 -0.06887317 0.4065266 205 205 205
0.04130143 -0.0669876 0.402844 205 205 205
0.04199865 -0.06597007 0.4009236 205 205 205
0.04228762 -0.06408726 0.3972419 205 205 205
0.04503021 -0.06044998 0.390427 205 205 205
0.0462063 -0.05841519 0.3865742 205 205 205
0.04699292 -0.05782649 0.3855223 205 205 205
0.04754435 -0.05680891 0.3835936 205 205 205
0.04831005 -0.0562188 0.3825385 205 205 205
0.04906723 -0.05562779 0.3814816 205 205 205
0.05079788 -0.05486827 0.3802344 205 205 205
0.05177893 -0.05469855 0.3800428 205 205 205
0.05250949 -0.05410264 0.3789773 205 205 205
0.05348479 -0.05392919 0.3787799 205 205 205
0.05471622 -0.05417622 0.3794484 205 205 205
0.06069539 -0.05493849 0.3818531 205 205 205
0.0629516 -0.05496941 0.3822649 205 205 205
0.06749541 -0.05499573 0.3830385 205 205 205
0.07542154 -0.06096059 0.3959987 205 205 205
0.07899061 -0.03619341 0.3484199 205 205 205
0.09204755 -0.04809963 0.3739093 205 205 205
0.1044093 -0.05517343 0.3899321 205 205 205
0.1039468 -0.05227382 0.3842494 205 205 205
0.1045194 -0.05159865 0.3830599 205 205 205
0.1052115 -0.04986575 0.3798589 205 205 205
0.1061839 -0.04957249 0.3794873 205 205 205
0.1067211 -0.04889698 0.3782953 205 205 205
0.1073284 -0.04716805 0.3750955 205 205 205
0.03864142 -0.07573099 0.4171994 205 205 205
0.04013517 -0.07646201 0.4188133 205 205 205
0.04075878 -0.07499497 0.416016 205 205 205
0.04135841 -0.0735284 0.4132182 205 205 205
0.04174945 -0.07162479 0.4095399 205 205 205
0.04262895 -0.06825945 0.4030644 205 205 205
0.04424972 -0.06430933 0.3955475 205 205 205
0.04589389 -0.0607986 0.3889039 205 205 205
0.04625825 -0.05934091 0.3861056 205 205 205
0.04682185 -0.05831654 0.3841817 205 205 205
0.04759617 -0.05772375 0.3831305 205 205 205
0.04911912 -0.05653518 0.3810223 205 205 205
0.04986778 -0.05593953 0.3799654 205 205 205
0.05085003 -0.05577179 0.3797771 205 205 205
0.05256187 -0.05500219 0.3785219 205 205 205
0.05698781 -0.05514399 0.379445 205 205 205
0.05850418 -0.05580827 0.3809631 205 205 205
0.05948973 -0.0556209 0.3807465 205 205 205
0.0607504 -0.05585391 0.3813898 205 205 205
0.06201752 -0.05608323 0.3820282 205 205 205
0.06272352 -0.0554667 0.3809385 205 205 205
0.06527468 -0.05590985 0.3821937 205 205 205
0.06626476 -0.05570703 0.3819549 205 205 205
0.06755242 -0.05592 0.3825707 205 205 205
0.06884637 -0.05612925 0.3831814 205 205 205
0.07979811 -0.06438032 0.4009283 205 205 205
0.08725208 -0.04530969 0.3654647 205 205 205
0.09447619 -0.05137789 0.3784281 205 205 205
0.1035979 -0.05284299 0.3829429 205 205 205
0.1045864 -0.05255279 0.3825774 205 205 205
0.1058207 -0.0501304 0.378194 205 205 205
0.1078357 -0.04847676 0.3754393 205 205 205
0.04249902 -0.07720569 0.4179655 205 205 205
0.04310599 -0.07292484 0.4097399 205 205 205
0.0438503 -0.06674085 0.3978501 205 205 205
0.04450627 -0.06570733 0.3959323 205 205 205
0.04787462 -0.05907151 0.3835352 205 205 205
0.04864421 -0.0584734 0.3824833 205 205 205
0.05114402 -0.0571057 0.3801848 205 205 205
0.05188318 -0.05650324 0.3791248 205 205 205
0.05261379 -0.05589991 0.3780631 205 205 205
0.05358954 -0.05572603 0.3778659 205 205 205
0.05553807 -0.05537178 0.377462 205 205 205
0.06249447 -0.05595515 0.3796121 205 205 205
0.06790781 -0.05726392 0.3829553 205 205 205
0.07051031 -0.05768337 0.3841664 205 205 205
0.07306169 -0.05956386 0.3881773 205 205 205
0.07627693 -0.06227066 0.3938799 205 205 205
0.100288 -0.05680474 0.3875397 205 205 205
0.1021033 -0.05731402 0.388837 205 205 205
0.1040802 -0.05418783 0.3832767 205 205 205
0.1049174 -0.05136057 0.3780853 205 205 205
0.1058866 -0.05106751 0.3777156 205 205 205
0.1064202 -0.05038533 0.3765289 205 205 205
0.1079018 -0.04940567 0.374965 205 205 205
0.04175471 -0.07929698 0.4193383 205 205 205
0.04353785 -0.07482733 0.4109682 205 205 205
0.04389155 -0.07289513 0.407302 205 205 205
0.04470443 -0.069479 0.4008468 205 205 205
0.04537565 -0.06843606 0.3989303 205 205 205
0.04603348 -0.06502757 0.3924774 205 205 205
0.04869533 -0.05938427 0.3820132 205 205 205
0.05193458 -0.05740281 0.3786605 205 205 205
0.05461616 -0.05644542 0.3772034 205 205 205
0.05559011 -0.05626696 0.3769999 205 205 205
0.05682835 -0.05651803 0.3776554 205 205 205
0.05932441 -0.05700934 0.3789518 205 205 205
0.06058218 -0.05724955 0.3795927 205 205 205
0.0628328 -0.05729086 0.3800016 205 205 205
0.06410606 -0.05752073 0.3806284 205 205 205
0.06637619 -0.05754348 0.3810116 205 205 205
0.06736552 -0.05733788 0.3807698 205 205 205
0.07026056 -0.05819029 0.3828338 205 205 205
0.07539446 -0.06197667 0.390827 205 205 205
0.07913589 -0.06212638 0.3916995 205 205 205
0.08017092 -0.06189047 0.3914164 205 205 205
0.07363246 -0.03500192 0.3394588 205 205 205
0.09071807 -0.05174454 0.373994 205 205 205
0.09894497 -0.05765098 0.3865651 205 205 205
0.1035644 -0.05582849 0.3839675 205 205 205
0.1044347 -0.05298105 0.3787851 205 205 205
0.1064853 -0.05131664 0.3760488 205 205 205
0.1074477 -0.05101986 0.3756741 205 205 205
0.04127705 -0.07900041 0.4161639 205 205 205
0.04376263 -0.07913895 0.4167204 205 205 205
0.04452383 -0.07524134 0.4093987 205 205 205
0.04485693 -0.07329529 0.4057391 205 205 205
0.04515835 -0.07135113 0.4020806 205 205 205
0.04563263 -0.06985449 0.3992949 205 205 205
0.04587468 -0.06791403 0.3956383 205 205 205
0.04629727 -0.06642006 0.3928536 205 205 205
0.04950707 -0.0596868 0.3804894 205 205 205
0.05271612 -0.05768978 0.3771347 205 205 205
0.05440956 -0.05690243 0.3758758 205 205 205
0.05661482 -0.05697944 0.3763278 205 205 205
0.05910413 -0.05747866 0.3776225 205 205 205
0.06771997 -0.05868144 0.3811454 205 205 205
0.0748946 -0.06058586 0.3858178 205 205 205
0.07719368 -0.06205447 0.3889358 205 205 205
0.0766095 -0.05821401 0.3816215 205 205 205
0.07152525 -0.04892931 0.3633717 205 205 205
0.0721155 -0.0351623 0.3376684 205 205 205
0.08751561 -0.05046095 0.3688721 205 205 205
0.09504464 -0.05713139 0.382617 205 205 205
0.1022343 -0.05925784 0.3878296 205 205 205
0.1028459 -0.05856699 0.3866498 205 205 205
0.1036292 -0.05678442 0.3834698 205 205 205
0.1037939 -0.05569483 0.3814722 205 205 205
0.1040752 -0.05352155 0.3774829 205 205 205
0.1046192 -0.0528339 0.3763041 205 205 205
0.1051544 -0.05214619 0.3751247 205 205 205
0.1061153 -0.05185223 0.3747549 205 205 205
0.1070743 -0.05155607 0.3743819 205 205 205
0.04421313 -0.07821665 0.4125187 205 205 205
0.04530392 -0.07519449 0.4069555 205 205 205
0.04609419 -0.07172675 0.4005219 205 205 205
0.04656098 -0.06781755 0.3932225 205 205 205
0.04848177 -0.06270005 0.3838404 205 205 205
0.0492591 -0.06208966 0.3827928 205 205 205
0.05002785 -0.06147826 0.3817433 205 205 205
0.05078802 -0.06086592 0.3806919 205 205 205
0.05252937 -0.06008047 0.3794461 205 205 205
0.05301707 -0.05902332 0.377527 205 205 205
0.05471835 -0.05823068 0.3762685 205 205 205
0.05569271 -0.05805178 0.3760653 205 205 205
0.05666607 -0.05787069 0.3758589 205 205 205
0.0629399 -0.0591074 0.3790503 205 205 205
0.06421397 -0.05934372 0.3796738 205 205 205
0.06549442 -0.05957626 0.3802922 205 205 205
0.07067934 -0.06046855 0.382715 205 205 205
0.07230205 -0.06111155 0.3841557 205 205 205
0.07798418 -0.06084009 0.3845068 205 205 205
0.08717638 -0.06318946 0.3903126 205 205 205
0.09334045 -0.05752079 0.3808007 205 205 205
0.09704684 -0.06012779 0.3862464 205 205 205
0.09845208 -0.06026062 0.3867286 205 205 205
0.09986292 -0.06038919 0.3872051 205 205 205
0.1031031 -0.05843246 0.3841464 205 205 205
0.1032799 -0.05733474 0.382152 205 205 205
0.1034408 -0.05623893 0.3801595 205 205 205
0.1040061 -0.0555466 0.3789828 205 205 205
0.10511 -0.05416154 0.3766271 205 205 205
0.1071379 -0.05247966 0.3738965 205 205 205
0.04483506 -0.08060563 0.4145851 205 205 205
0.04626799 -0.07558387 0.4053831 205 205 205
0.04681238 -0.07163986 0.3980935 205 205 205
0.04783226 -0.06664085 0.3889013 205 205 205
0.04875968 -0.06406455 0.384218 205 205 205
0.04954083 -0.06344986 0.3831717 205 205 205
0.05107743 -0.0622175 0.3810733 205 205 205
0.05183284 -0.06159989 0.3800213 205 205 205
0.0525797 -0.06098135 0.3789675 205 205 205
0.05331795 -0.06036192 0.377912 205 205 205
0.0540476 -0.05974163 0.3768548 205 205 205
0.05476865 -0.05912051 0.3757959 205 205 205
0.06200556 -0.06020883 0.378796 205 205 205
0.06426712 -0.06025235 0.3791912 205 205 205
0.06554796 -0.06048805 0.3798079 205 205 205
0.06782882 -0.06051281 0.3801773 205 205 205
0.06912486 -0.06073795 0.3807797 205 205 205
0.07042718 -0.06095928 0.381377 205 205 205
0.07204677 -0.06160969 0.3828151 205 205 205
0.0730505 -0.0613903 0.3825559 205 205 205
0.07705248 -0.06049012 0.3814861 205 205 205
0.08336687 -0.05949595 0.3806174 205 205 205
0.08319562 -0.05647337 0.3750257 205 205 205
0.0836636 -0.0543038 0.3711087 205 205 205
0.08239295 -0.05154574 0.3658355 205 205 205
0.09217107 -0.05981881 0.3826074 205 205 205
0.0943146 -0.06080143 0.3847589 205 205 205
0.09647834 -0.06177596 0.3869001 205 205 205
0.09827396 -0.06232823 0.3882074 205 205 205
0.09929854 -0.06204801 0.3878624 205 205 205
0.09992591 -0.0613534 0.3866932 205 205 205
0.1005444 -0.06065849 0.3855231 205 205 205
0.101154 -0.05996328 0.3843521 205 205 205
0.1027565 -0.05898013 0.3828233 205 205 205
0.1035036 -0.05718016 0.37966 205 205 205
0.1046252 -0.05578765 0.3773097 205 205 205
0.1051727 -0.05509127 0.3761337 205 205 205
0.1067622 -0.05300178 0.3726024 205 205 205
0.04661788 -0.08284985 0.4164666 205 205 205
0.04718535 -0.08131297 0.413691 205 205 205
0.04732643 -0.07886408 0.4091816 205 205 205
0.04749047 -0.07397576 0.4001699 205 205 205
0.0483233 -0.06848272 0.3901271 205 205 205
0.04869232 -0.0669577 0.3873574 205 205 205
0.04926552 -0.06588628 0.3854507 205 205 205
0.04982246 -0.06481505 0.3835433 205 205 205
0.0505989 -0.06419507 0.3824964 205 205 205
0.05136671 -0.0635741 0.3814475 205 205 205
0.05212595 -0.06295215 0.3803967 205 205 205
0.05287664 -0.06232929 0.3793442 205 205 205
0.05361868 -0.06170549 0.3782898 205 205 205
0.0572992 -0.06053861 0.3766202 205 205 205
0.05854938 -0.06079824 0.3772632 205 205 205
0.06106918 -0.06130658 0.3785345 205 205 205
0.06489717 -0.06204126 0.3804044 205 205 205
0.06589342 -0.06183827 0.3801688 205 205 205
0.0668885 -0.06163305 0.37993 205 205 205
0.06788239 -0.06142559 0.3796879 205 205 205
0.06917884 -0.06165387 0.3802886 205 205 205
0.07048155 -0.06187835 0.3808841 205 205 205
0.07210174 -0.06253537 0.3823187 205 205 205
0.07442701 -0.06252848 0.3826397 205 205 205
0.07607692 -0.0631713 0.3840556 205 205 205
0.07708813 -0.06294227 0.3837836 205 205 205
0.07975556 -0.06028492 0.3793181 205 205 205
0.08177911 -0.06133432 0.381539 205 205 205
0.08382337 -0.06237614 0.3837503 205 205 205
0.08659234 -0.06426425 0.3876176 205 205 205
0.09039142 -0.06434506 0.3883482 205 205 205
0.09215343 -0.06492924 0.3896865 205 205 205
0.09244717 -0.06381797 0.3877076 205 205 205
0.0973096 -0.06357289 0.3880308 205 205 205
0.09833603 -0.06329462 0.3876895 205 205 205
0.09896864 -0.0625975 0.3865245 205 205 205
0.09980781 -0.06078782 0.383374 205 205 205
0.1008132 -0.0605043 0.3830241 205 205 205
0.1014102 -0.05980603 0.3818555 205 205 205
0.1019985 -0.05910756 0.3806862 205 205 205
0.1025778 -0.05840888 0.3795162 205 205 205
0.1041308 -0.05741939 0.377984 205 205 205
0.1053417 -0.05491364 0.3736562 205 205 205
0.1058679 -0.05421442 0.3724825 205 205 205
0.04783151 -0.08372507 0.4157293 205 205 205
0.04798345 -0.08125704 0.4112277 205 205 205
0.04789078 -0.07833277 0.405864 205 205 205
0.04775108 -0.0754129 0.4005039 205 205 205
0.04896654 -0.06834332 0.3877155 205 205 205
0.05033606 -0.06664027 0.3847674 205 205 205
0.05189556 -0.06538939 0.3826726 205 205 205
0.05241896 -0.06430937 0.3807649 205 205 205
0.05317345 -0.06368216 0.3797135 205 205 205
0.05538522 -0.06179522 0.3765492 205 205 205
0.0563678 -0.06161425 0.3763447 205 205 205
0.05859986 -0.06169391 0.3767784 205 205 205
0.0623904 -0.06246046 0.3786728 205 205 205
0.0636668 -0.06270854 0.3792944 205 205 205
0.06466062 -0.0625083 0.3790631 205 205 205
0.06923223 -0.06256782 0.3797939 205 205 205
0.07053534 -0.06279543 0.3803877 205 205 205
0.0754872 -0.06322964 0.3818717 205 205 205
0.0791626 -0.06340956 0.3827253 205 205 205
0.08083472 -0.06250187 0.3813242 205 205 205
0.08353212 -0.0628825 0.3824106 205 205 205
0.08594647 -0.0643579 0.385439 205 205 205
0.09154072 -0.0665881 0.3903119 205 205 205
0.09502964 -0.06620918 0.3901605 205 205 205
0.0971055 -0.06565969 0.3894906 205 205 205
0.09863757 -0.06313808 0.3851865 205 205 205
0.09886166 -0.0620189 0.3832067 205 205 205
0.09986886 -0.06173728 0.3828604 205 205 205
0.1004712 -0.06103646 0.381696 205 205 205
0.1014714 -0.06075129 0.3813442 205 205 205
0.1046132 -0.05876445 0.3782874 205 205 205
0.1047484 -0.05764879 0.3763079 205 205 205
0.1064461 -0.05442606 0.3708158 205 205 205
0.04864105 -0.08366846 0.4132585 205 205 205
0.0482208 -0.07731698 0.4016922 205 205 205
0.04886466 -0.07128109 0.3908256 205 205 205
0.04946523 -0.07019354 0.3889253 205 205 205
0.05004956 -0.06910606 0.3870243 205 205 205
0.05140552 -0.06738953 0.3840774 205 205 205
0.05472239 -0.065318 0.3807322 205 205 205
0.05595222 -0.06359386 0.3777676 205 205 205
0.05694256 -0.06341127 0.3775618 205 205 205
0.05892007 -0.06303933 0.3771403 205 205 205
0.06172678 -0.06400925 0.3792515 205 205 205
0.06244149 -0.06336374 0.3781793 205 205 205
0.06669686 -0.06300674 0.3780959 205 205 205
0.06928503 -0.0634798 0.3792956 205 205 205
0.07189825 -0.06393744 0.3804747 205 205 205
0.07389811 -0.06349625 0.3799559 205 205 205
0.07687241 -0.06436584 0.3819337 205 205 205
0.08498357 -0.06555352 0.3852226 205 205 205
0.09019883 -0.067388 0.389274 205 205 205
0.09396665 -0.06589516 0.387163 205 205 205
0.09602103 -0.06535066 0.3865005 205 205 205
0.09768001 -0.06437249 0.3850068 205 205 205
0.09830534 -0.06366977 0.3838484 205 205 205
0.1025306 -0.06140661 0.3804743 205 205 205
0.1048088 -0.05857634 0.3758016 205 205 205
0.04890014 -0.07969823 0.4037288 205 205 205
0.04938303 -0.07564054 0.3964944 205 205 205
0.04935606 -0.07315135 0.3920216 205 205 205
0.05055596 -0.07095969 0.3882254 205 205 205
0.05169084 -0.06876862 0.3844264 205 205 205
0.05577561 -0.06604423 0.3800306 205 205 205
0.06405475 -0.06497166 0.3791452 205 205 205
0.06704517 -0.06436031 0.3784398 205 205 205
0.06834021 -0.06460112 0.3790396 205 205 205
0.06903286 -0.06394146 0.3779532 205 205 205
0.07163937 -0.06440698 0.3791308 205 205 205
0.07263638 -0.06418804 0.3788742 205 205 205
0.07692675 -0.06529113 0.3814234 205 205 205
0.0782639 -0.06550226 0.3819834 205 205 205
0.07960714 -0.06570937 0.382538 205 205 205
0.08129428 -0.06635323 0.3839188 205 205 205
0.08231167 -0.06611149 0.383631 205 205 205
0.08367296 -0.06630645 0.3841693 205 205 205
0.08676594 -0.06712124 0.3860569 205 205 205
0.08953723 -0.06748041 0.3870926 205 205 205
0.09188289 -0.06582486 0.3844953 205 205 205
0.09290171 -0.0655586 0.3841729 205 205 205
0.09354063 -0.0648594 0.3830277 205 205 205
0.09493457 -0.06501915 0.383518 205 205 205
0.09594863 -0.06474594 0.3831854 205 205 205
0.09937755 -0.06433818 0.3829812 205 205 205
0.09998869 -0.06363003 0.3818219 205 205 205
0.1031733 -0.06163618 0.3787908 205 205 205
0.1037472 -0.06092487 0.377625 205 205 205
0.1043123 -0.06021341 0.3764586 205 205 205
0.1044434 -0.05908449 0.3744884 205 205 205
0.1049872 -0.05837388 0.3733221 205 205 205
0.1055221 -0.05766325 0.3721552 205 205 205
0.1075168 -0.05594313 0.3694481 205 205 205
0.05030883 -0.08649383 0.4136563 205 205 205
0.05020885 -0.08350507 0.4083239 205 205 205
0.05008495 -0.07800884 0.3985274 205 205 205
0.05068823 -0.07439569 0.3921665 205 205 205
0.05106259 -0.07282498 0.3894152 205 205 205
0.05221241 -0.07061724 0.3856214 205 205 205
0.0532434 -0.07044187 0.3854288 205 205 205
0.05582708 -0.06897753 0.3831301 205 205 205
0.0563355 -0.06787141 0.3812264 205 205 205
0.05708691 -0.06722641 0.3801713 205 205 205
0.05883075 -0.06639313 0.3789032 205 205 205
0.0598307 -0.06620344 0.3786887 205 205 205
0.061104 -0.06646929 0.3793164 205 205 205
0.06481392 -0.06522092 0.377567 205 205 205
0.06580715 -0.06501765 0.3773329 205 205 205
0.06709626 -0.06526541 0.377936 205 205 205
0.07069309 -0.06553473 0.3788769 205 205 205
0.07200359 -0.06576791 0.3794605 205 205 205
0.0730045 -0.06554784 0.3792031 205 205 205
0.07432365 -0.06577399 0.3797772 205 205 205
0.07966152 -0.06663879 0.3820207 205 205 205
0.08270863 -0.06749036 0.383939 205 205 205
0.08407399 -0.06768748 0.3844745 205 205 205
0.08646962 -0.06762879 0.3847038 205 205 205
0.08749255 -0.06737473 0.3843995 205 205 205
0.08851395 -0.06711835 0.3840919 205 205 205
0.08953384 -0.06685964 0.3837809 205 205 205
0.09156912 -0.06633524 0.3831488 205 205 205
0.09321971 -0.06536756 0.3816859 205 205 205
0.09422825 -0.06509823 0.3813593 205 205 205
0.09562099 -0.06525869 0.3818446 205 205 205
0.09701937 -0.06541484 0.3823241 205 205 205
0.09803038 -0.06513663 0.3819851 205 205 205
0.1004477 -0.06500135 0.3821074 205 205 205
0.1010535 -0.06428815 0.3809482 205 205 205
0.1026496 -0.06328597 0.3794337 205 205 205
0.1032323 -0.06257104 0.3782707 205 205 205
0.1055807 -0.05857574 0.3716477 205 205 205
0.1061067 -0.05786125 0.3704825 205 205 205
0.04974363 -0.08610647 0.4105067 205 205 205
0.05032626 -0.08198281 0.4032944 205 205 205
0.05056087 -0.0773974 0.3952338 205 205 205
0.0513405 -0.07423246 0.389741 205 205 205
0.05353261 -0.07183311 0.3857605 205 205 205
0.05637974 -0.07082482 0.3843122 205 205 205
0.0576546 -0.06906023 0.3813563 205 205 205
0.05866823 -0.06887273 0.3811461 205 205 205
0.05987982 -0.06710488 0.3781822 205 205 205
0.06287362 -0.06652141 0.3775194 205 205 205
0.06386933 -0.0663224 0.3772919 205 205 205
0.06814157 -0.06595965 0.3771872 205 205 205
0.07043601 -0.0659895 0.3775305 205 205 205
0.07174312 -0.06622656 0.3781132 205 205 205
0.07437595 -0.06668898 0.3792632 205 205 205
0.07670628 -0.0666854 0.3795612 205 205 205
0.07837131 -0.06735288 0.3809486 205 205 205
0.0797153 -0.06756616 0.3814997 205 205 205
0.08072707 -0.0673278 0.3812177 205 205 205
0.08343773 -0.06773583 0.3822951 205 205 205
0.08719163 -0.06787395 0.3830478 205 205 205
0.08820952 -0.06761815 0.3827415 205 205 205
0.08922593 -0.06735998 0.3824318 205 205 205
0.08987311 -0.06665925 0.3812997 205 205 205
0.09088282 -0.06639742 0.3809845 205 205 205
0.09567814 -0.06619803 0.381317 205 205 205
0.09668733 -0.06592271 0.3809828 205 205 205
0.09949448 -0.06623012 0.3819237 205 205 205
0.100506 -0.06594585 0.3815771 205 205 205
0.1011117 -0.06522887 0.3804199 205 205 205
0.1021163 -0.06494101 0.3800679 205 205 205
0.1031192 -0.06465087 0.3797125 205 205 205
0.1037055 -0.0639311 0.3785504 205 205 205
0.1075612 -0.05888914 0.370398 205 205 205
0.1080766 -0.05816869 0.3692313 205 205 205
0.0521381 -0.07913142 0.3962061 205 205 205
0.05290746 -0.07594197 0.3907196 205 205 205
0.05430284 -0.07417093 0.3877821 205 205 205
0.05510407 -0.07351992 0.3867355 205 205 205
0.05589666 -0.07286785 0.385687 205 205 205
0.05745587 -0.07156066 0.3835842 205 205 205
0.05822247 -0.07090563 0.3825301 205 205 205
0.05924389 -0.07071649 0.3823184 205 205 205
0.05999698 -0.07005893 0.38126 205 205 205
0.06074142 -0.06940045 0.3801999 205 205 205
0.06590686 -0.06681551 0.3763182 205 205 205
0.06719669 -0.06706955 0.3769177 205 205 205
0.07279161 -0.06691349 0.377343 205 205 205
0.07442766 -0.06760191 0.3787456 205 205 205
0.07675852 -0.06760111 0.379042 205 205 205
0.07809307 -0.06782234 0.3795978 205 205 205
0.08044192 -0.0678018 0.3798675 205 205 205
0.08213305 -0.06846187 0.3812331 205 205 205
0.08314589 -0.0682177 0.3809435 205 205 205
0.08415731 -0.06797121 0.3806507 205 205 205
0.08552051 -0.06816983 0.3811762 205 205 205
0.08688961 -0.06836428 0.3816962 205 205 205
0.09157132 -0.06662318 0.379323 205 205 205
0.09257448 -0.06635733 0.3790026 205 205 205
0.0939586 -0.06652898 0.3794914 205 205 205
0.09534841 -0.06669644 0.3799745 205 205 205
0.09775165 -0.06658156 0.3801146 205 205 205
0.1001628 -0.06645345 0.3802366 205 205 205
0.1033482 -0.06443446 0.3772197 205 205 205
0.1035033 -0.06328218 0.3752603 205 205 205
0.1080586 -0.06021981 0.370676 205 205 205
0.05154554 -0.0812257 0.3975419 205 205 205
0.05327165 -0.07991903 0.3954631 205 205 205
0.05388862 -0.07878829 0.3935723 205 205 205
0.05448928 -0.07765763 0.3916807 205 205 205
0.05531441 -0.07700143 0.3906353 205 205 205
0.05588629 -0.07587048 0.3887417 205 205 205
0.05723347 -0.0740817 0.3857979 205 205 205
0.05879055 -0.07276258 0.3836925 205 205 205
0.06058042 -0.07190917 0.3824216 205 205 205
0.06133239 -0.07124564 0.3813619 205 205 205
0.06353632 -0.06924992 0.378173 205 205 205
0.06954021 -0.06800941 0.3767507 205 205 205
0.0754813 -0.06828646 0.3779599 205 205 205
0.07948599 -0.06895938 0.379622 205 205 205
0.08049436 -0.06872127 0.3793414 205 205 205
0.0818437 -0.06893432 0.3798804 205 205 205
0.08421061 -0.06889648 0.3801214 205 205 205
0.08522078 -0.06864735 0.3798254 205 205 205
0.08694366 -0.06929559 0.3811634 205 205 205
0.08759744 -0.0685911 0.3800411 205 205 205
0.09099288 -0.06825931 0.3799243 205 205 205
0.09200141 -0.06799443 0.3796062 205 205 205
0.09401377 -0.06745776 0.3789601 205 205 205
0.0960198 -0.06691189 0.3783008 205 205 205
0.09841668 -0.06679601 0.3784341 205 205 205
0.09941765 -0.06651399 0.3780916 205 205 205
0.100417 -0.06622969 0.3777458 205 205 205
0.1024107 -0.06565419 0.3770444 205 205 205
0.1045436 -0.06391 0.3743738 205 205 205
0.1055255 -0.0636141 0.374011 205 205 205
0.1075877 -0.06185779 0.3713198 205 205 205
0.1085556 -0.06155506 0.3709467 205 205 205
0.1090779 -0.06082482 0.3697816 205 205 205
0.05533725 -0.08261766 0.3980981 205 205 205
0.05656781 -0.08033469 0.3943139 205 205 205
0.05748453 -0.07757596 0.3896838 205 205 205
0.05803889 -0.07643585 0.3877904 205 205 205
0.0596188 -0.07510535 0.3856847 205 205 205
0.06039576 -0.07443859 0.384629 205 205 205
0.06267443 -0.07243281 0.3814516 205 205 205
0.06458839 -0.06995001 0.3774238 205 205 205
0.06559093 -0.06974643 0.3771918 205 205 205
0.07189425 -0.06894059 0.3765603 205 205 205
0.07320862 -0.06918305 0.3771326 205 205 205
0.07420891 -0.06895955 0.3768726 205 205 205
0.08391336 -0.06936456 0.3787696 205 205 205
0.08527359 -0.06957012 0.3792927 205 205 205
0.08663972 -0.06977155 0.3798103 205 205 205
0.08902495 -0.06971055 0.3800145 205 205 205
0.09306265 -0.06865428 0.3787498 205 205 205
0.09406821 -0.06838442 0.3784252 205 205 205
0.09507217 -0.06811223 0.3780975 205 205 205
0.09907201 -0.06700053 0.3767533 205 205 205
0.1004725 -0.06715735 0.3772105 205 205 205
0.1014704 -0.06687035 0.3768617 205 205 205
0.1024665 -0.06658104 0.3765096 205 205 205
0.1055816 -0.06453259 0.373481 205 205 205
0.1086118 -0.06246516 0.3704216 205 205 205
0.1091341 -0.06173113 0.3692587 205 205 205
0.05678745 -0.08648553 0.4025964 205 205 205
0.0593942 -0.07765936 0.3878755 205 205 205
0.05992723 -0.07651088 0.3859831 205 205 205
0.06147998 -0.07516778 0.3838727 205 205 205
0.06374388 -0.07314622 0.380694 205 205 205
0.06520965 -0.07179425 0.3785666 205 205 205
0.06621993 -0.07158887 0.378333 205 205 205
0.06693482 -0.07091012 0.3772645 205 205 205
0.06994364 -0.0702756 0.3765369 205 205 205
0.07225639 -0.07030816 0.3768626 205 205 205
0.07457902 -0.07032826 0.3771713 205 205 205
0.07558192 -0.07010132 0.3769073 205 205 205
0.07891802 -0.06986871 0.3769166 205 205 205
0.08907794 -0.07063687 0.3794748 205 205 205
0.09512604 -0.06903636 0.3775592 205 205 205
0.1016975 -0.06662224 0.3743773 205 205 205
0.1026849 -0.06633233 0.3740247 205 205 205
0.1056369 -0.06544896 0.3729474 205 205 205
0.1066174 -0.06514995 0.3725819 205 205 205
0.1100778 -0.0634993 0.3703022 205 205 205
0.05890811 -0.08922845 0.4051751 205 205 205
0.0597068 -0.08593435 0.3997084 205 205 205
0.0601568 -0.08216358 0.3934062 205 205 205
0.06046845 -0.08052251 0.3906766 205 205 205
0.06127682 -0.07984536 0.3896224 205 205 205
0.06181238 -0.07868677 0.38773 205 205 205
0.06233162 -0.07752858 0.3858373 205 205 205
0.06310634 -0.07684984 0.3847792 205 205 205
0.06359679 -0.07569195 0.3828853 205 205 205
0.06435025 -0.07501211 0.3818245 205 205 205
0.06481196 -0.07385469 0.3799298 205 205 205
0.06684905 -0.0734427 0.3794628 205 205 205
0.06929196 -0.07186153 0.3770818 205 205 205
0.07029761 -0.07164665 0.3768353 205 205 205
0.07430763 -0.07076409 0.3758164 205 205 205
0.07863251 -0.07031012 0.3755644 205 205 205
0.08331566 -0.07027419 0.376067 205 205 205
0.08602863 -0.07069692 0.377105 205 205 205
0.0887652 -0.07110301 0.3781211 205 205 205
0.09278943 -0.07004766 0.3768627 205 205 205
0.0957913 -0.06923185 0.3758843 205 205 205
0.09639452 -0.06850506 0.3747504 205 205 205
0.09778455 -0.0686765 0.3752157 205 205 205
0.1001763 -0.06855907 0.3753314 205 205 205
0.1037248 -0.06695522 0.3731312 205 205 205
0.104286 -0.06621845 0.3719813 205 205 205
0.1052648 -0.0659224 0.3716206 205 205 205
0.1091627 -0.06471542 0.3701453 205 205 205
0.1101327 -0.06440805 0.3697684 205 205 205
0.06132898 -0.09776026 0.4173916 205 205 205
0.06086655 -0.08672042 0.3989121 205 205 205
0.06262761 -0.08321136 0.3932382 205 205 205
0.06372 -0.0808735 0.3894534 205 205 205
0.06396984 -0.07922291 0.3867278 205 205 205
0.06542582 -0.07572342 0.3810513 205 205 205
0.06645264 -0.07551681 0.3808179 205 205 205
0.06863103 -0.07345187 0.3776174 205 205 205
0.07065131 -0.07302228 0.3771261 205 205 205
0.07134999 -0.07232943 0.3760515 205 205 205
0.0723533 -0.07210966 0.3757986 205 205 205
0.07335533 -0.07188757 0.3755424 205 205 205
0.07435609 -0.07166322 0.375283 205 205 205
0.07668194 -0.07167794 0.3755735 205 205 205
0.07801446 -0.07191534 0.3761214 205 205 205
0.08035832 -0.07191021 0.3763852 205 205 205
0.08101909 -0.07120251 0.3752881 205 205 205
0.08336578 -0.07118085 0.3755292 205 205 205
0.0860794 -0.0716096 0.3765637 205 205 205
0.08744504 -0.07181772 0.3770727 205 205 205
0.0888166 -0.07202167 0.3775762 205 205 205
0.09384374 -0.0706949 0.3759961 205 205 205
0.09484451 -0.07042259 0.3756703 205 205 205
0.09923317 -0.06976179 0.3751306 205 205 205
0.1032083 -0.06860851 0.373737 205 205 205
0.1041979 -0.06831443 0.3733804 205 205 205
0.1047625 -0.06757287 0.3722314 205 205 205
0.1081389 -0.06711523 0.3719214 205 205 205
0.1096578 -0.06606222 0.3703901 205 205 205
0.06253106 -0.08847958 0.3997779 205 205 205
0.06313314 -0.08730014 0.3978877 205 205 205
0.06457296 -0.08327708 0.3913827 205 205 205
0.06483379 -0.08161394 0.3886609 205 205 205
0.06632322 -0.07808688 0.3829893 205 205 205
0.06781668 -0.07670238 0.3808613 205 205 205
0.06927521 -0.07531458 0.3787269 205 205 205
0.06999135 -0.07461955 0.3776574 205 205 205
0.07100475 -0.07440253 0.3774094 205 205 205
0.07271436 -0.07348434 0.3760824 205 205 205
0.07340297 -0.07278485 0.3750054 205 205 205
0.0757282 -0.0728078 0.3753017 205 205 205
0.07673018 -0.07257766 0.3750349 205 205 205
0.07806305 -0.07281812 0.3755811 205 205 205
0.07873021 -0.07211048 0.3744917 205 205 205
0.08040734 -0.07281567 0.3758433 205 205 205
0.08106808 -0.07210433 0.3747484 205 205 205
0.08512376 -0.07277234 0.3763159 205 205 205
0.0857714 -0.07205353 0.37521 205 205 205
0.08749543 -0.07273126 0.376526 205 205 205
0.08950684 -0.07221334 0.3759131 205 205 205
0.09088303 -0.07241371 0.3764061 205 205 205
0.09188863 -0.07214797 0.3760903 205 205 205
0.09389513 -0.07160956 0.3754488 205 205 205
0.09489602 -0.07133691 0.3751232 205 205 205
0.09828734 -0.07096084 0.3749226 205 205 205
0.09928542 -0.07067789 0.3745826 205 205 205
0.1006873 -0.07084645 0.3750328 205 205 205
0.1020947 -0.0710106 0.3754773 205 205 205
0.103095 -0.07071862 0.375125 205 205 205
