ply
format ascii 1.0
comment Created by Open3D
element vertex 1298
property double x
property double y
property double z
property uchar red
property uchar green
property uchar blue
end_header
0.44104 -0.326023 -0.444 172 134 113
0.44865 -0.316477 -0.431 184 140 113
0.449837 -0.315009 -0.429 184 140 113
0.455093 -0.311337 -0.424 174 129 98
0.473167 -0.312071 -0.425 158 115 83
0.483648 -0.315743 -0.43 147 110 83
0.0434762 -0.404905 -0.55 191 156 128
0.0508848 -0.389445 -0.529 200 156 129
0.0573905 -0.385764 -0.524 204 160 133
0.0612657 -0.385028 -0.523 203 159 130
0.0621429 -0.384291 -0.522 202 158 129
0.0855 -0.3865 -0.525 181 131 108
0.0932048 -0.389445 -0.529 180 128 104
0.108715 -0.398279 -0.541 166 118 98
0.139886 -0.424046 -0.576 92 91 107
0.150857 -0.424046 -0.576 175 175 175
0.153051 -0.424046 -0.576 185 183 188
0.168119 -0.42331 -0.575 103 127 171
0.17031 -0.42331 -0.575 95 131 183
0.1725 -0.42331 -0.575 87 118 182
0.17469 -0.42331 -0.575 79 110 177
0.189257 -0.424046 -0.576 217 221 246
0.212297 -0.424046 -0.576 204 207 224
0.216686 -0.424046 -0.576 238 241 255
0.21888 -0.424046 -0.576 238 240 253
0.328667 -0.42699 -0.58 241 243 255
0.33419 -0.42699 -0.58 222 223 227
0.381903 -0.428463 -0.582 182 196 225
0.403658 -0.429199 -0.583 225 233 244
0.405879 -0.429199 -0.583 233 240 250
0.435872 -0.431408 -0.586 146 188 248
0.436989 -0.431408 -0.586 130 172 232
0.439221 -0.431408 -0.586 76 119 174
0.445918 -0.431408 -0.586 212 226 255
0.450383 -0.431408 -0.586 163 180 208
0.452615 -0.431408 -0.586 202 215 234
0.473513 -0.432144 -0.587 210 215 221
0.482458 -0.432144 -0.587 202 213 231
0.495875 -0.432144 -0.587 114 145 189
0.44841 -0.351899 -0.478 161 129 116
0.444486 -0.34601 -0.47 164 131 116
0.441077 -0.337911 -0.459 167 131 115
0.440262 -0.332022 -0.451 170 133 114
0.440747 -0.329813 -0.448 170 134 112
0.44142 -0.32466 -0.441 176 135 113
0.44761 -0.316562 -0.43 183 139 114
0.448789 -0.31509 -0.428 183 137 111
0.450419 -0.31509 -0.428 185 139 113
0.490321 -0.31877 -0.433 142 106 80
0.0506924 -0.388976 -0.527 200 156 129
0.0525 -0.3875 -0.525 202 158 129
0.0563924 -0.386762 -0.524 204 158 132
0.0630162 -0.384548 -0.521 205 160 131
0.0865 -0.3875 -0.525 184 134 109
0.0989857 -0.393405 -0.533 173 123 98
0.101395 -0.394881 -0.535 174 123 102
0.146214 -0.424405 -0.575 122 122 134
0.150595 -0.424405 -0.575 183 182 180
0.158262 -0.424405 -0.575 193 199 215
0.162643 -0.424405 -0.575 142 157 186
0.167024 -0.424405 -0.575 95 120 161
0.1722 -0.423667 -0.574 93 123 183
0.183133 -0.423667 -0.574 84 116 167
0.18532 -0.423667 -0.574 121 149 196
0.1955 -0.424405 -0.575 232 234 249
0.227657 -0.425143 -0.576 186 192 208
0.318174 -0.427357 -0.579 219 230 248
0.321483 -0.427357 -0.579 237 240 249
0.323689 -0.427357 -0.579 242 245 255
0.340819 -0.428095 -0.58 215 218 235
0.347448 -0.428095 -0.58 240 242 255
0.390771 -0.429571 -0.582 234 241 251
0.395206 -0.429571 -0.582 208 212 221
0.398531 -0.429571 -0.582 231 233 246
0.39964 -0.429571 -0.582 219 221 234
0.408509 -0.429571 -0.582 201 204 213
0.437357 -0.431786 -0.585 75 115 176
0.447386 -0.431786 -0.585 128 146 186
0.459312 -0.432524 -0.586 190 190 190
0.462661 -0.432524 -0.586 207 214 224
0.487217 -0.432524 -0.586 93 117 145
0.48945 -0.432524 -0.586 177 193 219
0.505938 -0.433262 -0.587 135 171 221
0.46793 -0.373476 -0.506 158 128 117
0.444486 -0.346905 -0.47 162 129 114
0.44323 -0.342476 -0.464 165 129 115
0.442421 -0.326238 -0.442 176 135 113
0.448429 -0.317381 -0.43 183 139 112
0.448203 -0.316643 -0.429 179 135 108
0.449367 -0.315167 -0.427 184 138 112
0.462592 -0.311476 -0.422 171 124 94
0.499012 -0.322548 -0.437 143 107 81
0.04712 -0.39368 -0.532 200 156 129
0.0688381 -0.3848 -0.52 199 153 127
0.107486 -0.3996 -0.54 161 112 95
0.134556 -0.42328 -0.572 102 94 105
0.138307 -0.42476 -0.574 117 114 125
0.147053 -0.42476 -0.574 165 165 173
0.150333 -0.42476 -0.574 189 185 186
0.156893 -0.42476 -0.574 189 196 215
0.163453 -0.42476 -0.574 111 131 168
0.189693 -0.42476 -0.574 227 234 250
0.208643 -0.4255 -0.575 186 193 211
0.375713 -0.42994 -0.581 102 137 193
0.398531 -0.43068 -0.582 215 217 232
0.424757 -0.43142 -0.583 104 128 176
0.43031 -0.43142 -0.583 73 109 171
0.43216 -0.43216 -0.584 75 111 173
0.47159 -0.43364 -0.586 158 158 170
0.473823 -0.43364 -0.586 201 201 213
0.480222 -0.43438 -0.587 206 214 227
0.486101 -0.43364 -0.586 153 173 197
0.445478 -0.34928 -0.472 161 129 114
0.442038 -0.3404 -0.46 167 134 117
0.44002 -0.33226 -0.449 166 129 111
0.441734 -0.32782 -0.443 175 137 116
0.442421 -0.32708 -0.442 176 135 115
0.44226 -0.32634 -0.441 177 136 114
0.444075 -0.32338 -0.437 178 136 112
0.445784 -0.32042 -0.433 178 136 111
0.447386 -0.31746 -0.429 180 136 107
0.45018 -0.31598 -0.427 183 137 111
0.449937 -0.31524 -0.426 187 141 115
0.460694 -0.31154 -0.421 172 125 97
0.476405 -0.3145 -0.425 153 112 82
0.483029 -0.31672 -0.428 145 110 80
0.0452629 -0.396177 -0.534 193 151 126
0.0478619 -0.392468 -0.529 195 151 126
0.0779019 -0.386532 -0.521 194 147 121
0.135883 -0.425111 -0.573 114 107 114
0.147053 -0.425853 -0.574 172 173 178
0.14924 -0.425853 -0.574 183 182 187
0.154707 -0.425853 -0.574 195 199 211
0.157987 -0.425853 -0.574 192 200 219
0.295094 -0.428079 -0.577 98 130 179
0.322029 -0.428821 -0.578 235 239 251
0.397847 -0.431047 -0.581 207 206 224
0.418486 -0.431789 -0.582 221 227 243
0.465214 -0.434014 -0.585 194 196 208
0.483043 -0.434014 -0.585 200 207 217
0.497263 -0.434756 -0.586 49 91 151
0.502844 -0.434756 -0.586 40 80 149
0.505076 -0.434756 -0.586 87 129 187
0.449371 -0.356114 -0.48 157 127 116
0.4433 -0.344986 -0.465 166 133 116
0.442038 -0.341276 -0.46 166 133 116
0.440747 -0.332373 -0.448 170 132 113
0.442095 -0.326438 -0.44 184 142 118
0.447009 -0.319761 -0.431 180 139 109
0.448553 -0.316793 -0.427 180 134 108
0.451603 -0.313826 -0.423 178 132 106
0.457487 -0.312342 -0.421 176 131 102
0.459892 -0.312342 -0.421 173 128 97
0.468219 -0.313084 -0.422 172 127 96
0.469827 -0.313084 -0.422 158 115 83
0.472551 -0.313826 -0.423 161 117 88
0.475284 -0.314568 -0.424 154 113 85
0.489381 -0.319019 -0.43 149 108 86
0.0450933 -0.395707 -0.532 195 153 128
0.0696943 -0.386037 -0.519 198 154 127
0.0757714 -0.386781 -0.52 194 149 120
0.0965914 -0.394963 -0.531 181 129 107
0.0977867 -0.395707 -0.532 177 127 102
0.108715 -0.402401 -0.541 161 115 92
0.136974 -0.426203 -0.573 127 122 129
0.150071 -0.426203 -0.573 195 190 194
0.163169 -0.426203 -0.573 198 212 241
0.16426 -0.426203 -0.573 200 214 243
0.168626 -0.426203 -0.573 177 192 231
0.198094 -0.426203 -0.573 240 243 255
0.20828 -0.426947 -0.574 214 217 232
0.371752 -0.43141 -0.58 117 157 216
0.389429 -0.43141 -0.58 197 207 206
0.428463 -0.432897 -0.582 69 109 170
0.43253 -0.433641 -0.583 60 104 167
0.461082 -0.434385 -0.584 181 185 196
0.478586 -0.435129 -0.585 206 215 220
0.494186 -0.435129 -0.585 68 106 169
0.441927 -0.326532 -0.439 180 138 113
0.44679 -0.319838 -0.43 179 135 108
0.451603 -0.314631 -0.423 174 129 100
0.4596 -0.3124 -0.42 172 126 93
0.4636 -0.3124 -0.42 170 123 97
0.469827 -0.313888 -0.422 164 120 91
0.492161 -0.320582 -0.431 143 109 84
0.0392857 -0.410143 -0.55 192 151 123
0.0449238 -0.395229 -0.53 196 155 127
0.0540848 -0.388517 -0.521 202 158 129
0.0599238 -0.387771 -0.52 202 159 125
0.0627743 -0.387026 -0.519 204 161 127
0.0954 -0.395229 -0.53 181 129 105
0.10626 -0.40194 -0.539 164 116 102
0.140249 -0.427294 -0.573 131 128 137
0.144614 -0.427294 -0.573 176 173 180
0.174869 -0.426549 -0.572 114 146 193
0.177048 -0.426549 -0.572 166 196 246
0.197003 -0.427294 -0.573 237 238 255
0.200277 -0.427294 -0.573 240 242 255
0.201369 -0.427294 -0.573 233 235 247
0.212653 -0.42804 -0.574 240 242 255
0.213747 -0.42804 -0.574 239 241 255
0.32367 -0.430277 -0.577 235 245 254
0.326967 -0.430277 -0.577 238 240 252
0.353956 -0.431023 -0.578 194 200 212
0.372214 -0.431769 -0.579 134 175 231
0.392743 -0.432514 -0.58 215 220 223
0.404895 -0.432514 -0.58 201 206 226
0.43844 -0.434006 -0.582 79 118 177
0.449188 -0.434751 -0.583 202 211 226
0.472206 -0.435497 -0.584 158 158 166
0.493071 -0.436243 -0.585 54 91 159
0.497529 -0.436243 -0.585 32 73 135
0.500015 -0.435497 -0.584 33 73 143
0.505577 -0.435497 -0.584 52 91 160
0.5109 -0.436243 -0.585 133 164 210
0.449348 -0.357197 -0.479 161 129 116
0.44838 -0.355706 -0.477 161 129 116
0.440896 -0.340791 -0.457 167 132 113
0.440143 -0.335571 -0.45 167 129 108
0.44089 -0.330351 -0.443 174 136 113
0.44142 -0.32886 -0.441 173 135 112
0.442095 -0.328114 -0.44 174 134 109
0.445971 -0.320657 -0.43 182 138 111
0.446569 -0.319911 -0.429 180 136 109
0.448553 -0.31842 -0.427 181 135 109
0.451339 -0.314691 -0.422 178 133 104
0.455081 -0.313946 -0.421 179 133 107
0.460102 -0.312454 -0.419 170 125 94
0.0578314 -0.388014 -0.519 204 161 129
0.0617857 -0.388014 -0.519 203 160 128
0.0777524 -0.388762 -0.52 191 141 116
0.0918486 -0.393995 -0.527 186 134 110
0.215557 -0.428386 -0.573 246 243 255
0.224289 -0.428386 -0.573 109 129 164
0.226471 -0.428386 -0.573 169 188 218
0.366067 -0.432124 -0.578 122 155 206
0.36937 -0.432124 -0.578 106 143 188
0.460292 -0.435862 -0.583 173 176 193
0.466644 -0.43661 -0.584 140 146 168
0.477768 -0.43661 -0.584 202 203 208
0.488891 -0.43661 -0.584 59 100 154
0.501128 -0.43661 -0.584 27 71 136
0.451244 -0.360352 -0.482 160 131 117
0.4408 -0.340914 -0.456 165 130 111
0.445577 -0.322971 -0.432 179 137 112
0.445367 -0.322224 -0.431 180 138 113
0.448553 -0.319233 -0.427 180 134 108
0.450248 -0.31699 -0.424 179 133 107
0.450535 -0.315495 -0.422 182 136 110
0.451873 -0.314748 -0.421 180 133 105
0.493803 -0.322224 -0.431 127 100 79
0.0418952 -0.397248 -0.53 196 154 129
0.0596933 -0.388253 -0.518 203 160 128
0.0840171 -0.391251 -0.522 184 134 109
0.115972 -0.412988 -0.551 124 100 96
0.153078 -0.428728 -0.572 192 200 211
0.172388 -0.427978 -0.571 132 155 189
0.177826 -0.427978 -0.571 198 212 238
0.178913 -0.427978 -0.571 194 208 234
0.196659 -0.428728 -0.572 233 242 251
0.395374 -0.433974 -0.579 230 234 246
0.437687 -0.435473 -0.581 130 170 229
0.452851 -0.436223 -0.582 211 212 217
0.466955 -0.436972 -0.583 156 169 188
0.468869 -0.437722 -0.584 166 179 198
0.482217 -0.437722 -0.584 207 205 216
0.490004 -0.437722 -0.584 42 79 132
0.505822 -0.436972 -0.583 43 83 144
0.514706 -0.436972 -0.583 165 161 160
0.473527 -0.383007 -0.511 155 127 115
0.460586 -0.371014 -0.495 158 129 115
0.451244 -0.36127 -0.482 163 131 118
0.44241 -0.327542 -0.437 179 137 112
0.449731 -0.316299 -0.422 180 135 106
0.456111 -0.31405 -0.419 171 131 95
0.461392 -0.313301 -0.418 163 122 92
0.037821 -0.408777 -0.544 193 153 127
0.0417371 -0.396754 -0.528 197 155 130
0.0454133 -0.393749 -0.524 201 157 130
0.0605629 -0.388489 -0.517 200 157 125
0.06956 -0.38924 -0.518 197 152 123
0.156073 -0.429066 -0.571 88 102 139
0.162314 -0.428314 -0.57 213 220 236
0.209733 -0.429817 -0.572 236 243 251
0.382581 -0.434326 -0.578 219 226 255
0.383682 -0.434326 -0.578 227 229 241
0.389187 -0.434326 -0.578 233 236 243
0.447647 -0.43658 -0.581 203 213 225
0.448753 -0.43658 -0.581 205 215 227
0.47806 -0.438083 -0.583 163 166 173
0.485833 -0.438083 -0.583 154 168 205
0.489165 -0.438083 -0.583 54 87 138
0.491116 -0.438834 -0.584 66 101 159
0.504711 -0.438083 -0.583 54 94 156
0.50828 -0.437331 -0.582 81 122 176
0.517575 -0.422303 -0.562 153 121 106
0.450286 -0.360686 -0.48 162 130 115
0.44932 -0.359183 -0.478 162 130 115
0.440737 -0.332131 -0.442 175 134 112
0.443931 -0.324617 -0.432 176 134 109
0.448071 -0.319357 -0.425 183 139 112
0.447825 -0.318606 -0.424 183 139 112
0.457411 -0.314097 -0.418 165 127 91
0.474327 -0.316351 -0.421 125 99 84
0.475129 -0.316351 -0.421 126 100 85
0.0376819 -0.408307 -0.542 196 155 125
0.0674562 -0.389473 -0.517 196 151 120
0.0808791 -0.392487 -0.521 188 141 115
0.0830229 -0.39324 -0.522 186 139 113
0.10382 -0.40454 -0.537 160 115 96
0.112005 -0.412073 -0.547 143 102 96
0.114923 -0.415087 -0.551 128 100 97
0.151723 -0.430153 -0.571 189 198 213
0.160143 -0.4294 -0.57 210 216 230
0.38148 -0.435427 -0.578 167 178 208
0.411206 -0.435427 -0.578 233 232 246
0.440248 -0.436933 -0.58 187 208 239
0.460611 -0.43844 -0.582 211 214 223
0.488054 -0.439193 -0.583 106 135 179
0.489165 -0.439193 -0.583 100 129 173
0.494977 -0.43844 -0.582 47 88 144
0.440489 -0.34126 -0.453 167 130 111
0.440377 -0.340507 -0.452 168 131 112
0.441238 -0.340507 -0.452 167 130 111
0.448928 -0.317907 -0.422 176 135 107
0.451071 -0.317153 -0.421 173 129 100
0.4516 -0.3164 -0.42 175 131 102
0.455819 -0.314893 -0.418 165 126 93
0.464577 -0.314893 -0.418 126 97 79
0.46617 -0.314893 -0.418 128 99 83
0.0509114 -0.391969 -0.519 203 158 125
0.0797333 -0.392724 -0.52 187 140 114
0.0807238 -0.392724 -0.52 187 140 114
0.0906724 -0.397255 -0.526 183 135 113
0.0928524 -0.39801 -0.527 182 134 111
0.147114 -0.430486 -0.57 180 184 195
0.1938 -0.430486 -0.57 233 237 249
0.373127 -0.435772 -0.577 198 213 234
0.455393 -0.438793 -0.581 217 220 229
0.494977 -0.439549 -0.582 60 97 149
0.497194 -0.439549 -0.582 50 97 165
0.508513 -0.438793 -0.581 71 87 120
0.447366 -0.357983 -0.474 165 132 117
0.441328 -0.336836 -0.446 167 129 108
0.442871 -0.328529 -0.435 178 136 112
0.44621 -0.320221 -0.424 178 137 109
0.447062 -0.317955 -0.421 179 138 110
0.448666 -0.317955 -0.421 177 133 106
0.472073 -0.316445 -0.419 62 47 42
0.483831 -0.319466 -0.423 41 31 32
0.0364467 -0.4081 -0.539 193 154 125
0.0413419 -0.395986 -0.523 199 153 127
0.0603286 -0.389929 -0.515 201 156 125
0.0683086 -0.390686 -0.516 195 150 121
0.109117 -0.411129 -0.543 146 102 91
0.150371 -0.431571 -0.57 183 188 210
0.157694 -0.430814 -0.569 205 208 225
0.351024 -0.435357 -0.575 123 143 170
0.43618 -0.438386 -0.579 174 208 246
0.439489 -0.438386 -0.579 195 206 226
0.460927 -0.4399 -0.581 208 212 224
0.465353 -0.4399 -0.581 208 210 223
0.47724 -0.440657 -0.582 206 206 216
0.485 -0.440657 -0.582 66 88 127
0.491913 -0.4399 -0.581 157 180 212
0.515153 -0.4399 -0.581 186 187 192
0.5168 -0.424 -0.56 149 125 113
0.461529 -0.374786 -0.495 154 126 114
0.452162 -0.364943 -0.482 156 128 114
0.45026 -0.362671 -0.479 159 131 117
0.4422 -0.3498 -0.462 163 130 113
0.442043 -0.329357 -0.435 176 136 111
0.44268 -0.3286 -0.434 175 135 110
0.480742 -0.318757 -0.421 38 29 30
0.497908 -0.326329 -0.431 52 46 46
0.0459686 -0.393946 -0.519 201 158 126
0.0565143 -0.391669 -0.516 200 157 123
0.0828638 -0.395464 -0.521 187 137 114
0.0838562 -0.395464 -0.521 189 139 116
0.0883314 -0.397741 -0.524 186 136 113
0.0895 -0.3985 -0.525 188 138 115
0.106457 -0.409886 -0.54 153 110 93
0.112005 -0.415199 -0.547 141 101 93
0.137102 -0.431898 -0.569 84 99 122
0.140353 -0.431898 -0.569 123 132 163
0.146856 -0.431898 -0.569 157 164 182
0.14794 -0.431898 -0.569 177 184 202
0.157417 -0.431139 -0.568 216 219 236
0.158499 -0.431139 -0.568 214 217 234
0.194544 -0.431898 -0.569 236 237 255
0.196711 -0.431898 -0.569 237 240 255
0.222029 -0.432657 -0.57 237 244 254
0.369643 -0.436452 -0.575 189 206 226
0.374674 -0.437211 -0.576 233 235 255
0.381257 -0.437211 -0.576 125 139 165
0.456819 -0.440248 -0.58 213 215 227
0.470887 -0.441007 -0.581 208 212 221
0.488593 -0.441007 -0.581 188 199 221
0.490807 -0.441007 -0.581 156 175 205
0.449289 -0.362066 -0.477 161 132 118
0.440377 -0.34309 -0.452 167 131 109
0.442043 -0.330186 -0.435 173 133 108
0.44626 -0.319559 -0.421 177 135 111
0.449963 -0.316523 -0.417 155 120 100
0.468231 -0.316523 -0.417 40 32 30
0.471743 -0.317282 -0.418 38 28 29
0.0368476 -0.403305 -0.53 192 153 120
0.0652333 -0.39189 -0.515 194 147 119
0.0702743 -0.392651 -0.516 192 145 119
0.0764667 -0.394173 -0.518 188 138 115
0.105038 -0.409392 -0.538 149 113 101
0.146598 -0.432221 -0.568 122 137 170
0.14768 -0.432221 -0.568 128 143 176
0.150926 -0.432221 -0.568 170 178 199
0.344947 -0.436787 -0.574 234 235 253
0.3795 -0.437548 -0.575 181 192 220
0.430277 -0.43907 -0.577 157 190 225
0.445335 -0.43983 -0.578 139 148 179
0.460133 -0.441352 -0.58 209 214 220
0.487487 -0.442113 -0.581 193 201 212
0.488593 -0.442113 -0.581 185 191 213
0.505429 -0.441352 -0.58 176 183 201
0.510952 -0.441352 -0.58 77 93 118
0.447323 -0.35993 -0.473 162 130 117
0.442083 -0.32797 -0.431 175 133 109
0.444656 -0.320361 -0.421 182 137 114
0.45443 -0.316556 -0.416 66 47 41
0.455223 -0.316556 -0.416 57 38 32
0.463939 -0.316556 -0.416 36 27 30
0.465524 -0.316556 -0.416 34 28 30
0.466316 -0.316556 -0.416 33 27 29
0.470614 -0.317317 -0.417 30 24 26
0.471409 -0.317317 -0.417 30 24 26
0.476862 -0.318839 -0.419 35 30 34
0.482346 -0.320361 -0.421 27 26 32
0.0374286 -0.399737 -0.524 193 152 122
0.047761 -0.394397 -0.517 200 157 125
0.0516 -0.393634 -0.516 203 159 130
0.0535657 -0.393634 -0.516 203 158 129
0.09522 -0.403551 -0.529 174 126 103
0.146598 -0.433303 -0.568 98 115 158
0.15066 -0.43254 -0.567 191 196 215
0.15174 -0.43254 -0.567 203 208 227
0.15498 -0.43254 -0.567 211 213 225
0.16038 -0.43254 -0.567 220 224 235
0.16578 -0.43254 -0.567 127 151 187
0.16686 -0.43254 -0.567 143 167 203
0.18771 -0.433303 -0.568 238 236 255
0.190956 -0.433303 -0.568 176 189 206
0.376214 -0.438643 -0.575 235 234 248
0.3795 -0.438643 -0.575 218 221 236
0.388262 -0.438643 -0.575 231 231 243
0.392643 -0.438643 -0.575 238 240 255
0.443466 -0.440169 -0.577 206 205 219
0.468971 -0.442457 -0.58 209 215 229
0.4756 -0.442457 -0.58 202 206 207
0.488857 -0.442457 -0.58 182 188 202
0.49659 -0.442457 -0.58 77 121 170
0.445327 -0.35778 -0.469 161 128 113
0.444317 -0.356254 -0.467 161 128 113
0.442229 -0.332606 -0.436 175 130 107
0.442083 -0.328791 -0.431 175 133 109
0.442047 -0.32574 -0.427 173 132 110
0.443214 -0.324214 -0.425 172 130 106
0.454919 -0.316586 -0.415 38 29 32
0.461243 -0.316586 -0.415 32 27 31
0.487054 -0.322689 -0.423 34 33 38
0.489013 -0.323451 -0.424 32 31 36
0.0340743 -0.408383 -0.534 194 148 124
0.0357029 -0.403794 -0.528 193 149 122
0.0410257 -0.396911 -0.519 203 159 130
0.047761 -0.395382 -0.517 201 158 124
0.0691571 -0.393852 -0.515 193 146 120
0.07958 -0.396911 -0.519 186 136 113
0.0860057 -0.399206 -0.522 185 135 112
0.0916743 -0.402265 -0.526 180 130 107
0.0928524 -0.40303 -0.527 179 129 106
0.102606 -0.409912 -0.536 151 113 102
0.107685 -0.413736 -0.541 137 104 95
0.13037 -0.434385 -0.568 67 72 94
0.15174 -0.43362 -0.567 207 209 222
0.156863 -0.432855 -0.566 210 218 231
0.159019 -0.432855 -0.566 219 223 234
0.205021 -0.434385 -0.568 182 209 254
0.3854 -0.438973 -0.574 223 232 239
0.428434 -0.440503 -0.576 166 193 222
0.447862 -0.441268 -0.577 89 100 130
0.45006 -0.441268 -0.577 203 213 238
0.453042 -0.442032 -0.578 207 214 222
0.476986 -0.442797 -0.579 188 193 199
0.507866 -0.442797 -0.579 169 177 190
0.510071 -0.442797 -0.579 104 120 143
0.445327 -0.358673 -0.469 159 127 114
0.440614 -0.341849 -0.447 166 128 109
0.44104 -0.339554 -0.444 170 132 113
0.440737 -0.338025 -0.442 171 133 112
0.441578 -0.334201 -0.437 174 133 111
0.449169 -0.318906 -0.417 60 41 43
0.458554 -0.316611 -0.414 32 27 31
0.474586 -0.318906 -0.417 29 28 34
0.0467762 -0.396367 -0.517 205 160 127
0.07958 -0.3979 -0.519 186 136 113
0.0817143 -0.398667 -0.52 187 137 114
0.0895 -0.4025 -0.525 182 131 110
0.0976029 -0.4071 -0.531 167 119 99
0.14202 -0.4347 -0.567 148 157 186
0.14634 -0.4347 -0.567 67 89 139
0.1485 -0.4347 -0.567 130 148 198
0.14958 -0.4347 -0.567 173 191 241
0.156863 -0.433933 -0.566 208 218 230
0.157941 -0.433933 -0.566 211 221 233
0.37054 -0.4393 -0.573 185 205 232
0.371631 -0.4393 -0.573 224 232 253
0.426595 -0.440833 -0.575 167 194 224
0.443794 -0.4416 -0.576 215 221 237
0.46706 -0.4439 -0.579 203 213 223
0.476986 -0.4439 -0.579 91 97 119
0.501249 -0.4439 -0.579 127 157 185
0.507866 -0.4439 -0.579 188 191 198
0.512277 -0.4439 -0.579 55 73 97
0.471785 -0.387933 -0.506 149 125 115
0.455914 -0.3726 -0.486 154 126 115
0.440489 -0.3473 -0.453 168 133 114
0.440377 -0.346533 -0.452 167 132 113
0.442171 -0.325067 -0.424 164 122 98
0.4436 -0.322 -0.42 143 113 102
0.44414 -0.321233 -0.419 132 102 91
0.446265 -0.320467 -0.418 67 46 41
0.468357 -0.318167 -0.415 24 23 28
0.486707 -0.323533 -0.422 34 33 38
0.0591171 -0.394277 -0.513 196 149 121
0.0827048 -0.399657 -0.52 185 135 112
0.0964095 -0.407343 -0.53 169 121 99
0.14716 -0.435011 -0.566 74 94 144
0.150394 -0.435011 -0.566 203 206 213
0.152281 -0.434243 -0.565 209 212 227
0.185971 -0.435011 -0.566 236 240 249
0.189206 -0.435011 -0.566 234 236 251
0.380363 -0.440391 -0.573 227 232 251
0.444891 -0.442697 -0.576 210 212 225
0.445989 -0.442697 -0.576 199 204 223
0.47478 -0.445003 -0.579 196 204 225
0.482768 -0.444234 -0.578 194 202 215
0.489373 -0.444234 -0.578 141 152 174
0.505888 -0.444234 -0.578 188 189 194
0.475514 -0.391971 -0.51 149 125 113
0.440747 -0.34432 -0.448 165 128 110
0.440614 -0.343551 -0.447 165 128 110
0.441257 -0.338171 -0.44 169 131 110
0.441214 -0.334329 -0.435 171 132 115
0.443876 -0.321263 -0.418 56 37 33
0.478909 -0.321263 -0.418 31 28 35
0.48165 -0.322031 -0.419 31 30 36
0.0428371 -0.398336 -0.517 207 160 130
0.0701381 -0.396795 -0.515 196 144 122
0.0721 -0.396795 -0.515 197 145 123
0.07844 -0.399107 -0.518 190 140 117
0.101206 -0.411434 -0.534 156 114 100
0.105233 -0.415287 -0.539 146 108 97
0.137457 -0.43609 -0.566 70 86 122
0.439738 -0.443024 -0.575 220 225 229
0.447086 -0.443794 -0.576 211 214 229
0.46215 -0.444565 -0.577 77 102 158
0.48413 -0.444565 -0.577 198 203 209
0.48523 -0.444565 -0.577 197 202 208
0.490474 -0.445335 -0.578 105 131 166
0.491575 -0.445335 -0.578 123 149 184
0.442038 -0.354419 -0.46 161 129 114
0.441027 -0.334387 -0.434 171 133 114
0.442 -0.3236 -0.42 69 50 46
0.445714 -0.320518 -0.416 30 23 31
0.447805 -0.319748 -0.415 30 25 31
0.448595 -0.319748 -0.415 26 24 29
0.46138 -0.318207 -0.413 28 27 33
0.0309067 -0.410907 -0.532 196 149 119
0.0640029 -0.396231 -0.513 194 144 119
0.0659571 -0.396231 -0.513 195 145 122
0.0740619 -0.397776 -0.515 194 144 121
0.0883314 -0.404728 -0.524 183 133 110
0.0930286 -0.407817 -0.528 173 126 106
0.140443 -0.436395 -0.565 176 188 212
0.143671 -0.436395 -0.565 155 169 198
0.144748 -0.436395 -0.565 143 157 186
0.150129 -0.436395 -0.565 204 210 224
0.152011 -0.435623 -0.564 206 214 225
0.156309 -0.435623 -0.564 214 223 232
0.214002 -0.437168 -0.566 213 227 253
0.374251 -0.441802 -0.572 230 234 246
0.442253 -0.443347 -0.574 216 218 231
0.447405 -0.444119 -0.575 202 215 224
0.469843 -0.445664 -0.577 172 179 198
0.48413 -0.445664 -0.577 194 202 204
0.463414 -0.382329 -0.495 148 124 114
0.450197 -0.368426 -0.477 155 127 115
0.440377 -0.349116 -0.452 166 130 114
0.457447 -0.318993 -0.413 24 22 27
0.458233 -0.318993 -0.413 28 26 31
0.462953 -0.318993 -0.413 29 28 33
0.491436 -0.32749 -0.424 37 35 40
0.034959 -0.400306 -0.517 196 150 117
0.0669343 -0.397209 -0.513 192 145 117
0.0986143 -0.411146 -0.531 156 112 103
0.100001 -0.412694 -0.533 153 109 100
0.105429 -0.418114 -0.54 144 106 97
0.143417 -0.436697 -0.564 168 179 201
0.465737 -0.445989 -0.576 199 204 226
0.475611 -0.445989 -0.576 192 198 210
0.488527 -0.446763 -0.577 113 128 151
0.494263 -0.445989 -0.576 139 169 197
0.4408 -0.353074 -0.456 158 126 111
0.44002 -0.347654 -0.449 159 124 105
0.439418 -0.339911 -0.439 166 129 110
0.43962 -0.333717 -0.431 169 134 104
0.439419 -0.332943 -0.43 166 132 107
0.440031 -0.332169 -0.429 162 130 109
0.4402 -0.329846 -0.426 130 106 96
0.44202 -0.322877 -0.417 34 27 34
0.445937 -0.320554 -0.414 22 19 26
0.450669 -0.320554 -0.414 25 22 29
0.452727 -0.31978 -0.413 26 23 30
0.452415 -0.319006 -0.412 26 23 30
0.4532 -0.319006 -0.412 25 22 29
0.462167 -0.31978 -0.413 29 26 33
0.0339743 -0.40129 -0.517 195 149 116
0.0445467 -0.398962 -0.514 203 157 123
0.0503229 -0.398186 -0.513 202 158 123
0.073081 -0.399738 -0.515 192 145 115
0.0750429 -0.399738 -0.515 191 144 114
0.0942124 -0.410605 -0.529 168 119 102
0.132674 -0.437771 -0.564 139 146 164
0.136971 -0.437771 -0.564 125 128 145
0.144235 -0.436995 -0.563 188 190 205
0.148525 -0.436995 -0.563 135 148 167
0.159249 -0.436995 -0.563 212 222 231
0.215776 -0.438548 -0.565 243 247 255
0.216852 -0.438548 -0.565 239 243 255
0.371422 -0.443205 -0.571 222 234 255
0.449595 -0.44631 -0.575 160 175 204
0.462446 -0.447086 -0.576 70 102 163
0.46464 -0.447086 -0.576 175 195 228
0.469029 -0.447086 -0.576 133 150 180
0.470126 -0.447086 -0.576 78 107 147
0.484643 -0.44631 -0.575 195 200 204
0.486583 -0.447086 -0.576 153 167 194
0.492069 -0.447086 -0.576 127 160 201
0.493166 -0.447086 -0.576 139 166 193
0.50304 -0.447086 -0.576 189 194 200
0.509623 -0.447086 -0.576 179 188 197
0.511817 -0.447086 -0.576 182 191 206
0.512914 -0.447086 -0.576 176 182 194
0.511762 -0.426905 -0.55 148 119 103
0.448224 -0.367138 -0.473 154 125 111
0.445269 -0.363257 -0.468 150 127 113
0.439081 -0.339195 -0.437 168 133 114
0.438907 -0.338419 -0.436 166 133 114
0.43962 -0.334538 -0.431 169 131 108
0.440086 -0.327552 -0.422 50 35 32
0.450367 -0.320567 -0.413 22 19 26
0.4532 -0.31979 -0.412 25 22 29
0.465313 -0.320567 -0.413 23 22 28
0.475471 -0.322119 -0.415 26 23 30
0.0320667 -0.403053 -0.518 196 149 119
0.0503229 -0.399163 -0.513 201 157 122
0.0590019 -0.398385 -0.512 193 148 117
0.0836952 -0.40461 -0.52 183 136 110
0.0848486 -0.405388 -0.521 183 136 110
0.085841 -0.405388 -0.521 183 135 112
0.0938562 -0.410056 -0.527 170 121 104
0.12257 -0.43729 -0.562 89 84 88
0.145308 -0.438068 -0.563 196 202 216
0.371857 -0.443514 -0.57 231 235 247
0.467931 -0.448183 -0.576 127 148 175
0.47232 -0.448183 -0.576 101 132 176
0.480262 -0.447405 -0.575 153 158 154
0.482452 -0.447405 -0.575 207 206 211
0.497786 -0.447405 -0.575 96 123 153
0.499749 -0.448183 -0.576 104 138 175
0.509833 -0.447405 -0.575 189 190 194
0.44622 -0.364927 -0.469 150 126 114
0.439931 -0.354811 -0.456 157 125 110
0.439731 -0.353255 -0.454 158 127 109
0.438911 -0.347809 -0.447 158 125 108
0.438582 -0.341584 -0.439 167 132 113
0.439167 -0.33069 -0.425 57 41 41
0.44015 -0.326022 -0.419 28 23 30
0.457909 -0.320575 -0.412 27 24 31
0.4661 -0.321353 -0.413 23 22 28
0.0338429 -0.4017 -0.515 197 148 118
0.0367143 -0.40092 -0.514 200 151 121
0.0404724 -0.39936 -0.512 206 157 125
0.070981 -0.40092 -0.514 192 147 116
0.073081 -0.4017 -0.515 192 146 113
0.124932 -0.43914 -0.563 116 116 118
0.139946 -0.43914 -0.563 193 194 199
0.143979 -0.43836 -0.562 203 206 215
0.149331 -0.43836 -0.562 73 96 130
0.3762 -0.4446 -0.57 237 240 249
0.456167 -0.4485 -0.575 176 194 218
0.460548 -0.4485 -0.575 53 92 147
0.47369 -0.4485 -0.575 199 205 219
0.501071 -0.4485 -0.575 133 142 147
0.456824 -0.3783 -0.485 152 124 113
0.444186 -0.3627 -0.465 153 124 110
0.439516 -0.35256 -0.452 158 125 108
0.439286 -0.351 -0.45 157 124 107
0.438357 -0.3315 -0.425 47 33 33
0.44015 -0.32682 -0.419 26 21 28
0.440691 -0.32604 -0.418 27 22 29
0.470033 -0.32214 -0.413 29 26 33
0.478994 -0.32448 -0.416 29 28 34
0.0679114 -0.401117 -0.513 193 146 116
0.07196 -0.401899 -0.514 193 146 116
0.0760238 -0.402681 -0.515 190 144 111
0.0881629 -0.408936 -0.523 177 129 106
0.102989 -0.420665 -0.538 141 104 96
0.107049 -0.424574 -0.543 125 101 99
0.131133 -0.43943 -0.562 169 166 173
0.132204 -0.43943 -0.562 163 166 173
0.367953 -0.444904 -0.569 181 202 231
0.4674 -0.448813 -0.574 160 180 207
0.478333 -0.448813 -0.574 188 192 195
0.485987 -0.448813 -0.574 128 138 148
0.443157 -0.362022 -0.463 156 127 113
0.439043 -0.329182 -0.421 22 20 31
0.446433 -0.322927 -0.413 24 21 28
0.45163 -0.322145 -0.412 28 27 33
0.0283371 -0.409149 -0.522 198 151 123
0.0394971 -0.40131 -0.512 206 156 123
0.0521752 -0.40131 -0.512 199 154 123
0.05694 -0.400527 -0.511 194 147 117
0.0618067 -0.400527 -0.511 188 141 111
0.0740619 -0.403662 -0.515 191 144 114
0.09522 -0.414635 -0.529 164 119 100
0.0976029 -0.416203 -0.531 155 112 95
0.1044 -0.423257 -0.54 131 102 98
0.140768 -0.440501 -0.562 200 198 203
0.442117 -0.447555 -0.571 189 189 191
0.468493 -0.449907 -0.574 140 156 182
0.4838 -0.449907 -0.574 200 204 207
0.485987 -0.449907 -0.574 121 129 140
0.501293 -0.449907 -0.574 178 190 202
0.452051 -0.374661 -0.478 152 123 109
0.442121 -0.361336 -0.461 157 128 114
0.439931 -0.357417 -0.456 160 128 115
0.439833 -0.356633 -0.455 159 127 114
0.43737 -0.346444 -0.442 157 121 105
0.436711 -0.33939 -0.433 145 111 99
0.438133 -0.332335 -0.424 30 25 31
0.437906 -0.331551 -0.423 24 19 25
0.441226 -0.326849 -0.417 23 20 27
0.448007 -0.323713 -0.413 29 26 33
0.459146 -0.322146 -0.411 22 21 27
0.477843 -0.325281 -0.415 29 28 34
0.0316952 -0.402286 -0.512 201 154 124
0.0442867 -0.4015 -0.511 202 155 125
0.04818 -0.4015 -0.511 200 154 121
0.0511 -0.4015 -0.511 202 157 124
0.05694 -0.4015 -0.511 193 148 117
0.0579133 -0.4015 -0.511 194 149 118
0.05986 -0.4015 -0.511 190 145 112
0.0647267 -0.4015 -0.511 194 149 118
0.0658286 -0.402286 -0.512 197 152 121
0.0815571 -0.407786 -0.519 184 136 113
0.1044 -0.424286 -0.54 129 99 97
0.126626 -0.440786 -0.561 147 147 149
0.131969 -0.440786 -0.561 173 172 178
0.137311 -0.440786 -0.561 180 175 179
0.14586 -0.440786 -0.561 207 210 219
0.489506 -0.450214 -0.573 126 154 194
0.49278 -0.450214 -0.573 138 170 208
0.494963 -0.450214 -0.573 111 141 177
0.507853 -0.451 -0.574 190 189 194
0.44323 -0.364571 -0.464 153 124 110
0.441162 -0.361429 -0.46 155 125 114
0.436811 -0.348857 -0.444 157 121 107
0.437674 -0.331571 -0.422 24 21 30
0.465409 -0.322929 -0.411 23 22 28
0.0246867 -0.41665 -0.529 189 143 117
0.0326067 -0.402473 -0.511 200 153 123
0.0530467 -0.402473 -0.511 196 150 117
0.05402 -0.402473 -0.511 195 149 116
0.0677791 -0.403261 -0.512 194 149 116
0.0792733 -0.407199 -0.517 182 135 109
0.0825457 -0.408774 -0.519 185 137 114
0.0991714 -0.420589 -0.534 145 105 93
0.127694 -0.441854 -0.561 159 158 164
0.1309 -0.441854 -0.561 178 175 182
0.133037 -0.441854 -0.561 182 181 187
0.410222 -0.448155 -0.569 204 213 228
0.441343 -0.448943 -0.57 188 190 203
0.447555 -0.44973 -0.571 209 216 234
0.468769 -0.451306 -0.573 196 198 211
0.470951 -0.451306 -0.573 187 191 203
0.4775 -0.451306 -0.573 199 202 221
0.494099 -0.450518 -0.572 123 153 189
0.498457 -0.450518 -0.572 153 171 191
0.506969 -0.451306 -0.573 186 185 190
0.453943 -0.378057 -0.48 154 122 107
0.444253 -0.36703 -0.466 154 122 111
0.440116 -0.36073 -0.458 156 126 115
0.438867 -0.357579 -0.454 157 125 112
0.437685 -0.355216 -0.451 155 123 110
0.437571 -0.354429 -0.45 155 123 110
0.43656 -0.337101 -0.428 36 27 30
0.450061 -0.324499 -0.412 23 22 28
0.4521 -0.323711 -0.411 26 25 31
0.464626 -0.323711 -0.411 22 21 27
0.470465 -0.324499 -0.412 24 27 32
0.0261971 -0.409763 -0.519 196 149 119
0.0519714 -0.402657 -0.51 200 153 123
0.0548857 -0.402657 -0.51 199 150 120
0.0657 -0.403447 -0.511 195 150 117
0.0739181 -0.405815 -0.514 197 149 113
0.101964 -0.424764 -0.538 128 103 96
0.1264 -0.442133 -0.56 155 155 163
0.138133 -0.442133 -0.56 194 192 197
0.447555 -0.450818 -0.571 213 219 233
0.460037 -0.452397 -0.573 98 113 136
0.46222 -0.452397 -0.573 186 198 220
0.466861 -0.451608 -0.572 199 201 214
0.478846 -0.451608 -0.572 193 199 213
0.49192 -0.451608 -0.572 132 165 200
0.49301 -0.451608 -0.572 129 162 197
0.494099 -0.451608 -0.572 123 153 189
0.501726 -0.451608 -0.572 190 193 198
0.440203 -0.362391 -0.459 154 124 113
0.43623 -0.352128 -0.446 149 117 106
0.435686 -0.34897 -0.442 143 110 101
0.43508 -0.345811 -0.438 133 104 96
0.435914 -0.345811 -0.438 123 98 93
0.440691 -0.330021 -0.418 25 20 27
0.441226 -0.329231 -0.417 30 25 32
0.0278486 -0.406003 -0.513 203 154 124
0.0382962 -0.402837 -0.509 205 156 124
0.0500286 -0.403629 -0.51 203 154 124
0.0636286 -0.403629 -0.51 192 147 114
0.0727971 -0.406003 -0.513 191 145 111
0.127239 -0.442409 -0.559 158 158 168
0.140016 -0.442409 -0.559 162 162 162
0.455966 -0.452697 -0.572 207 213 229
0.458145 -0.452697 -0.572 177 188 208
0.463311 -0.453489 -0.573 207 211 222
0.464682 -0.452697 -0.572 206 212 224
0.47013 -0.452697 -0.572 153 152 158
0.478846 -0.452697 -0.572 193 200 216
0.492148 -0.451906 -0.571 120 150 184
0.504994 -0.452697 -0.572 149 147 150
0.434754 -0.345063 -0.436 70 50 51
0.43554 -0.33794 -0.427 23 16 24
0.43571 -0.335566 -0.424 23 18 25
0.436067 -0.333983 -0.422 21 18 25
0.437439 -0.333191 -0.421 27 24 31
0.438 -0.3324 -0.42 26 23 30
0.445647 -0.32686 -0.413 25 24 30
0.450534 -0.325277 -0.411 21 20 26
0.487237 -0.331609 -0.419 28 27 33
0.0596257 -0.403807 -0.509 196 151 118
0.0747514 -0.40698 -0.513 190 146 111
0.0993571 -0.424433 -0.535 133 103 95
0.119786 -0.443473 -0.559 116 110 110
0.129369 -0.443473 -0.559 159 161 174
0.44382 -0.451407 -0.569 158 159 179
0.479096 -0.452993 -0.571 182 193 215
0.485622 -0.452993 -0.571 148 160 184
0.489972 -0.452993 -0.571 111 136 176
0.504111 -0.452993 -0.571 159 164 168
0.439155 -0.362553 -0.457 151 119 108
0.434246 -0.34748 -0.438 60 44 44
0.434919 -0.346687 -0.437 51 37 37
0.433686 -0.341133 -0.43 27 22 29
0.443062 -0.329233 -0.415 25 20 27
0.450534 -0.32606 -0.411 22 21 27
0.456467 -0.325267 -0.41 22 21 27
0.465838 -0.325267 -0.41 29 28 34
0.032479 -0.404776 -0.509 205 158 128
0.0362857 -0.403981 -0.508 204 158 125
0.048961 -0.404776 -0.509 202 155 125
0.0576867 -0.404776 -0.509 194 149 116
0.0835343 -0.412729 -0.519 169 120 103
0.102153 -0.428633 -0.539 124 100 96
0.118721 -0.444538 -0.559 110 105 102
0.153583 -0.443743 -0.558 95 121 158
0.466045 -0.454081 -0.571 210 212 211
0.469308 -0.454081 -0.571 177 177 177
0.474746 -0.454081 -0.571 87 103 137
0.475833 -0.454081 -0.571 128 144 178
0.483686 -0.453286 -0.57 164 175 195
0.504111 -0.454081 -0.571 158 166 179
0.506287 -0.454081 -0.571 93 102 117
0.442275 -0.368195 -0.463 147 119 107
0.435967 -0.358652 -0.451 145 112 105
0.433757 -0.345929 -0.435 35 26 29
0.433873 -0.342748 -0.431 20 17 24
0.435331 -0.338771 -0.426 23 20 27
0.436067 -0.33559 -0.422 23 20 27
0.444073 -0.328433 -0.413 24 21 28
0.448969 -0.326843 -0.411 20 19 25
0.455686 -0.326048 -0.41 21 18 25
0.473604 -0.327638 -0.412 26 25 31
0.671194 -0.443743 -0.558 200 202 191
0.0188524 -0.426471 -0.535 188 148 122
0.0333829 -0.404949 -0.508 203 158 127
0.0353181 -0.404949 -0.508 203 158 125
0.0596257 -0.405746 -0.509 194 149 118
0.0695933 -0.40734 -0.511 193 148 117
0.0846857 -0.414514 -0.52 174 122 108
0.085841 -0.415311 -0.521 177 125 111
0.123823 -0.444806 -0.558 148 148 158
0.138454 -0.444009 -0.557 186 184 195
0.451114 -0.454371 -0.57 208 212 215
0.454371 -0.454371 -0.57 206 213 219
0.457629 -0.454371 -0.57 205 210 216
0.467132 -0.455169 -0.571 172 174 173
0.471743 -0.454371 -0.57 179 192 209
0.476086 -0.454371 -0.57 108 128 161
0.480429 -0.454371 -0.57 188 201 220
0.486943 -0.454371 -0.57 111 134 165
0.492371 -0.454371 -0.57 76 119 164
0.503229 -0.454371 -0.57 132 147 170
0.433913 -0.34038 -0.427 26 23 30
0.44096 -0.331611 -0.416 27 22 29
0.465838 -0.326829 -0.41 26 25 31
0.46626 -0.326031 -0.409 25 24 30
0.4779 -0.32922 -0.413 29 28 34
0.668789 -0.443211 -0.556 200 202 191
0.673462 -0.445603 -0.559 201 203 192
0.0266619 -0.406715 -0.509 201 156 125
0.102153 -0.430687 -0.539 119 98 95
0.124886 -0.445869 -0.558 119 123 135
0.183343 -0.445869 -0.558 237 239 254
0.458714 -0.455457 -0.57 198 202 211
0.471743 -0.455457 -0.57 196 205 214
0.486943 -0.455457 -0.57 105 130 160
0.492371 -0.455457 -0.57 63 110 166
0.495843 -0.454658 -0.569 151 173 197
0.43392 -0.357973 -0.448 140 112 111
0.43302 -0.35238 -0.441 45 33 33
0.433411 -0.349983 -0.438 28 23 29
0.432411 -0.345189 -0.432 25 20 27
0.434683 -0.337997 -0.423 27 22 29
0.439099 -0.334002 -0.418 25 20 27
0.44096 -0.332404 -0.416 25 20 27
0.445352 -0.329208 -0.412 28 23 30
0.452562 -0.32761 -0.41 29 26 33
0.45847 -0.32681 -0.409 23 20 27
0.463144 -0.32681 -0.409 24 23 29
0.468597 -0.32681 -0.409 28 27 33
0.476743 -0.329208 -0.412 28 27 33
0.480634 -0.330806 -0.414 28 25 32
0.672257 -0.445869 -0.558 201 203 192
0.0275771 -0.406884 -0.508 202 157 124
0.0313857 -0.406083 -0.507 201 156 123
0.0333171 -0.406083 -0.507 204 158 125
0.0352486 -0.406083 -0.507 199 153 119
0.0381457 -0.406083 -0.507 199 153 119
0.0440267 -0.406884 -0.508 200 153 123
0.0488648 -0.406884 -0.508 198 153 122
0.0498324 -0.406884 -0.508 191 146 115
0.0604762 -0.406884 -0.508 197 152 121
0.0644733 -0.407685 -0.509 199 154 123
0.0726552 -0.410088 -0.512 193 148 117
0.115966 -0.44533 -0.556 97 88 89
0.124662 -0.44613 -0.557 127 130 139
0.141383 -0.44533 -0.556 208 208 218
0.45249 -0.455742 -0.569 207 214 220
0.454658 -0.455742 -0.569 207 212 215
0.455742 -0.455742 -0.569 204 209 215
0.465229 -0.456543 -0.57 137 141 142
0.467664 -0.455742 -0.569 204 208 211
0.47525 -0.455742 -0.569 57 80 114
0.485005 -0.455742 -0.569 160 187 217
0.506681 -0.455742 -0.569 140 151 155
0.432452 -0.354822 -0.443 42 30 32
0.432588 -0.346812 -0.433 22 19 26
0.432411 -0.346011 -0.432 24 21 28
0.433709 -0.341206 -0.426 26 21 28
0.452237 -0.32759 -0.409 23 20 27
0.461586 -0.32759 -0.409 21 18 25
0.469376 -0.32759 -0.409 30 27 34
0.0212543 -0.416683 -0.519 196 152 125
0.0294543 -0.407049 -0.507 198 154 125
0.0323514 -0.407049 -0.507 203 156 126
0.03718 -0.407049 -0.507 197 152 121
0.0535971 -0.407049 -0.507 192 145 115
0.0556381 -0.407851 -0.508 199 152 122
0.0983381 -0.429529 -0.535 126 98 87
0.117025 -0.446389 -0.556 116 107 108
0.12254 -0.447191 -0.557 156 156 164
0.125723 -0.447191 -0.557 143 143 153
0.136088 -0.446389 -0.556 180 180 190
0.141383 -0.446389 -0.556 208 210 222
0.150914 -0.446389 -0.556 193 204 222
0.461161 -0.456826 -0.569 208 212 221
0.464412 -0.456826 -0.569 166 171 174
0.474167 -0.456826 -0.569 172 183 201
0.487172 -0.456826 -0.569 61 105 166
0.436367 -0.3653 -0.455 133 113 106
0.435311 -0.363694 -0.453 128 107 102
0.431589 -0.346834 -0.432 22 19 26
0.432867 -0.345229 -0.43 24 22 27
0.436067 -0.338806 -0.422 19 18 24
0.4372 -0.3372 -0.42 21 20 26
0.439099 -0.335594 -0.418 29 24 31
0.450219 -0.329171 -0.41 31 26 33
0.453016 -0.328369 -0.409 23 20 27
0.457349 -0.327566 -0.408 24 21 28
0.461234 -0.327566 -0.408 26 23 30
0.465897 -0.327566 -0.408 27 24 31
0.466674 -0.327566 -0.408 25 24 30
0.0371067 -0.40721 -0.506 198 153 122
0.0399981 -0.40721 -0.506 203 156 126
0.0497343 -0.408014 -0.507 198 153 122
0.063379 -0.408819 -0.508 195 150 119
0.0825457 -0.417671 -0.519 178 130 110
0.0871667 -0.42089 -0.523 167 122 103
0.0883314 -0.421695 -0.524 165 120 101
0.44658 -0.4563 -0.567 214 219 213
0.44766 -0.4563 -0.567 201 200 208
0.457105 -0.457105 -0.568 141 150 167
0.472251 -0.457105 -0.568 192 199 215
0.480907 -0.457105 -0.568 150 169 211
0.492808 -0.457105 -0.568 88 121 172
0.449171 -0.381457 -0.474 127 108 102
0.431862 -0.358119 -0.445 47 35 37
0.432048 -0.346048 -0.43 27 22 29
0.432484 -0.344438 -0.428 25 22 29
0.433288 -0.341219 -0.424 20 17 24
0.438553 -0.337195 -0.419 23 20 27
0.439099 -0.33639 -0.418 25 22 29
0.4499 -0.329148 -0.409 28 23 30
0.457349 -0.328343 -0.408 26 23 30
0.458903 -0.328343 -0.408 23 22 28
0.461234 -0.328343 -0.408 25 24 30
0.6697 -0.446643 -0.555 201 202 194
0.0294543 -0.40898 -0.507 197 153 124
0.03036 -0.408173 -0.506 194 150 121
0.085841 -0.420273 -0.521 168 119 102
0.123379 -0.448507 -0.556 163 162 167
0.134786 -0.4477 -0.555 203 203 213
0.439624 -0.455767 -0.565 216 219 226
0.444714 -0.456573 -0.566 191 194 187
0.4509 -0.45738 -0.567 195 201 201
0.487398 -0.458187 -0.568 35 79 142
0.447323 -0.381553 -0.473 129 106 98
0.4312 -0.354933 -0.44 21 20 28
0.432048 -0.346867 -0.43 25 22 29
0.432287 -0.344447 -0.427 21 18 25
0.433709 -0.34364 -0.426 23 20 27
0.434683 -0.34122 -0.423 21 18 25
0.44069 -0.334767 -0.415 25 22 29
0.445352 -0.332347 -0.412 23 18 25
0.447095 -0.330733 -0.41 29 24 31
0.449121 -0.329927 -0.409 31 26 33
0.465897 -0.32912 -0.408 23 22 28
0.467451 -0.32912 -0.408 28 27 33
0.468229 -0.32912 -0.408 28 25 32
0.035179 -0.409137 -0.506 201 156 125
0.0361429 -0.409137 -0.506 199 156 124
0.045781 -0.409137 -0.506 198 153 120
0.0592743 -0.409137 -0.506 195 151 122
0.0683514 -0.411563 -0.509 193 149 120
0.0802581 -0.418031 -0.517 177 126 107
0.117025 -0.449566 -0.556 125 120 124
0.128443 -0.448757 -0.555 137 137 139
0.45738 -0.45846 -0.567 134 155 172
0.45954 -0.45846 -0.567 163 182 199
0.46412 -0.457651 -0.566 155 155 163
0.49086 -0.45846 -0.567 45 83 146
0.49518 -0.45846 -0.567 65 104 161
0.432048 -0.347686 -0.43 23 20 27
0.431669 -0.346069 -0.428 25 22 29
0.44069 -0.335557 -0.415 25 22 29
0.441481 -0.335557 -0.415 26 23 30
0.456228 -0.329089 -0.407 24 21 28
0.460879 -0.329089 -0.407 25 24 30
0.0209267 -0.414153 -0.511 198 154 125
0.025541 -0.410101 -0.506 206 162 135
0.0274686 -0.410101 -0.506 200 155 124
0.0312619 -0.40929 -0.505 198 153 122
0.0515638 -0.410101 -0.506 195 150 119
0.0662819 -0.411722 -0.508 195 150 121
0.0672495 -0.411722 -0.508 192 148 119
0.0802581 -0.419016 -0.517 175 127 105
0.477057 -0.45873 -0.566 44 79 135
0.4887 -0.45954 -0.567 37 70 141
0.439637 -0.337969 -0.417 28 25 32
0.442271 -0.336348 -0.415 25 22 29
0.453463 -0.330674 -0.408 21 18 25
0.455452 -0.329864 -0.407 22 19 26
0.460104 -0.329864 -0.407 23 20 27
0.0145829 -0.428937 -0.528 189 150 121
0.0370333 -0.410252 -0.505 200 155 122
0.0447286 -0.410252 -0.505 196 151 118
0.0524238 -0.410252 -0.505 199 154 123
0.0553095 -0.410252 -0.505 198 153 122
0.0592743 -0.411065 -0.506 195 150 119
0.0612019 -0.411065 -0.506 197 152 121
0.0662819 -0.41269 -0.508 193 149 120
0.0714 -0.414314 -0.51 188 143 114
0.11218 -0.449247 -0.553 57 56 62
0.443143 -0.458183 -0.564 216 215 213
0.4633 -0.458995 -0.565 200 204 203
0.475979 -0.459808 -0.566 114 123 152
0.489994 -0.459808 -0.566 39 78 147
0.433851 -0.370446 -0.456 52 45 52
0.43472 -0.370446 -0.456 52 45 52
0.433678 -0.368821 -0.454 41 34 41
0.430046 -0.360697 -0.444 27 22 29
0.429921 -0.359885 -0.443 25 20 27
0.42966 -0.35826 -0.441 27 24 31
0.431107 -0.352573 -0.434 26 21 28
0.430766 -0.350949 -0.432 24 19 26
0.4356 -0.3412 -0.42 21 18 25
0.44096 -0.33795 -0.416 25 22 29
0.445054 -0.333889 -0.411 22 17 24
0.450801 -0.330639 -0.407 25 22 29
0.476771 -0.333076 -0.41 28 27 33
0.012619 -0.431571 -0.53 190 151 122
0.02736 -0.4104 -0.504 199 155 126
0.0322238 -0.411214 -0.505 197 154 122
0.0456905 -0.411214 -0.505 196 151 120
0.0672495 -0.413657 -0.508 192 147 118
0.0757286 -0.417729 -0.513 185 141 116
0.133247 -0.4503 -0.553 204 204 212
0.147993 -0.4503 -0.553 134 150 183
0.431633 -0.458443 -0.563 75 113 162
0.436995 -0.458443 -0.563 209 209 217
0.465452 -0.460071 -0.565 170 169 165
0.47729 -0.460071 -0.565 66 97 151
0.491281 -0.460071 -0.565 32 71 138
0.49451 -0.460071 -0.565 42 83 147
0.430507 -0.3648 -0.448 25 20 27
0.431229 -0.350143 -0.43 22 19 26
0.4356 -0.342 -0.42 23 20 27
0.442783 -0.337114 -0.414 23 20 27
0.450801 -0.331414 -0.407 26 21 28
0.46284 -0.3306 -0.406 26 23 30
0.4795 -0.334671 -0.411 32 31 39
0.0135 -0.4285 -0.525 191 152 123
0.0651857 -0.413809 -0.507 193 149 120
0.0848486 -0.425235 -0.521 158 115 99
0.113233 -0.451353 -0.553 41 48 67
0.115549 -0.45217 -0.554 90 93 108
0.1185 -0.451353 -0.553 157 155 166
0.122713 -0.451353 -0.553 132 123 124
0.136407 -0.451353 -0.553 207 214 222
0.448514 -0.460331 -0.564 208 207 221
0.474062 -0.461148 -0.565 176 186 213
0.478367 -0.461148 -0.565 63 103 155
0.482671 -0.461148 -0.565 52 89 144
0.491281 -0.461148 -0.565 36 75 140
0.498814 -0.461148 -0.565 127 146 179
0.49989 -0.461148 -0.565 138 157 190
0.50854 -0.441559 -0.541 99 90 91
0.431949 -0.37055 -0.454 25 22 29
0.430714 -0.367286 -0.45 29 26 33
0.429434 -0.364021 -0.446 30 25 32
0.429384 -0.358308 -0.439 26 21 27
0.429771 -0.355859 -0.436 26 21 28
0.432287 -0.348513 -0.427 20 19 25
0.434231 -0.343616 -0.421 20 19 25
0.437507 -0.341168 -0.418 24 21 28
0.45124 -0.331373 -0.406 29 24 31
0.46284 -0.331373 -0.406 25 22 29
0.482236 -0.33627 -0.412 32 31 39
0.036 -0.41232 -0.504 199 156 124
0.05712 -0.41232 -0.504 196 151 122
0.0651857 -0.414774 -0.507 190 146 119
0.110926 -0.451589 -0.552 56 54 65
0.123543 -0.451589 -0.552 163 159 160
0.13616 -0.451589 -0.552 205 212 222
0.431937 -0.45977 -0.562 151 172 203
0.43729 -0.45977 -0.562 192 193 198
0.43836 -0.45977 -0.562 218 219 224
0.458183 -0.461406 -0.564 206 209 214
0.47 -0.461406 -0.564 199 202 207
0.431949 -0.371415 -0.454 26 23 30
0.4292 -0.363234 -0.444 29 24 31
0.430766 -0.353417 -0.432 24 21 28
0.43269 -0.34769 -0.425 23 20 27
0.441994 -0.338691 -0.414 24 21 28
0.446314 -0.335419 -0.41 30 25 32
0.446005 -0.334601 -0.409 29 24 31
0.450026 -0.332965 -0.407 22 17 24
0.46748 -0.332147 -0.406 31 30 38
0.48498 -0.337873 -0.413 31 30 36
0.0273057 -0.41246 -0.503 198 154 125
0.0388029 -0.41246 -0.503 196 153 121
0.05808 -0.41328 -0.504 195 151 122
0.0714 -0.4182 -0.51 185 141 114
0.0779857 -0.4223 -0.515 171 129 107
0.0802581 -0.42394 -0.517 170 123 103
0.124594 -0.45264 -0.552 189 187 190
0.436219 -0.46084 -0.562 161 174 191
0.449864 -0.46166 -0.563 210 213 222
0.452009 -0.46166 -0.563 212 212 220
0.45737 -0.46166 -0.563 209 210 215
0.490411 -0.46248 -0.564 39 85 144
0.42882 -0.36162 -0.441 24 19 25
0.433655 -0.34604 -0.422 22 19 26
0.441713 -0.33866 -0.413 29 24 31
0.443971 -0.3362 -0.41 26 21 28
0.45124 -0.33292 -0.406 26 24 29
0.452013 -0.33292 -0.406 21 19 24
0.452787 -0.33292 -0.406 20 18 23
0.455107 -0.33292 -0.406 21 20 26
0.4582 -0.33292 -0.406 25 22 29
0.486943 -0.33948 -0.414 32 33 38
0.0114343 -0.429034 -0.522 191 150 122
0.0159657 -0.417528 -0.508 192 148 121
0.0177952 -0.415062 -0.505 187 143 116
0.0215571 -0.413418 -0.503 194 150 121
0.0291638 -0.412596 -0.502 195 150 121
0.040719 -0.413418 -0.503 199 154 123
0.0493419 -0.413418 -0.503 200 156 127
0.0541324 -0.413418 -0.503 197 154 122
0.124369 -0.45287 -0.551 189 188 196
0.435443 -0.461089 -0.561 151 168 186
0.439717 -0.461089 -0.561 211 215 226
0.451206 -0.46191 -0.562 212 212 222
0.45977 -0.46191 -0.562 207 211 212
0.486325 -0.462732 -0.563 76 128 178
0.435974 -0.378898 -0.461 28 23 30
0.437507 -0.343556 -0.418 20 17 24
0.443971 -0.336981 -0.41 26 21 28
0.472508 -0.334515 -0.407 29 28 36
0.0095 -0.4325 -0.525 189 149 123
0.0168333 -0.416024 -0.505 190 146 119
0.0521124 -0.413552 -0.502 198 155 123
0.0630048 -0.416024 -0.505 193 149 120
0.0639667 -0.416024 -0.505 191 147 118
0.0714 -0.420143 -0.51 183 142 114
0.0768552 -0.423438 -0.514 172 132 106
0.0814 -0.426733 -0.518 164 119 98
0.0848486 -0.429205 -0.521 150 111 94
0.0885 -0.4325 -0.525 141 106 87
0.113873 -0.453919 -0.551 68 79 97
0.127517 -0.453919 -0.551 125 132 150
0.453347 -0.462981 -0.562 210 213 220
0.464051 -0.462981 -0.562 206 205 213
0.472615 -0.462981 -0.562 135 144 175
0.430443 -0.358357 -0.435 26 24 29
0.441206 -0.341057 -0.414 26 23 30
0.442998 -0.33941 -0.412 26 21 28
0.443489 -0.338586 -0.411 28 23 30
0.4509 -0.333643 -0.405 24 19 26
0.462471 -0.333643 -0.405 23 20 29
0.476777 -0.336114 -0.408 27 28 33
0.00754286 -0.435977 -0.528 190 148 124
0.0140029 -0.418637 -0.507 191 150 122
0.0168 -0.41616 -0.504 193 149 122
0.0338771 -0.413683 -0.501 197 154 122
0.0481914 -0.413683 -0.501 198 155 123
0.0570067 -0.415334 -0.503 194 149 118
0.0639667 -0.416986 -0.505 192 148 119
0.0702905 -0.420289 -0.509 182 141 113
0.07912 -0.426069 -0.516 168 123 102
0.0825457 -0.428546 -0.519 154 112 96
0.124143 -0.454143 -0.55 175 178 193
0.141952 -0.454143 -0.55 209 216 232
0.4368 -0.4624 -0.56 116 141 171
0.464294 -0.463226 -0.561 190 199 206
0.466431 -0.463226 -0.561 163 176 193
0.480109 -0.464051 -0.562 150 172 195
0.43028 -0.35836 -0.434 23 21 26
0.43248 -0.350103 -0.424 27 26 32
0.440417 -0.341846 -0.414 25 22 29
0.450467 -0.33524 -0.406 26 21 28
0.455529 -0.334414 -0.405 26 23 32
0.460929 -0.334414 -0.405 40 34 44
0.464408 -0.333589 -0.404 26 23 32
0.47212 -0.33524 -0.406 29 26 35
0.479504 -0.337717 -0.409 30 29 37
0.00653714 -0.436983 -0.528 189 147 123
0.00846762 -0.432845 -0.523 191 151 126
0.0139752 -0.418775 -0.506 191 150 122
0.02338 -0.414637 -0.501 196 152 123
0.03006 -0.414637 -0.501 199 156 124
0.0319686 -0.414637 -0.501 197 154 122
0.0387257 -0.415465 -0.502 197 154 120
0.0529629 -0.414637 -0.501 197 152 121
0.0559371 -0.415465 -0.502 195 150 119
0.0669848 -0.418775 -0.506 186 142 115
0.0768552 -0.425396 -0.514 173 128 107
0.0814 -0.428707 -0.518 158 112 96
0.117643 -0.454363 -0.549 97 113 139
0.130429 -0.45519 -0.55 186 191 220
0.435733 -0.463467 -0.56 95 122 152
0.442133 -0.463467 -0.56 214 214 222
0.466431 -0.464294 -0.561 123 143 170
0.468569 -0.464294 -0.561 101 118 148
0.47498 -0.464294 -0.561 188 201 210
0.490813 -0.465122 -0.562 117 149 188
0.428548 -0.363325 -0.439 26 23 30
0.429925 -0.36167 -0.437 24 19 26
0.43343 -0.348428 -0.421 22 19 26
0.43646 -0.345117 -0.417 25 20 27
0.43779 -0.34429 -0.416 26 21 28
