ply
format ascii 1.0
comment Created by Open3D
element vertex 1287
property double x
property double y
property double z
property uchar red
property uchar green
property uchar blue
end_header
1.15383 -0.372419 -0.64 202 206 192
0.103084 -0.349118 -0.598 196 151 145
0.126556 -0.324598 -0.556 183 130 122
0.141637 -0.325182 -0.557 167 113 101
0.144017 -0.325766 -0.558 168 114 102
0.14534 -0.32635 -0.559 166 112 100
0.1488 -0.326933 -0.56 150 98 87
0.153887 -0.328685 -0.563 145 93 82
0.156031 -0.328685 -0.563 147 95 84
0.174257 -0.332771 -0.57 131 82 75
0.189257 -0.336274 -0.576 124 79 73
0.194318 -0.337442 -0.578 123 78 73
0.241874 -0.364297 -0.624 164 161 180
0.248611 -0.365465 -0.626 141 148 174
0.258929 -0.364881 -0.625 172 183 213
0.26208 -0.364297 -0.624 121 140 183
0.273966 -0.364297 -0.624 220 226 255
0.276786 -0.364881 -0.625 188 195 224
0.279167 -0.364881 -0.625 168 175 204
0.282738 -0.364881 -0.625 217 218 246
0.302976 -0.364881 -0.625 242 247 251
0.305846 -0.365465 -0.626 245 248 253
0.324249 -0.366049 -0.627 227 236 253
0.337386 -0.366049 -0.627 224 232 253
0.344551 -0.366049 -0.627 184 192 215
0.351717 -0.366049 -0.627 251 251 255
0.359455 -0.366632 -0.628 247 248 250
0.393 -0.3678 -0.63 181 194 228
0.415258 -0.368384 -0.631 248 253 255
0.421268 -0.368384 -0.631 251 255 255
0.42247 -0.368384 -0.631 247 253 253
0.428479 -0.368384 -0.631 249 253 255
0.459499 -0.370135 -0.634 178 201 243
0.488811 -0.371303 -0.636 219 228 245
0.490793 -0.371887 -0.637 216 225 242
0.50286 -0.35554 -0.609 174 151 143
0.496055 -0.349118 -0.598 173 148 143
0.482957 -0.334523 -0.573 182 152 142
0.479669 -0.329269 -0.564 192 156 142
0.502034 -0.317592 -0.544 185 138 118
0.102739 -0.349086 -0.596 197 150 144
0.106568 -0.332686 -0.568 182 132 125
0.124662 -0.326243 -0.557 186 133 125
0.126556 -0.325657 -0.556 182 129 121
0.135029 -0.325657 -0.556 171 119 106
0.141637 -0.326243 -0.557 167 115 101
0.1647 -0.3321 -0.567 138 88 79
0.167154 -0.332686 -0.568 131 82 75
0.183133 -0.3362 -0.574 128 81 75
0.187063 -0.337371 -0.576 126 81 76
0.196095 -0.339714 -0.58 120 77 71
0.202243 -0.342643 -0.585 114 73 71
0.20664 -0.3444 -0.588 114 73 71
0.209946 -0.346157 -0.591 115 74 72
0.214767 -0.3485 -0.595 113 72 68
0.244643 -0.366071 -0.625 167 170 185
0.251786 -0.366071 -0.625 112 118 152
0.259703 -0.365486 -0.624 156 171 210
0.260891 -0.365486 -0.624 114 129 168
0.263269 -0.365486 -0.624 116 134 180
0.270833 -0.366071 -0.625 184 200 249
0.275154 -0.365486 -0.624 208 216 253
0.28869 -0.366071 -0.625 225 227 240
0.315385 -0.366657 -0.626 199 204 226
0.318962 -0.366657 -0.626 231 238 255
0.322539 -0.366657 -0.626 226 239 255
0.335655 -0.366657 -0.626 215 228 255
0.33804 -0.366657 -0.626 228 239 255
0.34281 -0.366657 -0.626 182 191 220
0.359455 -0.367829 -0.628 252 253 255
0.363044 -0.367829 -0.628 250 251 255
0.3774 -0.369 -0.63 251 252 254
0.381 -0.369 -0.63 214 222 243
0.3846 -0.369 -0.63 215 220 242
0.393574 -0.368414 -0.629 173 196 237
0.3966 -0.369 -0.63 161 185 233
0.399 -0.369 -0.63 188 205 248
0.4038 -0.369 -0.63 246 253 255
0.4122 -0.369 -0.63 247 250 255
0.447923 -0.370757 -0.633 196 202 218
0.45154 -0.370757 -0.633 236 242 255
0.456363 -0.370757 -0.633 177 195 233
0.500926 -0.372514 -0.636 211 214 229
0.490566 -0.343229 -0.586 174 149 144
0.101945 -0.351396 -0.598 196 149 143
0.108157 -0.332005 -0.565 191 141 134
0.128443 -0.326129 -0.555 184 130 120
0.138206 -0.326716 -0.556 172 118 106
0.146667 -0.329067 -0.56 155 102 88
0.152814 -0.33083 -0.563 148 96 85
0.157662 -0.332005 -0.565 137 87 80
0.167449 -0.334355 -0.569 133 84 79
0.187063 -0.338469 -0.576 126 81 76
0.19499 -0.340819 -0.58 122 78 75
0.213633 -0.349633 -0.595 115 78 72
0.264457 -0.366674 -0.624 126 146 199
0.2704 -0.366674 -0.624 175 192 244
0.273966 -0.366674 -0.624 192 204 244
0.284663 -0.366674 -0.624 234 235 253
0.294171 -0.366674 -0.624 243 245 255
0.314881 -0.367262 -0.625 215 217 230
0.352349 -0.36785 -0.626 226 224 229
0.353541 -0.36785 -0.626 237 235 240
0.364854 -0.368437 -0.627 250 251 255
0.387584 -0.369612 -0.629 209 216 234
0.400763 -0.369612 -0.629 211 225 251
0.446011 -0.371375 -0.632 180 188 207
0.455642 -0.371375 -0.632 168 186 232
0.457569 -0.371963 -0.633 144 162 208
0.45998 -0.371963 -0.633 176 198 255
0.491671 -0.373138 -0.635 221 224 243
0.49409 -0.373138 -0.635 213 216 235
0.508194 -0.373726 -0.636 201 203 216
0.489165 -0.342582 -0.583 177 150 143
0.47861 -0.328479 -0.559 192 154 141
0.47855 -0.325541 -0.554 197 158 141
0.484271 -0.320252 -0.545 198 157 139
0.52287 -0.325541 -0.554 162 130 109
1.15144 -0.374901 -0.638 201 205 190
0.102131 -0.345461 -0.586 193 144 137
0.106005 -0.333081 -0.565 185 135 128
0.111666 -0.330723 -0.561 194 139 132
0.118509 -0.328954 -0.558 192 138 128
0.136088 -0.327775 -0.556 168 114 102
0.149331 -0.331312 -0.562 146 96 87
0.157662 -0.333081 -0.565 138 88 81
0.174563 -0.336618 -0.571 132 84 80
0.179853 -0.338387 -0.574 128 83 80
0.188487 -0.340155 -0.577 126 81 76
0.249405 -0.368452 -0.625 175 178 197
0.276343 -0.367863 -0.624 176 184 220
0.28302 -0.367273 -0.623 238 239 255
0.284207 -0.367273 -0.623 238 239 255
0.28658 -0.367273 -0.623 236 238 253
0.30368 -0.367863 -0.624 246 250 255
0.306057 -0.367863 -0.624 242 250 253
0.324405 -0.368452 -0.625 180 196 232
0.348771 -0.369042 -0.626 255 254 252
0.349964 -0.369042 -0.626 252 251 249
0.378594 -0.370221 -0.628 252 253 255
0.382183 -0.370221 -0.628 208 214 236
0.383379 -0.370221 -0.628 181 187 209
0.399565 -0.37081 -0.629 185 207 254
0.4302 -0.3714 -0.63 251 251 255
0.4338 -0.3714 -0.63 254 255 255
0.4417 -0.37199 -0.631 249 253 254
0.453234 -0.372579 -0.632 198 211 253
0.472037 -0.373169 -0.633 159 176 204
0.482444 -0.373758 -0.634 228 235 251
0.490462 -0.374348 -0.635 221 223 244
0.503767 -0.374348 -0.635 205 207 222
0.506186 -0.374348 -0.635 205 207 219
0.509406 -0.374937 -0.636 156 156 166
0.514237 -0.373169 -0.633 146 150 185
0.503192 -0.35843 -0.608 168 144 140
0.480519 -0.333081 -0.565 190 154 142
0.479254 -0.330723 -0.561 192 154 141
0.478587 -0.323059 -0.548 204 162 148
0.104929 -0.334157 -0.565 185 135 128
0.110597 -0.331791 -0.561 193 143 134
0.111666 -0.331791 -0.561 192 142 133
0.132671 -0.328243 -0.555 176 124 110
0.140576 -0.329426 -0.557 164 112 98
0.149331 -0.332383 -0.562 148 95 87
0.160097 -0.334749 -0.566 138 91 85
0.16362 -0.33534 -0.567 139 91 87
0.17876 -0.33948 -0.574 131 83 81
0.182357 -0.340071 -0.575 131 86 83
0.184869 -0.340663 -0.576 128 82 82
0.186289 -0.341254 -0.577 126 80 80
0.189914 -0.341846 -0.578 129 80 75
0.208046 -0.350126 -0.592 112 74 73
0.243063 -0.369051 -0.624 175 176 196
0.250194 -0.369051 -0.624 177 183 209
0.269967 -0.36846 -0.623 124 143 201
0.280647 -0.36846 -0.623 231 230 248
0.284935 -0.367869 -0.622 234 235 253
0.291327 -0.36846 -0.623 198 196 210
0.299633 -0.36846 -0.623 225 223 245
0.357738 -0.369643 -0.625 234 237 244
0.359503 -0.370234 -0.626 225 235 247
0.389934 -0.370826 -0.627 152 175 216
0.391129 -0.370826 -0.627 132 155 196
0.394711 -0.370826 -0.627 125 151 208
0.403714 -0.371417 -0.628 161 176 219
0.41448 -0.371417 -0.628 248 249 251
0.422853 -0.371417 -0.628 238 238 246
0.43431 -0.372009 -0.629 252 255 255
0.478066 -0.374374 -0.633 215 228 234
0.507395 -0.375557 -0.635 176 176 186
0.514237 -0.374374 -0.633 82 87 125
0.47902 -0.329426 -0.557 198 162 148
0.481157 -0.322329 -0.545 198 158 133
0.485455 -0.321737 -0.544 195 154 134
0.494113 -0.319963 -0.541 189 147 125
0.494229 -0.319371 -0.54 192 150 128
0.499371 -0.319371 -0.54 192 146 120
0.109529 -0.33286 -0.561 197 144 138
0.118296 -0.330487 -0.557 189 134 127
0.120202 -0.329893 -0.556 190 136 126
0.127386 -0.3293 -0.555 184 130 120
0.144533 -0.332267 -0.56 157 104 90
0.159019 -0.335827 -0.566 142 92 85
0.16146 -0.33642 -0.567 140 91 86
0.172388 -0.338793 -0.571 133 84 79
0.179853 -0.340573 -0.574 131 83 79
0.234419 -0.367867 -0.62 128 124 147
0.267593 -0.369647 -0.623 83 112 170
0.276642 -0.369053 -0.622 202 214 255
0.3115 -0.369647 -0.623 237 244 250
0.323886 -0.37024 -0.624 131 152 207
0.325074 -0.37024 -0.624 129 150 205
0.357738 -0.370833 -0.625 227 223 237
0.374409 -0.37202 -0.627 254 254 254
0.385157 -0.37202 -0.627 150 167 210
0.400683 -0.37202 -0.627 141 165 211
0.40546 -0.37202 -0.627 226 238 255
0.411431 -0.37202 -0.627 232 235 244
0.419791 -0.37202 -0.627 215 223 234
0.425246 -0.372613 -0.628 206 213 232
0.426442 -0.372613 -0.628 208 215 234
0.441 -0.3738 -0.63 221 215 225
0.4494 -0.3738 -0.63 136 154 202
0.4554 -0.3738 -0.63 111 138 193
0.468142 -0.374393 -0.631 126 150 198
0.496935 -0.376173 -0.634 183 189 213
0.501766 -0.376173 -0.634 208 208 220
0.506596 -0.376173 -0.634 169 166 175
0.512634 -0.376173 -0.634 177 180 197
0.502691 -0.35956 -0.606 171 146 141
0.482837 -0.337607 -0.569 183 151 138
0.479675 -0.331673 -0.559 192 156 140
0.478357 -0.3293 -0.555 196 158 139
0.496393 -0.319807 -0.539 184 140 115
0.49742 -0.319807 -0.539 187 143 118
0.505543 -0.3204 -0.54 177 135 110
0.518251 -0.325147 -0.548 170 129 107
1.14963 -0.377953 -0.637 203 204 188
0.100581 -0.35119 -0.59 196 145 141
0.103852 -0.33631 -0.565 196 143 137
0.11532 -0.332143 -0.558 195 140 133
0.131377 -0.329762 -0.554 177 125 112
0.148261 -0.334524 -0.562 151 97 85
0.16146 -0.3375 -0.567 140 90 83
0.176266 -0.341071 -0.573 134 87 81
0.186611 -0.344048 -0.578 124 79 74
0.237545 -0.370238 -0.622 133 129 152
0.239914 -0.370238 -0.622 171 167 190
0.242284 -0.370238 -0.622 175 176 196
0.24386 -0.370833 -0.623 176 178 199
0.265979 -0.370238 -0.622 90 119 179
0.290859 -0.370238 -0.622 207 205 226
0.292044 -0.370238 -0.622 200 198 219
0.33642 -0.370833 -0.623 137 157 207
0.351223 -0.371429 -0.624 249 249 249
0.357166 -0.371429 -0.624 217 213 228
0.373811 -0.372619 -0.626 249 250 252
0.382158 -0.372619 -0.626 190 202 218
0.391697 -0.372619 -0.626 132 153 206
0.394082 -0.372619 -0.626 127 151 199
0.419791 -0.373214 -0.627 209 213 225
0.420986 -0.373214 -0.627 218 222 234
0.428151 -0.373214 -0.627 216 221 240
0.431227 -0.37381 -0.628 210 214 225
0.43431 -0.374405 -0.629 247 247 255
0.4458 -0.375 -0.63 209 218 247
0.468142 -0.375595 -0.631 120 146 195
0.479467 -0.333333 -0.56 191 153 140
0.477874 -0.328571 -0.552 194 156 137
0.478058 -0.327976 -0.551 194 156 137
0.478755 -0.325595 -0.547 196 158 137
0.495367 -0.320833 -0.539 185 139 115
0.5005 -0.320833 -0.539 187 144 112
0.513432 -0.32381 -0.544 164 127 101
0.594902 -0.364881 -0.613 184 184 186
0.112332 -0.333803 -0.559 196 142 132
0.128211 -0.330817 -0.554 180 128 115
0.148261 -0.335594 -0.562 153 97 84
0.198124 -0.349926 -0.586 120 80 80
0.206138 -0.354106 -0.593 117 75 76
0.252947 -0.371423 -0.622 96 101 131
0.255316 -0.371423 -0.622 91 105 144
0.265979 -0.371423 -0.622 95 124 184
0.31337 -0.371423 -0.622 235 242 250
0.318109 -0.371423 -0.622 157 162 202
0.322848 -0.371423 -0.622 170 191 238
0.327587 -0.371423 -0.622 139 159 212
0.331141 -0.371423 -0.622 156 177 224
0.334695 -0.371423 -0.622 141 161 211
0.35066 -0.37202 -0.623 250 249 254
0.364297 -0.372617 -0.624 219 226 245
0.369643 -0.373214 -0.625 250 250 255
0.374405 -0.373214 -0.625 250 251 253
0.377976 -0.373214 -0.625 214 216 229
0.38631 -0.373214 -0.625 140 163 213
0.38869 -0.373214 -0.625 165 188 242
0.402429 -0.373811 -0.626 148 165 221
0.41316 -0.373811 -0.626 224 224 232
0.41793 -0.373811 -0.626 237 237 249
0.436011 -0.375006 -0.628 252 251 255
0.4698 -0.3762 -0.63 156 177 230
0.494164 -0.377394 -0.632 170 174 199
0.495368 -0.377394 -0.632 178 183 205
0.48307 -0.339177 -0.568 186 152 140
0.479675 -0.333803 -0.559 191 155 141
0.477543 -0.327234 -0.548 198 160 141
0.47892 -0.32604 -0.546 198 157 139
0.48367 -0.323651 -0.542 196 155 137
0.48793 -0.323054 -0.541 199 158 138
0.488057 -0.322457 -0.54 194 152 130
0.496497 -0.321263 -0.538 185 139 115
1.15025 -0.379783 -0.636 202 204 190
0.105254 -0.336066 -0.561 198 145 137
0.118084 -0.33307 -0.556 196 142 132
0.131377 -0.331872 -0.554 179 127 116
0.139515 -0.33367 -0.557 169 116 102
0.1593 -0.33966 -0.567 141 89 78
0.179383 -0.345051 -0.576 128 83 78
0.186611 -0.34625 -0.578 125 80 77
0.197008 -0.351042 -0.586 120 82 79
0.230131 -0.370211 -0.618 104 100 117
0.26082 -0.372009 -0.621 82 112 166
0.273831 -0.372009 -0.621 133 150 196
0.292286 -0.37141 -0.62 225 226 244
0.356021 -0.372608 -0.622 219 219 229
0.362527 -0.373207 -0.623 230 236 252
0.484969 -0.377999 -0.631 215 217 230
0.49296 -0.378598 -0.632 147 152 174
0.498937 -0.357032 -0.596 176 147 141
0.485987 -0.343853 -0.574 179 149 138
0.48307 -0.340259 -0.568 185 153 140
0.480963 -0.337264 -0.563 188 154 142
0.488057 -0.323486 -0.54 198 155 136
0.0993429 -0.342543 -0.57 194 144 135
0.108943 -0.335331 -0.558 199 146 138
0.118084 -0.33413 -0.556 191 138 130
0.140829 -0.335331 -0.558 166 110 97
0.149863 -0.338937 -0.564 148 94 82
0.154707 -0.340139 -0.566 150 97 83
0.165571 -0.342543 -0.57 136 86 77
0.168037 -0.343144 -0.571 134 85 78
0.18441 -0.34735 -0.578 126 82 79
0.1988 -0.35336 -0.588 122 81 77
0.202408 -0.355764 -0.592 123 79 78
0.238346 -0.373191 -0.621 168 170 191
0.278114 -0.37259 -0.62 213 220 249
0.315905 -0.37259 -0.62 178 182 207
0.318267 -0.37259 -0.62 225 228 255
0.320629 -0.37259 -0.62 194 204 240
0.338889 -0.373191 -0.621 146 155 188
0.341254 -0.373191 -0.621 207 215 238
0.342437 -0.373191 -0.621 233 241 255
0.36076 -0.373792 -0.622 226 233 243
0.363713 -0.374393 -0.623 247 249 255
0.36846 -0.374393 -0.623 252 251 255
0.370833 -0.374393 -0.623 252 252 252
0.376767 -0.374393 -0.623 218 219 237
0.37914 -0.374393 -0.623 155 165 190
0.3827 -0.374393 -0.623 217 229 253
0.383887 -0.374393 -0.623 225 237 255
0.385073 -0.374393 -0.623 203 218 249
0.418452 -0.375595 -0.625 242 240 245
0.422024 -0.375595 -0.625 241 244 251
0.440094 -0.376797 -0.627 246 243 250
0.451562 -0.377398 -0.628 172 195 229
0.453954 -0.377398 -0.628 174 202 242
0.45515 -0.377398 -0.628 137 167 219
0.456347 -0.377398 -0.628 141 171 223
0.466658 -0.377999 -0.629 189 214 255
0.498979 -0.379802 -0.632 207 207 219
0.50861 -0.379802 -0.632 196 195 209
0.509007 -0.379201 -0.631 173 179 211
0.512612 -0.379201 -0.631 106 120 169
0.478357 -0.333529 -0.555 192 154 141
0.48367 -0.325716 -0.542 195 157 138
0.491373 -0.323312 -0.538 196 154 130
0.50974 -0.323913 -0.539 178 139 110
0.104 -0.3376 -0.56 199 146 138
0.109809 -0.335791 -0.557 199 144 137
0.11193 -0.335791 -0.557 197 144 138
0.115966 -0.335189 -0.556 192 137 130
0.127156 -0.333983 -0.554 175 121 111
0.131377 -0.333983 -0.554 170 116 104
0.133729 -0.334586 -0.555 179 122 111
0.148525 -0.339409 -0.563 149 95 83
0.151205 -0.340614 -0.565 148 95 81
0.155785 -0.341217 -0.566 148 96 85
0.16695 -0.344231 -0.571 134 85 78
0.169421 -0.344834 -0.572 135 87 77
0.177189 -0.347246 -0.576 129 85 76
0.204567 -0.3587 -0.595 122 81 77
0.226233 -0.371963 -0.617 172 169 186
0.230131 -0.372566 -0.618 162 158 173
0.238346 -0.374374 -0.621 173 178 197
0.239529 -0.374374 -0.621 172 177 196
0.240711 -0.374374 -0.621 176 177 197
0.24741 -0.373771 -0.62 135 142 171
0.24859 -0.373771 -0.62 91 97 129
0.302426 -0.373169 -0.619 246 244 255
0.303605 -0.373169 -0.619 247 247 255
0.305963 -0.373169 -0.619 245 246 251
0.338343 -0.373771 -0.62 171 180 211
0.353083 -0.374374 -0.621 251 255 254
0.37202 -0.37558 -0.623 254 254 255
0.427976 -0.376786 -0.625 253 252 255
0.430357 -0.376786 -0.625 249 248 253
0.446066 -0.377991 -0.627 225 237 255
0.499472 -0.360509 -0.598 176 147 141
0.481179 -0.338806 -0.562 191 155 141
0.478043 -0.328557 -0.545 198 159 142
0.486 -0.325543 -0.54 202 161 141
0.486127 -0.32494 -0.539 199 158 136
0.49261 -0.323131 -0.536 192 150 126
0.496693 -0.323131 -0.536 197 151 128
0.106817 -0.337457 -0.558 200 145 140
0.108748 -0.336852 -0.557 201 146 139
0.116814 -0.335643 -0.555 192 138 128
0.136088 -0.336248 -0.556 170 114 101
0.138454 -0.336852 -0.557 163 106 95
0.15714 -0.3429 -0.567 140 90 79
0.16203 -0.34411 -0.569 137 88 74
0.189336 -0.352576 -0.583 123 80 73
0.19544 -0.3556 -0.588 119 80 73
0.226233 -0.373138 -0.617 175 172 191
0.257622 -0.374348 -0.619 161 181 218
0.264696 -0.374348 -0.619 125 147 197
0.29771 -0.374348 -0.619 247 246 255
0.303605 -0.374348 -0.619 246 246 255
0.311858 -0.374348 -0.619 160 162 187
0.315395 -0.374348 -0.619 222 225 244
0.323649 -0.374348 -0.619 170 187 233
0.324828 -0.374348 -0.619 171 188 234
0.3348 -0.374952 -0.62 238 245 255
0.343067 -0.374952 -0.62 221 227 251
0.379716 -0.376162 -0.622 218 225 251
0.38564 -0.376162 -0.622 219 222 237
0.399313 -0.376767 -0.623 241 249 251
0.4183 -0.376767 -0.623 254 254 255
0.437008 -0.378581 -0.626 244 246 245
0.446547 -0.378581 -0.626 245 252 255
0.450843 -0.379186 -0.627 209 221 233
0.454426 -0.379186 -0.627 161 185 229
0.465916 -0.37979 -0.628 227 239 255
0.469505 -0.37979 -0.628 178 189 217
0.471897 -0.37979 -0.628 136 150 177
0.489422 -0.380395 -0.629 224 225 243
0.4986 -0.381 -0.63 187 186 192
0.5034 -0.381 -0.63 211 210 224
0.5058 -0.381 -0.63 193 198 217
0.5082 -0.381 -0.63 105 120 163
0.5094 -0.381 -0.63 62 77 120
0.5106 -0.381 -0.63 86 106 143
0.491651 -0.351971 -0.582 182 149 142
0.484771 -0.344714 -0.57 182 148 136
0.479391 -0.328386 -0.543 201 163 142
0.479541 -0.327781 -0.542 201 163 142
0.481748 -0.327176 -0.541 198 157 137
0.483809 -0.327176 -0.541 199 158 138
0.486 -0.326571 -0.54 201 160 138
0.489547 -0.324152 -0.536 200 158 136
0.5148 -0.326571 -0.54 162 126 94
0.104691 -0.33852 -0.558 198 143 138
0.116814 -0.3367 -0.555 190 136 126
0.131377 -0.336093 -0.554 171 113 102
0.178595 -0.350047 -0.577 127 82 76
0.233238 -0.376133 -0.62 176 175 189
0.268977 -0.37492 -0.618 204 208 237
0.270154 -0.37492 -0.618 217 221 250
0.28147 -0.374313 -0.617 230 230 255
0.288989 -0.37492 -0.618 241 243 255
0.289696 -0.374313 -0.617 238 240 252
0.294874 -0.37492 -0.618 244 242 255
0.307823 -0.37492 -0.618 205 206 227
0.319594 -0.37492 -0.618 221 227 253
0.326007 -0.375527 -0.619 184 202 250
0.337797 -0.375527 -0.619 220 229 246
0.351333 -0.376133 -0.62 254 255 255
0.363729 -0.37674 -0.621 253 251 255
0.37674 -0.37674 -0.621 175 181 207
0.386825 -0.377347 -0.622 223 236 255
0.399313 -0.377953 -0.623 243 247 248
0.402227 -0.377347 -0.622 202 214 228
0.432046 -0.37856 -0.624 252 253 255
0.43631 -0.379167 -0.625 221 222 224
0.473534 -0.38038 -0.627 186 195 224
0.474729 -0.38038 -0.627 217 226 255
0.486251 -0.380987 -0.628 228 230 245
0.49661 -0.381593 -0.629 215 214 228
0.51332 -0.379773 -0.626 151 152 172
0.482035 -0.341553 -0.563 190 157 142
0.478202 -0.330027 -0.544 196 158 137
0.488526 -0.325173 -0.536 195 153 131
0.49484 -0.32396 -0.534 191 150 122
0.503994 -0.32396 -0.534 180 139 111
0.528524 -0.333667 -0.55 155 122 103
1.14904 -0.383413 -0.632 201 203 189
0.0965505 -0.356623 -0.586 193 143 134
0.097001 -0.346277 -0.569 195 142 136
0.103629 -0.339583 -0.558 198 143 136
0.105565 -0.338974 -0.557 200 143 136
0.109611 -0.338366 -0.556 196 141 134
0.126927 -0.33654 -0.553 180 123 114
0.130322 -0.337149 -0.554 174 117 106
0.138454 -0.338974 -0.557 159 105 95
0.139766 -0.339583 -0.558 160 106 96
0.147452 -0.342626 -0.563 153 99 89
0.17031 -0.349929 -0.575 131 86 81
0.171405 -0.349929 -0.575 130 85 80
0.175298 -0.351146 -0.577 130 85 80
0.180317 -0.352363 -0.579 126 82 79
0.230131 -0.376097 -0.618 136 139 154
0.257206 -0.376097 -0.618 143 157 194
0.260737 -0.376097 -0.618 164 177 219
0.270892 -0.375489 -0.617 218 226 249
0.278667 -0.37488 -0.616 163 170 196
0.357841 -0.376706 -0.619 214 213 229
0.366686 -0.377314 -0.62 255 253 255
0.369643 -0.377923 -0.621 249 245 242
0.373191 -0.377923 -0.621 189 192 209
0.381471 -0.377923 -0.621 250 254 255
0.394483 -0.377923 -0.621 216 220 255
0.40815 -0.378531 -0.622 228 234 255
0.426607 -0.37914 -0.623 252 250 251
0.430167 -0.37914 -0.623 255 251 255
0.433234 -0.379749 -0.624 254 248 255
0.442262 -0.380357 -0.625 218 224 240
0.456086 -0.380966 -0.626 196 210 255
0.461591 -0.381574 -0.627 197 210 245
0.469202 -0.380966 -0.626 216 217 238
0.473971 -0.380966 -0.626 193 199 221
0.481894 -0.381574 -0.627 238 236 247
0.504997 -0.382791 -0.629 138 153 184
0.505833 -0.369403 -0.607 172 147 143
0.481391 -0.341409 -0.561 188 154 142
0.478509 -0.329846 -0.542 200 159 141
0.484073 -0.32802 -0.539 201 163 144
0.486127 -0.32802 -0.539 199 158 140
0.487505 -0.326194 -0.536 191 148 129
0.487614 -0.325586 -0.535 197 155 133
0.49704 -0.32376 -0.532 191 149 125
0.519804 -0.329846 -0.542 161 126 106
0.104316 -0.339425 -0.556 199 146 138
0.1073 -0.338814 -0.555 197 143 133
0.109414 -0.338814 -0.555 196 142 132
0.138703 -0.340646 -0.558 158 104 94
0.1424 -0.341867 -0.56 154 99 92
0.147714 -0.344309 -0.564 151 96 89
0.155253 -0.34675 -0.568 143 90 82
0.160143 -0.347971 -0.57 137 88 81
0.1731 -0.352245 -0.577 128 85 79
0.178111 -0.353466 -0.579 129 85 82
0.184894 -0.355908 -0.583 120 79 77
0.241903 -0.377274 -0.618 165 165 191
0.270453 -0.376053 -0.616 219 224 246
0.273973 -0.376053 -0.616 215 219 244
0.323778 -0.376664 -0.617 200 210 246
0.351377 -0.377274 -0.618 218 219 223
0.37259 -0.378495 -0.62 169 172 187
0.379676 -0.378495 -0.62 254 255 255
0.387943 -0.378495 -0.62 202 215 247
0.411043 -0.379106 -0.621 209 211 223
0.4368 -0.380937 -0.624 166 172 184
0.448214 -0.381548 -0.625 227 226 231
0.481894 -0.382769 -0.627 233 233 245
0.485477 -0.382769 -0.627 222 226 238
0.506587 -0.383379 -0.628 128 141 175
0.508979 -0.383379 -0.628 176 187 215
0.511371 -0.383379 -0.628 187 196 213
0.485857 -0.347971 -0.57 182 149 140
0.477369 -0.335151 -0.549 194 158 142
0.486369 -0.327826 -0.537 197 156 136
0.487505 -0.327215 -0.536 196 155 133
0.488633 -0.326605 -0.535 198 156 134
0.492898 -0.325384 -0.533 197 156 134
0.50908 -0.325994 -0.534 172 131 101
0.0953333 -0.350282 -0.572 197 146 142
0.0967057 -0.343546 -0.561 196 143 137
0.112383 -0.339259 -0.554 192 135 126
0.113233 -0.338647 -0.553 192 135 124
0.120389 -0.338034 -0.552 190 134 121
0.125873 -0.338647 -0.553 181 125 110
0.136088 -0.340484 -0.556 160 106 94
0.14638 -0.34477 -0.563 149 94 87
0.160424 -0.34967 -0.571 135 88 80
0.177009 -0.354569 -0.579 127 83 80
0.196303 -0.363754 -0.594 119 81 80
0.23681 -0.377839 -0.617 167 165 187
0.29744 -0.377227 -0.616 239 242 255
0.298613 -0.377227 -0.616 242 245 255
0.334355 -0.377839 -0.617 255 253 255
0.33553 -0.377839 -0.617 254 252 255
0.374348 -0.379064 -0.619 236 237 255
0.379064 -0.379064 -0.619 246 246 246
0.389124 -0.379676 -0.62 212 223 253
0.393848 -0.379676 -0.62 190 199 230
0.39739 -0.379676 -0.62 251 250 255
0.400933 -0.379676 -0.62 255 253 254
0.415774 -0.380289 -0.621 249 250 254
0.451063 -0.382126 -0.624 180 196 229
0.457738 -0.382738 -0.625 200 213 248
0.477549 -0.38335 -0.626 232 233 251
0.478741 -0.38335 -0.626 227 228 246
0.487866 -0.383963 -0.627 207 211 223
0.510557 -0.383963 -0.627 193 196 211
0.488173 -0.351507 -0.574 185 152 143
0.480081 -0.341096 -0.557 189 153 139
0.477874 -0.338034 -0.552 190 154 140
0.477166 -0.333135 -0.544 193 154 137
0.485346 -0.328849 -0.537 195 154 134
0.489754 -0.327011 -0.534 195 154 132
0.490868 -0.326399 -0.533 197 155 133
0.497117 -0.325174 -0.531 189 147 122
0.504197 -0.325174 -0.531 186 145 117
0.516992 -0.329461 -0.538 165 129 105
0.108162 -0.340314 -0.554 195 142 134
0.109217 -0.340314 -0.554 194 140 130
0.11408 -0.339086 -0.552 191 137 125
0.131377 -0.340314 -0.554 174 120 108
0.161794 -0.351371 -0.572 132 89 83
0.168411 -0.353829 -0.576 126 85 81
0.181563 -0.358129 -0.583 122 81 77
0.182987 -0.358743 -0.584 121 82 77
0.223157 -0.377786 -0.615 158 154 177
0.228213 -0.3784 -0.616 78 84 108
0.25168 -0.3784 -0.616 196 197 217
0.260643 -0.377786 -0.615 162 178 214
0.262986 -0.377786 -0.615 149 164 203
0.270014 -0.377786 -0.615 224 226 247
0.275871 -0.377786 -0.615 220 225 247
0.277043 -0.377786 -0.615 220 225 247
0.294614 -0.377786 -0.615 216 226 253
0.341407 -0.379014 -0.617 247 247 255
0.359617 -0.379629 -0.618 224 229 248
0.366094 -0.380243 -0.619 247 248 252
0.369631 -0.380243 -0.619 239 241 254
0.37199 -0.380243 -0.619 194 196 208
0.389124 -0.380857 -0.62 212 223 253
0.400933 -0.380857 -0.62 253 252 250
0.404476 -0.380857 -0.62 245 245 255
0.425237 -0.381471 -0.621 245 250 254
0.42642 -0.381471 -0.621 243 248 252
0.431846 -0.382086 -0.622 247 249 255
0.441324 -0.382086 -0.622 250 249 255
0.449153 -0.3827 -0.623 180 199 231
0.467703 -0.383314 -0.624 246 244 255
0.48828 -0.384543 -0.626 137 144 172
0.500911 -0.366729 -0.597 174 147 140
0.498971 -0.363657 -0.592 178 149 141
0.477166 -0.334171 -0.544 190 153 137
0.4842 -0.330486 -0.538 196 155 135
0.488837 -0.327414 -0.533 196 155 133
0.49096 -0.3268 -0.532 196 153 134
0.491973 -0.3268 -0.532 195 152 133
0.492987 -0.3268 -0.532 194 151 132
0.51507 -0.329257 -0.536 169 133 109
0.0981381 -0.343218 -0.557 198 145 139
0.103941 -0.34137 -0.554 197 144 136
0.115131 -0.340137 -0.552 193 139 129
0.124594 -0.340137 -0.552 178 125 111
0.126927 -0.340753 -0.553 181 128 114
0.130322 -0.34137 -0.554 177 120 109
0.175105 -0.35739 -0.58 124 83 79
0.182186 -0.360471 -0.585 122 83 78
0.263728 -0.378341 -0.614 138 157 197
0.271914 -0.378341 -0.614 225 227 250
0.275423 -0.378341 -0.614 224 228 255
0.277762 -0.378341 -0.614 219 223 250
0.28361 -0.378341 -0.614 197 198 229
0.292966 -0.378341 -0.614 189 198 237
0.320386 -0.378957 -0.615 173 188 221
0.33616 -0.379573 -0.616 248 251 255
0.377885 -0.381422 -0.619 222 229 235
0.379064 -0.381422 -0.619 223 224 226
0.387317 -0.381422 -0.619 198 213 244
0.415614 -0.381422 -0.619 238 244 255
0.42219 -0.382038 -0.62 192 201 234
0.47008 -0.384503 -0.624 210 215 221
0.472457 -0.384503 -0.624 224 229 235
0.49305 -0.385735 -0.626 212 217 236
0.513233 -0.383887 -0.623 123 132 161
0.500657 -0.366017 -0.594 176 147 141
0.490725 -0.355542 -0.577 181 151 143
0.47874 -0.340753 -0.553 192 154 143
0.4788 -0.332743 -0.54 199 160 143
0.481126 -0.33151 -0.538 200 159 141
0.0988429 -0.343043 -0.555 194 144 135
0.0999 -0.343043 -0.555 195 145 136
0.119121 -0.34057 -0.551 193 140 126
0.12144 -0.341189 -0.552 188 135 121
0.122491 -0.341189 -0.552 187 131 118
0.125646 -0.341189 -0.552 180 124 111
0.129033 -0.341807 -0.553 177 120 109
0.130322 -0.342425 -0.554 176 119 108
0.131377 -0.342425 -0.554 170 117 103
0.162077 -0.354169 -0.573 128 85 79
0.166217 -0.356023 -0.576 125 84 80
0.223157 -0.380129 -0.615 143 140 171
0.23056 -0.380747 -0.616 139 155 189
0.238773 -0.380747 -0.616 56 68 116
0.252032 -0.37951 -0.614 147 151 176
0.275423 -0.37951 -0.614 224 226 251
0.284315 -0.378892 -0.613 197 198 226
0.30583 -0.37951 -0.614 247 249 255
0.326243 -0.380129 -0.615 179 197 233
0.330929 -0.380129 -0.615 204 216 240
0.36668 -0.381983 -0.618 201 211 236
0.389046 -0.381983 -0.618 201 220 253
0.424552 -0.383219 -0.62 240 247 253
0.453171 -0.384455 -0.622 189 210 253
0.45746 -0.385073 -0.623 174 193 233
0.46102 -0.385073 -0.623 164 180 216
0.465767 -0.385073 -0.623 248 245 254
0.4717 -0.385073 -0.623 235 240 244
0.485119 -0.38631 -0.625 191 201 226
0.496627 -0.386928 -0.626 175 180 209
0.497819 -0.386928 -0.626 140 150 186
0.509743 -0.386928 -0.626 197 198 219
0.510935 -0.386928 -0.626 197 198 219
0.47874 -0.341807 -0.553 191 153 142
0.478058 -0.34057 -0.551 191 153 142
0.477913 -0.333153 -0.539 203 161 147
0.482277 -0.331917 -0.537 200 159 141
0.48792 -0.328827 -0.532 196 153 134
0.490124 -0.32759 -0.53 195 150 129
0.492297 -0.326354 -0.528 180 138 116
0.493303 -0.326354 -0.528 186 144 122
0.494309 -0.326354 -0.528 189 144 121
0.49632 -0.326354 -0.528 191 146 123
0.500399 -0.325736 -0.527 186 144 120
0.513203 -0.329445 -0.533 169 134 112
0.101647 -0.34286 -0.553 198 148 139
0.104617 -0.34224 -0.552 195 143 132
0.110725 -0.34162 -0.551 190 139 122
0.12798 -0.34286 -0.553 179 123 106
0.131377 -0.34348 -0.554 171 118 102
0.158526 -0.35464 -0.572 131 83 71
0.166217 -0.35712 -0.576 125 84 80
0.184553 -0.36518 -0.589 122 84 81
0.221625 -0.38068 -0.614 134 133 167
0.223964 -0.38068 -0.614 118 121 162
0.26213 -0.38006 -0.613 135 156 199
0.267531 -0.37944 -0.612 221 228 246
0.279645 -0.38006 -0.613 184 191 220
0.295991 -0.38006 -0.613 196 201 239
0.322204 -0.38068 -0.614 200 215 254
0.330929 -0.3813 -0.615 204 216 240
0.335614 -0.3813 -0.615 250 254 255
0.347329 -0.3813 -0.615 166 172 198
0.363736 -0.38254 -0.617 212 222 247
0.376664 -0.38254 -0.617 254 255 255
0.400817 -0.38316 -0.618 252 253 255
0.405526 -0.38316 -0.618 229 230 248
0.416793 -0.38378 -0.619 234 243 255
0.423868 -0.38378 -0.619 228 239 243
0.439905 -0.3844 -0.62 243 241 244
0.452443 -0.38502 -0.621 191 214 255
0.469758 -0.38564 -0.622 235 240 244
0.476447 -0.38626 -0.623 115 121 157
0.507738 -0.3875 -0.625 200 210 211
0.51168 -0.38688 -0.624 151 157 169
0.513233 -0.38626 -0.623 99 115 151
0.501208 -0.36952 -0.596 174 146 142
0.477771 -0.3348 -0.54 202 160 146
0.488014 -0.32922 -0.531 200 158 136
0.496384 -0.32674 -0.527 192 147 124
0.0947848 -0.345779 -0.556 194 146 132
0.100593 -0.343913 -0.553 199 150 135
0.105669 -0.343291 -0.552 193 141 127
0.107576 -0.34267 -0.551 192 140 126
0.119121 -0.34267 -0.551 189 137 116
0.123543 -0.343291 -0.552 182 130 109
0.129033 -0.343913 -0.553 173 118 97
0.152275 -0.353864 -0.569 136 88 76
0.167895 -0.359461 -0.578 126 83 76
0.176312 -0.363192 -0.584 122 83 78
0.177729 -0.363814 -0.585 123 84 79
0.218929 -0.381228 -0.613 88 93 125
0.220096 -0.381228 -0.613 93 98 130
0.267531 -0.380606 -0.612 218 226 247
0.285017 -0.380606 -0.612 192 196 221
0.33039 -0.38185 -0.614 210 222 248
0.336238 -0.38185 -0.614 249 253 255
0.361973 -0.383093 -0.616 200 209 226
0.372533 -0.383093 -0.616 252 246 255
0.400169 -0.383715 -0.617 246 247 251
0.434479 -0.384959 -0.619 247 247 255
0.44581 -0.385581 -0.62 183 206 247
0.463089 -0.386203 -0.621 248 251 255
0.469003 -0.386203 -0.621 241 245 248
0.497024 -0.38869 -0.625 86 101 142
0.506548 -0.38869 -0.625 182 194 192
0.498687 -0.366302 -0.589 175 146 140
0.477913 -0.335207 -0.539 202 160 146
0.491291 -0.328366 -0.528 188 146 122
0.495442 -0.327122 -0.526 188 146 121
0.503457 -0.327122 -0.526 178 136 112
0.509351 -0.328988 -0.529 174 134 108
0.100411 -0.344343 -0.552 199 152 136
0.103566 -0.344343 -0.552 194 145 130
0.105477 -0.343719 -0.551 190 141 124
0.114714 -0.343095 -0.55 192 140 119
0.129267 -0.34559 -0.554 169 114 93
0.157711 -0.357443 -0.573 131 84 76
0.176916 -0.365552 -0.586 125 82 73
0.208904 -0.381148 -0.611 150 146 163
0.21624 -0.381771 -0.612 65 69 107
0.234108 -0.382395 -0.613 74 97 139
0.243051 -0.381771 -0.612 193 196 211
0.24888 -0.381771 -0.612 203 198 218
0.276857 -0.381771 -0.612 226 231 253
0.285017 -0.381771 -0.612 208 216 239
0.29784 -0.381771 -0.612 178 194 230
0.319344 -0.382395 -0.613 167 180 214
0.322847 -0.382395 -0.613 189 203 238
0.337408 -0.383019 -0.614 252 255 255
0.37488 -0.384267 -0.616 251 255 255
0.376053 -0.384267 -0.616 245 250 253
0.422006 -0.385514 -0.618 196 209 254
0.426226 -0.386138 -0.619 185 198 230
0.434479 -0.386138 -0.619 247 247 255
0.46782 -0.387386 -0.621 241 243 255
0.475682 -0.38801 -0.622 117 131 168
0.498606 -0.389257 -0.624 91 108 151
0.51241 -0.38801 -0.622 107 113 147
0.487184 -0.329995 -0.529 195 155 130
0.489199 -0.329995 -0.529 196 154 130
0.491365 -0.328748 -0.527 191 149 125
0.49444 -0.328124 -0.526 187 145 120
0.4985 -0.3275 -0.525 187 145 120
0.591883 -0.372414 -0.597 213 198 191
0.09936 -0.345394 -0.552 198 151 135
0.11346 -0.343517 -0.549 193 141 120
0.125646 -0.345394 -0.552 182 127 106
0.14209 -0.352277 -0.563 142 94 84
0.170166 -0.364166 -0.582 128 85 79
0.219737 -0.382937 -0.612 139 146 175
0.244982 -0.382311 -0.611 191 193 214
0.262439 -0.382311 -0.611 137 155 191
0.315326 -0.382937 -0.612 206 214 237
0.334523 -0.383563 -0.613 250 254 255
0.336858 -0.383563 -0.613 249 250 252
0.338026 -0.383563 -0.613 252 253 255
0.345031 -0.383563 -0.613 149 155 187
0.346199 -0.383563 -0.613 163 169 201
0.359629 -0.384189 -0.614 235 244 253
0.361968 -0.384189 -0.614 210 221 253
0.368985 -0.384189 -0.614 242 247 253
0.380129 -0.384814 -0.615 250 249 255
0.38544 -0.38544 -0.616 176 192 225
0.394827 -0.38544 -0.616 254 254 254
0.400169 -0.386066 -0.617 216 217 221
0.429069 -0.386691 -0.618 134 147 191
0.430942 -0.387317 -0.619 146 163 191
0.44084 -0.386691 -0.618 222 224 223
0.449807 -0.387317 -0.619 172 193 238
0.50018 -0.38982 -0.623 197 205 224
0.477005 -0.341014 -0.545 192 155 139
0.476743 -0.337886 -0.54 192 153 136
0.477027 -0.336634 -0.538 200 159 141
0.477163 -0.336009 -0.537 197 156 138
0.4806 -0.334131 -0.534 203 160 141
0.486086 -0.331629 -0.53 200 158 136
0.490286 -0.330377 -0.528 195 153 129
0.492436 -0.329126 -0.526 189 147 123
0.4955 -0.3285 -0.525 191 149 125
0.506463 -0.329126 -0.526 182 138 111
0.0914429 -0.348329 -0.555 195 152 136
0.107186 -0.344563 -0.549 194 146 124
0.126697 -0.346446 -0.552 177 122 101
0.131851 -0.348956 -0.556 159 106 88
0.139449 -0.352094 -0.561 142 93 86
0.14634 -0.35586 -0.567 132 88 77
0.149024 -0.357115 -0.569 131 87 76
0.155257 -0.358998 -0.572 132 87 81
0.16766 -0.364647 -0.581 126 82 79
0.171863 -0.36653 -0.584 125 87 84
0.218214 -0.383475 -0.611 148 150 175
0.2244 -0.384103 -0.612 68 81 115
0.250801 -0.383475 -0.611 150 154 179
0.273629 -0.382848 -0.61 223 229 253
0.284086 -0.382848 -0.61 231 236 255
0.310155 -0.383475 -0.611 246 250 253
0.326983 -0.384103 -0.612 170 184 219
0.328149 -0.384103 -0.612 175 189 224
0.343864 -0.38473 -0.613 176 180 205
0.356708 -0.38473 -0.613 204 214 239
0.357875 -0.38473 -0.613 224 234 255
0.397173 -0.386613 -0.616 245 248 255
0.401867 -0.386613 -0.616 252 251 255
0.40304 -0.386613 -0.616 248 247 253
0.404213 -0.386613 -0.616 245 245 255
0.407733 -0.386613 -0.616 185 190 222
0.41008 -0.386613 -0.616 207 219 245
0.416622 -0.387241 -0.617 224 231 237
0.422498 -0.387241 -0.617 233 240 255
0.488714 -0.390379 -0.622 168 186 234
0.498993 -0.391007 -0.623 116 130 157
0.50374 -0.391007 -0.623 205 207 228
0.496552 -0.328872 -0.524 189 147 122
0.510437 -0.330755 -0.527 174 135 106
0.0898114 -0.351274 -0.558 189 146 129
0.0905486 -0.350015 -0.556 194 149 130
0.10614 -0.345609 -0.549 197 146 125
0.107186 -0.345609 -0.549 197 146 125
0.116597 -0.345609 -0.549 195 144 123
0.118689 -0.345609 -0.549 192 140 119
0.119734 -0.345609 -0.549 188 136 115
0.130557 -0.349386 -0.555 162 107 87
0.141018 -0.354422 -0.563 138 89 82
0.142343 -0.355051 -0.564 136 89 81
0.20358 -0.38338 -0.609 150 148 172
0.22287 -0.384639 -0.611 123 134 164
0.224033 -0.384639 -0.611 63 74 104
0.226361 -0.384639 -0.611 119 134 167
0.227525 -0.384639 -0.611 148 153 183
0.228689 -0.384639 -0.611 162 167 197
0.229852 -0.384639 -0.611 171 175 202
0.23218 -0.384639 -0.611 166 173 199
0.24149 -0.384639 -0.611 172 177 206
0.242257 -0.38401 -0.61 188 192 217
0.2562 -0.38401 -0.61 170 186 220
0.26042 -0.38338 -0.609 155 170 203
0.26854 -0.38338 -0.609 225 225 249
0.333977 -0.385269 -0.612 252 254 251
0.361378 -0.385898 -0.613 239 241 254
0.368384 -0.385898 -0.613 238 244 255
0.377171 -0.386528 -0.614 253 255 254
0.384189 -0.386528 -0.614 183 199 225
0.387697 -0.386528 -0.614 201 220 253
0.405387 -0.387787 -0.616 208 207 223
0.421813 -0.387787 -0.616 228 236 249
0.426024 -0.388416 -0.617 237 239 252
0.430725 -0.388416 -0.617 191 199 218
0.435426 -0.388416 -0.617 250 250 255
0.437776 -0.388416 -0.617 249 249 251
0.445549 -0.389046 -0.618 174 188 215
0.44908 -0.389046 -0.618 184 202 242
0.450257 -0.389046 -0.618 190 209 251
0.45732 -0.389046 -0.618 169 183 218
0.479649 -0.390934 -0.621 219 225 247
0.48753 -0.391564 -0.622 106 121 162
0.489899 -0.391564 -0.622 199 204 223
0.498192 -0.391564 -0.622 181 192 214
0.500562 -0.391564 -0.622 181 189 208
0.506486 -0.391564 -0.622 200 201 206
0.5015 -0.374567 -0.595 169 145 141
0.48504 -0.355051 -0.564 179 149 141
0.47788 -0.34372 -0.546 191 154 138
0.476444 -0.341202 -0.542 197 158 141
0.477027 -0.338684 -0.538 200 159 139
0.478316 -0.337425 -0.536 200 159 139
0.5933 -0.374567 -0.595 213 205 202
0.0960314 -0.347917 -0.551 200 153 137
0.101957 -0.346654 -0.549 195 147 127
0.104903 -0.346023 -0.548 198 147 128
0.139946 -0.355494 -0.563 137 88 81
0.143926 -0.357389 -0.566 133 86 80
0.151989 -0.361177 -0.572 128 85 78
0.169638 -0.368754 -0.584 122 82 80
0.20474 -0.38454 -0.609 151 152 173
0.212048 -0.385171 -0.61 152 153 181
0.214371 -0.385171 -0.61 138 136 158
0.2175 -0.38454 -0.609 166 167 185
0.236448 -0.385171 -0.61 181 185 210
0.26738 -0.38454 -0.609 227 228 249
0.27202 -0.38454 -0.609 208 212 239
0.28014 -0.38454 -0.609 227 230 249
0.331104 -0.385803 -0.611 249 250 254
0.342137 -0.386434 -0.612 239 240 255
0.358457 -0.386434 -0.612 248 247 255
0.382395 -0.387066 -0.613 185 193 214
0.38473 -0.387066 -0.613 203 217 243
0.399392 -0.387697 -0.614 247 247 255
0.419957 -0.388329 -0.615 214 229 252
0.425333 -0.38896 -0.616 249 248 254
0.430725 -0.389591 -0.617 228 234 248
0.435426 -0.389591 -0.617 237 240 255
0.440127 -0.389591 -0.617 249 249 249
0.455405 -0.389591 -0.617 179 199 234
0.47103 -0.390854 -0.619 179 191 213
0.486346 -0.332763 -0.527 199 155 130
0.501617 -0.329606 -0.522 188 144 117
0.0843686 -0.3667 -0.579 190 151 136
0.0875286 -0.352767 -0.557 195 152 135
0.0927143 -0.348333 -0.55 198 153 134
0.0937619 -0.348333 -0.55 198 151 133
0.0998657 -0.3477 -0.549 195 147 127
0.108034 -0.347067 -0.548 193 142 121
0.115341 -0.347067 -0.548 197 146 125
0.146598 -0.359733 -0.568 130 85 79
0.1482 -0.361 -0.57 130 87 78
0.154707 -0.363533 -0.574 127 84 78
0.22562 -0.3857 -0.609 163 168 187
0.23258 -0.3857 -0.609 177 184 203
0.23606 -0.3857 -0.609 178 184 208
0.24186 -0.3857 -0.609 148 159 189
0.246095 -0.385067 -0.608 196 204 225
0.24882 -0.3857 -0.609 181 192 214
0.263467 -0.385067 -0.608 211 219 242
0.29522 -0.3857 -0.609 241 246 252
0.30334 -0.3857 -0.609 162 169 198
0.32063 -0.386967 -0.611 185 198 230
0.333431 -0.386967 -0.611 250 251 255
0.33925 -0.386967 -0.611 176 178 199
0.341578 -0.386967 -0.611 244 245 255
0.367783 -0.3876 -0.612 173 179 195
0.377725 -0.388233 -0.613 253 255 252
0.418786 -0.3895 -0.615 185 197 213
0.43824 -0.390133 -0.616 249 248 254
0.446453 -0.390133 -0.616 184 200 234
0.450704 -0.390767 -0.617 195 213 251
0.451879 -0.390767 -0.617 201 219 255
0.466737 -0.3914 -0.618 195 203 224
0.468671 -0.392033 -0.619 142 150 171
0.487929 -0.3933 -0.621 195 206 236
0.504489 -0.3933 -0.621 187 186 202
0.476743 -0.342 -0.54 196 158 137
0.477027 -0.340733 -0.538 196 158 137
0.483153 -0.335033 -0.529 197 155 133
0.49256 -0.331867 -0.524 193 149 124
0.493612 -0.331233 -0.523 193 149 122
0.502641 -0.329967 -0.521 182 141 111
0.0946371 -0.348746 -0.549 198 153 134
0.104711 -0.347475 -0.547 193 145 125
0.116385 -0.34811 -0.548 196 144 122
0.124369 -0.350016 -0.551 179 124 103
0.153346 -0.363991 -0.573 129 86 80
0.166016 -0.370344 -0.583 125 87 86
0.21286 -0.38686 -0.609 164 163 181
0.220617 -0.386225 -0.608 173 174 194
0.244937 -0.386225 -0.608 196 202 228
0.251886 -0.386225 -0.608 153 163 190
0.286629 -0.386225 -0.608 229 231 252
0.327076 -0.387495 -0.61 207 216 247
0.3294 -0.387495 -0.61 242 248 255
0.336371 -0.387495 -0.61 174 176 197
0.339857 -0.387495 -0.61 219 221 236
0.357871 -0.38813 -0.611 254 252 255
0.367182 -0.38813 -0.611 186 193 209
0.368949 -0.388766 -0.612 147 154 170
0.386434 -0.388766 -0.612 188 201 233
0.444107 -0.391307 -0.616 203 211 234
0.4488 -0.391307 -0.616 181 199 235
0.449973 -0.391307 -0.616 188 206 242
0.460106 -0.391942 -0.617 237 246 255
0.467914 -0.392577 -0.618 137 142 164
0.469091 -0.392577 -0.618 155 166 188
0.4738 -0.392577 -0.618 237 239 252
0.481641 -0.393212 -0.619 228 227 243
0.504857 -0.393848 -0.62 139 141 153
0.501789 -0.377331 -0.594 161 134 127
0.498379 -0.37225 -0.586 173 144 136
0.478685 -0.338582 -0.533 199 158 138
0.478911 -0.337311 -0.531 203 161 139
0.4875 -0.3335 -0.525 197 152 129
0.493663 -0.331594 -0.522 194 150 123
0.499695 -0.330324 -0.52 187 146 118
0.0821629 -0.368906 -0.579 200 158 142
0.0860019 -0.352977 -0.554 201 155 139
0.0876352 -0.351066 -0.551 201 156 137
0.0965524 -0.349154 -0.548 200 154 131
0.102815 -0.349154 -0.548 196 148 126
0.116385 -0.349154 -0.548 197 144 126
0.124594 -0.351703 -0.552 172 120 98
0.126927 -0.35234 -0.553 165 112 94
0.13912 -0.359349 -0.564 134 87 77
0.14177 -0.360623 -0.566 132 85 77
0.161848 -0.369543 -0.58 125 85 85
0.20093 -0.387383 -0.608 149 148 180
0.20706 -0.38802 -0.609 61 72 104
0.226408 -0.387383 -0.608 177 183 205
0.239147 -0.387383 -0.608 129 144 183
0.252628 -0.386746 -0.607 125 143 183
0.261877 -0.386746 -0.607 192 203 231
0.266502 -0.386746 -0.607 202 208 234
0.29821 -0.387383 -0.608 240 244 253
0.31842 -0.38802 -0.609 172 187 218
0.338695 -0.388657 -0.61 193 195 218
0.339857 -0.388657 -0.61 195 194 208
0.345667 -0.388657 -0.61 249 252 255
0.349152 -0.388657 -0.61 250 251 255
0.36369 -0.389294 -0.611 251 248 255
0.418105 -0.391206 -0.614 227 230 237
0.426291 -0.391206 -0.614 250 249 255
0.43097 -0.391206 -0.614 214 217 226
0.439871 -0.391843 -0.615 203 206 223
0.448071 -0.391843 -0.615 167 187 224
0.453493 -0.39248 -0.616 165 188 229
0.460106 -0.393117 -0.617 237 246 255
0.469091 -0.393754 -0.618 200 208 231
0.471446 -0.393754 -0.618 234 235 253
0.474977 -0.393754 -0.618 238 238 248
0.503676 -0.395029 -0.62 116 117 145
0.511816 -0.393117 -0.617 113 120 149
0.480157 -0.351066 -0.551 192 154 141
0.477295 -0.341509 -0.536 200 159 139
0.48013 -0.337049 -0.529 202 157 136
0.483419 -0.335137 -0.526 197 152 129
0.488631 -0.333226 -0.523 194 149 126
0.495694 -0.331951 -0.521 189 145 120
0.500711 -0.330677 -0.519 182 140 116
0.0834343 -0.356589 -0.558 200 157 140
0.0856914 -0.352754 -0.552 201 156 137
0.0894086 -0.350837 -0.549 201 154 134
0.0925457 -0.350837 -0.549 200 153 133
0.104711 -0.349559 -0.547 193 145 123
0.105753 -0.349559 -0.547 195 144 123
0.12078 -0.350837 -0.549 186 135 108
0.124594 -0.352754 -0.552 167 115 94
0.126927 -0.353393 -0.553 158 105 89
0.131028 -0.35595 -0.557 147 97 86
0.159363 -0.370009 -0.579 120 86 84
0.193024 -0.386624 -0.605 68 73 103
0.21251 -0.388541 -0.608 162 164 177
0.235672 -0.388541 -0.608 188 193 212
0.257983 -0.387263 -0.606 160 179 222
0.266063 -0.387263 -0.606 176 185 218
0.27068 -0.387263 -0.606 176 187 215
0.27922 -0.387902 -0.607 202 199 210
0.283845 -0.387902 -0.607 238 242 253
0.32306 -0.38918 -0.609 165 177 215
0.371837 -0.390458 -0.611 167 171 208
0.392263 -0.391097 -0.612 241 241 253
0.432139 -0.392375 -0.614 199 213 239
0.434478 -0.392375 -0.614 147 153 175
0.452757 -0.393014 -0.615 153 177 221
0.454667 -0.393653 -0.616 180 204 248
0.462456 -0.394292 -0.617 211 221 233
0.4664 -0.393653 -0.616 186 196 221
0.511816 -0.394292 -0.617 97 109 149
0.495769 -0.331666 -0.519 189 145 120
0.49876 -0.331027 -0.518 179 138 110
0.508595 -0.332944 -0.521 172 135 108
0.0902895 -0.351242 -0.548 200 153 133
0.0923771 -0.351242 -0.548 199 152 132
0.0953343 -0.350601 -0.547 201 154 134
0.1066 -0.34996 -0.546 195 144 123
0.10868 -0.34996 -0.546 198 147 126
0.127156 -0.355088 -0.554 152 98 86
0.161297 -0.373034 -0.582 120 86 84
0.189253 -0.387135 -0.604 51 59 98
0.210194 -0.389699 -0.608 163 166 185
0.211352 -0.389699 -0.608 162 165 184
0.222567 -0.389058 -0.607 164 166 181
0.261446 -0.388417 -0.606 187 203 237
0.317897 -0.389699 -0.608 163 177 216
0.323688 -0.389699 -0.608 191 209 255
0.324846 -0.389699 -0.608 211 226 255
0.33411 -0.389699 -0.608 173 180 208
0.34858 -0.39034 -0.609 248 249 253
0.35438 -0.39034 -0.609 251 250 255
0.395113 -0.391622 -0.611 186 195 212
0.402754 -0.392263 -0.612 254 254 255
0.410418 -0.392904 -0.613 252 250 255
0.457443 -0.394186 -0.615 221 225 252
0.475384 -0.395468 -0.617 232 238 252
0.49028 -0.396109 -0.618 218 222 234
0.496166 -0.396109 -0.618 214 216 229
0.47946 -0.351883 -0.549 189 153 141
0.477163 -0.344191 -0.537 199 158 140
0.49371 -0.333936 -0.521 196 151 128
0.4958 -0.332013 -0.518 192 148 123
0.500751 -0.331372 -0.517 181 140 108
0.106405 -0.350357 -0.545 196 146 123
0.123319 -0.354214 -0.551 165 113 91
0.140691 -0.363857 -0.566 132 87 81
0.154149 -0.370286 -0.576 122 85 79
0.194176 -0.388929 -0.605 89 103 150
0.199114 -0.389571 -0.606 124 133 174
0.237206 -0.389571 -0.606 195 202 221
0.240669 -0.389571 -0.606 149 159 194
0.252948 -0.388929 -0.605 109 130 187
0.275995 -0.388929 -0.605 238 240 253
0.313906 -0.390214 -0.607 198 205 224
0.406251 -0.393429 -0.612 252 251 255
0.418591 -0.394071 -0.613 244 245 250
0.437273 -0.394071 -0.613 196 200 225
0.471093 -0.396 -0.616 238 236 249
0.497343 -0.397286 -0.618 206 204 217
0.502051 -0.397286 -0.618 166 165 173
0.503229 -0.397286 -0.618 91 102 134
0.49779 -0.375429 -0.584 172 143 135
0.47963 -0.352286 -0.548 186 152 140
0.476531 -0.343286 -0.534 200 157 140
0.480583 -0.336857 -0.524 199 157 133
0.481581 -0.336857 -0.524 198 156 132
0.495828 -0.332357 -0.517 189 145 118
0.499783 -0.331714 -0.516 183 142 112
0.0798924 -0.363001 -0.563 202 159 142
0.108481 -0.351395 -0.545 196 146 123
0.121 -0.354619 -0.55 170 120 97
0.125873 -0.356553 -0.553 148 96 83
0.203731 -0.390726 -0.606 118 126 162
0.20604 -0.390726 -0.606 162 166 193
0.207194 -0.390726 -0.606 162 165 184
0.244881 -0.390081 -0.605 110 125 166
0.261014 -0.390081 -0.605 136 157 202
0.27369 -0.390081 -0.605 235 234 252
0.28291 -0.390081 -0.605 233 233 245
0.323155 -0.39137 -0.607 170 200 254
0.334717 -0.39137 -0.607 241 246 255
0.353798 -0.392015 -0.608 237 236 250
0.356114 -0.392015 -0.608 248 249 253
0.359589 -0.392015 -0.608 246 250 251
0.38454 -0.39266 -0.609 144 170 219
0.38918 -0.39266 -0.609 176 195 237
0.427234 -0.394594 -0.612 251 249 254
0.437726 -0.394594 -0.612 199 214 237
0.447782 -0.395239 -0.613 134 165 219
0.457869 -0.395884 -0.614 203 220 255
0.495363 -0.397818 -0.617 199 194 200
0.501239 -0.397818 -0.617 198 197 205
0.492547 -0.370093 -0.574 177 144 135
0.487189 -0.363646 -0.564 180 147 138
0.476405 -0.344948 -0.535 197 155 139
0.477108 -0.341079 -0.529 203 160 141
0.478115 -0.341079 -0.529 203 161 139
0.479319 -0.33979 -0.527 202 160 138
0.4805 -0.3385 -0.525 200 158 133
0.481658 -0.33721 -0.523 197 155 130
0.483786 -0.335921 -0.521 196 152 127
0.484778 -0.335921 -0.521 198 154 129
0.4958 -0.333987 -0.518 191 147 122
0.495851 -0.332697 -0.516 187 143 118
0.497833 -0.332052 -0.515 184 143 115
0.502731 -0.332697 -0.516 174 133 111
0.08996 -0.35308 -0.546 199 152 134
0.0960238 -0.352433 -0.545 195 147 127
0.116172 -0.353727 -0.547 188 137 116
0.119734 -0.35502 -0.549 175 125 102
0.127386 -0.3589 -0.555 144 91 87
0.143605 -0.367953 -0.569 128 85 79
0.189253 -0.390587 -0.604 23 42 82
0.195006 -0.390587 -0.604 55 77 134
0.208005 -0.391233 -0.605 163 164 182
0.232205 -0.391233 -0.605 191 194 211
0.25253 -0.390587 -0.604 99 119 178
0.25368 -0.390587 -0.604 89 116 183
0.257131 -0.390587 -0.604 136 162 221
0.267486 -0.390587 -0.604 219 226 252
0.277148 -0.391233 -0.605 237 238 255
0.3025 -0.391233 -0.605 239 242 247
0.304805 -0.391233 -0.605 234 240 254
0.30711 -0.391233 -0.605 171 178 204
0.320314 -0.39188 -0.606 120 151 205
0.353216 -0.392527 -0.607 216 219 238
0.37696 -0.393173 -0.608 152 170 206
0.379276 -0.393173 -0.608 185 204 244
0.3857 -0.39382 -0.609 154 181 234
0.399114 -0.394467 -0.61 246 253 255
0.416062 -0.395113 -0.611 190 198 217
0.422571 -0.39576 -0.612 238 242 253
0.427234 -0.39576 -0.612 253 251 255
0.43656 -0.39576 -0.612 160 170 197
0.456699 -0.397053 -0.614 144 170 219
0.4715 -0.3977 -0.615 237 240 245
0.495363 -0.398993 -0.617 171 166 163
0.498889 -0.398993 -0.617 211 201 202
0.504765 -0.398993 -0.617 89 111 158
0.499809 -0.380887 -0.589 172 143 139
0.492547 -0.371187 -0.574 176 143 136
0.476743 -0.3492 -0.54 188 150 137
0.477108 -0.342087 -0.529 202 161 139
0.482793 -0.336913 -0.521 198 154 129
0.483848 -0.336267 -0.52 198 154 129
0.486819 -0.336267 -0.52 194 150 125
0.498825 -0.332387 -0.514 187 147 121
0.504697 -0.33368 -0.516 173 135 114
0.5195 -0.3395 -0.525 170 132 111
0.0795267 -0.35866 -0.553 204 161 145
0.0810429 -0.356066 -0.549 205 159 143
0.110354 -0.352823 -0.544 194 147 121
0.113671 -0.353471 -0.545 190 142 119
0.128674 -0.360606 -0.556 139 85 83
0.135415 -0.364497 -0.562 136 89 81
0.146285 -0.370334 -0.571 125 84 78
0.182893 -0.39044 -0.602 50 60 96
0.191237 -0.391089 -0.603 28 50 100
0.193855 -0.391737 -0.604 45 70 124
0.219529 -0.392386 -0.605 114 111 132
0.220681 -0.392386 -0.605 102 99 116
0.223768 -0.391737 -0.604 150 149 165
0.250963 -0.391089 -0.603 94 116 174
0.257854 -0.391089 -0.603 115 140 194
0.345709 -0.393034 -0.606 204 199 205
0.368853 -0.394331 -0.608 225 223 226
0.39266 -0.39498 -0.609 127 148 195
