ply
format ascii 1.0
comment Created by Open3D
element vertex 1289
property double x
property double y
property double z
property uchar red
property uchar green
property uchar blue
end_header
0.162827 -0.319703 -0.568 139 84 79
0.164197 -0.320266 -0.569 137 82 77
0.169125 -0.321391 -0.571 135 77 73
0.17548 -0.32308 -0.574 124 74 67
0.18048 -0.324206 -0.576 123 73 64
0.18914 -0.325894 -0.579 156 93 86
0.19822 -0.328146 -0.583 151 87 85
0.200014 -0.329271 -0.585 149 89 88
0.214643 -0.338277 -0.601 122 82 83
0.360692 -0.361917 -0.643 99 129 189
0.365591 -0.361917 -0.643 164 195 250
0.3827 -0.363043 -0.645 166 187 232
0.39929 -0.363606 -0.646 192 216 250
0.40175 -0.363606 -0.646 221 227 249
0.446883 -0.365294 -0.649 142 163 208
0.451286 -0.365857 -0.65 90 126 188
0.4775 -0.322517 -0.573 166 131 129
0.470706 -0.315763 -0.561 179 137 123
0.467563 -0.310134 -0.551 193 143 118
0.47164 -0.30732 -0.546 195 144 123
0.477323 -0.305631 -0.543 195 143 122
0.483809 -0.304506 -0.541 186 136 113
0.506524 -0.309571 -0.55 169 125 100
0.09338 -0.34394 -0.609 187 146 140
0.0946 -0.339987 -0.602 196 149 139
0.104743 -0.318526 -0.564 191 138 132
0.109529 -0.316831 -0.561 190 137 131
0.119786 -0.315702 -0.559 188 133 128
0.140016 -0.315702 -0.559 160 103 96
0.148261 -0.317396 -0.562 149 92 85
0.156863 -0.319655 -0.566 141 86 79
0.174387 -0.324173 -0.574 124 74 65
0.182991 -0.325868 -0.577 131 76 69
0.207268 -0.334904 -0.593 121 80 78
0.21094 -0.337163 -0.597 125 81 80
0.369266 -0.363142 -0.643 223 230 255
0.398671 -0.364271 -0.645 198 219 250
0.435757 -0.36653 -0.649 172 184 210
0.449355 -0.36653 -0.649 114 150 212
0.457476 -0.367095 -0.65 79 118 187
0.509673 -0.351847 -0.623 156 128 125
0.499718 -0.343375 -0.608 159 128 126
0.494286 -0.338857 -0.6 160 129 127
0.471814 -0.307795 -0.545 196 145 124
0.473021 -0.30723 -0.544 184 133 112
-0.319789 -0.332067 -0.586 244 246 233
-0.318672 -0.332067 -0.586 244 246 233
0.0978533 -0.325267 -0.574 192 143 139
0.0986019 -0.324133 -0.572 191 142 138
0.100252 -0.322433 -0.569 189 140 136
0.110597 -0.3179 -0.561 188 133 126
0.137887 -0.316767 -0.559 164 110 100
0.14612 -0.318467 -0.562 150 95 88
0.153357 -0.320167 -0.565 142 89 81
0.182991 -0.326967 -0.577 133 78 71
0.194889 -0.330367 -0.583 147 86 81
0.211647 -0.339433 -0.599 123 79 80
0.387013 -0.364933 -0.644 117 153 213
0.404814 -0.3655 -0.645 233 238 255
0.406043 -0.3655 -0.645 235 240 255
0.435086 -0.3672 -0.648 193 205 231
0.438789 -0.3672 -0.648 225 227 248
0.447429 -0.3672 -0.648 137 156 199
0.462429 -0.368333 -0.65 102 142 204
0.471095 -0.368333 -0.65 218 219 237
0.477756 -0.324133 -0.572 164 131 126
0.472384 -0.319033 -0.563 173 133 125
0.484971 -0.306 -0.54 184 134 109
0.508619 -0.311667 -0.55 166 121 98
-0.31644 -0.333183 -0.586 245 247 236
0.0991686 -0.323517 -0.569 189 140 136
0.10098 -0.32238 -0.567 187 138 133
0.107391 -0.318969 -0.561 189 136 130
0.110597 -0.318969 -0.561 189 134 129
0.111467 -0.3184 -0.56 189 134 129
0.127011 -0.317263 -0.558 175 121 109
0.135514 -0.317263 -0.558 159 107 94
0.136577 -0.317263 -0.558 159 107 94
0.140267 -0.3184 -0.56 149 97 86
0.154707 -0.321811 -0.566 141 88 80
0.15714 -0.32238 -0.567 143 90 82
0.209803 -0.339437 -0.597 119 79 80
0.344381 -0.363886 -0.64 242 246 255
0.362012 -0.364454 -0.641 117 143 192
0.368691 -0.365023 -0.642 211 220 249
0.373583 -0.365023 -0.642 239 237 248
0.392529 -0.366729 -0.645 133 170 225
0.415286 -0.367297 -0.646 144 163 203
0.423323 -0.367866 -0.647 113 133 196
0.439344 -0.367866 -0.647 226 229 246
0.483476 -0.369571 -0.65 56 93 161
0.48719 -0.369571 -0.65 47 75 158
0.489667 -0.369571 -0.65 48 82 156
0.492143 -0.369571 -0.65 40 83 152
0.497581 -0.343417 -0.604 163 127 127
0.491908 -0.337163 -0.593 163 131 134
0.468612 -0.313283 -0.551 194 143 122
0.47042 -0.311009 -0.547 197 146 127
0.4706 -0.31044 -0.546 199 147 126
-0.354797 -0.332588 -0.583 241 243 232
-0.305278 -0.334299 -0.586 244 247 238
0.114462 -0.318896 -0.559 183 130 124
0.115527 -0.318896 -0.559 181 128 122
0.124662 -0.317755 -0.557 164 110 100
0.154707 -0.32289 -0.566 140 87 79
0.158499 -0.32403 -0.568 142 89 81
0.162314 -0.325171 -0.57 135 82 74
0.1634 -0.325171 -0.57 132 82 73
0.173293 -0.327453 -0.574 129 81 71
0.210506 -0.341715 -0.599 116 76 77
0.369338 -0.365675 -0.641 225 235 255
0.39192 -0.367387 -0.644 133 169 221
0.434973 -0.368528 -0.646 226 228 243
0.459771 -0.369669 -0.648 115 160 219
0.461006 -0.369669 -0.648 107 142 196
0.48026 -0.370239 -0.649 130 159 217
0.519818 -0.370239 -0.649 55 87 160
0.469003 -0.313191 -0.549 191 140 119
0.477626 -0.308628 -0.541 193 141 120
0.481886 -0.308057 -0.54 187 133 105
0.482914 -0.308057 -0.54 188 134 106
0.486 -0.308057 -0.54 186 132 104
0.487029 -0.308057 -0.54 186 132 104
0.487153 -0.307487 -0.539 186 132 104
0.490233 -0.307487 -0.539 182 131 102
-0.3081 -0.334843 -0.585 243 246 235
-0.291884 -0.335415 -0.586 244 246 235
0.0952324 -0.330836 -0.578 196 148 146
0.0958333 -0.329119 -0.575 193 148 142
0.100802 -0.323968 -0.566 186 137 133
0.115527 -0.319961 -0.559 186 133 129
0.12276 -0.319389 -0.558 177 122 115
0.134692 -0.319961 -0.559 163 109 97
0.136822 -0.319961 -0.559 157 103 93
0.15498 -0.32454 -0.567 140 86 76
0.162314 -0.326257 -0.57 134 81 73
0.164774 -0.32683 -0.571 135 82 74
0.173293 -0.328547 -0.574 126 77 70
0.182208 -0.330836 -0.578 128 79 74
0.186152 -0.331981 -0.58 134 84 77
0.197344 -0.335988 -0.587 113 72 66
0.20026 -0.337132 -0.589 116 77 72
0.203535 -0.33885 -0.592 116 76 74
0.207181 -0.341139 -0.596 117 77 77
0.215274 -0.346863 -0.606 118 79 82
0.367543 -0.366324 -0.64 168 177 216
0.39621 -0.368041 -0.643 153 177 221
0.401733 -0.368613 -0.644 232 237 255
0.40296 -0.368613 -0.644 228 234 250
0.40664 -0.368613 -0.644 218 221 236
0.407867 -0.368613 -0.644 219 222 241
0.414 -0.368613 -0.644 125 149 193
0.422014 -0.369186 -0.645 146 169 223
0.444817 -0.369758 -0.646 188 202 231
0.448509 -0.369758 -0.646 130 158 206
0.468411 -0.370903 -0.648 218 215 224
0.478286 -0.370903 -0.648 132 145 179
0.507456 -0.371475 -0.649 197 200 219
0.498731 -0.345718 -0.604 160 128 131
0.479683 -0.327974 -0.573 168 135 130
0.474297 -0.322823 -0.564 172 133 126
0.479829 -0.309086 -0.54 190 135 114
0.4851 -0.308513 -0.539 186 130 103
0.495257 -0.309086 -0.54 181 130 101
0.503071 -0.311375 -0.544 175 125 98
-0.354189 -0.334234 -0.582 241 242 234
-0.320922 -0.335383 -0.584 242 244 233
-0.31536 -0.335383 -0.584 243 245 232
0.1017 -0.324471 -0.565 186 135 134
0.102594 -0.323897 -0.564 186 135 132
0.116591 -0.321026 -0.559 185 132 128
0.119571 -0.320451 -0.558 181 128 122
0.121697 -0.320451 -0.558 184 129 124
0.12276 -0.320451 -0.558 178 123 116
0.128074 -0.320451 -0.558 172 117 110
0.134692 -0.321026 -0.559 163 109 99
0.169717 -0.329066 -0.573 134 79 74
0.393149 -0.368691 -0.642 144 166 207
0.40111 -0.369266 -0.643 231 232 252
0.42504 -0.36984 -0.644 144 166 213
0.460294 -0.371563 -0.647 112 143 190
0.465943 -0.372137 -0.648 200 215 238
0.47088 -0.372137 -0.648 187 181 191
0.472114 -0.372137 -0.648 207 206 212
0.483223 -0.372137 -0.648 67 101 164
0.495566 -0.372137 -0.648 78 106 171
0.511611 -0.372137 -0.648 105 120 153
0.493037 -0.340551 -0.593 161 132 128
0.470949 -0.312411 -0.544 200 149 130
0.476595 -0.310689 -0.541 198 143 123
0.491373 -0.308966 -0.538 182 131 102
0.502146 -0.311837 -0.543 178 127 98
-0.323704 -0.335919 -0.583 244 246 233
-0.317041 -0.335919 -0.583 243 245 232
0.097001 -0.327852 -0.569 192 144 142
0.116383 -0.321514 -0.558 182 129 123
0.129137 -0.321514 -0.558 174 118 105
0.1539 -0.3267 -0.567 142 89 81
0.156335 -0.327276 -0.568 138 85 77
0.165063 -0.329581 -0.572 128 77 73
0.1722 -0.330733 -0.574 131 82 75
0.180006 -0.333038 -0.578 126 77 72
0.210064 -0.34629 -0.601 113 80 75
0.21634 -0.3509 -0.609 103 79 77
0.218571 -0.352629 -0.612 112 96 106
0.366969 -0.368186 -0.639 184 190 224
0.388873 -0.369338 -0.641 181 204 246
0.391926 -0.369914 -0.642 141 165 203
0.402931 -0.369914 -0.642 183 186 201
0.404154 -0.369914 -0.642 203 203 215
0.4066 -0.369914 -0.642 221 224 243
0.412714 -0.369914 -0.642 154 173 213
0.42683 -0.37049 -0.643 147 166 208
0.429947 -0.371067 -0.644 117 138 183
0.467689 -0.372795 -0.647 174 174 182
0.471386 -0.372795 -0.647 211 210 215
0.508357 -0.372795 -0.647 203 203 213
0.511611 -0.373371 -0.648 117 131 158
0.512054 -0.372795 -0.647 86 119 170
0.475979 -0.326124 -0.566 171 132 125
0.47244 -0.321514 -0.558 179 136 120
0.4706 -0.3146 -0.546 195 144 125
0.470949 -0.313448 -0.544 194 146 126
0.473504 -0.311719 -0.541 192 141 120
0.476743 -0.311143 -0.54 196 145 124
0.492398 -0.30999 -0.538 180 129 102
0.495367 -0.310567 -0.539 179 128 101
-0.31593 -0.33703 -0.583 243 245 232
-0.29645 -0.337608 -0.584 245 246 238
0.0925571 -0.340498 -0.589 187 146 144
0.0928838 -0.337608 -0.584 191 147 144
0.104186 -0.324311 -0.561 190 139 136
0.116383 -0.322577 -0.558 180 127 121
0.123601 -0.321999 -0.557 177 124 116
0.140768 -0.32489 -0.562 148 94 84
0.142909 -0.32489 -0.562 150 96 86
0.15309 -0.328358 -0.568 143 88 81
0.176397 -0.333561 -0.577 125 76 71
0.208919 -0.347435 -0.601 114 70 67
0.394978 -0.370559 -0.641 194 208 243
0.396199 -0.370559 -0.641 216 223 251
0.398641 -0.370559 -0.641 234 232 253
0.404746 -0.370559 -0.641 225 227 242
0.42438 -0.371715 -0.643 186 200 235
0.468921 -0.374028 -0.647 208 197 211
0.47385 -0.374028 -0.647 197 199 222
0.47804 -0.37345 -0.646 74 100 151
0.486653 -0.37345 -0.646 129 152 202
0.50466 -0.374028 -0.647 178 178 186
0.471806 -0.321421 -0.556 180 137 121
0.470776 -0.315062 -0.545 192 144 124
0.481126 -0.311015 -0.538 188 137 110
0.491483 -0.310437 -0.537 180 129 102
-0.305936 -0.33814 -0.583 243 244 236
0.0910086 -0.34858 -0.601 191 147 144
0.0927086 -0.33408 -0.576 190 145 140
0.116383 -0.32364 -0.558 183 130 124
0.141838 -0.32596 -0.562 150 95 88
0.152008 -0.32944 -0.568 142 87 80
0.187115 -0.33814 -0.583 120 75 72
0.1911 -0.3393 -0.585 119 76 69
0.200152 -0.34336 -0.592 117 73 74
0.380357 -0.37062 -0.639 206 213 239
0.393143 -0.3712 -0.64 168 184 218
0.398019 -0.3712 -0.64 226 227 248
0.402304 -0.37178 -0.641 229 228 246
0.434178 -0.37294 -0.643 213 224 244
0.440302 -0.37294 -0.643 207 213 225
0.445201 -0.37294 -0.643 168 185 215
0.458871 -0.3741 -0.645 134 161 204
0.497266 -0.37526 -0.647 140 153 197
0.49973 -0.37526 -0.647 180 191 213
0.50265 -0.37468 -0.646 162 166 175
0.507125 -0.37526 -0.647 190 193 212
0.508357 -0.37526 -0.647 191 194 213
0.513724 -0.37468 -0.646 111 132 177
0.521107 -0.37468 -0.646 125 149 195
0.501862 -0.3509 -0.605 164 131 124
0.477057 -0.32828 -0.566 174 133 127
0.47042 -0.31726 -0.547 189 143 128
0.4833 -0.31146 -0.537 186 135 108
0.485346 -0.31146 -0.537 186 135 108
0.492506 -0.31146 -0.537 182 131 104
0.511054 -0.31726 -0.547 166 120 94
0.516777 -0.32016 -0.552 165 121 96
0.522519 -0.32306 -0.557 164 120 95
-0.2915 -0.33925 -0.583 244 245 237
0.0901629 -0.350889 -0.603 190 147 140
0.0917714 -0.339832 -0.584 188 147 145
0.0931543 -0.33285 -0.572 187 138 133
0.111268 -0.325285 -0.559 188 135 131
0.116383 -0.324703 -0.558 182 129 123
0.121479 -0.324121 -0.557 179 124 117
0.132563 -0.325285 -0.559 164 110 100
0.133628 -0.325285 -0.559 162 108 98
0.14716 -0.329358 -0.566 145 90 83
0.176703 -0.336341 -0.578 124 76 72
0.383408 -0.371255 -0.638 150 169 202
0.401676 -0.372419 -0.64 224 226 249
0.402895 -0.372419 -0.64 202 207 236
0.412648 -0.372419 -0.64 208 214 238
0.418176 -0.373001 -0.641 176 182 208
0.421839 -0.373001 -0.641 212 219 245
0.43228 -0.373583 -0.642 150 160 185
0.448875 -0.374165 -0.643 144 166 205
0.4508 -0.374747 -0.644 147 172 212
0.457643 -0.375329 -0.645 118 146 183
0.458871 -0.375329 -0.645 127 151 195
0.465014 -0.375329 -0.645 209 206 225
0.467471 -0.375329 -0.645 209 201 222
0.482214 -0.375329 -0.645 177 192 223
0.489586 -0.375329 -0.645 158 173 204
0.501419 -0.37591 -0.646 187 193 207
0.50601 -0.354962 -0.61 162 129 122
0.4706 -0.31772 -0.546 192 144 124
0.48215 -0.313065 -0.538 189 139 114
0.502457 -0.314229 -0.54 173 127 101
-0.302086 -0.339777 -0.582 243 245 234
-0.296543 -0.339777 -0.582 244 245 237
0.0946667 -0.331604 -0.568 182 131 128
0.10223 -0.328101 -0.562 191 138 134
0.114052 -0.325182 -0.557 186 133 125
0.119357 -0.325182 -0.557 181 126 119
0.126784 -0.325182 -0.557 163 109 97
0.1302 -0.325766 -0.558 166 114 101
0.160424 -0.333355 -0.571 135 85 74
0.161794 -0.333939 -0.572 133 85 73
0.178111 -0.338026 -0.579 121 74 68
0.182047 -0.339193 -0.581 123 78 73
0.183469 -0.339777 -0.582 122 77 72
0.184894 -0.340361 -0.583 121 76 71
0.1932 -0.34328 -0.588 119 74 69
0.20298 -0.348534 -0.597 116 72 71
0.204801 -0.349702 -0.599 118 74 71
0.378547 -0.37247 -0.638 228 234 255
0.382192 -0.37247 -0.638 158 167 196
0.383408 -0.37247 -0.638 146 165 198
0.425502 -0.374222 -0.641 212 216 241
0.427944 -0.374222 -0.641 208 212 237
0.438932 -0.374222 -0.641 210 217 236
0.442595 -0.374222 -0.641 188 195 214
0.45255 -0.37539 -0.643 148 173 214
0.46184 -0.375973 -0.644 187 192 211
0.509243 -0.376557 -0.645 173 180 198
0.517843 -0.376557 -0.645 132 155 199
0.483548 -0.33569 -0.575 166 133 126
0.474351 -0.32635 -0.559 176 136 124
0.472865 -0.324598 -0.556 180 136 123
0.478051 -0.31409 -0.538 191 143 120
0.4833 -0.313506 -0.537 186 136 111
0.489547 -0.312922 -0.536 186 136 111
0.495574 -0.313506 -0.537 177 127 100
0.496597 -0.313506 -0.537 178 128 105
0.504418 -0.315841 -0.541 170 126 99
-0.30378 -0.3403 -0.581 243 245 234
-0.279914 -0.340886 -0.582 246 248 237
0.0894152 -0.350257 -0.598 191 144 136
0.109138 -0.327414 -0.559 188 135 131
0.116174 -0.326243 -0.557 183 128 121
0.124662 -0.326243 -0.557 173 119 107
0.129137 -0.326829 -0.558 166 112 100
0.150926 -0.332686 -0.568 141 89 78
0.152008 -0.332686 -0.568 139 89 78
0.153359 -0.333271 -0.569 139 89 78
0.170606 -0.337371 -0.576 127 80 72
0.192407 -0.344986 -0.589 119 74 71
0.205485 -0.352014 -0.601 116 75 73
0.236624 -0.368414 -0.629 116 125 154
0.371303 -0.372514 -0.636 158 169 197
0.382807 -0.3731 -0.637 142 161 194
0.390699 -0.373686 -0.638 164 180 216
0.400421 -0.373686 -0.638 156 164 185
0.41322 -0.374271 -0.639 216 221 243
0.4494 -0.376029 -0.642 111 140 182
0.451325 -0.376614 -0.643 128 157 199
0.45255 -0.376614 -0.643 123 150 197
0.460613 -0.3772 -0.644 186 192 208
0.4692 -0.3772 -0.644 139 154 183
0.47288 -0.3772 -0.644 133 147 184
0.484393 -0.376614 -0.643 139 145 171
0.485618 -0.376614 -0.643 170 176 200
0.490053 -0.3772 -0.644 187 193 217
0.507227 -0.3772 -0.644 181 186 205
0.514587 -0.3772 -0.644 108 131 173
0.482114 -0.335029 -0.572 166 132 122
0.47752 -0.330343 -0.564 172 132 124
0.471117 -0.318043 -0.543 193 145 125
0.47278 -0.3157 -0.539 192 146 123
0.473807 -0.3157 -0.539 194 148 125
0.479076 -0.315114 -0.538 191 145 121
0.491691 -0.313357 -0.535 177 130 104
0.0891162 -0.350221 -0.596 190 141 134
0.0908162 -0.33553 -0.571 187 134 126
0.11193 -0.327304 -0.557 184 131 125
0.119357 -0.327304 -0.557 181 127 117
0.124886 -0.327891 -0.558 172 118 106
0.142343 -0.331417 -0.564 141 89 78
0.174199 -0.339056 -0.577 130 83 77
0.184099 -0.34317 -0.584 122 77 72
0.189517 -0.344932 -0.587 118 74 71
0.202519 -0.351984 -0.599 116 76 74
0.232659 -0.369025 -0.628 168 165 182
0.370719 -0.373138 -0.635 142 153 181
0.39556 -0.374901 -0.638 220 227 253
0.405282 -0.374901 -0.638 214 221 247
0.41865 -0.374901 -0.638 209 216 235
0.433371 -0.376076 -0.64 108 117 146
0.456224 -0.377839 -0.643 95 124 168
0.457449 -0.377839 -0.643 109 132 174
0.497413 -0.378427 -0.644 149 159 184
0.504773 -0.378427 -0.644 177 182 204
0.512133 -0.378427 -0.644 90 111 156
0.504167 -0.35551 -0.605 164 133 130
0.472314 -0.31849 -0.542 191 145 122
0.47278 -0.316727 -0.539 193 147 124
0.479209 -0.315551 -0.537 195 148 122
0.487614 -0.314376 -0.535 186 139 113
-0.344048 -0.340745 -0.578 238 240 227
-0.341846 -0.340745 -0.578 238 240 227
-0.28386 -0.342513 -0.581 244 246 235
0.11087 -0.328365 -0.557 180 125 120
0.11193 -0.328365 -0.557 183 128 123
0.119357 -0.328365 -0.557 183 128 121
0.120418 -0.328365 -0.557 178 124 114
0.136243 -0.330723 -0.561 148 94 84
0.169509 -0.339566 -0.576 130 83 77
0.242229 -0.370221 -0.628 158 170 212
0.378571 -0.374937 -0.636 200 204 229
0.379783 -0.374937 -0.636 185 194 225
0.396153 -0.375527 -0.637 197 206 235
0.4095 -0.375527 -0.637 216 222 238
0.427826 -0.376706 -0.639 204 211 230
0.443124 -0.377295 -0.64 184 191 220
0.444343 -0.377295 -0.64 168 175 204
0.454999 -0.379064 -0.643 101 129 179
0.479971 -0.378474 -0.642 188 195 214
0.48364 -0.378474 -0.642 177 184 203
0.50232 -0.379653 -0.644 98 107 140
0.483204 -0.337208 -0.572 164 131 122
0.470776 -0.32129 -0.545 189 144 123
0.470949 -0.320701 -0.544 191 145 122
0.478186 -0.316574 -0.537 193 147 123
0.483538 -0.315395 -0.535 185 138 112
0.492806 -0.314806 -0.534 180 132 109
0.496786 -0.315395 -0.535 178 132 108
-0.306043 -0.342437 -0.579 242 243 235
-0.279433 -0.34362 -0.581 244 245 237
-0.2739 -0.34362 -0.581 245 246 238
0.0903391 -0.335931 -0.568 194 139 136
0.0930905 -0.334157 -0.565 192 137 134
0.0979486 -0.332383 -0.562 195 144 140
0.105944 -0.330609 -0.559 193 140 136
0.10788 -0.330017 -0.558 193 138 133
0.112789 -0.328834 -0.556 185 133 122
0.119143 -0.328834 -0.556 178 124 112
0.129137 -0.330017 -0.558 165 111 99
0.132563 -0.330609 -0.559 163 109 99
0.137556 -0.332383 -0.562 147 95 84
0.138627 -0.332383 -0.562 146 94 83
0.178727 -0.34362 -0.581 126 81 75
0.193387 -0.350126 -0.592 111 71 69
0.199903 -0.353674 -0.598 114 76 73
0.201042 -0.353674 -0.598 113 77 77
0.37255 -0.374966 -0.634 147 161 190
0.393109 -0.376149 -0.636 208 222 251
0.405223 -0.376149 -0.636 216 218 233
0.411927 -0.37674 -0.637 217 223 239
0.41314 -0.37674 -0.637 213 219 235
0.435129 -0.377923 -0.639 134 145 175
0.436346 -0.377923 -0.639 122 133 163
0.446781 -0.378514 -0.64 101 122 169
0.449921 -0.379106 -0.641 113 148 202
0.461629 -0.379697 -0.642 194 200 216
0.464074 -0.379697 -0.642 121 130 147
0.46652 -0.379697 -0.642 98 108 135
0.488531 -0.379697 -0.642 181 187 203
0.511766 -0.379697 -0.642 83 102 145
0.519911 -0.380289 -0.643 73 98 152
0.500072 -0.352491 -0.596 162 132 124
0.481379 -0.317006 -0.536 192 145 119
0.496786 -0.316414 -0.535 181 131 104
-0.300529 -0.34354 -0.579 241 243 232
-0.299426 -0.34354 -0.579 243 244 236
0.09018 -0.33642 -0.567 196 140 139
0.0938333 -0.334047 -0.563 194 143 140
0.0949057 -0.334047 -0.563 194 143 140
0.0988429 -0.33286 -0.561 196 143 139
0.0997333 -0.332267 -0.56 194 141 137
0.109809 -0.330487 -0.557 192 139 133
0.123601 -0.330487 -0.557 175 121 109
0.203533 -0.357187 -0.602 109 79 81
0.234677 -0.37202 -0.627 177 180 195
0.36714 -0.37558 -0.633 243 246 253
0.419207 -0.377953 -0.637 207 214 232
0.456026 -0.380327 -0.641 143 168 208
0.465297 -0.38092 -0.642 106 120 149
0.469456 -0.380327 -0.641 184 189 209
0.48655 -0.380327 -0.641 181 186 205
0.490212 -0.380327 -0.641 184 189 208
0.492654 -0.380327 -0.641 173 183 193
0.494646 -0.38092 -0.642 184 186 207
0.501983 -0.38092 -0.642 92 97 119
0.519103 -0.38092 -0.642 82 105 159
0.474983 -0.329893 -0.556 171 135 121
0.472629 -0.3204 -0.54 193 145 123
0.47614 -0.31862 -0.537 196 146 121
0.483538 -0.317433 -0.535 188 138 113
0.484669 -0.31684 -0.534 188 138 113
0.489852 -0.316247 -0.533 186 136 109
0.495857 -0.31684 -0.534 179 132 102
0.496874 -0.31684 -0.534 178 131 101
-0.305514 -0.344048 -0.578 241 242 234
0.0886409 -0.339881 -0.571 191 142 138
0.10275 -0.332738 -0.559 193 140 136
0.103629 -0.332143 -0.558 196 143 135
0.107687 -0.331548 -0.557 192 137 130
0.120202 -0.330952 -0.556 182 128 118
0.142848 -0.336905 -0.566 150 96 86
0.152543 -0.339286 -0.57 138 86 75
0.161267 -0.341667 -0.574 132 83 76
0.16236 -0.341667 -0.574 133 84 77
0.167605 -0.343452 -0.577 131 84 78
0.192584 -0.352976 -0.593 120 79 77
0.20604 -0.360714 -0.606 115 86 88
0.24265 -0.372619 -0.626 79 95 144
0.371963 -0.376786 -0.633 203 211 230
0.377381 -0.377381 -0.634 160 172 210
0.404586 -0.377976 -0.635 213 217 229
0.410633 -0.377976 -0.635 211 218 236
0.436193 -0.379167 -0.637 122 128 162
0.452876 -0.380952 -0.64 45 79 140
0.46213 -0.381548 -0.641 129 142 176
0.492654 -0.381548 -0.641 179 187 200
0.497091 -0.382143 -0.642 181 182 202
0.51341 -0.381548 -0.641 67 96 152
0.514631 -0.381548 -0.641 73 102 160
0.515852 -0.381548 -0.641 80 109 167
0.519515 -0.381548 -0.641 89 110 155
0.524399 -0.381548 -0.641 148 149 180
0.472504 -0.325595 -0.547 187 142 121
0.472314 -0.322619 -0.542 189 144 123
0.474977 -0.320238 -0.538 195 147 124
0.489852 -0.317262 -0.533 182 135 107
0.490868 -0.317262 -0.533 184 134 107
-0.337371 -0.343954 -0.576 239 241 230
-0.296707 -0.345149 -0.578 241 243 232
-0.28178 -0.345746 -0.579 243 245 234
0.0889429 -0.337983 -0.566 189 142 136
0.0907771 -0.336789 -0.564 196 145 141
0.0995552 -0.333803 -0.559 195 142 138
0.130433 -0.333803 -0.559 158 104 94
0.161267 -0.34276 -0.574 132 83 78
0.175407 -0.34694 -0.581 122 79 73
0.176817 -0.347537 -0.582 122 79 73
0.185675 -0.351717 -0.589 122 81 77
0.191777 -0.354703 -0.594 120 79 77
0.195829 -0.355897 -0.596 115 80 74
0.203059 -0.360674 -0.604 118 79 80
0.23788 -0.373811 -0.626 167 173 199
0.246227 -0.373811 -0.626 89 109 162
0.387042 -0.378589 -0.634 92 122 186
0.39791 -0.378589 -0.634 211 224 240
0.437407 -0.38038 -0.637 122 129 157
0.439833 -0.38038 -0.637 90 112 159
0.450951 -0.381574 -0.639 39 76 146
0.466286 -0.382171 -0.64 127 133 155
0.467505 -0.382171 -0.64 145 151 173
0.469943 -0.382171 -0.64 187 191 203
0.483352 -0.382171 -0.64 167 170 187
0.490667 -0.382171 -0.64 173 178 197
0.495096 -0.382769 -0.641 180 181 199
0.514631 -0.382769 -0.641 67 98 162
0.47989 -0.336191 -0.563 168 134 124
0.475117 -0.320666 -0.537 195 145 122
0.4806 -0.318874 -0.534 191 144 118
0.524137 -0.329623 -0.552 157 116 96
-0.308283 -0.34565 -0.577 240 241 233
0.0984905 -0.334868 -0.559 196 146 139
0.112586 -0.332471 -0.555 188 131 124
0.149286 -0.341457 -0.57 141 86 79
0.15281 -0.342056 -0.571 137 87 78
0.162643 -0.344452 -0.575 128 83 77
0.187749 -0.354636 -0.592 123 82 80
0.190325 -0.355235 -0.593 120 79 77
0.194693 -0.357032 -0.596 116 78 75
0.235119 -0.374405 -0.625 178 179 197
0.381006 -0.378598 -0.632 88 119 183
0.435509 -0.380994 -0.636 183 190 209
0.46141 -0.38339 -0.64 54 79 135
0.467505 -0.38339 -0.64 143 146 161
0.468724 -0.38339 -0.64 169 172 177
0.483352 -0.38339 -0.64 147 152 171
0.49998 -0.38399 -0.641 174 176 188
0.515048 -0.38339 -0.64 51 85 148
0.521143 -0.38339 -0.64 99 118 161
0.483761 -0.319292 -0.533 187 140 114
0.486907 -0.318693 -0.532 185 138 110
0.49206 -0.318094 -0.531 187 138 106
0.500943 -0.319891 -0.534 175 129 103
-0.334595 -0.345548 -0.575 239 241 230
-0.31104 -0.346149 -0.576 241 242 234
0.085619 -0.348552 -0.58 196 142 140
0.0883143 -0.337735 -0.562 192 145 135
0.123601 -0.33473 -0.557 176 120 105
0.129137 -0.335331 -0.558 167 111 94
0.14177 -0.340139 -0.566 148 95 87
0.15662 -0.344346 -0.573 133 85 75
0.1749 -0.350355 -0.583 122 77 72
0.186621 -0.355764 -0.592 123 82 78
0.231177 -0.374994 -0.624 175 180 199
0.234743 -0.374994 -0.624 186 187 207
0.241874 -0.374994 -0.624 104 118 155
0.247817 -0.374994 -0.624 114 139 195
0.37199 -0.379201 -0.631 167 181 210
0.374393 -0.379201 -0.631 107 131 177
0.385821 -0.379802 -0.632 110 137 204
0.390636 -0.379802 -0.632 82 117 181
0.426357 -0.381605 -0.635 204 202 215
0.451461 -0.383408 -0.638 27 66 131
0.455107 -0.383408 -0.638 40 79 148
0.467991 -0.384009 -0.639 144 145 147
0.474077 -0.384009 -0.639 182 182 192
0.475294 -0.384009 -0.639 161 167 183
0.477729 -0.384009 -0.639 146 153 172
0.488683 -0.384009 -0.639 168 170 191
0.506514 -0.38461 -0.64 47 67 126
0.499254 -0.355163 -0.591 164 131 124
0.486472 -0.343745 -0.572 167 133 124
0.4833 -0.34074 -0.567 167 133 124
0.473657 -0.324514 -0.54 189 143 120
0.479583 -0.320909 -0.534 193 145 122
0.486907 -0.319707 -0.532 186 139 113
0.494083 -0.319106 -0.531 186 137 107
-0.344947 -0.34604 -0.574 238 240 229
-0.34276 -0.34604 -0.574 238 240 229
-0.341667 -0.34604 -0.574 238 240 229
-0.308846 -0.347246 -0.576 241 242 234
0.102382 -0.335791 -0.557 194 139 132
0.108357 -0.334586 -0.555 193 138 131
0.111328 -0.333983 -0.554 192 136 123
0.114493 -0.333983 -0.554 178 122 107
0.121261 -0.335189 -0.556 177 121 106
0.130433 -0.336997 -0.559 160 106 94
0.140691 -0.341217 -0.566 148 93 86
0.172383 -0.350863 -0.582 122 77 74
0.240686 -0.376183 -0.624 144 153 182
0.399063 -0.381006 -0.632 218 220 235
0.425686 -0.382211 -0.634 208 205 214
0.439662 -0.382814 -0.635 43 84 146
0.440871 -0.382814 -0.635 53 94 156
0.458033 -0.38402 -0.637 39 76 144
0.46969 -0.384623 -0.638 142 137 143
0.479411 -0.384623 -0.638 135 143 166
0.505723 -0.385226 -0.639 53 73 134
0.50694 -0.385226 -0.639 47 67 128
0.509792 -0.384623 -0.638 31 61 121
0.514653 -0.384623 -0.638 23 51 114
0.4773 -0.334586 -0.555 172 136 122
0.47372 -0.32916 -0.546 184 142 120
0.475117 -0.323734 -0.537 192 146 120
0.475253 -0.323131 -0.536 193 147 121
0.48173 -0.321323 -0.533 191 144 116
0.489026 -0.320117 -0.531 185 138 110
-0.346529 -0.346529 -0.573 238 240 229
-0.334013 -0.347133 -0.574 239 241 230
-0.32636 -0.347133 -0.574 240 241 233
-0.294583 -0.348343 -0.576 240 242 231
0.0823048 -0.360438 -0.596 185 156 140
0.08302 -0.358624 -0.593 200 149 146
0.0983143 -0.337457 -0.558 199 146 142
0.099199 -0.336852 -0.557 200 147 143
0.10026 -0.336852 -0.557 199 146 142
0.101321 -0.336852 -0.557 197 142 137
0.105186 -0.335643 -0.555 191 137 127
0.151989 -0.345924 -0.572 133 85 73
0.160452 -0.347738 -0.575 133 84 77
0.164592 -0.349552 -0.578 131 84 78
0.195182 -0.363462 -0.601 123 83 83
0.222143 -0.376162 -0.622 138 132 142
0.228433 -0.376767 -0.623 174 179 199
0.235553 -0.376767 -0.623 123 127 152
0.411101 -0.38221 -0.632 192 198 214
0.41712 -0.38221 -0.632 194 199 218
0.461673 -0.385233 -0.637 142 157 198
0.473807 -0.385233 -0.637 172 175 190
0.476233 -0.385233 -0.637 151 158 177
0.507362 -0.385838 -0.638 50 75 131
0.52021 -0.374952 -0.62 155 130 126
0.499533 -0.35681 -0.59 163 130 123
0.481179 -0.339876 -0.562 170 133 125
0.477495 -0.335038 -0.554 177 136 116
0.474588 -0.330805 -0.547 182 139 120
0.474833 -0.325967 -0.539 189 143 119
0.48498 -0.321129 -0.531 193 143 116
0.489114 -0.320524 -0.53 185 138 110
-0.333431 -0.34762 -0.573 238 239 231
-0.32308 -0.348227 -0.574 238 239 231
-0.31652 -0.348227 -0.574 239 240 232
0.0839314 -0.34944 -0.576 193 142 138
0.088 -0.339733 -0.56 195 142 138
0.103257 -0.337307 -0.556 191 136 131
0.104129 -0.3367 -0.555 189 134 129
0.119986 -0.3367 -0.555 174 118 105
0.125723 -0.337913 -0.557 172 115 104
0.133274 -0.340947 -0.562 154 97 88
0.135897 -0.34216 -0.564 150 96 86
0.154437 -0.34762 -0.573 126 79 73
0.158262 -0.348833 -0.575 130 85 80
0.171569 -0.353687 -0.583 127 76 81
0.194037 -0.364607 -0.601 121 83 82
0.222143 -0.377347 -0.622 151 145 155
0.3918 -0.3822 -0.63 156 173 216
0.400835 -0.382807 -0.631 219 219 231
0.435347 -0.384627 -0.634 74 86 134
0.437762 -0.384627 -0.634 124 158 195
0.4438 -0.384627 -0.634 65 101 163
0.446215 -0.384627 -0.634 54 98 169
0.452967 -0.385233 -0.635 87 127 186
0.46774 -0.386447 -0.637 193 195 207
0.473807 -0.386447 -0.637 184 186 199
0.490349 -0.387053 -0.638 145 139 149
0.505353 -0.386447 -0.637 50 74 138
0.510207 -0.386447 -0.637 42 71 129
0.512633 -0.386447 -0.637 30 59 119
0.5187 -0.386447 -0.637 56 89 143
0.521127 -0.386447 -0.637 33 63 117
0.474588 -0.331847 -0.547 181 138 119
0.475117 -0.32578 -0.537 190 143 117
0.476274 -0.325173 -0.536 191 145 121
0.478566 -0.32396 -0.534 192 145 119
0.481946 -0.32214 -0.531 190 143 115
0.487095 -0.321533 -0.53 189 140 110
0.489114 -0.321533 -0.53 187 138 108
0.491214 -0.320927 -0.529 183 138 109
0.50305 -0.323353 -0.533 165 125 100
0.505011 -0.32396 -0.534 164 124 99
-0.342655 -0.348103 -0.572 237 238 230
-0.33234 -0.348711 -0.573 238 239 231
-0.325791 -0.348711 -0.573 239 241 230
-0.311053 -0.34932 -0.574 239 240 232
0.08232 -0.35784 -0.588 199 148 144
0.0828724 -0.355406 -0.584 198 147 143
0.084481 -0.343843 -0.565 193 143 136
0.101139 -0.338366 -0.556 196 141 136
0.11218 -0.33654 -0.553 184 126 115
0.113233 -0.33654 -0.553 182 123 109
0.117659 -0.337149 -0.554 174 116 102
0.121261 -0.338366 -0.556 178 122 109
0.127011 -0.339583 -0.558 166 107 99
0.130667 -0.3408 -0.56 158 101 92
0.183548 -0.360883 -0.593 119 82 73
0.219067 -0.377314 -0.62 168 157 174
0.405 -0.3834 -0.63 204 203 211
0.451046 -0.385834 -0.634 132 165 218
0.456595 -0.386443 -0.635 163 190 219
0.483966 -0.387051 -0.636 184 186 201
0.492007 -0.38766 -0.637 179 182 189
0.494433 -0.38766 -0.637 179 181 193
0.49686 -0.38766 -0.637 172 174 189
0.506567 -0.38766 -0.637 82 104 151
0.513847 -0.38766 -0.637 33 69 131
0.514251 -0.387051 -0.636 35 71 133
0.521127 -0.38766 -0.637 77 98 143
0.52234 -0.38766 -0.637 75 96 141
0.486943 -0.346886 -0.57 164 132 121
0.500151 -0.323151 -0.531 170 129 101
-0.33176 -0.349192 -0.572 236 238 227
0.0999 -0.338814 -0.555 195 140 135
0.10586 -0.337593 -0.553 192 137 130
0.107967 -0.337593 -0.553 195 140 133
0.127011 -0.340646 -0.558 164 105 97
0.150899 -0.349192 -0.572 131 86 83
0.158812 -0.352245 -0.577 128 84 81
0.240711 -0.379106 -0.621 172 179 197
0.41646 -0.38521 -0.631 215 214 228
0.427954 -0.385821 -0.632 201 203 218
0.439483 -0.386431 -0.633 165 176 206
0.4431 -0.386431 -0.633 88 130 178
0.446717 -0.386431 -0.633 69 113 174
0.461433 -0.387652 -0.635 51 67 100
0.471851 -0.388263 -0.636 140 139 147
0.482754 -0.388263 -0.636 185 184 200
0.486389 -0.388263 -0.636 157 159 174
0.502137 -0.388263 -0.636 137 148 194
0.506983 -0.388263 -0.636 117 138 181
0.511829 -0.388263 -0.636 45 80 138
0.514251 -0.388263 -0.636 42 78 138
0.51446 -0.37178 -0.609 165 136 132
0.476323 -0.335151 -0.549 177 138 121
0.474929 -0.33271 -0.545 182 141 123
0.474534 -0.330268 -0.541 189 144 123
0.483057 -0.323552 -0.53 191 144 118
0.484067 -0.323552 -0.53 190 143 117
0.485169 -0.322942 -0.529 188 141 115
0.495314 -0.322331 -0.528 178 134 105
0.49726 -0.322942 -0.529 173 132 102
0.507046 -0.325994 -0.534 162 124 101
0.0876857 -0.341709 -0.558 195 142 136
0.100957 -0.339871 -0.555 191 136 129
0.141189 -0.347832 -0.568 144 94 87
0.142521 -0.348445 -0.569 142 92 85
0.143605 -0.348445 -0.569 139 90 85
0.151163 -0.350894 -0.573 130 87 80
0.171335 -0.358855 -0.586 122 81 77
0.219892 -0.379064 -0.619 174 167 185
0.221071 -0.379064 -0.619 171 169 191
0.240324 -0.379676 -0.62 149 152 171
0.405555 -0.385188 -0.629 223 221 232
0.40915 -0.385188 -0.629 216 218 231
0.431566 -0.387025 -0.632 82 94 132
0.435177 -0.387025 -0.632 191 203 229
0.439992 -0.387025 -0.632 158 180 204
0.443604 -0.387025 -0.632 82 119 163
0.465062 -0.388862 -0.635 147 157 193
0.478367 -0.388862 -0.635 186 185 201
0.481543 -0.389474 -0.636 190 187 204
0.482754 -0.389474 -0.636 187 186 200
0.486833 -0.388862 -0.635 174 173 179
0.503349 -0.389474 -0.636 170 180 216
0.4758 -0.33436 -0.546 181 139 123
0.474833 -0.330073 -0.539 187 142 121
0.476274 -0.328236 -0.536 189 143 120
0.478566 -0.327011 -0.534 190 144 121
0.489357 -0.322725 -0.527 184 137 111
0.491365 -0.322725 -0.527 185 140 111
0.492369 -0.322725 -0.527 186 141 112
0.49632 -0.323337 -0.528 173 132 102
0.522681 -0.333748 -0.545 159 118 98
-0.338793 -0.350757 -0.571 236 238 227
-0.33553 -0.350757 -0.571 235 237 226
-0.330092 -0.350757 -0.571 238 239 231
-0.30997 -0.351371 -0.572 239 241 230
0.0793629 -0.363043 -0.591 185 145 133
0.0806476 -0.358743 -0.584 193 143 132
0.09972 -0.340314 -0.554 188 135 127
0.109874 -0.339086 -0.552 189 137 126
0.123379 -0.341543 -0.556 166 109 100
0.127239 -0.343386 -0.559 163 105 101
0.132204 -0.345229 -0.562 155 100 95
0.17903 -0.364271 -0.593 123 83 83
0.37202 -0.385157 -0.627 226 237 255
0.381574 -0.385157 -0.627 162 181 221
0.404357 -0.386386 -0.629 208 207 213
0.412744 -0.386386 -0.629 191 196 215
0.4206 -0.387 -0.63 213 215 228
0.4242 -0.387 -0.63 199 197 211
0.453951 -0.388843 -0.633 175 189 216
0.457569 -0.388843 -0.633 183 194 212
0.465537 -0.389457 -0.634 153 168 209
0.46916 -0.389457 -0.634 175 175 187
0.49409 -0.390071 -0.635 170 172 184
0.507804 -0.389457 -0.634 91 114 156
0.509011 -0.389457 -0.634 64 94 144
0.517071 -0.390071 -0.635 127 151 189
0.52191 -0.390071 -0.635 158 170 194
0.518684 -0.377171 -0.614 151 132 126
0.503482 -0.363657 -0.592 165 132 123
0.498643 -0.359357 -0.585 165 132 123
0.475253 -0.329257 -0.536 186 141 120
0.477549 -0.328029 -0.534 190 144 121
-0.340371 -0.351229 -0.57 236 238 227
-0.32683 -0.351845 -0.571 238 239 231
-0.30888 -0.352461 -0.572 239 241 230
0.0783695 -0.364785 -0.592 193 146 138
0.0829619 -0.346299 -0.562 195 147 137
0.114287 -0.340753 -0.553 183 127 114
0.116393 -0.340753 -0.553 181 125 110
0.117659 -0.34137 -0.554 181 125 108
0.119986 -0.341986 -0.555 174 118 103
0.141437 -0.350612 -0.569 135 90 85
0.154149 -0.354926 -0.576 129 86 80
0.157987 -0.356158 -0.578 126 83 77
0.163514 -0.358623 -0.582 124 83 77
0.182817 -0.368482 -0.598 124 84 82
0.217534 -0.381422 -0.619 122 121 152
0.391129 -0.386351 -0.627 221 224 243
0.397733 -0.386968 -0.628 171 178 204
0.412744 -0.387584 -0.629 191 196 215
0.444104 -0.388816 -0.631 125 158 199
0.476406 -0.390665 -0.634 191 189 203
0.4953 -0.391281 -0.635 97 112 145
0.498929 -0.391281 -0.635 119 135 169
0.512634 -0.390665 -0.634 76 109 160
0.513842 -0.390665 -0.634 71 102 149
0.49634 -0.358007 -0.581 169 131 120
0.482667 -0.345067 -0.56 174 135 120
0.475253 -0.330278 -0.536 186 141 120
0.4905 -0.3235 -0.525 186 139 111
0.507173 -0.327813 -0.532 167 126 106
0.515009 -0.330894 -0.537 162 119 100
0.607799 -0.381422 -0.619 209 205 202
-0.332771 -0.352314 -0.57 236 238 225
-0.318129 -0.352932 -0.571 238 239 231
-0.309428 -0.352932 -0.571 239 240 232
0.0852533 -0.343661 -0.556 193 145 133
0.0893286 -0.343043 -0.555 195 145 134
0.101463 -0.341189 -0.552 191 139 128
0.114287 -0.341807 -0.553 183 126 115
0.123601 -0.344279 -0.557 160 106 94
0.132674 -0.348606 -0.564 146 96 89
0.141686 -0.352314 -0.57 134 89 83
0.154149 -0.356023 -0.576 128 85 79
0.169969 -0.364058 -0.589 124 85 80
0.180237 -0.369003 -0.597 124 84 82
0.21213 -0.381365 -0.617 129 126 157
0.21836 -0.381983 -0.618 145 152 181
0.38335 -0.386928 -0.626 181 195 224
0.401877 -0.387546 -0.627 202 200 211
0.40491 -0.388164 -0.628 216 216 228
0.4326 -0.3894 -0.63 198 203 222
0.4374 -0.3894 -0.63 182 189 208
0.4458 -0.3894 -0.63 136 163 206
0.459253 -0.390636 -0.632 194 197 214
0.466009 -0.391254 -0.633 116 115 131
0.476406 -0.391872 -0.634 180 179 197
0.483651 -0.391872 -0.634 185 187 202
0.49452 -0.391872 -0.634 55 64 95
0.503386 -0.391254 -0.633 146 160 186
0.512634 -0.391872 -0.634 93 121 169
0.509435 -0.370239 -0.599 165 131 121
0.48676 -0.349842 -0.566 173 135 122
0.47613 -0.336244 -0.544 181 140 122
0.475253 -0.331299 -0.536 187 142 119
0.4788 -0.328827 -0.532 192 146 120
0.485257 -0.326354 -0.528 186 141 112
-0.345193 -0.35278 -0.569 235 237 226
-0.336523 -0.35278 -0.569 236 238 227
-0.323 -0.3534 -0.57 238 239 231
0.07802 -0.36022 -0.581 196 148 134
0.0851 -0.3441 -0.555 194 144 133
0.0861571 -0.3441 -0.555 195 146 132
0.0942733 -0.34286 -0.553 191 141 132
0.09936 -0.34224 -0.552 187 135 124
0.1185 -0.34286 -0.553 173 117 100
0.130063 -0.34844 -0.562 150 96 86
0.13927 -0.35278 -0.569 136 87 80
0.161574 -0.36146 -0.583 125 85 77
0.168847 -0.36518 -0.589 124 85 78
0.172797 -0.36642 -0.591 123 84 79
0.174511 -0.36766 -0.593 119 85 75
0.210955 -0.38254 -0.617 134 131 162
0.227409 -0.38254 -0.617 145 155 182
0.228584 -0.38254 -0.617 175 185 212
0.36192 -0.38688 -0.624 218 223 243
0.372024 -0.3875 -0.625 229 232 247
0.375595 -0.3875 -0.625 178 193 226
0.409695 -0.38936 -0.628 178 184 216
0.4458 -0.3906 -0.63 145 174 218
0.4506 -0.3906 -0.63 135 154 187
0.464069 -0.39184 -0.632 123 122 138
0.46768 -0.39184 -0.632 186 188 209
0.473243 -0.39246 -0.633 192 194 209
0.4853 -0.39246 -0.633 185 188 203
0.486506 -0.39246 -0.633 178 181 196
0.497357 -0.39246 -0.633 174 179 201
0.501466 -0.36394 -0.587 167 131 117
0.49083 -0.35464 -0.572 171 135 121
0.485252 -0.34906 -0.563 171 136 117
0.4779 -0.32922 -0.531 190 146 119
0.479923 -0.32922 -0.531 191 145 119
0.483246 -0.32736 -0.528 189 144 113
0.485342 -0.32674 -0.527 185 138 108
0.4915 -0.3255 -0.525 188 143 112
0.4965 -0.3255 -0.525 172 130 105
-0.314314 -0.354486 -0.57 237 238 230
-0.313229 -0.354486 -0.57 238 239 231
0.0763286 -0.363814 -0.585 191 149 137
0.07882 -0.350132 -0.563 193 145 133
0.0805333 -0.348267 -0.56 197 147 138
0.0879533 -0.343913 -0.553 199 150 136
0.0972571 -0.343291 -0.552 190 138 125
0.101463 -0.343291 -0.552 192 140 127
0.116393 -0.343913 -0.553 176 117 103
0.141934 -0.355108 -0.571 133 86 76
0.150857 -0.358217 -0.576 130 83 75
0.153583 -0.359461 -0.578 125 85 77
0.173382 -0.36879 -0.593 122 83 76
0.1751 -0.370033 -0.595 117 84 75
0.17653 -0.370655 -0.596 117 84 75
0.21648 -0.383093 -0.616 98 120 167
0.372617 -0.388069 -0.624 193 203 230
0.415014 -0.389934 -0.627 211 211 237
0.443894 -0.391178 -0.629 133 166 209
0.465738 -0.392422 -0.631 138 140 163
0.474903 -0.393044 -0.632 173 177 204
0.476107 -0.393044 -0.632 147 151 178
0.482126 -0.393044 -0.632 174 181 200
0.496151 -0.393666 -0.633 179 178 194
0.498563 -0.393666 -0.633 183 182 198
0.499769 -0.393666 -0.633 186 185 201
0.512221 -0.393044 -0.632 116 144 184
0.513425 -0.393044 -0.632 99 127 167
0.517854 -0.393666 -0.633 139 149 174
0.515389 -0.376874 -0.606 165 132 125
0.476289 -0.337694 -0.543 179 138 116
0.47614 -0.333963 -0.537 188 144 119
0.482146 -0.328988 -0.529 190 145 114
0.483246 -0.328366 -0.528 190 143 113
0.493558 -0.325878 -0.524 181 136 107
0.495554 -0.325878 -0.524 174 130 103
0.508295 -0.32961 -0.53 167 120 100
-0.343505 -0.354324 -0.568 234 236 223
-0.339177 -0.354324 -0.568 235 237 226
-0.32135 -0.354948 -0.569 237 238 230
-0.318098 -0.354948 -0.569 237 238 230
0.0794667 -0.349333 -0.56 195 147 135
0.0888457 -0.344343 -0.552 198 149 134
0.0949819 -0.343719 -0.551 193 141 127
0.09918 -0.343719 -0.551 193 140 126
0.101279 -0.343719 -0.551 194 141 127
0.107576 -0.343719 -0.551 188 135 119
0.12254 -0.347462 -0.557 163 107 94
0.126174 -0.34871 -0.559 151 102 87
0.130294 -0.351205 -0.563 139 93 78
0.139514 -0.355571 -0.57 134 85 78
0.148405 -0.35869 -0.575 125 80 74
0.163801 -0.366176 -0.587 120 81 76
0.1652 -0.3668 -0.588 121 82 77
0.205586 -0.383643 -0.615 61 65 102
0.21648 -0.384267 -0.616 101 118 162
0.397024 -0.389881 -0.625 177 182 201
0.401236 -0.390505 -0.626 166 180 206
0.418597 -0.391129 -0.627 197 198 218
0.419791 -0.391129 -0.627 167 181 210
0.439102 -0.392376 -0.629 120 136 161
0.4566 -0.393 -0.63 193 198 204
0.468142 -0.393624 -0.631 130 136 170
0.47295 -0.393624 -0.631 178 189 209
0.489349 -0.394248 -0.632 88 97 126
0.490552 -0.394248 -0.632 140 149 178
0.495368 -0.394248 -0.632 183 178 198
0.50861 -0.394248 -0.632 126 149 193
0.477166 -0.339352 -0.544 182 141 119
0.476743 -0.336857 -0.54 180 138 116
0.477787 -0.331867 -0.532 190 146 121
0.478009 -0.330619 -0.53 189 145 118
0.48013 -0.329995 -0.529 189 144 115
0.483334 -0.328748 -0.527 190 145 114
0.505371 -0.329371 -0.528 171 126 105
-0.314847 -0.356031 -0.569 238 239 231
-0.311595 -0.356031 -0.569 239 240 232
0.07336 -0.36792 -0.588 192 152 140
0.0769476 -0.353529 -0.565 191 145 132
0.0939324 -0.344769 -0.551 197 144 128
0.11408 -0.345394 -0.552 182 125 108
0.117447 -0.34602 -0.553 166 108 94
0.119986 -0.347271 -0.555 167 109 97
0.12254 -0.348523 -0.557 161 103 91
0.146214 -0.359786 -0.575 130 85 79
0.204082 -0.384189 -0.614 58 59 90
0.214957 -0.384814 -0.615 71 86 129
0.216129 -0.384814 -0.615 117 132 175
0.399405 -0.391071 -0.625 109 115 141
0.404167 -0.391071 -0.625 182 196 222
0.410119 -0.391071 -0.625 89 119 181
0.438404 -0.392949 -0.628 104 133 167
0.44629 -0.393574 -0.629 110 143 188
0.484969 -0.394826 -0.631 136 142 176
0.494164 -0.395451 -0.632 136 139 154
0.51824 -0.395451 -0.632 146 166 199
0.519444 -0.395451 -0.632 173 171 182
0.525833 -0.394826 -0.631 169 170 188
0.510009 -0.373551 -0.597 168 133 129
0.504296 -0.368546 -0.589 169 134 130
0.488052 -0.353529 -0.565 172 136 120
0.480157 -0.344769 -0.551 176 139 121
0.477323 -0.339763 -0.543 180 139 119
0.476743 -0.337886 -0.54 180 139 117
0.480229 -0.330377 -0.528 189 145 116
0.48224 -0.330377 -0.528 191 146 117
0.483419 -0.329126 -0.526 189 144 113
0.4855 -0.3285 -0.525 188 141 111
0.48757 -0.327874 -0.524 188 143 114
0.494609 -0.327249 -0.523 178 134 109
0.508344 -0.331003 -0.529 165 119 96
-0.315375 -0.356488 -0.568 238 239 231
0.0774714 -0.352094 -0.561 189 143 130
0.07812 -0.350211 -0.558 190 144 131
0.151905 -0.364019 -0.58 123 82 78
0.199079 -0.38473 -0.613 161 152 181
0.401786 -0.392262 -0.625 123 140 186
0.41793 -0.39289 -0.626 152 165 197
0.421507 -0.39289 -0.626 94 118 162
0.425084 -0.39289 -0.626 210 208 230
0.435317 -0.393517 -0.627 185 189 200
0.4396 -0.394145 -0.628 101 129 179
0.45515 -0.394145 -0.628 198 201 208
0.463064 -0.394772 -0.629 194 196 208
0.477 -0.3954 -0.63 42 67 121
0.4842 -0.3954 -0.63 109 118 161
0.493382 -0.396028 -0.631 176 183 189
0.507805 -0.396028 -0.631 113 137 185
0.479123 -0.33201 -0.529 187 143 116
0.481327 -0.330755 -0.527 191 145 119
0.483419 -0.330128 -0.526 189 144 115
0.499547 -0.328872 -0.524 174 129 106
0.506422 -0.330755 -0.527 165 120 99
-0.31213 -0.35757 -0.568 238 239 231
-0.308884 -0.35757 -0.568 238 239 231
0.0735429 -0.360088 -0.572 196 150 134
0.0895714 -0.346238 -0.55 199 148 129
0.101957 -0.345609 -0.549 195 144 125
0.103003 -0.345609 -0.549 195 144 125
0.113873 -0.346868 -0.551 177 125 104
0.116393 -0.348127 -0.553 170 114 97
0.124045 -0.351904 -0.559 152 99 91
0.136018 -0.358199 -0.569 130 85 79
0.154911 -0.367012 -0.583 121 85 85
0.213438 -0.386528 -0.614 58 81 125
0.419643 -0.393452 -0.625 78 101 143
0.432929 -0.394711 -0.627 198 199 201
0.440094 -0.394711 -0.627 116 149 200
0.494584 -0.39723 -0.631 181 179 193
0.495786 -0.39723 -0.631 164 162 176
0.500593 -0.39723 -0.631 178 180 195
0.504199 -0.39723 -0.631 104 130 179
0.518622 -0.39723 -0.631 151 150 164
0.521026 -0.39723 -0.631 180 177 188
0.47963 -0.344979 -0.548 177 140 122
0.488691 -0.328611 -0.522 188 142 116
0.494657 -0.328611 -0.522 178 133 110
0.495651 -0.328611 -0.522 177 132 109
-0.340139 -0.357389 -0.566 235 236 228
-0.33367 -0.357389 -0.566 234 235 227
-0.331514 -0.357389 -0.566 235 236 228
-0.30942 -0.35802 -0.567 237 238 230
-0.296983 -0.358651 -0.568 238 239 231
0.0746629 -0.356126 -0.564 194 149 130
0.09882 -0.346654 -0.549 194 143 126
0.103859 -0.346023 -0.548 195 144 125
0.113873 -0.347917 -0.551 176 125 104
0.116393 -0.34918 -0.553 166 113 97
0.117659 -0.349811 -0.554 163 110 94
0.15269 -0.368123 -0.583 125 85 83
0.163791 -0.373174 -0.591 126 85 83
0.204583 -0.386434 -0.612 154 155 175
0.372009 -0.392117 -0.621 171 178 204
0.373191 -0.392117 -0.621 166 181 212
0.405897 -0.394011 -0.624 200 211 239
0.41184 -0.394011 -0.624 194 204 231
0.444162 -0.395274 -0.626 116 152 200
0.445354 -0.395274 -0.626 102 135 188
0.456347 -0.396537 -0.628 163 164 169
0.472649 -0.397169 -0.629 177 182 212
0.476243 -0.397169 -0.629 54 76 123
0.478639 -0.397169 -0.629 128 154 213
0.488224 -0.397169 -0.629 160 175 218
0.4914 -0.3978 -0.63 182 191 198
0.495 -0.3978 -0.63 183 180 199
0.4962 -0.3978 -0.63 149 148 153
0.4986 -0.3978 -0.63 185 185 197
0.4998 -0.3978 -0.63 186 186 198
0.5022 -0.3978 -0.63 140 143 150
0.507 -0.3978 -0.63 108 135 180
0.488263 -0.356126 -0.564 172 136 122
0.481207 -0.347917 -0.551 176 139 121
0.477549 -0.337183 -0.534 187 145 121
0.480229 -0.333394 -0.528 188 144 119
0.482417 -0.332131 -0.526 191 147 122
0.489686 -0.329606 -0.522 187 143 118
-0.342767 -0.357833 -0.565 234 235 227
-0.34169 -0.357833 -0.565 234 235 227
-0.32828 -0.358467 -0.566 235 236 228
-0.326124 -0.358467 -0.566 234 235 227
0.0763667 -0.350233 -0.553 199 153 140
0.0801429 -0.348333 -0.55 197 150 134
0.0822381 -0.348333 -0.55 197 150 134
0.100728 -0.347067 -0.548 197 146 127
0.117659 -0.350867 -0.554 156 103 87
0.148847 -0.367967 -0.581 124 84 84
0.154592 -0.371133 -0.586 126 87 88
0.20842 -0.388233 -0.613 166 168 189
0.21309 -0.388233 -0.613 95 110 143
0.40762 -0.394567 -0.623 128 147 177
0.41118 -0.394567 -0.623 202 210 233
0.414217 -0.3952 -0.624 195 206 236
0.415406 -0.3952 -0.624 193 204 234
0.421349 -0.3952 -0.624 114 133 165
0.430357 -0.395833 -0.625 218 218 226
0.4382 -0.396467 -0.626 91 130 171
0.447739 -0.396467 -0.626 96 127 173
0.456814 -0.3971 -0.627 199 197 208
0.462328 -0.397733 -0.628 196 200 212
0.475486 -0.397733 -0.628 79 101 138
0.488224 -0.398367 -0.629 120 133 168
0.50979 -0.398367 -0.629 124 147 188
0.518551 -0.384433 -0.607 160 132 129
0.477787 -0.336933 -0.532 185 143 121
0.478009 -0.335667 -0.53 187 145 121
0.479223 -0.3344 -0.528 186 144 120
0.487755 -0.329967 -0.521 187 143 118
0.498634 -0.3306 -0.522 175 131 106
0.509433 -0.333767 -0.527 168 123 102
0.516293 -0.336933 -0.532 167 122 103
0.519251 -0.3382 -0.534 166 121 102
-0.329852 -0.35891 -0.565 236 237 229
0.0701514 -0.362721 -0.571 194 158 146
0.0729362 -0.355098 -0.559 199 152 132
0.0790952 -0.349381 -0.55 201 155 139
0.103859 -0.34811 -0.548 196 143 125
0.109476 -0.349381 -0.55 188 136 115
0.111571 -0.349381 -0.55 184 132 110
0.116604 -0.351922 -0.554 165 109 94
0.135171 -0.362086 -0.57 132 88 87
0.153476 -0.37225 -0.586 124 86 85
0.156506 -0.374155 -0.589 122 83 84
0.199593 -0.38813 -0.611 155 156 176
0.201921 -0.38813 -0.611 116 112 126
0.204249 -0.38813 -0.611 165 161 176
0.404596 -0.395118 -0.622 211 219 240
0.406966 -0.395118 -0.622 128 144 169
0.409335 -0.395118 -0.622 162 186 232
0.412367 -0.395753 -0.623 218 223 243
0.415927 -0.395753 -0.623 206 212 238
0.424914 -0.396389 -0.624 212 221 236
0.46398 -0.398294 -0.627 83 98 131
0.473534 -0.398294 -0.627 133 151 173
0.493016 -0.399565 -0.629 191 187 214
0.503799 -0.399565 -0.629 93 115 152
0.50979 -0.399565 -0.629 130 152 193
0.513384 -0.399565 -0.629 81 106 146
0.516978 -0.399565 -0.629 173 170 187
0.482256 -0.350016 -0.551 174 137 121
0.477295 -0.340488 -0.536 188 147 127
0.4815 -0.3335 -0.525 191 147 122
0.48365 -0.33223 -0.523 191 145 121
0.500623 -0.331594 -0.522 173 131 107
0.510437 -0.33477 -0.527 168 123 100
0.514352 -0.336676 -0.53 166 119 99
0.611249 -0.389401 -0.613 206 206 204
-0.338937 -0.359349 -0.564 234 235 227
-0.326624 -0.359986 -0.565 235 236 228
-0.308874 -0.360623 -0.566 236 237 229
-0.307796 -0.360623 -0.566 236 237 229
0.081939 -0.349154 -0.548 200 153 133
0.0850705 -0.349154 -0.548 201 153 131
0.0902895 -0.349154 -0.548 199 148 131
0.0955086 -0.349154 -0.548 193 142 123
0.09846 -0.348517 -0.547 196 145 126
0.0995019 -0.348517 -0.547 197 146 127
0.121697 -0.355526 -0.558 146 98 88
0.13385 -0.362534 -0.569 129 86 79
0.143674 -0.368269 -0.578 123 81 82
0.150986 -0.372729 -0.585 124 83 89
0.15236 -0.373366 -0.586 123 82 86
0.155384 -0.375277 -0.589 124 84 95
0.191133 -0.388657 -0.61 129 136 164
0.200429 -0.388657 -0.61 165 164 180
0.208904 -0.389294 -0.611 174 172 186
0.3844 -0.395029 -0.62 240 248 255
0.404596 -0.396303 -0.622 221 226 245
0.415927 -0.39694 -0.623 216 221 243
0.42186 -0.39694 -0.623 166 170 195
0.447024 -0.398214 -0.625 107 136 178
0.4807 -0.399489 -0.627 187 195 208
0.49661 -0.400763 -0.629 189 191 206
0.512568 -0.400126 -0.628 92 116 154
0.517352 -0.400126 -0.628 182 177 197
0.50826 -0.376551 -0.591 168 135 118
0.4788 -0.344057 -0.54 181 140 122
0.47767 -0.339597 -0.533 184 143 123
0.481415 -0.335137 -0.526 189 144 121
0.482579 -0.333863 -0.524 190 146 121
0.496724 -0.331314 -0.52 178 131 115
0.512411 -0.336411 -0.528 163 120 101
-0.333566 -0.360423 -0.564 235 236 228
-0.330343 -0.360423 -0.564 235 236 228
-0.297015 -0.361701 -0.566 238 239 231
0.0829829 -0.350198 -0.548 201 152 135
0.109277 -0.350837 -0.549 185 130 110
0.125781 -0.359145 -0.562 137 90 84
0.13122 -0.36234 -0.567 128 83 80
0.148249 -0.372565 -0.583 123 84 87
0.19198 -0.38918 -0.609 64 72 111
0.430167 -0.398127 -0.623 214 220 242
0.447024 -0.399405 -0.625 124 153 197
0.449405 -0.399405 -0.625 192 198 212
0.464432 -0.400044 -0.626 192 198 220
0.478741 -0.400044 -0.626 188 194 220
0.483089 -0.400683 -0.627 192 193 213
0.494625 -0.401322 -0.628 179 183 195
0.515715 -0.384068 -0.601 157 130 121
0.487129 -0.357228 -0.559 172 136 124
0.489837 -0.331666 -0.519 184 138 115
0.501649 -0.332944 -0.521 174 127 107
0.503606 -0.333583 -0.522 172 125 105
-0.339409 -0.360856 -0.563 235 237 226
-0.337264 -0.360856 -0.563 234 236 225
-0.334047 -0.360856 -0.563 234 236 225
