ply
format ascii 1.0
comment Created by Open3D
element vertex 1305
property double x
property double y
property double z
property uchar red
property uchar green
property uchar blue
end_header
0.185675 -0.352839 -0.589 116 80 80
0.229695 -0.37141 -0.62 167 165 187
0.234419 -0.37141 -0.62 173 176 193
0.42174 -0.297727 -0.497 132 85 69
0.425858 -0.29533 -0.493 146 95 76
0.427871 -0.294132 -0.491 147 96 77
0.450354 -0.292335 -0.488 168 118 95
0.470957 -0.296529 -0.495 158 113 92
1.06814 -0.379796 -0.634 205 208 191
1.0761 -0.379197 -0.633 205 208 191
1.09885 -0.380395 -0.635 205 207 193
0.102382 -0.33473 -0.557 197 142 135
0.104504 -0.33473 -0.557 197 142 135
0.112789 -0.33413 -0.556 188 136 125
0.125271 -0.333529 -0.555 176 118 107
0.154986 -0.343144 -0.571 130 85 79
0.156073 -0.343144 -0.571 129 84 78
0.1746 -0.349754 -0.582 119 79 77
0.191777 -0.356966 -0.594 116 80 80
0.422781 -0.298072 -0.496 135 86 69
0.422871 -0.297471 -0.495 137 88 71
0.425858 -0.29627 -0.493 146 95 76
0.426936 -0.295068 -0.491 148 97 76
0.428807 -0.295068 -0.491 149 98 77
0.4298 -0.294467 -0.49 148 97 76
0.436411 -0.293265 -0.488 158 107 86
0.4392 -0.293265 -0.488 165 115 92
0.441059 -0.293265 -0.488 166 115 94
0.452213 -0.293265 -0.488 168 118 93
0.458729 -0.293866 -0.489 165 115 92
1.02866 -0.379802 -0.632 208 210 196
1.06887 -0.380403 -0.633 206 209 192
1.07007 -0.380403 -0.633 206 209 192
1.08454 -0.380403 -0.633 205 208 191
1.10248 -0.381605 -0.635 205 207 193
1.13208 -0.382206 -0.636 203 205 191
1.13693 -0.382206 -0.636 203 205 192
1.13998 -0.381605 -0.635 202 204 191
1.14241 -0.380403 -0.633 203 205 191
1.14361 -0.379201 -0.631 202 204 190
0.0911343 -0.345437 -0.573 196 146 137
0.09234 -0.34182 -0.567 197 145 134
0.111529 -0.334586 -0.555 195 143 132
0.150108 -0.343026 -0.569 133 89 80
0.170686 -0.349657 -0.58 122 82 80
0.220714 -0.372566 -0.618 147 144 165
0.228146 -0.373169 -0.619 161 159 181
0.419463 -0.306251 -0.508 112 76 64
0.426936 -0.296003 -0.491 148 97 76
0.428807 -0.296003 -0.491 150 99 78
0.467166 -0.296606 -0.492 160 113 87
0.484317 -0.303237 -0.503 180 165 162
0.48817 -0.305046 -0.506 191 176 173
1.07369 -0.381609 -0.633 206 209 192
1.10316 -0.382211 -0.634 205 207 193
1.13151 -0.382814 -0.635 204 206 192
0.0900067 -0.354995 -0.587 195 151 142
0.0972514 -0.337457 -0.558 196 144 133
0.110471 -0.335643 -0.555 189 135 123
0.120825 -0.335038 -0.554 180 126 114
0.123157 -0.335643 -0.555 182 126 113
0.129733 -0.336248 -0.556 169 113 100
0.139697 -0.339876 -0.562 150 97 89
0.163209 -0.348948 -0.577 124 84 82
0.167083 -0.350157 -0.579 121 83 80
0.17098 -0.351367 -0.581 122 82 80
0.174088 -0.353181 -0.584 119 79 77
0.1755 -0.353786 -0.585 118 78 76
0.178336 -0.354995 -0.587 119 79 77
0.190152 -0.360438 -0.596 119 84 82
0.191288 -0.360438 -0.596 119 84 82
0.227777 -0.373743 -0.618 160 162 187
0.237194 -0.373743 -0.618 165 165 193
0.481553 -0.36709 -0.607 130 114 125
0.480677 -0.364671 -0.603 129 110 116
0.437657 -0.326571 -0.54 113 73 61
0.41891 -0.305405 -0.505 118 75 59
0.419167 -0.304195 -0.503 121 79 65
0.421536 -0.301776 -0.499 130 84 68
0.426797 -0.298148 -0.493 147 96 75
0.432649 -0.295729 -0.489 158 107 86
0.43358 -0.295729 -0.489 160 109 88
0.43827 -0.295124 -0.488 162 112 89
0.444793 -0.294519 -0.487 171 119 95
0.469993 -0.298148 -0.493 163 110 92
0.485275 -0.304195 -0.503 183 165 161
1.02943 -0.381605 -0.631 207 209 195
1.03184 -0.381605 -0.631 206 209 192
1.10799 -0.383419 -0.634 203 205 191
1.13639 -0.382814 -0.633 202 204 190
0.0886676 -0.359753 -0.593 195 148 138
0.0915257 -0.340947 -0.562 193 143 132
0.0940629 -0.33852 -0.558 197 146 142
0.116604 -0.336093 -0.554 193 136 125
0.126329 -0.3367 -0.555 178 120 108
0.128674 -0.337307 -0.556 172 114 102
0.142595 -0.342767 -0.565 145 95 86
0.14768 -0.344587 -0.568 134 87 81
0.16211 -0.350047 -0.577 120 81 74
0.168767 -0.352473 -0.581 122 83 78
0.222708 -0.374313 -0.617 76 84 120
0.237986 -0.374313 -0.617 184 185 216
0.482173 -0.365213 -0.602 151 131 132
0.420246 -0.304547 -0.502 124 81 65
0.422781 -0.300907 -0.496 136 87 72
0.429742 -0.297873 -0.491 150 99 78
0.437341 -0.296053 -0.488 162 110 86
0.444793 -0.295447 -0.487 171 120 99
0.447576 -0.295447 -0.487 172 121 100
0.452214 -0.295447 -0.487 168 118 91
0.45779 -0.296053 -0.488 167 117 92
0.461523 -0.29666 -0.489 159 111 88
0.475688 -0.300907 -0.496 155 119 107
1.0218 -0.3822 -0.63 208 210 196
1.0398 -0.3822 -0.63 207 210 193
1.0732 -0.383413 -0.632 206 209 192
1.07631 -0.382807 -0.631 205 208 191
1.12553 -0.38402 -0.633 204 207 190
1.13214 -0.384627 -0.634 204 207 190
1.1376 -0.382807 -0.631 202 205 188
1.14001 -0.382807 -0.631 202 205 188
1.1418 -0.3822 -0.63 202 205 188
1.14238 -0.381593 -0.629 199 202 185
0.105186 -0.337757 -0.555 191 137 127
0.122935 -0.337149 -0.554 182 126 113
0.125046 -0.337149 -0.554 180 124 111
0.159357 -0.349929 -0.575 120 79 73
0.170458 -0.354797 -0.583 120 83 77
0.1764 -0.35784 -0.588 120 82 81
0.4264 -0.316457 -0.52 112 72 62
0.422781 -0.301851 -0.496 136 87 72
0.431667 -0.2982 -0.49 154 102 80
0.4326 -0.2982 -0.49 157 105 83
0.441059 -0.296983 -0.488 168 116 92
0.452214 -0.296374 -0.487 169 119 94
0.461523 -0.297591 -0.489 162 114 91
0.465267 -0.2982 -0.49 163 115 93
0.467151 -0.298809 -0.491 161 114 94
1.01539 -0.382791 -0.629 208 210 196
1.01778 -0.382791 -0.629 209 211 197
1.02138 -0.382791 -0.629 208 210 196
1.0386 -0.3834 -0.63 207 210 193
1.0794 -0.3834 -0.63 205 208 191
1.0842 -0.3834 -0.63 206 209 192
1.11348 -0.385226 -0.633 203 205 191
1.1364 -0.384009 -0.631 202 204 190
1.1382 -0.3834 -0.63 202 204 190
1.1406 -0.3834 -0.63 202 204 190
0.0919371 -0.340646 -0.558 196 144 131
0.0937257 -0.339425 -0.556 194 144 137
0.108162 -0.338204 -0.554 190 136 124
0.11218 -0.337593 -0.553 195 142 126
0.12399 -0.338204 -0.554 180 124 109
0.132089 -0.340035 -0.557 155 102 88
0.142848 -0.34553 -0.566 140 90 81
0.146598 -0.34675 -0.568 135 87 77
0.153346 -0.349803 -0.573 125 82 75
0.1558 -0.350413 -0.574 124 81 74
0.171043 -0.357129 -0.585 120 83 77
0.173864 -0.35835 -0.587 122 81 79
0.214957 -0.375443 -0.615 78 83 115
0.424262 -0.314395 -0.515 114 74 62
0.420246 -0.306459 -0.502 126 82 69
0.421536 -0.304628 -0.499 131 85 70
0.42164 -0.304017 -0.498 132 84 70
0.425781 -0.301575 -0.494 144 93 76
0.427806 -0.300354 -0.492 148 97 78
0.449431 -0.297302 -0.487 169 119 94
0.45407 -0.297302 -0.487 168 118 95
0.463386 -0.298523 -0.489 162 115 95
1.03096 -0.38399 -0.629 207 210 193
1.03216 -0.38399 -0.629 207 210 193
1.0758 -0.3846 -0.63 205 208 191
1.0866 -0.3846 -0.63 206 209 192
1.1057 -0.385821 -0.632 204 207 190
1.12737 -0.385821 -0.632 205 207 193
1.13988 -0.381548 -0.625 202 204 190
0.100957 -0.339871 -0.555 195 143 130
0.110073 -0.338647 -0.553 194 141 127
0.1185 -0.338647 -0.553 180 127 109
0.126101 -0.339259 -0.554 171 115 100
0.14418 -0.34722 -0.567 136 88 78
0.145516 -0.347832 -0.568 134 85 78
0.15744 -0.352731 -0.576 123 80 73
0.159911 -0.353344 -0.577 125 82 75
0.171335 -0.358855 -0.586 122 83 78
0.175876 -0.361305 -0.59 121 83 80
0.178426 -0.361917 -0.591 120 84 84
0.420833 -0.309252 -0.505 122 78 65
0.420246 -0.307415 -0.502 129 83 70
0.421429 -0.30619 -0.5 132 84 70
0.431667 -0.300067 -0.49 155 103 81
0.4326 -0.300067 -0.49 157 105 83
0.433533 -0.300067 -0.49 160 108 86
0.437341 -0.298842 -0.488 166 114 90
0.451286 -0.297617 -0.486 169 119 96
0.455925 -0.29823 -0.487 166 118 96
0.461509 -0.298842 -0.488 162 115 95
0.471871 -0.301904 -0.493 159 113 90
1.01497 -0.384575 -0.628 208 211 194
1.01616 -0.384575 -0.628 208 210 196
1.02214 -0.384575 -0.628 207 209 195
1.02334 -0.384575 -0.628 207 209 195
1.071 -0.3858 -0.63 206 209 192
1.0722 -0.3858 -0.63 205 208 191
1.0734 -0.3858 -0.63 205 208 191
1.11477 -0.386412 -0.631 204 207 190
1.11597 -0.386412 -0.631 203 206 189
1.11837 -0.386412 -0.631 205 208 191
1.12919 -0.386412 -0.631 204 207 190
1.1352 -0.385188 -0.629 203 206 189
1.13875 -0.383963 -0.627 201 204 187
1.13742 -0.381513 -0.623 202 205 188
0.0870229 -0.357514 -0.582 199 150 136
0.0874 -0.350143 -0.57 196 148 138
0.102886 -0.340314 -0.554 194 142 128
0.108823 -0.339086 -0.552 192 139 123
0.119553 -0.3397 -0.553 184 128 113
0.123767 -0.3397 -0.553 175 119 104
0.150899 -0.351371 -0.572 132 85 77
0.484665 -0.367343 -0.598 141 116 111
0.420363 -0.307757 -0.501 130 84 71
0.422589 -0.305914 -0.498 133 84 70
0.423726 -0.304686 -0.496 141 88 74
0.427871 -0.301614 -0.491 151 99 78
0.431667 -0.301 -0.49 157 105 81
0.437341 -0.299771 -0.488 165 113 89
0.445731 -0.298543 -0.486 169 119 94
0.448509 -0.298543 -0.486 173 123 98
0.452211 -0.298543 -0.486 170 120 97
0.465249 -0.300386 -0.489 161 114 94
0.470914 -0.302229 -0.492 156 111 90
1.01216 -0.385157 -0.627 207 210 193
1.03171 -0.385771 -0.628 208 211 194
1.05732 -0.386386 -0.629 206 209 192
1.0681 -0.386386 -0.629 205 208 191
1.1298 -0.387 -0.63 203 206 189
1.1322 -0.387 -0.63 202 205 188
0.109874 -0.340137 -0.552 190 137 119
0.113029 -0.340137 -0.552 194 142 121
0.137801 -0.346915 -0.563 137 89 79
0.140691 -0.348764 -0.566 135 86 79
0.14846 -0.351845 -0.571 127 82 77
0.179331 -0.366017 -0.594 118 83 77
0.212269 -0.378341 -0.614 81 85 110
0.489528 -0.372179 -0.604 147 128 122
0.426869 -0.303166 -0.492 151 99 78
0.4298 -0.301933 -0.49 156 101 80
0.454063 -0.299469 -0.486 169 119 94
0.454989 -0.299469 -0.486 166 119 93
0.468067 -0.301933 -0.49 159 114 95
0.49008 -0.31056 -0.504 186 169 162
1.02171 -0.386351 -0.627 207 210 193
1.03365 -0.386351 -0.627 207 210 193
1.07649 -0.387584 -0.629 204 207 190
1.08794 -0.386968 -0.628 204 207 190
1.09686 -0.387584 -0.629 204 207 188
1.10644 -0.387584 -0.629 204 207 190
1.11483 -0.387584 -0.629 204 206 192
0.0853238 -0.357259 -0.578 192 146 130
0.0942733 -0.341807 -0.553 200 151 134
0.0962057 -0.341189 -0.552 198 149 132
0.109675 -0.34057 -0.551 193 140 122
0.135174 -0.346751 -0.561 140 92 80
0.136486 -0.34737 -0.562 136 88 76
0.150071 -0.354169 -0.573 126 83 77
0.155246 -0.356023 -0.576 122 81 75
0.162127 -0.359113 -0.581 123 84 79
0.221264 -0.378892 -0.613 59 80 123
0.421317 -0.309666 -0.501 132 84 72
0.424757 -0.305957 -0.495 146 93 79
0.424919 -0.304721 -0.493 150 94 77
0.447583 -0.300394 -0.486 172 122 97
0.453137 -0.300394 -0.486 168 121 95
0.460563 -0.301012 -0.487 163 117 93
0.46149 -0.301012 -0.487 163 117 94
1.02604 -0.386928 -0.626 207 210 193
1.0332 -0.386928 -0.626 206 209 192
1.04082 -0.387546 -0.627 207 210 193
1.0688 -0.388164 -0.628 205 208 191
1.09033 -0.388164 -0.628 206 209 190
1.10045 -0.388782 -0.629 204 207 190
1.10468 -0.388164 -0.628 204 206 192
1.10707 -0.388164 -0.628 204 206 192
1.10827 -0.388164 -0.628 203 205 191
1.11603 -0.388782 -0.629 204 206 192
1.11722 -0.388782 -0.629 204 206 192
1.12082 -0.388782 -0.629 203 205 191
1.12441 -0.388782 -0.629 204 206 192
1.12561 -0.388782 -0.629 203 205 191
1.13517 -0.387546 -0.627 203 205 192
0.0813381 -0.36518 -0.589 194 158 142
0.0852543 -0.34906 -0.563 188 146 130
0.0858667 -0.3472 -0.56 187 145 129
0.0962057 -0.34224 -0.552 195 146 129
0.102329 -0.34162 -0.551 195 144 125
0.107381 -0.341 -0.55 196 143 125
0.134106 -0.34782 -0.561 142 93 79
0.144689 -0.35278 -0.569 125 82 75
0.146029 -0.3534 -0.57 123 82 76
0.225934 -0.38006 -0.613 181 183 208
0.227102 -0.38006 -0.613 180 182 207
0.422757 -0.3131 -0.505 125 83 71
0.423537 -0.30876 -0.498 135 87 73
0.423814 -0.3069 -0.495 141 92 78
0.424919 -0.30566 -0.493 150 94 77
0.4298 -0.3038 -0.49 159 104 83
0.434511 -0.30318 -0.489 169 113 90
0.437372 -0.30194 -0.487 169 115 89
0.440155 -0.30194 -0.487 171 119 95
0.450357 -0.3007 -0.485 170 123 95
0.465249 -0.30318 -0.489 164 118 94
1.02843 -0.38812 -0.626 207 209 195
1.04274 -0.38812 -0.626 206 209 192
1.05276 -0.38874 -0.627 206 208 194
1.05515 -0.38874 -0.627 206 208 194
1.07665 -0.38874 -0.627 205 208 191
1.07784 -0.38874 -0.627 206 209 192
1.08023 -0.38874 -0.627 206 209 192
1.08262 -0.38874 -0.627 205 208 191
1.08501 -0.38874 -0.627 205 208 191
1.09098 -0.38874 -0.627 205 208 191
1.09456 -0.38874 -0.627 204 207 190
1.0975 -0.38936 -0.628 205 208 191
1.10229 -0.38936 -0.628 205 208 191
1.10588 -0.38936 -0.628 204 206 192
1.12023 -0.38936 -0.628 204 206 193
1.12143 -0.38936 -0.628 204 206 193
1.13517 -0.38874 -0.627 203 205 192
0.0888457 -0.343291 -0.552 198 150 136
0.0897343 -0.34267 -0.551 197 150 134
0.114923 -0.34267 -0.551 192 136 113
0.115972 -0.34267 -0.551 190 134 111
0.120389 -0.343291 -0.552 184 134 111
0.14227 -0.353242 -0.568 125 82 76
0.154416 -0.358839 -0.577 125 81 80
0.155785 -0.359461 -0.578 124 80 79
0.215074 -0.380606 -0.612 172 171 185
0.220903 -0.380606 -0.612 89 98 129
0.225566 -0.380606 -0.612 186 184 206
0.423594 -0.314684 -0.506 124 84 72
0.422158 -0.312196 -0.502 126 84 72
0.435482 -0.30349 -0.488 166 115 88
0.482327 -0.309087 -0.497 177 146 128
1.02083 -0.38869 -0.625 207 209 195
1.02202 -0.38869 -0.625 207 209 195
1.03512 -0.38869 -0.625 207 210 193
1.05347 -0.389312 -0.626 206 209 192
1.05466 -0.389312 -0.626 206 209 192
1.05585 -0.389312 -0.626 206 209 192
1.05824 -0.389312 -0.626 206 209 192
1.05943 -0.389312 -0.626 206 209 192
1.07426 -0.389934 -0.627 205 208 191
1.07493 -0.389312 -0.626 205 208 191
1.07851 -0.389312 -0.626 205 208 191
1.08566 -0.389312 -0.626 204 207 190
1.10651 -0.389934 -0.627 203 205 191
1.11128 -0.389934 -0.627 205 207 194
1.11487 -0.389934 -0.627 205 207 194
1.13687 -0.388069 -0.624 202 204 191
1.13678 -0.386825 -0.622 202 204 190
0.08134 -0.362433 -0.581 196 150 137
0.0897343 -0.343719 -0.551 197 150 134
0.090619 -0.343095 -0.55 196 149 133
0.101095 -0.343095 -0.55 196 145 126
0.133037 -0.349957 -0.561 135 88 78
0.146541 -0.356819 -0.572 126 87 82
0.14924 -0.358067 -0.574 122 82 80
0.208904 -0.381148 -0.611 165 162 179
0.217406 -0.381771 -0.612 165 169 181
0.435482 -0.304419 -0.488 170 114 87
0.454976 -0.302548 -0.485 168 118 91
0.458691 -0.303171 -0.486 166 119 93
0.459617 -0.303171 -0.486 166 119 93
0.463346 -0.303795 -0.487 167 120 94
0.465227 -0.304419 -0.488 165 118 92
1.00375 -0.389257 -0.624 208 211 194
1.04107 -0.389881 -0.625 206 209 192
1.05298 -0.389881 -0.625 206 209 192
1.07255 -0.390505 -0.626 205 208 191
1.07493 -0.390505 -0.626 205 208 191
1.11248 -0.391129 -0.627 205 207 193
1.11905 -0.390505 -0.626 203 205 191
1.12143 -0.390505 -0.626 203 205 191
1.12978 -0.390505 -0.626 202 204 190
1.13455 -0.390505 -0.626 203 205 191
1.13678 -0.38801 -0.622 202 204 191
0.0813114 -0.358534 -0.573 196 152 139
0.0916667 -0.344143 -0.55 198 149 132
0.131969 -0.351026 -0.561 135 88 78
0.135897 -0.352903 -0.564 126 82 73
0.137214 -0.353529 -0.565 124 80 71
0.138535 -0.354154 -0.566 125 82 75
0.141437 -0.356031 -0.569 127 84 78
0.145197 -0.357283 -0.571 124 85 80
0.1495 -0.359786 -0.575 122 82 80
0.215887 -0.382311 -0.611 174 173 187
0.224033 -0.382311 -0.611 181 183 204
0.227525 -0.382311 -0.611 182 189 205
0.424286 -0.312857 -0.5 133 87 74
0.425781 -0.309103 -0.494 152 96 79
0.431717 -0.305974 -0.489 169 113 88
0.43459 -0.304723 -0.487 171 115 88
0.435517 -0.304723 -0.487 171 115 88
0.436445 -0.304723 -0.487 170 116 88
0.454976 -0.303471 -0.485 168 118 91
0.457748 -0.303471 -0.485 165 118 90
0.460543 -0.304097 -0.486 168 121 93
1.05417 -0.391071 -0.625 206 208 194
1.07016 -0.391697 -0.626 204 207 190
1.06964 -0.391071 -0.625 205 207 193
1.13097 -0.391697 -0.626 203 205 191
0.079819 -0.362764 -0.578 197 153 140
0.0874762 -0.34519 -0.55 200 153 135
0.0885238 -0.34519 -0.55 200 153 135
0.0998657 -0.344563 -0.549 196 145 124
0.100911 -0.344563 -0.549 194 143 122
0.101771 -0.343935 -0.548 194 143 122
0.12144 -0.346446 -0.552 165 113 91
0.131969 -0.352094 -0.561 132 88 79
0.134584 -0.35335 -0.563 128 85 76
0.16129 -0.367785 -0.586 116 82 81
0.208562 -0.382848 -0.61 166 165 179
0.219019 -0.382848 -0.61 168 170 191
0.222505 -0.382848 -0.61 179 182 201
0.424388 -0.313182 -0.499 136 90 75
0.427806 -0.308789 -0.492 157 100 80
0.430786 -0.306906 -0.489 168 112 87
0.453129 -0.304395 -0.485 171 122 92
0.461469 -0.305023 -0.486 168 121 93
0.468974 -0.306906 -0.489 163 116 88
0.474633 -0.308161 -0.491 161 116 87
0.480356 -0.310044 -0.494 171 134 108
1.01163 -0.391007 -0.623 207 210 193
1.03537 -0.391007 -0.623 207 209 195
1.03655 -0.391007 -0.623 206 208 194
1.07083 -0.392262 -0.625 205 208 191
1.07744 -0.391634 -0.624 205 208 191
1.11488 -0.392262 -0.625 203 205 191
1.12679 -0.392262 -0.625 203 205 191
1.13449 -0.391634 -0.624 203 205 191
0.0770457 -0.366383 -0.582 204 159 140
0.0791286 -0.360717 -0.573 198 155 139
0.0826867 -0.348127 -0.553 201 155 139
0.0843333 -0.346238 -0.55 201 155 139
0.085381 -0.346238 -0.55 203 156 138
0.0935914 -0.345609 -0.549 201 153 133
0.100728 -0.344979 -0.548 196 145 124
0.101771 -0.344979 -0.548 194 143 122
0.105947 -0.344979 -0.548 197 145 124
0.109078 -0.344979 -0.548 197 145 124
0.120389 -0.347497 -0.552 164 113 92
0.125497 -0.350015 -0.556 142 93 79
0.129369 -0.351904 -0.559 139 89 80
0.13878 -0.35694 -0.567 120 81 76
0.14411 -0.359458 -0.571 124 86 85
0.148405 -0.361976 -0.575 121 83 82
0.152746 -0.364494 -0.579 118 80 77
0.1599 -0.368271 -0.585 119 83 83
0.165762 -0.371419 -0.59 113 81 82
0.49099 -0.375196 -0.596 111 91 93
0.424388 -0.314132 -0.499 136 90 77
0.4298 -0.308467 -0.49 166 110 87
0.437372 -0.306578 -0.487 174 120 92
0.4383 -0.306578 -0.487 174 120 92
0.448507 -0.30469 -0.484 172 123 93
0.457748 -0.305319 -0.485 166 119 93
0.468945 -0.307208 -0.488 163 116 88
0.48419 -0.312244 -0.496 179 148 127
0.486113 -0.312873 -0.497 177 155 141
0.497808 -0.318539 -0.506 190 176 167
1.00172 -0.391564 -0.622 207 210 193
1.0413 -0.392193 -0.623 207 209 195
1.07031 -0.392823 -0.624 205 208 191
1.09408 -0.392823 -0.624 204 207 190
1.09646 -0.392823 -0.624 205 208 191
1.09765 -0.392823 -0.624 205 208 191
1.11191 -0.392823 -0.624 204 206 192
1.12974 -0.392823 -0.624 202 204 190
1.1333 -0.392823 -0.624 204 206 192
0.0776171 -0.364966 -0.578 202 157 138
0.0965524 -0.346023 -0.548 195 147 125
0.104711 -0.345391 -0.547 197 146 125
0.111166 -0.346023 -0.548 192 141 120
0.11681 -0.347286 -0.55 175 127 105
0.122935 -0.349811 -0.554 145 96 81
0.127011 -0.352337 -0.558 140 92 82
0.132204 -0.354863 -0.562 134 91 82
0.140353 -0.359283 -0.569 121 82 75
0.141686 -0.359914 -0.57 122 83 78
0.15002 -0.364334 -0.577 118 83 81
0.494286 -0.378857 -0.6 112 95 103
0.428045 -0.321397 -0.509 129 86 77
0.426797 -0.311294 -0.493 157 102 82
0.437372 -0.307506 -0.487 174 118 91
0.441119 -0.306243 -0.485 176 122 96
0.442967 -0.306243 -0.485 177 126 99
0.44389 -0.306243 -0.485 177 126 99
0.457748 -0.306243 -0.485 166 119 93
0.464273 -0.307506 -0.487 165 118 92
0.469874 -0.308137 -0.488 163 116 90
0.478411 -0.310663 -0.492 158 117 89
0.485135 -0.313189 -0.496 177 151 136
1.02067 -0.392749 -0.622 206 209 192
1.04081 -0.392749 -0.622 206 209 192
1.07031 -0.394011 -0.624 205 208 189
1.07863 -0.394011 -0.624 206 209 192
1.09945 -0.39338 -0.623 204 206 192
1.11487 -0.39338 -0.623 203 205 191
1.11785 -0.394011 -0.624 203 205 191
1.11725 -0.39338 -0.623 203 205 191
0.0756762 -0.367333 -0.58 200 159 141
0.07854 -0.3553 -0.561 204 159 140
0.08058 -0.350233 -0.553 203 158 139
0.0831343 -0.3477 -0.549 201 156 135
0.101586 -0.346433 -0.547 198 147 126
0.105753 -0.346433 -0.547 195 145 122
0.106795 -0.346433 -0.547 195 145 122
0.107837 -0.346433 -0.547 195 145 122
0.115551 -0.3477 -0.549 177 127 104
0.120389 -0.3496 -0.552 154 105 88
0.1377 -0.3591 -0.567 125 82 75
0.141934 -0.361633 -0.571 123 84 79
0.151643 -0.3667 -0.579 117 82 78
0.203246 -0.385067 -0.608 156 160 172
0.209036 -0.385067 -0.608 164 167 184
0.211352 -0.385067 -0.608 169 170 190
0.425134 -0.3173 -0.501 137 91 78
0.426089 -0.3173 -0.501 137 91 78
0.42656 -0.314133 -0.496 147 99 85
0.432693 -0.309067 -0.488 174 120 94
0.433623 -0.309067 -0.488 174 120 92
0.440195 -0.307167 -0.485 175 121 95
0.447585 -0.306533 -0.484 173 124 94
0.452194 -0.306533 -0.484 173 123 96
0.461443 -0.307167 -0.485 166 119 93
0.490921 -0.316033 -0.499 185 165 154
1.00011 -0.3933 -0.621 207 210 193
1.02258 -0.3933 -0.621 205 208 191
1.02376 -0.3933 -0.621 206 209 192
1.04437 -0.393933 -0.622 206 208 194
1.05385 -0.393933 -0.622 205 208 191
1.06978 -0.394567 -0.623 205 208 189
1.0769 -0.394567 -0.623 205 208 191
1.08758 -0.394567 -0.623 205 208 191
1.0947 -0.394567 -0.623 204 206 192
1.09768 -0.393933 -0.622 204 206 192
1.10063 -0.394567 -0.623 203 205 191
1.10657 -0.394567 -0.623 204 206 192
1.11725 -0.394567 -0.623 203 205 191
1.12498 -0.3952 -0.624 202 204 190
1.12736 -0.3952 -0.624 202 204 190
1.12911 -0.394567 -0.623 202 204 190
0.0747 -0.369073 -0.581 198 159 142
0.076119 -0.365262 -0.575 199 156 140
0.07812 -0.354463 -0.558 203 158 139
0.0859571 -0.347475 -0.547 200 153 133
0.0890829 -0.347475 -0.547 200 153 133
0.0901248 -0.347475 -0.547 200 153 133
0.09846 -0.347475 -0.547 199 149 126
0.13662 -0.36018 -0.567 129 84 78
0.141934 -0.362721 -0.571 122 81 75
0.143272 -0.363356 -0.572 124 83 77
0.153537 -0.369709 -0.582 114 81 76
0.42619 -0.317619 -0.5 138 94 81
0.426289 -0.316984 -0.499 142 96 83
0.426643 -0.314443 -0.495 154 98 81
0.427663 -0.313808 -0.494 161 105 88
0.435517 -0.309361 -0.487 176 120 93
0.444819 -0.307455 -0.484 175 124 97
0.445741 -0.307455 -0.484 176 125 98
0.446663 -0.307455 -0.484 174 125 95
0.447585 -0.307455 -0.484 173 124 94
0.448507 -0.307455 -0.484 173 122 93
0.45035 -0.307455 -0.484 172 121 92
0.45496 -0.307455 -0.484 168 121 93
0.464246 -0.308726 -0.486 170 120 97
0.482201 -0.313172 -0.493 167 134 115
0.998495 -0.393848 -0.62 208 210 196
1.0103 -0.393848 -0.62 208 211 194
1.02093 -0.393848 -0.62 206 209 192
1.03086 -0.394483 -0.621 207 210 193
1.04318 -0.395118 -0.622 206 209 192
1.04269 -0.394483 -0.621 206 209 192
1.04505 -0.394483 -0.621 206 209 192
1.05622 -0.395118 -0.622 205 208 189
1.06214 -0.395118 -0.622 205 208 189
1.06332 -0.395118 -0.622 206 209 190
1.07162 -0.395118 -0.622 205 208 191
1.0728 -0.395118 -0.622 205 208 189
1.09294 -0.395118 -0.622 204 206 192
0.0777 -0.353614 -0.555 205 160 141
0.10452 -0.34788 -0.546 195 145 122
0.10868 -0.34788 -0.546 192 142 117
0.11221 -0.349154 -0.548 187 136 107
0.207536 -0.386746 -0.607 162 165 180
0.209849 -0.386746 -0.607 163 166 185
0.488049 -0.374003 -0.587 122 87 81
0.428807 -0.312837 -0.491 166 111 90
0.431717 -0.311563 -0.489 173 117 90
0.435549 -0.309651 -0.486 177 121 96
0.455882 -0.308377 -0.484 168 121 93
0.460519 -0.309014 -0.485 171 121 94
0.501663 -0.322394 -0.506 194 180 171
1.01149 -0.395029 -0.62 206 209 192
1.01739 -0.395029 -0.62 206 209 190
1.02047 -0.394391 -0.619 206 209 192
1.02802 -0.395029 -0.62 206 209 192
1.05215 -0.395666 -0.621 205 208 191
1.07399 -0.396303 -0.622 205 208 189
1.08583 -0.396303 -0.622 205 207 193
1.09057 -0.396303 -0.622 202 205 188
1.09768 -0.396303 -0.622 203 206 189
1.10716 -0.396303 -0.622 204 206 192
1.10834 -0.396303 -0.622 204 206 192
1.13377 -0.395666 -0.621 202 205 188
0.07506 -0.36234 -0.567 205 160 141
0.08684 -0.34892 -0.546 200 153 133
0.138186 -0.363618 -0.569 127 83 74
0.142183 -0.365535 -0.572 118 81 75
0.148078 -0.36937 -0.578 115 80 78
0.196806 -0.387263 -0.606 75 95 148
0.19796 -0.387263 -0.606 123 132 165
0.20604 -0.387263 -0.606 169 168 184
0.427239 -0.318885 -0.499 145 97 85
0.427663 -0.31569 -0.494 158 106 85
0.433662 -0.311216 -0.487 174 117 88
0.441119 -0.309938 -0.485 179 125 97
0.446663 -0.309299 -0.484 174 124 97
0.452194 -0.309299 -0.484 172 122 95
0.467949 -0.310577 -0.486 168 118 93
0.470767 -0.311216 -0.487 165 119 93
0.478333 -0.313133 -0.49 159 119 94
0.488914 -0.316968 -0.496 176 156 145
1.054 -0.39621 -0.62 206 209 190
1.05754 -0.39621 -0.62 206 209 192
1.07936 -0.396849 -0.621 206 209 192
1.08702 -0.397488 -0.622 204 207 190
1.09237 -0.396849 -0.621 204 207 190
1.1042 -0.396849 -0.621 204 207 190
1.10953 -0.397488 -0.622 203 206 189
1.12019 -0.397488 -0.622 202 205 188
1.12493 -0.397488 -0.622 202 205 188
1.13312 -0.39621 -0.62 203 206 189
0.0897952 -0.349319 -0.545 201 154 134
0.0918714 -0.349319 -0.545 195 149 126
0.0939476 -0.349319 -0.545 197 150 130
0.0981 -0.349319 -0.545 201 153 133
0.10764 -0.34996 -0.546 190 142 122
0.115762 -0.352524 -0.55 162 110 89
0.141093 -0.366625 -0.572 120 79 73
0.200269 -0.388417 -0.606 152 154 177
0.201423 -0.388417 -0.606 157 159 182
0.204886 -0.388417 -0.606 168 167 181
0.42845 -0.317912 -0.496 157 104 86
0.429742 -0.314708 -0.491 166 111 90
0.433623 -0.312785 -0.488 175 120 90
0.439271 -0.310862 -0.485 179 125 99
0.441119 -0.310862 -0.485 178 124 98
0.454038 -0.310221 -0.484 166 119 91
0.462367 -0.310862 -0.485 165 118 92
0.477357 -0.313426 -0.489 160 118 94
1.0094 -0.396109 -0.618 205 208 191
1.07817 -0.398031 -0.621 205 208 191
1.10538 -0.398031 -0.621 206 209 192
0.0968838 -0.349714 -0.544 200 152 130
0.115762 -0.353571 -0.55 158 106 85
0.127467 -0.36 -0.56 132 85 77
0.145371 -0.370286 -0.576 117 79 76
0.42828 -0.320143 -0.498 146 100 84
0.430553 -0.316929 -0.493 164 112 90
0.4374 -0.312429 -0.486 177 123 97
0.46791 -0.311786 -0.485 166 119 93
0.481133 -0.315 -0.49 165 127 106
0.970159 -0.396643 -0.617 209 211 197
0.996451 -0.397286 -0.618 207 209 195
0.998806 -0.397286 -0.618 207 209 195
1.00351 -0.397286 -0.618 208 210 196
1.0094 -0.397286 -0.618 208 210 196
1.01646 -0.397286 -0.618 207 209 195
1.02235 -0.397286 -0.618 206 208 194
1.03226 -0.397929 -0.619 205 207 193
1.05112 -0.397929 -0.619 204 207 190
1.06581 -0.398571 -0.62 205 208 191
1.06699 -0.398571 -0.62 206 209 192
1.0847 -0.398571 -0.62 203 206 189
1.08589 -0.398571 -0.62 203 206 189
1.12549 -0.399214 -0.621 202 205 188
1.13259 -0.399214 -0.621 202 205 188
0.07852 -0.35204 -0.546 204 159 138
0.105367 -0.351395 -0.545 193 145 122
0.115762 -0.354619 -0.55 155 102 84
0.14134 -0.369449 -0.573 121 80 74
0.43 -0.322381 -0.5 147 101 85
0.430553 -0.317868 -0.493 165 113 91
0.44298 -0.31142 -0.483 176 126 99
0.45218 -0.31142 -0.483 171 121 94
0.45586 -0.31142 -0.483 167 120 92
0.46329 -0.31271 -0.485 165 120 97
0.470726 -0.313354 -0.486 168 118 91
0.472577 -0.313354 -0.486 165 115 90
0.489814 -0.319157 -0.495 178 152 139
1.00072 -0.397818 -0.617 207 209 195
1.01764 -0.398463 -0.618 206 208 194
1.03177 -0.398463 -0.618 206 208 194
1.03765 -0.398463 -0.618 207 209 195
1.04236 -0.398463 -0.618 206 208 194
1.05178 -0.398463 -0.618 205 208 191
1.05295 -0.398463 -0.618 206 209 192
1.07116 -0.399108 -0.619 204 207 190
1.07234 -0.399108 -0.619 204 207 190
1.07588 -0.399108 -0.619 205 208 191
1.12194 -0.400397 -0.621 202 204 190
1.12431 -0.400397 -0.621 202 205 188
1.13022 -0.400397 -0.621 202 205 188
1.13312 -0.399752 -0.62 201 204 187
0.07658 -0.353727 -0.547 203 158 137
0.0853286 -0.35114 -0.543 199 153 130
0.0915343 -0.35114 -0.543 199 151 129
0.43358 -0.31622 -0.489 173 117 92
0.437372 -0.314927 -0.487 176 120 95
0.44021 -0.312987 -0.484 177 126 99
0.45034 -0.31234 -0.483 172 122 97
0.45586 -0.31234 -0.483 168 121 95
0.469757 -0.313633 -0.485 169 118 91
0.481083 -0.31622 -0.489 167 122 103
0.974453 -0.398347 -0.616 210 213 196
1.01482 -0.398993 -0.617 206 208 194
1.01599 -0.398993 -0.617 207 209 195
1.02422 -0.398993 -0.617 206 208 194
1.03294 -0.39964 -0.618 206 208 194
1.0442 -0.398993 -0.617 206 209 192
1.07116 -0.400287 -0.619 204 207 190
1.08413 -0.400287 -0.619 205 208 191
1.08767 -0.400287 -0.619 203 205 191
1.11777 -0.400933 -0.62 202 204 190
1.11895 -0.400933 -0.62 201 203 189
1.1225 -0.400933 -0.62 202 205 188
1.12667 -0.40158 -0.621 202 205 188
0.0725448 -0.360606 -0.556 201 156 137
0.0863629 -0.352174 -0.543 199 153 130
0.0884314 -0.352174 -0.543 198 152 129
0.124886 -0.361903 -0.558 140 91 77
0.43956 -0.33596 -0.518 140 96 85
0.431126 -0.322989 -0.498 157 106 89
0.433533 -0.3178 -0.49 175 119 94
0.43358 -0.317151 -0.489 174 118 93
0.435517 -0.315854 -0.487 174 120 94
0.44849 -0.312611 -0.482 173 123 98
0.484921 -0.318449 -0.491 168 132 110
0.964671 -0.398871 -0.615 209 211 197
1.04537 -0.400169 -0.617 206 209 192
1.04655 -0.400169 -0.617 206 209 192
1.0489 -0.400169 -0.617 205 208 191
1.06826 -0.400817 -0.618 203 206 189
1.0765 -0.400817 -0.618 206 209 192
1.08121 -0.400817 -0.618 204 207 190
1.12486 -0.402114 -0.62 201 204 187
1.12958 -0.402114 -0.62 202 205 188
0.0729419 -0.358412 -0.551 203 156 136
0.0771962 -0.353859 -0.544 201 159 137
0.084139 -0.352558 -0.542 201 156 133
0.0851714 -0.352558 -0.542 200 155 132
0.0913657 -0.352558 -0.542 201 155 131
0.0923981 -0.352558 -0.542 200 154 131
0.09774 -0.353209 -0.543 202 156 132
0.121043 -0.361014 -0.555 145 93 80
0.126174 -0.363616 -0.559 140 91 77
0.147486 -0.377276 -0.58 110 78 79
0.432676 -0.326539 -0.502 154 102 88
0.432153 -0.323287 -0.497 159 108 89
0.4374 -0.316131 -0.486 178 124 98
0.443899 -0.31353 -0.482 178 127 100
0.44849 -0.31353 -0.482 174 124 99
0.450326 -0.31353 -0.482 172 122 97
0.46322 -0.31418 -0.483 165 121 94
0.468789 -0.31483 -0.484 168 117 88
0.480099 -0.317432 -0.488 164 117 99
0.482014 -0.318083 -0.489 160 120 95
0.490707 -0.321335 -0.494 177 149 135
0.982243 -0.400043 -0.615 208 210 196
1.01083 -0.400693 -0.616 206 209 192
1.0296 -0.400693 -0.616 205 207 193
1.04485 -0.400693 -0.616 205 208 191
1.06183 -0.401344 -0.617 205 208 191
1.063 -0.401344 -0.617 205 208 191
1.08591 -0.401994 -0.618 205 208 191
1.11361 -0.402645 -0.619 203 205 191
1.11951 -0.402645 -0.619 202 205 188
0.0704905 -0.368595 -0.565 198 156 134
0.0752619 -0.355548 -0.545 201 157 132
0.0913657 -0.35359 -0.542 199 153 129
0.105173 -0.354895 -0.544 183 132 111
0.107443 -0.355548 -0.545 173 122 101
0.10972 -0.3562 -0.546 165 114 93
0.115972 -0.359462 -0.551 153 100 84
0.11977 -0.361419 -0.554 150 97 81
0.12232 -0.362724 -0.556 145 93 79
0.128992 -0.366638 -0.562 139 91 77
0.1316 -0.367943 -0.564 140 88 74
0.133145 -0.369248 -0.566 139 87 73
0.136018 -0.371205 -0.569 134 84 73
0.432229 -0.323581 -0.496 162 111 94
0.432368 -0.322276 -0.494 163 112 93
0.433483 -0.320319 -0.491 170 118 96
0.436445 -0.31771 -0.487 176 124 100
0.4439 -0.3151 -0.483 175 125 98
0.443899 -0.314448 -0.482 176 126 99
0.446653 -0.314448 -0.482 173 123 96
0.46046 -0.3151 -0.483 167 120 94
0.466945 -0.315752 -0.484 165 120 91
0.46971 -0.315752 -0.484 165 117 94
1.0296 -0.401867 -0.616 206 208 194
1.03664 -0.401867 -0.616 206 208 194
1.05189 -0.401867 -0.616 205 208 191
1.06888 -0.402519 -0.617 204 207 190
1.07005 -0.402519 -0.617 205 208 191
1.07828 -0.402519 -0.617 204 207 190
1.09238 -0.402519 -0.617 204 206 192
1.10414 -0.402519 -0.617 204 206 192
1.10946 -0.403171 -0.618 204 206 192
1.12068 -0.403824 -0.619 202 205 188
1.12422 -0.403824 -0.619 203 206 189
0.0932581 -0.353969 -0.541 200 156 131
0.0942886 -0.353969 -0.541 198 154 129
0.0963495 -0.353969 -0.541 198 154 129
0.0985924 -0.354623 -0.542 200 154 130
0.102911 -0.355277 -0.543 187 139 116
0.107443 -0.356586 -0.545 173 121 99
0.130294 -0.368363 -0.563 138 88 77
0.13446 -0.37098 -0.567 135 85 74
0.141833 -0.376214 -0.575 113 79 77
0.433023 -0.325834 -0.498 158 109 92
0.435517 -0.318637 -0.487 173 121 99
0.44114 -0.31602 -0.483 177 125 101
0.44298 -0.31602 -0.483 175 123 99
0.451244 -0.315366 -0.482 171 121 96
0.459507 -0.315366 -0.482 168 120 97
0.473452 -0.317329 -0.485 165 117 94
0.944811 -0.400423 -0.612 210 212 198
0.962702 -0.401077 -0.613 210 212 198
0.990002 -0.401731 -0.614 208 210 196
0.991171 -0.401731 -0.614 208 211 194
1.01504 -0.402386 -0.615 207 209 195
1.03144 -0.402386 -0.615 205 207 193
1.04433 -0.402386 -0.615 204 207 190
1.04667 -0.402386 -0.615 206 209 192
1.05253 -0.402386 -0.615 206 209 192
1.05839 -0.402386 -0.615 206 209 192
1.0648 -0.40304 -0.616 204 207 190
1.07184 -0.40304 -0.616 205 208 191
1.08827 -0.40304 -0.616 204 207 190
1.09061 -0.40304 -0.616 205 207 193
1.10531 -0.403694 -0.617 203 205 191
1.10884 -0.403694 -0.617 204 206 192
1.11417 -0.404349 -0.618 203 205 191
1.12186 -0.405003 -0.619 202 205 188
0.0682143 -0.375997 -0.573 198 153 130
0.0742238 -0.357624 -0.545 202 156 133
0.0779448 -0.355655 -0.542 205 160 137
0.0819229 -0.354999 -0.541 202 158 133
0.0850143 -0.354999 -0.541 201 155 131
0.0963495 -0.354999 -0.541 197 153 126
0.100657 -0.355655 -0.542 184 137 111
0.104137 -0.356968 -0.544 182 132 107
0.109921 -0.358936 -0.547 166 114 90
0.114714 -0.360905 -0.55 153 100 84
0.115972 -0.361561 -0.551 151 98 84
0.130294 -0.369435 -0.563 138 88 77
0.145026 -0.379934 -0.579 106 82 82
0.178857 -0.393714 -0.6 69 77 113
0.445795 -0.343188 -0.523 142 102 90
0.43688 -0.333345 -0.508 146 104 88
0.433173 -0.32547 -0.496 159 110 95
0.434467 -0.321533 -0.49 172 117 96
0.439288 -0.317596 -0.484 177 125 101
0.472476 -0.317596 -0.484 166 118 95
0.979049 -0.402245 -0.613 208 210 196
1.06073 -0.403557 -0.615 205 208 189
1.10117 -0.404213 -0.616 204 207 190
1.11887 -0.405526 -0.618 203 206 189
0.07228 -0.35932 -0.546 202 153 136
0.104137 -0.358004 -0.544 183 131 107
0.113667 -0.361952 -0.55 157 104 88
0.115972 -0.36261 -0.551 152 99 85
0.124886 -0.367217 -0.558 144 92 79
0.145276 -0.381695 -0.58 106 81 84
0.43431 -0.324441 -0.493 167 116 97
0.438326 -0.319834 -0.486 178 124 100
0.438366 -0.318518 -0.484 177 125 101
0.443899 -0.317202 -0.482 175 124 97
0.458589 -0.317202 -0.482 169 122 96
0.462261 -0.317202 -0.482 167 120 94
0.46782 -0.31786 -0.483 166 118 95
0.46874 -0.31786 -0.483 166 118 95
0.47058 -0.31786 -0.483 167 119 96
0.96696 -0.402754 -0.612 208 210 196
0.991892 -0.403412 -0.613 207 210 193
1.0024 -0.403412 -0.613 207 210 193
1.03509 -0.403412 -0.613 205 208 191
1.03976 -0.403412 -0.613 206 209 192
1.05316 -0.40407 -0.614 205 208 189
1.06893 -0.404729 -0.615 205 208 189
1.08181 -0.404729 -0.615 204 207 190
1.10352 -0.405387 -0.616 203 206 189
1.11056 -0.405387 -0.616 202 205 188
0.0748476 -0.35772 -0.542 203 156 138
0.111166 -0.36168 -0.548 165 109 92
0.1185 -0.36498 -0.553 153 100 86
0.130294 -0.37158 -0.563 139 89 78
0.184264 -0.39534 -0.599 86 103 147
0.443899 -0.31812 -0.482 174 124 97
0.450326 -0.31812 -0.482 173 123 98
0.45308 -0.31812 -0.482 171 121 96
0.454889 -0.31746 -0.481 172 122 97
0.457637 -0.31746 -0.481 170 123 97
0.463179 -0.31812 -0.482 168 121 95
0.476164 -0.31944 -0.484 164 118 95
0.978617 -0.40392 -0.612 207 209 195
1.04677 -0.40458 -0.613 206 209 190
1.04911 -0.40458 -0.613 205 208 189
1.06485 -0.40524 -0.614 207 210 191
1.09058 -0.40524 -0.614 204 206 192
1.10587 -0.40656 -0.616 203 206 189
1.11291 -0.40656 -0.616 202 205 188
1.11941 -0.40722 -0.617 202 205 188
1.12176 -0.40722 -0.617 202 205 188
0.0684314 -0.368681 -0.557 196 158 139
0.0786857 -0.357429 -0.54 202 157 134
0.0888067 -0.356767 -0.539 199 153 130
0.0918867 -0.356767 -0.539 198 152 129
0.0951429 -0.357429 -0.54 197 151 125
0.11221 -0.362724 -0.548 163 107 90
0.115972 -0.36471 -0.551 157 101 86
0.139157 -0.379271 -0.573 115 81 82
0.140738 -0.380595 -0.575 113 83 85
0.164592 -0.395819 -0.598 118 121 140
0.447571 -0.319038 -0.482 174 122 98
0.961476 -0.403762 -0.61 209 211 197
0.96538 -0.404424 -0.611 210 213 196
0.966544 -0.404424 -0.611 209 212 195
0.992606 -0.405086 -0.612 208 211 194
1.00077 -0.405086 -0.612 207 210 193
1.00426 -0.405086 -0.612 207 210 193
1.02225 -0.405748 -0.613 207 209 195
1.02926 -0.405748 -0.613 204 206 192
1.03574 -0.405086 -0.612 205 208 191
1.03807 -0.405086 -0.612 205 208 191
1.04677 -0.405748 -0.613 205 208 191
1.05728 -0.405748 -0.613 204 207 190
1.06428 -0.405748 -0.613 204 207 190
1.07012 -0.405748 -0.613 205 208 191
1.07246 -0.405748 -0.613 203 206 189
1.08356 -0.40641 -0.614 204 207 190
1.10759 -0.407071 -0.615 202 205 188
0.06528 -0.382354 -0.576 201 154 136
0.0738152 -0.359785 -0.542 202 157 136
0.0835181 -0.35713 -0.538 200 154 131
0.09086 -0.357793 -0.539 198 152 129
0.09394 -0.357793 -0.539 200 153 125
0.10169 -0.359785 -0.542 186 135 108
0.1185 -0.367087 -0.553 151 98 84
0.124886 -0.370406 -0.558 144 92 79
0.131833 -0.375052 -0.565 131 89 77
0.133145 -0.375716 -0.566 129 87 75
0.443019 -0.341198 -0.514 150 104 91
0.434993 -0.329913 -0.497 160 111 94
0.435249 -0.327258 -0.493 168 116 95
0.435303 -0.326594 -0.492 170 115 95
0.445735 -0.319956 -0.482 174 122 98
0.446653 -0.319956 -0.482 174 122 98
0.466851 -0.319956 -0.482 167 119 96
0.47236 -0.319956 -0.482 163 117 94
0.480843 -0.321948 -0.485 163 117 93
0.486606 -0.323939 -0.488 162 125 98
0.94482 -0.40426 -0.609 209 212 195
0.954505 -0.404924 -0.61 210 212 198
0.956829 -0.404924 -0.61 210 212 198
0.9638 -0.404924 -0.61 210 212 198
0.970771 -0.404924 -0.61 209 211 197
0.974257 -0.404924 -0.61 208 210 196
0.988656 -0.405588 -0.611 208 210 196
1.02758 -0.406251 -0.612 204 206 192
1.03341 -0.406251 -0.612 205 208 191
1.05439 -0.406251 -0.612 205 208 191
1.06545 -0.406915 -0.613 204 207 190
1.06896 -0.406915 -0.613 205 208 191
1.08063 -0.406915 -0.613 203 205 191
1.11227 -0.408243 -0.615 201 204 187
1.11461 -0.408243 -0.615 201 204 187
1.11696 -0.408243 -0.615 201 204 187
1.1193 -0.408243 -0.615 202 205 188
0.103946 -0.361483 -0.543 183 129 103
0.168866 -0.397431 -0.597 137 137 163
0.172277 -0.397431 -0.597 103 109 143
0.173414 -0.397431 -0.597 85 91 125
0.44298 -0.32154 -0.483 175 123 101
0.47893 -0.322206 -0.484 163 117 93
0.487535 -0.324869 -0.488 164 125 96
0.94018 -0.40542 -0.609 210 213 196
0.94366 -0.40542 -0.609 209 212 195
0.94946 -0.40542 -0.609 209 211 197
0.9715 -0.40542 -0.609 209 211 197
0.995639 -0.406751 -0.611 208 211 194
1.01942 -0.407417 -0.612 206 209 192
1.03986 -0.406751 -0.611 204 207 190
1.07071 -0.407417 -0.612 203 205 191
1.07887 -0.407417 -0.612 204 206 192
1.0812 -0.407417 -0.612 204 206 192
1.08237 -0.407417 -0.612 204 206 192
1.12281 -0.409414 -0.615 201 204 187
0.0876171 -0.359179 -0.538 199 153 127
0.0947905 -0.359179 -0.538 191 142 112
0.102722 -0.36185 -0.542 186 134 110
0.123601 -0.371864 -0.557 141 92 85
0.127694 -0.374534 -0.561 138 87 83
0.130526 -0.376537 -0.564 137 83 81
0.436131 -0.329804 -0.494 166 114 93
0.436333 -0.327133 -0.49 171 117 93
0.439251 -0.324463 -0.486 173 121 99
0.480773 -0.323128 -0.484 159 119 94
0.484611 -0.324463 -0.486 163 119 94
0.488465 -0.325798 -0.488 166 126 101
0.496287 -0.329136 -0.493 180 151 135
0.498234 -0.329804 -0.494 179 162 152
0.944427 -0.405912 -0.608 209 212 195
0.961798 -0.405912 -0.608 209 211 197
0.967589 -0.405912 -0.608 208 211 194
0.9882 -0.407248 -0.61 207 209 195
1.0096 -0.407915 -0.611 207 210 193
1.02124 -0.407915 -0.611 205 208 191
1.0259 -0.407915 -0.611 206 208 194
1.02939 -0.407915 -0.611 205 207 193
1.03172 -0.407915 -0.611 206 208 194
1.04685 -0.407915 -0.611 204 207 190
1.07012 -0.407915 -0.611 203 205 191
1.07594 -0.407915 -0.611 204 206 192
1.08003 -0.408583 -0.612 204 206 192
1.08292 -0.407915 -0.611 204 206 192
1.08409 -0.407915 -0.611 204 206 192
1.09752 -0.408583 -0.612 203 205 191
1.10165 -0.40925 -0.613 203 205 191
1.12099 -0.409918 -0.614 201 204 187
0.0707181 -0.362882 -0.542 202 160 136
0.0735429 -0.361543 -0.54 203 158 135
0.0864314 -0.359534 -0.537 200 154 128
0.0905229 -0.359534 -0.537 196 149 123
0.502631 -0.395689 -0.591 140 116 116
0.500348 -0.39301 -0.587 136 102 92
0.436817 -0.333423 -0.498 164 113 92
0.436887 -0.332753 -0.497 164 113 92
0.442981 -0.32271 -0.482 176 122 98
0.4512 -0.321371 -0.48 171 121 96
0.454857 -0.321371 -0.48 170 120 95
0.475114 -0.32271 -0.482 168 118 93
0.943269 -0.40707 -0.608 210 212 198
0.946743 -0.40707 -0.608 209 211 197
0.951375 -0.40707 -0.608 210 212 198
0.99586 -0.40774 -0.609 208 211 194
1.0033 -0.40841 -0.61 208 211 194
1.00911 -0.40841 -0.61 206 209 192
1.02538 -0.40841 -0.61 206 208 194
1.04103 -0.409079 -0.611 206 209 192
1.06663 -0.409079 -0.611 205 208 191
1.06896 -0.409079 -0.611 205 207 193
1.07361 -0.409079 -0.611 204 207 190
1.07827 -0.409079 -0.611 203 205 191
1.08874 -0.409079 -0.611 204 206 192
1.08991 -0.409079 -0.611 203 205 191
1.11046 -0.411088 -0.614 202 204 190
1.11566 -0.410418 -0.613 202 204 190
0.0660714 -0.372643 -0.555 201 159 137
0.0716181 -0.363243 -0.541 203 158 135
0.11221 -0.367943 -0.548 167 112 92
0.44114 -0.3243 -0.483 172 121 94
0.442063 -0.323629 -0.482 174 123 96
0.453943 -0.322286 -0.48 172 122 95
0.466799 -0.322957 -0.481 167 120 94
0.935936 -0.407557 -0.607 210 212 199
0.964841 -0.407557 -0.607 208 211 194
0.965997 -0.407557 -0.607 209 212 195
1.037 -0.409571 -0.61 205 207 193
1.07418 -0.409571 -0.61 204 207 190
1.08115 -0.409571 -0.61 203 205 191
1.0934 -0.410243 -0.611 203 206 189
1.11216 -0.411586 -0.613 202 204 190
1.11916 -0.411586 -0.613 204 206 192
0.0651314 -0.374373 -0.556 201 159 137
0.0772257 -0.36158 -0.537 203 158 135
0.0990733 -0.362927 -0.539 185 134 107
0.103754 -0.364947 -0.542 179 123 100
0.10498 -0.36562 -0.543 176 120 97
0.11977 -0.373027 -0.554 152 95 84
0.138307 -0.386493 -0.574 109 78 83
0.450045 -0.350807 -0.521 147 101 85
0.44016 -0.33936 -0.504 154 107 89
0.437897 -0.333973 -0.496 161 110 91
0.437957 -0.3333 -0.495 161 110 91
0.43827 -0.328587 -0.488 168 118 93
0.439251 -0.32724 -0.486 169 119 92
0.440195 -0.326567 -0.485 172 121 94
0.44206 -0.32522 -0.483 171 120 93
0.442981 -0.324547 -0.482 172 121 94
0.444817 -0.324547 -0.482 173 121 97
0.47695 -0.324547 -0.482 166 120 97
0.967153 -0.408713 -0.607 208 211 194
0.998857 -0.409387 -0.608 208 210 196
1.01326 -0.41006 -0.609 206 208 194
1.01906 -0.41006 -0.609 206 208 194
1.03235 -0.410733 -0.61 205 208 191
1.03584 -0.410733 -0.61 205 208 191
1.05908 -0.410733 -0.61 204 207 190
1.06489 -0.410733 -0.61 205 208 191
1.07534 -0.410733 -0.61 204 207 190
1.07474 -0.41006 -0.609 204 207 190
1.08464 -0.410733 -0.61 203 205 191
1.09626 -0.410733 -0.61 203 206 189
1.10685 -0.41208 -0.612 204 207 190
1.11034 -0.41208 -0.612 201 203 189
1.11151 -0.41208 -0.612 202 204 190
1.11267 -0.41208 -0.612 202 204 190
1.11617 -0.41208 -0.612 203 205 191
1.11734 -0.41208 -0.612 203 205 191
0.06318 -0.38286 -0.567 202 160 138
0.0643029 -0.376783 -0.558 200 158 136
0.0801448 -0.361928 -0.536 201 155 132
0.0850905 -0.361252 -0.535 197 151 125
0.0903543 -0.361928 -0.536 196 149 121
0.135409 -0.385561 -0.571 109 78 83
0.136974 -0.386911 -0.573 109 78 83
0.160097 -0.401091 -0.594 126 123 142
0.437957 -0.334243 -0.495 158 110 90
0.438013 -0.333568 -0.494 157 109 89
0.438066 -0.332892 -0.493 159 111 89
0.440195 -0.32749 -0.485 170 118 94
0.450286 -0.324114 -0.48 170 120 93
0.464858 -0.323439 -0.479 168 121 95
0.469486 -0.324114 -0.48 166 120 96
0.47695 -0.325465 -0.482 166 120 97
0.935549 -0.409194 -0.606 211 213 200
0.948246 -0.409194 -0.606 210 212 198
0.955171 -0.409194 -0.606 210 213 196
0.95748 -0.409194 -0.606 209 212 195
0.975247 -0.40987 -0.607 208 210 196
0.993746 -0.40987 -0.607 208 210 196
0.997699 -0.410545 -0.608 207 209 195
1.01275 -0.410545 -0.608 206 208 194
1.04574 -0.41122 -0.609 205 207 193
1.0614 -0.411895 -0.61 204 207 190
1.0759 -0.41122 -0.609 204 207 190
1.10155 -0.41257 -0.611 203 205 191
0.0791238 -0.362949 -0.536 202 157 134
0.10498 -0.367689 -0.543 177 120 100
0.126626 -0.379877 -0.561 132 87 82
0.12815 -0.381231 -0.563 131 86 81
0.181594 -0.402223 -0.594 72 94 144
0.460296 -0.324351 -0.479 170 120 93
0.46577 -0.324351 -0.479 167 120 94
0.476877 -0.325706 -0.481 166 118 95
0.954017 -0.410349 -0.606 210 212 198
0.955171 -0.410349 -0.606 210 212 198
0.959789 -0.410349 -0.606 209 211 197
0.960943 -0.410349 -0.606 209 211 197
0.970177 -0.410349 -0.606 207 210 193
0.990277 -0.411026 -0.607 208 210 196
1.00184 -0.411026 -0.607 207 209 195
1.003 -0.411026 -0.607 207 209 195
1.02318 -0.411703 -0.608 204 206 192
1.0295 -0.41238 -0.609 205 208 191
1.03298 -0.41238 -0.609 205 208 191
1.0701 -0.41238 -0.609 205 208 191
1.07474 -0.41238 -0.609 204 207 190
1.08571 -0.411703 -0.608 204 207 190
1.0933 -0.41238 -0.609 204 207 190
1.11318 -0.413734 -0.611 203 206 189
0.0722457 -0.365328 -0.538 204 158 135
0.0956371 -0.364649 -0.537 191 140 113
0.110963 -0.371439 -0.547 170 108 97
0.114714 -0.373476 -0.55 161 101 90
0.1185 -0.375513 -0.553 145 95 86
0.44208 -0.34224 -0.504 155 108 88
0.439133 -0.332733 -0.49 164 114 91
0.439169 -0.332054 -0.489 165 115 92
0.440177 -0.330017 -0.486 167 117 94
0.44481 -0.326622 -0.481 172 120 96
0.447559 -0.326622 -0.481 171 121 96
0.4512 -0.325943 -0.48 171 121 96
0.452114 -0.325943 -0.48 171 124 96
0.458471 -0.325264 -0.479 170 121 91
0.462067 -0.324585 -0.478 168 121 93
0.464858 -0.325264 -0.479 167 120 92
0.472229 -0.325943 -0.48 165 119 93
0.475961 -0.326622 -0.481 166 118 95
0.481541 -0.327301 -0.482 164 117 89
0.492102 -0.330696 -0.487 168 133 111
0.93631 -0.410824 -0.605 210 212 198
0.948986 -0.410824 -0.605 209 211 197
0.957052 -0.410824 -0.605 208 210 196
0.966271 -0.410824 -0.605 209 212 195
0.984029 -0.411503 -0.606 208 210 196
1.00762 -0.412182 -0.607 206 208 194
1.0475 -0.412861 -0.608 204 207 190
1.05329 -0.412861 -0.608 205 208 191
1.0556 -0.412861 -0.608 205 207 193
1.06139 -0.412861 -0.608 205 207 193
1.06255 -0.412861 -0.608 205 207 193
1.08224 -0.412861 -0.608 203 205 191
1.09266 -0.412861 -0.608 204 207 190
1.1009 -0.414219 -0.61 203 205 191
1.10207 -0.414219 -0.61 202 204 190
0.0647619 -0.370438 -0.544 201 156 133
0.0665886 -0.369076 -0.542 201 156 133
0.0673714 -0.367714 -0.54 204 158 135
0.0879829 -0.363629 -0.534 201 154 128
0.10621 -0.370438 -0.544 172 115 95
0.115972 -0.375205 -0.551 154 99 92
0.126851 -0.382695 -0.562 128 87 83
0.12815 -0.383376 -0.563 126 85 81
0.440546 -0.339795 -0.499 153 106 86
0.439005 -0.33571 -0.493 157 109 87
0.439094 -0.334348 -0.491 161 111 88
0.44114 -0.3289 -0.483 167 117 92
0.442981 -0.328219 -0.482 169 119 94
0.457559 -0.326176 -0.479 172 123 93
0.459384 -0.326176 -0.479 171 122 92
0.468508 -0.326176 -0.479 168 121 93
0.480542 -0.327538 -0.481 163 116 86
0.512929 -0.341157 -0.501 186 173 165
0.925558 -0.411295 -0.604 210 212 198
0.956621 -0.411295 -0.604 208 211 194
0.995571 -0.412657 -0.606 207 210 193
1.00993 -0.413338 -0.607 206 208 194
1.01456 -0.413338 -0.607 206 208 194
1.03939 -0.414019 -0.608 206 209 192
1.03884 -0.413338 -0.607 206 209 192
1.04634 -0.414019 -0.608 206 209 192
1.05676 -0.414019 -0.608 204 206 192
1.05908 -0.414019 -0.608 205 207 193
1.06427 -0.413338 -0.607 205 207 193
1.07121 -0.413338 -0.607 203 205 191
1.0991 -0.4147 -0.609 203 205 191
0.0591714 -0.389229 -0.57 201 158 139
0.0618429 -0.378986 -0.555 201 156 135
0.0788286 -0.364646 -0.534 206 158 135
0.0990733 -0.36806 -0.539 183 129 103
0.108481 -0.372157 -0.545 167 112 92
0.114714 -0.375571 -0.55 159 101 90
0.125557 -0.383083 -0.561 124 86 83
0.442238 -0.342794 -0.502 154 107 87
0.456604 -0.326406 -0.478 172 122 95
0.461156 -0.326406 -0.478 173 123 96
0.471245 -0.327089 -0.479 168 121 95
0.4768 -0.327771 -0.48 163 118 89
0.47871 -0.328454 -0.481 165 120 91
0.480542 -0.328454 -0.481 162 118 91
0.482459 -0.329137 -0.482 164 118 92
0.488149 -0.330503 -0.484 165 121 94
0.496917 -0.333917 -0.489 168 142 127
0.95547 -0.412446 -0.604 208 211 194
0.956621 -0.412446 -0.604 208 211 194
0.987014 -0.413129 -0.605 207 210 193
0.988167 -0.413129 -0.605 207 210 193
1.00365 -0.413811 -0.606 206 208 194
1.01289 -0.413811 -0.606 206 208 194
1.02149 -0.414494 -0.607 206 209 192
1.02265 -0.414494 -0.607 206 209 192
1.02381 -0.414494 -0.607 206 208 194
1.04809 -0.414494 -0.607 205 208 191
1.04924 -0.414494 -0.607 205 208 191
1.05156 -0.414494 -0.607 204 207 190
1.07637 -0.413811 -0.606 203 205 191
1.09382 -0.415177 -0.608 204 207 190
1.09614 -0.415177 -0.608 203 205 191
1.10606 -0.41586 -0.609 201 203 189
1.1107 -0.41586 -0.609 203 206 189
1.11186 -0.41586 -0.609 203 206 189
0.0628048 -0.373195 -0.545 200 155 134
0.0645238 -0.371141 -0.542 201 156 135
0.0700657 -0.367717 -0.537 201 155 132
0.0767943 -0.365663 -0.534 207 161 137
0.107246 -0.37251 -0.544 171 116 96
0.10972 -0.37388 -0.546 161 106 86
0.11346 -0.375934 -0.549 157 100 91
0.118714 -0.379358 -0.554 142 93 88
0.131451 -0.388945 -0.568 107 83 81
0.134791 -0.392369 -0.573 105 83 86
0.444798 -0.34649 -0.506 153 104 87
0.462067 -0.327316 -0.478 172 122 97
0.472157 -0.328001 -0.479 168 121 93
0.475886 -0.328686 -0.48 166 119 91
0.479626 -0.32937 -0.481 165 119 93
0.992776 -0.414281 -0.605 207 209 195
1.0175 -0.414966 -0.606 206 208 194
1.02443 -0.414966 -0.606 205 207 193
1.03251 -0.414966 -0.606 206 208 194
1.04577 -0.41565 -0.607 206 209 192
1.05734 -0.41565 -0.607 205 207 193
1.05849 -0.41565 -0.607 205 207 193
1.05965 -0.41565 -0.607 204 206 192
1.06252 -0.414966 -0.606 203 205 191
1.06714 -0.414966 -0.606 204 206 192
1.07637 -0.414966 -0.606 203 205 191
1.08791 -0.414966 -0.606 203 206 189
1.09202 -0.41565 -0.607 203 206 189
1.10077 -0.416335 -0.608 203 205 191
