ply
format ascii 1.0
comment Created by Open3D
element vertex 1326
property double x
property double y
property double z
property uchar red
property uchar green
property uchar blue
end_header
0.425211 -0.365448 -0.424 21 20 26
0.430149 -0.351657 -0.408 25 26 31
0.4347 -0.349071 -0.405 24 23 29
0.44042 -0.3439 -0.399 19 18 24
0.44498 -0.3439 -0.399 19 18 24
0.44993 -0.343038 -0.398 23 22 28
0.459027 -0.343038 -0.398 21 24 29
0.46322 -0.3439 -0.399 20 23 28
0.469361 -0.345624 -0.401 22 25 32
-0.00241905 -0.438815 -0.508 192 153 124
0.000475238 -0.431041 -0.499 188 149 118
0.00704286 -0.425858 -0.493 189 148 118
0.0116905 -0.42413 -0.491 195 154 124
0.0163667 -0.42413 -0.491 195 154 124
0.0201076 -0.42413 -0.491 195 151 122
0.0371676 -0.426722 -0.494 193 148 119
0.0447857 -0.427586 -0.495 191 147 118
0.0736305 -0.44227 -0.512 148 106 82
0.100843 -0.469049 -0.543 92 78 78
0.114686 -0.466457 -0.54 138 153 172
0.129086 -0.466457 -0.54 76 111 167
0.132171 -0.466457 -0.54 182 197 220
0.202489 -0.467321 -0.541 229 239 251
0.210732 -0.467321 -0.541 222 230 243
0.212793 -0.467321 -0.541 167 175 196
0.233834 -0.468185 -0.542 231 235 244
0.240029 -0.468185 -0.542 226 235 244
0.24932 -0.468185 -0.542 82 112 164
0.34309 -0.470776 -0.545 149 173 207
0.346205 -0.470776 -0.545 132 169 213
0.34996 -0.47164 -0.546 90 137 191
0.3562 -0.47164 -0.546 137 170 205
0.3822 -0.47164 -0.546 69 109 181
0.39052 -0.47164 -0.546 210 224 237
0.39572 -0.47164 -0.546 211 224 243
0.407906 -0.472504 -0.547 124 167 212
0.423265 -0.473368 -0.548 180 199 216
0.425352 -0.473368 -0.548 209 218 227
0.45519 -0.475095 -0.55 160 179 212
0.461683 -0.474231 -0.549 194 203 218
0.485571 -0.475095 -0.55 95 133 180
0.487667 -0.475095 -0.55 81 119 164
0.491857 -0.475095 -0.55 171 184 201
0.496048 -0.475095 -0.55 168 185 195
0.42434 -0.37403 -0.433 19 19 27
0.425434 -0.357617 -0.414 24 23 29
0.43142 -0.35157 -0.407 25 24 30
0.43684 -0.347251 -0.402 24 23 29
0.438045 -0.346388 -0.401 24 23 29
0.46322 -0.34466 -0.399 25 25 33
0.000473333 -0.43026 -0.497 188 149 118
0.00516476 -0.426797 -0.493 191 150 120
0.00610381 -0.426797 -0.493 189 148 118
0.0163333 -0.4242 -0.49 195 154 124
0.0304571 -0.425931 -0.492 198 153 124
0.0505448 -0.429394 -0.496 190 146 119
0.0534867 -0.43026 -0.497 187 143 116
0.0999924 -0.470949 -0.544 93 75 73
0.103754 -0.469217 -0.542 95 90 87
0.112629 -0.467486 -0.54 150 149 154
0.116743 -0.467486 -0.54 79 104 135
0.14938 -0.46662 -0.539 145 170 200
0.159647 -0.46662 -0.539 139 174 204
0.184629 -0.467486 -0.54 139 151 165
0.188743 -0.467486 -0.54 84 125 187
0.201458 -0.468351 -0.541 230 237 243
0.212793 -0.468351 -0.541 168 176 199
0.244158 -0.469217 -0.542 183 196 202
0.262741 -0.469217 -0.542 214 222 235
0.346205 -0.471814 -0.545 135 167 205
0.3597 -0.471814 -0.545 219 228 237
0.38012 -0.47268 -0.546 65 109 172
0.38636 -0.47268 -0.546 78 115 168
0.440524 -0.476143 -0.55 162 179 205
0.44681 -0.476143 -0.55 40 82 154
0.447857 -0.476143 -0.55 58 100 172
0.456454 -0.475277 -0.549 187 202 223
0.462729 -0.475277 -0.549 198 204 216
0.46881 -0.476143 -0.55 182 197 204
0.49081 -0.476143 -0.55 161 181 205
0.42849 -0.393034 -0.454 27 26 32
0.423515 -0.374854 -0.433 19 19 27
0.42339 -0.362734 -0.419 27 27 35
0.426266 -0.355809 -0.411 22 23 28
0.434396 -0.349749 -0.404 22 21 27
0.436074 -0.348017 -0.402 25 24 30
0.438045 -0.347151 -0.401 24 23 29
0.4389 -0.34542 -0.399 21 20 26
0.44118 -0.34542 -0.399 26 25 30
0.449555 -0.343689 -0.397 26 25 31
0.474772 -0.348883 -0.403 25 28 35
-0.00437143 -0.442486 -0.51 191 152 123
-0.00338 -0.439883 -0.507 191 152 123
-0.000474286 -0.432074 -0.498 190 151 120
0.0304571 -0.426869 -0.492 198 153 122
0.0313943 -0.426869 -0.492 197 152 123
0.0399095 -0.427736 -0.493 197 152 123
0.0427267 -0.427736 -0.493 191 147 120
0.0446952 -0.428604 -0.494 190 146 119
0.0534867 -0.431207 -0.497 186 142 115
0.0545429 -0.432074 -0.498 183 139 110
0.0807238 -0.451162 -0.52 118 90 79
0.0937657 -0.466779 -0.538 87 74 68
0.14014 -0.467647 -0.539 194 195 199
0.157593 -0.467647 -0.539 197 198 202
0.192857 -0.468514 -0.54 156 155 161
0.20558 -0.469382 -0.541 196 191 195
0.216915 -0.469382 -0.541 168 177 192
0.229281 -0.469382 -0.541 170 178 191
0.230311 -0.469382 -0.541 181 185 194
0.24886 -0.469382 -0.541 158 160 173
0.268935 -0.47025 -0.542 193 193 195
0.314484 -0.471985 -0.544 121 136 155
0.362814 -0.472852 -0.545 205 208 213
0.39364 -0.47372 -0.546 208 218 230
0.39988 -0.47372 -0.546 223 231 233
0.420133 -0.475455 -0.548 120 155 193
0.421177 -0.475455 -0.548 131 157 192
0.432403 -0.476323 -0.549 212 221 226
0.437631 -0.476323 -0.549 208 222 233
0.454143 -0.47719 -0.55 88 130 188
0.460637 -0.476323 -0.549 198 205 213
0.470905 -0.47719 -0.55 134 146 172
0.499329 -0.476323 -0.549 170 184 187
0.500374 -0.476323 -0.549 170 184 187
0.42317 -0.384355 -0.443 21 19 30
0.4221 -0.38262 -0.441 20 18 29
0.421981 -0.381752 -0.44 22 20 31
0.422819 -0.381752 -0.44 23 21 32
0.423201 -0.373944 -0.431 21 21 29
0.424506 -0.372209 -0.429 21 21 29
0.427571 -0.355724 -0.41 20 21 26
0.439316 -0.345312 -0.398 22 21 27
0.445774 -0.344445 -0.397 25 24 30
0.468952 -0.347048 -0.4 27 28 33
-0.00838667 -0.450413 -0.518 186 146 120
0.00420857 -0.426936 -0.491 191 152 121
0.0256667 -0.426067 -0.49 197 152 121
0.0266543 -0.426936 -0.491 196 151 120
0.0303952 -0.426936 -0.491 197 152 121
0.0370171 -0.427806 -0.492 198 153 122
0.103754 -0.471282 -0.542 112 107 104
0.116743 -0.469543 -0.54 178 180 179
0.119829 -0.469543 -0.54 181 183 182
0.122914 -0.469543 -0.54 187 188 190
0.127029 -0.469543 -0.54 194 196 195
0.135257 -0.469543 -0.54 204 205 207
0.156567 -0.468673 -0.539 216 217 221
0.16478 -0.468673 -0.539 217 218 222
0.17402 -0.468673 -0.539 218 219 223
0.175047 -0.468673 -0.539 218 219 223
0.1771 -0.468673 -0.539 217 218 220
0.18018 -0.468673 -0.539 219 220 224
0.210732 -0.470412 -0.541 216 216 218
0.215885 -0.470412 -0.541 215 216 218
0.222068 -0.470412 -0.541 215 216 218
0.250352 -0.471282 -0.542 214 214 216
0.25345 -0.471282 -0.542 213 214 216
0.260676 -0.471282 -0.542 211 215 216
0.295289 -0.472151 -0.543 207 210 217
0.297357 -0.472151 -0.543 210 211 213
0.316556 -0.473021 -0.544 204 207 212
0.39988 -0.47476 -0.546 188 187 193
0.407906 -0.47563 -0.547 140 161 180
0.41387 -0.476499 -0.548 117 147 183
0.417002 -0.476499 -0.548 126 161 193
0.43554 -0.477369 -0.549 193 191 192
0.443906 -0.477369 -0.549 58 91 145
0.467762 -0.478238 -0.55 190 196 208
0.47281 -0.479108 -0.551 110 136 161
0.475959 -0.479108 -0.551 108 137 169
0.479108 -0.479108 -0.551 82 120 169
0.489603 -0.479108 -0.551 86 114 151
0.501286 -0.478238 -0.55 156 164 167
0.502466 -0.477369 -0.549 136 142 154
0.42317 -0.385199 -0.443 22 20 31
0.422566 -0.380851 -0.438 21 19 30
0.422986 -0.378243 -0.435 23 22 30
0.427308 -0.355635 -0.409 22 21 27
0.428319 -0.353896 -0.407 22 21 26
0.434856 -0.350418 -0.403 23 22 28
0.436074 -0.349549 -0.402 21 20 26
0.435753 -0.348679 -0.401 22 21 27
0.443107 -0.34607 -0.398 25 24 30
0.444262 -0.345201 -0.397 22 21 27
0.447669 -0.344331 -0.396 25 24 30
0.464333 -0.34607 -0.398 21 22 27
-0.00631429 -0.444429 -0.51 188 148 122
-0.00237143 -0.433971 -0.498 191 154 125
0.0256667 -0.427 -0.49 195 150 119
0.0275333 -0.427 -0.49 194 149 118
0.0322657 -0.427871 -0.491 192 147 118
0.0427267 -0.429614 -0.493 187 142 113
0.0436657 -0.429614 -0.493 186 141 112
0.0485571 -0.431357 -0.495 190 146 119
0.0514895 -0.432229 -0.496 191 147 120
0.0545429 -0.433971 -0.498 180 139 111
0.0565533 -0.434843 -0.499 178 137 109
0.0760238 -0.448786 -0.515 131 98 83
0.0925686 -0.467957 -0.537 88 74 73
0.0963495 -0.471443 -0.541 89 74 71
0.0999924 -0.474057 -0.544 88 72 72
0.113657 -0.470571 -0.54 173 173 171
0.117771 -0.470571 -0.54 178 178 176
0.134229 -0.470571 -0.54 203 204 206
0.137314 -0.470571 -0.54 204 205 207
0.14014 -0.4697 -0.539 206 207 209
0.147327 -0.4697 -0.539 212 212 214
0.15862 -0.4697 -0.539 214 213 218
0.160673 -0.4697 -0.539 214 215 219
0.17402 -0.4697 -0.539 218 218 220
0.198367 -0.471443 -0.541 213 217 218
0.20558 -0.471443 -0.541 217 218 220
0.208671 -0.471443 -0.541 217 219 218
0.211763 -0.471443 -0.541 215 216 220
0.230737 -0.472314 -0.542 217 217 219
0.232802 -0.472314 -0.542 217 217 219
0.262191 -0.473186 -0.543 212 216 217
0.328557 -0.474929 -0.545 209 213 214
0.334786 -0.474929 -0.545 211 212 214
0.341014 -0.474929 -0.545 211 212 216
0.350601 -0.476671 -0.547 208 212 215
0.352685 -0.476671 -0.547 210 211 215
0.36036 -0.4758 -0.546 210 211 215
0.3614 -0.4758 -0.546 210 211 215
0.3666 -0.4758 -0.546 208 211 216
0.36972 -0.4758 -0.546 211 212 217
0.377 -0.4758 -0.546 208 212 215
0.386026 -0.476671 -0.547 207 211 214
0.41387 -0.477543 -0.548 195 198 205
0.41909 -0.477543 -0.548 188 198 208
0.422221 -0.477543 -0.548 181 191 201
0.429266 -0.478414 -0.549 187 190 195
0.478058 -0.480157 -0.551 101 123 160
0.483131 -0.481029 -0.552 145 152 158
0.487337 -0.481029 -0.552 145 152 158
0.507694 -0.478414 -0.549 101 110 125
0.427463 -0.393886 -0.452 22 22 34
0.422433 -0.380814 -0.437 22 21 29
0.423206 -0.367743 -0.422 24 24 32
0.42362 -0.3599 -0.413 24 24 32
0.424164 -0.359029 -0.412 18 18 26
0.424448 -0.357286 -0.41 22 23 28
0.440481 -0.345957 -0.397 25 24 29
0.445406 -0.345086 -0.396 22 21 27
0.483361 -0.354671 -0.407 28 31 36
0.0106895 -0.426187 -0.488 196 152 125
0.0171962 -0.426187 -0.488 193 149 120
0.0190943 -0.42706 -0.489 197 153 124
0.0256667 -0.427933 -0.49 192 147 118
0.0266 -0.427933 -0.49 191 146 117
0.0313305 -0.428807 -0.491 195 149 123
0.0760238 -0.449767 -0.515 129 96 81
0.101029 -0.475093 -0.544 90 76 76
0.129086 -0.4716 -0.54 196 196 194
0.153487 -0.470727 -0.539 213 212 217
0.157886 -0.4716 -0.54 213 212 217
0.164057 -0.4716 -0.54 214 214 216
0.17402 -0.470727 -0.539 218 218 218
0.219381 -0.473347 -0.542 216 216 218
0.237964 -0.473347 -0.542 216 216 216
0.238996 -0.473347 -0.542 215 217 216
0.261157 -0.47422 -0.543 212 214 213
0.267363 -0.47422 -0.543 214 214 216
0.282877 -0.47422 -0.543 213 214 216
0.28598 -0.47422 -0.543 212 213 217
0.304597 -0.47422 -0.543 210 211 213
0.326481 -0.475967 -0.545 210 211 213
0.334786 -0.475967 -0.545 207 208 210
0.3406 -0.47684 -0.546 208 209 211
0.368313 -0.477713 -0.547 206 210 213
0.377 -0.47684 -0.546 204 208 211
0.381858 -0.477713 -0.547 203 207 210
0.409695 -0.478587 -0.548 202 201 206
0.424309 -0.478587 -0.548 196 199 204
0.429266 -0.47946 -0.549 197 200 205
0.431357 -0.47946 -0.549 195 199 202
0.436586 -0.47946 -0.549 194 194 194
0.449952 -0.480333 -0.55 186 187 189
0.476823 -0.48208 -0.552 167 167 169
0.504429 -0.480333 -0.55 154 155 160
0.4418 -0.410467 -0.47 24 24 32
0.434218 -0.402607 -0.461 20 20 28
0.424337 -0.389507 -0.446 22 20 31
0.422297 -0.380773 -0.436 22 21 29
0.421866 -0.378153 -0.433 24 23 29
0.42269 -0.378153 -0.433 24 23 29
0.422537 -0.37728 -0.432 23 22 28
0.423038 -0.375533 -0.43 26 25 31
0.431318 -0.352827 -0.404 23 22 28
0.442389 -0.34584 -0.396 23 22 28
0.451805 -0.344967 -0.395 25 24 30
0.461246 -0.34584 -0.396 24 24 32
0.4693 -0.34846 -0.399 25 25 35
-0.0083219 -0.449872 -0.514 182 147 119
0.00419143 -0.427991 -0.489 191 152 121
0.0060419 -0.427116 -0.488 193 154 123
0.0134505 -0.426241 -0.487 196 153 121
0.0190552 -0.427116 -0.488 197 154 122
0.0199848 -0.427116 -0.488 195 152 118
0.0209571 -0.427991 -0.489 195 152 118
0.0218886 -0.427991 -0.489 194 151 117
0.0294 -0.428867 -0.49 196 151 122
0.0446048 -0.431492 -0.493 187 142 113
0.0524343 -0.434118 -0.496 184 138 112
0.102065 -0.47613 -0.544 105 91 91
0.103101 -0.47613 -0.544 113 108 105
0.112837 -0.473504 -0.541 170 169 167
0.113868 -0.473504 -0.541 170 169 167
0.126233 -0.473504 -0.541 195 195 195
0.139371 -0.472629 -0.54 207 207 205
0.152743 -0.472629 -0.54 214 214 216
0.1548 -0.472629 -0.54 214 214 216
0.162 -0.472629 -0.54 213 213 213
0.174343 -0.472629 -0.54 217 215 216
0.199397 -0.473504 -0.541 217 217 217
0.204928 -0.474379 -0.542 216 216 216
0.213187 -0.474379 -0.542 217 217 215
0.221854 -0.475254 -0.543 215 215 215
0.22806 -0.475254 -0.543 217 217 217
0.243574 -0.475254 -0.543 216 216 216
0.246677 -0.475254 -0.543 215 215 215
0.260123 -0.475254 -0.543 214 214 214
0.268397 -0.475254 -0.543 213 213 215
0.2715 -0.475254 -0.543 214 214 214
0.275637 -0.475254 -0.543 213 213 213
0.283398 -0.47613 -0.544 211 213 212
0.296869 -0.47613 -0.544 210 212 211
0.300529 -0.477005 -0.545 212 212 214
0.304122 -0.47613 -0.544 211 211 213
0.311948 -0.477005 -0.545 210 211 213
0.314024 -0.477005 -0.545 210 211 213
0.32292 -0.47788 -0.546 211 213 212
0.32604 -0.47788 -0.546 213 213 213
0.33124 -0.47788 -0.546 209 209 209
0.33852 -0.47788 -0.546 210 211 213
0.345391 -0.478755 -0.547 209 209 209
0.354373 -0.47963 -0.548 207 209 208
0.370397 -0.478755 -0.547 208 209 211
0.396126 -0.47963 -0.548 205 206 210
0.398529 -0.478755 -0.547 206 207 211
0.403738 -0.478755 -0.547 206 207 211
0.40478 -0.478755 -0.547 206 207 211
0.408651 -0.47963 -0.548 205 204 209
0.410739 -0.47963 -0.548 205 207 206
0.415671 -0.480506 -0.549 201 205 208
0.421177 -0.47963 -0.548 202 202 202
0.468612 -0.482256 -0.551 178 179 183
0.469662 -0.482256 -0.551 175 176 180
0.500238 -0.481381 -0.55 158 158 166
0.504296 -0.482256 -0.551 151 151 159
0.424337 -0.390356 -0.446 23 21 32
0.421858 -0.38423 -0.439 25 23 34
0.421731 -0.383354 -0.438 25 24 32
0.421601 -0.382479 -0.437 22 21 29
0.423038 -0.376352 -0.43 25 24 30
0.422871 -0.375477 -0.429 28 27 33
0.423134 -0.359723 -0.411 22 21 27
0.427267 -0.355347 -0.406 19 18 24
0.4293 -0.354471 -0.405 18 17 23
0.44088 -0.346594 -0.396 22 21 27
0.440519 -0.345719 -0.395 22 21 27
0.453663 -0.344844 -0.394 26 26 34
0.02282 -0.428923 -0.489 193 150 115
0.0464829 -0.432431 -0.493 188 144 117
0.0474219 -0.432431 -0.493 187 143 116
0.0596429 -0.439449 -0.501 172 128 103
0.0627552 -0.441203 -0.503 167 120 100
0.0704286 -0.447343 -0.51 144 106 87
0.09774 -0.476289 -0.543 88 70 68
0.113046 -0.475411 -0.542 167 165 166
0.142721 -0.474534 -0.541 209 208 206
0.16333 -0.474534 -0.541 210 210 210
0.167143 -0.473657 -0.54 211 209 210
0.168171 -0.473657 -0.54 211 209 210
0.178457 -0.473657 -0.54 210 210 210
0.193214 -0.474534 -0.541 215 215 217
0.203895 -0.475411 -0.542 215 215 215
0.204928 -0.475411 -0.542 215 215 215
0.208025 -0.475411 -0.542 215 215 215
0.229516 -0.477166 -0.544 213 211 214
0.231589 -0.477166 -0.544 213 211 214
0.246095 -0.477166 -0.544 209 209 209
0.264747 -0.477166 -0.544 208 208 210
0.267855 -0.477166 -0.544 206 206 208
0.272 -0.477166 -0.544 204 204 204
0.278217 -0.477166 -0.544 203 203 203
0.283398 -0.477166 -0.544 201 201 203
0.284434 -0.477166 -0.544 202 202 204
0.286507 -0.477166 -0.544 202 202 202
0.302605 -0.478043 -0.545 204 202 205
0.303643 -0.478043 -0.545 203 201 204
0.32188 -0.47892 -0.546 200 200 202
0.32396 -0.47892 -0.546 198 198 198
0.33393 -0.479797 -0.547 197 197 197
0.343935 -0.480674 -0.548 198 198 198
0.346023 -0.480674 -0.548 198 198 198
0.360249 -0.481551 -0.549 198 197 202
0.381512 -0.480674 -0.548 197 197 199
0.403432 -0.480674 -0.548 201 193 191
0.419854 -0.481551 -0.549 193 194 198
0.42822 -0.481551 -0.549 191 191 191
0.456454 -0.481551 -0.549 180 181 185
0.460429 -0.482429 -0.55 176 178 177
0.487167 -0.48506 -0.553 156 154 155
0.491543 -0.484183 -0.552 151 151 149
0.496647 -0.48506 -0.553 147 148 152
0.42317 -0.388574 -0.443 22 20 31
0.4221 -0.38682 -0.441 21 19 30
0.421601 -0.383311 -0.437 22 21 29
0.422871 -0.376294 -0.429 26 25 31
0.422167 -0.372786 -0.425 25 25 33
0.427267 -0.35612 -0.406 20 19 25
0.435526 -0.349103 -0.398 22 21 27
0.451411 -0.345594 -0.394 26 27 32
0.452162 -0.345594 -0.394 27 27 35
0.470398 -0.349103 -0.398 22 22 32
0.00602952 -0.428096 -0.487 193 152 120
0.0143781 -0.428096 -0.487 196 153 119
0.0162333 -0.428096 -0.487 198 155 121
0.0246829 -0.429854 -0.489 194 149 116
0.066021 -0.444798 -0.506 159 114 95
0.12005 -0.475565 -0.541 183 181 182
0.123142 -0.475565 -0.541 189 188 186
0.124172 -0.475565 -0.541 191 190 188
0.126233 -0.475565 -0.541 193 191 192
0.133447 -0.475565 -0.541 200 199 197
0.149179 -0.476444 -0.542 206 205 203
0.149934 -0.475565 -0.541 206 205 203
0.159209 -0.475565 -0.541 208 206 207
0.170544 -0.475565 -0.541 205 203 204
0.185312 -0.476444 -0.542 204 202 205
0.207374 -0.477323 -0.543 207 205 208
0.211901 -0.478202 -0.544 205 203 206
0.213973 -0.478202 -0.544 206 204 207
0.244471 -0.479081 -0.545 199 197 200
0.245059 -0.478202 -0.544 198 196 199
0.281843 -0.479081 -0.545 192 192 194
0.29484 -0.47996 -0.546 191 190 195
0.30524 -0.47996 -0.546 190 188 191
0.30628 -0.47996 -0.546 189 187 190
0.31044 -0.47996 -0.546 191 189 192
0.316218 -0.480839 -0.547 190 190 192
0.318302 -0.480839 -0.547 191 189 192
0.334972 -0.480839 -0.547 188 188 190
0.354619 -0.483476 -0.55 186 186 188
0.356714 -0.483476 -0.55 185 184 189
0.363386 -0.482597 -0.549 187 186 192
0.365477 -0.482597 -0.549 186 185 190
0.36966 -0.482597 -0.549 187 185 188
0.386731 -0.481718 -0.548 183 184 188
0.39162 -0.482597 -0.549 185 184 189
0.396849 -0.482597 -0.549 186 185 191
0.398213 -0.481718 -0.548 185 184 190
0.416429 -0.483476 -0.55 184 182 185
0.4209 -0.482597 -0.549 179 180 185
0.436333 -0.483476 -0.55 173 173 175
0.438429 -0.483476 -0.55 172 175 184
0.443667 -0.483476 -0.55 173 173 171
0.454143 -0.483476 -0.55 165 171 171
0.479606 -0.486992 -0.554 158 155 162
0.489986 -0.487871 -0.555 140 146 144
0.501006 -0.485234 -0.552 132 132 134
0.507314 -0.485234 -0.552 129 128 133
0.507445 -0.484355 -0.551 133 134 138
0.509544 -0.484355 -0.551 130 129 135
0.510593 -0.484355 -0.551 123 122 128
0.421731 -0.385023 -0.438 25 24 32
0.421714 -0.379749 -0.432 24 23 31
0.422349 -0.374474 -0.426 25 25 33
0.425993 -0.357772 -0.407 23 22 28
0.437863 -0.348103 -0.396 25 24 29
0.440905 -0.346345 -0.394 20 21 26
0.470398 -0.349861 -0.398 30 29 37
0.476235 -0.352498 -0.401 35 32 41
0.816227 -0.486992 -0.554 191 193 180
0.931363 -0.494904 -0.563 190 192 178
0.0153057 -0.429024 -0.487 197 154 120
0.0227733 -0.429905 -0.488 194 149 116
0.0388124 -0.432548 -0.491 191 146 117
0.053379 -0.436952 -0.496 177 133 108
0.06384 -0.444 -0.504 165 118 98
0.0671171 -0.446643 -0.507 151 113 94
0.0704286 -0.449286 -0.51 136 103 84
0.0726552 -0.451048 -0.512 126 95 77
0.0967057 -0.478357 -0.543 90 72 68
0.113463 -0.479238 -0.544 162 158 159
0.115535 -0.479238 -0.544 164 160 161
0.122337 -0.477476 -0.542 187 186 184
0.128294 -0.476595 -0.541 194 192 195
0.129325 -0.476595 -0.541 195 193 196
0.159503 -0.477476 -0.542 200 195 199
0.163632 -0.477476 -0.542 196 194 199
0.193929 -0.478357 -0.543 204 202 205
0.217481 -0.480119 -0.545 198 196 201
0.227862 -0.480119 -0.545 195 193 198
0.233052 -0.480119 -0.545 194 192 197
0.273 -0.481 -0.546 181 179 184
0.27612 -0.481 -0.546 182 180 185
0.288087 -0.481881 -0.547 179 177 182
0.300095 -0.482762 -0.548 178 173 179
0.303227 -0.482762 -0.548 178 173 179
0.324694 -0.483643 -0.549 171 169 172
0.330969 -0.483643 -0.549 171 169 172
0.34038 -0.483643 -0.549 170 169 174
0.342048 -0.484524 -0.55 170 170 172
0.350016 -0.485405 -0.551 170 167 174
0.368238 -0.484524 -0.55 168 166 171
0.381163 -0.483643 -0.549 168 168 170
0.408351 -0.483643 -0.549 168 166 167
0.410443 -0.483643 -0.549 165 163 166
0.419571 -0.484524 -0.55 170 164 164
0.419854 -0.483643 -0.549 163 162 167
0.426905 -0.484524 -0.55 165 163 166
0.431357 -0.483643 -0.549 161 159 162
0.452048 -0.484524 -0.55 161 158 165
0.454143 -0.484524 -0.55 153 152 160
0.459381 -0.484524 -0.55 152 153 157
0.509417 -0.486286 -0.552 116 114 115
0.510469 -0.486286 -0.552 112 109 116
0.422701 -0.377048 -0.428 26 26 34
0.424443 -0.358548 -0.407 20 19 25
0.424947 -0.357667 -0.406 20 19 25
0.43117 -0.353262 -0.401 22 21 27
0.435188 -0.349738 -0.397 22 23 28
0.439014 -0.347976 -0.395 19 20 24
0.44278 -0.346214 -0.393 18 19 24
0.443529 -0.346214 -0.393 19 20 25
0.449517 -0.346214 -0.393 24 25 30
0.451763 -0.346214 -0.393 29 30 35
0.471156 -0.350619 -0.398 32 31 39
0.802509 -0.488048 -0.554 173 173 165
0.807785 -0.488048 -0.554 175 175 167
0.826779 -0.488048 -0.554 182 184 173
0.827834 -0.488048 -0.554 183 185 174
0.84565 -0.48981 -0.556 170 172 159
0.850945 -0.48981 -0.556 171 172 164
0.854122 -0.48981 -0.556 173 174 166
0.874755 -0.49069 -0.557 178 178 166
0.884285 -0.492452 -0.559 179 179 167
0.883766 -0.491571 -0.558 178 180 167
0.908843 -0.495976 -0.563 179 179 169
0.00139143 -0.429951 -0.487 187 148 119
0.00416571 -0.429069 -0.486 193 152 122
0.0396667 -0.4326 -0.49 189 144 113
0.048361 -0.435249 -0.493 184 140 115
0.0954952 -0.478509 -0.542 86 71 68
0.10452 -0.48204 -0.546 91 89 94
0.117824 -0.481157 -0.545 140 138 141
0.134726 -0.478509 -0.542 181 177 178
0.137823 -0.478509 -0.542 180 178 181
0.138855 -0.478509 -0.542 181 179 182
0.15491 -0.480274 -0.544 178 176 181
0.164236 -0.480274 -0.544 174 172 175
0.168071 -0.479391 -0.543 174 172 175
0.171174 -0.479391 -0.543 176 171 177
0.174277 -0.479391 -0.543 173 168 174
0.197394 -0.480274 -0.544 182 181 186
0.25012 -0.48204 -0.546 164 162 167
0.25683 -0.482923 -0.547 162 160 165
0.268781 -0.483806 -0.548 156 153 160
0.327976 -0.486454 -0.551 141 139 142
0.331125 -0.486454 -0.551 138 136 139
0.338034 -0.487337 -0.552 136 135 140
0.34224 -0.487337 -0.552 136 135 141
0.343291 -0.487337 -0.552 136 135 140
0.350233 -0.48822 -0.553 134 133 141
0.364585 -0.489103 -0.554 135 133 136
0.375886 -0.487337 -0.552 133 132 138
0.384297 -0.487337 -0.552 132 133 137
0.391657 -0.487337 -0.552 132 131 137
0.408351 -0.484689 -0.549 132 130 133
0.416429 -0.485571 -0.55 133 134 139
0.422714 -0.485571 -0.55 133 128 132
0.423762 -0.485571 -0.55 134 129 133
0.426905 -0.485571 -0.55 128 129 134
0.445523 -0.486454 -0.551 125 123 128
0.448905 -0.485571 -0.55 130 128 131
0.449952 -0.485571 -0.55 129 127 130
0.453095 -0.485571 -0.55 125 125 133
0.465257 -0.487337 -0.552 122 119 126
0.490813 -0.496166 -0.562 91 90 96
0.494904 -0.497049 -0.563 88 87 95
0.424337 -0.393754 -0.446 21 20 28
0.422054 -0.378746 -0.429 23 22 30
0.421491 -0.365503 -0.414 22 22 30
0.435188 -0.350494 -0.397 22 23 28
0.43751 -0.348729 -0.395 20 21 25
0.808583 -0.490869 -0.556 148 147 143
0.813471 -0.489986 -0.555 155 156 150
0.827214 -0.489986 -0.555 162 163 155
0.833557 -0.489986 -0.555 166 168 155
0.8816 -0.4944 -0.56 154 154 144
0.882667 -0.4944 -0.56 155 155 145
0.960692 -0.491751 -0.557 171 171 159
0.963875 -0.491751 -0.557 169 169 157
0.991114 -0.492634 -0.558 172 173 165
1.00493 -0.492634 -0.558 156 157 152
1.00706 -0.492634 -0.558 180 181 173
1.00812 -0.492634 -0.558 180 181 173
1.00918 -0.492634 -0.558 177 178 172
-0.0101 -0.446805 -0.505 180 143 116
-0.00611619 -0.437072 -0.494 185 146 117
0.00968 -0.428225 -0.484 198 155 123
0.0171257 -0.429994 -0.486 194 151 119
0.0283505 -0.431764 -0.488 194 149 118
0.045359 -0.434418 -0.491 183 139 112
0.0596429 -0.443266 -0.501 169 122 102
0.0671171 -0.448574 -0.507 151 109 93
0.0929133 -0.476887 -0.539 84 69 64
0.101586 -0.483965 -0.547 57 55 60
0.108879 -0.483965 -0.547 91 86 90
0.118256 -0.483965 -0.547 110 108 111
0.122789 -0.481311 -0.544 146 144 145
0.128769 -0.480426 -0.543 153 151 154
0.129564 -0.479541 -0.542 153 151 154
0.13394 -0.480426 -0.543 150 148 151
0.134974 -0.480426 -0.543 149 147 150
0.15028 -0.48308 -0.546 146 144 149
0.15756 -0.48308 -0.546 141 140 145
0.167652 -0.482195 -0.545 134 132 137
0.181148 -0.482195 -0.545 126 123 130
0.18772 -0.48308 -0.546 122 119 126
0.208902 -0.483965 -0.547 154 152 157
0.209944 -0.483965 -0.547 155 153 158
0.217634 -0.48485 -0.548 151 148 155
0.229534 -0.485734 -0.549 146 141 148
0.2379 -0.485734 -0.549 138 135 142
0.238946 -0.485734 -0.549 137 134 141
0.243129 -0.485734 -0.549 134 133 138
0.244174 -0.485734 -0.549 133 132 137
0.247311 -0.485734 -0.549 133 131 136
0.261951 -0.485734 -0.549 127 127 129
0.265089 -0.485734 -0.549 126 125 130
0.277637 -0.485734 -0.549 121 118 125
0.311749 -0.488389 -0.552 109 107 112
0.332777 -0.488389 -0.552 102 100 105
0.339259 -0.490158 -0.554 100 99 105
0.350015 -0.491928 -0.556 101 100 106
0.35701 -0.492812 -0.557 99 96 103
0.387443 -0.491043 -0.555 97 96 101
0.425582 -0.487504 -0.551 95 94 99
0.431095 -0.486619 -0.55 94 92 97
0.441325 -0.487504 -0.551 95 94 100
0.453919 -0.487504 -0.551 93 90 97
0.458117 -0.487504 -0.551 91 90 96
0.475837 -0.492812 -0.557 87 88 92
0.486114 -0.499006 -0.564 59 58 64
0.502545 -0.502545 -0.568 59 59 67
0.42328 -0.392834 -0.444 24 23 31
0.421601 -0.386641 -0.437 24 23 31
0.420794 -0.37337 -0.422 22 21 29
0.42126 -0.365407 -0.413 18 18 26
0.436005 -0.349481 -0.395 21 22 27
0.438289 -0.347711 -0.393 20 21 26
0.439037 -0.347711 -0.393 20 21 26
0.45136 -0.346827 -0.392 29 30 35
0.807524 -0.491928 -0.556 111 110 106
0.810037 -0.492812 -0.557 112 111 107
0.817464 -0.492812 -0.557 122 123 118
0.818525 -0.492812 -0.557 123 124 119
0.840354 -0.491928 -0.556 140 142 131
0.953914 -0.493697 -0.558 146 148 137
0.9648 -0.495467 -0.56 141 141 131
0.966271 -0.494582 -0.559 139 139 127
0.983674 -0.493697 -0.558 152 153 147
1.00927 -0.496351 -0.561 124 124 122
-0.0110619 -0.447767 -0.505 181 144 118
0.00691429 -0.429147 -0.484 198 155 123
0.0087581 -0.429147 -0.484 198 155 123
0.02928 -0.432693 -0.488 193 148 119
0.0367914 -0.43358 -0.489 194 149 120
0.0462943 -0.435353 -0.491 182 136 112
0.0523286 -0.4389 -0.495 178 132 109
0.0575038 -0.442447 -0.499 171 124 104
0.12797 -0.482347 -0.544 104 104 106
0.129006 -0.482347 -0.544 102 101 106
0.146388 -0.485007 -0.547 105 103 108
0.150555 -0.485007 -0.547 105 104 110
0.163356 -0.485893 -0.548 102 99 106
0.168575 -0.485893 -0.548 99 96 103
0.175561 -0.485007 -0.547 99 96 103
0.179013 -0.485893 -0.548 100 97 104
0.18632 -0.485893 -0.548 98 95 104
0.211757 -0.48678 -0.549 108 107 112
0.225762 -0.487667 -0.55 103 100 109
0.231 -0.487667 -0.55 100 97 106
0.240866 -0.488553 -0.551 99 96 105
0.266537 -0.48944 -0.552 88 87 93
0.272846 -0.48944 -0.552 88 87 95
0.278103 -0.48944 -0.552 86 85 93
0.295471 -0.4921 -0.555 84 83 89
0.306085 -0.493873 -0.557 83 80 87
0.327304 -0.493873 -0.557 76 75 81
0.329426 -0.493873 -0.557 77 76 82
0.336852 -0.493873 -0.557 75 74 80
0.345515 -0.495647 -0.559 74 73 81
0.352533 -0.496533 -0.56 74 72 83
0.3664 -0.496533 -0.56 73 72 80
0.392726 -0.49476 -0.558 69 68 76
0.402968 -0.492987 -0.556 67 67 77
0.407529 -0.4921 -0.555 65 64 70
0.414789 -0.48944 -0.552 66 65 71
0.421097 -0.48944 -0.552 65 66 71
0.4232 -0.48944 -0.552 64 65 70
0.43083 -0.488553 -0.551 64 63 69
0.433978 -0.488553 -0.551 65 64 70
0.437127 -0.488553 -0.551 64 63 69
0.438176 -0.488553 -0.551 65 64 70
0.456018 -0.488553 -0.551 61 60 68
0.458117 -0.488553 -0.551 62 61 67
0.476267 -0.496533 -0.56 57 58 62
0.421731 -0.38836 -0.438 24 23 31
0.421237 -0.38038 -0.429 23 22 30
0.421537 -0.37772 -0.426 23 22 30
0.420574 -0.36974 -0.417 26 25 33
0.421025 -0.365307 -0.412 17 17 25
0.422633 -0.362647 -0.409 18 17 25
0.426701 -0.358213 -0.404 22 21 27
0.428879 -0.355553 -0.401 21 20 26
0.429643 -0.355553 -0.401 22 21 27
0.430977 -0.352893 -0.398 23 24 29
0.4345 -0.350233 -0.395 21 22 27
0.436791 -0.34846 -0.393 15 18 23
0.438667 -0.347573 -0.392 20 23 28
0.439413 -0.347573 -0.392 19 22 27
0.440527 -0.346687 -0.391 20 23 28
0.450953 -0.346687 -0.391 26 29 36
0.823593 -0.495647 -0.559 119 120 114
0.838683 -0.493873 -0.557 120 121 113
0.86086 -0.495647 -0.559 112 113 105
0.970387 -0.498307 -0.562 119 115 114
0.983509 -0.50008 -0.564 111 113 108
0.98362 -0.49742 -0.561 120 121 113
0.9936 -0.496533 -0.56 110 110 110
0.99858 -0.49742 -0.561 108 108 108
1.00464 -0.498307 -0.562 106 106 106
1.00571 -0.498307 -0.562 105 105 105
1.016 -0.496533 -0.56 112 112 112
1.02133 -0.496533 -0.56 106 106 106
-0.0140581 -0.452283 -0.509 177 141 119
-0.00702857 -0.437177 -0.492 188 146 121
-0.00513333 -0.4354 -0.49 188 147 119
0.0180143 -0.430957 -0.485 195 150 119
0.0376457 -0.433623 -0.488 191 146 117
0.0607181 -0.446063 -0.502 165 116 99
0.0705667 -0.45406 -0.511 136 97 82
0.0750429 -0.457614 -0.515 122 92 81
0.0915457 -0.477163 -0.537 85 69 69
0.100544 -0.486049 -0.547 50 44 48
0.124963 -0.487826 -0.549 88 86 91
0.12844 -0.48516 -0.546 88 87 92
0.144831 -0.487826 -0.549 95 94 100
0.250619 -0.492269 -0.554 85 84 92
0.259061 -0.492269 -0.554 84 83 91
0.262227 -0.492269 -0.554 84 83 91
0.263282 -0.492269 -0.554 84 83 91
0.286472 -0.494046 -0.556 78 78 88
0.291231 -0.494934 -0.557 78 77 85
0.306691 -0.499377 -0.562 75 75 83
0.310973 -0.499377 -0.562 77 76 84
0.318467 -0.499377 -0.562 73 72 80
0.318969 -0.498489 -0.561 72 71 79
0.337264 -0.500266 -0.563 70 69 77
0.36126 -0.50382 -0.567 69 69 79
0.378281 -0.502043 -0.565 67 65 76
0.404077 -0.496711 -0.559 62 60 73
0.41218 -0.494934 -0.557 60 60 70
0.433714 -0.490491 -0.552 55 55 63
0.450537 -0.490491 -0.552 55 55 65
0.488256 -0.505597 -0.569 46 46 54
0.495595 -0.510929 -0.575 46 46 54
0.520269 -0.495823 -0.558 44 44 54
0.432265 -0.406966 -0.458 26 24 35
0.419687 -0.36698 -0.413 21 21 29
0.42024 -0.366091 -0.412 21 21 29
0.420003 -0.365203 -0.411 17 17 25
0.420786 -0.365203 -0.411 23 23 31
0.4216 -0.362537 -0.408 21 20 28
0.423668 -0.361649 -0.407 20 19 27
0.428571 -0.355429 -0.4 24 23 28
0.43054 -0.35454 -0.399 25 24 30
0.433337 -0.351874 -0.396 19 20 25
0.440527 -0.347431 -0.391 22 25 32
0.4446 -0.346543 -0.39 25 28 35
0.468357 -0.350986 -0.395 30 30 38
0.815854 -0.498489 -0.561 101 101 101
0.819733 -0.4976 -0.56 101 103 100
0.831047 -0.496711 -0.559 118 118 110
0.841694 -0.496711 -0.559 117 118 110
0.857987 -0.499377 -0.562 120 121 115
0.859057 -0.499377 -0.562 120 123 116
0.861198 -0.499377 -0.562 120 123 116
0.870351 -0.498489 -0.561 117 120 113
0.987806 -0.501154 -0.564 106 108 107
0.98888 -0.501154 -0.564 105 106 108
1.01754 -0.502043 -0.565 100 100 100
-0.306552 -0.463048 -0.52 124 125 130
-0.288287 -0.463938 -0.521 126 127 132
-0.0149981 -0.452362 -0.508 177 142 122
0.00322667 -0.43099 -0.484 195 154 126
0.0310752 -0.433662 -0.487 195 150 121
0.066021 -0.450581 -0.506 152 106 91
0.106913 -0.492433 -0.553 47 44 51
0.110471 -0.494214 -0.555 59 56 63
0.118721 -0.497776 -0.559 81 78 85
0.140905 -0.489762 -0.55 89 88 94
0.150371 -0.493324 -0.554 93 92 98
0.154592 -0.493324 -0.554 91 90 96
0.157758 -0.493324 -0.554 94 93 99
0.161979 -0.493324 -0.554 92 91 99
0.174642 -0.493324 -0.554 93 92 98
0.177487 -0.492433 -0.553 93 90 97
0.191526 -0.493324 -0.554 91 90 98
0.195043 -0.494214 -0.555 89 88 96
0.205927 -0.492433 -0.553 89 88 96
0.213686 -0.493324 -0.554 86 85 91
0.216851 -0.493324 -0.554 86 85 91
0.22293 -0.495105 -0.556 86 85 93
0.242428 -0.495995 -0.557 85 83 94
0.24561 -0.495995 -0.557 82 80 91
0.248793 -0.495995 -0.557 80 80 88
0.276306 -0.497776 -0.559 79 78 86
0.325046 -0.50401 -0.566 70 69 75
0.359626 -0.510243 -0.573 66 65 73
0.3629 -0.510243 -0.573 66 66 74
0.367266 -0.510243 -0.573 64 64 72
0.377089 -0.510243 -0.573 62 62 70
0.382546 -0.510243 -0.573 63 63 71
0.385147 -0.509352 -0.572 62 62 72
0.385561 -0.508462 -0.571 61 61 71
0.418853 -0.495105 -0.556 58 58 66
0.431843 -0.494214 -0.555 52 52 60
0.442927 -0.492433 -0.553 53 53 63
0.45346 -0.492433 -0.553 49 49 59
0.470314 -0.496886 -0.558 47 47 55
0.427376 -0.401605 -0.451 24 22 33
0.426336 -0.399824 -0.449 25 23 34
0.421854 -0.364205 -0.409 27 26 34
0.421342 -0.362424 -0.407 20 19 27
0.423668 -0.362424 -0.407 20 19 27
0.428571 -0.35619 -0.4 23 22 27
0.43065 -0.353519 -0.397 24 23 29
0.437548 -0.348176 -0.391 24 27 34
0.439782 -0.348176 -0.391 23 26 33
0.441629 -0.347286 -0.39 24 27 34
0.443114 -0.347286 -0.39 23 26 33
0.452771 -0.347286 -0.39 25 25 33
0.467171 -0.350848 -0.394 29 29 37
0.878229 -0.502229 -0.564 118 121 114
-0.312703 -0.465823 -0.522 125 125 133
-0.310714 -0.465823 -0.522 124 124 132
-0.308726 -0.465823 -0.522 123 123 131
-0.304336 -0.466715 -0.523 119 122 127
-0.300351 -0.466715 -0.523 122 123 127
-0.290945 -0.467608 -0.524 123 126 133
-0.28188 -0.465823 -0.522 124 124 132
0.0170552 -0.431912 -0.484 192 149 117
0.0310752 -0.43459 -0.487 196 151 122
0.0395048 -0.435482 -0.488 186 140 114
0.04238 -0.436374 -0.489 187 141 117
0.0443333 -0.437267 -0.49 181 135 111
0.0617971 -0.448868 -0.503 158 111 95
0.0954952 -0.48367 -0.542 83 68 71
0.1073 -0.495271 -0.555 46 44 55
0.139567 -0.493487 -0.553 88 87 95
0.14193 -0.494379 -0.554 89 88 96
0.15252 -0.497949 -0.558 88 87 93
0.17771 -0.497056 -0.557 93 92 100
0.179831 -0.497056 -0.557 93 92 100
0.202837 -0.498841 -0.559 89 88 96
0.223068 -0.498841 -0.559 86 85 93
0.240533 -0.499733 -0.56 83 81 92
0.262334 -0.500626 -0.561 80 79 87
0.26554 -0.500626 -0.561 79 78 86
0.273507 -0.501518 -0.562 76 75 83
0.290079 -0.50241 -0.563 75 74 82
0.292743 -0.503303 -0.564 73 73 81
0.367333 -0.517581 -0.58 66 66 74
0.369543 -0.517581 -0.58 64 64 72
0.372857 -0.517581 -0.58 63 63 71
0.466289 -0.497056 -0.557 47 47 57
0.503601 -0.520258 -0.583 41 40 48
0.419455 -0.367661 -0.412 19 19 27
0.423129 -0.361414 -0.405 21 20 26
0.424392 -0.360522 -0.404 23 22 28
0.425162 -0.360522 -0.404 22 21 27
0.456911 -0.348921 -0.391 26 29 36
0.485519 -0.35963 -0.403 39 39 49
0.824204 -0.505088 -0.566 93 92 90
0.827052 -0.504195 -0.565 93 92 88
0.863643 -0.504195 -0.565 117 116 111
0.864719 -0.504195 -0.565 119 118 113
1.00659 -0.50955 -0.571 106 106 106
-0.3135 -0.4695 -0.525 104 107 116
-0.3105 -0.4695 -0.525 109 112 121
-0.295736 -0.473077 -0.529 95 97 109
-0.275386 -0.465923 -0.521 120 123 132
-0.00230952 -0.433729 -0.485 189 148 120
0.00596762 -0.431046 -0.482 194 153 123
0.0207429 -0.432834 -0.484 196 151 122
0.0273086 -0.434623 -0.486 194 151 119
0.0414486 -0.437306 -0.489 186 142 117
0.05538 -0.44446 -0.497 165 118 98
0.0575038 -0.446249 -0.499 166 117 100
0.0941143 -0.482914 -0.54 83 67 67
0.0967057 -0.485597 -0.543 74 59 62
0.104996 -0.495434 -0.554 35 32 43
0.125154 -0.504377 -0.564 37 36 44
0.127845 -0.498117 -0.557 71 70 76
0.157895 -0.502589 -0.562 81 80 88
0.166163 -0.501694 -0.561 78 78 88
0.176093 -0.502589 -0.562 74 73 81
0.180054 -0.501694 -0.561 72 70 81
0.19074 -0.501694 -0.561 67 65 76
0.204967 -0.499906 -0.559 89 88 96
0.207096 -0.499906 -0.559 88 87 95
0.233243 -0.503483 -0.563 81 79 92
0.248697 -0.504377 -0.564 75 75 85
0.25192 -0.504377 -0.564 74 74 84
0.254069 -0.504377 -0.564 77 77 87
0.298551 -0.510637 -0.571 59 59 69
0.310481 -0.516003 -0.577 61 61 71
0.313221 -0.516897 -0.578 59 59 69
0.433306 -0.501694 -0.561 42 42 54
0.45674 -0.498117 -0.557 42 42 52
0.533929 -0.514214 -0.575 31 31 43
0.426336 -0.401534 -0.449 26 26 38
0.41944 -0.382754 -0.428 24 23 31
0.419273 -0.38186 -0.427 25 24 32
0.428382 -0.355031 -0.397 26 27 32
0.43159 -0.349666 -0.391 21 25 28
0.434943 -0.348771 -0.39 21 25 28
0.436429 -0.348771 -0.39 21 24 29
0.450129 -0.347877 -0.389 25 25 33
0.467922 -0.352349 -0.394 25 25 33
0.48311 -0.358609 -0.401 36 36 46
0.832433 -0.505271 -0.565 121 120 116
0.836738 -0.505271 -0.565 119 118 113
0.843851 -0.504377 -0.564 118 119 114
0.86022 -0.50706 -0.567 109 110 104
0.863015 -0.506166 -0.566 107 106 101
0.86778 -0.50706 -0.567 109 108 103
0.87164 -0.506166 -0.566 121 122 116
0.889743 -0.509743 -0.57 120 121 115
-0.31328 -0.473189 -0.528 50 53 62
-0.310263 -0.473189 -0.528 58 61 70
-0.291706 -0.474085 -0.529 47 54 70
-0.262989 -0.467811 -0.522 42 42 52
-0.0157457 -0.448991 -0.501 183 142 120
-0.0137267 -0.445407 -0.497 181 140 118
-0.0117619 -0.442718 -0.494 185 145 120
-0.00601714 -0.435549 -0.486 190 148 123
0.00137714 -0.431964 -0.482 197 156 128
0.0226333 -0.434652 -0.485 196 152 123
0.0413638 -0.437341 -0.488 185 139 116
0.04238 -0.438237 -0.489 182 136 113
0.0443333 -0.439133 -0.49 181 135 112
0.0886667 -0.476773 -0.532 85 67 67
0.126042 -0.509036 -0.568 15 17 29
0.137147 -0.498282 -0.556 37 37 49
0.138454 -0.499178 -0.557 36 36 48
0.15822 -0.50814 -0.567 36 36 46
0.174881 -0.506348 -0.565 32 32 42
0.187795 -0.506348 -0.565 29 27 40
0.188871 -0.506348 -0.565 29 27 40
0.20965 -0.504555 -0.563 58 56 67
0.226939 -0.507244 -0.566 46 46 56
0.230173 -0.507244 -0.566 45 45 57
0.235564 -0.507244 -0.566 45 45 57
0.236642 -0.507244 -0.566 44 43 57
0.24138 -0.50814 -0.567 40 38 52
0.27886 -0.513517 -0.573 28 28 40
0.286405 -0.51531 -0.575 28 28 40
0.294071 -0.51531 -0.575 25 23 34
0.297357 -0.51531 -0.575 18 18 30
0.298971 -0.516206 -0.576 17 17 29
0.301689 -0.517102 -0.577 16 16 28
0.426479 -0.509932 -0.569 20 20 28
0.419533 -0.388947 -0.434 21 19 30
0.419391 -0.38805 -0.433 21 19 30
0.419103 -0.381777 -0.426 26 25 33
0.41875 -0.379985 -0.424 25 24 32
0.4188 -0.3764 -0.42 19 18 26
0.419455 -0.36923 -0.412 22 21 29
0.420296 -0.366542 -0.409 23 22 28
0.420823 -0.365646 -0.408 24 23 29
0.425824 -0.359372 -0.401 21 22 27
0.428481 -0.353995 -0.395 21 22 27
0.437532 -0.348618 -0.389 22 25 30
0.470614 -0.353995 -0.395 27 26 34
0.8322 -0.510829 -0.57 29 28 26
0.8343 -0.50814 -0.567 113 114 109
0.83646 -0.50814 -0.567 117 118 113
0.838219 -0.507244 -0.566 122 121 117
0.839297 -0.507244 -0.566 124 123 119
0.840375 -0.507244 -0.566 125 124 120
0.843195 -0.506348 -0.565 123 122 117
0.868229 -0.509036 -0.568 92 93 87
0.871474 -0.509036 -0.568 99 98 93
0.00229048 -0.431984 -0.481 196 155 127
0.00503905 -0.431984 -0.481 195 154 126
0.0216648 -0.434678 -0.484 196 152 123
0.0319371 -0.436474 -0.486 196 151 122
0.0584543 -0.44815 -0.499 158 113 94
0.0913752 -0.481379 -0.536 84 66 66
0.124969 -0.514609 -0.573 14 16 29
0.165571 -0.511914 -0.57 29 27 38
0.20755 -0.511016 -0.569 26 26 36
0.214002 -0.508322 -0.566 25 25 35
0.225974 -0.511016 -0.569 22 25 34
0.233971 -0.511914 -0.57 22 22 34
0.236143 -0.511914 -0.57 22 22 34
0.246346 -0.512812 -0.571 18 16 30
0.277029 -0.517303 -0.576 16 19 26
0.286191 -0.519997 -0.579 19 19 29
0.310859 -0.526284 -0.586 11 11 21
0.43146 -0.50922 -0.567 4 7 16
0.43254 -0.50922 -0.567 4 7 16
0.44274 -0.423003 -0.471 30 30 40
0.4221 -0.39606 -0.441 25 23 34
0.418943 -0.386181 -0.43 23 21 32
0.41875 -0.380792 -0.424 25 24 32
0.4188 -0.3772 -0.42 18 18 26
0.418601 -0.376302 -0.419 18 18 26
0.424296 -0.360136 -0.401 23 22 27
0.42506 -0.360136 -0.401 24 23 28
0.470924 -0.35385 -0.394 26 26 36
0.840099 -0.510118 -0.568 122 121 117
0.00778762 -0.4329 -0.481 194 150 121
0.0161 -0.4347 -0.483 197 153 124
0.0244305 -0.4356 -0.484 195 152 120
0.0281762 -0.4365 -0.485 194 151 119
0.0318714 -0.4365 -0.485 193 149 120
0.03564 -0.4374 -0.486 192 147 118
0.0531638 -0.4446 -0.494 170 124 101
0.0627552 -0.4527 -0.503 148 105 88
0.06384 -0.4536 -0.504 145 103 87
0.066021 -0.4554 -0.506 140 103 87
0.0861514 -0.4761 -0.529 90 69 68
0.1027 -0.4977 -0.553 14 11 30
0.122119 -0.5175 -0.575 13 12 28
0.164023 -0.5184 -0.576 27 25 36
0.16512 -0.5184 -0.576 26 26 36
0.172991 -0.5157 -0.573 28 28 38
0.179227 -0.5148 -0.572 25 25 35
0.182495 -0.5148 -0.572 25 25 35
0.197749 -0.5148 -0.572 27 27 39
0.205375 -0.5148 -0.572 25 25 37
0.2166 -0.513 -0.57 26 26 38
0.222418 -0.5139 -0.571 21 23 35
0.226076 -0.5148 -0.572 22 24 36
0.24108 -0.5166 -0.574 20 22 34
0.242173 -0.5166 -0.574 20 22 34
0.248071 -0.5175 -0.575 19 22 31
0.26542 -0.5193 -0.577 19 19 29
0.271385 -0.5202 -0.578 15 18 25
0.272486 -0.5202 -0.578 15 18 25
0.301414 -0.5265 -0.585 14 14 26
0.304162 -0.5274 -0.586 13 13 25
0.312981 -0.531 -0.59 13 13 25
0.357871 -0.5535 -0.615 9 9 19
0.362557 -0.5535 -0.615 11 11 21
0.380747 -0.5544 -0.616 13 13 21
0.38544 -0.5544 -0.616 13 13 23
0.38896 -0.5544 -0.616 13 13 23
0.393014 -0.5535 -0.615 11 14 23
0.408907 -0.5544 -0.616 12 12 22
0.417886 -0.3708 -0.412 20 20 28
0.418491 -0.3672 -0.408 20 20 28
0.422084 -0.3636 -0.404 21 20 25
0.424 -0.36 -0.4 24 23 28
0.42861 -0.3519 -0.391 23 24 29
0.441581 -0.3492 -0.388 19 19 27
0.444537 -0.3492 -0.388 22 22 30
0.445276 -0.3492 -0.388 21 21 29
0.453833 -0.3501 -0.389 20 20 28
0.47829 -0.3573 -0.397 28 28 38
0.839098 -0.5139 -0.571 62 62 60
0.884778 -0.5139 -0.571 95 98 91
-0.00137429 -0.433816 -0.481 180 136 107
0.000457143 -0.432914 -0.48 197 153 124
0.0032 -0.432914 -0.48 196 152 123
0.00685714 -0.432914 -0.48 194 150 121
0.00777143 -0.432914 -0.48 194 150 121
0.0105362 -0.433816 -0.481 194 151 119
0.0151486 -0.434718 -0.482 193 150 118
0.0207 -0.43562 -0.483 195 152 120
0.0521171 -0.444639 -0.493 169 125 100
0.154646 -0.524909 -0.582 32 32 44
0.156863 -0.524909 -0.582 30 28 41
0.165693 -0.521301 -0.578 25 25 37
0.182357 -0.518595 -0.575 24 24 34
0.183452 -0.518595 -0.575 24 24 34
0.19188 -0.517693 -0.574 25 25 37
0.194067 -0.517693 -0.574 26 26 38
0.208643 -0.518595 -0.575 23 25 37
0.227657 -0.519497 -0.576 21 23 35
0.245637 -0.520399 -0.577 19 21 33
0.25333 -0.520399 -0.577 17 19 31
0.257072 -0.521301 -0.578 17 20 29
0.26634 -0.522203 -0.579 14 17 26
0.271219 -0.523105 -0.58 15 18 25
0.29624 -0.53032 -0.588 19 19 29
0.30408 -0.53032 -0.588 13 13 25
0.316767 -0.536633 -0.595 12 12 24
0.330214 -0.543849 -0.603 14 14 26
0.335873 -0.547456 -0.607 15 15 27
0.342742 -0.551064 -0.611 17 17 27
0.3485 -0.554671 -0.615 16 14 25
0.355483 -0.558279 -0.619 13 11 22
0.36018 -0.560083 -0.621 10 8 19
0.370229 -0.559181 -0.62 10 10 18
0.390305 -0.559181 -0.62 12 12 20
0.403295 -0.559181 -0.62 12 12 22
0.410381 -0.559181 -0.62 11 11 21
0.414591 -0.560083 -0.621 12 12 22
0.41814 -0.560083 -0.621 11 11 21
0.427405 -0.558279 -0.619 11 11 21
0.430942 -0.558279 -0.619 12 12 22
0.441302 -0.556475 -0.617 12 12 22
0.420769 -0.394132 -0.437 18 17 25
0.419533 -0.391427 -0.434 21 20 28
0.417767 -0.37429 -0.415 22 21 29
0.420814 -0.365271 -0.405 21 22 27
0.42896 -0.353547 -0.392 19 22 27
0.432346 -0.350841 -0.389 19 22 27
0.441917 -0.349037 -0.387 22 22 30
0.457538 -0.350841 -0.389 19 22 29
0.46898 -0.354449 -0.393 20 20 30
0.475129 -0.356252 -0.395 22 25 32
0.475881 -0.356252 -0.395 23 26 33
0.842361 -0.514988 -0.571 122 124 119
0.856086 -0.514086 -0.57 95 94 90
0.863448 -0.51589 -0.572 105 104 99
0.868895 -0.51589 -0.572 94 93 89
0.880428 -0.514988 -0.571 103 105 100
0.894262 -0.518595 -0.575 101 100 95
-0.0135057 -0.441963 -0.489 183 142 114
-0.00137143 -0.433829 -0.48 185 141 112
0.00411429 -0.433829 -0.48 194 151 119
0.00685714 -0.433829 -0.48 194 151 119
0.00868571 -0.433829 -0.48 193 150 118
0.0253524 -0.437444 -0.484 195 151 122
0.0346429 -0.438348 -0.485 186 145 115
0.0511781 -0.445578 -0.493 169 127 102
0.0888333 -0.48173 -0.533 85 67 67
0.107583 -0.507941 -0.562 11 10 26
0.155177 -0.527825 -0.584 32 31 45
0.163514 -0.526017 -0.582 24 24 36
0.177496 -0.521498 -0.577 25 27 39
0.191451 -0.520594 -0.576 22 24 36
0.198034 -0.520594 -0.576 23 25 37
0.209006 -0.520594 -0.576 22 26 37
0.210103 -0.520594 -0.576 22 26 37
0.212297 -0.520594 -0.576 22 26 37
0.217405 -0.51969 -0.575 21 24 33
0.239043 -0.521498 -0.577 19 21 33
0.240142 -0.521498 -0.577 18 20 32
0.2668 -0.52421 -0.58 14 17 26
0.281989 -0.527825 -0.584 17 17 25
0.308925 -0.535959 -0.593 11 11 23
0.317831 -0.539574 -0.597 10 12 24
0.32508 -0.544093 -0.602 10 13 22
0.326769 -0.544997 -0.603 11 14 23
0.345547 -0.556747 -0.616 16 16 26
0.369025 -0.567592 -0.628 9 8 16
0.373811 -0.565785 -0.626 10 10 18
0.383929 -0.564881 -0.625 10 10 18
0.393452 -0.564881 -0.625 11 11 19
0.402976 -0.564881 -0.625 11 11 19
0.409463 -0.563977 -0.624 12 12 20
0.424405 -0.564881 -0.625 11 11 21
0.444163 -0.561266 -0.621 10 13 20
0.430219 -0.41033 -0.454 25 24 32
0.4221 -0.39858 -0.441 23 21 32
0.417647 -0.385927 -0.427 20 19 27
0.41748 -0.385023 -0.426 20 19 27
0.417943 -0.383215 -0.424 18 21 28
0.417803 -0.378696 -0.419 22 21 29
0.421241 -0.362428 -0.401 23 24 29
0.4237 -0.36062 -0.399 24 25 30
0.42672 -0.354293 -0.392 24 25 30
0.431973 -0.350678 -0.388 19 22 27
0.433451 -0.350678 -0.388 17 20 27
0.441917 -0.349774 -0.387 21 21 29
0.444866 -0.349774 -0.387 20 20 28
0.445603 -0.349774 -0.387 18 18 26
0.447077 -0.349774 -0.387 19 19 27
0.447814 -0.349774 -0.387 19 19 27
0.458279 -0.351582 -0.389 16 19 26
0.45902 -0.351582 -0.389 16 19 28
0.855 -0.515171 -0.57 95 94 89
0.861269 -0.516979 -0.572 102 103 97
0.864957 -0.517883 -0.573 99 100 95
0.87412 -0.518787 -0.574 99 100 95
0.0096 -0.434743 -0.48 190 147 113
0.0123686 -0.435649 -0.481 184 145 112
0.0160667 -0.436554 -0.482 189 148 116
0.01886 -0.43746 -0.483 193 149 120
0.02162 -0.43746 -0.483 195 152 120
0.0422067 -0.441083 -0.487 176 135 107
0.0450819 -0.441989 -0.488 173 132 104
0.066021 -0.458291 -0.506 133 97 83
0.0682171 -0.460103 -0.508 124 90 78
0.195081 -0.522597 -0.577 22 24 36
0.204972 -0.522597 -0.577 21 24 33
0.20717 -0.522597 -0.577 21 24 33
0.219977 -0.521691 -0.576 22 25 34
0.233548 -0.522597 -0.577 19 23 34
0.240558 -0.523503 -0.578 18 22 33
0.241659 -0.523503 -0.578 18 22 33
0.321106 -0.544334 -0.601 10 13 22
0.334595 -0.553391 -0.611 12 12 22
0.3403 -0.557014 -0.615 12 12 22
0.34605 -0.560637 -0.619 14 14 24
0.365934 -0.573317 -0.633 9 9 17
0.379201 -0.571506 -0.631 10 10 18
0.380403 -0.571506 -0.631 10 10 18
0.3954 -0.5706 -0.63 10 10 18
0.440796 -0.568789 -0.628 9 12 17
0.453954 -0.568789 -0.628 10 13 20
0.470368 -0.574223 -0.634 11 11 21
0.42624 -0.40576 -0.448 23 21 32
0.424233 -0.403043 -0.445 27 25 36
0.418275 -0.390363 -0.431 20 19 27
0.41731 -0.384929 -0.425 22 22 30
0.41676 -0.374966 -0.414 21 20 28
0.416871 -0.372249 -0.411 21 20 28
0.417419 -0.371343 -0.41 21 20 28
0.419006 -0.365909 -0.404 23 24 29
0.420545 -0.365909 -0.404 23 24 28
0.420271 -0.365003 -0.403 19 22 27
0.42076 -0.364097 -0.402 22 23 28
0.420952 -0.362286 -0.4 24 25 30
0.421714 -0.362286 -0.4 22 25 30
0.445187 -0.349606 -0.386 16 16 24
0.457538 -0.352323 -0.389 15 18 27
0.845693 -0.51988 -0.574 121 121 119
0.847799 -0.517163 -0.571 107 108 103
0.860179 -0.518069 -0.572 50 51 45
0.88088 -0.518069 -0.572 107 109 104
-0.0143781 -0.44201 -0.487 186 145 117
0.00410571 -0.43475 -0.479 194 151 117
0.0123429 -0.435657 -0.48 189 146 114
0.0179029 -0.437472 -0.482 192 151 121
0.0402686 -0.441103 -0.486 180 136 109
0.0682171 -0.46107 -0.508 122 90 79
0.0863143 -0.481038 -0.53 82 66 66
0.0981 -0.494652 -0.545 14 13 29
0.154 -0.53368 -0.588 27 26 40
0.183626 -0.525511 -0.579 22 26 37
0.188813 -0.524604 -0.578 22 26 37
0.220359 -0.523696 -0.577 22 25 34
0.232449 -0.523696 -0.577 20 22 34
0.237255 -0.524604 -0.578 19 21 33
0.244705 -0.526419 -0.58 18 20 32
0.24581 -0.526419 -0.58 17 19 31
0.250229 -0.526419 -0.58 18 20 32
0.252873 -0.527327 -0.581 17 20 29
0.275314 -0.53005 -0.584 15 18 27
0.293745 -0.53731 -0.592 16 19 28
0.307082 -0.540941 -0.596 15 15 27
0.317671 -0.545479 -0.601 11 11 21
0.328936 -0.550925 -0.607 9 12 19
0.341407 -0.560001 -0.617 10 13 22
0.370673 -0.578153 -0.637 7 7 17
0.3731 -0.578153 -0.637 7 7 17
0.37674 -0.578153 -0.637 9 9 17
0.396077 -0.574523 -0.633 9 12 19
0.4009 -0.574523 -0.633 11 11 19
0.40934 -0.574523 -0.633 11 11 19
0.411101 -0.573615 -0.632 11 11 19
0.461186 -0.574523 -0.633 10 13 20
0.465062 -0.576338 -0.635 10 13 20
0.475294 -0.579969 -0.639 10 13 20
0.476511 -0.579969 -0.639 9 12 21
0.417579 -0.383015 -0.422 21 21 29
0.416806 -0.379385 -0.418 18 18 26
0.416976 -0.376662 -0.415 21 20 28
0.417213 -0.368493 -0.406 19 20 25
0.419504 -0.36577 -0.403 23 24 28
0.425563 -0.356694 -0.393 24 25 30
0.428278 -0.352156 -0.388 22 25 30
0.43602 -0.351249 -0.387 16 19 24
0.460502 -0.353064 -0.389 15 15 25
0.462725 -0.353064 -0.389 14 14 24
0.850373 -0.519158 -0.572 103 102 98
0.853237 -0.51825 -0.571 98 99 94
0.855412 -0.51825 -0.571 92 93 87
0.866467 -0.520973 -0.574 101 101 99
0.868653 -0.520973 -0.574 103 103 101
0.881329 -0.520066 -0.573 117 118 113
0.883511 -0.520066 -0.573 102 104 99
0.888333 -0.520973 -0.574 30 33 26
-0.01058 -0.4393 -0.483 186 145 113
-0.0050181 -0.435662 -0.479 193 153 118
0.0059181 -0.434752 -0.478 195 152 117
0.00866762 -0.435662 -0.479 193 150 115
0.03082 -0.4393 -0.483 187 143 114
0.0682171 -0.462038 -0.508 120 91 77
0.157895 -0.536619 -0.59 24 26 39
0.1677 -0.532071 -0.585 20 22 35
0.176513 -0.528433 -0.581 21 25 36
0.194654 -0.526614 -0.579 20 24 33
0.197621 -0.525705 -0.578 20 24 33
0.248019 -0.527524 -0.58 17 19 31
0.30646 -0.542986 -0.597 17 17 29
0.319877 -0.548443 -0.603 9 9 19
0.333977 -0.556629 -0.612 9 12 19
0.337957 -0.559357 -0.615 9 12 21
0.355235 -0.57209 -0.629 10 13 20
0.359337 -0.574819 -0.632 12 12 20
0.373001 -0.583005 -0.641 4 7 16
0.388873 -0.579367 -0.637 7 10 17
0.399166 -0.578457 -0.636 8 11 18
0.4028 -0.578457 -0.636 8 11 18
0.408214 -0.577548 -0.635 11 11 19
0.439143 -0.578457 -0.636 8 11 18
0.449838 -0.576638 -0.634 9 9 17
0.48024 -0.585733 -0.644 9 12 21
0.42624 -0.407467 -0.448 20 18 29
0.418275 -0.392005 -0.431 23 22 28
0.417647 -0.388367 -0.427 23 22 30
0.421576 -0.361081 -0.397 21 22 26
0.42448 -0.356533 -0.392 22 25 30
