ply
format ascii 1.0
comment Created by Open3D
element vertex 1285
property double x
property double y
property double z
property uchar red
property uchar green
property uchar blue
end_header
-0.152041 -0.191704 -0.631 184 184 176
-0.14867 -0.192008 -0.632 184 185 179
-0.146494 -0.192311 -0.633 185 186 180
-0.142343 -0.193223 -0.636 188 188 178
-0.14036 -0.19383 -0.638 189 189 179
-0.137143 -0.194438 -0.64 190 190 180
-0.132071 -0.195957 -0.645 193 190 181
-0.308771 -0.196269 -0.642 254 255 250
-0.289206 -0.196269 -0.642 254 255 250
-0.284855 -0.197491 -0.646 253 254 248
-0.164014 -0.197186 -0.645 179 178 173
-0.162281 -0.196574 -0.643 179 180 174
-0.146494 -0.193517 -0.633 186 187 179
-0.14036 -0.195046 -0.638 189 189 179
-0.311953 -0.197184 -0.641 253 255 249
-0.294983 -0.195646 -0.636 255 255 251
-0.289071 -0.196569 -0.639 255 255 251
-0.285537 -0.197491 -0.642 251 254 247
-0.283973 -0.198107 -0.644 253 254 248
-0.162489 -0.196569 -0.639 179 180 174
-0.155893 -0.194415 -0.632 182 183 177
-0.153 -0.1938 -0.63 182 183 175
-0.14867 -0.194415 -0.632 184 185 177
-0.143554 -0.195646 -0.636 186 188 177
-0.132276 -0.198722 -0.646 189 189 177
-0.319309 -0.199952 -0.646 251 252 246
-0.29089 -0.196548 -0.635 251 253 248
-0.285092 -0.198405 -0.641 249 252 245
-0.280293 -0.199333 -0.644 251 254 247
-0.154445 -0.19531 -0.631 182 183 175
-0.152041 -0.19531 -0.631 183 184 176
-0.1477 -0.195929 -0.633 186 187 179
-0.145748 -0.196548 -0.635 187 188 180
-0.138578 -0.198405 -0.641 189 189 177
-0.134529 -0.199643 -0.645 190 190 178
-0.317826 -0.200249 -0.643 253 254 248
-0.308547 -0.197446 -0.634 251 254 247
-0.302509 -0.197446 -0.634 211 213 208
-0.300093 -0.197446 -0.634 189 190 185
-0.29089 -0.197757 -0.635 213 213 211
-0.28542 -0.199003 -0.639 252 253 248
-0.283429 -0.199314 -0.64 253 254 248
-0.280646 -0.199937 -0.642 252 253 247
-0.277043 -0.200871 -0.645 252 253 247
-0.152041 -0.196511 -0.631 184 185 177
-0.1477 -0.197134 -0.633 186 187 179
-0.146726 -0.197446 -0.634 187 188 180
-0.137571 -0.199937 -0.642 190 190 180
-0.136561 -0.200249 -0.643 189 189 179
-0.30806 -0.19834 -0.633 239 241 236
-0.293591 -0.19834 -0.633 140 140 138
-0.292386 -0.19834 -0.633 139 139 137
-0.279423 -0.20116 -0.642 251 252 246
-0.275052 -0.203353 -0.649 251 252 246
-0.15805 -0.197713 -0.631 181 182 176
-0.142019 -0.200533 -0.64 187 189 178
-0.131654 -0.203353 -0.649 191 189 177
-0.130619 -0.203667 -0.65 190 188 176
-0.303481 -0.198915 -0.631 146 148 145
-0.299147 -0.19923 -0.632 141 141 139
-0.292386 -0.199546 -0.633 134 134 132
-0.279771 -0.201752 -0.64 252 253 248
-0.278988 -0.202068 -0.641 252 253 248
-0.276184 -0.202698 -0.643 251 252 247
-0.162169 -0.199546 -0.633 182 181 176
-0.137786 -0.202698 -0.643 188 188 176
-0.135757 -0.203329 -0.645 188 188 176
-0.13392 -0.204274 -0.648 189 189 177
-0.295535 -0.200434 -0.632 137 137 135
-0.144231 -0.202654 -0.639 187 189 178
-0.143238 -0.202971 -0.64 187 189 178
-0.039 -0.206143 -0.65 81 79 90
-0.324453 -0.205467 -0.644 249 250 242
-0.322223 -0.204829 -0.642 252 253 245
-0.30949 -0.201319 -0.631 165 167 164
-0.304683 -0.201319 -0.631 148 150 147
-0.296739 -0.201638 -0.632 137 137 135
-0.2821 -0.203233 -0.637 237 238 233
-0.156351 -0.200681 -0.629 184 184 176
-0.151078 -0.201638 -0.632 185 185 177
-0.144231 -0.203871 -0.639 187 189 178
-0.142241 -0.20451 -0.641 187 189 178
-0.133095 -0.207381 -0.65 186 186 174
-0.3185 -0.204447 -0.637 252 255 246
-0.310692 -0.202521 -0.631 160 163 152
-0.304683 -0.202521 -0.631 152 154 151
-0.27174 -0.207656 -0.647 252 253 248
-0.1484 -0.204126 -0.636 186 186 176
-0.139227 -0.206693 -0.644 187 187 177
-0.330171 -0.209211 -0.648 252 253 245
-0.3175 -0.205014 -0.635 254 255 250
-0.3102 -0.2034 -0.63 151 154 145
-0.152282 -0.204046 -0.632 184 184 174
-0.136599 -0.209534 -0.649 187 187 175
-0.328643 -0.209471 -0.645 252 253 247
-0.325384 -0.208172 -0.641 251 254 245
-0.303 -0.2046 -0.63 150 152 151
-0.281657 -0.206549 -0.636 144 143 141
-0.16406 -0.204925 -0.631 183 183 175
-0.1626 -0.2046 -0.63 184 184 176
-0.161144 -0.204275 -0.629 183 183 175
-0.156351 -0.204275 -0.629 184 184 176
-0.149611 -0.206549 -0.636 186 186 176
-0.146666 -0.207523 -0.639 187 187 177
-0.145676 -0.207848 -0.64 187 187 177
-0.0424514 -0.209796 -0.646 73 70 79
-0.330383 -0.211027 -0.646 252 253 245
-0.314298 -0.206127 -0.631 211 214 207
-0.30851 -0.205473 -0.629 150 150 150
-0.273676 -0.209067 -0.64 252 253 248
-0.2709 -0.2107 -0.645 252 253 248
-0.15755 -0.205473 -0.629 184 184 176
-0.045121 -0.212007 -0.649 72 69 78
-0.0437495 -0.211353 -0.647 71 68 77
-0.0362429 -0.2107 -0.645 83 80 91
-0.308019 -0.206343 -0.628 148 148 148
-0.304915 -0.206671 -0.629 148 148 148
-0.277247 -0.2093 -0.637 253 252 250
-0.167255 -0.208314 -0.634 182 182 172
-0.144909 -0.210943 -0.642 187 187 175
-0.0409019 -0.210614 -0.641 77 74 83
-0.0397429 -0.210943 -0.642 77 74 85
-0.0362429 -0.211929 -0.645 82 79 90
-0.316702 -0.20853 -0.631 249 252 245
-0.315 -0.2082 -0.63 215 218 211
-0.309708 -0.20787 -0.629 140 143 136
-0.276467 -0.210844 -0.638 255 255 253
-0.272883 -0.211835 -0.641 252 253 248
-0.272086 -0.212166 -0.642 252 253 248
-0.151795 -0.209852 -0.635 186 186 176
-0.139875 -0.213818 -0.647 185 185 173
-0.0434114 -0.212166 -0.642 73 70 79
-0.03852 -0.212166 -0.642 79 76 87
-0.3145 -0.209068 -0.629 202 205 198
-0.272883 -0.213056 -0.641 252 253 248
-0.165262 -0.209732 -0.631 184 184 174
-0.15106 -0.211727 -0.637 187 187 175
-0.143129 -0.214386 -0.645 186 187 173
-0.139071 -0.215715 -0.649 187 185 172
-0.332844 -0.215949 -0.646 251 254 247
-0.326803 -0.213609 -0.639 251 254 247
-0.311608 -0.209931 -0.628 142 145 138
-0.166464 -0.210934 -0.631 184 184 174
-0.155647 -0.210934 -0.631 186 186 176
-0.0432086 -0.213609 -0.639 73 70 81
-0.0407105 -0.213274 -0.638 76 73 84
-0.326291 -0.21449 -0.638 251 254 247
-0.271662 -0.215498 -0.641 252 253 248
-0.268043 -0.217515 -0.647 252 253 248
-0.155647 -0.212136 -0.631 186 186 176
-0.153971 -0.213145 -0.634 186 186 176
-0.152273 -0.214153 -0.637 187 187 177
-0.151297 -0.21449 -0.638 187 187 175
-0.14536 -0.216507 -0.644 190 187 178
-0.140091 -0.217851 -0.648 185 183 171
-0.036299 -0.217179 -0.646 81 77 91
-0.32578 -0.215367 -0.637 251 254 247
-0.3135 -0.211986 -0.627 185 188 181
-0.155179 -0.214352 -0.634 187 187 177
-0.149333 -0.216381 -0.64 186 186 174
-0.146359 -0.217395 -0.643 185 185 173
-0.14536 -0.217733 -0.644 186 186 174
-0.144357 -0.218071 -0.645 187 187 175
-0.04186 -0.215367 -0.637 73 70 81
-0.0352314 -0.219424 -0.649 82 78 92
-0.331298 -0.21862 -0.643 251 252 247
-0.316392 -0.21352 -0.628 254 255 251
-0.275251 -0.21692 -0.638 252 253 248
-0.272457 -0.2176 -0.64 252 253 248
-0.269253 -0.21896 -0.644 252 253 248
-0.160888 -0.21352 -0.628 185 186 178
-0.15614 -0.21522 -0.633 187 187 177
-0.154214 -0.2159 -0.635 188 188 178
-0.149333 -0.2176 -0.64 187 187 175
-0.146359 -0.21862 -0.643 187 187 175
-0.144581 -0.21964 -0.646 186 186 174
-0.14256 -0.22032 -0.648 187 187 175
-0.0374133 -0.21896 -0.644 78 75 86
-0.036299 -0.21964 -0.646 79 76 87
-0.0352314 -0.22066 -0.649 82 78 92
-0.334074 -0.22087 -0.646 251 252 247
-0.328533 -0.218819 -0.64 251 252 247
-0.310615 -0.214032 -0.626 139 144 137
-0.273676 -0.218819 -0.64 252 253 248
-0.162342 -0.215058 -0.629 187 187 177
-0.160888 -0.214716 -0.628 186 187 179
-0.153487 -0.217793 -0.637 187 187 177
-0.03852 -0.219503 -0.642 78 75 86
-0.0374133 -0.220187 -0.644 79 76 87
-0.338619 -0.223476 -0.65 252 253 247
-0.333557 -0.221757 -0.645 252 253 248
-0.322019 -0.217288 -0.632 252 253 248
-0.274036 -0.21935 -0.638 252 253 248
-0.270863 -0.220726 -0.642 252 253 248
-0.27006 -0.22107 -0.643 252 253 248
-0.269253 -0.221413 -0.644 252 253 248
-0.162342 -0.216256 -0.629 187 187 177
-0.157097 -0.217288 -0.632 188 188 178
-0.153487 -0.219007 -0.637 188 188 178
-0.0536914 -0.222789 -0.648 69 67 78
-0.03852 -0.220726 -0.642 78 75 86
-0.330783 -0.221949 -0.642 253 254 249
-0.316392 -0.217109 -0.628 252 255 250
-0.3135 -0.216763 -0.627 221 224 217
-0.2756 -0.219874 -0.636 255 255 251
-0.1578 -0.2178 -0.63 188 188 178
-0.155424 -0.219529 -0.635 188 188 176
-0.14278 -0.224369 -0.649 187 185 172
-0.141762 -0.224714 -0.65 185 183 170
-0.0503533 -0.22022 -0.637 65 65 77
-0.04642 -0.218837 -0.633 70 69 77
-0.322019 -0.219695 -0.632 251 254 247
-0.162342 -0.218652 -0.629 189 189 179
-0.159691 -0.218305 -0.628 189 189 177
-0.153728 -0.221781 -0.638 188 188 176
-0.151023 -0.223171 -0.642 189 189 177
-0.0544171 -0.223171 -0.642 69 66 77
-0.0417286 -0.220738 -0.635 75 73 84
-0.03852 -0.223171 -0.642 76 74 85
-0.324757 -0.221948 -0.635 250 253 246
-0.309423 -0.218802 -0.626 166 169 162
-0.275251 -0.222996 -0.638 252 253 248
-0.27048 -0.225093 -0.644 253 254 249
-0.151023 -0.224394 -0.642 191 189 177
-0.147042 -0.225792 -0.646 192 190 177
-0.141762 -0.22719 -0.65 184 182 170
-0.05704 -0.225093 -0.644 71 68 77
-0.0513238 -0.221598 -0.634 67 65 76
-0.0407105 -0.222996 -0.638 76 74 85
-0.338619 -0.228429 -0.65 252 253 248
-0.336343 -0.227726 -0.648 251 252 247
-0.325269 -0.223509 -0.636 251 253 248
-0.322019 -0.222103 -0.632 252 254 249
-0.314694 -0.220346 -0.627 249 251 246
-0.307038 -0.219994 -0.626 154 159 152
-0.302751 -0.220346 -0.627 119 121 118
-0.271285 -0.225969 -0.643 251 252 246
-0.168463 -0.222806 -0.634 187 187 177
-0.1626 -0.2214 -0.63 191 189 177
-0.15299 -0.224914 -0.64 189 189 177
-0.14278 -0.228077 -0.649 183 183 171
-0.0511619 -0.222103 -0.632 68 68 78
-0.049879 -0.221751 -0.631 68 67 75
-0.0462 -0.2214 -0.63 70 68 79
-0.03858 -0.225969 -0.643 76 74 87
-0.322529 -0.22366 -0.633 251 253 248
-0.306334 -0.22154 -0.627 146 148 143
-0.278795 -0.224367 -0.635 255 255 251
-0.278023 -0.22472 -0.636 254 253 249
-0.275251 -0.225427 -0.638 253 254 248
-0.172079 -0.227193 -0.643 186 186 176
-0.159946 -0.222247 -0.629 190 188 176
-0.152009 -0.226487 -0.641 189 189 177
-0.150033 -0.227193 -0.643 190 190 178
-0.145029 -0.22896 -0.648 184 184 174
-0.0624276 -0.229313 -0.649 63 60 67
-0.0578143 -0.22578 -0.639 68 66 79
-0.0562429 -0.224367 -0.635 67 65 78
-0.0522829 -0.222953 -0.631 65 65 77
-0.0473248 -0.222247 -0.629 70 68 79
-0.043939 -0.223307 -0.632 73 71 82
-0.0406467 -0.225073 -0.637 76 74 85
-0.03864 -0.227547 -0.644 77 75 88
-0.0375295 -0.228253 -0.646 77 75 88
-0.0352314 -0.229313 -0.649 79 77 90
-0.331813 -0.228773 -0.644 251 253 248
-0.329047 -0.227708 -0.641 252 254 249
-0.323038 -0.225221 -0.634 252 255 248
-0.312306 -0.222734 -0.627 248 251 244
-0.30443 -0.22309 -0.628 152 154 149
-0.283187 -0.225221 -0.634 115 116 111
-0.279234 -0.225931 -0.636 254 253 249
-0.274104 -0.227708 -0.641 253 254 249
-0.271707 -0.228773 -0.644 255 255 251
-0.172347 -0.228773 -0.644 187 187 179
-0.149271 -0.229129 -0.645 189 189 177
-0.141762 -0.230905 -0.65 181 182 168
-0.140524 -0.230905 -0.65 183 184 170
-0.0603429 -0.227352 -0.64 69 68 74
-0.0559771 -0.22451 -0.632 69 68 76
-0.0473248 -0.223445 -0.629 69 69 81
-0.0375295 -0.229484 -0.646 76 76 88
-0.307529 -0.223929 -0.627 251 254 247
-0.306823 -0.224286 -0.628 239 241 236
-0.281979 -0.226429 -0.634 137 137 135
-0.281214 -0.226786 -0.635 182 181 179
-0.155669 -0.227143 -0.636 192 190 178
-0.14727 -0.231071 -0.647 189 189 177
-0.144016 -0.231786 -0.649 184 185 171
-0.0661362 -0.231786 -0.649 66 65 73
-0.0532305 -0.224286 -0.628 69 67 78
-0.0496419 -0.224286 -0.628 70 70 80
-0.0451429 -0.225714 -0.632 71 71 81
-0.0375295 -0.230714 -0.646 76 76 88
-0.0364114 -0.231429 -0.648 77 77 89
-0.336143 -0.233381 -0.65 252 254 249
-0.309917 -0.225123 -0.627 251 253 248
-0.306823 -0.225482 -0.628 253 255 250
-0.298925 -0.225841 -0.629 182 184 181
-0.284394 -0.227636 -0.634 147 148 143
-0.278023 -0.228354 -0.636 246 245 243
-0.277247 -0.228713 -0.637 250 249 247
-0.276467 -0.229072 -0.638 255 254 252
-0.273309 -0.230509 -0.642 253 254 249
-0.271344 -0.233022 -0.649 254 255 250
-0.1626 -0.2262 -0.63 187 187 175
-0.157346 -0.227277 -0.633 193 191 179
-0.156387 -0.227636 -0.634 193 191 179
-0.154943 -0.229072 -0.638 193 191 179
-0.140524 -0.233381 -0.65 186 184 171
-0.0594943 -0.226559 -0.631 71 71 81
-0.0556229 -0.225482 -0.628 69 69 81
-0.0484457 -0.225482 -0.628 71 71 83
-0.039619 -0.22979 -0.64 77 77 87
-0.331613 -0.233175 -0.646 252 252 250
-0.300123 -0.227039 -0.629 250 252 247
-0.2982 -0.2274 -0.63 242 243 238
-0.2958 -0.2274 -0.63 239 239 237
-0.282424 -0.229205 -0.635 100 100 98
-0.146037 -0.233536 -0.647 188 188 176
-0.0580152 -0.226678 -0.628 67 67 79
-0.332127 -0.234769 -0.647 252 253 248
-0.327114 -0.232954 -0.642 252 253 248
-0.3145 -0.228237 -0.629 254 255 251
-0.29026 -0.228963 -0.631 254 255 253
-0.272933 -0.23368 -0.644 252 253 248
-0.1602 -0.2286 -0.63 192 189 180
-0.152246 -0.232954 -0.642 193 193 181
-0.148272 -0.234406 -0.646 190 190 178
-0.146037 -0.234769 -0.647 188 188 176
-0.141544 -0.235494 -0.649 186 184 172
-0.0658152 -0.230051 -0.634 70 66 80
-0.0590229 -0.227149 -0.626 67 65 78
-0.0495629 -0.227511 -0.627 71 71 83
-0.0462733 -0.228963 -0.631 71 71 81
-0.039619 -0.232229 -0.64 75 75 85
-0.0352314 -0.235494 -0.649 77 75 88
-0.312104 -0.229435 -0.629 253 255 250
-0.304915 -0.229435 -0.629 254 255 250
-0.2982 -0.2298 -0.63 255 255 251
-0.287563 -0.230894 -0.633 254 255 253
-0.278897 -0.232718 -0.638 165 166 161
-0.278117 -0.233083 -0.639 161 162 157
-0.16406 -0.230165 -0.631 189 189 179
-0.154457 -0.231989 -0.636 194 191 182
-0.153728 -0.232718 -0.638 193 193 181
-0.151023 -0.234177 -0.642 193 193 181
-0.147042 -0.235636 -0.646 190 190 178
-0.146037 -0.236001 -0.647 188 188 176
-0.143794 -0.236366 -0.648 190 188 176
-0.14278 -0.23673 -0.649 188 186 174
-0.0728733 -0.234542 -0.643 67 66 72
-0.0713143 -0.233448 -0.64 67 66 72
-0.0637924 -0.228341 -0.626 72 70 81
-0.3102 -0.231 -0.63 253 254 249
-0.293866 -0.231367 -0.631 253 253 251
-0.291462 -0.231367 -0.631 253 253 251
-0.287563 -0.2321 -0.633 253 254 249
-0.281328 -0.233933 -0.638 202 202 200
-0.275011 -0.236867 -0.646 253 253 251
-0.169366 -0.2354 -0.642 195 195 187
-0.1614 -0.231 -0.63 191 188 179
-0.1602 -0.231 -0.63 191 188 179
-0.156849 -0.231367 -0.631 193 190 181
-0.155893 -0.231733 -0.632 194 191 182
-0.154457 -0.2332 -0.636 195 192 183
-0.153728 -0.233933 -0.638 194 194 184
-0.152751 -0.2343 -0.639 194 194 184
-0.14256 -0.2376 -0.648 190 188 176
-0.0770238 -0.237233 -0.647 129 127 128
-0.0753229 -0.235767 -0.643 86 85 91
-0.0705343 -0.2321 -0.633 63 62 70
-0.0485229 -0.230633 -0.629 70 70 82
-0.0441476 -0.232833 -0.635 71 71 81
-0.04186 -0.233567 -0.637 72 72 82
-0.0373552 -0.235767 -0.643 74 74 84
-0.32568 -0.23736 -0.644 251 252 247
-0.312389 -0.232937 -0.632 253 254 248
-0.304683 -0.232569 -0.631 252 253 248
-0.295068 -0.232569 -0.631 253 253 251
-0.293866 -0.232569 -0.631 253 253 251
-0.291924 -0.232937 -0.632 253 253 251
-0.1498 -0.236623 -0.642 197 194 179
-0.146037 -0.238466 -0.647 192 190 178
-0.140308 -0.239203 -0.649 212 210 198
-0.139286 -0.239571 -0.65 225 222 207
-0.0684524 -0.230357 -0.625 56 56 68
-0.327197 -0.239698 -0.647 252 253 247
-0.32 -0.237105 -0.64 252 253 247
-0.29164 -0.234882 -0.634 253 254 249
-0.286503 -0.235623 -0.636 253 254 249
-0.277902 -0.239698 -0.647 187 187 185
-0.167357 -0.236734 -0.639 205 206 200
-0.16458 -0.234511 -0.633 197 198 192
-0.1566 -0.2334 -0.63 192 192 182
-0.148577 -0.237846 -0.642 195 193 180
-0.144805 -0.239698 -0.647 192 190 178
-0.0656486 -0.230066 -0.621 67 65 78
-0.062 -0.229695 -0.62 70 68 81
-0.060819 -0.229695 -0.62 69 67 80
-0.0507571 -0.232289 -0.627 70 68 79
-0.04642 -0.234511 -0.633 72 70 81
-0.0407743 -0.236734 -0.639 73 71 82
-0.317562 -0.238324 -0.64 252 253 247
-0.315849 -0.237951 -0.639 253 254 248
-0.300826 -0.235717 -0.633 253 254 249
-0.284648 -0.238324 -0.64 254 254 252
-0.280367 -0.24093 -0.647 180 180 178
-0.168143 -0.239069 -0.642 218 219 214
-0.146587 -0.239813 -0.644 194 192 180
-0.0762 -0.2346 -0.63 71 69 80
-0.0677952 -0.230504 -0.619 69 67 78
-0.0584571 -0.230876 -0.62 70 68 79
-0.0498 -0.2346 -0.63 71 69 80
-0.0453571 -0.236462 -0.635 72 70 81
-0.043141 -0.237579 -0.638 72 70 81
-0.0408381 -0.238324 -0.64 72 71 79
-0.300093 -0.237297 -0.634 253 253 251
-0.29256 -0.238046 -0.636 253 253 251
-0.288619 -0.238794 -0.638 253 253 251
-0.283186 -0.241414 -0.645 251 251 249
-0.16919 -0.241789 -0.646 238 239 234
-0.1491 -0.239169 -0.639 198 195 186
-0.14536 -0.24104 -0.644 193 191 179
-0.14212 -0.241789 -0.646 198 196 184
-0.14089 -0.241789 -0.646 211 209 196
-0.07004 -0.231309 -0.618 69 69 79
-0.0486771 -0.236174 -0.631 71 70 78
-0.0453571 -0.237671 -0.635 71 70 78
-0.0340476 -0.243286 -0.65 77 75 86
-0.316601 -0.24189 -0.643 253 254 249
-0.314886 -0.241514 -0.642 253 254 249
-0.290743 -0.240762 -0.64 253 253 251
-0.283706 -0.244148 -0.649 251 251 249
-0.154907 -0.236248 -0.628 197 197 187
-0.151317 -0.238129 -0.633 198 198 188
-0.0872981 -0.241138 -0.641 158 158 160
-0.0673571 -0.231357 -0.615 70 69 77
-0.0618 -0.232486 -0.618 71 70 78
-0.057461 -0.23399 -0.622 70 69 77
-0.050919 -0.236624 -0.629 71 70 76
-0.0486771 -0.237376 -0.631 71 70 76
-0.310732 -0.242359 -0.641 253 254 249
-0.309511 -0.242359 -0.641 252 253 248
-0.298057 -0.241981 -0.64 253 253 251
-0.292106 -0.243115 -0.643 253 253 251
-0.291333 -0.243493 -0.644 253 253 251
-0.289329 -0.243871 -0.645 253 253 251
-0.287761 -0.244628 -0.647 255 255 253
-0.286971 -0.245006 -0.648 255 255 253
-0.165955 -0.243115 -0.643 246 247 242
-0.159437 -0.237066 -0.627 210 210 200
-0.155357 -0.23631 -0.625 193 193 183
-0.151078 -0.238956 -0.632 200 200 190
-0.140453 -0.243493 -0.644 217 214 199
-0.08974 -0.242359 -0.641 160 161 156
-0.0771029 -0.233663 -0.618 71 69 82
-0.0649086 -0.23215 -0.614 70 69 77
-0.0553571 -0.23631 -0.625 70 69 75
-0.050919 -0.237822 -0.629 71 70 76
-0.0487543 -0.238956 -0.632 71 70 76
-0.0465667 -0.24009 -0.635 71 70 78
-0.0442867 -0.240847 -0.637 71 70 78
-0.304353 -0.24434 -0.643 253 254 249
-0.303129 -0.24434 -0.643 253 254 249
-0.28944 -0.24624 -0.648 253 253 251
-0.154167 -0.2375 -0.625 200 200 192
-0.144993 -0.24206 -0.637 200 198 186
-0.134946 -0.24586 -0.647 223 220 203
-0.128983 -0.24624 -0.648 226 221 201
-0.127946 -0.24662 -0.649 227 222 202
-0.100594 -0.24624 -0.648 246 245 227
-0.0992067 -0.24586 -0.647 247 246 228
-0.0671381 -0.23294 -0.613 71 70 76
-0.0660781 -0.23332 -0.614 70 69 75
-0.0649086 -0.23332 -0.614 71 70 78
-0.0585514 -0.23598 -0.621 70 69 77
-0.051 -0.2394 -0.63 70 69 75
-0.03858 -0.24434 -0.643 76 74 85
0.198409 -0.24662 -0.649 173 122 129
-0.31881 -0.248238 -0.65 253 254 249
-0.302843 -0.246329 -0.645 252 253 248
-0.29716 -0.24671 -0.646 252 253 248
-0.156548 -0.23869 -0.625 229 230 224
-0.150836 -0.239072 -0.626 197 197 187
-0.146263 -0.241364 -0.632 202 200 188
-0.135336 -0.245565 -0.643 226 223 206
-0.13432 -0.245947 -0.644 225 222 205
-0.110639 -0.247856 -0.649 242 236 220
-0.104136 -0.247092 -0.647 245 243 228
-0.102745 -0.24671 -0.646 243 241 228
-0.0926743 -0.242891 -0.636 95 95 93
-0.0910314 -0.241746 -0.633 75 74 79
-0.0681943 -0.233726 -0.612 69 69 77
-0.0638429 -0.234871 -0.615 71 69 80
-0.060819 -0.236781 -0.62 72 71 79
-0.0420571 -0.244419 -0.64 73 72 80
-0.0409019 -0.244801 -0.641 74 72 83
-0.0363552 -0.247092 -0.647 76 75 83
-0.308711 -0.248325 -0.647 253 254 249
-0.306247 -0.248325 -0.647 252 253 248
-0.305014 -0.248325 -0.647 252 253 248
-0.294048 -0.249476 -0.65 254 254 252
-0.162234 -0.24487 -0.638 241 243 240
-0.148451 -0.240265 -0.626 204 204 196
-0.14773 -0.241032 -0.628 207 207 199
-0.122811 -0.248709 -0.648 230 224 208
-0.121577 -0.248709 -0.648 232 226 210
-0.0886905 -0.239881 -0.625 71 69 82
-0.0799819 -0.235275 -0.613 66 65 71
-0.0786857 -0.234891 -0.612 66 65 73
-0.0660781 -0.235659 -0.614 69 72 77
-0.0488314 -0.242951 -0.633 71 70 78
-0.0465667 -0.243719 -0.635 71 69 80
-0.0443562 -0.24487 -0.638 72 71 79
-0.0432086 -0.245254 -0.639 74 73 81
-0.0363552 -0.248325 -0.647 75 74 82
-0.313857 -0.250714 -0.65 253 254 249
-0.30843 -0.250329 -0.649 253 254 249
-0.156103 -0.242229 -0.628 247 247 247
-0.144141 -0.242229 -0.628 202 202 190
-0.13849 -0.244929 -0.635 227 225 212
-0.137497 -0.245314 -0.636 227 225 212
-0.1365 -0.2457 -0.637 226 224 211
-0.131252 -0.247243 -0.641 231 229 214
-0.12881 -0.247243 -0.641 230 228 213
-0.114871 -0.248786 -0.645 241 239 227
-0.110841 -0.248014 -0.643 249 245 234
-0.0985762 -0.244929 -0.635 115 113 116
-0.0972133 -0.244543 -0.634 88 86 89
-0.06936 -0.236057 -0.612 70 70 80
-0.0455 -0.2457 -0.637 72 70 81
-0.0432086 -0.246471 -0.639 73 71 82
-0.0398048 -0.248014 -0.643 74 72 83
-0.0363552 -0.249557 -0.647 75 73 84
0.20776 -0.245314 -0.636 144 98 98
0.2093 -0.2457 -0.637 153 98 103
0.211174 -0.246471 -0.639 156 101 106
-0.162281 -0.249239 -0.643 186 186 188
-0.154907 -0.243425 -0.628 235 235 237
-0.149872 -0.241099 -0.622 249 249 251
-0.148449 -0.240711 -0.621 247 247 249
-0.131853 -0.247301 -0.638 228 226 214
-0.121674 -0.248851 -0.642 236 232 220
-0.120451 -0.248851 -0.642 237 233 221
-0.119229 -0.248851 -0.642 237 233 221
-0.108934 -0.247689 -0.639 240 237 230
-0.107549 -0.247301 -0.638 236 233 226
-0.099 -0.2442 -0.63 79 79 81
-0.091819 -0.241099 -0.622 78 77 85
-0.0833486 -0.237223 -0.612 74 74 82
-0.07482 -0.23606 -0.609 71 71 81
-0.0694733 -0.23761 -0.613 71 71 81
-0.0684171 -0.237998 -0.614 71 71 81
-0.0610152 -0.241099 -0.622 72 71 79
-0.0589286 -0.242262 -0.625 72 71 79
-0.0489086 -0.24575 -0.634 73 72 80
-0.0477762 -0.246138 -0.635 72 70 81
-0.0421229 -0.248464 -0.641 75 73 84
-0.0363552 -0.25079 -0.647 75 73 84
0.186791 -0.236835 -0.611 167 113 111
0.206671 -0.243812 -0.629 156 101 104
0.2082 -0.2442 -0.63 155 100 103
-0.151543 -0.243063 -0.624 225 224 230
-0.149631 -0.241894 -0.621 231 230 235
-0.134225 -0.246179 -0.632 236 233 228
-0.109634 -0.247737 -0.636 221 220 215
-0.1055 -0.246569 -0.633 130 129 134
-0.102763 -0.24579 -0.631 74 73 79
-0.0967133 -0.242673 -0.623 77 76 84
-0.0938857 -0.241505 -0.62 80 79 87
-0.0925552 -0.241115 -0.619 80 79 87
-0.0881552 -0.238778 -0.613 76 76 86
-0.0758552 -0.23683 -0.608 71 71 79
-0.07482 -0.23722 -0.609 71 71 79
-0.073781 -0.23761 -0.61 71 71 79
-0.0727381 -0.237999 -0.611 71 71 79
-0.0715743 -0.237999 -0.611 71 71 79
-0.0674667 -0.239947 -0.616 71 71 81
-0.0643619 -0.241505 -0.62 72 71 79
-0.0622 -0.242284 -0.622 73 72 80
-0.0611133 -0.242673 -0.623 73 72 80
-0.056819 -0.244621 -0.628 72 71 79
-0.0534848 -0.24579 -0.631 73 72 80
-0.0512429 -0.246569 -0.633 73 71 82
0.183857 -0.25319 -0.65 195 152 146
0.178645 -0.237999 -0.611 191 144 138
0.178926 -0.23683 -0.608 189 142 136
0.209263 -0.243842 -0.626 170 116 116
-0.159831 -0.251689 -0.643 117 116 122
-0.148449 -0.243077 -0.621 205 204 210
-0.145848 -0.242686 -0.62 225 224 229
-0.143254 -0.242294 -0.619 228 228 230
-0.141124 -0.242686 -0.62 234 234 234
-0.13631 -0.244643 -0.625 244 243 241
-0.133163 -0.245426 -0.627 241 240 236
-0.131191 -0.246209 -0.629 243 242 238
-0.122767 -0.248557 -0.635 247 244 235
-0.120348 -0.248557 -0.635 242 239 232
-0.108428 -0.246209 -0.629 113 111 112
-0.103141 -0.245034 -0.626 78 77 85
-0.0974286 -0.242686 -0.62 77 76 84
-0.0906381 -0.240337 -0.614 78 77 85
-0.0623 -0.24386 -0.623 73 72 78
-0.0534848 -0.246991 -0.631 73 71 82
-0.0410295 -0.251689 -0.643 76 74 85
-0.0363552 -0.253254 -0.647 75 74 82
0.176029 -0.237206 -0.606 184 141 134
0.18 -0.234857 -0.6 176 121 116
0.181445 -0.235249 -0.601 169 114 109
0.18988 -0.237206 -0.606 159 101 99
0.191665 -0.237989 -0.608 156 100 99
0.202207 -0.242294 -0.619 185 131 129
0.213338 -0.246991 -0.631 154 103 102
-0.145848 -0.243867 -0.62 158 157 163
-0.135219 -0.243867 -0.62 222 223 225
-0.134254 -0.24426 -0.621 223 224 226
-0.131127 -0.245047 -0.623 225 225 225
-0.1218 -0.2478 -0.63 225 224 220
-0.11921 -0.247407 -0.629 221 220 218
-0.114054 -0.24662 -0.627 165 163 164
-0.0862781 -0.239147 -0.608 76 75 81
-0.0826676 -0.238753 -0.607 75 74 82
-0.0781714 -0.239147 -0.608 74 73 81
-0.0750657 -0.240327 -0.611 73 73 81
-0.0740229 -0.24072 -0.612 72 72 80
-0.0730952 -0.241507 -0.614 71 71 79
-0.0688629 -0.24308 -0.618 72 72 80
-0.0667238 -0.243867 -0.62 71 74 79
-0.0613095 -0.245833 -0.625 73 72 78
-0.060119 -0.245833 -0.625 74 73 79
-0.0590229 -0.246227 -0.626 74 73 81
-0.0340476 -0.255667 -0.65 77 76 82
0.174009 -0.23718 -0.603 188 149 142
0.174286 -0.236 -0.6 185 146 139
0.175136 -0.235607 -0.599 187 135 124
0.198754 -0.24072 -0.612 191 136 131
0.201743 -0.241507 -0.614 202 147 144
-0.143023 -0.244257 -0.618 105 104 110
-0.141616 -0.243862 -0.617 111 110 115
-0.13574 -0.243862 -0.617 145 146 150
-0.131127 -0.246233 -0.623 225 225 225
-0.126786 -0.247024 -0.625 219 219 217
-0.125595 -0.247024 -0.625 214 214 212
-0.123214 -0.247024 -0.625 196 196 194
-0.1025 -0.243071 -0.615 80 78 89
-0.0973371 -0.241886 -0.612 75 73 84
-0.0961714 -0.241886 -0.612 77 75 86
-0.09222 -0.2407 -0.609 77 76 84
-0.0783 -0.2407 -0.609 74 73 79
-0.0772667 -0.241095 -0.61 74 73 79
-0.0741438 -0.242281 -0.613 73 74 79
-0.0732143 -0.243071 -0.615 73 74 79
-0.0569095 -0.248605 -0.629 72 71 79
-0.0546867 -0.249395 -0.631 74 73 81
-0.0501952 -0.250976 -0.635 75 74 82
-0.0433438 -0.253348 -0.641 74 73 81
-0.0398667 -0.254533 -0.644 75 74 82
-0.0363552 -0.255719 -0.647 76 75 83
0.191554 -0.238724 -0.604 157 99 95
0.193024 -0.239119 -0.605 173 115 111
0.206085 -0.242281 -0.613 179 126 122
-0.143254 -0.245831 -0.619 105 104 110
-0.141846 -0.245434 -0.618 100 99 104
-0.1353 -0.244243 -0.615 86 87 92
-0.131464 -0.245831 -0.619 149 150 154
-0.122229 -0.246229 -0.62 88 88 90
-0.108357 -0.244243 -0.615 65 65 75
-0.101833 -0.242654 -0.611 74 72 83
-0.09454 -0.24186 -0.609 73 72 80
-0.08062 -0.24186 -0.609 75 76 80
-0.0795905 -0.242257 -0.61 74 75 79
-0.0614076 -0.248611 -0.626 73 72 80
-0.0535695 -0.250994 -0.632 73 72 80
-0.0524486 -0.251391 -0.633 73 72 80
-0.0490629 -0.252583 -0.636 74 73 81
-0.0479267 -0.25298 -0.637 73 72 80
-0.0398667 -0.25576 -0.644 75 74 82
-0.0351771 -0.257349 -0.648 75 74 82
0.169103 -0.240669 -0.606 194 150 141
0.169714 -0.238286 -0.6 198 154 145
0.175394 -0.236697 -0.596 184 131 117
0.179935 -0.236697 -0.596 165 108 99
0.193534 -0.239477 -0.603 201 144 137
0.196156 -0.239874 -0.604 196 141 136
0.20474 -0.24186 -0.609 174 120 118
-0.150586 -0.253395 -0.635 116 117 121
-0.134129 -0.245414 -0.615 86 87 92
-0.123787 -0.245813 -0.616 74 73 79
-0.112491 -0.244217 -0.612 64 64 72
-0.10614 -0.24302 -0.609 59 59 71
-0.079721 -0.243818 -0.611 75 76 80
-0.0786857 -0.244217 -0.612 75 76 80
-0.0755571 -0.245414 -0.615 74 75 80
-0.0713324 -0.24701 -0.619 73 74 79
-0.0702667 -0.24741 -0.62 73 74 79
-0.0558886 -0.251799 -0.631 74 73 81
-0.0409657 -0.256189 -0.642 74 73 81
0.165693 -0.240227 -0.602 198 151 141
0.169133 -0.240227 -0.602 196 152 143
0.170853 -0.237832 -0.596 186 142 133
0.173674 -0.237034 -0.594 189 133 118
0.189143 -0.239429 -0.6 181 121 113
0.195182 -0.239828 -0.601 189 136 132
0.200426 -0.240626 -0.603 184 130 128
-0.132525 -0.245784 -0.613 96 95 103
-0.123946 -0.244982 -0.611 73 71 82
-0.111389 -0.242977 -0.606 66 66 74
-0.107748 -0.242576 -0.605 69 68 76
-0.0960648 -0.242175 -0.604 78 77 83
-0.0927667 -0.242576 -0.605 78 77 83
-0.0810171 -0.245383 -0.612 76 75 80
-0.0798514 -0.245383 -0.612 75 74 79
-0.0670467 -0.249793 -0.623 74 73 79
-0.0616038 -0.251798 -0.628 74 73 81
-0.0559771 -0.253402 -0.632 71 70 78
-0.0547733 -0.253402 -0.632 76 75 83
-0.0502743 -0.255006 -0.636 81 80 88
-0.0457143 -0.25661 -0.64 101 99 110
0.175641 -0.237765 -0.593 173 117 104
0.1782 -0.238166 -0.594 167 109 97
0.182206 -0.238968 -0.596 153 91 80
0.187373 -0.23977 -0.598 195 136 130
0.19079 -0.23977 -0.598 198 140 136
0.195347 -0.23977 -0.598 190 137 133
0.209724 -0.244581 -0.61 164 114 115
0.21894 -0.249793 -0.623 160 112 112
-0.137867 -0.24816 -0.616 106 107 112
-0.133474 -0.246549 -0.612 99 100 105
-0.1118 -0.24252 -0.602 63 64 69
-0.0897524 -0.244937 -0.608 78 77 83
-0.0790714 -0.247757 -0.615 76 75 80
-0.0726286 -0.249771 -0.62 74 73 79
-0.0682333 -0.25098 -0.623 74 73 81
-0.05486 -0.255009 -0.633 74 73 81
-0.04686 -0.257426 -0.639 137 135 146
0.162883 -0.246951 -0.613 195 155 147
0.163248 -0.245743 -0.61 193 153 145
0.165475 -0.238894 -0.593 197 150 140
0.166605 -0.238894 -0.593 196 149 139
0.1779 -0.238894 -0.593 159 101 89
0.17903 -0.238894 -0.593 154 96 84
0.180463 -0.239297 -0.594 155 93 82
0.1921 -0.2397 -0.595 192 135 128
0.208692 -0.244534 -0.607 165 115 114
0.21054 -0.24534 -0.609 163 113 112
0.220127 -0.25098 -0.623 155 107 107
0.228354 -0.256217 -0.636 146 101 98
-0.114283 -0.241643 -0.597 61 62 67
-0.112009 -0.241643 -0.597 61 62 67
-0.10955 -0.241238 -0.596 62 62 70
-0.0917657 -0.245286 -0.606 79 78 86
-0.0899 -0.2465 -0.609 78 77 85
-0.0793286 -0.249738 -0.617 76 75 81
-0.0738095 -0.250952 -0.62 75 74 82
-0.0672619 -0.252976 -0.625 74 73 81
-0.0639962 -0.25419 -0.628 74 74 84
-0.0628 -0.25419 -0.628 73 73 83
-0.057181 -0.25581 -0.632 70 70 80
-0.053739 -0.256619 -0.634 70 70 80
-0.0502743 -0.257429 -0.636 122 122 130
-0.0457143 -0.259048 -0.64 137 135 146
-0.0375295 -0.261476 -0.646 74 72 83
0.160286 -0.247714 -0.612 201 158 151
0.163216 -0.240024 -0.593 190 147 138
0.164069 -0.239619 -0.592 191 147 136
0.180159 -0.240024 -0.593 154 95 89
0.187251 -0.240429 -0.594 195 138 131
0.188066 -0.240024 -0.593 195 138 131
0.189195 -0.240024 -0.593 195 138 131
0.191454 -0.240024 -0.593 188 130 126
0.194843 -0.240024 -0.593 186 128 126
0.200706 -0.241643 -0.597 180 122 121
0.219067 -0.250952 -0.62 145 103 104
0.221669 -0.252571 -0.624 143 101 103
0.2376 -0.262286 -0.648 147 102 105
-0.151667 -0.264333 -0.65 124 125 127
-0.122857 -0.244 -0.6 70 71 76
-0.118831 -0.24278 -0.597 71 72 77
-0.116167 -0.241967 -0.595 74 75 80
-0.104657 -0.24156 -0.594 61 61 69
-0.102739 -0.242373 -0.596 63 63 71
-0.100806 -0.243187 -0.598 68 68 76
-0.0959057 -0.24522 -0.603 76 75 83
-0.0940743 -0.24644 -0.606 78 77 85
-0.08582 -0.249287 -0.613 78 77 85
-0.0847905 -0.249693 -0.614 78 77 85
-0.0772276 -0.251727 -0.619 75 74 82
-0.0716781 -0.252947 -0.622 77 76 84
-0.0560657 -0.25742 -0.633 74 74 84
-0.0480019 -0.259453 -0.638 81 79 90
-0.0387 -0.2623 -0.645 73 72 80
-0.0375295 -0.262707 -0.646 74 73 81
0.159429 -0.244 -0.6 200 157 150
0.16239 -0.239933 -0.59 192 148 137
0.17109 -0.239527 -0.589 177 115 104
0.198566 -0.24156 -0.594 186 127 121
0.201843 -0.24278 -0.597 173 116 109
0.209157 -0.246033 -0.605 160 110 109
0.213559 -0.248473 -0.611 150 104 106
0.223214 -0.254167 -0.625 141 96 101
-0.127338 -0.247186 -0.605 72 73 78
-0.12556 -0.24596 -0.602 70 71 76
-0.118433 -0.2431 -0.595 81 82 87
-0.115581 -0.241874 -0.592 80 84 87
-0.112943 -0.241057 -0.59 78 81 86
-0.0901952 -0.249637 -0.611 77 76 82
-0.0881552 -0.250454 -0.613 78 77 83
-0.0837571 -0.251271 -0.615 79 78 84
-0.08272 -0.25168 -0.616 78 77 83
-0.0773524 -0.253314 -0.62 75 74 80
-0.057181 -0.258217 -0.632 69 69 77
-0.04914 -0.26026 -0.637 80 80 88
-0.0480019 -0.260669 -0.638 121 120 128
0.156922 -0.248411 -0.608 196 158 149
0.18599 -0.241057 -0.59 199 139 138
0.198231 -0.242283 -0.593 180 123 114
0.201505 -0.243509 -0.596 172 115 106
0.205143 -0.245143 -0.6 166 111 104
-0.125769 -0.247517 -0.603 69 69 77
-0.11519 -0.242181 -0.59 63 67 70
-0.10808 -0.24136 -0.588 51 54 59
-0.105076 -0.242181 -0.59 50 53 58
-0.0925229 -0.250801 -0.611 77 76 82
-0.08272 -0.252853 -0.616 78 77 83
-0.0640981 -0.25819 -0.629 73 73 83
-0.0583848 -0.259421 -0.632 73 73 81
-0.053739 -0.260242 -0.634 75 75 83
-0.0421886 -0.263526 -0.642 74 73 81
-0.0387 -0.264757 -0.645 73 72 80
-0.0375295 -0.265168 -0.646 73 72 80
-0.0363552 -0.265578 -0.647 73 72 80
0.154739 -0.247928 -0.604 197 156 150
0.15548 -0.245465 -0.598 199 159 151
0.157895 -0.242181 -0.59 199 156 147
0.178124 -0.242181 -0.59 198 138 127
0.18231 -0.24177 -0.589 201 140 139
0.18536 -0.24136 -0.588 202 141 140
0.196437 -0.242591 -0.591 175 121 111
0.201167 -0.244233 -0.595 170 113 104
0.20298 -0.245054 -0.597 165 110 103
0.204801 -0.245875 -0.599 161 106 99
-0.126186 -0.24949 -0.605 67 68 73
-0.117637 -0.243717 -0.591 59 59 67
-0.101433 -0.245367 -0.595 59 60 65
-0.100637 -0.246191 -0.597 60 61 66
-0.0926743 -0.252377 -0.612 75 74 82
-0.0840295 -0.254439 -0.617 78 77 83
-0.0818114 -0.254851 -0.618 78 77 85
-0.0795857 -0.255264 -0.619 77 76 84
-0.0785333 -0.255676 -0.62 77 76 84
-0.0762943 -0.256089 -0.621 77 76 84
-0.0502743 -0.262274 -0.636 77 77 87
0.153714 -0.247429 -0.6 201 158 149
0.1547 -0.245367 -0.595 201 156 150
0.160173 -0.241655 -0.586 193 141 130
0.1767 -0.242892 -0.589 199 141 130
0.1932 -0.24248 -0.588 184 130 118
0.19465 -0.242892 -0.589 176 122 110
0.205143 -0.247429 -0.6 154 99 96
0.222143 -0.256501 -0.622 130 87 96
0.227039 -0.259388 -0.629 135 89 100
0.238587 -0.265573 -0.644 137 93 94
-0.104898 -0.244014 -0.589 67 70 75
-0.0990219 -0.248986 -0.601 62 61 69
-0.0906381 -0.254371 -0.614 75 74 82
-0.0896143 -0.254786 -0.615 74 73 81
-0.0884429 -0.254786 -0.615 76 75 83
-0.0808952 -0.256857 -0.62 78 76 87
-0.0797143 -0.256857 -0.62 77 75 86
-0.0618981 -0.261414 -0.631 73 73 83
-0.0561543 -0.262657 -0.634 73 73 83
-0.0526971 -0.263486 -0.636 73 73 85
-0.0503533 -0.2639 -0.637 79 79 91
-0.0364114 -0.268457 -0.648 73 72 80
0.152483 -0.266386 -0.643 198 159 154
0.1764 -0.2436 -0.588 206 146 138
0.188871 -0.242357 -0.585 188 131 120
0.191427 -0.242771 -0.586 183 130 116
0.209157 -0.250643 -0.605 149 99 102
0.211352 -0.251886 -0.608 142 95 101
0.2225 -0.2581 -0.623 128 85 94
-0.125447 -0.252628 -0.607 125 126 131
-0.116117 -0.245136 -0.589 128 129 134
-0.111986 -0.243471 -0.585 121 125 128
-0.10957 -0.243055 -0.584 116 119 124
-0.107529 -0.243471 -0.585 114 118 121
-0.104898 -0.245136 -0.589 66 69 74
-0.0982029 -0.250963 -0.603 63 61 72
-0.0831229 -0.257622 -0.619 77 75 86
-0.0820762 -0.258038 -0.62 78 76 87
-0.0787867 -0.25887 -0.622 78 76 87
-0.0720238 -0.260119 -0.625 76 74 85
-0.0561543 -0.263865 -0.634 74 73 81
0.150267 -0.268027 -0.644 199 160 153
0.150552 -0.266362 -0.64 199 160 153
0.150113 -0.259287 -0.623 200 159 157
0.151554 -0.24805 -0.596 196 156 144
0.154856 -0.244304 -0.587 194 152 140
0.162964 -0.243055 -0.584 184 124 114
0.170219 -0.243888 -0.586 163 104 90
0.171335 -0.243888 -0.586 174 112 101
0.17965 -0.243055 -0.584 202 141 138
0.186005 -0.242639 -0.583 193 136 127
0.189986 -0.243471 -0.585 180 126 114
0.213909 -0.254709 -0.612 133 86 96
0.237846 -0.267194 -0.642 125 80 85
-0.138362 -0.267581 -0.64 115 116 120
-0.110682 -0.244168 -0.584 117 120 125
-0.100469 -0.249185 -0.596 60 60 68
-0.07654 -0.260473 -0.623 78 76 87
-0.072139 -0.261728 -0.626 75 74 82
-0.0562429 -0.26549 -0.635 74 73 81
-0.0399286 -0.269671 -0.645 73 72 78
-0.0376457 -0.270926 -0.648 73 72 78
0.149143 -0.250857 -0.6 204 158 158
0.158243 -0.24375 -0.583 187 135 122
0.159353 -0.24375 -0.583 190 132 121
0.171043 -0.244586 -0.585 193 130 123
0.177926 -0.243331 -0.582 208 144 142
0.183469 -0.243331 -0.582 195 137 133
0.184577 -0.243331 -0.582 190 131 123
0.187115 -0.24375 -0.583 187 127 116
0.20366 -0.250439 -0.599 151 98 94
0.218713 -0.258801 -0.619 121 74 90
0.227761 -0.263818 -0.631 129 83 94
-0.128897 -0.25956 -0.618 123 124 129
-0.114214 -0.2457 -0.585 120 124 127
-0.111603 -0.24486 -0.583 116 119 124
-0.10205 -0.24864 -0.592 60 60 70
-0.101263 -0.24948 -0.594 61 61 71
-0.0948505 -0.25662 -0.611 66 64 75
-0.0921067 -0.25872 -0.616 68 66 77
-0.0878391 -0.25998 -0.619 75 73 84
-0.0585695 -0.26628 -0.634 74 73 81
-0.03882 -0.27174 -0.647 73 72 78
0.145029 -0.27216 -0.648 206 166 156
0.146131 -0.26964 -0.642 202 166 154
0.146258 -0.25494 -0.607 201 161 151
0.151244 -0.24612 -0.586 198 152 137
0.155754 -0.24444 -0.582 194 141 125
0.169638 -0.24528 -0.584 194 134 123
0.17075 -0.24528 -0.584 207 144 137
0.172975 -0.24528 -0.584 208 147 142
0.178419 -0.2436 -0.58 201 141 133
0.198231 -0.24906 -0.593 163 105 94
0.200033 -0.2499 -0.595 159 102 95
0.240186 -0.2709 -0.645 131 84 94
-0.110303 -0.245549 -0.582 112 116 119
-0.108086 -0.245549 -0.582 109 112 117
-0.09804 -0.253987 -0.602 62 60 71
-0.0975371 -0.255674 -0.606 62 60 71
-0.0833914 -0.262003 -0.621 75 73 84
-0.0823409 -0.262425 -0.622 76 74 85
-0.0644038 -0.266644 -0.632 75 74 82
-0.0457857 -0.270441 -0.641 73 72 80
-0.043479 -0.271285 -0.643 74 73 81
0.143329 -0.26791 -0.635 201 161 151
0.144538 -0.26791 -0.635 201 161 151
0.144436 -0.25905 -0.614 199 159 149
0.144657 -0.257362 -0.61 198 158 148
0.145053 -0.253987 -0.602 201 159 147
0.15438 -0.245127 -0.581 189 136 120
0.161297 -0.245549 -0.582 177 119 107
0.168237 -0.24597 -0.583 194 134 123
0.17621 -0.244705 -0.58 200 140 132
0.185686 -0.245549 -0.582 181 124 115
0.212743 -0.258206 -0.612 120 74 85
0.222379 -0.264112 -0.626 123 80 87
0.240186 -0.272129 -0.645 128 81 91
-0.138214 -0.273357 -0.645 118 119 123
-0.121106 -0.253014 -0.597 118 119 124
-0.118964 -0.250895 -0.592 118 119 124
-0.1053 -0.247929 -0.585 74 74 82
-0.103776 -0.249624 -0.589 64 64 72
-0.0996667 -0.253438 -0.598 64 62 73
-0.0988571 -0.254286 -0.6 61 59 70
-0.0960143 -0.258948 -0.611 63 61 72
-0.0597771 -0.268695 -0.634 75 74 82
-0.0469333 -0.271238 -0.64 73 72 80
-0.0411571 -0.273357 -0.645 72 71 79
-0.0399905 -0.273781 -0.646 71 70 78
-0.0376457 -0.274629 -0.648 73 72 80
-0.0352857 -0.275476 -0.65 73 72 78
0.141523 -0.265729 -0.627 201 157 148
0.142717 -0.265729 -0.627 201 157 148
0.147895 -0.248352 -0.586 188 139 124
0.150211 -0.246657 -0.582 196 144 130
0.152167 -0.246233 -0.581 197 141 126
0.161297 -0.246657 -0.582 174 116 104
0.180006 -0.244962 -0.578 196 137 129
0.188226 -0.247081 -0.583 174 116 105
0.196437 -0.250471 -0.591 163 104 98
0.235767 -0.27251 -0.643 114 67 77
0.247 -0.275476 -0.65 126 84 96
-0.133442 -0.269903 -0.634 115 116 120
-0.102829 -0.251171 -0.59 68 68 76
-0.101263 -0.252874 -0.594 66 66 74
-0.0990219 -0.255854 -0.601 62 60 71
-0.0769086 -0.266497 -0.626 77 76 84
-0.0492943 -0.272031 -0.639 73 72 80
-0.0458571 -0.273309 -0.642 74 73 81
-0.0400524 -0.275437 -0.647 71 70 78
-0.0376457 -0.275863 -0.648 72 71 79
0.143126 -0.252874 -0.594 199 155 144
0.145911 -0.249894 -0.587 198 149 135
0.159913 -0.24734 -0.581 176 118 106
0.16766 -0.24734 -0.581 206 146 136
0.17179 -0.246914 -0.58 203 144 138
0.18142 -0.246489 -0.579 191 133 122
0.187115 -0.248191 -0.583 171 113 102
0.214133 -0.26224 -0.616 129 86 96
0.23101 -0.272457 -0.64 114 72 82
-0.136136 -0.274104 -0.641 118 119 123
-0.134073 -0.272393 -0.637 114 115 119
-0.116443 -0.250157 -0.585 113 114 119
-0.105869 -0.248874 -0.582 81 81 89
-0.102829 -0.252295 -0.59 72 72 80
-0.0998333 -0.256144 -0.599 67 65 76
-0.0925552 -0.264696 -0.619 62 60 71
-0.0814171 -0.266834 -0.624 73 72 80
-0.0679076 -0.269828 -0.631 76 75 81
-0.0575429 -0.271966 -0.636 75 74 80
-0.0528629 -0.272821 -0.638 72 71 77
0.139134 -0.268117 -0.627 199 156 149
0.141994 -0.254006 -0.594 195 151 140
0.146886 -0.248874 -0.582 196 144 130
0.15054 -0.247591 -0.579 190 137 121
0.160743 -0.248019 -0.58 163 105 93
0.167371 -0.248019 -0.58 208 148 138
0.179694 -0.246736 -0.577 194 136 125
0.187115 -0.249302 -0.583 172 114 103
0.193529 -0.251868 -0.589 161 104 97
0.203195 -0.256999 -0.601 138 87 84
0.20502 -0.257854 -0.603 133 85 85
0.2275 -0.272393 -0.637 105 77 91
0.231731 -0.274531 -0.642 105 72 83
-0.116443 -0.251271 -0.585 111 112 117
-0.11194 -0.248694 -0.579 109 109 117
-0.110646 -0.248265 -0.578 108 111 116
-0.107714 -0.249124 -0.58 102 105 110
-0.0915238 -0.266305 -0.62 62 60 71
-0.0858952 -0.267164 -0.622 68 66 77
-0.0848467 -0.267593 -0.623 71 70 76
-0.0814171 -0.268023 -0.624 72 71 77
-0.0803571 -0.268452 -0.625 74 73 79
-0.0724848 -0.27017 -0.629 76 75 81
-0.0611771 -0.273177 -0.636 75 74 80
-0.0528629 -0.274036 -0.638 72 71 77
0.138794 -0.275754 -0.642 205 161 148
0.141277 -0.253849 -0.591 197 150 140
0.145527 -0.249553 -0.581 193 141 127
0.146381 -0.249124 -0.58 191 139 125
0.148921 -0.247835 -0.577 190 137 121
0.151119 -0.247835 -0.577 194 138 123
0.152218 -0.247835 -0.577 192 136 121
0.162952 -0.249124 -0.58 201 141 131
0.164877 -0.248694 -0.579 202 142 132
0.177189 -0.247406 -0.576 192 133 125
0.178595 -0.247835 -0.577 190 132 121
0.182523 -0.248694 -0.579 181 123 112
0.188549 -0.250842 -0.584 167 109 98
0.19031 -0.251701 -0.586 166 108 104
0.203533 -0.258573 -0.602 138 90 90
0.21296 -0.264587 -0.616 144 107 115
-0.10512 -0.251954 -0.584 67 67 75
-0.101433 -0.2567 -0.595 71 71 81
-0.097859 -0.262309 -0.608 65 63 74
-0.0949133 -0.267054 -0.619 59 58 66
-0.0894495 -0.268349 -0.622 65 63 76
-0.0848467 -0.26878 -0.623 68 67 75
-0.0792933 -0.270074 -0.626 75 74 82
-0.0736829 -0.271369 -0.629 75 74 80
-0.0658152 -0.273526 -0.634 76 74 85
-0.0646076 -0.273526 -0.634 76 74 85
-0.06006 -0.27482 -0.637 73 72 80
0.138048 -0.280429 -0.65 204 162 150
0.141198 -0.252817 -0.586 198 150 138
0.143313 -0.25066 -0.581 196 144 130
0.145026 -0.249797 -0.579 193 140 126
0.146977 -0.249366 -0.578 192 136 121
0.148663 -0.248503 -0.576 193 137 120
0.157987 -0.249366 -0.578 156 98 86
0.169509 -0.248503 -0.576 206 146 138
0.175786 -0.248071 -0.575 191 132 124
0.176881 -0.248071 -0.575 191 132 124
0.185367 -0.25066 -0.581 175 117 105
0.188549 -0.251954 -0.584 162 105 94
0.213651 -0.266623 -0.618 172 142 152
0.222103 -0.272663 -0.632 201 200 232
-0.124086 -0.2626 -0.606 108 109 113
-0.107529 -0.2509 -0.579 93 96 101
-0.106793 -0.251767 -0.581 83 83 91
-0.10512 -0.253067 -0.584 67 67 75
-0.1036 -0.2548 -0.588 78 78 86
-0.102829 -0.255667 -0.59 78 78 86
-0.0995162 -0.261733 -0.604 71 70 78
-0.0940371 -0.2691 -0.621 59 57 68
-0.0930038 -0.269533 -0.622 60 58 69
-0.0736829 -0.272567 -0.629 75 74 80
-0.0704229 -0.273867 -0.632 76 75 81
-0.0693286 -0.2743 -0.633 76 75 81
-0.0658152 -0.274733 -0.634 76 75 83
-0.0635 -0.275167 -0.635 76 75 83
-0.06006 -0.276033 -0.637 73 72 80
-0.0494486 -0.277767 -0.641 73 72 78
-0.041221 -0.279933 -0.646 71 70 78
-0.0377038 -0.281233 -0.649 71 70 78
0.13552 -0.266933 -0.616 198 149 135
0.136524 -0.264333 -0.61 197 147 136
0.136557 -0.262167 -0.605 194 144 133
0.139203 -0.254367 -0.587 199 149 138
0.14976 -0.2496 -0.576 188 131 114
0.16512 -0.2496 -0.576 204 141 132
0.1722 -0.248733 -0.574 197 137 127
0.174387 -0.248733 -0.574 193 135 124
0.176573 -0.248733 -0.574 188 130 119
0.182208 -0.250467 -0.578 169 112 101
0.188549 -0.253067 -0.584 158 104 92
0.20421 -0.261733 -0.604 128 87 91
0.217262 -0.270833 -0.625 252 239 255
-0.136349 -0.279423 -0.642 105 106 110
-0.123881 -0.263319 -0.605 105 106 110
-0.1207 -0.258967 -0.595 104 105 109
-0.109355 -0.251132 -0.577 97 100 105
-0.107529 -0.252003 -0.579 86 89 94
-0.103776 -0.256355 -0.589 82 82 90
-0.102222 -0.258096 -0.593 79 79 87
-0.098181 -0.265495 -0.61 67 65 76
-0.0966429 -0.267671 -0.615 64 62 73
-0.0960924 -0.269412 -0.619 62 61 69
-0.0839286 -0.272024 -0.625 65 64 72
-0.0771543 -0.27333 -0.628 73 72 80
-0.0704229 -0.27507 -0.632 75 74 80
-0.0612733 -0.277247 -0.637 74 73 81
-0.0424514 -0.281164 -0.646 72 71 79
0.1342 -0.265495 -0.61 196 151 132
0.143177 -0.250697 -0.576 193 140 124
0.146214 -0.250262 -0.575 192 139 123
0.153881 -0.250262 -0.575 176 118 106
0.162926 -0.250697 -0.576 198 140 129
0.166733 -0.249827 -0.574 192 134 123
0.169717 -0.249391 -0.573 199 139 129
0.176573 -0.249827 -0.574 187 129 118
0.212818 -0.269412 -0.619 206 192 209
0.224211 -0.277682 -0.638 194 192 214
-0.134494 -0.279334 -0.639 105 106 110
-0.103003 -0.258351 -0.591 82 82 90
-0.0953733 -0.271903 -0.622 60 58 69
-0.0886905 -0.273214 -0.625 61 59 70
-0.0816781 -0.273651 -0.626 68 67 75
-0.0624867 -0.27846 -0.637 76 75 83
-0.05538 -0.279334 -0.639 73 72 80
-0.0424514 -0.282394 -0.646 72 71 77
0.134286 -0.262286 -0.6 199 150 136
0.13903 -0.252231 -0.577 198 145 131
0.150071 -0.250483 -0.573 192 134 122
0.163453 -0.25092 -0.574 195 137 126
0.168626 -0.250483 -0.573 201 138 129
0.180793 -0.252231 -0.577 174 117 108
0.182208 -0.252669 -0.578 170 113 104
0.185367 -0.25398 -0.581 165 111 101
0.216763 -0.274089 -0.627 230 218 240
0.2279 -0.281957 -0.645 237 234 253
-0.120294 -0.260355 -0.593 98 99 104
-0.112652 -0.25333 -0.577 96 99 104
-0.105869 -0.255526 -0.582 68 68 76
-0.1053 -0.256843 -0.585 74 74 82
-0.101774 -0.262111 -0.597 82 81 89
-0.0933029 -0.273966 -0.624 59 57 68
-0.0921143 -0.273966 -0.624 58 57 65
-0.0671286 -0.278795 -0.635 75 74 80
-0.0601543 -0.280112 -0.638 76 75 81
-0.0436143 -0.283186 -0.645 72 71 79
0.133694 -0.28143 -0.641 204 151 143
0.136203 -0.254209 -0.579 199 146 132
0.1394 -0.252013 -0.574 193 140 124
0.1558 -0.252013 -0.574 202 144 132
0.156893 -0.252013 -0.574 202 144 132
0.165063 -0.251135 -0.572 189 129 119
0.179383 -0.252891 -0.576 178 119 111
0.185686 -0.255526 -0.582 169 112 105
0.197294 -0.262111 -0.597 136 90 93
0.214881 -0.274405 -0.625 210 206 233
-0.135924 -0.28221 -0.64 96 97 101
-0.104542 -0.258839 -0.587 90 90 98
-0.0886905 -0.275595 -0.625 58 57 65
-0.0784752 -0.277359 -0.629 71 70 78
-0.076321 -0.278241 -0.631 72 71 79
-0.0706457 -0.279564 -0.634 74 73 81
-0.0694381 -0.279564 -0.634 75 74 82
-0.0683381 -0.280005 -0.635 75 74 82
-0.0590314 -0.281769 -0.639 75 74 80
-0.0565971 -0.281769 -0.639 74 73 79
-0.03888 -0.285737 -0.648 72 71 79
0.13289 -0.286178 -0.649 197 150 142
0.133093 -0.283973 -0.644 206 152 142
0.131075 -0.265012 -0.601 198 149 134
0.13222 -0.265012 -0.601 198 149 134
0.132255 -0.262808 -0.596 197 148 133
0.134229 -0.255752 -0.58 196 143 129
0.135497 -0.253989 -0.576 196 143 129
0.136357 -0.253548 -0.575 196 143 129
0.138066 -0.252666 -0.573 193 140 126
0.138914 -0.252225 -0.572 193 140 126
0.141093 -0.252225 -0.572 194 138 125
0.141934 -0.251784 -0.571 193 137 124
0.153078 -0.252225 -0.572 197 140 129
0.15662 -0.252666 -0.573 196 138 127
0.159615 -0.252225 -0.572 197 139 128
0.168037 -0.251784 -0.571 199 139 129
0.191285 -0.259721 -0.589 150 99 98
0.193387 -0.261044 -0.592 142 91 90
0.195171 -0.261926 -0.594 135 88 96
0.221781 -0.281328 -0.638 199 196 217
0.224045 -0.28265 -0.641 237 234 255
-0.135711 -0.282986 -0.639 95 96 100
-0.117557 -0.259071 -0.585 96 96 104
-0.112457 -0.255086 -0.576 96 97 102
-0.11136 -0.255086 -0.576 94 95 100
-0.102567 -0.2635 -0.595 88 87 95
-0.101945 -0.264829 -0.598 87 86 94
-0.0986638 -0.271471 -0.613 77 76 82
-0.0962476 -0.274571 -0.62 69 68 76
-0.0841971 -0.277671 -0.627 61 60 68
-0.0818086 -0.277671 -0.627 62 61 69
-0.0740343 -0.279886 -0.632 72 71 79
-0.0695476 -0.281214 -0.635 73 72 80
-0.0637 -0.2821 -0.637 76 75 83
-0.0518905 -0.283871 -0.641 73 72 78
-0.0495257 -0.284314 -0.642 74 73 79
-0.0459286 -0.284757 -0.643 72 71 79
0.131654 -0.287414 -0.649 200 152 140
0.1305 -0.2697 -0.609 202 149 135
0.132702 -0.258186 -0.583 197 143 133
0.138671 -0.252871 -0.571 194 137 126
0.1406 -0.252429 -0.57 195 139 126
0.141686 -0.252429 -0.57 197 141 128
0.146029 -0.252429 -0.57 197 141 128
0.1482 -0.252429 -0.57 199 143 130
0.160424 -0.252871 -0.571 194 136 124
-0.137357 -0.285092 -0.641 96 97 101
-0.122038 -0.265078 -0.596 97 97 105
-0.119483 -0.261965 -0.589 96 96 104
-0.107529 -0.257517 -0.579 77 78 82
-0.1053 -0.260186 -0.585 86 87 92
-0.100667 -0.268636 -0.604 85 84 92
-0.100175 -0.270415 -0.608 84 83 91
-0.0912171 -0.278421 -0.626 57 56 64
-0.076321 -0.280645 -0.631 71 70 78
-0.0483781 -0.285982 -0.643 72 71 79
-0.0412848 -0.287761 -0.647 73 72 80
0.13048 -0.26152 -0.588 200 148 135
0.133933 -0.255293 -0.574 193 139 127
0.135646 -0.254404 -0.572 190 136 124
0.14794 -0.25307 -0.569 200 142 130
0.169125 -0.253959 -0.571 186 128 116
0.17269 -0.254404 -0.572 177 120 109
0.214032 -0.278421 -0.626 185 182 209
0.247092 -0.287761 -0.647 173 123 132
-0.124827 -0.269787 -0.604 95 98 103
-0.115448 -0.259067 -0.58 93 96 101
-0.107529 -0.25862 -0.579 79 79 87
-0.103952 -0.263533 -0.59 93 93 101
-0.102567 -0.265767 -0.595 89 89 97
-0.0820695 -0.280953 -0.629 60 58 69
-0.0741514 -0.28274 -0.633 72 71 79
-0.0661267 -0.284527 -0.637 74 73 81
-0.0543324 -0.286313 -0.641 74 73 79
-0.0496029 -0.287207 -0.643 73 72 77
-0.0436143 -0.2881 -0.645 72 71 77
0.130024 -0.283633 -0.635 200 150 141
0.12933 -0.264873 -0.593 199 145 135
0.130914 -0.259067 -0.58 196 142 132
0.145772 -0.254153 -0.569 201 143 131
0.151191 -0.254153 -0.569 199 141 129
0.245947 -0.287653 -0.644 165 119 130
0.250402 -0.288547 -0.646 151 110 126
-0.11136 -0.258377 -0.576 93 94 99
-0.105869 -0.261069 -0.582 78 78 86
-0.102739 -0.267349 -0.596 91 90 98
-0.0965581 -0.279011 -0.622 73 72 78
-0.08792 -0.281703 -0.628 54 52 63
-0.0742686 -0.284394 -0.634 72 71 79
-0.0662305 -0.286189 -0.638 74 73 81
