ply
format ascii 1.0
comment Created by Open3D
element vertex 1287
property double x
property double y
property double z
property uchar red
property uchar green
property uchar blue
end_header
0.240305 -0.394331 -0.608 132 143 173
0.355544 -0.396277 -0.611 230 234 245
0.357871 -0.396277 -0.611 246 246 255
0.36369 -0.396277 -0.611 254 254 255
0.378274 -0.396926 -0.612 155 183 230
0.412753 -0.397574 -0.613 170 181 209
0.422094 -0.397574 -0.613 228 228 240
0.443834 -0.398223 -0.614 51 98 170
0.468332 -0.400169 -0.617 207 207 217
0.474209 -0.400169 -0.617 196 200 211
0.482827 -0.39952 -0.616 178 191 210
0.488311 -0.400169 -0.617 204 204 206
0.489487 -0.400169 -0.617 185 185 187
0.491837 -0.400169 -0.617 150 145 141
0.503229 -0.400817 -0.618 57 89 148
0.521218 -0.400169 -0.617 75 93 141
0.468127 -0.32234 -0.497 169 138 120
0.456332 -0.306774 -0.473 178 142 120
0.456047 -0.30418 -0.469 184 146 123
0.463195 -0.298991 -0.461 190 146 119
0.464073 -0.298991 -0.461 191 147 120
0.464951 -0.298991 -0.461 191 147 120
0.498994 -0.295749 -0.456 161 119 94
0.51172 -0.29964 -0.462 156 115 85
0.51371 -0.300289 -0.463 154 114 89
0.0743143 -0.375975 -0.578 196 158 137
0.0810429 -0.357111 -0.549 200 158 136
0.0850705 -0.356461 -0.548 201 156 135
0.0956829 -0.357111 -0.549 200 152 130
0.101957 -0.357111 -0.549 201 153 133
0.207878 -0.39549 -0.608 168 170 185
0.222933 -0.39549 -0.608 151 150 164
0.430268 -0.398742 -0.613 218 219 223
0.458614 -0.400043 -0.615 196 220 255
0.48048 -0.400693 -0.616 159 175 198
0.493012 -0.401344 -0.617 199 194 198
0.517692 -0.401344 -0.617 60 95 159
0.520043 -0.401344 -0.617 48 81 148
0.522393 -0.401344 -0.617 138 161 211
0.523569 -0.401344 -0.617 165 173 192
0.530933 -0.400693 -0.616 193 198 202
0.503638 -0.356461 -0.548 167 135 122
0.45947 -0.312879 -0.481 174 139 119
0.462317 -0.29987 -0.461 190 146 119
0.469777 -0.297918 -0.458 187 143 114
0.508629 -0.299219 -0.46 161 116 93
0.520816 -0.303772 -0.467 151 114 88
0.07728 -0.360114 -0.552 203 160 141
0.0781895 -0.359462 -0.551 201 158 139
0.0850705 -0.357505 -0.548 201 156 133
0.0882019 -0.357505 -0.548 200 155 132
0.103003 -0.358157 -0.549 202 155 129
0.137584 -0.37251 -0.571 130 83 75
0.153476 -0.382295 -0.586 115 82 75
0.1818 -0.395343 -0.606 31 46 87
0.229504 -0.395995 -0.607 198 201 216
0.396277 -0.398605 -0.611 233 232 238
0.447782 -0.39991 -0.613 55 102 172
0.450851 -0.400562 -0.614 62 108 170
0.464471 -0.401214 -0.615 161 157 158
0.4715 -0.401214 -0.615 167 173 185
0.481653 -0.401867 -0.616 167 178 196
0.49456 -0.401867 -0.616 195 194 200
0.497713 -0.402519 -0.617 176 189 208
0.50512 -0.401867 -0.616 39 78 145
0.51216 -0.401867 -0.616 28 76 152
0.52624 -0.401867 -0.616 144 144 142
0.530071 -0.401214 -0.615 194 196 195
0.476404 -0.334019 -0.512 169 137 124
0.45892 -0.3014 -0.462 188 147 119
0.46219 -0.300095 -0.46 190 146 117
0.47951 -0.296181 -0.454 183 142 112
0.482564 -0.294876 -0.452 176 135 105
0.486869 -0.294876 -0.452 173 129 100
0.490534 -0.295529 -0.453 170 124 98
0.493347 -0.296181 -0.454 169 123 99
0.508629 -0.300095 -0.46 161 117 90
0.0754495 -0.362474 -0.554 202 159 140
0.133615 -0.371634 -0.568 134 87 79
0.137584 -0.373597 -0.571 130 83 75
0.140493 -0.37556 -0.574 126 83 76
0.1818 -0.396497 -0.606 29 43 88
0.19796 -0.396497 -0.606 114 128 163
0.219098 -0.397151 -0.607 151 148 159
0.413734 -0.399769 -0.611 204 208 219
0.423737 -0.400423 -0.612 173 167 171
0.447051 -0.400423 -0.612 43 90 158
0.459038 -0.401731 -0.614 203 204 224
0.468394 -0.401731 -0.614 197 207 208
0.51216 -0.40304 -0.616 33 73 143
0.513671 -0.402386 -0.615 41 76 142
0.519529 -0.402386 -0.615 87 116 158
0.521871 -0.402386 -0.615 177 184 202
0.526557 -0.402386 -0.615 135 133 136
0.537245 -0.384066 -0.587 164 136 124
0.457413 -0.31144 -0.476 177 140 121
0.456332 -0.309477 -0.473 178 142 120
0.464683 -0.300317 -0.459 189 146 114
0.48018 -0.296391 -0.453 185 141 112
0.489451 -0.295737 -0.452 172 127 96
0.4979 -0.2977 -0.455 164 120 91
0.504672 -0.299663 -0.458 163 118 89
0.0727067 -0.376653 -0.574 193 155 134
0.0746629 -0.364842 -0.556 203 158 137
0.0760905 -0.361561 -0.551 203 156 136
0.086999 -0.358936 -0.547 199 153 130
0.088041 -0.358936 -0.547 199 153 130
0.0965524 -0.359592 -0.548 199 153 130
0.105094 -0.360249 -0.549 203 155 132
0.140493 -0.376653 -0.574 123 82 76
0.144775 -0.379278 -0.578 124 83 77
0.178043 -0.396995 -0.605 77 82 104
0.183805 -0.396995 -0.605 50 73 123
0.204548 -0.396995 -0.605 170 170 182
0.218737 -0.397651 -0.606 175 172 181
0.235662 -0.396995 -0.605 166 172 194
0.239119 -0.396995 -0.605 161 169 192
0.343375 -0.398964 -0.608 231 232 237
0.445886 -0.401589 -0.612 44 92 158
0.457123 -0.402245 -0.613 183 209 242
0.463716 -0.402901 -0.614 209 203 205
0.466055 -0.402901 -0.614 162 160 161
0.47775 -0.402901 -0.614 177 180 197
0.480871 -0.403557 -0.615 189 191 204
0.494929 -0.403557 -0.615 200 202 214
0.498443 -0.403557 -0.615 109 131 172
0.5043 -0.403557 -0.615 92 124 181
0.508986 -0.403557 -0.615 34 81 149
0.539735 -0.402901 -0.614 176 180 192
0.542074 -0.402901 -0.614 164 170 182
0.547922 -0.402901 -0.614 172 165 159
0.509152 -0.36353 -0.554 167 134 117
0.469048 -0.328095 -0.5 169 136 121
0.465291 -0.322846 -0.492 170 137 120
0.459429 -0.314971 -0.48 176 139 120
0.458425 -0.313659 -0.478 175 140 120
0.46219 -0.301848 -0.46 191 148 116
0.46367 -0.300535 -0.458 188 145 113
0.46527 -0.299879 -0.457 187 143 114
0.478454 -0.297254 -0.453 182 141 109
0.496806 -0.29791 -0.454 166 121 92
0.516355 -0.303816 -0.463 155 114 86
0.117871 -0.365243 -0.555 156 103 87
0.130989 -0.372482 -0.566 141 92 78
0.137825 -0.37643 -0.572 128 85 79
0.176598 -0.39749 -0.604 108 109 129
0.198786 -0.398148 -0.605 98 111 146
0.208005 -0.398148 -0.605 169 169 181
0.220681 -0.398148 -0.605 170 165 171
0.2299 -0.398148 -0.605 197 206 223
0.364221 -0.400122 -0.608 232 230 243
0.39614 -0.40078 -0.609 245 243 255
0.4026 -0.401438 -0.61 197 200 205
0.441666 -0.402096 -0.611 92 138 198
0.451714 -0.402754 -0.612 137 171 219
0.471134 -0.403412 -0.613 205 211 223
0.47892 -0.40407 -0.614 200 202 215
0.501141 -0.40407 -0.614 139 162 204
0.52804 -0.40407 -0.614 166 163 174
0.52921 -0.40407 -0.614 162 156 156
0.53185 -0.403412 -0.613 201 199 204
0.536521 -0.403412 -0.613 200 200 210
0.52644 -0.377747 -0.574 162 135 124
0.486425 -0.346158 -0.526 164 134 123
0.481867 -0.34221 -0.52 165 135 124
0.459429 -0.315886 -0.48 173 138 119
0.458425 -0.31457 -0.478 175 140 121
0.455966 -0.307989 -0.468 179 141 118
0.454905 -0.306672 -0.466 181 143 120
0.467881 -0.30075 -0.457 187 146 114
0.476729 -0.298117 -0.453 184 143 111
0.482355 -0.296801 -0.451 179 135 106
0.483214 -0.296801 -0.451 178 134 105
0.48751 -0.296801 -0.451 175 130 99
0.0714886 -0.37818 -0.573 194 153 135
0.0807476 -0.36102 -0.547 203 158 135
0.09412 -0.36036 -0.546 200 152 129
0.0995019 -0.36102 -0.547 202 155 127
0.110725 -0.36366 -0.551 174 124 97
0.137825 -0.37752 -0.572 129 86 80
0.14208 -0.38016 -0.576 122 81 77
0.174009 -0.39798 -0.603 113 111 132
0.177749 -0.39864 -0.604 111 108 125
0.178899 -0.39864 -0.604 91 105 134
0.234122 -0.39864 -0.604 146 153 179
0.235272 -0.39864 -0.604 138 146 169
0.41006 -0.40194 -0.609 231 234 243
0.41586 -0.40194 -0.609 231 235 247
0.449812 -0.40326 -0.611 163 192 226
0.476972 -0.40458 -0.613 203 206 215
0.479308 -0.40458 -0.613 209 210 215
0.489446 -0.40524 -0.614 204 204 206
0.501141 -0.40524 -0.614 177 193 226
0.52251 -0.40458 -0.613 163 168 188
0.524845 -0.40458 -0.613 199 195 209
0.533018 -0.40458 -0.613 200 199 207
0.461443 -0.3201 -0.485 169 136 119
0.456124 -0.3102 -0.47 177 139 118
0.4557 -0.3069 -0.465 184 144 119
0.455604 -0.30624 -0.464 184 144 119
0.465989 -0.30096 -0.456 185 144 112
0.467881 -0.30162 -0.457 186 145 113
0.475676 -0.29832 -0.452 185 142 110
0.483 -0.297 -0.45 175 131 102
0.490087 -0.29766 -0.451 171 128 96
0.4994 -0.29964 -0.454 162 118 93
0.508162 -0.30228 -0.458 160 116 91
0.512133 -0.3036 -0.46 156 114 89
0.514125 -0.30426 -0.461 153 111 86
0.08372 -0.3614 -0.546 203 158 135
0.08476 -0.3614 -0.546 203 159 134
0.0949857 -0.360738 -0.545 199 153 127
0.129681 -0.373976 -0.565 142 93 79
0.137825 -0.37861 -0.572 129 86 80
0.139157 -0.379271 -0.573 126 83 77
0.171711 -0.399129 -0.603 117 119 140
0.210763 -0.399129 -0.603 181 179 192
0.372871 -0.401776 -0.607 220 231 255
0.389699 -0.402438 -0.608 170 186 212
0.408229 -0.402438 -0.608 238 236 250
0.42862 -0.4031 -0.609 144 163 193
0.471531 -0.405086 -0.612 212 216 225
0.472697 -0.405086 -0.612 211 215 224
0.486313 -0.405748 -0.613 208 212 215
0.489446 -0.40641 -0.614 203 207 210
0.490615 -0.40641 -0.614 206 207 212
0.493319 -0.405748 -0.613 151 165 192
0.529817 -0.405086 -0.612 195 194 200
0.533314 -0.405086 -0.612 200 199 207
0.53448 -0.405086 -0.612 202 199 208
0.457357 -0.314405 -0.475 176 139 120
0.456386 -0.306462 -0.463 186 146 121
0.481286 -0.297857 -0.45 175 131 102
0.497437 -0.299843 -0.453 164 120 93
0.505074 -0.301829 -0.456 160 116 87
0.0708648 -0.377044 -0.568 197 151 128
0.0825286 -0.361776 -0.545 204 159 136
0.0949857 -0.361776 -0.545 198 152 126
0.10036 -0.36244 -0.546 200 153 125
0.10367 -0.363104 -0.547 194 144 117
0.109476 -0.365095 -0.55 174 123 94
0.1232 -0.371733 -0.56 149 95 85
0.130989 -0.375716 -0.566 143 93 82
0.148249 -0.387001 -0.583 110 80 82
0.169133 -0.399613 -0.602 84 89 111
0.19698 -0.400277 -0.603 115 126 154
0.201574 -0.400277 -0.603 95 103 139
0.206169 -0.400277 -0.603 176 173 190
0.394839 -0.402932 -0.607 220 226 252
0.405912 -0.403596 -0.608 239 239 251
0.408229 -0.403596 -0.608 240 240 252
0.409387 -0.403596 -0.608 239 238 246
0.416335 -0.403596 -0.608 237 236 250
0.417493 -0.403596 -0.608 232 231 245
0.44254 -0.40426 -0.609 130 168 217
0.4437 -0.40426 -0.609 130 168 217
0.459123 -0.405588 -0.611 155 171 196
0.464942 -0.405588 -0.611 213 212 220
0.496011 -0.406251 -0.612 149 166 192
0.504171 -0.406251 -0.612 107 135 183
0.514986 -0.405588 -0.611 180 197 223
0.466243 -0.328586 -0.495 169 136 121
0.455881 -0.309999 -0.467 182 141 119
0.46614 -0.303361 -0.457 185 144 114
0.466857 -0.302697 -0.456 184 143 113
0.467726 -0.302697 -0.456 184 143 113
0.473277 -0.300706 -0.453 182 141 111
0.482143 -0.298714 -0.45 177 132 103
0.488143 -0.298714 -0.45 172 129 97
0.494617 -0.300042 -0.452 167 122 91
0.5031 -0.302033 -0.455 159 115 86
0.515881 -0.306016 -0.461 146 111 83
0.0885943 -0.362149 -0.544 201 155 129
0.0937752 -0.362149 -0.544 198 152 126
0.104711 -0.364146 -0.547 182 133 101
0.186333 -0.40076 -0.602 79 98 140
0.22188 -0.40076 -0.602 195 201 215
0.378029 -0.403423 -0.606 177 197 234
0.397151 -0.404089 -0.607 226 229 248
0.401776 -0.404089 -0.607 243 243 251
0.41565 -0.404089 -0.607 234 236 249
0.452562 -0.406086 -0.61 212 222 247
0.453724 -0.406086 -0.61 203 214 232
0.46727 -0.406751 -0.611 212 215 224
0.469597 -0.406751 -0.611 212 217 220
0.487851 -0.407417 -0.612 200 201 203
0.50184 -0.407417 -0.612 151 166 185
0.505337 -0.407417 -0.612 114 152 197
0.507669 -0.407417 -0.612 90 131 183
0.523132 -0.406751 -0.611 111 118 136
0.535934 -0.406751 -0.611 204 198 210
0.537098 -0.406751 -0.611 205 199 211
0.501919 -0.362814 -0.545 163 134 126
0.477334 -0.341511 -0.513 168 138 127
0.460311 -0.305563 -0.459 187 146 118
0.461053 -0.304897 -0.458 189 148 120
0.462798 -0.304897 -0.458 188 147 119
0.46527 -0.304231 -0.457 185 141 114
0.465989 -0.303566 -0.456 186 142 115
0.472232 -0.300903 -0.452 182 141 111
0.479571 -0.299571 -0.45 180 135 104
0.516759 -0.306894 -0.461 142 108 81
0.0678257 -0.386551 -0.579 204 153 134
0.0763 -0.363852 -0.545 201 155 132
0.115549 -0.369861 -0.554 166 108 88
0.129681 -0.377205 -0.565 144 94 83
0.176013 -0.401907 -0.602 91 105 134
0.18404 -0.401907 -0.602 91 108 151
0.195507 -0.401907 -0.602 171 171 197
0.1978 -0.401907 -0.602 137 145 164
0.216932 -0.401239 -0.601 183 186 201
0.22838 -0.401239 -0.601 108 115 141
0.421431 -0.405245 -0.607 176 179 196
0.428369 -0.405245 -0.607 225 232 248
0.46999 -0.407248 -0.61 212 219 227
0.496365 -0.407915 -0.611 191 203 219
0.509167 -0.407915 -0.611 113 146 189
0.526624 -0.407915 -0.611 125 135 147
0.538543 -0.407248 -0.61 196 191 197
0.5211 -0.37854 -0.567 163 136 129
0.486425 -0.351168 -0.526 164 136 125
0.456047 -0.313113 -0.469 178 142 120
0.46512 -0.304434 -0.456 184 143 113
0.465989 -0.304434 -0.456 185 144 114
0.468963 -0.302431 -0.453 187 144 112
0.471551 -0.302431 -0.453 186 143 109
0.471371 -0.301764 -0.452 186 143 109
0.474624 -0.301096 -0.451 184 140 111
0.486429 -0.300429 -0.45 176 131 100
0.5057 -0.303767 -0.455 161 111 88
0.0675914 -0.386315 -0.577 202 154 134
0.0709714 -0.369577 -0.552 201 156 133
0.100176 -0.36489 -0.545 189 142 114
0.10348 -0.36556 -0.546 184 134 107
0.113029 -0.369577 -0.552 173 113 89
0.115549 -0.370916 -0.554 166 108 88
0.139643 -0.384976 -0.575 126 85 79
0.171142 -0.402384 -0.601 132 134 147
0.20434 -0.402384 -0.601 151 160 189
0.20663 -0.402384 -0.601 172 175 190
0.212353 -0.402384 -0.601 160 157 174
0.384319 -0.405062 -0.605 234 245 255
0.463019 -0.40841 -0.61 201 200 214
0.47386 -0.40774 -0.609 189 193 205
0.49171 -0.409079 -0.611 107 122 155
0.498692 -0.409079 -0.611 200 204 216
0.499856 -0.409079 -0.611 175 186 204
0.54319 -0.40841 -0.61 208 202 214
0.48735 -0.352839 -0.527 165 135 124
0.475514 -0.341457 -0.51 168 136 125
0.458425 -0.320032 -0.478 175 137 116
0.457049 -0.30865 -0.461 184 143 115
0.46965 -0.302625 -0.452 185 142 110
0.47051 -0.302625 -0.452 186 143 111
0.481071 -0.300616 -0.449 174 131 99
0.500889 -0.303294 -0.453 162 117 88
0.507433 -0.304633 -0.455 157 113 88
0.0863629 -0.364586 -0.543 201 155 129
0.110524 -0.369286 -0.55 172 118 90
0.130989 -0.380029 -0.566 142 93 79
0.139643 -0.386071 -0.575 125 84 78
0.169714 -0.402857 -0.6 136 138 151
0.188313 -0.403529 -0.601 90 102 144
0.189458 -0.403529 -0.601 113 121 158
0.192892 -0.403529 -0.601 166 170 195
0.217714 -0.402857 -0.6 183 190 216
0.229143 -0.402857 -0.6 204 211 230
0.35032 -0.405543 -0.604 244 242 255
0.391233 -0.406214 -0.605 220 222 235
0.436897 -0.406886 -0.606 149 172 206
0.441514 -0.406886 -0.606 141 167 202
0.46574 -0.4089 -0.609 207 207 215
0.488581 -0.409571 -0.61 96 106 131
0.489743 -0.409571 -0.61 110 121 143
0.498692 -0.410243 -0.611 200 204 216
0.501362 -0.409571 -0.61 113 147 185
0.50601 -0.409571 -0.61 148 171 215
0.52026 -0.4089 -0.609 175 177 189
0.5249 -0.4089 -0.609 120 135 154
0.53766 -0.4089 -0.609 152 159 167
0.459429 -0.322286 -0.48 172 135 116
0.458374 -0.320271 -0.477 174 137 118
0.456124 -0.315571 -0.47 179 141 118
0.455604 -0.311543 -0.464 184 144 119
0.462514 -0.306171 -0.456 188 145 113
0.463383 -0.306171 -0.456 183 142 112
0.4681 -0.304157 -0.453 187 144 112
0.489624 -0.301471 -0.449 172 127 94
0.491571 -0.302143 -0.45 169 124 91
0.496959 -0.302814 -0.451 166 121 88
0.0700467 -0.372353 -0.553 196 156 130
0.0851714 -0.364947 -0.542 200 154 128
0.09792 -0.366293 -0.544 193 143 116
0.105947 -0.368987 -0.548 182 128 100
0.108231 -0.36966 -0.549 177 123 95
0.114287 -0.372353 -0.553 169 112 93
0.138307 -0.386493 -0.574 124 84 82
0.143067 -0.390533 -0.58 118 84 82
0.217351 -0.403327 -0.599 172 183 213
0.355483 -0.40602 -0.603 183 192 221
0.384834 -0.406693 -0.604 243 252 255
0.388286 -0.406693 -0.604 250 244 254
0.390587 -0.406693 -0.604 241 243 255
0.392888 -0.406693 -0.604 183 193 205
0.406214 -0.407367 -0.605 217 224 243
0.411976 -0.407367 -0.605 223 232 249
0.415433 -0.407367 -0.605 214 223 240
0.425805 -0.407367 -0.605 224 225 230
0.42811 -0.407367 -0.605 228 232 243
0.5017 -0.41006 -0.609 111 143 182
0.508983 -0.409387 -0.608 122 146 182
0.52722 -0.41006 -0.609 149 160 180
0.509287 -0.372353 -0.553 160 131 115
0.463386 -0.32926 -0.489 172 137 118
0.459507 -0.324547 -0.482 172 135 116
0.455792 -0.313773 -0.466 183 141 117
0.457689 -0.30906 -0.459 186 145 117
0.460047 -0.307713 -0.457 188 144 115
0.465674 -0.305693 -0.454 184 143 111
0.472906 -0.303673 -0.451 185 142 108
0.478506 -0.302327 -0.449 178 133 102
0.480216 -0.302327 -0.449 175 130 99
0.514269 -0.308387 -0.458 146 110 86
0.0862038 -0.365979 -0.542 204 157 129
0.0882686 -0.365979 -0.542 201 154 126
0.0946371 -0.366654 -0.543 200 150 123
0.0999924 -0.36733 -0.544 187 136 109
0.13122 -0.38286 -0.567 141 93 79
0.160036 -0.403792 -0.598 92 93 114
0.16715 -0.404468 -0.599 136 132 146
0.178857 -0.405143 -0.6 101 113 155
0.196814 -0.404468 -0.599 167 176 181
0.200237 -0.404468 -0.599 169 176 195
0.242452 -0.404468 -0.599 168 182 208
0.388286 -0.407844 -0.604 245 244 250
0.389436 -0.407844 -0.604 246 249 255
0.395189 -0.407844 -0.604 182 193 211
0.39979 -0.407844 -0.604 204 214 241
0.400941 -0.407844 -0.604 207 219 243
0.411976 -0.408519 -0.605 214 226 250
0.424652 -0.408519 -0.605 204 208 219
0.441938 -0.408519 -0.605 170 193 225
0.444243 -0.408519 -0.605 138 168 202
0.446131 -0.409194 -0.606 150 169 202
0.461501 -0.410545 -0.608 165 176 198
0.464975 -0.410545 -0.608 182 188 210
0.50054 -0.41122 -0.609 118 150 188
0.510141 -0.410545 -0.608 116 140 174
0.514773 -0.410545 -0.608 180 192 204
0.459429 -0.324114 -0.48 172 137 117
0.457357 -0.320738 -0.475 175 138 119
0.455792 -0.314661 -0.466 182 142 117
0.4557 -0.313986 -0.465 183 143 118
0.455604 -0.31331 -0.464 184 144 119
0.468963 -0.305883 -0.453 187 144 112
0.47594 -0.303182 -0.449 179 134 103
0.479147 -0.302507 -0.448 176 131 100
0.480853 -0.302507 -0.448 174 129 98
0.490479 -0.303182 -0.449 171 125 92
0.503477 -0.305883 -0.453 162 118 91
0.0671429 -0.381909 -0.564 200 156 129
0.07228 -0.36972 -0.546 203 158 135
0.0800095 -0.367011 -0.542 204 158 132
0.113029 -0.373783 -0.552 170 115 94
0.121697 -0.377846 -0.558 151 101 92
0.127303 -0.381909 -0.564 142 94 82
0.158897 -0.404931 -0.598 70 72 95
0.162586 -0.405609 -0.599 118 120 133
0.170288 -0.404931 -0.598 141 140 158
0.175136 -0.405609 -0.599 67 81 118
0.176277 -0.405609 -0.599 73 87 124
0.184264 -0.405609 -0.599 106 117 147
0.19111 -0.405609 -0.599 157 163 189
0.193069 -0.404931 -0.598 173 172 188
0.194208 -0.404931 -0.598 174 173 189
0.210154 -0.404931 -0.598 156 175 207
0.222684 -0.404931 -0.598 94 117 167
0.237889 -0.405609 -0.599 195 203 226
0.242452 -0.405609 -0.599 176 190 217
0.353747 -0.40764 -0.602 155 172 215
0.35604 -0.40764 -0.602 230 246 255
0.36292 -0.40764 -0.602 252 253 255
0.385346 -0.408317 -0.603 245 249 255
0.405543 -0.408994 -0.604 213 233 255
0.437756 -0.408994 -0.604 177 203 238
0.445395 -0.409671 -0.605 142 161 194
0.451903 -0.410349 -0.606 223 229 241
0.455366 -0.410349 -0.606 207 208 212
0.45652 -0.410349 -0.606 224 225 229
0.463054 -0.411026 -0.607 129 140 170
0.48271 -0.411026 -0.607 108 127 159
0.513927 -0.411026 -0.607 176 188 200
0.521722 -0.411703 -0.608 194 200 212
0.525489 -0.411026 -0.607 126 138 160
0.539363 -0.411026 -0.607 182 196 222
0.499266 -0.366334 -0.541 165 135 125
0.475514 -0.345343 -0.51 164 134 123
0.460047 -0.309454 -0.457 185 144 114
0.468963 -0.306746 -0.453 186 143 109
0.46947 -0.305391 -0.451 184 141 107
0.48256 -0.30336 -0.448 172 127 94
0.507183 -0.307423 -0.454 153 113 88
0.534484 -0.319611 -0.472 141 106 84
0.119143 -0.37755 -0.556 154 102 91
0.134321 -0.387736 -0.571 132 89 80
0.138789 -0.391131 -0.576 115 85 85
0.163453 -0.40607 -0.598 126 126 138
0.171427 -0.40607 -0.598 131 129 150
0.205598 -0.40607 -0.598 77 95 135
0.232935 -0.40607 -0.598 223 222 236
0.243187 -0.40607 -0.598 183 197 226
0.317143 -0.407429 -0.6 178 190 228
0.345146 -0.408108 -0.601 191 215 249
0.347435 -0.408108 -0.601 194 217 251
0.38356 -0.408787 -0.602 246 249 255
0.389293 -0.408787 -0.602 228 229 233
0.423249 -0.409466 -0.603 230 233 242
0.443509 -0.410145 -0.604 150 180 218
0.461137 -0.411503 -0.606 168 179 201
0.480397 -0.412182 -0.607 101 126 167
0.499718 -0.412861 -0.608 114 144 182
0.538207 -0.412182 -0.607 140 156 189
0.460491 -0.328659 -0.484 171 138 119
0.458425 -0.324585 -0.478 174 139 119
0.459176 -0.310325 -0.457 186 145 115
0.46481 -0.308288 -0.454 184 141 109
0.4681 -0.307609 -0.453 187 144 112
0.47423 -0.304892 -0.449 177 132 99
0.48574 -0.303534 -0.447 173 128 97
0.489387 -0.304213 -0.448 172 126 93
0.5214 -0.31372 -0.462 140 108 85
0.0848571 -0.367714 -0.54 201 155 129
0.0889714 -0.367714 -0.54 201 154 126
0.0965276 -0.369076 -0.542 196 146 119
0.105753 -0.372481 -0.547 182 127 97
0.131451 -0.386781 -0.568 133 89 78
0.135883 -0.390186 -0.573 122 87 83
0.1794 -0.40721 -0.598 90 105 148
0.181678 -0.40721 -0.598 90 104 143
0.185095 -0.40721 -0.598 83 97 136
0.20332 -0.40721 -0.598 97 103 127
0.246604 -0.40721 -0.598 172 187 218
0.261411 -0.40721 -0.598 247 247 255
0.39388 -0.409933 -0.602 202 208 222
0.410614 -0.410614 -0.603 168 196 244
0.441208 -0.411295 -0.604 158 188 226
0.442358 -0.411295 -0.604 158 188 226
0.470371 -0.412657 -0.606 157 185 225
0.478451 -0.412657 -0.606 103 133 183
0.528086 -0.412657 -0.606 84 104 137
0.52924 -0.412657 -0.606 76 107 151
0.531549 -0.412657 -0.606 109 142 185
0.501111 -0.369757 -0.543 164 134 123
0.4865 -0.3575 -0.525 164 135 121
0.457466 -0.324814 -0.477 175 140 120
0.457357 -0.323452 -0.475 175 140 120
0.456267 -0.32141 -0.472 175 139 117
0.458436 -0.311876 -0.458 187 146 116
0.458306 -0.311195 -0.457 187 146 116
0.4615 -0.309833 -0.455 188 145 113
0.463233 -0.309833 -0.455 186 142 113
0.466374 -0.308471 -0.453 188 144 115
0.467067 -0.30779 -0.452 187 144 112
0.468789 -0.30779 -0.452 183 140 106
0.46861 -0.30711 -0.451 183 140 106
0.475085 -0.305748 -0.449 182 137 104
0.475733 -0.305067 -0.448 177 132 99
0.47978 -0.304386 -0.447 174 128 95
0.483186 -0.304386 -0.447 176 130 97
0.0702 -0.37284 -0.546 205 161 136
0.077801 -0.369426 -0.541 203 159 132
0.0858857 -0.368743 -0.54 200 153 127
0.10452 -0.37284 -0.546 186 132 108
0.137691 -0.393326 -0.576 119 83 83
0.15723 -0.406983 -0.596 73 76 109
0.158366 -0.406983 -0.596 98 101 134
0.167729 -0.407666 -0.597 142 137 144
0.174551 -0.407666 -0.597 69 91 138
0.191288 -0.406983 -0.596 167 175 194
0.230271 -0.407666 -0.597 219 225 239
0.239369 -0.407666 -0.597 158 175 205
0.359429 -0.409714 -0.6 244 248 251
0.360571 -0.409714 -0.6 250 254 255
0.437031 -0.411763 -0.603 152 178 215
0.456919 -0.413129 -0.605 224 224 232
0.465754 -0.413811 -0.606 86 117 161
0.475357 -0.413129 -0.605 110 147 202
0.477662 -0.413129 -0.605 77 112 168
0.501209 -0.414494 -0.607 126 151 192
0.520006 -0.413811 -0.606 193 202 209
0.535281 -0.413129 -0.605 99 123 171
0.482857 -0.355086 -0.52 165 136 122
0.461469 -0.331869 -0.486 170 137 118
0.455229 -0.320943 -0.47 176 140 118
0.455604 -0.316846 -0.464 183 143 118
0.458436 -0.312749 -0.458 188 147 119
0.467928 -0.308651 -0.452 187 142 111
0.467751 -0.307969 -0.451 185 140 109
0.491947 -0.30592 -0.448 171 125 91
0.494507 -0.30592 -0.448 168 122 88
0.5109 -0.3107 -0.455 147 111 89
0.0627571 -0.392369 -0.573 200 158 134
0.0674486 -0.375934 -0.549 203 158 135
0.0729171 -0.371826 -0.543 202 158 133
0.0738152 -0.371141 -0.542 202 158 133
0.0920571 -0.369771 -0.54 198 151 125
0.0932581 -0.370456 -0.541 201 150 121
0.110524 -0.376619 -0.55 173 117 94
0.116814 -0.380043 -0.555 161 103 89
0.153567 -0.407433 -0.595 47 54 82
0.1547 -0.407433 -0.595 67 67 101
0.159501 -0.408118 -0.596 119 118 126
0.166312 -0.408118 -0.596 143 141 154
0.189017 -0.408118 -0.596 107 124 168
0.192423 -0.408118 -0.596 176 179 198
0.20037 -0.408118 -0.596 182 189 197
0.211722 -0.408118 -0.596 82 107 174
0.213992 -0.408118 -0.596 63 99 161
0.218533 -0.408118 -0.596 92 121 177
0.219669 -0.408118 -0.596 126 155 211
0.237832 -0.408118 -0.596 157 171 197
0.238968 -0.408118 -0.596 159 178 210
0.272346 -0.408803 -0.597 123 150 195
0.46729 -0.414281 -0.605 68 104 152
0.47651 -0.414281 -0.605 53 97 160
0.481119 -0.414281 -0.605 123 154 209
0.512233 -0.414281 -0.605 130 153 185
0.454905 -0.319099 -0.466 176 138 115
0.460047 -0.312936 -0.457 185 144 116
0.478929 -0.306089 -0.447 177 131 98
0.4917 -0.306089 -0.447 169 123 89
0.494507 -0.306773 -0.448 168 122 89
0.502972 -0.308828 -0.451 158 114 87
0.0625381 -0.392087 -0.571 202 157 136
0.0727829 -0.372173 -0.542 202 156 132
0.102065 -0.373547 -0.544 187 133 109
0.1683 -0.408567 -0.595 141 145 157
0.169433 -0.408567 -0.595 131 138 164
0.179935 -0.409253 -0.596 45 77 128
0.186747 -0.409253 -0.596 75 104 148
0.193233 -0.408567 -0.595 185 188 207
0.214767 -0.408567 -0.595 64 99 165
0.2193 -0.408567 -0.595 149 175 232
0.220433 -0.408567 -0.595 184 200 236
0.221567 -0.408567 -0.595 200 216 252
0.25032 -0.409253 -0.596 153 176 217
0.388 -0.412 -0.6 249 252 255
0.431003 -0.412687 -0.601 146 176 214
0.44204 -0.413373 -0.602 136 177 221
0.468819 -0.414747 -0.604 64 108 169
0.510236 -0.414747 -0.604 108 132 168
0.51944 -0.414747 -0.604 199 207 210
0.521741 -0.414747 -0.604 202 209 217
0.533246 -0.414747 -0.604 61 97 149
0.454814 -0.3193 -0.465 177 139 116
0.4554 -0.31724 -0.462 184 144 118
0.482105 -0.306253 -0.446 176 129 99
0.49536 -0.307627 -0.448 170 124 91
0.496213 -0.307627 -0.448 168 124 87
0.502972 -0.309687 -0.451 158 114 87
0.51376 -0.31312 -0.456 144 109 89
0.06358 -0.386289 -0.561 201 156 133
0.0747095 -0.372517 -0.541 202 156 130
0.0786857 -0.371829 -0.54 205 159 135
0.0898333 -0.37114 -0.539 200 152 129
0.0985924 -0.373206 -0.542 190 138 114
0.0998086 -0.373894 -0.543 190 136 112
0.106795 -0.376649 -0.547 176 120 97
0.1547 -0.4097 -0.595 89 96 125
0.190967 -0.4097 -0.595 170 177 195
0.1955 -0.4097 -0.595 189 191 204
0.234033 -0.4097 -0.595 218 226 249
0.235167 -0.4097 -0.595 193 201 224
0.2397 -0.4097 -0.595 161 181 214
0.401239 -0.413831 -0.601 103 135 192
0.421845 -0.413831 -0.601 240 240 255
0.468819 -0.415897 -0.604 53 98 166
0.499557 -0.416586 -0.605 114 147 188
0.509086 -0.415897 -0.604 113 141 189
0.51829 -0.415897 -0.604 198 206 217
0.528644 -0.415897 -0.604 141 159 195
0.532095 -0.415897 -0.604 57 92 150
0.456267 -0.325006 -0.472 179 143 121
0.458171 -0.313989 -0.456 184 142 117
0.462215 -0.312611 -0.454 188 147 119
0.465345 -0.311234 -0.452 187 143 114
0.476158 -0.307103 -0.446 181 134 104
0.483804 -0.307103 -0.446 174 128 95
0.0707181 -0.374238 -0.542 203 157 131
0.0756 -0.372857 -0.54 204 159 130
0.1232 -0.386667 -0.56 142 94 84
0.172543 -0.410143 -0.594 71 91 141
0.180463 -0.410143 -0.594 50 80 130
0.199697 -0.410143 -0.594 160 171 193
0.244233 -0.410833 -0.595 120 154 200
0.247633 -0.410833 -0.595 162 190 230
0.399429 -0.414286 -0.6 132 163 209
0.418857 -0.414286 -0.6 237 236 254
0.44892 -0.415667 -0.602 212 230 250
0.481826 -0.416357 -0.603 208 217 226
0.483775 -0.417048 -0.604 204 213 222
0.535809 -0.416357 -0.603 54 90 150
0.538106 -0.416357 -0.603 55 87 148
0.460486 -0.313476 -0.454 182 141 113
0.46308 -0.313476 -0.454 188 147 119
0.466206 -0.312095 -0.452 185 141 112
0.475523 -0.308643 -0.447 180 135 104
0.481024 -0.307262 -0.445 177 131 98
0.485262 -0.307262 -0.445 173 127 94
0.488051 -0.307952 -0.446 172 126 93
0.0996248 -0.37527 -0.542 187 135 111
0.109277 -0.380117 -0.549 174 117 97
0.153309 -0.411274 -0.594 50 62 100
0.1782 -0.411274 -0.594 40 73 126
0.184677 -0.410582 -0.593 66 96 150
0.20988 -0.411274 -0.594 63 97 161
0.212143 -0.411274 -0.594 60 97 167
0.214045 -0.410582 -0.593 64 101 171
0.217433 -0.410582 -0.593 102 134 183
0.268033 -0.411967 -0.595 197 211 237
0.385568 -0.414044 -0.598 229 235 247
0.39534 -0.414736 -0.599 203 226 255
0.397622 -0.414736 -0.599 163 197 243
0.405143 -0.415429 -0.6 94 125 189
0.415877 -0.414736 -0.599 205 220 241
0.429569 -0.414736 -0.599 134 170 218
0.45924 -0.416813 -0.602 206 208 231
0.471489 -0.417506 -0.603 45 94 161
0.475293 -0.416813 -0.602 117 151 212
0.517431 -0.417506 -0.603 196 202 216
0.473712 -0.350345 -0.506 163 134 118
0.456452 -0.328881 -0.475 176 141 121
0.456197 -0.326111 -0.471 176 141 121
0.45472 -0.321265 -0.464 175 139 115
0.466714 -0.311571 -0.45 182 138 109
0.485262 -0.30811 -0.445 173 127 93
0.48611 -0.30811 -0.445 174 128 94
0.49145 -0.308802 -0.446 166 120 86
0.496809 -0.309494 -0.447 169 123 90
0.512371 -0.314341 -0.454 141 105 83
0.522906 -0.319188 -0.461 141 107 82
0.0603629 -0.396437 -0.571 200 154 128
0.0637267 -0.38394 -0.553 203 159 134
0.0696857 -0.376303 -0.542 199 153 127
0.0744333 -0.37422 -0.539 204 157 129
0.0854086 -0.372831 -0.537 199 152 124
0.0874543 -0.372831 -0.537 200 150 123
0.0896667 -0.373526 -0.538 198 148 121
0.118084 -0.386023 -0.556 151 102 88
0.150537 -0.411017 -0.592 24 34 69
0.157569 -0.411711 -0.593 43 51 87
0.190004 -0.411017 -0.592 111 125 162
0.207268 -0.411711 -0.593 63 95 156
0.209527 -0.411711 -0.593 62 96 159
0.223081 -0.411711 -0.593 135 157 198
0.376963 -0.414489 -0.597 141 181 232
0.386707 -0.415183 -0.598 199 207 220
0.392402 -0.415183 -0.598 173 191 229
0.397622 -0.415877 -0.599 120 156 206
0.403327 -0.415877 -0.599 95 129 193
0.40789 -0.415877 -0.599 91 124 191
0.43071 -0.415877 -0.599 125 165 216
0.43185 -0.415877 -0.599 119 159 210
0.447429 -0.416571 -0.6 168 192 226
0.450464 -0.417266 -0.601 199 205 221
0.457332 -0.417266 -0.601 163 176 195
0.467267 -0.41796 -0.602 48 91 160
0.474147 -0.41796 -0.602 60 106 181
0.481826 -0.418654 -0.603 163 186 217
0.495609 -0.418654 -0.603 101 137 189
0.500203 -0.418654 -0.603 80 124 185
0.511987 -0.41796 -0.602 139 165 202
0.51772 -0.41796 -0.602 183 195 209
0.518867 -0.41796 -0.602 161 173 187
0.529187 -0.41796 -0.602 83 110 163
0.454814 -0.322843 -0.465 176 140 118
0.455066 -0.318677 -0.459 182 145 119
0.456691 -0.317983 -0.458 182 145 119
0.466714 -0.312429 -0.45 182 138 109
0.47656 -0.308263 -0.444 179 134 103
0.485262 -0.308957 -0.445 174 128 95
0.492299 -0.309651 -0.446 169 120 87
0.526056 -0.321454 -0.463 140 106 79
0.0608048 -0.393348 -0.565 191 151 125
0.0667114 -0.378031 -0.543 202 156 130
0.0742952 -0.37455 -0.538 205 158 132
0.092741 -0.37455 -0.538 191 139 115
0.120634 -0.388474 -0.558 142 95 85
0.12342 -0.390563 -0.561 139 96 87
0.12471 -0.391259 -0.562 132 93 86
0.127754 -0.394044 -0.566 126 89 83
0.157569 -0.412841 -0.593 46 55 86
0.171962 -0.412145 -0.592 37 62 116
0.18211 -0.412145 -0.592 34 67 120
0.193387 -0.412145 -0.592 168 174 196
0.197897 -0.412145 -0.592 98 123 164
0.208046 -0.412145 -0.592 71 103 164
0.355897 -0.41493 -0.596 177 189 211
0.387197 -0.415626 -0.597 178 185 201
0.398097 -0.416322 -0.598 98 134 186
0.40721 -0.416322 -0.598 92 125 192
0.4186 -0.416322 -0.598 159 171 197
0.423156 -0.416322 -0.598 164 169 188
0.426573 -0.416322 -0.598 137 159 183
0.43071 -0.417018 -0.599 106 147 199
0.435273 -0.417018 -0.599 84 133 199
0.448571 -0.417714 -0.6 157 164 183
0.467635 -0.41841 -0.601 45 91 169
0.474147 -0.419107 -0.602 45 91 166
0.520294 -0.41841 -0.601 79 102 133
0.532627 -0.419107 -0.602 47 82 146
0.482917 -0.361323 -0.519 160 132 118
0.45947 -0.334868 -0.481 171 138 119
0.457413 -0.331387 -0.476 175 142 123
0.458609 -0.315374 -0.453 181 141 116
0.463623 -0.314678 -0.452 186 145 117
0.470414 -0.311197 -0.447 187 142 113
0.475938 -0.309805 -0.445 182 137 106
0.483326 -0.309109 -0.444 176 130 97
0.495697 -0.310501 -0.446 167 123 88
0.510114 -0.314678 -0.452 142 106 80
0.0772257 -0.374877 -0.537 208 161 135
0.0874543 -0.374877 -0.537 202 152 125
0.0949667 -0.376273 -0.539 195 141 115
0.103101 -0.379764 -0.544 174 118 93
0.119571 -0.389537 -0.558 147 99 89
0.166324 -0.413272 -0.592 106 118 134
0.169707 -0.413272 -0.592 65 81 114
0.187431 -0.412574 -0.591 126 152 185
0.188557 -0.412574 -0.591 146 160 197
0.194186 -0.412574 -0.591 160 165 184
0.196437 -0.412574 -0.591 148 160 184
0.20882 -0.412574 -0.591 73 104 161
0.350767 -0.415367 -0.595 151 177 212
0.391746 -0.416763 -0.597 144 162 202
0.398569 -0.416763 -0.597 85 126 190
0.419739 -0.417461 -0.598 182 189 215
0.42999 -0.417461 -0.598 89 130 182
0.434547 -0.417461 -0.598 71 120 186
0.442119 -0.418159 -0.599 76 120 181
0.465346 -0.419555 -0.601 51 93 165
0.47988 -0.420253 -0.602 72 107 175
0.4902 -0.420253 -0.602 150 166 182
0.511136 -0.419555 -0.601 82 113 157
0.526018 -0.419555 -0.601 60 92 151
0.53861 -0.419555 -0.601 48 84 146
0.455368 -0.329501 -0.472 178 141 122
0.454905 -0.325312 -0.466 176 140 118
0.455066 -0.320426 -0.459 181 145 121
0.458756 -0.316935 -0.454 179 139 113
0.458609 -0.316237 -0.453 181 141 116
0.470414 -0.312049 -0.447 185 141 112
0.480789 -0.309954 -0.444 177 133 98
0.49289 -0.310652 -0.445 170 121 88
0.495697 -0.31135 -0.446 169 120 87
0.5301 -0.324614 -0.465 135 103 80
0.0607857 -0.3885 -0.555 203 158 137
0.0664657 -0.3787 -0.541 203 157 131
0.0673714 -0.378 -0.54 204 158 132
0.092741 -0.3766 -0.538 193 137 112
0.104329 -0.3815 -0.545 169 114 93
0.1066 -0.3822 -0.546 171 115 98
0.110524 -0.385 -0.55 166 110 93
0.119571 -0.3906 -0.558 147 99 89
0.148031 -0.4137 -0.591 22 28 60
0.196437 -0.4137 -0.591 187 195 218
0.204317 -0.4137 -0.591 77 107 167
0.220077 -0.4137 -0.591 172 198 233
0.359833 -0.4165 -0.595 220 226 242
0.370033 -0.4165 -0.595 110 149 204
0.398569 -0.4179 -0.597 84 128 191
0.415626 -0.4179 -0.597 179 194 223
0.452388 -0.4193 -0.599 194 204 214
0.462286 -0.42 -0.6 81 119 181
0.514857 -0.42 -0.6 199 206 224
0.537714 -0.42 -0.6 46 81 145
0.522337 -0.3962 -0.566 161 133 121
0.457413 -0.3332 -0.476 173 140 121
0.455694 -0.3199 -0.457 182 144 121
0.457027 -0.3178 -0.454 178 141 114
0.462762 -0.3164 -0.452 186 144 119
0.46786 -0.3129 -0.447 186 142 113
0.468711 -0.3129 -0.447 186 142 113
0.474243 -0.3115 -0.445 182 137 106
0.484171 -0.3108 -0.444 175 129 95
0.495697 -0.3122 -0.446 167 118 85
0.50304 -0.3136 -0.448 152 112 86
0.0592 -0.393067 -0.56 201 155 129
0.06622 -0.378327 -0.539 204 158 132
0.0691714 -0.377625 -0.538 210 163 137
0.0789762 -0.375519 -0.535 206 161 130
0.0820333 -0.375519 -0.535 206 159 129
0.0840714 -0.375519 -0.535 205 158 128
0.0850905 -0.375519 -0.535 204 157 127
0.115549 -0.388855 -0.554 148 100 88
0.148031 -0.414826 -0.591 25 31 63
0.160143 -0.414124 -0.59 134 137 154
0.184867 -0.414124 -0.59 86 128 188
0.196105 -0.414124 -0.59 198 205 224
0.198689 -0.414826 -0.591 196 209 225
0.207343 -0.414124 -0.59 86 117 174
0.22458 -0.414826 -0.591 220 223 238
0.226831 -0.414826 -0.591 231 234 251
0.370033 -0.417633 -0.595 117 158 210
0.380233 -0.417633 -0.595 202 231 255
0.39563 -0.418335 -0.596 156 183 230
0.402442 -0.418335 -0.596 91 126 190
0.418335 -0.418335 -0.596 211 219 230
0.421741 -0.418335 -0.596 227 234 250
0.438369 -0.419037 -0.597 103 153 212
0.446329 -0.419037 -0.597 199 214 233
0.456951 -0.420441 -0.599 187 194 212
0.477143 -0.421143 -0.6 128 175 221
0.49511 -0.421845 -0.601 96 120 168
0.519429 -0.421143 -0.6 174 186 198
0.473738 -0.354462 -0.505 163 134 118
0.462394 -0.341126 -0.486 168 137 119
0.459429 -0.336914 -0.48 171 138 119
0.456434 -0.320069 -0.456 186 146 121
0.457167 -0.319367 -0.455 182 142 116
0.464315 -0.316559 -0.451 187 146 118
0.468711 -0.313751 -0.447 186 142 113
0.469362 -0.31305 -0.446 184 140 111
0.497396 -0.31305 -0.446 164 119 86
0.0568 -0.399764 -0.568 199 159 134
0.0699352 -0.377242 -0.536 208 161 135
0.076061 -0.377242 -0.536 206 160 127
0.0779571 -0.376538 -0.535 207 161 128
0.0810143 -0.376538 -0.535 204 157 127
0.0861095 -0.376538 -0.535 202 155 125
0.180371 -0.415248 -0.59 57 101 162
0.186797 -0.414544 -0.589 183 196 215
0.19161 -0.415248 -0.59 202 207 226
0.193529 -0.414544 -0.589 207 210 225
0.221952 -0.415248 -0.59 222 227 246
0.366017 -0.418063 -0.594 138 173 213
0.416065 -0.41947 -0.596 214 220 232
0.422876 -0.41947 -0.596 225 231 245
0.425147 -0.41947 -0.596 200 216 229
0.436499 -0.41947 -0.596 92 147 212
0.444054 -0.420174 -0.597 156 188 226
0.445191 -0.420174 -0.597 185 217 255
0.45505 -0.420878 -0.598 209 212 221
0.468361 -0.421582 -0.599 50 92 164
0.480571 -0.422286 -0.6 170 184 193
0.487429 -0.422286 -0.6 206 212 226
0.540241 -0.421582 -0.599 125 156 200
0.485709 -0.367389 -0.522 160 132 120
0.473738 -0.355424 -0.505 164 135 121
0.454191 -0.323049 -0.459 180 144 120
0.462597 -0.317418 -0.451 185 144 116
0.466532 -0.31601 -0.449 184 140 111
0.508714 -0.316714 -0.45 145 109 85
0.518103 -0.320937 -0.456 140 105 83
0.0623438 -0.381791 -0.541 204 160 133
0.0650724 -0.379674 -0.538 205 159 133
0.0719771 -0.378263 -0.536 205 158 130
0.073881 -0.377557 -0.535 208 161 133
0.0788286 -0.376851 -0.534 207 160 130
0.0798457 -0.376851 -0.534 205 158 128
0.113029 -0.389554 -0.552 152 104 90
0.118296 -0.393083 -0.557 146 97 90
0.15875 -0.415666 -0.589 143 143 153
0.165481 -0.415666 -0.589 147 151 160
0.183431 -0.415666 -0.589 79 115 177
0.186797 -0.415666 -0.589 189 197 210
0.210357 -0.415666 -0.589 106 132 183
0.243305 -0.416371 -0.59 122 163 209
0.244429 -0.416371 -0.59 128 169 215
0.326446 -0.417783 -0.592 246 250 255
0.366017 -0.419194 -0.594 141 176 218
0.369411 -0.419194 -0.594 126 167 213
0.387514 -0.419194 -0.594 237 242 248
0.4063 -0.4199 -0.595 91 127 189
0.4165 -0.4199 -0.595 200 207 213
0.470996 -0.422017 -0.598 52 99 177
0.472135 -0.422017 -0.598 48 96 162
0.498026 -0.422723 -0.599 71 125 189
0.505714 -0.423429 -0.6 74 121 189
0.506012 -0.422723 -0.599 69 118 176
0.515419 -0.422017 -0.598 188 189 191
0.518563 -0.422723 -0.599 198 203 209
0.521986 -0.422723 -0.599 186 198 210
0.52769 -0.422723 -0.599 70 108 170
0.535922 -0.422017 -0.598 48 86 149
0.527874 -0.403669 -0.572 161 133 121
0.492143 -0.374029 -0.53 160 132 120
0.453043 -0.328157 -0.465 177 141 119
0.452858 -0.326746 -0.463 176 140 118
0.454305 -0.324629 -0.46 178 140 119
0.454191 -0.323923 -0.459 180 142 119
0.4563 -0.3211 -0.455 185 145 119
0.46831 -0.314043 -0.445 184 141 107
0.471486 -0.313337 -0.444 183 138 105
0.478623 -0.311926 -0.442 176 131 98
0.0630229 -0.380699 -0.538 203 157 131
0.0718429 -0.378576 -0.535 205 158 130
0.0925686 -0.379991 -0.537 188 134 110
0.102911 -0.384237 -0.543 177 123 97
0.109078 -0.387775 -0.548 160 107 93
0.113029 -0.390606 -0.552 151 103 89
0.1596 -0.41608 -0.588 149 147 158
0.182 -0.41608 -0.588 84 128 177
0.19096 -0.41608 -0.588 207 214 224
0.212601 -0.416788 -0.589 95 122 175
0.233917 -0.416788 -0.589 134 167 210
0.373308 -0.419618 -0.593 154 186 237
0.374437 -0.419618 -0.593 155 187 238
0.376696 -0.419618 -0.593 141 175 221
0.394303 -0.420326 -0.594 147 168 213
0.401091 -0.420326 -0.594 99 139 201
0.412406 -0.420326 -0.594 209 216 234
0.415367 -0.421033 -0.595 210 209 215
0.417633 -0.421033 -0.595 238 245 251
0.431233 -0.421033 -0.595 109 156 208
0.4369 -0.421033 -0.595 110 155 210
0.456563 -0.422449 -0.597 212 213 218
0.476691 -0.423156 -0.598 179 182 197
0.480109 -0.423156 -0.598 206 213 219
0.481248 -0.423156 -0.598 206 213 219
0.490039 -0.423864 -0.599 214 218 230
0.509724 -0.423156 -0.598 183 192 201
0.510863 -0.423156 -0.598 199 208 217
0.52655 -0.423864 -0.599 66 104 166
0.459429 -0.339657 -0.48 171 138 119
0.453317 -0.324797 -0.459 179 141 118
0.455433 -0.321967 -0.455 185 145 119
0.463111 -0.317721 -0.449 187 144 112
0.05876 -0.3874 -0.546 204 157 137
0.0767943 -0.378886 -0.534 204 158 132
0.0849314 -0.378886 -0.534 202 155 127
0.0879829 -0.378886 -0.534 192 142 115
0.118296 -0.395205 -0.557 146 99 89
0.148652 -0.41791 -0.589 44 46 71
0.15176 -0.4172 -0.588 52 58 82
0.16184 -0.4172 -0.588 156 153 164
0.16856 -0.4172 -0.588 88 99 127
0.187281 -0.41649 -0.587 202 211 218
0.191753 -0.41649 -0.587 207 215 226
0.21336 -0.4172 -0.588 111 138 183
0.246258 -0.41791 -0.589 143 180 222
0.351253 -0.420038 -0.592 242 241 249
0.356891 -0.420038 -0.592 247 249 248
0.396566 -0.421457 -0.594 109 140 197
0.418063 -0.421457 -0.594 235 244 253
0.432367 -0.422167 -0.595 110 155 210
0.434633 -0.422167 -0.595 100 148 197
0.4437 -0.422167 -0.595 176 203 233
0.452392 -0.422876 -0.596 222 221 226
0.463386 -0.423586 -0.597 64 114 177
0.509724 -0.424295 -0.598 169 178 187
0.531366 -0.424295 -0.598 63 98 152
0.482041 -0.366824 -0.517 161 131 120
0.465281 -0.348376 -0.491 165 133 118
0.453429 -0.326381 -0.46 179 142 116
0.456162 -0.322124 -0.454 186 145 117
0.463111 -0.318576 -0.449 185 142 110
0.47064 -0.315029 -0.444 179 134 101
0.47586 -0.3129 -0.441 179 135 100
0.48006 -0.3129 -0.441 175 129 93
0.496011 -0.315029 -0.444 166 120 86
0.502769 -0.317157 -0.447 154 113 83
0.100471 -0.384883 -0.541 172 121 92
0.125598 -0.402669 -0.566 127 92 88
0.15821 -0.417609 -0.587 149 149 157
0.178336 -0.417609 -0.587 108 141 182
0.185045 -0.417609 -0.587 204 210 224
0.23464 -0.41832 -0.588 146 178 219
0.381699 -0.421166 -0.592 240 244 255
0.383954 -0.421166 -0.592 240 249 255
0.399287 -0.421877 -0.593 151 183 232
0.423007 -0.421877 -0.593 211 221 230
0.449743 -0.422589 -0.594 224 227 234
0.466015 -0.424011 -0.596 119 160 222
0.490677 -0.424723 -0.597 159 178 195
0.507734 -0.424723 -0.597 100 143 196
0.508871 -0.424723 -0.597 165 177 191
0.516831 -0.424723 -0.597 157 151 151
0.519106 -0.424723 -0.597 189 187 190
0.531614 -0.424723 -0.597 101 138 182
0.482973 -0.36852 -0.518 160 130 119
0.466237 -0.350734 -0.493 163 131 116
0.455433 -0.3237 -0.455 182 143 114
0.463111 -0.319431 -0.449 186 141 110
0.46464 -0.31872 -0.448 187 142 111
0.465964 -0.317297 -0.446 184 139 108
0.467462 -0.316586 -0.445 186 143 109
0.46958 -0.315163 -0.443 179 134 101
0.4767 -0.31374 -0.441 178 132 98
0.512422 -0.320854 -0.451 141 104 78
0.0567838 -0.390193 -0.547 202 158 131
0.0795467 -0.379493 -0.532 203 157 131
0.0825867 -0.379493 -0.532 200 152 129
0.0900171 -0.38092 -0.534 186 135 106
0.0946143 -0.38306 -0.537 181 125 100
0.113029 -0.39376 -0.552 146 101 95
0.1243 -0.403033 -0.565 132 93 88
0.144793 -0.418727 -0.587 74 80 102
0.167155 -0.418727 -0.587 115 129 155
0.1761 -0.418727 -0.587 143 172 216
0.204052 -0.418727 -0.587 184 214 248
0.216351 -0.418727 -0.587 121 144 178
0.230887 -0.418727 -0.587 207 220 239
0.232005 -0.418727 -0.587 181 194 213
0.35066 -0.42158 -0.591 201 198 207
0.369797 -0.42158 -0.591 176 201 242
0.3743 -0.42158 -0.591 153 183 219
0.388465 -0.422293 -0.592 200 209 226
0.389592 -0.422293 -0.592 171 180 197
0.398613 -0.422293 -0.592 158 182 220
0.419618 -0.423007 -0.593 236 240 252
0.432771 -0.42372 -0.594 143 177 222
0.438429 -0.42372 -0.594 131 164 207
0.448611 -0.42372 -0.594 226 229 236
0.456167 -0.424433 -0.595 137 150 167
0.46715 -0.425147 -0.596 112 150 199
0.479638 -0.425147 -0.596 198 210 236
0.4975 -0.42586 -0.597 123 164 210
0.507734 -0.42586 -0.597 111 152 198
0.51342 -0.42586 -0.597 203 203 205
0.50874 -0.39162 -0.549 160 132 121
0.47188 -0.358093 -0.502 160 131 117
0.459384 -0.341687 -0.479 170 137 118
0.454017 -0.332413 -0.466 175 139 117
0.47334 -0.31458 -0.441 178 132 96
0.487042 -0.315293 -0.442 170 124 88
0.511286 -0.321 -0.45 142 105 79
0.514419 -0.322427 -0.452 142 108 81
0.0551 -0.394096 -0.551 201 157 132
0.07144 -0.380507 -0.532 206 160 134
0.0836 -0.380507 -0.532 197 150 124
0.110323 -0.392666 -0.549 156 103 87
0.117025 -0.397672 -0.556 137 97 89
0.119786 -0.399818 -0.559 138 99 92
0.15236 -0.41913 -0.586 57 64 90
0.169103 -0.41913 -0.586 94 122 159
0.173568 -0.41913 -0.586 133 153 186
0.3422 -0.42199 -0.59 171 196 237
0.397486 -0.423421 -0.592 202 219 249
0.4144 -0.423421 -0.592 221 225 236
0.422293 -0.423421 -0.592 228 237 244
0.43882 -0.424136 -0.593 130 162 203
0.477368 -0.426282 -0.596 151 162 192
0.48645 -0.426282 -0.596 207 219 235
0.48872 -0.426282 -0.596 211 210 226
0.489855 -0.426282 -0.596 198 208 218
0.498937 -0.426282 -0.596 139 171 210
0.505749 -0.426282 -0.596 104 143 184
0.509154 -0.426282 -0.596 194 208 234
0.513695 -0.426282 -0.596 200 207 215
0.529589 -0.426282 -0.596 139 161 198
0.510593 -0.394096 -0.551 162 132 121
0.456267 -0.337592 -0.472 172 137 117
0.45276 -0.33044 -0.462 179 141 118
0.452658 -0.329725 -0.461 179 141 118
0.457596 -0.323288 -0.452 183 142 112
0.462933 -0.320427 -0.448 183 138 107
0.466614 -0.318281 -0.445 183 140 106
0.467257 -0.317566 -0.444 181 138 104
0.50816 -0.320427 -0.448 144 106 83
0.0540505 -0.395146 -0.551 196 155 133
0.0625543 -0.382954 -0.534 204 160 133
0.0763629 -0.380803 -0.531 201 155 131
0.121499 -0.403034 -0.562 138 98 90
0.145663 -0.420246 -0.586 84 87 106
0.179957 -0.419529 -0.585 128 152 188
0.1911 -0.419529 -0.585 210 214 226
0.204821 -0.420246 -0.586 211 225 252
0.221564 -0.420246 -0.586 237 239 252
0.363552 -0.423114 -0.59 172 189 209
0.371419 -0.423114 -0.59 168 198 232
0.379286 -0.423114 -0.59 245 247 255
0.445597 -0.425266 -0.593 231 228 235
0.466714 -0.425983 -0.594 166 188 212
0.484179 -0.427417 -0.596 212 216 228
0.495531 -0.427417 -0.596 139 167 204
0.500072 -0.427417 -0.596 140 169 203
0.509433 -0.4267 -0.595 207 207 215
0.517367 -0.4267 -0.595 174 174 182
0.521642 -0.427417 -0.596 86 110 146
0.526433 -0.4267 -0.595 162 187 218
0.5287 -0.4267 -0.595 164 184 211
0.456332 -0.339209 -0.473 173 138 118
0.455153 -0.33634 -0.469 174 139 117
0.464265 -0.319846 -0.446 186 141 110
0.467049 -0.317694 -0.443 182 137 104
0.478133 -0.315543 -0.44 176 130 96
0.482324 -0.315543 -0.44 174 128 92
0.483162 -0.315543 -0.44 172 126 90
0.493777 -0.316977 -0.442 166 121 82
0.504192 -0.319846 -0.446 149 111 88
0.0525171 -0.40051 -0.557 199 159 134
0.0673867 -0.382533 -0.532 206 160 134
0.0713057 -0.381814 -0.531 205 158 132
0.0834429 -0.381814 -0.531 194 144 117
0.0846133 -0.382533 -0.532 193 143 116
0.0912048 -0.38469 -0.535 176 125 98
0.110524 -0.395476 -0.55 157 104 90
0.111774 -0.396195 -0.551 150 103 95
0.117235 -0.40051 -0.557 141 98 91
0.142314 -0.421362 -0.586 93 92 108
0.172157 -0.420643 -0.585 145 171 208
0.181071 -0.420643 -0.585 171 191 224
0.212271 -0.420643 -0.585 176 187 207
0.34162 -0.423519 -0.589 205 219 246
0.352839 -0.423519 -0.589 250 249 255
0.355083 -0.423519 -0.589 250 247 255
0.356205 -0.423519 -0.589 247 247 255
0.361814 -0.423519 -0.589 206 221 240
0.393437 -0.424957 -0.591 190 203 235
0.42158 -0.424957 -0.591 233 239 251
0.432442 -0.425676 -0.592 183 206 240
0.447101 -0.425676 -0.592 231 230 238
0.456892 -0.426395 -0.593 122 140 160
0.499233 -0.427833 -0.595 155 181 214
0.502633 -0.427833 -0.595 129 162 197
0.5151 -0.427833 -0.595 204 205 210
0.526433 -0.427833 -0.595 168 188 212
0.529833 -0.427833 -0.595 150 167 185
0.459429 -0.345143 -0.48 169 136 117
0.457357 -0.341548 -0.475 172 137 117
0.454824 -0.328605 -0.457 184 144 118
0.471429 -0.316381 -0.44 177 131 97
0.472866 -0.315662 -0.439 178 132 99
0.4893 -0.3171 -0.441 170 121 89
0.49266 -0.3171 -0.441 166 121 82
0.501086 -0.319257 -0.444 152 112 86
0.0558495 -0.387872 -0.538 201 154 126
0.0593914 -0.384268 -0.533 203 159 132
0.0804086 -0.382826 -0.531 197 150 122
0.10169 -0.390756 -0.542 171 115 100
0.117235 -0.40157 -0.557 142 98 95
0.140716 -0.421036 -0.584 77 75 89
0.157402 -0.421036 -0.584 156 162 178
0.200785 -0.421036 -0.584 216 222 238
0.362936 -0.424641 -0.589 192 204 226
0.367424 -0.424641 -0.589 195 215 250
0.371911 -0.424641 -0.589 163 185 222
0.384905 -0.425362 -0.59 233 243 253
0.388276 -0.425362 -0.59 156 171 190
0.402886 -0.425362 -0.59 216 231 250
0.411876 -0.425362 -0.59 208 221 240
0.420454 -0.426083 -0.591 233 239 251
0.429059 -0.426804 -0.592 171 192 223
0.430187 -0.426804 -0.592 180 200 233
0.435089 -0.426083 -0.591 154 177 209
0.441843 -0.426083 -0.591 226 231 237
0.459505 -0.426804 -0.592 182 198 213
0.470447 -0.427525 -0.593 170 185 206
0.480291 -0.428246 -0.594 207 215 236
0.496131 -0.428246 -0.594 157 181 215
0.499233 -0.428967 -0.595 159 185 218
0.50292 -0.428246 -0.594 113 143 177
0.531206 -0.428246 -0.594 154 166 180
0.466237 -0.35543 -0.493 165 132 115
0.459429 -0.346057 -0.48 170 137 118
0.456267 -0.34029 -0.472 172 137 117
0.456584 -0.32515 -0.451 184 143 113
0.463603 -0.322266 -0.447 182 141 109
0.471193 -0.316498 -0.439 178 132 98
0.47203 -0.316498 -0.439 178 132 98
0.501086 -0.320103 -0.444 152 113 84
0.0541 -0.391066 -0.541 200 154 128
0.0652371 -0.383837 -0.531 208 162 136
0.0752095 -0.383114 -0.53 197 152 119
0.0812667 -0.383114 -0.53 195 148 118
0.0854657 -0.383837 -0.531 185 133 109
0.117235 -0.402631 -0.557 144 100 97
0.121715 -0.406969 -0.563 136 96 96
0.148503 -0.422149 -0.584 122 121 135
0.157402 -0.422149 -0.584 149 157 178
0.164076 -0.422149 -0.584 176 183 199
0.171569 -0.421426 -0.583 135 164 208
0.177121 -0.421426 -0.583 123 147 185
0.187115 -0.421426 -0.583 218 225 243
0.205234 -0.422149 -0.584 192 200 219
0.379765 -0.425763 -0.589 240 243 252
0.395471 -0.425763 -0.589 223 232 249
0.399959 -0.425763 -0.589 195 206 224
0.428334 -0.427209 -0.591 164 185 216
0.431711 -0.427209 -0.591 191 211 244
0.456122 -0.427931 -0.592 193 206 222
0.478353 -0.428654 -0.593 198 208 233
0.48708 -0.429377 -0.594 209 216 226
0.488211 -0.429377 -0.594 210 216 228
0.489343 -0.429377 -0.594 202 208 220
0.511971 -0.429377 -0.594 204 203 217
