ply
format ascii 1.0
comment Created by Open3D
element vertex 1283
property double x
property double y
property double z
property uchar red
property uchar green
property uchar blue
end_header
0.411703 -0.410545 -0.608 239 244 255
0.412861 -0.410545 -0.608 213 218 237
0.414019 -0.410545 -0.608 186 189 208
0.435133 -0.411895 -0.61 188 212 246
0.437457 -0.411895 -0.61 166 190 226
0.444429 -0.411895 -0.61 239 245 255
0.473072 -0.414596 -0.614 220 227 246
0.489071 -0.415271 -0.615 215 221 243
0.513671 -0.415271 -0.615 193 195 207
0.517186 -0.415271 -0.615 187 190 199
0.495105 -0.375432 -0.556 161 137 127
0.483761 -0.359902 -0.533 176 139 121
0.495871 -0.347748 -0.515 194 150 123
1.1328 -0.424725 -0.629 201 205 188
1.13937 -0.42405 -0.628 199 203 186
0.0719771 -0.362949 -0.536 204 158 132
0.0999924 -0.368366 -0.544 179 121 99
0.105947 -0.371074 -0.548 166 109 92
0.118721 -0.378523 -0.559 147 93 83
0.12582 -0.38394 -0.567 129 90 83
0.131747 -0.38868 -0.574 113 85 82
0.152433 -0.4029 -0.595 112 112 136
0.160367 -0.4029 -0.595 139 136 155
0.203775 -0.403577 -0.596 120 136 169
0.358373 -0.408994 -0.604 231 234 241
0.431648 -0.413057 -0.61 179 199 232
0.435133 -0.413057 -0.61 198 222 255
0.438619 -0.413057 -0.61 169 187 223
0.454468 -0.413734 -0.611 202 209 227
0.465296 -0.415089 -0.613 218 223 243
0.467631 -0.415089 -0.613 195 203 226
0.476581 -0.415766 -0.614 202 207 227
0.484768 -0.415766 -0.614 195 204 213
0.500427 -0.41712 -0.616 126 159 200
0.515175 -0.415766 -0.614 192 186 190
0.510727 -0.39342 -0.581 164 134 124
0.484669 -0.361594 -0.534 177 140 122
0.483577 -0.354823 -0.524 192 147 124
0.48372 -0.353469 -0.522 192 147 124
0.48786 -0.351437 -0.519 194 150 125
0.491889 -0.350083 -0.517 192 148 121
0.492903 -0.349406 -0.516 195 151 124
0.49489 -0.348729 -0.515 194 150 123
0.496867 -0.348051 -0.514 193 149 122
0.504686 -0.346697 -0.512 187 141 115
0.505647 -0.34602 -0.511 185 139 113
0.51449 -0.348051 -0.514 166 129 103
0.516471 -0.348729 -0.515 164 127 101
0.521453 -0.35076 -0.518 162 124 103
1.13999 -0.425923 -0.629 200 204 187
0.0614267 -0.368044 -0.542 202 158 133
0.0728619 -0.36329 -0.535 204 158 132
0.0820333 -0.36329 -0.535 202 155 129
0.0951429 -0.366686 -0.54 190 136 112
0.0987743 -0.368723 -0.543 181 125 100
0.0999924 -0.369402 -0.544 180 122 100
0.10244 -0.37076 -0.546 173 115 95
0.10348 -0.37076 -0.546 171 113 93
0.108429 -0.373476 -0.55 162 106 93
0.130426 -0.389094 -0.573 117 86 81
0.173967 -0.404033 -0.595 102 115 150
0.1751 -0.404033 -0.595 114 127 162
0.232546 -0.405391 -0.597 153 167 196
0.330813 -0.408787 -0.602 210 221 253
0.361825 -0.410145 -0.604 211 218 234
0.384319 -0.410824 -0.605 229 228 236
0.404089 -0.412182 -0.607 229 240 255
0.413338 -0.412182 -0.607 208 220 246
0.414494 -0.412182 -0.607 234 246 255
0.457959 -0.414898 -0.611 167 174 200
0.46145 -0.414898 -0.611 197 205 228
0.475805 -0.416256 -0.613 184 190 216
0.491785 -0.416935 -0.614 224 222 235
0.50864 -0.418293 -0.616 114 140 177
0.510497 -0.416935 -0.614 185 200 231
0.511667 -0.416935 -0.614 189 190 208
0.519853 -0.416935 -0.614 187 196 213
0.52251 -0.416256 -0.613 98 107 136
0.523677 -0.416256 -0.613 120 129 158
0.483969 -0.360574 -0.531 181 142 125
0.486819 -0.353105 -0.52 194 150 125
0.488849 -0.352426 -0.519 195 151 126
0.490867 -0.351747 -0.518 193 149 122
0.491889 -0.351068 -0.517 191 147 120
0.50954 -0.346993 -0.511 174 132 107
0.51944 -0.350389 -0.516 164 126 103
0.0689143 -0.36499 -0.536 203 157 133
0.0718429 -0.36431 -0.535 203 157 133
0.0850905 -0.36431 -0.535 196 146 121
0.0895 -0.365671 -0.537 192 140 116
0.108429 -0.374524 -0.55 163 107 94
0.113643 -0.377929 -0.555 153 96 85
0.120214 -0.382014 -0.561 143 94 80
0.152177 -0.404486 -0.594 118 117 135
0.180767 -0.405167 -0.595 124 135 165
0.197767 -0.405167 -0.595 83 100 143
0.25074 -0.406529 -0.597 241 237 255
0.417963 -0.413338 -0.607 245 248 255
0.419119 -0.413338 -0.607 243 246 253
0.423744 -0.413338 -0.607 244 247 255
0.44834 -0.4147 -0.609 226 229 236
0.45721 -0.415381 -0.61 151 160 189
0.459533 -0.415381 -0.61 155 169 204
0.471531 -0.416743 -0.612 207 219 243
0.473863 -0.416743 -0.612 187 201 236
0.483978 -0.417424 -0.613 201 204 211
0.495293 -0.418105 -0.614 161 180 210
0.499614 -0.418786 -0.615 137 169 210
0.508986 -0.418786 -0.615 130 152 191
0.511667 -0.418105 -0.614 189 192 211
0.515504 -0.417424 -0.613 199 203 214
0.505199 -0.388824 -0.571 163 136 127
0.497776 -0.380652 -0.559 162 136 119
0.4896 -0.370438 -0.544 170 136 126
0.48625 -0.366352 -0.538 173 140 125
0.48233 -0.358862 -0.527 184 143 125
0.494923 -0.349329 -0.513 195 151 124
0.495909 -0.348648 -0.512 191 147 118
0.496884 -0.348648 -0.512 192 146 120
0.507571 -0.347286 -0.51 184 138 112
0.510513 -0.347967 -0.511 175 134 106
1.13937 -0.427638 -0.628 200 204 189
0.0525648 -0.388546 -0.569 194 156 135
0.0580371 -0.374889 -0.549 203 158 137
0.0640476 -0.367377 -0.538 203 159 134
0.0905229 -0.366694 -0.537 190 138 114
0.108429 -0.375571 -0.55 161 105 92
0.112383 -0.378303 -0.554 158 96 81
0.113643 -0.378986 -0.555 157 95 80
0.148532 -0.404934 -0.593 65 71 103
0.1751 -0.4063 -0.595 80 97 141
0.176233 -0.4063 -0.595 83 107 145
0.192909 -0.405617 -0.594 137 145 158
0.196303 -0.405617 -0.594 68 89 134
0.200033 -0.4063 -0.595 66 92 153
0.401605 -0.413129 -0.605 199 222 255
0.406886 -0.413811 -0.606 169 193 229
0.40804 -0.413811 -0.606 158 180 219
0.420275 -0.414494 -0.607 242 244 243
0.428369 -0.414494 -0.607 165 187 224
0.448762 -0.415177 -0.608 244 247 252
0.4553 -0.41586 -0.609 199 211 237
0.489816 -0.418591 -0.613 223 226 235
0.495654 -0.418591 -0.613 128 149 176
0.497632 -0.419274 -0.614 124 157 198
0.505819 -0.419274 -0.614 156 174 210
0.508158 -0.419274 -0.614 119 141 180
0.509328 -0.419274 -0.614 140 153 185
0.520174 -0.418591 -0.613 175 182 198
0.521342 -0.418591 -0.613 160 167 183
0.4896 -0.371474 -0.544 170 136 126
0.48488 -0.36328 -0.532 181 142 125
0.487907 -0.35372 -0.518 191 150 122
0.49393 -0.350989 -0.514 195 150 121
0.494909 -0.350989 -0.514 196 151 122
0.51246 -0.34894 -0.511 171 130 100
1.14057 -0.428834 -0.628 201 203 190
0.0569914 -0.375934 -0.549 202 157 136
0.0585448 -0.37251 -0.544 203 157 134
0.0717086 -0.365663 -0.534 203 157 133
0.0756352 -0.364978 -0.533 199 153 129
0.0849314 -0.365663 -0.534 198 148 123
0.09394 -0.369087 -0.539 191 134 107
0.0951429 -0.369771 -0.54 187 129 105
0.127795 -0.390999 -0.571 118 84 82
0.144654 -0.404694 -0.591 40 45 74
0.146027 -0.405379 -0.592 49 54 83
0.148532 -0.406064 -0.593 82 88 112
0.174806 -0.406749 -0.594 75 96 141
0.181594 -0.406749 -0.594 143 157 184
0.18612 -0.406749 -0.594 177 176 192
0.194843 -0.406064 -0.593 112 117 137
0.203091 -0.406749 -0.594 61 92 157
0.398148 -0.414281 -0.605 164 188 232
0.430681 -0.41565 -0.607 186 206 239
0.444555 -0.41565 -0.607 216 220 223
0.448024 -0.41565 -0.607 242 246 249
0.461857 -0.417705 -0.61 138 166 213
0.481235 -0.41839 -0.611 217 227 229
0.494487 -0.419759 -0.613 147 171 197
0.508158 -0.420444 -0.614 117 136 178
0.484067 -0.362924 -0.53 179 142 124
0.491971 -0.351968 -0.514 192 146 120
0.49295 -0.351968 -0.514 194 148 122
0.49494 -0.349913 -0.511 195 149 123
0.517397 -0.351283 -0.513 165 124 102
0.0776657 -0.365993 -0.533 201 153 130
0.0893333 -0.368053 -0.536 193 139 113
0.09756 -0.372173 -0.542 179 122 102
0.113643 -0.3811 -0.555 153 97 84
0.120643 -0.386593 -0.563 137 92 86
0.12366 -0.38934 -0.567 128 90 87
0.151921 -0.407193 -0.593 135 133 147
0.15418 -0.407193 -0.593 144 139 159
0.158698 -0.407193 -0.593 138 142 167
0.164346 -0.407193 -0.593 67 88 133
0.169993 -0.407193 -0.593 66 84 130
0.189195 -0.407193 -0.593 176 181 200
0.193713 -0.407193 -0.593 167 172 192
0.199361 -0.407193 -0.593 43 83 144
0.20162 -0.407193 -0.593 49 87 158
0.226851 -0.40788 -0.594 195 206 226
0.385346 -0.41406 -0.603 248 251 255
0.39979 -0.414747 -0.604 131 162 216
0.402091 -0.414747 -0.604 147 174 229
0.409671 -0.415433 -0.605 153 180 210
0.415433 -0.415433 -0.605 252 250 255
0.416586 -0.415433 -0.605 254 255 255
0.420043 -0.415433 -0.605 254 255 255
0.433434 -0.41612 -0.606 159 187 234
0.482399 -0.419553 -0.611 230 227 236
0.492514 -0.42024 -0.612 189 197 200
0.503828 -0.420927 -0.613 154 175 222
0.50733 -0.420927 -0.613 118 140 189
0.519326 -0.42024 -0.612 194 195 213
0.483577 -0.359813 -0.524 187 145 123
0.486871 -0.35638 -0.519 194 148 124
0.491971 -0.352947 -0.514 194 148 122
0.492969 -0.35226 -0.513 197 151 125
0.49785 -0.349513 -0.509 192 147 118
0.49979 -0.349513 -0.509 190 145 116
0.50171 -0.348827 -0.508 189 145 116
0.502678 -0.348827 -0.508 188 145 113
0.0686571 -0.367697 -0.534 205 159 136
0.0725895 -0.367009 -0.533 202 156 132
0.0827419 -0.367009 -0.533 199 151 128
0.122364 -0.389731 -0.566 133 90 83
0.144654 -0.406946 -0.591 68 77 108
0.167451 -0.407634 -0.592 70 92 142
0.174217 -0.407634 -0.592 75 101 150
0.1776 -0.407634 -0.592 76 101 142
0.192584 -0.408323 -0.593 186 190 201
0.199361 -0.408323 -0.593 46 84 146
0.329165 -0.412454 -0.599 127 155 203
0.393386 -0.415209 -0.603 116 150 198
0.412446 -0.415897 -0.604 248 254 255
0.443823 -0.417274 -0.606 205 210 216
0.44844 -0.417274 -0.606 243 244 249
0.479286 -0.420029 -0.61 219 226 236
0.48589 -0.420717 -0.611 212 209 220
0.488218 -0.420717 -0.611 183 185 184
0.499509 -0.421406 -0.612 152 173 218
0.51816 -0.421406 -0.612 197 199 212
0.520491 -0.421406 -0.612 191 192 210
0.504709 -0.391109 -0.568 164 136 125
0.483334 -0.362877 -0.527 181 140 122
0.483419 -0.362189 -0.526 180 139 119
0.489954 -0.355303 -0.516 193 147 123
0.490967 -0.354614 -0.515 196 150 124
0.491971 -0.353926 -0.514 195 149 123
0.492969 -0.353237 -0.513 196 150 124
0.50171 -0.349794 -0.508 191 146 117
0.504613 -0.349794 -0.508 188 145 111
0.53142 -0.358746 -0.521 158 122 100
0.0572971 -0.374238 -0.542 201 155 132
0.101029 -0.375619 -0.544 170 115 95
0.102252 -0.37631 -0.545 168 112 95
0.108626 -0.380452 -0.551 160 104 91
0.117867 -0.386667 -0.56 142 94 84
0.123878 -0.39219 -0.568 119 90 86
0.147154 -0.408762 -0.592 103 108 137
0.148282 -0.408762 -0.592 107 112 141
0.191131 -0.408762 -0.592 176 182 194
0.227599 -0.409452 -0.593 162 176 202
0.340574 -0.413595 -0.599 126 158 215
0.391587 -0.415667 -0.602 161 185 219
0.40602 -0.416357 -0.603 148 178 228
0.436176 -0.417738 -0.605 164 188 232
0.439206 -0.418429 -0.606 154 178 216
0.441514 -0.418429 -0.606 186 204 242
0.443823 -0.418429 -0.606 243 250 255
0.457273 -0.419119 -0.607 196 210 237
0.4727 -0.4205 -0.609 82 122 192
0.4758 -0.42119 -0.61 148 184 244
0.479286 -0.42119 -0.61 220 227 237
0.482771 -0.42119 -0.61 226 223 234
0.485095 -0.42119 -0.61 227 223 238
0.494037 -0.421881 -0.611 130 155 195
0.498692 -0.421881 -0.611 131 153 203
0.50102 -0.421881 -0.611 112 140 188
0.512331 -0.422571 -0.612 196 202 216
0.4932 -0.378381 -0.548 168 136 125
0.487391 -0.370786 -0.537 178 141 125
0.483419 -0.36319 -0.526 176 138 119
0.48365 -0.361119 -0.523 188 146 124
0.486965 -0.356976 -0.517 193 148 125
0.492983 -0.353524 -0.512 196 150 124
0.494942 -0.351452 -0.509 191 145 119
0.497826 -0.350071 -0.507 193 148 119
0.499757 -0.350071 -0.507 192 147 118
0.508449 -0.350071 -0.507 177 136 104
0.0507571 -0.388426 -0.561 201 159 134
0.0515486 -0.386349 -0.558 197 155 130
0.0522343 -0.383579 -0.554 203 159 130
0.0847724 -0.369039 -0.533 195 145 120
0.0857876 -0.369039 -0.533 194 144 117
0.0998086 -0.375963 -0.543 174 119 98
0.113848 -0.384964 -0.556 146 99 89
0.117867 -0.387733 -0.56 138 94 85
0.12258 -0.39258 -0.567 123 88 84
0.164917 -0.409197 -0.591 79 102 152
0.1773 -0.409197 -0.591 67 95 145
0.178426 -0.409197 -0.591 68 96 146
0.39732 -0.416813 -0.602 100 131 195
0.399613 -0.416813 -0.602 102 136 197
0.40076 -0.416813 -0.602 101 135 196
0.415209 -0.417506 -0.603 242 248 255
0.420951 -0.417506 -0.603 237 240 249
0.423249 -0.417506 -0.603 173 186 205
0.433154 -0.418198 -0.604 131 168 221
0.434305 -0.418198 -0.604 151 179 227
0.454211 -0.419583 -0.606 234 236 248
0.455366 -0.419583 -0.606 226 237 255
0.457674 -0.419583 -0.606 174 199 239
0.460742 -0.420275 -0.607 103 139 197
0.464975 -0.420968 -0.608 75 114 181
0.48546 -0.42166 -0.609 222 225 234
0.497529 -0.423045 -0.611 121 151 203
0.519952 -0.422352 -0.61 185 191 207
0.52374 -0.42166 -0.609 112 135 185
0.499906 -0.387041 -0.559 166 133 126
0.491538 -0.377348 -0.545 170 138 127
0.489086 -0.373886 -0.54 172 138 126
0.485933 -0.358653 -0.518 193 148 125
0.48598 -0.357961 -0.517 193 148 125
0.487006 -0.357269 -0.516 193 149 124
0.489005 -0.356576 -0.515 193 149 124
0.49202 -0.353807 -0.511 196 150 124
0.492993 -0.353807 -0.511 197 151 125
0.493 -0.353114 -0.51 196 150 124
0.493972 -0.352422 -0.509 196 150 124
0.494937 -0.35173 -0.508 191 145 119
0.504586 -0.351037 -0.507 189 144 113
0.509414 -0.351037 -0.507 177 136 104
0.0588143 -0.372831 -0.537 199 154 135
0.0598371 -0.372831 -0.537 196 150 126
0.0673867 -0.36936 -0.532 206 160 136
0.0915457 -0.372831 -0.537 183 129 103
0.0985924 -0.376303 -0.542 176 121 100
0.0998086 -0.376997 -0.543 173 118 98
0.102252 -0.378386 -0.545 166 110 95
0.113848 -0.386023 -0.556 143 98 92
0.182619 -0.409629 -0.59 182 186 213
0.18599 -0.409629 -0.59 155 167 191
0.197563 -0.410323 -0.591 58 91 158
0.41108 -0.41796 -0.602 222 234 250
0.41452 -0.41796 -0.602 235 244 255
0.43014 -0.418654 -0.603 116 158 206
0.458829 -0.420737 -0.606 175 201 236
0.466523 -0.421431 -0.607 64 105 185
0.473082 -0.422126 -0.608 156 182 231
0.48894 -0.42282 -0.609 218 221 236
0.4901 -0.42282 -0.609 204 207 222
0.511494 -0.424209 -0.611 195 201 227
0.50579 -0.394354 -0.568 165 132 125
0.486703 -0.370749 -0.534 178 141 125
0.482654 -0.363111 -0.523 182 140 118
0.484947 -0.35964 -0.518 189 147 123
0.488024 -0.357557 -0.515 190 146 121
0.492008 -0.355474 -0.512 195 149 123
0.49202 -0.35478 -0.511 195 149 123
0.500699 -0.351309 -0.506 190 144 118
0.513322 -0.352697 -0.508 174 133 103
0.521265 -0.355474 -0.512 165 125 99
0.527303 -0.358251 -0.516 158 121 102
0.0489667 -0.393348 -0.565 200 154 138
0.0577914 -0.373854 -0.537 198 155 138
0.0606333 -0.372462 -0.535 197 151 127
0.07434 -0.369677 -0.531 199 151 128
0.0773743 -0.369677 -0.531 199 153 127
0.0793971 -0.369677 -0.531 197 150 124
0.08142 -0.369677 -0.531 195 145 120
0.0903543 -0.373158 -0.536 187 133 107
0.107381 -0.382905 -0.55 156 102 92
0.118288 -0.391259 -0.562 129 89 89
0.142162 -0.410752 -0.59 27 39 77
0.143286 -0.410752 -0.59 37 49 87
0.149774 -0.410056 -0.589 57 61 99
0.154524 -0.410752 -0.59 125 134 149
0.16239 -0.410752 -0.59 55 79 127
0.16801 -0.410752 -0.59 47 76 132
0.18231 -0.410056 -0.589 153 158 190
0.188238 -0.410752 -0.59 71 96 137
0.189362 -0.410752 -0.59 74 99 140
0.427133 -0.419107 -0.602 142 177 231
0.437756 -0.420499 -0.604 150 184 232
0.438907 -0.420499 -0.604 139 168 210
0.442358 -0.420499 -0.604 201 216 239
0.44696 -0.420499 -0.604 248 250 255
0.454614 -0.421195 -0.605 208 226 250
0.49358 -0.42398 -0.609 114 155 207
0.496714 -0.424676 -0.61 114 158 221
0.509495 -0.424676 -0.61 141 160 200
0.514047 -0.404487 -0.581 160 131 125
0.495 -0.382905 -0.55 166 133 124
0.489207 -0.375247 -0.539 174 138 124
0.484251 -0.367589 -0.528 182 143 126
0.489005 -0.358538 -0.515 192 148 123
0.489034 -0.357842 -0.514 194 150 125
0.491014 -0.357146 -0.513 197 151 125
0.492008 -0.35645 -0.512 194 148 122
0.498771 -0.352272 -0.506 192 146 122
0.502595 -0.351576 -0.505 189 144 115
0.506482 -0.352272 -0.506 184 141 107
0.512311 -0.352969 -0.507 177 134 102
0.518257 -0.355057 -0.51 173 129 102
0.0510867 -0.386047 -0.553 200 155 134
0.0520457 -0.385349 -0.552 202 156 140
0.0542 -0.378368 -0.542 202 154 134
0.0550286 -0.376971 -0.54 204 156 136
0.0682714 -0.370689 -0.531 207 159 136
0.0793971 -0.370689 -0.531 199 151 128
0.08142 -0.370689 -0.531 193 143 120
0.0836 -0.371387 -0.532 194 142 120
0.10614 -0.383254 -0.549 156 104 91
0.108626 -0.38465 -0.551 151 101 92
0.114052 -0.388839 -0.557 140 93 83
0.173334 -0.411178 -0.589 33 64 121
0.183431 -0.411178 -0.589 169 175 199
0.19465 -0.411178 -0.589 78 112 158
0.381649 -0.418159 -0.599 185 190 209
0.425987 -0.420253 -0.602 132 168 226
0.442358 -0.42165 -0.604 180 197 225
0.462291 -0.423046 -0.606 68 110 184
0.481553 -0.423744 -0.607 186 194 213
0.49242 -0.42514 -0.609 113 140 187
0.52026 -0.42514 -0.609 99 118 158
0.524332 -0.423744 -0.607 46 77 132
0.484947 -0.361613 -0.518 188 145 126
0.491032 -0.357425 -0.512 195 149 123
0.492033 -0.35533 -0.509 196 150 124
0.51821 -0.35533 -0.509 170 128 106
0.526238 -0.358821 -0.514 155 120 100
0.0532657 -0.3801 -0.543 202 155 135
0.0584857 -0.3738 -0.534 204 156 134
0.06232 -0.3724 -0.532 206 160 136
0.0632143 -0.3717 -0.531 205 159 133
0.0868029 -0.3731 -0.533 190 138 114
0.09738 -0.3787 -0.541 174 118 101
0.10614 -0.3843 -0.549 153 103 92
0.14952 -0.4116 -0.588 69 76 104
0.16744 -0.4116 -0.588 33 64 119
0.169969 -0.4123 -0.589 24 55 112
0.173334 -0.4123 -0.589 37 67 127
0.18424 -0.4116 -0.588 179 182 199
0.204748 -0.4123 -0.589 72 102 164
0.393058 -0.4193 -0.599 98 128 190
0.405143 -0.42 -0.6 104 132 197
0.406286 -0.42 -0.6 106 136 190
0.434734 -0.4221 -0.603 102 140 205
0.439329 -0.4221 -0.603 125 162 207
0.456164 -0.4228 -0.604 107 140 193
0.458465 -0.4228 -0.604 92 128 186
0.469217 -0.4242 -0.606 67 105 180
0.471526 -0.4242 -0.606 85 118 185
0.520564 -0.4256 -0.608 56 94 156
0.498443 -0.3885 -0.555 165 137 126
0.4968 -0.3864 -0.552 164 134 124
0.49348 -0.3822 -0.546 166 134 123
0.487614 -0.3745 -0.535 178 141 122
0.485169 -0.3703 -0.529 183 145 126
0.483577 -0.3668 -0.524 180 139 121
0.48365 -0.3661 -0.523 182 141 123
0.482793 -0.3647 -0.521 184 143 123
0.484947 -0.3626 -0.518 189 147 125
0.486023 -0.3612 -0.516 193 149 124
0.488055 -0.3598 -0.514 194 150 123
0.494916 -0.3542 -0.506 192 149 117
0.496824 -0.3535 -0.505 190 147 115
0.498748 -0.3535 -0.505 192 146 120
0.5016 -0.3528 -0.504 189 143 117
0.515209 -0.3549 -0.507 173 131 107
0.51816 -0.3556 -0.508 167 126 104
0.523167 -0.3577 -0.511 156 120 98
0.526191 -0.3591 -0.513 156 120 98
0.61873 -0.4123 -0.589 199 193 181
0.0490686 -0.388855 -0.554 200 154 130
0.0593914 -0.374115 -0.533 207 160 132
0.0604067 -0.374115 -0.533 207 160 132
0.0710371 -0.371308 -0.529 208 162 129
0.0802571 -0.37201 -0.53 194 147 119
0.0812667 -0.37201 -0.53 194 144 117
0.0868029 -0.374115 -0.533 187 135 111
0.111328 -0.388855 -0.554 150 100 93
0.15064 -0.41272 -0.588 125 130 150
0.15624 -0.41272 -0.588 136 144 167
0.15848 -0.41272 -0.588 117 136 168
0.1596 -0.41272 -0.588 91 110 142
0.1761 -0.412018 -0.587 87 110 162
0.19544 -0.41272 -0.588 71 100 156
0.19656 -0.41272 -0.588 70 100 162
0.38215 -0.419739 -0.598 172 184 196
0.458465 -0.42395 -0.604 86 126 187
0.479606 -0.425354 -0.606 109 133 177
0.493115 -0.426056 -0.607 72 105 158
0.494271 -0.426056 -0.607 53 101 167
0.499718 -0.426758 -0.608 38 97 175
0.500876 -0.426758 -0.608 45 104 182
0.50435 -0.426758 -0.608 56 96 168
0.512457 -0.426758 -0.608 165 170 199
0.513615 -0.426758 -0.608 181 185 196
0.495146 -0.385346 -0.549 163 133 123
0.483786 -0.365692 -0.521 186 145 123
0.48504 -0.362183 -0.516 191 149 124
0.496844 -0.355164 -0.506 191 148 116
0.498748 -0.354462 -0.505 191 147 118
0.519128 -0.356568 -0.508 166 124 99
0.0472971 -0.392726 -0.558 202 158 133
0.0521352 -0.381465 -0.542 203 157 131
0.0528733 -0.379353 -0.539 202 156 130
0.0651143 -0.373019 -0.53 207 160 132
0.0671333 -0.373019 -0.53 207 160 130
0.0710371 -0.372315 -0.529 207 160 130
0.0750676 -0.372315 -0.529 203 156 126
0.0903543 -0.377242 -0.536 182 128 104
0.09738 -0.380761 -0.541 173 118 98
0.10367 -0.384984 -0.547 158 106 93
0.107381 -0.387095 -0.55 149 100 93
0.111529 -0.390614 -0.555 148 99 92
0.115733 -0.394133 -0.56 140 97 91
0.14504 -0.41384 -0.588 116 125 158
0.145911 -0.413136 -0.587 114 121 147
0.157092 -0.413136 -0.587 137 144 163
0.15821 -0.413136 -0.587 125 142 170
0.171628 -0.413136 -0.587 60 100 162
0.18169 -0.413136 -0.587 191 199 212
0.448517 -0.424397 -0.603 210 212 233
0.481119 -0.425805 -0.605 219 221 233
0.483424 -0.425805 -0.605 208 218 227
0.490803 -0.427212 -0.607 112 132 169
0.500052 -0.427212 -0.607 32 89 166
0.52491 -0.425805 -0.605 31 65 128
0.505271 -0.397652 -0.565 158 130 126
0.4986 -0.38991 -0.554 162 132 122
0.483848 -0.365981 -0.52 187 147 122
0.50256 -0.35472 -0.504 187 143 114
0.0454952 -0.396611 -0.562 202 157 134
0.0710371 -0.373323 -0.529 203 158 127
0.0891667 -0.377557 -0.535 181 127 103
0.102252 -0.384614 -0.545 157 108 94
0.10367 -0.386026 -0.547 155 106 92
0.10614 -0.387437 -0.549 150 100 91
0.115733 -0.3952 -0.56 139 95 92
0.143675 -0.414254 -0.587 115 121 155
0.149266 -0.414254 -0.587 142 145 162
0.154856 -0.414254 -0.587 152 154 169
0.167155 -0.414254 -0.587 33 71 133
0.167987 -0.413549 -0.586 44 82 144
0.179149 -0.413549 -0.586 189 199 208
0.189517 -0.414254 -0.587 192 200 221
0.19958 -0.414254 -0.587 81 107 164
0.384923 -0.421311 -0.597 219 229 241
0.40721 -0.422017 -0.598 228 240 255
0.423864 -0.422723 -0.599 125 170 227
0.435582 -0.424134 -0.601 121 166 221
0.441306 -0.424134 -0.601 218 234 247
0.451213 -0.42484 -0.602 216 219 236
0.47227 -0.426251 -0.604 170 195 226
0.477662 -0.426957 -0.605 175 185 197
0.486881 -0.426957 -0.605 186 199 218
0.503846 -0.427663 -0.606 64 113 180
0.52116 -0.427663 -0.606 151 174 206
0.490233 -0.38038 -0.539 168 135 120
0.488526 -0.378263 -0.536 173 136 120
0.492025 -0.357091 -0.506 189 148 116
0.4968 -0.35568 -0.504 191 148 116
0.49776 -0.35568 -0.504 192 149 117
0.52203 -0.358503 -0.508 158 124 96
0.538324 -0.366971 -0.52 153 121 96
0.04758 -0.388483 -0.549 196 156 131
0.0572533 -0.376453 -0.532 206 160 134
0.0610762 -0.375038 -0.53 204 158 132
0.0688914 -0.373623 -0.528 205 160 129
0.0998086 -0.384237 -0.543 160 109 92
0.112991 -0.394144 -0.557 144 96 92
0.118709 -0.399097 -0.564 129 93 93
0.136733 -0.414665 -0.586 23 35 61
0.13785 -0.414665 -0.586 24 36 62
0.141439 -0.415372 -0.587 71 79 115
0.156825 -0.414665 -0.586 151 153 168
0.396294 -0.422449 -0.597 94 125 189
0.440161 -0.425279 -0.601 221 242 255
0.448174 -0.425279 -0.601 204 204 216
0.460003 -0.426694 -0.603 66 109 178
0.473421 -0.427402 -0.604 199 221 242
0.511614 -0.429525 -0.607 172 176 185
0.515083 -0.429525 -0.607 197 200 217
0.516239 -0.429525 -0.607 185 188 205
0.520006 -0.428817 -0.606 179 181 202
0.523757 -0.42811 -0.605 47 79 136
0.511133 -0.406173 -0.574 146 125 122
0.508657 -0.403343 -0.57 152 127 122
0.502035 -0.395559 -0.559 159 132 123
0.488526 -0.379284 -0.536 171 135 119
0.48372 -0.369377 -0.522 183 143 118
0.488083 -0.363009 -0.513 194 150 121
0.491057 -0.360886 -0.51 193 149 122
0.492025 -0.358055 -0.506 190 149 119
0.492989 -0.358055 -0.506 190 149 119
0.49392 -0.35664 -0.504 189 148 118
0.51306 -0.355932 -0.503 172 131 101
0.0846133 -0.377467 -0.532 184 132 108
0.0856267 -0.377467 -0.532 182 128 104
0.0903543 -0.380305 -0.536 178 124 100
0.102252 -0.38669 -0.545 153 104 90
0.10614 -0.389529 -0.549 147 99 87
0.114462 -0.396624 -0.559 140 95 92
0.144547 -0.415781 -0.586 119 122 153
0.15236 -0.415781 -0.586 154 154 166
0.1677 -0.415071 -0.585 82 119 174
0.168814 -0.415071 -0.585 79 120 174
0.179957 -0.415071 -0.585 199 207 220
0.197008 -0.415781 -0.586 78 110 167
0.19924 -0.415781 -0.586 126 152 201
0.200356 -0.415781 -0.586 110 137 184
0.444 -0.425714 -0.6 237 241 252
0.466894 -0.427843 -0.603 64 111 181
0.481826 -0.427843 -0.603 216 224 235
0.50071 -0.429262 -0.605 68 125 192
0.504167 -0.429262 -0.605 75 124 191
0.514234 -0.429971 -0.606 194 197 206
0.516543 -0.429971 -0.606 192 192 200
0.505451 -0.400171 -0.564 159 132 123
0.488107 -0.363276 -0.512 192 151 123
0.488127 -0.362567 -0.511 193 152 124
0.4891 -0.362567 -0.511 192 151 123
0.491064 -0.361148 -0.509 189 148 120
0.491067 -0.360438 -0.508 190 149 121
0.491066 -0.359729 -0.507 193 149 122
0.501522 -0.356181 -0.502 190 146 117
0.503386 -0.355471 -0.501 187 144 112
0.514976 -0.35689 -0.503 168 129 100
0.531077 -0.363986 -0.513 157 123 98
0.0480057 -0.385594 -0.542 202 156 130
0.0638629 -0.375634 -0.528 206 160 134
0.0747838 -0.374923 -0.527 203 153 128
0.0998086 -0.386306 -0.543 157 108 94
0.102252 -0.387729 -0.545 152 104 90
0.116147 -0.399823 -0.562 134 92 93
0.160739 -0.415474 -0.584 83 102 142
0.161851 -0.415474 -0.584 71 102 148
0.167413 -0.415474 -0.584 105 141 191
0.171043 -0.416186 -0.585 79 123 172
0.173271 -0.416186 -0.585 80 117 170
0.1755 -0.416186 -0.585 132 151 183
0.177729 -0.416186 -0.585 196 207 213
0.425434 -0.425434 -0.598 134 172 219
0.428851 -0.425434 -0.598 113 154 208
0.437555 -0.426146 -0.599 183 200 228
0.438696 -0.426146 -0.599 216 233 255
0.49413 -0.429703 -0.604 86 136 197
0.508776 -0.430414 -0.605 203 209 209
0.509929 -0.430414 -0.605 202 208 208
0.503831 -0.399111 -0.561 159 132 125
0.493745 -0.387017 -0.544 165 133 118
0.490349 -0.382749 -0.538 172 136 120
0.487003 -0.377769 -0.531 176 139 121
0.494856 -0.357849 -0.503 192 148 119
0.497697 -0.357137 -0.502 193 149 120
0.501522 -0.357137 -0.502 190 146 117
0.0439505 -0.396613 -0.556 200 155 132
0.0551229 -0.37878 -0.531 203 158 129
0.0707686 -0.375927 -0.527 204 157 131
0.0937657 -0.383773 -0.538 169 113 98
0.09738 -0.385913 -0.541 165 112 98
0.107576 -0.393047 -0.551 145 101 92
0.137614 -0.4173 -0.585 45 53 74
0.139843 -0.4173 -0.585 47 53 77
0.14739 -0.416587 -0.584 150 150 162
0.148503 -0.416587 -0.584 150 150 162
0.15629 -0.416587 -0.584 105 104 118
0.159627 -0.416587 -0.584 70 88 128
0.168526 -0.416587 -0.584 106 143 188
0.169638 -0.416587 -0.584 90 127 172
0.177425 -0.416587 -0.584 192 207 214
0.401307 -0.425147 -0.596 111 144 198
0.432269 -0.426573 -0.598 147 183 233
0.439837 -0.427287 -0.599 245 244 249
0.447824 -0.427287 -0.599 234 233 239
0.450857 -0.428 -0.6 193 195 208
0.459622 -0.428713 -0.601 73 112 171
0.464201 -0.428713 -0.601 88 124 184
0.472214 -0.428713 -0.601 179 187 206
0.473359 -0.428713 -0.601 202 210 229
0.48332 -0.429427 -0.602 214 226 242
0.49643 -0.430853 -0.604 109 155 205
0.505634 -0.430853 -0.604 120 149 191
0.517995 -0.431567 -0.605 192 189 206
0.496331 -0.390907 -0.548 164 134 123
0.483074 -0.36808 -0.516 189 147 123
0.484057 -0.36808 -0.516 190 148 123
0.489114 -0.3638 -0.51 193 152 124
0.489125 -0.363087 -0.509 192 151 123
0.490097 -0.360947 -0.506 192 148 119
0.504228 -0.355953 -0.499 183 139 112
0.0568229 -0.377646 -0.528 204 158 132
0.0757876 -0.37693 -0.527 199 152 126
0.0779429 -0.377646 -0.528 189 142 114
0.0811133 -0.378361 -0.529 187 135 113
0.0822762 -0.379076 -0.53 185 133 111
0.106333 -0.393381 -0.55 146 99 89
0.107576 -0.394096 -0.551 144 100 91
0.110272 -0.396242 -0.554 139 99 89
0.155177 -0.417699 -0.584 131 125 127
0.158514 -0.417699 -0.584 111 118 137
0.164906 -0.416984 -0.583 111 143 184
0.168237 -0.416984 -0.583 124 157 198
0.17379 -0.416984 -0.583 133 165 204
0.378463 -0.424851 -0.594 242 246 255
0.432269 -0.427712 -0.598 144 176 225
0.435686 -0.427712 -0.598 154 183 227
0.44252 -0.427712 -0.598 241 246 252
0.443659 -0.427712 -0.598 242 247 253
0.499882 -0.432004 -0.604 93 140 182
0.504484 -0.432004 -0.604 81 133 181
0.506785 -0.432004 -0.604 168 195 238
0.483848 -0.371924 -0.52 187 145 121
0.484057 -0.369063 -0.516 191 147 118
0.495751 -0.358334 -0.501 190 149 121
0.51381 -0.357619 -0.5 166 126 100
0.0466267 -0.385823 -0.538 200 159 131
0.0539076 -0.379369 -0.529 203 158 129
0.0655 -0.3765 -0.525 202 157 128
0.0757876 -0.377934 -0.527 195 148 120
0.0856267 -0.38152 -0.532 178 123 103
0.0891667 -0.383671 -0.535 177 122 102
0.101029 -0.390126 -0.544 151 103 89
0.106333 -0.394429 -0.55 143 99 88
0.113194 -0.400166 -0.558 134 95 88
0.128705 -0.415943 -0.58 85 79 89
0.131366 -0.417377 -0.582 43 48 68
0.132702 -0.418094 -0.583 49 54 74
0.153801 -0.418094 -0.583 116 117 122
0.157132 -0.418094 -0.583 134 142 161
0.207459 -0.418811 -0.584 109 140 184
0.405167 -0.4267 -0.595 149 161 187
0.414233 -0.4267 -0.595 239 247 255
0.43382 -0.428134 -0.597 145 173 210
0.464571 -0.430286 -0.6 136 165 205
0.480228 -0.431003 -0.601 214 221 237
0.487907 -0.43172 -0.602 152 177 207
0.489053 -0.43172 -0.602 119 144 174
0.497906 -0.432437 -0.603 123 162 205
0.499054 -0.432437 -0.603 113 152 195
0.51054 -0.432437 -0.603 209 204 208
0.51829 -0.433154 -0.604 133 130 141
0.506526 -0.404469 -0.564 159 130 122
0.499807 -0.39658 -0.553 163 133 122
0.488143 -0.365743 -0.51 192 148 121
0.49009 -0.362157 -0.505 192 148 119
0.494762 -0.358571 -0.5 192 151 123
0.502327 -0.357854 -0.499 185 141 114
0.505114 -0.357137 -0.498 182 138 111
0.509857 -0.357137 -0.498 171 130 102
0.516746 -0.359289 -0.501 166 124 99
0.52176 -0.36144 -0.504 165 125 99
0.619137 -0.417377 -0.582 204 188 175
0.0455171 -0.386129 -0.537 197 156 128
0.0685 -0.3775 -0.525 205 158 132
0.0715 -0.3775 -0.525 197 150 124
0.0822762 -0.381095 -0.53 173 123 100
0.0891667 -0.38469 -0.535 175 119 102
0.113397 -0.401948 -0.559 134 97 89
0.149359 -0.419205 -0.583 156 153 164
0.154911 -0.419205 -0.583 171 165 165
0.402223 -0.427114 -0.594 143 160 190
0.422167 -0.427833 -0.595 164 188 222
0.426282 -0.428552 -0.596 176 202 237
0.430823 -0.428552 -0.596 168 198 236
0.444054 -0.429271 -0.597 235 239 248
0.447466 -0.429271 -0.597 214 218 227
0.45581 -0.43071 -0.599 139 163 201
0.456951 -0.43071 -0.599 162 190 227
0.461515 -0.43071 -0.599 112 140 177
0.482517 -0.432148 -0.601 216 220 231
0.483662 -0.432148 -0.601 216 226 238
0.498227 -0.432867 -0.602 140 174 212
0.500203 -0.433586 -0.603 121 163 203
0.511689 -0.433586 -0.603 204 202 207
0.515134 -0.433586 -0.603 155 150 156
0.515427 -0.432867 -0.602 148 145 156
0.51858 -0.433586 -0.603 77 105 145
0.522307 -0.432867 -0.602 95 124 168
0.515586 -0.416329 -0.579 154 132 121
0.487095 -0.381095 -0.53 173 140 123
0.483848 -0.373905 -0.52 185 144 122
0.4841 -0.37031 -0.515 191 150 122
0.49381 -0.359524 -0.5 193 149 122
0.502269 -0.358086 -0.498 184 140 113
0.519689 -0.360962 -0.502 165 125 99
0.0566076 -0.379221 -0.526 207 160 132
0.0605 -0.3785 -0.525 205 160 129
0.063379 -0.377779 -0.524 202 157 126
0.0653752 -0.377779 -0.524 198 151 123
0.0799543 -0.380663 -0.528 179 132 106
0.0868029 -0.384268 -0.533 177 120 103
0.101029 -0.392198 -0.544 156 107 93
0.114871 -0.404454 -0.561 132 95 87
0.141343 -0.419594 -0.582 55 62 88
0.393639 -0.427525 -0.593 165 182 210
0.395898 -0.427525 -0.593 216 234 255
0.431958 -0.429688 -0.596 151 177 214
0.439506 -0.430409 -0.597 243 240 255
0.458467 -0.43113 -0.598 201 226 255
0.467579 -0.43113 -0.598 131 154 185
0.475207 -0.43185 -0.599 215 221 235
0.480571 -0.432571 -0.6 217 221 232
0.49511 -0.433292 -0.601 155 183 222
0.501667 -0.434013 -0.602 98 136 173
0.50396 -0.434013 -0.602 153 173 197
0.520877 -0.434734 -0.603 64 93 135
0.503263 -0.402291 -0.558 160 132 121
0.490568 -0.38643 -0.536 165 133 118
0.487095 -0.382105 -0.53 171 138 123
0.486346 -0.379942 -0.527 177 138 123
0.485151 -0.369849 -0.513 191 149 124
0.4862 -0.367686 -0.51 193 149 122
0.488169 -0.365523 -0.507 192 148 121
0.492857 -0.360476 -0.5 193 149 122
0.495673 -0.359755 -0.499 194 150 123
0.499423 -0.359034 -0.498 189 145 118
0.50403 -0.357592 -0.496 184 140 111
0.510727 -0.358313 -0.497 171 130 102
0.520646 -0.361918 -0.502 167 127 101
0.0480429 -0.383837 -0.531 199 155 128
0.0683695 -0.378777 -0.524 201 154 126
0.105094 -0.396849 -0.549 147 103 92
0.109217 -0.400463 -0.554 143 101 89
0.166553 -0.41998 -0.581 141 165 201
0.169873 -0.41998 -0.581 119 143 181
0.387337 -0.427931 -0.592 196 209 228
0.400416 -0.428654 -0.593 175 190 213
0.465301 -0.432269 -0.598 169 182 199
0.480911 -0.432991 -0.599 215 221 233
0.493143 -0.433714 -0.6 165 191 228
0.5074 -0.43516 -0.602 206 205 213
0.487184 -0.382391 -0.529 170 141 127
0.484714 -0.377331 -0.522 179 141 122
0.484139 -0.371549 -0.514 191 149 124
0.488169 -0.366489 -0.507 193 149 122
0.48912 -0.36432 -0.504 193 149 122
0.493731 -0.359983 -0.498 195 151 124
0.49468 -0.359983 -0.498 194 150 123
0.49842 -0.35926 -0.497 190 146 119
0.5049 -0.357814 -0.495 185 141 112
0.506786 -0.357814 -0.495 176 132 105
0.511673 -0.35926 -0.497 171 130 102
0.523599 -0.363597 -0.503 165 123 98
0.63 -0.42504 -0.588 209 205 196
0.0395 -0.400793 -0.553 201 155 132
0.0418886 -0.393546 -0.543 199 157 132
0.0497829 -0.382674 -0.528 205 161 132
0.0603848 -0.379775 -0.524 205 160 129
0.0663733 -0.379775 -0.524 199 152 124
0.0961714 -0.391371 -0.54 163 110 92
0.10367 -0.396445 -0.547 151 103 91
0.109217 -0.401518 -0.554 142 99 90
0.128705 -0.420362 -0.58 90 86 100
0.142207 -0.421087 -0.581 126 131 151
0.166267 -0.420362 -0.58 132 161 195
0.168476 -0.420362 -0.58 116 144 181
0.39072 -0.429059 -0.592 214 225 247
0.392975 -0.429059 -0.592 192 200 221
0.409452 -0.429784 -0.593 224 233 250
0.41397 -0.429784 -0.593 234 240 252
0.430509 -0.430509 -0.594 154 176 213
0.435767 -0.431233 -0.595 229 241 255
0.445581 -0.431958 -0.596 231 234 251
0.448987 -0.431958 -0.596 158 166 189
0.456563 -0.432683 -0.597 206 219 238
0.482052 -0.434132 -0.599 211 219 232
0.504268 -0.435582 -0.601 188 202 231
0.509991 -0.435582 -0.601 197 200 205
0.511725 -0.413839 -0.571 155 130 123
0.50922 -0.41094 -0.567 155 130 123
0.503422 -0.403692 -0.557 158 131 122
0.49751 -0.396445 -0.547 159 132 121
0.488105 -0.384124 -0.53 168 139 125
0.486346 -0.38195 -0.527 178 139 124
0.485207 -0.370353 -0.511 194 149 126
0.485229 -0.369629 -0.51 195 150 127
0.489108 -0.364555 -0.503 193 149 122
0.49 -0.362381 -0.5 190 146 117
0.490886 -0.360931 -0.498 193 149 122
0.492783 -0.360931 -0.498 194 150 123
0.502141 -0.359482 -0.496 186 140 114
0.0423695 -0.389493 -0.536 198 152 126
0.04602 -0.38586 -0.531 196 155 127
0.0515981 -0.382227 -0.526 207 163 134
0.0612657 -0.380047 -0.523 204 159 128
0.0777952 -0.382953 -0.527 184 132 111
0.0949667 -0.391673 -0.539 163 110 96
0.105094 -0.39894 -0.549 146 102 93
0.140857 -0.421467 -0.58 144 149 168
0.144171 -0.421467 -0.58 71 78 104
0.400869 -0.430187 -0.592 222 231 248
0.406507 -0.430187 -0.592 155 167 189
0.407634 -0.430187 -0.592 180 191 211
0.423007 -0.430913 -0.593 168 191 225
0.455798 -0.433093 -0.596 216 231 252
0.471346 -0.43382 -0.597 162 173 195
0.480109 -0.434547 -0.598 211 220 237
0.482387 -0.434547 -0.598 212 220 233
0.513714 -0.436 -0.6 154 166 188
0.523392 -0.434547 -0.598 142 145 152
0.5076 -0.40984 -0.564 156 132 122
0.496729 -0.396033 -0.545 160 132 118
0.492398 -0.390947 -0.538 163 134 118
0.487269 -0.38368 -0.528 176 139 123
0.48396 -0.376413 -0.518 183 146 120
0.4841 -0.374233 -0.515 187 147 121
0.485207 -0.371327 -0.511 192 147 124
0.488167 -0.366967 -0.505 193 149 122
0.489091 -0.364787 -0.502 191 147 120
0.496527 -0.361153 -0.497 191 147 120
0.503957 -0.3597 -0.495 186 141 112
0.0439143 -0.386143 -0.53 200 156 129
0.0505962 -0.383229 -0.526 208 163 134
0.057281 -0.381043 -0.523 209 164 135
0.0777952 -0.383957 -0.527 185 128 109
0.078799 -0.383957 -0.527 182 127 107
0.163774 -0.421843 -0.579 129 158 198
0.382657 -0.429857 -0.59 237 238 255
0.39006 -0.430586 -0.591 226 233 252
0.392311 -0.430586 -0.591 185 192 208
0.393437 -0.430586 -0.591 214 221 237
0.39794 -0.430586 -0.591 232 239 255
0.401317 -0.430586 -0.591 228 234 250
0.416655 -0.431314 -0.592 217 229 253
0.429784 -0.432043 -0.593 149 172 206
0.432043 -0.432043 -0.593 181 200 230
0.47362 -0.434957 -0.597 127 144 170
0.480109 -0.435686 -0.598 210 221 239
0.484665 -0.435686 -0.598 204 213 230
0.512571 -0.437143 -0.6 142 150 169
0.513517 -0.417471 -0.573 156 131 124
0.486237 -0.369386 -0.507 193 149 124
0.486242 -0.368657 -0.506 193 149 124
0.4872 -0.3672 -0.504 194 150 123
0.489048 -0.364286 -0.5 192 148 121
0.502939 -0.359914 -0.494 186 141 118
0.50388 -0.359914 -0.494 185 141 116
0.507644 -0.359914 -0.494 176 132 103
0.0372581 -0.402492 -0.551 203 156 130
0.04576 -0.385691 -0.528 200 156 131
0.0533981 -0.38277 -0.524 208 162 136
0.0621429 -0.381309 -0.522 201 154 126
0.0671143 -0.381309 -0.522 197 150 122
0.0691029 -0.381309 -0.522 194 147 119
0.0878181 -0.389344 -0.533 173 117 100
0.0985924 -0.395918 -0.542 165 109 92
0.0998086 -0.396649 -0.543 160 108 94
0.124526 -0.420754 -0.576 109 95 95
0.129586 -0.422946 -0.579 104 98 102
0.404694 -0.431711 -0.591 215 227 251
0.441823 -0.433903 -0.594 197 210 227
0.472827 -0.435364 -0.596 106 126 153
0.473962 -0.435364 -0.596 119 139 166
0.483854 -0.436094 -0.597 188 199 217
0.512858 -0.437555 -0.599 65 84 117
0.518563 -0.437555 -0.599 173 187 200
0.520845 -0.437555 -0.599 177 191 200
0.522253 -0.436825 -0.598 173 181 194
0.522517 -0.436094 -0.597 171 170 184
0.50523 -0.408336 -0.559 160 133 124
0.48735 -0.384961 -0.527 172 139 122
0.484139 -0.375465 -0.514 188 144 119
0.486243 -0.36889 -0.505 193 149 124
0.490847 -0.363047 -0.497 191 147 120
0.493586 -0.361586 -0.495 193 149 120
0.494529 -0.361586 -0.495 194 150 121
0.508585 -0.360855 -0.494 177 134 100
0.522381 -0.365238 -0.5 166 122 95
0.0485924 -0.385232 -0.526 208 162 136
0.0601543 -0.382303 -0.522 203 157 131
0.0611486 -0.382303 -0.522 202 156 130
0.0641314 -0.382303 -0.522 199 152 126
0.07336 -0.383768 -0.524 186 136 109
0.0947905 -0.394021 -0.538 167 111 96
0.0998086 -0.397683 -0.543 157 108 93
0.141472 -0.423316 -0.578 169 167 178
0.149179 -0.423316 -0.578 102 113 143
0.155785 -0.423316 -0.578 162 177 208
0.156886 -0.423316 -0.578 151 166 197
0.382009 -0.431372 -0.589 236 239 254
0.435825 -0.43357 -0.592 233 237 249
0.446349 -0.435034 -0.594 196 206 233
0.44748 -0.435034 -0.594 224 234 255
0.450874 -0.435034 -0.594 233 236 251
0.4607 -0.435767 -0.595 224 230 244
0.480443 -0.437231 -0.597 208 218 230
0.505168 -0.437964 -0.598 196 204 215
0.515419 -0.437964 -0.598 187 195 206
0.517422 -0.438696 -0.599 180 189 198
0.518563 -0.438696 -0.599 181 190 199
0.484838 -0.380838 -0.52 174 141 122
0.484206 -0.374979 -0.512 190 146 121
0.484257 -0.373514 -0.51 190 146 119
0.489859 -0.363261 -0.496 192 148 121
0.501057 -0.361796 -0.494 187 143 114
0.508494 -0.361064 -0.493 178 135 100
0.523333 -0.36619 -0.5 163 123 97
0.52944 -0.36912 -0.504 158 122 96
0.035159 -0.404591 -0.551 200 153 127
0.0384286 -0.395046 -0.538 204 159 130
0.0400267 -0.39064 -0.532 199 155 128
0.0426619 -0.386969 -0.527 200 156 129
0.0475 -0.3855 -0.525 205 159 133
0.0523 -0.384031 -0.523 209 163 137
0.0541886 -0.383297 -0.522 208 161 135
0.0640086 -0.382563 -0.521 199 152 126
0.0679781 -0.382563 -0.521 193 143 116
0.0691029 -0.383297 -0.522 190 140 113
0.08664 -0.39064 -0.532 171 118 102
0.137069 -0.424417 -0.578 154 152 155
0.141472 -0.424417 -0.578 170 169 177
0.144775 -0.424417 -0.578 138 152 178
0.16211 -0.423683 -0.577 119 157 204
0.37576 -0.43176 -0.588 171 186 215
0.37688 -0.43176 -0.588 202 214 238
0.38313 -0.432494 -0.589 236 242 255
0.390984 -0.432494 -0.589 232 239 249
0.411876 -0.433229 -0.59 188 204 230
0.436952 -0.434697 -0.592 196 209 226
0.440335 -0.434697 -0.592 137 153 179
0.450115 -0.435431 -0.593 233 237 249
0.456531 -0.436166 -0.594 228 234 246
0.473167 -0.4369 -0.595 150 158 179
0.486129 -0.438369 -0.597 175 195 220
0.504323 -0.438369 -0.597 191 198 214
0.506597 -0.438369 -0.597 147 162 191
0.52138 -0.438369 -0.597 175 184 193
0.496059 -0.397983 -0.542 161 133 119
0.484838 -0.381829 -0.52 176 141 122
0.484257 -0.374486 -0.51 188 144 119
0.485278 -0.371549 -0.506 190 148 124
0.485281 -0.370814 -0.505 191 149 124
0.486233 -0.369346 -0.503 190 148 123
0.488953 -0.36494 -0.497 194 150 123
0.493586 -0.363471 -0.495 193 149 122
0.500982 -0.362003 -0.493 188 142 116
0.502777 -0.361269 -0.492 187 142 113
0.509433 -0.362003 -0.493 177 134 99
0.510372 -0.362003 -0.493 177 134 99
0.630164 -0.428823 -0.584 203 203 195
0.0374038 -0.39607 -0.538 203 158 129
0.0382143 -0.393862 -0.535 204 159 130
0.0416581 -0.387972 -0.527 195 155 130
0.0455 -0.3865 -0.525 204 158 132
0.0669857 -0.383555 -0.521 193 146 120
0.0722238 -0.385028 -0.523 186 136 109
0.0854657 -0.390917 -0.531 174 118 101
0.0923962 -0.394598 -0.536 166 110 95
0.0959933 -0.396807 -0.539 165 112 96
0.10244 -0.40196 -0.546 152 108 97
0.136831 -0.424782 -0.577 165 161 160
0.143426 -0.424782 -0.577 173 177 189
0.146723 -0.424782 -0.577 127 143 169
0.147822 -0.424782 -0.577 118 134 160
0.156614 -0.424782 -0.577 158 178 211
0.159911 -0.424782 -0.577 97 134 179
0.453504 -0.436561 -0.593 221 222 226
0.456892 -0.436561 -0.593 229 233 242
0.489855 -0.43877 -0.596 120 156 204
0.494396 -0.43877 -0.596 118 158 209
0.507734 -0.439506 -0.597 89 109 144
0.507941 -0.413739 -0.562 156 129 118
0.485709 -0.384291 -0.522 175 140 121
0.48323 -0.37693 -0.512 184 146 123
0.48528 -0.37104 -0.504 191 149 124
0.487143 -0.368095 -0.5 191 147 122
0.48807 -0.367359 -0.499 191 147 122
0.488007 -0.365887 -0.497 194 150 125
0.491648 -0.363678 -0.494 193 149 122
0.499104 -0.362942 -0.493 190 145 116
0.500043 -0.362942 -0.493 190 145 116
0.503626 -0.36147 -0.491 183 140 108
0.518202 -0.36515 -0.496 163 124 91
0.0454133 -0.386762 -0.524 203 157 131
0.0501152 -0.384548 -0.521 205 159 135
0.0599238 -0.38381 -0.52 207 160 134
0.065001 -0.384548 -0.521 195 148 122
0.0679781 -0.384548 -0.521 195 145 120
0.129138 -0.425881 -0.577 132 126 140
0.374003 -0.433262 -0.587 214 220 246
0.375121 -0.433262 -0.587 228 234 255
0.424238 -0.435476 -0.59 155 193 242
0.439591 -0.436214 -0.591 167 185 209
0.454994 -0.436952 -0.592 228 235 245
0.460281 -0.43769 -0.593 220 225 229
0.46254 -0.43769 -0.593 225 230 233
0.464799 -0.43769 -0.593 222 230 233
0.467846 -0.438429 -0.594 219 226 232
0.476567 -0.439167 -0.595 147 164 190
0.487585 -0.439905 -0.596 157 183 220
0.508019 -0.439905 -0.596 123 140 170
0.520507 -0.439905 -0.596 177 188 194
0.514413 -0.423667 -0.574 161 134 125
0.506294 -0.412595 -0.559 156 129 120
0.4875 -0.3875 -0.525 170 137 120
0.485771 -0.384548 -0.521 177 140 124
0.48401 -0.381595 -0.517 179 142 123
0.484314 -0.373476 -0.506 189 147 122
0.496287 -0.363881 -0.493 188 143 114
0.50269 -0.362405 -0.491 184 144 109
0.515171 -0.364619 -0.494 166 127 94
0.524188 -0.36831 -0.499 159 123 97
0.0463229 -0.38702 -0.523 205 159 135
0.0549714 -0.3848 -0.52 202 155 129
0.07322 -0.38702 -0.523 184 134 109
0.108162 -0.40996 -0.554 128 100 97
0.131109 -0.42624 -0.576 145 142 153
0.138789 -0.42624 -0.576 128 122 122
0.14208 -0.42624 -0.576 184 186 198
0.144274 -0.42624 -0.576 182 188 204
0.150595 -0.4255 -0.575 126 136 161
0.156071 -0.4255 -0.575 121 143 184
0.160452 -0.4255 -0.575 102 134 193
0.384066 -0.43438 -0.587 223 226 235
0.438466 -0.43734 -0.591 182 198 221
0.45725 -0.43808 -0.592 228 232 241
0.458377 -0.43808 -0.592 224 229 233
0.464799 -0.43882 -0.593 224 229 233
0.47916 -0.43956 -0.594 172 188 214
0.482233 -0.4403 -0.595 196 211 234
0.494396 -0.44104 -0.596 88 132 195
0.5015 -0.4403 -0.595 193 207 233
0.519371 -0.44104 -0.596 178 189 193
0.499593 -0.40478 -0.547 159 131 120
0.49789 -0.40256 -0.544 160 132 121
0.49271 -0.3959 -0.535 162 134 122
0.488353 -0.38998 -0.527 169 136 121
0.484057 -0.38184 -0.516 180 142 121
0.48326 -0.37814 -0.511 187 145 121
0.48432 -0.37296 -0.504 189 147 122
0.48619 -0.37 -0.5 194 150 125
0.488871 -0.3663 -0.495 191 149 124
0.491591 -0.36482 -0.493 192 148 121
0.494409 -0.36482 -0.493 189 145 116
0.504467 -0.3626 -0.49 182 139 104
0.5054 -0.3626 -0.49 178 138 102
0.519043 -0.3663 -0.495 164 125 94
0.050019 -0.38579 -0.52 204 158 134
0.0529905 -0.38579 -0.52 206 159 133
0.0568429 -0.385049 -0.519 204 157 131
0.0720857 -0.387274 -0.522 186 136 113
0.0798029 -0.390984 -0.527 180 128 107
0.123877 -0.425111 -0.573 118 108 117
0.389656 -0.435498 -0.587 213 219 233
0.40936 -0.43624 -0.588 200 210 235
0.439971 -0.437724 -0.59 222 233 255
0.46176 -0.439208 -0.592 175 178 183
0.493567 -0.441433 -0.595 75 119 184
0.517101 -0.442175 -0.596 189 190 194
0.5219 -0.441433 -0.595 178 181 190
0.513711 -0.42437 -0.572 158 131 122
0.500507 -0.406564 -0.548 158 130 119
0.485267 -0.372436 -0.502 192 148 123
0.487091 -0.369469 -0.498 190 148 123
0.494343 -0.365017 -0.492 188 144 117
0.498014 -0.364275 -0.491 189 145 118
0.50082 -0.364275 -0.491 189 145 116
0.5026 -0.363533 -0.49 185 140 109
0.5082 -0.363533 -0.49 175 135 100
0.0308486 -0.408351 -0.549 195 151 126
0.0480381 -0.386781 -0.52 203 159 134
0.0808067 -0.391988 -0.527 181 126 106
0.0864771 -0.394963 -0.531 171 120 101
0.0959933 -0.400913 -0.539 161 114 96
0.0985924 -0.403145 -0.542 162 114 100
0.133933 -0.426947 -0.574 125 132 138
0.14924 -0.426947 -0.574 137 144 163
0.15252 -0.426947 -0.574 97 112 151
0.385644 -0.435872 -0.586 228 228 236
0.441095 -0.438848 -0.59 229 237 250
0.462106 -0.439591 -0.591 206 209 214
0.468526 -0.440335 -0.592 219 226 232
0.485949 -0.441823 -0.594 128 161 215
0.507167 -0.442567 -0.595 191 198 216
0.509433 -0.442567 -0.595 201 202 207
0.510567 -0.442567 -0.595 192 193 198
0.522154 -0.441823 -0.594 155 155 163
0.522405 -0.441079 -0.593 132 132 144
0.5112 -0.422484 -0.568 156 129 122
0.506451 -0.415046 -0.558 155 127 116
0.49972 -0.40612 -0.546 161 131 121
0.486703 -0.388269 -0.522 169 137 122
0.484947 -0.385293 -0.518 174 138 122
0.48706 -0.369673 -0.497 189 147 122
0.492469 -0.365954 -0.492 192 148 121
0.511 -0.364467 -0.49 170 130 95
0.512978 -0.36521 -0.491 167 127 92
0.0339467 -0.39672 -0.532 202 158 133
0.0365695 -0.392246 -0.526 204 158 132
0.0451533 -0.388517 -0.521 205 161 134
0.0489343 -0.387026 -0.519 203 157 131
0.0509114 -0.387026 -0.519 203 157 131
0.05476 -0.38628 -0.518 203 158 129
0.0567333 -0.38628 -0.518 203 157 131
0.06574 -0.387026 -0.519 194 144 121
0.0886667 -0.39672 -0.532 171 120 101
0.122571 -0.426549 -0.572 89 87 101
0.151163 -0.427294 -0.573 102 120 156
0.377186 -0.436243 -0.585 230 240 250
0.381643 -0.436243 -0.585 183 182 188
0.438104 -0.439226 -0.589 230 232 247
0.46098 -0.440717 -0.591 208 211 218
0.473036 -0.441463 -0.592 211 218 224
0.474164 -0.441463 -0.592 218 222 233
0.484001 -0.442209 -0.593 102 138 196
0.499526 -0.442954 -0.594 91 121 181
0.50292 -0.442954 -0.594 106 136 190
0.51084 -0.442954 -0.594 155 153 156
0.522405 -0.442209 -0.593 132 132 144
0.513184 -0.424311 -0.569 157 129 125
0.504786 -0.413871 -0.555 159 129 121
0.488774 -0.367637 -0.493 189 145 118
0.491531 -0.366891 -0.492 191 147 118
0.495209 -0.366146 -0.491 185 144 116
0.501574 -0.364654 -0.489 186 145 115
0.502408 -0.363909 -0.488 182 141 111
0.509026 -0.364654 -0.489 173 132 102
0.511933 -0.3654 -0.49 169 128 98
0.513913 -0.366146 -0.491 164 127 98
0.516834 -0.366891 -0.492 163 126 97
0.03222 -0.401471 -0.537 201 155 131
0.0411838 -0.38951 -0.521 206 160 134
0.05772 -0.387267 -0.518 200 154 128
0.0773524 -0.391752 -0.524 180 128 104
0.0851438 -0.39549 -0.529 174 123 102
0.0886667 -0.397733 -0.532 170 119 98
0.0898486 -0.398481 -0.533 168 117 96
0.0985924 -0.40521 -0.542 157 111 96
0.101214 -0.407452 -0.545 144 104 94
0.135883 -0.428386 -0.573 168 168 176
0.383871 -0.437357 -0.585 194 198 209
0.387214 -0.437357 -0.585 192 200 213
0.409084 -0.438105 -0.586 207 216 231
0.426553 -0.438852 -0.587 84 119 183
0.42879 -0.438852 -0.587 90 132 190
0.431026 -0.438852 -0.587 107 141 202
0.43512 -0.4396 -0.588 187 210 244
0.500944 -0.443338 -0.593 62 97 155
0.506591 -0.443338 -0.593 202 202 210
0.522651 -0.44259 -0.592 135 137 149
0.511556 -0.423152 -0.566 162 129 124
0.49972 -0.4082 -0.546 161 133 122
0.493729 -0.399976 -0.535 162 133 119
0.484995 -0.386519 -0.517 177 139 118
0.484139 -0.384276 -0.514 179 141 120
0.483326 -0.37979 -0.508 187 145 120
0.4843 -0.374557 -0.501 189 147 122
0.495133 -0.366333 -0.49 186 145 117
0.496917 -0.365586 -0.489 192 148 121
0.49878 -0.365586 -0.489 188 147 117
0.510889 -0.365586 -0.489 171 130 102
0.0498267 -0.388253 -0.518 200 153 125
0.0605629 -0.387504 -0.517 192 145 119
0.06364 -0.388253 -0.518 194 147 121
0.0647514 -0.389003 -0.519 191 144 118
0.0752124 -0.392001 -0.523 179 128 101
0.0785 -0.3935 -0.525 179 127 103
0.0874886 -0.397997 -0.531 172 122 99
0.123661 -0.428728 -0.572 95 91 106
0.137825 -0.428728 -0.572 183 183 191
0.145451 -0.428728 -0.572 193 200 219
0.432144 -0.43997 -0.587 102 134 191
0.43438 -0.43997 -0.587 198 218 255
0.438852 -0.43997 -0.587 227 230 239
0.44632 -0.44072 -0.588 226 227 232
0.4602 -0.442219 -0.59 197 200 217
0.463571 -0.442219 -0.59 178 182 191
0.491078 -0.443718 -0.592 35 82 150
0.493037 -0.444468 -0.593 35 82 150
0.503482 -0.443718 -0.592 178 186 209
0.50461 -0.443718 -0.592 184 185 190
0.507992 -0.443718 -0.592 141 136 142
0.521524 -0.443718 -0.592 123 131 150
0.491133 -0.397248 -0.53 165 133 120
0.487635 -0.392001 -0.523 170 137 122
0.484139 -0.385255 -0.514 181 140 118
0.483326 -0.380758 -0.508 187 145 120
0.4843 -0.375511 -0.501 191 149 124
