ply
format ascii 1.0
comment Created by Open3D
element vertex 1282
property double x
property double y
property double z
property uchar red
property uchar green
property uchar blue
end_header
0.403987 -0.15252 -0.574 203 153 146
0.405466 -0.152254 -0.573 200 151 144
0.406557 -0.152254 -0.573 201 151 144
0.407649 -0.152254 -0.573 200 150 143
0.414871 -0.150129 -0.565 186 137 123
0.43446 -0.148003 -0.557 198 149 134
0.435798 -0.147737 -0.556 196 147 132
0.439507 -0.147206 -0.554 205 158 140
0.445997 -0.145877 -0.549 200 151 134
0.462315 -0.146409 -0.551 183 135 115
-0.128983 -0.173417 -0.648 183 180 175
0.377389 -0.16753 -0.626 109 92 98
0.387337 -0.15843 -0.592 207 159 155
0.41239 -0.152275 -0.569 190 141 127
0.425514 -0.150402 -0.562 190 141 126
0.427963 -0.150134 -0.561 196 147 132
0.44082 -0.147993 -0.553 204 155 138
0.445997 -0.146923 -0.549 199 150 133
0.451448 -0.146655 -0.548 189 142 122
0.461476 -0.14719 -0.55 184 135 118
-0.110128 -0.174112 -0.646 195 192 183
0.375802 -0.16387 -0.608 202 160 162
0.376781 -0.162792 -0.604 215 173 174
0.377306 -0.162523 -0.603 214 173 171
0.377827 -0.162253 -0.602 216 175 173
0.39188 -0.156863 -0.582 200 150 143
0.396477 -0.156054 -0.579 203 153 146
0.412747 -0.15309 -0.568 185 136 122
0.415606 -0.15255 -0.566 187 135 122
0.418434 -0.152011 -0.564 181 129 116
0.42091 -0.151742 -0.563 186 134 121
0.425199 -0.151742 -0.563 190 138 124
0.445185 -0.147699 -0.548 197 148 131
0.459798 -0.147699 -0.548 186 137 120
0.487397 -0.151742 -0.563 169 121 109
0.377306 -0.163671 -0.603 214 170 169
0.384603 -0.160957 -0.593 205 156 152
0.387618 -0.159871 -0.589 209 160 155
0.398405 -0.156614 -0.577 197 147 140
0.40874 -0.155529 -0.573 192 142 133
0.413114 -0.154714 -0.57 180 131 117
0.4181 -0.153357 -0.565 183 131 117
0.429031 -0.152271 -0.561 191 138 122
0.432338 -0.151186 -0.557 199 146 130
0.449582 -0.148471 -0.547 191 143 123
0.458959 -0.148471 -0.547 186 137 122
-0.110128 -0.176573 -0.646 192 192 184
0.374271 -0.1681 -0.615 204 158 160
0.376252 -0.165367 -0.605 217 171 171
0.377714 -0.164 -0.6 211 165 165
0.378226 -0.163727 -0.599 211 165 165
0.387618 -0.160993 -0.589 204 155 150
0.389443 -0.1599 -0.585 201 151 142
0.390332 -0.159353 -0.583 199 149 142
0.397994 -0.157987 -0.578 198 148 139
0.398405 -0.157713 -0.577 197 147 138
0.399504 -0.157713 -0.577 195 145 136
0.4032 -0.15744 -0.576 197 144 136
0.406173 -0.156893 -0.574 198 145 137
0.414557 -0.155527 -0.569 186 134 120
0.41491 -0.155253 -0.568 188 136 122
0.417762 -0.154707 -0.566 177 125 111
0.424127 -0.153887 -0.563 181 128 114
0.427963 -0.15334 -0.561 187 134 120
0.430696 -0.152793 -0.559 195 142 128
0.438451 -0.151427 -0.554 204 151 133
0.443667 -0.150333 -0.55 203 152 135
0.45812 -0.14924 -0.546 188 139 124
0.461043 -0.149513 -0.547 184 135 120
-0.271344 -0.17863 -0.649 250 250 248
-0.121106 -0.175877 -0.639 188 188 180
0.373001 -0.16817 -0.611 209 163 165
0.3741 -0.16762 -0.609 219 173 173
0.387152 -0.16239 -0.59 200 151 146
0.391002 -0.160739 -0.584 197 147 140
0.399095 -0.159088 -0.578 198 145 137
0.399504 -0.158812 -0.577 196 144 133
0.402103 -0.158537 -0.576 190 138 127
0.413473 -0.15661 -0.569 181 129 115
0.431761 -0.153858 -0.559 198 145 129
0.432051 -0.153583 -0.558 197 144 128
0.43368 -0.153032 -0.556 200 148 134
0.446229 -0.15083 -0.548 196 145 128
0.44772 -0.15028 -0.546 197 146 129
0.451052 -0.150005 -0.545 196 145 128
0.455205 -0.150005 -0.545 194 145 128
0.46124 -0.15028 -0.546 187 138 121
-0.27784 -0.17848 -0.644 254 255 251
-0.271707 -0.17848 -0.644 254 255 251
-0.131457 -0.177926 -0.642 180 179 174
-0.126992 -0.176817 -0.638 186 183 176
-0.117822 -0.177649 -0.641 190 190 182
-0.109234 -0.179589 -0.648 193 193 185
-0.107095 -0.180143 -0.65 196 193 186
0.37563 -0.167394 -0.604 213 167 167
0.377085 -0.166009 -0.599 211 167 166
0.379237 -0.165454 -0.597 208 164 163
0.389656 -0.162683 -0.587 197 144 138
0.409453 -0.15908 -0.574 181 129 116
0.412385 -0.158526 -0.572 184 132 118
0.412751 -0.158249 -0.571 183 131 117
0.415992 -0.157417 -0.568 172 119 105
0.422731 -0.156309 -0.564 177 125 111
0.438713 -0.15326 -0.553 203 151 130
0.441814 -0.152151 -0.549 205 154 135
0.444141 -0.151874 -0.548 204 153 134
0.447498 -0.151597 -0.547 196 145 126
0.470049 -0.152151 -0.549 175 126 111
0.488 -0.1552 -0.56 172 122 111
-0.2782 -0.179149 -0.642 252 254 249
-0.264346 -0.180544 -0.647 255 255 253
-0.261857 -0.181381 -0.65 252 252 250
-0.132887 -0.179428 -0.643 180 179 174
-0.119889 -0.178311 -0.639 189 189 181
-0.11153 -0.180544 -0.647 192 192 184
0.37492 -0.172451 -0.618 205 160 157
0.374165 -0.170498 -0.611 211 165 165
0.383633 -0.166033 -0.595 196 143 137
0.391225 -0.163522 -0.586 189 136 128
0.391671 -0.163243 -0.585 191 139 128
0.393227 -0.162964 -0.584 192 139 131
0.410923 -0.159894 -0.573 182 130 117
0.415641 -0.158778 -0.569 176 124 110
0.417074 -0.158499 -0.568 168 116 102
0.440275 -0.153755 -0.551 204 151 133
0.445414 -0.152639 -0.547 196 145 126
0.44772 -0.15236 -0.546 193 142 123
0.455406 -0.151802 -0.544 198 147 130
0.46644 -0.15236 -0.546 179 130 115
0.468336 -0.152639 -0.547 175 126 112
0.487129 -0.155988 -0.559 172 123 109
-0.279771 -0.17981 -0.64 252 254 249
-0.278117 -0.179529 -0.639 252 254 249
-0.270019 -0.17981 -0.64 251 252 247
-0.259381 -0.182619 -0.65 252 252 250
-0.118006 -0.180371 -0.642 189 189 181
0.373001 -0.171662 -0.611 213 165 165
0.374165 -0.171662 -0.611 213 165 165
0.388934 -0.166043 -0.591 187 134 126
0.403499 -0.16239 -0.578 181 129 118
0.406491 -0.161829 -0.576 181 129 118
0.410923 -0.160986 -0.573 178 126 115
0.416371 -0.160143 -0.57 175 123 110
0.42066 -0.1593 -0.567 171 118 104
0.427344 -0.158176 -0.563 179 126 110
0.431761 -0.157052 -0.559 192 139 125
0.435286 -0.155648 -0.554 200 147 131
0.443097 -0.153962 -0.548 204 151 135
0.4446 -0.1534 -0.546 199 146 130
0.448976 -0.153119 -0.545 200 147 129
-0.266362 -0.181029 -0.64 244 245 240
-0.13206 -0.180746 -0.639 182 182 174
-0.112763 -0.183009 -0.647 193 190 181
0.379237 -0.168866 -0.597 194 143 140
0.383143 -0.168583 -0.596 190 137 131
0.392106 -0.166603 -0.589 178 125 117
0.3939 -0.165471 -0.585 180 128 117
0.427029 -0.159531 -0.564 178 126 112
0.43368 -0.157269 -0.556 196 143 127
0.439476 -0.155571 -0.55 203 151 130
0.444372 -0.154723 -0.547 201 148 130
0.450014 -0.154157 -0.545 203 151 130
0.457671 -0.153591 -0.543 196 145 126
-0.289206 -0.182817 -0.642 251 253 248
-0.28542 -0.181963 -0.639 248 250 245
-0.262711 -0.183102 -0.643 253 254 249
-0.113995 -0.184241 -0.647 192 189 180
0.380374 -0.170003 -0.597 193 142 139
0.398531 -0.165731 -0.582 181 129 118
0.415653 -0.162884 -0.572 172 120 107
0.41819 -0.162599 -0.571 170 118 105
0.42282 -0.16146 -0.567 172 118 106
0.439723 -0.156334 -0.549 202 151 132
0.450225 -0.15491 -0.544 204 152 131
0.490323 -0.159182 -0.559 175 123 110
-0.28408 -0.18232 -0.636 215 217 212
-0.273607 -0.182607 -0.637 140 141 135
-0.266745 -0.182893 -0.638 134 135 129
-0.258184 -0.185473 -0.647 252 252 250
-0.122514 -0.183467 -0.64 186 186 178
-0.1161 -0.1849 -0.645 190 190 180
-0.114171 -0.18576 -0.648 192 189 180
0.374777 -0.17544 -0.612 206 155 154
0.377714 -0.172 -0.6 193 139 137
0.388167 -0.170567 -0.595 184 131 123
0.41088 -0.16512 -0.576 172 118 106
0.411262 -0.164833 -0.575 175 121 109
0.41492 -0.164547 -0.574 172 118 106
0.415289 -0.16426 -0.573 171 119 106
0.416014 -0.163687 -0.571 171 119 106
0.4301 -0.16082 -0.561 182 130 116
0.432051 -0.15996 -0.558 190 137 121
0.43368 -0.159387 -0.556 193 140 122
0.44333 -0.156807 -0.547 200 149 128
0.4469 -0.156233 -0.545 202 151 130
0.474231 -0.15738 -0.549 172 120 106
-0.281979 -0.182954 -0.634 148 150 145
-0.274389 -0.183531 -0.636 140 143 136
-0.27118 -0.18382 -0.637 137 140 133
-0.255273 -0.187283 -0.649 251 252 247
-0.133069 -0.184109 -0.638 182 182 174
-0.130433 -0.18382 -0.637 185 182 175
-0.120451 -0.185263 -0.642 189 189 179
-0.112048 -0.187571 -0.65 190 190 180
0.381143 -0.173143 -0.6 185 132 128
0.38279 -0.172854 -0.599 182 129 125
0.39204 -0.171411 -0.594 171 119 108
0.400586 -0.168814 -0.585 171 119 108
0.401857 -0.167949 -0.582 176 124 113
0.406403 -0.167083 -0.579 170 118 107
0.407903 -0.166794 -0.578 172 118 108
0.414548 -0.165929 -0.575 172 118 106
0.420714 -0.164486 -0.57 170 116 104
0.422886 -0.164486 -0.57 171 119 106
0.423228 -0.164197 -0.569 172 120 107
0.433399 -0.160734 -0.557 193 140 124
0.433957 -0.160157 -0.555 192 139 121
0.447938 -0.157271 -0.545 202 151 130
0.47719 -0.158714 -0.55 170 118 104
-0.29716 -0.187648 -0.646 254 255 250
-0.279564 -0.184162 -0.634 153 155 150
-0.274389 -0.184743 -0.636 147 148 143
-0.257386 -0.187357 -0.645 251 251 249
-0.252801 -0.188519 -0.649 255 255 253
-0.122706 -0.186195 -0.641 187 187 177
-0.114348 -0.188519 -0.649 190 190 180
0.377496 -0.176319 -0.607 188 137 134
0.384068 -0.174576 -0.601 177 124 120
0.390776 -0.173995 -0.599 169 117 106
0.404769 -0.169348 -0.583 169 117 104
0.411206 -0.167895 -0.578 167 115 104
0.413791 -0.167605 -0.577 170 116 106
0.415269 -0.167314 -0.576 170 116 104
0.428543 -0.16441 -0.566 174 122 109
0.481029 -0.160343 -0.552 171 119 105
-0.279123 -0.185077 -0.633 155 157 152
-0.277917 -0.185077 -0.633 153 154 149
-0.257812 -0.188001 -0.643 241 241 239
-0.254093 -0.188878 -0.646 255 255 253
-0.127806 -0.185954 -0.636 188 185 178
-0.11751 -0.188878 -0.646 188 189 181
-0.11646 -0.18917 -0.647 189 190 182
0.385233 -0.186247 -0.637 180 132 130
0.376664 -0.180399 -0.617 191 140 137
0.37971 -0.17689 -0.605 178 127 123
0.380751 -0.176306 -0.603 179 126 120
0.397233 -0.173967 -0.595 157 105 92
0.405043 -0.171043 -0.585 162 110 97
0.411127 -0.169873 -0.581 163 110 102
0.41856 -0.168411 -0.576 168 114 102
0.425459 -0.167242 -0.572 168 115 101
0.432706 -0.16461 -0.563 178 125 109
0.433008 -0.164318 -0.562 179 126 110
0.442289 -0.159932 -0.547 205 153 132
0.44356 -0.15964 -0.546 204 152 131
0.448152 -0.159055 -0.544 207 155 134
0.453534 -0.158763 -0.543 204 152 131
0.456637 -0.158763 -0.543 201 149 128
-0.29394 -0.188049 -0.639 254 255 250
-0.256588 -0.189226 -0.643 249 249 247
-0.249943 -0.190697 -0.648 252 252 250
-0.137143 -0.188343 -0.64 183 182 177
-0.124757 -0.188049 -0.639 185 186 178
-0.123733 -0.188343 -0.64 186 187 179
-0.118741 -0.190109 -0.646 189 189 181
-0.11664 -0.190697 -0.648 188 188 178
0.384834 -0.177749 -0.604 170 117 113
0.391737 -0.177749 -0.604 163 113 106
0.415943 -0.170686 -0.58 160 107 99
0.4255 -0.169214 -0.575 162 112 101
0.427294 -0.168626 -0.573 162 112 101
0.431777 -0.166566 -0.566 170 120 109
0.433167 -0.166271 -0.565 178 126 115
0.433474 -0.165977 -0.564 179 127 114
0.43389 -0.164506 -0.559 189 136 120
0.438922 -0.161269 -0.548 198 147 128
0.449189 -0.160091 -0.544 206 153 135
0.456829 -0.159503 -0.542 199 148 129
0.479286 -0.161857 -0.55 173 120 104
0.4976 -0.1648 -0.56 174 122 109
-0.286357 -0.187489 -0.633 152 154 149
-0.256588 -0.19045 -0.643 224 223 221
-0.2537 -0.191043 -0.645 254 254 252
-0.124952 -0.189562 -0.64 186 187 179
0.386447 -0.188673 -0.637 181 127 125
0.38019 -0.18275 -0.617 176 125 122
0.40582 -0.175049 -0.591 152 103 96
0.406946 -0.175049 -0.591 152 104 94
0.418873 -0.172087 -0.581 155 105 96
0.433086 -0.169421 -0.572 163 111 100
0.433303 -0.168236 -0.568 168 116 105
0.433933 -0.167644 -0.566 174 122 111
0.436077 -0.163201 -0.551 192 141 122
0.443786 -0.161424 -0.545 206 153 135
-0.249943 -0.193166 -0.648 253 253 251
-0.130024 -0.18929 -0.635 184 185 179
0.383563 -0.182732 -0.613 166 115 112
0.386333 -0.181838 -0.61 165 112 108
0.409452 -0.17677 -0.593 147 100 94
0.422193 -0.173193 -0.581 148 98 91
0.429563 -0.172597 -0.579 150 100 93
0.434504 -0.170212 -0.571 162 110 99
0.438922 -0.163356 -0.548 194 141 123
0.44044 -0.16276 -0.546 202 149 131
0.444008 -0.162164 -0.544 203 150 132
0.455796 -0.161568 -0.542 203 150 132
0.456829 -0.161568 -0.542 202 149 131
0.476671 -0.163058 -0.547 175 122 106
-0.29331 -0.1905 -0.635 252 252 250
-0.29164 -0.1902 -0.634 254 255 251
-0.254138 -0.1929 -0.643 254 253 251
-0.13793 -0.1914 -0.638 185 182 175
0.394333 -0.195 -0.65 169 127 129
0.385514 -0.1854 -0.618 158 110 110
0.387157 -0.1845 -0.615 157 108 104
0.421362 -0.1758 -0.586 145 97 93
0.428463 -0.1746 -0.582 149 98 94
0.42994 -0.1743 -0.581 144 93 89
0.432153 -0.1743 -0.581 141 90 86
0.433619 -0.174 -0.58 146 96 89
0.436114 -0.1728 -0.576 153 100 92
0.436787 -0.1722 -0.574 160 107 99
0.43609 -0.1698 -0.566 174 122 111
0.436995 -0.1689 -0.563 176 126 115
0.437631 -0.1647 -0.549 197 142 122
0.446294 -0.1629 -0.543 205 152 134
0.453925 -0.1623 -0.541 202 150 129
0.462169 -0.1623 -0.541 184 131 115
0.463199 -0.1623 -0.541 187 134 118
-0.254138 -0.194125 -0.643 252 251 249
-0.248325 -0.195332 -0.647 252 252 250
-0.1408 -0.193219 -0.64 185 182 175
-0.133652 -0.19171 -0.635 184 183 178
-0.117 -0.196238 -0.65 188 188 178
0.3914 -0.186577 -0.618 153 103 102
0.404349 -0.186577 -0.618 149 101 97
0.411026 -0.183256 -0.607 146 98 94
0.412446 -0.18235 -0.604 143 95 93
0.438086 -0.172086 -0.57 161 109 98
0.43729 -0.16967 -0.562 178 126 115
0.43792 -0.166651 -0.552 193 138 118
0.444226 -0.163934 -0.543 205 152 134
0.449602 -0.163632 -0.542 204 153 134
0.453731 -0.163632 -0.542 204 152 130
0.461314 -0.163029 -0.54 194 141 123
0.488389 -0.166651 -0.552 171 120 103
-0.289516 -0.192008 -0.632 185 187 182
-0.287856 -0.191704 -0.631 154 156 151
0.391254 -0.192311 -0.633 152 110 112
0.3906 -0.1914 -0.63 148 106 108
0.391634 -0.189577 -0.624 149 105 104
0.399214 -0.188666 -0.621 149 105 102
0.420441 -0.181982 -0.599 138 95 89
0.421311 -0.181374 -0.597 140 96 93
0.425676 -0.179855 -0.592 142 97 92
0.43288 -0.17864 -0.588 134 87 81
0.438176 -0.167399 -0.551 189 136 118
0.461314 -0.164057 -0.54 196 143 125
0.469217 -0.164665 -0.542 184 133 116
0.492269 -0.16831 -0.554 169 117 103
-0.24586 -0.197797 -0.647 253 254 249
-0.136071 -0.194129 -0.635 183 184 178
-0.126369 -0.195963 -0.641 187 187 177
-0.122243 -0.197186 -0.645 186 186 176
0.418452 -0.191071 -0.625 137 99 98
0.419487 -0.19046 -0.623 141 96 93
0.419829 -0.189543 -0.62 141 97 94
0.424571 -0.183429 -0.6 141 96 93
0.439971 -0.180371 -0.59 136 89 83
0.443024 -0.175786 -0.575 152 104 94
0.441343 -0.174257 -0.57 164 114 103
0.438975 -0.169977 -0.556 178 129 112
0.438451 -0.169366 -0.554 183 134 117
0.438922 -0.167531 -0.548 195 142 124
0.440671 -0.166614 -0.545 201 148 130
0.453925 -0.165391 -0.541 203 150 132
0.473186 -0.166003 -0.543 180 129 112
-0.29026 -0.194108 -0.631 228 235 228
-0.286654 -0.194108 -0.631 140 142 137
-0.141575 -0.196261 -0.638 182 183 177
-0.130024 -0.195338 -0.635 184 185 177
0.43071 -0.184264 -0.599 147 99 95
0.439167 -0.183033 -0.595 131 88 82
0.442567 -0.183033 -0.595 130 85 80
0.446967 -0.179342 -0.583 145 102 96
0.441958 -0.174728 -0.568 161 112 98
0.438933 -0.172267 -0.56 171 125 110
0.445472 -0.16673 -0.542 205 152 134
0.478043 -0.167652 -0.545 171 123 103
-0.287856 -0.19531 -0.631 145 150 146
-0.247557 -0.199643 -0.645 253 253 251
-0.13992 -0.196857 -0.636 183 184 178
-0.128208 -0.197476 -0.638 185 185 175
0.428611 -0.198714 -0.642 116 93 99
0.4326 -0.195 -0.63 147 105 106
0.432423 -0.194381 -0.628 144 100 101
0.432549 -0.18819 -0.608 142 100 101
0.434734 -0.186643 -0.603 140 99 97
0.43516 -0.186333 -0.602 140 99 97
0.436727 -0.186024 -0.601 141 97 94
0.440571 -0.185714 -0.6 138 93 87
0.449614 -0.181071 -0.585 148 101 93
0.448772 -0.167452 -0.541 205 153 131
0.468514 -0.167143 -0.54 186 136 113
0.482923 -0.16931 -0.547 167 118 101
-0.293591 -0.197134 -0.633 251 253 248
0.407233 -0.200249 -0.643 128 106 118
0.41085 -0.199626 -0.641 74 58 68
0.413867 -0.199314 -0.64 56 43 52
0.422587 -0.20056 -0.644 62 45 53
0.430149 -0.201806 -0.648 63 44 50
0.432049 -0.202117 -0.649 83 62 69
0.433952 -0.202429 -0.65 71 50 57
0.444659 -0.188103 -0.604 135 94 92
0.450411 -0.188103 -0.604 130 86 83
0.451499 -0.182497 -0.586 151 104 98
0.440023 -0.171909 -0.552 189 138 119
0.438922 -0.170663 -0.548 191 143 121
0.45 -0.168171 -0.54 207 156 137
0.463705 -0.167549 -0.538 191 138 120
0.499178 -0.173466 -0.557 162 113 98
-0.143238 -0.200533 -0.64 185 184 179
-0.13992 -0.19928 -0.636 186 185 180
-0.131233 -0.198967 -0.635 186 186 178
-0.123663 -0.202413 -0.646 187 187 179
0.414696 -0.202727 -0.647 60 50 61
0.460766 -0.189253 -0.604 131 90 86
0.459622 -0.188313 -0.601 136 95 93
0.449414 -0.18142 -0.579 151 104 98
0.439633 -0.170767 -0.545 191 143 121
0.447943 -0.1692 -0.54 203 155 133
0.452432 -0.168573 -0.538 207 156 137
0.454482 -0.168573 -0.538 207 156 137
0.462843 -0.16826 -0.537 191 140 121
0.4697 -0.168887 -0.539 181 133 111
0.474534 -0.169513 -0.541 172 124 104
0.479238 -0.170453 -0.544 169 120 103
0.492594 -0.17296 -0.552 159 110 95
-0.302373 -0.203013 -0.644 252 254 251
-0.287856 -0.198915 -0.631 153 158 154
-0.286654 -0.198915 -0.631 134 139 135
-0.252127 -0.202068 -0.641 255 255 253
-0.247557 -0.203329 -0.645 251 253 250
-0.143014 -0.201437 -0.639 185 186 180
-0.141131 -0.200491 -0.636 185 186 180
-0.120714 -0.204905 -0.65 188 188 178
-0.019161 -0.20459 -0.649 74 72 83
0.464886 -0.193556 -0.614 141 100 98
0.44928 -0.181577 -0.576 154 109 103
0.44343 -0.177479 -0.563 171 123 109
0.447943 -0.170229 -0.54 203 155 133
0.450193 -0.169913 -0.539 206 158 138
0.462843 -0.169283 -0.537 192 141 122
0.465911 -0.169283 -0.537 189 141 118
-0.2484 -0.20424 -0.644 253 253 251
-0.141131 -0.201703 -0.636 185 186 180
-0.0178695 -0.205191 -0.647 75 75 83
0.453 -0.1998 -0.63 135 97 96
0.467262 -0.198214 -0.625 138 98 98
0.472457 -0.197897 -0.624 138 96 97
0.455186 -0.185529 -0.585 151 106 103
0.439633 -0.172843 -0.545 194 146 126
0.467957 -0.170306 -0.537 181 133 111
0.481311 -0.172526 -0.544 168 119 102
-0.29072 -0.201638 -0.632 252 254 251
-0.286654 -0.201319 -0.631 153 155 150
-0.146131 -0.204829 -0.642 182 183 177
-0.13948 -0.202276 -0.634 187 186 181
-0.132443 -0.202595 -0.635 187 187 179
-0.121952 -0.207381 -0.65 187 187 177
-0.0142162 -0.207062 -0.649 81 81 91
0.459689 -0.20451 -0.641 143 107 107
0.448643 -0.182176 -0.571 162 118 109
0.440769 -0.175157 -0.549 189 141 121
0.440205 -0.174519 -0.547 192 144 124
0.441123 -0.173243 -0.543 198 150 130
0.441343 -0.172924 -0.542 199 151 131
0.44259 -0.172605 -0.541 198 150 130
0.443829 -0.172286 -0.54 201 150 131
0.447113 -0.171967 -0.539 202 154 134
0.44814 -0.171967 -0.539 202 154 134
0.449358 -0.171648 -0.538 208 160 140
0.463002 -0.17101 -0.536 194 146 123
0.500239 -0.17771 -0.557 163 114 100
0.5058 -0.179305 -0.562 163 114 100
-0.302843 -0.207014 -0.645 253 254 249
-0.24624 -0.207977 -0.648 252 254 251
-0.0142162 -0.208298 -0.649 81 81 91
0.451786 -0.184548 -0.575 161 118 112
0.448943 -0.182943 -0.57 165 121 112
0.440205 -0.175561 -0.547 191 142 125
0.441123 -0.174277 -0.543 200 152 132
0.44506 -0.172993 -0.539 199 151 131
0.452614 -0.172351 -0.537 206 158 138
0.484271 -0.174919 -0.545 168 119 104
0.5022 -0.179091 -0.558 163 115 103
-0.289516 -0.204046 -0.632 245 250 244
-0.250464 -0.207597 -0.643 255 255 251
-0.148961 -0.209534 -0.649 182 183 177
-0.0202086 -0.207597 -0.643 73 71 84
-0.0165857 -0.208243 -0.645 76 74 87
0.463157 -0.172729 -0.535 192 144 121
0.465195 -0.172729 -0.535 191 143 121
-0.292386 -0.205574 -0.633 253 254 249
-0.287563 -0.205574 -0.633 250 252 247
-0.283049 -0.204925 -0.631 170 172 167
-0.247941 -0.209796 -0.646 252 254 249
-0.144683 -0.208172 -0.641 189 186 179
-0.134862 -0.206224 -0.635 190 187 180
-0.133863 -0.206549 -0.636 188 185 178
-0.128187 -0.209147 -0.644 190 187 178
-0.0226229 -0.208497 -0.642 74 72 85
0.455244 -0.187712 -0.578 162 119 113
0.440899 -0.17667 -0.544 196 149 133
0.441771 -0.175371 -0.54 196 149 129
0.446477 -0.174397 -0.537 201 153 133
0.44973 -0.174072 -0.536 202 154 132
0.463309 -0.173423 -0.534 196 145 124
0.504165 -0.181542 -0.559 156 117 102
-0.294983 -0.20776 -0.636 253 254 249
-0.29331 -0.207433 -0.635 253 254 249
-0.29164 -0.207107 -0.634 251 253 248
-0.25252 -0.20972 -0.642 253 253 251
-0.14919 -0.212333 -0.65 182 183 177
-0.141131 -0.20776 -0.636 190 187 180
-0.13849 -0.207433 -0.635 190 187 180
-0.0225876 -0.209393 -0.641 74 72 85
0.450929 -0.174767 -0.535 199 152 132
0.465343 -0.17444 -0.534 191 138 120
0.480717 -0.176727 -0.541 168 123 104
-0.282293 -0.207657 -0.632 250 251 246
-0.28109 -0.207657 -0.632 239 240 235
-0.276711 -0.207986 -0.633 149 151 148
-0.248786 -0.211929 -0.645 253 254 249
-0.146814 -0.211929 -0.645 185 186 180
-0.136071 -0.208643 -0.635 191 188 181
-0.0249905 -0.210286 -0.64 70 68 81
-0.0201457 -0.210614 -0.641 75 73 87
0.466502 -0.175129 -0.533 184 133 116
-0.290137 -0.210183 -0.636 255 255 253
-0.283497 -0.208861 -0.632 251 251 249
-0.28109 -0.208861 -0.632 255 255 253
-0.275506 -0.209191 -0.633 201 201 199
-0.272318 -0.209522 -0.634 172 172 170
-0.25252 -0.212166 -0.642 253 253 251
-0.250853 -0.212827 -0.644 253 253 251
-0.135074 -0.210183 -0.636 191 188 179
-0.129614 -0.213157 -0.645 193 190 183
-0.017759 -0.212496 -0.643 76 74 88
0.46172 -0.192337 -0.582 157 119 108
0.454371 -0.188371 -0.57 168 130 117
0.469411 -0.176474 -0.534 176 127 110
0.478051 -0.177796 -0.538 164 121 104
-0.300851 -0.214718 -0.646 253 254 249
-0.290593 -0.211727 -0.637 254 255 251
-0.277917 -0.210397 -0.633 255 255 253
-0.25986 -0.212391 -0.639 88 90 87
-0.249557 -0.21505 -0.647 252 254 251
-0.247856 -0.215715 -0.649 253 253 251
-0.0338381 -0.214718 -0.646 68 68 80
-0.0154286 -0.215383 -0.648 79 76 93
0.466943 -0.196105 -0.59 155 116 109
0.458057 -0.191451 -0.576 162 124 113
0.443007 -0.179153 -0.539 195 149 126
0.459694 -0.176494 -0.531 195 151 126
-0.296543 -0.214611 -0.642 253 254 248
-0.273526 -0.211937 -0.634 254 255 253
-0.263099 -0.213274 -0.638 249 251 248
-0.261884 -0.213274 -0.638 254 255 253
-0.259048 -0.213943 -0.64 93 95 92
-0.258231 -0.214277 -0.641 173 173 171
-0.253307 -0.21528 -0.644 251 251 249
-0.249943 -0.216617 -0.648 252 254 251
-0.135074 -0.212606 -0.636 192 189 180
-0.0273429 -0.213274 -0.638 70 68 82
-0.0260867 -0.21294 -0.637 70 68 82
0.443906 -0.183523 -0.549 186 143 124
0.443007 -0.18018 -0.539 195 149 126
0.44321 -0.179846 -0.538 196 150 127
0.443409 -0.179511 -0.537 197 151 128
0.447212 -0.178174 -0.533 197 151 128
0.452453 -0.17784 -0.532 204 158 135
0.455649 -0.177506 -0.531 204 158 135
0.478186 -0.179511 -0.537 163 125 104
-0.293639 -0.215498 -0.641 253 253 251
-0.272748 -0.213481 -0.635 252 254 249
-0.261077 -0.214826 -0.639 254 255 253
-0.258231 -0.215498 -0.641 134 134 132
-0.256588 -0.21617 -0.643 164 164 162
-0.14536 -0.216507 -0.644 190 187 180
-0.14279 -0.21449 -0.638 191 188 181
-0.130437 -0.21617 -0.643 193 190 181
-0.0323048 -0.215162 -0.64 57 59 74
-0.0297733 -0.21449 -0.638 70 68 82
0.461857 -0.178181 -0.53 192 146 123
-0.278356 -0.214352 -0.634 253 254 249
-0.26791 -0.21469 -0.635 252 254 251
-0.258634 -0.217057 -0.642 118 120 119
-0.131252 -0.216719 -0.641 194 191 182
-0.0166629 -0.219086 -0.648 77 74 91
0.444814 -0.180881 -0.535 198 151 131
0.4484 -0.179867 -0.532 202 155 135
0.456809 -0.17919 -0.53 200 155 132
0.459838 -0.17919 -0.53 191 146 123
0.4887 -0.183586 -0.543 160 120 112
0.491538 -0.184262 -0.545 154 115 100
0.497237 -0.185614 -0.549 156 117 102
0.506605 -0.188319 -0.557 158 120 101
-0.29854 -0.22066 -0.649 253 253 251
-0.296388 -0.21998 -0.647 253 253 251
-0.293787 -0.21896 -0.644 253 253 251
-0.271966 -0.21624 -0.636 252 254 251
-0.261486 -0.2176 -0.64 253 255 252
-0.25576 -0.21896 -0.644 163 163 161
-0.137713 -0.21658 -0.637 190 187 180
-0.134073 -0.21658 -0.637 193 190 181
-0.0346343 -0.21692 -0.638 67 67 79
-0.0271714 -0.21556 -0.634 71 69 83
-0.0213 -0.21726 -0.639 75 72 89
-0.0154762 -0.221 -0.65 79 76 93
0.447387 -0.18088 -0.532 199 152 134
0.449413 -0.18088 -0.532 200 153 133
0.450427 -0.18088 -0.532 201 154 134
0.466774 -0.18054 -0.531 185 139 116
0.468797 -0.18054 -0.531 175 133 111
0.484073 -0.18326 -0.539 161 119 107
-0.286637 -0.218477 -0.639 253 253 251
-0.279673 -0.217793 -0.637 253 253 251
-0.25488 -0.221554 -0.648 165 165 163
-0.135287 -0.217793 -0.637 194 191 182
-0.0294933 -0.216084 -0.632 70 69 83
-0.0201771 -0.219503 -0.642 75 72 89
-0.0154762 -0.222238 -0.65 78 75 92
0.447387 -0.181893 -0.532 201 154 134
0.461993 -0.180868 -0.529 188 142 119
0.484073 -0.184287 -0.539 161 119 107
-0.278897 -0.21935 -0.638 253 253 251
-0.277682 -0.21935 -0.638 253 253 251
-0.275251 -0.21935 -0.638 253 253 253
-0.273249 -0.219694 -0.639 253 253 253
-0.257785 -0.222101 -0.646 190 190 188
-0.134073 -0.219007 -0.637 194 191 184
-0.130234 -0.220726 -0.642 195 192 185
-0.0409019 -0.220382 -0.641 71 69 82
-0.0355686 -0.217631 -0.633 67 66 80
-0.0294467 -0.216944 -0.631 71 70 84
-0.0271286 -0.217631 -0.633 71 71 83
-0.0178419 -0.222101 -0.646 75 74 88
-0.0166629 -0.222789 -0.648 76 75 89
0.446572 -0.189439 -0.551 184 142 128
0.443408 -0.186345 -0.542 191 144 124
0.44321 -0.18497 -0.538 197 151 128
0.465895 -0.182219 -0.53 183 136 116
0.469809 -0.182563 -0.531 178 133 110
-0.287653 -0.22264 -0.644 253 253 251
-0.270441 -0.221603 -0.641 253 253 253
-0.138927 -0.22022 -0.637 192 192 184
-0.0433438 -0.221603 -0.641 67 67 79
-0.0294 -0.2178 -0.63 68 70 83
-0.0282448 -0.218146 -0.631 68 70 83
-0.0202086 -0.222294 -0.643 74 73 87
-0.0166629 -0.224023 -0.648 75 74 88
0.464051 -0.199823 -0.578 159 124 120
0.443983 -0.184611 -0.534 199 150 133
0.446197 -0.184266 -0.533 190 141 124
0.447387 -0.18392 -0.532 197 148 131
0.44958 -0.183574 -0.531 199 150 133
0.457097 -0.182537 -0.528 197 149 129
0.474747 -0.18392 -0.532 175 129 106
-0.276184 -0.223519 -0.643 253 253 251
-0.265161 -0.223519 -0.643 254 255 253
-0.128187 -0.223867 -0.644 197 194 187
-0.0378 -0.219 -0.63 69 66 83
-0.0354 -0.219 -0.63 68 66 80
-0.0294 -0.219 -0.63 67 69 82
0.446197 -0.185281 -0.533 184 135 118
0.447724 -0.184238 -0.53 198 149 132
0.45091 -0.18389 -0.529 198 151 131
0.455086 -0.183543 -0.528 194 147 127
0.462126 -0.183543 -0.528 188 142 119
0.463131 -0.183543 -0.528 190 144 121
0.4824 -0.186324 -0.536 162 121 103
-0.275011 -0.225792 -0.646 253 253 251
-0.273781 -0.225792 -0.646 253 253 251
-0.264754 -0.226491 -0.648 254 255 255
-0.130031 -0.224045 -0.641 198 195 186
-0.127988 -0.224744 -0.643 199 196 189
-0.126124 -0.225792 -0.646 196 196 188
-0.0442867 -0.222647 -0.637 67 65 78
-0.0236971 -0.222996 -0.638 71 70 84
0.444226 -0.189791 -0.543 193 144 127
0.447724 -0.185248 -0.53 199 152 134
0.456231 -0.184199 -0.527 196 148 128
0.483421 -0.187345 -0.536 160 123 107
-0.284143 -0.228429 -0.65 253 253 251
-0.14124 -0.225617 -0.642 206 205 200
-0.12881 -0.225266 -0.641 198 198 188
-0.124046 -0.227726 -0.648 197 194 185
-0.123001 -0.228077 -0.649 195 192 183
-0.0538571 -0.228429 -0.65 137 136 141
-0.0494486 -0.225266 -0.641 66 64 75
-0.0414 -0.2214 -0.63 63 61 75
-0.0364257 -0.220346 -0.627 68 67 83
0.452246 -0.196097 -0.558 178 138 128
0.446714 -0.186257 -0.53 198 151 131
0.447724 -0.186257 -0.53 197 150 130
0.45322 -0.185203 -0.527 189 142 122
0.456231 -0.185203 -0.527 197 149 129
0.470054 -0.185906 -0.529 183 137 114
0.471062 -0.185906 -0.529 178 132 108
0.494906 -0.190826 -0.543 161 120 100
-0.270524 -0.229667 -0.65 255 255 253
-0.12759 -0.226487 -0.641 198 198 188
-0.0463467 -0.223307 -0.632 67 67 77
-0.0352314 -0.22154 -0.627 68 67 83
-0.0214333 -0.227193 -0.643 70 72 84
-0.02024 -0.227547 -0.644 70 72 84
0.448671 -0.194687 -0.551 181 138 122
0.464262 -0.186207 -0.527 187 139 119
0.481617 -0.18868 -0.534 163 124 107
-0.12739 -0.227352 -0.64 197 197 187
-0.125343 -0.228063 -0.642 196 196 186
-0.12139 -0.229839 -0.647 195 191 188
-0.039881 -0.222024 -0.625 69 69 81
-0.0237714 -0.227352 -0.64 72 72 84
0.446546 -0.188631 -0.531 197 148 131
0.446714 -0.188276 -0.53 208 160 140
0.460375 -0.186855 -0.526 192 143 126
-0.134862 -0.226786 -0.635 210 209 205
-0.13082 -0.226071 -0.633 196 196 188
-0.126992 -0.227857 -0.638 201 198 191
-0.0581762 -0.229643 -0.643 81 80 85
-0.0295867 -0.226429 -0.634 69 69 79
0.454121 -0.199643 -0.559 180 137 130
0.443983 -0.190714 -0.534 201 154 136
0.453362 -0.187857 -0.526 193 146 128
0.463381 -0.187857 -0.526 184 135 118
-0.124562 -0.229072 -0.638 201 201 191
-0.0563314 -0.228354 -0.636 73 72 80
-0.0549467 -0.227636 -0.634 74 72 83
-0.0445 -0.223687 -0.623 69 69 81
-0.0202714 -0.231586 -0.645 72 71 85
0.444347 -0.191013 -0.532 193 146 128
0.4545 -0.1885 -0.525 193 144 129
-0.130407 -0.227761 -0.631 217 217 209
-0.120264 -0.23137 -0.641 200 197 190
-0.11081 -0.234619 -0.65 225 220 201
-0.0656267 -0.232453 -0.644 171 171 173
-0.0505143 -0.225234 -0.624 71 69 82
-0.0331048 -0.228122 -0.632 70 68 79
-0.0214667 -0.232453 -0.644 73 71 84
0.4469 -0.196719 -0.545 191 145 130
0.462617 -0.189139 -0.524 185 137 117
0.4645 -0.1895 -0.525 187 139 119
0.4675 -0.1895 -0.525 179 132 112
-0.139071 -0.235494 -0.649 230 230 228
-0.0760257 -0.235494 -0.649 251 247 238
-0.0746743 -0.235131 -0.648 246 242 233
-0.0694143 -0.234043 -0.645 192 191 186
-0.065219 -0.232229 -0.64 85 84 90
-0.0623886 -0.230777 -0.636 75 74 82
-0.0386286 -0.226423 -0.624 68 68 80
0.45217 -0.201023 -0.554 179 139 129
0.444234 -0.195217 -0.538 190 147 130
0.446714 -0.192314 -0.53 202 155 137
0.447887 -0.191951 -0.529 206 159 141
0.449354 -0.190863 -0.526 197 148 133
0.454632 -0.190137 -0.524 200 151 134
0.45563 -0.190137 -0.524 192 143 126
0.463615 -0.190137 -0.524 186 139 119
0.473296 -0.191226 -0.527 174 129 110
0.480934 -0.192677 -0.531 169 126 109
0.488633 -0.194129 -0.535 161 120 102
-0.114159 -0.233812 -0.641 224 221 202
-0.112066 -0.234542 -0.643 227 224 205
-0.106601 -0.236001 -0.647 228 225 206
-0.103063 -0.236366 -0.648 228 225 208
-0.0848095 -0.237095 -0.65 243 239 227
-0.06734 -0.232353 -0.637 80 78 89
-0.0442857 -0.226152 -0.62 71 71 83
-0.03762 -0.228706 -0.627 69 69 79
-0.0178971 -0.236366 -0.648 74 73 87
0.207656 -0.236001 -0.647 197 150 144
0.444347 -0.194053 -0.532 198 153 134
0.454632 -0.191135 -0.524 204 155 138
0.455757 -0.19077 -0.523 199 150 133
0.463727 -0.19077 -0.523 186 139 119
-0.100594 -0.2376 -0.648 231 228 211
-0.07098 -0.233567 -0.637 86 85 90
-0.0354 -0.231 -0.63 70 70 80
-0.0285581 -0.233933 -0.638 72 72 84
0.196238 -0.238333 -0.65 187 138 134
0.201703 -0.2332 -0.636 194 145 140
0.208643 -0.232833 -0.635 193 138 135
0.4505 -0.1925 -0.525 204 157 141
0.459742 -0.191767 -0.523 193 146 128
0.496286 -0.198 -0.54 161 118 102
-0.120026 -0.231094 -0.627 250 251 246
-0.117825 -0.231463 -0.628 247 248 243
-0.108764 -0.235149 -0.638 231 231 219
-0.105612 -0.236254 -0.641 237 233 224
-0.0978229 -0.238097 -0.646 233 229 217
-0.0965924 -0.238097 -0.646 232 228 216
-0.0927571 -0.237729 -0.645 239 235 224
-0.0785057 -0.235517 -0.639 195 191 190
-0.0718533 -0.233674 -0.634 65 63 74
-0.0622 -0.229251 -0.622 68 66 79
-0.0476743 -0.227777 -0.618 72 75 82
-0.0320524 -0.234043 -0.635 71 71 81
-0.0308429 -0.234043 -0.635 71 71 81
-0.0167143 -0.239571 -0.65 73 75 88
0.227023 -0.238097 -0.646 183 125 123
0.228607 -0.238466 -0.647 178 120 118
0.443983 -0.196817 -0.534 199 152 134
0.446193 -0.194237 -0.527 203 156 138
0.469604 -0.193131 -0.524 182 136 113
-0.124803 -0.232289 -0.627 202 202 204
-0.117262 -0.231548 -0.625 242 242 242
-0.116257 -0.231918 -0.626 246 246 246
-0.108252 -0.235252 -0.635 250 249 244
-0.0947714 -0.237846 -0.642 253 250 243
-0.0870257 -0.236734 -0.639 231 230 228
-0.0804333 -0.235252 -0.635 156 154 157
-0.0723695 -0.232659 -0.628 78 77 83
-0.0594457 -0.228954 -0.618 76 74 85
-0.0522981 -0.228584 -0.617 73 71 82
-0.0354562 -0.23377 -0.631 71 71 81
0.192833 -0.230807 -0.623 193 144 140
0.193953 -0.229325 -0.619 190 142 138
0.194502 -0.228584 -0.617 190 142 138
0.2009 -0.227843 -0.615 189 131 130
0.2024 -0.228213 -0.616 185 125 125
0.203904 -0.228584 -0.617 181 121 121
0.228929 -0.237475 -0.641 169 114 111
0.232814 -0.238957 -0.645 160 106 104
0.444167 -0.197464 -0.533 198 151 133
0.451772 -0.193759 -0.523 205 156 141
0.456874 -0.193389 -0.522 200 153 135
0.459857 -0.193389 -0.522 197 150 130
0.460851 -0.193389 -0.522 191 144 124
0.49261 -0.198575 -0.536 162 116 101
-0.0991971 -0.237951 -0.639 250 249 244
-0.0917505 -0.237579 -0.638 238 237 233
-0.0876905 -0.236462 -0.635 211 210 206
-0.0851371 -0.23609 -0.634 159 158 163
-0.0744048 -0.232738 -0.625 79 78 86
-0.0499476 -0.229759 -0.617 73 71 82
-0.0421943 -0.232366 -0.624 72 72 82
-0.0411371 -0.23311 -0.626 71 71 81
-0.0366 -0.2346 -0.63 69 69 79
-0.0167143 -0.242048 -0.65 73 75 90
0.182377 -0.235345 -0.632 186 137 132
0.190667 -0.229387 -0.616 193 139 139
0.21761 -0.23311 -0.626 165 109 110
0.2365 -0.240186 -0.645 142 87 92
0.238834 -0.241303 -0.648 144 89 94
0.447197 -0.196245 -0.527 204 155 140
0.449642 -0.195128 -0.524 209 158 141
0.453891 -0.194383 -0.522 195 148 130
0.49363 -0.199596 -0.536 161 118 102
-0.100995 -0.237671 -0.635 235 235 233
-0.0818086 -0.234677 -0.627 78 76 87
-0.0687514 -0.230934 -0.617 75 75 87
-0.066401 -0.230934 -0.617 75 75 85
-0.0556429 -0.230186 -0.615 74 72 83
-0.0467229 -0.232431 -0.621 72 70 81
-0.0412029 -0.234677 -0.627 71 71 81
-0.0262505 -0.239917 -0.641 70 72 84
-0.0238829 -0.240666 -0.643 72 74 86
-0.0203029 -0.241789 -0.646 72 74 87
-0.0191314 -0.242537 -0.648 72 74 87
0.186539 -0.229811 -0.614 201 146 143
0.187097 -0.229063 -0.612 198 143 140
0.197633 -0.226443 -0.605 176 123 119
0.200599 -0.227191 -0.607 169 111 109
0.21894 -0.23318 -0.623 157 103 103
0.446034 -0.197623 -0.528 203 157 141
0.44735 -0.196874 -0.526 202 155 139
0.450909 -0.195377 -0.522 202 157 136
0.454014 -0.195003 -0.521 197 150 132
0.455999 -0.195003 -0.521 198 153 132
0.463938 -0.195003 -0.521 189 142 122
0.473596 -0.196126 -0.524 171 124 106
-0.129413 -0.242267 -0.644 125 126 131
-0.0759257 -0.232486 -0.618 78 76 87
-0.0636352 -0.230605 -0.613 77 75 86
-0.0501905 -0.233238 -0.62 72 70 81
-0.0412686 -0.236248 -0.628 71 71 81
-0.0343629 -0.238129 -0.633 71 71 81
-0.0262505 -0.241138 -0.641 71 73 85
0.192067 -0.226467 -0.602 195 140 137
0.219067 -0.233238 -0.62 149 93 94
0.226317 -0.235871 -0.627 151 95 98
0.236734 -0.240386 -0.639 130 77 83
0.244148 -0.244148 -0.649 129 76 82
0.45674 -0.209538 -0.557 180 140 130
0.444347 -0.200133 -0.532 194 153 135
0.44735 -0.197876 -0.526 199 156 137
0.451903 -0.196371 -0.522 200 155 136
0.462057 -0.195619 -0.52 192 145 127
-0.116511 -0.234797 -0.621 102 102 110
-0.0965581 -0.235175 -0.622 74 73 79
-0.0940371 -0.234797 -0.621 75 75 83
-0.0716914 -0.231394 -0.612 78 77 85
-0.0670286 -0.231394 -0.612 77 76 84
-0.0578914 -0.23215 -0.614 75 73 84
-0.0567219 -0.23215 -0.614 75 73 84
-0.05356 -0.233663 -0.618 74 72 83
-0.02392 -0.243493 -0.644 74 74 86
0.174274 -0.231394 -0.612 193 133 125
0.175153 -0.231016 -0.611 186 126 118
0.184109 -0.229126 -0.606 203 148 145
0.214258 -0.231772 -0.613 157 97 97
0.224512 -0.235175 -0.622 143 87 88
0.444695 -0.20039 -0.53 193 152 134
0.445029 -0.199634 -0.528 198 157 139
0.448784 -0.197744 -0.523 200 157 138
0.44978 -0.197744 -0.523 201 158 139
0.462157 -0.196231 -0.519 189 142 122
0.4689 -0.196988 -0.521 178 131 115
0.49762 -0.203037 -0.537 165 121 110
0.506179 -0.205684 -0.544 160 117 100
-0.118452 -0.2375 -0.625 104 104 114
-0.114771 -0.23484 -0.618 101 101 109
-0.108886 -0.23484 -0.618 88 89 93
-0.0810171 -0.23256 -0.612 68 67 75
-0.079721 -0.23218 -0.611 69 68 76
-0.0558238 -0.23446 -0.617 75 73 84
-0.0547371 -0.23484 -0.618 75 73 84
-0.0332619 -0.2413 -0.635 70 73 82
-0.02392 -0.24472 -0.644 72 72 84
0.178337 -0.23028 -0.606 172 114 100
0.196814 -0.22762 -0.599 173 115 111
0.2117 -0.23142 -0.609 151 91 90
0.231094 -0.23826 -0.627 166 110 109
0.46084 -0.21356 -0.562 176 139 133
0.446477 -0.20406 -0.537 189 147 131
0.44536 -0.20216 -0.532 194 152 136
0.444695 -0.2014 -0.53 195 153 137
0.444864 -0.20102 -0.529 193 151 135
0.44892 -0.19836 -0.522 201 158 139
0.482417 -0.19988 -0.526 162 120 104
0.489114 -0.2014 -0.53 160 121 106
-0.115329 -0.237163 -0.621 100 100 108
-0.0971781 -0.233344 -0.611 61 60 66
-0.0948505 -0.233344 -0.611 59 58 64
-0.0768867 -0.231816 -0.607 71 70 76
-0.0712229 -0.232198 -0.608 78 78 88
-0.07018 -0.23258 -0.609 79 79 89
-0.066919 -0.233344 -0.611 76 76 88
-0.0635314 -0.233726 -0.612 77 75 86
-0.0356248 -0.242128 -0.634 73 73 83
-0.019161 -0.247856 -0.649 74 74 86
-0.0179524 -0.248238 -0.65 75 74 88
0.176598 -0.23067 -0.604 174 117 106
0.178603 -0.230289 -0.603 206 151 144
0.182286 -0.229143 -0.6 202 149 145
0.188197 -0.227997 -0.597 186 138 128
0.192746 -0.227997 -0.597 178 130 118
0.200571 -0.229143 -0.6 165 105 97
0.208005 -0.231052 -0.605 150 89 84
0.233855 -0.239836 -0.628 179 121 119
0.236549 -0.241364 -0.632 174 118 117
0.457801 -0.212721 -0.557 173 138 136
0.449397 -0.207374 -0.543 184 141 132
0.45326 -0.198209 -0.519 200 157 138
0.455347 -0.197827 -0.518 198 152 136
0.458307 -0.197827 -0.518 178 133 114
0.464227 -0.197827 -0.518 188 143 124
0.473777 -0.199354 -0.522 169 126 109
0.485342 -0.201264 -0.527 161 122 105
-0.11959 -0.242184 -0.631 103 106 113
-0.104161 -0.234508 -0.611 65 64 69
-0.100505 -0.234124 -0.61 58 57 63
-0.08442 -0.231437 -0.603 54 55 60
-0.06902 -0.23374 -0.609 75 77 89
-0.043661 -0.241032 -0.628 74 73 81
-0.0390619 -0.242184 -0.631 74 74 82
-0.0344714 -0.243719 -0.635 73 73 83
-0.019161 -0.249092 -0.649 71 73 85
0.165571 -0.234124 -0.61 204 156 154
0.166794 -0.232589 -0.606 199 152 144
0.179155 -0.23067 -0.601 204 149 146
0.180841 -0.229902 -0.599 207 151 150
0.191288 -0.22875 -0.596 185 133 120
0.193558 -0.22875 -0.596 182 124 112
0.203195 -0.23067 -0.601 155 91 82
0.46248 -0.216469 -0.564 173 138 136
0.447926 -0.200349 -0.522 200 154 138
0.457422 -0.19843 -0.517 177 132 113
0.462253 -0.198813 -0.518 195 148 132
-0.11142 -0.238757 -0.619 105 106 110
-0.101 -0.233743 -0.606 64 63 69
-0.0753562 -0.232971 -0.604 74 73 81
-0.0616 -0.2376 -0.616 76 75 81
-0.03792 -0.243771 -0.632 73 71 82
-0.0274286 -0.246857 -0.64 83 83 95
0.164214 -0.241843 -0.627 203 159 158
0.176571 -0.231429 -0.6 199 143 142
0.180237 -0.230271 -0.597 204 148 149
0.18107 -0.229886 -0.596 203 147 148
0.184989 -0.229114 -0.594 198 147 144
0.18612 -0.229114 -0.594 190 139 136
0.1887 -0.2295 -0.595 185 132 124
0.190967 -0.2295 -0.595 180 127 113
0.206973 -0.2322 -0.602 204 144 136
0.249557 -0.249557 -0.647 167 113 111
0.44536 -0.2052 -0.532 192 150 134
0.445534 -0.204814 -0.531 194 152 136
0.488353 -0.203271 -0.527 164 123 105
-0.1005 -0.233734 -0.603 73 72 78
-0.087981 -0.231021 -0.596 76 76 84
-0.0775286 -0.233734 -0.603 69 68 74
-0.0505143 -0.241874 -0.624 75 74 82
-0.0344714 -0.246138 -0.635 77 75 86
-0.0215667 -0.25079 -0.647 78 77 91
-0.019161 -0.251565 -0.649 74 73 87
0.160054 -0.247689 -0.639 191 137 125
0.161217 -0.24575 -0.634 203 154 147
0.162086 -0.236448 -0.61 209 161 159
0.163671 -0.233734 -0.603 205 154 151
0.172 -0.232571 -0.6 170 107 98
0.176826 -0.231409 -0.597 201 150 147
0.1788 -0.231021 -0.596 201 148 144
0.186936 -0.229858 -0.593 187 130 123
0.188066 -0.229858 -0.593 187 130 123
0.197294 -0.231409 -0.597 159 97 86
0.216786 -0.235285 -0.607 193 132 127
0.248014 -0.249239 -0.643 166 112 110
0.446667 -0.207764 -0.536 183 145 126
0.450413 -0.200787 -0.518 203 158 139
0.456537 -0.200011 -0.516 198 153 134
0.470066 -0.201174 -0.519 175 132 113
0.476839 -0.20195 -0.521 167 126 108
-0.0886676 -0.230988 -0.593 75 74 80
-0.0824429 -0.232546 -0.597 49 50 54
-0.0734181 -0.236441 -0.607 75 74 82
-0.06512 -0.239947 -0.616 78 76 87
-0.0550914 -0.242284 -0.622 76 75 83
-0.0471743 -0.244231 -0.627 74 73 81
-0.0437305 -0.24501 -0.629 74 73 81
-0.0368324 -0.246958 -0.634 72 70 81
-0.0333667 -0.248127 -0.637 73 71 82
0.161107 -0.234493 -0.602 203 154 150
0.16829 -0.233325 -0.599 185 127 113
0.187749 -0.230598 -0.592 184 127 118
0.208919 -0.234104 -0.601 195 137 126
0.217224 -0.235662 -0.605 180 120 119
0.2244 -0.238389 -0.612 169 113 112
0.448971 -0.210343 -0.54 185 146 129
0.444864 -0.206058 -0.529 191 149 133
0.4455 -0.2045 -0.525 192 149 132
-0.101817 -0.236423 -0.604 62 65 72
-0.0973886 -0.234074 -0.598 64 63 71
-0.0844333 -0.2329 -0.595 56 57 62
-0.072619 -0.238771 -0.61 73 72 80
-0.0596381 -0.242686 -0.62 77 75 86
-0.0461267 -0.246209 -0.629 75 74 82
-0.0438 -0.2466 -0.63 74 73 81
-0.0322038 -0.249731 -0.638 74 72 83
0.152034 -0.248949 -0.636 204 155 151
0.162586 -0.234466 -0.599 203 149 147
0.16687 -0.234074 -0.598 181 127 115
0.174259 -0.233291 -0.596 203 152 148
0.18211 -0.231726 -0.592 193 138 131
0.186621 -0.231726 -0.592 180 123 112
0.188876 -0.231726 -0.592 174 117 106
0.200706 -0.233683 -0.597 150 92 81
0.213143 -0.234857 -0.6 184 124 124
0.22141 -0.237597 -0.607 177 119 117
0.23826 -0.245426 -0.627 158 109 105
0.4514 -0.20276 -0.518 198 155 138
0.479816 -0.203934 -0.521 165 127 108
-0.117147 -0.253307 -0.644 112 113 117
-0.1152 -0.251733 -0.64 111 112 116
-0.108406 -0.244653 -0.622 95 95 103
-0.0894943 -0.23246 -0.591 68 68 76
-0.060819 -0.243867 -0.62 78 76 87
-0.0461267 -0.247407 -0.629 75 74 82
-0.0403914 -0.24898 -0.633 74 73 81
-0.0346343 -0.250947 -0.638 74 72 83
-0.0275143 -0.25252 -0.642 100 99 113
0.165454 -0.23482 -0.597 185 131 121
0.178426 -0.23246 -0.591 194 141 137
0.181803 -0.23246 -0.591 191 134 125
0.192584 -0.233247 -0.593 163 101 90
0.200033 -0.234033 -0.595 194 136 125
0.206046 -0.234427 -0.596 195 136 128
0.209803 -0.23482 -0.597 184 129 122
0.229014 -0.2419 -0.615 159 108 107
0.446852 -0.210433 -0.535 185 146 129
0.444651 -0.206107 -0.524 192 151 133
0.446791 -0.205713 -0.523 194 151 134
0.475009 -0.20414 -0.519 168 127 109
0.486571 -0.206107 -0.524 162 121 101
0.4885 -0.2065 -0.525 161 122 105
-0.0894943 -0.233586 -0.591 107 107 115
-0.0862629 -0.233981 -0.592 111 112 117
-0.0708714 -0.243071 -0.615 72 71 79
-0.0654371 -0.244652 -0.619 76 74 85
-0.057461 -0.245838 -0.622 80 79 87
-0.0563667 -0.246233 -0.623 79 78 86
-0.0404552 -0.250581 -0.634 76 75 83
-0.03816 -0.251371 -0.636 75 73 84
-0.0216 -0.256114 -0.648 74 73 87
0.152374 -0.242281 -0.613 194 134 126
0.157758 -0.236352 -0.598 209 151 150
0.190004 -0.233981 -0.592 166 106 96
0.192584 -0.234376 -0.593 161 99 88
0.203091 -0.234771 -0.594 197 138 130
0.207617 -0.234771 -0.594 188 131 124
0.45292 -0.2158 -0.546 183 143 133
0.445795 -0.20671 -0.523 192 149 132
0.447068 -0.205919 -0.521 192 149 132
0.450529 -0.204338 -0.517 197 154 138
0.45369 -0.203548 -0.515 200 154 138
0.458684 -0.203152 -0.514 188 143 124
0.470224 -0.204338 -0.517 172 131 113
0.48372 -0.206314 -0.522 160 119 99
-0.110846 -0.252583 -0.636 127 127 135
-0.107393 -0.24742 -0.623 127 125 136
-0.0883686 -0.234711 -0.591 118 118 126
-0.0862629 -0.235109 -0.592 118 119 124
-0.0779143 -0.240669 -0.606 62 61 67
-0.07598 -0.24186 -0.609 64 63 69
-0.0749429 -0.242257 -0.61 62 61 67
-0.0666162 -0.245831 -0.619 73 72 80
-0.0552686 -0.247817 -0.624 78 77 85
-0.043939 -0.250994 -0.632 75 74 82
-0.0404552 -0.251789 -0.634 76 75 83
-0.0299133 -0.254569 -0.641 77 75 86
0.150039 -0.243449 -0.613 166 106 95
0.15574 -0.237889 -0.599 213 155 151
0.163767 -0.2363 -0.595 184 127 116
0.183743 -0.234314 -0.59 179 119 109
0.199025 -0.235109 -0.592 201 142 134
0.223723 -0.241066 -0.607 165 110 107
0.22599 -0.242257 -0.61 162 108 106
0.467924 -0.225577 -0.568 175 136 131
0.444799 -0.207706 -0.523 192 151 133
0.445937 -0.207309 -0.522 190 149 131
0.449544 -0.205323 -0.517 199 156 140
0.450748 -0.204529 -0.515 200 154 138
0.455652 -0.204529 -0.515 181 134 116
0.459663 -0.204131 -0.514 194 147 131
0.478963 -0.206117 -0.519 163 125 106
0.494309 -0.209691 -0.528 162 123 108
-0.109117 -0.252597 -0.633 122 120 131
-0.0973886 -0.23863 -0.598 124 125 130
-0.088219 -0.235438 -0.59 117 117 125
-0.0689743 -0.24701 -0.619 70 69 77
-0.0656486 -0.247809 -0.621 74 73 81
-0.043939 -0.252198 -0.632 75 74 82
-0.0358495 -0.254592 -0.638 72 70 81
-0.0311343 -0.25579 -0.641 75 73 84
-0.0239943 -0.257785 -0.646 75 73 84
-0.0216 -0.258583 -0.648 76 74 87
0.148143 -0.243419 -0.61 177 114 105
0.153334 -0.240626 -0.603 211 153 152
0.187114 -0.235438 -0.59 169 106 97
0.19306 -0.235837 -0.591 150 87 78
0.20094 -0.235837 -0.591 199 140 134
0.217351 -0.23903 -0.599 171 113 109
0.221467 -0.241025 -0.604 163 108 105
0.25651 -0.258982 -0.649 135 88 94
0.464051 -0.224265 -0.562 175 138 132
0.45 -0.215486 -0.54 183 146 130
0.448523 -0.214289 -0.537 183 146 130
0.447034 -0.213091 -0.534 183 146 130
0.448559 -0.206308 -0.517 200 154 138
0.449767 -0.20551 -0.515 199 153 137
0.458769 -0.204711 -0.513 198 151 135
0.459746 -0.204711 -0.513 197 150 134
0.474163 -0.206308 -0.517 168 127 109
-0.0861171 -0.236963 -0.591 110 111 116
-0.0722771 -0.247388 -0.617 64 63 71
-0.0712171 -0.247789 -0.618 66 65 73
-0.0645695 -0.249392 -0.622 74 72 83
-0.0588343 -0.250194 -0.624 78 76 87
-0.043939 -0.253402 -0.632 75 74 82
-0.0323552 -0.25701 -0.641 74 72 83
-0.0311829 -0.257411 -0.642 74 72 83
-0.0264143 -0.258614 -0.645 73 73 83
0.142534 -0.248991 -0.621 207 157 156
0.14674 -0.24418 -0.609 180 114 102
0.157834 -0.238166 -0.594 195 140 135
0.169707 -0.237364 -0.592 212 156 157
0.172505 -0.236562 -0.59 205 150 145
0.17528 -0.23576 -0.588 202 144 140
0.1764 -0.23576 -0.588 199 140 134
0.18231 -0.236161 -0.589 175 116 108
0.213992 -0.238968 -0.596 177 120 111
0.448559 -0.207292 -0.517 201 155 139
0.448674 -0.206891 -0.516 201 155 139
0.469386 -0.20649 -0.515 176 133 116
0.470367 -0.20649 -0.515 172 131 113
-0.113995 -0.260649 -0.647 117 118 123
-0.0841495 -0.238894 -0.593 63 64 69
-0.0770133 -0.244937 -0.608 59 58 64
-0.0691971 -0.250174 -0.621 68 67 75
-0.05434 -0.252591 -0.627 77 75 86
-0.0428705 -0.255411 -0.634 75 74 82
-0.0347429 -0.257829 -0.64 74 72 83
-0.0228343 -0.261051 -0.648 73 73 81
0.14558 -0.24534 -0.609 179 114 110
0.147414 -0.244534 -0.607 167 106 103
0.148326 -0.244131 -0.606 191 130 127
0.153825 -0.240103 -0.596 210 149 148
0.157834 -0.239297 -0.594 195 140 135
0.168579 -0.238491 -0.592 213 157 160
0.17109 -0.237283 -0.589 209 151 147
0.17304 -0.23688 -0.588 199 144 139
0.223723 -0.244534 -0.607 153 100 96
0.230934 -0.248563 -0.617 138 87 92
0.447212 -0.214723 -0.533 186 149 133
0.448317 -0.209083 -0.519 198 155 139
0.45281 -0.207069 -0.514 194 151 135
0.466586 -0.206666 -0.513 178 135 119
0.468474 -0.207069 -0.514 177 134 118
0.482857 -0.209486 -0.52 162 124 105
-0.393095 -0.263095 -0.65 249 250 244
-0.0911248 -0.237595 -0.587 115 115 123
-0.08792 -0.238 -0.588 109 109 117
-0.0789381 -0.244881 -0.605 63 62 68
-0.0780429 -0.24569 -0.607 62 61 67
-0.07714 -0.2465 -0.609 60 59 65
-0.0734524 -0.249738 -0.617 61 60 68
-0.0725114 -0.250548 -0.619 63 62 70
-0.07038 -0.251357 -0.621 65 64 72
-0.05434 -0.253786 -0.627 77 75 86
-0.0532305 -0.25419 -0.628 77 75 86
-0.0475505 -0.25581 -0.632 75 74 82
-0.0359619 -0.259048 -0.64 75 73 84
-0.0300067 -0.260262 -0.643 73 71 82
0.148987 -0.244476 -0.604 206 148 144
0.150536 -0.243262 -0.601 201 146 141
0.166043 -0.239214 -0.591 213 155 151
0.168847 -0.238405 -0.589 207 149 147
0.173568 -0.23719 -0.586 191 139 125
0.182 -0.238 -0.588 172 112 104
0.187919 -0.238405 -0.589 161 96 90
0.217714 -0.242857 -0.6 164 106 102
0.242184 -0.255405 -0.631 118 73 80
0.458727 -0.223833 -0.553 180 143 135
0.448051 -0.216143 -0.534 187 147 135
0.446034 -0.213714 -0.528 185 146 131
0.447068 -0.210881 -0.521 195 152 136
0.458927 -0.206833 -0.511 192 150 134
0.460873 -0.206833 -0.511 190 147 131
0.46275 -0.207238 -0.512 186 143 127
0.475211 -0.208857 -0.516 173 130 111
0.482917 -0.210071 -0.519 169 123 100
-0.0983629 -0.24278 -0.597 118 117 125
-0.0798257 -0.24522 -0.603 65 64 70
-0.0745067 -0.250507 -0.616 60 59 67
-0.0683429 -0.25376 -0.624 66 65 73
-0.0636905 -0.254167 -0.625 72 70 81
-0.0590229 -0.254573 -0.626 75 73 84
-0.051 -0.2562 -0.63 78 76 87
-0.0452143 -0.25742 -0.633 74 73 81
-0.0371229 -0.25986 -0.639 75 73 84
-0.0359619 -0.260267 -0.64 74 72 83
-0.0276857 -0.262707 -0.646 72 72 80
-0.0216667 -0.264333 -0.65 72 72 82
0.142685 -0.261487 -0.643 211 157 157
0.142567 -0.248473 -0.611 195 138 131
0.148081 -0.246033 -0.605 204 143 140
0.15843 -0.240747 -0.592 186 132 122
0.170219 -0.238307 -0.586 200 142 141
0.19399 -0.238713 -0.587 202 143 137
0.235175 -0.252947 -0.622 126 77 80
0.256905 -0.264333 -0.65 117 70 80
0.449546 -0.21838 -0.537 186 148 137
0.447574 -0.210247 -0.517 195 152 136
0.456007 -0.207807 -0.511 191 145 130
0.465676 -0.208213 -0.512 177 134 117
0.467563 -0.20862 -0.513 176 133 116
0.489686 -0.21228 -0.522 160 118 104
-0.377656 -0.265163 -0.649 248 250 239
-0.093361 -0.239831 -0.587 113 113 121
-0.0887371 -0.239423 -0.586 107 108 113
-0.0859714 -0.241057 -0.59 85 86 91
