ply
format ascii 1.0
comment Created by Open3D
element vertex 1293
property double x
property double y
property double z
property uchar red
property uchar green
property uchar blue
end_header
-0.330587 -0.206693 -0.644 252 254 249
-0.327826 -0.20573 -0.641 252 255 248
-0.310119 -0.200595 -0.625 240 246 236
-0.270754 -0.204126 -0.636 252 253 247
-0.265573 -0.206693 -0.644 252 253 247
-0.15755 -0.201879 -0.629 189 187 175
-0.138429 -0.207335 -0.646 186 187 173
-0.0432762 -0.20541 -0.64 62 60 71
-0.330587 -0.20792 -0.644 251 253 248
-0.159 -0.2034 -0.63 188 188 178
-0.1578 -0.2034 -0.63 187 187 177
-0.156351 -0.203077 -0.629 187 187 177
-0.151317 -0.204369 -0.633 188 188 178
-0.0458571 -0.207274 -0.642 69 68 76
-0.0368905 -0.205014 -0.635 75 74 82
-0.0336286 -0.207274 -0.642 77 76 84
-0.322846 -0.206549 -0.636 252 254 249
-0.320117 -0.205574 -0.633 252 254 249
-0.301786 -0.202976 -0.625 130 132 127
-0.273526 -0.205899 -0.634 253 254 249
-0.272748 -0.206224 -0.635 252 253 248
-0.265989 -0.210446 -0.648 252 253 248
-0.159 -0.2046 -0.63 189 187 175
-0.148867 -0.207198 -0.638 190 188 176
-0.146895 -0.207848 -0.64 189 187 175
-0.143686 -0.208497 -0.642 189 189 177
-0.137623 -0.210446 -0.648 185 185 173
-0.0497571 -0.209471 -0.645 69 68 76
-0.328849 -0.210047 -0.643 251 253 248
-0.3162 -0.2058 -0.63 252 254 249
-0.307246 -0.20384 -0.624 241 243 238
-0.267581 -0.209067 -0.64 253 254 249
-0.168929 -0.2107 -0.645 183 183 173
-0.161912 -0.206453 -0.632 190 188 176
-0.14089 -0.211027 -0.646 188 188 176
-0.136599 -0.212007 -0.649 182 183 169
-0.0494486 -0.209393 -0.641 69 68 76
-0.03804 -0.207107 -0.634 75 73 84
-0.0336286 -0.20972 -0.642 77 75 86
-0.318408 -0.207657 -0.632 251 254 247
-0.3162 -0.207 -0.63 252 255 248
-0.30368 -0.205029 -0.624 229 234 227
-0.301303 -0.205029 -0.624 187 193 183
-0.300595 -0.205357 -0.625 169 175 165
-0.144133 -0.2116 -0.644 192 190 178
-0.0493714 -0.210286 -0.64 61 61 71
-0.0464933 -0.208314 -0.634 69 68 76
-0.0426676 -0.207329 -0.631 72 71 79
-0.0368324 -0.208314 -0.634 75 73 84
-0.310119 -0.206548 -0.625 252 255 248
-0.30368 -0.206217 -0.624 252 255 248
-0.279886 -0.208861 -0.632 99 99 97
-0.275941 -0.209522 -0.634 253 254 249
-0.272393 -0.210513 -0.637 252 253 247
-0.268417 -0.212166 -0.642 253 254 248
-0.2668 -0.212827 -0.644 253 254 248
-0.15805 -0.20853 -0.631 189 189 179
-0.15106 -0.210513 -0.637 188 188 178
-0.0347429 -0.211505 -0.64 76 74 87
-0.282293 -0.210065 -0.632 175 175 173
-0.277149 -0.21073 -0.634 215 215 213
-0.05616 -0.215383 -0.648 70 69 77
-0.0449286 -0.209068 -0.629 70 68 79
-0.0357933 -0.211727 -0.637 76 74 87
-0.0325571 -0.214386 -0.645 79 77 90
-0.0314257 -0.21505 -0.647 81 79 92
-0.0302867 -0.215715 -0.649 78 76 89
-0.32143 -0.213274 -0.638 254 255 250
-0.304167 -0.208929 -0.625 254 255 250
-0.283049 -0.210934 -0.631 255 255 253
-0.278356 -0.211937 -0.634 155 155 153
-0.277149 -0.211937 -0.634 191 191 189
-0.272821 -0.213274 -0.638 252 253 248
-0.147354 -0.214611 -0.642 191 191 181
-0.137835 -0.216951 -0.649 185 183 171
-0.0572171 -0.215949 -0.646 75 74 82
-0.049879 -0.210934 -0.631 66 66 76
-0.330681 -0.218188 -0.649 253 254 249
-0.314298 -0.212136 -0.631 252 253 247
-0.309917 -0.210791 -0.627 252 253 247
-0.299884 -0.210455 -0.626 251 252 247
-0.293197 -0.210791 -0.627 252 253 248
-0.289614 -0.210791 -0.627 252 253 248
-0.269671 -0.216843 -0.645 254 255 250
-0.1491 -0.214826 -0.639 191 189 177
-0.13681 -0.218524 -0.65 187 185 173
-0.135571 -0.218524 -0.65 183 181 169
-0.0598629 -0.217851 -0.648 65 64 72
-0.050919 -0.211464 -0.629 60 60 72
-0.0471743 -0.210791 -0.627 69 67 80
-0.0447857 -0.210791 -0.627 70 68 81
-0.0425324 -0.211464 -0.629 73 71 84
-0.291272 -0.212324 -0.628 252 253 248
-0.290076 -0.212324 -0.628 252 253 248
-0.280329 -0.214014 -0.633 238 240 237
-0.278356 -0.214352 -0.634 157 159 156
-0.276811 -0.215029 -0.636 156 156 154
-0.272031 -0.216043 -0.639 254 255 250
-0.160709 -0.213676 -0.632 188 188 178
-0.14335 -0.21841 -0.646 190 190 178
-0.0495629 -0.211986 -0.627 69 66 83
-0.0314257 -0.218748 -0.647 78 76 89
-0.329952 -0.221 -0.65 253 254 249
-0.308019 -0.21352 -0.628 253 254 248
-0.285452 -0.21454 -0.631 252 254 249
-0.273676 -0.2176 -0.64 225 226 221
-0.270108 -0.22066 -0.649 255 255 253
-0.159252 -0.21454 -0.631 187 187 177
-0.15805 -0.21454 -0.631 187 187 177
-0.152523 -0.21522 -0.633 192 190 178
-0.148346 -0.21794 -0.641 193 191 179
-0.0482143 -0.2125 -0.625 70 67 84
-0.03816 -0.21624 -0.636 73 72 86
-0.0347971 -0.21794 -0.641 75 74 88
-0.300842 -0.214716 -0.628 253 254 249
-0.291 -0.2154 -0.63 253 253 251
-0.286654 -0.215742 -0.631 253 254 249
-0.279234 -0.217451 -0.636 240 242 237
-0.277682 -0.218135 -0.638 174 176 171
-0.15805 -0.215742 -0.631 188 188 178
-0.154445 -0.215742 -0.631 191 189 177
-0.0658305 -0.22087 -0.646 78 77 83
-0.0614657 -0.218477 -0.639 72 71 79
-0.043661 -0.214716 -0.628 71 70 84
-0.0414657 -0.215742 -0.631 72 71 85
-0.320275 -0.22107 -0.643 252 253 248
-0.303 -0.2166 -0.63 253 254 249
-0.29533 -0.216256 -0.629 253 253 251
-0.29026 -0.216944 -0.631 253 253 251
-0.287856 -0.216944 -0.631 253 253 251
-0.284394 -0.217975 -0.634 252 254 251
-0.281979 -0.217975 -0.634 252 254 251
-0.280005 -0.218319 -0.635 254 255 253
-0.27258 -0.223132 -0.649 202 202 200
-0.164923 -0.219694 -0.639 190 192 187
-0.156849 -0.216944 -0.631 192 190 178
-0.151556 -0.217975 -0.634 195 193 181
-0.141108 -0.222445 -0.647 188 188 176
-0.140091 -0.222789 -0.648 187 187 175
-0.136599 -0.223132 -0.649 191 189 177
-0.0697371 -0.222789 -0.648 157 158 153
-0.0580152 -0.215912 -0.628 67 65 78
-0.053061 -0.215225 -0.626 68 66 80
-0.0493257 -0.214537 -0.624 71 68 85
-0.0458333 -0.214881 -0.625 68 67 81
-0.0426 -0.2166 -0.63 71 70 84
-0.0326076 -0.222101 -0.646 78 76 90
-0.324 -0.224023 -0.648 252 253 248
-0.32177 -0.223331 -0.646 252 253 248
-0.319547 -0.22264 -0.644 253 254 249
-0.309033 -0.219529 -0.635 253 254 249
-0.307339 -0.219183 -0.634 253 254 249
-0.29627 -0.218146 -0.631 253 254 249
-0.280112 -0.220566 -0.638 251 251 249
-0.143129 -0.222986 -0.645 192 190 178
-0.0632 -0.218491 -0.632 74 72 85
-0.0492467 -0.21538 -0.623 70 67 84
-0.04806 -0.21538 -0.623 70 67 84
-0.0458333 -0.216071 -0.625 66 68 80
-0.320539 -0.224562 -0.646 253 254 249
-0.310493 -0.221781 -0.638 253 254 249
-0.289225 -0.22039 -0.634 253 254 249
-0.281769 -0.222129 -0.639 252 252 250
-0.169 -0.225952 -0.65 225 227 224
-0.144909 -0.223171 -0.642 196 194 182
-0.0773809 -0.225952 -0.65 232 230 218
-0.068661 -0.221781 -0.638 64 63 68
-0.0589286 -0.217262 -0.625 64 62 76
-0.0349057 -0.223519 -0.643 75 73 86
-0.296938 -0.221948 -0.635 252 253 248
-0.283091 -0.224394 -0.642 255 255 253
-0.163962 -0.223695 -0.64 209 210 202
-0.156351 -0.21985 -0.629 192 192 182
-0.1542 -0.2202 -0.63 192 192 182
-0.136389 -0.226491 -0.648 215 211 199
-0.129381 -0.22719 -0.65 216 210 196
-0.0739829 -0.224394 -0.642 108 108 108
-0.0503524 -0.217404 -0.622 69 67 80
-0.300771 -0.224211 -0.638 253 254 249
-0.287534 -0.225266 -0.641 253 253 251
-0.281599 -0.227374 -0.647 252 252 252
-0.155153 -0.221049 -0.629 192 192 182
-0.153955 -0.221049 -0.629 192 192 182
-0.140671 -0.226671 -0.645 193 190 181
-0.0834429 -0.228077 -0.649 245 243 230
-0.080721 -0.227374 -0.647 224 224 212
-0.0664943 -0.221049 -0.629 70 68 81
-0.0561857 -0.218237 -0.621 71 69 82
-0.0513714 -0.217886 -0.62 69 67 78
-0.0492467 -0.21894 -0.623 70 68 79
-0.0337857 -0.226671 -0.645 76 76 88
-0.320048 -0.229667 -0.65 253 254 249
-0.304628 -0.226487 -0.641 253 254 249
-0.290429 -0.22684 -0.642 253 253 251
-0.16001 -0.224013 -0.634 219 218 213
-0.1578 -0.2226 -0.63 205 204 199
-0.154907 -0.221893 -0.628 197 197 185
-0.152514 -0.221893 -0.628 198 199 185
-0.151559 -0.222247 -0.629 196 194 181
-0.144993 -0.225073 -0.637 197 194 187
-0.143238 -0.226133 -0.64 194 191 182
-0.14124 -0.22684 -0.642 195 193 181
-0.047099 -0.221187 -0.626 70 70 82
-0.0449286 -0.222247 -0.629 70 70 82
-0.040519 -0.224367 -0.635 71 71 83
-0.310214 -0.229129 -0.645 253 254 249
-0.14378 -0.226287 -0.637 195 195 185
-0.14279 -0.226642 -0.638 196 196 186
-0.136773 -0.228773 -0.644 214 212 200
-0.0920962 -0.23055 -0.649 252 249 230
-0.0771676 -0.226642 -0.638 84 84 84
-0.0644657 -0.220603 -0.621 70 68 81
-0.063079 -0.219892 -0.619 70 68 81
-0.0619 -0.219892 -0.619 69 67 80
-0.0493257 -0.221669 -0.624 71 69 80
-0.0314743 -0.230194 -0.648 78 78 88
-0.0303333 -0.230905 -0.65 80 78 91
-0.308234 -0.230714 -0.646 253 254 249
-0.290674 -0.231429 -0.648 253 253 251
-0.287857 -0.232143 -0.65 255 255 253
-0.148689 -0.223929 -0.627 198 198 188
-0.145059 -0.225714 -0.632 199 196 189
-0.131046 -0.230714 -0.646 222 217 198
-0.097041 -0.231786 -0.649 251 245 231
-0.0735657 -0.224286 -0.628 75 74 82
-0.0641543 -0.220714 -0.618 71 69 80
-0.0594457 -0.220714 -0.618 70 68 81
-0.0537333 -0.221429 -0.62 71 69 80
-0.0416629 -0.226429 -0.634 71 71 79
-0.0326581 -0.231071 -0.647 77 77 87
-0.0315229 -0.231786 -0.649 77 77 87
-0.30255 -0.232304 -0.647 253 253 251
-0.300085 -0.232304 -0.647 253 253 251
-0.296846 -0.232663 -0.648 253 253 251
-0.141895 -0.227636 -0.634 201 201 191
-0.14091 -0.227995 -0.635 197 197 185
-0.12139 -0.232304 -0.647 224 222 201
-0.112048 -0.233381 -0.65 236 230 214
-0.105694 -0.233022 -0.649 242 236 220
-0.104297 -0.232663 -0.648 244 238 222
-0.09384 -0.231227 -0.644 249 245 233
-0.0862114 -0.230509 -0.642 213 213 213
-0.0759581 -0.225482 -0.628 72 71 79
-0.0571838 -0.22225 -0.619 70 68 79
-0.304721 -0.234258 -0.649 253 253 251
-0.296524 -0.234619 -0.65 253 253 251
-0.144874 -0.225956 -0.626 201 198 189
-0.133277 -0.230649 -0.639 222 219 202
-0.106601 -0.233536 -0.647 243 237 221
-0.105206 -0.233175 -0.646 244 241 226
-0.0973686 -0.232092 -0.643 248 246 234
-0.082461 -0.228122 -0.632 73 72 80
-0.0674667 -0.222347 -0.616 70 70 82
-0.0550029 -0.224151 -0.621 69 67 78
-0.0505952 -0.225595 -0.625 70 68 79
-0.0494838 -0.225956 -0.626 70 69 77
-0.0484457 -0.226678 -0.628 71 70 78
-0.0416629 -0.228844 -0.634 71 71 81
-0.040519 -0.229205 -0.635 72 72 82
-0.0302867 -0.234258 -0.649 79 77 90
-0.160329 -0.234043 -0.645 223 223 225
-0.1161 -0.234043 -0.645 231 228 211
-0.106107 -0.23368 -0.644 241 239 224
-0.0695867 -0.222794 -0.614 71 69 82
-0.0462733 -0.228963 -0.631 70 70 80
-0.0451429 -0.229326 -0.632 71 71 81
-0.0394333 -0.23114 -0.637 72 72 82
-0.139881 -0.227976 -0.625 201 201 191
-0.138912 -0.228341 -0.626 201 201 191
-0.1362 -0.2298 -0.63 207 204 195
-0.134225 -0.23053 -0.632 222 220 208
-0.132234 -0.231259 -0.634 224 220 208
-0.119043 -0.233812 -0.641 228 226 211
-0.110496 -0.233812 -0.641 239 235 224
-0.100257 -0.232718 -0.638 235 232 225
-0.0925286 -0.231624 -0.635 185 184 182
-0.07828 -0.225423 -0.618 68 66 77
-0.0732143 -0.224329 -0.615 73 71 82
-0.0561857 -0.226517 -0.621 72 70 81
-0.0518686 -0.228341 -0.626 71 69 80
-0.0495629 -0.228706 -0.627 71 69 80
-0.0474 -0.2298 -0.63 70 70 78
-0.0326076 -0.235636 -0.646 75 75 85
-0.154943 -0.233933 -0.638 200 201 205
-0.152282 -0.231733 -0.632 219 218 223
-0.143486 -0.227333 -0.62 246 247 242
-0.129614 -0.2321 -0.633 224 222 209
-0.123153 -0.233567 -0.637 224 224 212
-0.118486 -0.233933 -0.638 228 225 216
-0.11241 -0.233933 -0.638 241 238 229
-0.111194 -0.233933 -0.638 246 241 235
-0.0931476 -0.231367 -0.631 113 112 117
-0.0903124 -0.230267 -0.628 76 75 81
-0.0716914 -0.2244 -0.612 72 72 82
-0.0680829 -0.224033 -0.611 71 71 81
-0.0625695 -0.225133 -0.614 71 69 80
-0.0616 -0.225867 -0.616 71 69 80
-0.0584571 -0.227333 -0.62 72 70 81
-0.0573686 -0.2277 -0.621 72 70 81
-0.0529762 -0.229167 -0.625 72 71 79
-0.159095 -0.239571 -0.65 124 124 126
-0.1449 -0.228883 -0.621 234 234 234
-0.139717 -0.228146 -0.619 251 249 250
-0.13295 -0.230726 -0.626 237 236 231
-0.1278 -0.2322 -0.63 235 235 223
-0.1266 -0.2322 -0.63 233 233 221
-0.12238 -0.233306 -0.633 238 237 232
-0.107741 -0.232937 -0.632 236 236 228
-0.0840295 -0.227409 -0.617 74 73 79
-0.0714571 -0.224829 -0.61 70 73 82
-0.0680829 -0.225197 -0.611 70 73 82
-0.0606229 -0.227777 -0.618 70 69 77
0.178203 -0.236991 -0.643 189 139 138
-0.140896 -0.229325 -0.619 228 227 232
-0.133071 -0.230066 -0.621 248 249 244
-0.12994 -0.230807 -0.623 251 252 246
-0.124803 -0.232289 -0.627 249 251 240
-0.112022 -0.23303 -0.629 230 231 226
-0.110824 -0.23303 -0.629 223 224 219
-0.103965 -0.23377 -0.631 206 206 208
-0.100041 -0.23303 -0.629 116 115 120
-0.0875552 -0.228584 -0.617 77 76 84
-0.0337333 -0.238587 -0.644 75 75 87
0.1839 -0.227102 -0.613 184 133 130
0.190976 -0.228584 -0.617 163 116 108
0.210065 -0.234141 -0.632 163 109 107
-0.156378 -0.241675 -0.649 130 130 132
-0.13339 -0.229759 -0.617 226 226 228
-0.128133 -0.230876 -0.62 234 234 232
-0.125193 -0.231993 -0.623 235 236 231
-0.121829 -0.232366 -0.624 233 233 233
-0.115065 -0.23311 -0.626 216 216 218
-0.101786 -0.232738 -0.625 80 79 85
-0.0882991 -0.228642 -0.614 78 77 85
-0.08568 -0.227897 -0.612 77 75 86
-0.07366 -0.22678 -0.609 74 73 81
-0.0681943 -0.227897 -0.612 72 70 81
-0.0564571 -0.232366 -0.624 73 71 82
-0.0314743 -0.241303 -0.648 74 74 86
-0.0290952 -0.242048 -0.65 77 75 86
0.17419 -0.230876 -0.62 198 149 144
0.175089 -0.230504 -0.619 196 147 142
0.184412 -0.226035 -0.607 175 120 115
0.197707 -0.229387 -0.616 166 116 117
0.204043 -0.231249 -0.621 159 103 102
0.207406 -0.232366 -0.624 155 101 99
0.209263 -0.23311 -0.626 159 105 103
-0.139491 -0.231309 -0.618 117 116 121
-0.132957 -0.230186 -0.615 163 162 167
-0.116136 -0.231683 -0.619 133 132 137
-0.11142 -0.231683 -0.619 78 77 83
-0.110063 -0.231309 -0.618 73 72 80
-0.107393 -0.23318 -0.623 97 96 101
-0.0890314 -0.228689 -0.611 77 75 86
-0.0841 -0.22794 -0.609 77 75 86
-0.0781714 -0.227566 -0.608 76 75 83
-0.0704105 -0.228689 -0.611 74 72 83
-0.0661857 -0.230186 -0.615 71 69 80
-0.0640505 -0.230934 -0.617 73 71 82
-0.0619 -0.231683 -0.619 74 72 83
-0.0531457 -0.234677 -0.627 72 70 81
-0.0521171 -0.235426 -0.629 72 70 81
-0.04642 -0.236923 -0.633 71 71 81
-0.0337333 -0.24104 -0.644 73 73 83
0.165488 -0.229811 -0.614 178 115 110
0.171662 -0.228689 -0.611 202 151 147
0.181143 -0.224571 -0.6 181 128 120
0.18404 -0.22532 -0.602 174 119 112
0.200247 -0.229437 -0.613 153 102 101
0.214032 -0.234303 -0.626 147 97 98
-0.149567 -0.241138 -0.641 120 121 123
-0.131357 -0.230605 -0.613 94 93 98
-0.13019 -0.230605 -0.613 94 93 98
-0.125519 -0.230605 -0.613 89 88 93
-0.123385 -0.230981 -0.614 86 85 90
-0.112675 -0.230605 -0.613 74 73 81
-0.10384 -0.231733 -0.616 72 70 81
-0.0999943 -0.230981 -0.614 76 74 85
-0.0874362 -0.228724 -0.608 77 75 86
-0.0804876 -0.228724 -0.608 76 75 81
-0.0781714 -0.228724 -0.608 76 75 83
-0.07482 -0.2291 -0.609 76 75 83
-0.0684171 -0.230981 -0.614 73 71 82
-0.0673571 -0.231357 -0.615 73 71 82
-0.0662933 -0.231733 -0.616 72 70 81
-0.0554457 -0.235495 -0.626 72 70 81
-0.03834 -0.240386 -0.639 73 73 83
-0.037239 -0.241138 -0.641 73 73 83
-0.0290952 -0.244524 -0.65 77 75 86
0.158929 -0.235119 -0.625 201 152 148
0.169695 -0.227219 -0.604 205 152 146
0.172854 -0.225338 -0.599 204 148 147
0.184264 -0.225338 -0.599 174 115 107
0.19713 -0.228348 -0.607 153 99 97
0.211981 -0.233238 -0.62 146 95 94
-0.12238 -0.23026 -0.609 80 79 84
-0.12006 -0.23026 -0.609 73 72 78
-0.100505 -0.230638 -0.61 73 72 80
-0.09802 -0.23026 -0.609 74 73 81
-0.0967009 -0.229882 -0.608 74 73 81
-0.0906114 -0.229126 -0.606 77 76 84
-0.0770133 -0.229882 -0.608 76 75 81
-0.073781 -0.230638 -0.61 75 74 82
-0.0642581 -0.234041 -0.619 75 74 82
-0.0554457 -0.236688 -0.626 73 72 80
-0.0440781 -0.239712 -0.634 72 72 82
-0.0337333 -0.243493 -0.644 75 75 85
-0.0314257 -0.244628 -0.647 75 75 85
0.160491 -0.22837 -0.604 188 126 115
0.165093 -0.22837 -0.604 202 143 135
0.165969 -0.227991 -0.603 205 146 138
0.170853 -0.225345 -0.596 202 149 145
0.177069 -0.224589 -0.594 185 135 124
0.179331 -0.224589 -0.594 180 126 114
0.182206 -0.225345 -0.596 173 115 103
0.193213 -0.227613 -0.602 158 100 96
0.205076 -0.230638 -0.61 185 130 127
0.216219 -0.235175 -0.622 169 113 112
0.218452 -0.23631 -0.625 167 111 110
-0.132525 -0.23294 -0.613 98 99 101
-0.07714 -0.23142 -0.609 76 75 80
-0.0487543 -0.24016 -0.632 73 72 80
-0.0452857 -0.24092 -0.634 73 73 81
-0.0441476 -0.2413 -0.635 72 72 80
-0.04186 -0.24206 -0.637 75 75 83
-0.0349057 -0.24434 -0.643 75 75 85
-0.0326076 -0.24548 -0.646 75 75 85
0.154351 -0.23066 -0.607 203 153 154
0.167448 -0.22648 -0.596 203 148 145
0.185611 -0.22648 -0.596 165 101 91
0.216705 -0.2356 -0.62 174 118 117
-0.125033 -0.231052 -0.605 86 87 92
-0.122323 -0.230289 -0.603 72 73 78
-0.120973 -0.229907 -0.602 65 66 71
-0.114666 -0.228761 -0.599 56 56 66
-0.107035 -0.229525 -0.601 62 60 71
-0.0923067 -0.229907 -0.602 74 73 79
-0.09116 -0.229907 -0.602 77 76 82
-0.0880114 -0.23067 -0.604 77 76 82
-0.0868609 -0.23067 -0.604 78 77 85
-0.0762295 -0.233344 -0.611 76 75 81
-0.0632829 -0.237163 -0.621 75 74 82
-0.0577381 -0.23869 -0.625 74 73 81
-0.0476257 -0.241746 -0.633 73 72 80
-0.0419257 -0.243655 -0.638 70 69 77
-0.0407105 -0.243655 -0.638 73 72 80
-0.0361305 -0.245565 -0.643 76 74 85
-0.0326076 -0.24671 -0.646 75 73 84
0.157143 -0.229143 -0.6 192 129 122
0.164317 -0.227997 -0.597 209 152 145
0.170257 -0.225324 -0.59 197 146 143
0.1853 -0.227233 -0.595 153 91 80
0.193069 -0.228379 -0.598 204 145 137
0.197143 -0.229143 -0.6 193 138 133
0.199761 -0.229525 -0.601 189 134 129
0.21309 -0.234108 -0.613 171 117 115
0.217183 -0.236017 -0.618 170 116 114
0.224643 -0.240218 -0.629 164 115 111
-0.14091 -0.243719 -0.635 111 112 114
-0.12818 -0.23374 -0.609 100 101 105
-0.112384 -0.229902 -0.599 55 55 65
-0.109918 -0.229518 -0.598 52 55 62
-0.0995 -0.229134 -0.597 63 63 65
-0.0868609 -0.231821 -0.604 77 76 84
-0.0857105 -0.231821 -0.604 77 76 84
-0.0730952 -0.235659 -0.614 76 75 83
-0.0290952 -0.249476 -0.65 75 73 86
0.158631 -0.229134 -0.597 179 124 119
0.162633 -0.228367 -0.595 205 150 145
0.166886 -0.226448 -0.59 207 149 147
0.16968 -0.22568 -0.588 197 146 142
0.220603 -0.238346 -0.621 158 107 103
-0.130827 -0.2376 -0.616 104 105 109
-0.12524 -0.233743 -0.606 81 82 87
-0.116557 -0.230271 -0.597 63 63 73
-0.0952695 -0.231043 -0.599 72 71 77
-0.0881571 -0.233357 -0.605 79 78 86
-0.0859943 -0.233743 -0.606 79 78 86
-0.0819143 -0.235286 -0.61 77 76 82
-0.0776467 -0.236443 -0.613 76 75 83
-0.0732143 -0.237214 -0.615 76 75 81
-0.0534 -0.243 -0.63 73 72 80
-0.0522829 -0.243386 -0.631 72 71 79
-0.039619 -0.246857 -0.64 77 77 87
0.159233 -0.2295 -0.595 205 152 148
0.162941 -0.228343 -0.592 208 155 149
0.163791 -0.227957 -0.591 210 151 147
0.175578 -0.227186 -0.589 178 120 109
0.20366 -0.231043 -0.599 180 127 123
-0.145476 -0.251952 -0.65 124 124 126
-0.127854 -0.23761 -0.613 90 91 96
-0.0970629 -0.231021 -0.596 69 68 74
-0.09246 -0.233734 -0.603 75 74 80
-0.08526 -0.23606 -0.609 77 76 84
-0.0841 -0.23606 -0.609 77 76 84
-0.0789429 -0.237998 -0.614 77 76 82
-0.0755571 -0.238386 -0.615 76 75 81
-0.07004 -0.239549 -0.618 76 75 83
-0.0500371 -0.245363 -0.633 76 74 85
-0.0488314 -0.245363 -0.633 77 75 86
-0.0326581 -0.25079 -0.647 74 74 86
0.149143 -0.232571 -0.6 198 155 146
0.152433 -0.230633 -0.595 189 138 137
0.155833 -0.230633 -0.595 183 128 123
0.16154 -0.229083 -0.591 200 147 139
0.16239 -0.228695 -0.59 198 145 137
0.166037 -0.227532 -0.587 200 150 139
0.171628 -0.227532 -0.587 182 124 113
0.17528 -0.22792 -0.588 172 114 103
0.184054 -0.229083 -0.591 164 104 94
0.190004 -0.22947 -0.592 192 138 136
0.211462 -0.23451 -0.605 164 115 118
0.224046 -0.241874 -0.624 156 106 105
0.238097 -0.250402 -0.646 160 110 109
-0.116709 -0.230598 -0.592 76 76 84
-0.11125 -0.22865 -0.587 75 73 84
-0.104364 -0.228261 -0.586 67 67 75
-0.103424 -0.22865 -0.587 63 62 70
-0.0823171 -0.238778 -0.613 79 78 84
-0.07004 -0.240726 -0.618 76 75 83
-0.0602152 -0.243842 -0.626 74 72 83
-0.0591171 -0.244231 -0.627 74 72 83
-0.0580152 -0.244621 -0.628 75 73 84
-0.0454286 -0.247737 -0.636 72 72 80
-0.0361305 -0.250464 -0.643 72 72 82
0.147102 -0.234104 -0.601 197 152 146
0.156439 -0.230988 -0.593 205 152 148
0.160993 -0.22943 -0.589 198 145 137
0.16296 -0.22904 -0.588 197 145 134
0.1677 -0.227871 -0.585 185 136 122
0.168814 -0.227871 -0.585 183 131 117
0.211462 -0.235662 -0.605 164 115 118
-0.137571 -0.251297 -0.642 110 111 113
-0.118632 -0.233291 -0.596 65 65 73
-0.106596 -0.229377 -0.586 60 60 68
-0.100751 -0.231334 -0.591 49 50 55
-0.0917657 -0.237206 -0.606 73 72 78
-0.0790714 -0.240729 -0.615 79 78 86
-0.0591171 -0.245426 -0.627 74 72 83
-0.0512429 -0.247774 -0.633 73 71 82
-0.04664 -0.248949 -0.636 109 109 117
-0.03852 -0.251297 -0.642 75 75 85
-0.0350143 -0.252471 -0.645 72 72 82
0.14442 -0.23838 -0.609 209 161 157
0.149662 -0.232117 -0.593 191 141 134
0.150791 -0.232117 -0.593 195 142 134
0.151921 -0.232117 -0.593 183 130 122
0.15305 -0.232117 -0.593 182 124 120
0.17864 -0.23016 -0.588 152 90 77
0.184553 -0.230551 -0.589 198 141 134
0.187919 -0.230551 -0.589 195 142 136
0.20049 -0.232117 -0.593 186 129 120
0.20196 -0.232509 -0.594 179 124 119
0.226786 -0.244643 -0.625 147 102 99
0.235149 -0.249731 -0.638 144 99 94
-0.0888857 -0.239933 -0.61 73 72 80
-0.08582 -0.241113 -0.613 77 76 84
-0.0747486 -0.24308 -0.618 79 77 88
-0.0681238 -0.244653 -0.622 76 74 85
-0.0670467 -0.245047 -0.623 76 74 85
-0.0512429 -0.24898 -0.633 74 72 83
0.140466 -0.24898 -0.633 202 153 146
0.140776 -0.247407 -0.629 200 151 144
0.144385 -0.237573 -0.604 206 159 153
0.145229 -0.235213 -0.598 203 154 150
0.145633 -0.234033 -0.595 200 151 147
0.162129 -0.2301 -0.585 201 146 139
0.164076 -0.229707 -0.584 195 138 129
0.182 -0.23128 -0.588 202 143 135
0.18312 -0.23128 -0.588 196 141 136
0.206391 -0.23482 -0.597 164 113 109
0.221532 -0.242687 -0.617 143 97 99
0.234043 -0.249767 -0.635 145 99 99
-0.115971 -0.234771 -0.594 118 118 126
-0.104364 -0.23161 -0.586 110 113 118
-0.0771029 -0.244257 -0.618 79 77 88
-0.0524486 -0.250186 -0.633 73 71 82
-0.0501162 -0.250581 -0.634 74 73 81
0.143608 -0.235562 -0.596 204 157 151
0.165189 -0.230819 -0.584 189 131 120
0.172451 -0.23161 -0.586 166 102 92
0.18088 -0.2324 -0.588 200 141 133
0.182 -0.2324 -0.588 202 143 135
0.192543 -0.23161 -0.586 191 136 131
0.196226 -0.232005 -0.587 188 130 126
0.2006 -0.23319 -0.59 177 120 113
0.228341 -0.247419 -0.626 140 95 98
0.24104 -0.254533 -0.644 146 97 100
0.243771 -0.256114 -0.648 148 99 102
-0.138857 -0.257349 -0.648 119 120 124
-0.13286 -0.25298 -0.637 113 116 121
-0.127771 -0.247817 -0.624 128 131 136
-0.122179 -0.241463 -0.608 126 129 134
-0.0964105 -0.237889 -0.599 59 58 66
-0.0930733 -0.241066 -0.607 65 64 72
-0.09106 -0.24186 -0.609 66 65 73
-0.0891771 -0.243051 -0.612 67 66 74
-0.0374133 -0.25576 -0.644 76 74 87
-0.0326581 -0.256951 -0.647 74 72 83
0.13862 -0.24186 -0.609 201 157 154
0.139321 -0.241066 -0.607 203 159 156
0.144014 -0.235506 -0.593 202 151 148
0.146906 -0.234711 -0.591 195 144 140
0.147781 -0.234314 -0.59 189 136 128
0.148905 -0.234314 -0.59 185 132 124
0.15629 -0.231931 -0.584 201 154 148
0.174982 -0.233123 -0.587 164 100 90
0.179454 -0.233123 -0.587 205 145 137
0.202408 -0.235109 -0.592 169 112 105
0.218929 -0.243449 -0.613 138 92 95
0.231 -0.2502 -0.63 141 95 98
0.238324 -0.254171 -0.64 142 93 96
0.243019 -0.256554 -0.646 143 97 99
0.24425 -0.256554 -0.646 143 97 99
-0.13741 -0.258184 -0.647 119 120 125
-0.113873 -0.235039 -0.589 121 122 127
-0.0912095 -0.243419 -0.61 65 64 72
-0.0850667 -0.245813 -0.616 74 73 81
-0.0795857 -0.24701 -0.619 77 76 84
-0.0784067 -0.24701 -0.619 78 77 85
-0.0616038 -0.250602 -0.628 74 72 83
-0.0467133 -0.254193 -0.637 72 71 79
-0.0350143 -0.257386 -0.645 72 70 81
-0.0314743 -0.258583 -0.648 75 73 86
0.14753 -0.235039 -0.589 184 129 124
0.148652 -0.235039 -0.589 192 137 132
0.15262 -0.234241 -0.587 202 154 144
0.154065 -0.233044 -0.584 204 157 151
0.176916 -0.233842 -0.586 189 126 119
0.178032 -0.233842 -0.586 209 151 147
0.182186 -0.233443 -0.585 198 143 140
0.185211 -0.233044 -0.584 199 141 137
0.186324 -0.233044 -0.584 200 142 138
0.206046 -0.237832 -0.596 161 106 101
0.216695 -0.243419 -0.61 137 91 94
0.218929 -0.244616 -0.613 135 89 92
0.22606 -0.248607 -0.623 134 88 98
-0.0997943 -0.237364 -0.592 62 63 68
-0.0955876 -0.240972 -0.601 61 60 68
-0.091359 -0.244982 -0.611 63 62 70
-0.0762943 -0.248991 -0.621 77 75 86
-0.0649848 -0.250996 -0.626 75 73 84
-0.0398048 -0.257812 -0.643 73 73 81
-0.0303333 -0.260619 -0.65 71 74 81
0.1484 -0.23576 -0.588 208 150 146
0.149266 -0.235359 -0.587 206 153 145
0.162406 -0.233354 -0.582 188 131 122
0.167127 -0.233755 -0.583 177 115 104
0.172157 -0.234557 -0.585 168 102 90
0.17965 -0.234156 -0.584 196 140 139
0.192998 -0.234156 -0.584 189 132 123
0.1988 -0.23576 -0.588 173 114 106
0.235252 -0.254605 -0.635 130 83 89
0.241138 -0.25701 -0.641 125 83 87
-0.103651 -0.234463 -0.582 108 109 114
-0.101957 -0.235671 -0.585 89 93 96
-0.0981981 -0.240103 -0.596 64 63 71
-0.0949143 -0.243326 -0.604 60 59 67
-0.0808952 -0.249771 -0.62 76 74 85
-0.07298 -0.25098 -0.623 76 74 85
-0.0684524 -0.251786 -0.625 75 73 84
-0.0605038 -0.253397 -0.629 75 74 82
-0.0594 -0.2538 -0.63 75 74 82
-0.0503533 -0.25662 -0.637 72 71 79
-0.0421229 -0.258231 -0.641 72 72 82
-0.0409657 -0.258634 -0.642 72 72 80
-0.0374714 -0.259843 -0.645 72 72 80
-0.0327086 -0.261051 -0.648 72 72 82
0.133256 -0.246146 -0.611 198 149 142
0.158807 -0.23406 -0.581 191 137 127
0.168237 -0.234866 -0.583 173 109 97
0.172975 -0.235269 -0.584 166 104 93
0.177425 -0.235269 -0.584 202 149 145
0.179342 -0.234866 -0.583 202 147 144
0.19411 -0.235269 -0.584 177 119 107
0.195891 -0.236074 -0.586 172 114 102
0.212966 -0.244131 -0.606 136 88 88
0.221891 -0.248966 -0.618 130 83 91
0.22907 -0.252994 -0.628 134 86 98
-0.107529 -0.234357 -0.579 112 115 120
-0.101783 -0.236381 -0.584 83 84 89
-0.099 -0.240429 -0.594 66 65 73
-0.0950714 -0.244881 -0.605 60 59 67
-0.0906381 -0.248524 -0.614 62 61 69
-0.0875552 -0.249738 -0.617 65 64 72
-0.0808952 -0.250952 -0.62 74 73 81
-0.0696429 -0.252976 -0.625 76 75 83
-0.0560657 -0.256214 -0.633 75 74 82
-0.0480019 -0.258238 -0.638 73 72 80
-0.0362429 -0.261071 -0.645 71 71 81
0.132101 -0.251762 -0.622 208 163 160
0.139914 -0.23881 -0.59 202 152 143
0.179833 -0.235167 -0.581 203 144 138
0.18758 -0.235167 -0.581 190 133 122
0.19411 -0.236381 -0.584 176 119 110
0.20094 -0.239214 -0.591 156 96 95
0.247474 -0.262286 -0.648 133 86 96
0.249476 -0.263095 -0.65 133 90 100
-0.107343 -0.235053 -0.578 110 113 118
-0.10024 -0.23912 -0.588 62 63 68
-0.0967324 -0.244407 -0.601 63 62 70
-0.08976 -0.250507 -0.616 62 61 69
-0.0832571 -0.252133 -0.62 70 69 77
-0.0742857 -0.25376 -0.624 77 76 84
-0.0697543 -0.254573 -0.626 77 76 84
-0.0640981 -0.255793 -0.629 75 74 80
-0.0583848 -0.257013 -0.632 74 73 81
-0.0526971 -0.25864 -0.636 74 73 81
-0.0480771 -0.25986 -0.639 73 72 80
-0.0457143 -0.260267 -0.64 73 72 80
-0.0421229 -0.260673 -0.641 74 73 81
-0.0338905 -0.263113 -0.647 71 71 81
-0.0327086 -0.26352 -0.648 72 72 82
0.131444 -0.247253 -0.608 197 146 142
0.133838 -0.243187 -0.598 203 153 142
0.14056 -0.23912 -0.588 195 143 130
0.15132 -0.23668 -0.582 199 147 136
0.152167 -0.236273 -0.581 200 148 137
0.16434 -0.236273 -0.581 183 123 113
0.179524 -0.235867 -0.58 203 144 140
0.182523 -0.23546 -0.579 197 140 133
0.195891 -0.238307 -0.586 166 109 102
0.19768 -0.23912 -0.588 163 104 100
0.199138 -0.239527 -0.589 162 103 99
0.20128 -0.240747 -0.592 155 97 96
0.218471 -0.2501 -0.615 120 74 84
0.249476 -0.264333 -0.65 134 88 98
-0.132887 -0.262711 -0.643 111 114 119
-0.130229 -0.259851 -0.636 110 113 118
-0.072139 -0.255766 -0.626 77 76 84
-0.0652962 -0.256991 -0.629 76 75 81
-0.0642 -0.2574 -0.63 75 74 80
-0.063 -0.2574 -0.63 75 74 80
-0.0561543 -0.259034 -0.634 75 74 82
-0.0457143 -0.261486 -0.64 72 73 78
-0.0350686 -0.263937 -0.646 71 71 79
0.157987 -0.236154 -0.578 189 133 120
0.164057 -0.236971 -0.58 173 113 102
0.177009 -0.236563 -0.579 202 143 139
0.183309 -0.236154 -0.578 192 135 124
0.233567 -0.26026 -0.637 122 80 94
-0.105141 -0.237255 -0.578 105 109 112
-0.10024 -0.24136 -0.588 68 67 73
-0.0968933 -0.247107 -0.602 67 66 74
-0.0928257 -0.251622 -0.613 60 59 67
-0.0919571 -0.252443 -0.615 60 59 67
-0.0778514 -0.256137 -0.624 74 73 81
-0.0596829 -0.259831 -0.633 75 74 82
-0.0584771 -0.259831 -0.633 75 74 82
-0.0492943 -0.262294 -0.639 75 74 82
-0.0480771 -0.262294 -0.639 73 73 81
-0.036299 -0.265168 -0.646 72 72 80
-0.0338905 -0.265578 -0.647 70 70 78
0.131075 -0.246696 -0.601 204 156 146
0.132255 -0.244644 -0.596 200 151 144
0.152218 -0.236845 -0.577 199 143 130
0.179694 -0.236845 -0.577 199 140 134
0.199476 -0.242181 -0.59 157 99 97
0.20812 -0.247107 -0.602 135 85 94
0.232353 -0.261473 -0.637 126 79 95
-0.127597 -0.259388 -0.629 107 110 115
-0.0994571 -0.243305 -0.59 74 75 80
-0.0929771 -0.253202 -0.614 60 59 67
-0.0910809 -0.254439 -0.617 60 59 67
-0.08694 -0.256089 -0.621 63 62 70
-0.0847105 -0.256501 -0.622 65 64 70
-0.0516476 -0.263099 -0.638 74 73 79
0.129314 -0.255676 -0.62 203 156 150
0.13475 -0.24413 -0.592 206 157 150
0.157713 -0.237944 -0.577 186 130 117
0.164877 -0.238769 -0.579 164 102 89
0.196226 -0.242068 -0.587 161 100 95
0.198016 -0.242892 -0.589 158 100 99
0.199814 -0.243717 -0.591 157 99 98
0.204117 -0.246191 -0.597 139 87 91
0.208466 -0.248666 -0.603 133 88 95
0.228844 -0.26145 -0.634 120 87 96
0.239698 -0.26681 -0.647 117 74 84
0.244524 -0.268048 -0.65 114 74 85
-0.116906 -0.245671 -0.593 103 106 111
-0.114605 -0.243186 -0.587 105 108 113
-0.112327 -0.2407 -0.581 104 107 112
-0.100843 -0.242357 -0.585 69 69 77
-0.0994571 -0.244429 -0.59 77 78 83
-0.0824733 -0.2581 -0.623 66 65 71
-0.0791667 -0.258929 -0.625 71 70 76
-0.0769086 -0.259343 -0.626 72 71 77
-0.0745238 -0.259343 -0.626 74 73 79
-0.0608886 -0.262243 -0.633 76 75 81
-0.0585695 -0.262657 -0.634 73 72 78
-0.0505114 -0.264729 -0.639 73 72 78
-0.0375295 -0.267629 -0.646 72 70 81
0.130619 -0.269286 -0.65 207 152 147
0.12896 -0.258514 -0.624 206 159 151
0.1372 -0.2436 -0.588 205 156 149
0.139843 -0.242357 -0.585 200 147 141
0.141829 -0.241943 -0.584 205 155 146
0.142696 -0.241529 -0.583 198 148 139
0.14356 -0.241114 -0.582 200 150 143
0.147822 -0.239043 -0.577 193 140 132
0.154976 -0.238214 -0.575 186 129 118
0.182674 -0.238629 -0.576 188 130 116
0.189793 -0.2407 -0.581 171 111 103
0.200152 -0.245257 -0.592 151 95 94
0.237233 -0.268043 -0.647 112 72 83
-0.130024 -0.264281 -0.635 106 107 112
-0.112133 -0.24139 -0.58 100 104 107
-0.109355 -0.240142 -0.577 101 102 107
-0.103295 -0.24139 -0.58 86 87 92
-0.0994571 -0.245552 -0.59 80 81 86
-0.0963829 -0.252211 -0.606 69 68 74
-0.0814171 -0.259703 -0.624 68 67 75
-0.0678 -0.2622 -0.63 74 73 81
-0.0410933 -0.268027 -0.644 71 70 78
0.160731 -0.239726 -0.576 167 107 97
0.166794 -0.240558 -0.578 208 144 134
0.171405 -0.23931 -0.575 201 141 131
0.177667 -0.238893 -0.574 195 136 130
0.186934 -0.240974 -0.579 172 114 102
0.20049 -0.246801 -0.593 142 90 92
0.205143 -0.249714 -0.6 137 92 95
0.209503 -0.252211 -0.606 122 86 90
0.236001 -0.269275 -0.647 98 80 106
-0.132267 -0.267581 -0.64 106 107 112
-0.0904886 -0.259637 -0.621 59 58 66
-0.0791667 -0.26131 -0.625 68 67 75
-0.0667057 -0.263818 -0.631 75 74 80
-0.0632 -0.264236 -0.632 76 75 81
-0.0540781 -0.266745 -0.638 72 71 77
-0.0470067 -0.267999 -0.641 74 73 81
-0.0422543 -0.268835 -0.643 71 70 78
0.133612 -0.245422 -0.587 202 143 137
0.138254 -0.24375 -0.583 206 153 147
0.150071 -0.239569 -0.573 190 136 126
0.151163 -0.239569 -0.573 191 137 127
0.158262 -0.240405 -0.575 172 112 102
0.172991 -0.239569 -0.573 200 139 134
0.197229 -0.246676 -0.59 155 99 100
-0.103295 -0.2436 -0.58 76 77 82
-0.101783 -0.24528 -0.584 70 70 78
-0.10024 -0.24696 -0.588 88 87 95
-0.0958571 -0.2562 -0.61 71 70 78
-0.0735657 -0.26376 -0.628 73 72 80
-0.0633 -0.26586 -0.633 75 74 80
-0.0493714 -0.2688 -0.64 74 73 79
-0.0410933 -0.27048 -0.644 71 70 78
0.138017 -0.24444 -0.582 204 151 147
0.144024 -0.2415 -0.575 198 143 138
0.14596 -0.24108 -0.574 190 135 130
0.152254 -0.24066 -0.573 190 131 123
0.154437 -0.24066 -0.573 181 122 114
0.167827 -0.24108 -0.574 203 143 135
0.178137 -0.24024 -0.572 189 128 123
0.183771 -0.24192 -0.576 171 112 104
0.197563 -0.24822 -0.591 154 98 99
0.208349 -0.25452 -0.606 115 88 97
-0.114019 -0.246392 -0.584 96 99 104
-0.106971 -0.243017 -0.576 91 94 99
-0.0988333 -0.25019 -0.593 85 86 91
-0.0981981 -0.251455 -0.596 85 84 90
-0.0958571 -0.257362 -0.61 74 73 79
-0.0875 -0.26369 -0.625 57 56 64
-0.085119 -0.26369 -0.625 58 57 65
-0.07942 -0.264534 -0.627 65 64 72
-0.0634 -0.267488 -0.634 75 74 80
-0.0446343 -0.270863 -0.642 72 71 79
0.129112 -0.249768 -0.592 198 145 137
0.13002 -0.249346 -0.591 193 140 132
0.140983 -0.243017 -0.576 202 149 141
0.155257 -0.24133 -0.572 162 104 93
0.15908 -0.242173 -0.574 165 106 98
0.160173 -0.242173 -0.574 200 141 133
0.17051 -0.24133 -0.572 205 147 136
0.172388 -0.240908 -0.571 199 140 132
0.174563 -0.240908 -0.571 196 137 131
0.19399 -0.247658 -0.587 157 99 97
0.204 -0.253143 -0.6 124 89 95
0.206852 -0.255252 -0.605 120 85 91
-0.116314 -0.250048 -0.59 95 98 105
-0.113824 -0.247081 -0.583 96 100 103
-0.110454 -0.244538 -0.577 95 99 102
-0.109166 -0.244114 -0.576 94 98 101
-0.10024 -0.2492 -0.588 92 93 98
-0.0928543 -0.263186 -0.621 66 65 71
-0.0818086 -0.265729 -0.627 60 59 67
-0.0714 -0.267 -0.63 72 71 79
-0.0529457 -0.270814 -0.639 75 74 82
-0.0470067 -0.271662 -0.641 71 70 78
0.12958 -0.249624 -0.589 195 142 136
0.131152 -0.248352 -0.586 203 150 144
0.149286 -0.241571 -0.57 188 132 119
0.150635 -0.241995 -0.571 185 129 116
0.154168 -0.242419 -0.572 174 117 106
0.163169 -0.242843 -0.573 203 144 136
0.16426 -0.242843 -0.573 200 141 133
0.172388 -0.241995 -0.571 193 134 126
0.173475 -0.241995 -0.571 197 138 132
0.196105 -0.250048 -0.59 148 98 101
0.202181 -0.253438 -0.598 135 94 98
0.218802 -0.265305 -0.626 255 248 255
-0.106786 -0.244786 -0.575 89 93 96
-0.0961714 -0.260537 -0.612 76 75 81
-0.09476 -0.263091 -0.618 71 70 76
-0.0565086 -0.271606 -0.638 73 72 80
-0.0518095 -0.272457 -0.64 74 73 81
-0.0458571 -0.273309 -0.642 71 70 78
0.12759 -0.272883 -0.641 206 153 149
0.126367 -0.2533 -0.595 199 146 140
0.128458 -0.250746 -0.589 200 147 141
0.14411 -0.243083 -0.571 188 134 124
0.145772 -0.242231 -0.569 191 134 125
0.156347 -0.243509 -0.572 192 134 123
0.162884 -0.243509 -0.572 198 139 131
0.18551 -0.246063 -0.578 167 112 107
0.211099 -0.261389 -0.614 167 152 159
-0.130407 -0.269828 -0.631 98 102 105
-0.105874 -0.246309 -0.576 87 88 92
-0.10404 -0.247164 -0.578 78 79 84
-0.102543 -0.248874 -0.582 72 73 78
-0.101015 -0.250585 -0.586 94 95 100
-0.0983629 -0.255289 -0.597 90 89 95
-0.0912171 -0.26769 -0.626 60 59 65
-0.0901686 -0.268117 -0.627 58 57 63
-0.0855276 -0.268545 -0.628 55 54 62
-0.0831352 -0.268545 -0.628 56 55 63
-0.0819391 -0.268545 -0.628 57 56 64
-0.0715133 -0.269828 -0.631 69 68 76
-0.0647095 -0.271538 -0.635 73 72 80
0.140847 -0.24417 -0.571 191 134 125
0.149024 -0.243315 -0.569 191 134 123
0.175343 -0.243743 -0.57 192 133 125
0.187257 -0.248019 -0.58 164 109 104
0.190773 -0.24973 -0.584 154 98 99
-0.129993 -0.27017 -0.629 98 102 105
-0.118035 -0.254708 -0.593 96 96 104
-0.108787 -0.246547 -0.574 92 96 99
-0.0997943 -0.254278 -0.592 93 92 98
-0.0977143 -0.257714 -0.6 88 87 93
-0.0739171 -0.27103 -0.631 66 65 73
-0.0728305 -0.271459 -0.632 67 66 74
-0.0693286 -0.271889 -0.633 71 70 78
-0.0682305 -0.272318 -0.634 71 70 78
-0.0554667 -0.274895 -0.64 75 74 82
0.124495 -0.26115 -0.608 197 144 140
0.13612 -0.246547 -0.574 198 144 132
0.144434 -0.24397 -0.568 195 139 126
0.1634 -0.244829 -0.57 198 137 132
0.185831 -0.248694 -0.579 165 110 105
0.1911 -0.251271 -0.585 158 103 106
0.192871 -0.25213 -0.587 143 94 97
-0.106786 -0.248071 -0.575 92 93 97
-0.104959 -0.248934 -0.577 81 82 87
-0.0983629 -0.257563 -0.597 90 91 96
-0.0931533 -0.26878 -0.623 72 73 78
-0.08792 -0.270937 -0.628 53 54 59
-0.0798 -0.2718 -0.63 57 56 62
-0.0786 -0.2718 -0.63 57 56 62
-0.0648114 -0.274389 -0.636 73 72 78
0.126171 -0.276114 -0.64 184 138 122
0.12826 -0.251523 -0.583 201 146 139
0.131564 -0.249366 -0.578 197 143 133
0.135027 -0.24764 -0.574 194 140 128
0.138429 -0.245914 -0.57 193 136 125
0.14526 -0.24462 -0.567 196 140 125
0.153359 -0.245483 -0.569 198 141 130
0.157694 -0.245483 -0.569 194 136 125
0.158778 -0.245483 -0.569 198 140 129
0.166072 -0.245051 -0.568 190 131 123
0.17954 -0.247209 -0.573 173 115 111
0.189661 -0.251954 -0.584 151 98 104
0.195642 -0.255406 -0.592 133 88 91
0.20808 -0.264034 -0.612 217 205 215
-0.111553 -0.250033 -0.577 94 97 102
-0.0958571 -0.264333 -0.61 84 83 89
-0.0913629 -0.2717 -0.627 63 64 69
-0.0786 -0.273 -0.63 57 56 62
0.125383 -0.2756 -0.636 187 144 125
0.123988 -0.267367 -0.617 202 149 141
0.124812 -0.256967 -0.593 199 144 137
0.126688 -0.253933 -0.586 202 148 138
0.128705 -0.251333 -0.58 201 147 135
0.12981 -0.251333 -0.58 201 147 135
0.16254 -0.2457 -0.567 195 137 126
0.166566 -0.245267 -0.566 195 138 129
0.171482 -0.246133 -0.568 176 119 112
0.172868 -0.246567 -0.569 176 121 114
0.175343 -0.247 -0.57 172 117 110
-0.12896 -0.271589 -0.624 97 97 105
-0.10041 -0.256355 -0.589 100 99 104
-0.0960143 -0.26593 -0.611 85 84 90
-0.0798 -0.2742 -0.63 54 53 59
-0.0729457 -0.275506 -0.633 65 64 72
-0.0707571 -0.276376 -0.635 68 67 75
0.124594 -0.27507 -0.632 202 149 143
0.123385 -0.267236 -0.614 201 149 138
0.125786 -0.255485 -0.587 199 145 135
0.133467 -0.248956 -0.572 194 141 127
0.135171 -0.248086 -0.57 191 138 124
0.145004 -0.246345 -0.566 191 135 120
0.167644 -0.246345 -0.566 195 138 129
0.16902 -0.24678 -0.567 190 133 124
0.182991 -0.251132 -0.577 165 110 105
0.184729 -0.252003 -0.579 164 109 104
-0.103295 -0.253543 -0.58 70 71 76
-0.0960143 -0.267094 -0.611 85 86 91
-0.0954714 -0.268843 -0.615 83 84 89
-0.0740343 -0.276274 -0.632 61 60 68
0.1377 -0.24786 -0.567 190 132 120
0.139613 -0.247423 -0.566 195 139 126
0.141519 -0.246986 -0.565 195 139 124
0.144748 -0.246986 -0.565 195 139 124
0.166566 -0.247423 -0.566 187 134 120
0.167644 -0.247423 -0.566 188 131 122
0.172868 -0.248734 -0.569 179 118 115
0.179853 -0.25092 -0.574 168 111 104
0.182991 -0.252231 -0.577 160 105 100
-0.12834 -0.272649 -0.621 99 99 107
-0.112848 -0.25377 -0.578 101 101 109
-0.108597 -0.251574 -0.573 102 102 110
-0.102543 -0.255526 -0.582 86 87 92
-0.0991667 -0.261233 -0.595 101 102 107
-0.0985276 -0.26255 -0.598 96 97 102
-0.0787248 -0.277039 -0.631 52 51 59
-0.0707571 -0.278795 -0.635 67 65 76
-0.0661267 -0.279673 -0.637 70 68 79
0.123057 -0.259038 -0.59 197 144 136
0.124243 -0.256843 -0.585 199 145 135
0.138535 -0.248501 -0.566 196 137 123
0.143671 -0.248062 -0.565 194 136 122
0.159019 -0.248501 -0.566 180 122 111
0.161175 -0.248501 -0.566 181 122 114
0.165488 -0.248501 -0.566 191 139 126
0.167644 -0.248501 -0.566 183 128 121
0.172868 -0.249818 -0.569 173 114 110
0.220038 -0.28099 -0.64 193 200 228
0.248014 -0.282308 -0.643 165 118 124
0.248851 -0.281869 -0.642 163 112 121
0.258143 -0.285381 -0.65 177 149 163
-0.122323 -0.265894 -0.603 100 100 108
-0.108597 -0.252666 -0.573 105 105 115
-0.101783 -0.257516 -0.584 108 108 116
-0.0846 -0.2778 -0.63 49 48 54
0.123129 -0.257957 -0.585 195 141 131
0.12694 -0.25443 -0.577 200 143 134
0.129334 -0.252666 -0.573 195 138 127
0.131914 -0.251343 -0.57 195 133 120
0.13829 -0.249138 -0.565 192 132 121
0.142343 -0.248697 -0.564 196 138 126
0.147976 -0.249138 -0.565 203 145 131
0.152281 -0.249138 -0.565 198 140 128
0.158738 -0.249138 -0.565 180 121 113
0.16441 -0.249579 -0.566 190 131 123
0.177048 -0.252225 -0.572 168 111 104
0.196486 -0.26369 -0.598 156 132 158
0.245638 -0.28221 -0.64 170 121 127
-0.13281 -0.279443 -0.631 100 100 110
-0.119165 -0.262614 -0.593 104 104 112
-0.116841 -0.259957 -0.587 105 106 111
-0.103295 -0.256857 -0.58 71 71 79
-0.101783 -0.258629 -0.584 110 110 120
-0.0997943 -0.262171 -0.592 104 103 111
-0.0986924 -0.265271 -0.599 99 99 107
-0.0950667 -0.274571 -0.62 86 86 94
-0.09434 -0.2759 -0.623 83 83 91
-0.0928524 -0.278557 -0.629 72 75 80
-0.0906 -0.279 -0.63 61 64 69
-0.0799267 -0.279443 -0.631 49 48 56
-0.0752381 -0.279886 -0.632 53 52 60
0.121727 -0.260843 -0.589 195 143 132
0.13338 -0.2511 -0.567 183 121 110
0.135062 -0.250214 -0.565 192 132 121
0.150937 -0.249771 -0.564 203 145 133
0.152011 -0.249771 -0.564 200 142 130
0.156309 -0.249771 -0.564 180 121 113
0.166566 -0.250657 -0.566 169 115 103
0.17876 -0.2542 -0.574 166 109 100
0.183626 -0.256414 -0.579 146 94 96
0.243395 -0.286529 -0.647 173 118 123
0.248557 -0.281214 -0.635 150 99 106
0.250947 -0.282543 -0.638 150 99 106
-0.111167 -0.255738 -0.575 107 107 115
-0.107693 -0.255293 -0.574 107 110 119
-0.09522 -0.276197 -0.621 88 88 96
-0.0946429 -0.277976 -0.625 83 83 91
-0.0907438 -0.280645 -0.631 60 63 68
-0.0895419 -0.280645 -0.631 52 55 60
-0.0859362 -0.280645 -0.631 47 46 54
-0.0823305 -0.280645 -0.631 47 46 54
-0.0787248 -0.280645 -0.631 49 48 56
0.121313 -0.261075 -0.587 197 143 133
0.133145 -0.251735 -0.566 186 126 116
0.147714 -0.250846 -0.564 204 146 135
0.249767 -0.282424 -0.635 150 100 111
-0.105141 -0.258173 -0.578 77 77 85
-0.0960924 -0.276487 -0.619 86 86 94
-0.0823305 -0.281847 -0.631 46 45 51
-0.0752381 -0.282293 -0.632 49 48 56
0.121048 -0.276933 -0.62 197 143 131
0.120026 -0.26934 -0.603 199 146 138
0.121107 -0.261747 -0.586 198 144 134
0.122969 -0.25862 -0.579 194 140 130
0.127795 -0.255047 -0.571 193 135 124
0.133986 -0.252367 -0.565 191 133 122
0.13912 -0.25192 -0.564 196 140 127
0.145566 -0.25192 -0.564 200 144 131
0.147714 -0.25192 -0.564 203 145 134
0.157104 -0.251473 -0.563 182 122 114
0.158176 -0.251473 -0.563 181 121 113
0.161393 -0.251473 -0.563 187 127 119
0.246209 -0.280953 -0.629 142 94 106
-0.08848 -0.283497 -0.632 52 53 57
-0.0787248 -0.283049 -0.631 49 48 56
-0.0775229 -0.283049 -0.631 48 47 55
0.119863 -0.272731 -0.608 187 135 121
0.122076 -0.260171 -0.58 192 138 128
0.122756 -0.259274 -0.578 194 140 130
0.125187 -0.25748 -0.574 196 142 132
0.128431 -0.255237 -0.569 196 138 127
0.13037 -0.254789 -0.568 188 131 122
0.133986 -0.253443 -0.565 192 135 124
0.142343 -0.252994 -0.564 202 145 134
0.145308 -0.252546 -0.563 198 142 129
0.153887 -0.252546 -0.563 181 121 111
0.164903 -0.252994 -0.564 174 114 106
0.177667 -0.25748 -0.574 158 106 95
0.190809 -0.265106 -0.591 122 78 93
0.238696 -0.287534 -0.641 181 127 127
0.23631 -0.280357 -0.625 173 122 119
0.243063 -0.279909 -0.624 136 95 109
-0.131969 -0.282449 -0.627 99 99 109
-0.127307 -0.277493 -0.616 97 100 109
-0.121714 -0.270286 -0.6 103 106 115
-0.10988 -0.258573 -0.574 112 112 122
-0.100922 -0.266682 -0.592 121 120 126
-0.08848 -0.284701 -0.632 58 59 64
-0.0798 -0.2838 -0.63 54 53 61
-0.0740343 -0.284701 -0.632 49 48 56
0.119074 -0.272088 -0.604 185 131 119
0.120487 -0.262628 -0.583 197 143 133
0.123643 -0.259925 -0.577 190 133 124
0.128431 -0.256321 -0.569 192 135 124
0.14638 -0.253618 -0.563 202 144 133
0.147452 -0.253618 -0.563 207 147 136
0.177667 -0.258573 -0.574 152 101 100
0.184577 -0.262177 -0.582 129 86 93
0.23484 -0.278394 -0.618 172 123 127
0.25298 -0.286953 -0.637 210 188 201
0.258614 -0.290557 -0.645 210 206 239
-0.0995162 -0.273238 -0.604 107 108 112
0.1189 -0.2755 -0.609 185 129 116
0.119581 -0.26419 -0.584 195 141 131
0.122119 -0.260119 -0.575 186 129 118
0.12562 -0.25831 -0.571 185 128 117
0.134823 -0.255143 -0.564 189 133 120
0.137801 -0.25469 -0.563 198 140 126
0.138873 -0.25469 -0.563 198 140 128
0.14209 -0.25469 -0.563 198 140 128
0.145308 -0.25469 -0.563 196 138 126
0.14638 -0.25469 -0.563 200 142 130
0.152814 -0.25469 -0.563 188 128 117
0.154684 -0.254238 -0.562 176 116 106
0.177667 -0.259667 -0.574 152 101 100
0.179383 -0.260571 -0.576 146 95 94
0.18142 -0.261929 -0.579 146 91 94
0.184894 -0.263738 -0.583 131 81 90
0.236133 -0.291333 -0.644 167 114 122
0.232486 -0.279571 -0.618 181 129 131
0.241505 -0.280476 -0.62 142 98 113
-0.10458 -0.26394 -0.581 67 66 72
0.118119 -0.274843 -0.605 187 131 118
0.120073 -0.26394 -0.581 192 138 126
0.122331 -0.261669 -0.576 185 131 119
0.12906 -0.25758 -0.567 187 129 117
0.141018 -0.255763 -0.563 196 138 126
0.145308 -0.255763 -0.563 193 135 123
0.153613 -0.255309 -0.562 175 115 107
0.167644 -0.257126 -0.566 162 103 97
0.176266 -0.260306 -0.573 161 103 102
0.183469 -0.264394 -0.582 139 87 89
0.231309 -0.280749 -0.618 174 121 127
0.230981 -0.278931 -0.614 179 127 129
0.25539 -0.290743 -0.64 168 165 194
-0.108976 -0.26231 -0.575 98 96 107
-0.101877 -0.269609 -0.591 205 204 209
0.117933 -0.278276 -0.61 188 135 127
0.127124 -0.259116 -0.568 186 128 117
0.136729 -0.256835 -0.563 193 135 123
0.137801 -0.256835 -0.563 195 137 125
0.148525 -0.256835 -0.563 179 119 109
0.153613 -0.256379 -0.562 175 115 107
0.16902 -0.25866 -0.567 161 102 96
0.173171 -0.260029 -0.57 164 103 100
0.179694 -0.263222 -0.577 145 96 92
0.181733 -0.26459 -0.58 147 97 98
0.209732 -0.287856 -0.631 197 202 232
0.229852 -0.278732 -0.611 185 133 135
0.238386 -0.280557 -0.615 141 94 104
0.243469 -0.28375 -0.622 127 93 107
-0.10476 -0.266611 -0.582 72 71 77
-0.103248 -0.268444 -0.586 181 180 186
0.117729 -0.281729 -0.615 189 136 130
0.116906 -0.27165 -0.593 185 132 124
0.11966 -0.265237 -0.579 185 131 121
0.134584 -0.257908 -0.563 193 135 124
0.137556 -0.25745 -0.562 195 137 126
0.140768 -0.25745 -0.562 199 141 130
0.14719 -0.25745 -0.562 186 123 116
0.152543 -0.25745 -0.562 175 112 105
0.167644 -0.259282 -0.566 162 101 96
0.1701 -0.25974 -0.567 162 101 96
0.174563 -0.261572 -0.571 161 101 101
0.176573 -0.262947 -0.574 159 99 99
-0.131548 -0.2875 -0.625 89 89 99
-0.129731 -0.28612 -0.622 88 88 98
-0.12212 -0.27692 -0.602 88 88 96
-0.105687 -0.26726 -0.581 76 75 81
-0.101143 -0.276 -0.6 212 209 216
-0.100175 -0.27968 -0.608 186 188 185
-0.0979 -0.28658 -0.623 163 165 162
-0.097179 -0.28796 -0.626 158 160 157
-0.0784752 -0.28934 -0.629 35 34 42
0.124096 -0.26174 -0.569 188 131 122
0.127124 -0.26128 -0.568 187 129 118
0.132674 -0.25944 -0.564 185 127 116
0.133511 -0.25898 -0.563 189 131 120
0.140768 -0.25852 -0.562 197 139 128
0.143979 -0.25852 -0.562 188 130 119
0.151472 -0.25852 -0.562 171 108 103
0.158966 -0.25852 -0.562 178 115 110
0.160036 -0.25852 -0.562 175 111 109
0.161393 -0.25898 -0.563 172 108 106
0.166271 -0.2599 -0.565 164 100 100
0.182047 -0.26726 -0.581 133 91 92
0.194683 -0.27738 -0.603 175 166 193
0.227595 -0.2783 -0.605 193 142 141
0.23761 -0.28198 -0.613 143 97 100
-0.117637 -0.272986 -0.591 87 85 96
-0.1036 -0.2716 -0.588 151 149 160
-0.102567 -0.274833 -0.595 225 224 232
-0.101945 -0.276219 -0.598 223 222 230
0.120346 -0.266519 -0.577 190 133 124
0.121024 -0.265595 -0.575 191 134 125
0.134584 -0.260052 -0.563 191 133 122
0.140768 -0.25959 -0.562 195 135 125
0.163829 -0.260514 -0.564 165 100 98
0.171784 -0.262824 -0.569 166 101 97
0.22914 -0.278529 -0.603 184 128 127
0.239168 -0.28361 -0.614 141 92 95
0.248605 -0.290538 -0.629 171 155 168
-0.11252 -0.269937 -0.582 85 85 97
-0.110837 -0.268546 -0.579 85 85 93
-0.107714 -0.26901 -0.58 81 80 86
-0.10605 -0.270401 -0.583 76 75 81
-0.103776 -0.273184 -0.589 139 136 147
-0.102739 -0.27643 -0.596 223 220 229
0.116903 -0.294983 -0.636 186 139 133
0.119247 -0.267618 -0.577 190 133 124
0.1269 -0.26298 -0.567 187 130 119
0.132439 -0.261125 -0.563 186 128 116
0.139697 -0.260661 -0.562 186 126 116
0.141838 -0.260661 -0.562 190 130 120
0.14505 -0.260661 -0.562 173 113 105
0.14612 -0.260661 -0.562 168 108 100
0.14719 -0.260661 -0.562 164 103 98
0.150402 -0.260661 -0.562 167 104 99
0.154409 -0.260197 -0.561 169 106 101
0.160036 -0.260661 -0.562 165 99 100
0.163538 -0.261125 -0.563 161 96 94
0.176573 -0.266227 -0.574 159 98 97
0.186797 -0.273184 -0.589 123 100 118
0.22907 -0.291272 -0.628 177 113 113
-0.122729 -0.281757 -0.605 81 79 90
-0.112713 -0.271511 -0.583 82 82 94
-0.106232 -0.271977 -0.584 75 74 80
-0.102911 -0.278031 -0.597 225 222 231
-0.101649 -0.280826 -0.603 230 228 233
-0.0979 -0.29014 -0.623 179 181 180
0.115033 -0.2771 -0.595 184 135 130
0.122357 -0.265923 -0.571 188 131 122
0.128605 -0.263129 -0.565 186 129 120
0.150402 -0.261731 -0.562 163 102 97
0.158966 -0.261731 -0.562 170 104 105
0.1701 -0.26406 -0.567 158 99 95
0.224571 -0.279429 -0.6 202 139 134
0.244653 -0.289674 -0.622 127 91 95
-0.122931 -0.283377 -0.606 78 78 86
-0.118632 -0.278701 -0.596 78 78 86
-0.108271 -0.272622 -0.583 75 76 81
-0.10566 -0.274492 -0.587 65 63 74
-0.0816781 -0.29273 -0.626 35 35 43
0.115041 -0.283845 -0.607 187 130 119
0.115049 -0.281039 -0.601 184 133 129
0.117454 -0.270751 -0.579 183 131 120
