ply
format ascii 1.0
comment Created by Open3D
element vertex 1290
property double x
property double y
property double z
property uchar red
property uchar green
property uchar blue
end_header
-0.314554 -0.206741 -0.622 138 140 135
-0.281214 -0.211062 -0.635 252 253 248
-0.279673 -0.211727 -0.637 252 253 248
-0.276114 -0.212724 -0.64 252 253 247
-0.275754 -0.213389 -0.642 252 253 247
-0.175431 -0.210397 -0.633 183 183 173
-0.173675 -0.209732 -0.631 183 183 173
-0.171653 -0.208735 -0.628 183 183 171
-0.156633 -0.211062 -0.635 186 186 174
-0.153728 -0.212059 -0.638 188 186 173
-0.0560733 -0.21505 -0.647 69 68 74
-0.0546714 -0.214386 -0.645 67 66 72
-0.0467867 -0.212059 -0.638 75 72 79
-0.043479 -0.213721 -0.643 80 77 84
-0.336852 -0.212271 -0.635 251 252 246
-0.326786 -0.208929 -0.625 251 252 244
-0.314049 -0.207591 -0.621 136 138 133
-0.174877 -0.210934 -0.631 183 183 171
-0.173125 -0.210266 -0.629 184 184 172
-0.168452 -0.208929 -0.625 187 185 173
-0.166994 -0.208594 -0.624 187 185 173
-0.14278 -0.216951 -0.649 181 179 164
-0.339127 -0.214153 -0.637 252 253 247
-0.336322 -0.213145 -0.634 252 253 247
-0.320629 -0.208438 -0.62 207 210 203
-0.319448 -0.208438 -0.62 159 162 155
-0.318267 -0.208438 -0.62 143 146 139
-0.283946 -0.212809 -0.633 253 252 248
-0.28274 -0.212809 -0.633 250 251 246
-0.280446 -0.213817 -0.636 251 252 247
-0.165806 -0.209783 -0.624 187 184 175
-0.164881 -0.210119 -0.625 187 184 175
-0.16302 -0.210791 -0.627 188 185 176
-0.159505 -0.212472 -0.632 187 187 175
-0.148043 -0.216843 -0.645 187 185 172
-0.14278 -0.218188 -0.649 181 179 164
-0.05704 -0.216507 -0.644 67 66 72
-0.0541629 -0.214826 -0.639 67 67 75
-0.0489857 -0.213481 -0.635 70 69 74
-0.341409 -0.216043 -0.639 252 253 247
-0.329693 -0.211648 -0.626 252 253 247
-0.318267 -0.209619 -0.62 142 147 140
-0.280446 -0.215029 -0.636 251 252 247
-0.276114 -0.216381 -0.64 251 252 246
-0.147042 -0.21841 -0.646 184 182 169
-0.0582667 -0.217733 -0.644 68 66 71
-0.0513238 -0.214352 -0.634 74 71 82
-0.0457143 -0.216381 -0.64 76 75 81
-0.0446343 -0.217057 -0.642 77 76 82
-0.0435467 -0.217733 -0.644 79 78 84
-0.33473 -0.21454 -0.631 252 253 247
-0.325217 -0.21148 -0.622 252 253 247
-0.323511 -0.21114 -0.621 252 253 247
-0.276114 -0.2176 -0.64 251 252 246
-0.169914 -0.21284 -0.626 188 188 178
-0.150267 -0.21896 -0.644 185 186 172
-0.05642 -0.21658 -0.637 68 67 73
-0.280446 -0.217451 -0.636 252 253 247
-0.169914 -0.214032 -0.626 187 187 177
-0.166994 -0.213349 -0.624 187 187 175
-0.162342 -0.215058 -0.629 189 187 175
-0.146037 -0.221212 -0.647 180 180 168
-0.33473 -0.216944 -0.631 252 253 247
-0.315395 -0.212818 -0.619 127 132 126
-0.169914 -0.215225 -0.626 187 187 177
-0.16001 -0.217975 -0.634 188 188 176
-0.156158 -0.21935 -0.638 190 188 175
-0.14904 -0.221413 -0.644 184 185 169
-0.329167 -0.216071 -0.625 252 253 248
-0.283946 -0.218837 -0.633 255 255 251
-0.283187 -0.219183 -0.634 252 253 248
-0.280005 -0.219529 -0.635 252 255 248
-0.275754 -0.221949 -0.642 251 252 247
-0.160963 -0.218837 -0.633 190 187 178
-0.158091 -0.219874 -0.636 189 187 175
-0.15323 -0.221603 -0.641 190 188 175
-0.148043 -0.222986 -0.645 184 182 169
-0.0660343 -0.224023 -0.648 70 69 75
-0.0587543 -0.219874 -0.636 64 63 69
-0.0436143 -0.222986 -0.645 80 77 86
-0.33753 -0.22039 -0.634 252 253 247
-0.32181 -0.215524 -0.62 251 255 250
-0.320111 -0.215176 -0.619 243 250 242
-0.277682 -0.221781 -0.638 251 254 247
-0.176079 -0.219348 -0.631 186 186 176
-0.16328 -0.218305 -0.628 186 186 176
-0.155186 -0.222129 -0.639 192 189 180
-0.150267 -0.223867 -0.644 188 186 174
-0.0660343 -0.225257 -0.648 70 69 75
-0.0584771 -0.220043 -0.633 68 67 73
-0.0545133 -0.218652 -0.629 70 67 74
-0.047701 -0.22039 -0.634 76 73 80
-0.352238 -0.22719 -0.65 252 253 247
-0.34992 -0.226491 -0.648 252 253 247
-0.33473 -0.22055 -0.631 252 253 248
-0.327451 -0.218103 -0.624 252 253 248
-0.32574 -0.217753 -0.623 252 253 248
-0.314216 -0.216355 -0.619 136 138 133
-0.283946 -0.221249 -0.633 255 255 251
-0.1746 -0.2202 -0.63 188 188 178
-0.17285 -0.219501 -0.628 186 186 176
-0.167262 -0.218452 -0.625 187 187 177
-0.161217 -0.221598 -0.634 190 187 178
-0.156403 -0.223346 -0.639 191 188 179
-0.15445 -0.224045 -0.641 190 188 176
-0.152483 -0.224744 -0.643 190 188 176
-0.144805 -0.226142 -0.647 183 181 169
-0.0639 -0.223346 -0.639 70 69 77
-0.0594943 -0.22055 -0.631 67 66 74
-0.0435467 -0.225093 -0.644 77 74 81
-0.34477 -0.225969 -0.643 252 253 245
-0.340874 -0.224211 -0.638 251 252 244
-0.315395 -0.217534 -0.619 169 174 167
-0.312362 -0.217886 -0.62 125 130 124
-0.277682 -0.224211 -0.638 252 253 247
-0.276289 -0.228077 -0.649 250 251 245
-0.174877 -0.221751 -0.631 186 188 177
-0.169914 -0.219994 -0.626 187 187 177
-0.146037 -0.227374 -0.647 182 180 168
-0.0499581 -0.222103 -0.632 74 73 81
-0.0488314 -0.222454 -0.633 74 73 81
-0.0477762 -0.223157 -0.635 75 72 79
-0.0456429 -0.224563 -0.639 76 73 80
-0.312362 -0.219067 -0.62 142 147 141
-0.280446 -0.22472 -0.636 254 255 249
-0.276714 -0.229667 -0.65 252 253 247
-0.166337 -0.221187 -0.626 192 190 175
-0.162169 -0.22366 -0.633 191 189 176
-0.148272 -0.228253 -0.646 184 182 169
-0.144805 -0.228607 -0.647 184 182 169
-0.140524 -0.229667 -0.65 194 192 179
-0.0724286 -0.229667 -0.65 73 73 75
-0.0645057 -0.22366 -0.633 70 68 81
-0.0617019 -0.222247 -0.629 62 60 71
-0.0591171 -0.22154 -0.627 63 61 72
-0.0413486 -0.22896 -0.648 78 77 85
-0.283633 -0.225576 -0.635 253 254 249
-0.280112 -0.226642 -0.638 254 255 249
-0.1734 -0.2238 -0.63 184 184 172
-0.148272 -0.229484 -0.646 185 183 170
-0.315395 -0.221071 -0.619 251 252 247
-0.2886 -0.225 -0.63 150 149 147
-0.287856 -0.225357 -0.631 191 190 186
-0.284394 -0.226429 -0.634 255 255 251
-0.283633 -0.226786 -0.635 253 254 249
-0.279771 -0.228571 -0.64 252 253 247
-0.178032 -0.227857 -0.638 188 188 180
-0.159553 -0.2275 -0.637 194 192 179
-0.15762 -0.228214 -0.639 192 190 177
-0.155671 -0.228929 -0.641 192 190 177
-0.152483 -0.229643 -0.643 188 186 173
-0.147042 -0.230714 -0.646 184 182 169
-0.146037 -0.231071 -0.647 183 179 168
-0.140308 -0.231786 -0.649 203 199 188
-0.0588343 -0.222857 -0.624 68 68 78
-0.0552686 -0.222857 -0.624 70 70 80
-0.0531457 -0.223929 -0.627 69 69 79
-0.0521171 -0.224643 -0.629 69 69 81
-0.0467867 -0.227857 -0.638 73 73 83
-0.0445648 -0.228929 -0.641 72 72 82
-0.0401143 -0.231429 -0.648 78 76 87
-0.343011 -0.230509 -0.642 251 252 246
-0.337913 -0.228713 -0.637 253 254 248
-0.321146 -0.222969 -0.621 253 255 249
-0.314216 -0.22225 -0.619 252 253 248
-0.305769 -0.222969 -0.621 168 170 165
-0.173675 -0.226559 -0.631 188 188 176
-0.150267 -0.231227 -0.644 189 187 174
-0.140308 -0.233022 -0.649 204 200 188
-0.315905 -0.22379 -0.62 251 252 247
-0.31 -0.22379 -0.62 254 255 250
-0.308819 -0.22379 -0.62 254 255 250
-0.305076 -0.224512 -0.622 223 224 219
-0.28408 -0.229566 -0.636 254 255 250
-0.279858 -0.232092 -0.643 252 255 248
-0.162858 -0.227761 -0.631 194 191 182
-0.162169 -0.228483 -0.633 193 191 178
-0.151493 -0.232453 -0.644 190 188 175
-0.14234 -0.233536 -0.647 207 204 189
-0.138048 -0.234619 -0.65 206 203 188
-0.073061 -0.228844 -0.634 67 65 78
-0.0647771 -0.225234 -0.624 68 66 79
-0.0576457 -0.225234 -0.624 68 68 80
-0.0479267 -0.229927 -0.637 73 73 85
-0.0467867 -0.230288 -0.638 73 73 85
-0.331125 -0.228963 -0.631 252 253 248
-0.319963 -0.225334 -0.621 252 255 246
-0.290538 -0.228237 -0.629 245 246 241
-0.170729 -0.228237 -0.629 188 188 176
-0.159553 -0.23114 -0.637 195 193 180
-0.15762 -0.231866 -0.639 195 193 180
-0.155671 -0.232591 -0.641 194 192 179
-0.148043 -0.234043 -0.645 187 185 172
-0.138048 -0.235857 -0.65 208 205 190
-0.0709467 -0.227149 -0.626 68 68 78
-0.05434 -0.227511 -0.627 68 68 80
-0.0489857 -0.230414 -0.635 70 72 85
-0.041221 -0.234406 -0.646 77 75 86
-0.320478 -0.226882 -0.622 254 255 248
-0.313543 -0.226152 -0.62 253 254 248
-0.3105 -0.226517 -0.621 255 255 251
-0.307446 -0.226882 -0.622 254 255 249
-0.295586 -0.228706 -0.627 255 255 250
-0.294391 -0.228706 -0.627 255 255 250
-0.291736 -0.229435 -0.629 253 255 249
-0.289058 -0.230165 -0.631 201 201 199
-0.283758 -0.232718 -0.638 250 250 248
-0.282308 -0.234542 -0.643 252 254 251
-0.177371 -0.233448 -0.64 202 203 195
-0.159303 -0.231989 -0.636 195 193 181
-0.14234 -0.236001 -0.647 213 210 195
-0.0668314 -0.226517 -0.621 65 68 75
-0.0533152 -0.229435 -0.629 70 70 82
-0.0489857 -0.231624 -0.635 69 71 83
-0.0445648 -0.233812 -0.641 73 73 85
-0.041221 -0.235636 -0.646 77 75 86
-0.321509 -0.2288 -0.624 252 253 247
-0.319293 -0.228067 -0.622 252 253 247
-0.316414 -0.2277 -0.621 251 252 246
-0.314049 -0.2277 -0.621 251 252 246
-0.3105 -0.2277 -0.621 252 253 248
-0.299405 -0.229167 -0.625 251 252 247
-0.291 -0.231 -0.63 251 252 247
-0.289058 -0.231367 -0.631 250 252 247
-0.284973 -0.233933 -0.638 205 206 201
-0.282747 -0.236133 -0.644 249 251 246
-0.157373 -0.233933 -0.638 196 194 182
-0.156403 -0.2343 -0.639 195 193 181
-0.153469 -0.2354 -0.642 192 190 178
-0.140091 -0.2376 -0.648 217 214 199
-0.135571 -0.238333 -0.65 217 211 197
-0.134333 -0.238333 -0.65 218 212 196
-0.085121 -0.235767 -0.643 162 160 161
-0.0835048 -0.234667 -0.64 102 100 101
-0.0715629 -0.2277 -0.621 67 69 82
-0.07038 -0.2277 -0.621 65 67 79
-0.060819 -0.227333 -0.62 68 68 78
-0.0544267 -0.230267 -0.628 69 69 79
-0.0422543 -0.235767 -0.643 76 74 87
-0.311 -0.229251 -0.622 252 253 247
-0.300595 -0.230357 -0.625 252 253 248
-0.294861 -0.231463 -0.628 252 253 248
-0.288017 -0.233674 -0.634 227 229 224
-0.284648 -0.235886 -0.64 188 188 186
-0.15323 -0.236254 -0.641 192 192 180
-0.137835 -0.239203 -0.649 216 210 194
-0.0933324 -0.239203 -0.649 248 244 232
-0.0798 -0.2322 -0.63 64 63 71
-0.0738095 -0.228514 -0.62 71 70 84
-0.0619 -0.228146 -0.619 68 68 78
-0.0422543 -0.236991 -0.643 76 74 87
-0.0410933 -0.23736 -0.644 78 76 87
-0.341457 -0.239328 -0.646 252 253 247
-0.339173 -0.238587 -0.644 252 253 248
-0.336897 -0.237846 -0.642 252 253 248
-0.331326 -0.235623 -0.636 251 252 246
-0.3246 -0.2334 -0.63 252 253 247
-0.318452 -0.231548 -0.625 252 253 247
-0.3115 -0.230807 -0.623 252 253 247
-0.297974 -0.232289 -0.627 252 253 248
-0.29678 -0.232289 -0.627 252 253 248
-0.16753 -0.231918 -0.626 191 191 181
-0.165145 -0.231918 -0.626 191 192 178
-0.163952 -0.231918 -0.626 191 189 174
-0.16276 -0.231918 -0.626 190 188 173
-0.15688 -0.235623 -0.636 197 195 183
-0.155913 -0.235993 -0.637 194 194 182
-0.152009 -0.237475 -0.641 193 191 178
-0.151023 -0.237846 -0.642 192 190 177
-0.147813 -0.238587 -0.644 196 197 183
-0.137623 -0.240069 -0.648 218 212 196
-0.0722771 -0.228584 -0.617 71 69 82
-0.0597343 -0.230066 -0.621 68 68 80
-0.0534 -0.2334 -0.63 70 70 82
-0.0456429 -0.236734 -0.639 74 72 83
-0.316071 -0.232738 -0.625 253 254 248
-0.307246 -0.232366 -0.624 253 254 249
-0.293866 -0.234972 -0.631 253 254 249
-0.289681 -0.236462 -0.635 253 255 250
-0.16276 -0.23311 -0.626 193 194 180
-0.15299 -0.238324 -0.64 193 193 181
-0.150788 -0.238696 -0.641 194 192 179
-0.144357 -0.240186 -0.645 219 213 197
-0.143129 -0.240186 -0.645 220 214 198
-0.131857 -0.242048 -0.65 225 220 201
-0.130619 -0.242048 -0.65 227 222 203
-0.0876905 -0.236462 -0.635 84 82 83
-0.0685286 -0.229014 -0.615 69 67 80
-0.0661857 -0.229014 -0.615 69 67 78
-0.0490629 -0.236834 -0.636 71 71 83
-0.331671 -0.239169 -0.639 253 254 248
-0.308929 -0.233929 -0.625 253 254 249
-0.307738 -0.233929 -0.625 253 254 249
-0.303946 -0.234677 -0.627 252 253 248
-0.302751 -0.234677 -0.627 252 253 248
-0.299646 -0.235051 -0.628 252 253 248
-0.29164 -0.237297 -0.634 254 255 251
-0.290137 -0.238046 -0.636 254 255 251
-0.17007 -0.236174 -0.631 218 218 210
-0.1625 -0.233929 -0.625 195 195 183
-0.158748 -0.235426 -0.629 199 199 187
-0.152751 -0.239169 -0.639 195 193 180
-0.145134 -0.240666 -0.643 220 215 196
-0.131654 -0.242911 -0.649 226 221 201
-0.0931114 -0.239169 -0.639 175 176 171
-0.062 -0.232057 -0.62 68 68 78
-0.0546 -0.2358 -0.63 70 70 80
-0.323038 -0.238505 -0.634 252 253 248
-0.312804 -0.236248 -0.628 253 254 249
-0.299875 -0.237376 -0.631 253 253 251
-0.29302 -0.239633 -0.637 254 255 251
-0.170339 -0.237752 -0.632 239 238 234
-0.167797 -0.235871 -0.627 226 225 221
-0.164617 -0.234743 -0.624 199 198 193
-0.16224 -0.234743 -0.624 197 194 187
-0.1566 -0.237 -0.63 200 198 186
-0.154934 -0.238129 -0.633 200 198 185
-0.153971 -0.238505 -0.634 200 198 185
-0.149333 -0.240762 -0.64 194 192 179
-0.14391 -0.24189 -0.643 221 218 199
-0.132686 -0.243771 -0.648 223 221 198
-0.121765 -0.244148 -0.649 233 230 211
-0.106601 -0.243395 -0.647 248 245 228
-0.102586 -0.242643 -0.645 250 244 228
-0.0969143 -0.240762 -0.64 208 209 204
-0.0952467 -0.239633 -0.637 178 179 174
-0.0922371 -0.238129 -0.633 90 91 93
-0.0789429 -0.230981 -0.614 69 67 80
-0.063079 -0.232862 -0.619 69 69 79
-0.0621 -0.233614 -0.621 69 69 79
-0.338811 -0.245006 -0.648 253 254 249
-0.332523 -0.243115 -0.643 253 254 249
-0.313096 -0.238578 -0.631 252 253 248
-0.300826 -0.239334 -0.633 253 253 251
-0.298886 -0.239712 -0.634 253 253 251
-0.291651 -0.242737 -0.642 252 254 251
-0.289777 -0.24425 -0.646 248 250 247
-0.177393 -0.245384 -0.649 233 234 229
-0.160793 -0.235553 -0.623 195 195 187
-0.154445 -0.238578 -0.631 200 198 185
-0.143686 -0.242737 -0.642 222 219 200
-0.139443 -0.243871 -0.645 223 220 201
-0.137198 -0.24425 -0.646 221 218 199
-0.118056 -0.245384 -0.649 236 233 214
-0.106107 -0.243493 -0.644 251 246 227
-0.0991971 -0.241603 -0.639 202 201 197
-0.0946486 -0.239334 -0.633 91 90 95
-0.0897371 -0.235931 -0.624 74 74 84
-0.0715743 -0.231016 -0.611 70 69 77
-0.0662933 -0.232907 -0.616 71 70 78
-0.0578305 -0.236688 -0.626 69 69 79
-0.0365238 -0.245762 -0.65 79 78 86
-0.306131 -0.24092 -0.634 253 254 249
-0.3003 -0.24206 -0.637 252 252 250
-0.296838 -0.2432 -0.64 253 253 251
-0.29486 -0.24358 -0.641 254 255 253
-0.152282 -0.24016 -0.632 200 198 185
-0.145221 -0.24244 -0.638 222 219 204
-0.143238 -0.2432 -0.64 223 220 203
-0.130843 -0.2451 -0.645 227 224 205
-0.122243 -0.2451 -0.645 234 231 214
-0.120827 -0.24472 -0.644 235 232 217
-0.113819 -0.24548 -0.646 240 237 222
-0.08624 -0.23408 -0.616 62 67 71
-0.07598 -0.23142 -0.609 70 68 79
-0.07482 -0.23142 -0.609 71 69 80
-0.073781 -0.2318 -0.61 71 69 80
-0.0727381 -0.23218 -0.611 71 69 80
-0.0684171 -0.23332 -0.614 71 70 78
-0.0632829 -0.23598 -0.621 71 71 81
-0.0611133 -0.23674 -0.623 70 70 80
-0.056819 -0.23864 -0.628 69 69 79
-0.0479267 -0.24206 -0.637 74 73 81
-0.324163 -0.244801 -0.641 253 254 249
-0.30952 -0.242891 -0.636 253 253 251
-0.305153 -0.243273 -0.637 253 253 251
-0.171276 -0.244419 -0.64 233 235 232
-0.156047 -0.237927 -0.623 200 200 188
-0.145748 -0.24251 -0.635 219 216 201
-0.14378 -0.243273 -0.637 223 220 203
-0.14058 -0.244037 -0.639 225 222 205
-0.13268 -0.245183 -0.642 225 222 207
-0.12412 -0.245183 -0.642 232 229 212
-0.117147 -0.245947 -0.644 237 234 219
-0.109105 -0.244419 -0.64 244 241 234
-0.0900514 -0.236017 -0.618 68 66 77
-0.0869876 -0.234108 -0.613 66 66 76
-0.0845143 -0.233726 -0.612 62 65 72
-0.0783 -0.23258 -0.609 72 71 79
-0.0643619 -0.236781 -0.62 71 71 79
-0.0612114 -0.238309 -0.624 71 71 79
-0.0501952 -0.24251 -0.635 72 72 80
-0.0433438 -0.244801 -0.641 74 72 83
-0.0421886 -0.245183 -0.642 75 73 84
-0.0399286 -0.246329 -0.645 74 73 81
-0.317066 -0.245254 -0.639 253 254 249
-0.315849 -0.245254 -0.639 253 254 249
-0.305371 -0.245638 -0.64 253 254 249
-0.304152 -0.245638 -0.64 250 250 248
-0.303407 -0.246022 -0.641 251 251 249
-0.297929 -0.247557 -0.645 254 254 252
-0.29716 -0.247941 -0.646 255 255 253
-0.170057 -0.245638 -0.64 219 219 221
-0.142119 -0.243719 -0.635 233 228 209
-0.134494 -0.245254 -0.639 239 236 221
-0.0980571 -0.239497 -0.624 68 67 73
-0.0919571 -0.236043 -0.615 72 72 80
-0.0816457 -0.233356 -0.608 74 72 83
-0.0781714 -0.233356 -0.608 72 71 79
-0.0655429 -0.237962 -0.62 71 71 79
-0.0633848 -0.23873 -0.622 70 70 78
-0.0456429 -0.245254 -0.639 73 71 82
-0.0410933 -0.247173 -0.644 73 72 80
-0.0376457 -0.248709 -0.648 77 76 84
-0.3215 -0.248014 -0.643 253 254 249
-0.313174 -0.247243 -0.641 253 254 249
-0.305578 -0.248014 -0.643 254 255 250
-0.298852 -0.249557 -0.647 252 253 248
-0.297304 -0.250329 -0.649 252 252 250
-0.151997 -0.239529 -0.621 222 221 216
-0.151057 -0.239914 -0.622 218 217 212
-0.145569 -0.242614 -0.629 216 217 203
-0.11448 -0.245314 -0.636 247 242 236
-0.0915086 -0.236057 -0.612 74 72 83
-0.0888857 -0.235286 -0.61 76 75 83
-0.0655429 -0.239143 -0.62 72 70 81
-0.0613095 -0.241071 -0.625 72 71 79
-0.0580152 -0.242229 -0.628 71 69 80
-0.0546867 -0.243386 -0.631 71 70 78
0.196214 -0.237214 -0.615 176 126 117
0.21711 -0.244929 -0.635 149 97 99
0.221257 -0.246857 -0.64 147 101 103
-0.326691 -0.250402 -0.646 252 253 247
-0.319547 -0.249627 -0.644 253 254 249
-0.317826 -0.249239 -0.643 253 254 249
-0.3053 -0.250014 -0.645 252 253 248
-0.30255 -0.25079 -0.647 254 255 250
-0.16484 -0.24575 -0.634 183 183 185
-0.155971 -0.239549 -0.618 248 248 248
-0.14774 -0.241487 -0.623 225 225 217
-0.141974 -0.243812 -0.629 227 225 213
-0.141 -0.2442 -0.63 228 226 214
-0.134437 -0.245363 -0.633 233 231 219
-0.133231 -0.245363 -0.633 240 237 228
-0.128409 -0.245363 -0.633 247 243 234
-0.12296 -0.246526 -0.636 252 248 236
-0.102317 -0.240711 -0.621 78 76 87
-0.0966429 -0.238386 -0.615 76 75 83
-0.09384 -0.237223 -0.612 77 75 86
-0.09106 -0.23606 -0.609 76 74 85
-0.079199 -0.235285 -0.607 73 71 82
-0.0624 -0.241874 -0.624 71 72 77
-0.0569095 -0.243812 -0.629 69 69 77
-0.0399286 -0.250014 -0.645 75 75 83
0.194818 -0.235285 -0.607 173 128 125
0.203243 -0.238386 -0.615 169 120 116
0.219183 -0.24575 -0.634 152 106 109
0.22896 -0.251177 -0.648 145 105 103
-0.32177 -0.251632 -0.646 253 254 249
-0.317586 -0.251243 -0.645 253 254 249
-0.310214 -0.251243 -0.645 253 254 249
-0.300238 -0.25319 -0.65 252 252 250
-0.163632 -0.246958 -0.634 133 133 135
-0.160631 -0.244231 -0.627 154 154 156
-0.142262 -0.243452 -0.625 243 242 237
-0.102833 -0.240336 -0.617 79 77 88
-0.09454 -0.23722 -0.609 76 74 85
-0.0932267 -0.23683 -0.608 76 74 85
-0.0761048 -0.23761 -0.61 73 71 82
-0.0730952 -0.239168 -0.614 72 70 81
-0.0699267 -0.240336 -0.617 72 70 81
-0.0677952 -0.241115 -0.619 72 70 81
-0.0634867 -0.242673 -0.623 71 72 77
-0.0624 -0.243063 -0.624 71 72 77
-0.0613095 -0.243452 -0.625 71 72 77
-0.0580152 -0.244621 -0.628 71 71 79
-0.0501952 -0.247348 -0.635 69 72 79
-0.0479267 -0.248127 -0.637 71 74 81
-0.0434114 -0.250074 -0.642 73 73 83
-0.0422543 -0.250464 -0.643 74 74 84
0.191429 -0.233714 -0.6 176 128 126
0.195831 -0.234883 -0.603 174 125 121
0.210971 -0.243063 -0.624 149 102 108
0.21284 -0.243842 -0.626 148 103 108
-0.322766 -0.253646 -0.648 253 254 249
-0.319803 -0.253254 -0.647 253 254 249
-0.303952 -0.254429 -0.65 253 253 251
-0.148186 -0.240729 -0.615 218 218 220
-0.1442 -0.241903 -0.618 228 226 227
-0.143023 -0.241903 -0.618 232 230 231
-0.134687 -0.24386 -0.623 230 229 225
-0.132313 -0.24386 -0.623 227 226 222
-0.130149 -0.244251 -0.624 221 220 218
-0.106359 -0.241511 -0.617 81 81 93
-0.103671 -0.240729 -0.615 78 77 91
-0.100834 -0.239554 -0.612 78 76 87
-0.09686 -0.23838 -0.609 77 76 84
-0.0943848 -0.237989 -0.608 77 76 84
-0.0906114 -0.237206 -0.606 75 74 82
-0.0838238 -0.237597 -0.607 74 73 79
-0.0763543 -0.239554 -0.612 73 72 80
-0.0679048 -0.242686 -0.62 72 71 79
-0.0524486 -0.247774 -0.633 71 74 83
-0.0434114 -0.251297 -0.642 71 74 83
-0.0377038 -0.254037 -0.649 75 75 83
0.183341 -0.233291 -0.596 190 141 137
0.203085 -0.239163 -0.611 161 111 112
0.207093 -0.24112 -0.616 151 102 108
0.231586 -0.252471 -0.645 144 97 103
-0.31461 -0.255273 -0.649 253 254 249
-0.164218 -0.252127 -0.641 124 124 126
-0.142329 -0.2419 -0.615 198 196 201
-0.141157 -0.2419 -0.615 200 199 204
-0.140213 -0.242293 -0.616 202 201 206
-0.127771 -0.24544 -0.624 216 215 213
-0.126583 -0.24544 -0.624 210 209 207
-0.122426 -0.24426 -0.621 157 156 154
-0.108357 -0.2419 -0.615 80 80 90
-0.106837 -0.241113 -0.613 75 75 85
-0.104161 -0.240327 -0.611 79 79 89
-0.10034 -0.23954 -0.609 78 76 87
-0.0581076 -0.247407 -0.629 72 72 80
-0.04914 -0.250553 -0.637 73 76 85
-0.0422543 -0.252913 -0.643 73 76 85
0.18612 -0.23364 -0.594 187 138 134
0.1887 -0.234033 -0.595 181 132 127
0.191609 -0.23482 -0.597 173 122 118
0.202088 -0.239147 -0.608 159 104 107
0.212323 -0.24426 -0.621 143 92 99
0.228571 -0.251733 -0.64 141 90 99
0.230509 -0.25252 -0.642 147 98 102
-0.322524 -0.256905 -0.65 253 254 248
-0.162997 -0.253348 -0.641 121 122 124
-0.1428 -0.241886 -0.612 102 100 105
-0.140469 -0.241886 -0.612 105 104 109
-0.131571 -0.242676 -0.614 88 87 92
-0.128897 -0.244257 -0.618 148 148 150
-0.122812 -0.243862 -0.617 82 82 84
-0.12144 -0.243467 -0.616 71 71 73
-0.117537 -0.242676 -0.614 67 65 76
-0.113657 -0.241886 -0.612 67 65 76
-0.110962 -0.241095 -0.61 68 66 77
-0.0906114 -0.239514 -0.606 76 75 81
-0.0861362 -0.23991 -0.607 75 74 80
-0.0808848 -0.24149 -0.611 75 74 80
-0.0702667 -0.245048 -0.62 73 72 78
-0.0681238 -0.245838 -0.622 72 71 77
-0.0636905 -0.247024 -0.625 73 71 82
-0.0593057 -0.248605 -0.629 73 73 83
-0.0581076 -0.248605 -0.629 73 73 83
-0.0558886 -0.249395 -0.631 72 72 82
-0.0547733 -0.24979 -0.632 73 73 83
-0.0502743 -0.251371 -0.636 73 73 83
-0.0377038 -0.25651 -0.649 75 75 83
0.175451 -0.240305 -0.608 194 149 146
0.175448 -0.238724 -0.604 194 149 146
0.17677 -0.234376 -0.593 190 147 141
0.179331 -0.234771 -0.594 185 140 135
0.183743 -0.23319 -0.59 188 137 133
0.195347 -0.236352 -0.598 167 112 109
0.199277 -0.238329 -0.603 158 102 101
0.221751 -0.249395 -0.631 141 95 98
-0.129232 -0.243846 -0.614 77 76 82
-0.124351 -0.243449 -0.613 67 68 73
-0.120454 -0.242654 -0.611 58 58 66
-0.106595 -0.240271 -0.605 66 66 74
-0.101817 -0.239874 -0.604 71 71 79
-0.0983657 -0.239874 -0.604 78 77 85
-0.0960648 -0.239874 -0.604 77 76 84
-0.0916143 -0.240271 -0.605 76 75 81
-0.0746276 -0.245037 -0.617 74 73 81
-0.0616038 -0.249406 -0.628 73 73 83
-0.0593057 -0.249803 -0.629 73 73 81
-0.0570905 -0.250597 -0.631 72 72 80
-0.0536543 -0.251391 -0.633 73 73 83
-0.0457143 -0.254171 -0.64 70 73 80
0.173414 -0.237094 -0.597 193 148 143
0.175983 -0.237491 -0.598 192 149 143
0.190004 -0.235109 -0.592 168 113 108
0.205076 -0.242257 -0.61 136 83 89
0.225221 -0.251789 -0.634 132 79 85
0.233317 -0.255363 -0.643 140 91 94
-0.145131 -0.244217 -0.612 107 108 113
-0.14373 -0.243818 -0.611 104 105 110
-0.14094 -0.24302 -0.609 100 101 106
-0.121978 -0.242222 -0.607 63 63 73
-0.115623 -0.241025 -0.604 62 59 68
-0.110837 -0.240626 -0.603 58 57 65
-0.0927667 -0.241424 -0.605 77 76 82
-0.0917657 -0.241823 -0.606 75 74 80
-0.0865619 -0.243419 -0.61 75 74 82
-0.0833486 -0.244217 -0.612 76 75 83
-0.0780267 -0.245813 -0.616 75 74 80
-0.0758029 -0.246212 -0.617 73 72 80
-0.0582 -0.2514 -0.63 72 75 82
-0.0536543 -0.252597 -0.633 96 99 108
-0.0434114 -0.256189 -0.642 72 72 80
-0.0365238 -0.259381 -0.65 75 75 85
0.17226 -0.24302 -0.609 189 140 135
0.1761 -0.234241 -0.587 192 145 139
0.176614 -0.233443 -0.585 192 145 139
0.193233 -0.237433 -0.595 161 106 103
0.20944 -0.245813 -0.616 134 83 90
0.215726 -0.249006 -0.624 133 83 92
0.21761 -0.249804 -0.626 131 84 90
0.225221 -0.252996 -0.634 116 65 70
-0.129643 -0.242576 -0.605 68 66 77
-0.127128 -0.242175 -0.604 66 64 75
-0.12462 -0.241774 -0.603 66 65 73
-0.119429 -0.240571 -0.6 64 62 73
-0.102286 -0.240571 -0.6 76 74 85
-0.0845143 -0.245383 -0.612 76 74 85
-0.0759257 -0.247789 -0.618 75 74 82
-0.0582924 -0.253001 -0.631 77 76 84
-0.05486 -0.253803 -0.633 140 139 147
-0.0445648 -0.25701 -0.641 74 72 83
-0.0411571 -0.258614 -0.645 73 71 82
0.17192 -0.23576 -0.588 194 151 144
0.18473 -0.234958 -0.586 177 120 113
0.225576 -0.254605 -0.635 119 70 76
0.227143 -0.255006 -0.636 130 81 87
0.234907 -0.258213 -0.644 131 82 86
-0.16281 -0.261857 -0.65 135 135 133
-0.150595 -0.251786 -0.625 114 115 117
-0.144436 -0.247354 -0.614 109 110 114
-0.13244 -0.24252 -0.602 75 74 82
-0.131293 -0.24252 -0.602 73 72 80
-0.127429 -0.241714 -0.6 66 65 73
-0.115971 -0.239297 -0.594 61 61 69
-0.102286 -0.241714 -0.6 75 73 84
-0.0982029 -0.242923 -0.603 77 76 84
-0.09106 -0.24534 -0.609 76 75 83
-0.083621 -0.247354 -0.614 75 75 83
-0.0824514 -0.247354 -0.614 75 75 83
-0.0717933 -0.25098 -0.623 74 74 82
-0.0661771 -0.252189 -0.626 74 73 81
-0.0606 -0.2538 -0.63 75 74 82
-0.0570905 -0.254203 -0.631 88 87 95
0.169969 -0.237283 -0.589 196 149 141
0.175407 -0.23406 -0.581 188 140 130
0.179034 -0.234463 -0.582 188 133 128
0.197143 -0.241714 -0.6 142 92 93
0.222454 -0.255009 -0.633 129 79 82
-0.152282 -0.25581 -0.632 117 118 120
-0.145377 -0.250143 -0.618 110 111 115
-0.136106 -0.244071 -0.603 95 95 103
-0.133143 -0.242857 -0.6 82 83 88
-0.118562 -0.23881 -0.59 65 65 73
-0.116117 -0.238405 -0.589 68 68 78
-0.111819 -0.23881 -0.59 64 64 74
-0.101945 -0.242048 -0.598 72 71 79
-0.0943848 -0.246095 -0.608 78 77 85
-0.09338 -0.2465 -0.609 79 78 86
-0.0639962 -0.25419 -0.628 74 73 81
-0.053739 -0.256619 -0.634 72 71 79
-0.0445648 -0.259452 -0.641 73 71 82
0.162857 -0.242857 -0.6 186 143 134
0.164042 -0.241238 -0.596 188 144 133
0.170166 -0.235571 -0.582 196 151 145
0.205749 -0.247714 -0.612 114 69 74
0.226642 -0.258238 -0.638 116 69 77
0.228214 -0.258643 -0.639 118 71 79
0.23368 -0.260667 -0.644 124 74 77
-0.13588 -0.244813 -0.602 93 94 99
-0.128417 -0.24156 -0.594 75 76 81
-0.123057 -0.239933 -0.59 80 80 88
-0.120605 -0.239527 -0.589 81 81 89
-0.117959 -0.238713 -0.587 82 82 90
-0.116642 -0.238307 -0.586 82 82 92
-0.104657 -0.24156 -0.594 67 66 74
-0.100333 -0.244813 -0.602 73 72 80
-0.09454 -0.24766 -0.609 78 77 85
-0.0837571 -0.2501 -0.615 75 75 83
-0.0784067 -0.251727 -0.619 74 74 82
-0.0752324 -0.252947 -0.622 74 74 82
-0.05486 -0.25742 -0.633 70 69 77
-0.0445648 -0.260673 -0.641 73 71 82
0.160036 -0.243187 -0.598 194 150 141
0.162666 -0.24034 -0.591 186 139 129
0.171494 -0.23546 -0.579 193 148 142
0.1737 -0.23546 -0.579 189 139 130
0.181874 -0.237493 -0.584 176 117 109
0.232453 -0.261893 -0.644 122 76 78
-0.154932 -0.262711 -0.643 121 122 124
-0.15323 -0.261894 -0.641 119 120 122
-0.124181 -0.241057 -0.59 75 75 83
-0.12152 -0.24024 -0.588 74 74 84
-0.108448 -0.241057 -0.59 50 50 58
-0.0976981 -0.248003 -0.607 76 75 83
-0.09454 -0.24882 -0.609 77 76 84
-0.081679 -0.252089 -0.617 74 73 81
-0.0640981 -0.256991 -0.629 75 73 84
-0.05486 -0.258626 -0.633 155 153 164
-0.0503533 -0.26026 -0.637 77 75 86
-0.0480771 -0.261077 -0.639 74 72 83
-0.0377038 -0.265163 -0.649 75 73 84
0.1512 -0.264754 -0.648 197 150 140
0.157494 -0.243917 -0.597 198 152 139
0.1581 -0.2431 -0.595 199 152 142
0.159289 -0.241466 -0.591 191 144 134
0.191777 -0.242691 -0.594 151 93 91
0.20242 -0.24882 -0.609 134 87 93
0.209619 -0.253314 -0.62 117 71 81
0.229643 -0.262711 -0.643 112 69 78
0.231227 -0.26312 -0.644 115 70 75
-0.155896 -0.265578 -0.647 124 126 125
-0.130203 -0.245054 -0.597 65 65 73
-0.117356 -0.239718 -0.584 58 58 68
-0.0882991 -0.252032 -0.614 77 76 84
-0.0686714 -0.257369 -0.627 75 74 82
-0.0663886 -0.257779 -0.628 73 71 82
-0.0446343 -0.263526 -0.642 74 72 83
0.154341 -0.245465 -0.598 204 152 141
0.163795 -0.239308 -0.583 195 151 140
0.164623 -0.238897 -0.582 196 152 141
0.165162 -0.238076 -0.58 199 152 144
0.217288 -0.259421 -0.632 114 71 81
0.223695 -0.262705 -0.64 106 60 70
0.227547 -0.264347 -0.644 113 66 74
0.233897 -0.265989 -0.648 121 75 85
0.235494 -0.266399 -0.649 126 80 93
-0.130421 -0.246604 -0.598 79 79 87
-0.116045 -0.240418 -0.583 77 77 85
-0.114934 -0.240418 -0.583 80 80 88
-0.10561 -0.244542 -0.593 58 58 66
-0.102286 -0.247429 -0.6 63 63 71
-0.0948505 -0.251965 -0.611 76 75 83
-0.0894686 -0.253202 -0.614 77 76 84
-0.0742857 -0.257326 -0.624 75 73 84
-0.0732143 -0.257738 -0.625 75 73 84
-0.0720238 -0.257738 -0.625 75 73 84
-0.0675848 -0.258975 -0.628 75 73 84
-0.0618981 -0.260212 -0.631 74 72 83
-0.0595886 -0.260625 -0.632 72 70 81
0.146814 -0.265986 -0.645 193 158 156
0.159627 -0.24083 -0.584 190 140 131
0.160464 -0.240418 -0.583 198 148 139
0.161297 -0.240006 -0.582 199 151 141
0.177314 -0.239181 -0.58 180 122 111
0.1833 -0.241243 -0.585 169 110 106
0.188557 -0.243717 -0.591 158 100 99
0.192423 -0.245779 -0.596 145 89 90
0.20093 -0.250728 -0.608 132 86 89
0.20592 -0.254027 -0.616 110 67 74
0.210633 -0.256913 -0.623 108 66 76
0.22022 -0.262687 -0.637 105 63 73
-0.109014 -0.243186 -0.587 54 55 60
-0.0896143 -0.254786 -0.615 77 76 84
-0.0831229 -0.256443 -0.619 76 76 86
-0.0742857 -0.258514 -0.624 73 73 83
-0.072139 -0.259343 -0.626 75 75 85
-0.0572714 -0.262243 -0.633 76 74 85
0.149843 -0.255614 -0.617 196 151 146
0.150284 -0.254371 -0.614 197 152 147
0.151046 -0.246086 -0.594 197 151 138
0.151665 -0.245257 -0.592 193 147 134
0.16102 -0.2407 -0.581 202 152 143
0.17031 -0.238214 -0.575 190 136 124
0.171703 -0.238629 -0.576 187 133 121
0.178727 -0.2407 -0.581 176 117 109
0.185045 -0.243186 -0.587 167 108 104
0.21386 -0.260586 -0.629 102 62 73
0.219007 -0.2639 -0.637 98 58 69
0.233381 -0.269286 -0.65 120 72 86
-0.151729 -0.268443 -0.645 118 122 125
-0.139657 -0.259703 -0.624 123 124 129
-0.127286 -0.247217 -0.594 126 127 132
-0.0990171 -0.253044 -0.608 66 65 71
-0.0951609 -0.255125 -0.613 73 71 82
-0.0929771 -0.255541 -0.614 75 73 84
-0.0798429 -0.258454 -0.621 76 74 85
-0.07654 -0.259287 -0.623 75 73 84
-0.0504324 -0.26553 -0.638 73 71 82
-0.0492943 -0.265946 -0.639 74 72 83
-0.043479 -0.26761 -0.643 72 72 80
-0.03888 -0.269691 -0.648 73 72 80
0.1419 -0.268443 -0.645 215 167 163
0.1434 -0.2622 -0.63 201 153 151
0.144874 -0.260535 -0.626 202 151 148
0.152952 -0.243055 -0.584 193 143 132
0.163209 -0.240142 -0.577 195 143 132
0.164833 -0.23931 -0.575 195 143 132
0.169214 -0.23931 -0.575 194 142 131
0.209447 -0.259287 -0.623 106 66 77
-0.153906 -0.271344 -0.649 130 134 135
-0.148809 -0.268835 -0.643 111 115 118
-0.125305 -0.246676 -0.59 122 123 128
-0.115448 -0.242495 -0.58 116 117 122
-0.112327 -0.242913 -0.581 115 116 121
-0.109014 -0.245422 -0.587 60 61 65
-0.10656 -0.247512 -0.592 62 63 68
-0.0963286 -0.256292 -0.613 70 69 77
-0.0585695 -0.265072 -0.634 75 73 84
-0.0573619 -0.265072 -0.634 74 72 83
-0.0435467 -0.269253 -0.644 73 73 81
-0.0377038 -0.271344 -0.649 73 72 80
0.141297 -0.261728 -0.626 198 150 140
0.141579 -0.260055 -0.622 197 149 139
0.145102 -0.253784 -0.607 199 152 146
0.156054 -0.242077 -0.579 197 148 134
0.159088 -0.241659 -0.578 196 146 135
0.160731 -0.240823 -0.576 201 148 140
0.179034 -0.243331 -0.582 174 115 109
0.181874 -0.244168 -0.584 171 112 106
0.191288 -0.249185 -0.596 142 91 96
0.21556 -0.265072 -0.634 90 52 67
0.22719 -0.271762 -0.65 104 63 77
-0.150967 -0.27174 -0.647 119 120 122
-0.145676 -0.2688 -0.64 108 109 113
-0.141448 -0.26544 -0.632 120 121 126
-0.127714 -0.25032 -0.596 119 120 125
-0.111411 -0.24444 -0.582 98 99 103
-0.10656 -0.24864 -0.592 65 66 71
-0.102456 -0.25242 -0.601 61 60 66
-0.0983419 -0.25662 -0.611 63 62 68
-0.0941467 -0.25788 -0.614 71 70 78
-0.05512 -0.26712 -0.636 74 72 83
-0.0516476 -0.26796 -0.638 73 71 82
-0.041221 -0.27132 -0.646 73 73 81
0.138429 -0.27132 -0.646 205 167 164
0.161267 -0.24108 -0.574 201 149 138
0.162077 -0.24066 -0.573 200 148 137
0.163169 -0.24066 -0.573 199 146 138
0.16426 -0.24066 -0.573 201 148 140
0.171405 -0.2415 -0.575 180 122 118
0.205744 -0.25998 -0.619 99 59 67
0.211128 -0.26376 -0.628 91 51 62
0.214014 -0.26586 -0.633 91 51 62
0.221757 -0.2709 -0.645 91 50 64
-0.149503 -0.27255 -0.646 127 128 130
-0.121806 -0.246392 -0.584 119 120 125
-0.114146 -0.244283 -0.579 111 112 117
-0.0943 -0.259471 -0.615 68 67 75
-0.0745238 -0.264112 -0.626 75 73 84
-0.0667057 -0.266222 -0.631 74 72 83
-0.0656076 -0.266644 -0.632 75 73 84
-0.0609848 -0.267488 -0.634 75 73 84
-0.04708 -0.270863 -0.642 71 71 79
0.137357 -0.270441 -0.641 205 170 166
0.139303 -0.258206 -0.612 206 153 145
0.14859 -0.244705 -0.58 192 140 127
0.185675 -0.248502 -0.589 157 101 100
0.19193 -0.252299 -0.598 141 92 95
0.209597 -0.264534 -0.627 89 49 60
-0.148043 -0.273357 -0.645 118 119 124
-0.127929 -0.253014 -0.597 116 117 122
-0.113043 -0.245386 -0.579 109 110 115
-0.109014 -0.248776 -0.587 63 64 69
-0.105789 -0.251743 -0.594 65 66 71
-0.101817 -0.255981 -0.604 62 61 69
-0.0976552 -0.260219 -0.614 64 63 71
-0.0802286 -0.264457 -0.624 76 75 83
-0.0757162 -0.265305 -0.626 76 75 83
-0.0494486 -0.271662 -0.641 72 71 79
0.135571 -0.275476 -0.65 209 163 165
0.136178 -0.274205 -0.647 204 164 162
0.13625 -0.260219 -0.614 205 152 144
0.142557 -0.248776 -0.587 193 143 132
0.166152 -0.242419 -0.572 191 138 130
0.188066 -0.251319 -0.593 142 93 96
0.210266 -0.266576 -0.629 86 45 59
0.216381 -0.271238 -0.64 94 55 74
0.21862 -0.27251 -0.643 90 51 72
-0.107506 -0.251597 -0.591 67 68 73
-0.0944533 -0.26224 -0.616 64 63 71
-0.0735657 -0.267349 -0.628 76 75 83
-0.0634 -0.269903 -0.634 74 73 81
-0.0541629 -0.272031 -0.639 72 71 79
-0.0425171 -0.275437 -0.647 72 72 80
0.13464 -0.260537 -0.612 198 151 143
0.136571 -0.255429 -0.6 201 147 135
0.141586 -0.248191 -0.583 194 142 131
0.142451 -0.247766 -0.582 193 141 130
0.144775 -0.246063 -0.578 193 139 127
0.167242 -0.243509 -0.572 189 131 127
0.171107 -0.24436 -0.574 175 116 110
0.174199 -0.245637 -0.577 174 115 109
-0.131228 -0.259565 -0.607 113 114 118
-0.121389 -0.248874 -0.582 112 113 117
-0.118352 -0.247164 -0.578 110 111 115
-0.11595 -0.246736 -0.577 110 111 115
-0.109757 -0.250157 -0.585 66 67 72
-0.109014 -0.251012 -0.587 69 70 75
-0.107506 -0.252723 -0.591 69 70 75
-0.102154 -0.259137 -0.606 62 61 69
-0.0995057 -0.261275 -0.611 60 59 65
-0.0657114 -0.270683 -0.633 74 73 81
-0.0587543 -0.271966 -0.636 73 72 80
-0.0576333 -0.272393 -0.637 72 71 79
-0.0552933 -0.272821 -0.638 72 71 79
-0.0436819 -0.276242 -0.646 71 72 77
-0.0401762 -0.277525 -0.649 72 73 78
0.133442 -0.27111 -0.634 206 155 151
0.133173 -0.263413 -0.616 199 146 138
0.133038 -0.260848 -0.61 196 146 135
0.136108 -0.253578 -0.593 199 142 131
0.136774 -0.252723 -0.591 196 144 131
0.138085 -0.251012 -0.587 196 144 131
0.138729 -0.250157 -0.585 195 143 130
0.139365 -0.249302 -0.583 194 142 129
0.141717 -0.247591 -0.579 194 140 128
0.146469 -0.246309 -0.576 197 140 129
0.165571 -0.243743 -0.57 187 134 126
0.182497 -0.250585 -0.586 154 100 98
0.186306 -0.252723 -0.591 143 94 98
0.206878 -0.26769 -0.626 93 51 63
0.218071 -0.275814 -0.645 94 53 71
0.22066 -0.277525 -0.649 96 63 84
-0.148272 -0.277472 -0.646 116 117 121
-0.113949 -0.248265 -0.578 106 107 111
-0.110682 -0.250842 -0.584 66 67 72
-0.103138 -0.259862 -0.605 64 62 73
-0.0978143 -0.264157 -0.615 60 59 65
-0.0814171 -0.268023 -0.624 74 72 83
-0.0746429 -0.269311 -0.627 77 76 84
-0.0680152 -0.271459 -0.632 74 73 79
-0.046 -0.276613 -0.644 70 71 76
0.131676 -0.266305 -0.62 198 143 138
0.131876 -0.26201 -0.61 200 142 131
0.1365 -0.251271 -0.585 196 142 130
0.137379 -0.250842 -0.584 196 142 130
0.139511 -0.248694 -0.579 194 140 128
0.14596 -0.246547 -0.574 186 129 118
0.151457 -0.244829 -0.57 193 139 127
0.152543 -0.244829 -0.57 196 142 130
0.155253 -0.24397 -0.568 183 129 119
0.15714 -0.24354 -0.567 197 143 133
0.160663 -0.24397 -0.568 195 143 132
0.164197 -0.244399 -0.569 194 141 133
0.171107 -0.246547 -0.574 179 120 112
-0.135001 -0.267054 -0.619 110 111 115
-0.108448 -0.254543 -0.59 76 77 82
-0.103309 -0.261446 -0.606 65 64 70
-0.100834 -0.264034 -0.612 63 62 68
-0.0949133 -0.267054 -0.619 60 59 65
-0.0893057 -0.267917 -0.621 69 68 76
-0.0622905 -0.273957 -0.635 74 73 81
-0.0495257 -0.276977 -0.642 74 73 81
-0.0483781 -0.277409 -0.643 69 72 81
-0.0449124 -0.278703 -0.646 70 70 78
0.133171 -0.254543 -0.59 195 141 129
0.134271 -0.252386 -0.585 193 137 124
0.141587 -0.24764 -0.574 198 141 130
0.155785 -0.244189 -0.566 188 134 124
0.166657 -0.245914 -0.57 185 126 118
0.174501 -0.249366 -0.578 167 110 103
-0.146587 -0.279067 -0.644 107 111 110
-0.115749 -0.2496 -0.576 103 104 108
-0.110682 -0.253067 -0.584 66 66 74
-0.108448 -0.255667 -0.59 79 79 87
-0.107688 -0.256533 -0.592 79 79 87
-0.100157 -0.2665 -0.615 61 60 66
-0.0962476 -0.268667 -0.62 59 58 64
-0.0940371 -0.2691 -0.621 62 61 69
-0.0803571 -0.270833 -0.625 75 74 82
-0.0658152 -0.274733 -0.634 73 72 78
-0.0542476 -0.277333 -0.64 72 70 81
-0.0507486 -0.2782 -0.642 71 70 78
-0.0449124 -0.279933 -0.646 71 71 79
0.129 -0.260867 -0.602 192 138 128
0.136594 -0.2496 -0.576 195 141 131
0.141093 -0.247867 -0.572 196 139 128
0.152008 -0.246133 -0.568 198 141 130
0.155785 -0.245267 -0.566 194 137 128
0.171107 -0.248733 -0.574 177 119 115
0.180762 -0.253067 -0.584 151 99 103
0.189651 -0.259133 -0.598 123 83 94
0.192067 -0.260867 -0.602 120 80 91
-0.146587 -0.280293 -0.644 105 109 110
-0.144909 -0.279423 -0.642 108 109 114
-0.140466 -0.275506 -0.633 107 108 113
-0.119453 -0.251568 -0.578 103 104 109
-0.116643 -0.250262 -0.575 101 102 107
-0.115749 -0.250697 -0.576 98 99 104
-0.11485 -0.251132 -0.577 96 97 102
-0.112848 -0.251568 -0.578 89 89 97
-0.112133 -0.252438 -0.58 78 78 86
-0.109945 -0.25505 -0.586 77 77 85
-0.104118 -0.262884 -0.604 71 70 78
-0.10266 -0.26506 -0.609 66 66 74
-0.102 -0.266366 -0.612 63 63 71
-0.101164 -0.267236 -0.614 63 62 68
-0.0962476 -0.269848 -0.62 58 57 63
-0.0804857 -0.272459 -0.626 74 73 81
-0.0747619 -0.27333 -0.628 76 75 83
-0.0692191 -0.27507 -0.632 75 74 82
-0.058939 -0.277682 -0.638 72 71 77
0.129423 -0.277682 -0.638 200 150 141
0.131791 -0.252003 -0.579 193 139 127
0.144943 -0.248086 -0.57 199 142 131
0.146856 -0.24765 -0.569 193 136 125
0.15282 -0.24678 -0.567 197 140 129
0.153629 -0.246345 -0.566 196 139 128
0.168037 -0.248521 -0.571 173 122 119
0.171107 -0.249827 -0.574 179 115 106
0.193024 -0.263319 -0.605 114 78 82
-0.146359 -0.281083 -0.643 101 105 106
-0.117943 -0.251794 -0.576 98 99 104
-0.106323 -0.260974 -0.597 80 80 88
-0.10492 -0.26316 -0.602 76 75 83
-0.0964029 -0.271466 -0.621 59 58 64
-0.0647095 -0.277586 -0.635 75 74 80
-0.0611771 -0.278023 -0.636 72 71 77
-0.058939 -0.278897 -0.638 71 70 76
-0.0507486 -0.280646 -0.642 72 71 79
-0.0496029 -0.281083 -0.643 71 70 78
0.128206 -0.276274 -0.632 197 147 138
0.126496 -0.262723 -0.601 197 145 134
0.134556 -0.250046 -0.572 192 138 126
0.150394 -0.247423 -0.566 192 135 124
0.155234 -0.246549 -0.564 194 140 130
0.169421 -0.250046 -0.572 180 116 106
0.188197 -0.260974 -0.597 110 76 90
-0.122287 -0.255087 -0.581 96 97 102
-0.114651 -0.252891 -0.576 91 92 97
-0.112652 -0.25333 -0.577 85 86 91
-0.11122 -0.255087 -0.581 66 67 72
-0.1092 -0.25816 -0.588 87 88 93
-0.1071 -0.261233 -0.595 83 84 89
-0.102167 -0.269136 -0.613 69 68 76
-0.101493 -0.270453 -0.616 67 66 72
-0.100483 -0.270892 -0.617 64 63 69
-0.09434 -0.273527 -0.623 58 57 65
-0.0771543 -0.275722 -0.628 72 71 79
-0.0726 -0.2766 -0.63 74 73 81
-0.0681229 -0.277917 -0.633 74 73 81
-0.065919 -0.278795 -0.635 75 74 80
-0.0578143 -0.280551 -0.639 71 70 78
-0.0554667 -0.28099 -0.64 71 70 78
0.127354 -0.283625 -0.646 199 149 142
0.126786 -0.274405 -0.625 196 146 137
0.1276 -0.254648 -0.58 196 142 132
0.1431 -0.24894 -0.567 200 146 134
0.156309 -0.247623 -0.564 194 140 130
0.159814 -0.248062 -0.565 186 132 122
0.181381 -0.257282 -0.586 128 83 90
0.18612 -0.260794 -0.594 84 59 80
0.238333 -0.285381 -0.65 177 130 138
-0.146131 -0.283091 -0.642 96 100 101
-0.103166 -0.269863 -0.612 74 73 79
-0.0965581 -0.274272 -0.622 57 56 62
-0.0955267 -0.274713 -0.623 56 55 61
-0.0852552 -0.276036 -0.626 68 67 75
-0.0727152 -0.278241 -0.631 74 73 81
-0.0693286 -0.279123 -0.633 74 73 81
-0.0648114 -0.280446 -0.636 74 73 79
0.129109 -0.252225 -0.572 189 135 123
0.130829 -0.251343 -0.57 189 132 121
0.156309 -0.248697 -0.564 193 139 129
0.240186 -0.284414 -0.645 178 132 135
0.24189 -0.283532 -0.643 174 121 129
-0.132602 -0.269257 -0.608 98 98 106
-0.126429 -0.261286 -0.59 96 96 104
-0.10728 -0.263943 -0.596 89 88 94
-0.106067 -0.2666 -0.602 82 83 88
-0.105269 -0.267486 -0.604 81 82 87
-0.100809 -0.274129 -0.619 68 67 73
-0.0864476 -0.277229 -0.626 64 63 71
-0.0852552 -0.277229 -0.626 64 63 71
-0.0818086 -0.277671 -0.627 69 68 76
-0.0783505 -0.278114 -0.628 72 71 79
-0.0727152 -0.279443 -0.631 74 73 81
0.122849 -0.260843 -0.589 205 153 142
0.12628 -0.2542 -0.574 197 143 133
0.140443 -0.250214 -0.565 199 142 131
0.14664 -0.249771 -0.564 193 139 129
0.156031 -0.249329 -0.563 190 133 122
0.171405 -0.254643 -0.575 163 104 100
0.17965 -0.258629 -0.584 139 93 93
0.237951 -0.282986 -0.639 179 128 133
0.244801 -0.283871 -0.641 154 102 115
-0.132166 -0.269526 -0.606 98 98 106
-0.121655 -0.257072 -0.578 97 97 105
-0.117329 -0.254849 -0.573 95 95 103
-0.112652 -0.256628 -0.577 79 79 87
-0.105443 -0.269081 -0.605 83 83 91
-0.104808 -0.270415 -0.608 79 80 85
-0.09568 -0.277531 -0.624 57 56 62
-0.0819391 -0.27931 -0.628 68 67 75
-0.0660229 -0.282869 -0.636 74 73 79
-0.0637 -0.283313 -0.637 74 73 78
-0.0531943 -0.285537 -0.642 70 69 77
0.124562 -0.283758 -0.638 198 143 136
0.121597 -0.259296 -0.583 201 149 138
0.127124 -0.252625 -0.568 187 130 119
0.12798 -0.25218 -0.567 194 137 126
0.12906 -0.25218 -0.567 194 137 126
0.141269 -0.250846 -0.564 195 138 129
0.149597 -0.250401 -0.563 187 129 118
0.153613 -0.249956 -0.562 194 137 126
0.158457 -0.250846 -0.564 181 124 113
0.159531 -0.250846 -0.564 179 122 111
0.169717 -0.254849 -0.573 169 111 107
0.234907 -0.286427 -0.644 175 128 134
0.25079 -0.287761 -0.647 202 203 233
-0.119929 -0.256833 -0.575 94 94 102
-0.117329 -0.25594 -0.573 97 97 105
-0.116237 -0.25594 -0.573 93 93 101
-0.112652 -0.257727 -0.577 76 76 84
-0.109757 -0.2613 -0.585 96 96 104
-0.109014 -0.262193 -0.587 94 94 102
-0.10787 -0.264873 -0.593 91 91 99
-0.0970238 -0.279167 -0.625 57 58 63
-0.0888324 -0.279613 -0.626 57 56 64
-0.0808714 -0.280953 -0.629 69 68 76
-0.0671286 -0.283633 -0.635 74 73 81
-0.0613695 -0.284973 -0.638 73 72 80
-0.0602486 -0.28542 -0.639 73 72 80
-0.0531943 -0.28676 -0.642 70 69 75
0.12354 -0.28542 -0.639 194 144 137
0.122571 -0.255493 -0.572 201 147 137
0.130757 -0.252367 -0.565 192 135 124
0.134823 -0.25192 -0.564 191 134 123
0.138046 -0.25192 -0.564 199 142 131
0.150402 -0.251027 -0.562 186 129 118
0.16362 -0.25326 -0.567 173 116 107
0.233175 -0.288547 -0.646 173 127 137
0.232954 -0.28676 -0.642 177 128 131
0.23978 -0.281847 -0.631 143 99 112
0.249627 -0.287653 -0.644 203 203 231
-0.123393 -0.26062 -0.581 95 95 103
-0.117329 -0.257031 -0.573 96 96 104
-0.113357 -0.257929 -0.575 82 83 88
-0.106679 -0.268694 -0.599 88 88 96
-0.0959867 -0.280806 -0.626 55 56 61
-0.0947943 -0.280806 -0.626 53 54 59
-0.08764 -0.280806 -0.626 57 56 64
-0.0831352 -0.281703 -0.628 65 64 72
-0.075119 -0.283049 -0.631 72 71 79
-0.0729457 -0.283946 -0.633 75 74 82
-0.0683381 -0.284843 -0.635 73 72 80
-0.0660229 -0.285291 -0.636 73 72 78
0.13912 -0.252994 -0.564 197 140 131
0.141269 -0.252994 -0.564 197 140 131
0.14638 -0.252546 -0.563 181 124 115
0.149331 -0.252097 -0.562 186 130 117
0.168331 -0.256583 -0.572 164 111 103
0.180572 -0.263311 -0.587 127 85 95
0.23114 -0.28574 -0.637 180 128 130
0.231094 -0.281254 -0.627 171 126 123
0.231177 -0.279909 -0.624 163 118 115
0.243335 -0.284394 -0.634 146 105 119
-0.143554 -0.286503 -0.636 99 99 107
-0.112652 -0.259925 -0.577 74 75 80
-0.0949457 -0.282449 -0.627 52 53 58
-0.0888324 -0.281998 -0.626 54 53 61
-0.0648114 -0.286503 -0.636 74 73 79
0.126452 -0.254519 -0.565 192 135 126
0.143163 -0.253618 -0.563 197 140 131
0.152271 -0.252717 -0.561 191 134 125
0.228067 -0.280196 -0.622 163 118 113
0.245314 -0.286503 -0.636 150 112 125
0.250853 -0.290107 -0.644 232 222 255
-0.116034 -0.258762 -0.572 93 94 99
-0.105617 -0.274143 -0.606 87 86 94
-0.103333 -0.280476 -0.62 80 79 87
-0.102482 -0.281381 -0.622 76 77 81
-0.100595 -0.282738 -0.625 72 73 77
-0.0962933 -0.284095 -0.628 57 58 63
-0.0774 -0.285 -0.63 70 69 77
-0.0672343 -0.287714 -0.636 73 72 78
-0.0637 -0.288167 -0.637 73 72 78
0.117758 -0.265095 -0.586 200 147 139
0.120845 -0.257405 -0.569 197 142 135
0.135415 -0.254238 -0.562 191 136 129
0.138627 -0.254238 -0.562 199 142 133
0.168626 -0.259214 -0.573 164 107 100
0.178843 -0.264643 -0.585 125 89 99
0.226786 -0.282738 -0.625 190 130 129
0.23869 -0.282738 -0.625 136 100 114
-0.13625 -0.278931 -0.614 97 97 105
-0.116034 -0.259851 -0.572 94 95 100
-0.114253 -0.26076 -0.574 87 88 93
-0.107688 -0.268937 -0.592 98 98 106
-0.106679 -0.272117 -0.599 93 93 101
-0.104502 -0.278477 -0.613 86 85 93
-0.0950971 -0.285291 -0.628 53 54 59
-0.0927048 -0.285291 -0.628 52 53 58
-0.0901686 -0.284837 -0.627 49 49 57
-0.0661267 -0.28938 -0.637 73 72 78
0.116954 -0.264394 -0.582 198 145 139
0.121714 -0.258034 -0.568 195 140 133
0.125154 -0.256217 -0.564 192 137 130
0.128992 -0.255309 -0.562 196 139 130
0.130063 -0.255309 -0.562 198 141 132
0.1309 -0.254854 -0.561 197 140 131
0.136243 -0.254854 -0.561 197 140 131
0.13838 -0.254854 -0.561 200 143 134
0.14505 -0.255309 -0.562 180 121 113
0.16362 -0.25758 -0.567 172 113 107
0.168626 -0.260306 -0.573 166 108 104
0.225595 -0.283929 -0.625 180 123 129
0.225934 -0.278477 -0.613 177 126 125
0.238309 -0.283474 -0.624 132 96 110
0.252471 -0.293014 -0.645 185 188 223
-0.13921 -0.28375 -0.622 98 98 106
-0.120813 -0.261853 -0.574 98 99 104
-0.116034 -0.260941 -0.572 96 97 102
-0.114945 -0.260941 -0.572 94 95 100
-0.106243 -0.275083 -0.603 93 93 101
-0.103333 -0.282838 -0.62 81 81 89
-0.101623 -0.284663 -0.624 79 80 84
-0.0974895 -0.286488 -0.628 61 62 66
-0.0913629 -0.286031 -0.627 50 51 56
-0.0889743 -0.286031 -0.627 49 49 57
-0.081 -0.2874 -0.63 62 61 69
-0.0661267 -0.290593 -0.637 71 70 78
-0.0649133 -0.290593 -0.637 74 73 79
-0.0625848 -0.29105 -0.638 72 71 77
0.118006 -0.292874 -0.642 195 140 135
0.117329 -0.261397 -0.573 192 137 132
0.118886 -0.260029 -0.57 189 134 127
0.120845 -0.259572 -0.569 192 137 130
0.126005 -0.256835 -0.563 192 135 126
0.135174 -0.255923 -0.561 187 130 123
0.141586 -0.255923 -0.561 199 140 134
0.149867 -0.255467 -0.56 190 130 122
0.150933 -0.255467 -0.56 192 131 126
0.153067 -0.255467 -0.56 175 114 109
0.174803 -0.264134 -0.579 144 94 97
0.224764 -0.285575 -0.626 175 118 124
-0.145977 -0.291349 -0.636 94 97 102
-0.129985 -0.273025 -0.596 98 99 104
-0.115831 -0.261572 -0.571 98 99 104
-0.105152 -0.279438 -0.61 90 90 98
-0.104009 -0.282645 -0.617 84 84 92
-0.0844657 -0.288142 -0.629 52 51 59
-0.0776457 -0.289516 -0.632 70 69 77
-0.0638 -0.292265 -0.638 71 70 78
0.115033 -0.272567 -0.595 195 145 136
0.114995 -0.269818 -0.589 190 138 127
0.115131 -0.267528 -0.584 189 137 126
0.11615 -0.264779 -0.578 191 136 129
0.11644 -0.262947 -0.574 194 137 130
0.119761 -0.260656 -0.569 189 132 125
0.150933 -0.256533 -0.56 189 128 123
0.16362 -0.25974 -0.567 170 111 107
0.16695 -0.261572 -0.571 169 111 109
0.221986 -0.281729 -0.615 180 125 130
0.223723 -0.278064 -0.607 182 132 133
0.22678 -0.27898 -0.609 160 111 114
0.249685 -0.293639 -0.641 178 179 210
-0.115831 -0.26266 -0.571 100 101 106
-0.114054 -0.26358 -0.573 88 89 94
-0.107688 -0.27232 -0.592 103 102 108
-0.105152 -0.2806 -0.61 91 92 97
-0.08792 -0.28888 -0.628 49 48 56
-0.0856638 -0.28934 -0.629 50 49 57
-0.0777686 -0.29118 -0.633 68 67 75
-0.0661267 -0.29302 -0.637 70 69 75
0.119761 -0.26174 -0.569 187 130 121
0.1328 -0.2576 -0.56 195 136 128
0.16089 -0.2599 -0.565 169 110 106
0.181803 -0.27186 -0.591 134 102 115
0.220814 -0.2829 -0.615 193 138 143
0.221046 -0.27876 -0.606 188 136 140
0.232529 -0.2829 -0.615 146 96 105
-0.129767 -0.274833 -0.595 100 103 110
-0.12712 -0.2716 -0.588 100 103 110
-0.11316 -0.265133 -0.574 73 76 83
-0.110113 -0.268367 -0.581 109 110 115
-0.108829 -0.270676 -0.586 105 105 115
-0.104672 -0.28361 -0.614 87 88 90
-0.0834 -0.291 -0.63 52 51 59
-0.0777686 -0.292386 -0.633 66 65 73
0.1146 -0.291 -0.63 184 131 123
0.113824 -0.26929 -0.583 190 131 127
0.114343 -0.267905 -0.58 190 131 127
0.119761 -0.262824 -0.569 189 132 123
0.127694 -0.259129 -0.561 196 137 129
0.1296 -0.258667 -0.56 195 138 131
0.1328 -0.258667 -0.56 197 138 130
0.148534 -0.258205 -0.559 185 122 117
0.154133 -0.258667 -0.56 171 110 105
0.165281 -0.262824 -0.569 167 108 104
0.175105 -0.267905 -0.58 142 92 103
0.229476 -0.281762 -0.61 149 98 103
0.23215 -0.28361 -0.614 145 94 99
0.23446 -0.284995 -0.617 135 95 106
-0.12712 -0.27272 -0.588 106 106 114
-0.124929 -0.270401 -0.583 106 106 114
-0.121024 -0.26669 -0.575 106 106 114
-0.108264 -0.273184 -0.589 108 106 119
-0.102811 -0.289417 -0.624 81 85 88
-0.099 -0.2922 -0.63 69 70 74
-0.0978 -0.2922 -0.63 62 63 67
-0.0789743 -0.293591 -0.633 60 59 67
0.133867 -0.259733 -0.56 192 132 124
0.137311 -0.260197 -0.561 196 137 131
0.1456 -0.259733 -0.56 173 110 105
