ply
format ascii 1.0
comment Created by Open3D
element vertex 1275
property double x
property double y
property double z
property uchar red
property uchar green
property uchar blue
end_header
0.843057 -0.485857 -0.57 166 166 156
0.844143 -0.485857 -0.57 166 166 156
0.849571 -0.485857 -0.57 165 167 156
0.851743 -0.485857 -0.57 166 168 157
-0.29748 -0.44252 -0.518 225 226 218
-0.290573 -0.44252 -0.518 225 226 218
-0.274787 -0.44252 -0.518 225 226 218
-0.271827 -0.44252 -0.518 226 227 219
-0.232267 -0.444229 -0.52 227 228 220
-0.231276 -0.444229 -0.52 227 228 220
-0.204927 -0.445083 -0.521 228 230 219
-0.203934 -0.445083 -0.521 228 230 219
-0.19401 -0.445083 -0.521 227 228 220
-0.171514 -0.445937 -0.522 230 232 221
-0.169526 -0.445937 -0.522 231 233 222
-0.136976 -0.446791 -0.523 230 231 223
-0.0175 -0.4485 -0.525 175 154 135
-0.0133457 -0.443374 -0.519 184 145 114
-0.00330667 -0.423726 -0.496 194 151 119
0.0126771 -0.421163 -0.493 197 151 118
0.0164667 -0.422017 -0.494 196 149 119
0.0315219 -0.422017 -0.494 196 149 119
0.0352857 -0.422017 -0.494 196 149 119
0.0362267 -0.422017 -0.494 196 149 119
0.0381086 -0.422017 -0.494 195 148 118
0.0400714 -0.422871 -0.495 195 148 118
0.0479029 -0.425434 -0.498 188 141 113
0.0549809 -0.428851 -0.502 174 130 103
0.0704105 -0.441666 -0.517 125 96 88
0.0779429 -0.451063 -0.528 104 86 86
0.465429 -0.461314 -0.54 89 79 78
0.45744 -0.43056 -0.504 167 118 88
0.458449 -0.429706 -0.503 167 118 88
0.46148 -0.425434 -0.498 175 126 96
0.466242 -0.422017 -0.494 176 127 95
0.469065 -0.422017 -0.494 180 131 99
0.477557 -0.422871 -0.495 175 129 96
0.50434 -0.427997 -0.501 162 117 86
0.523215 -0.437394 -0.512 152 112 77
0.557969 -0.458751 -0.537 152 120 95
0.813051 -0.485234 -0.568 167 169 158
0.831485 -0.487797 -0.571 146 147 139
0.83366 -0.487797 -0.571 147 148 140
0.847105 -0.488651 -0.572 148 148 140
0.850373 -0.488651 -0.572 148 148 140
0.853642 -0.488651 -0.572 147 148 140
0.855821 -0.488651 -0.572 146 148 135
0.860179 -0.488651 -0.572 145 147 134
-0.30183 -0.44265 -0.517 225 226 220
-0.29748 -0.443507 -0.518 225 226 218
-0.27972 -0.443507 -0.518 226 227 219
-0.263933 -0.443507 -0.518 226 228 217
-0.258013 -0.443507 -0.518 226 227 219
-0.255546 -0.444363 -0.519 227 228 220
-0.251591 -0.444363 -0.519 227 228 220
-0.250603 -0.444363 -0.519 227 228 220
-0.249614 -0.444363 -0.519 227 228 220
-0.246649 -0.444363 -0.519 226 227 219
-0.221371 -0.445219 -0.52 227 229 218
-0.1976 -0.445219 -0.52 228 229 221
-0.187064 -0.446075 -0.521 228 229 221
-0.184087 -0.446075 -0.521 229 230 222
-0.1566 -0.446931 -0.522 229 230 222
-0.0164371 -0.447788 -0.523 186 149 120
-0.0153819 -0.446075 -0.521 180 143 114
0.00140571 -0.421246 -0.492 197 154 122
0.00234286 -0.421246 -0.492 198 155 123
0.0192895 -0.422958 -0.494 198 153 122
0.0277019 -0.422102 -0.493 197 150 120
0.028641 -0.422102 -0.493 197 150 120
0.0352143 -0.422102 -0.493 196 149 119
0.0429 -0.423814 -0.495 194 147 117
0.0694257 -0.44265 -0.517 131 99 86
0.0705467 -0.443507 -0.518 123 96 87
0.464023 -0.458918 -0.536 101 81 72
0.457984 -0.446075 -0.521 127 94 77
0.456437 -0.44265 -0.517 136 99 80
0.456161 -0.435801 -0.509 154 109 86
0.510186 -0.430664 -0.503 158 114 89
0.554851 -0.457206 -0.534 151 114 87
0.80406 -0.48546 -0.567 140 140 132
0.83658 -0.490597 -0.573 131 132 126
0.845311 -0.490597 -0.573 130 131 125
0.848973 -0.491453 -0.574 130 131 123
0.853347 -0.491453 -0.574 134 136 131
-0.310091 -0.442777 -0.516 224 225 217
-0.274256 -0.443635 -0.517 226 227 219
-0.268348 -0.443635 -0.517 227 229 218
-0.265907 -0.444493 -0.518 227 229 218
-0.26492 -0.444493 -0.518 226 228 217
-0.258013 -0.444493 -0.518 225 226 218
-0.254067 -0.444493 -0.518 227 228 220
-0.252093 -0.444493 -0.518 227 228 220
-0.249133 -0.444493 -0.518 227 228 220
-0.246649 -0.445351 -0.519 226 227 219
-0.209486 -0.44621 -0.52 228 229 221
-0.202552 -0.44621 -0.52 228 230 219
-0.19661 -0.44621 -0.52 227 228 220
-0.191657 -0.44621 -0.52 229 230 222
-0.183733 -0.44621 -0.52 229 231 220
-0.175155 -0.447068 -0.521 230 231 223
-0.105098 -0.448784 -0.523 231 232 224
-0.0163743 -0.447068 -0.521 184 143 113
-0.00908381 -0.430764 -0.502 193 150 116
-0.00711429 -0.427331 -0.498 193 153 118
-0.00518571 -0.424757 -0.495 187 151 119
0.00140286 -0.421325 -0.491 196 153 119
0.0023381 -0.421325 -0.491 198 155 121
0.00327333 -0.421325 -0.491 197 154 122
0.00984 -0.422183 -0.492 195 150 117
0.0154943 -0.423041 -0.493 201 156 123
0.0192505 -0.423041 -0.493 198 153 120
0.0239457 -0.423041 -0.493 194 149 116
0.02958 -0.423041 -0.493 195 148 118
0.0323971 -0.423041 -0.493 196 149 119
0.0439314 -0.425615 -0.496 192 145 115
0.0603571 -0.435054 -0.507 166 121 98
0.464176 -0.459081 -0.535 99 84 77
0.461993 -0.453932 -0.529 112 88 76
0.458095 -0.44621 -0.52 126 94 79
0.458203 -0.445351 -0.519 133 96 78
0.461456 -0.42819 -0.499 173 124 94
0.469054 -0.423041 -0.493 179 133 100
0.469993 -0.423041 -0.493 178 132 99
0.492693 -0.425615 -0.496 170 124 91
0.493638 -0.425615 -0.496 170 124 91
0.505294 -0.429906 -0.501 162 115 85
0.544535 -0.451358 -0.526 157 110 82
0.555869 -0.458223 -0.534 151 114 85
0.558971 -0.459939 -0.536 154 117 88
0.567277 -0.46423 -0.541 171 157 144
0.831123 -0.491689 -0.573 128 129 123
0.832214 -0.491689 -0.573 129 130 124
0.848262 -0.493405 -0.575 118 119 113
0.855223 -0.494263 -0.576 121 123 118
0.857417 -0.494263 -0.576 124 126 121
0.858514 -0.494263 -0.576 125 127 122
0.867291 -0.494263 -0.576 121 121 113
0.879529 -0.496837 -0.579 119 121 110
-0.312433 -0.4429 -0.515 224 225 217
-0.266378 -0.44462 -0.517 227 228 220
-0.26047 -0.44462 -0.517 226 227 219
-0.2442 -0.44548 -0.518 227 228 220
-0.24124 -0.44548 -0.518 227 228 220
-0.225889 -0.44634 -0.519 227 229 218
-0.162254 -0.44806 -0.521 229 230 222
-0.1563 -0.44806 -0.521 230 231 223
-0.0205 -0.4515 -0.525 189 163 146
-0.0141962 -0.44204 -0.514 185 142 108
-0.01104 -0.43344 -0.504 188 145 111
0.00888476 -0.42226 -0.491 196 151 118
0.0117143 -0.42312 -0.492 197 152 119
0.0220676 -0.42398 -0.493 199 154 121
0.0238971 -0.42312 -0.492 196 151 118
0.02952 -0.42312 -0.492 194 147 117
0.0323314 -0.42312 -0.492 197 150 120
0.0429 -0.4257 -0.495 191 144 114
0.06956 -0.44548 -0.518 127 99 87
0.456899 -0.44032 -0.512 145 103 81
0.4572 -0.43688 -0.508 153 108 85
0.459489 -0.43086 -0.501 167 120 94
0.462447 -0.42742 -0.497 170 120 93
0.469054 -0.42398 -0.493 180 131 99
0.478474 -0.42484 -0.494 175 126 93
0.486986 -0.4257 -0.495 168 119 86
0.487929 -0.4257 -0.495 169 120 87
0.4917 -0.4257 -0.495 170 124 91
0.495528 -0.42656 -0.496 170 123 93
0.502327 -0.42914 -0.499 162 115 85
0.822391 -0.49278 -0.573 126 128 123
0.837669 -0.49536 -0.576 114 115 107
0.84242 -0.49622 -0.577 122 123 115
-0.293383 -0.444743 -0.516 224 225 217
-0.291417 -0.444743 -0.516 226 228 217
-0.276226 -0.445605 -0.517 226 227 219
-0.268811 -0.444743 -0.516 226 228 217
-0.259485 -0.445605 -0.517 226 227 219
-0.252093 -0.446467 -0.518 226 227 219
-0.246173 -0.446467 -0.518 227 228 220
-0.214026 -0.447329 -0.519 226 227 219
-0.213037 -0.447329 -0.519 227 228 220
-0.20414 -0.447329 -0.519 229 231 220
-0.203151 -0.447329 -0.519 229 231 220
-0.183733 -0.44819 -0.52 228 229 221
-0.180762 -0.44819 -0.52 228 229 221
-0.17779 -0.44819 -0.52 229 230 222
-0.150346 -0.449052 -0.521 230 231 223
-0.149353 -0.449052 -0.521 230 231 223
-0.140422 -0.449052 -0.521 230 231 223
-0.104897 -0.449914 -0.522 231 232 224
-0.018359 -0.449052 -0.521 185 149 117
0.00606667 -0.422333 -0.49 199 154 123
0.00982 -0.423195 -0.491 193 148 115
0.013561 -0.423195 -0.491 198 153 120
0.0173371 -0.424057 -0.492 198 153 120
0.0182743 -0.424057 -0.492 198 153 120
0.0257714 -0.424057 -0.492 202 156 123
0.0323314 -0.424057 -0.492 196 150 117
0.0370924 -0.424919 -0.493 198 151 121
0.0459133 -0.428367 -0.497 186 141 110
0.0519048 -0.430952 -0.5 180 135 106
0.0540248 -0.432676 -0.502 176 131 102
0.0648533 -0.441295 -0.512 145 104 86
0.446893 -0.477495 -0.554 113 118 122
0.465451 -0.479219 -0.556 100 104 115
0.465671 -0.478357 -0.555 101 105 117
0.457614 -0.443881 -0.515 134 97 79
0.45713 -0.43871 -0.509 150 105 82
0.457386 -0.435262 -0.505 153 107 83
0.461429 -0.430952 -0.5 171 121 94
0.463414 -0.426643 -0.495 167 118 88
0.46436 -0.425781 -0.494 172 123 93
0.465301 -0.425781 -0.494 173 124 94
0.47281 -0.424919 -0.493 176 127 94
0.474689 -0.424919 -0.493 174 125 92
0.477506 -0.424919 -0.493 175 126 93
0.48412 -0.425781 -0.494 169 121 85
0.536253 -0.446467 -0.518 153 109 82
0.562034 -0.461981 -0.536 143 116 95
0.568286 -0.465429 -0.54 152 136 123
0.824167 -0.495595 -0.575 124 126 121
0.847183 -0.498181 -0.578 120 121 113
0.86078 -0.499043 -0.579 115 118 109
0.865191 -0.499043 -0.579 117 120 111
0.873314 -0.499905 -0.58 118 119 113
0.879651 -0.501629 -0.582 120 121 115
0.883384 -0.50249 -0.583 121 122 116
0.892799 -0.505938 -0.587 120 119 114
-0.307529 -0.444862 -0.515 225 226 218
-0.302624 -0.444862 -0.515 223 224 216
-0.293383 -0.445726 -0.516 225 226 218
-0.273726 -0.445726 -0.516 226 228 217
-0.26488 -0.445726 -0.516 225 226 218
-0.263897 -0.445726 -0.516 225 226 218
-0.233347 -0.447453 -0.518 228 229 221
-0.23236 -0.447453 -0.518 228 229 221
-0.203151 -0.448317 -0.519 229 231 220
-0.201773 -0.447453 -0.518 228 230 219
-0.198813 -0.447453 -0.518 228 230 219
-0.187334 -0.448317 -0.519 228 229 221
-0.156 -0.449181 -0.52 229 231 220
-0.154019 -0.449181 -0.52 229 231 220
-0.153029 -0.449181 -0.52 230 231 223
-0.0161857 -0.444862 -0.515 185 146 113
-0.00420857 -0.42413 -0.491 193 150 116
-0.000466667 -0.423267 -0.49 197 154 120
0.0014 -0.423267 -0.49 199 156 122
0.00512286 -0.422403 -0.489 190 145 112
0.00605429 -0.422403 -0.489 194 149 116
0.0220229 -0.424994 -0.492 201 156 123
0.0275895 -0.42413 -0.491 198 152 119
0.0323314 -0.424994 -0.492 198 152 119
0.0380314 -0.425858 -0.493 197 151 118
0.0419571 -0.427586 -0.495 192 146 112
0.0448762 -0.42845 -0.496 187 140 110
0.04686 -0.429313 -0.497 185 140 111
0.0509524 -0.431905 -0.5 181 135 111
0.0540248 -0.433632 -0.502 175 130 101
0.0550905 -0.434496 -0.503 170 125 96
0.0604762 -0.438815 -0.508 157 112 91
0.0637533 -0.441407 -0.511 144 103 85
0.0673257 -0.445726 -0.516 130 97 80
0.439507 -0.47855 -0.554 122 127 133
0.45592 -0.480278 -0.556 113 114 119
0.463333 -0.480278 -0.556 108 109 114
0.465451 -0.480278 -0.556 104 107 114
0.46651 -0.480278 -0.556 103 107 116
0.466502 -0.46041 -0.533 97 80 73
0.4625 -0.4535 -0.525 106 87 81
0.460851 -0.450909 -0.522 117 90 79
0.458503 -0.445726 -0.516 129 96 81
0.459489 -0.432769 -0.501 167 117 92
0.463406 -0.42845 -0.496 169 120 90
0.469054 -0.425858 -0.493 179 130 97
0.470914 -0.424994 -0.492 175 129 95
0.474689 -0.425858 -0.493 174 126 90
0.477506 -0.425858 -0.493 175 127 91
0.487884 -0.426722 -0.494 172 123 90
0.500313 -0.429313 -0.497 165 119 86
0.502269 -0.430177 -0.498 165 118 88
0.507079 -0.431041 -0.499 165 120 91
0.509048 -0.431905 -0.5 165 120 91
0.551634 -0.456091 -0.528 149 110 81
0.558889 -0.46041 -0.533 144 112 89
0.562005 -0.462138 -0.535 144 112 89
0.824835 -0.498418 -0.577 108 109 104
0.835072 -0.499282 -0.578 121 122 114
0.860433 -0.501873 -0.581 109 112 105
0.883787 -0.504465 -0.584 121 120 115
0.898486 -0.509648 -0.59 120 119 114
-0.306931 -0.444977 -0.514 225 226 218
-0.294776 -0.445843 -0.515 225 226 218
-0.289871 -0.445843 -0.515 224 225 217
-0.284537 -0.446709 -0.516 226 227 219
-0.283554 -0.446709 -0.516 225 226 218
-0.279623 -0.446709 -0.516 225 226 218
-0.275691 -0.446709 -0.516 225 227 216
-0.270777 -0.446709 -0.516 226 228 217
-0.249637 -0.447574 -0.517 226 227 219
-0.246683 -0.447574 -0.517 227 228 220
-0.22348 -0.44844 -0.518 227 229 218
-0.212627 -0.44844 -0.518 227 228 220
-0.200787 -0.44844 -0.518 228 230 219
-0.194867 -0.44844 -0.518 228 229 221
-0.192893 -0.44844 -0.518 228 229 221
-0.191907 -0.44844 -0.518 228 229 221
-0.187334 -0.449306 -0.519 229 230 222
-0.171517 -0.449306 -0.519 229 231 220
-0.154019 -0.450171 -0.52 230 232 221
-0.150057 -0.450171 -0.52 229 230 222
-0.107673 -0.451037 -0.521 231 233 222
-0.0172333 -0.447574 -0.517 188 149 116
-0.00893905 -0.427663 -0.494 195 152 120
0.00326 -0.423334 -0.489 195 152 118
0.0098 -0.4242 -0.49 196 151 118
0.0201076 -0.425066 -0.491 196 151 120
0.025719 -0.425066 -0.491 201 155 122
0.0275895 -0.425066 -0.491 197 151 118
0.02946 -0.425066 -0.491 195 149 116
0.0448762 -0.429394 -0.496 187 140 110
0.0615648 -0.440649 -0.509 151 108 89
0.0638781 -0.443246 -0.512 139 103 89
0.435553 -0.47874 -0.553 124 127 132
0.445838 -0.479606 -0.554 119 120 122
0.473715 -0.482203 -0.557 104 105 107
0.474983 -0.481337 -0.556 102 106 109
0.476042 -0.481337 -0.556 101 105 108
0.465627 -0.46056 -0.532 96 82 79
0.4581 -0.440649 -0.509 144 103 85
0.461429 -0.432857 -0.5 168 119 89
0.529007 -0.44238 -0.511 157 114 82
0.829568 -0.500383 -0.578 118 119 111
0.834311 -0.501249 -0.579 119 120 112
0.838723 -0.501249 -0.579 121 122 114
0.842381 -0.502114 -0.58 119 120 112
0.850473 -0.50298 -0.581 116 117 109
0.8549 -0.50298 -0.581 115 117 112
0.867457 -0.503846 -0.582 108 110 107
-0.300662 -0.446824 -0.515 224 225 217
-0.297141 -0.445956 -0.514 224 225 219
-0.289871 -0.446824 -0.515 225 226 218
-0.284967 -0.446824 -0.515 224 226 215
-0.275691 -0.447691 -0.516 226 228 217
-0.274709 -0.447691 -0.516 226 228 217
-0.271233 -0.446824 -0.515 225 227 216
-0.270252 -0.446824 -0.515 225 227 216
-0.269271 -0.446824 -0.515 226 228 217
-0.265348 -0.446824 -0.515 225 227 216
-0.250137 -0.447691 -0.516 226 227 219
-0.245223 -0.447691 -0.516 227 228 220
-0.231911 -0.448559 -0.517 227 229 218
-0.168551 -0.450294 -0.519 228 229 221
-0.105689 -0.45203 -0.521 231 233 222
-0.102711 -0.45203 -0.521 231 233 222
-0.0213771 -0.452897 -0.522 180 152 128
-0.0128571 -0.43381 -0.5 188 149 118
-0.00796571 -0.426869 -0.492 194 151 119
-0.00701429 -0.426001 -0.491 191 148 116
-0.00232857 -0.424266 -0.489 193 150 118
0.00418286 -0.423398 -0.488 194 151 117
0.0107333 -0.425133 -0.49 195 152 120
0.0126 -0.425133 -0.49 194 149 118
0.0247838 -0.426001 -0.491 200 155 124
0.03608 -0.426869 -0.492 196 149 119
0.0389705 -0.427736 -0.493 195 148 118
0.0419571 -0.429471 -0.495 191 146 113
0.0448762 -0.430339 -0.496 185 140 111
0.04686 -0.431207 -0.497 182 137 108
0.0572333 -0.438148 -0.505 166 120 97
0.0583105 -0.439015 -0.506 165 119 96
0.0720857 -0.452897 -0.522 108 84 80
0.350429 -0.47719 -0.55 195 192 199
0.36261 -0.478058 -0.551 186 188 187
0.36366 -0.478058 -0.551 186 188 187
0.373106 -0.478058 -0.551 173 177 178
0.399344 -0.478058 -0.551 150 155 159
0.422149 -0.478926 -0.552 133 135 134
0.43134 -0.479793 -0.553 125 125 127
0.458862 -0.483264 -0.557 114 114 106
0.462874 -0.484131 -0.558 114 113 118
0.467963 -0.484999 -0.559 115 111 108
0.470933 -0.485867 -0.56 109 109 107
0.473067 -0.485867 -0.56 108 110 109
0.4784 -0.485867 -0.56 105 107 106
0.459576 -0.446824 -0.515 125 96 82
0.461456 -0.432942 -0.499 163 116 88
0.462447 -0.431207 -0.497 165 118 88
0.479349 -0.426869 -0.492 173 124 91
0.505047 -0.431207 -0.497 167 121 88
0.516892 -0.436412 -0.503 158 115 83
0.558814 -0.460706 -0.531 143 112 92
0.568197 -0.465911 -0.537 102 80 66
0.832438 -0.503219 -0.58 118 119 111
0.839067 -0.503219 -0.58 123 124 116
0.843833 -0.504087 -0.581 113 114 108
0.865989 -0.50669 -0.584 101 103 102
0.876 -0.50669 -0.584 110 110 108
-0.303015 -0.446935 -0.514 224 225 219
-0.297141 -0.446935 -0.514 224 225 219
-0.290852 -0.447805 -0.515 225 226 218
-0.282024 -0.447805 -0.515 226 227 219
-0.280062 -0.447805 -0.515 226 227 219
-0.274176 -0.447805 -0.515 226 228 217
-0.265348 -0.447805 -0.515 226 228 217
-0.222064 -0.449544 -0.517 227 229 218
-0.220094 -0.449544 -0.517 228 230 217
-0.19843 -0.449544 -0.517 229 231 220
-0.19449 -0.449544 -0.517 229 231 220
-0.183027 -0.450413 -0.518 228 230 219
-0.14878 -0.451283 -0.519 230 232 221
-0.109448 -0.452152 -0.52 231 233 222
-0.0181476 -0.447805 -0.515 188 147 117
-0.0160286 -0.443457 -0.51 186 147 116
-0.00794952 -0.426936 -0.491 190 149 119
-0.00326 -0.425197 -0.489 192 148 119
0.0060419 -0.424328 -0.488 194 149 116
0.0107114 -0.425197 -0.489 196 151 120
0.0182371 -0.426936 -0.491 197 152 121
0.0351429 -0.427806 -0.492 196 149 119
0.05616 -0.43824 -0.504 165 120 99
0.0604762 -0.441718 -0.508 155 110 89
0.0638781 -0.445196 -0.512 135 102 87
0.0722238 -0.454761 -0.523 105 84 81
0.0735 -0.4565 -0.525 100 82 80
0.335151 -0.477369 -0.549 205 204 209
0.338289 -0.477369 -0.549 205 205 207
0.342048 -0.478238 -0.55 203 203 205
0.344143 -0.478238 -0.55 201 201 203
0.350016 -0.479108 -0.551 197 197 197
0.358011 -0.479977 -0.552 190 190 188
0.363269 -0.479977 -0.552 185 185 185
0.40112 -0.479977 -0.552 150 152 151
0.403223 -0.479977 -0.552 149 149 149
0.405326 -0.479977 -0.552 148 150 149
0.416136 -0.479108 -0.551 138 138 138
0.438451 -0.481716 -0.554 124 124 124
0.450625 -0.483455 -0.556 117 117 117
0.471545 -0.488672 -0.562 112 112 112
0.473686 -0.488672 -0.562 110 110 112
0.469128 -0.466065 -0.536 93 78 71
0.460376 -0.449544 -0.517 119 91 77
0.459135 -0.441718 -0.508 142 105 86
0.462429 -0.433023 -0.498 162 115 85
0.466237 -0.428675 -0.493 175 126 93
0.471851 -0.427806 -0.492 176 127 94
0.473698 -0.426936 -0.491 175 126 93
0.48216 -0.427806 -0.492 171 122 89
0.499175 -0.429545 -0.494 165 119 85
0.514837 -0.435631 -0.501 162 117 86
0.524866 -0.440849 -0.507 156 112 83
0.832767 -0.505193 -0.581 120 119 115
0.863764 -0.507802 -0.584 99 101 98
0.866357 -0.508671 -0.585 100 102 101
0.876 -0.507802 -0.584 104 104 102
0.884581 -0.509541 -0.586 102 104 99
0.88984 -0.51128 -0.588 104 105 100
-0.302426 -0.447043 -0.513 223 224 218
-0.292246 -0.447914 -0.514 224 226 215
-0.290288 -0.447914 -0.514 224 226 215
-0.285392 -0.447914 -0.514 226 228 217
-0.283434 -0.447914 -0.514 225 227 216
-0.282455 -0.447914 -0.514 226 228 217
-0.282024 -0.448786 -0.515 226 228 217
-0.279081 -0.448786 -0.515 226 228 217
-0.276138 -0.448786 -0.515 226 228 217
-0.268749 -0.447914 -0.514 225 226 218
-0.262874 -0.447914 -0.514 226 227 219
-0.239326 -0.449657 -0.516 227 228 220
-0.209262 -0.450529 -0.517 228 229 221
-0.206308 -0.450529 -0.517 228 229 221
-0.203353 -0.450529 -0.517 228 230 219
-0.171187 -0.4514 -0.518 228 229 221
-0.169213 -0.4514 -0.518 229 230 222
-0.16724 -0.4514 -0.518 229 230 222
-0.16132 -0.4514 -0.518 229 230 222
-0.138894 -0.452271 -0.519 230 232 221
-0.137906 -0.452271 -0.519 231 233 222
-0.111429 -0.453143 -0.52 231 231 221
-0.105486 -0.453143 -0.52 230 232 221
-0.104495 -0.453143 -0.52 230 232 221
-0.0191657 -0.449657 -0.516 187 148 119
-0.01488 -0.4392 -0.504 188 149 120
0.0107114 -0.426129 -0.489 198 153 122
0.0219333 -0.427 -0.49 194 149 118
0.0238 -0.427 -0.49 197 152 121
0.0322657 -0.427871 -0.491 195 148 118
0.0350714 -0.427871 -0.491 195 148 118
0.0429 -0.431357 -0.495 187 142 113
0.0438429 -0.431357 -0.495 186 141 112
0.04686 -0.4331 -0.497 179 135 110
0.0550905 -0.438329 -0.503 167 122 101
0.0615648 -0.443557 -0.509 144 105 88
0.0638781 -0.446171 -0.512 132 99 84
0.0685733 -0.4514 -0.518 114 91 85
0.320971 -0.477543 -0.548 209 209 209
0.343719 -0.480157 -0.551 194 194 194
0.344769 -0.480157 -0.551 193 193 193
0.354447 -0.4819 -0.553 187 185 186
0.3555 -0.4819 -0.553 185 183 184
0.363927 -0.4819 -0.553 178 178 178
0.367087 -0.4819 -0.553 174 174 174
0.396242 -0.482771 -0.554 150 150 150
0.397297 -0.482771 -0.554 150 150 150
0.405007 -0.4819 -0.553 141 141 141
0.426073 -0.4819 -0.553 126 126 128
0.43001 -0.482771 -0.554 123 123 125
0.460219 -0.440943 -0.506 152 107 84
0.46032 -0.4392 -0.504 157 110 84
0.460406 -0.437457 -0.502 162 115 89
0.46435 -0.432229 -0.496 169 122 92
0.464357 -0.431357 -0.495 171 124 94
0.466242 -0.430486 -0.494 173 127 93
0.471828 -0.427871 -0.491 176 127 95
0.473698 -0.427871 -0.491 173 124 91
0.476504 -0.427871 -0.491 171 122 89
0.481223 -0.428743 -0.492 172 122 89
0.48216 -0.428743 -0.492 172 122 89
0.496352 -0.430486 -0.494 170 121 88
0.527836 -0.442686 -0.508 152 111 81
0.530886 -0.444429 -0.51 153 112 82
0.531857 -0.444429 -0.51 153 112 82
0.534918 -0.446171 -0.512 154 113 81
0.5535 -0.4575 -0.525 154 115 82
0.573354 -0.468829 -0.538 67 54 46
0.836417 -0.507171 -0.582 118 119 113
0.837193 -0.5063 -0.581 125 126 121
0.8383 -0.5063 -0.581 125 126 121
0.846394 -0.507171 -0.582 103 105 100
0.85118 -0.508043 -0.583 100 102 97
0.853401 -0.508043 -0.583 86 89 82
0.871929 -0.509786 -0.585 99 100 95
0.8775 -0.509786 -0.585 102 104 99
-0.309638 -0.447147 -0.512 223 224 216
-0.296563 -0.44802 -0.513 224 226 215
-0.278539 -0.448893 -0.514 225 227 216
-0.273644 -0.448893 -0.514 225 226 218
-0.253576 -0.449767 -0.515 226 227 221
-0.252595 -0.449767 -0.515 227 228 222
-0.250633 -0.449767 -0.515 227 228 220
-0.245729 -0.449767 -0.515 226 227 219
-0.244748 -0.449767 -0.515 227 228 220
-0.227531 -0.45064 -0.516 227 229 218
-0.219669 -0.45064 -0.516 226 228 217
-0.186612 -0.451513 -0.517 228 230 219
-0.16428 -0.452387 -0.518 229 230 222
-0.147507 -0.452387 -0.518 230 232 221
-0.124066 -0.45326 -0.519 230 231 223
-0.1211 -0.45326 -0.519 230 232 221
-0.116157 -0.45326 -0.519 230 232 221
-0.0253057 -0.455007 -0.521 204 185 171
-0.0243133 -0.455007 -0.521 173 154 140
-0.0232762 -0.454133 -0.52 182 148 123
-0.0211724 -0.451513 -0.517 185 141 112
-0.01584 -0.44016 -0.504 187 148 119
-0.0127543 -0.433173 -0.496 193 152 122
-0.00982 -0.428807 -0.491 192 151 121
0.0051019 -0.425313 -0.487 192 147 116
0.00602952 -0.425313 -0.487 195 150 119
0.0107114 -0.42706 -0.489 199 154 123
0.0163 -0.42706 -0.489 194 149 118
0.0247333 -0.427933 -0.49 197 150 120
0.0341362 -0.428807 -0.491 192 145 115
0.0360067 -0.428807 -0.491 193 146 116
0.0379543 -0.42968 -0.492 193 146 118
0.0584257 -0.44278 -0.507 157 111 88
0.0651067 -0.448893 -0.514 129 96 81
0.0663429 -0.45064 -0.516 122 94 83
0.297464 -0.477713 -0.547 208 208 210
0.30059 -0.477713 -0.547 207 207 207
0.306841 -0.477713 -0.547 203 203 203
0.321557 -0.47946 -0.549 197 197 199
0.325286 -0.480333 -0.55 197 197 199
0.330524 -0.480333 -0.55 194 194 194
0.333667 -0.480333 -0.55 192 192 192
0.362474 -0.483827 -0.554 168 168 168
0.36353 -0.483827 -0.554 169 169 169
0.372643 -0.4847 -0.555 159 159 159
0.374757 -0.4847 -0.555 159 159 159
0.375814 -0.4847 -0.555 159 159 159
0.376871 -0.4847 -0.555 157 157 157
0.3885 -0.4847 -0.555 145 145 147
0.398014 -0.4847 -0.555 137 135 138
0.408586 -0.4847 -0.555 128 128 130
0.409643 -0.4847 -0.555 127 127 129
0.417647 -0.482953 -0.553 116 116 118
0.419753 -0.482953 -0.553 116 116 118
0.425789 -0.483827 -0.554 112 111 116
0.428954 -0.483827 -0.554 110 109 114
0.4329 -0.4847 -0.555 107 107 109
0.451435 -0.486447 -0.557 97 97 99
0.454371 -0.48732 -0.558 96 96 98
0.457315 -0.488193 -0.559 95 95 97
0.468532 -0.465487 -0.533 89 78 74
0.464613 -0.457627 -0.524 107 88 81
0.460873 -0.446273 -0.511 131 100 82
0.460943 -0.4454 -0.51 137 106 88
0.460103 -0.443653 -0.508 143 105 84
0.460271 -0.441033 -0.505 151 107 82
0.46032 -0.44016 -0.504 154 108 82
0.463377 -0.43492 -0.498 163 118 89
0.46435 -0.433173 -0.496 167 122 91
0.469957 -0.428807 -0.491 173 127 94
0.470892 -0.428807 -0.491 174 128 95
0.477439 -0.428807 -0.491 170 121 88
0.838634 -0.50828 -0.582 124 126 123
0.85007 -0.509153 -0.583 103 104 99
0.873043 -0.5109 -0.585 103 104 99
-0.311589 -0.448122 -0.512 224 225 217
-0.307688 -0.448122 -0.512 224 225 217
-0.305737 -0.448122 -0.512 224 225 217
-0.301836 -0.448122 -0.512 224 225 217
-0.291677 -0.448997 -0.513 225 227 216
-0.284413 -0.449872 -0.514 224 226 215
-0.282455 -0.449872 -0.514 224 225 217
-0.279951 -0.448997 -0.513 225 226 218
-0.263853 -0.449872 -0.514 226 227 219
-0.234938 -0.450748 -0.515 228 230 219
-0.211806 -0.451623 -0.516 227 228 220
-0.210823 -0.451623 -0.516 227 228 220
-0.20984 -0.451623 -0.516 228 229 221
-0.197063 -0.451623 -0.516 229 231 220
-0.165932 -0.452498 -0.517 229 230 222
-0.14948 -0.453373 -0.518 229 231 220
-0.14652 -0.453373 -0.518 230 232 221
-0.115933 -0.453373 -0.518 230 232 221
-0.10726 -0.454249 -0.519 228 231 222
-0.0098 -0.428867 -0.49 194 150 121
-0.00884857 -0.427991 -0.489 192 151 121
0.00788476 -0.426241 -0.487 195 150 121
0.0200257 -0.427991 -0.489 188 141 111
0.0274771 -0.427991 -0.489 199 152 122
0.0284086 -0.427991 -0.489 197 150 120
0.0369419 -0.429742 -0.491 192 145 117
0.0408486 -0.431492 -0.493 186 140 114
0.0509524 -0.437619 -0.5 170 128 106
0.0640029 -0.448997 -0.513 128 95 80
0.0699629 -0.455999 -0.521 105 85 78
0.2834 -0.47788 -0.546 201 201 203
0.28444 -0.47788 -0.546 200 200 202
0.30427 -0.47963 -0.548 194 192 195
0.312146 -0.480506 -0.549 189 189 191
0.32752 -0.483131 -0.552 182 182 184
0.349386 -0.485757 -0.555 164 162 165
0.353192 -0.486632 -0.556 162 160 165
0.354889 -0.487508 -0.557 162 160 165
0.368681 -0.487508 -0.557 145 145 147
0.372531 -0.488383 -0.558 140 140 142
0.378909 -0.488383 -0.558 133 133 135
0.381412 -0.487508 -0.557 130 130 132
0.382473 -0.487508 -0.557 129 129 131
0.404753 -0.487508 -0.557 107 109 108
0.414929 -0.485757 -0.555 100 99 104
0.4181 -0.485757 -0.555 98 97 102
0.423386 -0.485757 -0.555 95 94 99
0.441887 -0.487508 -0.557 81 81 83
0.452246 -0.488383 -0.558 77 76 81
0.46191 -0.491884 -0.562 74 73 78
0.460943 -0.446371 -0.51 135 102 85
0.461183 -0.44287 -0.506 149 105 80
0.463377 -0.435869 -0.498 164 119 90
0.4653 -0.433243 -0.495 167 122 91
0.469022 -0.429742 -0.491 172 126 93
0.480245 -0.429742 -0.491 173 124 91
0.482115 -0.429742 -0.491 175 126 94
0.484921 -0.429742 -0.491 174 128 95
0.487727 -0.429742 -0.491 170 121 89
0.490532 -0.429742 -0.491 171 122 90
0.497154 -0.430617 -0.492 170 121 89
0.499029 -0.430617 -0.492 170 121 88
0.501921 -0.431492 -0.493 164 118 85
0.839743 -0.509389 -0.582 119 121 118
0.863373 -0.51289 -0.586 109 110 105
0.872673 -0.513765 -0.587 102 103 98
0.873791 -0.513765 -0.587 101 102 97
0.877146 -0.513765 -0.587 130 132 127
-0.306712 -0.449097 -0.512 224 225 217
-0.302811 -0.449097 -0.512 223 224 216
-0.293631 -0.449974 -0.513 224 226 215
-0.285814 -0.449974 -0.513 225 226 218
-0.275066 -0.449974 -0.513 224 225 217
-0.272134 -0.449974 -0.513 225 226 218
-0.270707 -0.450851 -0.514 226 227 219
-0.266271 -0.449974 -0.513 226 227 219
-0.26334 -0.449974 -0.513 226 227 219
-0.259431 -0.449974 -0.513 227 228 220
-0.258454 -0.449974 -0.513 227 228 220
-0.251126 -0.450851 -0.514 227 228 220
-0.245251 -0.450851 -0.514 227 228 220
-0.231545 -0.450851 -0.514 226 228 217
-0.229587 -0.450851 -0.514 227 229 218
-0.224148 -0.451729 -0.515 228 230 219
-0.220224 -0.451729 -0.515 226 228 217
-0.215319 -0.451729 -0.515 227 229 218
-0.204529 -0.451729 -0.515 228 229 221
-0.199029 -0.452606 -0.516 228 230 219
-0.19608 -0.452606 -0.516 228 230 219
-0.1892 -0.452606 -0.516 229 230 222
-0.163963 -0.453483 -0.517 230 231 223
-0.152146 -0.453483 -0.517 230 231 223
-0.150176 -0.453483 -0.517 230 231 223
-0.10034 -0.455237 -0.519 231 232 224
-0.0953971 -0.455237 -0.519 230 232 221
-0.0272905 -0.456991 -0.521 215 205 193
-0.0252571 -0.456114 -0.52 179 153 130
-0.02422 -0.455237 -0.519 180 154 131
-0.0156829 -0.437694 -0.499 190 151 122
-0.0107333 -0.4298 -0.49 194 153 123
0.00509143 -0.426291 -0.486 196 151 120
0.00601714 -0.426291 -0.486 197 152 121
0.0106895 -0.428046 -0.488 198 153 122
0.0200257 -0.428923 -0.489 190 143 113
0.0360067 -0.430677 -0.491 192 145 115
0.0388914 -0.431554 -0.492 189 142 112
0.0478067 -0.43594 -0.497 172 127 104
0.2507 -0.478043 -0.545 204 204 204
0.253814 -0.478043 -0.545 202 202 202
0.26364 -0.47892 -0.546 199 198 196
0.2678 -0.47892 -0.546 196 196 196
0.26988 -0.47892 -0.546 196 196 196
0.27196 -0.47892 -0.546 193 193 193
0.273 -0.47892 -0.546 194 194 194
0.27508 -0.47892 -0.546 192 192 194
0.27871 -0.479797 -0.547 192 192 194
0.282877 -0.479797 -0.547 191 189 194
0.311184 -0.483306 -0.551 174 172 177
0.315954 -0.484183 -0.552 168 165 172
0.3239 -0.48506 -0.553 162 161 167
0.326596 -0.485937 -0.554 160 159 164
0.337307 -0.487691 -0.556 149 148 153
0.342157 -0.488569 -0.557 142 141 146
0.360643 -0.492077 -0.561 128 126 131
0.383766 -0.492954 -0.562 100 99 104
0.408336 -0.490323 -0.559 79 80 82
0.42203 -0.487691 -0.556 70 71 75
0.424149 -0.487691 -0.556 71 72 76
0.425208 -0.487691 -0.556 69 70 75
0.432338 -0.488569 -0.557 68 67 73
0.441617 -0.489446 -0.558 65 64 69
0.465452 -0.495586 -0.565 60 59 65
0.467914 -0.464886 -0.53 99 83 70
0.467273 -0.462254 -0.527 102 83 66
0.46128 -0.44208 -0.504 147 101 77
0.462351 -0.439449 -0.501 154 108 82
0.46434 -0.43594 -0.497 163 118 89
0.466237 -0.432431 -0.493 169 123 90
0.475533 -0.4298 -0.49 168 122 89
0.478333 -0.4298 -0.49 169 123 89
0.490532 -0.430677 -0.491 172 123 91
0.499966 -0.431554 -0.492 165 119 86
0.519524 -0.438571 -0.5 158 115 83
0.542957 -0.451729 -0.515 154 110 81
0.840075 -0.511374 -0.583 120 122 119
0.857792 -0.514006 -0.586 52 53 48
0.866671 -0.516637 -0.589 104 105 100
0.86856 -0.51576 -0.588 109 110 105
0.87304 -0.51576 -0.588 101 102 97
0.8764 -0.51576 -0.588 105 105 103
0.894394 -0.521023 -0.594 66 68 63
-0.297935 -0.450072 -0.512 224 226 215
-0.282883 -0.450951 -0.513 226 228 217
-0.277997 -0.450951 -0.513 225 227 216
-0.27702 -0.450951 -0.513 224 226 215
-0.268226 -0.450951 -0.513 225 226 218
-0.262363 -0.450951 -0.513 226 228 217
-0.252591 -0.450951 -0.513 226 227 219
-0.251614 -0.450951 -0.513 225 226 218
-0.239377 -0.45183 -0.514 227 228 220
-0.234482 -0.45183 -0.514 226 228 217
-0.218262 -0.45271 -0.515 226 228 215
-0.208452 -0.45271 -0.515 227 229 218
-0.191166 -0.453589 -0.516 229 230 222
-0.187234 -0.453589 -0.516 229 231 220
-0.166594 -0.453589 -0.516 229 230 222
-0.165611 -0.453589 -0.516 230 231 223
-0.11988 -0.455347 -0.518 230 231 223
-0.118893 -0.455347 -0.518 230 231 223
-0.112973 -0.455347 -0.518 229 230 222
-0.0241733 -0.455347 -0.518 182 152 126
-0.0187943 -0.444798 -0.506 188 149 120
-0.0136162 -0.43337 -0.493 189 150 121
-0.0116667 -0.430733 -0.49 191 152 121
-0.00323333 -0.426338 -0.485 197 153 124
-0.000461905 -0.426338 -0.485 196 152 125
0.00230952 -0.426338 -0.485 196 153 121
0.0153371 -0.428975 -0.488 199 154 125
0.0428133 -0.43425 -0.494 179 133 109
0.0448762 -0.436008 -0.496 178 132 109
0.243433 -0.479081 -0.545 195 195 197
0.247586 -0.479081 -0.545 195 193 196
0.248624 -0.479081 -0.545 194 192 195
0.2522 -0.47996 -0.546 192 190 193
0.25532 -0.47996 -0.546 191 189 192
0.25636 -0.47996 -0.546 189 187 190
0.287049 -0.482597 -0.549 166 165 171
0.290714 -0.483476 -0.55 163 162 168
0.29281 -0.483476 -0.55 162 159 166
0.307543 -0.485234 -0.552 147 145 150
0.322957 -0.487871 -0.555 131 130 136
0.325657 -0.48875 -0.556 127 126 132
0.337457 -0.490509 -0.558 113 112 118
0.34445 -0.491388 -0.559 107 106 111
0.3472 -0.492267 -0.56 104 103 108
0.352722 -0.494025 -0.562 98 97 102
0.38502 -0.49842 -0.567 75 74 80
0.3861 -0.49842 -0.567 74 73 79
0.39906 -0.49842 -0.567 66 65 73
0.403747 -0.497541 -0.566 63 62 70
0.416109 -0.490509 -0.558 61 62 67
0.433114 -0.490509 -0.558 58 59 64
0.43602 -0.491388 -0.559 57 58 63
0.447467 -0.492267 -0.56 58 58 66
0.467924 -0.499299 -0.568 56 55 63
0.474488 -0.502815 -0.572 55 56 61
0.468797 -0.466774 -0.531 94 77 69
0.4665 -0.4615 -0.525 101 81 70
0.466242 -0.43425 -0.494 169 120 90
0.466229 -0.432491 -0.492 172 123 91
0.470867 -0.430733 -0.49 170 124 91
0.4718 -0.430733 -0.49 167 121 88
0.476467 -0.430733 -0.49 168 122 89
0.482067 -0.430733 -0.49 173 124 91
0.4886 -0.430733 -0.49 174 125 93
0.497079 -0.431612 -0.491 168 119 86
0.499885 -0.431612 -0.491 164 118 85
0.508585 -0.43425 -0.494 165 119 86
0.557369 -0.459742 -0.523 128 99 81
0.563639 -0.463258 -0.527 82 65 55
0.874816 -0.521275 -0.593 112 113 108
0.886124 -0.518638 -0.59 101 103 98
0.890255 -0.520396 -0.592 89 91 86
0.901556 -0.52567 -0.598 56 58 53
-0.306113 -0.450167 -0.511 223 224 216
-0.295985 -0.451048 -0.512 224 226 215
-0.290133 -0.451048 -0.512 223 225 214
-0.284282 -0.451048 -0.512 226 228 217
-0.26334 -0.451929 -0.513 226 228 217
-0.258926 -0.451048 -0.512 226 227 219
-0.252591 -0.451929 -0.513 226 227 219
-0.243797 -0.451929 -0.513 226 227 219
-0.240866 -0.451929 -0.513 226 228 217
-0.240356 -0.45281 -0.514 226 228 217
-0.23644 -0.45281 -0.514 227 229 218
-0.221754 -0.45281 -0.514 227 229 218
-0.219796 -0.45281 -0.514 227 229 218
-0.199624 -0.45369 -0.515 228 230 219
-0.190795 -0.45369 -0.515 228 229 221
-0.189814 -0.45369 -0.515 228 229 221
-0.173474 -0.454571 -0.516 229 230 222
-0.171509 -0.454571 -0.516 229 230 222
-0.170526 -0.454571 -0.516 229 230 222
-0.157749 -0.454571 -0.516 229 230 222
-0.152834 -0.454571 -0.516 229 230 222
-0.142298 -0.455452 -0.517 230 231 223
-0.139344 -0.455452 -0.517 230 231 223
-0.137374 -0.455452 -0.517 229 230 222
-0.133435 -0.455452 -0.517 229 230 222
-0.116694 -0.455452 -0.517 232 233 225
-0.114725 -0.455452 -0.517 231 232 224
-0.10508 -0.456333 -0.518 230 231 223
-0.104093 -0.456333 -0.518 230 231 223
-0.0208857 -0.449286 -0.51 188 148 122
-0.0186829 -0.443119 -0.503 189 150 119
-0.0155257 -0.43519 -0.494 190 151 120
-0.0145257 -0.433429 -0.492 190 151 120
-0.0116429 -0.430786 -0.489 191 152 121
-0.00788476 -0.429024 -0.487 184 143 113
-0.000461905 -0.427262 -0.485 197 153 126
0.00323333 -0.427262 -0.485 194 150 121
0.00415714 -0.427262 -0.485 195 151 122
0.0106676 -0.429024 -0.487 196 151 120
0.0144076 -0.429905 -0.488 197 152 121
0.0153371 -0.429905 -0.488 197 152 121
0.0181257 -0.429905 -0.488 197 152 123
0.0255095 -0.429024 -0.487 197 150 120
0.02928 -0.429905 -0.488 194 147 117
0.0369419 -0.432548 -0.491 191 146 117
0.0378771 -0.432548 -0.491 190 145 116
0.04686 -0.437833 -0.497 171 126 103
0.0618067 -0.450167 -0.511 128 95 80
0.0664714 -0.455452 -0.517 115 88 79
0.0700971 -0.459857 -0.522 100 79 74
0.0826467 -0.474833 -0.539 91 75 75
0.229516 -0.479238 -0.544 193 191 194
0.2418 -0.481 -0.546 185 183 186
0.247 -0.481 -0.546 181 180 185
0.249536 -0.481881 -0.547 181 179 184
0.266134 -0.483643 -0.549 167 162 169
0.269762 -0.484524 -0.55 161 158 165
0.278649 -0.485405 -0.551 149 148 154
0.280748 -0.485405 -0.551 146 145 151
0.281797 -0.485405 -0.551 146 143 150
0.286514 -0.486286 -0.552 139 138 146
0.288087 -0.487167 -0.553 138 137 145
0.307146 -0.49069 -0.557 113 112 118
0.317333 -0.493333 -0.56 102 101 109
0.317831 -0.492452 -0.559 101 100 108
0.323733 -0.493333 -0.56 94 91 100
0.334047 -0.495976 -0.563 88 85 92
0.337863 -0.496857 -0.564 84 81 88
0.343843 -0.497738 -0.565 77 76 82
0.344919 -0.497738 -0.565 77 76 82
0.347686 -0.498619 -0.566 74 73 79
0.446129 -0.494214 -0.561 57 57 65
0.46386 -0.4995 -0.567 54 53 61
0.476976 -0.506548 -0.575 53 54 59
0.478903 -0.507429 -0.576 54 55 60
0.470563 -0.469548 -0.533 86 72 69
0.468924 -0.466905 -0.53 94 77 70
0.465823 -0.459857 -0.522 110 83 74
0.463239 -0.443119 -0.503 149 102 76
0.466242 -0.43519 -0.494 169 118 89
0.475494 -0.430786 -0.489 167 121 88
0.482067 -0.431667 -0.49 170 122 86
0.483 -0.431667 -0.49 167 121 87
0.4914 -0.431667 -0.49 173 124 91
0.503714 -0.433429 -0.492 166 121 88
0.504651 -0.433429 -0.492 166 121 88
0.508585 -0.43519 -0.494 164 119 86
0.552117 -0.457214 -0.519 146 108 85
0.5615 -0.4625 -0.525 81 64 54
0.880377 -0.525048 -0.596 110 111 106
-0.294034 -0.452023 -0.512 224 226 215
-0.286647 -0.45114 -0.511 224 226 215
-0.27843 -0.452023 -0.512 225 227 216
-0.260876 -0.452023 -0.512 226 227 219
-0.259901 -0.452023 -0.512 226 227 219
-0.244774 -0.452906 -0.513 227 228 220
-0.240866 -0.452906 -0.513 227 229 218
-0.237934 -0.452906 -0.513 226 228 215
-0.23598 -0.452906 -0.513 226 228 215
-0.235003 -0.452906 -0.513 227 229 216
-0.224254 -0.452906 -0.513 227 229 218
-0.201194 -0.453789 -0.514 228 230 219
-0.192383 -0.453789 -0.514 229 231 220
-0.162348 -0.454671 -0.515 229 231 220
-0.159405 -0.454671 -0.515 228 230 219
-0.151851 -0.455554 -0.516 230 232 221
-0.143006 -0.455554 -0.516 229 230 222
-0.117679 -0.456437 -0.517 231 232 224
-0.11374 -0.456437 -0.517 229 230 222
-0.0218571 -0.450257 -0.51 188 147 117
-0.0208038 -0.448491 -0.508 190 150 125
-0.0186086 -0.442311 -0.501 189 150 119
-0.0175486 -0.439663 -0.498 191 152 121
0.00692857 -0.428186 -0.485 198 154 125
0.0115952 -0.429951 -0.487 197 152 121
0.0302095 -0.430834 -0.488 192 147 118
0.0388914 -0.434366 -0.492 184 140 111
0.0596257 -0.449374 -0.509 138 102 86
0.0664714 -0.456437 -0.517 113 88 81
0.0688381 -0.459086 -0.52 103 82 77
0.0700971 -0.460851 -0.522 100 79 74
0.0848571 -0.476743 -0.54 91 77 76
0.0858857 -0.476743 -0.54 98 86 86
0.0898333 -0.47586 -0.539 139 133 135
0.208025 -0.478509 -0.542 194 192 197
0.210477 -0.479391 -0.543 192 191 199
0.21501 -0.480274 -0.544 189 187 192
0.217082 -0.480274 -0.544 189 187 192
0.222671 -0.481157 -0.545 181 178 185
0.2262 -0.48204 -0.546 178 176 181
0.22828 -0.48204 -0.546 178 176 181
0.237033 -0.482923 -0.547 168 166 169
0.248357 -0.484689 -0.549 155 154 159
0.253 -0.485571 -0.55 148 147 153
0.25719 -0.485571 -0.55 142 139 148
0.270743 -0.487337 -0.552 121 118 127
0.28859 -0.490869 -0.556 97 96 104
0.28965 -0.490869 -0.556 96 95 103
0.297601 -0.493517 -0.559 90 87 96
0.304009 -0.495283 -0.561 84 81 90
0.309903 -0.496166 -0.562 80 78 89
0.310973 -0.496166 -0.562 79 77 88
0.317451 -0.497931 -0.564 77 75 86
0.321811 -0.499697 -0.566 76 74 85
0.33869 -0.502346 -0.569 71 68 75
0.340371 -0.503229 -0.57 71 68 75
0.344231 -0.504111 -0.571 69 66 73
0.351371 -0.504994 -0.572 68 65 74
0.35526 -0.505877 -0.573 69 66 73
0.415641 -0.502346 -0.569 57 56 64
0.427655 -0.496166 -0.562 57 56 64
0.434549 -0.497931 -0.564 55 55 65
0.486944 -0.514706 -0.583 47 46 54
0.487508 -0.491751 -0.557 27 24 35
0.466817 -0.460851 -0.522 111 84 75
0.464315 -0.456437 -0.517 116 86 76
0.463579 -0.453789 -0.514 123 89 77
0.4727 -0.431717 -0.489 169 120 87
0.475494 -0.431717 -0.489 169 120 87
0.47922 -0.431717 -0.489 169 120 87
0.480151 -0.431717 -0.489 169 120 87
0.487667 -0.4326 -0.49 173 124 91
0.4886 -0.4326 -0.49 173 124 91
0.498867 -0.4326 -0.49 167 121 88
0.50269 -0.433483 -0.491 167 121 88
0.508494 -0.435249 -0.493 162 117 86
0.53857 -0.449374 -0.509 152 108 81
0.885949 -0.528831 -0.599 109 110 105
-0.310371 -0.451229 -0.51 224 226 215
-0.306486 -0.451229 -0.51 224 226 215
-0.297353 -0.452113 -0.511 225 227 216
-0.292487 -0.452113 -0.511 224 226 215
-0.272579 -0.452998 -0.512 225 226 218
-0.262827 -0.452998 -0.512 226 228 217
-0.247223 -0.452998 -0.512 225 226 218
-0.231094 -0.453883 -0.513 227 228 220
-0.228163 -0.453883 -0.513 227 228 220
-0.225231 -0.453883 -0.513 227 228 220
-0.224254 -0.453883 -0.513 227 228 220
-0.2223 -0.453883 -0.513 226 227 219
-0.211551 -0.453883 -0.513 229 230 222
-0.210574 -0.453883 -0.513 227 228 220
-0.20609 -0.454768 -0.514 229 230 222
-0.196299 -0.454768 -0.514 227 229 218
-0.180005 -0.455652 -0.515 229 231 220
-0.177062 -0.455652 -0.515 227 229 218
-0.176081 -0.455652 -0.515 227 229 218
-0.171176 -0.455652 -0.515 228 231 220
-0.16431 -0.455652 -0.515 228 231 220
-0.163329 -0.455652 -0.515 228 231 220
-0.160386 -0.455652 -0.515 228 231 220
-0.1545 -0.455652 -0.515 228 231 220
-0.142023 -0.456537 -0.516 230 231 223
-0.132194 -0.456537 -0.516 228 229 221
-0.105862 -0.457422 -0.517 229 230 222
-0.0115952 -0.430879 -0.487 191 150 120
-0.00972 -0.429994 -0.486 190 149 119
-0.00692857 -0.42911 -0.485 189 145 116
-0.00600476 -0.42911 -0.485 196 152 123
-0.00230476 -0.428225 -0.484 197 151 125
0.00507048 -0.428225 -0.484 196 152 123
0.00691429 -0.428225 -0.484 197 153 124
0.0125229 -0.430879 -0.487 197 152 121
0.0190162 -0.430879 -0.487 196 151 120
0.0199438 -0.430879 -0.487 196 151 120
0.0227267 -0.430879 -0.487 199 154 123
0.0641276 -0.454768 -0.514 118 90 79
0.06536 -0.456537 -0.516 114 86 75
0.0836733 -0.476887 -0.539 89 75 74
0.174666 -0.478656 -0.541 186 183 190
0.182551 -0.480426 -0.543 178 176 181
0.187723 -0.480426 -0.543 171 168 175
0.200134 -0.480426 -0.543 182 181 186
0.202575 -0.481311 -0.544 183 181 186
0.211252 -0.482195 -0.545 170 168 173
0.21892 -0.48308 -0.546 165 164 169
0.256023 -0.488389 -0.552 111 109 114
0.258126 -0.488389 -0.552 109 107 112
0.273271 -0.491043 -0.555 93 92 98
0.327917 -0.505199 -0.571 77 76 84
0.341167 -0.508738 -0.575 74 73 81
0.42032 -0.502545 -0.568 56 54 65
0.431326 -0.499006 -0.564 50 48 61
0.446081 -0.49989 -0.565 39 39 49
0.449027 -0.500775 -0.566 40 43 52
0.463726 -0.452998 -0.512 130 93 77
0.46426 -0.443266 -0.501 149 104 83
0.464286 -0.442381 -0.5 152 107 84
0.47922 -0.432649 -0.489 168 119 86
0.483877 -0.432649 -0.489 172 123 90
0.489466 -0.432649 -0.489 173 124 92
0.494123 -0.432649 -0.489 172 123 91
0.4998 -0.433533 -0.49 167 121 88
0.501667 -0.433533 -0.49 167 120 90
0.526289 -0.443266 -0.501 153 110 78
-0.306486 -0.4522 -0.51 224 226 215
-0.305514 -0.4522 -0.51 224 226 215
-0.283727 -0.453087 -0.511 225 226 218
-0.272047 -0.453087 -0.511 226 227 219
-0.253553 -0.453087 -0.511 226 228 217
-0.250633 -0.453087 -0.511 226 228 217
-0.240396 -0.453973 -0.512 226 227 219
-0.220346 -0.45486 -0.513 227 229 218
-0.211139 -0.453973 -0.512 229 230 222
-0.192383 -0.455747 -0.514 228 229 221
-0.165949 -0.455747 -0.514 228 230 219
-0.151557 -0.456633 -0.515 229 231 220
-0.150576 -0.456633 -0.515 229 231 220
-0.148614 -0.456633 -0.515 229 231 220
-0.12728 -0.45752 -0.516 229 232 221
-0.124331 -0.45752 -0.516 229 232 221
-0.119417 -0.45752 -0.516 230 233 222
-0.11352 -0.45752 -0.516 228 232 218
-0.0238467 -0.453087 -0.511 190 151 118
-0.0184229 -0.439787 -0.496 192 151 121
-0.0144371 -0.43358 -0.489 190 149 119
-0.0115952 -0.431807 -0.487 190 149 119
-0.0097 -0.430033 -0.485 191 150 120
0.00322667 -0.429147 -0.484 195 150 121
0.00691429 -0.429147 -0.484 198 153 122
0.00783619 -0.429147 -0.484 198 153 122
0.0171257 -0.43092 -0.486 194 149 118
0.0245314 -0.43092 -0.486 194 149 118
0.0368667 -0.434467 -0.49 191 147 118
0.05746 -0.44954 -0.507 137 104 89
0.0642524 -0.456633 -0.515 115 88 79
0.0848571 -0.4788 -0.54 83 72 70
0.0917162 -0.477027 -0.538 150 148 149
0.0999143 -0.477027 -0.538 178 176 177
0.101964 -0.477027 -0.538 183 181 182
0.105038 -0.477027 -0.538 184 183 181
0.126793 -0.477913 -0.539 205 203 204
0.146571 -0.4788 -0.54 190 188 193
0.157148 -0.479687 -0.541 177 176 181
0.160535 -0.480573 -0.542 173 172 178
0.174277 -0.48146 -0.543 156 153 160
0.179779 -0.482347 -0.544 147 144 151
0.18876 -0.48412 -0.546 131 128 135
0.20191 -0.483233 -0.545 150 147 154
0.208902 -0.485007 -0.547 139 136 143
0.213459 -0.485893 -0.548 132 129 136
0.257414 -0.4921 -0.555 88 87 93
0.278435 -0.495647 -0.559 81 80 88
0.283706 -0.49742 -0.561 79 78 84
0.46701 -0.461067 -0.52 110 83 74
0.464026 -0.44954 -0.507 140 97 80
0.465238 -0.443333 -0.5 149 108 86
0.467151 -0.435353 -0.491 169 120 90
0.468087 -0.435353 -0.491 169 120 90
0.471769 -0.43358 -0.489 170 121 89
0.475494 -0.43358 -0.489 169 120 88
0.476426 -0.43358 -0.489 170 121 89
0.477357 -0.43358 -0.489 170 121 89
0.480151 -0.43358 -0.489 169 120 88
0.484809 -0.43358 -0.489 174 125 93
0.486671 -0.43358 -0.489 174 125 93
0.499711 -0.43358 -0.489 167 121 88
0.5026 -0.434467 -0.49 167 120 90
0.503533 -0.434467 -0.49 167 120 90
0.517157 -0.4389 -0.495 160 115 92
0.519147 -0.439787 -0.496 159 115 88
0.553929 -0.458407 -0.517 125 94 73
-0.308793 -0.452283 -0.509 224 225 217
-0.301629 -0.453171 -0.51 224 226 215
-0.300657 -0.453171 -0.51 223 225 214
-0.284143 -0.453171 -0.51 225 227 216
-0.256473 -0.45406 -0.511 226 228 217
-0.254527 -0.45406 -0.511 227 229 218
-0.248687 -0.45406 -0.511 225 226 218
-0.243322 -0.454949 -0.512 227 228 220
-0.23747 -0.454949 -0.512 227 228 220
-0.23552 -0.454949 -0.512 227 228 220
-0.232594 -0.454949 -0.512 227 229 218
-0.225768 -0.454949 -0.512 226 228 217
-0.216015 -0.454949 -0.512 227 229 218
-0.214065 -0.454949 -0.512 227 229 218
-0.211139 -0.454949 -0.512 227 228 220
-0.199826 -0.455837 -0.513 229 230 222
-0.171823 -0.456726 -0.514 229 231 220
-0.16497 -0.456726 -0.514 229 231 220
-0.153519 -0.457614 -0.515 229 230 222
-0.146368 -0.456726 -0.514 230 231 223
-0.139786 -0.457614 -0.515 229 231 220
-0.122129 -0.457614 -0.515 230 233 224
-0.109589 -0.458503 -0.516 228 231 222
-0.107623 -0.458503 -0.516 228 231 222
-0.0290505 -0.459391 -0.517 178 151 122
-0.0280114 -0.458503 -0.516 177 150 121
-0.0087581 -0.430069 -0.484 192 148 119
-0.0023 -0.42918 -0.483 196 152 123
0.00046 -0.42918 -0.483 195 152 120
0.00138 -0.42918 -0.483 195 152 120
0.00506 -0.42918 -0.483 197 154 122
0.0245314 -0.431846 -0.486 194 149 118
0.0254571 -0.431846 -0.486 190 145 114
0.045821 -0.440731 -0.496 171 126 103
0.0479029 -0.442509 -0.498 164 122 100
0.0489495 -0.443397 -0.499 161 120 100
0.0510543 -0.445174 -0.501 157 116 98
0.119385 -0.478051 -0.538 161 159 162
0.12041 -0.478051 -0.538 185 183 184
0.125767 -0.47894 -0.539 184 182 183
0.147114 -0.481606 -0.542 162 159 166
0.15566 -0.482494 -0.543 148 147 155
0.164538 -0.484271 -0.545 131 128 135
0.166614 -0.484271 -0.545 125 122 129
0.17628 -0.48516 -0.546 115 112 119
0.17836 -0.48516 -0.546 112 109 116
0.184938 -0.486049 -0.547 103 102 108
0.188408 -0.486937 -0.548 101 100 108
0.191539 -0.486937 -0.548 99 98 104
0.19467 -0.486937 -0.548 94 93 99
0.197117 -0.487826 -0.549 94 93 101
0.200567 -0.486049 -0.547 111 108 115
0.201609 -0.486049 -0.547 111 108 115
0.221974 -0.489603 -0.551 92 89 98
0.239443 -0.493157 -0.555 85 84 90
0.24411 -0.494046 -0.556 88 87 95
0.261399 -0.496711 -0.559 82 81 89
0.272436 -0.499377 -0.562 81 80 88
0.276138 -0.500266 -0.563 79 78 86
0.280926 -0.501154 -0.564 79 78 86
0.294771 -0.506486 -0.57 75 73 84
0.409194 -0.538474 -0.606 34 35 40
0.42772 -0.513594 -0.578 14 14 24
0.470394 -0.467389 -0.526 100 80 73
0.4671 -0.461169 -0.519 107 82 75
0.464701 -0.454949 -0.512 123 89 77
0.465187 -0.446063 -0.502 141 103 80
0.466242 -0.438954 -0.494 158 114 85
0.467166 -0.437177 -0.492 163 118 87
0.471769 -0.434511 -0.489 168 119 89
0.476426 -0.434511 -0.489 170 121 89
0.483877 -0.434511 -0.489 174 125 93
0.484809 -0.434511 -0.489 175 126 94
0.487535 -0.433623 -0.488 173 124 92
0.49683 -0.433623 -0.488 167 121 88
0.527143 -0.444286 -0.5 155 110 81
0.531164 -0.446063 -0.502 156 109 81
0.544486 -0.453171 -0.51 150 108 83
-0.305885 -0.453252 -0.509 224 226 215
-0.298714 -0.454143 -0.51 223 225 214
-0.284555 -0.453252 -0.509 224 226 215
-0.276371 -0.454143 -0.51 225 226 218
-0.27594 -0.455033 -0.511 224 225 217
-0.27302 -0.455033 -0.511 226 227 219
-0.271514 -0.454143 -0.51 226 227 219
-0.2686 -0.454143 -0.51 226 227 219
-0.257914 -0.454143 -0.51 225 226 218
-0.248687 -0.455033 -0.511 226 227 219
-0.2409 -0.455033 -0.511 226 227 219
-0.227718 -0.455924 -0.512 227 229 218
-0.224792 -0.455924 -0.512 226 228 217
-0.20586 -0.455033 -0.511 227 228 220
-0.203337 -0.455924 -0.512 228 229 221
-0.199436 -0.455924 -0.512 228 229 221
-0.171823 -0.457705 -0.514 229 231 220
-0.170844 -0.457705 -0.514 229 231 220
-0.168886 -0.457705 -0.514 228 230 219
-0.166928 -0.457705 -0.514 227 229 218
-0.161053 -0.457705 -0.514 228 230 219
-0.153221 -0.457705 -0.514 229 230 222
-0.126052 -0.458595 -0.515 230 231 225
-0.03102 -0.460376 -0.517 186 160 135
-0.0236133 -0.450581 -0.506 184 145 112
-0.0172667 -0.436333 -0.49 189 150 121
-0.0153057 -0.433662 -0.487 190 151 122
-0.0134229 -0.432771 -0.486 188 149 120
-0.0115476 -0.431881 -0.485 193 152 122
0.00229524 -0.42921 -0.482 196 153 119
0.0143486 -0.432771 -0.486 194 151 119
0.0170905 -0.431881 -0.485 192 149 117
0.0189771 -0.432771 -0.486 195 150 119
0.0199029 -0.432771 -0.486 198 153 122
0.0226333 -0.431881 -0.485 198 153 122
0.04686 -0.442567 -0.497 162 119 100
0.0531743 -0.44791 -0.503 148 109 92
0.0619276 -0.455924 -0.512 119 89 78
0.0677171 -0.462157 -0.519 103 79 75
0.0814686 -0.479076 -0.538 86 70 70
0.0870752 -0.481748 -0.541 90 81 82
0.0891362 -0.481748 -0.541 101 95 97
0.0961714 -0.480857 -0.54 125 123 128
0.099441 -0.481748 -0.541 132 130 135
0.117553 -0.479967 -0.539 120 120 122
0.122687 -0.479967 -0.539 157 155 158
0.130596 -0.482638 -0.542 152 147 151
0.140404 -0.484419 -0.544 129 126 133
0.145585 -0.484419 -0.544 119 116 125
0.15964 -0.4862 -0.546 102 101 109
0.173477 -0.48709 -0.547 99 98 106
0.198194 -0.491543 -0.552 93 92 100
0.20938 -0.490652 -0.551 89 88 96
0.229284 -0.495105 -0.556 87 86 94
0.273297 -0.50401 -0.566 79 78 86
0.274375 -0.50401 -0.566 78 77 83
0.27594 -0.5049 -0.567 79 78 84
0.291957 -0.510243 -0.573 72 72 80
0.414596 -0.546752 -0.614 17 18 23
0.416256 -0.545862 -0.613 16 17 22
0.43425 -0.549424 -0.617 15 15 25
0.448628 -0.551205 -0.619 13 13 23
0.4695 -0.4675 -0.525 94 77 70
0.467187 -0.461267 -0.518 105 81 69
