ply
format ascii 1.0
comment Created by Open3D
element vertex 1282
property double x
property double y
property double z
property uchar red
property uchar green
property uchar blue
end_header
-0.122514 -0.165181 -0.64 199 196 187
-0.117147 -0.166213 -0.644 202 199 190
-0.113995 -0.166988 -0.647 202 199 190
0.35046 -0.167504 -0.649 39 35 49
0.358997 -0.160277 -0.621 139 124 127
0.376002 -0.15847 -0.614 167 134 143
-0.14742 -0.16562 -0.637 184 184 176
-0.137836 -0.16432 -0.632 191 188 181
-0.12922 -0.16562 -0.637 195 192 183
-0.124952 -0.1664 -0.64 197 194 187
-0.122706 -0.16666 -0.641 198 195 188
-0.117147 -0.16744 -0.644 202 199 190
0.356365 -0.16406 -0.631 45 39 51
0.357063 -0.16328 -0.628 49 43 53
0.365493 -0.16016 -0.616 76 53 59
0.366667 -0.16016 -0.616 69 46 52
0.372493 -0.15964 -0.614 167 136 144
-0.13904 -0.165524 -0.632 190 187 180
-0.137836 -0.165524 -0.632 191 188 179
-0.131233 -0.16631 -0.635 194 191 182
-0.117329 -0.168929 -0.645 201 198 191
-0.11628 -0.16919 -0.646 200 197 190
0.3606 -0.165 -0.63 43 37 49
0.376614 -0.161071 -0.615 168 135 146
0.382471 -0.161071 -0.615 173 142 150
0.397577 -0.163429 -0.624 163 134 139
0.405082 -0.165524 -0.632 133 104 109
-0.13904 -0.166728 -0.632 190 187 180
-0.133442 -0.167255 -0.634 193 190 181
0.367273 -0.163298 -0.619 126 111 116
-0.152512 -0.169526 -0.638 182 182 174
-0.143628 -0.167666 -0.631 189 186 179
-0.135643 -0.168197 -0.633 193 190 181
-0.122897 -0.170589 -0.642 199 196 187
-0.118557 -0.171386 -0.645 201 198 189
-0.114348 -0.172449 -0.649 199 196 187
0.366324 -0.170057 -0.64 41 41 53
0.366049 -0.166603 -0.627 48 46 57
0.366684 -0.165274 -0.622 74 67 75
0.370211 -0.164211 -0.618 110 95 100
0.370788 -0.163946 -0.617 99 83 84
0.386613 -0.16368 -0.616 168 138 146
-0.308986 -0.172614 -0.645 251 252 244
-0.30728 -0.172347 -0.644 251 252 244
-0.298852 -0.17315 -0.647 252 253 247
-0.152512 -0.170741 -0.638 182 182 174
-0.135643 -0.169403 -0.633 193 190 181
-0.13144 -0.170206 -0.636 194 191 182
-0.122053 -0.172347 -0.644 198 195 186
0.371389 -0.165389 -0.618 97 82 87
-0.322524 -0.17519 -0.65 251 252 246
-0.298523 -0.172765 -0.641 252 253 247
-0.295471 -0.173843 -0.645 252 253 247
-0.135857 -0.170878 -0.634 193 190 183
-0.133652 -0.171148 -0.635 194 191 184
-0.131647 -0.171687 -0.637 194 191 184
-0.122243 -0.173843 -0.645 199 196 187
-0.118925 -0.174382 -0.647 198 195 186
-0.114524 -0.17519 -0.65 199 196 187
0.37259 -0.167105 -0.62 76 65 71
0.394567 -0.167913 -0.623 165 134 142
0.397659 -0.168722 -0.626 159 128 136
-0.317331 -0.174257 -0.642 251 252 246
-0.302986 -0.172357 -0.635 252 253 245
-0.299829 -0.172629 -0.636 251 252 246
-0.298617 -0.172629 -0.636 251 252 246
-0.291008 -0.175343 -0.646 252 253 247
-0.140022 -0.171271 -0.631 192 189 182
-0.135857 -0.172086 -0.634 194 191 184
-0.125538 -0.174529 -0.643 198 195 186
-0.120157 -0.175614 -0.647 197 194 185
-0.119109 -0.175886 -0.648 197 194 185
0.374747 -0.1748 -0.644 42 42 54
0.373207 -0.170729 -0.629 42 39 48
0.376133 -0.168286 -0.62 67 60 68
0.376706 -0.168014 -0.619 78 63 66
-0.301077 -0.172473 -0.631 252 253 247
-0.299875 -0.172473 -0.631 250 251 245
-0.289524 -0.174933 -0.64 252 253 247
-0.1422 -0.1722 -0.63 191 188 181
-0.140022 -0.172473 -0.631 191 188 181
-0.120343 -0.17712 -0.648 197 194 185
0.376183 -0.17056 -0.624 44 42 55
0.377314 -0.169467 -0.62 68 57 61
0.379629 -0.16892 -0.618 69 57 59
-0.292934 -0.173125 -0.629 255 255 250
-0.29026 -0.173675 -0.631 254 253 249
-0.284855 -0.177804 -0.646 251 254 247
-0.149163 -0.173125 -0.629 183 180 173
-0.1422 -0.1734 -0.63 191 188 183
-0.122622 -0.178079 -0.647 196 193 184
0.38019 -0.178079 -0.647 41 39 52
0.378594 -0.17285 -0.628 39 38 52
0.378531 -0.171198 -0.622 52 43 48
0.386691 -0.170097 -0.618 138 121 127
-0.330171 -0.179589 -0.648 249 250 242
-0.324163 -0.177649 -0.641 253 254 246
-0.319211 -0.176263 -0.636 254 255 250
-0.157843 -0.175986 -0.635 180 180 172
-0.153 -0.1746 -0.63 183 180 175
-0.137065 -0.175709 -0.634 193 190 183
0.380403 -0.175431 -0.633 43 41 55
0.379773 -0.173491 -0.626 43 41 55
-0.318408 -0.176358 -0.632 254 255 250
-0.307038 -0.174684 -0.626 248 249 244
-0.287109 -0.176358 -0.632 254 255 250
-0.285905 -0.176358 -0.632 254 255 250
-0.28408 -0.177474 -0.636 252 253 247
-0.281769 -0.178311 -0.639 250 253 246
-0.152757 -0.175521 -0.629 185 182 177
-0.126124 -0.180265 -0.646 195 192 183
-0.125087 -0.180544 -0.647 194 191 182
0.38456 -0.179707 -0.644 44 42 56
0.38399 -0.17887 -0.641 44 42 56
0.383408 -0.178032 -0.638 43 41 55
0.384455 -0.173568 -0.622 44 41 50
-0.328337 -0.180371 -0.642 252 253 245
-0.306057 -0.175314 -0.624 183 184 179
-0.302491 -0.175314 -0.624 160 161 156
-0.131252 -0.18009 -0.641 194 191 182
0.38521 -0.177281 -0.631 41 43 55
0.386412 -0.177281 -0.631 41 43 55
0.38688 -0.175314 -0.624 42 40 51
-0.3186 -0.1782 -0.63 249 252 245
-0.1566 -0.1782 -0.63 182 182 174
-0.131457 -0.181594 -0.642 194 192 180
-0.130437 -0.181877 -0.643 193 191 179
-0.126319 -0.183009 -0.647 193 191 179
-0.121952 -0.183857 -0.65 192 190 178
-0.277097 -0.184526 -0.648 251 252 246
-0.152271 -0.178546 -0.627 182 182 172
-0.14773 -0.17883 -0.628 185 185 175
-0.13849 -0.180824 -0.635 191 188 179
-0.12319 -0.185095 -0.65 192 190 178
0.387652 -0.180824 -0.635 44 46 59
-0.30794 -0.178593 -0.623 148 150 145
-0.294171 -0.17888 -0.624 133 133 131
-0.291794 -0.17888 -0.624 125 126 121
-0.285 -0.1806 -0.63 252 251 246
-0.280329 -0.18146 -0.633 252 253 247
-0.146767 -0.180313 -0.629 187 187 175
-0.13268 -0.18404 -0.642 191 189 177
0.392513 -0.185473 -0.647 45 44 58
0.390705 -0.183467 -0.64 43 42 56
0.397283 -0.18146 -0.633 161 154 162
-0.33219 -0.184686 -0.64 248 251 242
-0.31337 -0.179491 -0.622 199 202 195
-0.309815 -0.179491 -0.622 152 154 149
-0.307446 -0.179491 -0.622 149 151 146
-0.157299 -0.181223 -0.628 184 181 172
0.394871 -0.182666 -0.633 66 60 72
-0.32357 -0.182419 -0.628 255 255 250
-0.306261 -0.180676 -0.622 153 154 149
-0.274531 -0.186486 -0.642 250 251 245
-0.274629 -0.188229 -0.648 250 251 245
-0.151077 -0.182129 -0.627 184 184 172
-0.146031 -0.18329 -0.631 187 187 177
0.401083 -0.186195 -0.641 62 54 67
-0.312362 -0.181276 -0.62 153 155 150
-0.304586 -0.181569 -0.621 151 153 150
-0.282151 -0.183908 -0.629 255 255 250
-0.280953 -0.183908 -0.629 252 251 246
-0.278241 -0.184492 -0.631 252 252 244
-0.275941 -0.18537 -0.634 248 255 245
-0.153221 -0.18303 -0.626 184 184 172
-0.150122 -0.183615 -0.628 184 184 172
-0.142119 -0.185662 -0.635 189 187 175
-0.137143 -0.187124 -0.64 191 189 176
-0.135126 -0.187709 -0.642 191 189 176
0.400507 -0.188293 -0.644 58 51 67
0.403586 -0.188586 -0.645 62 54 69
-0.338647 -0.189226 -0.643 252 253 245
-0.317086 -0.182457 -0.62 248 251 244
-0.315395 -0.183342 -0.619 188 191 184
-0.156798 -0.185415 -0.626 183 183 175
-0.138362 -0.189562 -0.64 190 188 175
-0.330446 -0.188396 -0.632 251 252 246
-0.277359 -0.187502 -0.629 252 251 246
-0.272129 -0.192271 -0.645 251 252 246
-0.162342 -0.187502 -0.629 185 182 173
-0.151318 -0.187204 -0.628 184 184 174
-0.139363 -0.190483 -0.639 189 187 174
-0.135547 -0.191973 -0.644 188 186 173
-0.130418 -0.193464 -0.649 186 184 172
-0.338814 -0.1923 -0.641 252 253 247
-0.2754 -0.189 -0.63 252 253 247
-0.274635 -0.1893 -0.631 250 253 244
-0.159437 -0.1881 -0.627 186 183 176
-0.15799 -0.1878 -0.626 187 184 177
-0.155606 -0.1878 -0.626 187 184 175
-0.142567 -0.1911 -0.637 188 186 174
-0.136561 -0.1929 -0.643 189 187 175
-0.326116 -0.188992 -0.626 251 252 246
-0.271662 -0.193521 -0.641 251 252 246
-0.159183 -0.188992 -0.626 186 183 176
-0.156548 -0.18869 -0.625 187 184 175
-0.145748 -0.19171 -0.635 185 185 173
-0.144766 -0.192011 -0.636 185 185 173
-0.346915 -0.196565 -0.647 251 252 246
-0.331125 -0.191704 -0.631 251 252 246
-0.273433 -0.191704 -0.631 251 254 247
-0.153466 -0.190489 -0.627 187 184 175
-0.152514 -0.190792 -0.628 187 184 175
-0.149874 -0.192008 -0.632 185 185 173
-0.145977 -0.193223 -0.636 186 186 176
-0.138794 -0.195046 -0.642 188 186 174
-0.325074 -0.190766 -0.624 252 253 247
-0.322329 -0.189849 -0.621 251 255 250
-0.312186 -0.188014 -0.615 143 145 142
-0.274963 -0.192294 -0.629 252 255 248
-0.272663 -0.193211 -0.632 251 252 244
-0.165 -0.1926 -0.63 183 180 171
-0.157738 -0.191071 -0.625 186 183 174
-0.142019 -0.195657 -0.64 189 186 177
-0.0339429 -0.198103 -0.648 86 86 94
-0.316871 -0.189186 -0.615 249 254 247
-0.313357 -0.189186 -0.615 134 139 132
-0.312186 -0.189186 -0.615 136 138 135
-0.307325 -0.189801 -0.617 129 131 128
-0.271238 -0.196876 -0.64 251 252 246
-0.155606 -0.19257 -0.626 187 184 175
-0.136178 -0.19903 -0.647 184 182 169
-0.324032 -0.192524 -0.622 252 253 247
-0.309843 -0.190357 -0.615 128 130 127
-0.275722 -0.194381 -0.628 251 254 245
-0.2742 -0.195 -0.63 250 253 244
-0.174651 -0.200571 -0.648 182 183 177
-0.1662 -0.195 -0.63 184 184 174
-0.159183 -0.193762 -0.626 185 185 177
-0.151078 -0.195619 -0.632 188 185 176
-0.14124 -0.198714 -0.642 186 184 172
-0.0338905 -0.200262 -0.647 87 86 94
-0.273 -0.1962 -0.63 251 254 245
-0.161826 -0.195266 -0.627 188 185 176
-0.146436 -0.198691 -0.638 188 186 174
-0.143462 -0.199626 -0.641 188 185 176
-0.137198 -0.201183 -0.646 184 182 170
-0.308671 -0.1927 -0.615 124 126 121
-0.277671 -0.19646 -0.627 252 253 248
-0.159183 -0.196147 -0.626 186 186 176
-0.143462 -0.200847 -0.641 186 186 174
-0.14146 -0.201473 -0.643 184 184 172
-0.140453 -0.201787 -0.644 185 183 171
-0.135154 -0.20304 -0.648 181 179 166
-0.03496 -0.201787 -0.644 85 82 91
-0.0338905 -0.202727 -0.647 87 84 93
-0.271238 -0.201752 -0.64 251 252 246
-0.157738 -0.197024 -0.625 185 185 175
-0.151556 -0.199861 -0.634 188 186 174
-0.147651 -0.201122 -0.638 188 186 174
-0.135154 -0.204274 -0.648 181 179 164
-0.0434114 -0.202383 -0.642 72 71 77
-0.0338381 -0.203644 -0.646 86 83 92
-0.316871 -0.195043 -0.615 254 255 250
-0.311014 -0.195043 -0.615 148 151 144
-0.173573 -0.20424 -0.644 185 185 177
-0.169938 -0.201386 -0.635 183 183 173
-0.143686 -0.203606 -0.642 185 186 172
-0.135363 -0.205826 -0.649 177 178 162
-0.134127 -0.205826 -0.649 176 177 161
-0.0474467 -0.205191 -0.647 69 68 73
-0.0419257 -0.202337 -0.638 72 71 79
-0.0406467 -0.20202 -0.637 73 72 80
-0.0338381 -0.204874 -0.646 86 83 94
-0.35046 -0.207062 -0.649 252 253 247
-0.316871 -0.196214 -0.615 254 255 250
-0.309843 -0.196214 -0.615 156 158 153
-0.273433 -0.201319 -0.631 250 253 246
-0.27132 -0.206105 -0.646 251 252 247
-0.159183 -0.199724 -0.626 187 187 175
-0.157049 -0.200043 -0.627 186 186 174
-0.153729 -0.201957 -0.633 189 187 175
-0.150823 -0.202914 -0.636 189 187 174
-0.149847 -0.203233 -0.637 188 186 173
-0.0370648 -0.203552 -0.638 80 79 87
-0.335643 -0.203805 -0.635 251 252 246
-0.330075 -0.201879 -0.629 253 254 248
-0.314529 -0.197386 -0.615 249 250 244
-0.311014 -0.197386 -0.615 222 223 217
-0.2754 -0.2022 -0.63 251 252 247
-0.271344 -0.208298 -0.649 251 252 246
-0.155647 -0.202521 -0.631 186 186 174
-0.1491 -0.205089 -0.639 188 186 173
-0.348148 -0.208889 -0.647 252 253 248
-0.3306 -0.2034 -0.63 253 254 249
-0.311014 -0.198557 -0.615 249 250 244
-0.278557 -0.203077 -0.629 252 253 248
-0.272457 -0.206629 -0.64 252 253 247
-0.272129 -0.208243 -0.645 251 252 246
-0.169403 -0.204369 -0.633 186 187 171
-0.161568 -0.202109 -0.626 190 186 174
-0.158243 -0.202431 -0.627 188 186 173
-0.157299 -0.202754 -0.628 188 186 173
-0.144133 -0.20792 -0.644 186 187 171
-0.143129 -0.208243 -0.645 182 183 167
-0.1419 -0.208243 -0.645 181 182 166
-0.0509857 -0.208243 -0.645 72 69 76
-0.0370648 -0.205983 -0.638 77 76 84
-0.320111 -0.201028 -0.619 252 253 248
-0.313867 -0.200053 -0.616 250 251 245
-0.31152 -0.200053 -0.616 254 255 250
-0.306827 -0.200053 -0.616 210 211 205
-0.280507 -0.20395 -0.628 252 253 248
-0.273526 -0.205899 -0.634 252 253 247
-0.157299 -0.20395 -0.628 189 187 174
-0.148346 -0.208172 -0.641 190 188 175
-0.146359 -0.208822 -0.643 191 189 176
-0.14212 -0.209796 -0.646 183 184 170
-0.0338905 -0.210121 -0.647 84 83 91
-0.323367 -0.203513 -0.623 253 254 249
-0.320629 -0.202533 -0.62 252 253 248
-0.2802 -0.2058 -0.63 253 254 249
-0.278241 -0.206127 -0.631 252 255 248
-0.274733 -0.207107 -0.634 253 254 248
-0.272933 -0.210373 -0.644 252 253 247
-0.155179 -0.207107 -0.634 190 188 176
-0.0428029 -0.20678 -0.633 74 73 81
-0.0403914 -0.20678 -0.633 75 74 82
-0.0371229 -0.20874 -0.639 79 76 85
-0.307325 -0.202729 -0.617 253 254 248
-0.302426 -0.203386 -0.619 207 208 203
-0.285575 -0.205686 -0.626 82 82 80
-0.277478 -0.207657 -0.632 251 254 247
-0.273734 -0.211271 -0.643 251 252 247
-0.273 -0.213571 -0.65 250 251 246
-0.173304 -0.211271 -0.643 187 187 175
-0.155179 -0.208314 -0.634 191 189 177
-0.154457 -0.208971 -0.636 192 190 178
-0.151534 -0.209957 -0.639 191 189 176
-0.147584 -0.211271 -0.643 190 188 175
-0.0516476 -0.209629 -0.638 71 69 80
-0.313709 -0.204234 -0.618 253 254 249
-0.284837 -0.207209 -0.627 119 119 117
-0.280645 -0.20853 -0.631 252 253 248
-0.274466 -0.211174 -0.639 253 254 249
-0.176157 -0.214479 -0.649 190 191 186
-0.164476 -0.207539 -0.628 190 188 175
-0.16302 -0.207209 -0.627 191 189 177
-0.134333 -0.21481 -0.65 194 192 177
-0.0544171 -0.212166 -0.642 70 69 77
-0.0487543 -0.208861 -0.632 66 64 77
-0.343918 -0.214718 -0.646 252 253 247
-0.339871 -0.213721 -0.643 252 253 248
-0.315905 -0.206076 -0.62 253 254 249
-0.286768 -0.20807 -0.626 196 195 193
-0.28109 -0.210065 -0.632 254 255 250
-0.167134 -0.209068 -0.629 189 187 172
-0.165936 -0.209068 -0.629 189 187 174
-0.160888 -0.208735 -0.628 191 189 176
-0.148577 -0.213389 -0.642 192 190 175
-0.14335 -0.214718 -0.646 181 182 168
-0.0584476 -0.214718 -0.646 72 69 76
-0.0404552 -0.21073 -0.634 77 75 86
-0.0328095 -0.216048 -0.65 86 83 92
-0.321347 -0.209263 -0.626 250 251 246
-0.297489 -0.207591 -0.621 255 255 251
-0.290606 -0.208594 -0.624 255 255 251
-0.275754 -0.214611 -0.642 254 255 250
-0.15614 -0.211603 -0.633 192 190 177
-0.138857 -0.216617 -0.648 187 185 172
-0.348524 -0.218524 -0.65 253 254 249
-0.340929 -0.216843 -0.645 253 254 249
-0.294171 -0.209783 -0.624 253 253 251
-0.290345 -0.210455 -0.626 253 254 249
-0.134333 -0.218524 -0.65 202 198 186
-0.0637619 -0.218524 -0.65 77 75 78
-0.0621391 -0.217179 -0.646 64 62 65
-0.0427352 -0.212472 -0.632 76 73 84
-0.0328095 -0.218524 -0.65 84 83 91
-0.337422 -0.217395 -0.643 252 253 248
-0.319471 -0.211986 -0.627 252 253 247
-0.299633 -0.210633 -0.623 253 253 251
-0.285452 -0.213338 -0.631 144 145 140
-0.281214 -0.21469 -0.635 212 212 210
-0.277902 -0.218748 -0.647 255 255 251
-0.276714 -0.219762 -0.65 255 255 251
-0.16328 -0.212324 -0.628 187 188 174
-0.0615619 -0.216381 -0.64 73 71 76
-0.0558 -0.213 -0.63 69 66 75
-0.346048 -0.221 -0.65 252 253 247
-0.309815 -0.21148 -0.622 253 254 248
-0.30863 -0.21148 -0.622 253 254 248
-0.290809 -0.21318 -0.627 253 254 249
-0.286654 -0.21454 -0.631 249 250 245
-0.280209 -0.21794 -0.641 199 199 197
-0.159691 -0.21352 -0.628 192 190 178
-0.155179 -0.21556 -0.634 194 192 180
-0.139659 -0.21964 -0.646 228 226 214
-0.135154 -0.22032 -0.648 203 199 187
-0.0658305 -0.21964 -0.646 74 72 77
-0.0594 -0.2142 -0.63 71 68 77
-0.0493257 -0.21216 -0.624 71 69 83
-0.0372971 -0.21828 -0.642 79 78 86
-0.300595 -0.21369 -0.625 253 253 251
-0.297499 -0.214032 -0.626 253 254 249
-0.27919 -0.222238 -0.65 192 192 190
-0.172347 -0.220187 -0.644 207 207 205
-0.135154 -0.221554 -0.648 208 202 190
-0.0681857 -0.220529 -0.645 88 85 94
-0.0552686 -0.213349 -0.624 69 67 80
-0.0528067 -0.213007 -0.623 70 68 81
-0.05162 -0.213007 -0.623 69 67 81
-0.0405829 -0.217451 -0.636 78 76 87
-0.332006 -0.220726 -0.642 253 254 249
-0.3145 -0.216256 -0.629 253 254 249
-0.304653 -0.215225 -0.626 253 253 251
-0.301076 -0.215225 -0.626 253 253 251
-0.29678 -0.215569 -0.627 253 253 251
-0.281233 -0.223132 -0.649 228 228 226
-0.15755 -0.216256 -0.629 194 192 180
-0.0705333 -0.221413 -0.644 114 115 120
-0.0448571 -0.215912 -0.628 73 71 82
-0.0428029 -0.217631 -0.633 74 72 83
-0.327314 -0.221257 -0.64 253 254 249
-0.30443 -0.217109 -0.628 253 253 251
-0.288471 -0.219529 -0.635 253 255 250
-0.285867 -0.221257 -0.64 251 251 249
-0.284757 -0.222294 -0.643 253 253 251
-0.282831 -0.223677 -0.647 229 229 227
-0.160631 -0.216763 -0.627 192 190 178
-0.1554 -0.2178 -0.63 196 194 182
-0.153729 -0.218837 -0.633 195 193 181
-0.14168 -0.22264 -0.644 200 198 185
-0.0575533 -0.21538 -0.623 70 68 81
0.396806 -0.202589 -0.586 180 121 127
-0.338811 -0.225257 -0.648 253 254 249
-0.308289 -0.219348 -0.631 253 253 251
-0.301077 -0.219348 -0.631 253 253 251
-0.0650886 -0.217957 -0.627 72 70 83
-0.0599267 -0.216567 -0.623 71 69 82
-0.0503524 -0.216219 -0.622 71 70 78
-0.03846 -0.222824 -0.641 78 76 89
0.393174 -0.19849 -0.571 189 130 132
0.40149 -0.198838 -0.572 189 133 132
0.415548 -0.19571 -0.563 192 139 135
0.420162 -0.195362 -0.562 178 124 122
0.431139 -0.197448 -0.568 172 122 121
-0.315577 -0.222297 -0.636 253 254 249
-0.301301 -0.221598 -0.634 253 253 251
-0.298148 -0.221948 -0.635 253 253 251
-0.296194 -0.222297 -0.636 253 253 251
-0.155854 -0.219151 -0.627 197 195 183
-0.154907 -0.219501 -0.628 197 195 183
-0.124429 -0.22719 -0.65 225 219 205
-0.0747371 -0.222996 -0.638 80 80 82
-0.0702 -0.2202 -0.63 64 63 71
-0.0650886 -0.219151 -0.627 72 70 83
-0.0635886 -0.218103 -0.624 70 68 81
-0.0596381 -0.216705 -0.62 69 67 78
-0.0493257 -0.218103 -0.624 71 70 78
-0.0438695 -0.22055 -0.631 73 73 83
-0.03846 -0.224045 -0.641 78 76 87
-0.0339429 -0.226491 -0.648 81 79 92
0.395559 -0.195384 -0.559 194 136 135
0.40018 -0.196083 -0.561 199 141 140
0.404417 -0.195034 -0.558 195 142 138
0.413983 -0.195034 -0.558 183 130 126
0.425826 -0.196083 -0.561 170 120 119
-0.318283 -0.224563 -0.639 253 254 249
-0.31122 -0.22386 -0.637 253 254 249
-0.288206 -0.227726 -0.648 209 209 207
-0.16276 -0.219994 -0.626 201 201 191
-0.157486 -0.219291 -0.624 196 194 182
-0.155606 -0.219994 -0.626 199 197 185
-0.152041 -0.221751 -0.631 199 197 185
-0.146436 -0.224211 -0.638 194 192 180
-0.145449 -0.224563 -0.639 192 190 178
-0.135757 -0.226671 -0.645 218 210 197
-0.134737 -0.227023 -0.646 218 210 197
-0.125473 -0.228077 -0.649 226 218 205
-0.091 -0.228429 -0.65 251 248 229
-0.06586 -0.21894 -0.623 68 66 79
-0.0482143 -0.219643 -0.625 71 70 76
-0.0471743 -0.220346 -0.627 71 70 78
0.393083 -0.195746 -0.557 193 134 136
0.397672 -0.195394 -0.556 200 142 141
0.4029 -0.19434 -0.553 198 143 140
0.414929 -0.195043 -0.555 175 122 118
0.418853 -0.195394 -0.556 172 118 116
0.43209 -0.198557 -0.565 173 122 121
-0.338098 -0.229313 -0.649 253 254 249
-0.334591 -0.228607 -0.647 252 253 247
-0.32568 -0.227547 -0.644 252 253 248
-0.13901 -0.227193 -0.643 220 214 198
-0.0971905 -0.229667 -0.65 255 255 236
-0.0931886 -0.22896 -0.648 255 255 236
-0.0726 -0.2226 -0.63 65 64 70
-0.0581743 -0.218007 -0.617 66 64 75
-0.0482914 -0.221187 -0.626 72 71 77
-0.0471743 -0.22154 -0.627 72 71 79
-0.0428029 -0.22366 -0.633 73 72 80
-0.0328095 -0.229667 -0.65 83 82 90
0.390259 -0.196453 -0.556 191 132 134
0.394096 -0.194687 -0.551 199 141 140
0.39894 -0.19398 -0.549 198 140 138
0.404905 -0.194333 -0.55 189 134 131
0.40879 -0.194687 -0.551 180 127 123
0.412686 -0.19504 -0.552 174 121 117
-0.305371 -0.227352 -0.64 253 254 249
-0.287857 -0.230905 -0.65 243 243 241
-0.152731 -0.221669 -0.624 199 199 189
-0.132071 -0.229129 -0.645 221 215 199
-0.129815 -0.229484 -0.646 223 218 199
-0.126319 -0.229839 -0.647 228 221 202
-0.100905 -0.230905 -0.65 250 247 230
-0.0762 -0.2238 -0.63 72 70 75
-0.0640505 -0.219182 -0.617 70 69 77
-0.0628752 -0.219182 -0.617 70 68 79
-0.0592533 -0.218827 -0.616 71 69 80
-0.0515371 -0.220958 -0.622 72 70 81
-0.0504333 -0.221313 -0.623 72 70 81
-0.0406467 -0.226287 -0.637 72 72 80
0.392666 -0.195026 -0.549 197 139 138
0.401654 -0.194315 -0.547 193 135 134
-0.315376 -0.229643 -0.643 253 254 249
-0.30388 -0.229286 -0.642 253 253 251
-0.16562 -0.2275 -0.637 248 248 246
-0.156729 -0.221786 -0.621 204 205 199
-0.147233 -0.225357 -0.631 198 196 181
-0.14036 -0.227857 -0.638 219 216 201
-0.139363 -0.228214 -0.639 221 218 203
-0.133093 -0.23 -0.644 220 217 198
-0.120343 -0.231429 -0.648 233 228 209
-0.104297 -0.231429 -0.648 247 242 223
-0.0936943 -0.229643 -0.643 254 250 239
-0.0921819 -0.228929 -0.641 251 248 239
-0.0770314 -0.223929 -0.627 74 74 76
-0.0374133 -0.23 -0.644 77 77 85
0.38874 -0.210357 -0.589 180 120 128
0.385419 -0.202143 -0.566 178 117 124
0.386717 -0.198929 -0.557 188 128 130
0.390238 -0.196429 -0.55 193 135 134
0.390907 -0.195714 -0.548 196 136 136
0.393234 -0.194286 -0.544 203 143 143
0.407906 -0.195357 -0.547 176 122 122
0.410739 -0.195714 -0.548 175 121 119
0.415381 -0.196429 -0.55 175 121 119
-0.327197 -0.232304 -0.647 253 254 249
-0.301614 -0.231586 -0.645 253 253 251
-0.294377 -0.232663 -0.648 203 203 201
-0.150113 -0.223687 -0.623 200 200 190
-0.108897 -0.231945 -0.646 242 239 222
-0.0944762 -0.22979 -0.64 246 243 236
-0.0749905 -0.22261 -0.62 71 70 78
-0.0374133 -0.231227 -0.644 77 77 85
-0.0362429 -0.231586 -0.645 77 77 85
-0.0328095 -0.233381 -0.65 81 79 90
0.385294 -0.204298 -0.569 171 110 115
0.387082 -0.19963 -0.556 185 123 124
0.3885 -0.199271 -0.555 185 123 124
0.388153 -0.198553 -0.553 187 125 126
0.391162 -0.195322 -0.544 202 142 142
0.399751 -0.194963 -0.543 185 129 128
0.4082 -0.19604 -0.546 174 120 118
0.40999 -0.196399 -0.547 175 120 117
-0.315129 -0.232814 -0.645 253 254 249
-0.311443 -0.232814 -0.645 253 254 249
-0.303312 -0.233175 -0.646 252 252 250
-0.144141 -0.226678 -0.628 198 196 181
-0.134284 -0.230288 -0.638 223 220 201
-0.117329 -0.232814 -0.645 236 230 214
-0.10195 -0.23137 -0.641 246 240 226
-0.0991971 -0.230649 -0.639 249 245 234
-0.0902514 -0.229566 -0.636 207 203 200
-0.0759257 -0.223069 -0.618 67 66 74
-0.0539067 -0.224512 -0.622 70 71 76
-0.039619 -0.23101 -0.64 74 74 82
0.387001 -0.210435 -0.583 174 111 119
0.387167 -0.207548 -0.575 165 102 110
0.388849 -0.198885 -0.551 185 125 125
0.388819 -0.197802 -0.548 190 130 130
0.390756 -0.195636 -0.542 199 139 139
0.414914 -0.197802 -0.548 177 124 118
0.44226 -0.20466 -0.567 186 131 128
-0.314873 -0.234769 -0.647 253 254 249
-0.312409 -0.234769 -0.647 253 254 249
-0.303017 -0.235131 -0.648 251 251 249
-0.154114 -0.224971 -0.62 247 247 247
-0.150086 -0.224246 -0.618 228 229 224
-0.14797 -0.224609 -0.619 209 211 200
-0.131647 -0.23114 -0.637 224 221 202
-0.128208 -0.231503 -0.638 226 223 204
-0.124952 -0.232229 -0.64 230 224 208
-0.116783 -0.232954 -0.642 235 232 215
-0.109105 -0.232229 -0.64 242 239 224
-0.0910314 -0.229689 -0.633 162 160 161
-0.0463467 -0.229326 -0.632 70 70 78
-0.0351229 -0.234769 -0.647 77 76 84
0.388048 -0.203926 -0.562 174 112 117
0.388474 -0.202474 -0.558 176 114 117
0.388141 -0.201749 -0.556 178 116 119
0.38919 -0.199571 -0.55 185 123 126
0.389409 -0.197031 -0.543 199 139 139
0.390343 -0.195943 -0.54 197 137 137
0.403145 -0.196669 -0.542 179 124 119
0.405957 -0.197031 -0.543 176 121 116
0.418809 -0.199209 -0.549 179 126 118
0.422433 -0.199934 -0.551 180 128 117
0.429444 -0.201749 -0.556 187 132 127
0.432051 -0.202474 -0.558 188 133 128
0.434667 -0.2032 -0.56 188 133 128
-0.313641 -0.236001 -0.647 253 254 249
-0.15486 -0.227247 -0.623 238 238 238
-0.149843 -0.225058 -0.617 249 249 247
-0.140105 -0.228341 -0.626 216 212 200
-0.130024 -0.231624 -0.635 226 223 208
-0.124367 -0.232353 -0.637 229 226 211
-0.123153 -0.232353 -0.637 229 226 211
-0.122131 -0.232718 -0.638 230 227 212
-0.117454 -0.233083 -0.639 236 232 220
-0.109807 -0.232353 -0.637 244 240 229
-0.0979552 -0.230165 -0.631 187 186 184
-0.08736 -0.227611 -0.624 67 64 71
-0.0776467 -0.223599 -0.613 71 70 78
-0.0751886 -0.223234 -0.612 70 69 77
-0.0507571 -0.228706 -0.627 70 71 76
-0.0361867 -0.234907 -0.644 76 76 84
0.391638 -0.211562 -0.58 159 96 105
0.389429 -0.205726 -0.564 171 108 116
0.38991 -0.202078 -0.554 183 118 124
0.404177 -0.197701 -0.542 178 121 114
0.408777 -0.19843 -0.544 179 124 117
0.415199 -0.199525 -0.547 178 124 114
0.429729 -0.202443 -0.555 186 131 124
-0.160767 -0.233567 -0.637 145 145 147
-0.143254 -0.226967 -0.619 235 235 235
-0.135768 -0.230267 -0.628 226 224 211
-0.128409 -0.2321 -0.633 227 225 212
-0.1143 -0.232833 -0.635 242 239 230
-0.1014 -0.231 -0.63 183 184 179
-0.0852048 -0.226233 -0.617 66 64 75
-0.0824514 -0.225133 -0.614 74 72 83
-0.0638429 -0.2255 -0.615 70 71 76
-0.0474752 -0.231367 -0.631 71 72 77
-0.0339429 -0.2376 -0.648 77 76 84
0.395014 -0.2145 -0.585 156 93 102
0.394009 -0.211567 -0.577 167 101 111
0.39219 -0.208267 -0.568 170 105 111
0.397833 -0.197633 -0.539 183 126 119
0.406242 -0.198733 -0.542 176 121 114
0.41548 -0.2002 -0.546 178 124 112
0.424532 -0.202033 -0.551 182 128 118
0.432621 -0.203867 -0.556 186 132 122
0.437085 -0.204967 -0.559 184 132 121
0.439717 -0.2057 -0.561 184 131 123
0.46984 -0.2156 -0.588 170 117 109
-0.145843 -0.226671 -0.615 235 235 235
-0.14256 -0.22704 -0.616 247 247 247
-0.138762 -0.228514 -0.62 246 247 242
-0.127597 -0.231831 -0.629 235 235 227
-0.115984 -0.232569 -0.631 248 247 242
-0.110824 -0.231831 -0.629 235 235 227
-0.109626 -0.231831 -0.629 231 230 225
-0.0872714 -0.226671 -0.615 68 67 81
-0.0553571 -0.230357 -0.625 70 71 76
-0.0498 -0.2322 -0.63 71 72 77
-0.0407743 -0.235517 -0.639 73 73 81
0.395434 -0.218931 -0.594 155 92 101
0.392966 -0.208611 -0.566 168 103 109
0.405492 -0.199397 -0.541 179 122 115
0.408307 -0.199766 -0.542 177 122 115
0.41756 -0.20124 -0.546 180 126 116
0.429233 -0.20382 -0.553 186 132 120
0.437366 -0.205663 -0.558 183 129 119
0.449027 -0.208611 -0.566 184 130 120
-0.142097 -0.227472 -0.614 232 232 234
-0.140928 -0.227472 -0.614 237 236 241
-0.136915 -0.228584 -0.617 246 247 242
-0.13596 -0.228954 -0.618 248 249 244
-0.135001 -0.229325 -0.619 251 252 247
-0.134038 -0.229695 -0.62 250 251 246
-0.120026 -0.232289 -0.627 246 245 241
-0.11268 -0.231918 -0.626 219 220 215
-0.0964029 -0.230066 -0.621 77 76 82
-0.08554 -0.226361 -0.611 75 74 80
-0.072381 -0.22525 -0.608 72 71 79
-0.0576457 -0.231177 -0.624 72 72 80
-0.0554457 -0.231918 -0.626 71 71 79
-0.0521171 -0.23303 -0.629 70 70 78
-0.0452857 -0.234882 -0.634 72 72 80
0.400837 -0.21747 -0.587 159 93 103
0.390574 -0.203391 -0.549 174 113 112
0.420409 -0.20265 -0.547 180 126 116
0.422221 -0.203021 -0.548 181 127 117
0.424037 -0.203391 -0.549 181 127 115
0.43134 -0.204873 -0.553 185 131 121
0.446647 -0.208578 -0.563 186 132 122
-0.161557 -0.240186 -0.645 128 130 129
-0.14821 -0.230876 -0.62 117 116 121
-0.144201 -0.22827 -0.613 146 145 150
-0.137195 -0.22827 -0.613 225 225 225
-0.133173 -0.229387 -0.616 229 229 227
-0.127927 -0.230504 -0.619 237 236 234
-0.125771 -0.230876 -0.62 237 236 234
-0.124791 -0.231249 -0.621 235 234 232
-0.119069 -0.231621 -0.622 223 223 223
-0.115514 -0.231621 -0.622 197 197 197
-0.0929771 -0.228642 -0.614 77 76 82
-0.08758 -0.22678 -0.609 76 75 81
-0.0734181 -0.226035 -0.607 71 70 78
-0.0712229 -0.226408 -0.608 72 71 79
-0.0338905 -0.24093 -0.647 77 76 84
0.398097 -0.222684 -0.598 150 87 95
0.391673 -0.200713 -0.539 197 136 133
0.39738 -0.199969 -0.537 187 128 124
0.399145 -0.200341 -0.538 183 124 120
0.410371 -0.20183 -0.542 176 122 110
0.411404 -0.20183 -0.542 176 122 110
0.416795 -0.202948 -0.545 178 124 112
0.436857 -0.207044 -0.556 185 133 122
-0.140469 -0.229063 -0.612 110 109 117
-0.133474 -0.229063 -0.612 168 168 168
-0.132525 -0.229437 -0.613 173 173 173
-0.128063 -0.229811 -0.614 184 184 184
-0.123586 -0.230186 -0.615 170 170 170
-0.112053 -0.23056 -0.616 76 75 80
-0.0859943 -0.226817 -0.606 76 75 81
-0.0812429 -0.226443 -0.605 75 74 80
-0.0621 -0.232431 -0.621 72 71 77
-0.0544267 -0.235051 -0.628 72 71 79
-0.039619 -0.239543 -0.64 73 73 81
0.404424 -0.228689 -0.611 149 88 96
0.40198 -0.223449 -0.597 148 88 90
0.403805 -0.221951 -0.593 151 89 102
0.390193 -0.204734 -0.547 189 125 125
0.391673 -0.20174 -0.539 197 136 133
0.391971 -0.201366 -0.538 196 135 134
0.396357 -0.200991 -0.537 192 131 130
-0.148214 -0.235119 -0.625 116 117 121
-0.146083 -0.233614 -0.621 111 112 116
-0.13282 -0.2291 -0.609 91 90 95
-0.123743 -0.229476 -0.61 79 78 83
-0.122581 -0.229476 -0.61 78 77 82
-0.110962 -0.229476 -0.61 73 72 78
-0.082259 -0.227219 -0.604 74 73 79
-0.043141 -0.24001 -0.638 73 73 81
-0.039681 -0.241138 -0.641 73 73 81
0.40675 -0.225338 -0.599 149 88 96
0.406529 -0.224586 -0.597 150 88 99
0.406507 -0.222705 -0.592 152 89 98
0.40531 -0.220824 -0.587 156 93 102
0.398356 -0.212924 -0.566 163 98 104
0.390647 -0.202767 -0.539 196 135 132
0.391673 -0.202767 -0.539 197 136 133
0.391971 -0.20239 -0.538 196 135 134
0.393289 -0.202014 -0.537 196 134 137
0.403244 -0.20239 -0.538 180 123 116
0.407829 -0.203143 -0.54 176 119 110
0.413469 -0.203895 -0.542 173 121 108
0.4163 -0.204271 -0.543 175 123 110
0.4345 -0.208033 -0.553 186 132 120
0.438975 -0.209162 -0.556 186 132 120
-0.13514 -0.23026 -0.609 93 93 101
-0.128915 -0.229504 -0.607 86 85 91
-0.118314 -0.229126 -0.606 65 64 70
-0.112171 -0.22837 -0.604 63 62 68
-0.10962 -0.23026 -0.609 75 74 82
-0.0936086 -0.227991 -0.603 78 77 83
-0.09246 -0.227991 -0.603 77 76 82
-0.0758552 -0.229882 -0.608 74 73 79
-0.0655429 -0.234419 -0.62 72 73 78
-0.0465667 -0.24009 -0.635 73 73 81
-0.0350686 -0.24425 -0.646 76 76 84
0.405543 -0.22837 -0.604 149 89 101
0.408787 -0.227613 -0.602 145 85 93
0.4097 -0.224967 -0.595 140 86 100
0.409452 -0.22421 -0.593 145 91 105
0.4053 -0.218917 -0.579 158 97 105
0.390647 -0.203793 -0.539 197 136 135
0.394311 -0.203037 -0.537 196 131 135
0.415266 -0.205306 -0.543 175 123 110
0.4163 -0.205306 -0.543 175 123 110
-0.148435 -0.23978 -0.631 114 116 115
-0.126917 -0.22914 -0.603 72 71 77
-0.111021 -0.22952 -0.604 62 61 67
-0.106243 -0.22914 -0.603 67 66 74
-0.102797 -0.22914 -0.603 68 67 75
-0.101649 -0.22914 -0.603 69 68 76
-0.08772 -0.22876 -0.602 77 76 82
-0.08442 -0.22914 -0.603 76 75 81
-0.0728571 -0.23256 -0.612 74 73 79
-0.0633848 -0.23636 -0.622 72 73 78
-0.060119 -0.2375 -0.625 71 71 79
-0.0534848 -0.23978 -0.631 71 71 79
-0.0489086 -0.24092 -0.634 71 74 81
-0.0465667 -0.2413 -0.635 73 73 81
-0.043141 -0.24244 -0.638 74 74 82
-0.039681 -0.24358 -0.641 73 73 81
-0.0373552 -0.24434 -0.643 76 76 84
-0.0362429 -0.2451 -0.645 76 76 84
-0.0350686 -0.24548 -0.646 76 76 84
0.40774 -0.23142 -0.609 168 116 129
0.411976 -0.2299 -0.605 145 97 111
0.411967 -0.2261 -0.595 149 98 113
0.407807 -0.22078 -0.581 161 109 121
0.401471 -0.20406 -0.537 186 125 122
0.402494 -0.20406 -0.537 181 122 116
0.421986 -0.2071 -0.545 180 126 114
-0.155896 -0.247092 -0.647 120 122 121
-0.13173 -0.23067 -0.604 94 95 100
-0.118632 -0.227615 -0.596 57 57 59
-0.111243 -0.228761 -0.599 56 57 62
-0.10782 -0.228761 -0.599 60 59 65
-0.0975514 -0.228761 -0.599 74 73 79
-0.0888667 -0.229907 -0.602 77 76 82
-0.0835476 -0.231052 -0.605 76 75 81
0.41354 -0.23258 -0.609 156 115 131
0.408913 -0.221887 -0.581 143 99 112
0.390843 -0.208138 -0.545 184 124 126
0.390035 -0.20661 -0.541 193 132 131
0.398682 -0.204701 -0.536 188 127 124
0.400724 -0.204701 -0.536 186 125 122
0.405293 -0.205465 -0.538 175 118 109
0.4081 -0.205847 -0.539 175 118 109
-0.15272 -0.247173 -0.644 120 120 120
-0.116709 -0.227215 -0.592 59 60 65
-0.108051 -0.227983 -0.594 56 55 61
-0.0847 -0.232205 -0.605 77 76 84
-0.0751886 -0.234891 -0.612 78 77 83
-0.0730952 -0.235659 -0.614 75 74 80
-0.0699267 -0.23681 -0.617 75 74 80
-0.0624 -0.239497 -0.624 74 75 80
-0.0524486 -0.242951 -0.633 72 72 80
-0.043141 -0.24487 -0.638 75 76 81
0.413256 -0.237578 -0.619 124 93 109
0.418867 -0.234124 -0.61 146 115 147
0.419349 -0.231821 -0.604 150 112 137
0.413136 -0.225296 -0.587 138 96 108
0.400881 -0.216852 -0.565 166 110 123
0.39156 -0.20956 -0.546 182 122 124
0.391066 -0.207641 -0.541 194 133 132
0.393289 -0.206106 -0.537 201 133 134
0.394311 -0.206106 -0.537 201 133 134
0.402766 -0.205722 -0.536 181 122 116
0.423284 -0.208792 -0.544 180 126 114
0.42692 -0.20956 -0.546 181 127 115
0.441357 -0.213014 -0.555 182 130 119
0.444009 -0.213782 -0.557 181 129 118
-0.151493 -0.2484 -0.644 120 120 118
-0.147651 -0.246086 -0.638 111 111 113
-0.125654 -0.230271 -0.597 72 73 78
-0.11426 -0.227957 -0.591 61 61 69
-0.0970629 -0.229886 -0.596 74 73 79
-0.0921533 -0.231814 -0.601 78 77 83
-0.0870048 -0.233357 -0.605 77 76 82
-0.0807524 -0.235286 -0.61 76 75 81
-0.0569095 -0.242614 -0.629 74 73 81
-0.0315714 -0.250714 -0.65 76 77 82
0.415259 -0.239914 -0.622 138 115 135
0.421891 -0.233743 -0.606 148 109 130
0.408296 -0.222557 -0.577 154 100 116
0.399823 -0.216771 -0.562 162 108 122
0.391371 -0.208286 -0.54 197 133 134
0.398957 -0.206357 -0.535 191 130 129
0.42796 -0.2106 -0.546 181 127 115
0.429786 -0.210986 -0.547 182 128 116
0.438713 -0.2133 -0.553 181 129 116
-0.152434 -0.251177 -0.648 126 126 124
-0.10584 -0.22792 -0.588 63 62 70
-0.101092 -0.229858 -0.593 68 67 73
-0.0970629 -0.231021 -0.596 73 72 78
-0.0932981 -0.232959 -0.601 77 76 82
-0.0903124 -0.234122 -0.604 79 78 84
-0.0893095 -0.23451 -0.605 78 77 85
-0.0841 -0.23606 -0.609 76 75 83
-0.07004 -0.239549 -0.618 74 73 81
-0.0432086 -0.247689 -0.639 79 78 86
0.420878 -0.231796 -0.598 138 90 106
0.391371 -0.209314 -0.54 196 134 135
0.397938 -0.207376 -0.535 192 131 130
0.399976 -0.207376 -0.535 188 127 126
0.402014 -0.207376 -0.535 178 119 113
0.415029 -0.209314 -0.54 176 120 107
0.421728 -0.21009 -0.542 180 127 113
-0.139578 -0.24501 -0.629 108 107 112
-0.116443 -0.227871 -0.585 76 76 84
-0.111603 -0.227092 -0.583 70 71 76
-0.0755571 -0.239557 -0.615 75 74 82
-0.0657543 -0.242284 -0.622 72 72 80
-0.0646733 -0.242673 -0.623 72 72 80
-0.0524486 -0.246569 -0.633 86 84 97
-0.0513238 -0.246958 -0.634 135 133 146
0.426057 -0.249295 -0.64 169 153 180
0.418971 -0.243063 -0.624 135 114 145
0.425922 -0.242284 -0.622 119 105 141
0.426536 -0.237999 -0.611 129 95 122
0.410105 -0.225145 -0.578 160 106 122
0.393711 -0.213849 -0.549 177 128 134
0.3926 -0.21268 -0.546 184 135 141
0.391477 -0.211511 -0.543 197 145 147
0.394881 -0.208395 -0.535 198 134 134
0.399229 -0.208006 -0.534 189 128 127
0.403033 -0.208395 -0.535 178 121 112
0.415029 -0.210343 -0.54 173 119 107
0.416057 -0.210343 -0.54 174 120 108
0.419919 -0.210732 -0.541 174 120 108
0.442672 -0.215796 -0.554 177 125 112
-0.144683 -0.250906 -0.641 116 117 119
-0.14279 -0.249731 -0.638 114 115 117
-0.140688 -0.248166 -0.634 110 111 115
-0.128703 -0.237206 -0.606 98 99 103
-0.113824 -0.228203 -0.583 61 62 67
-0.11252 -0.227811 -0.582 59 60 65
-0.1053 -0.228986 -0.585 61 62 66
-0.0926133 -0.236423 -0.604 76 75 81
-0.090761 -0.237597 -0.607 77 76 84
-0.08642 -0.23838 -0.609 78 76 87
-0.0821829 -0.239554 -0.612 78 77 83
-0.0604076 -0.245817 -0.628 74 72 83
0.21352 -0.245817 -0.628 173 124 127
0.227547 -0.25208 -0.644 156 112 113
0.423 -0.2466 -0.63 161 143 169
0.422017 -0.234074 -0.598 148 100 114
0.398388 -0.218026 -0.557 180 128 140
0.393319 -0.214111 -0.547 192 145 151
0.391673 -0.21098 -0.539 192 132 134
0.393289 -0.210197 -0.537 198 137 136
0.398211 -0.209023 -0.534 188 128 127
0.40685 -0.209806 -0.536 173 119 109
0.429252 -0.213329 -0.545 183 129 117
0.438429 -0.215286 -0.55 179 127 114
0.443728 -0.216851 -0.554 177 123 111
-0.113629 -0.22892 -0.582 63 66 71
-0.0965714 -0.236 -0.6 69 68 73
-0.0833486 -0.24072 -0.612 78 77 83
-0.0582 -0.2478 -0.63 73 71 84
-0.0559771 -0.248587 -0.632 73 71 84
-0.0362429 -0.2537 -0.645 75 74 82
-0.032759 -0.255273 -0.649 75 75 83
0.202251 -0.24072 -0.612 178 128 129
0.212665 -0.244653 -0.622 168 119 122
0.43277 -0.248587 -0.632 113 98 137
0.433619 -0.247013 -0.628 117 99 137
0.392919 -0.214367 -0.545 201 156 161
0.394881 -0.210433 -0.535 194 135 139
0.39645 -0.209647 -0.533 190 132 131
0.408891 -0.210827 -0.536 173 116 105
0.43029 -0.214367 -0.545 185 131 119
-0.145811 -0.255324 -0.646 118 117 122
-0.117959 -0.232005 -0.587 111 112 117
-0.1079 -0.229633 -0.581 104 105 110
-0.103248 -0.23161 -0.586 51 52 56
-0.101877 -0.233586 -0.591 57 58 62
-0.0981981 -0.235562 -0.596 61 60 66
-0.0957467 -0.237933 -0.602 68 67 73
-0.0877238 -0.241095 -0.61 76 75 83
-0.0735714 -0.244257 -0.618 75 74 82
-0.0681238 -0.245838 -0.622 73 71 82
-0.0659657 -0.246629 -0.624 71 71 81
-0.0582 -0.249 -0.63 74 72 85
-0.0490629 -0.251371 -0.636 139 137 151
-0.0444952 -0.252952 -0.64 76 74 85
-0.0328095 -0.256905 -0.65 74 74 84
0.19698 -0.238329 -0.603 185 135 134
0.202911 -0.23991 -0.607 174 123 120
0.221049 -0.248605 -0.629 150 100 103
0.229072 -0.252162 -0.638 154 105 109
0.4324 -0.254533 -0.644 164 155 176
0.42862 -0.2407 -0.609 136 103 134
0.419329 -0.233586 -0.591 178 131 149
0.393577 -0.211848 -0.536 189 139 140
0.395435 -0.210662 -0.533 190 135 138
0.39645 -0.210662 -0.533 187 131 132
0.409912 -0.211848 -0.536 172 116 103
-0.110837 -0.229946 -0.579 123 124 129
-0.107714 -0.230343 -0.58 118 119 124
-0.104008 -0.231931 -0.584 65 66 70
-0.0991667 -0.2363 -0.595 60 59 65
-0.0868457 -0.243051 -0.612 76 75 83
-0.0824514 -0.243846 -0.614 78 76 87
-0.0814143 -0.244243 -0.615 77 75 86
-0.0735714 -0.245434 -0.618 75 73 84
-0.0444952 -0.254171 -0.64 74 72 83
0.209246 -0.243051 -0.612 157 107 108
0.213306 -0.245037 -0.617 150 99 104
0.221893 -0.249406 -0.628 147 94 100
0.440987 -0.25576 -0.644 121 119 159
0.4326 -0.245434 -0.618 133 108 140
0.392821 -0.215251 -0.542 190 143 151
0.39516 -0.212074 -0.534 190 138 140
0.459808 -0.224783 -0.566 178 133 127
-0.138709 -0.253794 -0.636 117 118 123
-0.128601 -0.243818 -0.611 127 126 131
-0.119077 -0.234241 -0.587 124 125 130
-0.113238 -0.231448 -0.58 121 124 129
-0.108631 -0.231049 -0.579 118 118 126
-0.10661 -0.231448 -0.58 118 121 126
-0.10383 -0.232645 -0.583 65 68 73
-0.102306 -0.234241 -0.587 59 59 67
-0.0759257 -0.246611 -0.618 76 74 85
-0.0560657 -0.252597 -0.633 75 73 84
0.446883 -0.258982 -0.649 145 143 183
0.443286 -0.256189 -0.642 131 129 169
0.430486 -0.243419 -0.61 147 115 139
0.398352 -0.221072 -0.554 205 173 184
0.425314 -0.215486 -0.54 181 127 117
-0.14146 -0.257812 -0.643 115 116 120
-0.135 -0.2526 -0.63 123 124 129
-0.10476 -0.233354 -0.582 78 79 84
-0.100131 -0.238166 -0.594 56 59 66
-0.0993333 -0.238968 -0.596 60 59 67
-0.0838933 -0.246987 -0.616 77 76 84
-0.0704933 -0.249392 -0.622 75 74 82
-0.0628 -0.251798 -0.628 75 73 84
-0.0502743 -0.255006 -0.636 76 74 85
0.17863 -0.260218 -0.649 181 136 133
0.18154 -0.24418 -0.609 192 149 142
0.220833 -0.250595 -0.625 138 85 95
0.393429 -0.216514 -0.54 182 128 128
0.393289 -0.215311 -0.537 188 134 132
0.395974 -0.212906 -0.531 182 131 130
0.431019 -0.217316 -0.542 177 123 111
0.449004 -0.222128 -0.554 175 123 110
-0.120605 -0.237283 -0.589 119 120 125
-0.109355 -0.232449 -0.577 115 116 120
-0.107343 -0.232851 -0.578 110 111 116
-0.106426 -0.233254 -0.579 107 108 113
-0.102306 -0.236477 -0.587 64 65 70
-0.0818114 -0.248966 -0.618 77 75 86
-0.0617019 -0.253397 -0.629 74 72 83
-0.0594 -0.2538 -0.63 75 73 84
-0.0421229 -0.258231 -0.641 74 73 81
-0.0409657 -0.258634 -0.642 74 73 81
-0.0328095 -0.261857 -0.65 74 73 81
0.183431 -0.237283 -0.589 190 145 139
0.201714 -0.241714 -0.6 162 106 105
0.229566 -0.256217 -0.636 134 83 88
0.444343 -0.257829 -0.64 138 125 153
0.438404 -0.252994 -0.628 160 145 168
0.413074 -0.232046 -0.576 201 173 185
0.393862 -0.215529 -0.535 186 138 138
0.401031 -0.213917 -0.531 182 129 125
0.404066 -0.213917 -0.531 178 121 114
0.422714 -0.216737 -0.538 182 125 114
0.434917 -0.218751 -0.543 173 123 116
-0.110071 -0.232738 -0.575 115 116 120
-0.103651 -0.235571 -0.582 62 63 68
-0.0874133 -0.249333 -0.616 72 70 81
-0.0840295 -0.249738 -0.617 75 73 84
-0.0829886 -0.250143 -0.618 76 74 85
-0.0819438 -0.250548 -0.619 76 74 85
-0.0740476 -0.251762 -0.622 75 73 84
-0.057181 -0.25581 -0.632 74 73 81
-0.053739 -0.256619 -0.634 73 72 80
-0.0467867 -0.258238 -0.638 73 72 80
-0.0456429 -0.258643 -0.639 73 72 80
0.176277 -0.242452 -0.599 194 149 143
0.176826 -0.241643 -0.597 198 153 148
0.180265 -0.23719 -0.586 197 148 141
0.182186 -0.236786 -0.585 192 143 136
0.185529 -0.236786 -0.585 189 139 132
0.19096 -0.238 -0.588 185 123 112
0.199569 -0.241643 -0.597 162 104 103
0.201714 -0.242857 -0.6 158 102 105
0.210068 -0.24731 -0.611 131 80 85
0.212269 -0.248524 -0.614 130 79 84
0.442592 -0.256619 -0.634 155 142 168
0.4403 -0.254595 -0.629 172 156 182
0.441498 -0.254595 -0.629 172 156 182
0.402291 -0.225857 -0.558 193 157 169
0.39974 -0.223833 -0.553 172 136 148
0.393862 -0.216548 -0.535 191 137 135
0.400276 -0.214524 -0.53 182 127 122
0.401286 -0.214524 -0.53 184 127 120
0.414243 -0.216548 -0.535 176 119 108
0.425789 -0.217762 -0.538 181 124 113
0.435951 -0.219786 -0.543 180 127 113
-0.139799 -0.260673 -0.641 116 117 121
-0.135857 -0.257827 -0.634 117 118 122
-0.09804 -0.244813 -0.602 60 59 65
-0.0841657 -0.25132 -0.618 74 72 83
0.167913 -0.253353 -0.623 195 150 144
0.172566 -0.243187 -0.598 183 136 128
0.175345 -0.240747 -0.592 195 150 144
0.219643 -0.254167 -0.625 131 82 86
0.449043 -0.2623 -0.645 142 132 159
0.444104 -0.256607 -0.631 179 166 194
0.439413 -0.250507 -0.616 168 151 169
0.395188 -0.220007 -0.541 177 122 125
0.398257 -0.215533 -0.53 186 131 126
0.403305 -0.215533 -0.53 180 121 113
0.412451 -0.21716 -0.534 174 117 106
0.430457 -0.2196 -0.54 180 123 112
-0.113554 -0.235337 -0.576 113 112 118
-0.107881 -0.234929 -0.575 104 105 110
-0.103651 -0.237789 -0.582 65 64 70
-0.102131 -0.239423 -0.586 69 68 74
-0.0948505 -0.249637 -0.611 61 60 66
-0.0907857 -0.251271 -0.615 64 63 71
-0.0887305 -0.252089 -0.617 69 67 78
-0.0798429 -0.253723 -0.621 77 76 84
-0.0629 -0.256991 -0.629 73 71 82
-0.0433438 -0.261894 -0.641 72 71 79
0.16801 -0.244326 -0.598 194 146 136
0.17028 -0.242691 -0.594 184 136 126
0.173629 -0.241057 -0.59 194 149 143
0.194514 -0.241874 -0.592 168 109 103
0.21296 -0.25168 -0.616 119 70 76
0.23137 -0.261894 -0.641 117 72 79
0.399667 -0.224714 -0.55 166 116 127
0.395918 -0.221446 -0.542 175 118 124
0.394311 -0.219403 -0.537 190 134 133
0.405324 -0.216543 -0.53 179 122 113
0.409893 -0.21736 -0.532 174 117 108
0.414486 -0.218177 -0.534 177 120 111
0.418319 -0.218586 -0.535 180 123 114
0.435376 -0.221037 -0.541 180 123 114
-0.130074 -0.253674 -0.618 112 113 117
-0.112067 -0.235613 -0.574 112 113 117
-0.10458 -0.238487 -0.581 68 67 73
-0.103071 -0.240129 -0.585 69 68 74
-0.100131 -0.243823 -0.594 65 64 72
-0.0950057 -0.251211 -0.612 61 60 66
-0.0921067 -0.252853 -0.616 63 62 70
-0.0674771 -0.257369 -0.627 75 74 80
-0.0583848 -0.259421 -0.632 74 73 81
-0.04686 -0.262294 -0.639 73 72 80
-0.0375295 -0.265168 -0.646 73 72 80
0.161524 -0.262705 -0.64 202 159 153
0.199903 -0.245465 -0.598 149 94 91
0.213651 -0.253674 -0.618 117 70 78
0.221049 -0.25819 -0.629 122 77 82
0.235636 -0.265168 -0.646 116 73 82
0.452876 -0.262705 -0.64 190 182 205
0.452676 -0.261884 -0.638 175 170 190
0.399257 -0.224941 -0.548 171 114 120
0.397506 -0.217142 -0.529 189 131 127
0.409123 -0.217963 -0.531 175 118 109
0.434571 -0.221657 -0.54 180 123 114
0.452407 -0.226993 -0.553 173 119 109
-0.118063 -0.240006 -0.582 110 109 115
-0.114651 -0.237531 -0.576 109 108 113
-0.113357 -0.237119 -0.575 109 108 113
-0.0983657 -0.249078 -0.604 60 59 65
-0.0950057 -0.252377 -0.612 60 59 65
-0.0888743 -0.254851 -0.618 66 65 73
-0.0811562 -0.256501 -0.622 75 74 82
-0.0777267 -0.256913 -0.623 76 75 83
-0.0652962 -0.259388 -0.629 75 74 82
-0.0550333 -0.261862 -0.635 74 73 79
-0.0457857 -0.264336 -0.641 73 72 80
-0.0422543 -0.265161 -0.643 73 72 80
0.159869 -0.249903 -0.606 199 151 147
0.163791 -0.243717 -0.591 194 146 136
0.164638 -0.243305 -0.59 191 143 133
0.171569 -0.240418 -0.583 198 151 145
0.173491 -0.240006 -0.582 200 151 146
0.176513 -0.239593 -0.581 196 146 139
0.178727 -0.239593 -0.581 193 140 132
0.216914 -0.257326 -0.624 120 75 82
0.234769 -0.26681 -0.647 110 64 74
0.458537 -0.267223 -0.648 186 181 203
0.45796 -0.264749 -0.642 200 196 213
0.453234 -0.260625 -0.632 205 188 204
0.39578 -0.222273 -0.539 190 132 131
0.394598 -0.221036 -0.536 193 133 132
0.394963 -0.218974 -0.531 190 132 130
0.397506 -0.21815 -0.529 191 133 129
0.399771 -0.217737 -0.528 187 129 125
0.400777 -0.217737 -0.528 185 127 123
0.425227 -0.221036 -0.536 178 121 112
0.431937 -0.221861 -0.538 181 121 111
-0.135643 -0.262243 -0.633 105 106 108
-0.105323 -0.239871 -0.579 67 66 72
-0.0922562 -0.255614 -0.617 61 60 66
-0.0910809 -0.255614 -0.617 63 62 70
-0.063 -0.261 -0.63 74 73 79
-0.0562429 -0.263071 -0.635 74 73 79
-0.0539086 -0.263486 -0.636 72 71 77
0.152523 -0.262243 -0.633 199 154 151
0.16296 -0.2436 -0.588 193 143 134
0.164638 -0.242771 -0.586 180 130 121
0.194843 -0.245671 -0.593 161 103 99
0.215034 -0.257686 -0.622 113 66 76
0.21985 -0.260586 -0.629 116 71 78
0.396514 -0.223714 -0.54 190 131 133
0.395435 -0.220814 -0.533 190 132 131
0.400777 -0.218743 -0.528 186 128 124
0.411146 -0.219986 -0.531 175 118 109
0.426248 -0.222057 -0.536 178 121 112
-0.109497 -0.238061 -0.572 99 98 104
-0.107693 -0.238893 -0.574 97 96 102
-0.10458 -0.241807 -0.581 70 69 77
-0.10248 -0.24472 -0.588 76 75 83
-0.0961714 -0.254709 -0.612 57 58 63
-0.0722543 -0.260951 -0.627 76 75 81
-0.0699771 -0.261368 -0.628 75 74 80
0.148114 -0.266362 -0.64 211 163 159
0.163243 -0.243471 -0.585 186 133 125
0.168476 -0.24139 -0.58 206 154 143
0.171198 -0.240558 -0.578 199 146 138
0.195171 -0.247217 -0.594 155 100 97
0.220899 -0.263032 -0.632 114 69 76
0.223509 -0.264697 -0.636 108 65 74
0.22578 -0.265946 -0.639 110 67 76
0.463274 -0.268859 -0.646 195 180 199
0.39516 -0.222246 -0.534 190 132 131
0.396986 -0.220997 -0.531 193 134 130
0.397997 -0.220997 -0.531 193 134 130
0.407582 -0.220165 -0.529 179 122 113
0.410371 -0.220581 -0.53 175 118 109
0.420816 -0.22183 -0.533 180 123 114
0.42749 -0.222662 -0.535 175 118 109
0.439714 -0.224743 -0.54 174 125 111
-0.101092 -0.24793 -0.593 74 73 81
-0.0998333 -0.250439 -0.599 71 70 78
-0.0973371 -0.255874 -0.612 58 59 64
-0.0935829 -0.258383 -0.618 59 58 66
-0.0757162 -0.261728 -0.626 75 74 82
-0.0745238 -0.261728 -0.626 76 75 83
-0.0678 -0.2634 -0.63 76 75 83
-0.0607924 -0.264236 -0.632 73 72 80
0.146263 -0.264236 -0.632 209 166 159
0.157092 -0.245422 -0.587 193 143 132
0.169803 -0.241241 -0.577 187 134 126
0.170902 -0.241241 -0.577 194 140 130
0.175298 -0.241241 -0.577 197 143 133
0.180317 -0.242077 -0.579 185 128 119
0.20808 -0.255874 -0.612 131 86 93
0.219 -0.2634 -0.63 111 68 75
0.22684 -0.268417 -0.642 100 60 68
0.395619 -0.224099 -0.536 189 131 130
0.410371 -0.22159 -0.53 177 120 113
0.416203 -0.222009 -0.531 183 126 119
0.425674 -0.223263 -0.534 174 117 110
0.429529 -0.223681 -0.535 175 122 116
0.44259 -0.22619 -0.541 174 122 109
-0.12214 -0.24822 -0.591 98 99 104
-0.111481 -0.23982 -0.571 96 97 102
-0.110587 -0.24024 -0.572 95 96 101
-0.0993514 -0.25326 -0.603 71 71 79
-0.08708 -0.26124 -0.622 63 62 70
-0.0481524 -0.2688 -0.64 72 70 81
-0.043479 -0.27006 -0.643 72 70 81
-0.0410933 -0.27048 -0.644 73 71 82
0.1449 -0.26082 -0.621 202 153 148
0.154592 -0.24612 -0.586 199 147 134
0.168411 -0.24192 -0.576 201 146 141
0.17031 -0.2415 -0.575 195 140 135
0.186643 -0.2457 -0.585 173 114 106
0.188078 -0.24612 -0.586 173 114 106
0.211297 -0.25956 -0.618 115 74 82
0.224914 -0.2688 -0.64 98 58 67
0.398513 -0.22218 -0.529 194 134 133
0.409597 -0.22218 -0.529 177 120 113
0.411381 -0.2226 -0.53 177 120 113
0.425892 -0.22386 -0.533 173 121 110
0.430548 -0.2247 -0.535 176 121 114
-0.134571 -0.264956 -0.628 102 103 107
-0.0691095 -0.266222 -0.631 75 73 84
-0.0458571 -0.270863 -0.642 72 71 79
0.143254 -0.261159 -0.619 201 152 145
0.146686 -0.25483 -0.604 200 150 143
0.149033 -0.251033 -0.595 193 143 134
0.149914 -0.250611 -0.594 190 140 131
0.156022 -0.24597 -0.583 186 134 123
0.167024 -0.242595 -0.575 204 150 140
0.168119 -0.242595 -0.575 203 148 143
0.16892 -0.242173 -0.574 197 142 137
0.191934 -0.249346 -0.591 164 106 104
0.197625 -0.252299 -0.598 143 91 93
0.401654 -0.230782 -0.547 178 127 142
0.397506 -0.223188 -0.529 193 135 133
-0.131039 -0.26149 -0.617 98 99 103
-0.102829 -0.250048 -0.59 83 84 89
-0.0978143 -0.260643 -0.615 63 63 71
-0.0938857 -0.262762 -0.62 58 57 65
-0.0726 -0.267 -0.63 74 72 83
-0.0645057 -0.268271 -0.633 74 72 83
0.140022 -0.267424 -0.631 209 164 159
0.143471 -0.256405 -0.605 204 154 147
0.14952 -0.2492 -0.588 192 140 129
0.163209 -0.244538 -0.577 203 150 142
0.202243 -0.256405 -0.605 132 87 92
0.212665 -0.26361 -0.622 116 70 83
0.40303 -0.223348 -0.527 186 127 119
0.411612 -0.224195 -0.529 181 124 115
0.418448 -0.224619 -0.53 179 122 111
0.42408 -0.225467 -0.532 174 117 106
-0.101604 -0.253726 -0.596 81 82 87
-0.0950667 -0.263943 -0.62 55 56 61
-0.091819 -0.264794 -0.622 55 54 62
