ply
format ascii 1.0
comment Created by Open3D
element vertex 1284
property double x
property double y
property double z
property uchar red
property uchar green
property uchar blue
end_header
0.163514 -0.36084 -0.582 121 84 78
0.169103 -0.36332 -0.586 122 84 81
0.17677 -0.36766 -0.593 116 81 79
0.210411 -0.37944 -0.612 148 144 171
0.220096 -0.38006 -0.613 114 113 129
0.224767 -0.38006 -0.613 175 172 183
0.23294 -0.38006 -0.613 179 182 201
0.489111 -0.38502 -0.621 101 129 179
0.51004 -0.38564 -0.622 174 178 181
0.515964 -0.38564 -0.622 137 157 194
0.473189 -0.32736 -0.528 168 135 130
0.4644 -0.31992 -0.516 163 130 125
0.452033 -0.30814 -0.497 169 135 126
0.444817 -0.29884 -0.482 178 141 132
0.443886 -0.2976 -0.48 179 142 126
0.4418 -0.2914 -0.47 184 145 128
0.450585 -0.28396 -0.458 192 150 125
0.454567 -0.2821 -0.455 191 146 125
0.459318 -0.28024 -0.452 182 137 116
0.461571 -0.279 -0.45 184 139 118
0.464143 -0.279 -0.45 183 138 117
0.485564 -0.28148 -0.454 168 127 107
-0.30111 -0.359461 -0.578 235 237 226
0.0868 -0.36568 -0.588 199 163 147
0.0871724 -0.36257 -0.583 198 162 146
0.101463 -0.343291 -0.552 202 154 134
0.113667 -0.342048 -0.55 195 147 124
0.126101 -0.344535 -0.554 188 134 108
0.133389 -0.347023 -0.558 161 105 88
0.136243 -0.348889 -0.561 149 96 82
0.152254 -0.356351 -0.573 123 85 74
0.154976 -0.357595 -0.575 122 85 77
0.156343 -0.358217 -0.576 123 86 78
0.163795 -0.36257 -0.583 120 82 79
0.16968 -0.36568 -0.588 119 84 82
0.174217 -0.368168 -0.592 117 85 86
0.223234 -0.380606 -0.612 166 161 168
0.225566 -0.380606 -0.612 174 173 191
0.47061 -0.385581 -0.62 219 219 229
0.487929 -0.386203 -0.621 183 194 216
0.504489 -0.386203 -0.621 201 206 225
0.459135 -0.315928 -0.508 172 138 129
0.446636 -0.30349 -0.488 175 138 129
0.443886 -0.298514 -0.48 179 141 128
0.442478 -0.289808 -0.466 189 146 127
0.453829 -0.283589 -0.456 189 144 121
0.464822 -0.279235 -0.449 182 137 118
-0.34932 -0.358067 -0.574 233 234 228
-0.348227 -0.358067 -0.574 232 233 227
-0.347738 -0.35869 -0.575 233 234 228
-0.33408 -0.359314 -0.576 233 234 226
-0.314877 -0.359938 -0.577 234 236 225
-0.304986 -0.359938 -0.577 235 236 228
0.0905486 -0.346838 -0.556 204 157 141
0.118071 -0.343719 -0.551 195 143 119
0.134933 -0.349333 -0.56 148 96 83
0.153613 -0.358067 -0.574 123 85 76
0.156614 -0.359938 -0.577 124 85 78
0.157987 -0.360562 -0.578 124 85 78
0.20774 -0.381148 -0.611 145 151 175
0.50922 -0.387386 -0.621 196 200 212
0.518037 -0.363681 -0.583 167 137 129
0.441843 -0.293814 -0.471 186 148 129
0.442478 -0.290695 -0.466 190 148 126
0.445633 -0.287576 -0.461 192 150 126
0.447197 -0.286329 -0.459 184 140 115
0.449712 -0.285705 -0.458 195 151 126
0.452212 -0.285081 -0.457 191 146 123
0.461571 -0.280714 -0.45 179 137 115
0.465677 -0.28009 -0.449 181 139 117
0.479778 -0.281338 -0.451 172 130 108
0.485357 -0.282586 -0.453 162 120 96
0.507957 -0.290071 -0.465 150 111 96
-0.324206 -0.360411 -0.576 234 235 227
-0.319817 -0.360411 -0.576 232 233 225
-0.293995 -0.361037 -0.577 236 237 229
0.0941029 -0.345394 -0.552 205 158 140
0.097081 -0.344769 -0.551 201 154 136
0.101095 -0.344143 -0.55 202 155 135
0.110524 -0.344143 -0.55 200 150 127
0.131028 -0.348523 -0.557 159 106 90
0.164076 -0.365417 -0.584 123 84 79
0.235671 -0.382311 -0.611 188 191 210
0.498952 -0.387943 -0.62 192 198 220
0.531113 -0.374803 -0.599 162 135 126
0.469704 -0.327249 -0.523 166 136 128
0.444819 -0.302846 -0.484 177 139 126
0.446419 -0.287829 -0.46 190 145 122
0.4537 -0.2847 -0.455 194 149 128
0.455297 -0.284074 -0.454 190 145 124
0.456883 -0.283449 -0.453 188 143 122
0.459161 -0.282197 -0.451 187 142 123
0.459857 -0.281571 -0.45 183 141 119
0.460714 -0.281571 -0.45 182 140 118
0.462256 -0.280946 -0.449 184 139 118
0.465493 -0.28032 -0.448 180 138 116
0.489888 -0.284074 -0.454 165 123 99
-0.344947 -0.360253 -0.574 233 234 226
-0.337881 -0.360881 -0.575 233 234 226
0.0979524 -0.34519 -0.55 199 152 134
0.112414 -0.344563 -0.549 197 147 124
0.123767 -0.347073 -0.553 189 137 115
0.147372 -0.35837 -0.571 130 86 73
0.219019 -0.382848 -0.61 172 170 181
0.471446 -0.387869 -0.618 154 168 197
0.502864 -0.388496 -0.619 102 110 129
0.531113 -0.375944 -0.599 163 136 129
0.442414 -0.291843 -0.465 191 148 129
0.451967 -0.285567 -0.455 189 144 121
0.455297 -0.284939 -0.454 189 144 123
0.455157 -0.284311 -0.453 188 143 122
0.459 -0.282429 -0.45 187 142 121
0.461401 -0.281801 -0.449 185 140 119
0.477857 -0.282429 -0.45 174 129 106
0.486008 -0.283684 -0.452 167 122 99
0.490752 -0.284939 -0.454 163 118 95
-0.343853 -0.361347 -0.574 233 234 226
0.0858667 -0.352533 -0.56 204 161 145
0.0958571 -0.346238 -0.55 201 155 139
0.104049 -0.345609 -0.549 195 147 125
0.107186 -0.345609 -0.549 200 152 130
0.118905 -0.346238 -0.55 193 143 120
0.122491 -0.347497 -0.552 192 140 119
0.135174 -0.353163 -0.561 141 91 82
0.136729 -0.354422 -0.563 140 90 81
0.150071 -0.360717 -0.573 128 84 71
0.162964 -0.367642 -0.584 122 83 76
0.20358 -0.38338 -0.609 92 106 151
0.20474 -0.38338 -0.609 117 131 176
0.2059 -0.38338 -0.609 116 129 173
0.20938 -0.38338 -0.609 69 78 117
0.230638 -0.38401 -0.61 184 186 201
0.242257 -0.38401 -0.61 192 198 212
0.45893 -0.388416 -0.617 138 160 199
0.504043 -0.389675 -0.619 78 83 105
0.445738 -0.305319 -0.485 176 140 124
0.441649 -0.293988 -0.467 187 146 128
0.445543 -0.289581 -0.46 192 150 126
0.446323 -0.288951 -0.459 194 152 130
0.44786 -0.287692 -0.457 192 150 126
0.455157 -0.285174 -0.453 189 144 123
0.463787 -0.282027 -0.448 183 138 117
0.478714 -0.283286 -0.45 179 137 112
0.499438 -0.288322 -0.458 147 114 97
-0.337293 -0.36244 -0.574 233 234 226
0.12017 -0.347917 -0.551 194 143 122
0.126329 -0.350443 -0.555 173 121 100
0.1328 -0.3536 -0.56 143 91 78
0.144689 -0.359283 -0.569 133 86 78
0.147372 -0.360546 -0.571 128 84 73
0.151427 -0.36244 -0.574 123 83 73
0.161574 -0.368123 -0.583 122 84 75
0.20358 -0.38454 -0.609 59 77 125
0.470683 -0.389591 -0.617 100 109 148
0.494989 -0.390223 -0.618 205 212 228
0.499697 -0.390223 -0.618 207 213 229
0.509114 -0.390223 -0.618 191 195 206
0.513823 -0.390223 -0.618 165 177 199
0.532887 -0.379489 -0.601 159 134 129
0.468 -0.328343 -0.52 164 134 124
0.442929 -0.301191 -0.477 179 141 128
0.442275 -0.292351 -0.463 189 148 128
0.443877 -0.291089 -0.461 188 147 125
0.444667 -0.290457 -0.46 183 142 120
0.461227 -0.28288 -0.448 185 140 117
0.468053 -0.28288 -0.448 183 138 115
0.468907 -0.28288 -0.448 183 138 115
0.475085 -0.283511 -0.449 170 128 104
0.476795 -0.283511 -0.449 176 134 109
0.479571 -0.284143 -0.45 175 133 108
0.483857 -0.284143 -0.45 165 123 98
0.493567 -0.2873 -0.455 146 113 94
0.498348 -0.288563 -0.457 150 115 96
-0.346529 -0.3629 -0.573 232 233 225
-0.342163 -0.3629 -0.573 231 232 224
0.100728 -0.347067 -0.548 199 152 134
0.109078 -0.347067 -0.548 202 154 132
0.117643 -0.3477 -0.549 192 144 124
0.136729 -0.356567 -0.563 138 88 79
0.154416 -0.365433 -0.577 122 81 75
0.163522 -0.371133 -0.586 113 80 73
0.199771 -0.385067 -0.608 61 82 135
0.213669 -0.385067 -0.608 170 167 186
0.491837 -0.390767 -0.617 213 211 232
0.458291 -0.320467 -0.506 168 135 126
0.440905 -0.297667 -0.47 182 145 127
0.441649 -0.295767 -0.467 186 148 129
0.441463 -0.293867 -0.464 190 149 129
0.444574 -0.2907 -0.459 185 143 121
0.449601 -0.289433 -0.457 193 148 127
0.453291 -0.286267 -0.452 190 145 124
0.45627 -0.284367 -0.449 187 145 121
0.457813 -0.283733 -0.448 192 147 126
0.462751 -0.2831 -0.447 186 140 117
0.464454 -0.2831 -0.447 184 138 115
0.473173 -0.283733 -0.448 173 129 104
0.47765 -0.284367 -0.449 181 137 110
0.484714 -0.285 -0.45 162 121 93
-0.345924 -0.363356 -0.572 232 233 225
-0.334523 -0.363991 -0.573 232 233 225
-0.322517 -0.363991 -0.573 232 233 225
-0.276548 -0.365262 -0.575 234 235 227
0.0915 -0.348746 -0.549 203 159 134
0.107837 -0.347475 -0.547 203 155 133
0.109921 -0.347475 -0.547 204 156 134
0.12144 -0.350651 -0.552 182 131 110
0.14227 -0.360815 -0.568 131 86 81
0.160739 -0.370979 -0.584 114 81 76
0.202911 -0.38559 -0.607 32 58 107
0.46992 -0.391307 -0.616 163 165 190
0.478133 -0.391307 -0.616 218 220 233
0.493012 -0.391942 -0.617 210 214 226
0.497713 -0.391942 -0.617 214 216 231
0.519148 -0.370344 -0.583 169 132 124
0.479462 -0.339852 -0.535 165 136 128
0.451157 -0.314443 -0.495 174 140 130
0.450273 -0.313172 -0.493 175 141 131
0.447566 -0.309996 -0.488 175 141 129
0.44202 -0.303009 -0.477 178 142 128
0.441463 -0.29475 -0.464 190 149 131
0.445249 -0.290304 -0.457 194 149 128
0.448617 -0.289669 -0.456 191 146 125
0.449486 -0.289669 -0.456 191 146 125
0.450843 -0.287763 -0.453 192 147 126
0.454152 -0.287128 -0.452 191 146 125
0.455414 -0.285222 -0.449 185 140 119
0.480216 -0.285222 -0.449 173 129 102
0.481071 -0.285222 -0.449 170 129 101
0.482782 -0.285222 -0.449 166 125 95
0.488369 -0.286492 -0.451 147 116 95
0.500089 -0.290304 -0.457 148 113 94
-0.348103 -0.364446 -0.572 232 233 225
-0.347013 -0.364446 -0.572 231 232 224
0.118905 -0.350429 -0.55 183 131 109
0.125271 -0.353614 -0.555 162 105 85
0.130433 -0.356163 -0.559 144 97 89
0.1577 -0.37018 -0.581 119 81 78
0.161014 -0.372729 -0.585 111 80 77
0.205224 -0.386746 -0.607 59 82 126
0.211005 -0.386746 -0.607 160 161 182
0.22141 -0.386746 -0.607 123 124 144
0.462129 -0.391843 -0.615 167 193 218
0.465643 -0.391843 -0.615 114 124 159
0.4715 -0.391843 -0.615 206 215 230
0.479307 -0.39248 -0.616 218 222 231
0.500427 -0.39248 -0.616 209 207 212
0.50594 -0.393117 -0.617 87 93 117
0.5287 -0.3791 -0.595 173 135 126
0.492751 -0.351066 -0.551 164 137 130
0.447566 -0.310926 -0.488 174 140 128
0.442907 -0.30328 -0.476 177 141 129
0.440759 -0.297546 -0.467 187 148 131
0.446011 -0.290537 -0.456 192 150 128
0.463415 -0.284166 -0.446 184 139 116
0.47744 -0.28544 -0.448 175 131 102
-0.327402 -0.365535 -0.572 232 234 223
0.0785571 -0.373843 -0.585 191 154 136
0.0873171 -0.350837 -0.549 204 159 140
0.143605 -0.363618 -0.569 134 89 83
0.146541 -0.365535 -0.572 124 83 77
0.156324 -0.370648 -0.58 121 83 80
0.19796 -0.387263 -0.606 21 48 95
0.464886 -0.392375 -0.614 99 131 178
0.472671 -0.393014 -0.615 209 206 213
0.477357 -0.393014 -0.615 214 217 222
0.496907 -0.393653 -0.616 206 209 216
0.50864 -0.393653 -0.616 162 176 211
0.51216 -0.393653 -0.616 140 161 192
0.525067 -0.393653 -0.616 150 180 232
0.475092 -0.338056 -0.529 162 133 125
0.461847 -0.326553 -0.511 163 133 125
0.442 -0.304187 -0.476 178 140 127
0.440511 -0.295879 -0.463 186 144 128
0.441243 -0.294601 -0.461 186 144 128
0.442038 -0.293962 -0.46 186 145 127
0.455253 -0.286293 -0.448 186 144 120
0.460867 -0.285015 -0.446 187 142 119
0.465964 -0.285015 -0.446 183 139 114
0.484492 -0.286932 -0.449 151 119 94
0.495941 -0.290128 -0.454 150 113 94
0.513488 -0.297796 -0.466 145 114 94
-0.346407 -0.365984 -0.571 231 232 224
-0.333355 -0.365984 -0.571 231 233 222
-0.320865 -0.366625 -0.572 232 233 225
-0.27886 -0.367266 -0.573 235 237 226
0.079681 -0.36983 -0.577 195 147 135
0.0814543 -0.358292 -0.559 199 156 140
0.0882019 -0.351242 -0.548 203 158 139
0.09724 -0.34996 -0.546 201 156 135
0.109921 -0.350601 -0.547 203 157 134
0.119121 -0.353165 -0.551 175 123 101
0.12399 -0.355088 -0.554 160 105 85
0.133037 -0.359574 -0.561 145 97 87
0.134345 -0.360215 -0.562 144 96 86
0.13829 -0.362138 -0.565 140 91 86
0.189567 -0.387776 -0.605 32 45 79
0.203731 -0.388417 -0.606 45 69 117
0.480871 -0.394186 -0.615 196 202 218
0.4707 -0.335218 -0.523 165 135 127
0.452069 -0.317912 -0.496 171 137 127
0.440946 -0.301889 -0.471 178 141 125
0.441393 -0.296761 -0.463 188 146 130
0.442914 -0.294838 -0.46 183 142 122
0.4437 -0.294197 -0.459 188 147 127
0.448379 -0.290992 -0.454 184 141 122
0.463224 -0.285224 -0.445 184 140 115
0.471061 -0.285865 -0.446 180 136 107
0.47361 -0.285865 -0.446 173 129 100
0.496806 -0.290992 -0.454 146 111 91
0.511284 -0.297402 -0.464 144 112 91
-0.331686 -0.366429 -0.57 232 234 223
-0.330092 -0.367071 -0.571 231 232 224
0.081781 -0.356143 -0.554 203 157 141
0.08418 -0.352929 -0.549 201 158 139
0.10868 -0.351 -0.546 203 155 133
0.114297 -0.352286 -0.548 190 144 120
0.133037 -0.360643 -0.561 147 97 86
0.160173 -0.376714 -0.586 108 78 80
0.184957 -0.388929 -0.605 69 71 94
0.187262 -0.388929 -0.605 94 100 122
0.460626 -0.394071 -0.613 72 112 164
0.461793 -0.394071 -0.613 66 106 158
0.48009 -0.394714 -0.614 179 184 203
0.483598 -0.394714 -0.614 172 182 207
0.487107 -0.394714 -0.614 149 161 185
0.492954 -0.394714 -0.614 195 199 210
0.476889 -0.341357 -0.531 165 135 127
0.44482 -0.3105 -0.483 177 143 133
0.441393 -0.297643 -0.463 187 148 131
0.44132 -0.297 -0.462 190 149 131
0.444378 -0.293786 -0.457 189 148 128
0.449848 -0.290571 -0.452 188 146 124
0.45143 -0.289929 -0.451 192 150 126
0.458318 -0.286714 -0.446 188 143 120
0.459833 -0.286071 -0.445 185 141 116
0.464919 -0.286071 -0.445 179 135 108
0.471061 -0.286714 -0.446 178 135 103
0.474459 -0.286714 -0.446 175 132 100
0.489 -0.289286 -0.45 150 114 90
-0.3306 -0.367514 -0.57 232 233 225
-0.310515 -0.368159 -0.571 234 235 227
0.07802 -0.374607 -0.581 197 154 135
0.0861143 -0.35333 -0.548 202 157 136
0.088041 -0.352685 -0.547 203 161 137
0.119121 -0.355264 -0.551 175 119 96
0.135656 -0.363001 -0.563 146 94 83
0.148147 -0.370093 -0.574 120 82 79
0.191554 -0.389436 -0.604 58 86 133
0.195006 -0.389436 -0.604 51 78 131
0.45288 -0.394594 -0.612 67 107 179
0.45829 -0.395239 -0.613 89 130 196
0.462961 -0.395239 -0.613 61 98 151
0.487481 -0.395239 -0.613 160 173 192
0.44202 -0.307551 -0.477 176 140 128
0.441016 -0.304972 -0.473 177 139 126
0.440511 -0.298525 -0.463 187 148 131
0.443606 -0.295301 -0.458 187 146 126
0.446767 -0.293367 -0.455 189 146 127
0.448254 -0.292077 -0.453 186 143 124
0.460491 -0.286274 -0.444 183 139 112
0.466614 -0.286919 -0.445 181 136 105
-0.328429 -0.3686 -0.57 231 233 222
-0.321914 -0.3686 -0.57 232 233 225
-0.278974 -0.369247 -0.571 233 236 225
0.106405 -0.352433 -0.545 201 155 131
0.11076 -0.35308 -0.546 196 148 125
0.119121 -0.356313 -0.551 176 120 97
0.12144 -0.35696 -0.552 169 112 93
0.184346 -0.38994 -0.603 113 111 133
0.186952 -0.390587 -0.604 109 113 138
0.20536 -0.390587 -0.604 79 92 124
0.46104 -0.39576 -0.612 74 116 190
0.465703 -0.39576 -0.612 193 210 236
0.479308 -0.396407 -0.613 183 189 203
0.498802 -0.397053 -0.614 210 202 200
0.50733 -0.396407 -0.613 68 99 154
0.46275 -0.331093 -0.512 168 138 130
0.443894 -0.311047 -0.481 178 142 130
0.442961 -0.309753 -0.479 178 142 130
0.441046 -0.30652 -0.474 177 139 126
0.451286 -0.291 -0.45 190 148 126
0.453386 -0.28906 -0.447 188 146 122
0.45492 -0.288413 -0.446 191 146 125
0.455595 -0.287767 -0.445 188 143 120
0.457109 -0.28712 -0.444 188 143 120
0.470852 -0.287767 -0.445 179 133 107
0.4717 -0.287767 -0.445 176 130 104
0.472548 -0.287767 -0.445 174 128 102
0.474243 -0.287767 -0.445 173 127 101
0.475938 -0.287767 -0.445 173 127 101
0.485973 -0.289707 -0.448 159 122 96
0.496574 -0.29294 -0.453 147 115 92
-0.346277 -0.369037 -0.569 232 234 223
-0.339774 -0.369037 -0.569 232 233 225
-0.272449 -0.370334 -0.571 234 235 227
0.0766486 -0.375523 -0.579 197 152 129
0.0849152 -0.354769 -0.547 201 156 133
0.08684 -0.35412 -0.546 202 157 134
0.0968838 -0.352823 -0.544 203 157 134
0.09792 -0.352823 -0.544 202 156 133
0.115341 -0.355417 -0.548 181 126 105
0.125271 -0.359957 -0.555 155 103 92
0.146797 -0.371631 -0.573 122 88 86
0.148405 -0.372929 -0.575 120 86 84
0.194683 -0.391089 -0.603 69 95 144
0.200426 -0.391089 -0.603 138 152 187
0.202723 -0.391089 -0.603 160 167 195
0.203871 -0.391089 -0.603 129 138 167
0.450976 -0.396277 -0.611 77 117 179
0.471531 -0.396926 -0.612 191 187 186
0.47736 -0.396926 -0.612 216 216 224
0.492151 -0.397574 -0.613 176 175 181
0.439815 -0.302234 -0.466 181 142 127
0.450283 -0.291209 -0.449 190 148 124
0.45492 -0.289263 -0.446 188 143 120
0.460491 -0.287966 -0.444 184 140 115
0.474243 -0.288614 -0.445 173 127 101
0.479556 -0.289263 -0.446 172 126 100
0.490714 -0.291857 -0.45 151 117 92
0.5005 -0.2951 -0.455 148 116 93
0.507752 -0.298343 -0.46 148 113 93
-0.325685 -0.370121 -0.569 231 233 222
0.11076 -0.35516 -0.546 189 137 113
0.1118 -0.35516 -0.546 183 131 107
0.117857 -0.357762 -0.55 174 119 98
0.127845 -0.362315 -0.557 151 102 95
0.139613 -0.36817 -0.566 143 94 89
0.154911 -0.379228 -0.583 110 84 83
0.468433 -0.397441 -0.611 222 219 226
0.486686 -0.398091 -0.612 202 204 217
0.512001 -0.398742 -0.613 92 126 187
0.439757 -0.302471 -0.465 181 142 127
0.441861 -0.297918 -0.458 187 146 128
0.457767 -0.288161 -0.443 187 141 118
0.46283 -0.288161 -0.443 185 139 116
0.486827 -0.291413 -0.448 153 117 91
-0.339177 -0.370552 -0.568 231 232 224
-0.278486 -0.371857 -0.57 232 235 226
0.0747 -0.379033 -0.581 194 159 140
0.086681 -0.355548 -0.545 203 156 136
0.119121 -0.359462 -0.551 174 118 103
0.131733 -0.365333 -0.56 151 96 89
0.148663 -0.375771 -0.576 120 89 87
0.1978 -0.392733 -0.602 103 116 151
0.20124 -0.392733 -0.602 159 165 189
0.473089 -0.398605 -0.611 187 188 193
0.490183 -0.399257 -0.612 211 217 231
0.461009 -0.332062 -0.509 167 137 126
0.44001 -0.306619 -0.47 180 142 129
0.441077 -0.299443 -0.459 189 151 132
0.441951 -0.299443 -0.459 187 146 128
0.444803 -0.295529 -0.453 192 150 125
0.45407 -0.290962 -0.446 187 143 118
0.464517 -0.289005 -0.443 187 141 115
0.468103 -0.289657 -0.444 178 132 108
0.472331 -0.289657 -0.444 177 131 105
0.475714 -0.289657 -0.444 172 126 102
-0.33642 -0.37098 -0.567 231 232 224
-0.287751 -0.372289 -0.569 231 234 225
-0.279081 -0.372289 -0.569 230 233 224
-0.276913 -0.372289 -0.569 233 235 222
0.0799971 -0.359203 -0.549 198 155 136
0.0808952 -0.358549 -0.548 203 158 139
0.0846048 -0.356586 -0.545 202 157 136
0.09756 -0.354623 -0.542 201 156 135
0.107246 -0.355931 -0.544 188 140 118
0.12399 -0.362474 -0.554 158 105 91
0.145706 -0.374906 -0.573 126 89 83
0.184879 -0.393226 -0.601 80 87 116
0.189458 -0.393226 -0.601 99 108 141
0.468829 -0.399114 -0.61 221 223 236
0.480071 -0.399769 -0.611 218 216 229
0.440643 -0.304243 -0.465 183 144 127
0.449428 -0.293774 -0.449 191 149 125
0.450831 -0.292466 -0.447 186 142 117
0.461785 -0.289194 -0.442 182 138 113
-0.3321 -0.37206 -0.567 230 231 223
-0.268243 -0.373372 -0.569 233 235 224
-0.236143 -0.374029 -0.57 235 236 228
-0.232886 -0.374029 -0.57 235 236 230
0.0789514 -0.360249 -0.549 198 155 136
0.0844495 -0.356968 -0.544 202 157 136
0.0913657 -0.355655 -0.542 200 155 132
0.10169 -0.355655 -0.542 200 152 129
0.102911 -0.356311 -0.543 200 152 129
0.10498 -0.356311 -0.543 195 147 125
0.117857 -0.360905 -0.55 176 120 103
0.126556 -0.364842 -0.556 160 106 96
0.133037 -0.368123 -0.561 149 97 86
0.135656 -0.369435 -0.563 147 94 86
0.15054 -0.379934 -0.579 111 86 90
0.175429 -0.393714 -0.6 124 125 146
0.45066 -0.39962 -0.609 142 181 236
0.46574 -0.39962 -0.609 163 183 210
0.47154 -0.39962 -0.609 217 217 225
0.476962 -0.400276 -0.61 221 221 231
0.479286 -0.400276 -0.61 217 217 227
0.498692 -0.400932 -0.611 195 198 213
0.499856 -0.400932 -0.611 162 176 205
0.515109 -0.377966 -0.576 161 132 124
0.46899 -0.341219 -0.52 164 135 127
0.440983 -0.309722 -0.472 179 142 126
0.439967 -0.307753 -0.469 180 141 124
0.43956 -0.30316 -0.462 189 148 130
0.442537 -0.299223 -0.456 188 147 125
0.453726 -0.291349 -0.444 183 139 114
0.455417 -0.291349 -0.444 185 141 116
0.495241 -0.295942 -0.451 146 111 89
-0.339061 -0.372482 -0.566 228 231 222
-0.290491 -0.373798 -0.568 231 232 224
-0.287246 -0.373798 -0.568 231 233 222
-0.285082 -0.373798 -0.568 232 234 223
-0.280754 -0.373798 -0.568 232 234 223
0.0746324 -0.37643 -0.572 198 157 137
0.0834133 -0.358004 -0.544 202 157 136
0.0922276 -0.35603 -0.541 202 157 134
0.118905 -0.361952 -0.55 173 117 100
0.141437 -0.374456 -0.569 136 91 88
0.456869 -0.400122 -0.608 193 210 240
0.458027 -0.400122 -0.608 200 217 247
0.503686 -0.401438 -0.61 162 173 201
0.442929 -0.313911 -0.477 178 142 128
0.44001 -0.309305 -0.47 181 144 128
0.442214 -0.298117 -0.453 188 146 122
0.444682 -0.297459 -0.452 186 144 119
0.454391 -0.291536 -0.443 186 142 117
0.456079 -0.291536 -0.443 179 135 110
0.465152 -0.290878 -0.442 177 131 107
0.477174 -0.291536 -0.443 167 122 99
0.480789 -0.292194 -0.444 165 120 99
0.482719 -0.292852 -0.445 164 119 98
-0.339538 -0.3729 -0.565 227 230 221
-0.32828 -0.37356 -0.566 231 232 224
-0.268853 -0.37488 -0.568 233 234 226
-0.265608 -0.37488 -0.568 232 233 225
-0.23031 -0.37554 -0.569 236 237 231
0.08326 -0.35838 -0.543 202 157 136
0.0891362 -0.35706 -0.541 202 157 134
0.09738 -0.35706 -0.541 202 156 133
0.0984105 -0.35706 -0.541 200 154 131
0.1118 -0.36036 -0.546 190 135 114
0.184264 -0.39534 -0.599 74 87 121
0.48778 -0.40194 -0.609 211 210 224
0.49938 -0.40194 -0.609 95 117 158
0.469892 -0.34386 -0.521 163 133 125
0.459255 -0.33396 -0.506 163 133 123
0.453891 -0.32868 -0.498 167 134 125
0.4494 -0.3234 -0.49 171 139 128
0.446662 -0.3201 -0.485 170 138 127
0.438871 -0.3069 -0.465 182 143 126
0.440896 -0.30162 -0.457 188 147 127
0.441767 -0.30162 -0.457 186 145 123
0.441669 -0.30096 -0.456 187 146 124
0.442433 -0.3003 -0.455 186 146 121
0.442099 -0.29832 -0.452 188 146 122
0.44296 -0.29832 -0.452 187 145 121
0.445286 -0.297 -0.45 186 144 122
0.447573 -0.29568 -0.448 190 148 124
0.453052 -0.2937 -0.445 187 141 115
0.456079 -0.29238 -0.443 184 138 114
0.45906 -0.29106 -0.441 183 137 114
0.4599 -0.29106 -0.441 183 137 114
0.46852 -0.29172 -0.442 179 133 109
0.475487 -0.29238 -0.443 172 126 102
0.495 -0.297 -0.45 147 111 89
-0.328776 -0.373976 -0.565 230 231 225
-0.32289 -0.374638 -0.566 231 232 224
-0.2889 -0.3753 -0.567 232 233 225
-0.28026 -0.3753 -0.567 232 234 223
0.084139 -0.358752 -0.542 203 158 137
0.146214 -0.380595 -0.575 115 84 82
0.448024 -0.401776 -0.607 146 171 202
0.451492 -0.401776 -0.607 127 160 195
0.48003 -0.402438 -0.608 213 215 227
0.481189 -0.402438 -0.608 213 215 227
0.4843 -0.4031 -0.609 209 209 221
0.49126 -0.4031 -0.609 212 215 222
0.49706 -0.4031 -0.609 100 107 135
0.49938 -0.4031 -0.609 119 138 178
0.50286 -0.4031 -0.609 205 211 227
0.50402 -0.4031 -0.609 200 206 222
0.46282 -0.338233 -0.511 164 134 124
0.441016 -0.313081 -0.473 176 140 126
0.441077 -0.303814 -0.459 183 145 126
0.440896 -0.30249 -0.457 186 145 125
0.446143 -0.297857 -0.45 192 150 128
0.44672 -0.296533 -0.448 189 147 123
0.447426 -0.295871 -0.447 189 144 121
0.453548 -0.293224 -0.443 186 140 116
0.45906 -0.2919 -0.441 182 136 113
0.46746 -0.2919 -0.441 179 133 110
0.487202 -0.29521 -0.446 160 119 97
0.495857 -0.297857 -0.45 146 111 89
0.503967 -0.301167 -0.455 145 108 89
-0.343234 -0.374389 -0.564 228 231 222
-0.321243 -0.375052 -0.565 232 233 225
-0.303484 -0.375716 -0.566 232 233 225
-0.291625 -0.375716 -0.566 230 232 221
-0.290547 -0.375716 -0.566 231 233 222
-0.284078 -0.375716 -0.566 232 234 223
0.0743943 -0.36775 -0.554 198 160 137
0.0850143 -0.359121 -0.541 204 159 138
0.117857 -0.365095 -0.55 174 118 101
0.12017 -0.365759 -0.551 173 117 102
0.131733 -0.371733 -0.56 148 98 91
0.148078 -0.383682 -0.578 108 81 86
0.149695 -0.38501 -0.58 107 80 85
0.469991 -0.402932 -0.607 211 214 233
0.484663 -0.403596 -0.608 203 209 221
0.490453 -0.403596 -0.608 202 204 216
0.49822 -0.40426 -0.609 115 130 163
0.499718 -0.403596 -0.608 189 199 224
0.446662 -0.321948 -0.485 173 141 128
0.442947 -0.317301 -0.478 177 141 127
0.440983 -0.313318 -0.472 176 140 124
0.440896 -0.303361 -0.457 183 145 126
0.448277 -0.296723 -0.447 189 144 121
0.448973 -0.296059 -0.446 187 142 119
0.45738 -0.29274 -0.441 184 138 114
0.458019 -0.292076 -0.44 182 136 112
0.476097 -0.293404 -0.442 168 122 98
0.476939 -0.293404 -0.442 168 122 98
0.4928 -0.297387 -0.448 150 112 91
-0.330343 -0.375463 -0.564 230 231 225
-0.287312 -0.376794 -0.566 231 233 222
0.09394 -0.35882 -0.539 198 151 131
0.0949667 -0.35882 -0.539 201 153 131
0.115341 -0.364811 -0.548 179 122 103
0.126556 -0.370137 -0.556 158 101 90
0.449594 -0.403423 -0.606 176 200 238
0.451903 -0.403423 -0.606 147 173 206
0.485821 -0.404754 -0.608 211 210 224
0.497402 -0.404754 -0.608 152 161 190
0.525612 -0.392106 -0.589 163 135 131
0.4815 -0.356157 -0.535 160 131 123
0.454803 -0.332191 -0.499 166 134 123
0.45051 -0.296243 -0.445 189 144 121
0.453366 -0.294246 -0.442 183 137 113
0.45486 -0.29358 -0.441 184 138 114
0.456343 -0.292914 -0.44 184 138 114
0.463048 -0.292914 -0.44 182 136 112
0.46914 -0.29358 -0.441 178 132 109
0.47418 -0.29358 -0.441 170 124 101
0.479706 -0.294911 -0.443 167 121 98
0.483326 -0.295577 -0.444 163 118 97
0.494755 -0.298906 -0.449 149 112 93
-0.340481 -0.37587 -0.563 228 231 222
-0.336191 -0.37587 -0.563 229 232 223
-0.332491 -0.376537 -0.564 229 230 224
-0.331417 -0.376537 -0.564 230 231 225
-0.294338 -0.377205 -0.565 231 232 224
0.0770543 -0.362517 -0.543 204 161 142
0.0847 -0.359847 -0.539 200 158 134
0.102343 -0.360514 -0.54 195 145 120
0.103563 -0.361182 -0.541 195 145 120
0.45231 -0.40391 -0.605 145 171 206
0.470371 -0.404577 -0.606 176 184 207
0.474989 -0.404577 -0.606 200 199 217
0.491611 -0.405912 -0.608 208 213 232
0.521369 -0.389222 -0.583 161 133 130
0.46107 -0.33915 -0.508 163 133 125
0.43941 -0.307105 -0.46 184 146 127
0.440596 -0.303099 -0.454 187 146 124
0.444429 -0.300429 -0.45 186 144 120
0.446574 -0.298426 -0.447 187 142 119
0.45186 -0.295755 -0.443 189 145 120
0.452524 -0.295088 -0.442 188 144 119
0.4557 -0.29442 -0.441 185 139 116
0.456343 -0.293752 -0.44 181 135 112
0.463886 -0.293752 -0.44 180 136 111
0.46662 -0.29442 -0.441 180 135 112
0.46914 -0.29442 -0.441 180 134 111
0.476939 -0.295088 -0.442 166 118 95
0.481393 -0.295755 -0.443 163 117 94
0.49561 -0.299761 -0.449 146 107 90
-0.335594 -0.376272 -0.562 228 231 224
-0.332974 -0.376942 -0.563 229 230 224
-0.283576 -0.378281 -0.565 232 234 223
-0.2825 -0.378281 -0.565 232 234 223
0.0779448 -0.362882 -0.542 201 159 135
0.0836733 -0.360873 -0.539 204 159 136
0.102343 -0.361543 -0.54 193 143 118
0.103563 -0.362212 -0.541 193 143 118
0.109318 -0.364221 -0.544 185 134 107
0.117643 -0.367569 -0.549 172 113 99
0.119952 -0.368238 -0.55 170 112 100
0.126329 -0.371586 -0.555 157 105 94
0.129137 -0.373594 -0.558 147 99 89
0.131733 -0.374933 -0.56 150 97 93
0.142183 -0.382968 -0.572 119 89 91
0.469595 -0.405062 -0.605 115 129 156
0.473834 -0.405731 -0.606 176 181 201
0.498074 -0.405731 -0.606 200 205 211
0.497545 -0.370916 -0.554 160 132 128
0.455714 -0.334762 -0.5 163 133 123
0.443873 -0.320702 -0.479 171 137 125
0.441976 -0.318024 -0.475 175 142 127
0.441949 -0.317354 -0.474 176 143 128
0.438871 -0.311329 -0.465 180 143 125
0.438811 -0.310659 -0.464 183 144 127
0.440026 -0.305972 -0.457 184 146 127
0.442714 -0.301286 -0.45 186 146 121
0.453366 -0.29593 -0.442 189 145 120
0.456142 -0.293921 -0.439 182 136 113
0.459487 -0.293921 -0.439 186 141 118
0.462831 -0.293921 -0.439 178 134 109
0.467238 -0.29459 -0.44 180 134 110
0.469752 -0.29459 -0.44 177 131 105
0.4767 -0.29526 -0.441 162 116 93
0.0704905 -0.379357 -0.565 200 159 139
0.0826467 -0.3619 -0.539 204 159 136
0.0990733 -0.3619 -0.539 199 152 126
0.102343 -0.362571 -0.54 193 143 116
0.134584 -0.378014 -0.563 143 93 86
0.484223 -0.406886 -0.606 197 209 233
0.487686 -0.406886 -0.606 169 180 212
0.491149 -0.406886 -0.606 96 121 161
0.492303 -0.406886 -0.606 122 147 187
0.494611 -0.406886 -0.606 204 209 239
0.464631 -0.344443 -0.513 160 131 125
0.45931 -0.339071 -0.505 161 131 123
0.44574 -0.3243 -0.483 169 135 123
0.443873 -0.321614 -0.479 170 136 124
0.441976 -0.318929 -0.475 177 144 129
0.448814 -0.298786 -0.445 184 140 115
0.449497 -0.298114 -0.444 181 137 112
0.449998 -0.296771 -0.442 187 143 118
0.461159 -0.294757 -0.439 183 137 114
0.469521 -0.294757 -0.439 174 129 96
0.473105 -0.295429 -0.44 168 123 90
0.4917 -0.300129 -0.447 148 111 92
0.503724 -0.304829 -0.454 143 106 87
-0.335594 -0.378413 -0.562 228 229 221
-0.282 -0.37976 -0.564 230 232 221
0.0717619 -0.370333 -0.55 198 155 136
0.0776571 -0.3636 -0.54 201 159 135
0.0895 -0.36158 -0.537 201 155 131
0.092741 -0.362253 -0.538 201 155 131
0.101127 -0.362927 -0.539 196 146 119
0.123767 -0.372353 -0.553 159 105 95
0.134584 -0.379087 -0.563 143 92 88
0.478814 -0.407367 -0.605 147 166 199
0.484576 -0.407367 -0.605 177 196 228
0.489186 -0.407367 -0.605 97 119 158
0.492643 -0.407367 -0.605 185 190 219
0.4961 -0.407367 -0.605 208 210 223
0.453927 -0.334647 -0.497 162 132 122
0.446663 -0.325893 -0.484 170 136 124
0.440946 -0.31714 -0.471 177 141 125
0.43992 -0.31512 -0.468 179 142 126
0.438928 -0.313773 -0.466 178 141 123
0.439329 -0.30906 -0.459 179 142 123
0.439155 -0.307713 -0.457 183 147 125
0.445013 -0.301653 -0.448 187 145 123
0.456142 -0.295593 -0.439 180 136 111
0.457606 -0.29492 -0.438 184 140 115
0.461159 -0.295593 -0.439 182 136 112
0.461995 -0.295593 -0.439 180 134 110
0.473943 -0.296267 -0.44 160 120 94
0.485863 -0.29896 -0.444 151 114 88
0.500644 -0.304347 -0.452 142 105 86
-0.331791 -0.378809 -0.561 229 230 222
-0.32489 -0.379484 -0.562 228 229 221
-0.298658 -0.380159 -0.563 230 232 221
0.0833629 -0.362603 -0.537 204 159 136
0.0884771 -0.362603 -0.537 207 161 137
0.0905229 -0.362603 -0.537 205 159 135
0.0958152 -0.363278 -0.538 197 151 127
0.105819 -0.365979 -0.542 188 137 108
0.11284 -0.36868 -0.546 177 122 102
0.114089 -0.369355 -0.547 175 120 100
0.131969 -0.378809 -0.561 138 97 91
0.136138 -0.38151 -0.565 137 89 89
0.451963 -0.407169 -0.603 142 171 211
0.453111 -0.407169 -0.603 130 158 198
0.476872 -0.407844 -0.604 171 195 239
0.49149 -0.408519 -0.605 125 155 205
0.4887 -0.366654 -0.543 157 129 125
0.45484 -0.336269 -0.498 163 133 123
0.447583 -0.328166 -0.486 168 138 127
0.446663 -0.326815 -0.484 171 137 125
0.445735 -0.325465 -0.482 173 139 127
0.438928 -0.314661 -0.466 178 141 123
0.438748 -0.312635 -0.463 181 144 126
0.439931 -0.307909 -0.456 184 146 125
0.446271 -0.300481 -0.445 190 148 124
0.460943 -0.295754 -0.438 179 133 107
0.502614 -0.305883 -0.453 142 104 85
-0.335467 -0.3792 -0.56 229 230 222
0.0783943 -0.364303 -0.538 201 156 135
0.08234 -0.363626 -0.537 205 160 137
0.0833629 -0.363626 -0.537 206 161 138
0.0843857 -0.363626 -0.537 206 162 137
0.105819 -0.367011 -0.542 186 135 108
0.108083 -0.367689 -0.543 186 135 108
0.12399 -0.375137 -0.554 157 102 95
0.127845 -0.377169 -0.557 146 97 90
0.129137 -0.377846 -0.558 143 94 87
0.139514 -0.385971 -0.57 118 86 89
0.173674 -0.402223 -0.594 143 145 168
0.473786 -0.408317 -0.603 82 117 171
0.45931 -0.341957 -0.505 162 132 124
0.4448 -0.325029 -0.48 173 139 127
0.442929 -0.322997 -0.477 172 138 126
0.441351 -0.306746 -0.453 188 147 127
0.441121 -0.305391 -0.451 187 146 126
0.443441 -0.304037 -0.449 185 144 122
0.444726 -0.302006 -0.446 186 144 120
0.445424 -0.301329 -0.445 186 144 120
0.447806 -0.300651 -0.444 190 146 121
0.45066 -0.29862 -0.441 188 144 117
0.459274 -0.296589 -0.438 185 141 114
0.465114 -0.296589 -0.438 179 135 110
-0.32538 -0.380946 -0.561 229 230 222
-0.322174 -0.380946 -0.561 229 230 222
-0.298128 -0.381625 -0.562 228 230 219
0.06954 -0.372797 -0.549 206 156 129
0.0717505 -0.368044 -0.542 198 157 135
0.0735429 -0.366686 -0.54 200 157 138
0.0872914 -0.36397 -0.536 207 161 137
0.0883124 -0.36397 -0.536 208 162 138
0.0893333 -0.36397 -0.536 205 159 135
0.0988895 -0.365328 -0.538 191 143 120
0.105624 -0.367365 -0.541 185 133 109
0.164346 -0.402675 -0.593 51 69 107
0.458093 -0.408787 -0.602 215 215 227
0.463827 -0.408787 -0.602 223 223 233
0.479529 -0.409466 -0.603 77 112 180
0.484926 -0.410145 -0.604 64 104 163
0.485271 -0.409466 -0.603 55 95 154
0.493311 -0.409466 -0.603 207 207 217
0.517998 -0.39249 -0.578 161 132 128
0.45484 -0.338166 -0.498 165 132 123
0.449414 -0.332054 -0.489 166 136 125
0.448504 -0.330696 -0.487 164 134 123
0.43868 -0.31372 -0.462 182 145 127
0.440596 -0.308288 -0.454 188 147 127
0.449998 -0.300139 -0.442 187 143 114
0.459274 -0.297423 -0.438 184 140 113
0.46655 -0.296744 -0.437 176 131 102
0.47012 -0.297423 -0.438 171 126 95
0.473457 -0.297423 -0.438 167 122 93
0.484516 -0.300139 -0.442 153 116 90
0.486456 -0.300818 -0.443 152 115 89
0.499286 -0.305571 -0.45 146 108 89
-0.328 -0.381333 -0.56 229 230 222
0.0648267 -0.389505 -0.572 196 154 130
0.0781029 -0.36499 -0.536 208 162 139
0.0801448 -0.36499 -0.536 205 159 136
0.0893333 -0.36499 -0.536 206 160 134
0.0903543 -0.36499 -0.536 203 158 129
0.0944381 -0.36499 -0.536 199 153 130
0.11388 -0.3718 -0.546 169 116 100
0.116385 -0.373162 -0.548 171 115 102
0.118905 -0.374524 -0.55 163 106 95
0.12017 -0.375205 -0.551 158 104 94
0.129369 -0.380652 -0.559 142 95 87
0.139759 -0.388824 -0.571 117 85 90
0.46956 -0.409933 -0.602 182 189 217
0.477587 -0.409933 -0.602 71 108 179
0.484123 -0.410614 -0.603 54 95 161
0.491014 -0.410614 -0.603 202 204 217
0.468254 -0.352052 -0.517 165 136 130
0.451234 -0.335029 -0.492 167 134 125
0.444786 -0.326176 -0.479 170 136 124
0.438871 -0.316643 -0.465 182 145 129
0.4416 -0.305067 -0.448 187 146 124
0.44898 -0.3003 -0.441 186 142 113
0.453633 -0.298938 -0.439 189 144 115
0.455103 -0.298257 -0.438 190 144 118
0.456771 -0.298257 -0.438 181 135 109
0.467382 -0.297576 -0.437 177 131 97
0.470711 -0.297576 -0.437 174 125 92
0.473209 -0.297576 -0.437 164 118 85
0.496213 -0.305067 -0.448 145 107 88
-0.326933 -0.3824 -0.56 228 229 221
-0.310933 -0.3824 -0.56 229 230 222
-0.293323 -0.383083 -0.561 230 232 221
0.0708486 -0.370791 -0.543 203 157 134
0.0725143 -0.368743 -0.54 203 157 134
0.0770819 -0.366011 -0.536 206 160 136
0.0871286 -0.365329 -0.535 208 162 136
0.11388 -0.37284 -0.546 172 116 99
0.116385 -0.374206 -0.548 166 113 99
0.138429 -0.389229 -0.57 122 87 85
0.437143 -0.409714 -0.6 153 168 197
0.460767 -0.410397 -0.601 222 224 237
0.49708 -0.41108 -0.602 207 209 221
0.500203 -0.411763 -0.603 199 201 216
0.501667 -0.41108 -0.602 164 183 215
0.452151 -0.336649 -0.493 163 130 121
0.443837 -0.325723 -0.477 174 140 128
0.43773 -0.314797 -0.461 182 143 126
0.441121 -0.307969 -0.451 182 141 119
0.446797 -0.302506 -0.443 192 148 123
0.455103 -0.299091 -0.438 190 145 116
0.465482 -0.297726 -0.436 175 128 98
0.471544 -0.298409 -0.437 166 121 92
0.48426 -0.30114 -0.441 155 115 90
-0.335331 -0.382097 -0.558 228 229 221
-0.334269 -0.382097 -0.558 227 228 220
-0.329544 -0.382782 -0.559 227 228 220
-0.321026 -0.382782 -0.559 229 230 224
-0.3088 -0.383467 -0.56 229 231 220
-0.296 -0.383467 -0.56 230 232 221
-0.293867 -0.383467 -0.56 230 232 221
0.0820333 -0.366348 -0.535 206 160 136
0.0891667 -0.366348 -0.535 207 161 135
0.1044 -0.369771 -0.54 183 131 107
0.481372 -0.411542 -0.601 49 89 159
0.492493 -0.412227 -0.602 204 210 226
0.461129 -0.347174 -0.507 160 131 127
0.444786 -0.328001 -0.479 170 138 123
0.443837 -0.326631 -0.477 174 141 124
0.440946 -0.322523 -0.471 174 141 124
0.439063 -0.312251 -0.456 184 146 127
0.440614 -0.306089 -0.447 188 146 124
0.441466 -0.306089 -0.447 187 145 123
0.443027 -0.305404 -0.446 188 146 122
0.447472 -0.302665 -0.442 187 143 118
0.4473 -0.30198 -0.441 185 141 116
0.451314 -0.301295 -0.44 186 140 114
0.459058 -0.299241 -0.437 183 136 108
0.479555 -0.30061 -0.439 157 115 90
0.487042 -0.302665 -0.442 154 113 91
0.503227 -0.309512 -0.452 140 107 88
-0.321026 -0.383847 -0.559 228 229 221
-0.316767 -0.383847 -0.559 229 230 222
-0.294933 -0.384533 -0.56 230 231 223
0.0695571 -0.371487 -0.541 200 154 131
0.08188 -0.36668 -0.534 206 160 136
0.0932429 -0.367367 -0.535 201 156 127
0.11513 -0.375607 -0.547 168 115 101
0.122713 -0.379727 -0.553 149 102 96
0.1296 -0.384533 -0.56 143 96 86
0.138671 -0.392087 -0.571 126 88 85
0.473714 -0.412 -0.6 60 99 178
0.456667 -0.343333 -0.5 160 132 128
0.443813 -0.326853 -0.476 172 139 124
0.441882 -0.324107 -0.472 170 137 122
0.43868 -0.31724 -0.462 180 143 124
0.439731 -0.311747 -0.454 181 143 122
0.441 -0.309 -0.45 185 144 122
0.441328 -0.306253 -0.446 190 148 126
0.442177 -0.306253 -0.446 190 148 126
0.442731 -0.30488 -0.444 188 146 122
0.443422 -0.304193 -0.443 180 138 114
0.445789 -0.303507 -0.442 190 146 121
0.451125 -0.301447 -0.439 187 142 113
0.4526 -0.30076 -0.438 189 144 115
0.462757 -0.2987 -0.435 182 137 108
0.494848 -0.306253 -0.446 146 108 87
-0.33473 -0.383534 -0.557 227 228 220
-0.33367 -0.383534 -0.557 227 228 220
-0.311949 -0.384223 -0.558 228 229 221
0.0710886 -0.369763 -0.537 204 158 135
0.0859486 -0.367697 -0.534 206 159 133
0.12166 -0.38078 -0.553 150 101 94
0.122935 -0.381469 -0.554 148 101 95
0.127011 -0.384223 -0.558 143 98 92
0.133986 -0.389043 -0.565 137 92 87
0.13554 -0.39042 -0.567 135 90 85
0.161267 -0.406257 -0.59 93 103 139
0.164638 -0.406257 -0.59 124 131 159
0.489386 -0.413831 -0.601 156 180 208
0.503123 -0.413831 -0.601 89 126 179
0.521583 -0.400749 -0.582 156 133 127
0.448509 -0.334646 -0.486 166 134 121
0.444786 -0.329826 -0.479 169 137 124
0.44086 -0.32294 -0.469 173 137 121
0.438371 -0.315366 -0.458 181 143 124
0.441 -0.309857 -0.45 184 143 121
0.440875 -0.309169 -0.449 188 146 124
0.447962 -0.302971 -0.44 191 146 117
0.454686 -0.300217 -0.436 182 137 104
0.4611 -0.299529 -0.435 180 135 104
0.466071 -0.299529 -0.435 174 129 100
-0.33413 -0.383905 -0.556 228 229 221
-0.331548 -0.384595 -0.557 228 230 219
-0.307697 -0.385286 -0.558 230 232 221
0.0729981 -0.370095 -0.536 204 158 134
0.073881 -0.369405 -0.535 206 160 136
0.0868029 -0.368024 -0.533 202 156 130
0.089 -0.368714 -0.534 201 154 128
0.0985219 -0.370095 -0.536 189 139 116
0.482857 -0.414286 -0.6 48 87 162
0.486286 -0.414286 -0.6 81 122 178
0.493143 -0.414286 -0.6 136 148 174
0.495429 -0.414286 -0.6 154 153 169
0.5 -0.414286 -0.6 148 170 209
0.5058 -0.388048 -0.562 160 132 121
0.491538 -0.37631 -0.545 160 132 121
0.44394 -0.3045 -0.441 191 147 120
0.44562 -0.3045 -0.441 188 144 117
0.455516 -0.301048 -0.436 181 136 103
0.463347 -0.299667 -0.434 177 132 101
0.464173 -0.299667 -0.434 174 129 98
0.465 -0.299667 -0.434 176 131 100
0.476538 -0.301738 -0.437 166 122 95
-0.326243 -0.385656 -0.557 227 229 218
-0.305571 -0.386349 -0.558 228 229 221
-0.303446 -0.386349 -0.558 228 229 221
0.065919 -0.377348 -0.545 203 158 135
0.0709562 -0.371116 -0.536 200 156 131
0.0728619 -0.370424 -0.535 205 159 135
0.0910343 -0.369731 -0.534 202 157 128
0.097501 -0.371116 -0.536 191 141 118
0.101964 -0.372501 -0.538 183 131 109
0.102989 -0.372501 -0.538 182 127 107
0.127011 -0.386349 -0.558 143 98 92
0.483193 -0.414736 -0.599 54 94 164
0.492 -0.415429 -0.6 87 121 169
0.5076 -0.390503 -0.564 161 131 120
0.452151 -0.341344 -0.493 161 135 122
0.438454 -0.317803 -0.459 178 141 123
0.4379 -0.313649 -0.453 178 140 121
0.440143 -0.311571 -0.45 183 142 122
0.44778 -0.303955 -0.439 190 145 114
0.448616 -0.303955 -0.439 190 145 114
0.4526 -0.303263 -0.438 186 141 110
0.454064 -0.30257 -0.437 186 140 107
0.461454 -0.299801 -0.433 181 136 103
0.474617 -0.301878 -0.436 164 120 95
0.48762 -0.30534 -0.441 155 115 90
-0.332471 -0.385329 -0.555 227 228 220
-0.329893 -0.386023 -0.556 226 227 219
0.06102 -0.39366 -0.567 196 155 133
0.0681467 -0.373526 -0.538 205 160 137
0.0836 -0.36936 -0.532 201 155 129
0.104207 -0.37422 -0.539 176 124 102
0.120389 -0.383246 -0.552 149 100 95
0.137584 -0.396437 -0.571 125 90 86
0.472135 -0.415183 -0.598 50 88 169
0.482052 -0.415877 -0.599 45 84 161
0.484334 -0.415877 -0.599 69 107 178
0.486616 -0.415877 -0.599 90 130 191
0.492321 -0.415877 -0.599 116 131 150
0.517303 -0.399909 -0.576 155 130 123
0.5094 -0.392966 -0.566 161 131 121
0.472783 -0.362417 -0.522 163 130 123
0.460271 -0.350614 -0.505 161 132 124
0.456667 -0.347143 -0.5 161 132 124
0.443837 -0.331174 -0.477 171 137 125
0.440759 -0.324231 -0.467 176 141 122
0.439165 -0.311734 -0.449 184 143 123
0.440338 -0.308957 -0.445 186 144 120
0.44778 -0.304791 -0.439 189 144 113
0.452399 -0.303403 -0.437 186 140 107
0.456957 -0.302014 -0.435 178 135 101
0.456733 -0.30132 -0.434 181 138 104
0.461454 -0.300626 -0.433 178 133 100
0.46996 -0.30132 -0.434 167 122 93
0.477109 -0.302709 -0.436 162 120 95
0.479868 -0.303403 -0.437 156 114 90
0.4818 -0.304097 -0.438 155 115 90
-0.328834 -0.387082 -0.556 226 227 219
-0.324598 -0.387082 -0.556 228 229 221
-0.294414 -0.387778 -0.557 229 231 220
0.0698048 -0.372462 -0.535 200 155 132
0.0940857 -0.371766 -0.534 189 142 116
0.0995429 -0.373158 -0.536 182 132 109
0.466797 -0.415626 -0.597 182 202 237
0.476691 -0.416322 -0.598 47 87 156
0.481248 -0.416322 -0.598 47 86 163
0.482387 -0.416322 -0.598 60 97 168
0.489221 -0.416322 -0.598 158 176 198
0.498333 -0.416322 -0.598 154 172 208
0.485346 -0.373854 -0.537 159 130 122
0.469239 -0.35993 -0.517 160 133 126
0.453069 -0.343918 -0.494 164 134 123
0.43868 -0.32164 -0.462 176 139 120
0.438609 -0.320944 -0.461 178 141 122
0.441886 -0.309109 -0.444 183 141 117
0.44394 -0.30702 -0.441 188 144 119
0.448616 -0.305628 -0.439 187 142 109
0.455907 -0.302147 -0.434 179 136 104
0.45733 -0.30145 -0.433 179 136 104
0.46996 -0.302147 -0.434 169 122 92
0.48846 -0.30702 -0.441 153 112 84
0.499363 -0.311197 -0.447 146 108 87
-0.31189 -0.388141 -0.556 229 230 222
-0.291231 -0.388839 -0.557 228 230 219
0.070559 -0.372085 -0.533 206 160 137
0.0804086 -0.370689 -0.531 204 159 136
0.0824314 -0.370689 -0.531 201 155 132
0.102989 -0.375575 -0.538 181 126 106
0.116597 -0.383254 -0.549 157 106 87
0.463386 -0.416763 -0.597 212 216 219
0.484991 -0.416763 -0.597 171 202 246
0.497194 -0.417461 -0.598 191 198 216
0.498333 -0.417461 -0.598 170 186 219
0.476406 -0.367198 -0.526 157 133 123
0.441843 -0.328803 -0.471 173 137 123
0.438194 -0.318331 -0.456 180 141 124
0.438002 -0.316935 -0.454 181 143 124
0.443263 -0.308558 -0.442 187 143 118
0.446944 -0.306464 -0.439 188 144 115
0.450097 -0.305766 -0.438 187 142 111
0.451364 -0.30437 -0.436 187 142 111
0.459566 -0.301577 -0.432 180 135 102
0.462857 -0.301577 -0.432 176 132 97
-0.336093 -0.3878 -0.554 227 228 220
-0.319786 -0.3885 -0.555 229 230 222
-0.304476 -0.3892 -0.556 229 231 220
-0.292827 -0.3892 -0.556 228 230 219
0.07144 -0.3724 -0.532 205 161 136
0.09612 -0.3738 -0.534 185 135 112
0.110151 -0.3801 -0.543 169 113 96
0.120389 -0.3864 -0.552 148 101 91
0.46488 -0.4172 -0.596 210 212 225
0.484991 -0.4179 -0.597 166 195 237
0.479123 -0.3703 -0.529 161 133 122
0.445714 -0.336 -0.48 170 136 124
0.440759 -0.3269 -0.467 174 138 122
0.4379 -0.3171 -0.453 178 140 121
0.44002 -0.3143 -0.449 182 141 119
0.44089 -0.3101 -0.443 183 141 117
0.44394 -0.3087 -0.441 182 141 113
0.445271 -0.3073 -0.439 190 146 119
0.447594 -0.3066 -0.438 189 145 116
0.448429 -0.3066 -0.438 189 145 116
0.453427 -0.3038 -0.434 189 144 113
0.454856 -0.3031 -0.433 182 137 104
0.48819 -0.308 -0.44 149 111 88
-0.328707 -0.388855 -0.554 226 229 222
-0.318729 -0.389557 -0.555 228 229 223
-0.315557 -0.389557 -0.555 228 229 223
-0.308157 -0.389557 -0.555 229 230 224
-0.303929 -0.389557 -0.555 229 231 220
0.0583409 -0.39447 -0.562 203 159 134
0.0611743 -0.385346 -0.549 198 158 133
0.0832857 -0.37201 -0.53 200 154 130
0.5148 -0.40149 -0.572 154 127 120
0.505067 -0.393067 -0.56 161 134 127
0.447585 -0.339722 -0.484 168 136 123
0.445698 -0.336212 -0.479 170 137 122
0.443786 -0.333405 -0.475 169 136 121
0.438371 -0.321472 -0.458 174 137 118
0.438285 -0.32077 -0.457 176 139 120
0.437571 -0.315857 -0.45 180 142 119
0.440737 -0.310242 -0.442 184 142 117
0.451157 -0.305329 -0.435 186 142 113
0.452814 -0.305329 -0.435 186 143 111
0.460965 -0.302521 -0.431 183 138 107
0.477671 -0.305329 -0.435 159 118 90
0.485137 -0.307434 -0.438 158 116 92
0.492935 -0.310242 -0.442 144 107 81
-0.33338 -0.389207 -0.553 226 229 220
-0.306043 -0.390614 -0.555 229 230 222
0.0622286 -0.380057 -0.54 195 155 130
0.0656057 -0.375834 -0.534 201 159 135
0.0782381 -0.373019 -0.53 205 161 136
0.0885 -0.373723 -0.531 195 149 126
0.112633 -0.383576 -0.545 165 112 98
0.476232 -0.41947 -0.596 71 112 176
0.483044 -0.41947 -0.596 114 142 179
0.492126 -0.41947 -0.596 208 210 225
0.493261 -0.41947 -0.596 212 214 229
0.495288 -0.385688 -0.548 155 128 119
0.447585 -0.340644 -0.484 167 135 122
0.439165 -0.31601 -0.449 182 141 119
0.44226 -0.31038 -0.441 188 146 121
0.442933 -0.309676 -0.44 186 144 119
0.45686 -0.303342 -0.431 180 135 106
0.456619 -0.302638 -0.43 181 136 107
0.459323 -0.303342 -0.431 182 137 108
0.473826 -0.30475 -0.433 163 119 90
0.476573 -0.305453 -0.434 159 118 88
0.481261 -0.306861 -0.436 161 117 88
0.501066 -0.314603 -0.447 141 107 82
-0.289129 -0.391671 -0.555 228 230 219
0.0578219 -0.393083 -0.557 201 159 134
0.0619981 -0.379674 -0.538 197 155 131
0.0629057 -0.378969 -0.537 196 154 130
0.0711714 -0.374029 -0.53 207 163 138
0.0790981 -0.373323 -0.529 202 156 132
0.105429 -0.381086 -0.54 172 116 101
0.106654 -0.381791 -0.541 171 115 100
0.125949 -0.393789 -0.558 146 101 96
0.4811 -0.4199 -0.595 74 110 168
0.483367 -0.4199 -0.595 98 125 168
0.485633 -0.4199 -0.595 151 168 194
0.486767 -0.4199 -0.595 193 205 221
0.4879 -0.4199 -0.595 199 211 227
0.492433 -0.4199 -0.595 208 210 222
0.505749 -0.420606 -0.596 109 155 205
0.508019 -0.420606 -0.596 69 108 167
0.453986 -0.349329 -0.495 161 133 121
0.438533 -0.324629 -0.46 171 136 116
0.438285 -0.322511 -0.457 175 138 119
0.44907 -0.308397 -0.437 188 144 115
0.452983 -0.304869 -0.432 183 138 109
0.456619 -0.303457 -0.43 181 136 107
0.457438 -0.303457 -0.43 180 135 106
0.46589 -0.304163 -0.431 167 123 94
0.486806 -0.309103 -0.438 154 114 88
-0.316527 -0.391313 -0.553 227 228 220
-0.236697 -0.393436 -0.556 231 232 224
0.0691524 -0.375038 -0.53 209 165 140
0.0780905 -0.37433 -0.529 205 158 132
0.0905229 -0.375746 -0.531 192 144 121
0.0949248 -0.377161 -0.533 184 132 111
0.101964 -0.380699 -0.538 174 118 101
0.102989 -0.380699 -0.538 172 116 101
0.11513 -0.387068 -0.547 163 109 97
0.116385 -0.387775 -0.548 162 108 96
0.502633 -0.421033 -0.595 87 131 180
0.506033 -0.421033 -0.595 114 155 201
0.443786 -0.336119 -0.475 168 136 121
0.440703 -0.32975 -0.466 172 136 120
0.437794 -0.319844 -0.452 175 139 117
0.437454 -0.317721 -0.449 175 137 116
0.439895 -0.312768 -0.442 182 142 117
0.441579 -0.312768 -0.442 181 141 116
0.442933 -0.311352 -0.44 186 144 119
0.443599 -0.310645 -0.439 185 143 118
0.445091 -0.309937 -0.438 186 145 115
0.447405 -0.30923 -0.437 188 144 115
0.462352 -0.304276 -0.43 179 134 103
0.486806 -0.309937 -0.438 152 112 86
0.49266 -0.31206 -0.441 141 107 79
0.501917 -0.316306 -0.447 136 102 74
-0.329623 -0.391657 -0.552 226 229 220
0.0565571 -0.393786 -0.555 202 157 138
0.06726 -0.376757 -0.531 210 164 140
0.0719086 -0.374629 -0.528 206 160 136
0.0995429 -0.380305 -0.536 176 123 105
0.11388 -0.3874 -0.546 163 110 96
0.124662 -0.395205 -0.557 143 98 93
0.47916 -0.421457 -0.594 121 148 191
0.480291 -0.421457 -0.594 106 133 176
0.483686 -0.421457 -0.594 85 106 151
0.491606 -0.421457 -0.594 205 211 223
0.48013 -0.375338 -0.529 159 129 119
0.441753 -0.332767 -0.469 168 135 118
0.438002 -0.322124 -0.454 175 138 119
0.437794 -0.320705 -0.452 174 138 116
0.44574 -0.310062 -0.437 186 145 117
0.447405 -0.310062 -0.437 185 144 114
0.450732 -0.307224 -0.433 191 148 116
0.45216 -0.306514 -0.432 184 139 108
0.462911 -0.304386 -0.429 176 131 100
0.46481 -0.305095 -0.43 173 128 95
-0.332174 -0.391997 -0.551 225 228 219
0.0680143 -0.376346 -0.529 210 164 140
0.0719086 -0.375634 -0.528 204 158 134
0.0839771 -0.375634 -0.528 193 147 121
0.0851438 -0.376346 -0.529 193 146 120
0.0971371 -0.379903 -0.534 172 120 99
0.102989 -0.382749 -0.538 175 118 101
0.112633 -0.387729 -0.545 162 109 95
0.125949 -0.396977 -0.558 139 99 97
0.469317 -0.421877 -0.593 173 198 228
0.473835 -0.421877 -0.593 134 156 195
0.484817 -0.422589 -0.594 109 132 174
0.497263 -0.422589 -0.594 194 206 220
0.51084 -0.422589 -0.594 105 139 187
0.511971 -0.422589 -0.594 83 116 161
0.45582 -0.35358 -0.497 164 132 121
0.442781 -0.335794 -0.472 165 133 118
0.441753 -0.33366 -0.469 167 136 118
0.440703 -0.331526 -0.466 169 136 119
0.440047 -0.315163 -0.443 181 141 116
0.44226 -0.31374 -0.441 180 140 114
0.448872 -0.310183 -0.436 183 142 114
0.451337 -0.307337 -0.432 185 141 112
0.454162 -0.305914 -0.43 184 139 110
0.456126 -0.304491 -0.428 179 134 103
0.484583 -0.310183 -0.436 150 110 85
0.503893 -0.31872 -0.448 136 102 74
0.507 -0.320143 -0.45 140 100 74
-0.315382 -0.393047 -0.551 227 228 220
-0.314903 -0.39376 -0.552 227 228 220
-0.309646 -0.39376 -0.552 228 229 221
0.0536743 -0.39804 -0.558 195 157 134
0.0552 -0.39376 -0.552 199 159 134
0.0789486 -0.37664 -0.528 200 154 131
0.0799543 -0.37664 -0.528 197 151 128
0.0861514 -0.377353 -0.529 191 141 114
0.100751 -0.38306 -0.537 172 119 101
0.116385 -0.390907 -0.548 159 109 98
0.484001 -0.423007 -0.593 87 110 151
0.491908 -0.423007 -0.593 205 213 224
0.475681 -0.373073 -0.523 157 127 117
