ply
format ascii 1.0
comment Created by Open3D
element vertex 1297
property double x
property double y
property double z
property uchar red
property uchar green
property uchar blue
end_header
0.147014 -0.244243 -0.615 197 148 141
0.154995 -0.240271 -0.605 178 111 95
0.161714 -0.238286 -0.6 206 148 144
0.162586 -0.237889 -0.599 208 150 146
0.460571 -0.196983 -0.496 185 135 112
0.469071 -0.196586 -0.495 189 137 113
0.488989 -0.197777 -0.498 174 124 101
0.496741 -0.199366 -0.502 157 116 94
0.513489 -0.203734 -0.513 149 111 88
-0.161471 -0.253395 -0.635 108 108 108
-0.135 -0.2514 -0.63 240 241 233
-0.131609 -0.251799 -0.631 233 234 226
-0.11178 -0.247809 -0.621 77 76 81
-0.0868457 -0.244217 -0.612 70 73 82
-0.072139 -0.249804 -0.626 71 70 78
-0.0611771 -0.253794 -0.636 72 71 77
0.161175 -0.23863 -0.598 205 148 141
0.176866 -0.239828 -0.601 164 105 101
0.179751 -0.240626 -0.603 158 99 93
0.197266 -0.243818 -0.611 183 126 117
0.200573 -0.245015 -0.614 176 119 112
0.2024 -0.245813 -0.616 174 117 110
0.463654 -0.204711 -0.513 170 128 114
0.45758 -0.199923 -0.501 182 134 111
0.45866 -0.198327 -0.497 184 136 113
0.463419 -0.19713 -0.494 187 137 114
0.470006 -0.19713 -0.494 190 138 114
0.472829 -0.19713 -0.494 191 140 113
0.476592 -0.19713 -0.494 188 137 110
0.478474 -0.19713 -0.494 183 133 108
0.480356 -0.19713 -0.494 181 131 108
0.482271 -0.197529 -0.495 180 130 107
0.508515 -0.203115 -0.509 149 111 88
-0.146317 -0.247388 -0.617 129 130 132
-0.138469 -0.250194 -0.624 223 223 221
-0.13728 -0.250194 -0.624 221 221 219
-0.135119 -0.250595 -0.625 219 219 217
-0.131758 -0.250996 -0.626 209 209 207
-0.129373 -0.250996 -0.626 191 191 189
-0.127976 -0.250595 -0.625 183 183 181
-0.116136 -0.24819 -0.619 79 80 85
-0.0948505 -0.244982 -0.611 75 74 79
-0.0754743 -0.250194 -0.624 72 71 79
-0.0744048 -0.250595 -0.625 72 71 79
-0.0623886 -0.255006 -0.636 69 68 74
0.141579 -0.249392 -0.622 198 154 145
0.141157 -0.246586 -0.615 201 155 142
0.141867 -0.243779 -0.608 198 154 145
0.145294 -0.241774 -0.603 191 141 134
0.148493 -0.241373 -0.602 190 121 105
0.162907 -0.238968 -0.596 204 146 144
0.166033 -0.238567 -0.595 196 138 134
0.177714 -0.240571 -0.6 159 96 89
0.46107 -0.203684 -0.508 176 129 111
0.460571 -0.198872 -0.496 184 136 114
0.468124 -0.19807 -0.494 189 139 116
0.472829 -0.19807 -0.494 190 139 112
0.496706 -0.200877 -0.501 155 113 89
0.5016 -0.20208 -0.504 154 112 88
-0.1435 -0.247757 -0.615 94 95 97
-0.138762 -0.249771 -0.62 157 159 158
-0.121637 -0.248563 -0.617 71 71 73
-0.105325 -0.246146 -0.611 76 75 80
-0.098181 -0.245743 -0.61 76 75 80
-0.0925229 -0.246146 -0.611 75 74 79
-0.0840295 -0.248563 -0.617 73 72 77
-0.0544171 -0.258634 -0.642 71 70 76
-0.0509857 -0.259843 -0.645 71 70 76
-0.0486038 -0.260246 -0.646 74 73 79
-0.0474467 -0.260649 -0.647 74 73 79
-0.045121 -0.261454 -0.649 74 73 79
0.142084 -0.243326 -0.604 199 152 146
0.148 -0.241714 -0.6 189 121 110
0.153458 -0.241311 -0.599 196 136 125
0.1683 -0.2397 -0.595 178 121 110
0.174844 -0.240909 -0.598 163 100 93
0.178857 -0.241714 -0.6 157 92 86
0.200429 -0.245743 -0.61 174 117 110
0.20592 -0.24816 -0.616 173 118 113
0.2166 -0.2538 -0.63 163 110 104
0.45936 -0.20304 -0.504 180 132 112
0.460571 -0.199817 -0.496 185 137 115
0.464357 -0.199414 -0.495 186 136 113
0.482271 -0.199414 -0.495 185 135 108
0.487025 -0.199817 -0.496 176 126 101
-0.117933 -0.246905 -0.61 69 70 75
-0.103479 -0.24569 -0.607 77 76 81
-0.0925229 -0.24731 -0.611 76 76 78
-0.0799714 -0.251762 -0.622 73 72 77
-0.0767857 -0.252976 -0.625 72 71 76
-0.0680152 -0.25581 -0.632 73 72 78
-0.0636 -0.257429 -0.636 70 69 75
-0.0613695 -0.258238 -0.638 71 70 76
-0.0567743 -0.259452 -0.641 72 71 77
-0.0497571 -0.261071 -0.645 72 71 76
0.143429 -0.242857 -0.6 195 140 133
0.145471 -0.242452 -0.599 193 130 121
0.156357 -0.241643 -0.597 201 146 141
0.184571 -0.242857 -0.6 199 140 132
0.185714 -0.242857 -0.6 198 139 131
0.194683 -0.244071 -0.603 180 121 113
0.222647 -0.257833 -0.637 156 107 100
0.465537 -0.208048 -0.514 171 127 114
0.459555 -0.201976 -0.499 181 135 112
0.475651 -0.199952 -0.494 191 140 113
0.524437 -0.210071 -0.519 143 111 90
-0.145843 -0.2501 -0.615 106 108 107
-0.139303 -0.24888 -0.612 95 96 98
-0.135806 -0.24888 -0.612 84 85 87
-0.09686 -0.24766 -0.609 77 76 81
-0.0958571 -0.248067 -0.61 77 76 81
-0.0948505 -0.248473 -0.611 78 77 82
-0.0702 -0.2562 -0.63 72 71 77
-0.0636 -0.25864 -0.636 74 73 79
0.129017 -0.25864 -0.636 206 155 152
0.1335 -0.253353 -0.623 195 146 141
0.14319 -0.243593 -0.599 197 138 132
0.150035 -0.243593 -0.599 186 124 113
0.152946 -0.24278 -0.597 201 143 132
0.168017 -0.24156 -0.594 179 119 109
0.180539 -0.243187 -0.598 186 123 114
0.192571 -0.244 -0.6 181 124 115
0.20242 -0.24766 -0.609 167 112 107
0.204583 -0.24888 -0.612 167 112 107
0.2108 -0.252133 -0.62 162 111 107
0.219695 -0.257013 -0.632 152 105 99
0.470885 -0.211873 -0.521 162 128 118
0.464701 -0.208213 -0.512 169 127 113
0.45945 -0.204147 -0.502 180 133 113
0.460553 -0.202113 -0.497 183 135 112
0.470006 -0.200893 -0.494 189 139 114
0.477506 -0.200487 -0.493 189 137 113
0.483179 -0.200893 -0.494 182 130 106
-0.157127 -0.26026 -0.637 115 117 114
-0.131011 -0.247594 -0.606 70 71 75
-0.113904 -0.245551 -0.601 62 63 68
-0.111614 -0.245551 -0.601 64 65 70
-0.102968 -0.246777 -0.604 74 75 79
-0.0823409 -0.254131 -0.622 75 74 79
-0.07904 -0.254949 -0.624 74 73 78
-0.0714 -0.2574 -0.63 72 71 79
-0.0545019 -0.262711 -0.643 117 116 122
0.132741 -0.250863 -0.614 204 151 145
0.15444 -0.242691 -0.594 203 146 137
0.166324 -0.241874 -0.592 179 119 108
0.183341 -0.243509 -0.596 195 136 128
0.214881 -0.255357 -0.625 148 100 98
0.478009 -0.216543 -0.53 158 125 116
0.462094 -0.207146 -0.507 173 130 114
0.487929 -0.202243 -0.495 176 126 101
-0.13403 -0.247928 -0.604 76 77 79
-0.124934 -0.245875 -0.599 62 63 67
-0.10782 -0.245875 -0.599 65 66 70
-0.102797 -0.247517 -0.603 73 74 78
-0.098181 -0.25039 -0.61 77 76 81
-0.09328 -0.252853 -0.616 75 74 79
-0.0802286 -0.256137 -0.624 75 74 79
-0.0714 -0.2586 -0.63 73 72 78
-0.0625848 -0.261884 -0.638 73 72 78
-0.0613695 -0.261884 -0.638 82 81 87
-0.0462857 -0.265989 -0.648 73 72 78
0.124405 -0.256548 -0.625 207 150 141
0.126543 -0.253674 -0.618 191 131 121
0.141574 -0.245054 -0.597 197 142 135
0.155048 -0.243002 -0.592 200 147 139
0.166324 -0.243002 -0.592 174 112 101
0.167451 -0.243002 -0.592 170 108 97
0.177665 -0.244644 -0.596 188 128 117
0.186433 -0.244233 -0.595 188 131 122
0.196 -0.246286 -0.6 174 117 110
0.199277 -0.247517 -0.603 170 112 108
0.201423 -0.248749 -0.606 167 112 107
0.212323 -0.254906 -0.621 149 100 96
0.480715 -0.218784 -0.533 158 123 117
0.458605 -0.204828 -0.499 181 135 112
0.460506 -0.204828 -0.499 186 136 113
0.460531 -0.204417 -0.498 186 136 113
0.461516 -0.203596 -0.496 189 139 116
0.462461 -0.203596 -0.496 189 139 116
0.465301 -0.202775 -0.494 190 140 115
0.47281 -0.202365 -0.493 190 138 114
0.480323 -0.202365 -0.493 184 132 108
0.487929 -0.203186 -0.495 176 126 101
-0.160087 -0.267635 -0.649 121 123 120
-0.139321 -0.250315 -0.607 93 95 94
-0.113517 -0.244542 -0.593 60 61 65
-0.109734 -0.246191 -0.597 61 62 66
-0.102154 -0.249903 -0.606 73 74 78
-0.0782257 -0.258563 -0.627 75 74 79
-0.0703114 -0.260212 -0.631 74 73 78
-0.0532771 -0.265161 -0.643 102 101 107
0.126893 -0.253202 -0.614 186 119 110
0.131011 -0.249903 -0.606 210 153 146
0.143608 -0.245779 -0.596 189 129 119
0.146767 -0.245367 -0.595 192 134 123
0.1479 -0.245367 -0.595 201 143 132
0.148783 -0.244954 -0.594 203 146 137
0.192746 -0.246191 -0.597 177 124 116
0.194208 -0.246604 -0.598 177 120 111
0.226487 -0.264336 -0.641 134 88 88
0.231429 -0.267223 -0.648 139 91 91
0.460476 -0.20619 -0.5 179 134 111
0.463414 -0.204129 -0.495 188 138 115
0.482201 -0.203304 -0.493 180 130 105
0.491749 -0.204541 -0.496 163 119 94
0.498525 -0.205778 -0.499 155 113 91
-0.123683 -0.245671 -0.593 76 77 81
-0.113326 -0.245257 -0.592 57 58 62
-0.110686 -0.246914 -0.596 54 55 59
-0.10782 -0.248157 -0.599 65 66 70
-0.105094 -0.249814 -0.603 69 70 74
-0.102323 -0.251471 -0.607 74 73 78
-0.0815476 -0.258929 -0.625 75 75 77
-0.0613695 -0.264314 -0.638 103 102 107
-0.0602486 -0.264729 -0.639 101 100 105
-0.0427143 -0.269286 -0.65 73 72 77
0.126067 -0.252714 -0.61 184 116 107
0.13266 -0.249814 -0.603 208 155 147
0.1445 -0.2465 -0.595 184 126 114
0.150537 -0.245257 -0.592 205 147 143
0.178426 -0.244843 -0.591 200 143 132
0.189195 -0.245671 -0.593 183 129 119
0.199277 -0.249814 -0.603 161 107 95
0.205412 -0.253129 -0.611 147 94 88
0.20978 -0.255614 -0.617 143 94 89
0.460406 -0.207971 -0.502 177 135 110
0.471871 -0.204243 -0.493 190 138 114
0.476537 -0.203829 -0.492 186 136 111
0.491749 -0.205486 -0.496 162 120 95
0.505395 -0.208386 -0.503 153 107 84
0.514332 -0.210871 -0.509 151 109 87
-0.141157 -0.255957 -0.615 95 96 98
-0.138848 -0.253876 -0.61 89 90 92
-0.129985 -0.24805 -0.596 69 70 72
-0.127071 -0.246801 -0.593 70 71 73
-0.100999 -0.255125 -0.613 74 74 76
-0.0815476 -0.260119 -0.625 75 74 79
-0.0804857 -0.260535 -0.626 74 73 78
-0.0520524 -0.26761 -0.643 83 82 88
-0.0438848 -0.270108 -0.649 73 72 78
0.119673 -0.257622 -0.619 204 154 143
0.133614 -0.248466 -0.597 206 151 146
0.168294 -0.245969 -0.591 160 96 84
0.467176 -0.205182 -0.493 182 132 107
0.470932 -0.205182 -0.493 185 135 110
0.4756 -0.204766 -0.492 187 135 111
0.484034 -0.204766 -0.492 173 123 100
0.4917 -0.206014 -0.495 162 118 91
0.497526 -0.207263 -0.498 158 113 90
-0.149611 -0.265909 -0.636 110 115 109
-0.135405 -0.252948 -0.605 73 77 78
-0.122849 -0.246258 -0.589 57 58 60
-0.112388 -0.24793 -0.593 57 58 62
-0.111446 -0.248349 -0.594 53 54 58
-0.075 -0.2634 -0.63 73 72 77
-0.05564 -0.268417 -0.642 106 105 111
-0.045121 -0.271344 -0.649 73 72 78
0.125653 -0.254202 -0.608 186 118 107
0.15821 -0.245422 -0.587 184 124 113
0.16801 -0.246676 -0.59 164 101 86
0.171671 -0.247094 -0.591 191 128 113
0.177822 -0.246258 -0.589 205 142 135
0.183743 -0.246676 -0.59 193 135 124
0.1978 -0.251693 -0.602 155 103 92
0.20358 -0.25462 -0.609 148 98 91
0.217454 -0.262982 -0.629 127 78 82
0.224914 -0.267581 -0.64 126 79 87
0.473777 -0.218246 -0.522 162 130 119
0.461516 -0.207375 -0.496 190 140 117
0.473726 -0.205703 -0.492 189 137 113
0.48216 -0.205703 -0.492 177 125 103
-0.126857 -0.24864 -0.592 85 89 90
-0.085119 -0.2625 -0.625 76 75 80
-0.0818086 -0.26334 -0.627 75 74 79
-0.0694381 -0.26628 -0.634 73 72 78
0.129498 -0.25158 -0.599 206 149 142
0.142644 -0.24864 -0.592 196 137 129
0.17528 -0.24696 -0.588 202 142 132
0.17976 -0.24696 -0.588 197 137 129
0.470914 -0.20664 -0.492 186 134 112
0.473726 -0.20664 -0.492 186 134 112
0.5183 -0.21462 -0.511 149 107 83
0.522322 -0.21588 -0.514 151 109 87
-0.12397 -0.248502 -0.589 121 125 128
-0.12264 -0.24808 -0.588 119 123 126
-0.107213 -0.253987 -0.602 58 59 63
-0.0962476 -0.261581 -0.62 75 74 79
-0.091819 -0.262425 -0.622 76 76 78
-0.0774 -0.2658 -0.63 72 71 76
-0.0661267 -0.268753 -0.637 73 72 77
-0.05564 -0.270863 -0.642 73 72 78
-0.0545019 -0.271285 -0.643 74 73 79
0.126707 -0.253987 -0.602 205 148 141
0.148148 -0.247658 -0.587 207 148 140
0.151244 -0.247236 -0.586 199 140 132
0.154592 -0.247236 -0.586 192 132 121
0.169969 -0.248502 -0.589 202 139 132
0.1761 -0.247658 -0.587 201 141 131
0.179454 -0.247658 -0.587 196 136 126
0.206421 -0.25905 -0.614 131 85 88
0.21369 -0.26369 -0.625 120 77 84
0.466713 -0.215593 -0.511 171 129 115
0.503333 -0.210952 -0.5 155 110 87
-0.1434 -0.267 -0.63 117 118 122
-0.135362 -0.258524 -0.61 123 124 126
-0.13288 -0.255981 -0.604 124 125 127
-0.121107 -0.248352 -0.586 122 123 127
-0.10399 -0.258524 -0.61 63 62 67
-0.101329 -0.260643 -0.615 67 66 71
-0.0650152 -0.27039 -0.638 71 70 75
0.118925 -0.274205 -0.647 204 157 149
0.117537 -0.260219 -0.614 206 151 146
0.134523 -0.250471 -0.591 198 138 128
0.145911 -0.248776 -0.587 209 150 142
0.157941 -0.248352 -0.586 180 121 105
0.159057 -0.248352 -0.586 176 117 101
0.16296 -0.2492 -0.588 163 104 88
0.166603 -0.249624 -0.589 182 123 109
0.172451 -0.248352 -0.586 206 148 137
0.178336 -0.248776 -0.587 196 136 126
0.18312 -0.2492 -0.588 187 127 117
0.190967 -0.252167 -0.595 168 108 97
0.207093 -0.261067 -0.616 130 81 87
0.219183 -0.268695 -0.634 118 72 82
0.221781 -0.27039 -0.638 116 73 82
0.461429 -0.211905 -0.5 180 135 112
0.46148 -0.211057 -0.498 182 133 116
0.465301 -0.209362 -0.494 182 134 114
0.480245 -0.20809 -0.491 179 127 105
0.48305 -0.20809 -0.491 176 124 102
0.49353 -0.209362 -0.494 163 115 92
-0.148809 -0.273734 -0.643 116 117 121
-0.112751 -0.250746 -0.589 84 85 87
-0.107213 -0.25628 -0.602 58 59 61
-0.105617 -0.257983 -0.606 58 59 61
-0.101493 -0.26224 -0.616 64 63 68
-0.089881 -0.266071 -0.625 77 76 82
-0.0820695 -0.267774 -0.629 75 74 79
-0.0695476 -0.270329 -0.635 75 74 80
-0.0684457 -0.270754 -0.636 74 73 79
-0.06734 -0.27118 -0.637 72 71 76
-0.0603429 -0.272457 -0.64 73 72 78
-0.0545867 -0.27416 -0.644 74 73 79
0.119271 -0.257557 -0.605 187 119 106
0.131146 -0.251597 -0.591 204 146 135
0.137433 -0.250746 -0.589 189 131 119
0.138555 -0.250746 -0.589 196 138 127
0.154065 -0.248617 -0.584 186 126 115
0.171335 -0.249469 -0.586 204 145 137
0.2125 -0.266071 -0.625 121 75 85
0.227726 -0.275863 -0.648 117 73 86
0.46904 -0.209451 -0.492 183 132 111
0.474633 -0.209026 -0.491 179 128 107
0.479267 -0.2086 -0.49 179 127 105
0.507259 -0.213709 -0.502 154 112 88
-0.124668 -0.251012 -0.587 116 120 123
-0.115131 -0.24973 -0.584 110 111 115
-0.113487 -0.251012 -0.587 95 96 98
-0.106595 -0.25871 -0.605 59 60 62
-0.0955267 -0.266407 -0.623 73 72 77
-0.0933029 -0.266834 -0.624 74 73 79
-0.0787248 -0.269828 -0.631 72 71 77
-0.0603429 -0.273676 -0.64 73 72 77
0.117087 -0.272393 -0.637 208 158 151
0.115761 -0.263841 -0.617 206 152 152
0.116771 -0.260848 -0.61 198 145 139
0.1275 -0.254433 -0.595 205 148 141
0.130924 -0.252295 -0.59 203 145 134
0.173271 -0.250157 -0.585 201 142 134
0.176916 -0.250585 -0.586 193 135 124
0.186306 -0.252723 -0.591 175 115 105
0.218319 -0.271538 -0.635 117 79 90
0.463239 -0.215092 -0.503 177 135 111
0.466242 -0.211244 -0.494 185 137 117
0.469957 -0.209961 -0.491 185 137 115
0.473698 -0.209961 -0.491 181 131 108
0.475569 -0.209961 -0.491 178 128 105
0.502269 -0.212954 -0.498 153 111 87
0.509228 -0.215092 -0.503 151 111 86
0.519229 -0.218086 -0.51 150 110 85
-0.109734 -0.256426 -0.597 61 62 64
-0.105791 -0.260721 -0.607 58 59 63
-0.101658 -0.265016 -0.617 62 62 64
-0.0944914 -0.268023 -0.624 73 72 77
-0.0922619 -0.268452 -0.625 73 72 78
-0.0742686 -0.272318 -0.634 73 72 78
-0.06734 -0.273607 -0.637 74 73 78
-0.0487543 -0.278331 -0.648 71 70 75
-0.0451905 -0.27919 -0.65 71 70 75
0.115886 -0.268023 -0.624 207 154 148
0.115386 -0.264157 -0.615 205 151 149
0.118877 -0.259003 -0.603 183 119 110
0.146633 -0.249553 -0.581 200 140 132
0.154911 -0.250412 -0.583 182 122 111
0.168814 -0.251271 -0.585 206 146 138
0.174088 -0.250842 -0.584 199 140 132
0.208438 -0.266305 -0.62 120 89 97
0.463239 -0.21605 -0.503 178 136 112
0.462351 -0.215191 -0.501 177 135 111
0.479267 -0.210467 -0.49 176 126 101
0.483 -0.210467 -0.49 175 123 99
0.484867 -0.210467 -0.49 172 122 97
0.486791 -0.210896 -0.491 173 123 98
-0.126214 -0.254111 -0.589 117 118 122
-0.115846 -0.251091 -0.582 109 110 114
-0.109734 -0.257563 -0.597 64 65 69
-0.10757 -0.260583 -0.604 63 64 68
-0.0968686 -0.269211 -0.624 68 67 73
-0.0913629 -0.270506 -0.627 74 73 79
-0.0901686 -0.270506 -0.627 74 73 79
-0.0889743 -0.270506 -0.627 75 74 80
-0.0867238 -0.270937 -0.628 76 75 81
-0.0674457 -0.275251 -0.638 74 73 79
-0.0558133 -0.27784 -0.644 73 72 78
-0.0545867 -0.27784 -0.644 73 72 78
-0.0499886 -0.279566 -0.648 72 71 77
0.122857 -0.258857 -0.6 203 141 130
0.145527 -0.25066 -0.581 199 139 131
0.15106 -0.25066 -0.581 187 129 118
0.156022 -0.251523 -0.583 178 118 107
0.160739 -0.251954 -0.584 177 120 101
0.18312 -0.25368 -0.588 170 110 99
0.195507 -0.25972 -0.602 142 89 83
0.20159 -0.263171 -0.61 127 81 81
0.21454 -0.272231 -0.631 197 182 201
0.225605 -0.279997 -0.649 152 152 180
0.476677 -0.225637 -0.523 164 130 118
0.463393 -0.21442 -0.497 182 135 115
0.468115 -0.212694 -0.493 186 138 116
0.46904 -0.212263 -0.492 185 137 115
0.476467 -0.2114 -0.49 181 131 108
-0.136693 -0.266933 -0.616 116 117 121
-0.114214 -0.2535 -0.585 91 92 96
-0.112009 -0.2561 -0.591 69 70 74
-0.109143 -0.26 -0.6 66 67 71
-0.0999514 -0.2691 -0.621 62 61 66
-0.0823305 -0.273433 -0.631 76 75 80
-0.0719667 -0.275167 -0.635 73 72 77
-0.0674457 -0.276467 -0.638 73 72 78
-0.062781 -0.277333 -0.64 72 71 77
0.146381 -0.251333 -0.58 192 134 123
0.153273 -0.251767 -0.581 176 120 105
0.162964 -0.253067 -0.584 201 144 124
0.19796 -0.2626 -0.606 139 86 78
0.479411 -0.227933 -0.526 163 131 120
0.464197 -0.217967 -0.503 173 135 112
0.463357 -0.216233 -0.499 180 135 112
0.465295 -0.214933 -0.496 184 138 115
0.465301 -0.214067 -0.494 184 138 115
0.468103 -0.2132 -0.492 185 139 116
0.469957 -0.212767 -0.491 187 137 114
0.47922 -0.2119 -0.489 178 128 105
0.491468 -0.212767 -0.491 167 121 95
0.493406 -0.2132 -0.492 164 118 94
0.500251 -0.214933 -0.496 158 113 90
-0.148272 -0.281164 -0.646 109 113 116
-0.143329 -0.276376 -0.635 113 114 118
-0.109918 -0.260272 -0.598 68 69 73
-0.100971 -0.269848 -0.62 60 60 62
-0.0912171 -0.272459 -0.626 73 72 77
-0.0834 -0.2742 -0.63 76 75 80
-0.0731762 -0.276376 -0.635 74 73 78
0.114146 -0.270283 -0.621 203 151 140
0.120571 -0.261143 -0.6 193 135 124
0.132043 -0.254614 -0.585 207 149 138
0.145026 -0.252003 -0.579 195 137 123
0.166016 -0.253744 -0.583 202 144 130
0.169057 -0.253309 -0.582 198 140 128
0.171274 -0.253309 -0.582 197 135 124
0.188383 -0.258531 -0.594 156 97 89
0.198287 -0.26419 -0.607 124 74 73
0.469577 -0.222842 -0.512 172 132 122
-0.148272 -0.282394 -0.646 108 111 116
-0.116552 -0.253543 -0.58 107 108 112
-0.11107 -0.258789 -0.592 72 73 77
-0.104672 -0.268406 -0.614 59 60 64
-0.0846 -0.2754 -0.63 75 74 80
-0.07098 -0.27846 -0.637 74 73 78
-0.0511438 -0.282831 -0.647 70 69 74
0.119429 -0.262286 -0.6 189 131 120
0.12037 -0.261849 -0.599 194 136 125
0.12276 -0.259663 -0.594 204 145 137
0.126904 -0.256603 -0.587 202 144 133
0.127804 -0.256166 -0.586 203 145 134
0.130705 -0.255291 -0.584 208 150 139
0.1358 -0.254417 -0.582 206 148 136
0.146977 -0.252669 -0.578 190 131 115
0.149437 -0.253106 -0.579 183 124 108
0.163514 -0.254417 -0.582 207 148 134
0.21726 -0.279334 -0.639 216 222 248
0.223132 -0.283706 -0.649 192 202 238
0.466242 -0.215949 -0.494 186 140 116
0.46904 -0.215074 -0.492 187 140 114
0.481083 -0.213763 -0.489 176 126 99
0.489533 -0.2142 -0.49 165 118 92
0.494343 -0.215074 -0.492 162 116 90
-0.13288 -0.265185 -0.604 108 109 113
-0.107124 -0.266941 -0.608 68 67 72
-0.0980571 -0.273966 -0.624 62 61 66
-0.0835324 -0.277039 -0.631 75 74 80
-0.0664381 -0.28099 -0.64 73 72 78
0.122553 -0.260355 -0.593 204 146 135
0.132474 -0.255526 -0.582 207 149 137
0.158533 -0.254648 -0.58 203 144 130
0.17098 -0.255087 -0.581 194 134 124
0.199267 -0.267819 -0.61 120 76 75
0.206741 -0.273088 -0.622 167 144 154
0.212136 -0.277039 -0.631 219 211 232
0.465155 -0.220841 -0.503 179 134 113
0.468103 -0.216011 -0.492 187 140 114
0.480151 -0.214694 -0.489 181 132 102
0.487603 -0.214694 -0.489 163 116 90
0.507079 -0.219085 -0.499 154 112 88
0.510066 -0.219963 -0.501 154 108 82
-0.118557 -0.255311 -0.579 100 101 105
-0.115846 -0.256634 -0.582 91 92 96
-0.114214 -0.257957 -0.585 80 81 85
-0.113487 -0.258839 -0.587 77 78 82
-0.106489 -0.269422 -0.611 67 66 71
-0.087 -0.2778 -0.63 73 72 78
-0.0778914 -0.279564 -0.634 74 73 78
-0.0653209 -0.28265 -0.641 72 71 77
0.112859 -0.270745 -0.614 204 149 142
0.118831 -0.263249 -0.597 201 143 132
0.120497 -0.261926 -0.594 201 144 133
0.135968 -0.25487 -0.578 201 143 132
0.221896 -0.286178 -0.649 178 184 220
0.468765 -0.224445 -0.509 170 130 118
0.4653 -0.218271 -0.495 185 139 116
-0.145676 -0.283429 -0.64 101 105 108
-0.100595 -0.276786 -0.625 59 59 61
-0.0835324 -0.279443 -0.631 72 71 77
-0.08018 -0.280329 -0.633 74 73 79
-0.079099 -0.280771 -0.634 74 73 78
0.134867 -0.255971 -0.578 205 147 136
0.138789 -0.255086 -0.576 194 136 124
0.153317 -0.255529 -0.577 182 123 107
0.16129 -0.255971 -0.578 198 138 127
0.17098 -0.2573 -0.581 194 131 122
0.191429 -0.265714 -0.6 142 91 87
0.208403 -0.277671 -0.627 209 196 213
0.467005 -0.223643 -0.505 179 134 115
0.465258 -0.220986 -0.499 180 135 116
0.468103 -0.217886 -0.492 188 141 115
-0.1089 -0.269081 -0.605 77 76 81
-0.107652 -0.27175 -0.611 74 73 78
-0.106014 -0.273529 -0.615 66 65 70
-0.08018 -0.281534 -0.633 74 73 79
-0.0745029 -0.282869 -0.636 74 73 78
-0.0734067 -0.283313 -0.637 74 73 78
0.113625 -0.283758 -0.638 195 146 131
0.125143 -0.259741 -0.584 207 151 138
0.135732 -0.256628 -0.577 200 141 127
0.158812 -0.256628 -0.577 202 140 127
0.167083 -0.257517 -0.579 195 135 125
0.18231 -0.261965 -0.589 162 103 95
0.191748 -0.267302 -0.601 137 87 86
0.4653 -0.220157 -0.495 183 138 117
0.466242 -0.219712 -0.494 186 140 117
0.466237 -0.219268 -0.493 186 140 116
-0.120554 -0.258173 -0.578 95 96 100
-0.118557 -0.25862 -0.579 90 94 97
-0.0859362 -0.281847 -0.631 70 69 75
-0.0676571 -0.285867 -0.64 73 74 76
-0.0653209 -0.286313 -0.641 71 72 74
0.112053 -0.275147 -0.616 201 141 130
0.113904 -0.268447 -0.601 199 141 129
0.125823 -0.25996 -0.582 207 151 138
0.138307 -0.256387 -0.574 193 134 120
0.1394 -0.256387 -0.574 195 136 122
0.14596 -0.256387 -0.574 187 128 110
0.150333 -0.256387 -0.574 195 133 120
0.170686 -0.259067 -0.58 187 125 114
0.196943 -0.272467 -0.61 123 82 86
0.207539 -0.280507 -0.628 215 201 218
0.4718 -0.218867 -0.49 188 141 113
0.476332 -0.217527 -0.487 182 132 105
0.502939 -0.220653 -0.494 153 108 85
-0.114214 -0.262414 -0.585 78 77 82
-0.106359 -0.276769 -0.617 71 70 75
-0.0952486 -0.282151 -0.629 57 56 61
-0.0916543 -0.282151 -0.629 61 60 65
-0.0894 -0.2826 -0.63 66 65 70
-0.0813857 -0.283946 -0.633 73 72 77
-0.0642 -0.287983 -0.642 72 73 75
0.1204 -0.26376 -0.588 203 147 132
0.126495 -0.260171 -0.58 201 145 130
0.172087 -0.26062 -0.581 180 121 107
0.196943 -0.273629 -0.61 123 82 86
0.219086 -0.290674 -0.648 232 234 255
0.480583 -0.235051 -0.524 167 129 116
0.46803 -0.225631 -0.503 182 137 118
0.467123 -0.224734 -0.501 181 136 117
0.467176 -0.221146 -0.493 186 140 117
0.470867 -0.2198 -0.49 188 141 113
0.473631 -0.219351 -0.489 184 137 111
0.484681 -0.218454 -0.487 181 130 101
0.485609 -0.218454 -0.487 177 126 97
0.488391 -0.218454 -0.487 171 122 92
0.492183 -0.218903 -0.488 163 116 86
0.516892 -0.225631 -0.503 148 111 93
-0.124929 -0.262628 -0.583 96 97 101
-0.116753 -0.261727 -0.581 84 85 89
-0.10908 -0.272989 -0.606 81 80 85
-0.0954 -0.2838 -0.63 56 55 60
-0.0918 -0.2838 -0.63 60 59 64
-0.0792238 -0.286052 -0.635 74 73 78
-0.0769257 -0.286503 -0.636 73 72 77
0.11232 -0.281097 -0.624 196 139 128
0.112759 -0.270736 -0.601 201 145 128
0.120195 -0.26443 -0.587 200 148 134
0.121806 -0.263078 -0.584 201 150 133
0.138914 -0.257672 -0.572 196 138 124
0.145706 -0.258123 -0.573 197 138 124
0.157987 -0.258573 -0.574 194 132 119
0.169289 -0.260826 -0.579 184 128 115
0.172087 -0.261727 -0.581 180 122 108
0.184989 -0.267583 -0.594 151 93 89
0.190603 -0.270736 -0.601 131 87 88
0.192705 -0.272088 -0.604 128 84 85
0.211062 -0.286052 -0.635 215 215 239
0.213943 -0.288305 -0.64 221 221 245
0.496853 -0.245059 -0.544 167 129 118
0.46624 -0.223436 -0.496 183 140 121
0.474522 -0.219832 -0.488 183 136 108
0.474477 -0.219382 -0.487 181 134 106
-0.112943 -0.266905 -0.59 86 85 90
-0.10736 -0.278667 -0.616 77 76 81
-0.105866 -0.280929 -0.621 73 72 77
-0.10502 -0.281833 -0.623 69 68 73
-0.102274 -0.284095 -0.628 63 62 67
-0.0872762 -0.285905 -0.632 64 63 68
-0.0837971 -0.286357 -0.633 69 68 73
-0.0666457 -0.290429 -0.642 74 75 79
-0.0606257 -0.290881 -0.643 70 69 74
0.11196 -0.281381 -0.622 193 139 127
0.111756 -0.275048 -0.608 202 150 136
0.119077 -0.265548 -0.587 200 148 134
0.124286 -0.262381 -0.58 199 143 128
0.128914 -0.260571 -0.576 198 139 123
0.131747 -0.259667 -0.574 195 136 118
0.134556 -0.258762 -0.572 193 134 118
0.135646 -0.258762 -0.572 194 135 119
0.14763 -0.258762 -0.572 199 141 127
0.14981 -0.258762 -0.572 197 138 122
0.154437 -0.259214 -0.573 197 138 124
0.162643 -0.260119 -0.575 192 134 120
0.172087 -0.262833 -0.581 174 118 105
0.198557 -0.278214 -0.615 144 122 135
0.201028 -0.280024 -0.619 167 156 172
0.468893 -0.228905 -0.506 175 133 117
0.468 -0.228 -0.504 178 135 118
0.467099 -0.227095 -0.502 179 136 119
0.466242 -0.223476 -0.494 184 139 118
0.467166 -0.222571 -0.492 188 140 117
0.512857 -0.22619 -0.5 154 109 88
-0.144538 -0.288471 -0.635 90 94 97
-0.124714 -0.264394 -0.582 94 95 99
-0.118352 -0.262577 -0.578 90 91 95
-0.113873 -0.267574 -0.589 83 82 87
-0.107534 -0.280294 -0.617 78 77 82
-0.102437 -0.285746 -0.629 63 62 67
-0.0815143 -0.288017 -0.634 71 70 75
0.11178 -0.282111 -0.621 195 142 128
0.12118 -0.26394 -0.581 199 146 132
0.143022 -0.259397 -0.571 203 144 130
0.157711 -0.260306 -0.573 191 133 119
0.16236 -0.26076 -0.574 195 137 123
0.1752 -0.265303 -0.584 169 111 100
0.178032 -0.266211 -0.586 168 110 99
0.18706 -0.271209 -0.597 136 88 86
0.468 -0.22896 -0.504 178 135 118
0.466237 -0.223963 -0.493 185 139 116
0.468103 -0.223509 -0.492 188 142 118
0.468087 -0.223054 -0.491 188 142 118
0.4727 -0.222146 -0.489 186 140 114
0.479983 -0.220783 -0.486 178 131 103
0.494971 -0.221691 -0.488 159 115 90
0.521903 -0.229869 -0.506 148 112 90
-0.119247 -0.263222 -0.577 94 93 98
-0.108994 -0.279189 -0.612 82 81 86
-0.103635 -0.286944 -0.629 65 64 69
-0.0908876 -0.288312 -0.632 55 54 59
-0.0816429 -0.289681 -0.635 70 69 74
-0.0736371 -0.291506 -0.639 73 72 77
-0.0643 -0.29333 -0.643 71 72 76
0.111429 -0.273714 -0.6 201 152 137
0.121866 -0.264134 -0.579 200 144 129
0.138429 -0.260029 -0.57 197 138 122
0.14846 -0.260485 -0.571 196 138 124
0.155257 -0.260941 -0.572 194 135 121
0.160986 -0.261397 -0.573 192 134 120
0.164833 -0.26231 -0.575 183 127 112
0.46624 -0.22627 -0.496 183 138 119
0.470837 -0.223077 -0.489 189 143 117
0.474477 -0.222165 -0.487 184 137 109
0.47628 -0.221709 -0.486 184 134 107
0.477206 -0.221709 -0.486 183 133 106
0.478131 -0.221709 -0.486 182 133 103
0.518809 -0.229464 -0.503 148 110 89
0.529007 -0.233113 -0.511 149 120 102
-0.126255 -0.267528 -0.584 96 97 101
-0.113873 -0.269818 -0.589 88 87 92
-0.110837 -0.276231 -0.603 93 92 97
-0.107883 -0.283561 -0.619 81 80 85
-0.103965 -0.289058 -0.631 68 67 72
-0.102763 -0.289058 -0.631 65 64 69
-0.0993143 -0.289516 -0.632 56 55 60
-0.0981105 -0.289516 -0.632 54 53 58
-0.0850029 -0.289974 -0.633 64 63 68
-0.0736371 -0.292723 -0.639 73 73 75
0.112414 -0.295471 -0.645 187 144 135
0.125405 -0.263405 -0.575 195 138 121
0.14846 -0.261572 -0.571 198 139 125
0.151723 -0.261572 -0.571 186 127 113
0.176614 -0.267986 -0.585 162 105 98
0.2376 -0.296846 -0.648 162 119 126
0.243395 -0.296388 -0.647 151 104 112
0.46803 -0.230422 -0.503 177 135 119
0.466243 -0.226757 -0.495 182 140 118
0.469022 -0.224925 -0.491 186 142 117
0.469906 -0.224009 -0.489 188 142 116
0.47355 -0.223092 -0.487 185 138 110
0.478995 -0.222176 -0.485 180 133 105
0.491091 -0.222634 -0.486 165 121 94
0.492017 -0.222634 -0.486 164 120 93
-0.128458 -0.27094 -0.589 96 97 101
-0.109172 -0.28198 -0.613 88 87 92
-0.107221 -0.28612 -0.622 81 80 85
-0.102926 -0.29072 -0.632 67 66 71
-0.0771676 -0.29348 -0.638 73 73 75
-0.0748543 -0.29394 -0.639 73 73 75
0.1148 -0.27048 -0.588 203 144 138
0.128883 -0.26266 -0.571 189 126 109
0.130829 -0.2622 -0.57 194 131 114
0.137102 -0.26174 -0.569 196 137 119
0.13927 -0.26174 -0.569 199 137 122
0.14846 -0.26266 -0.571 197 138 122
0.15281 -0.26266 -0.571 182 123 109
0.234769 -0.29762 -0.647 167 117 126
0.2365 -0.2967 -0.645 164 114 123
0.468929 -0.2323 -0.505 175 133 117
0.468077 -0.23046 -0.501 180 137 120
0.466237 -0.22678 -0.493 181 139 117
0.466229 -0.22632 -0.492 182 140 118
0.468087 -0.22586 -0.491 185 141 116
0.470804 -0.22448 -0.488 187 141 115
0.471733 -0.22448 -0.488 187 141 115
0.4998 -0.2254 -0.49 154 111 92
-0.136076 -0.280838 -0.608 94 98 99
-0.108057 -0.286381 -0.62 82 83 85
-0.10413 -0.291924 -0.632 70 71 75
-0.0922371 -0.292386 -0.633 51 51 53
-0.0875524 -0.292848 -0.634 57 57 59
0.111352 -0.291924 -0.632 204 148 131
0.122331 -0.266057 -0.576 197 138 122
0.129743 -0.263286 -0.57 189 126 109
0.142521 -0.262824 -0.569 202 143 127
0.146029 -0.263286 -0.57 198 139 123
0.150371 -0.263286 -0.57 189 130 114
0.15281 -0.263748 -0.571 181 122 106
0.162077 -0.264671 -0.573 184 126 112
0.163453 -0.265133 -0.574 184 128 113
0.1752 -0.269752 -0.584 160 105 98
0.180371 -0.272524 -0.59 148 94 92
0.202431 -0.289614 -0.627 221 216 246
0.491589 -0.247581 -0.536 168 131 115
0.46718 -0.229567 -0.497 182 139 120
0.466229 -0.227257 -0.492 181 139 117
0.468087 -0.226795 -0.491 185 139 115
0.479851 -0.223562 -0.484 179 130 100
0.514683 -0.23049 -0.499 150 108 84
-0.132921 -0.277822 -0.599 94 98 99
-0.126039 -0.270401 -0.583 95 99 102
-0.111021 -0.280141 -0.604 94 95 99
-0.107566 -0.289417 -0.624 81 82 84
-0.0946486 -0.293591 -0.633 50 49 54
-0.08876 -0.294055 -0.634 53 53 55
-0.0771676 -0.29591 -0.638 70 69 74
0.118557 -0.268546 -0.579 199 137 126
0.135779 -0.263444 -0.568 195 136 118
0.141189 -0.263444 -0.568 207 146 128
0.144689 -0.263908 -0.569 204 143 125
0.156073 -0.264835 -0.571 184 125 109
0.172383 -0.269937 -0.582 159 104 97
0.231731 -0.297766 -0.642 158 107 122
0.5891 -0.299157 -0.645 166 128 117
0.475328 -0.238398 -0.514 173 131 115
0.46896 -0.23376 -0.504 174 135 118
0.468974 -0.226803 -0.489 184 140 115
0.469874 -0.226339 -0.488 185 141 114
0.472577 -0.225411 -0.486 184 139 110
0.48346 -0.22402 -0.483 178 129 97
0.48438 -0.22402 -0.483 178 129 97
0.499711 -0.226803 -0.489 152 114 93
0.504651 -0.228194 -0.492 153 113 88
-0.119247 -0.268717 -0.577 100 101 105
-0.115846 -0.271046 -0.582 77 78 82
-0.112196 -0.278497 -0.598 102 103 107
-0.10998 -0.284551 -0.611 91 92 96
-0.0934429 -0.294797 -0.633 48 49 53
-0.0829829 -0.296194 -0.636 65 64 69
-0.0794733 -0.29666 -0.637 69 68 73
0.111186 -0.300386 -0.645 194 144 133
0.12584 -0.266389 -0.572 191 128 111
0.13446 -0.26406 -0.567 195 136 118
0.139025 -0.264526 -0.568 204 143 125
0.140107 -0.264526 -0.568 206 144 129
0.146856 -0.264991 -0.569 199 136 121
0.156073 -0.265923 -0.571 183 121 106
0.157161 -0.265923 -0.571 186 124 109
0.159615 -0.266389 -0.572 184 122 107
0.169581 -0.270114 -0.58 161 108 100
0.18748 -0.28036 -0.602 123 87 101
0.22979 -0.298057 -0.64 164 111 129
0.230414 -0.295729 -0.635 160 108 120
0.241225 -0.297126 -0.638 139 97 101
0.474453 -0.238446 -0.512 176 134 118
0.467183 -0.230063 -0.494 184 139 118
0.470767 -0.226803 -0.487 183 139 112
0.47978 -0.22494 -0.483 179 130 100
0.48162 -0.22494 -0.483 179 130 100
0.48254 -0.22494 -0.483 176 129 101
0.49674 -0.226803 -0.487 154 115 98
-0.145289 -0.296003 -0.633 95 99 100
-0.135629 -0.283377 -0.606 100 101 103
-0.13024 -0.27683 -0.592 101 102 104
-0.119247 -0.269816 -0.577 99 103 106
-0.108886 -0.288989 -0.618 90 89 94
-0.0863448 -0.29647 -0.634 50 51 55
0.114214 -0.273557 -0.585 199 143 130
0.126708 -0.26701 -0.571 187 126 108
0.143352 -0.265608 -0.568 207 145 130
0.146856 -0.266075 -0.569 199 136 121
0.154714 -0.266543 -0.57 181 119 104
0.156073 -0.26701 -0.571 182 123 109
0.159336 -0.26701 -0.571 183 123 112
0.1755 -0.273557 -0.585 156 101 98
0.212586 -0.30255 -0.647 242 238 253
0.228418 -0.300679 -0.643 154 105 109
0.467176 -0.230536 -0.493 183 138 115
0.468945 -0.228198 -0.488 184 140 115
0.48162 -0.22586 -0.483 180 131 101
0.48346 -0.22586 -0.483 177 130 100
0.489992 -0.226328 -0.484 172 125 97
0.494794 -0.227263 -0.486 157 116 98
-0.117454 -0.271854 -0.579 90 94 97
-0.112943 -0.277019 -0.59 103 104 109
-0.112388 -0.278428 -0.593 103 104 109
-0.111614 -0.282184 -0.601 102 103 108
-0.11078 -0.28594 -0.609 98 99 103
-0.109062 -0.290635 -0.619 92 91 96
-0.08862 -0.297209 -0.633 48 49 53
-0.0852714 -0.298148 -0.635 55 54 59
0.10955 -0.279836 -0.596 195 141 129
0.116351 -0.271854 -0.579 197 139 125
0.117251 -0.271385 -0.578 196 138 124
0.1758 -0.275141 -0.586 149 96 92
0.227726 -0.304251 -0.648 164 123 131
0.226918 -0.296739 -0.632 174 118 117
0.229167 -0.293452 -0.625 168 109 111
0.235426 -0.29533 -0.629 136 89 97
0.482654 -0.245561 -0.523 171 136 117
0.468095 -0.234762 -0.5 180 137 118
0.468115 -0.231475 -0.493 183 138 115
0.48438 -0.22678 -0.483 175 128 98
0.489992 -0.22725 -0.484 172 125 95
-0.115131 -0.275314 -0.584 80 81 85
-0.112577 -0.280029 -0.594 107 108 113
-0.107059 -0.296057 -0.628 84 83 88
-0.103414 -0.299357 -0.635 72 73 75
0.109626 -0.296529 -0.629 195 147 135
0.127348 -0.268243 -0.569 193 131 116
0.133145 -0.266829 -0.566 196 137 119
0.14094 -0.2673 -0.567 204 142 127
0.14768 -0.267771 -0.568 188 126 111
0.151191 -0.268243 -0.569 184 114 102
0.152275 -0.268243 -0.569 186 116 104
0.162077 -0.270129 -0.573 170 107 100
0.171274 -0.274371 -0.582 154 101 97
0.211353 -0.305014 -0.647 194 197 228
0.226786 -0.294643 -0.625 176 120 119
0.476307 -0.242314 -0.514 176 134 118
0.470852 -0.238071 -0.505 178 137 119
0.479705 -0.227229 -0.482 182 132 105
0.480623 -0.227229 -0.482 181 131 104
0.4947 -0.228643 -0.485 160 118 94
-0.137419 -0.290627 -0.614 98 102 103
0.109275 -0.303407 -0.641 186 150 138
0.109462 -0.300567 -0.635 194 146 134
0.10854 -0.28542 -0.603 193 142 125
0.118148 -0.273113 -0.577 188 129 115
0.124532 -0.270273 -0.571 191 132 116
0.136379 -0.267907 -0.566 198 139 121
0.13986 -0.26838 -0.567 200 139 121
0.47816 -0.24424 -0.516 176 134 118
0.469 -0.231933 -0.49 182 138 113
0.472529 -0.229567 -0.485 183 137 111
0.480623 -0.228147 -0.482 179 132 104
0.48898 -0.22862 -0.483 172 127 98
0.509433 -0.233353 -0.493 154 109 88
0.526643 -0.239033 -0.505 149 117 102
-0.14483 -0.299875 -0.631 97 101 104
-0.0920914 -0.30035 -0.632 52 53 57
-0.0851371 -0.301301 -0.634 50 49 54
0.108282 -0.288945 -0.608 193 141 127
0.110508 -0.279915 -0.589 192 140 127
0.116351 -0.275163 -0.579 187 129 117
0.122571 -0.271836 -0.572 190 131 117
0.12991 -0.268985 -0.566 194 132 117
0.1558 -0.270886 -0.57 182 115 107
0.168186 -0.275163 -0.579 161 102 98
0.468115 -0.234292 -0.493 182 137 116
0.470726 -0.230966 -0.486 183 137 113
0.477869 -0.229065 -0.482 181 134 106
0.479626 -0.22859 -0.481 178 133 104
0.503437 -0.232391 -0.489 151 110 90
-0.11426 -0.281991 -0.591 150 149 154
-0.098421 -0.302509 -0.634 58 59 63
0.108415 -0.284377 -0.596 190 134 117
0.128832 -0.270063 -0.566 193 131 116
0.136379 -0.270063 -0.566 196 134 119
0.164833 -0.274357 -0.575 157 98 94
0.182817 -0.285331 -0.598 119 89 101
0.209796 -0.308234 -0.646 147 146 177
0.223346 -0.304894 -0.639 157 107 108
0.221313 -0.29726 -0.623 181 127 127
0.231249 -0.296306 -0.621 145 95 96
0.470681 -0.231414 -0.485 183 139 114
0.47518 -0.23046 -0.483 183 136 108
0.478787 -0.229983 -0.482 175 128 100
0.479705 -0.229983 -0.482 175 128 100
0.502408 -0.232846 -0.488 153 110 91
-0.111508 -0.293656 -0.613 100 101 103
-0.109103 -0.299884 -0.626 93 97 96
0.108815 -0.283596 -0.592 192 132 121
0.111794 -0.279764 -0.584 190 138 127
0.115448 -0.277848 -0.58 191 129 116
0.133986 -0.270662 -0.565 199 137 124
0.153359 -0.272578 -0.569 177 113 104
0.159336 -0.273536 -0.571 165 102 95
0.202595 -0.304195 -0.635 209 207 231
0.248786 -0.308986 -0.645 216 199 217
0.503761 -0.262039 -0.547 173 136 117
0.468115 -0.23617 -0.493 183 141 119
0.468103 -0.235691 -0.492 181 139 117
0.47426 -0.23138 -0.483 185 138 112
0.477869 -0.230901 -0.482 177 130 102
0.481458 -0.230422 -0.481 176 129 101
0.4832 -0.229943 -0.48 176 131 102
-0.126039 -0.280395 -0.583 102 106 109
-0.114453 -0.284724 -0.592 176 176 176
0.115249 -0.278471 -0.579 187 130 119
0.11615 -0.27799 -0.578 188 130 118
0.120603 -0.275586 -0.573 186 128 116
0.1269 -0.2727 -0.567 179 120 104
0.130757 -0.271738 -0.565 193 134 120
0.133986 -0.271738 -0.565 199 137 124
0.150926 -0.273181 -0.568 171 106 100
0.160705 -0.275105 -0.572 159 98 95
0.168186 -0.278471 -0.579 158 97 94
0.174684 -0.281838 -0.586 148 90 89
0.20573 -0.30829 -0.641 202 200 222
0.221249 -0.304443 -0.633 166 106 106
0.222069 -0.294343 -0.612 191 133 129
0.474196 -0.231819 -0.482 184 138 112
0.477793 -0.231338 -0.481 169 122 92
-0.124071 -0.279574 -0.579 97 98 102
-0.120554 -0.279091 -0.578 96 97 101
-0.119453 -0.279091 -0.578 98 99 103
-0.115723 -0.283437 -0.587 121 122 126
-0.113525 -0.289231 -0.599 199 201 200
0.107011 -0.296474 -0.614 190 138 127
0.119511 -0.276677 -0.573 187 129 117
0.133986 -0.272814 -0.565 197 137 126
0.14094 -0.27378 -0.567 185 123 112
0.168476 -0.280057 -0.58 161 97 97
0.221949 -0.309994 -0.642 152 109 116
0.225934 -0.295991 -0.613 174 116 114
0.481 -0.25012 -0.518 177 138 123
0.487871 -0.232254 -0.481 170 124 98
0.492558 -0.232737 -0.482 163 121 97
0.499319 -0.234186 -0.485 156 116 91
-0.120763 -0.280677 -0.579 91 92 97
-0.11786 -0.281647 -0.581 85 86 91
-0.116954 -0.282131 -0.582 80 81 86
0.110682 -0.283101 -0.584 192 135 124
0.11595 -0.279708 -0.577 190 132 121
0.118627 -0.278253 -0.574 188 130 118
0.119511 -0.277769 -0.573 186 128 116
0.12582 -0.27486 -0.567 185 125 114
0.157971 -0.276314 -0.57 160 96 94
0.162077 -0.277769 -0.573 154 94 93
0.178728 -0.286979 -0.592 120 88 101
0.183734 -0.291342 -0.601 132 117 148
0.217886 -0.300552 -0.62 179 119 118
0.231309 -0.299583 -0.618 150 97 93
0.487427 -0.254985 -0.526 175 136 121
0.469069 -0.241411 -0.498 181 140 122
0.468103 -0.238503 -0.492 181 138 119
0.47058 -0.23414 -0.483 184 140 115
0.475961 -0.23317 -0.481 180 134 108
0.525427 -0.24335 -0.502 148 110 91
-0.136971 -0.29784 -0.612 88 89 94
-0.134474 -0.29492 -0.606 88 89 94
-0.108255 -0.305627 -0.628 152 154 151
0.106874 -0.308547 -0.634 189 137 126
0.114343 -0.282267 -0.58 188 134 122
0.12582 -0.27594 -0.567 188 128 117
0.127754 -0.275453 -0.566 187 127 116
0.136138 -0.274967 -0.565 187 127 116
0.14768 -0.276427 -0.568 168 101 93
0.1558 -0.2774 -0.57 162 99 94
0.158249 -0.277887 -0.571 155 94 91
0.167895 -0.281293 -0.578 154 96 95
0.198915 -0.307087 -0.631 180 177 206
0.226731 -0.29784 -0.612 167 109 107
0.495672 -0.260853 -0.536 173 136 120
0.468103 -0.23944 -0.492 181 138 119
-0.123393 -0.28386 -0.581 82 85 90
-0.113904 -0.293631 -0.601 219 219 219
-0.109277 -0.306334 -0.627 166 166 164
-0.108255 -0.306823 -0.628 157 157 155
-0.0966 -0.3078 -0.63 36 37 41
0.112327 -0.28386 -0.581 186 132 120
0.11595 -0.281906 -0.577 191 135 122
0.117533 -0.28044 -0.574 189 133 120
0.11842 -0.279951 -0.573 186 130 117
0.120182 -0.278974 -0.571 184 128 115
0.129681 -0.276043 -0.565 188 128 118
0.136379 -0.276531 -0.566 187 127 116
0.1431 -0.27702 -0.567 166 102 93
0.159615 -0.279463 -0.572 152 93 89
0.184346 -0.294609 -0.603 130 119 153
0.244487 -0.31122 -0.637 206 190 200
0.490207 -0.258454 -0.529 174 137 121
0.470924 -0.245263 -0.502 177 138 121
0.487771 -0.234514 -0.48 170 126 99
0.493476 -0.235491 -0.482 165 123 99
-0.122287 -0.284967 -0.581 78 81 86
-0.12118 -0.284967 -0.581 79 82 87
-0.119376 -0.285948 -0.583 75 78 83
-0.117557 -0.286929 -0.585 74 77 82
-0.109103 -0.307038 -0.626 171 171 169
0.116643 -0.282024 -0.575 189 136 122
0.117533 -0.281533 -0.574 187 134 120
0.120182 -0.280062 -0.571 183 127 114
0.14526 -0.2781 -0.567 169 104 98
0.14768 -0.27859 -0.568 173 106 100
0.154443 -0.279081 -0.569 161 98 93
0.158249 -0.280062 -0.571 150 91 87
0.18734 -0.2987 -0.609 147 135 171
0.215656 -0.302624 -0.617 188 123 117
0.218376 -0.296738 -0.605 192 131 130
0.47001 -0.244748 -0.499 180 139 121
-0.122708 -0.287058 -0.583 78 79 84
-0.11542 -0.293951 -0.597 173 170 179
-0.11142 -0.304784 -0.619 213 215 212
0.105863 -0.309215 -0.628 192 139 131
0.122796 -0.279672 -0.568 185 129 116
0.130757 -0.278195 -0.565 188 130 118
0.14526 -0.27918 -0.567 175 110 104
0.154443 -0.280165 -0.569 157 94 89
0.159615 -0.281642 -0.572 151 91 90
0.169873 -0.286073 -0.581 146 90 89
0.215714 -0.297398 -0.604 191 128 123
0.222567 -0.298875 -0.607 180 119 116
0.248851 -0.316109 -0.642 180 186 212
0.468087 -0.241759 -0.491 182 140 118
0.4715 -0.23782 -0.483 183 140 108
0.474971 -0.236343 -0.48 184 137 109
0.475886 -0.236343 -0.48 183 136 108
0.478544 -0.23585 -0.479 181 136 107
0.490514 -0.236343 -0.48 168 123 100
0.501167 -0.238805 -0.485 158 117 99
0.507055 -0.240282 -0.488 155 114 96
-0.13809 -0.304974 -0.617 81 82 87
-0.11542 -0.295089 -0.597 165 162 171
-0.11142 -0.305963 -0.619 217 219 216
0.111411 -0.287674 -0.582 188 134 124
0.119971 -0.281743 -0.57 182 125 114
0.121057 -0.281743 -0.57 181 124 113
0.128605 -0.279271 -0.565 189 131 120
0.133749 -0.278777 -0.564 186 128 116
0.150926 -0.280754 -0.568 172 111 106
0.171569 -0.288169 -0.583 145 90 87
0.1773 -0.292123 -0.591 134 85 89
0.181982 -0.296077 -0.599 142 111 126
0.184957 -0.299043 -0.605 138 127 161
0.214481 -0.304974 -0.617 190 126 124
0.2222 -0.299537 -0.606 175 114 111
0.223723 -0.300031 -0.607 172 111 106
0.481109 -0.255051 -0.516 174 137 119
0.471442 -0.238246 -0.482 184 140 111
0.474971 -0.237257 -0.48 183 138 109
0.509957 -0.241706 -0.489 151 113 94
0.52619 -0.247143 -0.5 145 112 95
0.53136 -0.24912 -0.504 151 118 101
-0.140394 -0.30863 -0.622 72 76 79
-0.131511 -0.299203 -0.603 78 79 83
-0.125092 -0.292256 -0.589 76 77 81
-0.11816 -0.29176 -0.588 72 73 77
-0.113286 -0.302676 -0.61 225 225 227
-0.112675 -0.304165 -0.613 222 222 222
0.112133 -0.28779 -0.58 191 134 125
0.114452 -0.28531 -0.575 193 135 124
0.119094 -0.283325 -0.571 184 127 118
0.173271 -0.290271 -0.585 141 86 81
0.179331 -0.294737 -0.594 127 100 115
0.215569 -0.311111 -0.627 177 121 120
0.214689 -0.308134 -0.621 181 125 124
0.229437 -0.304165 -0.613 145 87 83
0.468911 -0.241645 -0.487 182 140 115
0.473143 -0.238171 -0.48 182 138 109
0.4768 -0.238171 -0.48 181 137 110
0.485843 -0.237675 -0.479 176 132 103
-0.122223 -0.291884 -0.586 76 77 81
-0.118361 -0.293378 -0.589 72 73 77
-0.116906 -0.29537 -0.593 70 71 75
0.104851 -0.309815 -0.622 190 140 133
0.111029 -0.288895 -0.58 188 134 124
0.1773 -0.294374 -0.591 120 81 82
0.216147 -0.299853 -0.602 192 127 125
0.21844 -0.299853 -0.602 185 127 126
0.469071 -0.246557 -0.495 178 140 117
0.471442 -0.240082 -0.482 181 139 115
0.472296 -0.239584 -0.481 181 139 114
0.473982 -0.238588 -0.479 181 137 112
0.478544 -0.238588 -0.479 181 137 110
0.482097 -0.23809 -0.478 179 133 107
0.49623 -0.240082 -0.482 164 121 102
0.518935 -0.246059 -0.494 153 112 94
-0.13464 -0.306 -0.612 78 79 84
0.104571 -0.3 -0.6 186 133 125
0.108457 -0.292 -0.584 186 133 125
0.110837 -0.2895 -0.579 189 134 127
0.116034 -0.286 -0.572 189 132 125
0.125376 -0.2825 -0.565 188 129 121
0.126452 -0.2825 -0.565 190 131 123
0.139613 -0.283 -0.566 173 114 100
0.187648 -0.305 -0.61 134 120 145
0.215705 -0.319 -0.638 155 126 131
0.21556 -0.317 -0.634 159 113 115
0.468911 -0.2435 -0.487 182 141 119
0.467867 -0.242 -0.484 183 141 119
0.470524 -0.241 -0.482 182 140 115
0.474057 -0.24 -0.48 182 138 113
0.479366 -0.239 -0.478 182 136 112
0.483918 -0.239 -0.478 176 130 106
0.487668 -0.2395 -0.479 173 127 104
0.490405 -0.2395 -0.479 169 122 102
-0.121933 -0.296124 -0.59 76 77 82
-0.118763 -0.296626 -0.591 76 77 82
-0.116362 -0.299135 -0.596 70 67 78
-0.109238 -0.311181 -0.62 152 154 151
-0.105357 -0.31369 -0.625 46 50 49
0.113357 -0.288595 -0.575 190 135 128
0.126229 -0.283074 -0.564 190 131 125
0.139367 -0.283576 -0.565 176 117 103
0.14177 -0.284078 -0.566 179 117 104
0.146082 -0.284078 -0.566 174 112 99
0.173271 -0.293614 -0.585 141 92 88
0.215029 -0.319211 -0.636 155 120 126
0.219951 -0.302649 -0.603 180 119 116
0.471905 -0.250952 -0.5 174 136 117
0.46904 -0.246937 -0.492 182 141 123
0.468789 -0.242922 -0.484 182 140 116
0.473982 -0.240412 -0.479 182 138 111
0.479366 -0.23991 -0.478 180 134 110
0.508799 -0.244428 -0.487 159 112 96
-0.1353 -0.309843 -0.615 82 83 87
0.171569 -0.293721 -0.583 138 89 85
0.21352 -0.316392 -0.628 166 116 115
0.468874 -0.244851 -0.486 181 139 117
0.471314 -0.241829 -0.48 182 138 113
0.472229 -0.241829 -0.48 182 138 111
0.473982 -0.241325 -0.479 183 139 112
0.474813 -0.240821 -0.478 181 137 110
0.485739 -0.240821 -0.478 171 125 101
0.505786 -0.244348 -0.485 158 111 95
-0.133692 -0.310003 -0.613 84 85 89
-0.129857 -0.306463 -0.606 82 83 87
-0.117497 -0.301406 -0.596 77 78 82
-0.113697 -0.306463 -0.606 169 170 174
0.103874 -0.301406 -0.596 192 139 131
0.11934 -0.28674 -0.567 186 129 120
0.123224 -0.285729 -0.565 188 131 122
0.130526 -0.285223 -0.564 184 124 116
0.132674 -0.285223 -0.564 177 117 109
0.140443 -0.285729 -0.565 176 113 104
0.17903 -0.299889 -0.593 134 93 101
0.186725 -0.306969 -0.607 118 95 111
0.469606 -0.243754 -0.482 180 138 114
0.470464 -0.243249 -0.481 180 138 113
0.482906 -0.241226 -0.477 177 131 108
0.491317 -0.242237 -0.479 167 120 102
0.495086 -0.242743 -0.48 166 119 101
-0.111144 -0.310155 -0.611 155 156 161
0.103084 -0.303556 -0.598 191 138 130
0.106414 -0.296957 -0.585 191 136 129
0.1079 -0.294927 -0.581 191 136 129
0.111871 -0.290866 -0.573 194 137 130
0.123224 -0.286805 -0.565 188 131 122
0.1316 -0.286297 -0.564 179 119 111
0.138046 -0.286297 -0.564 177 114 107
0.153359 -0.288835 -0.569 139 89 82
0.154443 -0.288835 -0.569 137 87 80
0.163738 -0.291881 -0.575 130 82 80
0.171274 -0.295434 -0.582 136 90 90
0.183734 -0.305079 -0.601 117 89 101
0.21844 -0.305587 -0.602 171 116 113
0.227152 -0.309648 -0.61 144 92 94
0.229437 -0.31117 -0.613 136 84 86
0.242184 -0.320308 -0.631 129 119 144
0.471914 -0.252794 -0.498 174 137 119
0.473982 -0.24315 -0.479 179 137 113
-0.129128 -0.30979 -0.608 85 86 90
-0.11923 -0.305205 -0.599 87 88 93
0.106232 -0.297562 -0.584 193 138 133
0.115426 -0.289919 -0.569 190 133 126
0.121071 -0.287881 -0.565 188 131 124
0.128377 -0.287371 -0.564 186 127 119
0.138046 -0.287371 -0.564 178 115 108
0.141519 -0.287881 -0.565 176 113 104
0.142595 -0.287881 -0.565 174 111 102
0.162077 -0.291957 -0.573 133 85 83
0.210064 -0.306224 -0.601 193 132 127
0.212788 -0.305205 -0.599 185 121 119
0.219951 -0.307243 -0.603 169 106 97
0.483119 -0.262405 -0.515 169 133 119
0.506587 -0.24661 -0.484 160 114 99
0.509606 -0.247629 -0.486 155 112 95
0.534032 -0.255781 -0.502 155 131 119
-0.113885 -0.310437 -0.607 78 79 81
-0.111144 -0.312483 -0.611 74 75 77
-0.109172 -0.313506 -0.613 71 72 76
0.131367 -0.287934 -0.563 181 118 111
0.133511 -0.287934 -0.563 175 115 105
0.138046 -0.288446 -0.564 176 113 104
0.142595 -0.288957 -0.565 176 113 104
0.143671 -0.288957 -0.565 172 109 100
0.163453 -0.29356 -0.574 130 82 80
0.1764 -0.30072 -0.588 135 90 87
0.199166 -0.321177 -0.628 88 86 110
0.211647 -0.306346 -0.599 191 127 127
0.229811 -0.314017 -0.614 131 82 88
0.244929 -0.324757 -0.635 91 91 127
0.496106 -0.271569 -0.531 166 133 118
0.468833 -0.248043 -0.485 180 139 117
0.492112 -0.244463 -0.478 168 121 101
-0.128601 -0.313647 -0.611 96 97 99
-0.121375 -0.310053 -0.604 96 96 98
-0.1131 -0.31262 -0.609 80 82 81
-0.11016 -0.31416 -0.612 70 71 75
0.102317 -0.31878 -0.621 195 142 134
0.12408 -0.28952 -0.564 183 124 116
0.141269 -0.28952 -0.564 178 115 106
0.144748 -0.290033 -0.565 171 109 98
0.210154 -0.306973 -0.598 192 128 128
0.216932 -0.308513 -0.601 164 108 95
0.2375 -0.320833 -0.625 103 84 103
0.508148 -0.279767 -0.545 166 132 120
0.4915 -0.2695 -0.525 170 135 116
0.469022 -0.252047 -0.491 181 140 120
0.472082 -0.245373 -0.478 183 141 116
0.474729 -0.24486 -0.477 179 137 112
0.493023 -0.245373 -0.478 169 122 102
-0.123337 -0.313265 -0.608 101 102 104
-0.117353 -0.31275 -0.607 99 100 102
-0.112308 -0.31481 -0.611 82 83 85
-0.106531 -0.318417 -0.618 61 62 67
0.101949 -0.322539 -0.626 192 144 140
0.101823 -0.318417 -0.618 195 142 134
0.106426 -0.298323 -0.579 194 139 134
0.108787 -0.295747 -0.574 192 134 130
0.11502 -0.29214 -0.567 191 136 131
0.126005 -0.290079 -0.563 176 116 108
0.127077 -0.290079 -0.563 177 117 109
0.131367 -0.290079 -0.563 175 112 103
0.15174 -0.29214 -0.567 147 93 83
0.154171 -0.292655 -0.568 140 91 84
0.169289 -0.298323 -0.579 141 94 86
0.172383 -0.299869 -0.582 142 94 84
0.1758 -0.30193 -0.586 136 91 88
0.1927 -0.316871 -0.615 110 89 108
0.209783 -0.321509 -0.624 173 121 123
0.208943 -0.318417 -0.618 181 129 131
0.232862 -0.318932 -0.619 114 78 88
0.46966 -0.24886 -0.483 183 142 120
0.494844 -0.246284 -0.478 168 123 102
0.501486 -0.247314 -0.48 163 118 99
0.50843 -0.249375 -0.484 157 116 94
0.517409 -0.251951 -0.489 153 109 98
0.525522 -0.254528 -0.494 142 110 95
-0.132643 -0.320111 -0.619 105 106 108
-0.123743 -0.315457 -0.61 106 107 109
-0.116771 -0.315457 -0.61 100 101 103
