ply
format ascii 1.0
comment Created by Open3D
element vertex 1295
property double x
property double y
property double z
property uchar red
property uchar green
property uchar blue
end_header
-0.0581076 -0.256991 -0.629 75 74 82
-0.0523657 -0.258217 -0.632 74 73 81
-0.0489086 -0.259034 -0.634 74 73 81
-0.037239 -0.261894 -0.641 74 73 79
0.133714 -0.254949 -0.624 208 159 154
0.164877 -0.236563 -0.579 183 125 114
0.17098 -0.23738 -0.581 171 111 101
0.188813 -0.236154 -0.578 193 139 127
0.234141 -0.258217 -0.632 123 79 92
0.320492 -0.198974 -0.487 178 129 124
0.324351 -0.195706 -0.479 184 131 125
0.34362 -0.19734 -0.483 188 138 129
0.356863 -0.198566 -0.486 182 132 121
0.36277 -0.197749 -0.484 178 130 120
0.364613 -0.197749 -0.484 178 129 122
-0.0975 -0.240129 -0.585 69 68 76
-0.0967152 -0.24095 -0.587 69 68 76
-0.0944743 -0.243823 -0.594 70 69 75
-0.0913114 -0.247517 -0.603 62 61 69
-0.0717933 -0.255727 -0.623 75 74 82
-0.0523657 -0.259421 -0.632 74 73 81
-0.047701 -0.260242 -0.634 73 72 78
-0.0442171 -0.261063 -0.636 74 73 79
-0.0384 -0.262705 -0.64 73 72 78
-0.0348514 -0.263526 -0.642 73 72 78
-0.0313771 -0.265168 -0.646 72 71 77
0.134977 -0.245465 -0.598 202 154 142
0.138163 -0.245054 -0.597 202 152 143
0.153537 -0.238897 -0.582 203 150 146
0.156054 -0.237666 -0.579 200 145 140
0.178419 -0.238076 -0.58 205 146 140
0.180317 -0.237666 -0.579 206 145 140
0.18409 -0.236845 -0.577 202 143 137
0.195663 -0.238897 -0.582 177 119 108
0.207967 -0.244233 -0.595 143 89 89
0.216786 -0.249159 -0.607 131 83 97
0.2322 -0.2586 -0.63 126 80 91
0.234882 -0.260242 -0.634 127 81 94
0.326631 -0.195797 -0.477 186 133 125
0.33895 -0.196618 -0.479 191 139 128
0.36277 -0.19867 -0.484 179 129 120
0.36478 -0.19826 -0.483 180 130 121
0.36662 -0.19826 -0.483 179 129 120
-0.102761 -0.237944 -0.577 109 110 115
-0.0899 -0.25114 -0.609 61 60 68
-0.0871295 -0.253202 -0.614 62 61 69
-0.0808952 -0.255676 -0.62 63 62 70
-0.0719086 -0.257326 -0.624 75 74 82
-0.0649848 -0.25815 -0.626 77 76 82
-0.0360743 -0.264749 -0.642 73 72 80
0.132384 -0.250315 -0.607 202 149 141
0.1331 -0.24949 -0.605 194 141 133
0.153849 -0.238769 -0.579 201 148 140
0.154684 -0.238356 -0.578 200 147 139
0.172895 -0.239181 -0.58 188 129 121
0.174803 -0.238769 -0.579 210 151 143
0.239917 -0.264336 -0.641 120 72 84
0.24425 -0.266398 -0.646 118 70 84
0.24624 -0.267223 -0.648 119 75 88
0.317513 -0.202479 -0.491 179 135 134
0.318362 -0.201242 -0.488 183 130 124
0.3339 -0.196706 -0.477 190 138 127
0.343314 -0.197943 -0.48 189 137 126
-0.0872714 -0.254786 -0.615 62 61 69
-0.08638 -0.255614 -0.617 61 59 70
-0.085481 -0.256443 -0.619 59 57 68
-0.0799714 -0.257686 -0.622 65 64 72
-0.0776019 -0.257686 -0.622 71 70 78
-0.07654 -0.2581 -0.623 71 70 78
-0.0662829 -0.259757 -0.627 75 74 80
-0.0617019 -0.260586 -0.629 76 75 81
-0.0547733 -0.261829 -0.632 75 74 82
-0.0536543 -0.262243 -0.633 75 74 82
-0.0419257 -0.264314 -0.638 74 72 83
0.134751 -0.247329 -0.597 201 153 143
0.145166 -0.241943 -0.584 196 141 134
0.152482 -0.239457 -0.578 198 143 136
0.156343 -0.238629 -0.576 191 137 127
0.166794 -0.239457 -0.578 168 109 93
0.176397 -0.239043 -0.577 211 152 144
0.18816 -0.238629 -0.576 181 124 113
0.19711 -0.241529 -0.583 165 106 98
0.237475 -0.265557 -0.641 115 74 90
0.318362 -0.202171 -0.488 185 130 123
0.322206 -0.200514 -0.484 185 130 125
0.323873 -0.199271 -0.481 183 128 121
0.325264 -0.198443 -0.479 182 127 120
0.328667 -0.1972 -0.476 188 134 124
0.346057 -0.198857 -0.48 188 136 125
0.36478 -0.2001 -0.483 183 131 120
0.383429 -0.202171 -0.488 179 134 131
0.390462 -0.203414 -0.491 178 129 133
0.400107 -0.205486 -0.496 176 144 157
0.40186 -0.2059 -0.497 164 144 156
-0.12739 -0.266362 -0.64 107 111 114
-0.125186 -0.264281 -0.635 107 111 114
-0.110132 -0.244304 -0.587 104 108 111
-0.0931429 -0.249714 -0.6 70 69 77
-0.0917657 -0.252211 -0.606 70 69 77
-0.0732143 -0.260119 -0.625 72 71 79
-0.0606 -0.2622 -0.63 77 76 82
-0.0583848 -0.263032 -0.632 77 76 84
-0.05486 -0.263449 -0.633 76 75 81
0.131228 -0.252628 -0.607 206 147 149
0.143807 -0.242639 -0.583 203 148 143
0.153881 -0.23931 -0.575 192 138 128
0.166506 -0.240142 -0.577 163 101 86
0.170097 -0.240558 -0.578 189 131 120
0.174994 -0.239726 -0.576 202 143 137
0.177976 -0.23931 -0.575 196 139 132
0.18816 -0.239726 -0.576 181 123 112
0.195999 -0.242639 -0.583 166 107 99
0.314708 -0.20435 -0.491 184 135 138
0.317151 -0.203517 -0.489 180 129 126
0.318083 -0.203517 -0.489 179 128 125
0.325029 -0.199771 -0.48 181 126 121
0.326176 -0.199355 -0.479 182 127 122
0.34136 -0.198107 -0.476 189 137 126
0.349714 -0.199771 -0.48 186 134 121
0.352275 -0.200188 -0.481 186 134 121
0.354844 -0.200604 -0.482 187 135 124
-0.09794 -0.242913 -0.581 73 73 81
-0.0835257 -0.260055 -0.622 60 59 67
-0.0674771 -0.262146 -0.627 74 73 81
-0.0560657 -0.264654 -0.633 75 74 82
-0.0478514 -0.265909 -0.636 73 72 80
0.133167 -0.248767 -0.595 199 144 137
0.136774 -0.247094 -0.591 203 148 145
0.140716 -0.244168 -0.584 196 143 139
0.17469 -0.240405 -0.575 206 147 141
0.189586 -0.241241 -0.577 174 114 104
0.203191 -0.247094 -0.591 145 95 94
0.205354 -0.248349 -0.594 141 91 90
0.313503 -0.208211 -0.498 191 141 142
0.314067 -0.204867 -0.49 184 135 141
0.320492 -0.203612 -0.487 186 128 124
0.32142 -0.203612 -0.487 187 129 125
0.335411 -0.198177 -0.474 190 136 126
0.338833 -0.198595 -0.475 187 135 122
0.401996 -0.207375 -0.496 160 132 144
-0.104777 -0.24192 -0.576 98 99 104
-0.0971667 -0.24486 -0.583 68 68 76
-0.09106 -0.25578 -0.609 69 68 76
-0.0824733 -0.26166 -0.623 59 58 66
-0.0755952 -0.2625 -0.625 68 67 75
-0.0502743 -0.26712 -0.636 73 72 80
0.130857 -0.252 -0.6 198 147 143
0.133623 -0.24864 -0.592 200 147 143
0.140475 -0.24486 -0.583 202 147 144
0.148405 -0.2415 -0.575 198 143 138
0.181723 -0.24066 -0.573 193 135 131
0.198124 -0.24612 -0.586 163 102 97
0.19992 -0.24696 -0.588 151 92 94
0.31536 -0.21168 -0.504 186 139 147
0.313503 -0.20916 -0.498 191 141 142
0.312233 -0.20706 -0.493 189 139 140
0.325943 -0.2016 -0.48 181 126 121
0.332902 -0.19866 -0.473 188 134 124
0.334704 -0.19866 -0.473 188 136 125
0.35446 -0.20118 -0.479 187 134 126
0.369683 -0.20202 -0.481 183 134 130
-0.124989 -0.267488 -0.634 99 103 106
-0.102405 -0.242595 -0.575 95 96 101
-0.0994638 -0.243439 -0.577 86 86 94
-0.0934533 -0.253987 -0.602 77 76 84
-0.0912095 -0.257362 -0.61 73 72 80
-0.0837943 -0.263269 -0.624 57 56 64
-0.0814171 -0.263269 -0.624 57 56 64
-0.0597771 -0.267488 -0.634 75 74 82
0.132276 -0.27255 -0.646 204 153 149
0.150899 -0.24133 -0.572 193 136 125
0.177048 -0.24133 -0.572 204 147 138
0.203879 -0.25019 -0.593 142 91 98
0.311267 -0.206733 -0.49 185 139 142
0.322871 -0.204624 -0.485 184 131 127
0.325706 -0.202936 -0.481 182 127 122
0.327316 -0.20167 -0.478 182 127 120
0.371657 -0.202514 -0.48 185 134 131
0.377012 -0.202936 -0.481 178 130 128
0.392597 -0.206311 -0.489 170 128 130
0.394333 -0.206733 -0.49 170 128 132
-0.124594 -0.267848 -0.632 96 100 103
-0.109757 -0.247929 -0.585 97 98 103
-0.0881229 -0.263186 -0.621 63 62 70
-0.08722 -0.264033 -0.623 60 59 67
-0.0666 -0.267 -0.63 72 71 79
-0.0586619 -0.269119 -0.635 74 73 79
0.133171 -0.250048 -0.59 199 144 137
0.140857 -0.24581 -0.58 203 150 142
0.143426 -0.244538 -0.577 202 149 141
0.151723 -0.241995 -0.571 193 135 123
0.163453 -0.243267 -0.574 165 106 92
0.173475 -0.241995 -0.571 207 149 138
0.186738 -0.24369 -0.575 170 118 107
0.194889 -0.247081 -0.583 163 104 98
0.208919 -0.25471 -0.601 127 89 100
0.21402 -0.2581 -0.609 119 87 100
0.219537 -0.261914 -0.618 239 231 242
0.311216 -0.206395 -0.487 184 134 135
0.313071 -0.206395 -0.487 180 129 128
0.322611 -0.205971 -0.486 184 131 127
0.325943 -0.203429 -0.48 184 129 124
0.329786 -0.20131 -0.475 187 132 125
0.335605 -0.200462 -0.473 188 136 125
0.341731 -0.200886 -0.474 187 135 124
0.344614 -0.200462 -0.473 184 134 125
0.40823 -0.211481 -0.499 192 180 190
-0.0949619 -0.251171 -0.59 90 89 97
-0.0840629 -0.266497 -0.626 56 55 63
-0.0598714 -0.270329 -0.635 73 72 78
-0.0575429 -0.270754 -0.636 73 72 78
0.128601 -0.260111 -0.611 197 144 136
0.132271 -0.251597 -0.591 199 144 137
0.149286 -0.242657 -0.57 194 136 125
0.153898 -0.243083 -0.571 188 130 118
0.177514 -0.242657 -0.57 191 134 123
0.181406 -0.243509 -0.572 185 128 117
0.183906 -0.243934 -0.573 175 119 106
0.218007 -0.262666 -0.617 237 211 224
0.31186 -0.214134 -0.503 178 136 146
0.307208 -0.207749 -0.488 189 140 144
0.327771 -0.204343 -0.48 183 128 123
0.33939 -0.200937 -0.472 187 134 126
0.343713 -0.201363 -0.473 185 132 124
-0.120852 -0.264696 -0.619 97 100 105
-0.102405 -0.245881 -0.575 92 93 98
-0.0891619 -0.265124 -0.62 67 66 74
-0.0735657 -0.268545 -0.628 64 63 71
-0.0679076 -0.269828 -0.631 71 70 78
0.171 -0.243743 -0.57 188 130 119
0.177514 -0.243743 -0.57 190 133 122
0.191676 -0.248019 -0.58 164 106 105
0.197344 -0.251012 -0.587 152 97 100
0.310902 -0.215092 -0.503 181 136 141
0.306599 -0.210816 -0.493 184 134 137
0.32405 -0.206968 -0.484 185 132 126
0.358431 -0.203974 -0.477 183 133 126
0.380677 -0.205685 -0.481 172 125 119
0.391919 -0.20825 -0.487 165 121 120
0.411774 -0.214237 -0.501 198 183 188
-0.1139 -0.255567 -0.595 96 97 102
-0.11144 -0.25256 -0.588 96 97 102
-0.0923714 -0.26201 -0.61 81 80 88
-0.0909333 -0.264587 -0.616 76 75 83
-0.0714 -0.2706 -0.63 65 64 72
-0.0576333 -0.273607 -0.637 73 72 78
-0.0552933 -0.274036 -0.638 74 73 81
-0.0529457 -0.274466 -0.639 74 73 81
0.130031 -0.275325 -0.641 198 148 141
0.137306 -0.248694 -0.579 198 143 136
0.154443 -0.244399 -0.569 191 134 125
0.161511 -0.245258 -0.571 202 145 134
0.175035 -0.244399 -0.569 200 141 133
0.187063 -0.247406 -0.576 171 113 112
0.19768 -0.25256 -0.588 148 96 98
0.199476 -0.253419 -0.59 144 92 94
0.20162 -0.254708 -0.593 135 90 95
0.211352 -0.26115 -0.608 115 95 106
0.306575 -0.213044 -0.496 185 139 142
0.304097 -0.208749 -0.486 184 135 139
0.321024 -0.208319 -0.485 187 132 127
0.32706 -0.20746 -0.483 186 131 126
0.330266 -0.204883 -0.477 185 130 125
0.339569 -0.202306 -0.471 184 131 123
0.34226 -0.202306 -0.471 184 131 125
0.344951 -0.202306 -0.471 187 137 130
0.401443 -0.211755 -0.493 182 149 156
-0.11658 -0.260151 -0.603 95 98 103
-0.10131 -0.248071 -0.575 85 85 93
-0.0996362 -0.249366 -0.578 80 79 87
-0.0963857 -0.252386 -0.585 97 96 104
-0.0949619 -0.254543 -0.59 94 93 99
-0.0936086 -0.260151 -0.603 85 85 93
-0.09292 -0.261446 -0.606 84 84 92
-0.0646076 -0.273526 -0.634 71 70 78
0.128795 -0.271369 -0.629 193 143 136
0.127437 -0.263603 -0.611 197 144 138
0.1298 -0.254543 -0.59 199 144 137
0.135333 -0.250229 -0.58 203 146 139
0.173646 -0.245051 -0.568 201 142 134
0.188813 -0.249366 -0.578 167 109 107
0.2023 -0.2567 -0.595 128 87 91
0.30318 -0.210969 -0.489 184 138 140
0.30774 -0.20838 -0.483 182 132 125
0.3201 -0.209243 -0.485 186 131 124
0.324719 -0.209243 -0.485 188 133 126
0.325893 -0.208811 -0.484 187 132 125
0.330048 -0.206223 -0.478 184 129 122
0.337952 -0.202771 -0.47 186 131 124
0.341533 -0.202771 -0.47 183 130 122
0.41013 -0.215283 -0.499 192 172 173
-0.108819 -0.251333 -0.58 94 97 102
-0.10332 -0.248733 -0.574 96 97 102
-0.0971667 -0.252633 -0.583 91 92 96
-0.0904886 -0.2691 -0.621 75 76 80
-0.0762 -0.273 -0.63 53 52 60
-0.0704229 -0.273867 -0.632 66 65 73
-0.0588467 -0.276033 -0.637 73 72 78
-0.0577238 -0.276467 -0.638 73 72 78
0.128181 -0.271267 -0.626 195 142 138
0.127985 -0.256533 -0.592 201 144 137
0.135732 -0.250033 -0.577 198 144 134
0.15309 -0.246133 -0.568 196 139 132
0.185643 -0.249167 -0.575 170 113 104
0.301924 -0.209733 -0.484 184 135 138
0.30343 -0.208867 -0.482 180 130 129
0.323128 -0.209733 -0.484 189 134 127
0.328913 -0.207567 -0.479 189 135 125
0.330048 -0.207133 -0.478 186 132 122
0.331174 -0.2067 -0.477 184 130 120
0.331595 -0.205833 -0.475 183 129 119
0.340638 -0.203667 -0.47 183 131 120
0.350486 -0.203667 -0.47 188 133 126
0.353026 -0.2041 -0.471 187 132 125
0.357228 -0.204967 -0.473 186 131 124
0.366609 -0.2067 -0.477 188 133 126
0.379886 -0.208 -0.48 171 122 117
-0.115807 -0.260708 -0.599 95 98 103
-0.0971667 -0.253744 -0.583 96 97 101
-0.0670229 -0.275941 -0.634 69 68 74
0.140353 -0.24765 -0.569 193 136 125
0.15282 -0.24678 -0.567 200 143 134
0.192668 -0.253744 -0.583 156 105 101
0.302512 -0.209785 -0.482 180 130 133
0.3296 -0.208914 -0.48 188 134 124
0.339743 -0.204562 -0.47 184 130 120
0.374661 -0.208044 -0.478 180 127 119
0.387661 -0.210655 -0.484 161 115 102
0.394583 -0.212396 -0.488 155 110 107
-0.107157 -0.252231 -0.577 97 100 107
-0.10569 -0.251357 -0.575 98 99 104
-0.10131 -0.251357 -0.575 89 90 95
-0.09576 -0.25704 -0.588 100 99 107
-0.065919 -0.277586 -0.635 69 68 74
0.126186 -0.264471 -0.605 199 149 140
0.126075 -0.261849 -0.599 201 148 140
0.130036 -0.256166 -0.586 201 147 137
0.151472 -0.247423 -0.566 198 141 130
0.166566 -0.247423 -0.566 190 132 120
0.17581 -0.248297 -0.568 181 124 115
0.184227 -0.25092 -0.574 168 113 106
0.192998 -0.255291 -0.584 149 100 96
0.196894 -0.257477 -0.589 141 96 103
0.302186 -0.216386 -0.495 182 138 139
0.304 -0.209829 -0.48 180 129 125
0.32271 -0.210703 -0.482 186 133 125
0.324547 -0.210703 -0.482 186 133 125
0.328219 -0.210703 -0.482 188 134 124
0.32937 -0.210266 -0.481 188 135 127
0.3325 -0.207643 -0.475 180 128 117
0.341863 -0.204583 -0.468 190 133 124
0.355857 -0.205457 -0.47 191 132 126
0.405775 -0.216823 -0.496 177 146 143
-0.121834 -0.271331 -0.618 97 101 104
-0.0988762 -0.254648 -0.58 70 69 75
-0.0944743 -0.260794 -0.594 97 96 104
-0.0921067 -0.270453 -0.616 84 85 90
-0.09078 -0.273527 -0.623 79 80 85
-0.0847343 -0.277039 -0.631 57 56 64
-0.0694381 -0.278356 -0.634 63 62 70
0.131791 -0.254209 -0.579 196 141 134
0.14094 -0.24894 -0.567 190 134 121
0.153357 -0.248062 -0.565 201 145 132
0.157941 -0.248501 -0.566 198 142 129
0.165195 -0.248062 -0.565 190 132 121
0.181406 -0.251135 -0.572 167 112 107
0.191557 -0.255965 -0.583 148 98 99
0.300052 -0.211182 -0.481 183 133 132
0.302171 -0.210743 -0.48 179 128 125
0.315886 -0.210743 -0.48 186 133 125
0.3168 -0.210743 -0.48 186 133 125
0.333606 -0.208109 -0.474 181 129 116
0.334509 -0.208109 -0.474 182 128 118
0.340971 -0.205474 -0.468 187 132 125
0.343952 -0.204596 -0.466 189 132 123
0.353451 -0.205474 -0.468 188 131 124
0.355993 -0.205913 -0.469 190 133 126
0.360333 -0.206352 -0.47 187 130 123
0.39031 -0.212938 -0.485 152 107 101
0.398067 -0.215133 -0.49 152 112 104
0.400629 -0.216011 -0.492 163 123 115
0.411905 -0.219524 -0.5 161 149 161
-0.112943 -0.260162 -0.59 100 100 108
-0.110492 -0.257075 -0.583 100 100 108
-0.0944743 -0.261926 -0.594 99 97 108
-0.0926743 -0.269863 -0.612 87 88 93
-0.0871381 -0.278241 -0.631 64 65 70
0.125233 -0.262367 -0.595 200 148 137
0.133933 -0.253107 -0.574 195 138 127
0.16168 -0.248697 -0.564 184 126 114
0.162754 -0.248697 -0.564 181 123 112
0.168126 -0.248697 -0.564 192 134 123
0.183133 -0.253107 -0.574 166 108 104
0.188037 -0.255311 -0.579 154 99 96
0.254487 -0.285296 -0.647 167 115 128
0.256554 -0.284855 -0.646 159 110 129
0.300085 -0.214744 -0.487 185 135 134
0.300343 -0.211657 -0.48 181 127 125
0.303644 -0.210775 -0.478 177 124 120
0.304554 -0.210775 -0.478 179 124 121
0.305465 -0.210775 -0.478 184 129 126
0.326622 -0.212098 -0.481 187 135 122
0.343952 -0.205484 -0.466 186 132 122
0.34484 -0.205484 -0.466 185 131 121
0.345728 -0.205484 -0.466 185 131 121
0.346615 -0.205484 -0.466 185 131 121
0.363791 -0.207689 -0.471 187 130 119
0.374786 -0.210334 -0.477 174 119 112
0.413683 -0.220917 -0.501 137 124 133
0.41891 -0.222681 -0.505 161 153 166
-0.0915238 -0.274571 -0.62 83 83 91
-0.089881 -0.276786 -0.625 77 78 83
0.125517 -0.261729 -0.591 196 144 133
0.150937 -0.249771 -0.564 201 145 130
0.155234 -0.249771 -0.564 197 139 125
0.180001 -0.252871 -0.571 167 108 102
0.303917 -0.211243 -0.477 180 125 120
0.313911 -0.211243 -0.477 184 130 120
0.332703 -0.209914 -0.474 184 130 120
0.342022 -0.206814 -0.467 186 131 124
0.346615 -0.206371 -0.466 185 131 121
0.348529 -0.205929 -0.465 189 132 123
0.363914 -0.208143 -0.47 185 128 119
0.415465 -0.222314 -0.502 147 135 147
-0.128206 -0.28109 -0.632 99 102 107
-0.110303 -0.258851 -0.582 102 105 110
-0.102583 -0.256183 -0.576 102 102 110
-0.100737 -0.257072 -0.578 77 78 83
-0.0973333 -0.259741 -0.584 112 111 119
-0.0789743 -0.281534 -0.633 48 47 55
0.128705 -0.257962 -0.58 193 139 127
0.129362 -0.257072 -0.578 190 136 124
0.131517 -0.254849 -0.573 198 141 130
0.16461 -0.250401 -0.563 182 122 112
0.170576 -0.25129 -0.565 180 120 110
0.192543 -0.26063 -0.586 136 91 96
0.19465 -0.261965 -0.589 132 87 92
0.300679 -0.218378 -0.491 184 133 130
0.300052 -0.21393 -0.481 180 127 123
0.302733 -0.212596 -0.478 178 123 116
0.307813 -0.211707 -0.476 181 127 117
0.313253 -0.211707 -0.476 185 131 121
0.336877 -0.209483 -0.471 187 133 121
0.345728 -0.207259 -0.466 187 130 123
0.383426 -0.21393 -0.481 154 105 98
-0.125595 -0.279167 -0.625 100 103 110
-0.102583 -0.25728 -0.576 102 102 110
-0.0937638 -0.269787 -0.604 91 91 99
-0.0901686 -0.28006 -0.627 75 78 85
-0.0837971 -0.28274 -0.633 50 51 56
-0.0777686 -0.28274 -0.633 46 47 52
-0.0741514 -0.28274 -0.633 48 48 56
0.1241 -0.265767 -0.595 194 144 133
0.12715 -0.260407 -0.583 194 142 129
0.134934 -0.254153 -0.569 190 132 121
0.154959 -0.251473 -0.563 200 142 130
0.170576 -0.252367 -0.565 176 116 108
0.180316 -0.255493 -0.572 166 107 101
0.183452 -0.256833 -0.575 165 107 103
0.300679 -0.219313 -0.491 183 132 129
0.3135 -0.212167 -0.475 184 130 120
0.314405 -0.212167 -0.475 184 132 121
0.32118 -0.21306 -0.477 186 132 122
0.322089 -0.21306 -0.477 185 131 121
0.326406 -0.213507 -0.478 188 134 124
0.328227 -0.213507 -0.478 188 134 124
0.334704 -0.211273 -0.473 187 133 121
0.337057 -0.209933 -0.47 187 133 123
0.34484 -0.208147 -0.466 188 131 124
0.383426 -0.214847 -0.481 152 103 98
0.38686 -0.21574 -0.483 147 103 100
0.408487 -0.221993 -0.497 140 112 109
-0.125394 -0.279909 -0.624 98 101 108
-0.0764419 -0.283497 -0.632 46 46 54
0.126931 -0.261069 -0.582 192 140 127
0.128261 -0.259274 -0.578 193 139 127
0.128914 -0.258377 -0.576 190 136 124
0.131914 -0.255686 -0.57 193 135 124
0.137214 -0.253443 -0.565 183 125 114
0.153613 -0.252097 -0.562 204 146 134
0.154684 -0.252097 -0.562 202 144 132
0.1692 -0.252994 -0.564 174 114 106
0.186934 -0.259723 -0.579 149 91 89
0.223171 -0.287983 -0.642 228 232 255
0.246329 -0.289329 -0.645 171 122 125
0.245638 -0.287086 -0.64 167 119 119
0.244621 -0.281703 -0.628 164 114 115
0.254204 -0.284394 -0.634 147 102 109
0.300394 -0.218006 -0.486 179 128 125
0.314646 -0.212623 -0.474 186 132 122
0.33048 -0.21352 -0.476 187 133 121
0.343065 -0.209034 -0.466 185 131 121
0.345871 -0.208586 -0.465 188 134 124
0.348663 -0.208137 -0.464 185 131 121
0.349547 -0.208137 -0.464 187 130 121
0.357386 -0.208586 -0.465 181 126 119
0.363257 -0.209931 -0.468 179 124 117
0.372429 -0.212623 -0.474 162 112 105
0.407665 -0.222491 -0.496 143 114 110
0.130829 -0.256771 -0.57 185 131 121
0.136379 -0.25497 -0.566 187 127 117
0.13912 -0.254069 -0.564 194 136 125
0.141018 -0.253618 -0.563 190 130 120
0.14719 -0.253168 -0.562 197 144 130
0.148261 -0.253168 -0.562 199 146 132
0.162177 -0.253168 -0.562 177 117 106
0.164318 -0.253168 -0.562 187 123 111
0.187257 -0.261276 -0.58 145 90 87
0.189336 -0.262628 -0.583 141 91 90
0.195642 -0.266682 -0.592 121 81 90
0.245047 -0.280647 -0.623 150 103 111
0.300052 -0.216679 -0.481 173 122 119
0.303009 -0.214877 -0.477 178 123 118
0.33048 -0.214427 -0.476 188 134 122
0.3325 -0.213976 -0.475 188 132 119
0.33634 -0.211273 -0.469 187 133 123
0.347779 -0.209021 -0.464 185 131 121
0.353966 -0.209021 -0.464 183 129 119
0.35485 -0.209021 -0.464 182 128 118
0.406843 -0.222986 -0.495 144 113 108
-0.125193 -0.281833 -0.623 96 99 106
-0.102939 -0.261476 -0.578 105 105 113
-0.101838 -0.261476 -0.578 93 94 99
-0.100326 -0.263286 -0.582 73 72 78
-0.0931286 -0.278214 -0.615 99 100 105
-0.0916714 -0.280929 -0.621 91 92 97
0.125823 -0.263286 -0.582 195 141 131
0.130829 -0.257857 -0.57 190 133 122
0.135301 -0.256048 -0.566 190 130 119
0.141018 -0.25469 -0.563 192 132 121
0.149331 -0.254238 -0.562 197 139 127
0.150402 -0.254238 -0.562 200 142 130
0.156825 -0.254238 -0.562 188 130 118
0.189661 -0.26419 -0.584 127 77 86
0.245443 -0.280929 -0.621 140 96 119
0.258643 -0.289071 -0.639 225 206 226
0.312703 -0.236143 -0.522 172 136 148
0.319388 -0.213976 -0.473 184 130 118
0.343065 -0.21081 -0.466 186 132 122
0.345871 -0.210357 -0.465 187 133 123
0.3565 -0.210357 -0.465 184 127 120
-0.107529 -0.263031 -0.579 109 109 117
-0.0959276 -0.270754 -0.596 138 139 141
-0.0906 -0.2862 -0.63 89 90 95
0.124007 -0.28302 -0.623 195 141 131
0.124455 -0.266211 -0.586 196 142 132
0.125143 -0.265303 -0.584 197 143 133
0.125607 -0.26394 -0.581 195 138 127
0.134223 -0.257126 -0.566 186 126 115
0.162177 -0.255309 -0.562 173 113 105
0.163248 -0.255309 -0.562 179 119 111
0.164318 -0.255309 -0.562 187 125 114
0.239072 -0.284383 -0.626 175 124 123
0.249804 -0.284383 -0.626 131 96 118
0.255009 -0.287563 -0.633 140 120 145
0.312654 -0.213969 -0.471 186 129 118
0.324793 -0.214877 -0.473 186 132 120
0.329298 -0.214877 -0.473 184 130 120
0.333996 -0.214423 -0.472 186 134 123
0.351314 -0.210789 -0.464 186 129 120
0.398186 -0.222146 -0.489 138 93 90
0.406021 -0.224417 -0.494 141 103 100
0.4175 -0.227597 -0.501 181 162 164
-0.102939 -0.263678 -0.578 102 102 110
-0.0903124 -0.286488 -0.628 86 87 89
0.12321 -0.282382 -0.619 191 138 130
0.126059 -0.263678 -0.578 189 132 123
0.134223 -0.258204 -0.566 184 124 113
0.135897 -0.257291 -0.564 184 124 113
0.141838 -0.256379 -0.562 197 139 127
0.163248 -0.256379 -0.562 181 121 113
0.17581 -0.259116 -0.568 166 103 98
0.23788 -0.285575 -0.626 169 119 120
0.238389 -0.279189 -0.612 160 111 115
0.246626 -0.283294 -0.621 146 102 117
0.257833 -0.290593 -0.637 190 171 199
0.3094 -0.232657 -0.51 175 127 127
0.305849 -0.228551 -0.501 182 128 128
0.303811 -0.216234 -0.474 181 124 117
0.305873 -0.215778 -0.473 181 124 117
0.306774 -0.215778 -0.473 182 125 118
0.311095 -0.21441 -0.47 184 127 116
0.316467 -0.21441 -0.47 182 128 116
0.321626 -0.214866 -0.471 185 131 121
0.324107 -0.215322 -0.472 185 131 121
0.335447 -0.213953 -0.469 188 136 123
0.336685 -0.213041 -0.467 189 137 124
0.338627 -0.212585 -0.466 190 138 125
0.348663 -0.211672 -0.464 186 132 122
0.353082 -0.211672 -0.464 184 127 118
0.35485 -0.211672 -0.464 181 124 115
0.374234 -0.216234 -0.474 147 102 96
0.3887 -0.22034 -0.483 135 94 88
0.414883 -0.227639 -0.499 173 157 158
0.416667 -0.228095 -0.5 179 163 164
0.418454 -0.228551 -0.501 185 174 178
-0.122414 -0.281729 -0.615 90 93 98
-0.107714 -0.265695 -0.58 98 98 106
-0.10404 -0.264779 -0.578 99 99 107
-0.100498 -0.26707 -0.583 74 73 81
-0.0978686 -0.272109 -0.594 207 207 209
-0.0938857 -0.284019 -0.62 132 133 135
-0.0913629 -0.287226 -0.627 100 101 103
0.123586 -0.289974 -0.633 188 135 127
0.123214 -0.28631 -0.625 188 135 127
0.122414 -0.281729 -0.615 190 137 129
0.125174 -0.265237 -0.579 191 134 125
0.13122 -0.25974 -0.567 187 127 116
0.135062 -0.258824 -0.565 181 121 110
0.144791 -0.256991 -0.561 196 138 126
0.155754 -0.25745 -0.562 184 124 116
0.161107 -0.25745 -0.562 174 111 104
0.171652 -0.258824 -0.565 162 102 101
0.257429 -0.291349 -0.636 173 157 186
0.325595 -0.250578 -0.547 173 145 157
0.306774 -0.216679 -0.473 181 124 117
0.308169 -0.215763 -0.471 182 125 116
0.328105 -0.215305 -0.47 183 131 120
0.329895 -0.215305 -0.47 186 134 123
0.364149 -0.214389 -0.468 167 110 101
0.375929 -0.217595 -0.475 144 101 94
0.406962 -0.226299 -0.494 140 107 100
0.429014 -0.23317 -0.509 187 183 197
-0.103117 -0.26634 -0.579 93 93 101
-0.101434 -0.26772 -0.582 78 77 85
-0.0930038 -0.28612 -0.622 154 155 157
0.122623 -0.28612 -0.622 182 132 125
0.125623 -0.26496 -0.576 188 131 122
0.135062 -0.2599 -0.565 182 122 112
0.136729 -0.25898 -0.563 184 124 114
0.174728 -0.26128 -0.568 160 98 99
0.257024 -0.2921 -0.635 180 166 192
0.334047 -0.25898 -0.563 182 151 159
0.322711 -0.24702 -0.537 179 138 144
0.31871 -0.24242 -0.527 181 138 145
0.314631 -0.23782 -0.517 189 142 148
0.303717 -0.22126 -0.481 177 121 120
0.305617 -0.21804 -0.474 181 124 117
0.311327 -0.21574 -0.469 183 126 115
0.36504 -0.21528 -0.468 158 105 97
0.3887 -0.22218 -0.483 135 94 88
0.410499 -0.22816 -0.496 152 122 114
-0.124791 -0.286843 -0.621 87 90 95
-0.117533 -0.278067 -0.602 87 90 95
-0.107714 -0.267905 -0.58 87 90 97
-0.0958571 -0.281762 -0.61 180 180 178
-0.0922619 -0.28869 -0.625 159 161 158
0.12081 -0.272524 -0.59 190 133 126
0.133749 -0.260514 -0.564 183 124 116
0.147997 -0.259129 -0.561 189 126 119
0.155754 -0.25959 -0.562 182 119 112
0.162177 -0.25959 -0.562 178 115 110
0.236441 -0.280376 -0.607 170 116 114
0.245434 -0.285457 -0.618 141 95 97
0.307221 -0.228181 -0.494 181 135 138
0.304349 -0.222638 -0.482 176 125 122
0.30652 -0.218943 -0.474 180 123 116
0.30954 -0.216633 -0.469 182 125 116
0.325817 -0.216171 -0.468 184 130 118
0.346757 -0.214786 -0.465 186 130 117
0.353843 -0.214786 -0.465 182 122 112
0.356379 -0.215248 -0.466 179 119 109
0.373445 -0.218481 -0.473 141 94 88
0.376833 -0.219405 -0.475 136 93 86
-0.0949133 -0.287098 -0.619 171 173 170
0.120623 -0.281069 -0.606 187 130 121
0.149066 -0.260197 -0.561 189 129 121
0.154684 -0.260661 -0.562 176 113 108
0.16461 -0.261125 -0.563 174 111 106
0.171956 -0.262516 -0.566 158 96 97
0.236834 -0.294983 -0.636 181 118 113
0.232971 -0.280141 -0.604 191 133 131
0.306278 -0.226339 -0.488 182 136 138
0.305949 -0.225411 -0.486 182 132 131
0.313337 -0.217063 -0.468 181 127 115
0.314229 -0.217063 -0.468 181 127 115
0.318005 -0.216599 -0.467 182 129 115
0.32601 -0.216599 -0.467 183 129 117
0.332413 -0.216135 -0.466 186 132 120
0.333301 -0.216135 -0.466 187 133 121
0.395743 -0.225411 -0.486 131 94 85
0.403555 -0.22773 -0.491 138 94 91
0.415949 -0.230977 -0.498 177 152 155
0.4248 -0.23376 -0.504 190 183 191
-0.113326 -0.275703 -0.592 82 82 90
-0.1044 -0.270114 -0.58 81 81 89
-0.100843 -0.272443 -0.585 72 70 81
-0.0994571 -0.274771 -0.59 118 116 127
-0.09476 -0.287811 -0.618 181 183 182
0.120026 -0.280826 -0.603 183 128 125
0.152543 -0.261731 -0.562 165 102 97
0.155754 -0.261731 -0.562 169 104 100
0.167828 -0.262197 -0.563 161 97 95
0.1692 -0.262663 -0.564 160 96 94
0.17954 -0.266854 -0.573 159 97 98
0.21469 -0.295729 -0.635 196 195 227
0.230981 -0.285949 -0.614 189 134 129
0.2299 -0.281757 -0.605 202 138 138
0.306466 -0.224009 -0.481 179 124 119
0.312446 -0.217954 -0.468 180 126 116
0.315336 -0.217489 -0.467 180 126 114
0.32265 -0.217023 -0.466 181 127 115
0.327271 -0.216557 -0.465 188 131 122
0.33629 -0.216091 -0.464 190 136 124
0.3441 -0.216557 -0.465 187 131 118
0.358923 -0.217489 -0.467 169 112 103
0.36839 -0.218886 -0.47 143 96 88
0.370071 -0.219351 -0.471 141 94 86
0.37944 -0.22168 -0.476 129 88 82
0.383656 -0.223077 -0.479 135 91 80
0.40449 -0.228666 -0.491 140 96 93
0.414167 -0.23146 -0.497 161 129 130
0.417734 -0.232391 -0.499 180 154 155
-0.120454 -0.285715 -0.611 76 79 86
-0.113517 -0.277298 -0.593 77 80 87
-0.1044 -0.271219 -0.58 79 79 87
-0.10007 -0.274492 -0.587 70 68 79
-0.0983629 -0.279169 -0.597 224 223 231
0.119768 -0.278701 -0.596 186 131 126
0.1316 -0.263737 -0.564 189 130 122
0.132674 -0.263737 -0.564 190 131 123
0.144791 -0.262334 -0.561 192 132 124
0.166755 -0.26327 -0.563 160 96 96
0.167828 -0.26327 -0.563 157 96 93
0.171956 -0.264672 -0.566 158 92 93
0.17334 -0.26514 -0.567 161 95 97
0.229525 -0.281039 -0.601 199 140 136
0.308823 -0.220716 -0.472 181 125 112
0.315336 -0.218378 -0.467 179 125 113
0.320874 -0.21791 -0.466 185 128 119
0.321957 -0.217443 -0.465 183 126 117
0.342476 -0.216975 -0.464 186 130 117
0.345871 -0.217443 -0.465 184 128 115
0.355365 -0.218378 -0.467 175 117 105
0.377738 -0.222119 -0.475 132 89 82
0.389731 -0.225392 -0.482 132 91 85
0.40016 -0.228198 -0.488 134 93 87
0.402733 -0.229133 -0.49 135 94 88
0.423114 -0.234745 -0.502 186 177 180
-0.111819 -0.277019 -0.59 76 79 84
-0.103473 -0.272793 -0.581 75 75 83
-0.0978771 -0.282184 -0.601 225 224 232
-0.0938857 -0.291105 -0.62 192 194 193
0.12431 -0.269976 -0.575 189 132 125
0.13838 -0.263403 -0.561 186 127 119
0.143467 -0.262933 -0.56 188 128 120
0.14586 -0.263403 -0.561 187 127 119
0.150134 -0.263403 -0.561 166 101 95
0.157895 -0.263872 -0.562 172 108 106
0.166755 -0.264342 -0.563 156 95 94
0.167828 -0.264342 -0.563 155 95 94
0.170576 -0.265281 -0.565 156 92 93
0.198129 -0.283123 -0.603 176 181 213
0.228761 -0.281245 -0.599 196 138 134
0.307813 -0.223493 -0.476 179 125 115
0.322149 -0.217859 -0.464 183 126 117
0.329391 -0.21739 -0.463 188 131 120
0.332919 -0.21739 -0.463 189 132 121
0.333801 -0.21739 -0.463 190 134 121
0.348529 -0.218329 -0.465 182 124 112
0.362247 -0.220207 -0.469 158 104 92
0.369174 -0.221146 -0.471 135 94 88
0.370857 -0.221615 -0.472 133 92 86
0.377738 -0.223024 -0.475 129 89 81
0.37944 -0.223493 -0.476 130 90 82
0.388007 -0.225841 -0.481 131 93 84
0.396669 -0.228189 -0.486 132 94 85
-0.099 -0.280029 -0.594 148 148 158
-0.0972152 -0.284743 -0.604 222 221 227
-0.0954714 -0.289929 -0.615 210 211 213
0.119681 -0.288986 -0.613 188 131 122
0.132439 -0.265414 -0.563 188 129 121
0.149066 -0.264471 -0.561 171 103 100
0.16461 -0.265414 -0.563 156 96 96
0.178137 -0.269657 -0.572 155 96 98
0.181577 -0.271543 -0.576 152 92 92
0.229387 -0.2904 -0.616 190 131 133
0.227566 -0.286629 -0.608 191 132 134
0.227219 -0.284743 -0.604 188 135 129
0.242654 -0.288043 -0.611 143 98 95
0.258233 -0.299357 -0.635 223 216 232
0.309938 -0.228643 -0.485 179 141 140
0.31199 -0.221571 -0.47 178 125 117
0.314229 -0.220629 -0.468 183 124 110
0.316436 -0.219686 -0.466 183 129 117
0.324982 -0.218271 -0.463 188 131 122
0.32516 -0.2178 -0.462 186 129 118
0.337329 -0.218271 -0.463 191 133 121
0.36046 -0.2211 -0.469 164 107 96
0.36738 -0.222043 -0.471 140 97 91
0.388007 -0.226757 -0.481 130 92 83
0.395852 -0.228643 -0.485 132 94 85
0.414278 -0.233829 -0.496 149 118 115
0.417846 -0.234771 -0.498 159 138 137
0.427567 -0.238071 -0.505 178 170 185
-0.0991667 -0.281633 -0.595 112 112 122
0.121597 -0.275953 -0.583 185 130 123
0.124093 -0.271693 -0.574 190 133 126
0.127124 -0.268853 -0.568 190 133 126
0.162466 -0.266487 -0.563 162 98 96
0.168126 -0.26696 -0.564 153 95 94
0.179853 -0.271693 -0.574 150 90 90
0.245015 -0.290627 -0.614 134 102 103
0.251786 -0.295833 -0.625 184 164 173
0.30958 -0.22862 -0.483 183 134 127
0.311095 -0.222467 -0.47 178 125 117
0.322149 -0.219627 -0.464 182 125 114
0.32428 -0.21868 -0.462 188 131 120
0.327969 -0.218207 -0.461 186 132 120
0.32956 -0.21868 -0.462 188 131 120
0.344244 -0.219627 -0.464 183 125 114
0.346757 -0.2201 -0.465 182 124 112
0.354475 -0.221047 -0.467 173 115 101
0.369958 -0.223413 -0.472 131 90 84
0.381146 -0.22578 -0.477 128 90 81
0.39934 -0.230513 -0.487 133 95 86
0.4046 -0.231933 -0.49 135 96 89
0.146667 -0.266133 -0.56 176 109 103
0.154684 -0.267084 -0.562 182 114 111
0.156825 -0.267084 -0.562 180 115 111
0.160036 -0.267084 -0.562 176 112 110
0.163538 -0.267559 -0.563 155 91 89
0.173646 -0.269935 -0.568 155 94 99
0.178449 -0.272311 -0.573 148 92 93
0.22875 -0.283242 -0.596 189 129 128
0.25742 -0.300826 -0.633 222 215 233
0.309753 -0.227639 -0.479 176 126 119
0.310131 -0.225263 -0.474 182 124 112
0.309722 -0.224312 -0.472 179 125 115
0.31086 -0.223837 -0.471 179 125 115
0.31512 -0.222411 -0.468 179 125 113
0.320186 -0.220986 -0.465 183 126 115
0.33836 -0.21956 -0.462 188 130 118
0.358673 -0.222887 -0.469 166 108 94
0.376833 -0.225738 -0.475 128 88 80
0.380237 -0.226689 -0.477 125 85 75
0.384569 -0.227639 -0.479 127 89 80
0.39934 -0.231441 -0.487 134 94 86
0.4046 -0.232867 -0.49 135 95 87
0.417846 -0.236669 -0.498 141 111 109
0.421429 -0.237619 -0.5 155 134 141
0.11921 -0.300123 -0.629 189 136 130
0.12118 -0.27722 -0.581 187 132 125
0.12798 -0.27054 -0.567 184 127 118
0.1392 -0.2672 -0.56 190 131 125
0.140267 -0.2672 -0.56 190 129 124
0.161107 -0.268154 -0.562 157 93 91
0.226851 -0.283423 -0.594 191 132 128
0.25419 -0.299646 -0.628 229 209 218
0.312886 -0.224257 -0.47 178 124 114
0.321265 -0.221394 -0.464 182 125 114
0.32516 -0.22044 -0.462 186 132 120
0.32604 -0.22044 -0.462 186 132 120
0.350917 -0.222826 -0.467 173 115 103
0.351807 -0.222826 -0.467 169 111 99
0.356126 -0.223303 -0.468 164 106 94
0.376833 -0.226643 -0.475 127 89 80
0.395036 -0.230937 -0.484 132 92 84
0.40109 -0.232846 -0.488 132 92 84
0.4046 -0.2338 -0.49 135 95 87
0.411667 -0.235709 -0.494 139 98 92
0.413443 -0.236186 -0.495 140 101 94
0.423226 -0.239049 -0.501 159 136 144
0.425027 -0.239526 -0.502 169 155 172
-0.1036 -0.28168 -0.588 77 77 85
0.118127 -0.292698 -0.611 189 131 127
0.124314 -0.273057 -0.57 195 138 129
0.127754 -0.271141 -0.566 180 123 114
0.146667 -0.268267 -0.56 171 108 99
0.154684 -0.269225 -0.562 184 121 114
0.1695 -0.270662 -0.565 141 88 84
0.226671 -0.294614 -0.615 194 133 132
0.231021 -0.285512 -0.596 179 116 111
0.234466 -0.28695 -0.599 162 104 100
0.243818 -0.292698 -0.611 130 96 97
0.379802 -0.302758 -0.632 212 195 211
0.382791 -0.301321 -0.629 180 162 174
0.311314 -0.229943 -0.48 182 128 118
0.31218 -0.22659 -0.473 181 124 113
0.313781 -0.225152 -0.47 177 123 111
0.316903 -0.224194 -0.468 182 126 113
0.319987 -0.223236 -0.466 182 126 113
0.321265 -0.222278 -0.464 183 126 115
0.322336 -0.221799 -0.463 184 127 116
0.345128 -0.222278 -0.464 177 119 107
0.352696 -0.223715 -0.467 167 109 97
0.355234 -0.224194 -0.468 166 108 96
0.36894 -0.22659 -0.473 128 87 81
0.409894 -0.23617 -0.493 137 94 87
0.417007 -0.238087 -0.497 137 102 100
0.426831 -0.240961 -0.503 170 152 168
-0.118127 -0.293862 -0.611 83 84 89
0.119077 -0.282319 -0.587 186 133 125
0.123 -0.276067 -0.574 189 132 123
0.138133 -0.269333 -0.56 186 127 121
0.1456 -0.269333 -0.56 172 111 106
0.158966 -0.270295 -0.562 161 100 97
0.183943 -0.278952 -0.58 123 74 78
0.193558 -0.286648 -0.596 157 153 176
0.238724 -0.290495 -0.604 143 95 93
0.253381 -0.301076 -0.626 229 208 215
0.314644 -0.234705 -0.488 182 141 139
0.320381 -0.223162 -0.464 182 126 113
0.32709 -0.221719 -0.461 186 129 118
0.331638 -0.221238 -0.46 188 132 119
0.341738 -0.222681 -0.463 181 125 112
0.350166 -0.224124 -0.466 169 111 99
0.356887 -0.225567 -0.469 162 102 91
0.364689 -0.226529 -0.471 137 89 79
0.380237 -0.229414 -0.477 124 87 79
0.382855 -0.229895 -0.478 128 90 81
0.405533 -0.235667 -0.49 135 95 87
0.407296 -0.236148 -0.491 137 97 89
0.434831 -0.244805 -0.509 138 134 151
-0.10955 -0.287783 -0.596 86 87 92
-0.0978771 -0.290197 -0.601 83 86 91
-0.0946952 -0.294543 -0.61 105 106 111
0.118234 -0.286817 -0.594 190 137 133
0.126676 -0.273297 -0.566 178 121 112
0.134933 -0.2704 -0.56 194 135 127
0.1392 -0.2704 -0.56 190 131 123
0.140016 -0.269917 -0.559 184 125 117
0.146667 -0.2704 -0.56 172 111 106
0.157895 -0.271366 -0.562 164 106 95
0.223457 -0.286817 -0.594 197 133 133
0.22421 -0.286334 -0.593 199 135 135
0.232546 -0.288266 -0.597 161 90 84
0.238724 -0.291646 -0.604 142 94 90
0.252976 -0.301786 -0.625 231 212 218
0.315793 -0.22646 -0.469 180 124 111
0.327257 -0.222114 -0.46 188 130 118
0.328133 -0.222114 -0.46 189 131 119
0.33836 -0.22308 -0.462 183 125 111
0.350166 -0.225011 -0.466 169 111 99
0.384569 -0.231289 -0.479 128 88 78
0.388923 -0.232254 -0.481 130 90 80
0.419743 -0.240463 -0.498 149 119 119
-0.120657 -0.299583 -0.618 92 95 100
-0.110102 -0.290372 -0.599 87 90 95
-0.0988571 -0.290857 -0.6 79 83 86
0.117505 -0.300552 -0.62 188 135 129
0.127529 -0.27389 -0.565 184 127 118
0.128377 -0.273406 -0.564 185 128 119
0.138133 -0.271467 -0.56 186 127 119
0.143467 -0.271467 -0.56 175 115 107
0.144533 -0.271467 -0.56 172 112 104
0.183626 -0.280677 -0.579 138 97 101
0.226517 -0.301037 -0.621 195 127 124
0.317151 -0.237049 -0.489 188 144 143
0.314315 -0.232201 -0.479 189 133 132
0.31758 -0.227353 -0.469 182 125 114
0.317794 -0.226869 -0.468 181 124 113
0.345128 -0.22493 -0.464 175 117 105
0.351807 -0.226384 -0.467 169 106 97
0.362894 -0.228323 -0.471 137 94 85
0.369841 -0.229292 -0.473 127 84 75
0.383766 -0.231716 -0.478 127 89 78
0.385481 -0.232201 -0.479 128 90 79
0.417953 -0.240927 -0.497 140 103 95
0.439345 -0.248198 -0.512 187 184 201
-0.0926743 -0.29784 -0.612 64 65 70
0.12474 -0.27594 -0.567 193 136 127
0.138951 -0.272047 -0.559 183 123 115
0.151203 -0.27302 -0.561 173 110 105
0.170878 -0.275453 -0.566 140 85 82
0.227149 -0.304653 -0.626 183 128 133
0.221545 -0.291027 -0.598 195 132 125
0.255793 -0.306113 -0.629 202 198 221
0.40222 -0.310007 -0.637 201 180 199
0.318733 -0.238467 -0.49 190 151 154
0.315628 -0.234087 -0.481 187 142 139
0.316914 -0.229707 -0.472 180 122 110
0.320874 -0.226787 -0.466 182 124 112
0.331638 -0.223867 -0.46 189 131 119
0.34012 -0.22484 -0.462 174 121 107
0.360333 -0.228733 -0.47 149 92 83
0.36894 -0.230193 -0.473 127 84 75
0.378533 -0.231653 -0.476 127 87 77
0.389839 -0.234087 -0.481 129 91 80
0.390755 -0.234087 -0.481 129 91 80
-0.0973762 -0.295586 -0.605 83 84 89
-0.0965419 -0.296563 -0.607 80 81 86
-0.0955429 -0.297051 -0.608 75 76 81
-0.09454 -0.29754 -0.609 70 71 76
-0.0935333 -0.298029 -0.61 69 70 75
-0.0916581 -0.299494 -0.613 67 68 73
0.14747 -0.273111 -0.559 179 119 109
0.155477 -0.274089 -0.561 163 103 92
0.161107 -0.274577 -0.562 141 88 80
0.163248 -0.274577 -0.562 138 88 87
0.16461 -0.275066 -0.563 136 86 85
0.195673 -0.292654 -0.599 96 72 88
0.221577 -0.289234 -0.592 189 128 125
0.223832 -0.289234 -0.592 181 121 120
0.243818 -0.298517 -0.611 123 90 97
0.324588 -0.243797 -0.499 190 160 168
0.327969 -0.225231 -0.461 184 126 115
0.33836 -0.22572 -0.462 180 122 110
0.341738 -0.226209 -0.463 173 117 104
0.344244 -0.226697 -0.464 170 114 101
0.35778 -0.22914 -0.469 153 99 89
0.364564 -0.230606 -0.472 130 90 82
0.368039 -0.231094 -0.473 124 84 76
0.376833 -0.232071 -0.475 126 86 76
0.408231 -0.239889 -0.491 137 94 85
0.428748 -0.245751 -0.503 168 150 150
-0.110416 -0.297719 -0.607 99 103 106
-0.0957 -0.2987 -0.609 75 76 81
-0.0876971 -0.303114 -0.618 58 59 64
0.117729 -0.301643 -0.615 187 134 130
0.118967 -0.284967 -0.581 191 133 129
0.12366 -0.2781 -0.567 193 136 129
0.133867 -0.274667 -0.56 190 131 125
0.175035 -0.279081 -0.569 130 76 74
0.176429 -0.279571 -0.57 138 87 86
0.223454 -0.289871 -0.591 176 116 116
0.2562 -0.309 -0.63 181 184 215
0.327495 -0.246219 -0.502 184 161 169
0.319152 -0.230524 -0.47 182 125 114
0.323729 -0.228071 -0.465 183 126 115
0.426089 -0.245729 -0.501 161 141 142
-0.111144 -0.300845 -0.611 94 98 101
-0.103138 -0.29789 -0.605 96 97 101
0.122796 -0.279672 -0.568 195 136 132
0.140829 -0.274749 -0.558 176 115 110
0.161889 -0.276226 -0.561 140 87 81
0.167051 -0.277703 -0.564 135 86 82
0.168424 -0.278195 -0.565 132 84 80
0.189517 -0.289028 -0.587 129 80 83
0.211464 -0.309708 -0.629 92 91 122
0.234466 -0.294936 -0.599 140 91 94
0.368452 -0.307738 -0.625 210 198 218
0.320209 -0.236835 -0.481 187 143 142
0.349278 -0.22945 -0.466 159 99 91
0.35778 -0.230927 -0.469 140 92 82
0.362894 -0.231911 -0.471 129 89 81
0.391568 -0.237328 -0.482 129 89 79
0.410937 -0.242251 -0.492 134 94 86
0.423437 -0.245698 -0.499 148 119 115
-0.10365 -0.300526 -0.608 101 102 107
0.116936 -0.304974 -0.617 190 135 132
0.116841 -0.290146 -0.587 193 132 127
0.125376 -0.279271 -0.565 192 133 129
0.142954 -0.275811 -0.558 178 115 110
0.159751 -0.277294 -0.561 144 91 85
0.175035 -0.281249 -0.569 134 86 84
0.185048 -0.286686 -0.58 132 86 88
0.19404 -0.293606 -0.594 116 77 82
0.22098 -0.30102 -0.609 201 139 140
0.219322 -0.292617 -0.592 197 139 137
0.221203 -0.292123 -0.591 188 130 128
0.323939 -0.241211 -0.488 186 151 158
0.321153 -0.23182 -0.469 178 121 110
0.32851 -0.228854 -0.463 186 128 116
0.380237 -0.235774 -0.477 125 87 76
0.3933 -0.23874 -0.483 130 90 80
0.400268 -0.240717 -0.487 130 90 82
1.14039 -0.320791 -0.649 203 206 195
-0.1107 -0.305157 -0.615 107 108 112
-0.105497 -0.303669 -0.612 109 108 114
-0.0986638 -0.304165 -0.613 99 100 104
-0.0966429 -0.305157 -0.615 92 93 97
0.115143 -0.307638 -0.62 191 137 135
0.126005 -0.279355 -0.563 194 133 128
0.127077 -0.279355 -0.563 193 132 127
0.149599 -0.27737 -0.559 178 117 112
0.153067 -0.277867 -0.56 172 112 102
0.181262 -0.28531 -0.575 142 94 92
0.220829 -0.292752 -0.59 185 127 123
0.283706 -0.322028 -0.649 161 168 210
0.326568 -0.230232 -0.464 185 127 116
0.332037 -0.229736 -0.463 183 125 114
0.337329 -0.229736 -0.463 177 119 107
0.34336 -0.230232 -0.464 164 104 96
0.362894 -0.233706 -0.471 124 84 74
0.36816 -0.234202 -0.472 119 81 70
0.381146 -0.236683 -0.477 127 87 77
0.382855 -0.237179 -0.478 126 86 76
0.433338 -0.250576 -0.505 175 156 160
-0.107186 -0.306329 -0.615 114 115 119
0.117454 -0.288397 -0.579 198 140 138
0.125154 -0.280926 -0.564 191 132 126
0.126851 -0.27993 -0.562 189 130 124
0.182674 -0.286903 -0.576 141 93 91
0.190635 -0.292382 -0.587 124 79 82
0.217826 -0.294374 -0.591 193 135 133
0.221952 -0.293876 -0.59 187 127 126
0.235249 -0.299355 -0.601 126 85 91
0.322764 -0.23809 -0.478 187 134 126
0.323143 -0.233109 -0.468 178 124 114
0.329391 -0.230618 -0.463 182 124 113
0.331155 -0.230618 -0.463 183 125 114
0.333801 -0.230618 -0.463 182 124 113
0.339092 -0.230618 -0.463 173 115 104
0.345128 -0.231116 -0.464 157 96 91
0.354343 -0.233109 -0.468 141 91 82
0.355234 -0.233109 -0.468 141 91 82
0.369841 -0.235599 -0.473 118 80 71
0.391568 -0.240082 -0.482 129 89 79
0.406467 -0.244067 -0.49 133 93 85
0.417214 -0.246557 -0.495 135 95 85
0.115198 -0.307 -0.614 188 138 131
0.116753 -0.2905 -0.581 193 138 135
0.138951 -0.2795 -0.559 179 116 111
0.154133 -0.28 -0.56 168 105 96
0.157614 -0.2805 -0.561 158 103 96
0.1695 -0.2825 -0.565 138 90 86
0.17226 -0.2835 -0.567 137 89 85
0.179227 -0.286 -0.572 142 94 92
0.185831 -0.2895 -0.579 132 86 86
0.192407 -0.2945 -0.589 125 79 82
0.195171 -0.297 -0.594 134 88 91
0.219378 -0.3055 -0.611 197 136 135
0.2167 -0.2955 -0.591 198 137 136
0.24819 -0.3095 -0.619 147 133 150
0.283269 -0.324 -0.648 143 156 198
0.324351 -0.2395 -0.479 183 134 129
0.32601 -0.2335 -0.467 183 125 114
0.3262 -0.233 -0.466 183 126 117
0.327975 -0.233 -0.466 181 122 108
0.335565 -0.2315 -0.463 177 120 109
0.342476 -0.232 -0.464 159 105 95
0.346757 -0.2325 -0.465 155 98 89
0.360333 -0.235 -0.47 124 84 74
0.369841 -0.2365 -0.473 119 79 71
0.386286 -0.24 -0.48 127 87 77
0.395036 -0.242 -0.484 129 91 80
0.420793 -0.2485 -0.497 134 94 84
0.115846 -0.292109 -0.582 196 135 130
0.134692 -0.280565 -0.559 176 117 111
0.140016 -0.280565 -0.559 180 120 112
0.1552 -0.281067 -0.56 169 109 101
0.158683 -0.281569 -0.561 148 93 86
0.176119 -0.285584 -0.569 139 93 93
0.248991 -0.311683 -0.621 165 152 172
0.294048 -0.326238 -0.65 237 239 254
0.328863 -0.233888 -0.466 181 123 111
0.378533 -0.238907 -0.476 124 84 76
0.388923 -0.241416 -0.481 129 89 79
0.406467 -0.245933 -0.49 131 93 82
0.41543 -0.247941 -0.494 134 96 87
0.427143 -0.250952 -0.5 138 112 113
0.11955 -0.286164 -0.568 190 132 128
0.14534 -0.28163 -0.559 181 118 113
0.150664 -0.28163 -0.559 174 111 104
0.153858 -0.28163 -0.559 167 104 95
0.215939 -0.298255 -0.592 200 139 138
0.223076 -0.297248 -0.59 174 113 112
0.231796 -0.301278 -0.598 139 88 95
0.233714 -0.302286 -0.6 132 81 88
0.286971 -0.326469 -0.648 222 223 251
0.296524 -0.327476 -0.65 213 215 230
0.297762 -0.327476 -0.65 215 214 230
0.299 -0.327476 -0.65 241 240 255
0.300238 -0.327476 -0.65 241 240 254
0.304721 -0.326972 -0.649 232 231 245
0.363381 -0.327476 -0.65 236 236 244
0.326176 -0.241325 -0.479 181 128 120
0.324727 -0.236287 -0.469 177 120 109
0.32562 -0.236287 -0.469 177 120 109
0.341443 -0.234271 -0.465 158 99 91
0.34839 -0.234775 -0.466 146 89 82
0.391568 -0.242836 -0.482 127 87 77
0.401195 -0.245355 -0.487 129 89 81
0.427143 -0.251905 -0.5 138 112 113
0.43344 -0.25392 -0.504 170 148 150
0.113594 -0.312531 -0.618 191 138 130
0.116643 -0.290786 -0.575 191 133 129
0.117533 -0.29028 -0.574 191 133 129
0.131733 -0.2832 -0.56 188 127 122
0.137887 -0.282694 -0.559 181 121 113
0.148534 -0.282694 -0.559 178 115 110
0.155988 -0.282694 -0.559 162 102 92
0.162957 -0.283706 -0.561 141 92 87
0.170576 -0.285729 -0.565 140 92 88
0.187257 -0.293314 -0.58 127 82 79
0.1911 -0.295843 -0.585 123 77 80
0.214193 -0.31506 -0.623 115 89 98
0.2156 -0.29736 -0.588 191 131 130
0.22458 -0.298877 -0.591 163 105 103
0.310423 -0.327703 -0.648 254 253 255
0.31461 -0.328209 -0.649 252 253 255
0.320791 -0.328209 -0.649 249 250 254
0.343571 -0.328714 -0.65 196 214 255
0.327538 -0.243249 -0.481 185 135 128
0.325947 -0.24072 -0.476 177 120 109
0.332413 -0.235663 -0.466 177 119 107
0.334357 -0.235157 -0.465 177 119 108
0.343065 -0.235663 -0.466 155 101 91
0.347503 -0.235663 -0.466 146 89 80
0.34839 -0.235663 -0.466 143 88 81
0.377627 -0.24072 -0.476 123 83 75
0.41365 -0.249317 -0.493 134 95 88
0.425338 -0.252351 -0.499 135 101 92
0.430764 -0.253869 -0.502 155 133 135
0.441514 -0.257914 -0.51 186 175 181
0.113134 -0.300003 -0.591 187 137 130
0.114019 -0.29645 -0.584 191 138 134
0.121715 -0.28579 -0.563 193 134 128
0.12364 -0.285282 -0.562 188 129 123
0.125557 -0.284774 -0.561 184 123 118
0.128533 -0.284267 -0.56 187 126 121
0.1328 -0.284267 -0.56 184 124 116
0.148534 -0.283759 -0.559 174 111 104
0.151729 -0.283759 -0.559 174 110 101
0.162957 -0.284774 -0.561 142 93 88
0.177514 -0.289343 -0.57 138 90 86
0.183452 -0.291881 -0.575 135 87 85
0.186934 -0.293911 -0.579 133 85 81
0.214193 -0.316247 -0.623 115 89 98
0.215426 -0.31117 -0.613 186 127 133
0.215233 -0.297972 -0.587 190 129 126
0.21896 -0.29848 -0.588 183 119 117
0.234493 -0.305587 -0.602 129 84 91
0.29808 -0.328937 -0.648 229 229 241
0.30672 -0.328937 -0.648 250 249 255
0.326972 -0.329445 -0.649 231 238 255
0.338098 -0.329445 -0.649 191 210 250
0.34481 -0.329952 -0.65 224 234 255
0.346048 -0.329952 -0.65 228 238 255
0.326383 -0.240611 -0.474 177 121 108
0.326314 -0.238581 -0.47 175 118 107
0.330458 -0.237058 -0.467 175 117 105
0.334189 -0.23655 -0.466 173 116 105
0.337739 -0.23655 -0.466 167 110 99
0.34129 -0.23655 -0.466 156 99 88
0.349278 -0.23655 -0.466 141 88 80
0.356126 -0.237566 -0.468 119 81 70
0.362124 -0.238581 -0.47 117 77 69
0.369841 -0.240104 -0.473 119 79 71
0.370742 -0.240104 -0.473 119 79 71
0.375929 -0.241119 -0.475 124 84 76
0.382855 -0.242642 -0.478 123 85 74
0.389839 -0.244165 -0.481 125 87 78
0.391568 -0.244672 -0.482 125 87 78
0.410102 -0.249241 -0.491 132 94 85
0.41459 -0.250256 -0.493 132 95 87
0.418157 -0.251271 -0.495 131 94 86
0.422687 -0.252287 -0.497 132 95 86
0.112417 -0.314886 -0.618 197 140 131
0.117124 -0.291448 -0.572 189 131 127
0.124489 -0.285843 -0.561 184 125 119
0.128763 -0.285843 -0.561 188 127 122
0.1328 -0.285333 -0.56 183 123 113
0.14321 -0.284824 -0.559 185 122 113
0.14747 -0.284824 -0.559 171 110 105
0.168126 -0.287371 -0.564 142 91 88
0.177203 -0.289919 -0.569 140 91 87
0.18519 -0.293995 -0.577 139 89 88
0.202387 -0.306733 -0.602 106 64 78
0.213559 -0.311319 -0.611 177 125 127
0.213274 -0.302657 -0.594 193 138 131
0.213323 -0.301129 -0.591 196 138 134
0.21896 -0.2996 -0.588 179 111 108
0.295611 -0.330171 -0.648 241 240 254
0.319063 -0.330171 -0.648 233 238 244
0.325234 -0.330171 -0.648 217 225 246
0.344279 -0.330681 -0.649 233 238 255
0.355405 -0.330681 -0.649 247 249 255
0.359113 -0.330681 -0.649 255 252 255
0.327496 -0.241005 -0.473 173 116 105
0.327009 -0.239986 -0.471 174 117 106
0.3283 -0.238967 -0.469 178 119 105
0.334906 -0.237948 -0.467 172 116 103
0.349138 -0.237948 -0.467 140 87 79
0.364689 -0.239986 -0.471 116 76 68
0.39422 -0.2461 -0.483 124 85 78
0.403878 -0.248648 -0.488 129 92 84
0.4074 -0.249667 -0.49 132 92 82
0.411874 -0.250686 -0.492 132 94 85
0.428951 -0.255271 -0.501 143 110 103
0.437088 -0.257819 -0.506 187 165 168
0.11256 -0.30072 -0.588 189 139 130
0.11485 -0.295094 -0.577 187 132 127
0.120643 -0.287934 -0.563 189 132 125
0.131733 -0.2864 -0.56 182 124 112
0.144275 -0.285889 -0.559 184 125 111
0.155988 -0.285889 -0.559 165 105 97
0.165389 -0.287423 -0.562 142 91 88
0.190447 -0.298163 -0.583 134 93 91
0.212788 -0.306346 -0.599 198 137 134
0.243467 -0.31504 -0.616 103 94 111
0.308234 -0.330383 -0.646 253 254 255
0.310695 -0.330383 -0.646 251 252 255
0.316106 -0.330894 -0.647 248 247 253
0.317338 -0.330894 -0.647 224 227 242
0.335109 -0.331406 -0.648 201 216 249
0.337577 -0.331406 -0.648 202 217 250
0.35046 -0.331917 -0.649 208 210 223
0.362263 -0.331406 -0.648 215 205 214
0.308838 -0.274126 -0.536 207 195 219
0.30334 -0.267477 -0.523 206 191 210
0.305373 -0.26492 -0.518 195 183 203
0.328189 -0.242417 -0.474 170 116 104
0.330087 -0.23986 -0.469 172 116 103
