ply
format ascii 1.0
comment Created by Open3D
element vertex 1285
property double x
property double y
property double z
property uchar red
property uchar green
property uchar blue
end_header
0.506401 -0.410898 -0.619 101 134 179
0.511117 -0.410898 -0.619 163 178 209
0.517354 -0.410234 -0.618 178 178 190
0.47476 -0.36244 -0.546 161 125 113
0.472473 -0.359121 -0.541 164 127 111
0.47029 -0.355138 -0.535 171 129 113
0.471696 -0.347172 -0.523 184 136 113
0.486062 -0.341862 -0.515 183 133 108
0.0722457 -0.358154 -0.538 203 157 131
0.09774 -0.361483 -0.543 176 121 100
0.116383 -0.371469 -0.558 142 95 85
0.123224 -0.376129 -0.565 134 90 81
0.151809 -0.397431 -0.597 45 45 71
0.159163 -0.398763 -0.599 128 132 159
0.173995 -0.398763 -0.599 77 98 143
0.175136 -0.398763 -0.599 71 89 129
0.177418 -0.398763 -0.599 93 111 149
0.183123 -0.398763 -0.599 165 168 183
0.195673 -0.398763 -0.599 171 170 188
0.217714 -0.399429 -0.6 99 111 137
0.360747 -0.404754 -0.608 216 228 250
0.364221 -0.404754 -0.608 149 172 204
0.37062 -0.40542 -0.609 147 171 209
0.385171 -0.406086 -0.61 178 191 223
0.413921 -0.408083 -0.613 183 182 196
0.419759 -0.408083 -0.613 97 118 147
0.421613 -0.408749 -0.614 102 123 152
0.441043 -0.409414 -0.615 164 184 219
0.444557 -0.409414 -0.615 184 199 218
0.4469 -0.409414 -0.615 104 117 149
0.449243 -0.409414 -0.615 110 123 155
0.464053 -0.41008 -0.616 193 192 206
0.467157 -0.410746 -0.617 192 190 201
0.481641 -0.412077 -0.619 192 191 205
0.488715 -0.412077 -0.619 102 116 151
0.49659 -0.412743 -0.62 143 165 206
0.497771 -0.412743 -0.62 97 124 171
0.502864 -0.412077 -0.619 84 121 174
0.4841 -0.342843 -0.515 183 136 108
0.486062 -0.342843 -0.515 181 134 108
0.489005 -0.342843 -0.515 181 131 106
0.0558162 -0.379875 -0.569 197 155 131
0.0710886 -0.358511 -0.537 202 156 132
0.0835181 -0.359179 -0.538 202 154 131
0.0855676 -0.359179 -0.538 200 152 129
0.100176 -0.363852 -0.545 168 115 97
0.111127 -0.369193 -0.553 148 96 85
0.116383 -0.372531 -0.558 148 96 83
0.119146 -0.374534 -0.561 145 93 82
0.153202 -0.399236 -0.598 79 83 112
0.160036 -0.399236 -0.598 130 134 159
0.169149 -0.399236 -0.598 111 128 171
0.174844 -0.399236 -0.598 76 94 134
0.184264 -0.399904 -0.599 166 167 187
0.197955 -0.399904 -0.599 179 181 196
0.200237 -0.399904 -0.599 156 158 170
0.210506 -0.399904 -0.599 190 192 215
0.353216 -0.405245 -0.607 161 167 189
0.370011 -0.405912 -0.608 143 163 200
0.37758 -0.40658 -0.609 220 228 251
0.392143 -0.407248 -0.61 220 217 228
0.397441 -0.407915 -0.611 210 213 222
0.418591 -0.40925 -0.613 95 110 141
0.425122 -0.409918 -0.614 196 203 231
0.436817 -0.409918 -0.614 91 126 182
0.441043 -0.410586 -0.615 158 182 220
0.45936 -0.411253 -0.616 194 195 200
0.464053 -0.411253 -0.616 193 192 206
0.465227 -0.411253 -0.616 191 191 201
0.49028 -0.412589 -0.618 166 181 214
0.511816 -0.411921 -0.617 120 128 147
0.477369 -0.366523 -0.549 160 123 114
0.469166 -0.352503 -0.528 178 132 109
0.469281 -0.351835 -0.527 179 133 110
0.470794 -0.348497 -0.522 183 137 114
0.0632571 -0.361543 -0.54 199 153 129
0.076061 -0.358865 -0.536 200 155 132
0.0791238 -0.358865 -0.536 202 154 131
0.0876171 -0.360204 -0.538 191 141 116
0.0898333 -0.360873 -0.539 189 137 113
0.0965276 -0.362882 -0.542 179 125 101
0.114907 -0.372255 -0.556 148 94 82
0.150671 -0.399706 -0.597 62 63 84
0.169149 -0.400375 -0.598 122 133 165
0.174844 -0.400375 -0.598 73 96 146
0.178261 -0.400375 -0.598 115 136 165
0.186234 -0.400375 -0.598 158 163 192
0.19193 -0.400375 -0.598 137 146 177
0.194208 -0.400375 -0.598 154 160 192
0.195347 -0.400375 -0.598 165 162 189
0.198764 -0.400375 -0.598 161 159 180
0.345709 -0.405731 -0.606 242 241 255
0.358997 -0.406401 -0.607 233 234 252
0.360153 -0.406401 -0.607 212 218 242
0.372328 -0.40707 -0.608 180 195 228
0.373486 -0.40707 -0.608 180 195 228
0.394467 -0.40841 -0.61 217 215 228
0.395629 -0.40841 -0.61 215 218 227
0.399769 -0.409079 -0.611 196 200 211
0.419074 -0.409749 -0.612 155 173 195
0.423262 -0.410418 -0.613 200 211 233
0.434938 -0.410418 -0.613 98 136 185
0.442665 -0.411088 -0.614 183 201 211
0.449682 -0.411088 -0.614 101 105 134
0.452757 -0.411757 -0.615 116 116 144
0.453929 -0.411757 -0.615 135 135 163
0.496166 -0.413766 -0.618 103 125 166
0.473504 -0.362212 -0.541 164 126 113
0.470563 -0.356856 -0.533 170 128 112
0.469809 -0.355517 -0.531 174 131 114
0.469933 -0.354848 -0.53 175 132 115
0.469166 -0.353509 -0.528 176 131 112
0.470794 -0.349491 -0.522 186 138 116
0.472952 -0.348152 -0.52 186 138 115
0.481157 -0.344805 -0.515 179 132 104
0.504626 -0.348822 -0.521 165 123 99
0.514423 -0.353509 -0.528 161 120 100
0.518357 -0.355517 -0.531 158 117 97
0.0641667 -0.3619 -0.539 205 159 135
0.0660971 -0.361229 -0.538 203 157 134
0.0719771 -0.359886 -0.536 202 154 131
0.0942886 -0.363243 -0.541 185 131 107
0.102628 -0.367271 -0.547 164 111 97
0.113848 -0.373314 -0.556 151 99 86
0.123442 -0.380029 -0.566 130 92 89
0.12496 -0.381371 -0.568 128 90 87
0.127795 -0.383386 -0.571 118 87 85
0.12956 -0.3854 -0.574 116 86 88
0.147651 -0.398829 -0.594 71 72 93
0.149033 -0.3995 -0.595 88 89 110
0.166591 -0.400843 -0.597 80 94 123
0.168866 -0.400843 -0.597 118 129 159
0.180237 -0.400843 -0.597 162 169 195
0.183649 -0.400843 -0.597 168 169 189
0.195347 -0.401514 -0.598 145 149 178
0.202181 -0.401514 -0.598 121 126 164
0.364778 -0.407557 -0.607 160 182 221
0.409079 -0.410243 -0.611 206 209 226
0.464471 -0.412929 -0.615 190 194 205
0.47696 -0.4136 -0.616 148 145 156
0.482827 -0.4136 -0.616 78 93 124
0.504765 -0.414271 -0.617 90 112 153
0.475967 -0.365929 -0.545 163 125 112
0.472952 -0.349143 -0.52 187 139 116
0.482181 -0.345114 -0.514 179 132 104
0.485118 -0.345114 -0.514 183 133 106
0.05772 -0.36764 -0.546 200 154 131
0.0586524 -0.366967 -0.545 200 154 131
0.0669971 -0.36158 -0.537 203 157 133
0.0769381 -0.360233 -0.535 197 152 123
0.0920571 -0.3636 -0.54 184 132 108
0.0989562 -0.366293 -0.544 173 119 95
0.113848 -0.374373 -0.556 150 99 82
0.12496 -0.382453 -0.568 123 88 84
0.129786 -0.387167 -0.575 113 84 86
0.149033 -0.400633 -0.595 105 105 131
0.15496 -0.401307 -0.596 128 130 153
0.165454 -0.40198 -0.597 93 109 142
0.198431 -0.40198 -0.597 159 165 179
0.35148 -0.40804 -0.606 227 229 250
0.357251 -0.40804 -0.606 206 209 224
0.360714 -0.40804 -0.606 180 192 214
0.366486 -0.40804 -0.606 173 195 236
0.386225 -0.409387 -0.608 128 144 169
0.400276 -0.410733 -0.61 175 180 199
0.409079 -0.411407 -0.611 208 210 225
0.410243 -0.411407 -0.611 208 210 225
0.411407 -0.411407 -0.611 195 200 219
0.424903 -0.41208 -0.612 181 180 198
0.447782 -0.412753 -0.613 197 197 207
0.45319 -0.413427 -0.614 91 97 123
0.465643 -0.4141 -0.615 164 166 179
0.479307 -0.414773 -0.616 108 113 135
0.488311 -0.415447 -0.617 178 183 203
0.493012 -0.415447 -0.617 148 157 186
0.498889 -0.415447 -0.617 93 121 160
0.507467 -0.414773 -0.616 131 151 184
0.513671 -0.4141 -0.615 121 125 137
0.511146 -0.40198 -0.597 151 134 142
0.480157 -0.371007 -0.551 160 126 116
0.4695 -0.3535 -0.525 178 133 112
0.4707 -0.352153 -0.523 183 137 114
0.486129 -0.34542 -0.513 184 137 109
0.487106 -0.34542 -0.513 182 135 107
0.0621133 -0.363953 -0.539 202 157 134
0.0668724 -0.361928 -0.536 204 158 134
0.0708238 -0.361252 -0.535 204 156 133
0.09774 -0.366654 -0.543 178 124 100
0.0989562 -0.36733 -0.544 173 119 95
0.106333 -0.371381 -0.55 157 103 91
0.112586 -0.374757 -0.555 146 97 80
0.128243 -0.386911 -0.573 113 85 84
0.149033 -0.401767 -0.595 111 111 139
0.153567 -0.401767 -0.595 135 134 152
0.166312 -0.402442 -0.596 123 132 163
0.18107 -0.402442 -0.596 165 168 183
0.194693 -0.402442 -0.596 115 128 162
0.196964 -0.402442 -0.596 142 150 169
0.341116 -0.407844 -0.604 213 215 240
0.344568 -0.407844 -0.604 172 181 212
0.357814 -0.408519 -0.605 208 210 225
0.378652 -0.40987 -0.607 223 228 248
0.379809 -0.40987 -0.607 222 225 242
0.425372 -0.41257 -0.611 163 179 212
0.431191 -0.41257 -0.611 152 179 224
0.437726 -0.413246 -0.612 98 126 166
0.464886 -0.414596 -0.614 154 152 173
0.495363 -0.416622 -0.617 85 109 147
0.497713 -0.416622 -0.617 97 121 159
0.503947 -0.415947 -0.616 87 109 150
0.506643 -0.415271 -0.615 129 152 186
0.50482 -0.396365 -0.587 152 124 123
0.494323 -0.385561 -0.571 154 123 120
0.470794 -0.352474 -0.522 180 135 114
0.488083 -0.346397 -0.513 182 135 109
0.491014 -0.346397 -0.513 179 133 107
0.0668724 -0.362949 -0.536 202 156 132
0.0718429 -0.362271 -0.535 205 157 134
0.0799952 -0.362271 -0.535 199 151 128
0.0810143 -0.362271 -0.535 195 147 124
0.0864314 -0.363626 -0.537 192 140 118
0.0930857 -0.365657 -0.54 188 132 109
0.128467 -0.38868 -0.574 112 84 83
0.1581 -0.4029 -0.595 142 140 161
0.183341 -0.403577 -0.596 168 177 184
0.184476 -0.403577 -0.596 167 176 183
0.337106 -0.408317 -0.603 233 240 255
0.353771 -0.408994 -0.604 242 242 254
0.358967 -0.409671 -0.605 201 212 234
0.362424 -0.409671 -0.605 168 185 215
0.369338 -0.409671 -0.605 150 174 208
0.389058 -0.411026 -0.607 150 166 199
0.39137 -0.411026 -0.607 175 189 216
0.4031 -0.41238 -0.609 185 192 218
0.4089 -0.41238 -0.609 143 154 182
0.417705 -0.413057 -0.61 158 158 170
0.4277 -0.413734 -0.611 104 133 167
0.431191 -0.413734 -0.611 153 182 224
0.448217 -0.414411 -0.612 152 154 166
0.449383 -0.414411 -0.612 144 146 158
0.454788 -0.415089 -0.613 113 120 146
0.462547 -0.415766 -0.614 180 185 204
0.467225 -0.415766 -0.614 149 150 178
0.471903 -0.415766 -0.614 164 169 191
0.473072 -0.415766 -0.614 157 162 184
0.493387 -0.41712 -0.616 135 144 173
0.507814 -0.416443 -0.615 169 177 190
0.509328 -0.415766 -0.614 134 132 137
0.471707 -0.36024 -0.532 171 129 115
0.470171 -0.357531 -0.528 175 132 115
0.4705 -0.3555 -0.525 177 132 111
0.471962 -0.352114 -0.52 182 136 113
0.482255 -0.346697 -0.512 183 136 110
0.497833 -0.348729 -0.515 172 127 104
0.51548 -0.356177 -0.526 160 119 99
0.0513905 -0.385699 -0.568 197 151 127
0.0592524 -0.367365 -0.541 204 160 135
0.0639286 -0.364649 -0.537 203 157 134
0.0778114 -0.362611 -0.534 198 150 127
0.0798457 -0.362611 -0.534 198 150 127
0.0918867 -0.366007 -0.539 189 135 109
0.0942886 -0.367365 -0.541 181 125 102
0.09774 -0.368723 -0.543 177 120 101
0.118077 -0.380946 -0.561 140 91 87
0.15444 -0.403354 -0.594 144 141 162
0.167167 -0.404033 -0.595 101 113 151
0.173967 -0.404033 -0.595 83 103 140
0.1887 -0.404033 -0.595 161 160 176
0.342849 -0.409466 -0.603 140 165 205
0.380337 -0.411503 -0.606 220 222 235
0.381491 -0.411503 -0.606 215 213 224
0.386109 -0.411503 -0.606 160 177 205
0.396648 -0.412861 -0.608 186 199 231
0.404754 -0.412861 -0.608 147 166 199
0.41122 -0.41354 -0.609 163 187 225
0.41354 -0.41354 -0.609 201 206 225
0.42119 -0.414219 -0.61 212 215 224
0.422352 -0.414219 -0.61 204 206 218
0.430486 -0.414219 -0.61 149 180 224
0.431648 -0.414219 -0.61 150 178 217
0.440502 -0.414898 -0.611 167 184 212
0.443993 -0.414898 -0.611 196 196 206
0.475411 -0.416935 -0.614 112 125 159
0.4879 -0.417614 -0.615 182 185 204
0.489071 -0.417614 -0.615 182 185 204
0.490243 -0.417614 -0.615 179 182 201
0.506643 -0.417614 -0.615 136 159 193
0.50998 -0.402675 -0.593 143 128 135
0.505938 -0.398601 -0.587 142 127 134
0.482953 -0.375513 -0.553 165 123 109
0.471062 -0.359216 -0.529 174 131 112
0.470394 -0.357179 -0.526 176 131 112
0.473178 -0.351068 -0.517 187 141 117
0.480266 -0.348351 -0.513 180 134 108
0.48323 -0.347672 -0.512 182 135 109
0.484206 -0.347672 -0.512 184 137 111
0.0526114 -0.379971 -0.558 199 159 134
0.0582219 -0.368395 -0.541 204 158 135
0.12562 -0.388824 -0.571 115 81 79
0.15305 -0.403805 -0.593 143 139 154
0.15531 -0.403805 -0.593 149 141 164
0.16236 -0.404486 -0.594 74 95 140
0.166886 -0.404486 -0.594 91 104 148
0.168017 -0.404486 -0.594 88 101 145
0.1717 -0.405167 -0.595 78 93 136
0.172833 -0.405167 -0.595 84 99 142
0.196303 -0.404486 -0.594 56 92 144
0.337693 -0.409933 -0.602 191 206 245
0.339987 -0.409933 -0.602 150 172 219
0.365276 -0.411295 -0.604 192 212 239
0.37563 -0.411295 -0.604 224 226 241
0.403596 -0.414019 -0.608 140 164 208
0.42398 -0.4147 -0.609 132 158 193
0.439338 -0.416062 -0.611 124 143 173
0.445157 -0.416062 -0.611 187 185 196
0.448649 -0.416062 -0.611 196 196 208
0.449812 -0.416062 -0.611 193 192 197
0.45214 -0.416062 -0.611 188 196 217
0.480475 -0.417424 -0.613 160 164 176
0.510833 -0.417424 -0.613 176 180 189
0.513169 -0.417424 -0.613 170 177 185
0.516994 -0.416743 -0.612 137 144 172
0.472593 -0.362948 -0.533 170 131 114
0.48323 -0.348648 -0.512 182 135 109
0.492983 -0.348648 -0.512 174 128 104
0.499795 -0.35069 -0.515 171 126 103
0.50861 -0.354095 -0.52 162 120 96
0.517484 -0.358181 -0.526 159 118 96
0.051641 -0.381717 -0.559 204 159 136
0.053001 -0.376254 -0.551 199 157 133
0.0547 -0.373523 -0.547 200 158 133
0.0609733 -0.367377 -0.538 199 153 130
0.0808629 -0.364646 -0.534 199 149 122
0.0828971 -0.364646 -0.534 195 145 118
0.0930857 -0.368743 -0.54 190 129 108
0.0989562 -0.371474 -0.544 174 117 100
0.100176 -0.372157 -0.545 173 116 99
0.118288 -0.383766 -0.562 140 91 86
0.159828 -0.404934 -0.593 80 92 130
0.183548 -0.404934 -0.593 171 179 190
0.343427 -0.41108 -0.602 147 168 199
0.356631 -0.411763 -0.603 214 217 236
0.361226 -0.411763 -0.603 160 179 211
0.377931 -0.412446 -0.604 197 195 206
0.383167 -0.413129 -0.605 212 216 228
0.385471 -0.413129 -0.605 168 184 207
0.393034 -0.413811 -0.606 130 163 216
0.402932 -0.414494 -0.607 111 142 196
0.42514 -0.41586 -0.609 111 139 176
0.438619 -0.416543 -0.61 117 141 177
0.439781 -0.416543 -0.61 150 174 210
0.483978 -0.418591 -0.613 185 185 193
0.485146 -0.418591 -0.613 191 191 199
0.498802 -0.419274 -0.614 144 163 196
0.50231 -0.419274 -0.614 122 141 181
0.509386 -0.403569 -0.591 135 128 144
0.505329 -0.399471 -0.585 142 122 124
0.478202 -0.371474 -0.544 161 123 114
0.471789 -0.356451 -0.522 177 135 113
0.472193 -0.353037 -0.517 183 138 115
0.477334 -0.350306 -0.513 183 139 110
0.48618 -0.34894 -0.511 185 138 112
0.4891 -0.34894 -0.511 178 131 105
0.502731 -0.352354 -0.516 172 128 103
0.50469 -0.353037 -0.517 166 122 97
0.519471 -0.359866 -0.527 156 119 92
0.0647095 -0.366348 -0.535 204 158 134
0.070559 -0.364978 -0.533 202 156 130
0.0776657 -0.364978 -0.533 201 151 124
0.0796962 -0.364978 -0.533 203 153 126
0.0840714 -0.366348 -0.535 195 144 117
0.0906914 -0.368402 -0.538 189 135 109
0.122796 -0.388945 -0.568 116 82 81
0.144899 -0.405379 -0.592 103 109 133
0.156175 -0.405379 -0.592 139 139 163
0.171123 -0.406064 -0.593 82 93 138
0.182418 -0.406064 -0.593 179 177 191
0.215537 -0.406749 -0.594 215 217 238
0.338277 -0.411542 -0.601 121 143 190
0.35604 -0.412227 -0.602 203 208 228
0.394189 -0.414966 -0.606 93 133 195
0.401776 -0.41565 -0.607 80 121 185
0.407557 -0.41565 -0.607 118 146 183
0.412182 -0.41565 -0.607 213 212 220
0.4256 -0.416335 -0.608 104 136 185
0.44138 -0.41702 -0.609 140 152 168
0.488649 -0.419759 -0.613 185 183 194
0.493319 -0.419759 -0.613 89 120 166
0.506163 -0.419759 -0.613 106 118 134
0.508498 -0.419759 -0.613 180 179 197
0.517313 -0.41839 -0.611 117 123 147
0.475117 -0.367717 -0.537 169 128 110
0.472043 -0.355391 -0.519 183 138 115
0.477334 -0.351283 -0.513 183 139 112
0.48618 -0.349913 -0.511 183 136 110
0.497854 -0.351283 -0.513 175 131 106
0.499804 -0.351968 -0.514 174 130 105
0.0503048 -0.381787 -0.556 200 155 132
0.0543 -0.37286 -0.543 202 156 132
0.0607467 -0.368053 -0.536 203 159 134
0.0647095 -0.367367 -0.535 205 159 135
0.0715743 -0.365993 -0.533 202 155 129
0.0896667 -0.369427 -0.538 187 131 106
0.119995 -0.387967 -0.565 132 87 82
0.180983 -0.406507 -0.592 177 182 201
0.34629 -0.412687 -0.601 243 247 255
0.352014 -0.412687 -0.601 244 243 255
0.360627 -0.413373 -0.602 162 185 216
0.377306 -0.41406 -0.603 219 216 225
0.391233 -0.415433 -0.605 85 121 173
0.392386 -0.415433 -0.605 67 104 172
0.393538 -0.415433 -0.605 67 104 172
0.395843 -0.415433 -0.605 86 124 189
0.403423 -0.41612 -0.606 72 112 181
0.419119 -0.416807 -0.607 208 206 209
0.423744 -0.416807 -0.607 112 144 185
0.4249 -0.416807 -0.607 116 147 194
0.432549 -0.417493 -0.608 115 146 201
0.433707 -0.417493 -0.608 122 153 208
0.438339 -0.417493 -0.608 123 150 193
0.454886 -0.418867 -0.61 118 136 158
0.458371 -0.418867 -0.61 55 86 150
0.464942 -0.419553 -0.611 65 95 155
0.470761 -0.419553 -0.611 48 86 133
0.479691 -0.42024 -0.612 191 189 210
0.508834 -0.42024 -0.612 176 185 192
0.511494 -0.419553 -0.611 175 177 189
0.487508 -0.382473 -0.557 164 130 118
0.479238 -0.373547 -0.544 163 126 108
0.477626 -0.371487 -0.541 165 128 110
0.47212 -0.355693 -0.518 183 137 113
0.487153 -0.350887 -0.511 185 141 116
0.491047 -0.350887 -0.511 175 129 105
0.50666 -0.355007 -0.517 163 119 94
0.047721 -0.387666 -0.563 203 158 135
0.0532657 -0.373894 -0.543 202 156 130
0.0559533 -0.37114 -0.539 202 156 132
0.0607467 -0.369074 -0.536 204 160 133
0.0645886 -0.367697 -0.534 203 157 131
0.07448 -0.36632 -0.532 203 156 130
0.0965276 -0.373206 -0.542 175 118 99
0.112991 -0.383534 -0.557 142 97 92
0.123229 -0.392486 -0.57 112 83 87
0.173923 -0.406946 -0.591 70 105 159
0.180677 -0.406946 -0.591 176 182 204
0.34 -0.413143 -0.6 182 207 248
0.380751 -0.415209 -0.603 223 230 238
0.383049 -0.415209 -0.603 225 227 242
0.411976 -0.416586 -0.605 211 215 227
0.414966 -0.417274 -0.606 209 215 229
0.4249 -0.417963 -0.607 110 141 188
0.445288 -0.418651 -0.608 205 203 214
0.46999 -0.420029 -0.61 42 83 139
0.472314 -0.420029 -0.61 90 118 168
0.51033 -0.420717 -0.611 177 180 189
0.472962 -0.364943 -0.53 170 128 112
0.472183 -0.363566 -0.528 170 128 112
0.474229 -0.355303 -0.516 184 138 114
0.474349 -0.353926 -0.514 184 138 114
0.477379 -0.352549 -0.512 184 138 112
0.47933 -0.352549 -0.512 184 138 112
0.479367 -0.35186 -0.511 182 136 110
0.4891 -0.35186 -0.511 181 135 109
0.49494 -0.35186 -0.511 174 130 103
0.502741 -0.353926 -0.514 166 122 97
0.0675133 -0.368024 -0.533 208 160 137
0.07448 -0.367333 -0.532 201 154 128
0.0839143 -0.368714 -0.534 196 144 120
0.0967057 -0.374929 -0.543 175 118 99
0.10902 -0.381833 -0.553 151 98 92
0.115733 -0.386667 -0.56 139 92 84
0.117217 -0.388048 -0.562 136 89 81
0.118709 -0.389429 -0.564 127 88 83
0.123229 -0.393571 -0.57 113 84 88
0.139914 -0.407381 -0.59 57 67 103
0.151152 -0.407381 -0.59 139 141 164
0.1534 -0.407381 -0.59 135 140 162
0.159289 -0.408071 -0.591 67 90 140
0.162666 -0.408071 -0.591 68 95 150
0.188557 -0.408071 -0.591 158 170 196
0.33487 -0.413595 -0.599 110 140 202
0.350286 -0.414286 -0.6 243 247 255
0.352571 -0.414286 -0.6 241 244 255
0.353714 -0.414286 -0.6 230 237 255
0.366896 -0.414976 -0.601 144 182 227
0.368041 -0.414976 -0.601 140 168 208
0.383049 -0.416357 -0.603 224 225 243
0.38994 -0.416357 -0.603 118 150 197
0.407844 -0.417048 -0.604 201 213 229
0.415433 -0.417738 -0.605 213 216 235
0.416586 -0.417738 -0.605 210 212 225
0.430681 -0.419119 -0.607 69 109 171
0.43415 -0.419119 -0.607 109 141 188
0.441087 -0.419119 -0.607 201 199 210
0.443399 -0.419119 -0.607 207 205 219
0.44992 -0.41981 -0.608 201 201 211
0.47038 -0.4205 -0.609 81 127 189
0.473476 -0.42119 -0.61 152 180 220
0.503348 -0.421881 -0.611 83 107 151
0.477027 -0.371476 -0.538 164 126 113
0.476274 -0.370095 -0.536 165 127 116
0.473246 -0.356286 -0.516 184 139 116
0.477379 -0.353524 -0.512 184 138 114
0.50372 -0.354905 -0.514 164 120 95
0.0521352 -0.37527 -0.542 204 158 134
0.0529714 -0.373886 -0.54 204 156 133
0.0625543 -0.369731 -0.534 200 154 130
0.0664981 -0.369039 -0.533 207 161 137
0.0684 -0.368347 -0.532 207 159 136
0.0785333 -0.368347 -0.532 196 150 124
0.0795467 -0.368347 -0.532 193 147 121
0.0989562 -0.376655 -0.544 168 112 95
0.106333 -0.38081 -0.55 155 102 94
0.11173 -0.384964 -0.556 143 92 88
0.114462 -0.387041 -0.559 137 92 87
0.159019 -0.408505 -0.59 60 87 140
0.172505 -0.408505 -0.59 65 100 154
0.177 -0.408505 -0.59 124 143 176
0.343997 -0.414736 -0.599 224 229 248
0.345138 -0.414736 -0.599 231 236 255
0.354857 -0.415429 -0.6 211 218 244
0.357143 -0.415429 -0.6 159 178 211
0.373765 -0.416121 -0.601 222 230 253
0.381267 -0.416813 -0.602 222 223 244
0.38356 -0.416813 -0.602 209 217 236
0.39044 -0.416813 -0.602 82 124 196
0.410145 -0.418198 -0.604 209 212 227
0.41889 -0.41889 -0.605 201 207 221
0.420043 -0.41889 -0.605 174 180 194
0.422348 -0.41889 -0.605 105 138 183
0.450336 -0.420275 -0.607 189 191 203
0.476962 -0.422352 -0.61 186 189 198
0.489743 -0.422352 -0.61 98 124 173
0.492067 -0.422352 -0.61 94 125 172
0.509495 -0.422352 -0.61 173 174 192
0.510657 -0.422352 -0.61 175 177 190
0.477379 -0.354499 -0.512 183 138 115
0.481313 -0.353807 -0.511 183 139 112
0.488143 -0.353114 -0.51 182 138 109
0.50274 -0.355191 -0.513 165 123 98
0.0446619 -0.392271 -0.565 205 149 132
0.0624371 -0.370054 -0.533 200 154 130
0.0837571 -0.370054 -0.533 198 146 124
0.0918867 -0.37422 -0.539 176 122 98
0.107771 -0.383246 -0.552 150 100 93
0.10902 -0.38394 -0.553 147 97 90
0.11193 -0.386717 -0.557 141 92 88
0.116147 -0.390189 -0.562 127 92 90
0.139677 -0.408934 -0.589 23 35 73
0.145533 -0.409629 -0.59 35 50 89
0.348561 -0.415877 -0.599 240 244 255
0.355407 -0.415877 -0.599 151 170 210
0.38356 -0.41796 -0.602 187 201 228
0.39044 -0.41796 -0.602 84 124 194
0.400277 -0.418654 -0.603 84 122 193
0.407169 -0.418654 -0.603 179 193 219
0.409466 -0.418654 -0.603 185 197 223
0.412911 -0.418654 -0.603 210 213 228
0.446131 -0.420737 -0.606 198 200 221
0.463817 -0.422126 -0.608 31 69 144
0.467291 -0.422126 -0.608 43 77 149
0.48082 -0.42282 -0.609 180 189 206
0.48546 -0.42282 -0.609 169 175 199
0.51214 -0.42282 -0.609 175 179 191
0.482923 -0.379774 -0.547 161 124 115
0.477163 -0.372831 -0.537 164 126 117
0.476447 -0.35478 -0.511 183 139 114
0.481313 -0.35478 -0.511 184 140 113
0.0453333 -0.389867 -0.56 201 155 132
0.0521352 -0.377335 -0.542 203 158 139
0.0528733 -0.375247 -0.539 201 156 137
0.0547229 -0.373854 -0.537 202 155 135
0.0614219 -0.37107 -0.533 207 161 137
0.06232 -0.370373 -0.532 202 156 132
0.0692829 -0.369677 -0.531 205 158 132
0.0906914 -0.37455 -0.538 178 123 102
0.139677 -0.410056 -0.589 27 40 75
0.143043 -0.410056 -0.589 47 61 96
0.162115 -0.410056 -0.589 28 57 113
0.18231 -0.410056 -0.589 132 140 163
0.183431 -0.410056 -0.589 86 100 137
0.184553 -0.410056 -0.589 91 105 142
0.363393 -0.417018 -0.599 104 145 207
0.381143 -0.417714 -0.6 142 148 174
0.390936 -0.41841 -0.601 57 97 167
0.406493 -0.419107 -0.602 133 158 199
0.417506 -0.419803 -0.603 154 167 186
0.418654 -0.419803 -0.603 171 184 203
0.425101 -0.420499 -0.604 80 130 191
0.444243 -0.421195 -0.605 201 204 223
0.450749 -0.421891 -0.606 151 170 200
0.463054 -0.422588 -0.607 30 66 142
0.481189 -0.423284 -0.608 174 182 195
0.502524 -0.424676 -0.61 93 129 187
0.503686 -0.424676 -0.61 81 114 168
0.51709 -0.423284 -0.608 135 151 185
0.518248 -0.423284 -0.608 123 150 193
0.478051 -0.37455 -0.538 161 127 118
0.4794 -0.355057 -0.51 185 141 114
0.484257 -0.355057 -0.51 184 138 112
0.484277 -0.354361 -0.509 184 138 112
0.486216 -0.354361 -0.509 185 138 112
0.492029 -0.355057 -0.51 178 131 105
0.509611 -0.359234 -0.516 170 123 95
0.511584 -0.35993 -0.517 166 120 94
0.0510086 -0.37767 -0.541 203 157 133
0.06232 -0.371387 -0.532 206 159 133
0.0701619 -0.36999 -0.53 207 160 132
0.0742 -0.36999 -0.53 201 154 126
0.076219 -0.36999 -0.53 201 154 124
0.1372 -0.41048 -0.588 19 34 73
0.14728 -0.41048 -0.588 102 107 136
0.16296 -0.41048 -0.588 37 68 125
0.1652 -0.41048 -0.588 29 58 114
0.167725 -0.411178 -0.589 33 65 126
0.381143 -0.418857 -0.6 116 123 151
0.388 -0.418857 -0.6 81 116 174
0.408108 -0.419555 -0.601 79 114 168
0.410397 -0.419555 -0.601 130 152 193
0.429703 -0.42165 -0.604 51 105 175
0.44309 -0.422348 -0.605 201 206 226
0.446548 -0.422348 -0.605 138 146 165
0.4477 -0.422348 -0.605 94 113 146
0.467679 -0.423744 -0.607 39 78 145
0.51214 -0.42514 -0.609 161 167 189
0.512457 -0.424442 -0.608 145 151 173
0.516239 -0.423744 -0.607 91 110 152
0.50042 -0.400009 -0.573 152 124 121
0.475328 -0.358821 -0.514 180 138 114
0.47538 -0.358123 -0.513 180 138 114
0.480371 -0.356029 -0.51 187 141 118
0.484277 -0.35533 -0.509 183 137 113
0.0498857 -0.378 -0.54 201 155 129
0.06726 -0.3717 -0.531 206 159 131
0.0721809 -0.371 -0.53 202 155 127
0.0731905 -0.371 -0.53 202 155 127
0.11193 -0.3899 -0.557 141 97 88
0.13473 -0.4109 -0.587 15 28 60
0.151502 -0.4109 -0.587 141 142 162
0.16632 -0.4116 -0.588 32 68 128
0.16856 -0.4116 -0.588 50 90 149
0.17528 -0.4116 -0.588 146 168 215
0.378226 -0.4193 -0.599 162 170 172
0.424397 -0.4221 -0.603 44 95 160
0.426694 -0.4221 -0.603 40 90 159
0.428991 -0.4221 -0.603 43 97 167
0.448852 -0.4235 -0.605 72 97 137
0.450005 -0.4235 -0.605 56 91 155
0.457674 -0.4242 -0.606 31 73 149
0.465367 -0.4249 -0.607 19 65 143
0.469991 -0.4249 -0.607 45 88 156
0.474616 -0.4249 -0.607 59 87 135
0.494271 -0.4249 -0.607 32 81 148
0.502034 -0.4256 -0.608 65 104 161
0.503192 -0.4256 -0.608 64 103 160
0.494025 -0.3934 -0.562 155 123 112
0.479829 -0.378 -0.54 158 125 118
0.477424 -0.3745 -0.535 160 126 117
0.474194 -0.3696 -0.528 162 128 118
0.474229 -0.3612 -0.516 184 137 117
0.501753 -0.3577 -0.511 175 125 98
0.510586 -0.3605 -0.515 170 120 93
0.076219 -0.37201 -0.53 198 151 123
0.0967057 -0.381134 -0.543 168 113 93
0.10036 -0.38324 -0.546 159 107 93
0.101586 -0.383942 -0.547 156 104 90
0.11656 -0.395874 -0.564 124 92 95
0.14168 -0.41272 -0.588 118 125 151
0.153738 -0.412018 -0.587 139 142 157
0.159329 -0.412018 -0.587 52 81 121
0.160447 -0.412018 -0.587 45 81 131
0.168273 -0.412018 -0.587 53 93 155
0.355357 -0.419037 -0.597 141 172 219
0.390286 -0.421143 -0.6 64 103 170
0.41841 -0.421845 -0.601 103 143 179
0.419555 -0.421845 -0.601 78 118 154
0.42484 -0.422547 -0.602 43 97 161
0.432437 -0.423249 -0.603 43 94 159
0.44811 -0.42395 -0.604 102 125 169
0.459224 -0.424652 -0.605 33 71 146
0.468063 -0.425354 -0.606 38 78 150
0.479241 -0.426056 -0.607 164 168 179
0.483866 -0.426056 -0.607 91 112 155
0.48849 -0.426056 -0.607 67 93 144
0.489647 -0.426056 -0.607 51 82 146
0.490803 -0.426056 -0.607 39 70 134
0.494271 -0.426056 -0.607 24 72 146
0.496584 -0.426056 -0.607 30 79 146
0.502034 -0.426758 -0.608 53 89 147
0.51277 -0.426056 -0.607 64 85 116
0.516239 -0.426056 -0.607 52 86 131
0.508914 -0.409912 -0.584 145 124 131
0.477549 -0.374817 -0.534 160 126 117
0.473689 -0.367096 -0.523 173 135 114
0.474229 -0.362183 -0.516 182 136 113
0.478429 -0.357971 -0.51 184 140 115
0.482338 -0.35727 -0.509 183 139 114
0.493002 -0.356568 -0.508 176 129 101
0.494937 -0.356568 -0.508 176 129 101
0.0454886 -0.386391 -0.549 201 155 129
0.0479171 -0.380761 -0.541 202 156 132
0.0534 -0.375834 -0.534 204 158 132
0.05624 -0.374427 -0.532 207 160 134
0.0581571 -0.373723 -0.531 207 160 134
0.0610762 -0.373019 -0.53 208 161 133
0.0641048 -0.373019 -0.53 206 159 131
0.0720448 -0.372315 -0.529 203 156 130
0.0772286 -0.373019 -0.53 195 148 120
0.109414 -0.390614 -0.555 142 97 91
0.142557 -0.413136 -0.587 126 132 156
0.145663 -0.412432 -0.586 142 144 157
0.154592 -0.412432 -0.586 133 135 147
0.165754 -0.412432 -0.586 61 95 156
0.178336 -0.413136 -0.587 192 198 210
0.365591 -0.420174 -0.597 121 164 217
0.369003 -0.420174 -0.597 138 175 227
0.377594 -0.420878 -0.598 234 237 255
0.386707 -0.420878 -0.598 121 152 198
0.404468 -0.421582 -0.599 182 204 227
0.42484 -0.423693 -0.602 58 116 180
0.43516 -0.423693 -0.602 94 134 195
0.456919 -0.425805 -0.605 37 76 155
0.459224 -0.425805 -0.605 31 69 142
0.461529 -0.425805 -0.605 32 69 137
0.47268 -0.426509 -0.606 127 149 196
0.473834 -0.426509 -0.606 122 141 174
0.477297 -0.426509 -0.606 154 163 180
0.485377 -0.426509 -0.606 79 107 155
0.500052 -0.427212 -0.607 30 76 138
0.511614 -0.427212 -0.607 108 114 138
0.511529 -0.413136 -0.587 139 122 128
0.498217 -0.399764 -0.568 151 120 115
0.474402 -0.370204 -0.526 167 131 117
0.4745 -0.3695 -0.525 172 134 115
0.473178 -0.36387 -0.517 178 133 110
0.475328 -0.361758 -0.514 178 136 111
0.47742 -0.359647 -0.511 182 141 113
0.481369 -0.358239 -0.509 183 139 110
0.491067 -0.357535 -0.508 175 129 103
0.500771 -0.358943 -0.51 175 128 102
0.501743 -0.358943 -0.51 173 126 100
0.510573 -0.361758 -0.514 167 121 95
0.0437924 -0.390966 -0.554 200 156 131
0.0533 -0.376146 -0.533 204 157 131
0.0825867 -0.37544 -0.532 185 135 110
0.0849314 -0.376851 -0.534 182 130 109
0.09792 -0.383909 -0.544 160 108 95
0.101586 -0.386026 -0.547 152 102 91
0.10672 -0.389554 -0.552 141 98 91
0.11087 -0.393083 -0.557 138 94 91
0.142314 -0.413549 -0.586 131 135 160
0.157941 -0.413549 -0.586 65 91 126
0.167987 -0.413549 -0.586 70 110 172
0.169103 -0.413549 -0.586 78 122 185
0.176916 -0.413549 -0.586 192 199 217
0.342833 -0.4199 -0.595 240 250 255
0.352491 -0.420606 -0.596 225 233 244
0.371277 -0.421311 -0.597 229 236 254
0.387846 -0.422017 -0.598 84 123 192
0.398763 -0.422723 -0.599 82 127 194
0.40675 -0.422723 -0.599 197 210 227
0.425279 -0.424134 -0.601 49 109 179
0.429858 -0.424134 -0.601 70 127 194
0.449666 -0.425546 -0.603 181 188 194
0.455013 -0.426251 -0.604 89 117 165
0.459615 -0.426251 -0.604 33 73 143
0.494611 -0.427663 -0.606 25 69 142
0.495766 -0.427663 -0.606 27 77 148
0.49692 -0.427663 -0.606 33 83 154
0.51308 -0.427663 -0.606 130 141 163
0.500849 -0.402963 -0.571 148 120 117
0.483326 -0.358503 -0.508 185 142 110
0.484293 -0.358503 -0.508 182 138 111
0.490099 -0.358503 -0.508 176 130 104
0.494937 -0.358503 -0.508 176 129 103
0.50958 -0.362031 -0.513 168 122 96
0.5285 -0.3705 -0.525 162 118 93
0.0648686 -0.373623 -0.528 207 160 134
0.0792476 -0.375038 -0.53 188 138 113
0.0825867 -0.376453 -0.532 185 133 111
0.0883124 -0.379284 -0.536 178 121 102
0.0930857 -0.382114 -0.54 167 115 101
0.112332 -0.395559 -0.559 132 91 87
0.136733 -0.414665 -0.586 34 45 77
0.157671 -0.413957 -0.585 72 100 137
0.172157 -0.413957 -0.585 92 130 192
0.384923 -0.422449 -0.597 172 198 225
0.388985 -0.423156 -0.598 70 109 178
0.401514 -0.423156 -0.598 192 207 230
0.42 -0.424571 -0.6 75 129 189
0.429858 -0.425279 -0.601 66 121 186
0.440893 -0.425987 -0.602 202 210 221
0.44204 -0.425987 -0.602 206 209 214
0.443187 -0.425987 -0.602 206 209 214
0.447773 -0.425987 -0.602 201 200 206
0.451963 -0.426694 -0.603 172 176 188
0.460766 -0.427402 -0.604 24 66 142
0.474205 -0.42811 -0.605 159 162 167
0.475357 -0.42811 -0.605 184 188 199
0.477662 -0.42811 -0.605 189 191 206
0.502691 -0.428817 -0.606 84 112 160
0.506154 -0.428817 -0.606 147 158 178
0.511773 -0.414665 -0.586 132 126 136
0.499299 -0.401928 -0.568 151 121 110
0.48944 -0.390606 -0.552 158 124 122
0.473031 -0.367254 -0.519 173 131 107
0.4794 -0.360886 -0.51 182 138 111
0.47943 -0.360178 -0.509 183 139 110
0.482358 -0.35947 -0.508 184 140 111
0.4901 -0.358763 -0.507 175 129 103
0.494929 -0.358763 -0.507 176 129 103
0.501729 -0.360178 -0.509 176 129 101
0.51451 -0.364424 -0.515 166 120 94
0.520483 -0.367254 -0.519 162 116 92
0.0628571 -0.374629 -0.528 205 158 132
0.0658743 -0.374629 -0.528 206 159 133
0.0825867 -0.377467 -0.532 182 130 108
0.0859486 -0.378886 -0.534 178 123 103
0.0871286 -0.379595 -0.535 177 122 102
0.131817 -0.414362 -0.584 36 40 75
0.163243 -0.415071 -0.585 88 118 168
0.1677 -0.415071 -0.585 82 115 168
0.1755 -0.415071 -0.585 196 205 222
0.177729 -0.415071 -0.585 198 206 217
0.381511 -0.423586 -0.597 202 208 220
0.388334 -0.423586 -0.597 76 115 180
0.411766 -0.424295 -0.598 214 220 234
0.415183 -0.424295 -0.598 205 207 220
0.436727 -0.426424 -0.601 193 202 219
0.44892 -0.427133 -0.602 199 196 203
0.455409 -0.427843 -0.603 36 83 161
0.457706 -0.427843 -0.603 34 80 155
0.46997 -0.428552 -0.604 162 170 189
0.483775 -0.428552 -0.604 105 130 170
0.484926 -0.428552 -0.604 86 111 151
0.487227 -0.428552 -0.604 67 107 168
0.500383 -0.429971 -0.606 64 105 169
0.501862 -0.429262 -0.605 76 107 161
0.509929 -0.429262 -0.605 181 183 196
0.502815 -0.405848 -0.572 152 122 112
0.474594 -0.37179 -0.524 166 131 111
0.47538 -0.363986 -0.513 179 135 110
0.47742 -0.362567 -0.511 182 138 113
0.480423 -0.360438 -0.508 184 140 111
0.485271 -0.359729 -0.507 179 134 105
0.498808 -0.360438 -0.508 177 130 100
0.500743 -0.360438 -0.508 177 130 102
0.511534 -0.363986 -0.513 167 121 95
0.52548 -0.370371 -0.522 162 118 93
0.0424286 -0.391286 -0.55 192 155 129
0.0464533 -0.381326 -0.536 203 157 133
0.0473857 -0.380614 -0.535 202 156 130
0.0608457 -0.375634 -0.528 205 158 132
0.0717724 -0.374923 -0.527 203 156 128
0.0727762 -0.374923 -0.527 201 154 126
0.0895 -0.382037 -0.537 174 118 101
0.138491 -0.415474 -0.584 42 49 77
0.139604 -0.415474 -0.584 55 62 90
0.141829 -0.415474 -0.584 121 123 146
0.150728 -0.415474 -0.584 162 159 168
0.167413 -0.415474 -0.584 100 128 178
0.377467 -0.424011 -0.596 232 235 250
0.387197 -0.424723 -0.597 90 126 184
0.391746 -0.424723 -0.597 128 170 230
0.400843 -0.424723 -0.597 147 165 187
0.434857 -0.426857 -0.6 120 161 207
0.440161 -0.427569 -0.601 207 216 223
0.44474 -0.427569 -0.601 206 212 212
0.456947 -0.42828 -0.602 39 83 158
0.463449 -0.428991 -0.603 38 79 141
0.465746 -0.428991 -0.603 27 74 142
0.480677 -0.428991 -0.603 191 199 212
0.492979 -0.429703 -0.604 64 104 163
0.503014 -0.430414 -0.605 106 139 193
0.513688 -0.429703 -0.604 172 175 190
0.515989 -0.429703 -0.604 137 143 167
0.478685 -0.379191 -0.533 159 125 115
0.474685 -0.372077 -0.523 170 132 111
0.487203 -0.360694 -0.507 182 137 108
0.492989 -0.359983 -0.506 176 129 101
0.507571 -0.362829 -0.51 168 123 94
0.50954 -0.36354 -0.511 168 122 98
0.512511 -0.364963 -0.513 168 122 98
0.0421971 -0.390193 -0.547 197 155 130
0.0637419 -0.375927 -0.527 201 155 129
0.0849314 -0.38092 -0.534 176 124 102
0.0871286 -0.381633 -0.535 175 123 101
0.0954952 -0.386627 -0.542 160 111 94
0.10036 -0.38948 -0.546 148 102 87
0.138254 -0.415873 -0.583 46 51 80
0.141586 -0.415873 -0.583 109 111 134
0.15158 -0.415873 -0.583 140 134 146
0.15269 -0.415873 -0.583 137 134 143
0.160739 -0.416587 -0.584 112 145 190
0.168526 -0.416587 -0.584 98 122 168
0.177425 -0.416587 -0.584 204 212 223
0.17965 -0.416587 -0.584 210 213 222
0.180762 -0.416587 -0.584 208 211 220
0.181874 -0.416587 -0.584 191 196 215
0.380872 -0.425147 -0.596 189 202 218
0.407666 -0.42586 -0.597 215 222 232
0.411077 -0.42586 -0.597 218 221 230
0.414489 -0.42586 -0.597 215 219 231
0.416763 -0.42586 -0.597 126 142 165
0.44245 -0.428713 -0.601 208 208 218
0.445885 -0.428713 -0.601 202 207 213
0.450464 -0.428713 -0.601 123 129 143
0.454653 -0.429427 -0.602 53 97 162
0.479529 -0.43014 -0.603 190 197 213
0.49413 -0.430853 -0.604 60 96 154
0.497581 -0.430853 -0.604 79 118 177
0.499882 -0.430853 -0.604 76 115 174
0.501032 -0.430853 -0.604 70 101 155
0.511387 -0.430853 -0.604 177 179 178
0.512537 -0.430853 -0.604 183 182 196
0.476307 -0.366653 -0.514 180 138 113
0.478429 -0.3638 -0.51 182 138 113
0.501689 -0.36166 -0.507 176 129 101
0.510513 -0.364513 -0.511 170 124 100
0.513489 -0.36594 -0.513 166 121 98
0.037799 -0.399818 -0.559 198 161 134
0.0481333 -0.380507 -0.532 202 156 130
0.0597267 -0.37693 -0.527 207 162 133
0.0616171 -0.376215 -0.526 204 158 132
0.0626191 -0.376215 -0.526 203 157 131
0.0716362 -0.376215 -0.526 198 151 125
0.0871286 -0.382652 -0.535 173 121 100
0.0895 -0.384083 -0.537 171 119 98
0.0942886 -0.386944 -0.541 164 113 94
0.09792 -0.38909 -0.544 155 108 92
0.0991381 -0.389805 -0.545 154 107 91
0.114209 -0.402679 -0.563 133 93 93
0.134042 -0.417699 -0.584 74 85 113
0.141586 -0.416984 -0.583 122 133 155
0.419037 -0.426997 -0.597 94 140 192
0.439429 -0.429143 -0.6 209 217 219
0.450464 -0.429858 -0.601 100 105 124
0.48676 -0.430573 -0.602 87 120 173
0.489866 -0.431289 -0.603 79 117 180
0.492163 -0.431289 -0.603 104 138 199
0.510236 -0.432004 -0.604 128 129 123
0.518867 -0.430573 -0.602 42 72 136
0.49742 -0.401249 -0.561 152 122 114
0.478009 -0.379076 -0.53 161 128 113
0.476406 -0.376215 -0.526 165 128 112
0.476357 -0.366917 -0.513 180 138 113
0.485278 -0.36191 -0.506 181 135 109
0.491061 -0.36191 -0.506 178 133 104
0.492989 -0.36191 -0.506 176 129 103
0.494916 -0.36191 -0.506 178 131 105
0.501689 -0.362626 -0.507 175 129 103
0.51944 -0.369063 -0.516 164 120 95
0.0442457 -0.382954 -0.534 198 154 129
0.0596133 -0.377217 -0.526 206 160 134
0.0726381 -0.377217 -0.526 190 143 117
0.07364 -0.377217 -0.526 187 140 114
0.0883124 -0.384389 -0.536 171 119 98
0.0967057 -0.389409 -0.543 158 109 94
0.133812 -0.418094 -0.583 86 96 121
0.146886 -0.417377 -0.582 165 163 177
0.162406 -0.417377 -0.582 151 174 206
0.164623 -0.417377 -0.582 142 162 195
0.379594 -0.425983 -0.594 188 193 213
0.416763 -0.428134 -0.597 174 187 203
0.420174 -0.428134 -0.597 126 163 208
0.437555 -0.429569 -0.599 203 210 226
0.441714 -0.430286 -0.6 205 213 216
0.444 -0.430286 -0.6 207 207 217
0.455043 -0.431003 -0.601 97 128 182
0.456188 -0.431003 -0.601 120 157 210
0.460767 -0.431003 -0.601 98 134 184
0.461911 -0.431003 -0.601 119 155 205
0.495933 -0.43172 -0.602 76 113 166
0.512837 -0.432437 -0.603 167 166 171
0.50008 -0.404469 -0.564 149 120 112
0.475766 -0.374349 -0.522 172 131 111
0.0556057 -0.378219 -0.526 207 162 133
0.0585 -0.3775 -0.525 206 159 133
0.0716362 -0.378219 -0.526 194 147 121
0.07364 -0.378219 -0.526 184 138 112
0.0757876 -0.378938 -0.527 183 133 110
0.0824314 -0.381814 -0.531 173 121 100
0.0859486 -0.383971 -0.534 170 118 97
0.0883124 -0.38541 -0.536 170 118 97
0.0917162 -0.386848 -0.538 166 111 91
0.131366 -0.418486 -0.582 102 109 128
0.1358 -0.418486 -0.582 94 96 121
0.138887 -0.417767 -0.581 63 69 95
0.142451 -0.418486 -0.582 145 149 174
0.146886 -0.418486 -0.582 159 158 174
0.150211 -0.418486 -0.582 171 168 175
0.162406 -0.418486 -0.582 147 170 204
0.167949 -0.418486 -0.582 138 158 195
0.169057 -0.418486 -0.582 163 183 220
0.372178 -0.426395 -0.593 239 246 254
0.382989 -0.427114 -0.594 124 140 173
0.3961 -0.427833 -0.595 167 186 216
0.397233 -0.427833 -0.595 140 159 189
0.3995 -0.427833 -0.595 113 139 164
0.418335 -0.428552 -0.596 109 139 173
0.432269 -0.42999 -0.598 135 159 187
0.440978 -0.43071 -0.599 201 211 213
0.446683 -0.43071 -0.599 175 177 192
0.457714 -0.431429 -0.6 103 135 176
0.469925 -0.432148 -0.601 120 134 173
0.480228 -0.432148 -0.601 195 197 212
0.508547 -0.432867 -0.602 182 185 192
0.511987 -0.432867 -0.602 133 134 139
0.51428 -0.432867 -0.602 74 80 106
0.51772 -0.432867 -0.602 59 86 133
0.51915 -0.432148 -0.601 93 117 165
0.489917 -0.394757 -0.549 149 120 114
0.475997 -0.373186 -0.519 174 132 110
0.476067 -0.372467 -0.518 176 134 112
0.477457 -0.366714 -0.51 181 137 112
0.479455 -0.365276 -0.508 182 138 113
0.480443 -0.364557 -0.507 184 140 113
0.481409 -0.364557 -0.507 182 138 111
0.489133 -0.363838 -0.506 179 136 104
0.491061 -0.363838 -0.506 179 134 103
0.492025 -0.363838 -0.506 178 133 102
0.493952 -0.363838 -0.506 178 133 102
0.524413 -0.372467 -0.518 162 118 91
0.0421324 -0.384268 -0.533 201 154 134
0.0595 -0.3785 -0.525 206 159 133
0.0653752 -0.377779 -0.524 199 152 126
0.0675 -0.3785 -0.525 199 152 126
0.0705 -0.3785 -0.525 194 147 119
0.07364 -0.379221 -0.526 183 136 110
0.0906914 -0.387872 -0.538 168 113 93
0.10036 -0.39364 -0.546 150 102 92
0.13778 -0.418873 -0.581 111 117 139
0.138887 -0.418873 -0.581 88 94 116
0.1577 -0.418873 -0.581 116 140 184
0.16102 -0.418873 -0.581 156 180 218
0.163233 -0.418873 -0.581 136 159 193
0.385251 -0.428246 -0.594 184 198 224
0.3961 -0.428967 -0.595 178 193 216
0.400633 -0.428967 -0.595 95 116 137
0.4097 -0.428967 -0.595 220 225 244
0.444401 -0.43185 -0.599 201 206 210
0.46 -0.432571 -0.6 161 175 202
0.478286 -0.432571 -0.6 193 195 210
0.480571 -0.432571 -0.6 183 192 207
0.482517 -0.433292 -0.601 159 168 183
0.508547 -0.434013 -0.602 180 182 194
0.4824 -0.38643 -0.536 153 123 113
0.478315 -0.379942 -0.527 161 125 109
0.476677 -0.377058 -0.523 169 131 112
0.47676 -0.376337 -0.522 169 131 112
0.476357 -0.369849 -0.513 183 138 115
0.480443 -0.365523 -0.507 183 139 112
0.48817 -0.364802 -0.506 181 138 106
0.489133 -0.364802 -0.506 179 136 104
0.492014 -0.364081 -0.505 178 133 102
0.499735 -0.364802 -0.506 179 133 99
0.500699 -0.364802 -0.506 178 132 98
0.0411171 -0.385283 -0.533 200 155 134
0.0447543 -0.381669 -0.528 202 158 133
0.0458467 -0.382391 -0.529 203 159 134
0.0555 -0.3795 -0.525 208 163 134
0.0593867 -0.378777 -0.524 205 158 132
0.0653752 -0.378777 -0.524 200 153 127
0.104428 -0.398294 -0.551 144 102 90
0.111666 -0.405523 -0.561 128 95 88
0.126277 -0.418534 -0.579 72 74 89
0.13114 -0.41998 -0.581 120 119 133
0.139752 -0.419257 -0.58 66 75 104
0.149695 -0.419257 -0.58 182 184 196
0.166553 -0.41998 -0.581 111 134 175
0.16766 -0.41998 -0.581 148 162 197
0.359666 -0.427209 -0.591 171 194 228
0.369295 -0.427931 -0.592 237 244 255
0.380085 -0.428654 -0.593 162 174 198
0.432683 -0.431546 -0.597 178 200 224
0.447824 -0.432991 -0.599 93 109 143
0.45467 -0.432991 -0.599 187 198 216
0.468 -0.433714 -0.6 76 94 130
0.469143 -0.433714 -0.6 89 104 143
0.493965 -0.434437 -0.601 142 168 205
0.51457 -0.434437 -0.601 66 88 129
0.506969 -0.414197 -0.573 140 121 115
0.480827 -0.38456 -0.532 156 124 111
0.476132 -0.373717 -0.517 174 133 111
0.476357 -0.370826 -0.513 181 139 114
0.476404 -0.370103 -0.512 180 138 113
0.479455 -0.367211 -0.508 180 139 111
0.48335 -0.365766 -0.506 183 139 110
0.487206 -0.365766 -0.506 181 138 106
0.493938 -0.365043 -0.505 181 136 105
0.502627 -0.365766 -0.506 174 129 96
0.5134 -0.368657 -0.51 167 123 96
0.0377514 -0.393546 -0.543 208 162 139
0.0393067 -0.388472 -0.536 202 156 120
0.0437486 -0.382674 -0.528 200 156 131
0.0553943 -0.379775 -0.524 207 162 133
0.0663733 -0.379775 -0.524 200 153 127
0.0703657 -0.379775 -0.524 192 145 117
0.0746419 -0.381225 -0.526 185 133 111
0.0881476 -0.387748 -0.535 173 115 101
0.0893333 -0.388472 -0.536 171 113 99
0.101771 -0.39717 -0.548 149 103 90
0.1073 -0.402243 -0.555 134 100 91
0.126277 -0.419637 -0.579 78 78 90
0.132019 -0.420362 -0.58 129 127 140
0.139752 -0.420362 -0.58 83 95 121
0.155219 -0.420362 -0.58 104 127 161
0.161848 -0.420362 -0.58 128 161 202
0.166267 -0.420362 -0.58 119 142 183
0.167371 -0.420362 -0.58 159 174 205
0.168476 -0.420362 -0.58 181 196 227
0.363043 -0.428334 -0.591 159 176 206
0.376061 -0.429059 -0.592 175 183 206
0.384603 -0.429784 -0.593 216 227 249
0.386862 -0.429784 -0.593 213 224 246
0.39251 -0.429784 -0.593 213 224 244
0.397028 -0.429784 -0.593 191 202 220
0.403805 -0.429784 -0.593 161 175 201
0.409011 -0.430509 -0.594 217 226 243
0.410143 -0.430509 -0.594 215 224 241
0.411274 -0.430509 -0.594 216 223 241
0.413537 -0.430509 -0.594 211 222 244
0.422167 -0.431233 -0.595 157 187 223
0.430823 -0.431958 -0.596 164 185 212
0.43382 -0.432683 -0.597 206 212 224
0.448215 -0.433408 -0.598 152 169 197
0.450493 -0.433408 -0.598 153 169 192
0.45391 -0.433408 -0.598 187 195 216
0.45505 -0.433408 -0.598 189 197 218
0.472925 -0.434132 -0.599 191 198 216
0.478286 -0.434857 -0.6 193 196 215
0.484 -0.434857 -0.6 119 136 164
0.486286 -0.434857 -0.6 98 123 163
0.496254 -0.435582 -0.601 105 126 169
0.507702 -0.435582 -0.601 183 183 195
0.517143 -0.434857 -0.6 123 137 163
0.509623 -0.417463 -0.576 140 121 115
0.5054 -0.413114 -0.57 148 119 111
0.492751 -0.399344 -0.551 145 120 113
0.491052 -0.366005 -0.505 179 134 105
0.492014 -0.366005 -0.505 179 134 105
0.03324 -0.402573 -0.554 200 156 129
0.0390867 -0.387313 -0.533 198 154 127
0.0494057 -0.380773 -0.524 209 165 138
0.0693676 -0.380773 -0.524 192 145 117
0.0812667 -0.385133 -0.53 176 120 103
0.0834429 -0.38586 -0.531 175 119 102
0.0905229 -0.39022 -0.537 168 112 99
0.128483 -0.42074 -0.579 118 116 130
0.1351 -0.42074 -0.579 144 147 156
0.140614 -0.42074 -0.579 102 116 142
0.35681 -0.428733 -0.59 175 201 236
0.378803 -0.42946 -0.591 228 234 255
0.403805 -0.430913 -0.593 110 124 150
0.411711 -0.430913 -0.593 215 223 242
0.457328 -0.434547 -0.598 129 141 157
0.465301 -0.434547 -0.598 175 187 211
0.471784 -0.435273 -0.599 142 154 178
0.477489 -0.435273 -0.599 195 197 218
0.483193 -0.435273 -0.599 131 147 172
0.490039 -0.435273 -0.599 143 169 204
0.518286 -0.436 -0.6 147 156 173
0.477177 -0.37496 -0.516 176 134 109
0.47742 -0.371327 -0.511 179 138 110
0.478488 -0.369147 -0.508 182 138 111
0.487205 -0.366967 -0.505 182 136 110
0.492 -0.36624 -0.504 179 134 105
0.49776 -0.36624 -0.504 180 135 104
0.534429 -0.37932 -0.522 158 119 90
0.0349038 -0.398529 -0.547 205 157 134
0.0365143 -0.393429 -0.54 200 157 138
0.039801 -0.385414 -0.529 201 157 130
0.0532962 -0.381043 -0.523 205 159 135
0.0552886 -0.381043 -0.523 201 155 131
0.0601543 -0.380314 -0.522 200 155 124
0.0611486 -0.380314 -0.522 199 154 123
0.068239 -0.381043 -0.523 189 142 114
0.0756438 -0.383229 -0.526 176 119 99
0.0801057 -0.385414 -0.529 176 119 100
0.104428 -0.401443 -0.551 140 100 90
0.108748 -0.405814 -0.557 126 100 99
0.135968 -0.421114 -0.578 157 160 167
0.146129 -0.421843 -0.579 113 128 169
0.147231 -0.421843 -0.579 154 164 189
0.162671 -0.421843 -0.579 127 160 203
0.349473 -0.429129 -0.589 232 239 255
0.369171 -0.429857 -0.59 230 239 254
0.38218 -0.430586 -0.591 233 238 255
0.404251 -0.431314 -0.592 114 128 154
0.418489 -0.432043 -0.593 114 143 183
0.4301 -0.4335 -0.595 150 171 198
0.432367 -0.4335 -0.595 208 214 226
0.452014 -0.434957 -0.597 201 208 224
0.454289 -0.434957 -0.597 198 206 225
0.462249 -0.434957 -0.597 192 201 216
0.46566 -0.434957 -0.597 191 198 216
0.476691 -0.435686 -0.598 195 199 224
0.492321 -0.436414 -0.599 104 136 177
0.497714 -0.437143 -0.6 109 135 172
0.512858 -0.436414 -0.599 162 172 199
0.516281 -0.436414 -0.599 161 173 189
0.517422 -0.436414 -0.599 158 166 179
0.483538 -0.389786 -0.535 153 125 114
0.477286 -0.374486 -0.514 177 137 111
0.486243 -0.367929 -0.505 178 137 107
0.49488 -0.3672 -0.504 180 134 108
0.49584 -0.3672 -0.504 180 135 104
0.49773 -0.366471 -0.503 178 133 102
0.517286 -0.371571 -0.51 166 122 95
0.527303 -0.375943 -0.516 161 120 90
0.0320686 -0.403223 -0.552 201 154 126
0.0338619 -0.39957 -0.547 204 154 131
0.041579 -0.38423 -0.526 200 154 131
0.0641314 -0.381309 -0.522 193 146 118
0.0915457 -0.392266 -0.537 166 113 95
0.107493 -0.406145 -0.556 133 100 93
0.141472 -0.422215 -0.578 132 140 161
0.143674 -0.422215 -0.578 83 102 134
0.168186 -0.422946 -0.579 205 219 248
0.361814 -0.43025 -0.589 158 180 217
0.39006 -0.431711 -0.591 225 232 250
0.431233 -0.434633 -0.595 182 203 232
0.434633 -0.434633 -0.595 216 215 229
0.43877 -0.435364 -0.596 151 166 195
0.450122 -0.435364 -0.596 201 208 218
0.459204 -0.435364 -0.596 199 205 227
0.474757 -0.436094 -0.597 181 194 226
0.484665 -0.436825 -0.598 96 121 162
0.477905 -0.379848 -0.52 169 133 109
0.477177 -0.376926 -0.516 176 134 112
0.478429 -0.372543 -0.51 175 133 108
0.4872 -0.36816 -0.504 182 138 109
0.48912 -0.36816 -0.504 182 138 109
0.496772 -0.36743 -0.503 178 134 105
0.518257 -0.372543 -0.51 163 119 90
0.53132 -0.378387 -0.518 158 117 87
0.0336762 -0.398415 -0.544 204 154 129
0.0369867 -0.389627 -0.532 202 158 131
0.0521 -0.38157 -0.521 207 160 134
0.0530924 -0.38157 -0.521 203 156 130
0.0610314 -0.38157 -0.521 198 151 123
0.0640086 -0.38157 -0.521 195 145 120
0.0712276 -0.383035 -0.523 185 135 110
0.0812667 -0.388162 -0.53 172 119 101
0.0869657 -0.391091 -0.534 169 116 100
0.09394 -0.394753 -0.539 165 109 92
0.0991381 -0.399148 -0.545 159 106 90
0.128039 -0.422584 -0.577 135 132 143
0.13903 -0.422584 -0.577 171 171 179
0.426395 -0.434302 -0.593 105 138 181
0.430509 -0.435034 -0.594 186 207 238
0.433903 -0.435034 -0.594 208 216 229
0.450122 -0.436499 -0.596 194 203 218
0.460339 -0.436499 -0.596 200 207 223
0.472483 -0.437231 -0.597 75 95 130
0.47362 -0.437231 -0.597 103 118 149
0.478169 -0.437231 -0.597 193 202 211
0.491499 -0.437964 -0.598 103 130 183
0.494916 -0.437964 -0.598 91 120 164
0.496885 -0.438696 -0.599 105 128 170
0.509724 -0.437964 -0.598 155 164 179
0.512002 -0.437964 -0.598 163 174 194
0.517697 -0.437964 -0.598 162 174 188
0.481234 -0.386697 -0.528 154 125 111
0.477334 -0.375711 -0.513 178 136 112
0.47742 -0.374247 -0.511 179 137 113
0.48816 -0.36912 -0.504 183 139 112
0.489108 -0.368388 -0.503 182 138 111
0.491024 -0.368388 -0.503 181 135 109
0.49294 -0.368388 -0.503 179 134 105
0.496772 -0.368388 -0.503 180 134 108
0.511301 -0.370585 -0.506 170 123 95
0.0423381 -0.384031 -0.523 203 157 133
0.0756438 -0.386234 -0.526 173 120 102
0.0903543 -0.393577 -0.536 167 114 98
0.107493 -0.408263 -0.556 129 99 91
0.123429 -0.422949 -0.576 120 114 118
0.131109 -0.422949 -0.576 158 155 162
0.153317 -0.423683 -0.577 155 183 230
0.380887 -0.432494 -0.589 232 238 254
0.412574 -0.433963 -0.591 211 220 237
0.423421 -0.434697 -0.592 129 167 214
0.433903 -0.436166 -0.594 196 202 224
0.441823 -0.436166 -0.594 164 180 203
0.449367 -0.4369 -0.595 199 207 218
