ply
format ascii 1.0
comment Created by Open3D
element vertex 1295
property double x
property double y
property double z
property uchar red
property uchar green
property uchar blue
end_header
-0.0419257 -0.232718 -0.638 73 73 81
-0.0351771 -0.236366 -0.648 76 76 86
-0.0340476 -0.237095 -0.65 77 77 87
-0.145848 -0.227333 -0.62 223 224 216
-0.135429 -0.231733 -0.632 224 220 208
-0.133231 -0.2321 -0.633 225 221 209
-0.131233 -0.232833 -0.635 226 224 211
-0.126594 -0.2332 -0.636 230 224 210
-0.120916 -0.233933 -0.638 231 227 215
-0.104624 -0.232833 -0.635 229 228 223
-0.0942 -0.231 -0.63 119 118 114
-0.0584571 -0.227333 -0.62 72 71 77
-0.0519514 -0.2299 -0.627 71 72 77
-0.0408381 -0.234667 -0.64 74 74 82
-0.0374133 -0.236133 -0.644 75 75 83
-0.165499 -0.238097 -0.646 126 126 128
-0.162997 -0.236254 -0.641 131 131 133
-0.149843 -0.227409 -0.617 232 232 232
-0.146317 -0.227409 -0.617 247 247 245
-0.141579 -0.229251 -0.622 232 233 227
-0.1326 -0.2322 -0.63 235 233 221
-0.131609 -0.232569 -0.631 232 230 218
-0.130613 -0.232937 -0.632 235 232 223
-0.123781 -0.233674 -0.634 239 235 224
-0.122573 -0.233674 -0.634 239 235 224
-0.1143 -0.234043 -0.635 251 248 239
-0.0964467 -0.231831 -0.629 94 93 88
-0.0904886 -0.228883 -0.621 74 73 79
-0.0691333 -0.224829 -0.61 70 71 76
-0.060721 -0.228146 -0.619 71 70 76
-0.154167 -0.231548 -0.625 150 149 154
-0.11959 -0.23377 -0.631 250 250 242
-0.11358 -0.23377 -0.631 238 237 232
-0.08554 -0.226361 -0.611 76 75 83
-0.0757305 -0.224879 -0.607 74 73 81
-0.050919 -0.23303 -0.629 72 71 79
-0.0409019 -0.237475 -0.641 74 73 81
-0.0351229 -0.239698 -0.647 76 74 85
-0.147253 -0.229387 -0.616 182 182 184
-0.13618 -0.230504 -0.619 247 246 244
-0.131337 -0.232366 -0.624 250 249 247
-0.124803 -0.233483 -0.627 248 247 245
-0.123609 -0.233483 -0.627 243 242 240
-0.117637 -0.233483 -0.627 233 233 231
-0.110119 -0.232738 -0.625 142 144 143
-0.100112 -0.231621 -0.622 72 71 76
-0.0904905 -0.22827 -0.613 78 77 83
-0.0825314 -0.225663 -0.606 74 73 79
-0.0813771 -0.225663 -0.606 75 74 80
-0.0722619 -0.226035 -0.607 72 71 79
-0.0609171 -0.231249 -0.621 72 71 77
-0.0553571 -0.232738 -0.625 72 71 79
-0.0442867 -0.237207 -0.637 74 73 81
-0.0419914 -0.237951 -0.639 74 73 81
-0.159334 -0.239917 -0.641 122 123 125
-0.129106 -0.231683 -0.619 224 224 224
-0.110241 -0.231683 -0.619 77 78 83
-0.108754 -0.233554 -0.624 118 119 121
-0.100809 -0.231683 -0.619 79 78 84
-0.0744514 -0.226817 -0.606 74 73 79
-0.0702952 -0.228314 -0.61 73 72 80
-0.0672476 -0.229811 -0.614 72 71 79
-0.0661857 -0.230186 -0.615 72 71 79
-0.0598305 -0.232806 -0.622 72 71 77
-0.049879 -0.236174 -0.631 73 72 80
-0.155913 -0.239633 -0.637 121 122 124
-0.141403 -0.229852 -0.611 97 96 102
-0.131357 -0.230605 -0.613 149 149 151
-0.13019 -0.230605 -0.613 151 151 153
-0.112675 -0.230605 -0.613 74 75 80
-0.11034 -0.230605 -0.613 72 72 80
-0.109062 -0.232862 -0.619 71 72 77
-0.0973371 -0.230229 -0.612 78 77 85
-0.09454 -0.2291 -0.609 75 74 80
-0.09338 -0.2291 -0.609 76 75 81
-0.0834095 -0.227219 -0.604 75 74 80
-0.0799581 -0.227219 -0.604 75 74 80
-0.0777857 -0.227595 -0.605 75 74 80
-0.0745743 -0.228348 -0.607 74 73 79
-0.0673571 -0.231357 -0.615 73 72 80
-0.0642581 -0.232862 -0.619 72 71 79
-0.0532305 -0.236248 -0.628 74 73 81
-0.0409019 -0.241138 -0.641 75 74 82
-0.1305 -0.23026 -0.609 81 80 86
-0.12818 -0.23026 -0.609 76 75 81
-0.12702 -0.23026 -0.609 74 73 79
-0.12354 -0.23026 -0.609 69 68 74
-0.105497 -0.231394 -0.612 75 75 85
-0.104161 -0.231016 -0.611 72 72 82
-0.0746971 -0.229882 -0.608 74 73 79
-0.0706409 -0.231772 -0.613 73 72 80
-0.051 -0.2382 -0.63 74 72 83
-0.0465667 -0.24009 -0.635 75 74 82
-0.0374714 -0.243871 -0.645 76 74 85
-0.15984 -0.24624 -0.648 129 131 128
-0.151556 -0.24092 -0.634 112 113 115
-0.149163 -0.23902 -0.629 111 112 116
-0.09246 -0.22914 -0.603 76 75 81
-0.0913114 -0.22914 -0.603 77 76 82
-0.0865733 -0.22876 -0.602 76 75 81
-0.0718086 -0.23294 -0.613 74 73 79
-0.0654371 -0.23522 -0.619 73 71 82
-0.154932 -0.245565 -0.643 116 117 119
-0.150349 -0.242128 -0.634 111 112 114
-0.137911 -0.233344 -0.611 98 99 104
-0.12556 -0.229907 -0.602 65 66 71
-0.114474 -0.228379 -0.598 57 56 62
-0.106243 -0.230289 -0.603 61 61 69
-0.0740229 -0.233726 -0.612 75 74 80
-0.0655429 -0.236781 -0.62 74 72 83
-0.122243 -0.229134 -0.597 62 63 68
-0.0996667 -0.229518 -0.598 70 69 75
-0.0929876 -0.229902 -0.599 73 72 80
-0.0855686 -0.231437 -0.603 79 77 88
-0.0825314 -0.232589 -0.606 76 75 81
-0.0804876 -0.233356 -0.608 76 75 81
-0.060119 -0.239881 -0.625 74 73 81
-0.0442867 -0.244487 -0.637 76 75 83
-0.0409019 -0.246022 -0.641 76 75 83
-0.03858 -0.24679 -0.643 76 74 85
-0.0374133 -0.247173 -0.644 75 73 84
-0.0351229 -0.248325 -0.647 77 75 86
-0.0339952 -0.249092 -0.649 77 75 86
-0.152957 -0.248786 -0.645 121 123 122
-0.108051 -0.229114 -0.594 63 62 70
-0.101604 -0.229886 -0.596 66 65 71
-0.0931429 -0.231429 -0.6 77 77 85
-0.09116 -0.2322 -0.602 77 76 84
-0.0868609 -0.232971 -0.604 79 78 86
-0.0858524 -0.233357 -0.605 79 78 86
-0.0711019 -0.237986 -0.617 75 74 82
-0.0688629 -0.238371 -0.618 74 73 81
-0.0634867 -0.2403 -0.623 75 74 82
-0.0612114 -0.240686 -0.624 75 74 82
-0.0522 -0.243 -0.63 73 71 82
-0.047701 -0.244543 -0.634 89 87 98
-0.043141 -0.246086 -0.638 72 70 81
-0.0397429 -0.247629 -0.642 77 75 86
-0.140169 -0.240711 -0.621 112 111 117
-0.11928 -0.22792 -0.588 77 76 82
-0.109386 -0.228308 -0.589 65 66 71
-0.103177 -0.22947 -0.592 63 64 69
-0.0732143 -0.238386 -0.615 75 74 82
-0.07216 -0.238773 -0.616 75 74 82
-0.0545133 -0.243812 -0.629 74 73 81
-0.0488314 -0.245363 -0.633 141 139 150
-0.047701 -0.24575 -0.634 144 142 153
-0.0442867 -0.246913 -0.637 72 70 81
-0.143628 -0.24579 -0.631 110 111 115
-0.139433 -0.242673 -0.623 110 111 116
-0.11928 -0.22904 -0.588 77 76 82
-0.112907 -0.227482 -0.584 78 78 86
-0.10957 -0.227482 -0.584 75 75 83
-0.0972257 -0.232546 -0.597 72 72 82
-0.0914629 -0.235272 -0.604 76 76 84
-0.0689743 -0.241115 -0.619 75 74 82
-0.051081 -0.24579 -0.631 130 130 138
-0.0442867 -0.248127 -0.637 73 71 82
-0.0339429 -0.252411 -0.648 76 75 83
0.197707 -0.239947 -0.616 183 138 133
-0.13869 -0.244643 -0.625 108 109 114
-0.112907 -0.228594 -0.584 72 73 78
-0.107345 -0.228594 -0.584 60 60 68
-0.100922 -0.231726 -0.592 65 65 73
-0.0991667 -0.2329 -0.595 68 68 78
-0.0973886 -0.234074 -0.598 71 71 79
-0.0799819 -0.239946 -0.613 75 74 82
-0.0668314 -0.243077 -0.621 75 74 82
-0.0625 -0.244643 -0.625 73 74 79
-0.0534 -0.2466 -0.63 69 69 77
-0.047701 -0.248166 -0.634 76 74 85
-0.0362429 -0.252471 -0.645 75 74 82
0.195651 -0.237206 -0.606 186 138 134
0.205251 -0.240337 -0.614 176 125 122
0.22472 -0.248949 -0.636 160 106 106
-0.131571 -0.241507 -0.614 101 104 109
-0.127128 -0.237573 -0.604 101 104 109
-0.122553 -0.233247 -0.593 64 65 70
-0.121014 -0.23246 -0.591 62 63 68
-0.117959 -0.230887 -0.587 61 62 67
-0.108271 -0.229313 -0.583 59 60 65
-0.102829 -0.232067 -0.59 56 56 64
-0.101092 -0.233247 -0.593 64 65 70
-0.0993333 -0.234427 -0.596 65 65 73
-0.08874 -0.23954 -0.609 77 76 82
-0.032759 -0.255273 -0.649 75 74 82
0.198786 -0.237967 -0.605 178 129 124
0.219151 -0.24662 -0.627 150 98 102
0.225221 -0.249373 -0.634 155 107 107
0.235636 -0.254093 -0.646 151 98 104
-0.119686 -0.23319 -0.59 84 87 94
-0.11816 -0.2324 -0.588 82 85 92
-0.116642 -0.23161 -0.586 78 81 88
-0.115329 -0.231214 -0.585 76 79 86
-0.1053 -0.231214 -0.585 94 95 100
-0.0967324 -0.237538 -0.601 68 69 74
-0.083621 -0.242676 -0.614 77 76 84
-0.032759 -0.25651 -0.649 77 76 84
0.192746 -0.235957 -0.597 187 140 134
0.221187 -0.247419 -0.626 158 99 101
0.24081 -0.256905 -0.65 148 97 104
-0.113629 -0.231137 -0.582 116 119 124
-0.112327 -0.23074 -0.581 114 117 122
-0.11122 -0.23074 -0.581 114 115 120
-0.1053 -0.232329 -0.585 90 91 96
-0.102654 -0.233917 -0.589 54 55 60
-0.0993333 -0.236697 -0.596 60 61 66
-0.0942295 -0.241066 -0.607 70 71 76
-0.0932267 -0.241463 -0.608 70 71 76
-0.083621 -0.243846 -0.614 77 76 84
-0.0781533 -0.245037 -0.617 77 76 84
-0.0693086 -0.247023 -0.622 75 74 82
-0.064881 -0.248214 -0.625 74 74 82
-0.0604076 -0.249406 -0.628 73 73 81
-0.0593057 -0.249803 -0.629 73 73 83
-0.0582 -0.2502 -0.63 73 73 83
-0.0512429 -0.251391 -0.633 115 115 125
-0.0362429 -0.256157 -0.645 74 73 81
0.18611 -0.240271 -0.605 189 142 136
0.20421 -0.239874 -0.604 160 102 98
-0.12797 -0.242621 -0.608 127 127 135
-0.109007 -0.231847 -0.581 120 120 128
-0.0760486 -0.24701 -0.619 75 74 82
-0.0593057 -0.251001 -0.629 74 74 82
-0.0547733 -0.252198 -0.632 73 73 83
-0.0432086 -0.254991 -0.639 77 75 86
-0.0397429 -0.256189 -0.642 75 73 84
0.177094 -0.254991 -0.639 192 144 142
0.194843 -0.236635 -0.593 180 121 113
0.199569 -0.238231 -0.597 173 113 103
0.209724 -0.243419 -0.61 143 94 100
0.228844 -0.252996 -0.634 138 89 95
-0.105869 -0.233354 -0.582 104 107 112
-0.0970543 -0.241774 -0.603 62 61 69
-0.0706067 -0.249793 -0.623 73 72 80
-0.0628 -0.251798 -0.628 75 74 82
-0.0605038 -0.252199 -0.629 74 73 81
-0.0582924 -0.253001 -0.631 75 74 82
-0.0513238 -0.254204 -0.634 74 73 81
-0.03858 -0.257812 -0.643 75 74 82
-0.0362429 -0.258614 -0.645 74 73 81
0.18231 -0.236161 -0.589 193 144 139
0.183927 -0.235359 -0.587 190 143 137
0.186163 -0.235359 -0.587 191 142 137
0.194186 -0.236963 -0.591 175 116 108
0.197767 -0.238567 -0.595 166 107 99
0.207536 -0.243378 -0.607 144 92 94
0.209724 -0.244581 -0.61 134 85 91
0.230777 -0.255006 -0.636 121 76 81
-0.107714 -0.233657 -0.58 112 113 118
-0.101263 -0.239297 -0.594 59 60 65
-0.0978771 -0.242117 -0.601 61 60 68
-0.09454 -0.24534 -0.609 65 64 72
-0.0872714 -0.247757 -0.615 74 73 81
-0.0850667 -0.24816 -0.616 75 74 82
-0.0795857 -0.249369 -0.619 76 75 83
-0.0761714 -0.249771 -0.62 77 76 84
-0.0606 -0.2538 -0.63 74 73 81
-0.0560657 -0.255009 -0.633 73 72 80
-0.0444257 -0.257426 -0.639 76 74 85
-0.0432086 -0.257426 -0.639 76 74 85
0.229205 -0.255814 -0.635 127 82 89
-0.118874 -0.23719 -0.586 118 118 126
-0.115647 -0.235167 -0.581 118 118 128
-0.10661 -0.234762 -0.58 103 104 109
-0.105687 -0.235167 -0.581 86 87 92
-0.10248 -0.238 -0.588 63 64 69
-0.0995 -0.241643 -0.597 61 60 68
-0.0972152 -0.244476 -0.604 60 59 67
-0.0841657 -0.250143 -0.618 77 76 84
-0.0773524 -0.250952 -0.62 77 76 84
-0.0514048 -0.257024 -0.635 74 73 81
-0.0467867 -0.258238 -0.638 74 72 83
0.1764 -0.238 -0.588 196 151 145
0.197434 -0.240429 -0.594 162 107 102
0.201378 -0.242452 -0.599 150 96 96
0.210068 -0.24731 -0.611 124 75 79
0.212614 -0.248929 -0.615 125 76 80
0.217054 -0.251357 -0.621 134 83 90
0.226071 -0.256214 -0.633 137 82 85
0.229566 -0.257429 -0.636 124 73 80
0.233448 -0.259048 -0.64 121 73 85
0.235033 -0.259452 -0.641 127 79 91
-0.135429 -0.257013 -0.632 117 118 123
-0.132313 -0.253353 -0.623 117 118 123
-0.115448 -0.235867 -0.58 117 117 127
-0.107343 -0.235053 -0.578 109 109 117
-0.101705 -0.239933 -0.59 65 66 71
-0.100469 -0.242373 -0.596 60 61 66
-0.0973762 -0.246033 -0.605 59 58 66
-0.0946952 -0.248067 -0.61 63 62 70
-0.0918076 -0.249693 -0.614 65 64 72
-0.08638 -0.250913 -0.617 74 73 81
-0.0841657 -0.25132 -0.618 76 75 83
-0.0831229 -0.251727 -0.619 76 75 83
-0.0808952 -0.252133 -0.62 76 75 83
-0.07866 -0.25254 -0.621 77 76 84
-0.0741667 -0.253353 -0.623 76 75 81
-0.0618981 -0.256607 -0.631 74 73 81
-0.0514857 -0.25864 -0.636 74 73 81
-0.04914 -0.259047 -0.637 72 71 79
0.16554 -0.253353 -0.623 196 151 145
0.166733 -0.248067 -0.61 194 150 137
0.186005 -0.237087 -0.583 184 134 125
0.222247 -0.255793 -0.629 131 79 91
-0.132526 -0.254949 -0.624 113 114 119
-0.1003 -0.2431 -0.595 63 64 69
-0.0990219 -0.245551 -0.601 60 59 67
-0.0887305 -0.252089 -0.617 70 69 77
-0.08652 -0.252497 -0.618 74 73 81
-0.0810257 -0.253723 -0.621 76 75 83
-0.0697543 -0.255766 -0.626 75 74 80
-0.0685619 -0.255766 -0.626 74 73 79
-0.0538238 -0.259443 -0.635 73 72 80
-0.0421229 -0.261894 -0.641 74 73 81
0.159095 -0.265571 -0.65 195 150 145
0.163248 -0.249229 -0.61 199 152 144
0.165731 -0.244326 -0.598 195 149 136
0.166886 -0.242691 -0.594 190 142 132
0.190635 -0.239831 -0.587 178 115 110
0.401928 -0.232069 -0.568 175 129 132
-0.116552 -0.238076 -0.58 112 112 122
-0.106426 -0.237666 -0.579 90 90 98
-0.103248 -0.240539 -0.586 69 69 77
-0.100922 -0.243002 -0.592 64 65 70
-0.0939933 -0.251622 -0.613 60 59 67
-0.0921067 -0.252853 -0.616 62 61 69
-0.0822086 -0.254906 -0.621 74 73 81
-0.0787867 -0.255316 -0.622 76 75 83
-0.0539086 -0.261063 -0.636 74 73 81
0.155173 -0.264347 -0.644 194 149 143
0.158837 -0.262294 -0.639 206 162 159
0.160839 -0.246696 -0.601 200 153 147
0.175105 -0.238076 -0.58 195 148 138
0.175906 -0.237666 -0.579 197 149 139
0.194186 -0.242591 -0.591 163 105 101
0.232092 -0.263936 -0.643 107 64 74
0.24081 -0.26681 -0.65 124 74 83
0.395906 -0.230277 -0.561 176 128 128
-0.1204 -0.24248 -0.588 111 111 121
-0.118469 -0.24083 -0.584 110 110 120
-0.116552 -0.239181 -0.58 110 110 120
-0.106426 -0.238769 -0.579 85 84 92
-0.0991867 -0.248253 -0.602 61 60 68
-0.0789133 -0.256913 -0.623 75 74 82
-0.0754743 -0.257326 -0.624 76 75 81
-0.0733314 -0.25815 -0.626 76 75 81
-0.0631 -0.260212 -0.631 74 73 79
-0.0585695 -0.26145 -0.634 73 72 78
-0.0480771 -0.263511 -0.639 75 74 82
0.156351 -0.259388 -0.629 202 157 154
0.161267 -0.243305 -0.59 188 142 129
0.19096 -0.24248 -0.588 173 112 109
0.192407 -0.242892 -0.589 170 109 106
0.390614 -0.228871 -0.555 177 131 133
0.399408 -0.228459 -0.554 183 138 135
0.401186 -0.228871 -0.555 181 136 133
0.41634 -0.23382 -0.567 181 140 138
0.42254 -0.23547 -0.571 183 142 140
-0.135643 -0.262243 -0.633 108 111 116
-0.11485 -0.239043 -0.577 107 110 117
-0.0993514 -0.249814 -0.603 61 60 68
-0.0833914 -0.257271 -0.621 71 70 76
-0.0812867 -0.2581 -0.623 73 72 78
-0.072139 -0.259343 -0.626 74 73 81
-0.07106 -0.259757 -0.627 75 74 82
-0.068781 -0.260171 -0.628 76 75 83
-0.05278 -0.2639 -0.637 75 74 82
0.152487 -0.2581 -0.623 204 159 154
0.153427 -0.257686 -0.622 202 155 149
0.156 -0.248571 -0.6 196 146 137
0.159871 -0.244014 -0.589 189 142 134
0.168476 -0.240286 -0.58 203 152 148
0.169289 -0.239871 -0.579 196 148 138
0.170097 -0.239457 -0.578 193 145 135
0.171198 -0.239457 -0.578 199 151 141
0.174199 -0.239043 -0.577 196 146 137
0.175298 -0.239043 -0.577 192 140 129
0.192733 -0.244429 -0.59 167 108 104
0.215034 -0.257686 -0.622 111 68 77
0.21761 -0.259343 -0.626 115 69 82
0.22055 -0.261414 -0.631 113 67 80
0.235857 -0.269286 -0.65 111 67 82
0.393711 -0.227443 -0.549 177 129 125
0.402573 -0.229514 -0.554 180 132 128
0.406875 -0.230757 -0.557 183 138 133
-0.129653 -0.256373 -0.616 109 109 121
-0.101092 -0.246801 -0.593 70 71 76
-0.0961714 -0.254709 -0.612 61 60 68
-0.0868 -0.258038 -0.62 68 67 75
-0.0586619 -0.264281 -0.635 73 72 78
-0.0552067 -0.265113 -0.637 74 73 81
0.152039 -0.252628 -0.607 203 155 145
0.15444 -0.247217 -0.594 198 148 139
0.168996 -0.240558 -0.578 193 143 132
0.1728 -0.239726 -0.576 199 147 136
0.178905 -0.240558 -0.578 181 127 117
0.180006 -0.240558 -0.578 181 127 117
0.2059 -0.25346 -0.609 131 87 88
0.218652 -0.261784 -0.629 114 70 83
0.383576 -0.226824 -0.545 173 123 124
0.388053 -0.226408 -0.544 177 128 124
0.415467 -0.233067 -0.56 186 137 130
0.419091 -0.233899 -0.562 185 138 130
0.423806 -0.234731 -0.564 188 141 133
-0.118266 -0.24375 -0.583 102 102 110
-0.105687 -0.242913 -0.581 65 65 73
-0.103424 -0.245422 -0.587 80 80 88
-0.0901971 -0.258801 -0.619 62 61 69
-0.0824733 -0.260473 -0.623 70 69 77
-0.0552067 -0.266327 -0.637 73 72 80
-0.0539933 -0.266327 -0.637 73 72 80
-0.0493714 -0.267581 -0.64 73 72 80
0.147253 -0.257547 -0.616 197 154 148
0.151809 -0.249603 -0.597 194 147 137
0.1534 -0.246676 -0.59 193 144 137
0.15908 -0.243331 -0.582 190 138 124
0.164057 -0.242495 -0.58 201 151 140
0.167605 -0.241241 -0.577 204 150 140
0.17031 -0.240405 -0.575 198 146 133
0.180006 -0.241659 -0.578 180 126 114
0.19306 -0.247094 -0.591 158 104 102
0.199096 -0.250439 -0.599 138 89 92
0.381412 -0.232879 -0.557 187 138 144
0.378714 -0.229952 -0.55 188 139 142
0.379066 -0.227026 -0.543 180 129 128
0.435591 -0.238732 -0.571 192 148 145
-0.107157 -0.24234 -0.577 76 79 86
-0.10476 -0.24444 -0.582 77 77 85
-0.0848467 -0.26166 -0.623 66 65 73
-0.0769086 -0.26292 -0.626 74 73 81
-0.0723695 -0.26376 -0.628 75 74 82
-0.0700886 -0.26418 -0.629 76 75 83
-0.0586619 -0.2667 -0.635 73 72 80
-0.0575429 -0.26712 -0.636 74 73 81
-0.0517286 -0.26838 -0.639 72 71 79
0.154646 -0.24444 -0.582 183 131 118
0.160466 -0.24318 -0.579 194 140 128
0.168119 -0.2415 -0.575 199 146 138
0.1725 -0.2415 -0.575 201 144 133
0.186324 -0.24528 -0.584 173 119 109
0.19306 -0.24822 -0.591 161 104 97
0.199429 -0.252 -0.6 135 89 91
0.217454 -0.26418 -0.629 113 67 80
0.222996 -0.26796 -0.638 98 57 71
0.376971 -0.2268 -0.54 179 130 126
0.38038 -0.22638 -0.539 181 128 122
0.413871 -0.2331 -0.555 192 142 133
-0.105505 -0.244705 -0.58 69 69 77
-0.100637 -0.251877 -0.597 76 75 81
-0.0983419 -0.257784 -0.611 62 61 69
-0.0881229 -0.262003 -0.621 62 61 69
-0.0803571 -0.26369 -0.625 71 70 78
-0.078101 -0.264112 -0.626 72 71 79
-0.0609848 -0.267488 -0.634 74 73 81
-0.05642 -0.268753 -0.637 73 72 80
-0.0517286 -0.269597 -0.639 72 71 79
0.150728 -0.246392 -0.584 193 143 132
0.164023 -0.243017 -0.576 199 147 136
0.171107 -0.242173 -0.574 197 144 136
0.1722 -0.242173 -0.574 196 139 128
0.177189 -0.243017 -0.576 182 123 109
0.379991 -0.226563 -0.537 180 127 119
0.387567 -0.227407 -0.539 185 132 124
0.399451 -0.229516 -0.544 185 133 122
0.410889 -0.23247 -0.551 192 142 133
0.425372 -0.235845 -0.559 188 139 134
-0.134571 -0.266152 -0.628 96 99 108
-0.119581 -0.247505 -0.584 94 97 106
-0.107157 -0.244538 -0.577 72 72 80
-0.104186 -0.247929 -0.585 85 85 93
-0.101433 -0.252167 -0.595 80 79 85
-0.0976552 -0.260219 -0.614 62 61 69
-0.0848467 -0.264033 -0.623 65 64 72
-0.0656076 -0.267848 -0.632 75 74 82
-0.0633 -0.268271 -0.633 76 75 83
-0.05642 -0.269967 -0.637 73 72 80
0.1414 -0.256829 -0.606 200 152 142
0.159634 -0.244114 -0.576 202 148 138
0.1722 -0.243267 -0.574 193 136 125
0.182838 -0.24581 -0.58 174 116 105
0.197955 -0.253862 -0.599 143 97 97
0.202577 -0.256829 -0.606 126 84 88
0.21046 -0.262338 -0.619 105 61 74
0.222476 -0.271238 -0.64 94 53 67
0.390343 -0.228857 -0.54 184 131 123
0.4301 -0.237757 -0.561 186 138 134
0.443347 -0.243267 -0.574 179 138 144
-0.12797 -0.258834 -0.608 96 98 110
-0.119376 -0.248191 -0.583 94 97 106
-0.112766 -0.243509 -0.572 94 97 102
-0.101433 -0.2533 -0.595 82 81 87
-0.08722 -0.26522 -0.623 60 59 67
-0.078101 -0.266497 -0.626 71 70 78
-0.0758371 -0.266923 -0.627 72 71 79
0.141337 -0.253726 -0.596 197 147 136
0.146278 -0.248617 -0.584 193 141 130
0.153317 -0.245637 -0.577 194 141 127
0.160173 -0.24436 -0.574 195 141 131
0.161267 -0.24436 -0.574 194 142 131
0.163169 -0.243934 -0.573 199 147 136
0.373061 -0.239251 -0.562 186 133 139
0.371971 -0.235846 -0.554 187 135 139
0.371007 -0.234569 -0.551 190 135 140
0.368723 -0.231163 -0.543 190 135 140
0.36874 -0.228609 -0.537 190 136 136
0.377557 -0.227757 -0.535 181 127 117
0.378576 -0.227757 -0.535 181 127 117
0.421568 -0.235846 -0.554 187 138 133
-0.127759 -0.259565 -0.607 95 97 109
-0.098181 -0.260848 -0.61 74 73 81
-0.0940371 -0.265551 -0.621 56 55 63
-0.091819 -0.265979 -0.622 56 55 63
-0.0828705 -0.26769 -0.626 63 62 70
-0.0816781 -0.26769 -0.626 66 65 73
-0.0634 -0.27111 -0.634 74 73 81
0.139067 -0.254861 -0.596 197 147 136
0.146129 -0.247591 -0.579 193 139 129
0.14976 -0.246309 -0.576 189 135 125
0.153881 -0.245881 -0.575 174 118 105
0.159894 -0.245026 -0.573 197 143 131
0.163687 -0.24417 -0.571 196 144 133
0.175786 -0.245881 -0.575 178 120 108
0.181107 -0.247164 -0.578 175 118 111
0.184577 -0.248874 -0.582 167 112 109
0.196486 -0.255716 -0.598 133 91 93
0.367474 -0.236046 -0.552 186 130 133
0.366654 -0.232197 -0.543 188 132 133
0.368714 -0.228349 -0.534 185 130 127
0.369039 -0.227921 -0.533 184 129 124
0.377161 -0.227921 -0.533 183 126 115
0.411783 -0.234335 -0.548 188 138 131
0.431467 -0.239467 -0.56 182 138 127
0.443981 -0.244598 -0.572 180 136 149
-0.1335 -0.267593 -0.623 94 97 106
-0.105505 -0.249124 -0.58 84 84 94
-0.104186 -0.251271 -0.585 93 93 103
-0.0983419 -0.262439 -0.611 74 73 81
-0.0962476 -0.266305 -0.62 59 58 66
-0.0941886 -0.267164 -0.622 56 55 63
-0.0634 -0.272318 -0.634 73 72 78
-0.0611771 -0.273177 -0.636 74 73 81
0.136076 -0.26115 -0.608 195 143 132
0.137469 -0.255137 -0.594 190 138 127
0.138133 -0.254278 -0.592 194 142 131
0.141586 -0.250412 -0.583 197 143 133
0.147053 -0.246547 -0.574 194 137 126
0.152254 -0.246117 -0.573 172 116 103
0.153346 -0.246117 -0.573 173 117 104
0.178286 -0.247406 -0.576 179 120 112
0.192909 -0.255137 -0.594 138 92 94
0.19502 -0.256426 -0.597 134 88 90
0.199608 -0.259432 -0.604 128 86 88
0.204917 -0.263298 -0.613 117 77 85
0.370648 -0.249124 -0.58 177 122 127
0.364073 -0.241822 -0.563 180 125 130
0.365095 -0.236238 -0.55 185 126 130
0.367009 -0.228936 -0.533 188 130 128
0.37544 -0.228507 -0.532 183 126 115
0.377467 -0.228507 -0.532 184 127 116
0.384989 -0.229366 -0.534 182 128 116
0.388472 -0.230225 -0.536 185 132 118
0.398571 -0.231943 -0.54 185 131 119
0.412073 -0.23495 -0.547 189 139 130
0.41387 -0.235379 -0.548 189 139 130
0.423678 -0.237956 -0.554 186 137 130
-0.118762 -0.250229 -0.58 95 95 105
-0.109497 -0.246777 -0.572 89 89 99
-0.105323 -0.249797 -0.579 91 91 101
-0.104186 -0.252386 -0.585 92 92 102
-0.103003 -0.254974 -0.591 89 89 99
-0.0998457 -0.261446 -0.606 77 77 85
-0.0964029 -0.267917 -0.621 61 60 68
0.13354 -0.261877 -0.607 196 143 137
0.135203 -0.258426 -0.599 195 138 129
0.135878 -0.255406 -0.592 187 133 121
0.139993 -0.25066 -0.581 193 139 129
0.143177 -0.248503 -0.576 195 141 129
0.1558 -0.245914 -0.57 200 146 134
0.160143 -0.245914 -0.57 187 133 123
0.174083 -0.247209 -0.573 181 124 113
0.184894 -0.251523 -0.583 163 107 108
0.362779 -0.244189 -0.566 178 122 123
0.361487 -0.241169 -0.559 178 122 123
0.364146 -0.235991 -0.547 186 126 128
0.36999 -0.228657 -0.53 187 130 123
0.381222 -0.229951 -0.533 185 128 117
0.382237 -0.229951 -0.533 184 127 116
0.395046 -0.232109 -0.538 183 129 117
0.405957 -0.234266 -0.543 186 134 123
-0.135551 -0.2717 -0.627 95 98 105
-0.113656 -0.247433 -0.571 96 96 104
-0.108597 -0.2483 -0.573 79 79 89
-0.0933029 -0.2704 -0.624 57 56 64
-0.0693286 -0.2743 -0.633 74 73 81
-0.0681229 -0.2743 -0.633 73 72 80
0.133588 -0.272567 -0.629 187 139 125
0.134295 -0.255667 -0.59 194 140 128
0.153629 -0.247 -0.57 193 139 127
0.15661 -0.246567 -0.569 195 141 131
0.196 -0.26 -0.6 130 84 86
0.363 -0.238333 -0.55 181 119 122
0.363953 -0.233567 -0.539 179 120 122
0.363963 -0.230967 -0.533 190 132 130
0.365952 -0.229667 -0.53 187 128 124
0.368981 -0.229667 -0.53 189 130 122
0.382533 -0.230533 -0.532 183 126 117
0.389786 -0.231833 -0.535 185 128 117
0.416241 -0.237033 -0.547 186 136 127
0.418046 -0.237467 -0.548 185 135 126
0.429444 -0.240933 -0.556 182 129 123
-0.114945 -0.248956 -0.572 97 100 109
-0.106058 -0.251132 -0.577 75 75 85
-0.10476 -0.253309 -0.582 97 97 107
-0.0900248 -0.272459 -0.626 52 51 59
-0.0864476 -0.272459 -0.626 54 53 61
0.131293 -0.262013 -0.602 196 146 135
0.13134 -0.259837 -0.597 196 146 135
0.139157 -0.249391 -0.573 189 137 124
0.14794 -0.24765 -0.569 194 141 127
0.150108 -0.24765 -0.569 193 136 125
0.157417 -0.247215 -0.568 198 141 130
0.1876 -0.25592 -0.588 148 96 98
0.191777 -0.258531 -0.594 140 91 95
0.359574 -0.244169 -0.561 179 114 118
0.359357 -0.243298 -0.559 179 114 118
0.363609 -0.231111 -0.531 188 130 126
0.39738 -0.233723 -0.537 186 133 125
0.414719 -0.237205 -0.545 185 135 128
0.450377 -0.250697 -0.576 183 137 148
-0.12849 -0.264471 -0.605 96 99 106
-0.12264 -0.25704 -0.588 95 98 105
-0.104364 -0.256166 -0.586 96 96 106
-0.0982914 -0.270154 -0.618 75 75 83
-0.0865857 -0.274089 -0.627 51 50 58
-0.0831352 -0.274526 -0.628 57 56 64
-0.0716267 -0.276274 -0.632 73 72 80
0.132267 -0.279771 -0.64 198 150 140
0.12993 -0.262723 -0.601 197 149 139
0.15822 -0.24786 -0.567 193 139 129
0.163331 -0.247423 -0.566 197 143 133
0.180006 -0.252669 -0.578 167 113 103
0.1921 -0.2601 -0.595 130 83 89
0.359063 -0.241303 -0.552 175 113 118
0.3636 -0.236057 -0.54 173 113 113
0.362949 -0.234309 -0.536 182 122 122
0.362948 -0.232997 -0.533 193 133 132
0.363609 -0.232123 -0.531 188 129 125
0.363933 -0.231686 -0.53 189 130 126
0.364943 -0.231686 -0.53 188 129 123
0.367277 -0.231249 -0.529 190 132 121
0.369292 -0.231249 -0.529 187 129 118
0.377353 -0.231249 -0.529 185 128 117
0.378361 -0.231249 -0.529 184 127 116
0.392109 -0.233434 -0.534 182 128 118
0.393862 -0.233871 -0.535 183 129 117
-0.125233 -0.261233 -0.595 98 98 108
-0.118148 -0.25333 -0.577 99 99 107
-0.103776 -0.258599 -0.589 96 94 105
-0.103351 -0.260355 -0.593 95 93 104
-0.0913629 -0.275283 -0.627 50 51 56
-0.0889743 -0.275283 -0.627 50 51 56
-0.0705343 -0.277917 -0.633 72 71 79
0.132206 -0.252891 -0.576 195 143 132
0.14526 -0.24894 -0.567 197 140 129
0.14742 -0.24894 -0.567 201 144 133
0.154707 -0.248501 -0.566 189 132 123
0.16441 -0.248501 -0.566 192 138 128
0.176881 -0.252452 -0.575 172 115 108
0.359713 -0.242793 -0.553 173 111 116
0.365262 -0.232256 -0.529 189 130 124
0.370606 -0.231817 -0.528 189 131 120
0.371611 -0.231817 -0.528 189 131 120
0.374629 -0.231817 -0.528 187 130 119
0.381384 -0.232256 -0.529 180 123 112
0.4081 -0.236647 -0.539 183 131 120
0.413469 -0.237964 -0.542 186 134 123
-0.0855276 -0.276918 -0.628 50 49 57
-0.0844657 -0.277359 -0.629 51 50 58
-0.0832676 -0.277359 -0.629 52 51 59
-0.0787248 -0.278241 -0.631 62 61 69
-0.0752381 -0.278682 -0.632 68 67 75
0.127853 -0.265453 -0.602 195 142 134
0.130237 -0.25443 -0.577 206 149 140
0.132146 -0.251784 -0.571 191 134 123
0.133 -0.251343 -0.57 188 131 120
0.14177 -0.249579 -0.566 189 131 120
0.152281 -0.249138 -0.565 192 135 126
0.156586 -0.249138 -0.565 195 138 127
0.175174 -0.252666 -0.573 172 117 110
0.180317 -0.255311 -0.579 157 102 95
0.184099 -0.257516 -0.584 153 97 96
0.36329 -0.23591 -0.535 191 131 131
0.36328 -0.234587 -0.532 186 126 126
0.365262 -0.233264 -0.529 189 130 126
0.366583 -0.232823 -0.528 191 132 126
0.371911 -0.232382 -0.527 191 132 124
0.372915 -0.232382 -0.527 191 132 124
0.37664 -0.232823 -0.528 185 128 117
0.381384 -0.233264 -0.529 180 123 112
0.397194 -0.235469 -0.534 185 131 119
0.404808 -0.23635 -0.536 183 131 118
0.42873 -0.242965 -0.551 182 125 114
-0.0832676 -0.278557 -0.629 51 50 58
-0.0786 -0.279 -0.63 60 59 67
0.128914 -0.255086 -0.576 204 147 138
0.131914 -0.252429 -0.57 182 124 112
0.137457 -0.250657 -0.566 196 138 126
0.145824 -0.250214 -0.565 198 140 129
0.147976 -0.250214 -0.565 196 138 127
0.15416 -0.249771 -0.564 183 125 114
0.17269 -0.253314 -0.572 176 117 109
0.173779 -0.253314 -0.572 176 117 109
0.17548 -0.2542 -0.574 174 117 108
0.193714 -0.265714 -0.6 160 129 144
0.363953 -0.2387 -0.539 171 111 113
0.364254 -0.234271 -0.529 187 128 124
0.365262 -0.234271 -0.529 188 129 125
0.369904 -0.233386 -0.527 191 132 124
0.375927 -0.233386 -0.527 185 128 119
0.383399 -0.234271 -0.529 179 122 111
0.39368 -0.2356 -0.532 181 127 115
0.397466 -0.236043 -0.533 181 127 115
0.409654 -0.237814 -0.537 184 132 121
0.424576 -0.242243 -0.547 184 127 116
-0.0959867 -0.278421 -0.626 66 66 74
-0.0949457 -0.278866 -0.627 60 60 68
-0.0798 -0.2802 -0.63 55 54 62
0.126989 -0.278421 -0.626 195 147 137
0.125769 -0.268191 -0.603 193 145 135
0.128883 -0.253959 -0.571 201 149 138
0.140194 -0.250846 -0.564 192 134 122
0.141269 -0.250846 -0.564 195 137 125
0.14664 -0.250846 -0.564 194 136 124
0.147714 -0.250846 -0.564 197 139 128
0.158176 -0.250401 -0.563 194 136 125
0.213609 -0.284203 -0.639 127 119 143
0.365901 -0.247288 -0.556 161 99 102
0.36696 -0.247288 -0.556 162 100 103
0.366695 -0.246398 -0.554 164 99 103
0.366809 -0.245064 -0.551 165 100 104
0.365577 -0.234834 -0.528 188 131 124
0.370204 -0.233945 -0.526 190 133 124
0.375213 -0.233945 -0.526 186 127 119
0.386422 -0.235279 -0.529 179 122 111
0.38743 -0.235279 -0.529 178 124 112
0.395707 -0.236613 -0.532 181 127 115
0.397733 -0.236613 -0.532 184 130 118
0.425618 -0.243285 -0.547 185 128 119
-0.114744 -0.255047 -0.571 108 108 118
-0.110587 -0.255493 -0.572 100 99 107
-0.10067 -0.272913 -0.611 88 88 96
-0.0915086 -0.280507 -0.628 48 48 56
-0.0855276 -0.280507 -0.628 48 47 55
-0.0820695 -0.280953 -0.629 50 49 57
0.138046 -0.25192 -0.564 195 139 126
0.151742 -0.251473 -0.563 184 126 115
0.161393 -0.251473 -0.563 179 121 110
0.162754 -0.25192 -0.564 181 123 112
0.213609 -0.28542 -0.639 127 119 143
0.3645 -0.25326 -0.567 161 100 105
0.3666 -0.24388 -0.546 155 93 98
0.3689 -0.235393 -0.527 190 133 124
0.37321 -0.234947 -0.526 190 131 123
0.3745 -0.2345 -0.525 186 127 119
0.3765 -0.2345 -0.525 182 125 116
0.38195 -0.235393 -0.527 180 123 114
0.4028 -0.237627 -0.532 183 129 117
0.407366 -0.23852 -0.534 186 132 120
0.409148 -0.238967 -0.535 185 131 121
-0.129214 -0.270489 -0.603 104 104 114
-0.121806 -0.261966 -0.584 110 110 120
-0.113457 -0.255686 -0.57 110 110 120
-0.112371 -0.255686 -0.57 109 109 119
-0.0982143 -0.280357 -0.625 74 77 82
-0.09614 -0.281254 -0.627 66 66 74
-0.0901686 -0.281254 -0.627 45 45 53
0.123057 -0.264657 -0.59 194 144 135
0.12693 -0.256583 -0.572 201 149 138
0.130989 -0.253891 -0.566 191 134 123
0.13291 -0.253443 -0.565 194 137 128
0.18094 -0.26062 -0.581 149 91 89
0.185045 -0.263311 -0.587 140 83 89
0.214946 -0.288431 -0.643 199 202 233
0.243335 -0.284394 -0.634 163 106 115
0.399908 -0.291123 -0.649 184 169 200
0.368671 -0.265106 -0.591 150 121 139
0.365274 -0.261069 -0.582 163 136 153
0.36764 -0.24492 -0.546 169 108 113
0.366583 -0.236846 -0.528 189 132 125
0.370204 -0.235949 -0.526 190 133 124
0.375783 -0.235051 -0.524 183 126 117
0.383957 -0.236397 -0.527 179 122 113
0.387703 -0.236846 -0.528 180 123 112
0.390452 -0.237294 -0.529 177 123 111
-0.129 -0.271187 -0.602 103 103 113
-0.113656 -0.257222 -0.571 112 112 122
-0.10472 -0.26488 -0.588 104 104 114
-0.100834 -0.275691 -0.612 89 92 97
-0.093901 -0.282899 -0.628 56 56 64
-0.0901686 -0.282449 -0.627 45 46 51
0.125187 -0.258573 -0.574 194 142 131
0.12584 -0.257672 -0.572 195 143 132
0.143163 -0.253618 -0.563 195 137 123
0.172086 -0.256771 -0.57 169 111 107
0.397443 -0.290557 -0.645 189 173 209
0.372521 -0.269835 -0.599 153 125 147
0.369449 -0.258123 -0.573 152 91 99
0.370552 -0.25587 -0.568 149 89 99
0.3713 -0.249113 -0.553 162 99 108
0.366892 -0.237401 -0.527 189 132 125
0.3725 -0.2365 -0.525 189 130 122
0.376781 -0.23605 -0.524 184 127 118
0.383229 -0.23695 -0.526 179 122 113
0.389714 -0.237851 -0.528 178 124 112
0.39072 -0.237851 -0.528 179 125 113
0.401286 -0.238752 -0.53 184 130 118
0.406853 -0.239653 -0.532 186 132 120
0.408633 -0.240104 -0.533 184 130 118
0.413996 -0.241455 -0.536 182 129 115
0.439243 -0.250014 -0.555 173 129 118
-0.126579 -0.269619 -0.596 104 104 114
-0.117738 -0.260119 -0.575 108 108 118
-0.103256 -0.270976 -0.599 100 98 109
0.12118 -0.262833 -0.581 193 141 130
0.12475 -0.258762 -0.572 189 135 125
0.131367 -0.25469 -0.563 191 137 125
0.135415 -0.254238 -0.562 197 140 129
0.137556 -0.254238 -0.562 196 139 128
0.140768 -0.254238 -0.562 190 132 120
0.141838 -0.254238 -0.562 195 137 125
0.142909 -0.254238 -0.562 196 138 126
0.150402 -0.254238 -0.562 182 124 113
0.152271 -0.253786 -0.561 186 128 117
0.157614 -0.253786 -0.561 187 128 120
0.185675 -0.266452 -0.589 128 79 82
0.23631 -0.282738 -0.625 167 119 115
0.23712 -0.282286 -0.624 161 112 116
0.240265 -0.28319 -0.626 152 104 116
0.37882 -0.276405 -0.611 139 124 147
0.369797 -0.267357 -0.591 183 168 189
0.36462 -0.240214 -0.531 178 117 116
0.36627 -0.23931 -0.529 182 127 124
0.366892 -0.238405 -0.527 186 128 124
0.367198 -0.237952 -0.526 189 131 127
0.387972 -0.238405 -0.527 180 123 112
0.394743 -0.238857 -0.528 183 129 117
0.398766 -0.238857 -0.528 183 129 117
0.400529 -0.23931 -0.529 181 128 114
-0.11644 -0.26076 -0.574 108 108 118
-0.106232 -0.265303 -0.584 160 160 170
-0.103601 -0.273026 -0.601 99 99 107
-0.102491 -0.276206 -0.608 97 96 104
-0.100646 -0.280749 -0.618 89 92 99
0.126676 -0.257126 -0.566 194 137 126
0.128605 -0.256671 -0.565 188 130 119
0.131133 -0.255309 -0.562 191 134 123
0.165195 -0.256671 -0.565 172 111 108
0.17548 -0.26076 -0.574 158 108 101
0.181251 -0.264394 -0.582 142 86 89
0.243037 -0.284837 -0.627 137 91 101
0.37731 -0.261214 -0.575 143 88 94
0.369402 -0.247131 -0.544 162 105 112
0.414486 -0.242589 -0.534 185 129 116
0.437127 -0.250311 -0.551 183 129 117
-0.109166 -0.262766 -0.576 73 73 85
-0.10266 -0.27782 -0.609 96 97 101
-0.100112 -0.28375 -0.622 85 88 95
0.118763 -0.269609 -0.591 199 142 135
0.135174 -0.255923 -0.561 197 139 128
0.136243 -0.255923 -0.561 196 138 127
0.137311 -0.255923 -0.561 196 138 127
0.142654 -0.255923 -0.561 198 140 129
0.14586 -0.255923 -0.561 197 140 129
0.151203 -0.255923 -0.561 179 121 110
0.173779 -0.260941 -0.572 168 109 103
0.232057 -0.282838 -0.62 177 130 124
0.376455 -0.272802 -0.598 202 184 208
0.378475 -0.267784 -0.587 154 100 116
0.379934 -0.264134 -0.579 150 94 105
0.382581 -0.263678 -0.578 156 98 110
0.382786 -0.26231 -0.575 159 107 119
0.374757 -0.253186 -0.555 160 110 121
0.36806 -0.245887 -0.539 168 111 118
0.391244 -0.239956 -0.526 180 123 112
0.400018 -0.240412 -0.527 186 130 117
0.403794 -0.240869 -0.528 183 130 116
0.408352 -0.241781 -0.53 186 130 117
-0.134783 -0.283103 -0.618 95 93 104
-0.127216 -0.274399 -0.599 95 93 104
-0.110071 -0.263405 -0.575 84 84 96
-0.10561 -0.27165 -0.593 169 170 174
-0.0840629 -0.286768 -0.626 36 35 43
0.117924 -0.27669 -0.604 199 142 133
0.124096 -0.260656 -0.569 187 128 120
0.126676 -0.259282 -0.566 192 132 124
0.16794 -0.25974 -0.567 174 111 102
0.1707 -0.260656 -0.569 175 112 103
0.174083 -0.262489 -0.573 168 109 101
0.186306 -0.270734 -0.591 119 79 90
0.230605 -0.280812 -0.613 178 128 129
0.239143 -0.284019 -0.62 147 100 108
0.381179 -0.268444 -0.586 156 98 113
0.381643 -0.267986 -0.585 153 97 110
0.38367 -0.26707 -0.583 151 99 111
0.365952 -0.24279 -0.53 170 118 122
0.372077 -0.239584 -0.523 187 128 122
0.3885 -0.2405 -0.525 180 122 111
0.401022 -0.241416 -0.527 184 131 117
0.405806 -0.241874 -0.528 183 129 117
0.420357 -0.245081 -0.535 183 129 117
-0.129643 -0.2783 -0.605 93 91 102
-0.124812 -0.27278 -0.593 93 91 102
-0.108819 -0.2668 -0.58 68 68 76
-0.10561 -0.27278 -0.593 183 185 184
-0.105186 -0.27462 -0.597 167 171 170
-0.1025 -0.2829 -0.615 141 144 137
0.118575 -0.29072 -0.632 191 133 129
0.117356 -0.26864 -0.584 193 135 131
0.11972 -0.26404 -0.574 189 132 125
0.120813 -0.26404 -0.574 189 132 125
0.146929 -0.25806 -0.561 186 126 116
0.163538 -0.25898 -0.563 169 108 103
0.228642 -0.28244 -0.614 189 139 138
0.229852 -0.28106 -0.611 179 129 132
0.236427 -0.28336 -0.616 152 107 114
0.387317 -0.28474 -0.619 202 194 215
0.383786 -0.27462 -0.597 151 125 138
0.383633 -0.2737 -0.595 156 113 132
0.383306 -0.27186 -0.591 156 101 120
0.369087 -0.24794 -0.539 159 106 116
0.37236 -0.24012 -0.522 188 129 121
0.38776 -0.24104 -0.524 180 122 111
0.39425 -0.24196 -0.526 183 127 114
0.398257 -0.24196 -0.526 185 129 116
0.404033 -0.24242 -0.527 179 126 110
0.409597 -0.24334 -0.529 182 128 116
0.424997 -0.24702 -0.537 183 129 117
0.433646 -0.25024 -0.544 181 127 115
0.437079 -0.25162 -0.547 179 127 116
-0.120487 -0.26929 -0.583 88 86 97
0.119929 -0.265595 -0.575 187 130 123
0.120603 -0.264671 -0.573 187 130 123
0.123878 -0.262362 -0.568 190 131 125
0.125598 -0.261438 -0.566 192 133 125
0.134106 -0.259129 -0.561 195 138 129
0.144791 -0.259129 -0.561 188 128 120
0.156267 -0.258667 -0.56 185 125 117
0.227102 -0.283148 -0.613 184 130 130
0.227525 -0.282224 -0.611 187 137 138
0.23026 -0.2813 -0.609 173 121 125
0.387776 -0.279452 -0.605 165 144 161
0.38621 -0.273448 -0.592 162 118 135
0.39301 -0.271138 -0.587 201 174 189
0.380267 -0.258667 -0.56 154 108 121
0.367198 -0.242962 -0.526 187 128 130
0.371366 -0.241114 -0.522 189 130 124
0.377867 -0.24019 -0.52 184 125 117
0.379586 -0.240652 -0.521 184 126 115
0.3995 -0.2425 -0.525 182 129 115
-0.122849 -0.273184 -0.589 86 84 95
-0.100971 -0.287562 -0.62 154 160 160
0.115386 -0.274111 -0.591 191 136 129
0.117454 -0.268546 -0.579 193 136 129
0.118627 -0.266227 -0.574 188 131 122
0.131969 -0.260197 -0.561 192 135 128
0.163538 -0.261125 -0.563 168 105 100
0.174083 -0.265763 -0.573 160 103 92
0.181563 -0.270401 -0.583 135 90 93
0.22562 -0.28246 -0.609 196 142 142
0.238371 -0.286634 -0.618 139 94 99
0.244231 -0.290809 -0.627 146 107 112
0.252952 -0.296838 -0.64 228 224 241
0.399263 -0.297766 -0.642 160 159 191
0.393117 -0.28617 -0.617 188 175 192
0.388167 -0.275967 -0.595 168 135 152
0.394303 -0.275503 -0.594 179 155 171
0.394573 -0.271792 -0.586 178 142 154
0.389357 -0.26669 -0.575 152 109 126
0.384341 -0.262516 -0.566 151 108 125
0.38628 -0.242109 -0.522 182 124 112
0.395745 -0.243036 -0.524 184 128 115
0.409052 -0.244428 -0.527 184 128 115
0.414635 -0.245355 -0.529 187 131 118
-0.127853 -0.28036 -0.602 83 81 92
-0.125233 -0.2771 -0.595 83 81 92
-0.108271 -0.271511 -0.583 76 76 86
0.115329 -0.272443 -0.585 186 136 127
0.117251 -0.269183 -0.578 195 138 131
0.147997 -0.261266 -0.561 175 115 107
0.1552 -0.2608 -0.56 179 116 109
0.164903 -0.262663 -0.564 166 108 107
0.229431 -0.297591 -0.639 187 126 131
0.235275 -0.285483 -0.613 144 99 104
0.401049 -0.297591 -0.639 196 191 223
0.390587 -0.281291 -0.604 171 150 169
0.397431 -0.278031 -0.597 195 172 190
0.389263 -0.243103 -0.522 182 124 112
0.396982 -0.243569 -0.523 186 128 116
0.4065 -0.2445 -0.525 182 126 111
0.430111 -0.250089 -0.537 174 126 104
0.43779 -0.253349 -0.544 181 125 108
-0.125444 -0.278701 -0.596 80 80 88
-0.111553 -0.269816 -0.577 73 73 83
-0.104463 -0.283377 -0.606 196 196 194
-0.101823 -0.288989 -0.618 170 176 174
0.117049 -0.269816 -0.577 190 135 128
0.121057 -0.266543 -0.57 189 132 125
0.121929 -0.266075 -0.569 187 130 123
0.127077 -0.26327 -0.563 191 132 124
0.138133 -0.261867 -0.56 187 127 119
0.14586 -0.262334 -0.561 172 109 102
0.150933 -0.261867 -0.56 176 113 108
0.154133 -0.261867 -0.56 174 113 108
0.158683 -0.262334 -0.561 167 106 103
0.167644 -0.264672 -0.566 174 107 101
0.177804 -0.270284 -0.578 150 94 95
0.404784 -0.300679 -0.643 199 201 224
0.404114 -0.299276 -0.64 194 196 219
0.3689 -0.246435 -0.527 179 130 134
0.382819 -0.243162 -0.52 183 126 117
0.387525 -0.24363 -0.521 184 127 116
0.392246 -0.244097 -0.522 181 124 115
0.398974 -0.244565 -0.523 184 128 115
0.415075 -0.246435 -0.527 182 129 113
0.430331 -0.250644 -0.536 185 128 117
-0.110113 -0.272793 -0.581 70 70 80
-0.106145 -0.279836 -0.596 220 219 227
-0.104463 -0.284531 -0.606 205 205 203
0.114586 -0.289696 -0.617 186 131 126
0.113714 -0.281714 -0.6 188 134 124
0.114737 -0.273263 -0.582 187 134 128
0.11615 -0.271385 -0.578 183 128 123
0.116846 -0.270446 -0.576 183 128 123
0.1243 -0.265281 -0.565 189 132 125
0.136822 -0.262464 -0.559 188 128 120
0.141586 -0.263403 -0.561 184 124 114
0.143723 -0.263403 -0.561 172 109 102
0.149066 -0.263403 -0.561 169 106 101
0.156267 -0.262933 -0.56 165 104 99
0.161107 -0.263872 -0.562 162 101 98
0.2222 -0.284531 -0.606 198 137 134
0.22188 -0.282653 -0.602 203 143 142
0.223429 -0.281714 -0.6 202 142 141
0.227991 -0.283123 -0.603 174 119 112
0.252162 -0.299556 -0.638 211 205 219
0.405223 -0.298617 -0.636 200 188 200
0.393386 -0.283123 -0.603 187 170 189
0.39388 -0.282653 -0.602 187 170 189
0.403723 -0.283123 -0.603 194 177 195
0.36999 -0.248848 -0.53 181 139 149
0.375163 -0.243683 -0.519 182 126 125
0.382083 -0.243683 -0.519 181 127 117
0.3848 -0.244152 -0.52 183 126 117
0.396223 -0.245091 -0.522 184 127 116
0.4105 -0.2465 -0.525 180 126 114
-0.123891 -0.280029 -0.594 77 77 85
-0.116552 -0.273429 -0.58 77 77 85
-0.10957 -0.275314 -0.584 69 67 80
-0.101658 -0.290871 -0.617 156 160 161
0.114054 -0.295586 -0.627 190 132 128
0.120845 -0.268243 -0.569 187 130 123
0.121714 -0.267771 -0.568 183 126 119
0.132563 -0.263529 -0.559 187 129 118
0.157333 -0.264 -0.56 164 103 100
0.165195 -0.266357 -0.565 166 103 98
0.16686 -0.2673 -0.567 167 104 99
0.172388 -0.269186 -0.571 158 100 98
0.178111 -0.272957 -0.579 145 89 90
0.182186 -0.275786 -0.585 128 86 90
0.221467 -0.284743 -0.604 197 136 131
0.222286 -0.282857 -0.6 203 142 141
0.224197 -0.282386 -0.599 192 132 131
0.407073 -0.3003 -0.637 200 192 207
0.396995 -0.285214 -0.605 196 183 203
0.406401 -0.286157 -0.607 165 152 170
0.40602 -0.284271 -0.603 143 124 143
0.372639 -0.245614 -0.521 179 126 120
0.372914 -0.245143 -0.52 178 123 118
0.374174 -0.244671 -0.519 181 126 123
0.379373 -0.2442 -0.518 184 130 118
0.416291 -0.247971 -0.526 179 126 110
-0.13339 -0.292047 -0.617 79 79 87
-0.122347 -0.280213 -0.592 75 74 82
-0.113238 -0.274533 -0.58 70 70 80
-0.112133 -0.274533 -0.58 70 70 80
-0.108829 -0.277373 -0.586 71 69 82
-0.105094 -0.28542 -0.603 219 218 223
-0.100809 -0.292993 -0.619 64 68 69
0.113227 -0.291573 -0.616 187 136 132
0.11842 -0.27122 -0.573 189 134 129
0.147733 -0.265067 -0.56 172 109 102
0.158683 -0.26554 -0.561 162 103 99
0.164119 -0.267433 -0.565 164 105 101
0.178111 -0.27406 -0.579 144 90 90
0.221706 -0.289207 -0.611 198 139 135
0.410364 -0.305773 -0.646 188 185 206
0.395629 -0.288733 -0.61 162 149 169
0.406963 -0.284473 -0.601 192 169 189
0.399471 -0.2769 -0.585 191 164 181
0.37444 -0.245187 -0.518 181 123 121
0.38628 -0.245187 -0.518 182 125 116
0.388014 -0.24566 -0.519 181 127 117
0.391733 -0.246133 -0.52 180 126 116
0.425514 -0.250867 -0.53 174 122 108
0.433605 -0.253233 -0.535 165 116 102
0.441343 -0.256547 -0.542 166 112 100
-0.118874 -0.27849 -0.586 76 74 85
-0.110492 -0.277064 -0.583 72 70 81
-0.108264 -0.279915 -0.589 76 74 87
-0.106501 -0.284192 -0.598 226 224 235
-0.102333 -0.291796 -0.614 137 137 135
0.11505 -0.274688 -0.578 188 133 126
0.125781 -0.267084 -0.562 189 132 123
0.128533 -0.266133 -0.56 191 134 125
0.146667 -0.266133 -0.56 177 114 109
0.157614 -0.266609 -0.561 161 102 98
0.160036 -0.267084 -0.562 157 98 94
0.182186 -0.278014 -0.585 108 66 70
0.236057 -0.290846 -0.612 141 90 87
0.241894 -0.295123 -0.621 118 84 85
0.398091 -0.290846 -0.612 180 171 192
0.404712 -0.283242 -0.596 191 168 188
0.373631 -0.247599 -0.521 182 125 118
0.37444 -0.246173 -0.518 183 123 122
0.375427 -0.246173 -0.518 186 126 126
0.381595 -0.245698 -0.517 186 129 122
0.385293 -0.246173 -0.518 184 127 120
0.392957 -0.246649 -0.519 180 123 114
0.398667 -0.247124 -0.52 183 126 115
0.399657 -0.247124 -0.52 184 126 115
0.412712 -0.249025 -0.524 177 120 109
-0.127549 -0.289149 -0.606 75 75 87
-0.123173 -0.284377 -0.596 77 75 88
-0.116045 -0.278174 -0.583 75 75 83
0.117329 -0.273403 -0.573 192 137 132
0.126626 -0.267677 -0.561 190 133 124
0.136822 -0.266723 -0.559 190 131 123
0.137887 -0.266723 -0.559 185 124 119
0.156267 -0.2672 -0.56 159 98 95
0.160036 -0.268154 -0.562 152 93 89
0.164119 -0.269586 -0.565 159 100 96
0.178419 -0.276743 -0.58 140 90 91
0.223449 -0.284854 -0.597 189 128 125
0.385976 -0.266723 -0.559 171 152 172
0.373073 -0.249546 -0.523 181 128 122
0.385534 -0.246683 -0.517 184 127 120
0.393187 -0.24716 -0.518 183 126 117
0.3979 -0.247637 -0.519 184 127 118
0.40638 -0.248591 -0.521 174 120 108
0.434624 -0.255271 -0.535 156 106 97
-0.11816 -0.28168 -0.588 78 76 87
-0.10365 -0.291261 -0.608 173 172 180
0.111844 -0.300842 -0.628 189 139 128
0.115249 -0.277369 -0.579 192 138 138
0.11955 -0.272099 -0.568 181 126 121
0.126626 -0.268746 -0.561 190 133 126
0.127467 -0.268267 -0.56 190 133 124
0.141081 -0.267788 -0.559 169 108 103
0.1456 -0.268267 -0.56 178 117 112
0.1552 -0.268267 -0.56 160 99 96
0.158683 -0.268746 -0.561 160 101 95
0.161393 -0.269704 -0.563 152 93 89
0.166566 -0.271141 -0.566 154 101 97
0.174387 -0.274973 -0.574 150 91 93
0.176397 -0.27641 -0.577 137 87 90
0.223074 -0.285512 -0.596 187 126 121
0.22838 -0.287908 -0.601 161 108 100
0.410614 -0.288866 -0.603 199 184 203
0.374211 -0.251979 -0.526 184 137 143
0.374895 -0.249105 -0.52 182 122 121
0.403619 -0.249105 -0.52 179 122 113
0.410143 -0.250063 -0.522 172 116 103
0.4185 -0.2515 -0.525 176 120 107
-0.120294 -0.285205 -0.593 80 79 87
-0.113293 -0.281838 -0.586 80 79 87
-0.110508 -0.283281 -0.589 78 77 85
0.115749 -0.277029 -0.576 190 137 131
0.118677 -0.273662 -0.569 193 140 134
0.123006 -0.271257 -0.564 185 128 121
0.134451 -0.268371 -0.558 185 126 120
0.138951 -0.268852 -0.559 180 121 115
0.140016 -0.268852 -0.559 173 112 107
0.150933 -0.269333 -0.56 174 113 108
0.161393 -0.270776 -0.563 154 95 91
0.199311 -0.298671 -0.621 125 134 175
0.202754 -0.302038 -0.628 122 131 172
0.407738 -0.300595 -0.625 195 189 217
0.37513 -0.256348 -0.533 171 137 154
0.3745 -0.2525 -0.525 186 138 138
0.37407 -0.251538 -0.523 177 129 129
0.378641 -0.248652 -0.517 184 131 125
0.382823 -0.248171 -0.516 186 129 122
0.38455 -0.248652 -0.517 185 128 121
0.384789 -0.248171 -0.516 183 128 121
0.401854 -0.249614 -0.519 180 121 113
0.403619 -0.250095 -0.52 178 119 111
0.40461 -0.250095 -0.52 179 120 112
0.421301 -0.252981 -0.526 175 110 104
0.423106 -0.253462 -0.527 172 112 101
0.432187 -0.255867 -0.532 149 103 90
0.11078 -0.29406 -0.609 189 138 135
0.136577 -0.269434 -0.558 181 122 116
0.1456 -0.2704 -0.56 176 117 111
0.147733 -0.2704 -0.56 180 115 109
0.154133 -0.2704 -0.56 167 104 99
0.158683 -0.270883 -0.561 155 95 94
0.160036 -0.271366 -0.562 153 95 94
0.180143 -0.281023 -0.582 134 98 108
0.182186 -0.282471 -0.585 203 167 177
0.218827 -0.29744 -0.616 192 135 128
0.216147 -0.29068 -0.602 197 138 132
0.216989 -0.288749 -0.598 195 136 130
0.221194 -0.286817 -0.594 192 129 122
0.2227 -0.2873 -0.595 181 118 111
0.229907 -0.29068 -0.602 154 94 93
0.23761 -0.295991 -0.613 122 92 94
0.240336 -0.297923 -0.617 114 84 86
0.250186 -0.305649 -0.633 215 211 225
0.419528 -0.305166 -0.632 141 142 173
0.422853 -0.303234 -0.628 213 207 235
0.422024 -0.301786 -0.625 209 203 231
0.377242 -0.258811 -0.536 175 143 164
0.390458 -0.249637 -0.517 184 127 118
0.39812 -0.25012 -0.518 184 124 113
0.4056 -0.251086 -0.52 176 116 105
0.429552 -0.255914 -0.53 154 102 91
0.432187 -0.25688 -0.532 147 98 91
0.110508 -0.285525 -0.589 189 140 135
0.11485 -0.279708 -0.577 187 134 130
0.121931 -0.273406 -0.564 188 130 126
0.127239 -0.270982 -0.559 189 131 127
0.128074 -0.270497 -0.558 190 132 128
0.134451 -0.270497 -0.558 182 125 118
0.142146 -0.270982 -0.559 176 117 111
0.14534 -0.270982 -0.559 173 114 106
0.154133 -0.271467 -0.56 163 102 99
0.162466 -0.272921 -0.563 151 95 94
0.165195 -0.27389 -0.565 152 96 95
0.180143 -0.282131 -0.582 129 94 101
0.217406 -0.296674 -0.612 192 133 127
0.216571 -0.290857 -0.6 198 139 133
0.221194 -0.287949 -0.594 190 127 118
0.237223 -0.296674 -0.612 123 93 95
0.414817 -0.307339 -0.634 209 210 241
0.416681 -0.307824 -0.635 191 192 220
0.426893 -0.307339 -0.634 212 209 230
0.425246 -0.30443 -0.628 214 207 225
0.420927 -0.297159 -0.613 184 176 200
0.377467 -0.257893 -0.532 199 171 186
0.378641 -0.250622 -0.517 189 130 124
0.378891 -0.250137 -0.516 188 129 123
0.382823 -0.250137 -0.516 186 129 122
0.392428 -0.250622 -0.517 186 127 119
0.40482 -0.251591 -0.519 172 112 101
0.418701 -0.254015 -0.524 168 110 98
0.427734 -0.256439 -0.529 151 99 88
0.436662 -0.259348 -0.535 142 95 89
-0.123471 -0.29346 -0.603 93 94 99
-0.110314 -0.28908 -0.594 89 90 95
-0.10067 -0.297353 -0.611 62 63 68
0.110063 -0.30076 -0.618 189 136 132
0.11032 -0.28616 -0.588 189 140 135
0.11934 -0.27594 -0.567 188 133 130
0.124489 -0.27302 -0.561 187 129 125
0.129137 -0.27156 -0.558 190 132 128
0.138703 -0.27156 -0.558 175 116 110
0.139766 -0.27156 -0.558 174 115 109
0.14534 -0.272047 -0.559 173 113 105
0.1552 -0.272533 -0.56 157 102 99
0.169318 -0.276427 -0.568 140 88 90
0.176091 -0.28032 -0.576 149 98 95
0.426166 -0.31244 -0.642 180 181 209
0.428479 -0.307087 -0.631 215 210 230
0.428319 -0.306113 -0.629 217 209 230
0.426226 -0.301247 -0.619 169 168 199
0.377769 -0.25842 -0.531 192 168 184
0.375886 -0.253067 -0.52 184 125 117
0.378641 -0.251607 -0.517 188 131 124
0.392651 -0.25112 -0.516 187 128 120
0.41035 -0.253553 -0.521 167 107 96
0.41412 -0.25404 -0.522 168 108 97
0.428742 -0.257447 -0.529 147 95 84
-0.115033 -0.2907 -0.595 97 98 103
-0.109734 -0.291677 -0.597 91 92 97
-0.0996686 -0.299006 -0.612 61 62 67
-0.0986638 -0.299494 -0.613 59 60 65
0.109571 -0.288257 -0.59 187 136 132
0.11913 -0.276531 -0.566 188 133 130
0.128074 -0.272623 -0.558 188 130 126
0.140829 -0.272623 -0.558 179 118 113
0.215174 -0.289723 -0.593 189 130 126
0.220822 -0.289723 -0.593 184 120 111
0.381724 -0.262851 -0.538 195 176 195
0.376062 -0.255523 -0.523 173 128 125
