ply
format ascii 1.0
comment Created by Open3D
element vertex 1299
property double x
property double y
property double z
property uchar red
property uchar green
property uchar blue
end_header
0.11067 -0.327775 -0.556 192 139 131
0.130667 -0.330133 -0.56 161 104 93
0.135415 -0.331312 -0.562 156 99 90
0.137801 -0.331902 -0.563 151 97 87
0.142848 -0.33367 -0.566 148 93 86
0.150371 -0.336029 -0.57 136 87 82
0.160452 -0.338976 -0.575 133 85 81
0.164023 -0.339566 -0.576 130 85 82
0.170391 -0.341334 -0.579 126 81 76
0.189195 -0.349588 -0.593 124 85 78
0.232431 -0.366094 -0.621 179 179 203
0.243867 -0.365505 -0.62 150 164 201
0.328611 -0.307731 -0.522 200 148 137
0.331314 -0.306552 -0.52 199 150 135
0.366971 -0.306552 -0.52 196 142 132
0.373905 -0.306552 -0.52 185 131 119
0.376609 -0.307142 -0.521 188 134 122
0.402401 -0.318932 -0.541 150 106 103
1.1376 -0.37199 -0.631 202 206 191
1.13517 -0.369631 -0.627 202 204 191
0.0873743 -0.341254 -0.577 195 141 139
0.104691 -0.330017 -0.558 193 140 134
0.128304 -0.330609 -0.559 171 114 103
0.131969 -0.331791 -0.561 159 102 91
0.14418 -0.33534 -0.567 151 96 89
0.150371 -0.337114 -0.57 136 89 83
0.151723 -0.337706 -0.571 137 90 84
0.154168 -0.338297 -0.572 133 86 80
0.159357 -0.340071 -0.575 130 85 79
0.164308 -0.341254 -0.577 127 84 77
0.189833 -0.3519 -0.595 122 85 79
0.227333 -0.366686 -0.62 175 173 195
0.364607 -0.355449 -0.601 164 143 152
0.332127 -0.31878 -0.539 183 138 135
0.335311 -0.305769 -0.517 199 151 139
0.345159 -0.305769 -0.517 192 143 126
0.35076 -0.30636 -0.518 187 135 121
0.355391 -0.306951 -0.519 188 136 123
0.358357 -0.306951 -0.519 186 137 123
0.360334 -0.306951 -0.519 185 137 123
0.360627 -0.30636 -0.518 188 140 128
0.366266 -0.306951 -0.519 196 139 128
0.371209 -0.306951 -0.519 186 132 120
1.13639 -0.372009 -0.629 203 205 192
0.0865743 -0.34354 -0.579 193 144 139
0.101685 -0.331673 -0.559 197 144 138
0.105565 -0.330487 -0.557 194 141 135
0.109611 -0.329893 -0.556 192 139 133
0.124438 -0.329893 -0.556 177 120 109
0.138046 -0.33464 -0.564 149 95 85
0.14177 -0.335827 -0.566 150 95 88
0.16211 -0.342353 -0.577 131 84 76
0.17379 -0.345913 -0.583 121 78 72
0.189017 -0.353627 -0.596 121 84 78
0.2356 -0.367867 -0.62 85 88 119
0.238757 -0.367273 -0.619 172 174 199
0.242294 -0.367273 -0.619 159 172 204
0.244652 -0.367273 -0.619 173 186 218
0.362787 -0.354813 -0.598 158 136 138
0.328343 -0.308533 -0.52 196 148 136
0.343824 -0.305567 -0.515 190 140 131
0.373186 -0.30794 -0.519 184 130 118
0.3865 -0.3115 -0.525 171 121 110
0.388976 -0.312687 -0.527 164 114 103
1.13578 -0.372613 -0.628 203 205 192
1.13512 -0.370833 -0.625 214 216 203
0.0933333 -0.333333 -0.56 198 145 139
0.0976 -0.333333 -0.56 200 147 143
0.0995552 -0.332738 -0.559 200 147 141
0.101503 -0.332143 -0.558 196 143 137
0.106434 -0.330952 -0.556 190 137 129
0.125723 -0.331548 -0.557 174 116 105
0.138046 -0.335714 -0.564 148 95 87
0.140691 -0.336905 -0.566 149 96 88
0.1482 -0.339286 -0.57 140 87 81
0.1558 -0.341667 -0.574 128 81 73
0.157167 -0.342262 -0.575 128 81 73
0.167371 -0.345238 -0.58 128 83 77
0.170166 -0.346429 -0.582 126 81 75
0.181495 -0.35119 -0.59 123 82 78
0.189651 -0.355952 -0.598 121 86 82
0.19111 -0.356548 -0.599 123 88 84
0.221071 -0.368452 -0.619 172 168 185
0.228514 -0.369048 -0.62 170 175 197
0.23522 -0.368452 -0.619 120 123 154
0.236399 -0.368452 -0.619 158 161 192
0.32674 -0.31369 -0.527 185 136 129
0.335976 -0.306548 -0.515 196 148 134
0.33924 -0.305952 -0.514 193 143 132
0.34971 -0.306548 -0.515 188 136 123
0.351671 -0.306548 -0.515 181 129 116
0.352652 -0.306548 -0.515 180 128 115
0.354614 -0.306548 -0.515 180 128 115
0.3605 -0.306548 -0.515 186 134 121
0.366114 -0.307143 -0.516 187 133 123
0.368793 -0.307738 -0.517 185 131 121
0.370763 -0.307738 -0.517 184 130 118
0.373453 -0.308333 -0.518 182 128 116
0.401471 -0.319643 -0.537 146 102 93
1.13636 -0.373214 -0.627 202 204 191
0.0883143 -0.335594 -0.562 194 144 137
0.0933333 -0.3344 -0.56 198 145 139
0.0942314 -0.333803 -0.559 198 145 139
0.10044 -0.333206 -0.558 197 144 138
0.103443 -0.332609 -0.557 190 137 129
0.1147 -0.331414 -0.555 186 129 118
0.115757 -0.331414 -0.555 181 124 113
0.133274 -0.335594 -0.562 157 102 95
0.144689 -0.339774 -0.569 145 92 86
0.145772 -0.339774 -0.569 143 90 84
0.150899 -0.341566 -0.572 132 87 81
0.151989 -0.341566 -0.572 131 86 80
0.166267 -0.346343 -0.58 128 87 83
0.17752 -0.35112 -0.588 119 82 76
0.330486 -0.321263 -0.538 182 129 123
0.3265 -0.3135 -0.525 187 134 126
0.332357 -0.308723 -0.517 197 148 134
0.339557 -0.306334 -0.513 194 142 129
0.351283 -0.306334 -0.513 186 132 120
0.353237 -0.306334 -0.513 180 126 114
0.360779 -0.306931 -0.514 187 133 121
0.378129 -0.309917 -0.519 184 132 121
0.105375 -0.33307 -0.556 192 137 130
0.111328 -0.331872 -0.554 193 139 127
0.115549 -0.331872 -0.554 178 121 112
0.121043 -0.332471 -0.555 175 118 109
0.123379 -0.33307 -0.556 176 119 110
0.127011 -0.334269 -0.558 165 106 98
0.136971 -0.337863 -0.564 151 96 91
0.146029 -0.341457 -0.57 140 91 86
0.149548 -0.342056 -0.571 135 86 81
0.152254 -0.343254 -0.573 131 88 82
0.156071 -0.344452 -0.575 124 80 77
0.15744 -0.345051 -0.576 123 79 76
0.167949 -0.348646 -0.582 126 85 83
0.17075 -0.349844 -0.584 122 82 80
0.184167 -0.356433 -0.595 121 83 80
0.218007 -0.369612 -0.617 146 143 164
0.227777 -0.370211 -0.618 176 181 203
0.236017 -0.370211 -0.618 188 192 217
0.237194 -0.370211 -0.618 194 195 215
0.240336 -0.369612 -0.617 152 149 166
0.241511 -0.369612 -0.617 145 152 178
0.327197 -0.318094 -0.531 175 120 115
0.3265 -0.3145 -0.525 180 127 119
0.326252 -0.313302 -0.523 186 133 125
0.329689 -0.310906 -0.519 193 145 133
0.337603 -0.307311 -0.513 195 143 130
0.33987 -0.306712 -0.512 196 142 130
0.341821 -0.306712 -0.512 195 141 129
0.347672 -0.306712 -0.512 192 140 127
0.355474 -0.306712 -0.512 182 128 116
0.362031 -0.307311 -0.513 185 131 121
0.366653 -0.30791 -0.514 179 125 115
0.368348 -0.30851 -0.515 180 126 114
0.37031 -0.30851 -0.515 182 128 116
0.382563 -0.312104 -0.521 176 124 111
0.398481 -0.319292 -0.533 142 97 91
0.0861733 -0.337735 -0.562 198 143 138
0.116604 -0.332928 -0.554 176 122 112
0.118714 -0.332928 -0.554 175 118 109
0.129369 -0.335932 -0.559 160 101 93
0.156343 -0.346149 -0.576 126 82 79
0.158812 -0.34675 -0.577 127 83 80
0.16434 -0.349153 -0.581 126 85 83
0.177 -0.354562 -0.59 122 82 80
0.181594 -0.356966 -0.594 124 83 79
0.215307 -0.370187 -0.616 78 74 101
0.230934 -0.370788 -0.617 143 147 174
0.23211 -0.370788 -0.617 168 173 195
0.235635 -0.370788 -0.617 191 192 212
0.332697 -0.310091 -0.516 196 144 131
0.337603 -0.308289 -0.513 196 142 130
0.344747 -0.307688 -0.512 194 142 131
0.3577 -0.307087 -0.511 184 130 118
0.366917 -0.308289 -0.513 180 128 115
0.3895 -0.3155 -0.525 156 107 102
0.414914 -0.329322 -0.548 163 118 112
1.13636 -0.376797 -0.627 202 204 190
0.0826 -0.355686 -0.59 201 148 142
0.0852543 -0.339409 -0.563 196 141 134
0.0876857 -0.336394 -0.558 198 145 137
0.10008 -0.335189 -0.556 194 139 136
0.107107 -0.333983 -0.554 196 141 136
0.112383 -0.333983 -0.554 193 136 127
0.134584 -0.339409 -0.563 157 98 94
0.135897 -0.340011 -0.564 154 96 92
0.143605 -0.343026 -0.569 138 93 88
0.147372 -0.344231 -0.571 131 86 81
0.156343 -0.347246 -0.576 126 82 79
0.157713 -0.347849 -0.577 127 83 80
0.17304 -0.35448 -0.588 121 82 83
0.174456 -0.355083 -0.589 121 82 83
0.21648 -0.37136 -0.616 86 85 119
0.22 -0.37136 -0.616 164 164 192
0.225058 -0.371963 -0.617 158 159 189
0.35948 -0.36292 -0.602 226 200 209
0.328629 -0.325543 -0.54 161 100 97
0.329689 -0.312883 -0.519 193 135 124
0.340846 -0.308663 -0.512 197 143 133
0.35533 -0.306854 -0.509 184 130 118
0.375943 -0.311074 -0.516 174 122 108
0.38702 -0.315294 -0.523 162 113 108
1.13694 -0.377389 -0.626 201 203 190
1.13631 -0.376786 -0.625 205 207 194
0.0829781 -0.348948 -0.577 198 149 142
0.0867781 -0.338062 -0.559 194 144 137
0.100957 -0.335643 -0.555 189 134 129
0.106913 -0.334433 -0.553 196 141 136
0.11534 -0.334433 -0.553 182 125 116
0.123379 -0.336248 -0.556 167 109 98
0.125949 -0.337457 -0.558 166 108 97
0.137457 -0.342295 -0.566 150 92 88
0.13878 -0.3429 -0.567 147 92 89
0.154149 -0.348343 -0.576 128 84 83
0.20876 -0.371324 -0.614 147 149 172
0.210271 -0.371929 -0.615 127 127 153
0.212614 -0.371929 -0.615 118 118 156
0.22704 -0.372533 -0.616 97 103 137
0.231733 -0.372533 -0.616 189 192 207
0.239557 -0.371929 -0.615 144 145 163
0.328207 -0.327176 -0.541 145 97 93
0.330388 -0.312662 -0.517 189 129 118
0.331372 -0.312662 -0.517 191 134 123
0.333033 -0.311452 -0.515 190 136 124
0.333694 -0.310243 -0.513 192 138 126
0.342127 -0.309033 -0.511 197 140 131
0.349513 -0.307824 -0.509 187 133 121
0.3556 -0.307219 -0.508 189 135 125
0.364771 -0.308429 -0.51 181 129 116
0.370103 -0.309638 -0.512 174 122 109
1.13631 -0.377976 -0.625 205 207 193
0.0834048 -0.342767 -0.565 196 148 138
0.0848 -0.339733 -0.56 195 145 138
0.0926667 -0.337307 -0.556 197 144 136
0.128533 -0.339733 -0.56 158 104 92
0.129831 -0.34034 -0.561 155 101 89
0.162406 -0.35308 -0.582 129 85 84
0.17109 -0.357327 -0.589 123 84 79
0.20876 -0.372493 -0.614 116 122 148
0.220814 -0.3731 -0.615 128 134 166
0.224693 -0.373707 -0.616 75 84 125
0.22704 -0.373707 -0.616 136 146 182
0.232529 -0.3731 -0.615 194 197 212
0.323264 -0.317287 -0.523 145 83 72
0.329053 -0.314253 -0.518 179 116 101
0.330731 -0.31304 -0.516 187 129 117
0.404808 -0.325173 -0.536 144 97 87
0.0813114 -0.348711 -0.573 198 150 140
0.133749 -0.343234 -0.564 149 96 88
0.151954 -0.350537 -0.576 129 84 81
0.226671 -0.374271 -0.615 154 163 194
0.230981 -0.373663 -0.614 195 194 210
0.23215 -0.373663 -0.614 199 198 214
0.237998 -0.373663 -0.614 194 199 218
0.321326 -0.321326 -0.528 178 130 118
0.322646 -0.317674 -0.522 174 117 106
0.32302 -0.317066 -0.521 164 107 96
0.32339 -0.316457 -0.52 157 97 87
0.338233 -0.31098 -0.511 196 139 128
0.338543 -0.310371 -0.51 191 137 127
0.339514 -0.310371 -0.51 191 137 127
0.352272 -0.307937 -0.506 197 138 132
0.353236 -0.307937 -0.506 197 138 132
0.355866 -0.308546 -0.507 197 140 133
0.379626 -0.314631 -0.517 168 114 102
0.395749 -0.321326 -0.528 146 101 95
0.398257 -0.322543 -0.53 145 100 94
0.403297 -0.324977 -0.534 147 102 96
0.0795352 -0.356518 -0.584 197 149 139
0.0800952 -0.354076 -0.58 194 146 136
0.08556 -0.340646 -0.558 194 144 135
0.0935571 -0.338814 -0.555 200 147 139
0.0967286 -0.338814 -0.555 194 141 133
0.107771 -0.336983 -0.552 194 140 128
0.11534 -0.337593 -0.553 180 124 109
0.119986 -0.338814 -0.555 171 118 100
0.124662 -0.340035 -0.557 157 106 89
0.140353 -0.347361 -0.569 137 88 81
0.143022 -0.348582 -0.571 134 87 81
0.150857 -0.351634 -0.576 128 85 79
0.154951 -0.353466 -0.579 127 84 78
0.170546 -0.360791 -0.591 125 88 82
0.226303 -0.374832 -0.614 158 167 198
0.234108 -0.374222 -0.613 201 202 220
0.32032 -0.322331 -0.528 185 130 125
0.3195 -0.3205 -0.525 180 130 121
0.32141 -0.317448 -0.52 190 138 127
0.32178 -0.316837 -0.519 188 136 125
0.330763 -0.313174 -0.513 168 104 94
0.337571 -0.311343 -0.51 193 135 124
0.340486 -0.311343 -0.51 200 143 132
0.343696 -0.310732 -0.509 193 136 125
0.344666 -0.310732 -0.509 193 135 124
0.345924 -0.310122 -0.508 194 136 125
0.355164 -0.308901 -0.506 199 142 133
0.360694 -0.309511 -0.507 194 137 128
0.366965 -0.310732 -0.509 191 134 123
0.367934 -0.310732 -0.509 186 129 118
0.373029 -0.312564 -0.512 177 124 110
0.374734 -0.313174 -0.513 176 123 109
0.393248 -0.32111 -0.526 147 102 97
0.394999 -0.321721 -0.527 146 101 96
0.404314 -0.325994 -0.534 146 101 96
0.462888 -0.361402 -0.592 187 189 212
0.0903857 -0.339871 -0.555 200 150 139
0.0923333 -0.339259 -0.554 200 147 139
0.0944438 -0.339259 -0.554 195 145 136
0.102514 -0.338034 -0.552 195 142 128
0.10672 -0.338034 -0.552 196 140 123
0.111977 -0.338034 -0.552 187 130 113
0.13927 -0.348445 -0.569 138 89 82
0.14976 -0.352731 -0.576 129 85 76
0.156324 -0.355181 -0.58 127 86 80
0.171123 -0.363142 -0.593 123 85 82
0.217761 -0.37539 -0.613 157 169 207
0.218929 -0.37539 -0.613 138 149 181
0.230605 -0.37539 -0.613 193 196 213
0.321525 -0.316601 -0.517 190 140 131
0.3268 -0.315989 -0.516 173 115 104
0.32945 -0.314764 -0.514 147 85 72
0.334657 -0.312314 -0.51 175 115 104
0.340788 -0.311702 -0.509 196 138 127
0.342727 -0.311702 -0.509 190 133 124
0.343696 -0.311702 -0.509 195 138 129
0.344956 -0.31109 -0.508 193 134 126
0.346209 -0.310477 -0.507 198 141 132
0.359019 -0.309865 -0.506 195 138 129
0.364309 -0.31109 -0.508 187 130 119
0.388269 -0.319663 -0.522 152 105 99
0.4186 -0.33436 -0.546 153 108 103
0.474147 -0.368653 -0.602 230 232 247
0.0921667 -0.3397 -0.553 199 149 138
0.09936 -0.339086 -0.552 194 142 128
0.11534 -0.3397 -0.553 178 123 102
0.119986 -0.340929 -0.555 165 113 91
0.130063 -0.345229 -0.562 145 92 84
0.13662 -0.3483 -0.567 138 88 77
0.144614 -0.351986 -0.573 133 86 76
0.148663 -0.353829 -0.576 130 86 77
0.151381 -0.355057 -0.578 128 84 75
0.199593 -0.375329 -0.611 156 151 173
0.20808 -0.375943 -0.612 144 149 171
0.317893 -0.321886 -0.524 187 134 128
0.317674 -0.320657 -0.522 183 130 124
0.32251 -0.317586 -0.517 189 139 130
0.3268 -0.316971 -0.516 173 115 104
0.328809 -0.315129 -0.513 176 117 103
0.329143 -0.314514 -0.512 169 110 96
0.337215 -0.312057 -0.508 182 122 112
0.341086 -0.312057 -0.508 186 126 116
0.343021 -0.312057 -0.508 193 134 126
0.351576 -0.310214 -0.505 193 136 127
0.352538 -0.310214 -0.505 195 138 129
0.356386 -0.310214 -0.505 196 137 129
0.359983 -0.310829 -0.506 197 139 128
0.36191 -0.310829 -0.506 190 133 122
0.376444 -0.315743 -0.514 171 115 100
0.382333 -0.3182 -0.518 154 107 99
0.38406 -0.318814 -0.519 152 105 97
0.39776 -0.324343 -0.528 142 97 91
0.41964 -0.3354 -0.546 154 111 105
1.13259 -0.381471 -0.621 203 205 192
0.09322 -0.340753 -0.553 197 148 134
0.104428 -0.339521 -0.551 193 140 122
0.127694 -0.345683 -0.561 149 97 84
0.13554 -0.34938 -0.567 137 87 76
0.148921 -0.355542 -0.577 130 86 77
0.151643 -0.356774 -0.579 128 84 75
0.196943 -0.375876 -0.61 156 150 176
0.201921 -0.376492 -0.611 111 108 137
0.204249 -0.376492 -0.611 125 129 158
0.213909 -0.377109 -0.612 73 90 134
0.236057 -0.377109 -0.612 203 204 224
0.31629 -0.322268 -0.523 186 136 127
0.317213 -0.319187 -0.518 187 137 128
0.33142 -0.314873 -0.511 150 90 79
0.333686 -0.314257 -0.51 155 95 84
0.342346 -0.312409 -0.507 181 121 113
0.360233 -0.311176 -0.505 198 140 129
0.397007 -0.324732 -0.527 143 98 92
0.0828362 -0.342425 -0.554 198 150 136
0.0962057 -0.341189 -0.552 196 145 128
0.0972571 -0.341189 -0.552 196 145 128
0.102143 -0.339952 -0.55 193 142 125
0.107381 -0.339952 -0.55 194 141 123
0.116604 -0.342425 -0.554 170 116 92
0.117659 -0.342425 -0.554 161 109 87
0.12511 -0.345515 -0.559 152 99 85
0.139759 -0.352932 -0.571 134 86 76
0.142431 -0.354169 -0.573 132 85 77
0.149179 -0.357259 -0.578 126 85 79
0.164638 -0.364676 -0.59 122 87 85
0.20159 -0.377038 -0.61 158 154 177
0.202752 -0.377038 -0.61 161 157 180
0.220903 -0.378274 -0.612 171 177 201
0.235671 -0.377656 -0.611 201 204 223
0.237999 -0.377656 -0.611 189 193 220
0.314476 -0.32141 -0.52 189 139 128
0.327527 -0.315847 -0.511 197 141 128
0.3285 -0.315847 -0.511 190 134 121
0.330771 -0.315229 -0.51 173 117 104
0.339449 -0.313374 -0.507 176 116 108
0.34992 -0.31152 -0.504 193 135 124
0.372543 -0.315229 -0.51 170 114 99
0.38579 -0.32141 -0.52 143 98 92
0.402295 -0.32759 -0.53 143 100 94
0.410933 -0.331299 -0.536 151 108 99
0.0773333 -0.3472 -0.56 193 146 130
0.0867429 -0.34224 -0.552 200 153 137
0.0930514 -0.34224 -0.552 196 147 130
0.102143 -0.341 -0.55 195 144 127
0.10319 -0.341 -0.55 195 144 127
0.116604 -0.34348 -0.554 167 115 93
0.119986 -0.3441 -0.555 159 107 85
0.12254 -0.34534 -0.557 153 102 85
0.13446 -0.35154 -0.567 132 84 74
0.139759 -0.35402 -0.571 133 86 78
0.152167 -0.36022 -0.581 124 85 80
0.153537 -0.36084 -0.582 124 85 78
0.19314 -0.37758 -0.609 153 154 184
0.215887 -0.37882 -0.611 173 170 197
0.224829 -0.3782 -0.61 161 165 200
0.228314 -0.3782 -0.61 133 141 177
0.316247 -0.33046 -0.533 189 134 129
0.314286 -0.32736 -0.528 189 134 129
0.323633 -0.31682 -0.511 198 146 133
0.32558 -0.31682 -0.511 192 143 128
0.325914 -0.3162 -0.51 194 145 130
0.333345 -0.31496 -0.508 176 119 108
0.340414 -0.31434 -0.507 149 90 82
0.34704 -0.31248 -0.504 190 132 121
0.349226 -0.31186 -0.503 192 135 126
0.352356 -0.31124 -0.502 198 139 131
0.355225 -0.31124 -0.502 199 139 129
0.378402 -0.31868 -0.514 146 101 95
0.396253 -0.32612 -0.526 145 100 94
1.12958 -0.3844 -0.62 202 204 190
0.0764029 -0.348889 -0.561 195 148 132
0.0907838 -0.34267 -0.551 195 146 129
0.10319 -0.342048 -0.55 199 146 128
0.105286 -0.342048 -0.55 196 145 126
0.118929 -0.345157 -0.555 162 110 88
0.159871 -0.366302 -0.589 123 84 85
0.187032 -0.378118 -0.608 149 146 167
0.1943 -0.37874 -0.609 130 130 164
0.20358 -0.37874 -0.609 127 123 140
0.209724 -0.379362 -0.61 170 171 191
0.220181 -0.379362 -0.61 188 191 208
0.314467 -0.32961 -0.53 186 131 124
0.3125 -0.3265 -0.525 186 131 124
0.315129 -0.319037 -0.513 187 132 125
0.325275 -0.31655 -0.509 198 146 132
0.329791 -0.315306 -0.507 194 142 128
0.341957 -0.314062 -0.505 151 93 82
0.349226 -0.312818 -0.503 192 135 126
0.358093 -0.312196 -0.502 190 130 119
0.360723 -0.312818 -0.503 185 127 115
0.365043 -0.314062 -0.505 179 121 109
0.386781 -0.32339 -0.52 139 95 86
0.406089 -0.330231 -0.531 149 105 96
0.407867 -0.330853 -0.532 150 104 88
0.413746 -0.333963 -0.537 151 108 99
0.07398 -0.3537 -0.567 195 152 136
0.0777 -0.346214 -0.555 195 149 134
0.0804343 -0.344343 -0.552 201 155 140
0.0814857 -0.344343 -0.552 201 155 139
0.0844867 -0.343719 -0.551 198 152 136
0.0864286 -0.343095 -0.55 202 155 139
0.101957 -0.342471 -0.549 198 147 128
0.109476 -0.343095 -0.55 189 137 116
0.110725 -0.343719 -0.551 192 136 119
0.192823 -0.379276 -0.608 114 115 146
0.197455 -0.379276 -0.608 116 118 157
0.2074 -0.380524 -0.61 175 169 181
0.214371 -0.380524 -0.61 181 184 201
0.22214 -0.3799 -0.609 186 193 212
0.23606 -0.3799 -0.609 196 200 225
0.310906 -0.323757 -0.519 182 132 123
0.314514 -0.31939 -0.512 190 135 130
0.317171 -0.318143 -0.51 196 146 135
0.326894 -0.316271 -0.507 193 146 128
0.331376 -0.315024 -0.505 191 138 124
0.334262 -0.315024 -0.505 195 141 129
0.350444 -0.313152 -0.502 197 140 131
0.357137 -0.313152 -0.502 193 131 118
0.360723 -0.313776 -0.503 181 119 106
0.380119 -0.321262 -0.515 137 91 78
0.400018 -0.328748 -0.527 148 101 91
0.401783 -0.329371 -0.528 154 107 97
0.402789 -0.329371 -0.528 153 109 98
0.40888 -0.331867 -0.532 151 108 99
1.12894 -0.386138 -0.619 202 204 190
1.12764 -0.38489 -0.617 203 205 191
0.0724533 -0.357909 -0.572 200 155 136
0.0741333 -0.3504 -0.56 199 156 140
0.0883629 -0.343517 -0.549 199 152 134
0.109476 -0.344143 -0.55 188 138 113
0.130989 -0.354154 -0.566 131 83 81
0.143177 -0.360411 -0.576 127 86 82
0.144525 -0.361037 -0.577 125 84 80
0.145876 -0.361663 -0.578 126 85 83
0.15158 -0.364791 -0.583 126 86 86
0.2059 -0.38106 -0.609 128 124 138
0.21054 -0.38106 -0.609 173 171 192
0.2175 -0.38106 -0.609 179 186 204
0.21866 -0.38106 -0.609 181 188 206
0.22098 -0.38106 -0.609 181 188 206
0.221775 -0.380434 -0.608 186 193 212
0.309917 -0.324746 -0.519 185 127 116
0.310091 -0.322869 -0.516 191 139 128
0.312564 -0.320366 -0.512 191 139 125
0.323997 -0.317237 -0.507 193 143 132
0.341561 -0.314734 -0.503 179 122 113
0.348531 -0.314109 -0.502 193 135 124
0.349488 -0.314109 -0.502 193 135 124
0.358093 -0.314109 -0.502 185 125 114
0.369386 -0.317237 -0.507 157 103 91
0.07742 -0.347073 -0.553 199 153 137
0.0811905 -0.34519 -0.55 201 155 139
0.100728 -0.343935 -0.548 197 146 125
0.102815 -0.343935 -0.548 197 146 125
0.103859 -0.343935 -0.548 198 147 126
0.108429 -0.34519 -0.55 186 136 111
0.110725 -0.345818 -0.551 190 135 115
0.117871 -0.348329 -0.555 158 105 89
0.125557 -0.352094 -0.561 139 90 85
0.129681 -0.354605 -0.565 131 85 85
0.137825 -0.358998 -0.572 129 88 86
0.143426 -0.362136 -0.577 124 84 84
0.146129 -0.363391 -0.579 124 86 85
0.15184 -0.36653 -0.584 124 85 86
0.183256 -0.380965 -0.607 122 126 164
0.189037 -0.380965 -0.607 145 149 184
0.194818 -0.380965 -0.607 109 113 150
0.198287 -0.380965 -0.607 166 167 188
0.203246 -0.381592 -0.608 169 167 180
0.224091 -0.381592 -0.608 188 196 219
0.226408 -0.381592 -0.608 167 178 208
0.320467 -0.317575 -0.506 197 145 134
0.335812 -0.315692 -0.503 191 137 127
0.339645 -0.315692 -0.503 195 138 127
0.355471 -0.314437 -0.501 187 129 118
0.367693 -0.317575 -0.506 157 103 91
0.369386 -0.318203 -0.507 148 98 87
0.385293 -0.325107 -0.518 139 91 81
1.12476 -0.387869 -0.618 202 204 190
0.0892457 -0.344979 -0.548 198 150 130
0.0925457 -0.345609 -0.549 196 148 128
0.0935914 -0.345609 -0.549 196 148 126
0.09864 -0.344979 -0.548 197 146 125
0.0996838 -0.344979 -0.548 196 148 126
0.111977 -0.347497 -0.552 179 122 103
0.124489 -0.353163 -0.561 142 95 89
0.13385 -0.358199 -0.569 127 86 82
0.135171 -0.358829 -0.57 127 86 82
0.136496 -0.359458 -0.571 127 86 82
0.147994 -0.366383 -0.582 122 84 83
0.150728 -0.367642 -0.584 124 85 86
0.153738 -0.36953 -0.587 124 85 86
0.192506 -0.382121 -0.607 66 70 108
0.194818 -0.382121 -0.607 137 140 173
0.198287 -0.382121 -0.607 168 169 187
0.199443 -0.382121 -0.607 166 167 185
0.213669 -0.38275 -0.608 184 185 205
0.214827 -0.38275 -0.608 181 186 206
0.215985 -0.38275 -0.608 183 188 208
0.222567 -0.382121 -0.607 189 196 215
0.223723 -0.382121 -0.607 191 196 216
0.229504 -0.382121 -0.607 79 93 130
0.308929 -0.326723 -0.519 192 133 127
0.309708 -0.325464 -0.517 193 134 126
0.315928 -0.319798 -0.508 196 144 131
0.318539 -0.318539 -0.506 199 147 134
0.33132 -0.316021 -0.502 196 142 132
0.334189 -0.316021 -0.502 191 137 127
0.337057 -0.316021 -0.502 189 135 125
0.341157 -0.315391 -0.501 190 136 124
0.346883 -0.315391 -0.501 187 135 124
0.356426 -0.315391 -0.501 184 128 115
0.35738 -0.315391 -0.501 183 127 114
0.36528 -0.31728 -0.504 162 108 96
0.371082 -0.319798 -0.508 141 93 83
0.405806 -0.332389 -0.528 151 107 96
0.0923771 -0.346023 -0.548 196 145 124
0.09846 -0.345391 -0.547 197 146 125
0.104903 -0.346023 -0.548 193 144 114
0.109476 -0.347286 -0.55 177 127 102
0.128605 -0.356757 -0.565 134 89 84
0.13385 -0.359283 -0.569 130 85 80
0.149615 -0.368754 -0.584 124 84 84
0.151244 -0.370017 -0.586 125 85 85
0.178043 -0.382014 -0.605 41 54 98
0.193343 -0.382646 -0.606 143 144 175
0.195651 -0.382646 -0.606 165 167 188
0.199114 -0.382646 -0.606 168 170 185
0.214473 -0.383277 -0.607 177 181 206
0.2222 -0.382646 -0.606 193 200 218
0.308723 -0.326449 -0.517 192 135 126
0.310613 -0.323291 -0.512 189 139 130
0.318871 -0.318871 -0.505 200 148 135
0.32112 -0.31824 -0.504 196 144 131
0.321441 -0.317609 -0.503 196 144 131
0.322714 -0.316977 -0.502 196 142 130
0.33066 -0.316346 -0.501 197 143 131
0.340203 -0.316346 -0.501 188 136 123
0.347143 -0.315714 -0.5 185 135 124
0.347399 -0.315083 -0.499 187 137 126
0.35381 -0.315714 -0.5 187 135 122
0.354762 -0.315714 -0.5 182 130 117
0.363597 -0.317609 -0.503 168 115 101
0.403267 -0.332131 -0.526 147 101 88
0.405037 -0.332763 -0.527 150 104 91
0.40859 -0.334026 -0.529 149 105 94
0.41371 -0.336551 -0.533 151 107 96
0.0741257 -0.3496 -0.552 202 157 138
0.0798514 -0.347067 -0.548 201 154 136
0.088041 -0.346433 -0.547 194 146 126
0.0911667 -0.346433 -0.547 197 149 127
0.109476 -0.348333 -0.55 172 122 97
0.114287 -0.350233 -0.553 158 107 90
0.121915 -0.354033 -0.559 143 94 89
0.124489 -0.3553 -0.561 140 93 87
0.136735 -0.362267 -0.572 129 84 78
0.138307 -0.363533 -0.574 128 85 79
0.150128 -0.371133 -0.586 121 81 81
0.18988 -0.3838 -0.606 77 85 131
0.313992 -0.321733 -0.508 199 147 134
0.325889 -0.3173 -0.501 195 143 132
0.327143 -0.316667 -0.5 193 141 130
0.334762 -0.316667 -0.5 193 141 128
0.344548 -0.316033 -0.499 184 134 123
0.345754 -0.3154 -0.498 184 134 123
0.360006 -0.317933 -0.502 175 122 106
0.368657 -0.320467 -0.506 146 98 88
0.382081 -0.326167 -0.515 144 97 89
0.38628 -0.328067 -0.518 141 94 86
0.388014 -0.3287 -0.519 142 95 87
0.410371 -0.335667 -0.53 148 104 91
0.0683381 -0.35891 -0.565 200 158 142
0.0721533 -0.351287 -0.553 200 157 138
0.0747686 -0.348746 -0.549 205 157 137
0.0777638 -0.34811 -0.548 202 157 138
0.0932505 -0.347475 -0.547 199 150 133
0.0974181 -0.347475 -0.547 196 146 123
0.101586 -0.347475 -0.547 193 145 125
0.114287 -0.351287 -0.553 148 99 84
0.115549 -0.351922 -0.554 144 95 80
0.126005 -0.357639 -0.563 136 89 83
0.136974 -0.363991 -0.573 128 85 79
0.138307 -0.364627 -0.574 127 83 80
0.14282 -0.367803 -0.579 123 82 78
0.180348 -0.384319 -0.605 48 69 124
0.190719 -0.384319 -0.605 143 149 185
0.191871 -0.384319 -0.605 152 158 194
0.207194 -0.384954 -0.606 127 125 139
0.208349 -0.384954 -0.606 110 108 122
0.209503 -0.384954 -0.606 96 98 113
0.210657 -0.384954 -0.606 116 118 133
0.21412 -0.384954 -0.606 158 162 187
0.215274 -0.384954 -0.606 154 158 183
0.219529 -0.384319 -0.605 191 193 208
0.222986 -0.384319 -0.605 193 201 214
0.224138 -0.384319 -0.605 195 203 216
0.314684 -0.32143 -0.506 195 143 132
0.315986 -0.320795 -0.505 196 144 133
0.3192 -0.32016 -0.504 195 145 134
0.319525 -0.319525 -0.503 195 145 134
0.327439 -0.316984 -0.499 195 143 132
0.332474 -0.316349 -0.498 195 143 132
0.361918 -0.31889 -0.502 166 113 99
0.373751 -0.323336 -0.509 137 90 80
0.0693676 -0.354251 -0.556 205 162 145
0.08164 -0.34788 -0.546 198 151 133
0.08684 -0.34788 -0.546 197 149 127
0.09204 -0.34788 -0.546 201 150 133
0.0962 -0.34788 -0.546 196 148 126
0.09724 -0.34788 -0.546 194 145 128
0.108231 -0.349791 -0.549 172 122 99
0.122133 -0.3568 -0.56 139 90 83
0.141472 -0.368269 -0.578 125 81 82
0.146028 -0.371454 -0.583 127 81 81
0.182652 -0.385471 -0.605 43 62 118
0.188414 -0.385471 -0.605 71 81 134
0.199938 -0.385471 -0.605 169 167 188
0.20109 -0.385471 -0.605 169 167 188
0.204548 -0.385471 -0.605 137 134 151
0.209157 -0.385471 -0.605 95 99 111
0.219529 -0.385471 -0.605 194 193 207
0.33988 -0.373366 -0.586 167 127 125
0.31009 -0.335137 -0.526 176 126 119
0.312314 -0.324943 -0.51 190 138 124
0.313641 -0.324306 -0.509 192 140 126
0.31824 -0.32112 -0.504 193 144 130
0.321117 -0.319209 -0.501 194 145 130
0.322381 -0.318571 -0.5 195 146 131
0.330577 -0.317297 -0.498 193 141 128
0.333423 -0.317297 -0.498 196 144 131
0.338433 -0.31666 -0.497 186 134 121
0.341273 -0.31666 -0.497 185 136 122
0.35074 -0.31666 -0.497 170 120 111
0.373751 -0.324306 -0.509 139 92 82
0.391733 -0.331314 -0.52 147 100 92
0.396223 -0.332589 -0.522 143 99 90
0.401733 -0.333863 -0.524 148 100 90
0.408823 -0.336411 -0.528 153 105 95
0.418319 -0.340871 -0.535 150 103 93
0.0655067 -0.36937 -0.578 199 156 140
0.0709714 -0.352754 -0.552 203 160 143
0.07748 -0.34892 -0.546 202 155 137
0.07852 -0.34892 -0.546 201 154 136
0.0835667 -0.348281 -0.545 202 155 139
0.0846048 -0.348281 -0.545 200 151 134
0.0908333 -0.348281 -0.545 203 152 135
0.09516 -0.34892 -0.546 201 153 131
0.101586 -0.349559 -0.547 197 145 131
0.119571 -0.356589 -0.558 139 88 84
0.128832 -0.361701 -0.566 131 88 79
0.143313 -0.371287 -0.581 123 81 82
0.144669 -0.371926 -0.582 122 81 79
0.17028 -0.384707 -0.602 38 54 90
0.178899 -0.385985 -0.604 24 43 101
0.200758 -0.385985 -0.604 168 167 185
0.203059 -0.385985 -0.604 136 134 155
0.20651 -0.385985 -0.604 146 145 159
0.212263 -0.385985 -0.604 140 139 155
0.308533 -0.332305 -0.52 184 129 122
0.30889 -0.32847 -0.514 181 133 113
0.314684 -0.323358 -0.506 193 140 122
0.3337 -0.317607 -0.497 197 144 130
0.336808 -0.316968 -0.496 190 138 127
0.344614 -0.316329 -0.495 188 136 123
0.352633 -0.317607 -0.497 176 126 117
0.35524 -0.318246 -0.498 169 117 106
0.362874 -0.320802 -0.502 155 107 95
0.371317 -0.323997 -0.507 141 97 86
0.423739 -0.343808 -0.538 149 109 101
0.0673705 -0.35701 -0.557 204 161 144
0.0680629 -0.355088 -0.554 203 160 143
0.0691181 -0.355088 -0.554 203 160 143
0.0734543 -0.350601 -0.547 202 156 140
0.0875581 -0.348678 -0.544 199 150 133
0.0885943 -0.348678 -0.544 200 151 134
0.0939476 -0.349319 -0.545 200 154 131
0.102628 -0.350601 -0.547 191 140 123
0.109476 -0.352524 -0.55 164 112 90
0.118296 -0.35701 -0.557 139 90 85
0.141962 -0.371752 -0.58 119 84 82
0.14356 -0.373034 -0.582 118 83 81
0.17028 -0.385853 -0.602 39 54 93
0.176306 -0.386494 -0.603 28 40 88
0.192386 -0.386494 -0.603 170 168 189
0.203059 -0.387135 -0.604 157 156 174
0.207317 -0.386494 -0.603 148 147 161
0.317592 -0.348678 -0.544 171 124 116
0.313357 -0.34291 -0.535 167 119 109
0.3095 -0.3365 -0.525 169 119 110
0.313992 -0.325604 -0.508 189 136 120
0.320163 -0.321117 -0.501 194 142 128
0.32802 -0.318553 -0.497 196 142 130
0.32925 -0.317912 -0.496 193 139 127
0.330194 -0.317912 -0.496 195 141 129
0.335863 -0.317912 -0.496 193 141 130
0.342036 -0.31663 -0.494 188 136 125
0.365513 -0.322399 -0.503 156 109 93
0.389991 -0.332654 -0.519 145 98 90
0.400967 -0.335218 -0.523 144 100 91
0.425553 -0.345473 -0.539 148 105 98
0.0642943 -0.370929 -0.577 196 155 137
0.0705857 -0.352929 -0.549 205 159 143
0.0763 -0.350357 -0.545 203 158 139
0.0844495 -0.349714 -0.544 199 151 131
0.0939476 -0.350357 -0.545 201 154 134
0.107186 -0.352929 -0.549 170 118 96
0.114493 -0.356143 -0.554 143 95 83
0.115757 -0.356786 -0.555 144 96 84
0.117025 -0.357429 -0.556 143 96 88
0.12364 -0.361286 -0.562 132 88 77
0.131914 -0.366429 -0.57 126 86 78
0.172573 -0.387 -0.602 28 46 94
0.189773 -0.387 -0.602 154 155 185
0.193534 -0.387643 -0.603 170 171 191
0.194683 -0.387643 -0.603 174 179 198
0.20502 -0.387643 -0.603 179 178 194
0.214209 -0.387643 -0.603 193 193 203
0.30851 -0.331071 -0.515 176 126 115
0.363106 -0.322071 -0.501 158 111 95
0.384043 -0.331071 -0.515 144 97 91
0.38924 -0.333 -0.518 143 99 90
0.407274 -0.338143 -0.526 149 104 98
0.410834 -0.339429 -0.528 141 96 90
0.421376 -0.343929 -0.535 147 102 96
0.068619 -0.354619 -0.55 201 158 139
0.0742238 -0.351395 -0.545 205 160 141
0.0763 -0.351395 -0.545 200 155 134
0.0803048 -0.35075 -0.544 199 153 130
0.0918714 -0.351395 -0.545 201 153 130
0.111977 -0.355909 -0.552 150 103 87
0.134791 -0.369449 -0.573 128 85 79
0.137691 -0.371383 -0.576 121 84 78
0.140857 -0.373962 -0.58 116 83 78
0.173431 -0.387502 -0.601 45 68 122
0.198947 -0.388147 -0.602 173 171 192
0.212707 -0.388147 -0.602 186 186 196
0.224173 -0.388147 -0.602 187 194 213
0.308333 -0.333987 -0.518 172 118 108
0.308126 -0.332697 -0.516 174 122 111
0.310613 -0.330118 -0.512 178 124 112
0.315986 -0.325605 -0.505 188 135 119
0.33639 -0.318512 -0.494 192 136 123
0.342283 -0.317868 -0.493 190 134 121
0.343222 -0.317868 -0.493 191 135 122
0.348623 -0.318512 -0.494 187 133 121
0.357137 -0.321091 -0.498 162 113 96
0.374721 -0.328184 -0.509 139 95 86
0.384043 -0.332052 -0.515 144 97 91
0.390227 -0.333987 -0.518 143 99 90
0.433405 -0.351395 -0.545 145 100 94
0.0731857 -0.352433 -0.545 202 159 140
0.0751238 -0.351787 -0.544 203 158 137
0.0884314 -0.35114 -0.543 201 153 131
0.102628 -0.353727 -0.547 180 130 105
0.109675 -0.356313 -0.551 155 103 82
0.119786 -0.361487 -0.559 140 94 81
0.12364 -0.363427 -0.562 137 94 78
0.161714 -0.388 -0.6 58 62 91
0.162857 -0.388 -0.6 83 84 112
0.165143 -0.388 -0.6 91 92 112
0.175721 -0.388647 -0.601 45 72 127
0.20812 -0.389293 -0.602 182 181 195
0.212707 -0.389293 -0.602 187 187 195
0.216147 -0.389293 -0.602 194 202 215
0.309675 -0.340793 -0.527 164 110 100
0.30794 -0.33562 -0.519 171 117 107
0.30889 -0.332387 -0.514 173 119 107
0.310613 -0.331093 -0.512 175 118 107
0.315024 -0.326567 -0.505 186 133 117
0.32518 -0.321393 -0.497 184 131 115
0.326127 -0.321393 -0.497 183 130 114
0.331414 -0.3201 -0.495 190 134 119
0.343222 -0.318807 -0.493 187 130 119
0.344161 -0.318807 -0.493 185 128 117
0.352157 -0.3201 -0.495 177 126 109
0.357137 -0.32204 -0.498 168 117 100
0.358805 -0.322687 -0.499 159 110 95
0.388489 -0.334327 -0.517 145 101 92
0.390227 -0.334973 -0.518 142 98 89
0.392957 -0.33562 -0.519 141 94 86
0.41262 -0.342087 -0.529 145 102 93
0.436037 -0.353727 -0.547 143 100 91
0.0702 -0.35412 -0.546 203 158 139
0.0751238 -0.352823 -0.544 203 158 137
0.0981 -0.353471 -0.545 192 142 119
0.104711 -0.354769 -0.547 164 112 90
0.108429 -0.356714 -0.55 155 103 82
0.117235 -0.361254 -0.557 146 96 85
0.130599 -0.369037 -0.569 127 83 82
0.133467 -0.370983 -0.572 118 82 82
0.13793 -0.374226 -0.577 117 83 82
0.161714 -0.389143 -0.6 64 68 97
0.169714 -0.389143 -0.6 55 76 123
0.175429 -0.389143 -0.6 56 81 135
0.189458 -0.389791 -0.601 85 99 138
0.196327 -0.389791 -0.601 173 172 190
0.20663 -0.389791 -0.601 186 186 198
0.219222 -0.389791 -0.601 198 205 224
0.309257 -0.342446 -0.528 165 108 99
0.313992 -0.329474 -0.508 179 123 108
0.315986 -0.327529 -0.505 179 123 108
0.31632 -0.32688 -0.504 177 121 106
0.31889 -0.325583 -0.502 188 132 117
0.330745 -0.320394 -0.494 185 129 114
0.336649 -0.319746 -0.493 186 130 117
0.347917 -0.319746 -0.493 194 136 122
0.36383 -0.325583 -0.502 150 102 92
0.36889 -0.327529 -0.505 149 102 96
0.383297 -0.333366 -0.514 140 96 87
0.395695 -0.337257 -0.52 146 99 91
0.404728 -0.339851 -0.524 143 100 91
0.438677 -0.356066 -0.549 145 100 94
0.0625381 -0.371422 -0.571 198 155 136
0.0711095 -0.35451 -0.545 204 159 138
0.0739514 -0.353209 -0.543 204 159 138
0.0839838 -0.351908 -0.541 199 153 129
0.102628 -0.35581 -0.547 173 123 96
0.10367 -0.35581 -0.547 167 117 90
0.104903 -0.356461 -0.548 164 114 91
0.11218 -0.359713 -0.553 155 103 90
0.121067 -0.364267 -0.56 143 95 81
0.125154 -0.366869 -0.564 135 92 76
0.1337 -0.372723 -0.573 115 83 84
0.166009 -0.389635 -0.599 101 98 117
0.174286 -0.390286 -0.6 61 81 134
0.177714 -0.390286 -0.6 65 87 137
0.18 -0.390286 -0.6 97 115 161
0.181445 -0.390936 -0.601 118 136 182
0.190286 -0.390286 -0.6 80 94 133
0.193714 -0.390286 -0.6 145 150 180
0.208571 -0.390286 -0.6 162 162 172
0.307347 -0.336947 -0.518 163 105 93
0.313025 -0.330442 -0.508 177 119 105
0.313374 -0.329791 -0.507 179 121 107
0.31434 -0.329791 -0.507 178 120 106
0.323937 -0.323937 -0.498 182 129 113
0.33784 -0.320034 -0.492 185 127 113
0.354758 -0.322636 -0.496 168 115 99
0.384276 -0.334345 -0.514 142 95 87
0.38872 -0.335646 -0.516 145 98 90
0.393946 -0.337597 -0.519 143 99 90
0.397449 -0.338898 -0.521 148 101 93
0.4065 -0.3415 -0.525 144 101 92
0.413628 -0.344102 -0.529 144 101 92
0.420816 -0.346704 -0.533 143 100 93
0.0672029 -0.356852 -0.547 202 157 136
0.0991381 -0.355548 -0.545 184 135 105
0.104903 -0.357505 -0.548 167 111 94
0.107186 -0.358157 -0.549 163 107 94
0.109675 -0.359462 -0.551 158 102 89
0.12364 -0.366638 -0.562 140 92 80
0.161445 -0.390776 -0.599 107 112 134
0.16829 -0.390776 -0.599 78 83 113
0.169431 -0.390776 -0.599 64 85 128
0.174286 -0.391429 -0.6 68 84 135
0.176571 -0.391429 -0.6 77 94 140
0.18 -0.391429 -0.6 89 106 150
0.194532 -0.390776 -0.599 161 169 205
0.205942 -0.390776 -0.599 134 133 147
0.306737 -0.340543 -0.522 147 87 77
0.311343 -0.332714 -0.51 175 117 103
0.313025 -0.33141 -0.508 177 119 105
0.321736 -0.325538 -0.499 179 123 106
0.324526 -0.323581 -0.496 185 127 113
0.335966 -0.320971 -0.492 183 124 108
0.33784 -0.320971 -0.492 183 125 111
0.364787 -0.327495 -0.502 146 98 88
0.36889 -0.329452 -0.505 145 100 95
0.3774 -0.332714 -0.51 137 93 84
0.383529 -0.334671 -0.513 141 94 86
0.394934 -0.338586 -0.519 142 98 89
0.402189 -0.340543 -0.522 144 100 91
0.443177 -0.360114 -0.552 137 97 87
0.06068 -0.37556 -0.574 197 152 129
0.061881 -0.369671 -0.565 196 154 132
0.0625114 -0.367054 -0.561 199 157 135
0.0630133 -0.363783 -0.556 200 158 136
0.066161 -0.357894 -0.547 201 159 137
0.0767705 -0.353969 -0.541 198 156 131
0.0828 -0.353314 -0.54 200 156 131
0.0891362 -0.353969 -0.541 202 155 127
0.102628 -0.357894 -0.547 171 120 93
0.108429 -0.359857 -0.55 160 104 89
0.118509 -0.365091 -0.558 150 94 81
0.162314 -0.391263 -0.598 127 128 148
0.184264 -0.391917 -0.599 166 169 188
0.19079 -0.391263 -0.598 62 78 114
0.204801 -0.391917 -0.599 140 139 155
0.305373 -0.33892 -0.518 133 73 63
0.310371 -0.333686 -0.51 175 118 101
0.310732 -0.333031 -0.509 175 118 101
0.315986 -0.330414 -0.505 176 118 104
0.31632 -0.32976 -0.504 179 121 107
0.320476 -0.327143 -0.5 181 124 107
0.32604 -0.323217 -0.494 183 125 111
0.335029 -0.321909 -0.492 179 120 104
0.341589 -0.321909 -0.492 183 124 108
0.342526 -0.321909 -0.492 185 126 110
0.3444 -0.321909 -0.492 184 125 111
0.346274 -0.321909 -0.492 191 128 113
0.354758 -0.324526 -0.496 165 112 94
0.373249 -0.331723 -0.507 141 94 86
0.400426 -0.340883 -0.521 143 99 88
0.402189 -0.341537 -0.522 144 97 87
0.405726 -0.342846 -0.524 146 99 91
0.412846 -0.345463 -0.528 143 100 91
0.417214 -0.347426 -0.531 142 97 91
0.418226 -0.347426 -0.531 142 97 91
0.420027 -0.34808 -0.532 143 99 90
0.48104 -0.38472 -0.588 193 200 226
0.0621771 -0.366154 -0.558 200 158 136
0.06878 -0.356311 -0.543 200 158 134
0.0707181 -0.355655 -0.542 201 159 135
0.0726486 -0.354999 -0.541 204 159 136
0.0901667 -0.354999 -0.541 200 155 126
0.0956714 -0.356311 -0.543 187 136 109
0.109675 -0.361561 -0.551 155 99 86
0.119786 -0.36681 -0.559 146 94 81
0.12798 -0.37206 -0.567 127 88 81
0.135497 -0.377966 -0.576 120 87 82
0.162314 -0.392402 -0.598 135 133 154
0.171427 -0.392402 -0.598 98 110 150
0.172854 -0.393058 -0.599 101 113 153
0.177418 -0.393058 -0.599 76 90 137
0.185405 -0.393058 -0.599 164 169 189
0.193069 -0.392402 -0.598 68 84 110
0.205598 -0.392402 -0.598 106 109 126
0.303986 -0.340563 -0.519 149 91 79
0.306334 -0.336626 -0.513 137 69 60
0.30806 -0.335313 -0.511 158 88 80
0.317609 -0.330064 -0.503 182 126 111
0.320163 -0.328751 -0.501 183 130 114
0.321429 -0.328095 -0.5 184 127 110
0.330075 -0.323502 -0.493 182 125 108
0.333154 -0.322846 -0.492 180 123 106
0.33784 -0.322846 -0.492 183 124 108
0.338777 -0.322846 -0.492 185 126 110
0.351446 -0.324158 -0.494 176 120 105
0.3531 -0.324814 -0.495 173 117 102
0.361429 -0.328095 -0.5 146 97 83
0.371549 -0.332032 -0.506 141 94 86
0.392428 -0.33925 -0.517 142 98 89
0.395923 -0.340563 -0.519 139 96 87
0.396911 -0.340563 -0.519 139 96 87
0.4085 -0.3445 -0.525 145 101 92
0.41028 -0.345156 -0.526 143 99 90
0.414635 -0.347125 -0.529 143 99 90
0.419013 -0.349093 -0.532 143 99 90
0.42104 -0.349093 -0.532 142 99 90
0.0602571 -0.375114 -0.57 197 152 131
0.0641943 -0.360636 -0.548 201 159 135
0.07854 -0.354713 -0.539 201 155 131
0.0805933 -0.354713 -0.539 202 156 130
0.0923981 -0.356688 -0.542 195 144 117
0.102628 -0.359978 -0.547 171 120 93
0.118509 -0.367217 -0.558 149 97 84
0.125154 -0.371166 -0.564 134 91 82
0.128206 -0.373798 -0.568 126 89 83
0.134167 -0.378405 -0.575 119 85 83
0.158631 -0.392883 -0.597 122 122 146
0.16318 -0.392883 -0.597 130 128 149
0.164317 -0.392883 -0.597 112 114 137
0.183956 -0.393541 -0.598 163 169 191
0.191609 -0.392883 -0.597 90 99 130
0.30639 -0.34879 -0.53 182 129 121
0.303172 -0.342868 -0.521 186 131 124
0.302814 -0.340235 -0.517 183 126 117
0.310477 -0.333654 -0.507 167 108 94
0.312409 -0.333654 -0.507 167 108 94
0.31372 -0.332996 -0.506 173 114 100
0.32204 -0.327731 -0.498 180 121 105
0.3444 -0.323783 -0.492 181 119 104
0.350505 -0.325099 -0.494 175 116 100
0.355703 -0.326415 -0.496 150 102 88
0.393412 -0.340235 -0.517 135 92 83
0.39516 -0.340893 -0.518 133 93 83
0.399657 -0.34221 -0.52 134 91 82
0.413851 -0.347474 -0.528 141 98 89
0.434116 -0.356688 -0.542 145 105 95
0.0745714 -0.3564 -0.54 202 158 133
0.0858857 -0.3564 -0.54 201 155 131
0.0889714 -0.3564 -0.54 195 149 123
0.0934305 -0.35772 -0.542 191 139 115
0.100176 -0.3597 -0.545 180 126 102
0.113438 -0.36564 -0.554 150 100 91
0.12 -0.3696 -0.56 145 95 84
0.125154 -0.37224 -0.564 134 91 85
0.134167 -0.3795 -0.575 121 86 84
0.15496 -0.39336 -0.596 96 96 120
0.15723 -0.39336 -0.596 118 120 141
0.165454 -0.39402 -0.597 93 98 127
0.177963 -0.39402 -0.597 75 93 139
0.1791 -0.39402 -0.597 91 103 145
0.183649 -0.39402 -0.597 164 170 194
0.188197 -0.39402 -0.597 168 168 192
0.189334 -0.39402 -0.597 164 164 188
0.197294 -0.39402 -0.597 145 150 180
0.200706 -0.39402 -0.597 133 135 158
0.201843 -0.39402 -0.597 143 150 169
0.301246 -0.34056 -0.516 180 129 125
0.303787 -0.33792 -0.512 175 119 106
0.306486 -0.3366 -0.51 122 63 47
0.310829 -0.33396 -0.506 153 94 80
0.3131 -0.3333 -0.505 165 106 92
0.314062 -0.3333 -0.505 168 109 95
0.31665 -0.33198 -0.503 180 122 108
0.323871 -0.3267 -0.495 177 118 102
0.32538 -0.32538 -0.493 183 121 106
0.327531 -0.32472 -0.492 186 124 109
0.334348 -0.32406 -0.491 180 121 105
0.337153 -0.32406 -0.491 178 119 103
0.343463 -0.32472 -0.492 178 116 101
0.345337 -0.32472 -0.492 181 119 104
0.347917 -0.32538 -0.493 179 117 104
0.36743 -0.33198 -0.503 136 89 81
0.383756 -0.33792 -0.512 132 89 80
0.39516 -0.34188 -0.518 128 88 78
0.435951 -0.35838 -0.543 143 105 96
0.447949 -0.36564 -0.554 146 108 99
0.0597286 -0.373976 -0.565 202 156 130
0.0623333 -0.364048 -0.55 200 155 134
0.0640771 -0.362062 -0.547 202 157 134
0.0804438 -0.356105 -0.538 202 157 128
0.0967057 -0.359414 -0.543 185 133 109
0.110926 -0.365371 -0.552 158 99 91
0.113438 -0.366695 -0.554 153 100 92
0.125376 -0.373976 -0.565 133 90 84
0.162907 -0.394495 -0.596 130 130 154
0.166312 -0.394495 -0.596 72 83 115
0.177665 -0.394495 -0.596 76 95 138
0.198099 -0.394495 -0.596 141 149 185
0.303946 -0.33691 -0.509 182 126 111
0.309252 -0.334262 -0.505 123 64 50
0.312138 -0.334262 -0.505 148 89 75
0.3144 -0.3336 -0.504 167 108 94
0.314734 -0.332938 -0.503 168 109 95
0.319524 -0.330952 -0.5 181 122 108
0.319835 -0.33029 -0.499 183 121 106
0.324158 -0.326981 -0.494 178 116 101
0.32472 -0.325657 -0.492 184 122 107
0.331542 -0.324995 -0.491 184 122 107
0.3318 -0.324333 -0.49 184 122 107
0.341589 -0.325657 -0.492 180 118 103
0.345337 -0.325657 -0.492 174 112 97
0.350505 -0.326981 -0.494 171 112 96
0.35642 -0.328967 -0.497 142 93 78
0.359755 -0.33029 -0.499 135 91 78
0.364787 -0.332276 -0.502 135 91 82
0.382033 -0.338233 -0.511 132 89 80
0.388192 -0.340219 -0.514 129 86 77
0.394397 -0.342205 -0.517 125 85 75
0.401418 -0.344852 -0.521 131 91 79
0.411282 -0.348162 -0.526 138 98 88
0.419237 -0.351471 -0.531 139 99 91
0.0763448 -0.35713 -0.538 201 155 129
0.0804438 -0.35713 -0.538 201 155 129
0.0847 -0.357793 -0.539 199 152 124
0.0889714 -0.358457 -0.54 188 141 111
0.0967057 -0.360449 -0.543 185 134 107
0.1344 -0.382354 -0.576 120 81 82
0.1513 -0.394967 -0.595 91 91 119
0.156967 -0.394967 -0.595 127 126 142
0.1615 -0.394967 -0.595 136 134 156
0.194693 -0.39563 -0.596 76 91 132
0.300273 -0.339207 -0.511 183 133 122
0.306614 -0.336551 -0.507 189 136 120
0.30829 -0.335224 -0.505 142 86 69
0.309252 -0.335224 -0.505 121 65 48
0.310214 -0.335224 -0.505 121 65 48
0.31056 -0.33456 -0.504 113 57 40
0.313776 -0.333896 -0.503 150 93 76
0.314109 -0.333232 -0.502 156 97 81
0.322929 -0.328586 -0.495 174 115 99
0.337153 -0.32593 -0.491 183 121 106
0.338089 -0.32593 -0.491 181 119 104
0.339024 -0.32593 -0.491 180 118 103
0.339959 -0.32593 -0.491 182 120 105
0.342526 -0.326594 -0.492 180 118 103
0.343463 -0.326594 -0.492 178 116 101
0.353813 -0.32925 -0.496 154 98 83
0.39091 -0.341862 -0.515 128 85 76
0.404177 -0.346509 -0.522 131 91 79
0.405948 -0.347172 -0.523 131 91 79
0.419457 -0.351819 -0.53 141 101 93
0.426471 -0.355138 -0.535 142 102 94
0.0621067 -0.364811 -0.548 202 157 134
0.0647619 -0.362149 -0.544 203 159 134
0.08778 -0.35882 -0.539 200 153 123
0.0989562 -0.362149 -0.544 181 130 101
0.12257 -0.374131 -0.562 137 93 84
0.125598 -0.376794 -0.566 128 89 84
0.1269 -0.37746 -0.567 125 86 81
0.162633 -0.3961 -0.595 113 113 137
0.167448 -0.396766 -0.596 90 103 145
0.171989 -0.396766 -0.596 111 120 153
0.173124 -0.396766 -0.596 110 119 152
0.183033 -0.3961 -0.595 170 175 194
0.301645 -0.350831 -0.527 174 121 113
0.29754 -0.341511 -0.513 184 135 121
0.297353 -0.34018 -0.511 186 134 121
0.298714 -0.339514 -0.51 191 139 126
0.30864 -0.33552 -0.504 182 129 111
0.314109 -0.334189 -0.502 132 75 58
0.320447 -0.33086 -0.497 172 115 98
0.323783 -0.327531 -0.492 178 121 104
0.346039 -0.328197 -0.493 176 114 99
0.359755 -0.332191 -0.499 129 83 70
0.363106 -0.333523 -0.501 130 88 76
0.364787 -0.334189 -0.502 131 88 79
0.37008 -0.33552 -0.504 135 88 80
0.377855 -0.338183 -0.508 133 89 80
0.39091 -0.342843 -0.515 129 86 77
0.398889 -0.345506 -0.519 132 90 78
0.423067 -0.35416 -0.532 143 100 93
0.0597286 -0.370529 -0.555 199 157 135
0.0772257 -0.358511 -0.537 203 158 129
0.0802943 -0.358511 -0.537 199 155 126
0.0813171 -0.358511 -0.537 198 155 123
0.0845429 -0.359179 -0.538 195 152 120
0.0920571 -0.360514 -0.54 190 136 108
0.118509 -0.372531 -0.558 142 94 80
0.12257 -0.375202 -0.562 136 92 83
0.152177 -0.396566 -0.594 110 107 128
0.156703 -0.396566 -0.594 127 128 146
0.161229 -0.396566 -0.594 132 134 159
0.1751 -0.397233 -0.595 94 112 148
0.179633 -0.397233 -0.595 85 104 147
0.183033 -0.397233 -0.595 171 177 193
0.187251 -0.396566 -0.594 175 182 198
0.29748 -0.345827 -0.518 180 120 110
0.299854 -0.338483 -0.507 195 141 131
0.30119 -0.337815 -0.506 195 143 130
0.308028 -0.335812 -0.503 188 140 120
0.323502 -0.329136 -0.493 185 128 111
0.327133 -0.327133 -0.49 185 128 111
0.329 -0.327133 -0.49 185 128 111
0.333667 -0.327133 -0.49 184 127 110
0.352157 -0.330471 -0.495 139 90 76
0.355473 -0.331807 -0.497 133 85 71
0.35642 -0.331807 -0.497 126 78 64
0.361429 -0.33381 -0.5 127 85 73
0.373476 -0.337815 -0.506 135 91 82
0.385707 -0.341821 -0.512 127 83 74
0.395382 -0.345159 -0.517 127 83 74
0.426691 -0.356509 -0.534 141 101 99
0.431937 -0.359179 -0.538 139 98 94
0.444951 -0.366523 -0.549 145 101 92
0.0703267 -0.360873 -0.539 203 159 132
0.07518 -0.359534 -0.537 204 157 129
0.117235 -0.372925 -0.557 142 94 80
0.12257 -0.376272 -0.562 136 91 85
0.12408 -0.377611 -0.564 135 90 84
0.125598 -0.37895 -0.566 122 89 82
0.127124 -0.38029 -0.568 117 84 77
0.161229 -0.397697 -0.594 113 124 154
0.170567 -0.398367 -0.595 96 110 147
0.188383 -0.397697 -0.594 175 178 195
0.301557 -0.33811 -0.505 199 147 133
0.30288 -0.33744 -0.504 195 144 127
0.308371 -0.336101 -0.502 193 146 126
0.318857 -0.332084 -0.496 121 64 47
0.322563 -0.330075 -0.493 187 130 113
0.322846 -0.329406 -0.492 190 133 116
0.325267 -0.328067 -0.49 187 131 114
0.339959 -0.328736 -0.491 165 108 91
0.343463 -0.329406 -0.492 164 105 89
0.353813 -0.332084 -0.496 128 80 68
0.36406 -0.335431 -0.501 129 86 77
0.37008 -0.33744 -0.504 135 90 84
0.382257 -0.341457 -0.51 131 87 78
0.4125 -0.3515 -0.525 132 87 81
0.4356 -0.361543 -0.54 140 96 87
0.09086 -0.3619 -0.539 194 140 112
0.09774 -0.364586 -0.543 182 127 106
0.0999924 -0.365257 -0.544 176 121 101
0.10367 -0.367271 -0.547 173 117 100
0.12582 -0.3807 -0.567 119 88 83
0.127348 -0.382043 -0.569 115 84 79
0.128883 -0.383386 -0.571 111 87 85
0.15531 -0.398157 -0.593 135 133 154
0.164346 -0.398157 -0.593 73 89 138
0.169149 -0.398829 -0.594 84 99 140
0.185807 -0.398157 -0.593 175 182 192
0.195972 -0.398157 -0.593 96 117 170
0.32423 -0.388086 -0.578 177 135 137
0.295921 -0.347129 -0.517 177 119 115
0.294609 -0.344443 -0.513 173 122 118
0.29425 -0.341757 -0.509 178 123 116
0.297335 -0.339743 -0.506 192 140 129
0.30359 -0.337057 -0.502 198 146 125
0.304547 -0.337057 -0.502 197 145 124
0.312231 -0.335043 -0.499 196 143 127
0.315713 -0.3337 -0.497 171 118 100
0.317912 -0.333029 -0.496 126 70 53
0.330191 -0.328329 -0.489 189 133 116
0.343463 -0.330343 -0.492 161 102 86
0.366699 -0.337057 -0.502 134 87 79
0.380538 -0.341757 -0.509 133 89 78
0.394617 -0.346457 -0.516 130 87 78
0.397351 -0.347129 -0.517 136 91 85
0.401854 -0.348471 -0.519 136 91 85
0.409932 -0.351157 -0.523 131 86 80
0.420681 -0.355186 -0.529 135 90 84
0.0569648 -0.376393 -0.559 203 158 137
0.0616533 -0.366293 -0.544 201 159 134
0.0791238 -0.360907 -0.536 199 155 128
0.0896667 -0.362253 -0.538 192 141 114
0.0942886 -0.364273 -0.541 190 134 109
0.10244 -0.36764 -0.546 174 118 101
0.107186 -0.36966 -0.549 162 109 95
0.122788 -0.379087 -0.563 134 93 87
0.166605 -0.399287 -0.593 75 96 141
0.167734 -0.399287 -0.593 71 89 137
0.173674 -0.39996 -0.594 71 94 138
0.17903 -0.399287 -0.593 90 105 146
0.183238 -0.398613 -0.592 178 180 195
0.294034 -0.344747 -0.512 175 122 118
0.299766 -0.338013 -0.502 196 144 130
0.309048 -0.336667 -0.5 196 145 128
0.318807 -0.331953 -0.493 193 137 120
0.321909 -0.33128 -0.492 192 136 119
0.326466 -0.32926 -0.489 191 135 118
0.331123 -0.32926 -0.489 188 132 115
0.334849 -0.32926 -0.489 180 123 106
0.338333 -0.329933 -0.49 170 113 96
0.339959 -0.330607 -0.491 165 108 91
0.340894 -0.330607 -0.491 160 103 86
0.346978 -0.331953 -0.493 134 87 77
0.350271 -0.3333 -0.495 129 81 71
0.353813 -0.333973 -0.496 123 75 65
0.355473 -0.334647 -0.497 122 75 65
