ply
format ascii 1.0
comment Created by Open3D
element vertex 1283
property double x
property double y
property double z
property uchar red
property uchar green
property uchar blue
end_header
0.0307324 -0.396498 -0.529 199 155 128
0.0333724 -0.392001 -0.523 193 149 122
0.0506171 -0.386754 -0.516 204 159 130
0.0545486 -0.386754 -0.516 198 153 124
0.0574971 -0.386754 -0.516 199 154 123
0.0635171 -0.387504 -0.517 188 141 115
0.0793486 -0.39275 -0.524 179 129 106
0.1014 -0.40924 -0.546 132 99 92
0.120845 -0.426479 -0.569 123 118 115
0.392313 -0.435473 -0.581 198 200 215
0.402966 -0.436223 -0.582 63 78 119
0.417767 -0.435473 -0.581 115 147 194
0.435862 -0.436972 -0.583 74 86 112
0.435643 -0.400995 -0.535 132 94 83
0.4345 -0.3935 -0.525 150 108 94
0.440082 -0.385255 -0.514 180 125 94
0.442157 -0.384506 -0.513 182 127 97
0.447043 -0.384506 -0.513 187 132 101
0.450072 -0.383756 -0.512 188 133 102
0.451048 -0.383756 -0.512 187 132 101
0.4581 -0.381508 -0.509 185 130 100
0.467795 -0.381508 -0.509 175 124 97
0.470657 -0.382257 -0.51 172 125 99
0.476404 -0.383756 -0.512 166 120 96
0.0264229 -0.408777 -0.544 189 148 118
0.0272571 -0.405771 -0.54 192 148 123
0.0297248 -0.397506 -0.529 197 153 126
0.0305581 -0.395251 -0.526 200 156 129
0.0333086 -0.392246 -0.522 200 156 129
0.0351619 -0.390743 -0.52 202 158 131
0.0360829 -0.389991 -0.519 206 161 132
0.0379867 -0.38924 -0.518 204 159 128
0.0495381 -0.386986 -0.515 202 157 126
0.050519 -0.386986 -0.515 201 156 125
0.0544429 -0.386986 -0.515 199 154 121
0.0645019 -0.388489 -0.517 185 138 110
0.0685733 -0.38924 -0.518 182 130 108
0.0772048 -0.392997 -0.523 182 130 108
0.0793486 -0.393749 -0.524 181 129 107
0.0805 -0.3945 -0.525 179 128 107
0.0861514 -0.397506 -0.529 176 125 104
0.127348 -0.427563 -0.569 160 161 166
0.35836 -0.434326 -0.578 154 171 201
0.362764 -0.434326 -0.578 206 202 216
0.368906 -0.435077 -0.579 123 135 159
0.40338 -0.43658 -0.581 113 129 165
0.421087 -0.43658 -0.581 101 127 162
0.432897 -0.437331 -0.582 150 151 169
0.435114 -0.437331 -0.582 104 112 135
0.44171 -0.409529 -0.545 120 90 82
0.435757 -0.388489 -0.517 167 115 91
0.437863 -0.387737 -0.516 173 119 91
0.446171 -0.384731 -0.512 187 132 102
0.490781 -0.390743 -0.52 162 116 92
0.0271057 -0.40454 -0.537 192 151 123
0.0287714 -0.399267 -0.53 196 152 125
0.0305 -0.3955 -0.525 200 156 127
0.0484629 -0.387213 -0.514 202 159 124
0.050421 -0.387213 -0.514 201 157 122
0.0514 -0.387213 -0.514 201 156 123
0.0614286 -0.38872 -0.516 191 146 115
0.0728 -0.391733 -0.52 178 126 104
0.364966 -0.435427 -0.578 206 205 221
0.37442 -0.43618 -0.579 193 198 218
0.385449 -0.43618 -0.579 103 119 145
0.400476 -0.436933 -0.58 74 85 115
0.4067 -0.437687 -0.581 181 181 191
0.409314 -0.436933 -0.58 181 182 203
0.410419 -0.436933 -0.58 162 165 184
0.435795 -0.398513 -0.529 137 101 87
0.440082 -0.387213 -0.514 177 122 92
0.466876 -0.382693 -0.508 173 122 95
0.467844 -0.382693 -0.508 173 122 95
0.473571 -0.3842 -0.51 167 120 94
0.476447 -0.384953 -0.511 167 119 96
0.49945 -0.396253 -0.526 161 115 92
0.503306 -0.398513 -0.529 160 114 91
0.512008 -0.403787 -0.536 159 112 92
0.0295 -0.3965 -0.525 198 154 125
0.03132 -0.394234 -0.522 200 156 127
0.0341057 -0.391969 -0.519 203 159 130
0.0350267 -0.391213 -0.518 204 160 131
0.052379 -0.388192 -0.514 200 156 121
0.0553162 -0.388192 -0.514 197 152 119
0.0572743 -0.388192 -0.514 198 153 122
0.0645019 -0.390458 -0.517 184 137 109
0.38148 -0.436528 -0.578 179 182 201
0.395374 -0.437283 -0.579 189 186 205
0.400476 -0.438038 -0.58 135 145 170
0.404895 -0.438038 -0.58 185 190 209
0.407105 -0.438038 -0.58 187 186 200
0.410814 -0.437283 -0.579 134 137 154
0.42662 -0.438793 -0.581 176 173 192
0.435473 -0.438793 -0.581 149 150 170
0.445433 -0.438793 -0.581 168 169 189
0.452073 -0.438793 -0.581 113 124 154
0.450374 -0.420668 -0.557 137 114 108
0.439927 -0.407073 -0.539 132 96 84
0.438846 -0.389703 -0.516 173 119 91
0.444221 -0.386682 -0.512 186 131 101
0.446171 -0.386682 -0.512 191 136 106
0.455191 -0.384416 -0.509 186 133 101
0.456161 -0.384416 -0.509 186 133 101
0.46107 -0.383661 -0.508 183 129 101
0.464941 -0.383661 -0.508 177 126 99
0.47933 -0.386682 -0.512 166 118 95
0.481243 -0.387437 -0.513 166 118 95
0.4841 -0.388948 -0.515 167 119 96
0.0267524 -0.401286 -0.53 195 151 126
0.0284457 -0.396743 -0.524 198 154 129
0.034959 -0.391443 -0.517 206 160 134
0.0359438 -0.391443 -0.517 206 160 134
0.0425886 -0.389171 -0.514 202 159 125
0.0445467 -0.389171 -0.514 200 157 125
0.0503229 -0.388414 -0.513 204 159 128
0.0513 -0.388414 -0.513 203 158 125
0.0522771 -0.388414 -0.513 201 156 123
0.0532543 -0.388414 -0.513 199 154 123
0.0572743 -0.389171 -0.514 198 151 121
0.0593476 -0.389929 -0.515 191 144 114
0.0664714 -0.391443 -0.517 184 134 109
0.0716714 -0.392957 -0.519 183 131 109
0.0728 -0.393714 -0.52 185 133 111
0.0947905 -0.407343 -0.538 146 108 97
0.10036 -0.4134 -0.546 125 97 93
0.388086 -0.437629 -0.578 181 184 203
0.39758 -0.438386 -0.579 109 115 141
0.406 -0.439143 -0.58 188 187 203
0.40821 -0.439143 -0.58 190 187 206
0.419637 -0.438386 -0.579 107 131 175
0.424781 -0.439143 -0.58 137 166 208
0.438038 -0.439143 -0.58 106 112 136
0.445414 -0.414157 -0.547 131 101 93
0.4387 -0.405071 -0.535 132 96 82
0.451229 -0.386143 -0.51 185 132 101
0.459197 -0.383871 -0.507 183 129 101
0.464941 -0.384629 -0.508 177 126 99
0.475514 -0.386143 -0.51 170 120 95
0.48222 -0.388414 -0.513 166 119 93
0.52869 -0.414914 -0.548 163 119 94
0.0339743 -0.392428 -0.517 204 160 133
0.06536 -0.391669 -0.516 187 135 111
0.0685733 -0.393187 -0.518 190 138 114
0.0737905 -0.394705 -0.52 187 133 107
0.0791971 -0.396982 -0.523 182 127 107
0.0803467 -0.397741 -0.524 181 126 106
0.0922238 -0.40609 -0.535 157 108 91
0.363703 -0.437211 -0.576 188 186 200
0.379721 -0.43797 -0.577 183 190 209
0.38082 -0.43797 -0.577 166 174 195
0.385216 -0.43797 -0.577 123 142 185
0.395792 -0.43873 -0.578 95 106 136
0.399786 -0.439489 -0.579 181 189 210
0.411206 -0.43873 -0.578 87 115 163
0.417431 -0.439489 -0.579 112 140 187
0.418534 -0.439489 -0.579 106 130 178
0.4292 -0.440248 -0.58 176 179 188
0.449086 -0.440248 -0.58 74 95 140
0.44564 -0.41444 -0.546 135 96 89
0.443408 -0.411404 -0.542 133 94 87
0.442185 -0.408368 -0.538 131 95 83
0.437989 -0.400777 -0.528 142 104 85
0.43683 -0.396982 -0.523 150 109 91
0.437443 -0.393946 -0.519 160 113 93
0.44204 -0.39015 -0.514 175 119 92
0.445196 -0.388632 -0.512 185 129 102
0.454222 -0.386355 -0.509 186 130 103
0.456232 -0.385596 -0.508 185 131 103
0.46306 -0.384837 -0.507 181 127 101
0.511172 -0.404572 -0.533 163 117 94
0.0231 -0.410153 -0.539 196 151 128
0.0256457 -0.401783 -0.528 201 155 132
0.0329257 -0.392651 -0.516 199 155 126
0.0376933 -0.39113 -0.514 203 160 128
0.0454371 -0.390369 -0.513 202 159 127
0.0592324 -0.39113 -0.514 191 141 116
0.0622905 -0.39189 -0.515 187 137 112
0.0934171 -0.40787 -0.536 152 105 87
0.390711 -0.43907 -0.577 147 153 185
0.400196 -0.43983 -0.578 180 181 199
0.402398 -0.43983 -0.578 187 189 202
0.406802 -0.43983 -0.578 143 136 144
0.409004 -0.43983 -0.578 156 159 166
0.41671 -0.43983 -0.578 102 130 178
0.421114 -0.43983 -0.578 76 104 144
0.426254 -0.440591 -0.579 129 126 121
0.429563 -0.440591 -0.579 173 180 190
0.440248 -0.441352 -0.58 60 73 108
0.451929 -0.422329 -0.555 138 108 106
0.4375 -0.3995 -0.525 147 108 93
0.437665 -0.398739 -0.524 148 109 94
0.438711 -0.393412 -0.517 171 116 96
0.441061 -0.39113 -0.514 176 118 96
0.443134 -0.390369 -0.513 179 123 96
0.444221 -0.389608 -0.512 183 127 100
0.449286 -0.388086 -0.51 188 132 105
0.493791 -0.394934 -0.519 165 118 92
0.508295 -0.403305 -0.53 162 114 91
0.0367143 -0.392109 -0.514 203 158 125
0.0386724 -0.392109 -0.514 205 160 127
0.0415286 -0.391346 -0.513 205 162 128
0.0611905 -0.392109 -0.514 188 138 113
0.0652333 -0.392871 -0.515 189 137 113
0.0749248 -0.397449 -0.521 185 135 112
0.0935914 -0.409654 -0.537 149 103 88
0.09774 -0.414231 -0.543 125 100 96
0.100544 -0.417283 -0.547 122 98 98
0.373577 -0.439406 -0.576 60 89 133
0.396207 -0.440169 -0.577 119 140 187
0.4046 -0.440931 -0.578 193 188 194
0.412692 -0.440169 -0.577 78 105 158
0.450517 -0.441694 -0.579 58 76 122
0.458237 -0.441694 -0.579 40 63 94
0.455186 -0.426437 -0.559 139 118 115
0.445196 -0.390583 -0.512 183 129 101
0.4453 -0.38982 -0.511 185 129 102
0.447247 -0.38982 -0.511 189 133 106
0.448314 -0.389057 -0.51 189 133 106
0.450344 -0.388294 -0.509 187 132 102
0.4563 -0.386769 -0.507 186 131 100
0.459255 -0.386006 -0.506 184 131 100
0.462147 -0.386006 -0.506 183 130 99
0.464074 -0.386006 -0.506 181 128 97
0.0219914 -0.410677 -0.537 197 156 128
0.0237238 -0.405324 -0.53 200 156 131
0.03096 -0.394617 -0.516 200 157 125
0.0482743 -0.391558 -0.512 200 155 124
0.05814 -0.392323 -0.513 189 139 114
0.0652333 -0.393852 -0.515 186 134 110
0.0873238 -0.405324 -0.53 161 115 99
0.0885 -0.406089 -0.531 159 113 97
0.09774 -0.415266 -0.543 125 100 96
0.116767 -0.43209 -0.565 90 85 107
0.371833 -0.439738 -0.575 121 129 152
0.396617 -0.440503 -0.576 173 178 197
0.426619 -0.442032 -0.578 161 159 162
0.445335 -0.442032 -0.578 146 155 188
0.45018 -0.419854 -0.549 121 98 92
0.439829 -0.394617 -0.516 173 117 90
0.449286 -0.390029 -0.51 186 133 102
0.4563 -0.387734 -0.507 187 132 102
0.457328 -0.38697 -0.506 186 131 101
0.46793 -0.38697 -0.506 174 123 94
0.470786 -0.387734 -0.507 174 123 94
0.472717 -0.387734 -0.507 173 124 94
0.482287 -0.390793 -0.511 167 117 92
0.523997 -0.413736 -0.541 160 114 88
0.0309 -0.394833 -0.515 199 158 128
0.0385219 -0.392533 -0.512 202 159 127
0.0404724 -0.392533 -0.512 203 158 127
0.0424229 -0.392533 -0.512 201 158 124
0.0621695 -0.394067 -0.514 186 136 111
0.0662143 -0.394833 -0.515 188 136 112
0.0673257 -0.3956 -0.516 189 137 113
0.0715333 -0.397133 -0.518 189 137 115
0.0825 -0.4025 -0.525 175 124 107
0.397714 -0.4416 -0.576 179 186 205
0.411977 -0.4416 -0.576 77 105 155
0.415269 -0.4416 -0.576 90 118 166
0.424782 -0.442367 -0.577 171 176 195
0.429178 -0.442367 -0.577 171 170 176
0.43983 -0.443133 -0.578 46 64 110
0.440931 -0.443133 -0.578 61 82 127
0.447537 -0.443133 -0.578 76 94 132
0.45084 -0.443133 -0.578 81 105 143
0.456031 -0.4439 -0.579 98 112 138
0.440833 -0.405567 -0.529 140 108 97
0.4395 -0.4025 -0.525 144 108 94
0.439661 -0.401733 -0.524 145 109 95
0.445196 -0.392533 -0.512 179 125 97
0.447343 -0.391 -0.51 184 130 102
0.452437 -0.3887 -0.507 185 129 102
0.4563 -0.3887 -0.507 186 131 101
0.465038 -0.387933 -0.506 181 128 97
0.471751 -0.3887 -0.507 175 124 95
0.480371 -0.391 -0.51 169 119 92
0.496757 -0.3979 -0.519 161 117 92
0.511324 -0.406333 -0.53 158 113 90
0.552812 -0.431633 -0.563 161 133 121
0.0346886 -0.394277 -0.513 199 155 126
0.0541257 -0.393509 -0.512 198 148 123
0.0621695 -0.395046 -0.514 190 140 115
0.0642524 -0.395814 -0.515 185 135 110
0.0662143 -0.395814 -0.515 186 134 110
0.0683086 -0.396583 -0.516 187 135 111
0.0747809 -0.399657 -0.52 186 136 109
0.0757714 -0.399657 -0.52 184 134 107
0.0791971 -0.401963 -0.523 180 128 104
0.395929 -0.441929 -0.575 157 166 183
0.402103 -0.442697 -0.576 168 170 183
0.4039 -0.443466 -0.577 172 172 180
0.405394 -0.442697 -0.576 185 185 195
0.411977 -0.442697 -0.576 74 97 147
0.416366 -0.442697 -0.576 99 123 167
0.419657 -0.442697 -0.576 72 99 146
0.429178 -0.443466 -0.577 154 153 161
0.430277 -0.443466 -0.577 158 160 159
0.446284 -0.413491 -0.538 131 101 91
0.441006 -0.405806 -0.528 140 108 97
0.439276 -0.399657 -0.52 157 112 93
0.43942 -0.398889 -0.519 159 114 95
0.446273 -0.39274 -0.511 181 127 99
0.449374 -0.391203 -0.509 184 131 100
0.454369 -0.389666 -0.507 184 131 100
0.456364 -0.388897 -0.506 182 129 98
0.458291 -0.388897 -0.506 183 130 99
0.467005 -0.388129 -0.505 176 125 96
0.475614 -0.389666 -0.507 172 122 95
0.480399 -0.391203 -0.509 170 120 93
0.491948 -0.395814 -0.515 167 117 92
0.516249 -0.409649 -0.533 160 113 87
0.540887 -0.42502 -0.553 160 119 99
0.02516 -0.399107 -0.518 197 159 123
0.029861 -0.396025 -0.514 205 161 132
0.034621 -0.394484 -0.512 201 156 125
0.0355962 -0.394484 -0.512 202 157 126
0.03942 -0.393713 -0.511 204 159 128
0.0433133 -0.393713 -0.511 199 154 125
0.0621695 -0.396025 -0.514 192 142 117
0.0631486 -0.396025 -0.514 189 139 114
0.07266 -0.399877 -0.519 184 132 110
0.0780514 -0.402189 -0.522 179 128 107
0.395929 -0.443024 -0.575 131 138 156
0.435772 -0.444565 -0.577 152 155 170
0.444565 -0.444565 -0.577 159 166 184
0.451159 -0.444565 -0.577 131 145 172
0.458852 -0.444565 -0.577 80 89 120
0.448772 -0.416828 -0.541 130 100 90
0.444167 -0.410664 -0.533 135 103 92
0.442676 -0.408352 -0.53 138 106 95
0.456364 -0.389861 -0.506 182 129 98
0.457328 -0.389861 -0.506 182 129 98
0.47658 -0.390631 -0.507 172 122 95
0.497773 -0.399107 -0.518 162 115 89
0.0365 -0.394687 -0.511 204 159 128
0.0403143 -0.393914 -0.51 201 156 125
0.0511 -0.394687 -0.511 194 144 117
0.0621695 -0.397004 -0.514 193 143 118
0.0631486 -0.397004 -0.514 189 139 114
0.0849829 -0.407817 -0.528 159 116 107
0.0968838 -0.420175 -0.544 124 100 96
0.396333 -0.443347 -0.574 164 171 189
0.430629 -0.444891 -0.576 109 114 117
0.43392 -0.444891 -0.576 168 166 180
0.44928 -0.444891 -0.576 91 111 146
0.456654 -0.445664 -0.577 128 131 150
0.454363 -0.424037 -0.549 115 99 100
0.441113 -0.40241 -0.521 155 112 93
0.441794 -0.398549 -0.516 170 119 92
0.444221 -0.395459 -0.512 175 121 95
0.446371 -0.393914 -0.51 180 126 98
0.450506 -0.391597 -0.507 183 130 99
0.471785 -0.390825 -0.506 178 127 96
0.473712 -0.390825 -0.506 176 125 96
0.491971 -0.397004 -0.514 168 119 89
0.555042 -0.434078 -0.562 180 164 151
0.0631486 -0.397983 -0.514 189 138 117
0.0662143 -0.398757 -0.515 187 136 115
0.0683086 -0.399531 -0.516 185 135 112
0.0747809 -0.402629 -0.52 181 134 106
0.0769095 -0.403403 -0.521 179 132 106
0.0849829 -0.408823 -0.528 157 117 109
0.0941143 -0.418114 -0.54 136 103 96
0.4255 -0.445214 -0.575 169 173 185
0.426595 -0.445214 -0.575 169 172 191
0.435017 -0.445989 -0.576 102 101 119
0.437211 -0.445989 -0.576 159 165 177
0.450377 -0.445989 -0.576 134 144 169
0.451474 -0.445989 -0.576 149 159 184
0.458852 -0.446763 -0.577 148 147 165
0.461349 -0.445989 -0.576 82 84 99
0.455794 -0.427406 -0.552 112 100 102
0.443856 -0.409597 -0.529 137 105 94
0.44181 -0.404951 -0.523 151 110 92
0.442386 -0.401854 -0.519 163 113 90
0.447343 -0.394886 -0.51 179 125 97
0.448314 -0.394886 -0.51 180 126 98
0.452437 -0.392563 -0.507 184 129 99
0.48139 -0.393337 -0.508 169 120 90
0.503633 -0.403403 -0.521 162 112 85
0.0159133 -0.418367 -0.539 195 153 128
0.0212543 -0.402843 -0.519 199 149 124
0.0316333 -0.396633 -0.511 207 160 134
0.0354571 -0.395857 -0.51 204 157 129
0.0373267 -0.395081 -0.509 203 156 128
0.0422571 -0.395857 -0.51 197 150 122
0.0480857 -0.395857 -0.51 189 142 114
0.0549933 -0.396633 -0.511 193 143 116
0.0590019 -0.39741 -0.512 192 142 117
0.0826571 -0.408276 -0.526 165 121 108
0.092741 -0.41759 -0.538 134 105 101
0.0941143 -0.419143 -0.54 132 103 99
0.398917 -0.444757 -0.573 155 152 169
0.450377 -0.447086 -0.576 139 150 172
0.453669 -0.447086 -0.576 158 157 175
0.45696 -0.447086 -0.576 149 146 163
0.458057 -0.447086 -0.576 135 132 149
0.442106 -0.404395 -0.521 156 111 90
0.443881 -0.399738 -0.515 170 119 92
0.446371 -0.395857 -0.51 176 125 96
0.451545 -0.392752 -0.506 183 129 101
0.452509 -0.392752 -0.506 184 131 100
0.457386 -0.391976 -0.505 181 128 97
0.476604 -0.392752 -0.506 175 126 96
0.491032 -0.39741 -0.512 165 118 90
0.0176667 -0.41239 -0.53 193 149 124
0.0249171 -0.399163 -0.513 200 154 128
0.02774 -0.397607 -0.511 207 160 134
0.0287133 -0.397607 -0.511 207 160 134
0.0353876 -0.39605 -0.509 202 157 128
0.0460524 -0.39605 -0.509 195 145 120
0.0559667 -0.397607 -0.511 194 144 117
0.0630257 -0.399163 -0.513 184 134 109
0.0769095 -0.405388 -0.521 178 128 105
0.0791971 -0.406944 -0.523 178 127 106
0.413106 -0.445849 -0.573 107 130 172
0.423667 -0.446627 -0.574 170 177 195
0.429133 -0.446627 -0.574 114 119 138
0.432413 -0.446627 -0.574 67 72 94
0.438643 -0.447405 -0.575 152 157 160
0.458057 -0.448183 -0.576 116 115 123
0.459154 -0.448183 -0.576 105 100 97
0.450506 -0.394494 -0.507 183 129 101
0.457386 -0.392938 -0.505 180 127 96
0.46032 -0.39216 -0.504 178 127 96
0.46128 -0.39216 -0.504 177 126 95
0.46704 -0.39216 -0.504 177 128 96
0.46896 -0.39216 -0.504 177 128 96
0.46992 -0.39216 -0.504 176 127 95
0.473738 -0.392938 -0.505 176 127 97
0.483326 -0.395272 -0.508 171 122 92
0.0193514 -0.40638 -0.521 196 151 122
0.0286571 -0.3978 -0.51 203 156 128
0.0296286 -0.3978 -0.51 203 156 128
0.0373267 -0.39702 -0.509 201 156 127
0.0401562 -0.39624 -0.508 198 153 124
0.0431438 -0.39702 -0.509 195 145 118
0.0479914 -0.39702 -0.509 192 145 117
0.0499305 -0.39702 -0.509 192 145 117
0.0548857 -0.3978 -0.51 192 145 117
0.0660857 -0.40092 -0.514 188 138 113
0.0671952 -0.4017 -0.515 186 136 113
0.0713952 -0.40326 -0.517 185 135 112
0.0803467 -0.40872 -0.524 167 120 104
0.0876533 -0.41496 -0.532 143 110 105
0.095319 -0.42198 -0.541 124 103 102
0.113803 -0.43758 -0.561 142 140 151
0.426203 -0.44694 -0.573 142 148 162
0.430227 -0.44772 -0.574 52 59 87
0.43788 -0.44772 -0.574 155 158 163
0.440067 -0.44772 -0.574 156 157 162
0.449595 -0.4485 -0.575 147 151 160
0.458727 -0.43134 -0.553 106 96 97
0.45122 -0.42042 -0.539 121 100 97
0.44889 -0.4173 -0.535 124 103 100
0.443507 -0.40404 -0.518 166 115 94
0.44954 -0.39546 -0.507 182 128 100
0.4632 -0.39312 -0.504 179 128 97
0.482374 -0.39546 -0.507 172 123 93
0.0156771 -0.415191 -0.531 193 149 122
0.0210495 -0.401899 -0.514 196 152 123
0.0295705 -0.39799 -0.509 200 155 124
0.032479 -0.39799 -0.509 202 155 125
0.052839 -0.39799 -0.509 193 146 118
0.0735067 -0.405027 -0.518 186 140 114
0.0746371 -0.405809 -0.519 181 135 109
0.092741 -0.420665 -0.538 130 102 99
0.430569 -0.448031 -0.573 99 113 142
0.4393 -0.448031 -0.573 156 159 164
0.457262 -0.449595 -0.575 98 94 95
0.462274 -0.434739 -0.556 95 92 101
0.443238 -0.40659 -0.52 157 110 92
0.443507 -0.405027 -0.518 162 115 97
0.444743 -0.403463 -0.516 166 115 88
0.445089 -0.401117 -0.513 172 121 94
0.446171 -0.400335 -0.512 176 122 94
0.448314 -0.398771 -0.51 177 123 95
0.455462 -0.394862 -0.505 180 126 98
0.4584 -0.39408 -0.504 177 126 95
0.46608 -0.39408 -0.504 178 127 96
0.47376 -0.39408 -0.504 177 128 98
0.507603 -0.407372 -0.521 161 115 89
0.0219429 -0.40131 -0.512 200 150 123
0.0324152 -0.398175 -0.508 202 155 125
0.0333829 -0.398175 -0.508 202 156 123
0.0411238 -0.398175 -0.508 197 152 123
0.0499305 -0.398959 -0.509 192 145 117
0.0769095 -0.408365 -0.521 172 127 106
0.420011 -0.448339 -0.572 128 139 169
0.427294 -0.449123 -0.573 46 66 99
0.434934 -0.449123 -0.573 127 123 120
0.4393 -0.449123 -0.573 152 155 162
0.459452 -0.45069 -0.575 144 149 155
0.459381 -0.431095 -0.55 98 92 102
0.44409 -0.408365 -0.521 154 109 90
0.443374 -0.406797 -0.519 159 114 95
0.444862 -0.403662 -0.515 167 117 92
0.446273 -0.400527 -0.511 175 124 97
0.447247 -0.400527 -0.511 177 123 95
0.468988 -0.394256 -0.503 177 126 97
0.488164 -0.398175 -0.508 166 119 89
0.498825 -0.402878 -0.514 161 116 87
0.508595 -0.408365 -0.521 159 115 88
0.5135 -0.4115 -0.525 158 114 87
0.556338 -0.43815 -0.559 176 150 135
0.0117848 -0.422714 -0.538 202 148 122
0.0440267 -0.399143 -0.508 191 146 115
0.0609524 -0.402286 -0.512 191 144 116
0.0619276 -0.402286 -0.512 190 143 115
0.0735067 -0.407 -0.518 176 131 110
0.0863143 -0.416429 -0.53 143 108 104
0.0942886 -0.425071 -0.541 119 101 99
0.42437 -0.449429 -0.572 110 121 153
0.425459 -0.449429 -0.572 58 69 101
0.427638 -0.449429 -0.572 62 83 112
0.428728 -0.449429 -0.572 98 116 136
0.438209 -0.450214 -0.573 151 151 151
0.461643 -0.451786 -0.575 139 143 154
0.461887 -0.4345 -0.553 89 85 99
0.458754 -0.430571 -0.548 104 88 91
0.446171 -0.402286 -0.512 172 122 95
0.453538 -0.396786 -0.505 178 127 98
0.46224 -0.396 -0.504 171 125 92
0.463239 -0.395214 -0.503 175 124 93
0.474736 -0.395214 -0.503 175 124 95
0.482395 -0.396786 -0.505 174 125 93
0.496884 -0.402286 -0.512 163 116 86
0.0172333 -0.407199 -0.517 194 147 117
0.0295124 -0.40011 -0.508 200 156 121
0.0660857 -0.404836 -0.514 186 139 109
0.0681762 -0.405624 -0.515 184 137 109
0.0780514 -0.411137 -0.522 168 122 106
0.42254 -0.44973 -0.571 140 152 192
0.463027 -0.452093 -0.574 114 121 137
0.446371 -0.401686 -0.51 175 125 98
0.453538 -0.397748 -0.505 176 125 96
0.462281 -0.396172 -0.503 174 125 93
0.47282 -0.396172 -0.503 176 125 94
0.474736 -0.396172 -0.503 177 126 97
0.476652 -0.396172 -0.503 175 124 95
0.47761 -0.396172 -0.503 175 126 94
0.48048 -0.39696 -0.504 175 126 96
0.500783 -0.404836 -0.514 163 118 89
0.51058 -0.41035 -0.521 161 114 86
0.0190171 -0.404236 -0.512 194 147 117
0.0218571 -0.402657 -0.51 196 147 114
0.0266095 -0.401078 -0.508 204 158 125
0.0284886 -0.400289 -0.507 201 156 123
0.0313857 -0.400289 -0.507 201 155 122
0.0342829 -0.400289 -0.507 202 156 123
0.0381457 -0.400289 -0.507 199 154 121
0.0420086 -0.400289 -0.507 194 147 117
0.04394 -0.400289 -0.507 191 146 115
0.0578 -0.402657 -0.51 192 146 113
0.0588867 -0.403447 -0.511 192 146 113
0.07238 -0.408184 -0.517 179 131 108
0.0735067 -0.408973 -0.518 176 127 110
0.0746371 -0.409763 -0.519 176 127 110
0.451608 -0.451608 -0.572 115 116 121
0.45458 -0.452397 -0.573 141 142 147
0.457854 -0.452397 -0.573 146 153 159
0.460037 -0.452397 -0.573 142 149 157
0.452792 -0.423185 -0.536 127 99 95
0.445956 -0.405815 -0.514 168 118 91
0.450506 -0.400289 -0.507 178 127 100
0.4584 -0.39792 -0.504 176 125 96
0.458449 -0.39713 -0.503 175 124 95
0.463239 -0.39713 -0.503 178 128 95
0.48144 -0.39792 -0.504 174 125 95
0.487206 -0.399499 -0.506 161 114 86
0.511572 -0.411342 -0.521 162 115 87
0.5165 -0.4145 -0.525 159 112 84
0.559532 -0.441344 -0.559 171 150 131
0.00969905 -0.424206 -0.536 196 148 125
0.0125238 -0.416291 -0.526 197 148 118
0.0255914 -0.401254 -0.507 203 157 124
0.0265571 -0.401254 -0.507 203 157 124
0.0332514 -0.400463 -0.506 202 156 123
0.0547781 -0.402837 -0.509 192 147 116
0.0557476 -0.402837 -0.509 193 148 117
0.0815 -0.4155 -0.525 160 117 101
0.443205 -0.451906 -0.571 123 129 143
0.444292 -0.451906 -0.571 92 101 118
0.447555 -0.451906 -0.571 121 128 144
0.455671 -0.453489 -0.573 126 130 141
0.46222 -0.453489 -0.573 139 143 154
0.465494 -0.453489 -0.573 79 86 114
0.452967 -0.423414 -0.535 122 101 100
0.450591 -0.420249 -0.531 136 104 93
0.446824 -0.407586 -0.515 167 117 90
0.447247 -0.40442 -0.511 171 121 94
0.45749 -0.398089 -0.503 175 124 95
0.49786 -0.40442 -0.511 164 118 92
0.560597 -0.442409 -0.559 174 152 139
0.0152048 -0.408567 -0.515 194 143 114
0.0161229 -0.40698 -0.513 195 144 115
0.0361429 -0.401427 -0.506 202 157 124
0.0371067 -0.401427 -0.506 201 156 123
0.0390343 -0.401427 -0.506 197 152 119
0.0578 -0.4046 -0.51 193 147 114
0.0638781 -0.406187 -0.512 185 138 110
0.0713952 -0.410153 -0.517 180 132 109
0.0733648 -0.410153 -0.517 177 129 106
0.0851438 -0.419673 -0.529 145 109 97
0.4218 -0.4522 -0.57 20 50 100
0.428314 -0.4522 -0.57 150 154 165
0.430486 -0.4522 -0.57 141 144 149
0.452993 -0.452993 -0.571 131 134 143
0.457055 -0.453787 -0.572 145 147 146
0.458145 -0.453787 -0.572 140 145 149
0.461043 -0.433953 -0.547 104 97 105
0.446467 -0.410947 -0.518 161 115 89
0.447247 -0.405393 -0.511 171 121 94
0.4536 -0.39984 -0.504 173 122 95
0.45945 -0.398253 -0.502 174 123 94
0.479529 -0.398253 -0.502 174 125 95
0.495911 -0.403807 -0.509 164 118 92
0.507645 -0.410153 -0.517 161 115 89
0.549476 -0.436333 -0.55 153 116 97
0.0293962 -0.40239 -0.506 204 155 123
0.0313238 -0.40239 -0.506 202 156 123
0.0322876 -0.40239 -0.506 202 156 123
0.0428895 -0.40239 -0.506 194 147 117
0.045781 -0.40239 -0.506 193 146 116
0.0680438 -0.408752 -0.514 184 136 113
0.0893333 -0.426248 -0.536 125 101 101
0.454081 -0.454081 -0.571 100 104 113
0.459234 -0.454876 -0.572 141 145 148
0.450506 -0.403186 -0.507 176 125 96
0.451545 -0.40239 -0.506 177 126 99
0.456532 -0.400005 -0.503 176 125 96
0.45749 -0.400005 -0.503 175 124 97
0.462351 -0.398414 -0.501 177 126 97
0.46426 -0.398414 -0.501 177 126 95
0.467143 -0.397619 -0.5 175 124 95
0.470952 -0.397619 -0.5 177 126 97
0.479529 -0.39921 -0.502 173 123 96
0.492997 -0.403186 -0.507 166 118 95
0.0379952 -0.402557 -0.505 198 152 119
0.0389571 -0.402557 -0.505 195 149 116
0.0669343 -0.408934 -0.513 180 133 107
0.0851438 -0.421689 -0.529 142 106 94
0.106434 -0.443211 -0.556 131 124 131
0.109809 -0.444009 -0.557 146 145 153
0.436233 -0.453574 -0.569 140 144 155
0.457344 -0.455169 -0.571 121 121 123
0.460607 -0.455169 -0.571 136 137 139
0.46387 -0.455169 -0.571 116 123 142
0.455574 -0.400963 -0.503 176 125 98
0.470952 -0.398571 -0.5 177 126 97
0.472857 -0.398571 -0.5 178 127 98
0.481442 -0.400166 -0.502 168 118 93
0.483354 -0.400166 -0.502 170 120 95
0.491052 -0.402557 -0.505 165 117 94
0.00955429 -0.421897 -0.528 189 146 114
0.0141686 -0.409911 -0.513 199 153 127
0.039919 -0.403519 -0.505 195 149 116
0.0496362 -0.404318 -0.506 194 149 116
0.0637533 -0.408313 -0.511 187 140 114
0.0669343 -0.409911 -0.513 180 133 107
0.0690229 -0.41071 -0.514 179 131 108
0.0879829 -0.426691 -0.534 128 99 91
0.108552 -0.44427 -0.556 146 143 150
0.439485 -0.454658 -0.569 115 117 130
0.450029 -0.455457 -0.57 106 108 120
0.464957 -0.456256 -0.571 110 117 135
0.463127 -0.437079 -0.547 95 89 101
0.460774 -0.433883 -0.543 108 92 93
0.457556 -0.429888 -0.538 114 98 99
0.4505 -0.4195 -0.525 147 106 86
0.44978 -0.417902 -0.523 150 105 82
0.449181 -0.415505 -0.52 157 112 89
0.449286 -0.407514 -0.51 162 115 89
0.450427 -0.405916 -0.508 171 121 94
0.462351 -0.400323 -0.501 177 128 98
0.485267 -0.401122 -0.502 167 120 94
0.493952 -0.404318 -0.506 165 119 93
0.503711 -0.409112 -0.512 164 116 93
0.506657 -0.41071 -0.514 162 114 91
0.552619 -0.439476 -0.55 163 122 102
0.00659905 -0.426908 -0.533 195 149 116
0.0226495 -0.405282 -0.506 203 154 122
0.0245771 -0.405282 -0.506 206 157 125
0.0254905 -0.404481 -0.505 200 154 120
0.0456905 -0.404481 -0.505 195 148 118
0.0868029 -0.426908 -0.533 129 102 93
0.432221 -0.454941 -0.568 153 152 157
0.461694 -0.457344 -0.571 134 137 144
0.451358 -0.421301 -0.526 139 104 85
0.449181 -0.416495 -0.52 156 111 88
0.451545 -0.405282 -0.506 175 124 97
0.452509 -0.405282 -0.506 177 126 97
0.453538 -0.404481 -0.505 177 126 97
0.467159 -0.399675 -0.499 178 129 99
0.498808 -0.406884 -0.508 164 118 92
0.553667 -0.440524 -0.55 156 124 103
0.0122143 -0.411866 -0.513 198 151 123
0.0197971 -0.407049 -0.507 205 156 126
0.0466524 -0.405443 -0.505 195 148 118
0.0485762 -0.405443 -0.505 195 149 116
0.0495381 -0.405443 -0.505 189 144 111
0.0506 -0.406246 -0.506 186 141 108
0.0596257 -0.408654 -0.509 190 145 114
0.07238 -0.415077 -0.517 171 125 102
0.0780514 -0.419091 -0.522 161 118 102
0.0803467 -0.420697 -0.524 150 108 92
0.0841362 -0.424711 -0.529 138 104 92
0.43763 -0.456023 -0.568 147 150 159
0.445204 -0.456023 -0.568 131 138 148
0.448155 -0.456826 -0.569 140 144 153
0.450323 -0.456826 -0.569 147 147 157
0.457629 -0.457629 -0.57 109 108 113
0.464412 -0.456826 -0.569 63 74 102
0.465496 -0.456826 -0.569 51 62 90
0.468207 -0.44398 -0.553 85 86 107
0.4515 -0.4215 -0.525 148 103 82
0.450167 -0.41026 -0.511 163 116 90
0.450344 -0.408654 -0.509 166 116 91
0.453538 -0.405443 -0.505 176 125 98
0.455574 -0.403837 -0.503 177 126 99
0.462407 -0.400626 -0.499 179 128 101
0.465274 -0.399823 -0.498 178 129 99
0.470966 -0.399823 -0.498 178 129 99
0.477614 -0.400626 -0.499 172 123 93
0.499775 -0.407851 -0.508 161 119 94
0.558793 -0.44398 -0.553 163 136 115
0.02736 -0.4056 -0.504 199 153 119
0.03792 -0.4056 -0.504 193 144 112
0.0596257 -0.409624 -0.509 191 144 114
0.0842952 -0.426524 -0.53 131 104 97
0.438712 -0.457105 -0.568 151 154 163
0.451695 -0.457105 -0.568 149 147 158
0.455742 -0.45791 -0.569 141 141 143
0.456826 -0.45791 -0.569 128 128 130
0.460077 -0.45791 -0.569 124 128 140
0.463057 -0.458714 -0.57 92 98 120
0.465496 -0.45791 -0.569 76 86 111
0.457206 -0.429743 -0.534 128 102 89
0.450167 -0.411233 -0.511 162 114 91
0.451471 -0.408014 -0.507 174 122 98
0.4536 -0.4056 -0.504 175 124 97
0.463377 -0.400771 -0.498 178 127 100
0.465274 -0.400771 -0.498 179 130 100
0.46812 -0.400771 -0.498 176 127 97
0.491024 -0.404795 -0.503 167 120 92
0.509594 -0.413648 -0.514 167 118 86
0.0159343 -0.40898 -0.507 203 158 125
0.0426352 -0.405753 -0.503 198 151 121
0.0514619 -0.407367 -0.505 197 150 120
0.0564943 -0.40898 -0.507 193 146 116
0.0595086 -0.409787 -0.508 190 143 113
0.0780514 -0.42108 -0.522 161 116 95
0.0793486 -0.422693 -0.524 150 113 94
0.0805 -0.4235 -0.525 146 109 90
0.0856267 -0.429147 -0.532 124 99 94
0.0869657 -0.43076 -0.534 120 99 98
0.43902 -0.45738 -0.567 147 152 158
0.4401 -0.45738 -0.567 148 153 159
0.461161 -0.458993 -0.569 105 107 122
0.46658 -0.458993 -0.569 113 130 150
0.47117 -0.458187 -0.568 46 66 101
0.457365 -0.429953 -0.533 129 103 90
0.452636 -0.422693 -0.524 150 105 84
0.449974 -0.41382 -0.513 161 116 95
0.451313 -0.410593 -0.509 166 118 96
0.451471 -0.40898 -0.507 174 122 98
0.45456 -0.40656 -0.504 174 124 97
0.46812 -0.40172 -0.498 178 129 99
0.470967 -0.400913 -0.497 180 131 101
0.47476 -0.40172 -0.498 175 126 96
0.478554 -0.40172 -0.498 176 126 99
0.480466 -0.402527 -0.499 172 122 95
0.49294 -0.405753 -0.503 167 119 96
0.566061 -0.448507 -0.556 178 159 142
0.0120952 -0.410754 -0.508 200 155 126
0.0340124 -0.406711 -0.503 201 155 122
0.0514619 -0.408329 -0.505 198 153 122
0.0658286 -0.413989 -0.512 180 132 109
0.07238 -0.418031 -0.517 172 124 104
0.0769095 -0.421266 -0.521 158 116 94
0.0780514 -0.422074 -0.522 156 114 92
0.44658 -0.45846 -0.567 148 149 154
0.464678 -0.459269 -0.568 121 126 146
0.459939 -0.433394 -0.536 128 99 91
0.45114 -0.41318 -0.511 166 116 91
0.4545 -0.408329 -0.505 174 127 101
0.458534 -0.405094 -0.501 177 127 100
0.460506 -0.403477 -0.499 173 124 94
0.463393 -0.40186 -0.497 179 130 100
0.46434 -0.40186 -0.497 178 129 99
0.46718 -0.40186 -0.497 180 131 101
0.47286 -0.40186 -0.497 175 126 94
0.479503 -0.402669 -0.498 173 124 94
0.48619 -0.404286 -0.5 166 119 91
0.493898 -0.406711 -0.503 166 119 93
0.497786 -0.408329 -0.505 164 118 92
0.00451714 -0.427121 -0.527 188 148 123
0.00737143 -0.418206 -0.516 192 150 125
0.00830571 -0.415774 -0.513 195 153 128
0.0102 -0.413343 -0.51 201 156 127
0.0111276 -0.411722 -0.508 201 156 127
0.0120714 -0.410911 -0.507 201 156 127
0.01872 -0.40848 -0.504 204 157 127
0.02256 -0.40848 -0.504 200 154 121
0.0273057 -0.40767 -0.503 201 152 122
0.0543476 -0.40929 -0.505 194 151 119
0.0793486 -0.42469 -0.524 145 110 91
0.0818105 -0.427121 -0.527 133 105 93
0.438246 -0.45873 -0.566 153 153 161
0.468149 -0.444141 -0.548 116 103 94
0.45456 -0.40848 -0.504 175 125 100
0.45552 -0.40848 -0.504 175 125 100
0.456581 -0.406859 -0.502 178 128 101
0.463393 -0.402807 -0.497 179 130 100
0.468127 -0.402807 -0.497 178 129 99
0.471909 -0.401996 -0.496 176 127 97
0.475688 -0.401996 -0.496 178 129 99
0.495814 -0.40767 -0.503 164 118 92
0.56406 -0.448193 -0.553 177 150 129
0.00152 -0.432187 -0.532 191 147 120
0.00827333 -0.415127 -0.511 197 153 126
0.0262952 -0.407815 -0.502 203 156 126
0.03012 -0.407815 -0.502 199 153 120
0.0415943 -0.407815 -0.502 198 151 121
0.05136 -0.40944 -0.504 194 151 119
0.0757714 -0.422438 -0.52 159 112 92
0.078201 -0.424875 -0.523 152 110 88
0.0857876 -0.432999 -0.533 120 96 94
0.45846 -0.46062 -0.567 66 79 98
0.454632 -0.425688 -0.524 135 106 92
0.458534 -0.407003 -0.501 176 129 101
0.476632 -0.402941 -0.496 179 130 100
0.477577 -0.402941 -0.496 175 126 96
0.480433 -0.403753 -0.497 172 125 97
0.492889 -0.407003 -0.501 164 120 93
0.494829 -0.407815 -0.502 163 119 92
0.506576 -0.413502 -0.509 163 117 91
0.01014 -0.412843 -0.507 197 158 129
0.0186829 -0.409586 -0.503 200 155 122
0.0225152 -0.409586 -0.503 199 153 120
0.025339 -0.408771 -0.502 199 153 119
0.0320324 -0.408771 -0.502 201 154 124
0.0387257 -0.408771 -0.502 198 153 122
0.05136 -0.4104 -0.504 196 151 120
0.0543476 -0.411214 -0.505 195 150 119
0.0553095 -0.411214 -0.505 195 152 120
0.0573467 -0.412029 -0.506 193 148 117
0.0604762 -0.413657 -0.508 188 141 111
0.0690229 -0.418543 -0.514 175 129 106
0.0735067 -0.4218 -0.518 163 116 96
0.4407 -0.460071 -0.565 144 144 152
0.4563 -0.4617 -0.567 77 89 101
0.45326 -0.422614 -0.519 146 110 94
0.452023 -0.416914 -0.512 165 115 90
0.452283 -0.414471 -0.509 168 118 93
0.453538 -0.411214 -0.505 171 124 96
0.457537 -0.408771 -0.502 176 129 101
0.458571 -0.407143 -0.5 175 128 100
0.491905 -0.407143 -0.5 166 122 95
0.501633 -0.411214 -0.505 165 119 93
0.00050381 -0.431765 -0.529 191 148 116
0.00915619 -0.412992 -0.506 193 158 128
0.0101 -0.412176 -0.505 193 158 128
0.019641 -0.410544 -0.503 201 156 125
0.0224705 -0.409728 -0.502 198 153 120
0.0357857 -0.408911 -0.501 194 149 118
0.0396029 -0.408911 -0.501 196 149 121
0.05328 -0.41136 -0.504 195 150 119
0.0573467 -0.412992 -0.506 192 147 116
0.0584257 -0.413809 -0.507 190 145 114
0.468432 -0.461964 -0.566 64 82 106
0.471094 -0.448089 -0.549 118 110 107
0.462138 -0.436662 -0.535 125 98 89
0.455462 -0.412176 -0.505 172 125 99
0.45648 -0.41136 -0.504 174 127 101
0.456532 -0.410544 -0.503 175 128 102
0.46148 -0.406463 -0.498 176 126 99
0.479443 -0.404014 -0.495 170 123 95
0.492857 -0.408095 -0.5 165 120 91
0.55488 -0.444008 -0.544 151 116 88
0.00149714 -0.428682 -0.524 191 152 123
0.0176895 -0.410684 -0.502 198 155 123
0.0252886 -0.409866 -0.501 201 158 126
0.0262429 -0.409866 -0.501 201 155 122
0.0453286 -0.409866 -0.501 199 152 122
0.05328 -0.41232 -0.504 195 148 118
0.0595086 -0.415592 -0.508 189 142 112
0.0701381 -0.421319 -0.515 166 119 99
0.0712571 -0.422137 -0.516 161 114 94
0.0783505 -0.428682 -0.524 143 105 86
0.0796514 -0.430318 -0.526 134 102 87
0.0808067 -0.431136 -0.527 133 101 86
0.442069 -0.461406 -0.564 107 107 117
0.443143 -0.461406 -0.564 130 130 140
0.453614 -0.462224 -0.565 108 112 123
0.466529 -0.462224 -0.565 93 95 110
0.462291 -0.436863 -0.534 124 100 90
0.45588 -0.427046 -0.522 139 107 94
0.453483 -0.422955 -0.517 147 110 94
0.454369 -0.414774 -0.507 168 120 97
0.45758 -0.409866 -0.501 177 127 102
0.459524 -0.409048 -0.5 175 125 100
0.46435 -0.405775 -0.496 179 129 102
0.466243 -0.404957 -0.495 174 125 95
0.470014 -0.404957 -0.495 181 131 104
0.5016 -0.41232 -0.504 163 118 89
0.505518 -0.413956 -0.506 163 118 89
0.511457 -0.417229 -0.51 160 116 89
0.00628952 -0.41656 -0.508 197 153 124
0.0119524 -0.41164 -0.502 201 156 127
0.014821 -0.41164 -0.502 196 151 122
0.0214714 -0.41082 -0.501 200 155 124
0.0271971 -0.41082 -0.501 197 151 118
0.0319686 -0.41082 -0.501 198 152 119
0.0329229 -0.41082 -0.501 198 152 119
0.037619 -0.41 -0.5 198 151 121
0.0443743 -0.41082 -0.501 196 151 118
0.0679114 -0.42066 -0.513 173 128 105
0.45469 -0.4633 -0.565 55 63 84
0.457919 -0.4633 -0.565 106 113 132
0.461148 -0.4633 -0.565 137 140 147
0.464376 -0.4633 -0.565 132 136 145
0.45648 -0.41328 -0.504 171 124 98
0.459524 -0.41 -0.5 176 126 99
0.460506 -0.40918 -0.499 173 126 100
0.460531 -0.40836 -0.498 174 127 99
0.4615 -0.40754 -0.497 179 132 104
0.467186 -0.4059 -0.495 178 131 101
0.483246 -0.40672 -0.496 173 126 98
0.48419 -0.40672 -0.496 170 123 95
0.494762 -0.41 -0.5 166 119 91
0.00721429 -0.415062 -0.505 197 153 124
0.00910191 -0.413418 -0.503 199 155 126
0.01004 -0.412596 -0.502 201 157 128
0.0205171 -0.411774 -0.501 202 157 126
0.03 -0.410952 -0.5 199 153 120
0.0347619 -0.410952 -0.5 198 151 121
0.0404762 -0.410952 -0.5 201 154 124
0.042381 -0.410952 -0.5 199 153 120
0.0433333 -0.410952 -0.5 199 153 120
0.0522162 -0.413418 -0.503 194 149 116
0.07252 -0.425747 -0.518 155 112 95
0.460331 -0.463554 -0.564 136 140 149
0.463554 -0.463554 -0.564 135 141 153
0.454143 -0.419171 -0.51 166 115 88
0.454369 -0.416706 -0.507 169 119 92
0.460506 -0.41013 -0.499 174 125 95
0.469065 -0.406021 -0.494 180 130 103
0.477533 -0.406021 -0.494 175 126 96
0.488953 -0.408487 -0.497 167 120 92
0.500566 -0.412596 -0.502 166 119 91
0.517397 -0.421637 -0.513 161 116 87
-0.00351333 -0.434148 -0.527 190 149 121
0.0195238 -0.411905 -0.5 201 156 125
0.0204762 -0.411905 -0.5 200 155 122
0.0214286 -0.411905 -0.5 199 154 121
0.03 -0.411905 -0.5 199 153 120
0.0442857 -0.411905 -0.5 198 152 119
0.0604762 -0.418495 -0.508 187 142 113
0.0647267 -0.420967 -0.511 175 131 106
0.0679114 -0.422614 -0.513 169 124 103
0.0798029 -0.434148 -0.527 129 101 90
0.449864 -0.463805 -0.563 84 99 118
0.461406 -0.464629 -0.564 135 138 147
0.455452 -0.42591 -0.517 144 111 96
0.454768 -0.423438 -0.514 155 112 93
0.455265 -0.418495 -0.508 169 119 94
0.45758 -0.412729 -0.501 175 128 100
0.460531 -0.410257 -0.498 175 126 96
0.475651 -0.406962 -0.494 178 129 99
0.480356 -0.406962 -0.494 173 126 96
0.481297 -0.406962 -0.494 173 126 96
0.503479 -0.414376 -0.503 163 116 88
0.572503 -0.454743 -0.552 182 170 158
-0.000494286 -0.428546 -0.519 191 150 122
0.000491429 -0.426069 -0.516 190 149 121
0.0128571 -0.412857 -0.5 197 154 122
0.0138095 -0.412857 -0.5 197 154 122
0.022381 -0.412857 -0.5 198 154 119
0.0384943 -0.412031 -0.499 199 153 120
0.0472371 -0.413683 -0.501 195 150 117
0.0679114 -0.423591 -0.513 169 124 103
0.07252 -0.42772 -0.518 156 111 92
0.0736486 -0.428546 -0.519 154 109 90
0.452009 -0.464877 -0.563 69 88 118
0.456298 -0.464877 -0.563 144 144 154
0.46166 -0.464877 -0.563 137 140 149
0.464877 -0.464877 -0.563 105 111 127
0.455652 -0.425243 -0.515 154 113 93
0.456532 -0.415334 -0.503 173 123 96
0.463406 -0.409554 -0.496 175 126 96
0.482238 -0.407903 -0.494 174 127 97
0.48412 -0.407903 -0.494 171 124 94
0.487929 -0.408729 -0.495 172 122 95
0.502478 -0.414509 -0.502 165 118 88
0.504437 -0.415334 -0.503 164 118 85
-0.00247143 -0.429534 -0.519 191 152 121
-0.00148 -0.428707 -0.518 190 151 122
0.00526952 -0.416292 -0.503 196 155 125
0.01 -0.41381 -0.5 194 150 121
0.0128571 -0.41381 -0.5 198 155 123
0.0166333 -0.412982 -0.499 196 153 119
0.0481914 -0.414637 -0.501 193 148 117
0.0531743 -0.416292 -0.503 190 145 116
0.0562714 -0.417948 -0.505 188 143 114
0.0583105 -0.418775 -0.506 187 142 113
0.0593914 -0.419603 -0.507 186 141 112
0.0636286 -0.422086 -0.51 174 130 105
0.0690229 -0.425396 -0.514 161 116 95
0.0824314 -0.439466 -0.531 112 93 89
0.455191 -0.421258 -0.509 159 113 89
0.458571 -0.41381 -0.5 172 125 95
0.460506 -0.412982 -0.499 174 125 95
0.4653 -0.409671 -0.495 176 127 97
0.467176 -0.408016 -0.493 176 127 97
0.469054 -0.408016 -0.493 178 128 101
0.472789 -0.407189 -0.492 178 128 101
0.487929 -0.409671 -0.495 172 122 95
0.489814 -0.409671 -0.495 170 120 93
0.494633 -0.411327 -0.497 170 121 91
0.500476 -0.41381 -0.5 167 121 88
0.50439 -0.415465 -0.502 163 117 84
0.515302 -0.421258 -0.509 158 112 78
0.56524 -0.45188 -0.546 161 131 107
0.568354 -0.453535 -0.548 167 148 131
-0.00652476 -0.437159 -0.527 184 139 110
-0.00447429 -0.433011 -0.522 190 149 119
-0.00147143 -0.427205 -0.515 190 151 120
0.00430286 -0.416421 -0.502 194 150 121
0.00714286 -0.414762 -0.5 193 149 120
0.0137819 -0.413932 -0.499 200 155 124
0.0175838 -0.413932 -0.499 197 152 119
0.0289895 -0.413932 -0.499 200 154 121
0.031841 -0.413932 -0.499 199 153 120
0.0432467 -0.413932 -0.499 196 149 119
0.0679114 -0.425546 -0.513 161 118 101
0.0773524 -0.43467 -0.524 134 100 90
0.0799543 -0.437989 -0.528 121 96 89
0.455488 -0.466192 -0.562 116 119 124
0.456364 -0.419739 -0.506 165 119 93
0.458605 -0.413932 -0.499 173 124 92
0.460506 -0.413932 -0.499 173 124 94
0.462461 -0.411444 -0.496 177 128 98
0.473726 -0.408126 -0.492 177 127 100
0.484079 -0.408955 -0.493 173 126 98
0.572524 -0.456238 -0.55 175 159 146
0.00334667 -0.417377 -0.502 193 148 119
0.0147029 -0.414051 -0.498 197 152 121
0.0251371 -0.414051 -0.498 196 151 118
0.0501 -0.416546 -0.501 192 147 116
0.0593914 -0.421534 -0.507 183 137 111
0.0799543 -0.438994 -0.528 118 94 90
0.449334 -0.466431 -0.561 47 71 107
0.455488 -0.467263 -0.562 100 101 103
0.457629 -0.467263 -0.562 131 133 132
0.460621 -0.435669 -0.524 128 102 85
0.456899 -0.425691 -0.512 152 111 91
0.458605 -0.414883 -0.499 173 123 90
0.460531 -0.414051 -0.498 176 127 95
0.4653 -0.411557 -0.495 178 129 99
0.467183 -0.410726 -0.494 174 125 95
0.468115 -0.409894 -0.493 176 127 97
0.470914 -0.409063 -0.492 179 130 100
0.566281 -0.453129 -0.545 164 136 114
-0.00342 -0.4275 -0.513 193 152 124
-0.00048381 -0.423333 -0.508 193 149 122
0.000480952 -0.420833 -0.505 192 148 121
0.00428571 -0.416667 -0.5 194 150 123
0.0052381 -0.416667 -0.5 195 151 122
0.0061781 -0.415833 -0.499 194 150 121
0.0137543 -0.415 -0.498 193 150 116
0.0384171 -0.415 -0.498 197 152 121
0.0511562 -0.418333 -0.502 193 146 116
0.0762086 -0.435833 -0.523 138 98 88
0.455746 -0.4675 -0.561 130 131 135
0.457266 -0.4225 -0.507 160 115 92
0.463406 -0.413333 -0.496 177 128 96
0.464357 -0.4125 -0.495 177 128 98
0.467176 -0.410833 -0.493 176 127 97
0.470914 -0.41 -0.492 179 130 98
0.517192 -0.423333 -0.508 160 111 78
0.567319 -0.454167 -0.545 158 137 120
-0.00541619 -0.431818 -0.517 192 148 119
0.01562 -0.415113 -0.497 195 152 120
0.0194067 -0.415113 -0.497 199 154 123
0.0213 -0.415113 -0.497 200 155 122
0.0231933 -0.415113 -0.497 198 153 120
0.0501 -0.418454 -0.501 194 149 120
0.0521124 -0.41929 -0.502 191 146 115
0.0669343 -0.428477 -0.513 164 117 99
0.0680438 -0.429312 -0.514 156 114 98
0.470003 -0.448523 -0.537 120 94 81
0.464137 -0.441006 -0.528 119 95 83
0.457874 -0.427642 -0.512 148 110 91
0.458168 -0.424301 -0.508 158 113 90
0.458449 -0.420125 -0.503 170 121 89
0.4615 -0.415113 -0.497 178 129 97
0.461516 -0.414278 -0.496 178 129 97
0.470892 -0.410102 -0.491 180 131 98
0.476504 -0.410102 -0.491 174 128 92
0.477439 -0.410102 -0.491 176 130 94
0.487835 -0.411772 -0.493 171 121 88
0.489713 -0.411772 -0.493 170 120 87
0.499367 -0.415113 -0.497 167 118 86
0.502269 -0.415949 -0.498 169 120 88
0.504228 -0.416784 -0.499 166 117 84
0.507203 -0.418454 -0.501 164 115 82
0.527217 -0.429312 -0.514 154 113 83
0.560047 -0.450193 -0.539 154 115 84
0.00238095 -0.418571 -0.5 191 147 118
0.00332667 -0.417734 -0.499 196 152 123
0.00521714 -0.416897 -0.498 198 155 123
0.0137267 -0.41606 -0.497 194 149 118
0.01846 -0.41606 -0.497 197 152 121
0.0260333 -0.41606 -0.497 203 157 123
0.05 -0.418571 -0.5 193 148 119
0.0581952 -0.422757 -0.505 179 134 105
0.0614438 -0.425269 -0.508 173 127 103
0.0647267 -0.42778 -0.511 167 119 97
0.457067 -0.4688 -0.56 144 142 155
0.458684 -0.430291 -0.514 141 108 89
0.458291 -0.423594 -0.506 159 113 89
0.475569 -0.411037 -0.491 178 129 97
0.49353 -0.413549 -0.494 171 122 89
0.495471 -0.414386 -0.495 169 120 87
-0.00841905 -0.436305 -0.52 190 146 117
0.00047619 -0.419524 -0.5 194 150 121
0.00426857 -0.417846 -0.498 197 153 124
0.0108867 -0.417007 -0.497 195 150 119
0.033539 -0.416168 -0.496 196 152 117
0.0355 -0.417007 -0.497 193 148 115
0.0364467 -0.417007 -0.497 193 148 115
0.04118 -0.417007 -0.497 192 147 114
0.0470486 -0.418685 -0.499 191 146 115
0.0510543 -0.420363 -0.501 192 147 116
0.0603571 -0.425397 -0.507 173 127 103
0.0680438 -0.43127 -0.514 151 112 97
0.0728 -0.436305 -0.52 134 102 89
0.0739324 -0.437144 -0.521 133 101 88
0.457067 -0.469867 -0.56 145 144 149
0.464383 -0.441339 -0.526 124 97 90
0.461846 -0.437983 -0.522 127 100 93
0.461953 -0.437144 -0.521 130 103 96
0.45907 -0.427075 -0.509 155 113 91
0.4615 -0.417007 -0.497 177 128 98
0.462461 -0.416168 -0.496 178 129 97
0.463406 -0.416168 -0.496 176 127 95
0.471828 -0.411972 -0.491 181 132 102
0.4774 -0.411133 -0.49 173 127 94
0.48118 -0.411972 -0.491 177 128 95
0.484921 -0.411972 -0.491 174 125 92
0.49353 -0.41449 -0.494 172 123 90
0.504166 -0.417846 -0.498 168 119 87
0.57252 -0.45812 -0.546 169 151 131
-0.00432857 -0.424681 -0.505 191 150 120
-0.00238571 -0.421317 -0.501 191 150 120
0.0647267 -0.429727 -0.511 168 121 101
0.0658286 -0.430568 -0.512 160 117 100
0.453056 -0.470092 -0.559 142 142 150
0.463615 -0.440659 -0.524 123 100 92
0.459197 -0.426363 -0.507 157 111 88
0.45945 -0.422158 -0.502 164 119 90
0.46436 -0.41543 -0.494 175 126 94
0.465301 -0.41543 -0.494 174 125 93
0.470892 -0.412908 -0.491 182 133 103
0.473667 -0.412067 -0.49 181 132 100
0.482115 -0.412908 -0.491 176 127 94
0.48872 -0.413749 -0.492 169 120 87
0.497293 -0.41543 -0.494 171 122 90
0.510952 -0.420476 -0.5 162 116 83
0.519975 -0.425522 -0.506 159 114 83
-0.01042 -0.439129 -0.521 193 149 124
-0.00937333 -0.4366 -0.518 192 148 123
-0.00431143 -0.423957 -0.503 191 150 120
-0.00334 -0.422271 -0.501 189 148 118
0.00236667 -0.4189 -0.497 196 153 121
0.0174429 -0.417214 -0.495 198 153 120
0.0212571 -0.418057 -0.496 200 156 121
0.0222019 -0.418057 -0.496 200 156 121
0.0249857 -0.417214 -0.495 197 153 118
0.0268714 -0.417214 -0.495 194 148 114
0.0363733 -0.418057 -0.496 194 149 116
0.457315 -0.471157 -0.559 143 144 148
0.459825 -0.431543 -0.512 145 108 90
0.459407 -0.423957 -0.503 163 118 89
0.46436 -0.416371 -0.494 174 125 93
0.469957 -0.413843 -0.491 181 132 102
0.4746 -0.413 -0.49 177 131 98
0.476467 -0.413 -0.49 173 127 93
0.485856 -0.413843 -0.491 173 124 91
0.489657 -0.414686 -0.492 171 122 89
0.491531 -0.414686 -0.492 171 122 90
0.499175 -0.416371 -0.494 171 122 90
0.50993 -0.420586 -0.499 163 117 84
-0.01036 -0.437587 -0.518 193 148 125
-0.00429429 -0.423226 -0.501 192 151 119
0.00141714 -0.419002 -0.496 196 153 121
0.00895714 -0.418157 -0.495 200 155 122
0.0145848 -0.417312 -0.494 197 152 119
0.0231 -0.418157 -0.495 201 155 122
0.0259286 -0.418157 -0.495 194 149 116
0.0489495 -0.421536 -0.499 192 147 116
0.0520086 -0.423226 -0.501 187 142 111
0.0647267 -0.431673 -0.511 162 117 98
0.45756 -0.471377 -0.558 134 138 147
0.465611 -0.442655 -0.524 122 100 89
0.459135 -0.429139 -0.508 151 108 89
0.462447 -0.419847 -0.497 172 125 95
0.463393 -0.419847 -0.497 172 125 95
0.466237 -0.416468 -0.493 175 128 98
0.467166 -0.415623 -0.492 176 129 99
0.469022 -0.414778 -0.491 180 131 99
0.475533 -0.413933 -0.49 175 131 94
0.479267 -0.413933 -0.49 172 128 91
0.509857 -0.420691 -0.498 165 119 85
0.00423429 -0.418253 -0.494 195 152 118
0.00893905 -0.418253 -0.494 200 156 121
0.0202305 -0.418253 -0.494 201 155 122
0.0306429 -0.4191 -0.495 195 150 119
0.0353571 -0.4191 -0.495 196 151 118
0.0450571 -0.42164 -0.498 192 147 118
0.047999 -0.422487 -0.499 192 147 116
0.0530686 -0.425027 -0.502 186 141 112
0.0715333 -0.438573 -0.518 131 98 83
0.0752124 -0.442807 -0.523 111 93 83
0.473211 -0.453813 -0.536 111 92 85
0.464038 -0.440267 -0.52 130 101 83
0.460406 -0.425027 -0.502 165 120 89
0.463393 -0.420793 -0.497 172 125 95
0.463414 -0.4191 -0.495 171 124 94
0.464357 -0.4191 -0.495 171 124 94
0.4802 -0.414867 -0.49 170 126 89
0.481133 -0.414867 -0.49 174 125 92
0.485856 -0.415713 -0.491 170 121 89
0.506865 -0.419947 -0.496 166 120 87
-0.00620286 -0.425134 -0.501 194 156 119
-0.000470476 -0.419194 -0.494 194 153 121
0.00329333 -0.419194 -0.494 196 153 121
0.0363 -0.420043 -0.495 199 152 124
0.0410971 -0.420891 -0.496 197 151 118
0.0460057 -0.422589 -0.498 193 146 116
0.047999 -0.423437 -0.499 192 145 117
0.0540248 -0.425983 -0.502 183 138 109
0.0572333 -0.428529 -0.505 170 130 104
0.0603571 -0.430226 -0.507 170 128 103
0.0625343 -0.431923 -0.509 163 118 95
0.0704105 -0.438711 -0.517 129 95 83
0.451435 -0.472654 -0.557 66 82 108
0.477476 -0.459926 -0.542 94 86 83
0.472593 -0.452289 -0.533 113 93 84
0.464134 -0.440409 -0.519 133 101 86
0.460219 -0.429377 -0.506 158 113 90
0.461397 -0.425134 -0.501 166 121 90
0.462447 -0.42174 -0.497 171 124 94
0.467166 -0.417497 -0.492 177 130 100
0.469 -0.4158 -0.49 177 131 97
0.488662 -0.416649 -0.491 175 126 94
0.499104 -0.418346 -0.493 168 122 89
0.505843 -0.420043 -0.495 166 119 89
0.516746 -0.425134 -0.501 161 115 81
0.526869 -0.431074 -0.508 159 116 84
0.53609 -0.437014 -0.515 156 113 81
0.5798 -0.46332 -0.546 182 175 157
0.010799 -0.419285 -0.493 194 151 117
0.0201895 -0.419285 -0.493 200 155 124
0.0211286 -0.419285 -0.493 198 153 122
0.0221124 -0.420135 -0.494 194 149 118
0.0324629 -0.420135 -0.494 198 151 121
0.0429867 -0.421836 -0.496 196 149 119
0.0520086 -0.426089 -0.501 184 138 112
0.0625343 -0.432892 -0.509 162 116 93
0.0716714 -0.441397 -0.519 123 95 83
0.478509 -0.460958 -0.542 85 76 69
0.464227 -0.440547 -0.518 134 102 87
0.461323 -0.42779 -0.503 161 120 92
0.461362 -0.426939 -0.502 162 121 93
0.462429 -0.423537 -0.498 169 124 93
0.463406 -0.421836 -0.496 166 121 90
0.469933 -0.416733 -0.49 176 132 97
0.487667 -0.416733 -0.49 175 126 94
0.493338 -0.417584 -0.491 174 128 95
0.497154 -0.418434 -0.492 167 121 88
0.498091 -0.418434 -0.492 170 124 91
