ply
format ascii 1.0
comment Created by Open3D
element vertex 1292
property double x
property double y
property double z
property uchar red
property uchar green
property uchar blue
end_header
0.526931 -0.40804 -0.606 28 57 115
0.483119 -0.346767 -0.515 171 124 108
0.491934 -0.33734 -0.501 177 129 107
0.505294 -0.33734 -0.501 164 117 91
0.00120857 -0.285626 -0.423 197 155 130
0.00437905 -0.28225 -0.418 196 154 129
0.0209476 -0.280224 -0.415 192 145 117
0.02496 -0.280899 -0.416 190 143 117
0.0257524 -0.280899 -0.416 189 142 116
0.0338381 -0.28225 -0.418 179 131 108
0.0468 -0.2836 -0.42 167 119 99
0.050921 -0.284275 -0.421 151 108 92
0.0668533 -0.294404 -0.436 99 78 73
0.0724714 -0.300481 -0.445 94 73 72
0.140709 -0.410545 -0.608 242 240 253
0.255674 -0.409194 -0.606 204 211 227
0.27876 -0.409194 -0.606 185 191 213
0.305309 -0.409194 -0.606 140 169 213
0.315062 -0.40987 -0.607 108 133 174
0.321999 -0.40987 -0.607 187 194 212
0.344533 -0.410545 -0.608 117 147 201
0.345691 -0.410545 -0.608 90 120 174
0.351482 -0.410545 -0.608 99 119 156
0.363622 -0.40987 -0.607 123 129 155
0.41006 -0.41122 -0.609 43 76 130
0.417493 -0.410545 -0.608 174 172 193
0.4249 -0.40987 -0.607 152 155 170
0.440655 -0.410545 -0.608 84 110 169
0.446868 -0.40987 -0.607 165 165 189
0.458027 -0.410545 -0.608 147 159 185
0.469608 -0.410545 -0.608 25 55 119
0.48198 -0.41122 -0.609 104 114 149
0.502034 -0.410545 -0.608 25 65 126
0.522314 -0.409194 -0.606 67 91 139
0.48316 -0.347072 -0.514 170 125 106
0.484174 -0.346397 -0.513 173 126 108
0.485247 -0.343696 -0.509 166 119 101
0.487203 -0.342346 -0.507 171 124 106
0.498571 -0.337619 -0.5 169 123 99
0.508215 -0.33897 -0.502 159 112 86
0.514018 -0.339645 -0.503 165 117 94
0.00754571 -0.282369 -0.417 198 154 129
0.00990476 -0.281691 -0.416 194 150 125
0.0114619 -0.281014 -0.415 197 153 126
0.0138333 -0.281014 -0.415 199 155 128
0.0257524 -0.281691 -0.416 190 143 117
0.0265448 -0.281691 -0.416 191 144 118
0.0289914 -0.282369 -0.417 191 144 118
0.0411019 -0.283723 -0.419 178 126 112
0.0426981 -0.283723 -0.419 170 118 104
0.0738133 -0.30336 -0.448 91 71 72
0.140709 -0.411703 -0.608 241 240 254
0.2783 -0.409671 -0.605 183 192 221
0.329005 -0.409671 -0.605 84 98 124
0.33532 -0.410349 -0.606 85 116 173
0.354372 -0.411026 -0.607 176 181 200
0.361869 -0.410349 -0.606 158 165 193
0.414494 -0.411026 -0.607 159 165 189
0.429525 -0.411026 -0.607 83 114 171
0.432993 -0.411026 -0.607 47 85 148
0.462659 -0.411703 -0.608 36 66 120
0.482347 -0.411703 -0.608 92 99 117
0.484663 -0.411703 -0.608 84 91 109
0.507309 -0.410349 -0.606 83 108 148
0.52491 -0.409671 -0.605 58 82 126
0.488737 -0.361594 -0.534 158 121 103
0.48817 -0.342634 -0.506 170 123 105
0.49381 -0.338571 -0.5 178 133 110
0.534009 -0.347374 -0.513 155 110 87
0.541187 -0.35076 -0.518 152 107 84
0.618114 -0.392743 -0.58 198 193 190
-0.0020381 -0.290632 -0.428 190 153 127
0.0217381 -0.281805 -0.415 188 143 114
0.037819 -0.283842 -0.418 177 126 107
0.0402076 -0.283842 -0.418 174 123 106
0.0527743 -0.287237 -0.423 140 102 91
0.0806943 -0.314399 -0.463 93 68 71
0.0821048 -0.316436 -0.466 89 74 69
0.25871 -0.410824 -0.605 202 200 221
0.262167 -0.410824 -0.605 170 175 204
0.2783 -0.410824 -0.605 175 190 229
0.280605 -0.410824 -0.605 135 156 199
0.28291 -0.410824 -0.605 84 109 163
0.309414 -0.410824 -0.605 120 147 190
0.311719 -0.410824 -0.605 103 130 175
0.343967 -0.412182 -0.607 50 85 151
0.347435 -0.412182 -0.607 59 90 154
0.353216 -0.412182 -0.607 178 181 200
0.40062 -0.412182 -0.607 19 54 118
0.411026 -0.412182 -0.607 130 153 197
0.421891 -0.411503 -0.606 161 167 189
0.435743 -0.411503 -0.606 40 78 143
0.441087 -0.412182 -0.607 61 96 154
0.442243 -0.412182 -0.607 56 91 149
0.45843 -0.412182 -0.607 51 79 127
0.474616 -0.412182 -0.607 33 64 111
0.491611 -0.412861 -0.608 63 79 115
0.52059 -0.410145 -0.604 135 146 166
0.4845 -0.3565 -0.525 161 118 101
0.490048 -0.340882 -0.502 173 125 103
0.510128 -0.340882 -0.502 165 117 94
0.511084 -0.340882 -0.502 166 118 95
0.515934 -0.341561 -0.503 167 121 97
0.51792 -0.34224 -0.504 166 120 97
0.00436857 -0.283957 -0.417 196 154 129
0.0130114 -0.281914 -0.414 201 157 132
0.0138 -0.281914 -0.414 200 156 129
0.0273371 -0.283276 -0.416 193 146 118
0.0419 -0.285319 -0.419 167 118 103
0.0527743 -0.288043 -0.423 138 100 89
0.0741429 -0.306429 -0.45 91 70 69
0.243326 -0.411295 -0.604 173 191 227
0.258282 -0.411295 -0.604 207 208 226
0.318633 -0.411976 -0.605 191 195 207
0.323243 -0.411976 -0.605 145 143 156
0.329611 -0.411295 -0.604 107 136 180
0.341681 -0.411976 -0.605 30 68 131
0.349171 -0.412657 -0.606 136 166 216
0.362424 -0.411976 -0.605 120 132 154
0.41612 -0.412657 -0.606 102 123 152
0.454961 -0.413338 -0.607 47 66 109
0.459983 -0.412657 -0.606 31 61 113
0.471526 -0.412657 -0.606 22 54 115
0.479241 -0.413338 -0.607 92 107 140
0.485022 -0.413338 -0.607 159 167 180
0.489295 -0.414019 -0.608 126 134 157
0.495428 -0.413338 -0.607 49 82 135
0.501209 -0.413338 -0.607 18 62 125
0.496729 -0.371119 -0.545 154 116 103
0.483906 -0.353414 -0.519 168 125 108
0.524794 -0.344562 -0.506 156 114 89
0.0208971 -0.282703 -0.414 189 144 115
0.0217381 -0.283386 -0.415 188 142 116
0.0493171 -0.287483 -0.421 149 107 91
0.0502381 -0.288166 -0.422 148 106 90
0.0519686 -0.288849 -0.423 138 96 82
0.0602 -0.293629 -0.43 120 87 78
0.141167 -0.413129 -0.605 239 242 251
0.303797 -0.411763 -0.603 108 135 182
0.333063 -0.412446 -0.604 45 77 134
0.357814 -0.413129 -0.605 180 187 205
0.373948 -0.413129 -0.605 88 123 177
0.377405 -0.413129 -0.605 59 89 141
0.414281 -0.413129 -0.605 48 79 125
0.425805 -0.413129 -0.605 52 87 145
0.4477 -0.413129 -0.605 111 118 134
0.465754 -0.413811 -0.606 22 54 115
0.487334 -0.414494 -0.607 155 162 181
0.499229 -0.413811 -0.606 23 62 121
0.502691 -0.413811 -0.606 48 84 144
0.511387 -0.412446 -0.604 137 136 134
0.517431 -0.411763 -0.603 159 158 174
0.520877 -0.411763 -0.603 102 124 165
0.523174 -0.411763 -0.603 35 61 118
0.51988 -0.39196 -0.574 147 114 105
0.518809 -0.343477 -0.503 163 117 94
-0.00365143 -0.291709 -0.426 194 154 128
-0.0012 -0.2876 -0.42 195 155 129
0.00357429 -0.285546 -0.417 199 158 130
0.0265448 -0.284861 -0.416 189 142 116
0.0289914 -0.285546 -0.417 186 138 115
0.03058 -0.285546 -0.417 184 136 113
0.0313743 -0.285546 -0.417 184 137 111
0.0337571 -0.285546 -0.417 183 135 112
0.0510419 -0.28897 -0.422 139 100 85
0.0519686 -0.289654 -0.423 135 96 81
0.0582895 -0.293078 -0.428 120 90 82
0.0697714 -0.304034 -0.444 95 70 66
0.0722676 -0.307458 -0.449 91 70 67
0.136557 -0.414281 -0.605 238 242 253
0.311837 -0.412911 -0.603 93 125 176
0.359524 -0.413596 -0.604 171 176 198
0.366427 -0.413596 -0.604 73 103 157
0.37333 -0.413596 -0.604 70 106 164
0.37448 -0.413596 -0.604 68 104 162
0.386494 -0.412911 -0.603 79 98 128
0.395843 -0.414281 -0.605 22 63 119
0.398148 -0.414281 -0.605 20 54 126
0.401114 -0.414966 -0.606 19 53 125
0.418198 -0.413596 -0.604 145 150 169
0.437756 -0.413596 -0.604 31 71 140
0.451157 -0.414281 -0.605 144 148 160
0.494611 -0.414966 -0.606 52 84 135
0.498074 -0.414966 -0.606 44 80 138
0.499229 -0.414966 -0.606 37 73 131
0.507935 -0.413596 -0.604 130 144 155
0.528917 -0.412911 -0.603 59 90 137
0.516435 -0.38963 -0.569 150 114 100
0.489852 -0.364978 -0.533 163 117 101
0.484838 -0.356076 -0.52 166 127 110
0.48912 -0.34512 -0.504 176 129 109
0.490048 -0.34375 -0.502 169 121 101
0.494762 -0.342381 -0.5 172 124 102
0.495714 -0.342381 -0.5 176 128 106
0.51102 -0.343066 -0.501 168 122 98
0.00671905 -0.284967 -0.415 194 153 125
0.0426981 -0.287713 -0.419 167 115 101
0.0510419 -0.289773 -0.422 140 98 84
0.0554524 -0.291833 -0.425 123 90 81
0.0563943 -0.29252 -0.426 122 89 80
0.0724286 -0.309 -0.45 94 70 70
0.25284 -0.413373 -0.602 210 217 236
0.255133 -0.413373 -0.602 203 211 232
0.295267 -0.413373 -0.602 179 187 208
0.313613 -0.413373 -0.602 103 129 186
0.338254 -0.41406 -0.603 16 63 135
0.348591 -0.41406 -0.603 140 155 188
0.350889 -0.41406 -0.603 128 142 179
0.371029 -0.414747 -0.604 33 79 141
0.379603 -0.41406 -0.603 96 107 139
0.380751 -0.41406 -0.603 96 107 139
0.383049 -0.41406 -0.603 118 129 149
0.391089 -0.41406 -0.603 31 70 127
0.424397 -0.41406 -0.603 80 106 155
0.437756 -0.414747 -0.604 46 86 155
0.438907 -0.414747 -0.604 51 92 154
0.506754 -0.381787 -0.556 149 115 103
0.490048 -0.344707 -0.502 173 126 106
0.491934 -0.34402 -0.501 174 127 107
0.000397143 -0.287134 -0.417 197 155 130
0.00670286 -0.285069 -0.414 196 152 125
0.0330419 -0.287823 -0.418 184 136 113
0.0477133 -0.289889 -0.421 151 105 90
0.0537067 -0.291954 -0.424 132 94 85
0.0584257 -0.295397 -0.429 118 85 78
0.0714124 -0.309169 -0.449 96 70 69
0.26316 -0.41452 -0.602 189 196 214
0.275773 -0.41452 -0.602 57 92 160
0.307369 -0.413831 -0.601 69 114 182
0.322787 -0.41452 -0.602 169 175 197
0.376157 -0.415209 -0.603 55 89 150
0.415209 -0.415209 -0.603 133 144 166
0.439329 -0.415209 -0.603 48 89 151
0.443923 -0.415209 -0.603 158 165 184
0.451963 -0.415209 -0.603 138 140 152
0.456164 -0.415897 -0.604 154 165 193
0.489186 -0.416586 -0.605 140 148 167
0.491829 -0.415897 -0.604 60 87 142
0.49413 -0.415897 -0.604 67 100 154
0.507079 -0.343597 -0.499 173 126 100
0.520646 -0.345663 -0.502 160 114 90
0.0346343 -0.288619 -0.418 177 129 106
0.0403038 -0.28931 -0.419 169 118 99
0.0411019 -0.28931 -0.419 168 116 102
0.0452 -0.29 -0.42 161 107 95
0.046 -0.29 -0.42 161 107 95
0.06048 -0.298286 -0.432 114 81 76
0.133809 -0.416357 -0.603 171 178 207
0.134957 -0.416357 -0.603 194 201 230
0.13932 -0.415667 -0.602 210 217 245
0.227235 -0.414976 -0.601 213 219 231
0.22838 -0.414976 -0.601 212 218 230
0.234104 -0.414976 -0.601 141 160 200
0.259289 -0.414976 -0.601 199 201 216
0.260433 -0.414976 -0.601 199 201 216
0.265012 -0.414976 -0.601 163 183 216
0.266157 -0.414976 -0.601 136 156 189
0.275315 -0.414976 -0.601 53 89 163
0.327974 -0.414976 -0.601 88 111 165
0.33884 -0.415667 -0.602 18 61 130
0.35948 -0.415667 -0.602 78 96 120
0.419107 -0.415667 -0.602 162 171 186
0.426694 -0.416357 -0.603 48 90 148
0.450814 -0.416357 -0.603 150 152 164
0.45924 -0.415667 -0.602 29 59 121
0.49413 -0.417048 -0.604 61 92 146
0.534286 -0.414286 -0.6 79 95 131
0.493529 -0.370786 -0.537 156 117 102
0.489199 -0.365262 -0.529 157 118 101
0.48598 -0.356976 -0.517 164 123 105
-0.00279333 -0.290108 -0.419 195 155 129
-0.00119143 -0.288723 -0.417 194 152 127
0.00276667 -0.287338 -0.415 195 154 126
0.0161267 -0.285953 -0.413 189 143 117
0.03058 -0.288723 -0.417 185 135 112
0.0322457 -0.289415 -0.418 181 131 108
0.0354305 -0.289415 -0.418 178 127 106
0.0452 -0.2908 -0.42 161 109 95
0.0511629 -0.292877 -0.423 143 97 84
0.0705571 -0.310879 -0.449 94 70 68
0.140233 -0.416121 -0.601 214 225 247
0.33884 -0.416813 -0.602 23 63 133
0.368653 -0.416813 -0.602 25 74 140
0.372093 -0.416813 -0.602 45 90 158
0.382923 -0.416121 -0.601 167 179 191
0.387502 -0.416121 -0.601 130 137 155
0.402574 -0.417506 -0.603 23 61 134
0.408787 -0.416813 -0.602 105 136 182
0.415667 -0.416813 -0.602 148 150 163
0.437453 -0.416813 -0.602 61 102 158
0.44892 -0.416813 -0.602 162 170 183
0.487569 -0.417506 -0.603 153 161 174
0.518005 -0.416121 -0.601 73 85 111
0.522584 -0.416121 -0.601 96 115 157
0.487106 -0.355191 -0.513 167 121 105
0.496624 -0.345498 -0.499 169 123 100
0.50803 -0.345498 -0.499 169 122 96
0.51381 -0.34619 -0.5 164 118 94
0.516667 -0.34619 -0.5 163 117 93
0.517619 -0.34619 -0.5 158 112 88
0.528567 -0.349652 -0.505 159 117 92
0.530577 -0.350345 -0.506 159 117 92
0.536714 -0.353114 -0.51 152 110 86
0.00902476 -0.286046 -0.412 198 154 127
0.0273371 -0.288823 -0.416 184 134 111
0.0281295 -0.288823 -0.416 184 134 111
0.0596571 -0.299931 -0.432 111 80 75
0.06076 -0.30132 -0.434 109 78 73
0.137027 -0.41796 -0.602 161 175 212
0.327429 -0.416571 -0.6 73 101 151
0.369186 -0.417266 -0.601 30 78 144
0.37033 -0.417266 -0.601 45 93 159
0.37262 -0.417266 -0.601 54 98 163
0.376054 -0.417266 -0.601 76 113 165
0.386857 -0.416571 -0.6 110 112 124
0.398467 -0.41796 -0.602 23 62 129
0.408787 -0.41796 -0.602 103 133 183
0.409252 -0.417266 -0.601 134 150 176
0.418857 -0.416571 -0.6 158 170 182
0.44703 -0.417266 -0.601 160 170 180
0.464201 -0.417266 -0.601 80 110 164
0.500203 -0.418654 -0.603 102 125 167
0.51512 -0.391577 -0.564 145 115 105
0.490952 -0.347143 -0.5 173 127 104
0.516667 -0.347143 -0.5 163 117 93
0.00276 -0.288223 -0.414 194 153 125
0.00902476 -0.28683 -0.412 198 154 127
0.011379 -0.28683 -0.412 197 151 125
0.0224743 -0.288223 -0.414 190 145 114
0.0249 -0.288919 -0.415 185 139 113
0.0289219 -0.289615 -0.416 182 135 109
0.0354305 -0.291008 -0.418 176 126 101
0.0639686 -0.305628 -0.439 102 74 70
0.13588 -0.419107 -0.602 138 156 196
0.224571 -0.417714 -0.6 215 217 242
0.241311 -0.417018 -0.599 96 129 182
0.266412 -0.417018 -0.599 99 125 182
0.2995 -0.417018 -0.599 57 93 151
0.34 -0.417714 -0.6 25 63 138
0.355449 -0.41841 -0.601 159 166 185
0.358883 -0.41841 -0.601 170 185 208
0.388 -0.417714 -0.6 123 127 139
0.389143 -0.417714 -0.6 127 133 147
0.421143 -0.417714 -0.6 150 163 169
0.448174 -0.41841 -0.601 159 169 179
0.457714 -0.417714 -0.6 56 78 125
0.464201 -0.41841 -0.601 44 71 116
0.467635 -0.41841 -0.601 102 117 156
0.499373 -0.419107 -0.602 111 133 170
0.506253 -0.419107 -0.602 139 148 177
0.508547 -0.419107 -0.602 160 160 170
0.511136 -0.41841 -0.601 163 160 179
0.531113 -0.417018 -0.599 144 145 166
0.533395 -0.417018 -0.599 127 132 154
0.512533 -0.389867 -0.56 147 113 103
0.486763 -0.362715 -0.521 164 123 103
0.488169 -0.352969 -0.507 165 123 99
0.491871 -0.347399 -0.499 170 124 101
0.496577 -0.346703 -0.498 164 118 94
0.500313 -0.346007 -0.497 167 121 97
0.011379 -0.287615 -0.412 195 151 124
0.0137333 -0.287615 -0.412 195 149 123
0.0452 -0.2932 -0.42 157 110 94
0.0477133 -0.293898 -0.421 148 100 86
0.0530238 -0.29669 -0.425 133 90 81
0.0558438 -0.298785 -0.428 120 87 82
0.0675371 -0.31135 -0.446 95 69 68
0.0795657 -0.329501 -0.472 92 72 74
0.0811467 -0.332293 -0.476 94 74 76
0.241311 -0.418159 -0.599 89 124 180
0.243593 -0.418159 -0.599 104 143 202
0.253862 -0.418159 -0.599 201 206 228
0.300139 -0.417461 -0.598 47 87 148
0.301278 -0.417461 -0.598 46 87 151
0.306973 -0.417461 -0.598 42 91 167
0.314947 -0.417461 -0.598 157 175 199
0.322319 -0.418159 -0.599 161 172 194
0.351429 -0.418857 -0.6 180 186 200
0.360571 -0.418857 -0.6 84 109 163
0.369714 -0.418857 -0.6 53 94 158
0.376571 -0.418857 -0.6 107 144 197
0.38 -0.418857 -0.6 170 175 195
0.386857 -0.418857 -0.6 171 177 191
0.404673 -0.419555 -0.601 34 67 121
0.415877 -0.418159 -0.599 165 169 181
0.46878 -0.419555 -0.601 78 89 119
0.498544 -0.419555 -0.601 111 134 168
0.508847 -0.419555 -0.601 158 160 172
0.513714 -0.418857 -0.6 141 142 163
0.534783 -0.417461 -0.598 134 136 157
0.490286 -0.368594 -0.528 159 121 100
0.487196 -0.354632 -0.508 167 125 100
0.491024 -0.351142 -0.503 173 129 104
0.507011 -0.347651 -0.498 168 121 95
0.512703 -0.347651 -0.498 167 120 92
0.513651 -0.347651 -0.498 168 121 93
0.5146 -0.347651 -0.498 167 120 92
0.518485 -0.34835 -0.499 168 121 93
0.00275333 -0.2891 -0.413 189 145 118
0.0153029 -0.2884 -0.412 194 149 120
0.0280619 -0.2905 -0.415 184 137 111
0.0436 -0.294 -0.42 159 112 96
0.0469114 -0.2947 -0.421 148 101 91
0.0494343 -0.2954 -0.422 139 95 86
0.0512838 -0.2968 -0.424 134 91 84
0.06104 -0.3052 -0.436 105 77 74
0.237491 -0.4186 -0.598 104 135 190
0.255716 -0.4186 -0.598 141 146 178
0.259133 -0.4186 -0.598 83 100 143
0.272117 -0.4193 -0.599 46 84 155
0.276219 -0.4186 -0.598 41 74 153
0.312669 -0.4186 -0.598 129 160 204
0.320642 -0.4186 -0.598 176 187 207
0.361714 -0.42 -0.6 66 89 141
0.398763 -0.4193 -0.599 83 116 159
0.408571 -0.42 -0.6 53 77 111
0.455429 -0.42 -0.6 67 77 113
0.456571 -0.42 -0.6 66 76 112
0.462656 -0.4193 -0.599 66 86 119
0.488571 -0.42 -0.6 126 139 171
0.487006 -0.3612 -0.516 168 124 99
0.489129 -0.3535 -0.505 173 127 104
0.491024 -0.3521 -0.503 175 129 105
0.492857 -0.35 -0.5 170 124 100
0.503153 -0.3479 -0.497 169 122 96
0.00196667 -0.289887 -0.413 195 151 124
0.00667048 -0.289185 -0.412 198 154 127
0.00978571 -0.288483 -0.411 196 152 123
0.0296429 -0.29129 -0.415 184 134 111
0.0644057 -0.310242 -0.442 96 74 77
0.07436 -0.32428 -0.462 90 69 74
0.0771086 -0.328491 -0.468 91 72 78
0.137255 -0.419739 -0.598 128 146 192
0.277358 -0.419739 -0.598 54 88 160
0.297363 -0.419037 -0.597 70 116 175
0.308734 -0.419037 -0.597 53 96 165
0.332032 -0.419739 -0.598 35 71 129
0.333171 -0.419739 -0.598 38 74 132
0.367429 -0.421143 -0.6 70 108 170
0.380508 -0.420441 -0.599 169 172 191
0.38215 -0.419739 -0.598 167 175 194
0.384429 -0.419739 -0.598 172 175 192
0.414044 -0.419739 -0.598 166 169 176
0.425434 -0.419739 -0.598 77 105 153
0.461515 -0.420441 -0.599 128 142 168
0.463797 -0.420441 -0.599 111 125 152
0.506857 -0.421143 -0.6 157 163 177
0.511717 -0.420441 -0.599 97 101 126
0.525409 -0.420441 -0.599 152 157 177
0.530477 -0.419037 -0.597 145 148 163
0.493913 -0.374115 -0.533 157 119 100
0.487043 -0.361481 -0.515 169 121 99
0.487153 -0.358673 -0.511 170 124 101
0.48817 -0.355164 -0.506 167 121 98
0.500313 -0.348847 -0.497 166 119 93
0.510727 -0.348847 -0.497 169 123 97
0.620484 -0.40149 -0.572 200 199 195
-0.00434762 -0.292081 -0.415 196 155 127
0.0105686 -0.289266 -0.411 196 151 122
0.0176571 -0.28997 -0.412 188 141 115
0.0370229 -0.294192 -0.418 172 122 99
0.06342 -0.31038 -0.441 94 74 75
0.245054 -0.420174 -0.597 79 115 177
0.247329 -0.420174 -0.597 106 137 191
0.264386 -0.420174 -0.597 118 137 180
0.265523 -0.420174 -0.597 90 117 172
0.26666 -0.420174 -0.597 66 93 148
0.269385 -0.420878 -0.598 43 80 148
0.272802 -0.420878 -0.598 51 89 160
0.33034 -0.420174 -0.597 54 85 139
0.347979 -0.420878 -0.598 167 174 180
0.370239 -0.421582 -0.599 70 106 158
0.42999 -0.420878 -0.598 105 131 166
0.44326 -0.421582 -0.599 164 171 187
0.444798 -0.420878 -0.598 158 168 180
0.448965 -0.421582 -0.599 160 167 183
0.459606 -0.420878 -0.598 145 158 175
0.479429 -0.422286 -0.6 135 148 167
0.485475 -0.421582 -0.599 159 162 179
0.497714 -0.422286 -0.6 91 113 150
0.51514 -0.421582 -0.599 98 104 126
0.517422 -0.421582 -0.599 149 155 169
0.502957 -0.383576 -0.545 152 115 99
0.489566 -0.368796 -0.524 163 122 100
0.488748 -0.366685 -0.521 163 121 97
0.514513 -0.349793 -0.497 162 116 90
-0.00197143 -0.292166 -0.414 194 153 121
-0.00118 -0.29146 -0.413 195 154 122
0.00274 -0.290049 -0.411 199 156 124
0.0200114 -0.290754 -0.412 192 145 119
0.0208467 -0.29146 -0.413 192 147 118
0.0345514 -0.294283 -0.417 173 122 101
0.0426981 -0.295694 -0.419 157 110 90
0.0562352 -0.304163 -0.431 109 81 77
0.0658381 -0.314749 -0.446 89 69 68
0.128571 -0.423429 -0.6 234 237 254
0.133838 -0.422017 -0.598 205 215 240
0.241238 -0.420606 -0.596 78 119 181
0.276894 -0.421311 -0.597 67 102 170
0.313893 -0.420606 -0.596 182 190 209
0.328066 -0.421311 -0.597 58 84 133
0.343986 -0.421311 -0.597 43 73 123
0.354813 -0.422017 -0.598 184 181 192
0.373038 -0.422017 -0.598 82 114 165
0.375316 -0.422017 -0.598 141 163 200
0.464162 -0.422017 -0.598 127 135 154
0.491499 -0.422017 -0.598 69 93 131
0.500308 -0.422723 -0.599 68 91 133
0.513141 -0.422017 -0.598 74 97 129
0.522253 -0.422017 -0.598 152 156 168
0.530477 -0.421311 -0.597 148 150 162
0.48817 -0.357091 -0.506 169 123 100
0.49098 -0.353563 -0.501 171 125 101
0.528197 -0.353563 -0.501 161 115 91
0.0184419 -0.291539 -0.412 190 143 117
0.0426981 -0.296492 -0.419 155 108 90
0.0514048 -0.300738 -0.425 127 88 81
0.0603476 -0.30923 -0.437 97 76 73
0.0637076 -0.313475 -0.443 95 74 73
0.234427 -0.421741 -0.596 104 139 203
0.2941 -0.421033 -0.595 131 135 144
0.296367 -0.421033 -0.595 78 115 183
0.336598 -0.421741 -0.596 77 106 150
0.337733 -0.421741 -0.596 95 126 180
0.340574 -0.422449 -0.597 68 101 155
0.349671 -0.422449 -0.597 149 143 145
0.350809 -0.422449 -0.597 186 180 182
0.353083 -0.422449 -0.597 182 179 186
0.379237 -0.422449 -0.597 171 174 189
0.392883 -0.422449 -0.597 94 110 136
0.408118 -0.421741 -0.596 64 78 104
0.421741 -0.421741 -0.596 123 140 168
0.42586 -0.422449 -0.597 81 103 144
0.461111 -0.422449 -0.597 114 121 137
0.466797 -0.422449 -0.597 152 158 180
0.494916 -0.423156 -0.598 79 99 134
0.51428 -0.423156 -0.598 137 140 159
0.527066 -0.422449 -0.597 141 143 156
0.5346 -0.420326 -0.594 144 144 154
0.488024 -0.364424 -0.515 167 122 101
0.488169 -0.358763 -0.507 167 122 99
0.490026 -0.354517 -0.501 169 123 99
0.49381 -0.35381 -0.5 173 125 102
0.500313 -0.351687 -0.497 166 120 94
0.527143 -0.35381 -0.5 162 116 92
-0.0125476 -0.301548 -0.425 182 142 116
-0.0083 -0.294452 -0.415 198 154 127
0.0496686 -0.300838 -0.424 131 91 83
0.0563657 -0.306514 -0.432 106 78 75
0.0661333 -0.317867 -0.448 91 70 69
0.221567 -0.422167 -0.595 204 212 233
0.248767 -0.422167 -0.595 200 212 238
0.2635 -0.422167 -0.595 125 146 189
0.273025 -0.422876 -0.596 48 82 145
0.3145 -0.422167 -0.595 181 190 207
0.3213 -0.422167 -0.595 167 172 192
0.34568 -0.422876 -0.596 74 106 157
0.359906 -0.423586 -0.597 124 132 145
0.384278 -0.422876 -0.596 154 166 192
0.386549 -0.422876 -0.596 65 84 116
0.398569 -0.423586 -0.597 127 143 169
0.4165 -0.422167 -0.595 157 169 185
0.456563 -0.423586 -0.597 155 162 178
0.523912 -0.422876 -0.596 152 155 164
0.527318 -0.422876 -0.596 117 118 123
0.53483 -0.420748 -0.593 141 139 150
0.488849 -0.368243 -0.519 167 125 101
0.488024 -0.365405 -0.515 164 122 100
0.488127 -0.362567 -0.511 169 127 103
0.494723 -0.354052 -0.499 166 120 96
0.50126 -0.352633 -0.497 170 123 97
-0.00990476 -0.295954 -0.416 194 152 127
0.0121343 -0.292397 -0.411 193 148 119
0.0160486 -0.292397 -0.411 191 146 117
0.0184419 -0.293109 -0.412 191 144 116
0.0192267 -0.293109 -0.412 191 144 114
0.0200114 -0.293109 -0.412 190 143 113
0.0336762 -0.295954 -0.416 176 124 102
0.0444 -0.2988 -0.42 146 98 86
0.0496686 -0.301646 -0.424 130 90 82
0.0563657 -0.307337 -0.432 106 78 75
0.0700733 -0.325123 -0.457 90 69 68
0.0756476 -0.334371 -0.47 89 71 71
0.1343 -0.4233 -0.595 131 154 198
0.244233 -0.4233 -0.595 96 132 192
0.252167 -0.4233 -0.595 201 209 230
0.280029 -0.422589 -0.594 108 128 165
0.311709 -0.422589 -0.594 172 188 211
0.32076 -0.422589 -0.594 151 157 179
0.3383 -0.4233 -0.595 153 168 199
0.357032 -0.424011 -0.596 181 177 192
0.363844 -0.424011 -0.596 107 135 172
0.387033 -0.4233 -0.595 144 161 187
0.403577 -0.424011 -0.596 159 170 188
0.413537 -0.422589 -0.594 149 161 187
0.428552 -0.424011 -0.596 90 113 157
0.472827 -0.424011 -0.596 153 160 176
0.484991 -0.424723 -0.597 150 158 179
0.496363 -0.424723 -0.597 74 105 149
0.498637 -0.424723 -0.597 61 88 135
0.50546 -0.424723 -0.597 152 158 180
0.507734 -0.424723 -0.597 79 89 114
0.51029 -0.424011 -0.596 106 123 143
0.5337 -0.421877 -0.593 144 142 153
0.504107 -0.387017 -0.544 149 116 99
0.488934 -0.367809 -0.517 165 123 101
0.49 -0.355714 -0.5 172 128 103
0.502207 -0.35358 -0.497 174 127 101
0.517353 -0.35358 -0.497 164 119 90
0.524086 -0.354291 -0.498 164 118 92
0.525034 -0.354291 -0.498 161 117 90
0.542249 -0.360694 -0.507 153 113 88
-0.00117429 -0.29318 -0.411 198 154 125
0.00273333 -0.292467 -0.41 198 154 125
0.0066381 -0.292467 -0.41 196 151 122
0.0304333 -0.296033 -0.415 176 125 106
0.0377286 -0.29746 -0.417 164 116 96
0.0505952 -0.303167 -0.425 121 84 75
0.0515257 -0.30388 -0.426 119 82 73
0.0607619 -0.313867 -0.44 95 74 69
0.0702267 -0.326707 -0.458 90 70 69
0.0715648 -0.328847 -0.461 90 70 69
0.275967 -0.424433 -0.595 72 104 161
0.278897 -0.42372 -0.594 71 103 160
0.301526 -0.42372 -0.594 107 141 187
0.302657 -0.42372 -0.594 111 145 191
0.30492 -0.42372 -0.594 127 158 205
0.308314 -0.42372 -0.594 95 122 167
0.315103 -0.42372 -0.594 178 189 207
0.318497 -0.42372 -0.594 173 183 195
0.370033 -0.424433 -0.595 82 106 154
0.451633 -0.424433 -0.595 164 169 173
0.51256 -0.425147 -0.596 148 150 165
0.5253 -0.424433 -0.595 124 125 129
0.528943 -0.42372 -0.594 130 129 137
0.530074 -0.42372 -0.594 141 147 159
0.499666 -0.38306 -0.537 156 119 100
0.488127 -0.364513 -0.511 172 126 103
0.50592 -0.353813 -0.496 174 127 99
0.52114 -0.354527 -0.497 165 118 90
0.544286 -0.362373 -0.508 154 112 87
-0.00826 -0.295393 -0.413 195 154 124
-0.00510095 -0.294678 -0.412 197 156 128
0.0113514 -0.293963 -0.411 193 149 120
0.0152657 -0.293963 -0.411 192 147 116
0.0160486 -0.293963 -0.411 191 146 117
0.0287829 -0.296109 -0.414 175 124 105
0.0394114 -0.29897 -0.418 157 108 91
0.0461095 -0.301115 -0.421 140 93 85
0.127714 -0.426282 -0.596 144 158 187
0.252449 -0.424136 -0.593 203 212 229
0.253578 -0.424136 -0.593 200 209 226
0.29763 -0.424136 -0.593 113 146 189
0.301018 -0.424136 -0.593 114 145 191
0.306666 -0.424136 -0.593 80 112 159
0.342833 -0.425567 -0.595 134 156 180
0.398829 -0.424851 -0.594 169 175 197
0.417359 -0.424136 -0.593 157 167 192
0.419618 -0.424136 -0.593 138 153 182
0.445217 -0.424851 -0.594 84 103 143
0.4554 -0.424851 -0.594 122 127 130
0.459567 -0.425567 -0.595 153 160 166
0.4607 -0.425567 -0.595 156 163 171
0.479638 -0.426282 -0.596 90 107 135
0.480773 -0.426282 -0.596 90 107 135
0.493261 -0.426282 -0.596 46 78 129
0.5337 -0.424136 -0.593 140 137 146
0.494309 -0.377646 -0.528 159 118 98
0.488971 -0.369063 -0.516 172 124 102
0.522087 -0.355473 -0.497 166 119 91
-0.0114619 -0.297614 -0.415 191 152 123
0.00194762 -0.293311 -0.409 198 155 123
0.0216333 -0.29618 -0.413 182 132 109
0.0336762 -0.298331 -0.416 174 126 106
0.100751 -0.385106 -0.537 114 150 198
0.214045 -0.425266 -0.593 146 164 210
0.238894 -0.425266 -0.593 119 152 203
0.25019 -0.425266 -0.593 203 215 229
0.275039 -0.425266 -0.593 107 139 180
0.335469 -0.425983 -0.594 129 140 162
0.347914 -0.425983 -0.594 76 93 123
0.354167 -0.4267 -0.595 175 182 201
0.39025 -0.425266 -0.593 172 180 193
0.39251 -0.425266 -0.593 166 173 192
0.403805 -0.425266 -0.593 164 173 188
0.404934 -0.425266 -0.593 167 176 191
0.407193 -0.425266 -0.593 168 174 188
0.413272 -0.424549 -0.592 75 94 126
0.470109 -0.425983 -0.594 147 160 169
0.503767 -0.4267 -0.595 60 80 117
0.488143 -0.365743 -0.51 172 125 105
0.490048 -0.360006 -0.502 170 124 100
0.492822 -0.357854 -0.499 171 125 101
0.50403 -0.355703 -0.496 173 126 98
0.509614 -0.354986 -0.495 166 119 91
0.515271 -0.354986 -0.495 166 120 94
0.549343 -0.365743 -0.51 146 105 75
-0.0167514 -0.308471 -0.429 188 149 120
-0.0122524 -0.298405 -0.415 192 153 122
-0.00351429 -0.29481 -0.41 195 154 124
0.0411019 -0.301281 -0.419 149 101 87
0.0588171 -0.314943 -0.438 100 72 71
0.06216 -0.319257 -0.444 98 69 71
0.0737 -0.337233 -0.469 90 70 72
0.126154 -0.427114 -0.594 217 218 236
0.128417 -0.427114 -0.594 212 217 239
0.210301 -0.425676 -0.592 98 122 184
0.24413 -0.425676 -0.592 150 173 207
0.333774 -0.426395 -0.593 96 104 125
0.34394 -0.426395 -0.593 174 179 199
0.372178 -0.426395 -0.593 155 172 198
0.375567 -0.426395 -0.593 163 174 192
0.398157 -0.426395 -0.593 169 179 188
0.400416 -0.426395 -0.593 170 180 189
0.408762 -0.425676 -0.592 150 157 175
0.409197 -0.424957 -0.591 127 139 163
0.417783 -0.425676 -0.592 158 168 193
0.452374 -0.426395 -0.593 123 125 122
0.474634 -0.427114 -0.594 152 155 164
0.475766 -0.427114 -0.594 150 157 173
0.478029 -0.427114 -0.594 130 143 162
0.500657 -0.427114 -0.594 60 89 131
0.488164 -0.365276 -0.508 168 122 99
0.502141 -0.356648 -0.496 176 129 103
0.504975 -0.356648 -0.496 176 127 97
0.505843 -0.355929 -0.495 173 126 98
0.513386 -0.355929 -0.495 166 120 94
0.515271 -0.355929 -0.495 166 120 94
0.52576 -0.356648 -0.496 161 116 87
0.527767 -0.357367 -0.497 159 115 88
0.627 -0.409857 -0.57 194 195 189
-0.00429524 -0.29559 -0.41 197 156 126
0.0097381 -0.29487 -0.409 194 149 118
0.0160486 -0.296311 -0.411 189 142 114
0.0232067 -0.297753 -0.413 179 131 108
0.03614 -0.300637 -0.417 163 116 96
0.0419 -0.302079 -0.419 147 101 88
0.0453076 -0.303521 -0.421 135 91 82
0.0489762 -0.306405 -0.425 122 87 81
0.0589514 -0.316498 -0.439 100 71 73
0.0671667 -0.328033 -0.455 90 68 71
0.0738571 -0.338848 -0.47 90 70 72
0.0903857 -0.369849 -0.513 112 125 157
0.0995429 -0.38643 -0.536 120 156 206
0.226088 -0.426804 -0.592 209 212 221
0.233981 -0.426804 -0.592 149 182 225
0.27232 -0.426804 -0.592 147 158 178
0.275703 -0.426804 -0.592 139 155 181
0.279086 -0.426804 -0.592 82 106 142
0.306757 -0.426083 -0.591 119 139 172
0.336594 -0.426804 -0.592 166 173 192
0.345615 -0.426804 -0.592 116 126 151
0.375567 -0.427525 -0.593 146 158 180
0.377826 -0.427525 -0.593 80 96 132
0.383473 -0.427525 -0.593 161 176 197
0.387991 -0.427525 -0.593 173 182 191
0.397486 -0.426804 -0.592 176 183 191
0.428654 -0.427525 -0.593 68 95 150
0.448229 -0.426804 -0.592 160 163 170
0.456122 -0.426804 -0.592 157 161 172
0.46176 -0.426804 -0.592 149 155 167
0.481742 -0.427525 -0.593 65 76 106
0.497263 -0.428246 -0.594 18 50 97
0.499526 -0.428246 -0.594 33 65 112
0.504051 -0.428246 -0.594 52 70 108
0.498053 -0.383547 -0.532 153 117 101
0.496252 -0.381384 -0.529 153 116 100
0.491725 -0.375616 -0.521 166 123 104
0.490013 -0.37057 -0.514 167 120 100
0.4891 -0.368407 -0.511 170 124 101
0.489134 -0.365523 -0.507 170 124 101
0.490097 -0.364802 -0.506 170 124 101
0.490066 -0.362639 -0.503 170 124 100
0.500251 -0.357592 -0.496 173 126 100
0.53774 -0.361197 -0.501 151 109 84
0.6215 -0.407338 -0.565 199 199 191
-0.0121638 -0.297817 -0.412 193 154 123
-0.00585714 -0.296371 -0.41 197 156 124
0.0097381 -0.295649 -0.409 194 149 118
0.0152657 -0.297094 -0.411 187 142 113
0.0168314 -0.297094 -0.411 187 142 113
0.0538971 -0.312274 -0.432 106 78 74
0.06996 -0.33396 -0.462 90 68 71
0.0728067 -0.33902 -0.469 90 70 71
0.220077 -0.427209 -0.591 208 208 220
0.231334 -0.427209 -0.591 120 149 181
0.236963 -0.427209 -0.591 148 176 216
0.243717 -0.427209 -0.591 163 182 212
0.325894 -0.427209 -0.591 174 182 201
0.350126 -0.427931 -0.592 63 89 126
0.355235 -0.428654 -0.593 167 173 197
0.356365 -0.428654 -0.593 167 172 194
0.36253 -0.427931 -0.592 90 122 173
0.365912 -0.427931 -0.592 75 102 157
0.36704 -0.427931 -0.592 68 95 150
0.387337 -0.427931 -0.592 175 182 192
0.403569 -0.427209 -0.591 177 181 190
0.4137 -0.427209 -0.591 78 95 125
0.418203 -0.427209 -0.591 126 145 178
0.434697 -0.427931 -0.592 94 117 158
0.43808 -0.427931 -0.592 66 85 118
0.449356 -0.427931 -0.592 132 133 135
0.452739 -0.427931 -0.592 155 156 151
0.507721 -0.428654 -0.593 133 135 148
0.523534 -0.428654 -0.593 107 112 131
0.536831 -0.425763 -0.589 135 129 143
0.50358 -0.38962 -0.539 149 113 99
0.490013 -0.371549 -0.514 169 123 100
0.493731 -0.359983 -0.498 173 127 101
0.497473 -0.35926 -0.497 174 127 101
-0.00506381 -0.296428 -0.409 197 156 124
0.00505143 -0.295703 -0.408 192 151 119
0.0279943 -0.300051 -0.414 175 124 105
0.0454152 -0.30585 -0.422 130 87 80
0.0463286 -0.306574 -0.423 128 85 78
0.0549733 -0.314547 -0.434 103 78 73
0.0909143 -0.373977 -0.516 148 157 186
0.243717 -0.428334 -0.591 178 195 223
0.254543 -0.42761 -0.59 193 200 219
0.295 -0.42761 -0.59 97 121 159
0.297248 -0.42761 -0.59 92 119 162
0.330397 -0.428334 -0.591 171 180 195
0.331523 -0.428334 -0.591 172 181 196
0.332649 -0.428334 -0.591 156 165 180
0.351253 -0.429059 -0.592 65 88 122
0.376061 -0.429059 -0.592 92 105 137
0.380571 -0.429059 -0.592 159 169 194
0.386683 -0.428334 -0.591 178 182 191
0.399514 -0.42761 -0.59 181 184 191
0.409629 -0.42761 -0.59 166 173 183
0.419329 -0.428334 -0.591 97 116 156
0.44522 -0.428334 -0.591 156 160 171
0.448597 -0.428334 -0.591 103 103 105
0.465143 -0.429059 -0.592 108 107 113
0.483185 -0.429059 -0.592 37 59 108
0.491908 -0.429784 -0.593 25 48 100
0.502354 -0.429059 -0.592 30 52 91
0.513369 -0.429784 -0.593 151 149 154
0.510945 -0.39717 -0.548 147 111 97
0.491814 -0.376151 -0.519 166 120 96
0.49098 -0.363106 -0.501 171 125 101
0.499367 -0.360207 -0.497 176 129 101
0.506786 -0.358757 -0.495 175 128 100
0.517053 -0.358032 -0.494 172 122 95
-0.0105429 -0.297933 -0.41 199 160 127
-0.0066219 -0.297207 -0.409 198 157 125
0.00738286 -0.29648 -0.408 191 148 116
0.0255667 -0.300113 -0.413 173 125 102
0.0272057 -0.30084 -0.414 171 123 101
0.0287829 -0.30084 -0.414 171 124 104
0.09468 -0.382227 -0.526 154 178 212
0.2242 -0.428733 -0.59 214 212 223
0.315229 -0.428733 -0.59 75 98 129
0.336026 -0.42946 -0.591 172 181 190
0.340529 -0.42946 -0.591 176 182 194
0.349534 -0.42946 -0.591 97 116 148
0.361917 -0.42946 -0.591 73 106 160
0.3743 -0.42946 -0.591 99 114 147
0.415248 -0.428733 -0.59 65 87 124
0.42199 -0.428733 -0.59 27 57 107
0.439591 -0.42946 -0.591 110 127 155
0.488823 -0.430187 -0.592 52 80 120
0.518391 -0.42946 -0.591 149 151 163
0.519517 -0.42946 -0.591 147 149 162
0.529649 -0.42946 -0.591 137 137 147
0.532124 -0.428733 -0.59 124 125 130
0.491853 -0.376413 -0.518 164 122 100
0.489133 -0.367693 -0.506 173 127 104
0.496527 -0.361153 -0.497 171 124 96
0.515068 -0.358247 -0.493 168 121 93
0.518935 -0.358973 -0.494 171 124 94
0.519876 -0.358973 -0.494 169 122 92
0.535469 -0.36188 -0.498 151 110 82
-0.0179571 -0.305271 -0.419 191 150 120
-0.0121048 -0.298714 -0.41 196 157 126
-0.00194286 -0.297257 -0.408 196 157 126
0.00895905 -0.297986 -0.409 192 147 116
0.0144476 -0.298714 -0.41 186 141 112
0.0231505 -0.300171 -0.412 177 131 107
0.0445057 -0.306729 -0.421 126 88 79
0.0492067 -0.3111 -0.427 115 81 72
0.0594886 -0.322757 -0.443 97 72 67
0.100471 -0.394157 -0.541 146 174 214
0.211479 -0.429129 -0.589 156 171 204
0.217457 -0.429857 -0.59 202 213 241
0.240649 -0.429129 -0.589 119 143 179
0.245136 -0.429129 -0.589 209 212 227
0.261965 -0.429129 -0.589 202 210 233
0.310207 -0.429129 -0.589 175 185 212
0.313572 -0.429129 -0.589 81 98 128
0.357933 -0.429857 -0.59 117 136 176
0.379929 -0.430586 -0.591 172 181 190
0.381054 -0.430586 -0.591 175 181 195
0.384905 -0.429857 -0.59 183 188 192
0.437724 -0.429857 -0.59 49 80 126
0.452333 -0.429857 -0.59 105 116 122
0.457952 -0.429857 -0.59 80 91 111
0.481243 -0.430586 -0.591 45 66 109
0.499254 -0.430586 -0.591 50 75 115
0.512763 -0.430586 -0.591 150 148 161
0.517266 -0.430586 -0.591 146 148 161
0.533466 -0.429129 -0.589 121 120 125
0.534588 -0.429129 -0.589 109 103 113
0.491889 -0.376671 -0.517 167 126 104
0.489131 -0.370114 -0.508 170 124 101
0.489129 -0.367929 -0.505 172 126 102
0.490066 -0.366471 -0.503 171 125 101
0.490952 -0.364286 -0.5 172 126 102
0.492783 -0.362829 -0.498 169 121 98
0.49468 -0.362829 -0.498 169 121 98
-0.0178286 -0.303878 -0.416 192 148 119
-0.00584286 -0.298765 -0.409 195 154 122
0.0168314 -0.300226 -0.411 183 136 108
0.0207457 -0.300226 -0.411 180 134 108
0.0263533 -0.301687 -0.413 171 123 100
0.02714 -0.301687 -0.413 169 121 99
0.0279267 -0.301687 -0.413 169 121 99
0.0287829 -0.302417 -0.414 170 122 102
0.0437038 -0.30753 -0.421 128 91 82
0.0563143 -0.319949 -0.438 98 73 69
0.0618667 -0.327253 -0.448 91 70 69
0.0668829 -0.335289 -0.459 88 67 64
0.220829 -0.430981 -0.59 209 217 236
0.284403 -0.43025 -0.589 84 104 139
0.305719 -0.43025 -0.589 151 169 209
0.363552 -0.430981 -0.59 47 81 144
0.378162 -0.430981 -0.59 171 180 185
0.38041 -0.430981 -0.59 175 181 195
0.407812 -0.43025 -0.589 167 176 181
0.419031 -0.43025 -0.589 45 71 128
0.43025 -0.43025 -0.589 47 73 130
0.45381 -0.43025 -0.589 117 129 141
0.487997 -0.431711 -0.591 73 97 131
0.495877 -0.431711 -0.591 53 88 130
0.505152 -0.430981 -0.59 76 88 104
0.520886 -0.430981 -0.59 146 143 154
0.526734 -0.43025 -0.589 141 137 154
0.532344 -0.43025 -0.589 133 137 140
0.524789 -0.411989 -0.564 136 108 105
0.490037 -0.374734 -0.513 173 127 104
0.489129 -0.36889 -0.505 174 127 101
0.490066 -0.36743 -0.503 173 127 101
0.490048 -0.366699 -0.502 171 124 98
0.497417 -0.362316 -0.496 176 129 101
0.506703 -0.360855 -0.494 173 127 101
0.511311 -0.360125 -0.493 169 123 97
-0.0169133 -0.302473 -0.413 191 149 124
-0.0128857 -0.300276 -0.41 195 154 126
0.03036 -0.303206 -0.414 170 122 102
0.0369343 -0.305403 -0.417 151 104 88
0.0386152 -0.306135 -0.418 147 99 87
0.0411019 -0.306868 -0.419 140 96 85
0.0531971 -0.317121 -0.433 100 72 71
0.0620048 -0.328839 -0.449 90 68 71
0.065721 -0.334698 -0.457 90 66 66
0.0725267 -0.346416 -0.473 91 68 74
0.124181 -0.432105 -0.59 226 227 247
0.18536 -0.43064 -0.588 219 226 242
0.23912 -0.43064 -0.588 123 148 189
0.2548 -0.43064 -0.588 168 183 204
0.26152 -0.43064 -0.588 197 209 225
0.27272 -0.43064 -0.588 197 209 223
0.319182 -0.431372 -0.589 177 182 202
0.328157 -0.431372 -0.589 175 182 190
0.331523 -0.431372 -0.589 155 155 165
0.34723 -0.431372 -0.589 159 172 180
0.385374 -0.431372 -0.589 124 129 133
0.41832 -0.43064 -0.588 41 77 127
0.432494 -0.431372 -0.589 47 70 120
0.438104 -0.431372 -0.589 86 103 133
0.452689 -0.431372 -0.589 139 142 151
0.456054 -0.431372 -0.589 123 130 146
0.460542 -0.431372 -0.589 137 145 156
0.496162 -0.432105 -0.59 95 120 151
0.506276 -0.432105 -0.59 82 99 115
0.515267 -0.432105 -0.59 149 149 161
0.522247 -0.431372 -0.589 137 132 139
0.53256 -0.43064 -0.588 130 130 138
0.489129 -0.369852 -0.505 176 128 105
0.489108 -0.368388 -0.503 174 128 104
0.494633 -0.363993 -0.497 172 125 97
0.51225 -0.361064 -0.493 167 121 95
0.515068 -0.361064 -0.493 169 123 97
0.526336 -0.361064 -0.493 164 120 93
0.548767 -0.369852 -0.505 150 112 89
-0.00816 -0.299589 -0.408 188 145 113
0.00116286 -0.298854 -0.407 197 153 124
0.00738286 -0.299589 -0.408 192 147 116
0.0128543 -0.300323 -0.409 185 140 111
0.0223657 -0.302526 -0.412 176 130 106
0.02478 -0.30326 -0.413 173 127 103
0.0757429 -0.353926 -0.482 90 67 73
0.0851286 -0.370814 -0.505 87 79 92
0.0954 -0.389171 -0.53 186 202 235
0.121727 -0.432494 -0.589 229 235 249
0.122849 -0.432494 -0.589 225 231 245
0.21784 -0.43176 -0.588 115 131 165
0.23016 -0.43176 -0.588 117 143 176
0.23464 -0.43176 -0.588 135 167 214
0.23576 -0.43176 -0.588 129 162 205
0.23688 -0.43176 -0.588 116 149 192
0.247658 -0.431026 -0.587 163 172 201
0.2828 -0.43176 -0.588 155 163 186
0.28392 -0.43176 -0.588 127 146 178
0.30296 -0.43176 -0.588 70 100 154
0.306917 -0.431026 -0.587 159 175 209
0.313626 -0.431026 -0.587 175 182 201
0.35896 -0.43176 -0.588 31 60 116
0.36344 -0.43176 -0.588 30 64 125
0.37016 -0.43176 -0.588 45 82 137
0.4004 -0.43176 -0.588 148 151 166
0.45942 -0.432494 -0.589 125 131 145
0.46503 -0.432494 -0.589 151 153 165
0.478492 -0.432494 -0.589 36 42 76
0.499809 -0.432494 -0.589 137 142 162
0.503174 -0.432494 -0.589 80 92 108
0.514143 -0.433229 -0.59 150 150 160
0.515515 -0.432494 -0.589 147 149 161
0.535009 -0.431026 -0.587 90 96 108
0.535213 -0.430291 -0.586 69 75 87
0.52493 -0.413403 -0.563 130 111 107
0.508448 -0.397983 -0.542 143 111 100
0.489133 -0.371549 -0.506 173 127 103
0.503014 -0.363471 -0.495 175 129 103
0.535208 -0.364206 -0.496 150 113 86
0.536152 -0.364206 -0.496 148 112 86
0.553962 -0.373017 -0.508 146 108 85
0.0386152 -0.307728 -0.418 146 98 86
0.0447171 -0.311409 -0.423 123 86 80
0.0660086 -0.337911 -0.459 89 64 70
0.0759 -0.35558 -0.483 90 69 74
0.0820514 -0.366623 -0.498 83 73 81
0.211879 -0.432144 -0.587 208 216 235
0.221942 -0.432144 -0.587 201 205 230
0.237595 -0.432144 -0.587 113 139 174
0.292382 -0.432144 -0.587 148 163 202
0.391892 -0.432144 -0.587 102 119 139
0.401955 -0.432144 -0.587 181 180 194
0.44072 -0.43288 -0.588 119 125 147
0.44408 -0.43288 -0.588 150 154 165
0.47096 -0.43288 -0.588 139 142 159
0.4732 -0.43288 -0.588 97 103 129
0.484102 -0.433616 -0.589 102 119 135
0.485224 -0.433616 -0.589 106 123 139
0.491955 -0.433616 -0.589 43 76 121
0.532772 -0.432144 -0.587 126 130 142
0.535213 -0.431408 -0.586 52 60 73
0.4901 -0.373249 -0.507 174 128 104
0.497417 -0.36515 -0.496 173 126 100
0.501196 -0.36515 -0.496 177 130 104
0.506616 -0.362942 -0.493 176 129 103
0.514023 -0.362206 -0.492 171 124 98
0.519646 -0.362206 -0.492 170 123 95
0.525397 -0.362942 -0.493 166 120 94
0.540211 -0.366623 -0.498 148 113 91
0.543333 -0.368095 -0.5 147 112 90
-0.00814 -0.300405 -0.407 185 142 107
-0.00271333 -0.300405 -0.407 199 155 126
0.00270667 -0.299667 -0.406 191 148 116
0.00971429 -0.301143 -0.408 189 145 116
0.0272057 -0.305571 -0.414 171 125 102
0.0312238 -0.30631 -0.415 163 115 95
0.0386152 -0.308524 -0.418 143 96 86
0.0760571 -0.357238 -0.484 90 71 77
0.0973191 -0.394881 -0.535 193 210 240
0.121313 -0.433262 -0.587 227 234 252
0.212997 -0.433262 -0.587 212 215 230
0.214115 -0.433262 -0.587 203 206 221
0.225296 -0.433262 -0.587 201 206 225
0.230493 -0.432524 -0.586 110 143 188
0.236074 -0.432524 -0.586 113 146 197
0.250585 -0.432524 -0.586 176 190 217
0.25505 -0.432524 -0.586 200 212 228
0.286791 -0.433262 -0.587 113 131 167
0.297972 -0.433262 -0.587 68 103 171
0.305799 -0.433262 -0.587 92 121 177
0.306917 -0.433262 -0.587 66 96 156
0.327043 -0.433262 -0.587 111 115 126
0.33487 -0.433262 -0.587 141 152 172
0.338224 -0.433262 -0.587 154 166 180
0.385184 -0.433262 -0.587 179 182 189
0.404619 -0.432524 -0.586 181 181 191
0.415372 -0.433262 -0.587 139 162 194
0.44632 -0.434 -0.588 157 159 171
0.46088 -0.434 -0.588 148 152 164
0.46872 -0.434 -0.588 149 151 164
0.4732 -0.434 -0.588 75 82 108
0.4788 -0.434 -0.588 120 128 147
0.50344 -0.434 -0.588 115 125 137
0.513138 -0.403738 -0.547 134 112 101
0.491047 -0.377167 -0.511 171 125 101
0.491057 -0.376429 -0.51 171 125 101
0.49008 -0.372 -0.504 171 125 101
0.491834 -0.367571 -0.498 174 127 99
0.497417 -0.366095 -0.496 174 127 99
-0.0143771 -0.30192 -0.408 194 151 119
-0.011241 -0.30118 -0.407 197 153 124
-0.00736476 -0.30118 -0.407 181 137 102
0.00270667 -0.30044 -0.406 191 148 116
0.00348 -0.30044 -0.406 192 147 116
0.00425333 -0.30044 -0.406 192 147 116
0.0136667 -0.3034 -0.41 185 140 109
0.0239933 -0.30562 -0.413 170 122 99
0.0395057 -0.31006 -0.419 136 89 79
0.0626952 -0.33596 -0.454 87 67 69
0.0777743 -0.36186 -0.489 88 71 77
0.271792 -0.43364 -0.586 198 202 214
0.274025 -0.43364 -0.586 200 203 218
0.280722 -0.43364 -0.586 173 176 183
0.287419 -0.43364 -0.586 93 109 142
0.295232 -0.43364 -0.586 53 84 148
0.300813 -0.43364 -0.586 44 77 146
0.314208 -0.43364 -0.586 177 183 197
0.324253 -0.43364 -0.586 129 136 146
0.330397 -0.43438 -0.587 117 129 153
0.338764 -0.43364 -0.586 177 176 181
0.342112 -0.43364 -0.586 172 175 180
0.36332 -0.43364 -0.586 47 80 134
0.405735 -0.43364 -0.586 179 187 190
0.413549 -0.43364 -0.586 131 147 180
0.422478 -0.43364 -0.586 65 96 143
0.47096 -0.43512 -0.588 133 140 156
0.51576 -0.43512 -0.588 148 145 154
0.516001 -0.43438 -0.587 144 144 154
0.519355 -0.43438 -0.587 120 124 136
0.530749 -0.43364 -0.586 119 117 128
0.495651 -0.38628 -0.522 147 118 102
0.494583 -0.36704 -0.496 174 127 101
0.516834 -0.36408 -0.492 167 120 92
0.526071 -0.36334 -0.491 166 120 94
0.527007 -0.36334 -0.491 163 117 91
-0.00812 -0.301213 -0.406 193 148 117
-0.00425333 -0.301213 -0.406 197 154 122
0.00425333 -0.301213 -0.406 194 149 118
0.0144476 -0.304181 -0.41 182 137 106
0.0168314 -0.304923 -0.411 185 140 109
0.0320914 -0.308632 -0.416 157 112 91
0.0369343 -0.309374 -0.417 146 100 87
0.0421 -0.312342 -0.421 124 85 80
0.0547705 -0.325696 -0.439 96 67 63
0.069381 -0.348695 -0.47 87 65 67
0.07208 -0.353147 -0.476 88 70 70
0.108731 -0.421402 -0.568 188 200 224
0.212271 -0.434014 -0.585 209 213 224
0.240129 -0.434014 -0.585 152 173 218
0.246814 -0.434014 -0.585 121 136 165
0.273557 -0.434014 -0.585 206 210 222
0.303643 -0.434014 -0.585 45 79 143
0.342112 -0.434756 -0.586 176 179 186
0.355507 -0.434756 -0.586 65 97 148
0.375598 -0.434756 -0.586 161 170 185
0.420643 -0.434014 -0.585 77 106 150
0.422871 -0.434014 -0.585 74 104 154
0.427329 -0.434014 -0.585 117 145 185
0.449267 -0.434756 -0.586 160 158 169
0.495875 -0.435498 -0.587 103 118 137
0.500348 -0.435498 -0.587 142 142 152
0.501466 -0.435498 -0.587 148 148 158
0.512647 -0.435498 -0.587 140 140 152
0.49008 -0.37392 -0.504 172 125 99
0.504821 -0.366501 -0.494 175 129 103
0.506616 -0.365759 -0.493 174 127 101
0.527942 -0.364275 -0.491 164 120 91
0.550426 -0.373178 -0.503 147 105 81
-0.0159314 -0.303474 -0.408 195 152 120
0.0430038 -0.313888 -0.422 123 85 82
0.0780924 -0.36521 -0.491 87 67 69
0.0796714 -0.368186 -0.495 84 68 69
0.09594 -0.39645 -0.533 170 190 227
0.204471 -0.435129 -0.585 209 213 224
0.215614 -0.435129 -0.585 202 208 224
0.261966 -0.434385 -0.584 186 187 207
0.266415 -0.434385 -0.584 171 177 191
0.28755 -0.434385 -0.584 74 95 158
0.295843 -0.435129 -0.585 53 84 151
0.302529 -0.435129 -0.585 66 97 164
0.304757 -0.435129 -0.585 63 95 154
0.307573 -0.434385 -0.584 76 104 154
0.322586 -0.435129 -0.585 128 132 143
0.341529 -0.435129 -0.585 178 178 188
0.361586 -0.435129 -0.585 69 101 150
0.378947 -0.435872 -0.586 169 176 192
0.384528 -0.435872 -0.586 182 185 194
0.3939 -0.435129 -0.585 188 192 204
0.395014 -0.435129 -0.585 187 191 203
0.414362 -0.434385 -0.584 169 180 198
0.434014 -0.435129 -0.585 158 161 170
0.461545 -0.435872 -0.586 153 155 167
0.482752 -0.435872 -0.586 110 118 139
0.499495 -0.435872 -0.586 145 145 157
0.50396 -0.435872 -0.586 143 143 155
0.533186 -0.435129 -0.585 55 66 88
0.492783 -0.370417 -0.498 174 127 101
0.500116 -0.367442 -0.494 180 133 107
0.514849 -0.36521 -0.491 176 131 102
0.517533 -0.364467 -0.49 170 123 95
0.524067 -0.364467 -0.49 165 120 91
0.525 -0.364467 -0.49 163 118 89
0.533703 -0.365954 -0.492 159 117 92
-0.0143419 -0.303506 -0.407 195 152 118
-0.01276 -0.30276 -0.406 198 155 123
-0.00812 -0.30276 -0.406 197 152 121
-0.00425333 -0.30276 -0.406 197 152 121
0.0387076 -0.312454 -0.419 134 94 84
0.059439 -0.334826 -0.449 90 66 64
0.0657019 -0.345266 -0.463 89 67 70
0.0670152 -0.347503 -0.466 89 67 70
0.0696762 -0.351977 -0.472 90 65 68
0.0710238 -0.354214 -0.475 89 67 70
0.180762 -0.435497 -0.584 147 157 184
0.197448 -0.435497 -0.584 211 219 232
0.209684 -0.435497 -0.584 210 218 221
0.215246 -0.435497 -0.584 206 214 227
0.221186 -0.436243 -0.585 128 135 161
0.229707 -0.435497 -0.584 61 92 147
0.236381 -0.435497 -0.584 54 88 149
0.274202 -0.435497 -0.584 195 199 211
0.295843 -0.436243 -0.585 53 88 154
0.31981 -0.435497 -0.584 166 177 181
0.3237 -0.436243 -0.585 179 182 189
0.326484 -0.435497 -0.584 169 176 195
0.332046 -0.435497 -0.584 167 183 196
0.340945 -0.435497 -0.584 185 182 193
0.387214 -0.436243 -0.585 184 186 198
0.394339 -0.435497 -0.584 185 189 201
0.396564 -0.435497 -0.584 185 189 201
0.399901 -0.435497 -0.584 189 187 198
0.449614 -0.436243 -0.585 164 166 179
0.450729 -0.436243 -0.585 159 161 174
0.457414 -0.436243 -0.585 117 124 140
0.517586 -0.436243 -0.585 114 128 154
0.522043 -0.436243 -0.585 66 81 110
0.530957 -0.436243 -0.585 42 56 83
0.51888 -0.411634 -0.552 129 110 103
0.505677 -0.367637 -0.493 178 131 103
-0.01044 -0.303533 -0.406 198 155 123
0.0120457 -0.305029 -0.408 180 133 103
0.0345514 -0.311757 -0.417 148 105 86
0.0370229 -0.312505 -0.418 137 95 81
0.05502 -0.3297 -0.441 94 69 64
0.0784105 -0.368576 -0.493 91 69 72
0.09648 -0.400724 -0.536 165 189 225
0.22637 -0.43661 -0.584 110 138 185
0.249302 -0.435862 -0.583 196 201 220
0.281506 -0.435862 -0.583 183 186 201
0.309268 -0.435862 -0.583 97 120 152
0.31593 -0.435862 -0.583 195 194 212
0.323147 -0.43661 -0.584 185 192 200
0.35763 -0.43661 -0.584 92 121 163
0.360968 -0.43661 -0.584 83 115 164
0.38099 -0.43661 -0.584 187 184 195
0.418094 -0.435862 -0.583 118 138 173
0.438834 -0.43661 -0.584 148 151 168
0.442171 -0.43661 -0.584 67 78 100
0.460757 -0.437357 -0.585 159 163 172
0.463777 -0.438105 -0.586 158 161 168
0.469358 -0.438105 -0.586 92 100 123
0.4797 -0.437357 -0.585 161 158 169
0.506192 -0.438105 -0.586 148 145 154
0.508671 -0.437357 -0.585 92 95 110
0.53005 -0.43661 -0.584 35 52 80
0.493886 -0.385771 -0.516 167 122 101
0.49295 -0.384276 -0.514 168 123 102
0.491061 -0.378295 -0.506 172 124 101
0.50286 -0.368576 -0.493 178 131 103
0.520203 -0.365586 -0.489 171 126 97
0.533553 -0.367081 -0.491 162 117 86
-0.0206448 -0.306555 -0.409 192 153 122
-0.0198171 -0.305806 -0.408 191 152 121
0.00502667 -0.304307 -0.406 184 139 110
0.0136333 -0.306555 -0.409 180 135 106
0.0328838 -0.311802 -0.416 151 104 86
0.0440152 -0.317798 -0.424 113 83 75
0.067159 -0.350028 -0.467 91 66 69
0.232645 -0.436972 -0.583 59 90 155
0.279285 -0.436972 -0.583 197 205 216
0.300384 -0.436972 -0.583 100 133 186
0.31371 -0.436972 -0.583 194 195 213
0.327035 -0.436972 -0.583 183 185 200
0.350355 -0.436972 -0.583 113 126 145
0.36653 -0.437722 -0.584 139 154 183
0.405879 -0.436972 -0.583 78 89 119
0.443284 -0.437722 -0.584 115 124 141
0.445509 -0.437722 -0.584 169 168 186
0.446621 -0.437722 -0.584 157 156 174
0.458857 -0.437722 -0.584 141 147 161
0.469671 -0.438471 -0.585 142 152 177
0.495566 -0.437722 -0.584 83 93 103
0.511139 -0.437722 -0.584 51 66 97
0.520038 -0.437722 -0.584 32 48 81
0.52115 -0.437722 -0.584 44 60 93
0.532473 -0.436972 -0.583 107 118 138
