ply
format ascii 1.0
comment Created by Open3D
element vertex 1318
property double x
property double y
property double z
property uchar red
property uchar green
property uchar blue
end_header
0.34518 -0.188778 -0.523 129 110 116
0.4403 -0.227039 -0.629 79 78 96
0.406242 -0.195636 -0.542 159 110 105
0.413491 -0.194192 -0.538 140 90 81
0.41759 -0.194192 -0.538 143 93 84
0.437437 -0.195275 -0.541 149 98 94
0.450624 -0.197441 -0.547 135 86 82
-0.316333 -0.235857 -0.65 251 252 246
-0.303782 -0.234769 -0.647 244 245 239
-0.29808 -0.235131 -0.648 247 248 243
0.119514 -0.170543 -0.47 195 147 137
0.142381 -0.166914 -0.46 183 133 122
0.144694 -0.166551 -0.459 177 128 114
0.153771 -0.166914 -0.46 168 120 106
0.158496 -0.167277 -0.461 155 108 100
0.1606 -0.16764 -0.462 149 102 94
0.166957 -0.168729 -0.465 143 94 87
0.196523 -0.174534 -0.481 105 72 65
0.228247 -0.18542 -0.511 85 60 56
0.26741 -0.201749 -0.556 77 52 56
0.283919 -0.198483 -0.547 87 64 70
0.313201 -0.193403 -0.533 175 158 166
0.322942 -0.191951 -0.529 130 103 112
0.329751 -0.191226 -0.527 129 102 111
0.451846 -0.232954 -0.642 76 77 97
0.40612 -0.19812 -0.546 161 112 107
0.4068 -0.195943 -0.54 156 107 102
0.420665 -0.195217 -0.538 141 91 80
0.444008 -0.197394 -0.544 144 93 89
-0.318319 -0.23673 -0.649 251 252 246
-0.308234 -0.235636 -0.646 220 221 216
-0.29839 -0.235636 -0.646 182 182 180
-0.167881 -0.233812 -0.641 182 179 170
-0.16198 -0.232353 -0.637 183 183 173
0.13508 -0.16852 -0.462 199 152 142
0.148191 -0.167426 -0.459 172 123 108
0.149066 -0.167426 -0.459 173 124 109
0.151689 -0.167426 -0.459 174 125 110
0.153771 -0.16779 -0.46 167 119 105
0.192969 -0.174721 -0.479 107 72 66
0.203612 -0.177639 -0.487 101 68 63
0.2385 -0.1915 -0.525 87 61 60
0.2461 -0.195148 -0.535 87 61 62
0.2765 -0.201713 -0.553 84 59 65
0.282333 -0.200619 -0.55 90 65 69
0.301792 -0.196242 -0.538 122 97 101
0.309281 -0.195148 -0.535 126 96 104
0.32798 -0.192959 -0.529 131 104 113
0.332131 -0.191865 -0.526 128 101 110
0.342846 -0.191135 -0.524 169 152 158
0.351835 -0.19223 -0.527 107 86 93
0.428374 -0.225058 -0.617 70 71 89
0.406377 -0.201349 -0.552 152 103 98
0.406991 -0.198066 -0.543 166 116 109
0.406523 -0.197336 -0.541 166 116 109
0.4356 -0.196971 -0.54 149 99 92
0.451666 -0.199525 -0.547 140 91 86
0.453535 -0.19989 -0.548 142 93 88
-0.314387 -0.236867 -0.646 251 250 246
-0.293469 -0.236867 -0.646 172 174 173
-0.291123 -0.237967 -0.649 255 255 251
-0.16614 -0.2343 -0.639 184 181 172
0.120153 -0.171967 -0.469 194 147 137
0.131845 -0.169767 -0.463 194 146 134
0.137422 -0.169033 -0.461 195 148 138
0.175019 -0.172333 -0.47 135 90 84
0.175914 -0.172333 -0.47 131 88 81
0.177186 -0.1727 -0.471 129 86 79
0.183344 -0.173433 -0.473 119 82 76
0.190745 -0.175267 -0.478 111 76 70
0.199592 -0.177467 -0.484 104 71 66
0.228163 -0.1881 -0.513 86 57 59
0.245081 -0.196167 -0.535 87 61 62
0.271724 -0.203133 -0.554 78 56 59
0.2765 -0.202767 -0.553 84 59 63
0.281286 -0.201667 -0.55 91 66 72
0.293712 -0.198733 -0.542 115 88 95
0.313201 -0.195433 -0.533 202 185 195
0.346838 -0.192133 -0.524 138 111 120
0.407113 -0.202767 -0.553 160 111 106
0.409127 -0.197633 -0.539 152 102 95
0.415541 -0.197267 -0.538 144 91 83
0.428863 -0.197267 -0.538 148 98 91
0.437437 -0.198367 -0.541 151 101 94
0.44031 -0.198733 -0.542 149 100 93
0.471774 -0.2057 -0.561 150 100 99
0.475371 -0.2068 -0.564 147 102 105
-0.311702 -0.236991 -0.643 183 184 179
-0.301147 -0.23736 -0.644 142 142 140
-0.170323 -0.236254 -0.641 182 179 172
-0.164407 -0.23478 -0.637 183 180 171
-0.16198 -0.23478 -0.637 183 183 173
0.135666 -0.169911 -0.461 197 149 137
0.137124 -0.169543 -0.46 197 149 137
0.139752 -0.169543 -0.46 185 137 123
0.153771 -0.169543 -0.46 167 118 104
0.155524 -0.169543 -0.46 157 109 99
0.188133 -0.17544 -0.476 112 75 69
0.204449 -0.180231 -0.489 100 69 67
0.277051 -0.203451 -0.552 85 62 68
0.282333 -0.202714 -0.55 91 66 69
0.315653 -0.19608 -0.532 133 106 121
0.325965 -0.194974 -0.529 133 105 117
0.36158 -0.197923 -0.537 63 59 74
0.420665 -0.198291 -0.538 147 94 88
0.430912 -0.198291 -0.538 144 94 87
-0.322766 -0.240069 -0.648 250 253 246
-0.314886 -0.237846 -0.642 245 248 241
-0.15267 -0.240439 -0.649 188 186 174
0.119897 -0.173383 -0.468 195 148 138
0.12053 -0.173012 -0.467 198 152 139
0.15972 -0.17116 -0.462 148 99 92
0.187227 -0.176347 -0.476 114 75 70
0.188529 -0.176717 -0.477 112 73 68
0.192457 -0.177829 -0.48 108 73 67
0.240214 -0.196723 -0.531 90 64 67
0.242589 -0.197834 -0.534 89 63 64
0.269043 -0.205614 -0.555 79 54 60
0.282866 -0.203391 -0.549 95 70 73
0.283919 -0.20265 -0.547 98 73 76
0.305323 -0.198946 -0.537 125 98 105
0.311319 -0.198205 -0.535 109 88 97
0.322942 -0.195982 -0.529 131 103 115
0.3475 -0.1945 -0.525 135 112 122
0.409731 -0.206726 -0.558 129 103 116
0.425789 -0.199316 -0.538 137 87 78
0.443191 -0.201169 -0.543 133 84 77
0.44608 -0.201539 -0.544 138 89 84
-0.163193 -0.237207 -0.637 185 182 173
0.114982 -0.179115 -0.481 197 150 140
0.115175 -0.177998 -0.478 197 149 139
0.145886 -0.171295 -0.46 176 124 113
0.193774 -0.179115 -0.481 108 73 71
0.197749 -0.180232 -0.484 105 72 67
0.269613 -0.206299 -0.554 78 55 63
0.280206 -0.205554 -0.552 91 66 72
0.291151 -0.202203 -0.543 111 86 92
0.299743 -0.200341 -0.538 126 99 104
0.306796 -0.199596 -0.536 126 99 106
0.326972 -0.19699 -0.529 131 103 115
0.328748 -0.196245 -0.527 130 102 114
0.330755 -0.196245 -0.527 129 101 113
0.332131 -0.195872 -0.526 131 103 115
0.3365 -0.1955 -0.525 126 105 114
0.350166 -0.195872 -0.526 119 99 108
0.407452 -0.202948 -0.545 163 114 109
0.408857 -0.201086 -0.54 154 104 97
0.412207 -0.200713 -0.539 149 96 90
0.427838 -0.200341 -0.538 142 91 87
0.437657 -0.201086 -0.54 155 104 100
0.452708 -0.203692 -0.547 145 100 95
0.48114 -0.21114 -0.567 136 90 90
-0.172347 -0.24104 -0.644 181 181 173
-0.167095 -0.238794 -0.638 186 183 176
-0.158607 -0.240666 -0.643 186 186 176
-0.157627 -0.24104 -0.644 188 185 176
-0.15267 -0.242911 -0.649 188 186 174
-0.0462143 -0.242163 -0.647 72 69 76
0.114743 -0.179657 -0.48 197 150 142
0.134788 -0.172546 -0.461 192 144 130
0.138 -0.172171 -0.46 192 144 132
0.138876 -0.172171 -0.46 190 142 130
0.142381 -0.172171 -0.46 182 133 119
0.157618 -0.172546 -0.461 149 100 93
0.180641 -0.177037 -0.473 122 81 75
0.1955 -0.18078 -0.483 106 72 70
0.228413 -0.19388 -0.518 88 59 63
0.264593 -0.209226 -0.559 80 55 59
0.293712 -0.202863 -0.542 118 91 98
0.295714 -0.202114 -0.54 118 91 96
0.302817 -0.201366 -0.538 121 94 99
0.306796 -0.200617 -0.536 125 98 105
0.433727 -0.23318 -0.623 74 77 96
0.408586 -0.207729 -0.555 153 104 99
0.416566 -0.201366 -0.538 156 103 97
0.41964 -0.201366 -0.538 152 99 93
0.428863 -0.201366 -0.538 141 90 86
0.456454 -0.205483 -0.549 144 93 89
-0.317562 -0.240762 -0.64 238 240 235
-0.172079 -0.24189 -0.643 182 182 174
0.124443 -0.174929 -0.465 195 148 132
0.134495 -0.173048 -0.46 190 144 129
0.139752 -0.173048 -0.46 187 139 125
0.140629 -0.173048 -0.46 186 138 124
0.152895 -0.173048 -0.46 166 116 107
0.164653 -0.175305 -0.466 143 96 90
0.165896 -0.175681 -0.467 142 93 88
0.17018 -0.176433 -0.469 140 93 87
0.178839 -0.177938 -0.473 122 81 77
0.181926 -0.178314 -0.474 119 79 77
0.193259 -0.181324 -0.482 108 73 71
0.217769 -0.190729 -0.507 88 59 61
0.266246 -0.209914 -0.558 80 55 59
0.269043 -0.208786 -0.555 78 55 61
0.278607 -0.208033 -0.553 88 65 71
0.280748 -0.207281 -0.551 93 68 72
0.284438 -0.206152 -0.548 99 74 78
0.29317 -0.203519 -0.541 117 90 95
0.294201 -0.203519 -0.541 116 89 94
0.3043 -0.202014 -0.537 123 96 101
0.319106 -0.199757 -0.531 130 104 115
0.329751 -0.198252 -0.527 129 101 113
0.421447 -0.202767 -0.539 140 87 79
0.436629 -0.203143 -0.54 157 107 100
0.474756 -0.211419 -0.562 132 89 83
-0.16198 -0.240847 -0.637 185 185 175
0.115528 -0.178461 -0.472 193 147 132
0.115933 -0.177705 -0.47 194 148 132
0.142381 -0.173924 -0.46 183 134 120
0.165007 -0.17657 -0.467 142 95 89
0.168034 -0.176949 -0.468 139 90 85
0.194983 -0.182998 -0.484 105 71 70
0.199383 -0.18451 -0.488 100 68 69
0.295714 -0.204171 -0.54 118 92 95
0.298247 -0.203793 -0.539 122 96 99
0.298718 -0.203415 -0.538 122 96 99
0.3043 -0.203037 -0.537 124 97 102
0.309281 -0.202281 -0.535 123 100 110
0.333133 -0.198878 -0.526 135 107 119
0.334135 -0.198878 -0.526 135 107 119
0.3365 -0.1985 -0.525 136 106 116
0.406564 -0.207196 -0.548 164 113 109
0.407741 -0.205684 -0.544 163 112 108
0.408026 -0.205306 -0.543 163 112 108
0.413233 -0.203793 -0.539 150 100 93
0.421447 -0.203793 -0.539 146 93 85
0.426813 -0.203415 -0.538 140 87 79
0.46757 -0.210221 -0.556 133 90 83
-0.156886 -0.24548 -0.646 187 187 175
-0.154903 -0.24624 -0.648 189 187 175
-0.0549257 -0.24624 -0.648 72 69 78
0.115283 -0.17898 -0.471 195 149 133
0.115687 -0.17822 -0.469 196 149 131
0.127435 -0.17594 -0.463 195 148 128
0.134495 -0.1748 -0.46 194 147 129
0.173966 -0.17936 -0.472 133 85 81
0.198047 -0.18506 -0.487 100 68 71
0.204657 -0.18772 -0.494 93 64 68
0.205598 -0.18772 -0.494 94 64 64
0.207375 -0.18848 -0.496 92 61 66
0.219057 -0.1938 -0.51 88 59 63
0.226877 -0.19722 -0.519 88 59 63
0.25622 -0.21166 -0.557 84 59 63
0.264 -0.2128 -0.56 80 57 63
0.264593 -0.21242 -0.559 79 56 62
0.265183 -0.21204 -0.558 79 56 62
0.29268 -0.20596 -0.542 116 89 94
0.309281 -0.2033 -0.535 121 95 104
0.321533 -0.2014 -0.53 129 103 114
0.321934 -0.20102 -0.529 129 102 111
0.326354 -0.20064 -0.528 129 102 111
0.332763 -0.20026 -0.527 136 108 120
0.447623 -0.24168 -0.636 74 75 93
0.409614 -0.20558 -0.541 161 108 102
0.413233 -0.20482 -0.539 146 96 89
0.415287 -0.20482 -0.539 144 91 83
0.430912 -0.20444 -0.538 149 96 88
0.431937 -0.20444 -0.538 154 101 93
0.448152 -0.20672 -0.544 137 90 84
0.472222 -0.21242 -0.559 136 88 84
-0.316073 -0.243273 -0.637 162 162 160
-0.16562 -0.243273 -0.637 187 185 173
0.12804 -0.17644 -0.462 197 150 130
0.131275 -0.176058 -0.461 195 148 130
0.1377 -0.175294 -0.459 190 143 125
0.141197 -0.175294 -0.459 182 133 118
0.154984 -0.176058 -0.461 149 100 93
0.176136 -0.180641 -0.473 125 81 78
0.177938 -0.180641 -0.473 121 81 79
0.179217 -0.181023 -0.474 118 78 76
0.19366 -0.18446 -0.483 105 71 70
0.212218 -0.192098 -0.503 91 62 66
0.225889 -0.198209 -0.519 87 58 63
0.258667 -0.213867 -0.56 83 58 64
0.268951 -0.212721 -0.557 80 59 66
0.269528 -0.212339 -0.556 79 58 65
0.277553 -0.211193 -0.553 90 65 71
0.289615 -0.207756 -0.544 110 85 91
0.291648 -0.206992 -0.542 117 90 95
0.298718 -0.205465 -0.538 122 95 100
0.300209 -0.205083 -0.537 124 97 104
0.309281 -0.204319 -0.535 124 98 107
0.320927 -0.202028 -0.529 129 103 112
0.32736 -0.201646 -0.528 130 103 112
0.331759 -0.201264 -0.527 138 110 122
0.42166 -0.23258 -0.609 68 69 89
0.409339 -0.206992 -0.542 163 110 104
0.409614 -0.20661 -0.541 161 108 102
0.412207 -0.205847 -0.539 145 92 86
0.468629 -0.212339 -0.556 140 91 86
-0.318 -0.244103 -0.636 235 236 231
-0.314366 -0.244103 -0.636 147 148 143
0.136826 -0.176169 -0.459 190 145 126
0.166251 -0.179623 -0.468 142 94 90
0.1805 -0.18231 -0.475 116 78 77
0.217114 -0.195743 -0.51 90 61 66
0.219369 -0.196894 -0.513 89 60 65
0.222617 -0.198046 -0.516 88 59 64
0.231817 -0.202651 -0.528 95 68 73
0.262933 -0.214933 -0.56 81 58 66
0.264 -0.214933 -0.56 81 58 66
0.26683 -0.213782 -0.557 80 57 65
0.273271 -0.213014 -0.555 83 60 68
0.27489 -0.21263 -0.554 83 60 68
0.280748 -0.211479 -0.551 95 70 76
0.282333 -0.211095 -0.55 96 71 77
0.294201 -0.207641 -0.541 119 92 99
0.297693 -0.20649 -0.538 122 95 102
0.314216 -0.20457 -0.533 129 103 112
0.324957 -0.203035 -0.529 130 103 112
0.4112 -0.214933 -0.56 132 103 108
0.410058 -0.213782 -0.557 159 106 100
0.412971 -0.207257 -0.54 151 96 91
0.467786 -0.213014 -0.555 142 95 89
0.477746 -0.216085 -0.563 139 88 84
-0.326399 -0.248014 -0.643 250 253 246
-0.31871 -0.244929 -0.635 254 255 250
-0.311943 -0.245314 -0.636 139 141 136
-0.176157 -0.250329 -0.649 180 180 168
-0.162489 -0.246471 -0.639 184 186 175
-0.0612857 -0.250714 -0.65 67 66 74
-0.0530286 -0.246857 -0.64 70 68 81
-0.0471533 -0.248014 -0.643 73 71 82
0.120014 -0.179357 -0.465 193 147 131
0.122408 -0.178971 -0.464 196 149 131
0.123291 -0.178971 -0.464 197 150 134
0.127763 -0.177814 -0.461 196 149 131
0.129519 -0.177814 -0.461 195 148 130
0.135951 -0.177043 -0.459 191 146 127
0.142946 -0.177043 -0.459 173 126 108
0.159528 -0.178971 -0.464 142 94 90
0.168752 -0.181286 -0.47 129 88 84
0.169648 -0.181286 -0.47 125 84 80
0.173966 -0.182057 -0.472 129 85 82
0.174865 -0.182057 -0.472 123 82 78
0.179595 -0.183214 -0.475 116 78 77
0.249564 -0.213686 -0.554 88 63 69
0.251976 -0.214843 -0.557 88 63 69
0.260661 -0.216771 -0.562 82 59 65
0.262933 -0.216 -0.56 80 59 66
0.298718 -0.207514 -0.538 123 96 103
0.301231 -0.207129 -0.537 123 96 103
0.305775 -0.206743 -0.536 125 98 105
0.348824 -0.203271 -0.527 133 107 116
0.406564 -0.211371 -0.548 165 112 106
0.4082 -0.2106 -0.546 170 117 111
0.431937 -0.207514 -0.538 158 105 97
0.432962 -0.207514 -0.538 159 106 98
0.440743 -0.208286 -0.54 145 96 89
0.455833 -0.210986 -0.547 134 90 79
0.476897 -0.216771 -0.562 138 89 82
-0.3175 -0.246138 -0.635 207 209 204
-0.310731 -0.246526 -0.636 141 141 141
-0.277952 -0.251952 -0.65 252 253 248
-0.162234 -0.247301 -0.638 185 185 175
-0.161776 -0.248464 -0.641 186 186 176
-0.1591 -0.250014 -0.645 187 187 175
0.114549 -0.181406 -0.468 194 147 131
0.15532 -0.17908 -0.462 144 97 89
0.16199 -0.18063 -0.466 139 94 88
0.163228 -0.181018 -0.467 136 91 85
0.1675 -0.181793 -0.469 137 92 89
0.169648 -0.182181 -0.47 125 84 80
0.182693 -0.184507 -0.476 111 78 73
0.198333 -0.189933 -0.49 97 67 69
0.2544 -0.217067 -0.56 86 63 69
0.261731 -0.217842 -0.562 83 60 68
0.262334 -0.217454 -0.561 82 59 67
0.262933 -0.217067 -0.56 81 60 67
0.269528 -0.215516 -0.556 80 61 67
0.277553 -0.214353 -0.553 88 65 71
0.283394 -0.212415 -0.548 101 76 80
0.288071 -0.211252 -0.545 113 88 94
0.301792 -0.208539 -0.538 123 96 103
0.320927 -0.20505 -0.529 131 104 113
0.321934 -0.20505 -0.529 131 104 113
0.3355 -0.2035 -0.525 124 96 108
0.357176 -0.207376 -0.535 68 55 65
0.456414 -0.250014 -0.645 92 85 103
0.408905 -0.214741 -0.554 165 112 106
0.410371 -0.21009 -0.542 161 106 101
0.415287 -0.208927 -0.539 138 84 72
0.419393 -0.208927 -0.539 128 74 64
0.42042 -0.208927 -0.539 130 78 67
0.422473 -0.208927 -0.539 135 83 72
0.4235 -0.208927 -0.539 144 92 81
0.445472 -0.21009 -0.542 130 81 74
0.449189 -0.210865 -0.544 138 91 83
0.45396 -0.21164 -0.546 142 92 81
0.462315 -0.213578 -0.551 137 97 89
-0.278761 -0.252801 -0.649 252 252 250
-0.162234 -0.248516 -0.638 185 185 175
-0.1591 -0.251243 -0.645 188 188 176
-0.0427143 -0.25319 -0.65 75 71 85
0.12064 -0.180739 -0.464 192 145 127
0.15444 -0.17996 -0.462 146 99 89
0.158644 -0.180739 -0.464 142 95 87
0.169648 -0.183076 -0.47 129 84 81
0.170906 -0.183466 -0.471 126 82 79
0.188277 -0.187361 -0.481 108 74 73
0.202243 -0.192814 -0.495 94 65 69
0.212392 -0.197878 -0.508 88 61 68
0.255309 -0.218912 -0.562 85 64 71
0.272779 -0.215796 -0.554 83 62 67
0.325736 -0.205279 -0.527 135 108 117
0.424209 -0.237999 -0.611 74 72 94
0.446215 -0.246958 -0.634 81 77 94
0.450951 -0.248906 -0.639 75 71 88
0.433987 -0.209564 -0.538 162 107 100
0.466943 -0.215796 -0.554 141 98 92
-0.333153 -0.254037 -0.649 251 254 247
-0.330383 -0.252863 -0.646 251 254 247
-0.31629 -0.248557 -0.635 148 150 145
-0.313871 -0.248557 -0.635 136 138 135
-0.159347 -0.252863 -0.646 188 188 176
-0.0632714 -0.252471 -0.645 66 64 75
-0.0616581 -0.250906 -0.641 65 63 74
-0.0576333 -0.24934 -0.637 68 68 78
-0.0539086 -0.248949 -0.636 67 67 79
0.113007 -0.18358 -0.469 197 151 136
0.117357 -0.182014 -0.465 197 150 134
0.120014 -0.182014 -0.465 195 148 132
0.130706 -0.179666 -0.459 197 150 130
0.145569 -0.179666 -0.459 169 121 107
0.244457 -0.216069 -0.552 91 66 72
0.269434 -0.218417 -0.558 82 61 66
0.273834 -0.216851 -0.554 85 64 69
0.277 -0.216851 -0.554 89 66 72
0.318094 -0.207849 -0.531 129 102 111
0.325349 -0.206674 -0.528 133 106 115
0.335137 -0.205891 -0.526 145 119 130
0.3415 -0.2055 -0.525 152 130 142
0.34782 -0.206283 -0.527 134 108 117
0.424209 -0.239163 -0.611 74 72 94
0.4082 -0.21372 -0.546 169 116 112
0.409813 -0.212937 -0.544 165 110 105
0.413233 -0.21098 -0.539 147 92 87
0.428863 -0.210589 -0.538 146 93 85
0.430912 -0.210589 -0.538 155 102 94
0.4389 -0.21098 -0.539 148 98 89
0.448363 -0.212546 -0.543 137 90 84
0.460637 -0.214894 -0.549 144 99 93
0.47989 -0.220374 -0.563 141 98 92
-0.0515667 -0.250553 -0.637 68 71 80
-0.0449819 -0.254487 -0.647 73 71 82
0.111874 -0.18408 -0.468 198 152 137
0.148514 -0.180933 -0.46 161 113 99
0.155656 -0.182113 -0.463 140 96 87
0.164469 -0.18408 -0.468 133 90 83
0.166962 -0.184867 -0.47 131 88 82
0.176509 -0.18644 -0.474 117 79 76
0.183461 -0.188013 -0.478 109 73 73
0.222076 -0.206107 -0.524 86 61 67
0.256671 -0.222233 -0.565 86 63 73
0.27489 -0.217907 -0.554 88 67 72
0.282333 -0.216333 -0.55 98 73 79
0.284438 -0.215547 -0.548 108 83 89
0.284961 -0.215153 -0.547 110 85 91
0.28911 -0.214367 -0.545 114 89 95
0.345156 -0.206893 -0.526 133 103 115
0.408567 -0.234033 -0.595 70 70 94
0.420968 -0.239147 -0.608 90 90 114
0.42955 -0.242687 -0.617 77 75 97
0.407608 -0.215547 -0.548 169 114 111
0.410094 -0.21358 -0.543 161 106 101
0.42042 -0.212007 -0.539 140 85 78
0.421447 -0.212007 -0.539 139 84 77
0.424527 -0.212007 -0.539 143 91 80
0.427838 -0.211613 -0.538 147 95 84
0.433987 -0.211613 -0.538 150 100 91
0.4428 -0.2124 -0.54 140 93 85
0.447537 -0.213187 -0.542 137 90 82
0.451261 -0.213973 -0.544 132 85 77
-0.319415 -0.250581 -0.634 254 255 251
-0.317 -0.250581 -0.634 190 195 189
-0.313871 -0.250976 -0.635 131 136 130
-0.0538238 -0.250976 -0.635 67 70 79
-0.0494486 -0.253348 -0.641 68 70 82
-0.0449819 -0.255719 -0.647 72 72 82
0.109942 -0.189319 -0.479 202 156 141
0.114453 -0.18339 -0.464 195 149 133
0.121262 -0.182995 -0.463 198 151 135
0.126007 -0.182205 -0.461 197 150 132
0.127486 -0.18181 -0.46 196 151 132
0.142946 -0.181414 -0.459 174 126 112
0.147638 -0.18181 -0.46 162 114 100
0.172168 -0.186552 -0.472 123 82 78
0.174703 -0.187343 -0.474 121 82 77
0.175606 -0.187343 -0.474 119 81 78
0.20729 -0.199595 -0.505 91 64 69
0.2117 -0.201967 -0.511 89 62 67
0.268852 -0.220938 -0.559 82 61 68
0.275945 -0.218962 -0.554 89 66 72
0.290148 -0.215405 -0.545 114 89 95
0.291648 -0.214219 -0.542 117 92 98
0.29722 -0.213033 -0.539 121 94 103
0.303277 -0.212243 -0.537 121 94 101
0.306796 -0.211848 -0.536 120 93 100
0.320524 -0.209476 -0.53 131 104 113
0.33113 -0.207895 -0.526 132 104 116
0.437061 -0.212638 -0.538 134 86 76
0.45708 -0.2158 -0.546 142 98 87
-0.161307 -0.25576 -0.644 189 189 179
-0.0650152 -0.253377 -0.638 67 67 77
0.110746 -0.185466 -0.467 200 154 138
0.112929 -0.184671 -0.465 199 153 137
0.144694 -0.182289 -0.459 172 124 110
0.149715 -0.183083 -0.461 153 106 96
0.15356 -0.18348 -0.462 145 98 90
0.160215 -0.185069 -0.466 136 91 85
0.167857 -0.186657 -0.47 124 84 76
0.169111 -0.187054 -0.471 124 84 76
0.17037 -0.187451 -0.472 124 84 76
0.25192 -0.223989 -0.564 87 66 75
0.25497 -0.224783 -0.566 86 65 72
0.271073 -0.221209 -0.557 85 64 69
0.28652 -0.21684 -0.546 111 86 92
0.291151 -0.215649 -0.543 117 92 98
0.291648 -0.215251 -0.542 118 93 99
0.296743 -0.214457 -0.54 120 93 102
0.334135 -0.208897 -0.526 138 111 120
0.335137 -0.208897 -0.526 132 104 116
0.338143 -0.208897 -0.526 134 112 124
0.346816 -0.209294 -0.527 135 112 122
0.408351 -0.218031 -0.549 166 113 109
0.408651 -0.217634 -0.548 168 115 111
0.437061 -0.213663 -0.538 133 83 74
0.438086 -0.213663 -0.538 140 90 81
-0.324369 -0.254991 -0.639 250 252 247
-0.318208 -0.252996 -0.634 251 253 248
-0.279566 -0.258583 -0.648 252 252 250
-0.0460714 -0.257386 -0.645 73 71 82
0.128083 -0.183163 -0.459 198 151 135
0.144694 -0.183163 -0.459 170 122 108
0.176347 -0.189947 -0.476 119 82 76
0.179819 -0.190745 -0.478 113 78 74
0.18202 -0.191144 -0.479 111 76 72
0.19713 -0.19713 -0.494 93 66 71
0.207554 -0.202716 -0.508 92 67 73
0.248697 -0.225063 -0.564 89 68 75
0.263403 -0.223866 -0.561 83 64 68
0.271073 -0.22227 -0.557 86 65 70
0.273764 -0.22187 -0.556 87 66 71
0.281797 -0.219875 -0.551 98 75 83
0.29317 -0.215885 -0.541 120 95 101
0.299273 -0.215087 -0.539 119 92 101
0.301327 -0.215087 -0.539 118 91 98
0.335137 -0.209899 -0.526 127 101 110
0.354474 -0.213091 -0.534 57 46 54
0.455707 -0.256987 -0.644 90 87 106
0.411943 -0.215486 -0.54 153 100 96
0.412971 -0.215486 -0.54 152 99 95
0.425789 -0.214688 -0.538 144 91 83
0.444857 -0.215486 -0.54 139 92 82
0.449602 -0.216284 -0.542 134 87 79
0.45708 -0.21788 -0.546 137 90 80
-0.319415 -0.254204 -0.634 252 254 249
-0.279566 -0.259817 -0.648 252 252 250
-0.165439 -0.25701 -0.641 189 187 174
-0.161776 -0.25701 -0.641 190 188 176
-0.0550333 -0.254605 -0.635 67 67 79
0.107436 -0.18925 -0.472 198 157 137
0.107647 -0.188047 -0.469 199 156 140
0.112686 -0.186042 -0.464 196 153 136
0.128676 -0.183636 -0.458 197 150 134
0.130421 -0.183636 -0.458 195 148 132
0.1374 -0.183636 -0.458 179 132 114
0.14089 -0.183636 -0.458 176 128 114
0.166067 -0.188448 -0.47 125 82 75
0.174167 -0.190452 -0.475 120 83 77
0.1824 -0.192457 -0.48 109 76 71
0.240933 -0.22293 -0.556 96 75 82
0.25587 -0.227741 -0.568 85 64 71
0.267788 -0.224132 -0.559 84 65 69
0.310737 -0.214109 -0.534 125 98 105
0.321533 -0.212505 -0.53 133 106 115
0.35882 -0.216113 -0.539 58 55 66
0.407433 -0.238567 -0.595 88 88 112
0.410567 -0.218519 -0.545 162 108 106
0.426813 -0.215712 -0.538 143 93 86
0.462729 -0.220123 -0.549 138 94 83
-0.16666 -0.258231 -0.641 189 187 175
-0.0773809 -0.261857 -0.65 64 63 69
-0.0726467 -0.258231 -0.641 67 65 78
-0.0572714 -0.255009 -0.633 67 67 79
0.122494 -0.185717 -0.461 198 153 134
0.12546 -0.184911 -0.459 199 152 136
0.126334 -0.184911 -0.459 200 153 137
0.142634 -0.184509 -0.458 165 119 104
0.15268 -0.18612 -0.462 140 96 87
0.165171 -0.189343 -0.47 125 84 78
0.17073 -0.190551 -0.473 126 86 78
0.17544 -0.19176 -0.476 118 81 75
0.180195 -0.192969 -0.479 113 80 75
0.251986 -0.229226 -0.569 87 66 75
0.289615 -0.219154 -0.544 115 89 98
0.298247 -0.21714 -0.539 119 92 101
0.299273 -0.21714 -0.539 118 91 100
0.301792 -0.216737 -0.538 121 94 103
0.310737 -0.215126 -0.534 129 102 111
0.311754 -0.215126 -0.534 129 102 111
0.316667 -0.21432 -0.532 128 101 110
0.331759 -0.212306 -0.527 129 103 112
0.334135 -0.211903 -0.526 135 109 118
0.347474 -0.212709 -0.528 130 109 118
0.419119 -0.244534 -0.607 112 112 138
0.427838 -0.216737 -0.538 144 94 85
0.45812 -0.21996 -0.546 135 88 78
0.470109 -0.223183 -0.554 133 89 80
0.484824 -0.227614 -0.565 128 84 75
0.48848 -0.228823 -0.568 129 87 75
-0.31871 -0.257024 -0.635 253 255 249
0.116852 -0.187405 -0.463 195 149 133
0.131877 -0.184976 -0.457 187 139 119
0.173627 -0.192667 -0.476 121 80 76
0.180571 -0.194286 -0.48 113 78 76
0.181864 -0.19469 -0.481 111 76 74
0.258034 -0.229905 -0.568 89 64 68
0.27911 -0.224238 -0.554 93 70 76
0.282333 -0.222619 -0.55 99 73 82
0.289615 -0.22019 -0.544 117 91 100
0.296743 -0.218571 -0.54 120 93 100
0.3043 -0.217357 -0.537 121 96 102
0.312186 -0.215738 -0.533 133 106 113
0.313201 -0.215738 -0.533 133 106 113
0.31768 -0.215333 -0.532 131 104 111
0.318693 -0.215333 -0.532 133 106 113
0.332131 -0.212905 -0.526 128 102 113
0.394527 -0.235167 -0.581 91 90 108
0.399719 -0.237595 -0.587 92 91 109
0.423737 -0.247714 -0.612 89 88 106
0.447623 -0.257429 -0.636 89 86 107
0.415029 -0.218571 -0.54 153 95 91
0.450634 -0.219381 -0.542 134 87 79
0.455406 -0.22019 -0.544 129 85 76
0.472014 -0.224643 -0.555 132 88 79
0.476691 -0.225857 -0.558 131 87 78
0.479467 -0.226667 -0.56 130 86 77
0.483108 -0.227881 -0.563 130 86 77
-0.172882 -0.262707 -0.646 189 189 181
-0.0745029 -0.25864 -0.636 67 65 78
-0.0642 -0.2562 -0.63 66 66 76
0.104739 -0.191947 -0.472 203 157 141
0.106729 -0.1891 -0.465 196 153 136
0.155443 -0.1891 -0.465 138 93 87
0.156329 -0.1891 -0.465 134 91 84
0.182242 -0.196013 -0.482 105 73 74
0.210653 -0.210653 -0.518 77 60 70
0.25974 -0.23058 -0.567 89 66 72
0.29317 -0.220007 -0.541 118 92 101
0.3003 -0.219193 -0.539 120 93 100
0.3103 -0.217567 -0.535 127 100 109
0.334135 -0.213907 -0.526 127 104 114
0.336139 -0.213907 -0.526 171 148 158
0.416586 -0.246033 -0.605 112 110 131
0.43303 -0.252947 -0.622 90 87 106
0.425553 -0.219193 -0.539 148 95 87
0.443007 -0.219193 -0.539 136 87 80
-0.331406 -0.264754 -0.648 252 253 248
-0.318 -0.259851 -0.636 255 255 251
-0.167881 -0.261894 -0.641 191 189 177
-0.16666 -0.261894 -0.641 191 189 177
-0.158361 -0.264346 -0.647 196 193 184
-0.0834429 -0.265163 -0.649 70 69 75
-0.0540781 -0.260669 -0.638 69 69 81
-0.0472267 -0.26312 -0.644 70 70 80
-0.0449819 -0.264346 -0.647 70 70 80
0.105843 -0.189986 -0.465 202 155 137
0.133326 -0.186309 -0.456 189 141 121
0.17272 -0.19448 -0.476 124 85 80
0.180406 -0.196931 -0.482 103 77 78
0.189 -0.2002 -0.49 95 73 75
0.258573 -0.23452 -0.574 82 65 75
0.266013 -0.229617 -0.562 87 64 72
0.267677 -0.229209 -0.561 88 67 74
0.268746 -0.229209 -0.561 88 67 74
0.2704 -0.2288 -0.56 88 67 74
0.283381 -0.224714 -0.55 110 84 93
0.289615 -0.222263 -0.544 117 91 100
0.301327 -0.22022 -0.539 120 93 100
0.304867 -0.219811 -0.538 121 96 102
0.307817 -0.218994 -0.536 122 97 103
0.312771 -0.218177 -0.534 130 103 112
0.324957 -0.216134 -0.529 132 105 112
0.3385 -0.2145 -0.525 206 185 192
0.414 -0.220629 -0.54 149 94 91
0.42042 -0.22022 -0.539 148 93 86
0.439927 -0.22022 -0.539 139 89 80
0.44506 -0.22022 -0.539 140 92 82
-0.314366 -0.261063 -0.636 254 255 250
-0.284855 -0.265168 -0.646 186 186 184
0.1122 -0.18964 -0.462 202 156 140
0.139711 -0.187588 -0.457 175 127 113
0.155443 -0.190871 -0.465 134 91 82
0.168028 -0.194155 -0.473 126 83 77
0.197453 -0.206059 -0.502 89 66 72
0.270883 -0.230277 -0.561 87 66 71
0.2775 -0.227814 -0.555 93 70 76
0.289615 -0.223299 -0.544 118 91 100
0.31464 -0.218373 -0.532 135 108 117
0.318693 -0.218373 -0.532 136 109 118
0.323552 -0.217552 -0.53 133 106 113
0.346469 -0.216731 -0.528 136 110 121
0.397922 -0.240539 -0.586 101 102 120
0.4063 -0.244233 -0.595 103 102 120
0.42119 -0.25039 -0.61 99 96 115
0.424764 -0.220836 -0.538 158 103 96
0.45916 -0.22412 -0.546 136 89 81
0.474129 -0.227814 -0.555 132 88 79
-0.163962 -0.263924 -0.64 190 190 180
-0.0849886 -0.264749 -0.642 70 67 74
-0.0427143 -0.268048 -0.65 73 73 83
0.102042 -0.194644 -0.472 203 161 147
0.10363 -0.192582 -0.467 201 158 142
0.10868 -0.19052 -0.462 201 158 141
0.116348 -0.190108 -0.461 203 158 139
0.124043 -0.188458 -0.457 202 155 137
0.160011 -0.192994 -0.468 127 87 79
0.163729 -0.194231 -0.471 124 86 77
0.165874 -0.194644 -0.472 123 85 76
0.170548 -0.195881 -0.475 123 82 78
0.171813 -0.196293 -0.476 123 82 78
0.173083 -0.196706 -0.477 121 82 77
0.182452 -0.200005 -0.485 96 74 76
0.265457 -0.235057 -0.57 87 67 76
0.279614 -0.228871 -0.555 95 72 78
0.280713 -0.228047 -0.553 96 73 79
0.284957 -0.226397 -0.549 112 86 95
0.295231 -0.223098 -0.541 121 94 103
0.318693 -0.219387 -0.532 136 109 118
0.323552 -0.218562 -0.53 134 107 114
0.34215 -0.216912 -0.526 139 112 121
0.39928 -0.24248 -0.588 118 117 135
0.429763 -0.255264 -0.619 87 82 102
0.420665 -0.221861 -0.538 153 100 94
0.456442 -0.224335 -0.544 135 88 80
0.46293 -0.225985 -0.548 136 89 81
0.476042 -0.229284 -0.556 129 85 76
-0.305632 -0.264314 -0.638 251 253 248
-0.297591 -0.264729 -0.639 248 250 247
-0.287653 -0.2668 -0.644 250 250 248
-0.0771543 -0.260171 -0.628 53 53 65
-0.072139 -0.259343 -0.626 65 68 77
0.102042 -0.195543 -0.472 203 161 147
0.1078 -0.1914 -0.462 203 160 143
0.152457 -0.192229 -0.464 137 94 87
0.160353 -0.1943 -0.469 127 87 79
0.173446 -0.198029 -0.478 115 80 76
0.2668 -0.240286 -0.58 89 69 80
0.267786 -0.238214 -0.575 86 66 77
0.281767 -0.2291 -0.553 98 75 83
0.28336 -0.228686 -0.552 107 81 90
0.285482 -0.227029 -0.548 114 88 97
0.312771 -0.221229 -0.534 133 106 115
0.315653 -0.2204 -0.532 136 109 118
0.323552 -0.219571 -0.53 134 107 114
0.347125 -0.219157 -0.529 111 90 99
0.435119 -0.258929 -0.625 86 81 101
0.446411 -0.263486 -0.636 108 104 121
0.439927 -0.2233 -0.539 141 93 83
0.449803 -0.224129 -0.541 139 92 84
-0.32395 -0.26761 -0.643 252 253 247
-0.30758 -0.265113 -0.637 251 254 247
-0.283706 -0.270108 -0.649 159 159 157
-0.0931886 -0.269691 -0.648 94 93 99
-0.07942 -0.260951 -0.627 69 69 79
-0.0782257 -0.260951 -0.627 68 68 78
-0.0461429 -0.268859 -0.646 70 70 80
0.111079 -0.191864 -0.461 205 159 143
0.11259 -0.191448 -0.46 205 159 143
0.116095 -0.191448 -0.46 207 162 143
0.11908 -0.190615 -0.458 204 157 139
0.128114 -0.189783 -0.456 195 147 127
0.15912 -0.194777 -0.468 129 88 84
0.192471 -0.207679 -0.499 91 72 78
0.279561 -0.231818 -0.557 96 73 83
0.297292 -0.225159 -0.541 121 94 103
0.322543 -0.220581 -0.53 131 104 113
0.325965 -0.220165 -0.529 134 106 118
0.32736 -0.219749 -0.528 131 105 116
0.427199 -0.25679 -0.617 78 73 93
0.447113 -0.265113 -0.637 91 87 104
0.41236 -0.22724 -0.546 149 98 94
0.419393 -0.224327 -0.539 152 97 94
0.42042 -0.224327 -0.539 150 97 93
0.424764 -0.22391 -0.538 155 102 98
0.431713 -0.224327 -0.539 132 84 74
0.443007 -0.224327 -0.539 138 91 81
0.449803 -0.225159 -0.541 136 89 81
0.466714 -0.228905 -0.55 139 95 86
0.486325 -0.234315 -0.563 135 91 82
0.492808 -0.236396 -0.568 131 84 76
-0.322725 -0.268835 -0.643 252 253 247
-0.30246 -0.267163 -0.639 251 253 248
-0.157867 -0.267581 -0.64 195 195 183
-0.05538 -0.267163 -0.639 67 70 79
-0.0485286 -0.269671 -0.645 66 69 76
0.117591 -0.191906 -0.459 206 159 141
0.11969 -0.19107 -0.457 202 156 140
0.125233 -0.190233 -0.455 201 154 136
0.1287 -0.190233 -0.455 193 147 124
0.143507 -0.191488 -0.458 149 102 92
0.147081 -0.192742 -0.461 142 95 87
0.150365 -0.193578 -0.463 140 95 90
0.157001 -0.19525 -0.467 134 90 87
0.193629 -0.209884 -0.502 89 72 78
0.275345 -0.237478 -0.568 87 65 77
0.277294 -0.234551 -0.561 94 70 83
0.282786 -0.232043 -0.555 101 77 90
0.285463 -0.230789 -0.552 111 85 94
0.28757 -0.229116 -0.548 117 91 100
0.291151 -0.227026 -0.543 122 96 105
0.297292 -0.22619 -0.541 122 95 104
0.306346 -0.224517 -0.537 129 103 112
0.314216 -0.222845 -0.533 135 108 117
0.31768 -0.222427 -0.532 137 110 119
0.325571 -0.22159 -0.53 131 103 115
0.330755 -0.220336 -0.527 134 110 123
0.423262 -0.256292 -0.613 85 81 98
0.410794 -0.233297 -0.558 148 99 95
0.412073 -0.228698 -0.547 146 97 92
0.49194 -0.23706 -0.567 135 86 81
-0.326469 -0.27216 -0.648 252 253 248
-0.32423 -0.27132 -0.646 252 253 248
-0.3215 -0.27006 -0.643 252 253 248
-0.287761 -0.27174 -0.647 251 251 249
-0.14919 -0.273 -0.65 193 193 183
-0.100905 -0.273 -0.65 188 187 185
-0.0853914 -0.26334 -0.627 71 69 80
-0.0644038 -0.26544 -0.632 67 67 77
-0.0599657 -0.26712 -0.636 68 68 78
-0.0577238 -0.26796 -0.638 68 71 80
-0.0565971 -0.26838 -0.639 68 71 80
-0.04968 -0.27048 -0.644 67 70 79
-0.0485286 -0.2709 -0.645 68 71 78
0.104932 -0.19362 -0.461 208 161 145
0.109962 -0.1932 -0.46 205 162 143
0.123771 -0.19152 -0.456 205 158 140
0.1261 -0.1911 -0.455 201 154 134
0.152786 -0.1953 -0.465 137 92 86
0.174171 -0.2016 -0.48 107 75 76
0.183026 -0.20538 -0.489 86 65 62
0.283295 -0.23352 -0.556 96 78 92
0.283843 -0.2331 -0.555 100 82 96
0.291186 -0.2289 -0.545 123 95 107
0.29322 -0.22806 -0.543 127 97 109
0.305891 -0.22596 -0.538 125 99 108
0.324562 -0.2226 -0.53 131 103 115
0.35508 -0.22596 -0.538 53 43 52
0.43254 -0.26166 -0.623 93 88 108
0.416371 -0.2394 -0.57 130 99 97
0.410794 -0.23436 -0.558 149 101 97
0.41236 -0.22932 -0.546 146 97 92
0.417086 -0.2268 -0.54 149 98 94
0.418114 -0.2268 -0.54 149 98 94
0.419143 -0.2268 -0.54 149 98 94
0.4389 -0.22638 -0.539 140 90 81
0.465866 -0.23058 -0.549 139 92 84
-0.315124 -0.270019 -0.64 252 253 248
-0.310493 -0.269175 -0.638 253 254 248
-0.29256 -0.271707 -0.644 254 255 251
-0.291333 -0.271707 -0.644 253 255 250
-0.162489 -0.269597 -0.639 211 211 203
-0.150733 -0.27255 -0.646 196 196 184
-0.0891162 -0.264956 -0.628 71 69 80
0.0993943 -0.197451 -0.468 202 166 150
0.0996429 -0.196186 -0.465 203 166 150
0.100312 -0.195764 -0.464 203 166 150
0.100978 -0.195342 -0.463 204 161 144
0.1287 -0.191967 -0.455 191 144 124
0.1339 -0.191967 -0.455 179 132 114
0.174534 -0.202936 -0.481 104 74 74
0.280657 -0.240486 -0.57 86 66 78
0.283295 -0.234579 -0.556 96 78 92
0.3043 -0.226563 -0.537 127 101 112
0.307817 -0.226141 -0.536 129 103 114
0.323552 -0.22361 -0.53 132 102 114
0.328988 -0.223188 -0.529 134 108 121
0.397483 -0.247658 -0.587 106 102 117
0.41612 -0.255674 -0.606 120 116 131
0.418929 -0.242595 -0.575 136 102 101
0.41491 -0.239642 -0.568 135 101 100
0.411489 -0.231626 -0.549 147 98 94
0.414994 -0.229516 -0.544 143 92 88
0.418114 -0.227829 -0.54 149 98 94
0.4235 -0.227407 -0.539 148 98 91
0.42966 -0.227407 -0.539 139 89 80
0.456442 -0.229516 -0.544 135 87 77
0.467762 -0.232048 -0.55 140 93 85
0.4773 -0.234157 -0.555 130 86 77
-0.314886 -0.272086 -0.642 252 253 248
-0.313174 -0.271662 -0.641 252 253 247
-0.30781 -0.271238 -0.64 251 252 246
-0.292238 -0.273781 -0.646 250 252 247
-0.159303 -0.269543 -0.636 193 193 183
-0.155429 -0.271238 -0.64 198 198 186
-0.152246 -0.272086 -0.642 200 200 190
-0.150267 -0.272933 -0.644 197 197 185
-0.148272 -0.273781 -0.646 195 196 182
-0.09752 -0.269543 -0.636 77 76 82
-0.0847105 -0.26361 -0.622 72 70 81
-0.0835257 -0.26361 -0.622 71 69 80
-0.0752324 -0.26361 -0.622 71 71 81
-0.0599657 -0.269543 -0.636 68 68 78
-0.0497571 -0.273357 -0.645 71 71 81
0.102076 -0.194952 -0.46 204 161 144
0.120297 -0.193257 -0.456 207 164 145
0.121767 -0.192833 -0.455 204 161 142
0.135931 -0.193257 -0.456 163 117 102
0.142946 -0.194529 -0.459 140 96 85
0.144133 -0.194952 -0.46 138 94 85
0.284314 -0.236486 -0.558 104 77 86
0.285413 -0.235638 -0.556 105 82 88
0.301792 -0.22801 -0.538 126 98 110
0.305323 -0.227586 -0.537 128 100 112
0.308262 -0.226738 -0.535 129 101 113
0.314216 -0.22589 -0.533 135 107 119
0.329371 -0.223771 -0.528 135 109 122
0.335774 -0.223348 -0.527 153 131 143
0.348734 -0.22589 -0.533 67 50 60
0.360076 -0.230552 -0.544 45 43 54
0.364431 -0.232671 -0.549 75 73 84
0.39816 -0.2492 -0.588 100 97 114
0.420029 -0.258524 -0.61 105 101 118
0.420171 -0.228857 -0.54 146 97 92
0.4212 -0.228857 -0.54 147 98 91
0.449803 -0.229281 -0.541 130 82 72
0.462085 -0.231824 -0.547 135 88 78
0.472617 -0.233943 -0.552 137 93 82
0.490411 -0.239029 -0.564 137 93 84
-0.301147 -0.27416 -0.644 253 254 249
-0.2967 -0.274586 -0.645 252 254 251
-0.291909 -0.275863 -0.648 252 254 249
-0.290674 -0.275863 -0.648 254 255 251
-0.140524 -0.276714 -0.65 226 220 206
-0.10301 -0.272457 -0.64 75 73 78
-0.0994714 -0.269477 -0.633 68 67 73
-0.0762943 -0.264369 -0.621 69 69 79
-0.0622905 -0.270329 -0.635 69 69 79
-0.0588467 -0.27118 -0.637 68 68 78
-0.0450514 -0.275863 -0.648 67 70 77
0.0980819 -0.198383 -0.466 203 165 152
0.0987571 -0.197957 -0.465 203 165 152
0.108849 -0.195403 -0.459 203 161 145
0.111229 -0.194977 -0.458 205 162 146
0.142946 -0.195403 -0.459 138 94 83
0.145325 -0.196254 -0.461 135 91 82
0.156446 -0.199234 -0.468 129 86 77
0.165674 -0.201789 -0.474 114 81 74
0.193626 -0.215837 -0.507 97 81 82
0.284104 -0.245637 -0.577 81 60 75
0.285843 -0.238826 -0.561 107 77 87
0.288087 -0.23542 -0.553 117 89 101
0.288617 -0.234994 -0.552 118 90 102
0.305775 -0.228183 -0.536 129 101 113
0.322543 -0.225629 -0.53 127 99 111
0.38986 -0.246489 -0.579 110 107 124
0.42074 -0.246489 -0.579 123 100 106
0.444857 -0.229886 -0.54 142 92 85
0.451667 -0.230737 -0.542 136 87 80
-0.157843 -0.271538 -0.635 237 237 235
-0.139875 -0.27667 -0.647 227 221 209
-0.134127 -0.277525 -0.649 226 220 206
-0.129381 -0.277952 -0.65 227 225 210
-0.117874 -0.277097 -0.648 247 244 235
-0.108223 -0.274531 -0.642 120 118 119
-0.087981 -0.265124 -0.62 66 69 78
-0.0732143 -0.267262 -0.625 70 70 80
-0.0543324 -0.274104 -0.641 69 72 81
-0.0438848 -0.277525 -0.649 66 69 76
0.144133 -0.196705 -0.46 137 90 82
0.148601 -0.197988 -0.463 133 88 82
0.163177 -0.201836 -0.472 120 81 76
0.326354 -0.225783 -0.528 130 104 115
0.349389 -0.228349 -0.534 53 42 50
0.398837 -0.251868 -0.589 80 77 94
0.420171 -0.230914 -0.54 145 96 89
0.444857 -0.230914 -0.54 141 91 82
0.445886 -0.230914 -0.54 141 91 82
0.456442 -0.232625 -0.544 137 88 81
0.463127 -0.233908 -0.547 137 89 79
0.473473 -0.236473 -0.553 143 96 86
0.489542 -0.24075 -0.563 140 93 85
-0.305014 -0.277902 -0.647 253 253 251
-0.303017 -0.278331 -0.648 253 253 251
-0.147651 -0.274036 -0.638 197 197 185
-0.143462 -0.275325 -0.641 209 209 199
-0.133507 -0.277472 -0.646 228 222 210
-0.121202 -0.277472 -0.646 243 243 235
-0.0669171 -0.271889 -0.633 69 69 79
-0.0657114 -0.271889 -0.633 69 69 79
-0.058939 -0.274036 -0.638 69 69 79
-0.0578143 -0.274466 -0.639 68 71 80
0.0969267 -0.201447 -0.469 202 163 148
0.106867 -0.196722 -0.458 203 161 147
0.117691 -0.195863 -0.456 207 164 148
0.119167 -0.195433 -0.455 208 165 149
0.122364 -0.195004 -0.454 201 155 140
0.131011 -0.195004 -0.454 176 129 111
0.154332 -0.200588 -0.467 130 87 78
0.163523 -0.203165 -0.473 119 79 77
0.164771 -0.203594 -0.474 115 80 76
0.168893 -0.205312 -0.478 107 76 73
0.17342 -0.20746 -0.483 100 74 77
0.318094 -0.228077 -0.531 130 104 115
0.32214 -0.228077 -0.531 127 101 112
0.32736 -0.226789 -0.528 133 105 117
0.329371 -0.226789 -0.528 135 109 120
0.33979 -0.226359 -0.527 137 119 131
0.39569 -0.251701 -0.586 114 113 129
0.434623 -0.268882 -0.626 71 67 84
0.415286 -0.244829 -0.57 141 100 98
0.41345 -0.24311 -0.566 142 101 99
0.410794 -0.239674 -0.558 142 97 94
0.411327 -0.237527 -0.553 138 93 88
0.4356 -0.231943 -0.54 140 90 81
0.443829 -0.231943 -0.54 142 94 84
-0.154934 -0.273094 -0.633 244 244 246
-0.147933 -0.273526 -0.634 237 238 233
-0.14378 -0.27482 -0.637 229 224 218
-0.14279 -0.275251 -0.638 230 225 219
-0.134111 -0.277409 -0.643 244 241 236
-0.12412 -0.276977 -0.642 242 242 232
-0.102976 -0.269643 -0.625 75 73 86
0.0962381 -0.202771 -0.47 202 160 146
0.09812 -0.19932 -0.462 202 159 142
0.105122 -0.197594 -0.458 202 161 139
0.142071 -0.198026 -0.459 138 94 85
0.145325 -0.198889 -0.461 131 87 78
0.294819 -0.245051 -0.568 91 70 85
0.302353 -0.23254 -0.539 123 100 110
0.305891 -0.232109 -0.538 126 103 113
0.30972 -0.230383 -0.534 129 103 112
0.323552 -0.228657 -0.53 126 98 110
0.330377 -0.227794 -0.528 137 114 124
0.336139 -0.226931 -0.526 196 176 187
0.338786 -0.227363 -0.527 144 126 138
0.41108 -0.25972 -0.602 84 81 98
0.41238 -0.23858 -0.553 137 92 87
0.41548 -0.23556 -0.546 139 92 86
0.419663 -0.233834 -0.542 142 95 89
0.42966 -0.23254 -0.539 146 99 89
0.448772 -0.233403 -0.541 137 89 77
0.469857 -0.237286 -0.55 143 96 86
-0.146263 -0.273867 -0.632 250 250 248
-0.142119 -0.275167 -0.635 255 254 249
-0.0876971 -0.2678 -0.618 74 73 81
-0.0735657 -0.272133 -0.628 72 72 80
-0.0658152 -0.274733 -0.634 68 71 78
0.0963067 -0.201933 -0.466 202 160 144
0.107269 -0.1976 -0.456 205 162 146
0.109874 -0.1976 -0.456 206 163 147
0.124093 -0.196733 -0.454 185 142 125
0.1339 -0.197167 -0.455 153 107 94
0.153114 -0.201933 -0.466 131 88 79
0.161379 -0.204533 -0.472 119 79 77
0.1815 -0.2145 -0.495 88 73 76
0.297597 -0.2431 -0.561 98 78 89
0.298048 -0.238333 -0.55 121 100 107
0.348371 -0.2314 -0.534 59 46 53
0.427405 -0.268233 -0.619 82 81 99
0.456069 -0.2808 -0.648 69 66 87
0.420695 -0.234867 -0.542 142 95 89
0.452699 -0.234867 -0.542 136 90 77
0.469003 -0.2379 -0.549 144 97 87
0.471761 -0.238767 -0.551 144 97 87
-0.147965 -0.273765 -0.629 231 231 231
-0.1194 -0.2742 -0.63 71 70 75
-0.0845743 -0.270283 -0.621 74 74 82
0.10141 -0.198904 -0.457 206 164 150
0.124683 -0.197163 -0.453 179 137 115
0.135063 -0.198469 -0.456 145 99 84
0.149806 -0.20195 -0.464 132 88 79
0.168334 -0.208479 -0.479 100 79 78
0.30205 -0.23677 -0.544 126 100 111
0.306916 -0.234158 -0.538 127 101 112
0.337782 -0.22937 -0.527 137 124 133
0.35266 -0.234593 -0.539 46 35 43
0.408571 -0.261143 -0.6 97 94 111
0.446781 -0.278552 -0.64 68 65 86
0.411857 -0.242863 -0.558 136 92 89
0.417833 -0.237205 -0.545 132 87 81
0.440953 -0.234593 -0.539 145 97 85
0.456637 -0.236334 -0.543 138 92 79
0.475771 -0.240251 -0.552 142 95 85
0.507643 -0.250262 -0.575 141 98 89
-0.145106 -0.274089 -0.627 174 173 178
-0.140552 -0.274526 -0.628 186 188 187
-0.139356 -0.274526 -0.628 185 186 188
-0.135768 -0.274526 -0.628 169 170 172
-0.12859 -0.274526 -0.628 99 100 104
-0.12064 -0.272777 -0.624 73 72 80
-0.112599 -0.270591 -0.619 70 69 75
-0.106014 -0.268843 -0.615 71 70 76
-0.0792933 -0.273651 -0.626 73 73 81
-0.0438848 -0.283706 -0.649 68 71 80
0.0970295 -0.201523 -0.461 203 160 143
0.104022 -0.199774 -0.457 206 163 146
0.124683 -0.198026 -0.453 183 140 121
0.125546 -0.198026 -0.453 182 137 118
0.129282 -0.198463 -0.454 169 122 106
0.139145 -0.200211 -0.458 140 93 83
0.142381 -0.201086 -0.46 139 92 82
0.171935 -0.211577 -0.484 91 68 74
0.177228 -0.214637 -0.491 88 69 73
0.19449 -0.226003 -0.517 175 185 210
0.313201 -0.232997 -0.533 128 102 113
0.35266 -0.23562 -0.539 46 37 42
0.409252 -0.262723 -0.601 89 88 102
0.434793 -0.23562 -0.539 146 98 84
0.4389 -0.23562 -0.539 146 97 82
0.449803 -0.236494 -0.541 138 90 76
0.471952 -0.240429 -0.55 144 97 87
0.483455 -0.243051 -0.556 144 96 86
-0.158361 -0.284064 -0.647 121 122 124
-0.146067 -0.274844 -0.626 96 95 101
-0.120852 -0.27177 -0.619 72 71 79
-0.11169 -0.269575 -0.614 64 63 69
-0.11034 -0.269136 -0.613 64 63 69
-0.108994 -0.268697 -0.612 65 64 70
-0.0951609 -0.269136 -0.613 76 75 83
-0.0771543 -0.275722 -0.628 74 73 81
-0.0736829 -0.276161 -0.629 71 71 79
0.0956867 -0.203279 -0.463 202 161 143
0.0961514 -0.202401 -0.461 202 161 143
0.102926 -0.200206 -0.456 206 163 146
0.124683 -0.198889 -0.453 183 140 121
0.129282 -0.199328 -0.454 164 117 101
0.133326 -0.200206 -0.456 147 100 90
0.13623 -0.200645 -0.457 144 98 85
0.154332 -0.205035 -0.467 129 85 76
0.306666 -0.238403 -0.543 124 98 109
0.319707 -0.233573 -0.532 132 106 117
0.336778 -0.231378 -0.527 151 134 144
0.341079 -0.232256 -0.529 136 119 129
0.358662 -0.239281 -0.545 43 36 43
0.4536 -0.284503 -0.648 69 65 82
0.41554 -0.242793 -0.553 134 89 84
0.423792 -0.237964 -0.542 140 93 83
0.466252 -0.240159 -0.547 136 88 76
-0.133822 -0.27295 -0.619 86 87 91
-0.118707 -0.270745 -0.614 66 65 73
-0.0738 -0.2778 -0.63 73 72 80
-0.0715133 -0.278241 -0.631 72 71 77
-0.0660229 -0.280446 -0.636 73 72 78
-0.0648114 -0.280446 -0.636 73 72 78
-0.0510648 -0.284855 -0.646 67 66 74
0.102926 -0.201074 -0.456 207 164 147
0.1053 -0.200633 -0.455 208 165 148
0.11631 -0.200192 -0.454 203 160 143
0.11778 -0.199751 -0.453 200 157 140
0.122957 -0.199751 -0.453 187 144 127
0.125546 -0.199751 -0.453 181 136 117
0.127271 -0.199751 -0.453 172 127 108
0.16048 -0.20813 -0.472 111 79 80
0.176292 -0.216508 -0.491 90 75 80
0.195619 -0.229295 -0.52 220 228 249
0.317262 -0.235028 -0.533 131 105 116
0.324562 -0.233705 -0.53 128 105 113
0.497738 -0.249138 -0.565 145 92 86
-0.122983 -0.271029 -0.612 56 56 64
-0.0941467 -0.271914 -0.614 77 76 82
-0.0782257 -0.277671 -0.627 74 73 79
-0.0704229 -0.279886 -0.632 72 71 77
-0.0591238 -0.283429 -0.64 72 71 79
-0.045121 -0.287414 -0.649 75 74 82
0.0948048 -0.205043 -0.463 199 161 140
0.0972705 -0.202829 -0.458 201 160 140
0.116054 -0.200614 -0.453 202 161 141
0.118643 -0.200614 -0.453 199 158 138
0.121231 -0.200614 -0.453 193 152 132
0.1313 -0.2015 -0.455 153 106 88
0.135359 -0.202386 -0.457 150 104 91
0.310054 -0.243129 -0.549 122 99 107
0.311263 -0.240029 -0.542 127 100 109
0.313943 -0.237371 -0.536 124 101 111
0.319292 -0.236043 -0.533 132 106 117
0.321129 -0.235157 -0.531 132 106 117
0.323151 -0.235157 -0.531 131 108 116
0.325571 -0.234714 -0.53 129 106 114
0.32798 -0.234271 -0.529 128 105 113
0.331383 -0.233829 -0.528 127 106 115
0.358936 -0.242243 -0.547 44 34 42
0.404254 -0.264386 -0.597 115 111 126
0.407429 -0.265714 -0.6 88 84 99
0.419759 -0.271471 -0.613 68 64 81
0.440871 -0.281214 -0.635 80 72 93
0.45097 -0.286086 -0.646 69 61 82
0.414548 -0.254643 -0.575 137 93 90
0.411643 -0.250214 -0.565 141 97 94
0.412595 -0.247557 -0.559 136 91 88
0.421986 -0.241357 -0.545 139 92 84
0.427132 -0.239586 -0.541 141 92 85
0.429193 -0.239586 -0.541 144 94 85
0.430457 -0.239143 -0.54 147 97 88
0.449803 -0.239586 -0.541 137 88 74
0.457671 -0.240471 -0.543 140 92 78
0.460587 -0.240914 -0.544 138 90 76
0.467294 -0.242243 -0.547 137 89 77
0.482771 -0.245343 -0.554 141 92 85
0.490323 -0.247557 -0.559 142 92 85
-0.151023 -0.285537 -0.642 107 108 112
-0.142034 -0.277531 -0.624 98 99 104
-0.138762 -0.275752 -0.62 97 96 102
-0.126067 -0.271305 -0.61 58 58 66
-0.1247 -0.27086 -0.609 56 56 64
-0.0603429 -0.284648 -0.64 70 70 78
0.0979286 -0.203256 -0.457 204 163 141
0.108528 -0.201922 -0.454 206 165 143
0.111122 -0.201922 -0.454 206 165 143
0.11778 -0.201477 -0.453 199 158 136
0.120369 -0.201477 -0.453 196 155 135
0.155887 -0.208593 -0.469 117 84 77
0.162063 -0.210817 -0.474 107 79 78
0.190425 -0.228608 -0.514 201 206 238
0.321733 -0.236613 -0.532 133 107 118
0.32214 -0.236169 -0.531 132 106 117
0.328988 -0.235279 -0.529 130 107 117
0.351633 -0.239727 -0.539 47 35 39
0.388324 -0.257962 -0.58 75 74 90
0.425047 -0.275308 -0.619 75 70 90
0.412751 -0.253959 -0.571 143 98 95
0.4847 -0.246843 -0.555 141 94 84
0.495095 -0.249956 -0.562 148 91 84
-0.126394 -0.27068 -0.606 69 70 74
-0.122526 -0.269787 -0.604 72 73 78
-0.119827 -0.268893 -0.602 73 74 79
-0.0944533 -0.275147 -0.616 74 75 80
-0.07174 -0.28274 -0.633 71 71 79
0.0929552 -0.208593 -0.467 198 160 141
0.0934429 -0.2077 -0.465 199 161 142
0.103339 -0.202787 -0.454 205 167 146
0.109151 -0.20234 -0.453 205 164 144
0.113466 -0.20234 -0.453 205 163 141
0.3157 -0.240753 -0.539 128 105 115
0.320308 -0.238073 -0.533 133 107 118
0.321733 -0.237627 -0.532 133 107 118
0.45783 -0.288993 -0.647 71 63 84
0.411665 -0.253707 -0.568 141 97 98
0.415363 -0.248793 -0.557 134 89 84
0.419854 -0.24522 -0.549 127 80 74
0.430224 -0.241647 -0.541 144 96 86
0.432514 -0.2412 -0.54 151 101 92
0.438686 -0.2412 -0.54 147 97 86
0.44198 -0.240753 -0.539 144 95 81
0.447943 -0.2412 -0.54 133 84 70
0.462471 -0.243433 -0.545 138 90 78
0.5054 -0.2546 -0.57 145 96 91
-0.141749 -0.281703 -0.628 108 107 112
-0.100175 -0.272731 -0.608 68 69 74
-0.0650152 -0.286189 -0.638 71 71 79
-0.0534429 -0.289329 -0.645 134 133 141
0.0968457 -0.204549 -0.456 202 163 146
0.110877 -0.203203 -0.453 206 165 145
0.114329 -0.203203 -0.453 204 161 142
0.115798 -0.202754 -0.452 200 158 136
0.127271 -0.203203 -0.453 168 122 106
0.129282 -0.203651 -0.454 161 114 98
0.17278 -0.219351 -0.489 92 71 78
0.319643 -0.240883 -0.537 133 110 120
0.322338 -0.239089 -0.533 133 107 118
0.329995 -0.237294 -0.529 129 106 116
0.344027 -0.23864 -0.532 110 89 96
0.350607 -0.24178 -0.539 51 34 40
0.413338 -0.272283 -0.607 60 59 77
0.435 -0.2826 -0.63 79 74 94
0.458714 -0.291571 -0.65 71 62 83
0.411258 -0.252546 -0.563 134 94 94
0.413003 -0.251649 -0.561 131 86 81
0.419457 -0.248509 -0.554 127 80 74
0.422221 -0.245817 -0.548 128 83 78
0.4238 -0.24492 -0.546 134 87 79
0.438686 -0.242229 -0.54 148 98 89
0.445886 -0.242229 -0.54 138 86 75
0.457671 -0.243574 -0.543 146 96 87
-0.124 -0.270286 -0.6 65 64 72
-0.085119 -0.281548 -0.625 75 75 83
-0.073061 -0.285602 -0.634 72 72 80
-0.0558133 -0.290107 -0.644 78 78 86
-0.0488295 -0.292359 -0.649 73 72 80
0.0925571 -0.209471 -0.465 200 159 141
0.0961876 -0.205868 -0.457 202 161 141
0.10891 -0.203615 -0.452 205 164 146
0.120964 -0.203615 -0.452 188 147 127
0.125269 -0.203615 -0.452 168 122 106
0.134489 -0.205868 -0.457 155 108 90
0.140934 -0.20767 -0.461 150 102 88
0.151339 -0.209922 -0.466 133 89 86
0.152553 -0.210372 -0.467 131 87 84
0.178214 -0.224788 -0.499 106 85 92
0.326581 -0.238752 -0.53 133 107 118
0.329995 -0.238302 -0.529 127 104 114
0.333767 -0.237401 -0.527 194 177 187
0.343013 -0.239653 -0.532 137 116 123
0.36762 -0.250915 -0.557 44 37 44
0.427107 -0.280196 -0.622 64 59 79
0.446258 -0.288755 -0.641 73 68 90
0.4515 -0.290557 -0.645 67 59 80
0.4144 -0.252267 -0.56 128 83 78
0.423534 -0.24641 -0.547 131 84 78
0.426138 -0.24551 -0.545 136 87 82
0.434571 -0.243257 -0.54 153 103 92
0.450833 -0.243708 -0.541 148 95 87
-0.118632 -0.269619 -0.596 60 60 68
-0.117103 -0.268714 -0.594 62 62 70
-0.115971 -0.268714 -0.594 65 66 71
-0.11484 -0.268714 -0.594 67 68 73
-0.108779 -0.270524 -0.598 63 64 69
-0.0523762 -0.29269 -0.647 72 72 80
0.131589 -0.206286 -0.456 160 113 97
0.14388 -0.209 -0.462 149 101 89
0.154663 -0.211714 -0.468 125 84 82
0.158682 -0.213524 -0.472 107 82 78
0.32396 -0.247 -0.546 131 107 120
0.338056 -0.23931 -0.529 134 113 118
0.377044 -0.256952 -0.568 83 75 86
0.399287 -0.268262 -0.593 85 83 105
0.403117 -0.270071 -0.597 78 76 98
