ply
format ascii 1.0
comment Created by Open3D
element vertex 1302
property double x
property double y
property double z
property uchar red
property uchar green
property uchar blue
end_header
-0.143794 -0.231429 -0.648 188 188 178
0.128871 -0.173214 -0.485 184 124 114
0.132567 -0.173214 -0.485 191 132 124
0.139429 -0.171429 -0.48 199 144 139
0.192648 -0.185714 -0.52 101 61 69
0.1965 -0.1875 -0.525 100 60 68
0.215405 -0.194643 -0.545 103 61 71
0.219077 -0.196071 -0.549 161 108 126
0.253514 -0.203571 -0.57 119 83 87
0.250449 -0.196071 -0.549 121 84 91
0.255421 -0.194286 -0.544 125 90 96
0.263829 -0.192857 -0.54 127 93 94
0.29763 -0.188214 -0.527 185 175 183
0.304918 -0.187143 -0.524 140 123 129
0.306329 -0.186786 -0.523 128 109 115
0.323133 -0.185 -0.518 138 108 116
0.412814 -0.198214 -0.555 122 85 93
0.404269 -0.192143 -0.538 169 114 111
0.403297 -0.190714 -0.534 173 118 115
0.403813 -0.19 -0.532 169 114 109
0.406089 -0.189643 -0.531 160 111 104
0.425306 -0.189643 -0.531 144 89 82
0.452894 -0.193214 -0.541 147 96 92
0.456637 -0.193929 -0.543 153 104 99
-0.29593 -0.231945 -0.646 248 249 244
0.112914 -0.172343 -0.48 197 145 132
0.113829 -0.172343 -0.48 196 144 131
0.115657 -0.172343 -0.48 199 145 133
0.140374 -0.171266 -0.477 196 139 132
0.14552 -0.170907 -0.476 182 125 116
0.147643 -0.171266 -0.477 179 122 111
0.182396 -0.182396 -0.508 96 55 61
0.219875 -0.197835 -0.551 164 113 128
0.251036 -0.196758 -0.548 122 86 90
0.26642 -0.193527 -0.539 128 93 97
0.268473 -0.193527 -0.539 126 91 95
0.273105 -0.19245 -0.536 131 96 100
0.277147 -0.191013 -0.532 143 114 118
0.283645 -0.189936 -0.529 134 109 113
0.295622 -0.189218 -0.527 132 113 119
0.302922 -0.188141 -0.524 139 116 124
0.316837 -0.186346 -0.519 139 109 117
0.317826 -0.186346 -0.519 139 109 117
0.337603 -0.184191 -0.513 132 111 118
0.343466 -0.184191 -0.513 136 106 118
0.404314 -0.191731 -0.534 170 115 110
0.404572 -0.191372 -0.533 169 114 109
0.408111 -0.190654 -0.531 160 107 103
0.411146 -0.190654 -0.531 152 99 95
0.412157 -0.190654 -0.531 149 96 92
0.425306 -0.190654 -0.531 142 89 83
0.453925 -0.194245 -0.541 149 100 95
0.480323 -0.201426 -0.561 139 91 87
-0.304827 -0.232453 -0.644 251 252 246
-0.3036 -0.232453 -0.644 252 253 248
-0.290557 -0.232814 -0.645 250 251 246
-0.289777 -0.233175 -0.646 248 249 244
-0.288993 -0.233536 -0.647 252 253 248
-0.153487 -0.229927 -0.637 183 183 173
0.101562 -0.179032 -0.496 200 146 136
0.103217 -0.175423 -0.486 197 145 132
0.124402 -0.173979 -0.482 185 127 116
0.12742 -0.17434 -0.483 186 127 119
0.143405 -0.171452 -0.475 186 127 119
0.174412 -0.180115 -0.499 113 68 71
0.176066 -0.180837 -0.501 108 66 70
0.192026 -0.188056 -0.521 98 59 64
0.199005 -0.190944 -0.529 100 60 68
0.251027 -0.202855 -0.562 120 85 89
0.25324 -0.19708 -0.546 123 88 92
0.258054 -0.195997 -0.543 125 90 94
0.258611 -0.195636 -0.542 126 91 95
0.26642 -0.194553 -0.539 128 93 97
0.27105 -0.194192 -0.538 129 94 98
0.280671 -0.191666 -0.531 136 109 114
0.301072 -0.189861 -0.526 139 113 122
0.3015 -0.1895 -0.525 142 116 125
0.314476 -0.187695 -0.52 135 107 119
0.318814 -0.187334 -0.519 138 108 118
0.319803 -0.187334 -0.519 138 108 118
0.323133 -0.186973 -0.518 137 107 115
0.32412 -0.186973 -0.518 138 108 116
0.334671 -0.185169 -0.513 130 103 112
0.336626 -0.185169 -0.513 131 104 113
0.40454 -0.193831 -0.537 174 116 114
0.405588 -0.192388 -0.533 169 116 110
0.449358 -0.194192 -0.538 144 95 90
-0.312671 -0.234043 -0.645 250 251 245
-0.160514 -0.230777 -0.636 183 180 173
-0.159052 -0.230414 -0.635 183 180 173
-0.157843 -0.230414 -0.635 184 181 172
-0.153487 -0.23114 -0.637 184 184 174
0.109712 -0.173446 -0.478 198 146 133
0.117241 -0.173809 -0.479 195 138 127
0.13674 -0.173083 -0.477 200 143 134
0.138267 -0.17272 -0.476 196 139 130
0.157453 -0.174897 -0.482 148 95 89
0.164061 -0.177074 -0.488 129 81 79
0.197623 -0.191589 -0.528 101 61 69
0.208927 -0.19558 -0.539 96 62 63
0.210732 -0.196306 -0.541 99 65 66
0.21476 -0.19812 -0.546 103 71 74
0.251027 -0.203926 -0.562 118 83 87
0.255986 -0.197031 -0.543 124 89 93
0.310119 -0.189049 -0.521 163 137 148
0.316457 -0.188686 -0.52 139 109 117
0.332387 -0.186509 -0.514 130 104 113
0.334345 -0.186509 -0.514 130 104 113
0.347748 -0.186871 -0.515 140 113 122
0.427329 -0.192677 -0.531 143 90 84
0.457671 -0.197031 -0.543 145 96 92
-0.296543 -0.234177 -0.642 152 153 147
-0.289656 -0.234542 -0.643 190 190 188
-0.150788 -0.233812 -0.641 185 185 175
-0.145029 -0.236366 -0.648 188 186 174
0.122057 -0.175086 -0.48 188 131 120
0.139491 -0.172897 -0.474 191 134 123
0.153143 -0.175086 -0.48 155 97 93
0.161537 -0.177274 -0.486 135 86 82
0.172166 -0.181651 -0.498 111 66 69
0.203937 -0.194783 -0.534 101 60 68
0.268473 -0.196607 -0.539 129 94 98
0.269 -0.196242 -0.538 128 93 97
0.274126 -0.195512 -0.536 131 96 100
0.282162 -0.193324 -0.53 140 111 116
0.293614 -0.19223 -0.527 137 111 120
0.295061 -0.191865 -0.526 139 113 122
0.307325 -0.19077 -0.523 140 113 122
0.314476 -0.189676 -0.52 138 112 125
0.316457 -0.189676 -0.52 138 108 116
0.325464 -0.188582 -0.517 139 109 119
0.334671 -0.187123 -0.513 131 105 114
0.406991 -0.198066 -0.543 165 107 105
0.406603 -0.194418 -0.533 172 114 112
0.418226 -0.193689 -0.531 140 86 76
0.419237 -0.193689 -0.531 151 97 87
0.432581 -0.193324 -0.53 166 113 105
0.452247 -0.196607 -0.539 144 95 90
0.461433 -0.198795 -0.545 145 97 93
0.479675 -0.203902 -0.559 140 92 88
-0.310732 -0.235033 -0.641 252 255 248
-0.29486 -0.235033 -0.641 143 144 139
-0.27919 -0.238333 -0.65 253 254 248
-0.157594 -0.232467 -0.634 185 183 171
-0.152009 -0.235033 -0.641 185 185 173
-0.145252 -0.237967 -0.649 188 186 174
0.115843 -0.1749 -0.477 199 147 134
0.132197 -0.1749 -0.477 199 142 131
0.156535 -0.176733 -0.482 140 89 85
0.18796 -0.189933 -0.518 96 55 61
0.210732 -0.198367 -0.541 99 58 66
0.2522 -0.2002 -0.546 123 88 92
0.263287 -0.198367 -0.541 126 91 95
0.272084 -0.196533 -0.536 130 95 101
0.282162 -0.194333 -0.53 140 109 115
0.2985 -0.1925 -0.525 135 108 117
0.30392 -0.192133 -0.524 141 114 123
0.320791 -0.1903 -0.519 139 109 117
0.3268 -0.1892 -0.516 138 108 116
0.333366 -0.188467 -0.514 134 107 114
0.340846 -0.187733 -0.512 185 164 171
0.344443 -0.1881 -0.513 140 110 120
0.349406 -0.1892 -0.516 102 82 93
0.416203 -0.1947 -0.531 149 95 85
0.431571 -0.194333 -0.53 167 113 103
0.440293 -0.195067 -0.532 150 98 87
0.445833 -0.196167 -0.535 139 90 85
0.451408 -0.197267 -0.538 146 97 92
0.458706 -0.1991 -0.543 143 96 90
0.460587 -0.199467 -0.544 145 98 92
-0.295619 -0.235886 -0.64 142 143 138
-0.162937 -0.234411 -0.636 183 183 171
-0.157594 -0.233674 -0.634 184 184 172
-0.1547 -0.23478 -0.637 184 184 172
-0.152009 -0.236254 -0.641 185 186 172
-0.0424514 -0.238097 -0.646 68 67 73
0.0964029 -0.180231 -0.489 201 147 135
0.119477 -0.175809 -0.477 194 137 128
0.127922 -0.176177 -0.478 203 147 134
0.136494 -0.174334 -0.473 187 133 123
0.154378 -0.177283 -0.481 149 91 89
0.21476 -0.20124 -0.546 149 113 123
0.25324 -0.20124 -0.546 123 89 90
0.268971 -0.199029 -0.54 128 93 99
0.271063 -0.197554 -0.536 130 95 101
0.275137 -0.196817 -0.534 132 96 100
0.287131 -0.194606 -0.528 134 107 114
0.295061 -0.193869 -0.526 133 106 115
0.3005 -0.1935 -0.525 139 109 119
0.310119 -0.192026 -0.521 227 201 212
0.315467 -0.191657 -0.52 138 108 120
0.333366 -0.189446 -0.514 136 109 116
0.334345 -0.189446 -0.514 133 106 113
0.426727 -0.194974 -0.529 156 102 92
0.442136 -0.196449 -0.533 146 93 85
0.446852 -0.197186 -0.535 141 92 87
0.46351 -0.200871 -0.545 147 102 97
-0.31098 -0.236734 -0.639 232 235 228
-0.309278 -0.236364 -0.638 194 197 190
-0.305632 -0.236364 -0.638 151 154 147
-0.1664 -0.237105 -0.64 183 181 169
-0.0464286 -0.24081 -0.65 69 68 74
-0.0449124 -0.239328 -0.646 70 69 75
0.0956143 -0.179681 -0.485 199 146 132
0.127387 -0.176347 -0.476 199 143 130
0.137395 -0.175235 -0.473 183 129 119
0.1425 -0.175976 -0.475 168 114 102
0.14552 -0.176347 -0.476 160 103 94
0.146734 -0.176717 -0.477 160 103 96
0.248663 -0.204503 -0.552 120 84 86
0.25162 -0.20265 -0.547 121 85 87
0.258054 -0.201169 -0.543 126 92 93
0.259089 -0.201169 -0.543 128 94 95
0.262741 -0.200798 -0.542 125 90 94
0.264317 -0.200428 -0.541 127 92 96
0.273105 -0.198575 -0.536 131 96 102
0.306737 -0.193389 -0.522 138 112 123
0.32116 -0.191907 -0.518 141 111 119
0.324479 -0.191536 -0.517 141 111 121
0.33009 -0.190795 -0.515 138 107 115
0.420249 -0.196723 -0.531 141 84 73
0.426524 -0.196352 -0.53 159 105 95
0.428742 -0.195982 -0.529 150 98 87
0.443151 -0.197464 -0.533 144 95 91
0.452432 -0.199316 -0.538 139 90 86
0.0919286 -0.184329 -0.495 205 151 141
0.131089 -0.176136 -0.473 195 142 128
0.139197 -0.176136 -0.473 177 120 109
0.147952 -0.177998 -0.478 156 98 94
0.168371 -0.185446 -0.498 112 67 70
0.185628 -0.192521 -0.517 98 57 61
0.189676 -0.193638 -0.52 106 65 71
0.258054 -0.202203 -0.543 124 89 93
0.290603 -0.196245 -0.527 135 109 112
0.29261 -0.196245 -0.527 135 108 113
0.293614 -0.196245 -0.527 135 108 115
0.296063 -0.195872 -0.526 134 107 116
0.316837 -0.193266 -0.519 137 107 117
0.318814 -0.193266 -0.519 137 107 117
0.319803 -0.193266 -0.519 138 108 118
0.324479 -0.192521 -0.517 141 111 121
0.336626 -0.191031 -0.513 151 125 134
0.33987 -0.190659 -0.512 210 195 200
0.407618 -0.198479 -0.533 170 115 112
0.408111 -0.197734 -0.531 171 113 109
0.411146 -0.197734 -0.531 161 103 99
0.416203 -0.197734 -0.531 148 91 82
0.42126 -0.197734 -0.531 143 86 75
0.43378 -0.19699 -0.529 157 107 98
0.456171 -0.201086 -0.54 138 91 83
0.473669 -0.205554 -0.552 142 97 92
-0.282394 -0.241789 -0.646 186 185 180
-0.279566 -0.242537 -0.648 249 250 244
-0.048679 -0.242163 -0.647 68 67 73
0.107891 -0.177411 -0.474 200 148 134
0.108794 -0.177411 -0.474 202 148 136
0.113548 -0.177786 -0.475 202 148 136
0.115357 -0.177786 -0.475 201 147 135
0.116262 -0.177786 -0.475 201 147 135
0.13261 -0.176663 -0.472 187 134 120
0.162264 -0.183774 -0.491 120 74 77
0.16871 -0.186769 -0.499 110 65 70
0.25702 -0.203237 -0.543 124 90 91
0.261709 -0.202863 -0.542 124 88 92
0.265886 -0.202114 -0.54 127 92 98
0.270025 -0.201366 -0.538 130 95 101
0.273614 -0.200243 -0.535 132 97 103
0.282694 -0.198746 -0.531 139 108 116
0.287675 -0.197997 -0.529 136 104 115
0.304749 -0.195377 -0.522 138 111 120
0.311111 -0.195003 -0.521 182 159 169
0.312495 -0.194629 -0.52 132 109 119
0.313486 -0.194629 -0.52 136 113 123
0.333033 -0.192757 -0.515 134 107 116
0.334014 -0.192757 -0.515 135 108 117
0.337603 -0.192009 -0.513 138 117 122
0.342489 -0.192009 -0.513 132 111 118
0.359866 -0.197249 -0.527 76 73 82
0.40849 -0.203986 -0.545 161 108 104
0.40888 -0.19912 -0.532 170 112 108
0.413169 -0.198746 -0.531 153 96 89
0.415191 -0.198746 -0.531 154 97 90
0.416203 -0.198746 -0.531 154 97 88
0.423495 -0.198371 -0.53 153 96 87
0.427734 -0.197997 -0.529 153 101 90
0.455327 -0.20174 -0.539 138 91 83
0.459077 -0.202489 -0.541 142 98 89
0.47558 -0.20698 -0.553 144 100 91
-0.308309 -0.239257 -0.636 158 160 155
-0.30394 -0.239633 -0.637 147 149 144
-0.277525 -0.244148 -0.649 252 253 247
-0.170157 -0.242643 -0.645 183 183 173
-0.156633 -0.238881 -0.635 186 184 172
-0.148272 -0.243019 -0.646 188 186 173
-0.03882 -0.243395 -0.647 74 73 81
-0.0377038 -0.244148 -0.649 75 74 82
0.103595 -0.17869 -0.475 199 147 133
0.109466 -0.177938 -0.473 202 148 136
0.117823 -0.178314 -0.474 199 143 130
0.133226 -0.177186 -0.471 179 126 112
0.137105 -0.177562 -0.472 173 121 107
0.141297 -0.178314 -0.474 161 107 95
0.1425 -0.17869 -0.475 160 108 97
0.147042 -0.179819 -0.478 149 96 92
0.193389 -0.196371 -0.522 107 66 72
0.194755 -0.196748 -0.523 99 58 64
0.248957 -0.208786 -0.555 121 80 84
0.25162 -0.205776 -0.547 122 86 88
0.259644 -0.203895 -0.542 124 90 91
0.276154 -0.200886 -0.534 130 97 104
0.288137 -0.198629 -0.528 136 106 116
0.294618 -0.198252 -0.527 138 108 118
0.3005 -0.1975 -0.525 140 108 119
0.302922 -0.197124 -0.524 140 110 120
0.311505 -0.195619 -0.52 218 192 203
0.317826 -0.195243 -0.519 140 110 120
0.35076 -0.194867 -0.518 72 57 62
0.361914 -0.199381 -0.53 76 73 80
0.365663 -0.200886 -0.534 74 70 84
0.427533 -0.199381 -0.53 158 106 95
0.435795 -0.199005 -0.529 143 93 84
0.440477 -0.199757 -0.531 148 98 89
0.462843 -0.204271 -0.543 144 99 93
-0.318058 -0.242359 -0.641 250 251 245
-0.16001 -0.239712 -0.634 186 184 172
0.0887695 -0.18451 -0.488 203 148 141
0.0891476 -0.183376 -0.485 201 147 137
0.0904324 -0.182242 -0.482 202 145 136
0.0933238 -0.18073 -0.478 195 138 129
0.0940371 -0.180351 -0.477 190 133 124
0.10269 -0.179595 -0.475 199 146 132
0.103377 -0.179217 -0.474 199 147 133
0.10428 -0.179217 -0.474 200 148 134
0.120531 -0.179217 -0.474 192 136 123
0.122079 -0.178839 -0.473 192 136 121
0.129637 -0.178083 -0.471 184 131 115
0.141297 -0.179217 -0.474 157 105 94
0.144917 -0.180351 -0.477 147 94 88
0.183303 -0.195097 -0.516 106 65 71
0.194755 -0.197744 -0.523 103 64 69
0.25162 -0.206818 -0.547 122 86 88
0.253814 -0.206062 -0.545 122 88 89
0.270025 -0.203415 -0.538 127 95 100
0.272084 -0.202659 -0.536 129 97 102
0.279173 -0.201147 -0.532 130 99 105
0.2862 -0.20039 -0.53 138 107 115
0.291607 -0.199256 -0.527 140 108 119
0.315467 -0.19661 -0.52 140 112 124
0.33009 -0.194719 -0.515 141 109 120
0.335649 -0.193963 -0.513 179 152 161
0.342489 -0.193963 -0.513 134 111 121
0.406047 -0.203793 -0.539 171 112 108
0.459257 -0.204171 -0.54 141 94 86
0.464731 -0.205684 -0.544 140 96 87
0.473 -0.207952 -0.55 141 97 88
-0.32 -0.2432 -0.64 253 254 248
-0.277097 -0.24624 -0.648 253 254 248
-0.171917 -0.24586 -0.647 182 182 172
-0.161217 -0.24092 -0.634 187 184 175
0.11283 -0.17936 -0.472 200 146 134
0.118225 -0.17936 -0.472 191 138 124
0.120922 -0.17936 -0.472 186 133 119
0.13502 -0.17898 -0.471 170 117 103
0.139197 -0.17974 -0.473 160 105 98
0.146437 -0.18202 -0.479 143 92 88
0.155057 -0.18468 -0.486 127 78 81
0.156625 -0.18544 -0.488 124 75 78
0.159458 -0.18658 -0.491 120 78 82
0.161047 -0.18734 -0.493 116 74 78
0.1903 -0.19722 -0.519 112 72 80
0.199634 -0.20064 -0.528 95 58 65
0.293057 -0.19988 -0.526 139 107 118
0.316457 -0.1976 -0.52 139 107 118
0.328766 -0.19608 -0.516 143 111 122
0.334014 -0.1957 -0.515 138 108 118
0.335324 -0.19532 -0.514 135 109 118
0.345114 -0.19532 -0.514 135 105 117
0.40849 -0.2071 -0.545 161 108 104
0.406349 -0.20292 -0.534 175 117 115
0.417214 -0.20178 -0.531 151 96 89
0.425514 -0.2014 -0.53 146 91 84
0.427734 -0.20102 -0.529 152 99 91
0.451771 -0.20368 -0.536 138 89 82
0.458407 -0.20482 -0.539 139 90 85
0.465768 -0.20672 -0.544 144 97 91
0.47855 -0.21052 -0.554 137 93 82
-0.313154 -0.242891 -0.636 178 181 172
-0.275863 -0.247474 -0.648 250 251 245
-0.15688 -0.242891 -0.636 186 186 176
-0.0432762 -0.244419 -0.64 71 70 78
-0.03888 -0.247474 -0.648 73 72 80
0.0850676 -0.19057 -0.499 201 148 144
0.0873 -0.185224 -0.485 200 145 140
0.0905924 -0.18255 -0.478 194 139 132
0.0929333 -0.181787 -0.476 187 130 121
0.110133 -0.180259 -0.472 202 150 137
0.111931 -0.180259 -0.472 201 148 134
0.113489 -0.179877 -0.471 199 146 132
0.117974 -0.179877 -0.471 189 136 122
0.126946 -0.179877 -0.471 183 130 116
0.138296 -0.180641 -0.473 161 104 97
0.146437 -0.182932 -0.479 140 89 86
0.164908 -0.19057 -0.499 101 59 63
0.17306 -0.19439 -0.509 95 54 60
0.17603 -0.195535 -0.512 94 53 61
0.193018 -0.198972 -0.521 103 66 74
0.202791 -0.202791 -0.531 96 61 68
0.274633 -0.204319 -0.535 128 96 101
0.304336 -0.199736 -0.523 141 108 117
0.30615 -0.198972 -0.521 145 112 121
0.331071 -0.196681 -0.515 140 110 120
0.41579 -0.213485 -0.559 139 99 100
0.406586 -0.205083 -0.537 172 114 110
0.427734 -0.202028 -0.529 152 99 91
0.476823 -0.210811 -0.552 134 90 79
-0.308547 -0.243335 -0.634 146 148 145
-0.159052 -0.243719 -0.635 188 185 176
-0.147725 -0.249092 -0.649 190 188 176
-0.0399286 -0.247557 -0.645 73 72 78
-0.03888 -0.248709 -0.648 72 71 79
0.109003 -0.180774 -0.471 203 149 137
0.115933 -0.18039 -0.47 192 139 125
0.12041 -0.18039 -0.47 181 128 112
0.129362 -0.18039 -0.47 177 120 109
0.132943 -0.18039 -0.47 166 112 102
0.139491 -0.181926 -0.474 156 98 94
0.175055 -0.19651 -0.512 95 54 62
0.264317 -0.207641 -0.541 125 90 94
0.273614 -0.205338 -0.535 127 96 102
0.2965 -0.2015 -0.525 142 110 121
0.30334 -0.200732 -0.523 143 110 119
0.304749 -0.200349 -0.522 141 108 117
0.313871 -0.199197 -0.519 137 105 116
0.335324 -0.197278 -0.514 167 141 150
0.337282 -0.197278 -0.514 221 195 204
0.345786 -0.197662 -0.515 133 103 115
0.416109 -0.214166 -0.558 140 100 101
0.4068 -0.207257 -0.54 169 110 104
0.40685 -0.205722 -0.536 174 116 112
0.408383 -0.204954 -0.534 170 115 110
0.425514 -0.203419 -0.53 147 92 85
0.439648 -0.203419 -0.53 146 93 87
0.447212 -0.20457 -0.533 143 94 87
0.46956 -0.20956 -0.546 138 91 85
-0.313871 -0.244929 -0.635 202 205 198
-0.31217 -0.244543 -0.634 155 158 151
-0.155429 -0.246857 -0.64 188 185 176
-0.0530286 -0.246857 -0.64 67 67 75
-0.0410295 -0.248014 -0.643 74 72 83
0.0885857 -0.183986 -0.477 192 137 130
0.0893067 -0.1836 -0.476 191 137 127
0.0950505 -0.182443 -0.473 189 132 121
0.10384 -0.182057 -0.472 201 148 132
0.112352 -0.181286 -0.47 197 144 128
0.113248 -0.181286 -0.47 197 144 128
0.114143 -0.181286 -0.47 195 142 128
0.11658 -0.1809 -0.469 184 131 117
0.134408 -0.182057 -0.472 158 105 97
0.17408 -0.197486 -0.512 96 55 63
0.177697 -0.198257 -0.514 104 62 72
0.188947 -0.1998 -0.518 115 72 79
0.197876 -0.202886 -0.526 96 63 70
0.199634 -0.203657 -0.528 98 67 73
0.259089 -0.209443 -0.543 121 86 92
0.260123 -0.209443 -0.543 121 86 92
0.269 -0.207514 -0.538 124 92 97
0.293057 -0.202886 -0.526 139 106 117
0.296063 -0.202886 -0.526 140 107 118
0.2975 -0.2025 -0.525 144 112 123
0.309524 -0.200571 -0.52 140 109 117
0.313871 -0.200186 -0.519 136 106 116
0.322147 -0.1998 -0.518 142 110 121
0.332387 -0.198257 -0.514 139 107 118
0.334671 -0.197871 -0.513 167 141 152
0.344135 -0.198257 -0.514 138 108 120
0.34744 -0.199029 -0.516 126 103 113
0.408383 -0.205971 -0.534 167 112 109
0.415191 -0.204814 -0.531 151 96 91
0.418226 -0.204814 -0.531 152 97 90
0.422486 -0.204429 -0.53 151 96 89
0.427734 -0.204043 -0.529 150 95 88
0.436803 -0.204043 -0.529 145 92 88
0.444347 -0.2052 -0.532 142 92 83
0.471462 -0.210986 -0.547 138 91 83
0.475095 -0.212143 -0.55 136 92 83
-0.32568 -0.249627 -0.644 251 254 247
-0.318 -0.246526 -0.636 252 255 248
-0.161471 -0.246138 -0.635 189 186 177
-0.05278 -0.246913 -0.637 66 66 76
-0.0502743 -0.246526 -0.636 69 68 76
0.0984457 -0.182956 -0.472 200 143 132
0.11122 -0.181793 -0.469 197 144 130
0.125513 -0.181793 -0.469 177 119 105
0.126407 -0.181793 -0.469 178 120 108
0.136494 -0.183344 -0.473 152 99 95
0.139786 -0.184119 -0.475 151 91 91
0.144914 -0.186057 -0.48 136 87 82
0.160137 -0.192259 -0.496 95 54 60
0.168517 -0.196523 -0.507 93 47 57
0.265886 -0.209314 -0.54 121 89 94
0.268473 -0.208927 -0.539 121 90 95
0.270025 -0.208539 -0.538 124 92 97
0.276154 -0.206989 -0.534 132 99 106
0.279698 -0.206601 -0.533 133 100 107
0.280713 -0.206601 -0.533 133 100 107
0.281729 -0.206601 -0.533 133 100 107
0.28566 -0.20505 -0.529 140 109 117
0.2995 -0.2035 -0.525 145 112 123
0.300926 -0.203112 -0.524 140 107 118
0.302344 -0.202725 -0.523 137 106 114
0.327148 -0.199624 -0.515 143 113 123
0.334345 -0.199236 -0.514 147 114 125
0.344805 -0.199624 -0.515 140 109 124
0.415363 -0.215904 -0.557 142 101 105
0.410443 -0.212803 -0.549 144 103 107
0.412157 -0.205826 -0.531 156 103 99
0.415419 -0.205438 -0.53 156 103 97
0.422486 -0.205438 -0.53 147 94 86
0.449069 -0.206989 -0.534 138 90 80
0.450929 -0.207376 -0.535 136 87 80
0.474231 -0.212803 -0.549 145 92 88
0.49801 -0.220555 -0.569 142 99 92
-0.30806 -0.246569 -0.633 138 140 137
-0.172183 -0.252411 -0.648 184 184 174
0.0869505 -0.186192 -0.478 193 136 129
0.0975467 -0.183855 -0.472 194 140 128
0.107647 -0.182687 -0.469 202 149 133
0.130257 -0.183076 -0.47 164 109 102
0.133226 -0.183466 -0.471 157 104 96
0.134408 -0.183855 -0.472 154 101 95
0.141283 -0.185803 -0.477 145 92 88
0.153847 -0.191256 -0.491 106 66 66
0.159513 -0.193593 -0.497 95 52 59
0.164313 -0.19593 -0.503 85 44 52
0.170486 -0.198657 -0.51 92 49 58
0.173105 -0.199436 -0.512 96 49 57
0.204954 -0.208006 -0.534 190 180 189
0.257967 -0.21229 -0.545 118 86 89
0.261709 -0.211122 -0.542 120 88 91
0.264317 -0.210732 -0.541 120 88 91
0.269 -0.209564 -0.538 124 92 97
0.270546 -0.209174 -0.537 124 92 97
0.307142 -0.202942 -0.521 139 107 118
0.328129 -0.200605 -0.515 141 110 118
0.32911 -0.200605 -0.515 142 111 119
0.33009 -0.200605 -0.515 136 104 115
0.42862 -0.23722 -0.609 98 100 123
0.414302 -0.216965 -0.557 142 103 104
0.410907 -0.207227 -0.532 156 103 97
0.411146 -0.206837 -0.531 153 100 94
0.418448 -0.206448 -0.53 151 96 91
0.424711 -0.206058 -0.529 148 94 92
-0.330171 -0.253646 -0.648 250 253 246
-0.311185 -0.247383 -0.632 143 148 141
-0.275437 -0.253254 -0.647 250 251 246
-0.169893 -0.25208 -0.644 184 184 174
-0.150967 -0.253254 -0.647 191 189 177
-0.0565086 -0.249731 -0.638 68 66 80
-0.0552067 -0.24934 -0.637 69 67 81
0.0898343 -0.185537 -0.474 189 132 125
0.09734 -0.184363 -0.471 194 140 130
0.1034 -0.183971 -0.47 199 145 133
0.106753 -0.18358 -0.469 201 148 134
0.110983 -0.183189 -0.468 198 142 129
0.113657 -0.183189 -0.468 191 135 120
0.140374 -0.186711 -0.477 144 90 88
0.152911 -0.192191 -0.491 109 68 72
0.185269 -0.201977 -0.516 115 73 77
0.188947 -0.20276 -0.518 111 69 73
0.263287 -0.211763 -0.541 119 87 90
0.275652 -0.209414 -0.535 129 96 103
0.280713 -0.208631 -0.533 132 99 108
0.309127 -0.203934 -0.521 137 107 117
0.407274 -0.212154 -0.542 154 103 99
0.41441 -0.207457 -0.53 154 99 94
0.423704 -0.207066 -0.529 154 99 96
0.425719 -0.207066 -0.529 155 102 98
0.438638 -0.207457 -0.53 141 91 84
0.448228 -0.208631 -0.533 141 91 84
0.457556 -0.210589 -0.538 141 92 85
0.486257 -0.218417 -0.558 133 88 82
-0.162681 -0.249767 -0.635 189 187 175
-0.0604371 -0.252127 -0.641 64 62 76
-0.0524486 -0.24898 -0.633 69 67 80
-0.03888 -0.25488 -0.648 73 72 86
0.0937514 -0.18526 -0.471 188 134 124
0.138267 -0.187227 -0.476 146 92 90
0.151667 -0.192733 -0.49 104 67 74
0.17442 -0.20178 -0.513 105 58 66
0.176718 -0.202173 -0.514 112 69 76
0.18491 -0.202567 -0.515 115 73 77
0.204954 -0.21004 -0.534 231 221 230
0.253124 -0.215547 -0.548 120 85 91
0.25636 -0.21476 -0.546 118 86 91
0.270546 -0.21122 -0.537 125 92 99
0.290603 -0.207287 -0.527 143 111 122
0.294059 -0.206893 -0.526 138 106 117
0.2945 -0.2065 -0.525 139 107 118
0.318814 -0.20414 -0.519 140 110 120
0.319187 -0.203747 -0.518 139 109 119
0.322147 -0.203747 -0.518 144 114 124
0.3268 -0.20296 -0.516 140 110 122
0.347129 -0.203353 -0.517 134 106 121
0.348787 -0.203747 -0.518 100 81 87
0.358537 -0.20768 -0.528 84 72 84
0.407343 -0.211613 -0.538 171 115 114
0.409649 -0.209647 -0.533 164 109 106
0.409893 -0.209253 -0.532 161 106 103
0.427734 -0.208073 -0.529 159 106 100
0.472504 -0.215153 -0.547 142 91 87
-0.31871 -0.250976 -0.635 253 255 250
-0.30806 -0.250186 -0.633 130 132 127
-0.27258 -0.25651 -0.649 250 252 247
-0.0587543 -0.251371 -0.636 60 59 75
-0.0535695 -0.24979 -0.632 69 67 81
0.0937514 -0.186157 -0.471 189 135 125
0.100714 -0.185762 -0.47 197 143 131
0.109856 -0.184576 -0.467 192 135 124
0.119641 -0.184576 -0.467 173 113 103
0.123463 -0.184971 -0.468 168 111 100
0.1273 -0.185367 -0.469 161 104 95
0.180634 -0.203152 -0.514 113 74 75
0.186251 -0.203943 -0.516 114 72 76
0.249857 -0.217381 -0.55 121 86 92
0.261157 -0.214614 -0.543 118 86 91
0.278189 -0.211057 -0.534 131 98 107
0.282213 -0.210267 -0.532 142 109 118
0.291607 -0.20829 -0.527 141 109 120
0.316837 -0.205129 -0.519 139 109 117
0.334345 -0.203152 -0.514 140 116 129
0.345474 -0.203943 -0.516 135 107 122
0.410889 -0.217776 -0.551 127 90 97
0.41192 -0.210267 -0.532 154 99 96
0.443511 -0.209871 -0.531 146 96 89
-0.162937 -0.252583 -0.636 185 185 173
-0.0522829 -0.250597 -0.631 69 69 79
-0.0377619 -0.258143 -0.65 70 70 80
0.08604 -0.189834 -0.478 184 131 127
0.0905457 -0.187849 -0.473 182 127 120
0.116972 -0.185466 -0.467 164 106 95
0.13261 -0.187451 -0.472 147 92 89
0.133791 -0.187849 -0.473 145 90 87
0.138557 -0.189437 -0.477 141 87 85
0.16176 -0.20016 -0.504 74 37 45
0.178329 -0.203734 -0.513 114 73 77
0.20102 -0.210089 -0.529 95 74 83
0.25853 -0.216046 -0.544 118 86 91
0.26642 -0.21406 -0.539 122 89 96
0.274126 -0.212869 -0.536 126 95 101
0.286126 -0.209691 -0.528 140 107 116
0.289143 -0.209691 -0.528 141 109 120
0.30276 -0.207309 -0.522 138 107 115
0.315849 -0.206117 -0.519 140 110 118
0.356177 -0.208897 -0.526 74 63 77
0.40924 -0.21684 -0.546 140 90 93
0.427931 -0.209691 -0.528 158 103 100
0.43378 -0.210089 -0.529 137 86 82
-0.275814 -0.257386 -0.645 252 252 250
-0.162937 -0.253794 -0.636 187 187 175
-0.157373 -0.254592 -0.638 190 187 178
-0.051081 -0.251799 -0.631 67 67 77
-0.04664 -0.253794 -0.636 69 69 79
-0.0422543 -0.256588 -0.643 71 71 81
0.0971333 -0.187552 -0.47 193 139 127
0.107188 -0.186355 -0.467 194 136 125
0.123199 -0.186355 -0.467 162 103 95
0.129362 -0.187552 -0.47 150 92 88
0.130534 -0.187951 -0.471 149 94 91
0.17442 -0.204711 -0.513 113 70 77
0.175397 -0.204711 -0.513 113 70 77
0.187597 -0.206308 -0.517 110 71 74
0.193759 -0.208702 -0.523 89 57 62
0.199634 -0.210697 -0.528 88 57 65
0.25208 -0.218678 -0.548 117 85 90
0.273105 -0.21389 -0.536 126 95 103
0.276671 -0.21349 -0.535 126 93 102
0.2985 -0.2095 -0.525 135 105 115
0.300351 -0.208702 -0.523 137 107 117
0.304749 -0.208303 -0.522 135 105 113
0.310119 -0.207904 -0.521 139 109 117
0.323494 -0.206308 -0.517 139 109 119
0.32911 -0.20551 -0.515 136 106 116
0.334014 -0.20551 -0.515 139 109 119
0.334345 -0.20511 -0.514 135 105 115
0.3478 -0.206707 -0.518 127 97 109
0.430028 -0.243818 -0.611 87 91 118
0.415191 -0.211894 -0.531 153 98 95
0.417438 -0.211495 -0.53 157 102 99
0.423704 -0.211096 -0.529 159 104 101
0.426727 -0.211096 -0.529 159 104 101
0.426926 -0.210697 -0.528 155 102 98
0.447387 -0.212293 -0.532 149 99 92
-0.315792 -0.254204 -0.634 251 253 248
-0.312883 -0.253803 -0.633 242 244 239
-0.275814 -0.258614 -0.645 252 252 250
-0.271762 -0.260619 -0.65 249 249 247
-0.155671 -0.25701 -0.641 193 190 181
-0.0695219 -0.259015 -0.646 71 67 81
-0.0410933 -0.258213 -0.644 71 71 81
0.0830876 -0.193259 -0.482 189 138 134
0.0889314 -0.190051 -0.474 183 128 121
0.0903543 -0.18925 -0.472 184 127 118
0.0912533 -0.18925 -0.472 185 128 119
0.0969267 -0.188047 -0.469 192 138 128
0.1005 -0.188047 -0.469 190 138 127
0.108967 -0.187245 -0.467 186 126 116
0.115193 -0.187245 -0.467 166 106 98
0.118751 -0.187245 -0.467 166 106 96
0.151964 -0.19807 -0.494 108 79 99
0.153833 -0.199273 -0.497 107 78 98
0.15825 -0.201278 -0.502 79 50 72
0.18491 -0.20649 -0.515 110 71 76
0.20178 -0.212906 -0.531 158 136 148
0.24806 -0.221727 -0.553 117 87 89
0.271569 -0.215311 -0.537 124 93 101
0.284652 -0.212104 -0.529 138 105 116
0.286126 -0.211703 -0.528 141 108 119
0.300351 -0.209698 -0.523 135 105 115
0.301348 -0.209698 -0.523 134 104 114
0.3268 -0.206891 -0.516 133 106 115
0.336303 -0.20609 -0.514 146 125 134
0.338261 -0.20609 -0.514 143 122 131
0.342843 -0.20649 -0.515 133 105 117
0.41119 -0.220524 -0.55 141 99 101
0.40924 -0.21892 -0.546 145 95 94
0.407829 -0.216514 -0.54 155 101 99
0.410417 -0.214109 -0.534 154 98 97
0.418448 -0.212505 -0.53 155 100 97
0.422696 -0.212104 -0.529 158 100 98
0.43561 -0.212505 -0.53 143 93 86
0.446373 -0.213307 -0.532 146 96 89
0.469049 -0.217717 -0.543 140 97 81
0.490323 -0.224132 -0.559 141 90 86
-0.153194 -0.260246 -0.646 194 191 182
0.0865867 -0.19176 -0.476 184 127 120
0.0987133 -0.18894 -0.469 192 140 129
0.105409 -0.188134 -0.467 193 139 127
0.111396 -0.187731 -0.466 180 118 107
0.114059 -0.187731 -0.466 161 102 94
0.12053 -0.188134 -0.467 162 104 100
0.136453 -0.19176 -0.476 135 83 85
0.140343 -0.193371 -0.48 124 85 78
0.171823 -0.207069 -0.514 103 60 67
0.192026 -0.209889 -0.521 98 64 65
0.248212 -0.221974 -0.551 116 83 92
0.254746 -0.220363 -0.547 116 83 90
0.25532 -0.21996 -0.546 116 83 90
0.262741 -0.218349 -0.542 118 85 92
0.263773 -0.218349 -0.542 118 87 93
0.265886 -0.217543 -0.54 119 88 94
0.280187 -0.21432 -0.532 129 96 105
0.299928 -0.211097 -0.524 133 103 113
0.310119 -0.209889 -0.521 138 108 116
0.313486 -0.209486 -0.52 137 107 115
0.340219 -0.207069 -0.514 138 111 120
0.44771 -0.254203 -0.631 86 89 120
0.409392 -0.216737 -0.538 161 103 101
0.410417 -0.215126 -0.534 153 97 96
0.411434 -0.215126 -0.534 155 99 98
0.420681 -0.213111 -0.529 156 98 96
0.432772 -0.213111 -0.529 146 93 85
0.439648 -0.213514 -0.53 145 95 86
0.489446 -0.224794 -0.558 143 90 86
-0.317 -0.256619 -0.634 253 255 249
-0.311185 -0.25581 -0.632 248 251 244
-0.280646 -0.259857 -0.642 247 246 244
-0.275011 -0.261476 -0.646 254 254 252
-0.27258 -0.26269 -0.649 252 252 250
-0.160514 -0.257429 -0.636 189 186 177
-0.157373 -0.258238 -0.638 193 190 181
-0.150429 -0.263095 -0.65 194 191 182
-0.0746743 -0.262286 -0.648 77 76 82
-0.0696571 -0.257429 -0.636 70 70 80
-0.0433438 -0.259452 -0.641 68 68 76
0.0807962 -0.205619 -0.508 185 142 133
0.0851295 -0.193476 -0.478 182 129 123
0.0880286 -0.191857 -0.474 184 127 120
0.0889314 -0.191857 -0.474 183 126 119
0.0942467 -0.189833 -0.469 187 134 126
0.0987133 -0.189833 -0.469 190 138 127
0.102069 -0.189429 -0.468 190 136 124
0.107188 -0.189024 -0.467 189 126 117
0.143652 -0.19631 -0.485 116 74 76
0.145172 -0.197119 -0.487 113 71 73
0.159826 -0.205214 -0.507 98 88 123
0.171823 -0.208048 -0.514 100 63 70
0.183571 -0.208048 -0.514 109 73 77
0.211371 -0.22181 -0.548 255 255 255
0.247611 -0.223429 -0.552 115 85 93
0.256929 -0.220595 -0.545 117 85 90
0.264317 -0.218976 -0.541 116 87 91
0.27105 -0.217762 -0.538 123 94 98
0.273614 -0.217357 -0.537 126 95 100
0.280187 -0.215333 -0.532 128 97 103
0.291607 -0.21331 -0.527 141 108 117
0.325464 -0.209262 -0.517 139 109 117
0.335324 -0.208048 -0.514 151 131 140
0.341862 -0.208452 -0.515 137 109 121
0.35148 -0.211286 -0.522 62 48 61
0.418857 -0.242857 -0.6 118 123 143
0.4242 -0.245286 -0.606 120 118 140
0.408584 -0.218976 -0.541 149 97 101
0.416203 -0.214929 -0.531 156 100 99
0.423704 -0.214119 -0.529 153 97 96
0.432772 -0.214119 -0.529 148 93 88
0.441667 -0.214524 -0.53 148 95 89
0.453137 -0.216143 -0.534 139 88 84
0.461655 -0.217762 -0.538 143 92 89
0.470083 -0.219786 -0.543 145 96 89
0.484882 -0.224238 -0.554 140 93 85
0.495095 -0.227476 -0.562 142 95 87
-0.309981 -0.257013 -0.632 248 251 244
-0.0652962 -0.255793 -0.629 70 68 79
-0.0603114 -0.25498 -0.627 68 66 77
-0.0557114 -0.255793 -0.629 67 67 75
-0.0455714 -0.259453 -0.638 68 68 76
-0.0422543 -0.261487 -0.643 69 69 77
0.0817571 -0.197233 -0.485 186 139 133
0.0880286 -0.19276 -0.474 184 127 120
0.116722 -0.189507 -0.466 163 102 97
0.15569 -0.204553 -0.503 134 124 151
0.189311 -0.21106 -0.519 107 66 70
0.191033 -0.211873 -0.521 100 63 70
0.288137 -0.21472 -0.528 142 109 120
0.316837 -0.21106 -0.519 144 114 122
0.323133 -0.210653 -0.518 141 111 119
0.324479 -0.210247 -0.517 140 110 118
0.333033 -0.209433 -0.515 140 108 119
0.33924 -0.209027 -0.514 204 187 195
0.412814 -0.2257 -0.555 143 98 95
0.413947 -0.216347 -0.532 151 97 95
0.437629 -0.215533 -0.53 149 94 87
0.451273 -0.216753 -0.533 139 89 82
0.452289 -0.216753 -0.533 140 90 83
-0.321934 -0.261077 -0.639 251 252 247
-0.275814 -0.263529 -0.645 253 253 251
-0.169452 -0.264346 -0.647 204 205 197
-0.157373 -0.260669 -0.638 193 190 181
-0.150197 -0.265163 -0.649 196 193 184
-0.0626 -0.255766 -0.626 68 68 78
-0.0512429 -0.258626 -0.633 67 67 77
-0.0377038 -0.265163 -0.649 70 70 80
0.0817143 -0.212457 -0.52 188 139 132
0.084219 -0.195297 -0.478 184 131 125
0.0849514 -0.194889 -0.477 182 129 123
0.0903543 -0.192846 -0.472 182 128 118
0.0942467 -0.19162 -0.469 189 132 123
0.09514 -0.19162 -0.469 190 133 124
0.105409 -0.190803 -0.467 184 125 117
0.115834 -0.190394 -0.466 161 102 96
0.130811 -0.192846 -0.472 142 93 88
0.14001 -0.196931 -0.482 119 80 81
0.152551 -0.203877 -0.499 188 175 203
0.159173 -0.207554 -0.508 181 178 209
0.256929 -0.222671 -0.545 116 85 91
0.268473 -0.22022 -0.539 120 91 95
0.274126 -0.218994 -0.536 126 97 101
0.275652 -0.218586 -0.535 128 97 102
0.278189 -0.218177 -0.534 130 99 105
0.280187 -0.21736 -0.532 130 99 105
0.290603 -0.215317 -0.527 141 109 120
0.302344 -0.213683 -0.523 137 106 114
0.312104 -0.212866 -0.521 144 114 122
0.331408 -0.210006 -0.514 135 105 115
0.332387 -0.210006 -0.514 137 107 117
0.333366 -0.210006 -0.514 136 109 118
0.341862 -0.210414 -0.515 141 114 123
0.352827 -0.214091 -0.524 55 42 52
0.431435 -0.250454 -0.613 109 106 127
0.412814 -0.226757 -0.555 144 99 94
0.421476 -0.216543 -0.53 151 98 94
0.423495 -0.216543 -0.53 153 100 96
0.43561 -0.216543 -0.53 147 92 85
0.439648 -0.216543 -0.53 155 101 91
0.444695 -0.216543 -0.53 146 93 85
0.450427 -0.21736 -0.532 143 93 84
0.460797 -0.219403 -0.537 144 94 87
0.467321 -0.221037 -0.541 143 94 87
0.47389 -0.222671 -0.545 150 101 94
0.48506 -0.22594 -0.553 140 93 85
0.4944 -0.2288 -0.56 145 98 92
-0.322438 -0.262705 -0.64 254 255 250
-0.314089 -0.259831 -0.633 253 255 249
-0.302509 -0.260242 -0.634 223 224 219
-0.279858 -0.263936 -0.643 213 212 208
-0.16796 -0.265168 -0.646 205 206 200
-0.151729 -0.264757 -0.645 196 193 184
-0.0660714 -0.256548 -0.625 69 67 78
-0.0613095 -0.256548 -0.625 68 68 78
-0.0578305 -0.256958 -0.626 70 68 79
-0.0557114 -0.25819 -0.629 67 67 77
0.0815571 -0.213037 -0.519 188 138 131
0.0880286 -0.194566 -0.474 185 126 118
0.0903543 -0.193745 -0.472 183 129 119
0.0993943 -0.192103 -0.468 189 130 122
0.10363 -0.191692 -0.467 186 127 119
0.108077 -0.191692 -0.467 184 124 114
0.138803 -0.197439 -0.481 119 83 85
0.146067 -0.201133 -0.49 102 71 79
0.152857 -0.205238 -0.5 194 184 211
0.179931 -0.210164 -0.512 116 73 80
0.1914 -0.214269 -0.522 94 61 68
0.247007 -0.226993 -0.553 113 82 88
0.265886 -0.221657 -0.54 118 87 92
0.2695 -0.221247 -0.539 120 89 94
0.272074 -0.220836 -0.538 123 94 98
0.274637 -0.220426 -0.537 125 96 100
0.277171 -0.219194 -0.534 130 99 104
0.278189 -0.219194 -0.534 130 99 105
0.283171 -0.217552 -0.53 140 109 117
0.297931 -0.21509 -0.524 136 105 113
0.30334 -0.214679 -0.523 136 105 113
0.310119 -0.213858 -0.521 141 111 119
0.313096 -0.213858 -0.521 142 115 122
0.331071 -0.211395 -0.515 134 109 115
0.336303 -0.210985 -0.514 143 126 132
0.409397 -0.225351 -0.549 148 101 95
0.413469 -0.219194 -0.534 147 96 92
0.418226 -0.217963 -0.531 152 99 93
0.428742 -0.217142 -0.529 148 95 87
0.432772 -0.217142 -0.529 149 96 88
0.456189 -0.219194 -0.534 143 93 86
0.459939 -0.220015 -0.536 146 96 89
0.492634 -0.229046 -0.558 144 97 91
-0.311677 -0.261037 -0.633 252 253 248
-0.303237 -0.261037 -0.633 251 252 246
-0.284203 -0.263511 -0.639 251 252 247
-0.276613 -0.265573 -0.644 244 244 242
-0.160514 -0.262274 -0.636 193 190 181
-0.15323 -0.264336 -0.641 197 194 185
-0.0780143 -0.261862 -0.635 67 65 76
-0.0723695 -0.258975 -0.628 65 67 79
-0.0647771 -0.257326 -0.624 69 67 78
-0.0613095 -0.257738 -0.625 68 68 76
-0.0591171 -0.258563 -0.627 70 68 79
-0.0579229 -0.258563 -0.627 70 68 79
-0.0479267 -0.262687 -0.637 70 70 78
-0.0456429 -0.263511 -0.639 69 69 77
0.141805 -0.200005 -0.485 104 72 73
0.149745 -0.204541 -0.496 158 143 166
0.163963 -0.213201 -0.517 194 190 215
0.17082 -0.210727 -0.511 115 76 81
0.17403 -0.209902 -0.509 118 78 79
0.18796 -0.213613 -0.518 102 65 73
0.248663 -0.227634 -0.552 112 81 86
0.25254 -0.226397 -0.549 113 82 87
0.25532 -0.22516 -0.546 115 84 89
0.263287 -0.223098 -0.541 118 86 91
0.267943 -0.222686 -0.54 121 90 95
0.291607 -0.217325 -0.527 137 106 114
0.305332 -0.215675 -0.523 137 106 114
0.325464 -0.213201 -0.517 140 113 120
0.331071 -0.212376 -0.515 137 112 118
0.336303 -0.211964 -0.514 151 134 140
0.410153 -0.222273 -0.539 142 91 88
0.418 -0.219387 -0.532 148 95 91
0.422486 -0.218562 -0.53 151 98 92
0.453304 -0.219799 -0.533 142 92 85
-0.315081 -0.263071 -0.635 252 253 248
-0.284203 -0.264729 -0.639 248 249 244
-0.281869 -0.265971 -0.642 136 136 134
-0.0746429 -0.259757 -0.627 70 70 82
-0.06942 -0.2581 -0.623 62 66 75
-0.0602152 -0.259343 -0.626 68 68 76
-0.04232 -0.2668 -0.644 71 70 78
0.0807333 -0.203 -0.49 186 139 133
0.0836571 -0.198857 -0.48 184 134 125
0.0960333 -0.1943 -0.469 187 130 123
0.12142 -0.193471 -0.467 143 88 83
0.126676 -0.194714 -0.47 145 92 86
0.131366 -0.196371 -0.474 135 88 82
0.17306 -0.210871 -0.509 119 79 80
0.174999 -0.210871 -0.509 119 78 82
0.180907 -0.212114 -0.512 114 71 78
0.183571 -0.212943 -0.514 117 72 79
0.203037 -0.222471 -0.537 255 249 255
0.20558 -0.224129 -0.541 250 251 255
0.259089 -0.224957 -0.543 116 86 88
0.265348 -0.224129 -0.541 118 86 91
0.266914 -0.223714 -0.54 120 88 93
0.272074 -0.222886 -0.538 124 93 98
0.278189 -0.221229 -0.534 129 98 104
0.290149 -0.218743 -0.528 142 110 121
0.294059 -0.217914 -0.526 138 107 115
0.300926 -0.217086 -0.524 134 104 112
0.307325 -0.216671 -0.523 140 110 118
0.328766 -0.213771 -0.516 139 112 121
0.417018 -0.248157 -0.599 139 140 160
0.441841 -0.219157 -0.529 147 98 84
0.45144 -0.2204 -0.532 144 94 83
0.484355 -0.228271 -0.551 143 94 87
-0.279858 -0.26761 -0.643 144 145 140
-0.276242 -0.268859 -0.646 214 214 212
-0.07298 -0.259287 -0.623 70 70 80
0.0815886 -0.201436 -0.484 187 139 129
0.0960333 -0.195193 -0.469 187 130 123
0.102069 -0.194777 -0.468 183 124 116
0.105409 -0.194361 -0.467 175 117 106
0.11761 -0.193945 -0.466 147 94 90
0.122571 -0.194777 -0.468 140 89 85
0.14543 -0.20435 -0.491 85 66 72
0.16724 -0.215587 -0.518 74 51 67
0.197362 -0.220581 -0.53 156 142 155
0.24806 -0.230153 -0.553 115 80 84
0.250905 -0.228905 -0.55 113 82 87
0.253704 -0.227656 -0.547 114 82 87
0.2965 -0.2185 -0.525 137 107 115
0.307731 -0.217251 -0.522 141 111 119
0.30972 -0.217251 -0.522 142 112 120
0.323133 -0.215587 -0.518 137 110 117
0.326449 -0.21517 -0.517 138 111 118
0.338261 -0.213922 -0.514 146 131 138
0.427533 -0.220581 -0.53 150 97 89
0.432772 -0.220165 -0.529 154 102 91
0.463866 -0.223494 -0.537 143 93 86
-0.299829 -0.265909 -0.636 253 254 249
-0.297406 -0.265909 -0.636 251 252 247
-0.290593 -0.266327 -0.637 252 252 250
-0.281083 -0.268835 -0.643 210 212 207
-0.161019 -0.266745 -0.638 215 214 210
-0.0740476 -0.260055 -0.622 70 70 78
-0.0514048 -0.26549 -0.635 69 69 79
-0.0411571 -0.269671 -0.645 70 70 78
0.0793648 -0.20863 -0.499 191 139 126
0.0796714 -0.206957 -0.495 187 138 124
0.0926571 -0.196505 -0.47 186 132 120
0.106298 -0.19525 -0.467 170 112 101
0.112284 -0.194832 -0.466 152 97 90
0.116722 -0.194832 -0.466 145 94 90
0.11761 -0.194832 -0.466 144 93 89
0.125781 -0.196505 -0.47 139 90 86
0.17958 -0.213647 -0.511 118 73 80
0.180907 -0.214065 -0.512 117 72 79
0.254648 -0.242495 -0.58 111 79 84
0.248177 -0.233297 -0.558 116 80 82
0.267943 -0.225771 -0.54 119 88 94
0.287675 -0.221172 -0.529 142 112 122
0.289143 -0.220754 -0.528 144 112 123
0.290149 -0.220754 -0.528 144 112 123
0.2995 -0.2195 -0.525 137 107 115
0.316457 -0.21741 -0.52 142 117 123
0.323133 -0.216573 -0.518 138 113 119
0.331071 -0.215319 -0.515 137 114 124
0.341862 -0.215319 -0.515 135 118 128
0.4131 -0.248767 -0.595 135 134 150
0.422348 -0.252948 -0.605 129 132 151
0.412467 -0.224935 -0.538 143 92 91
0.417537 -0.223263 -0.534 140 92 82
0.422053 -0.222427 -0.532 147 97 88
0.423283 -0.222009 -0.531 147 97 86
0.454319 -0.222845 -0.533 142 94 84
-0.287086 -0.2688 -0.64 252 253 248
-0.283091 -0.26964 -0.642 254 255 251
-0.0690857 -0.2604 -0.62 70 70 80
-0.0680143 -0.26082 -0.621 70 70 80
-0.0604076 -0.26376 -0.628 70 70 78
-0.0559771 -0.26544 -0.632 69 69 79
-0.04914 -0.26754 -0.637 67 70 79
0.0792057 -0.20916 -0.498 190 138 127
0.0799629 -0.20622 -0.491 187 138 124
0.100286 -0.19656 -0.468 182 125 116
0.109856 -0.19614 -0.467 162 103 95
0.113171 -0.19572 -0.466 151 96 89
0.129287 -0.19866 -0.473 134 89 83
0.159451 -0.21504 -0.512 233 234 255
0.2071 -0.2289 -0.545 178 192 227
0.257871 -0.22974 -0.547 117 85 90
0.26371 -0.22848 -0.544 114 85 90
0.273099 -0.22596 -0.538 129 94 100
0.29261 -0.22134 -0.527 137 106 114
0.294059 -0.22092 -0.526 138 107 115
0.2965 -0.2205 -0.525 137 107 115
0.299928 -0.22008 -0.524 137 107 115
0.300926 -0.22008 -0.524 136 106 114
0.317448 -0.2184 -0.52 142 117 123
0.323494 -0.21714 -0.517 135 110 116
0.348822 -0.21882 -0.521 96 81 88
0.428864 -0.25662 -0.611 102 98 121
0.414769 -0.22554 -0.537 142 93 88
0.416281 -0.2247 -0.535 134 85 80
0.422053 -0.22344 -0.532 147 99 89
0.434788 -0.22218 -0.529 151 99 88
0.441841 -0.22218 -0.529 149 97 83
0.458223 -0.22428 -0.534 146 97 83
0.463002 -0.22512 -0.536 143 95 85
0.497776 -0.23478 -0.559 146 99 89
-0.31832 -0.271707 -0.644 252 253 248
-0.144357 -0.272129 -0.645 193 193 181
-0.14234 -0.272972 -0.647 195 193 181
-0.139286 -0.274238 -0.65 220 216 204
-0.0526143 -0.26791 -0.635 67 70 79
-0.04232 -0.271707 -0.644 71 71 81
-0.0377619 -0.274238 -0.65 70 70 78
0.0892657 -0.198717 -0.471 183 129 119
0.124886 -0.198295 -0.47 137 88 81
0.131643 -0.200405 -0.475 129 86 80
0.173688 -0.214328 -0.508 119 78 84
0.180907 -0.216015 -0.512 115 73 77
0.185269 -0.217703 -0.516 102 67 73
0.195982 -0.223188 -0.529 140 143 174
0.252273 -0.233313 -0.553 113 82 90
0.26156 -0.23036 -0.546 117 82 88
0.28519 -0.22361 -0.53 138 108 118
0.2975 -0.2215 -0.525 137 107 117
0.2985 -0.2215 -0.525 137 107 117
0.310714 -0.220234 -0.522 145 115 123
0.315081 -0.219812 -0.521 143 116 123
0.320173 -0.218547 -0.518 138 111 120
0.359902 -0.224875 -0.533 55 52 59
0.429566 -0.258206 -0.612 89 84 107
0.414516 -0.226985 -0.538 142 91 87
0.415791 -0.226563 -0.537 137 88 83
0.423862 -0.224875 -0.533 147 97 88
0.429552 -0.22361 -0.53 147 97 86
0.438818 -0.223188 -0.529 151 99 86
0.441841 -0.223188 -0.529 149 97 84
0.493157 -0.234157 -0.555 146 98 88
-0.298809 -0.270814 -0.639 253 254 249
-0.297591 -0.270814 -0.639 253 254 249
-0.285643 -0.273357 -0.645 255 255 251
-0.149847 -0.269967 -0.637 200 200 190
-0.146895 -0.271238 -0.64 204 202 189
-0.14391 -0.27251 -0.643 195 195 183
-0.14089 -0.273781 -0.646 199 197 184
-0.109571 -0.275476 -0.65 242 239 230
-0.102427 -0.272933 -0.644 211 210 206
-0.0848467 -0.264033 -0.623 75 74 80
-0.0723943 -0.261914 -0.618 70 70 78
-0.0701533 -0.262338 -0.619 69 69 77
-0.0605038 -0.266576 -0.629 70 70 78
-0.0594 -0.267 -0.63 70 70 78
-0.057181 -0.267848 -0.632 69 69 77
-0.053739 -0.268695 -0.634 70 70 80
-0.0503533 -0.269967 -0.637 70 70 80
0.078861 -0.215295 -0.508 190 141 134
0.081999 -0.203852 -0.481 190 137 129
0.0869419 -0.200462 -0.473 181 127 117
0.12168 -0.198343 -0.468 134 87 81
0.124886 -0.19919 -0.47 135 86 81
0.126049 -0.199614 -0.471 135 86 81
0.161367 -0.218262 -0.515 192 188 211
0.16399 -0.217838 -0.514 66 49 67
0.167882 -0.215295 -0.508 114 73 79
0.171414 -0.214871 -0.507 121 80 86
0.196352 -0.224619 -0.53 146 151 191
0.257658 -0.233519 -0.551 116 84 89
0.258814 -0.232671 -0.549 116 83 90
0.263081 -0.231824 -0.547 113 80 89
0.271029 -0.228857 -0.54 125 92 99
0.28124 -0.226314 -0.534 141 110 118
0.282694 -0.225043 -0.531 139 108 116
0.283706 -0.225043 -0.531 138 108 116
0.331071 -0.218262 -0.515 137 109 121
0.340881 -0.218262 -0.515 137 117 128
0.415541 -0.22801 -0.538 136 87 82
0.420357 -0.226738 -0.535 143 93 86
0.42834 -0.225043 -0.531 146 96 87
0.431571 -0.224619 -0.53 152 100 89
0.453467 -0.225467 -0.532 141 91 80
-0.313413 -0.27416 -0.644 253 253 251
-0.30246 -0.272031 -0.639 253 253 251
-0.296838 -0.272457 -0.64 253 253 251
-0.29486 -0.272883 -0.641 252 254 249
-0.145449 -0.272031 -0.639 198 198 188
-0.142463 -0.273309 -0.642 199 197 185
-0.11682 -0.276289 -0.649 235 233 221
-0.114348 -0.276289 -0.649 241 238 229
-0.112937 -0.275863 -0.648 242 239 230
-0.0927048 -0.267349 -0.628 76 76 86
-0.0843019 -0.263517 -0.619 74 75 80
-0.0691971 -0.264369 -0.621 70 71 76
-0.0515667 -0.27118 -0.637 70 70 80
-0.0504324 -0.271606 -0.638 71 71 81
0.0833086 -0.203491 -0.478 184 131 123
0.0847733 -0.20264 -0.476 182 129 121
0.0855 -0.202214 -0.475 182 127 120
0.0883686 -0.200511 -0.471 185 128 119
0.0892657 -0.200511 -0.471 186 129 120
0.0960333 -0.19966 -0.469 180 125 118
0.106526 -0.199234 -0.468 166 108 97
0.114304 -0.198809 -0.467 139 89 82
0.146614 -0.210729 -0.495 176 155 162
0.173688 -0.216263 -0.508 119 78 84
0.253618 -0.239677 -0.563 109 78 86
0.277706 -0.228609 -0.537 130 99 105
0.27821 -0.228183 -0.536 128 97 103
0.2862 -0.225629 -0.53 141 111 121
0.288219 -0.225629 -0.53 142 112 122
0.296063 -0.223926 -0.526 138 108 118
0.2995 -0.2235 -0.525 140 110 120
0.316073 -0.221797 -0.521 145 116 121
0.356867 -0.225629 -0.53 55 50 57
0.413469 -0.230737 -0.542 140 91 87
0.41759 -0.229034 -0.538 137 90 84
0.423862 -0.226906 -0.533 142 92 85
0.426908 -0.226906 -0.533 142 92 85
0.42834 -0.226054 -0.531 145 95 86
0.436803 -0.225203 -0.529 155 103 90
0.449743 -0.225629 -0.53 147 95 84
0.461119 -0.227757 -0.535 147 94 86
-0.313156 -0.276242 -0.646 253 254 249
-0.306326 -0.274531 -0.642 252 252 250
-0.298989 -0.274531 -0.642 253 253 251
-0.297005 -0.274959 -0.643 252 252 250
-0.293787 -0.275387 -0.644 253 254 248
-0.287414 -0.277525 -0.649 255 255 251
-0.145977 -0.271966 -0.636 204 205 199
-0.139799 -0.274104 -0.641 204 201 192
-0.138578 -0.274104 -0.641 215 212 203
-0.106833 -0.274104 -0.641 199 198 193
-0.0758029 -0.263841 -0.617 72 72 80
-0.0682333 -0.266407 -0.623 72 72 80
-0.0638943 -0.268117 -0.627 71 71 79
-0.0594943 -0.269828 -0.631 69 69 77
-0.057181 -0.270255 -0.632 68 71 78
-0.0560657 -0.270683 -0.633 68 71 78
-0.0481524 -0.273676 -0.64 70 70 80
-0.0423857 -0.275814 -0.645 71 71 81
0.12194 -0.200553 -0.469 130 85 79
0.139033 -0.207395 -0.485 109 74 72
0.155963 -0.216803 -0.507 204 197 213
0.2544 -0.239467 -0.56 109 80 85
0.270466 -0.232197 -0.543 119 88 96
0.273607 -0.230487 -0.539 124 93 101
0.290238 -0.226638 -0.53 144 112 123
0.298067 -0.224928 -0.526 140 110 120
0.307731 -0.223217 -0.522 141 114 121
0.318438 -0.222362 -0.52 142 115 122
0.333033 -0.220224 -0.515 174 153 162
0.3399 -0.220224 -0.515 142 121 130
0.360577 -0.228349 -0.534 60 54 64
0.411757 -0.237329 -0.555 144 99 96
0.415533 -0.23177 -0.542 138 88 87
0.430363 -0.227066 -0.531 144 96 86
0.462138 -0.228776 -0.535 146 93 85
-0.31461 -0.278761 -0.649 252 253 248
-0.293143 -0.278331 -0.648 253 254 249
-0.136929 -0.274466 -0.639 226 223 214
-0.133694 -0.275325 -0.641 227 223 214
-0.111369 -0.274466 -0.639 205 204 199
-0.0916714 -0.266734 -0.621 70 69 77
-0.0850667 -0.264587 -0.616 66 67 69
-0.0825857 -0.264157 -0.615 74 74 82
-0.0792 -0.264587 -0.616 75 76 81
-0.0504324 -0.274036 -0.638 69 72 79
0.0790276 -0.210896 -0.491 188 138 129
0.0812514 -0.20703 -0.482 191 138 130
0.117223 -0.201017 -0.468 132 84 80
0.120153 -0.201447 -0.469 127 82 77
0.129833 -0.204024 -0.475 120 79 73
0.140823 -0.209608 -0.488 106 72 71
0.148451 -0.213903 -0.498 150 123 128
0.153424 -0.21691 -0.505 174 165 182
0.15627 -0.218198 -0.508 180 171 188
0.157857 -0.219057 -0.51 164 161 182
0.170112 -0.217339 -0.506 121 80 84
0.188686 -0.223352 -0.52 92 66 69
0.256321 -0.244399 -0.569 100 69 74
0.257291 -0.242251 -0.564 103 74 79
0.260464 -0.239245 -0.557 118 87 95
0.270964 -0.233661 -0.544 119 86 95
0.305332 -0.224641 -0.523 142 115 124
0.307325 -0.224641 -0.523 143 116 125
0.314089 -0.223782 -0.521 141 111 119
0.329749 -0.221634 -0.516 141 114 123
0.4298 -0.263728 -0.614 80 78 100
0.411757 -0.238386 -0.555 144 98 98
0.412073 -0.23495 -0.547 138 90 88
0.420906 -0.230654 -0.537 130 85 79
0.422164 -0.230225 -0.536 139 92 84
0.43561 -0.227648 -0.53 156 106 95
0.438818 -0.227218 -0.529 152 102 91
0.440833 -0.227218 -0.529 152 100 87
0.448733 -0.227648 -0.53 140 90 79
0.461274 -0.229366 -0.534 146 96 87
0.465044 -0.230225 -0.536 143 93 84
0.466934 -0.230654 -0.537 145 95 86
0.48308 -0.23452 -0.546 146 96 89
0.485007 -0.23495 -0.547 146 96 89
-0.309189 -0.279566 -0.648 252 253 248
-0.155186 -0.275683 -0.639 190 190 188
-0.147965 -0.271369 -0.629 243 243 243
-0.136286 -0.274389 -0.636 243 242 237
-0.133069 -0.275251 -0.638 245 244 240
-0.110323 -0.273094 -0.633 110 109 114
-0.083621 -0.264897 -0.614 75 76 81
-0.0716781 -0.268349 -0.622 71 74 81
-0.0684524 -0.269643 -0.625 72 75 82
-0.0550333 -0.273957 -0.635 67 70 77
-0.0424514 -0.278703 -0.646 70 70 78
0.108309 -0.201909 -0.468 155 102 96
0.125417 -0.203634 -0.472 124 79 73
0.14875 -0.215283 -0.499 120 88 93
0.1503 -0.216146 -0.501 129 106 114
0.160771 -0.220029 -0.51 57 40 58
0.161109 -0.219166 -0.508 72 44 58
0.173346 -0.218734 -0.507 117 76 80
0.197093 -0.22952 -0.532 144 162 212
0.260029 -0.245914 -0.57 96 69 76
0.260656 -0.245483 -0.569 98 71 80
0.264 -0.2416 -0.56 114 83 91
0.276683 -0.233403 -0.541 126 93 102
