ply
format ascii 1.0
comment Created by Open3D
element vertex 1272
property double x
property double y
property double z
property uchar red
property uchar green
property uchar blue
end_header
0.0153029 -0.337055 -0.412 157 110 84
0.0216857 -0.338691 -0.414 150 103 83
0.0376429 -0.34769 -0.425 119 83 69
0.0460914 -0.35669 -0.436 99 75 71
0.0522457 -0.36487 -0.446 88 73 70
0.06116 -0.37796 -0.462 84 70 69
0.516293 -0.435227 -0.532 120 103 96
0.502899 -0.395958 -0.484 181 136 105
0.50774 -0.391868 -0.479 179 133 100
0.516886 -0.387777 -0.474 177 128 96
0.65018 -0.45077 -0.551 203 206 195
1.01205 -0.475313 -0.581 105 105 105
-0.324828 -0.45182 -0.551 225 226 220
-0.31958 -0.45182 -0.551 224 227 218
-0.31481 -0.451 -0.55 226 229 220
-0.299095 -0.451 -0.55 226 227 219
-0.291243 -0.45182 -0.551 228 229 221
-0.265005 -0.45182 -0.551 229 230 222
-0.264434 -0.45264 -0.552 229 230 222
-0.257658 -0.45182 -0.551 228 229 221
-0.256609 -0.45182 -0.551 227 228 220
-0.235618 -0.45182 -0.551 228 229 221
-0.185577 -0.45264 -0.552 232 233 225
-0.17296 -0.45264 -0.552 232 233 227
-0.162446 -0.45264 -0.552 233 234 228
-0.06256 -0.45264 -0.552 186 155 127
-0.0594057 -0.45264 -0.552 190 147 112
-0.0171 -0.32718 -0.399 185 141 106
-0.00880571 -0.32964 -0.402 181 136 103
0.00425333 -0.33292 -0.406 170 123 95
0.00660571 -0.33456 -0.408 167 120 94
0.00738286 -0.33456 -0.408 168 121 95
0.00893714 -0.33456 -0.408 169 119 92
0.0153029 -0.33784 -0.412 157 110 84
0.0201086 -0.33948 -0.414 153 105 83
0.0324771 -0.34522 -0.421 128 90 77
0.0588857 -0.37556 -0.458 87 69 67
0.06622 -0.38786 -0.473 84 68 68
0.0688848 -0.39278 -0.479 82 66 67
0.529571 -0.451 -0.55 117 99 95
0.520123 -0.44034 -0.537 119 104 99
0.502627 -0.41492 -0.506 153 116 100
0.515262 -0.3895 -0.475 177 130 100
0.517071 -0.3895 -0.475 176 127 97
1.00625 -0.48052 -0.586 110 106 97
-0.327381 -0.452048 -0.55 225 226 220
-0.299597 -0.451226 -0.549 227 228 220
-0.298551 -0.451226 -0.549 227 228 220
-0.282847 -0.45287 -0.551 227 228 220
-0.219223 -0.453691 -0.552 229 230 222
-0.198194 -0.453691 -0.552 229 232 225
-0.196091 -0.453691 -0.552 228 231 224
-0.192937 -0.453691 -0.552 229 232 225
-0.186629 -0.453691 -0.552 230 233 226
-0.174011 -0.453691 -0.552 232 233 227
-0.169498 -0.45287 -0.551 231 232 226
-0.164549 -0.453691 -0.552 232 233 227
-0.163497 -0.453691 -0.552 232 233 227
-0.144571 -0.453691 -0.552 234 235 227
-0.142469 -0.453691 -0.552 233 234 226
-0.034159 -0.331228 -0.403 185 142 108
-0.0317771 -0.330406 -0.402 186 143 108
-0.01938 -0.32794 -0.399 185 141 106
0.00816 -0.335337 -0.408 169 122 94
0.0274029 -0.342734 -0.417 137 94 77
0.0299286 -0.344378 -0.419 132 95 79
0.0307267 -0.344378 -0.419 130 93 77
0.0333581 -0.346844 -0.422 125 88 72
0.04914 -0.36246 -0.441 94 76 66
0.0625771 -0.383008 -0.466 85 71 70
0.0760533 -0.407665 -0.496 92 86 98
0.0807962 -0.417528 -0.508 121 129 168
0.511524 -0.430678 -0.524 135 107 95
0.501274 -0.399446 -0.486 182 137 106
0.508501 -0.39287 -0.478 177 131 98
0.51272 -0.391227 -0.476 177 130 100
0.513627 -0.391227 -0.476 178 131 101
0.515262 -0.390405 -0.475 176 129 99
0.519399 -0.388761 -0.473 174 125 95
0.520099 -0.387939 -0.472 178 129 99
-0.316329 -0.452271 -0.549 225 228 219
-0.253 -0.453095 -0.55 229 230 222
-0.249857 -0.453095 -0.55 227 228 220
-0.236238 -0.453095 -0.55 228 229 221
-0.231 -0.453095 -0.55 229 231 220
-0.172647 -0.453919 -0.551 231 232 226
-0.168449 -0.453919 -0.551 232 233 225
-0.160343 -0.454743 -0.552 231 232 226
-0.122491 -0.454743 -0.552 234 235 229
-0.120389 -0.454743 -0.552 235 236 228
-0.0300952 -0.329524 -0.4 185 143 105
-0.02622 -0.3287 -0.399 187 144 109
-0.01786 -0.3287 -0.399 185 140 107
0.00893714 -0.336114 -0.408 167 117 90
0.0137 -0.338586 -0.411 160 113 87
0.0266086 -0.343529 -0.417 137 95 79
0.0274029 -0.343529 -0.417 136 94 78
0.0404486 -0.353414 -0.429 106 79 68
0.0492514 -0.364124 -0.442 94 76 64
0.051281 -0.366595 -0.445 90 71 65
0.0545495 -0.371538 -0.451 88 70 66
0.499243 -0.407786 -0.495 170 126 101
0.499619 -0.402019 -0.488 175 134 106
0.50045 -0.401195 -0.487 180 136 109
0.51272 -0.392133 -0.476 180 131 99
0.529989 -0.388838 -0.472 168 122 89
0.54264 -0.392133 -0.476 156 115 85
0.552005 -0.396252 -0.481 146 111 81
0.64324 -0.4498 -0.546 195 201 191
-0.313191 -0.453317 -0.549 226 227 221
-0.310054 -0.453317 -0.549 226 227 221
-0.282333 -0.454143 -0.55 227 228 220
-0.281286 -0.454143 -0.55 226 227 219
-0.280238 -0.454143 -0.55 226 227 219
-0.263476 -0.454143 -0.55 227 228 220
-0.247762 -0.454143 -0.55 228 229 221
-0.189095 -0.454143 -0.55 231 232 226
-0.183142 -0.454969 -0.551 232 233 227
-0.153755 -0.454969 -0.551 231 232 224
-0.0623333 -0.454143 -0.55 188 149 116
-0.0602381 -0.454143 -0.55 186 146 111
-0.0372295 -0.332763 -0.403 181 141 105
-0.0324619 -0.331111 -0.401 185 143 105
-0.01558 -0.32946 -0.399 184 138 105
0.00816 -0.336891 -0.408 165 118 88
0.0257524 -0.343497 -0.416 139 96 80
0.0433 -0.357534 -0.433 101 79 68
0.0811143 -0.421114 -0.51 104 125 172
0.502595 -0.416986 -0.505 159 118 98
0.500371 -0.411206 -0.498 164 122 98
0.501167 -0.400471 -0.485 173 128 99
0.508346 -0.393866 -0.477 171 125 92
0.514177 -0.391389 -0.474 180 131 99
0.552921 -0.397169 -0.481 147 110 81
0.650957 -0.453317 -0.549 198 200 189
0.873638 -0.469006 -0.568 122 122 114
-0.328278 -0.453535 -0.548 224 225 217
-0.314709 -0.453535 -0.548 226 227 221
-0.303227 -0.453535 -0.548 227 228 222
-0.27919 -0.45519 -0.55 226 227 219
-0.253586 -0.454363 -0.549 227 228 220
-0.244174 -0.454363 -0.549 227 228 220
-0.221571 -0.45519 -0.55 229 231 220
-0.194333 -0.45519 -0.55 229 230 222
-0.19119 -0.45519 -0.55 230 231 223
-0.183857 -0.45519 -0.55 231 232 226
-0.16425 -0.456018 -0.551 232 233 225
-0.163201 -0.456018 -0.551 232 233 227
-0.147458 -0.456018 -0.551 232 234 223
-0.137762 -0.45519 -0.55 232 233 225
-0.063381 -0.45519 -0.55 181 148 115
-0.0372295 -0.33353 -0.403 182 142 106
-0.031619 -0.331048 -0.4 185 142 107
-0.01482 -0.33022 -0.399 181 135 102
-0.0133333 -0.331048 -0.4 182 136 102
0.00581429 -0.336841 -0.407 168 119 89
0.0128857 -0.339324 -0.41 160 113 87
0.0368333 -0.351738 -0.425 111 84 75
0.0942924 -0.452708 -0.547 73 107 168
0.504657 -0.422086 -0.51 148 112 98
0.501522 -0.415465 -0.502 163 122 100
0.500371 -0.412154 -0.498 165 123 99
0.500251 -0.410499 -0.496 171 127 100
0.499029 -0.407189 -0.492 171 129 104
0.500133 -0.400568 -0.484 173 128 99
0.505003 -0.39643 -0.479 177 132 101
0.512548 -0.393119 -0.475 182 136 103
0.513452 -0.393119 -0.475 180 134 101
0.513274 -0.392291 -0.474 179 133 100
0.515983 -0.392291 -0.474 175 129 96
0.517597 -0.391464 -0.473 176 130 97
0.520099 -0.390636 -0.472 176 130 97
0.53066 -0.389809 -0.471 168 123 90
0.86886 -0.46926 -0.567 117 117 107
0.872556 -0.470088 -0.568 114 114 104
-0.299051 -0.454579 -0.548 226 227 221
-0.296964 -0.454579 -0.548 227 228 222
-0.293323 -0.455409 -0.549 226 227 221
-0.28182 -0.455409 -0.549 226 227 219
-0.279729 -0.455409 -0.549 226 227 219
-0.268226 -0.455409 -0.549 228 229 223
-0.262997 -0.455409 -0.549 227 228 220
-0.261951 -0.455409 -0.549 227 228 220
-0.233717 -0.455409 -0.549 227 229 218
-0.205483 -0.455409 -0.549 229 230 222
-0.190843 -0.455409 -0.549 230 231 223
-0.190143 -0.456238 -0.55 231 232 224
-0.12519 -0.456238 -0.55 233 234 226
-0.109476 -0.456238 -0.55 232 233 227
-0.060019 -0.454579 -0.548 187 146 114
-0.0427695 -0.341764 -0.412 183 144 113
-0.0389571 -0.335957 -0.405 184 144 108
-0.00878381 -0.332639 -0.401 178 132 98
-0.00191905 -0.334298 -0.403 167 120 92
0.0137 -0.340934 -0.411 156 108 85
0.0168724 -0.341764 -0.412 152 104 82
0.02496 -0.345082 -0.416 142 97 76
0.029061 -0.346741 -0.418 133 94 77
0.0396314 -0.355866 -0.429 107 80 71
0.0443286 -0.360843 -0.435 101 76 69
0.0493629 -0.367479 -0.443 95 70 65
0.05814 -0.380751 -0.459 84 66 62
0.0654571 -0.393194 -0.474 85 70 67
0.505003 -0.397342 -0.479 178 133 102
0.50668 -0.396512 -0.478 179 133 100
0.544214 -0.394024 -0.475 151 112 81
0.845766 -0.46951 -0.566 120 121 115
0.851156 -0.46951 -0.566 122 122 114
0.86562 -0.47034 -0.567 119 121 110
0.8667 -0.47034 -0.567 122 122 112
-0.302673 -0.454791 -0.547 228 229 223
-0.296964 -0.455623 -0.548 227 228 222
-0.292277 -0.456454 -0.549 226 227 221
-0.28235 -0.455623 -0.548 226 227 221
-0.275546 -0.456454 -0.549 226 227 221
-0.23851 -0.455623 -0.548 227 229 218
-0.236423 -0.455623 -0.548 226 228 217
-0.228072 -0.455623 -0.548 228 229 221
-0.189797 -0.456454 -0.549 229 230 224
-0.188751 -0.456454 -0.549 230 231 225
-0.173381 -0.457286 -0.55 231 232 226
-0.152429 -0.457286 -0.55 231 232 224
-0.149286 -0.457286 -0.55 232 233 225
-0.0728095 -0.457286 -0.55 229 230 222
-0.06222 -0.456454 -0.549 187 147 112
-0.04366 -0.34338 -0.413 185 144 112
-0.03002 -0.33174 -0.399 187 147 111
-0.01558 -0.33174 -0.399 178 134 97
-0.0133 -0.33174 -0.399 179 135 98
0.00658952 -0.338391 -0.407 163 113 90
0.00738286 -0.339223 -0.408 164 114 91
0.0559 -0.3783 -0.455 88 69 63
0.060541 -0.385783 -0.464 85 67 65
0.500313 -0.41322 -0.497 163 119 94
0.500133 -0.402411 -0.484 174 131 99
0.501614 -0.399917 -0.481 178 135 103
0.50668 -0.397423 -0.478 177 132 99
0.51 -0.39576 -0.476 179 133 100
0.531557 -0.391603 -0.471 168 122 86
0.537181 -0.392434 -0.472 169 117 80
0.545119 -0.394929 -0.475 153 112 80
0.84078 -0.47142 -0.567 120 121 115
0.84402 -0.47142 -0.567 114 115 109
-0.327679 -0.455833 -0.547 225 226 218
-0.323511 -0.455833 -0.547 226 227 219
-0.3146 -0.455 -0.546 225 226 220
-0.301631 -0.455833 -0.547 227 228 222
-0.28757 -0.456667 -0.548 226 227 221
-0.277131 -0.456667 -0.548 226 227 221
-0.267737 -0.456667 -0.548 227 228 222
-0.241642 -0.456667 -0.548 228 229 221
-0.233291 -0.456667 -0.548 227 228 220
-0.225985 -0.456667 -0.548 228 229 221
-0.222214 -0.4575 -0.549 228 229 221
-0.218031 -0.4575 -0.549 229 230 222
-0.216986 -0.4575 -0.549 227 229 218
-0.2013 -0.4575 -0.549 228 229 221
-0.19467 -0.456667 -0.548 230 231 223
-0.170974 -0.4575 -0.549 230 231 225
-0.166791 -0.4575 -0.549 231 232 224
-0.156334 -0.4575 -0.549 232 233 227
-0.145877 -0.4575 -0.549 232 233 225
-0.132524 -0.458333 -0.55 233 234 226
-0.114714 -0.458333 -0.55 234 235 229
-0.11346 -0.4575 -0.549 233 234 226
-0.107186 -0.4575 -0.549 234 235 227
-0.0424581 -0.340833 -0.409 185 142 110
-0.01406 -0.3325 -0.399 179 135 100
0.0168724 -0.343333 -0.412 150 104 80
0.0316752 -0.350833 -0.421 121 90 70
0.0360238 -0.354167 -0.425 113 83 73
0.0387238 -0.356667 -0.428 103 76 65
0.0697476 -0.404167 -0.485 77 70 64
0.072481 -0.409167 -0.491 79 73 75
0.505647 -0.425833 -0.511 143 107 93
0.504637 -0.424167 -0.509 150 113 97
0.499104 -0.410833 -0.493 165 123 99
0.509093 -0.396667 -0.476 177 132 101
0.518997 -0.3925 -0.471 178 129 96
0.541923 -0.394167 -0.473 156 113 79
0.54808 -0.396667 -0.476 154 113 83
0.634683 -0.4475 -0.537 196 199 192
0.820595 -0.470833 -0.565 123 124 118
0.84483 -0.474167 -0.569 121 121 113
0.876963 -0.4775 -0.573 121 122 114
-0.32188 -0.45604 -0.546 225 226 218
-0.30316 -0.45604 -0.546 226 227 221
-0.301631 -0.456875 -0.547 226 227 221
-0.297464 -0.456875 -0.547 226 227 221
-0.26829 -0.456875 -0.547 226 227 221
-0.25683 -0.456875 -0.547 229 230 222
-0.253704 -0.456875 -0.547 227 228 220
-0.250578 -0.456875 -0.547 228 229 221
-0.241201 -0.456875 -0.547 228 229 221
-0.237033 -0.456875 -0.547 226 228 217
-0.225985 -0.45771 -0.548 228 229 221
-0.200933 -0.45771 -0.548 228 229 223
-0.169619 -0.45771 -0.548 231 232 226
-0.162609 -0.458546 -0.549 231 232 224
-0.157093 -0.45771 -0.548 232 233 227
-0.151106 -0.458546 -0.549 233 234 228
-0.139349 -0.45771 -0.548 233 234 228
-0.133329 -0.458546 -0.549 233 234 226
-0.119734 -0.458546 -0.549 234 235 229
-0.115551 -0.458546 -0.549 233 234 228
-0.0630352 -0.456875 -0.547 186 145 113
-0.0387648 -0.336601 -0.403 185 142 110
-0.0276705 -0.332425 -0.398 190 146 111
0.000384762 -0.337436 -0.404 171 124 94
0.0120752 -0.341612 -0.409 160 113 87
0.0387238 -0.357482 -0.428 105 78 67
0.0434 -0.362493 -0.434 100 76 66
0.0657333 -0.397573 -0.476 87 69 67
0.0698914 -0.405926 -0.486 78 68 69
0.527725 -0.456875 -0.547 113 96 88
0.519205 -0.446852 -0.535 120 99 94
0.505661 -0.427642 -0.512 143 107 93
0.50256 -0.42096 -0.504 153 116 98
0.500313 -0.415113 -0.497 159 117 92
0.49869 -0.407596 -0.488 172 130 105
0.510738 -0.396738 -0.475 181 135 101
0.518301 -0.394232 -0.472 175 129 95
0.533114 -0.392562 -0.47 159 114 81
0.554271 -0.400079 -0.479 150 111 82
0.649329 -0.455205 -0.545 200 202 191
0.814501 -0.472745 -0.566 103 104 98
0.82134 -0.47358 -0.567 121 120 115
0.82566 -0.47358 -0.567 120 119 114
0.847799 -0.476921 -0.571 121 121 113
0.86085 -0.476921 -0.571 121 122 116
-0.31252 -0.45708 -0.546 226 227 221
-0.287045 -0.457917 -0.547 227 228 222
-0.271416 -0.457917 -0.547 227 228 222
-0.263081 -0.457917 -0.547 227 228 222
-0.24804 -0.45708 -0.546 226 228 217
-0.239117 -0.457917 -0.547 227 229 218
-0.210986 -0.457917 -0.547 229 231 220
-0.195357 -0.457917 -0.547 230 232 221
-0.181101 -0.458754 -0.548 229 230 224
-0.175561 -0.457917 -0.547 230 231 225
-0.174838 -0.458754 -0.548 230 231 225
-0.15605 -0.458754 -0.548 231 232 226
-0.141436 -0.458754 -0.548 232 233 227
-0.136217 -0.458754 -0.548 232 233 227
-0.125779 -0.458754 -0.548 233 234 228
-0.123691 -0.458754 -0.548 234 235 229
-0.0831343 -0.459591 -0.549 233 234 228
-0.0268448 -0.332346 -0.397 190 146 111
-0.00572857 -0.335694 -0.401 173 126 96
-0.00191429 -0.336531 -0.402 172 123 93
0.00658952 -0.340717 -0.407 163 116 88
0.0216857 -0.346577 -0.414 145 100 77
0.0397238 -0.359971 -0.43 105 78 67
0.0560229 -0.381737 -0.456 87 68 62
0.0572657 -0.384249 -0.459 86 68 64
0.0645543 -0.396806 -0.474 84 69 66
0.523029 -0.452057 -0.54 115 97 95
0.50362 -0.424431 -0.507 149 113 99
0.50002 -0.40434 -0.483 169 125 98
0.53401 -0.393457 -0.47 157 116 86
0.6195 -0.4395 -0.525 200 188 172
0.637914 -0.450383 -0.538 196 198 187
0.642502 -0.452894 -0.541 197 199 188
0.836543 -0.477171 -0.57 118 119 113
0.862774 -0.479683 -0.573 119 120 114
-0.29588 -0.45812 -0.546 226 228 217
-0.29068 -0.45812 -0.546 225 226 218
-0.2782 -0.45812 -0.546 227 228 222
-0.26052 -0.45812 -0.546 228 229 221
-0.233908 -0.458959 -0.547 227 228 220
-0.22453 -0.458959 -0.547 229 230 222
-0.216195 -0.458959 -0.547 229 230 222
-0.187022 -0.458959 -0.547 229 230 224
-0.153962 -0.459798 -0.548 231 232 224
-0.12891 -0.459798 -0.548 232 233 227
-0.121604 -0.459798 -0.548 232 233 227
-0.118472 -0.459798 -0.548 233 234 228
-0.0386686 -0.337297 -0.402 181 138 104
-0.0346667 -0.335619 -0.4 178 133 100
-0.0253324 -0.333102 -0.397 191 147 112
-0.016299 -0.333941 -0.398 184 138 104
-0.0147829 -0.333941 -0.398 184 138 102
-0.00496476 -0.336458 -0.401 171 124 94
-0.00191429 -0.337297 -0.402 172 123 93
0.00192857 -0.339814 -0.405 170 123 93
0.0184867 -0.346527 -0.413 148 103 82
0.0258143 -0.349883 -0.417 135 94 76
0.0325543 -0.354078 -0.422 122 89 72
0.0343238 -0.355756 -0.424 116 84 69
0.0360238 -0.356595 -0.425 112 82 71
0.0495857 -0.373376 -0.445 89 69 62
0.0596571 -0.389318 -0.464 83 68 63
0.50362 -0.425397 -0.507 147 111 97
0.501429 -0.419524 -0.5 158 115 96
0.499319 -0.406938 -0.485 175 131 102
0.508024 -0.398548 -0.475 181 135 102
0.513092 -0.39687 -0.473 177 131 98
0.519686 -0.394352 -0.47 175 126 93
0.523047 -0.393513 -0.469 174 125 92
0.527513 -0.393513 -0.469 170 124 90
0.640127 -0.452247 -0.539 192 192 182
0.859214 -0.482452 -0.575 109 110 105
-0.331671 -0.458319 -0.545 224 225 217
-0.328557 -0.458319 -0.545 223 224 216
-0.316556 -0.457478 -0.544 226 227 221
-0.290148 -0.458319 -0.545 225 226 218
-0.28236 -0.45916 -0.546 227 228 222
-0.27092 -0.45916 -0.546 227 228 222
-0.26988 -0.45916 -0.546 227 228 222
-0.24284 -0.45916 -0.546 227 228 220
-0.22828 -0.45916 -0.546 228 229 221
-0.221405 -0.460001 -0.547 229 230 222
-0.20748 -0.45916 -0.546 227 228 220
-0.18252 -0.45916 -0.546 232 233 225
-0.1742 -0.45916 -0.546 231 232 224
-0.172435 -0.460001 -0.547 230 231 223
-0.165142 -0.460001 -0.547 231 232 224
-0.138052 -0.460001 -0.547 232 233 227
-0.124508 -0.460001 -0.547 231 232 224
-0.0672029 -0.460001 -0.547 185 153 128
-0.0378086 -0.337222 -0.401 181 136 103
-0.0307029 -0.334699 -0.398 190 146 111
-0.0185267 -0.333858 -0.397 186 140 106
0.0152657 -0.345631 -0.411 154 108 85
0.0291305 -0.352359 -0.419 127 92 73
0.0397238 -0.36161 -0.43 103 76 67
0.0539286 -0.380951 -0.453 85 67 65
0.08664 -0.447387 -0.532 123 156 201
0.499029 -0.413749 -0.492 165 123 98
0.49895 -0.412908 -0.491 165 123 98
0.499903 -0.405339 -0.482 174 129 100
0.523047 -0.394407 -0.469 175 126 93
0.523714 -0.393566 -0.468 171 125 92
0.535553 -0.394407 -0.469 155 114 84
0.548486 -0.398611 -0.474 155 114 84
0.553774 -0.401134 -0.477 151 112 81
0.84788 -0.482707 -0.574 115 114 110
-0.329595 -0.459357 -0.545 224 225 217
-0.316556 -0.458514 -0.544 226 227 219
-0.31091 -0.459357 -0.545 226 227 219
-0.280805 -0.459357 -0.545 227 228 222
-0.274576 -0.459357 -0.545 226 227 221
-0.264195 -0.459357 -0.545 227 228 220
-0.261081 -0.459357 -0.545 227 228 222
-0.254852 -0.459357 -0.545 227 228 222
-0.251738 -0.459357 -0.545 228 229 223
-0.247586 -0.459357 -0.545 226 227 219
-0.13988 -0.4602 -0.546 232 233 225
-0.128675 -0.461043 -0.547 232 233 227
-0.107837 -0.461043 -0.547 233 234 228
-0.0797057 -0.461043 -0.547 236 233 226
-0.0692867 -0.461043 -0.547 183 152 131
-0.06708 -0.4602 -0.546 184 150 123
-0.0369524 -0.337143 -0.4 188 141 111
-0.0267771 -0.333771 -0.396 186 141 108
-0.0133 -0.3363 -0.399 179 133 99
-0.00572857 -0.337986 -0.401 173 124 92
-0.00115143 -0.339671 -0.403 172 123 91
0.00115429 -0.340514 -0.404 173 124 94
0.0136667 -0.345571 -0.41 155 109 85
0.0216857 -0.348943 -0.414 142 99 80
0.0258143 -0.351471 -0.417 133 92 74
0.0274686 -0.352314 -0.418 129 92 73
0.0436 -0.367486 -0.436 99 76 70
0.0760171 -0.423114 -0.502 147 173 208
0.0886419 -0.453457 -0.538 132 166 212
0.513476 -0.443343 -0.526 117 100 93
0.508627 -0.4366 -0.518 137 105 92
0.507646 -0.434914 -0.516 137 105 92
0.512191 -0.398671 -0.473 183 137 104
0.513092 -0.398671 -0.473 180 134 101
0.513806 -0.397829 -0.472 178 132 99
0.515409 -0.396986 -0.471 170 121 89
0.847167 -0.484643 -0.575 105 106 100
0.879788 -0.486329 -0.577 98 103 96
0.898671 -0.493071 -0.585 105 108 101
-0.309303 -0.459551 -0.544 225 226 220
-0.306194 -0.459551 -0.544 225 226 220
-0.299977 -0.459551 -0.544 227 228 220
-0.292724 -0.459551 -0.544 225 226 218
-0.232014 -0.460395 -0.545 227 228 220
-0.22308 -0.46124 -0.546 228 229 221
-0.21268 -0.46124 -0.546 229 230 222
-0.2106 -0.46124 -0.546 228 229 221
-0.193605 -0.460395 -0.545 229 231 220
-0.18011 -0.460395 -0.545 231 233 222
-0.15132 -0.46124 -0.546 232 233 225
-0.112005 -0.462085 -0.547 232 233 225
-0.0849152 -0.462085 -0.547 227 232 225
-0.06812 -0.46124 -0.546 187 148 119
-0.0427086 -0.341284 -0.404 182 139 105
-0.02376 -0.334526 -0.396 179 134 101
-0.0207952 -0.33537 -0.397 185 139 105
-0.00268 -0.339594 -0.402 169 123 90
-0.00038381 -0.340439 -0.403 171 122 92
0.00424286 -0.342129 -0.405 170 121 91
0.00816 -0.344663 -0.408 162 112 85
0.00971429 -0.344663 -0.408 156 108 85
0.0128857 -0.346352 -0.41 156 108 85
0.0192733 -0.348887 -0.413 146 101 80
0.0352143 -0.359024 -0.425 109 82 75
0.0507733 -0.378453 -0.448 86 68 68
0.0636514 -0.400417 -0.474 83 69 69
0.509609 -0.438431 -0.519 137 105 92
0.49878 -0.413089 -0.489 170 126 99
0.499423 -0.410554 -0.486 173 127 101
0.5024 -0.405486 -0.48 172 127 96
0.506373 -0.402107 -0.476 179 133 100
0.51129 -0.399572 -0.473 180 134 101
0.522823 -0.395349 -0.468 172 126 93
0.54002 -0.396193 -0.469 159 115 86
0.544117 -0.397883 -0.471 159 115 86
0.54913 -0.399572 -0.473 156 112 83
0.832183 -0.486583 -0.576 31 31 29
0.83328 -0.486583 -0.576 112 112 110
0.834024 -0.485738 -0.575 122 124 121
-0.315974 -0.45974 -0.543 224 225 217
-0.306194 -0.460587 -0.544 225 226 220
-0.305158 -0.460587 -0.544 226 227 221
-0.297905 -0.460587 -0.544 226 227 219
-0.284434 -0.460587 -0.544 226 227 221
-0.25024 -0.460587 -0.544 227 228 222
-0.18011 -0.461433 -0.545 230 232 221
-0.1534 -0.46228 -0.546 232 233 225
-0.15236 -0.46228 -0.546 232 233 225
-0.137548 -0.461433 -0.545 232 233 225
-0.13651 -0.461433 -0.545 232 233 225
-0.13364 -0.46228 -0.546 233 234 228
-0.0426029 -0.341207 -0.403 183 140 106
-0.0384762 -0.338667 -0.4 184 141 107
-0.03762 -0.33782 -0.399 184 141 107
-0.0337352 -0.336973 -0.398 186 143 108
-0.0283571 -0.336127 -0.397 186 143 108
-0.015541 -0.336973 -0.398 183 137 104
0.0241676 -0.352213 -0.416 136 93 76
0.0308733 -0.356447 -0.421 122 86 74
0.0425733 -0.367453 -0.434 98 77 72
0.0563914 -0.38862 -0.459 84 68 68
0.50256 -0.42672 -0.504 151 109 93
0.501376 -0.422487 -0.499 156 113 94
0.498395 -0.410633 -0.485 170 126 99
0.508024 -0.402167 -0.475 177 131 98
0.50876 -0.40132 -0.474 179 133 100
0.510566 -0.40132 -0.474 178 131 101
0.655391 -0.460587 -0.544 126 122 119
0.845349 -0.48768 -0.576 102 101 97
-0.311837 -0.460774 -0.543 225 226 218
-0.28598 -0.460774 -0.543 226 227 219
-0.273036 -0.461623 -0.544 225 226 220
-0.267855 -0.461623 -0.544 226 227 221
-0.265783 -0.461623 -0.544 226 227 221
-0.220595 -0.462471 -0.545 227 228 220
-0.219557 -0.462471 -0.545 228 229 221
-0.205024 -0.462471 -0.545 228 229 221
-0.203986 -0.462471 -0.545 228 229 221
-0.197394 -0.461623 -0.544 229 231 220
-0.196358 -0.461623 -0.544 229 231 220
-0.179779 -0.461623 -0.544 230 232 221
-0.164236 -0.461623 -0.544 230 231 223
-0.160386 -0.462471 -0.545 231 232 224
-0.1417 -0.462471 -0.545 231 232 224
-0.13651 -0.462471 -0.545 232 233 225
-0.129243 -0.462471 -0.545 233 234 228
-0.11284 -0.46332 -0.546 232 233 225
-0.07852 -0.46332 -0.546 233 232 228
-0.07332 -0.46332 -0.546 186 170 154
-0.0633743 -0.459077 -0.541 185 144 112
-0.0424971 -0.341126 -0.402 184 141 107
-0.0321381 -0.336883 -0.397 184 145 106
-0.0087619 -0.339429 -0.4 175 128 98
0.00269333 -0.342823 -0.404 169 119 92
0.0160876 -0.349611 -0.412 148 103 82
0.0184867 -0.35046 -0.413 144 101 82
0.0208971 -0.351309 -0.414 140 97 78
0.0284 -0.3564 -0.42 125 87 74
0.0370933 -0.363189 -0.428 107 79 75
0.0530657 -0.384403 -0.453 83 67 67
0.0600429 -0.396283 -0.467 82 68 68
0.06776 -0.410709 -0.484 83 71 73
0.51156 -0.442954 -0.522 119 101 91
0.502478 -0.425983 -0.502 153 111 95
0.500251 -0.420891 -0.496 158 116 94
0.50002 -0.40986 -0.483 176 129 99
0.502128 -0.405617 -0.478 178 131 103
0.509663 -0.402223 -0.474 180 131 101
0.52104 -0.397131 -0.468 179 130 100
0.525914 -0.395434 -0.466 169 122 92
0.529465 -0.395434 -0.466 167 120 90
0.535938 -0.396283 -0.467 165 120 89
0.860394 -0.490474 -0.578 102 103 98
0.875117 -0.491323 -0.579 117 119 114
-0.291151 -0.461809 -0.543 226 227 219
-0.288049 -0.461809 -0.543 226 227 221
-0.274603 -0.461809 -0.543 226 227 221
-0.272 -0.462659 -0.544 225 226 220
-0.270466 -0.461809 -0.543 225 226 220
-0.173562 -0.462659 -0.544 231 232 224
-0.14973 -0.462659 -0.544 232 234 223
-0.12509 -0.46351 -0.545 232 233 227
-0.111595 -0.46351 -0.545 231 232 224
-0.086681 -0.46351 -0.545 227 234 227
-0.0794143 -0.46351 -0.545 230 230 222
-0.0352514 -0.33849 -0.398 182 143 102
-0.0125086 -0.33849 -0.398 176 129 99
-0.00038381 -0.342742 -0.403 174 125 95
0.00115143 -0.342742 -0.403 165 118 90
0.00269333 -0.343592 -0.404 169 119 92
0.00502667 -0.345293 -0.406 165 115 90
0.0300714 -0.35805 -0.421 121 87 77
0.0398162 -0.366555 -0.431 99 74 69
0.0626162 -0.402275 -0.473 84 64 65
0.0721286 -0.420986 -0.495 182 185 204
0.499319 -0.412481 -0.485 171 128 96
0.50531 -0.403976 -0.475 178 129 99
0.511109 -0.401425 -0.472 166 120 86
0.518366 -0.398023 -0.468 181 132 100
0.533903 -0.396322 -0.466 164 118 85
0.540651 -0.398023 -0.468 162 117 86
0.839123 -0.490725 -0.577 122 123 118
0.881048 -0.493276 -0.58 105 107 102
0.883673 -0.494127 -0.581 94 97 90
-0.326146 -0.461138 -0.541 224 225 217
-0.325115 -0.461138 -0.541 223 225 214
-0.31436 -0.46199 -0.542 225 226 218
-0.297842 -0.46199 -0.542 226 227 219
-0.2715 -0.462843 -0.543 225 226 220
-0.258054 -0.462843 -0.543 227 228 222
-0.248746 -0.462843 -0.543 226 227 221
-0.239437 -0.462843 -0.543 226 227 219
-0.222263 -0.463695 -0.544 227 228 220
-0.0897952 -0.464548 -0.545 231 232 224
-0.0655562 -0.46199 -0.542 185 146 113
-0.0480286 -0.349476 -0.41 182 142 107
-0.0460133 -0.346067 -0.406 183 143 108
-0.0432629 -0.342657 -0.402 184 144 108
-0.02904 -0.337543 -0.396 191 149 111
-0.0229476 -0.33669 -0.395 182 138 101
-0.0125086 -0.339248 -0.398 174 127 97
0.00814 -0.346919 -0.407 158 110 87
0.00971429 -0.347771 -0.408 155 104 83
0.0136667 -0.349476 -0.41 150 103 83
0.0344857 -0.363114 -0.426 116 82 73
0.0370933 -0.364819 -0.428 102 77 72
0.0488476 -0.380162 -0.446 88 69 65
0.0520876 -0.385276 -0.452 85 67 63
0.0542857 -0.388686 -0.456 82 68 68
0.514478 -0.448352 -0.526 116 102 89
0.501376 -0.425338 -0.499 150 112 89
0.50132 -0.424486 -0.498 154 116 93
0.500133 -0.412552 -0.484 177 130 100
0.502894 -0.406586 -0.477 181 134 104
0.50531 -0.404881 -0.475 179 130 98
0.51039 -0.403176 -0.473 172 126 92
0.51521 -0.400619 -0.47 177 128 95
0.54538 -0.399767 -0.469 155 111 82
0.847915 -0.491824 -0.577 101 100 95
0.868895 -0.494381 -0.58 92 94 89
-0.327176 -0.462169 -0.541 223 224 216
-0.316871 -0.462169 -0.541 227 228 220
-0.315392 -0.463023 -0.542 225 226 218
-0.313328 -0.463023 -0.542 225 226 218
-0.301971 -0.463023 -0.542 226 227 219
-0.300939 -0.463023 -0.542 226 227 219
-0.268935 -0.463023 -0.542 226 229 222
-0.256547 -0.463023 -0.542 227 228 222
-0.250352 -0.463023 -0.542 225 226 220
-0.248288 -0.463023 -0.542 226 227 221
-0.24519 -0.463023 -0.542 226 227 219
-0.207374 -0.463877 -0.543 227 228 220
-0.201169 -0.463877 -0.543 229 230 222
-0.181517 -0.463877 -0.543 230 231 223
-0.169106 -0.463877 -0.543 230 232 221
-0.155947 -0.464731 -0.544 232 233 225
-0.139111 -0.463877 -0.543 231 232 224
-0.134974 -0.463877 -0.543 231 232 224
-0.11968 -0.464731 -0.544 230 233 226
-0.105173 -0.464731 -0.544 232 233 225
-0.081341 -0.464731 -0.544 232 232 222
-0.0665886 -0.463023 -0.542 185 146 113
-0.035919 -0.339151 -0.397 184 142 102
-0.0162581 -0.339151 -0.397 179 133 100
-0.0155019 -0.339151 -0.397 180 134 101
0.00657333 -0.34684 -0.406 160 112 89
0.0144829 -0.351111 -0.411 147 100 82
0.0233752 -0.355383 -0.416 128 90 79
0.0258762 -0.357091 -0.418 125 87 76
0.0335952 -0.363071 -0.425 116 82 73
0.0437 -0.373323 -0.437 94 73 68
0.051 -0.384429 -0.45 84 66 62
0.0533 -0.3887 -0.455 82 68 67
0.0693914 -0.417746 -0.489 115 109 109
0.0884314 -0.463877 -0.543 183 201 225
0.509489 -0.477546 -0.559 172 172 174
0.524057 -0.461314 -0.54 115 97 87
0.50863 -0.441666 -0.517 128 102 85
0.505661 -0.437394 -0.512 132 105 88
0.50456 -0.40664 -0.476 182 133 101
0.521476 -0.398097 -0.466 179 131 95
0.536566 -0.398097 -0.466 162 117 86
0.848284 -0.493777 -0.578 101 102 96
0.886715 -0.498049 -0.583 101 102 96
-0.323054 -0.463199 -0.541 224 225 217
-0.322024 -0.463199 -0.541 224 225 217
-0.320993 -0.463199 -0.541 225 226 218
-0.308628 -0.463199 -0.541 225 226 220
-0.301414 -0.463199 -0.541 226 227 221
-0.285957 -0.463199 -0.541 226 227 219
-0.27513 -0.464055 -0.542 226 229 222
-0.269968 -0.464055 -0.542 225 228 221
-0.25345 -0.464055 -0.542 226 227 221
-0.221854 -0.464911 -0.543 227 228 220
-0.214614 -0.464911 -0.543 227 228 220
-0.197701 -0.464055 -0.542 228 230 219
-0.182215 -0.464055 -0.542 229 231 220
-0.175311 -0.464911 -0.543 230 231 223
-0.158763 -0.464911 -0.543 232 233 225
-0.154626 -0.464911 -0.543 232 234 223
-0.137043 -0.464911 -0.543 230 231 225
-0.0823771 -0.465768 -0.544 234 231 222
-0.0467867 -0.347613 -0.406 183 145 108
-0.0415238 -0.342476 -0.4 184 145 106
-0.0381876 -0.339908 -0.397 183 144 105
-0.0170143 -0.339908 -0.397 180 134 101
-0.0125086 -0.340764 -0.398 177 128 96
-0.00038381 -0.345045 -0.403 166 119 91
0.0105171 -0.350182 -0.409 151 104 84
0.0152657 -0.351894 -0.411 143 100 81
0.0468314 -0.379292 -0.443 88 68 67
0.0641886 -0.409259 -0.478 83 68 65
0.493517 -0.47861 -0.559 180 182 179
0.508424 -0.47861 -0.559 170 170 170
0.50863 -0.44265 -0.517 128 102 87
0.501477 -0.428951 -0.501 144 107 88
0.49869 -0.417821 -0.488 168 122 96
0.503653 -0.407547 -0.476 182 136 102
0.505149 -0.405834 -0.474 181 132 99
0.51521 -0.40241 -0.47 178 132 98
0.516793 -0.401553 -0.469 178 132 98
0.517258 -0.399841 -0.467 182 137 98
0.520589 -0.398985 -0.466 179 133 97
0.538341 -0.398985 -0.466 154 111 79
0.867457 -0.498303 -0.582 106 105 101
0.872279 -0.499159 -0.583 107 109 104
-0.31275 -0.46423 -0.541 226 227 221
-0.302445 -0.46423 -0.541 226 227 221
-0.301414 -0.46423 -0.541 226 227 221
-0.263287 -0.46423 -0.541 227 228 222
-0.235899 -0.465088 -0.542 226 228 217
-0.22082 -0.465946 -0.543 227 228 220
-0.214219 -0.465088 -0.542 227 228 220
-0.212154 -0.465088 -0.542 227 228 220
-0.20596 -0.465088 -0.542 228 229 221
-0.178086 -0.465088 -0.542 229 231 220
-0.174989 -0.465088 -0.542 229 230 222
-0.14842 -0.465946 -0.543 231 232 224
-0.120494 -0.465946 -0.543 233 234 226
-0.0905 -0.465946 -0.543 230 231 225
-0.0365829 -0.339806 -0.396 185 145 109
-0.0206905 -0.338948 -0.395 181 135 101
-0.00646 -0.34238 -0.399 174 124 97
0.0217381 -0.35611 -0.415 130 92 79
0.0284 -0.3604 -0.42 120 86 76
0.0545238 -0.393008 -0.458 86 68 68
0.4998 -0.420467 -0.49 165 121 96
0.503653 -0.408453 -0.476 179 135 100
0.50531 -0.407595 -0.475 179 133 99
0.507687 -0.405879 -0.473 180 132 96
0.508588 -0.405879 -0.473 178 132 98
0.515007 -0.402447 -0.469 176 132 97
0.517474 -0.401589 -0.468 179 134 95
0.518813 -0.399872 -0.466 177 131 95
-0.32802 -0.46354 -0.539 224 225 217
-0.296743 -0.4644 -0.54 226 227 219
-0.288514 -0.4644 -0.54 225 226 218
-0.277713 -0.46526 -0.541 226 229 222
-0.27153 -0.46526 -0.541 226 229 222
-0.266378 -0.46526 -0.541 226 229 220
-0.259165 -0.46526 -0.541 226 227 221
-0.256073 -0.46526 -0.541 226 227 221
-0.251951 -0.46526 -0.541 227 228 222
-0.250921 -0.46526 -0.541 227 228 222
-0.234867 -0.46612 -0.542 225 227 216
-0.22722 -0.46526 -0.541 227 228 220
-0.199397 -0.46526 -0.541 227 228 220
-0.189092 -0.46526 -0.541 228 230 219
-0.18428 -0.46612 -0.542 230 232 221
-0.172924 -0.46612 -0.542 229 230 222
-0.164361 -0.46526 -0.541 229 231 220
-0.141952 -0.46612 -0.542 232 233 225
-0.117391 -0.46698 -0.543 231 232 224
-0.114289 -0.46698 -0.543 232 233 225
-0.109117 -0.46698 -0.543 231 232 224
-0.0925686 -0.46698 -0.543 231 232 226
-0.0727829 -0.46612 -0.542 180 145 115
-0.0273924 -0.33884 -0.394 182 145 103
-0.0266419 -0.33884 -0.394 185 141 104
-0.0206905 -0.3397 -0.395 182 133 100
-0.0162581 -0.34142 -0.397 186 136 103
-0.0147457 -0.34142 -0.397 181 132 102
-0.00646 -0.34314 -0.399 174 124 97
0.031901 -0.36464 -0.424 116 84 73
0.0354629 -0.36808 -0.428 101 76 72
0.0390857 -0.37152 -0.432 98 74 70
0.0490667 -0.38528 -0.448 87 69 69
0.0523181 -0.39044 -0.454 89 67 69
0.0546429 -0.39474 -0.459 87 67 68
0.510082 -0.48332 -0.562 152 152 152
0.50256 -0.43344 -0.504 141 110 92
0.502128 -0.41108 -0.478 174 131 97
0.501986 -0.41022 -0.477 175 132 98
0.518813 -0.40076 -0.466 176 130 94
0.518586 -0.3999 -0.465 177 131 95
0.520357 -0.3999 -0.465 174 128 94
0.52782 -0.39818 -0.463 170 125 92
-0.322457 -0.465429 -0.54 225 226 218
-0.3157 -0.464567 -0.539 225 226 220
-0.3132 -0.465429 -0.54 225 226 220
-0.296743 -0.465429 -0.54 226 227 219
-0.260743 -0.465429 -0.54 226 227 219
-0.250457 -0.465429 -0.54 226 227 219
-0.238555 -0.46629 -0.541 227 228 220
-0.218349 -0.467152 -0.542 227 228 220
-0.216284 -0.467152 -0.542 228 229 221
-0.212793 -0.46629 -0.541 228 229 221
-0.210732 -0.46629 -0.541 228 229 221
-0.201458 -0.46629 -0.541 229 230 222
-0.192184 -0.46629 -0.541 228 230 219
-0.18497 -0.46629 -0.541 228 230 219
-0.135758 -0.467152 -0.542 231 232 224
-0.134726 -0.467152 -0.542 231 232 224
-0.114078 -0.467152 -0.542 232 233 225
-0.112013 -0.467152 -0.542 232 233 225
-0.0998086 -0.468014 -0.543 230 233 226
-0.0934305 -0.467152 -0.542 231 232 226
-0.0862038 -0.467152 -0.542 230 231 225
-0.0682733 -0.464567 -0.539 182 143 110
-0.0348971 -0.33959 -0.394 187 145 107
-0.025141 -0.33959 -0.394 182 138 101
-0.0162171 -0.341314 -0.396 183 137 101
-0.0124771 -0.342176 -0.397 178 129 97
-0.0109924 -0.343038 -0.398 177 128 96
-0.00874 -0.3439 -0.399 175 129 96
-0.00114857 -0.346486 -0.402 169 119 92
0.00736476 -0.350795 -0.407 153 107 84
0.0225829 -0.358552 -0.416 131 93 74
0.0234314 -0.359414 -0.417 131 93 74
0.02508 -0.360276 -0.418 127 90 72
0.058139 -0.401648 -0.466 83 68 63
0.06578 -0.4163 -0.483 77 72 78
0.494904 -0.485252 -0.563 162 161 159
0.525583 -0.480943 -0.558 96 92 91
0.522169 -0.462843 -0.537 107 96 90
0.51352 -0.451638 -0.524 113 100 84
0.505629 -0.439571 -0.51 132 106 89
0.50359 -0.436124 -0.506 135 106 88
0.502128 -0.41199 -0.478 175 132 100
0.50456 -0.410267 -0.476 173 128 95
0.508588 -0.407681 -0.473 173 129 94
0.510026 -0.405957 -0.471 179 135 100
0.518148 -0.40251 -0.467 180 134 98
0.519471 -0.400786 -0.465 178 132 98
0.52189 -0.399924 -0.464 170 126 91
0.526056 -0.399062 -0.463 171 125 91
0.533111 -0.399062 -0.463 164 120 85
0.536914 -0.399924 -0.464 157 114 80
0.540729 -0.400786 -0.465 156 113 79
0.549566 -0.403371 -0.468 148 107 77
0.565307 -0.410267 -0.476 133 98 70
0.57638 -0.4163 -0.483 105 82 66
-0.304407 -0.465593 -0.539 225 226 220
-0.302353 -0.465593 -0.539 226 227 221
-0.282343 -0.466457 -0.54 225 226 220
-0.265886 -0.466457 -0.54 226 229 220
-0.247371 -0.466457 -0.54 228 229 221
-0.239143 -0.466457 -0.54 228 229 223
-0.229886 -0.466457 -0.54 227 229 218
-0.224129 -0.467321 -0.541 226 228 217
-0.221037 -0.467321 -0.541 227 229 218
-0.217946 -0.467321 -0.541 227 228 220
-0.213824 -0.467321 -0.541 227 228 220
-0.159209 -0.467321 -0.541 230 231 223
-0.144782 -0.467321 -0.541 231 232 224
-0.142721 -0.467321 -0.541 231 232 226
-0.0985924 -0.468185 -0.542 229 232 225
-0.0704571 -0.466457 -0.54 181 145 109
-0.0512771 -0.355026 -0.411 180 141 108
-0.0372429 -0.341205 -0.395 184 144 108
-0.0303171 -0.339477 -0.393 185 143 105
-0.0162171 -0.342069 -0.396 182 136 102
-0.00343714 -0.346388 -0.401 169 119 94
0.00347143 -0.349843 -0.405 159 111 89
0.01932 -0.357617 -0.414 131 94 78
0.0225829 -0.359345 -0.416 130 95 76
0.46841 -0.481142 -0.557 183 182 177
0.469471 -0.481142 -0.557 186 183 178
0.484597 -0.484597 -0.561 170 170 170
0.52759 -0.48287 -0.559 69 65 64
0.531007 -0.481142 -0.557 58 58 58
0.506636 -0.44227 -0.512 129 104 84
0.503557 -0.436224 -0.505 138 107 86
0.50931 -0.407718 -0.472 173 128 95
0.513017 -0.404263 -0.468 175 129 95
0.518586 -0.401671 -0.465 179 133 99
0.520765 -0.399944 -0.463 170 124 91
0.52492 -0.39908 -0.462 172 126 92
0.544554 -0.402535 -0.466 155 111 76
-0.303842 -0.465754 -0.538 226 227 221
-0.289007 -0.46662 -0.539 226 227 219
-0.264367 -0.46662 -0.539 225 228 219
-0.262313 -0.46662 -0.539 227 228 220
-0.252047 -0.46662 -0.539 226 227 219
-0.246913 -0.46662 -0.539 227 228 220
-0.235029 -0.467486 -0.54 226 227 219
-0.228857 -0.467486 -0.54 227 228 220
-0.172286 -0.467486 -0.54 229 231 220
-0.162727 -0.46662 -0.539 231 232 224
-0.158914 -0.467486 -0.54 230 231 223
-0.148904 -0.468351 -0.541 231 232 226
-0.146843 -0.468351 -0.541 229 230 222
-0.125203 -0.468351 -0.541 231 232 224
-0.121081 -0.468351 -0.541 231 232 224
-0.099441 -0.468351 -0.541 229 232 225
-0.0932581 -0.468351 -0.541 230 231 225
-0.0850143 -0.468351 -0.541 230 232 221
-0.0829533 -0.468351 -0.541 231 232 226
-0.0779448 -0.469217 -0.542 188 163 143
-0.0691714 -0.465754 -0.538 185 144 112
-0.0333114 -0.340226 -0.393 189 146 111
-0.0258257 -0.340226 -0.393 183 139 100
-0.00267333 -0.347151 -0.401 167 120 94
-0.00191429 -0.348017 -0.402 166 119 93
0.00347143 -0.350614 -0.405 158 111 91
0.0120752 -0.354077 -0.409 145 100 81
0.0144829 -0.355809 -0.411 138 97 79
0.0310933 -0.367063 -0.424 114 84 73
0.0673905 -0.422469 -0.488 146 147 151
0.447191 -0.482203 -0.557 189 191 188
0.468189 -0.483069 -0.558 173 174 168
0.477333 -0.4848 -0.56 162 166 175
0.502346 -0.492591 -0.569 107 101 105
0.529441 -0.492591 -0.569 59 57 60
0.530897 -0.483069 -0.558 40 44 47
0.524057 -0.467486 -0.54 102 87 80
0.500371 -0.431126 -0.498 147 111 89
0.500186 -0.428529 -0.495 152 116 94
0.501217 -0.413811 -0.478 175 130 99
0.504984 -0.409483 -0.473 178 132 99
0.52756 -0.39996 -0.462 169 125 90
0.52844 -0.39996 -0.462 166 122 87
0.53108 -0.39996 -0.462 164 118 84
-0.321263 -0.466779 -0.538 224 225 217
-0.308966 -0.466779 -0.538 226 227 221
-0.297693 -0.466779 -0.538 227 228 222
-0.221657 -0.468514 -0.54 227 228 220
-0.182233 -0.467647 -0.539 227 229 218
-0.17402 -0.467647 -0.539 229 231 220
-0.1692 -0.468514 -0.54 229 230 222
-0.157886 -0.468514 -0.54 230 231 223
-0.156857 -0.468514 -0.54 230 231 223
-0.137569 -0.469382 -0.541 231 232 226
-0.128057 -0.468514 -0.54 231 232 224
-0.121886 -0.468514 -0.54 232 233 225
-0.12005 -0.469382 -0.541 231 232 224
-0.114898 -0.469382 -0.541 232 233 225
-0.0942886 -0.469382 -0.541 231 232 226
-0.0932581 -0.469382 -0.541 230 231 225
-0.0922276 -0.469382 -0.541 231 232 226
-0.07574 -0.469382 -0.541 185 146 117
-0.0496343 -0.350518 -0.404 180 139 107
-0.0487438 -0.34965 -0.403 180 140 105
-0.0379952 -0.34271 -0.395 185 143 105
-0.0371486 -0.341842 -0.394 186 144 106
-0.0132333 -0.344445 -0.397 178 129 97
0.00502667 -0.352253 -0.406 153 106 86
0.00657333 -0.352253 -0.406 153 106 86
0.0310933 -0.36787 -0.424 113 83 72
0.0319762 -0.368738 -0.425 109 81 70
0.0328629 -0.369606 -0.426 108 80 69
0.05966 -0.408649 -0.471 85 65 64
0.0635429 -0.416457 -0.48 76 66 65
0.06902 -0.427736 -0.493 170 184 193
0.459923 -0.483264 -0.557 168 158 166
0.4859 -0.490205 -0.565 133 128 132
0.489994 -0.491072 -0.566 121 121 119
0.532692 -0.493675 -0.569 52 50 55
0.502478 -0.435545 -0.502 140 108 87
0.502431 -0.434677 -0.501 142 110 89
0.500186 -0.429471 -0.495 151 116 96
0.498595 -0.42253 -0.487 158 118 92
0.507512 -0.409516 -0.472 174 128 95
0.510026 -0.408649 -0.471 179 133 99
0.5177 -0.403443 -0.465 177 131 98
-0.322711 -0.466934 -0.537 224 225 217
-0.307941 -0.467804 -0.538 224 225 219
-0.300768 -0.467804 -0.538 226 227 221
-0.289495 -0.467804 -0.538 226 227 219
-0.262851 -0.467804 -0.538 225 228 221
-0.254653 -0.467804 -0.538 225 226 218
-0.243381 -0.467804 -0.538 226 227 221
-0.178127 -0.468673 -0.539 228 229 221
-0.162727 -0.468673 -0.539 230 231 223
-0.15246 -0.468673 -0.539 229 230 224
-0.0992571 -0.469543 -0.54 230 231 225
-0.09 -0.469543 -0.54 229 230 224
-0.0788314 -0.470412 -0.541 204 186 172
-0.07238 -0.468673 -0.539 183 144 111
-0.0477381 -0.348679 -0.401 183 140 106
-0.04598 -0.34694 -0.399 182 139 105
-0.0363981 -0.342592 -0.394 186 142 105
-0.0355571 -0.341723 -0.393 185 141 104
-0.0317333 -0.340853 -0.392 192 148 111
0.0201571 -0.360852 -0.415 129 92 76
0.046299 -0.387808 -0.446 87 68 64
0.0515667 -0.395633 -0.455 82 66 66
0.0663248 -0.423458 -0.487 115 118 125
0.428385 -0.483455 -0.556 179 177 182
0.461811 -0.485194 -0.558 136 136 136
0.475601 -0.489542 -0.563 113 113 115
0.519294 -0.463456 -0.533 111 93 81
0.504586 -0.440849 -0.507 132 103 85
0.504554 -0.439979 -0.506 135 104 84
0.501376 -0.433892 -0.499 143 111 90
0.499903 -0.41911 -0.482 169 125 96
0.500441 -0.416502 -0.479 172 129 97
0.500307 -0.415632 -0.478 172 129 97
0.502747 -0.413893 -0.476 171 126 95
0.511433 -0.407807 -0.469 175 129 95
0.51322 -0.407807 -0.469 176 130 96
0.5137 -0.406068 -0.467 180 134 100
0.51459 -0.406068 -0.467 181 135 101
0.522028 -0.40085 -0.461 171 125 91
0.560867 -0.408676 -0.47 133 101 76
-0.317164 -0.468829 -0.538 225 226 218
-0.3043 -0.467957 -0.537 221 222 214
-0.295094 -0.467957 -0.537 225 226 220
-0.292026 -0.467957 -0.537 226 227 221
-0.273099 -0.468829 -0.538 225 228 221
-0.264901 -0.468829 -0.538 224 227 220
-0.256703 -0.468829 -0.538 226 227 219
-0.245997 -0.467957 -0.537 226 227 221
-0.23254 -0.4697 -0.539 226 227 219
-0.209564 -0.468829 -0.538 227 228 220
-0.206873 -0.4697 -0.539 227 228 220
-0.189069 -0.468829 -0.538 229 231 220
-0.165499 -0.468829 -0.538 230 231 223
-0.16345 -0.468829 -0.538 230 231 225
-0.1617 -0.4697 -0.539 230 231 225
-0.14938 -0.4697 -0.539 230 231 225
-0.139371 -0.470571 -0.54 231 232 224
-0.112629 -0.470571 -0.54 231 232 224
-0.0722457 -0.468829 -0.538 183 142 110
-0.0524571 -0.355543 -0.408 183 142 110
-0.0332267 -0.3416 -0.392 189 145 110
-0.0198876 -0.343343 -0.394 183 134 101
-0.00495238 -0.348571 -0.4 167 122 93
-0.00038381 -0.351186 -0.403 159 111 88
0.00115143 -0.351186 -0.403 157 109 87
0.0128857 -0.357286 -0.41 138 96 80
0.0217905 -0.362514 -0.416 129 91 78
0.03844 -0.3782 -0.434 93 72 67
0.0599133 -0.412186 -0.473 82 64 64
0.447994 -0.486257 -0.558 124 122 125
0.464769 -0.487129 -0.559 90 88 89
0.465833 -0.487129 -0.559 88 86 87
0.50352 -0.4392 -0.504 136 105 87
0.49829 -0.421771 -0.484 162 120 95
0.504984 -0.412186 -0.473 177 131 98
0.512327 -0.4087 -0.469 177 131 97
0.536077 -0.401729 -0.461 162 118 83
0.54193 -0.403471 -0.463 157 112 79
-0.307369 -0.46898 -0.537 224 225 217
-0.28998 -0.46898 -0.537 225 226 220
-0.286911 -0.46898 -0.537 226 227 221
-0.285889 -0.46898 -0.537 226 227 221
-0.276683 -0.46898 -0.537 225 228 221
-0.272591 -0.46898 -0.537 225 228 221
-0.253157 -0.46898 -0.537 227 228 220
-0.210589 -0.469853 -0.538 228 229 223
-0.173697 -0.469853 -0.538 229 230 222
-0.164474 -0.469853 -0.538 230 231 225
-0.131927 -0.470727 -0.539 230 232 221
-0.116527 -0.470727 -0.539 231 232 224
-0.0401505 -0.344093 -0.394 187 144 109
-0.0317333 -0.342347 -0.392 192 146 112
0.0375267 -0.378153 -0.433 96 75 70
0.0613286 -0.41658 -0.477 82 64 62
0.0626286 -0.4192 -0.48 82 64 62
0.0830524 -0.467233 -0.535 94 129 183
0.382157 -0.4847 -0.555 175 175 175
0.428094 -0.486447 -0.557 127 125 130
0.430216 -0.486447 -0.557 123 121 126
0.433114 -0.48732 -0.558 119 117 120
0.441617 -0.48732 -0.558 101 99 102
0.45838 -0.488193 -0.559 73 71 74
0.46051 -0.488193 -0.559 70 68 71
0.4675 -0.48994 -0.561 63 61 66
0.507626 -0.44802 -0.513 125 99 82
0.50662 -0.446273 -0.511 126 100 83
0.5035 -0.414833 -0.475 177 130 100
0.504246 -0.41396 -0.474 177 131 98
0.506613 -0.412213 -0.472 175 129 96
0.51964 -0.40348 -0.462 173 127 93
0.529657 -0.401733 -0.46 167 123 88
0.532565 -0.402607 -0.461 166 120 86
0.543694 -0.404353 -0.463 151 108 76
0.545752 -0.405227 -0.464 150 107 75
0.5487 -0.4061 -0.465 149 105 76
0.558176 -0.407847 -0.467 134 99 71
-0.316574 -0.470003 -0.537 224 225 217
-0.305323 -0.470003 -0.537 225 226 218
-0.28944 -0.469128 -0.536 225 226 220
-0.288419 -0.469128 -0.536 225 226 220
-0.265431 -0.470003 -0.537 225 228 221
-0.264409 -0.470003 -0.537 225 228 221
-0.238837 -0.470003 -0.537 226 227 219
-0.234158 -0.470878 -0.538 227 228 222
-0.231084 -0.470878 -0.538 227 228 222
-0.207514 -0.470878 -0.538 227 228 222
-0.205465 -0.470878 -0.538 228 229 221
-0.199316 -0.470878 -0.538 228 229 221
-0.191786 -0.470003 -0.537 227 229 218
-0.187019 -0.470878 -0.538 228 229 221
-0.18497 -0.470878 -0.538 228 229 221
-0.179846 -0.470878 -0.538 228 230 219
-0.173697 -0.470878 -0.538 229 230 222
-0.163146 -0.470003 -0.537 230 231 225
-0.151152 -0.470878 -0.538 229 230 222
-0.145273 -0.471753 -0.539 230 231 225
-0.123484 -0.470878 -0.538 230 231 223
-0.121434 -0.470878 -0.538 230 231 223
-0.102989 -0.470878 -0.538 231 232 226
-0.0918867 -0.471753 -0.539 230 231 225
-0.04826 -0.34922 -0.399 182 139 105
-0.0370543 -0.343969 -0.393 184 139 106
-0.0362133 -0.343093 -0.392 186 141 108
-0.03472 -0.343093 -0.392 187 143 108
-0.0301629 -0.342218 -0.391 187 141 107
-0.0258257 -0.343969 -0.393 180 134 101
-0.00722 -0.34922 -0.399 168 123 94
-0.00419048 -0.350095 -0.4 167 121 95
0.00115143 -0.352721 -0.403 152 106 83
0.0169133 -0.361473 -0.413 132 96 82
0.0177 -0.361473 -0.413 130 94 80
0.0185314 -0.362349 -0.414 127 93 81
0.0357114 -0.377228 -0.431 99 78 73
0.0413914 -0.38423 -0.439 88 69 63
0.0465067 -0.392107 -0.448 85 67 65
0.0475714 -0.393857 -0.45 84 66 64
0.0530095 -0.40261 -0.46 85 67 63
0.06004 -0.414863 -0.474 81 64 57
0.0713781 -0.440245 -0.503 123 143 176
0.0820333 -0.468252 -0.535 80 117 172
0.357843 -0.485757 -0.555 177 177 177
0.364186 -0.485757 -0.555 174 174 174
0.390259 -0.486632 -0.556 160 160 162
0.402291 -0.488383 -0.558 142 141 146
0.403354 -0.488383 -0.558 140 139 145
0.42279 -0.487508 -0.557 99 98 103
0.43602 -0.489258 -0.559 76 75 80
0.50052 -0.509389 -0.582 58 57 62
0.5106 -0.453373 -0.518 121 98 82
0.504554 -0.44287 -0.506 130 103 84
0.503479 -0.440245 -0.503 133 105 84
0.502327 -0.436744 -0.499 135 107 86
0.499966 -0.430617 -0.492 148 110 87
0.499711 -0.427991 -0.489 154 116 93
0.499657 -0.420114 -0.48 169 125 96
0.5035 -0.415738 -0.475 176 129 99
0.51615 -0.407861 -0.466 174 128 94
0.515929 -0.406986 -0.465 171 125 91
0.518119 -0.405235 -0.463 169 123 90
0.530533 -0.40261 -0.46 165 121 86
-0.320069 -0.470149 -0.536 224 226 215
-0.310437 -0.471026 -0.537 224 225 217
-0.294545 -0.470149 -0.536 225 226 220
-0.276168 -0.470149 -0.536 225 228 221
-0.264937 -0.470149 -0.536 225 228 221
-0.245539 -0.470149 -0.536 226 227 219
-0.2327 -0.471026 -0.537 227 228 222
-0.220426 -0.471026 -0.537 227 228 222
-0.216334 -0.471026 -0.537 227 228 222
-0.215311 -0.471026 -0.537 227 228 222
-0.205083 -0.471026 -0.537 228 229 221
-0.174397 -0.471026 -0.537 228 229 221
-0.171329 -0.471026 -0.537 228 229 223
-0.170306 -0.471026 -0.537 228 229 223
-0.152177 -0.471903 -0.538 229 230 222
-0.151152 -0.471903 -0.538 229 230 222
-0.147053 -0.471903 -0.538 229 230 224
-0.133731 -0.471903 -0.538 231 232 224
-0.0804438 -0.471903 -0.538 181 159 136
-0.0416514 -0.345594 -0.394 187 144 110
-0.0220829 -0.344717 -0.393 178 132 99
-0.0146714 -0.346471 -0.395 178 127 96
-0.013919 -0.346471 -0.395 176 125 94
-0.00115143 -0.353489 -0.403 144 99 80
0.00038381 -0.353489 -0.403 149 104 85
0.00115429 -0.354366 -0.404 153 106 88
0.00736476 -0.356997 -0.407 148 103 84
0.0097381 -0.358751 -0.409 147 102 83
0.0260619 -0.369277 -0.421 118 86 73
0.0348095 -0.377171 -0.43 103 76 67
0.0366171 -0.378926 -0.432 96 75 70
0.07 -0.438571 -0.5 140 164 200
0.372925 -0.488569 -0.557 157 157 159
0.38917 -0.490323 -0.559 131 130 135
0.403733 -0.4912 -0.56 106 105 111
0.418546 -0.488569 -0.557 72 71 76
0.429631 -0.490323 -0.559 64 63 68
0.430696 -0.490323 -0.559 64 63 68
0.44 -0.4912 -0.56 62 61 66
0.447197 -0.492077 -0.561 60 59 64
0.471074 -0.494709 -0.564 55 54 59
0.474901 -0.496463 -0.566 55 54 59
0.503479 -0.441203 -0.503 132 104 83
0.4998 -0.4298 -0.49 152 114 91
0.500169 -0.418397 -0.477 168 123 94
0.506613 -0.414011 -0.472 175 126 94
0.508048 -0.412257 -0.47 174 128 95
0.509647 -0.41138 -0.469 176 130 97
0.511433 -0.41138 -0.469 176 130 97
0.523524 -0.403486 -0.46 168 122 86
0.531129 -0.402609 -0.459 167 121 88
0.540468 -0.404363 -0.461 156 111 80
-0.322529 -0.47029 -0.535 224 226 215
-0.32109 -0.47117 -0.536 224 226 215
-0.318027 -0.47117 -0.536 224 226 215
-0.312922 -0.47117 -0.536 224 226 215
-0.31088 -0.47117 -0.536 224 226 215
-0.273614 -0.47029 -0.535 225 228 221
-0.230225 -0.47117 -0.536 226 227 219
-0.21122 -0.472049 -0.537 226 227 219
-0.210197 -0.472049 -0.537 227 228 220
-0.207764 -0.47117 -0.536 228 229 221
-0.206743 -0.47117 -0.536 228 229 221
-0.194854 -0.472049 -0.537 227 229 218
-0.183261 -0.47117 -0.536 228 229 221
-0.13988 -0.472928 -0.538 230 231 223
-0.138855 -0.472928 -0.538 230 232 221
-0.130414 -0.472049 -0.537 232 233 225
-0.129391 -0.472049 -0.537 231 232 224
-0.104843 -0.472049 -0.537 230 231 225
-0.0895 -0.472049 -0.537 229 230 224
-0.0804438 -0.472928 -0.538 175 147 123
-0.0762029 -0.472049 -0.537 184 140 111
-0.04978 -0.35074 -0.399 182 141 109
-0.0286733 -0.343708 -0.391 182 137 104
-0.0198371 -0.345466 -0.393 179 130 98
-0.0190886 -0.345466 -0.393 179 130 98
-0.0183867 -0.346345 -0.394 179 130 98
-0.0109648 -0.348982 -0.397 170 123 93
-0.00798 -0.35074 -0.399 171 124 96
0.0425162 -0.388539 -0.442 87 69 65
0.0655314 -0.428975 -0.488 182 187 207
0.34348 -0.486992 -0.554 163 163 163
0.418984 -0.491388 -0.559 59 58 64
0.424308 -0.491388 -0.559 57 56 62
0.428267 -0.492267 -0.56 56 55 61
0.429333 -0.492267 -0.56 58 57 63
0.434667 -0.492267 -0.56 54 53 59
0.450936 -0.494904 -0.563 57 56 61
0.468681 -0.496662 -0.565 54 55 57
0.477418 -0.500178 -0.569 53 54 58
0.492426 -0.508969 -0.579 54 55 59
0.502381 -0.439524 -0.5 135 104 86
0.498985 -0.423701 -0.482 162 121 93
0.499529 -0.421064 -0.479 165 120 91
0.503182 -0.41579 -0.473 174 127 97
0.520019 -0.404362 -0.46 169 123 89
0.530254 -0.403483 -0.459 165 120 87
0.536667 -0.404362 -0.46 163 117 81
0.541346 -0.405241 -0.461 158 114 77
