ply
format ascii 1.0
comment Created by Open3D
element vertex 1268
property double x
property double y
property double z
property uchar red
property uchar green
property uchar blue
end_header
0.491004 -0.372436 -0.502 169 123 100
0.502939 -0.366501 -0.494 179 132 106
0.507555 -0.365759 -0.493 176 129 101
0.512978 -0.364275 -0.491 172 125 97
0.525136 -0.364275 -0.491 168 122 96
0.530891 -0.365017 -0.492 169 119 84
-0.32308 -0.426947 -0.574 232 233 225
-0.00358286 -0.310912 -0.418 198 155 123
-0.000397143 -0.310169 -0.417 195 154 122
0.0115724 -0.311656 -0.419 190 145 116
0.0123705 -0.311656 -0.419 190 145 116
0.0148 -0.3124 -0.42 195 148 120
0.0495267 -0.325045 -0.437 112 83 75
0.0576 -0.333227 -0.448 99 75 71
0.0609657 -0.33769 -0.454 93 72 69
0.0739067 -0.358516 -0.482 93 72 69
0.0832048 -0.375624 -0.505 94 77 87
0.0947467 -0.395707 -0.532 188 207 237
0.496724 -0.386781 -0.52 156 113 96
0.491004 -0.373392 -0.502 172 126 103
0.493687 -0.369673 -0.497 174 126 104
0.497357 -0.368186 -0.495 174 126 103
0.501129 -0.368186 -0.495 176 128 105
0.512978 -0.36521 -0.491 173 126 96
0.514733 -0.364467 -0.49 171 124 96
0.527942 -0.36521 -0.491 165 118 90
0.543057 -0.370417 -0.498 150 113 87
0.638943 -0.423971 -0.57 204 205 200
-0.0133257 -0.316183 -0.424 194 153 125
-0.000397143 -0.310963 -0.417 195 155 120
0.0139667 -0.312454 -0.419 193 148 119
0.0294086 -0.315437 -0.423 175 127 104
0.0394467 -0.31842 -0.427 148 102 87
0.0535819 -0.330351 -0.443 104 77 70
0.085 -0.380314 -0.51 93 77 87
0.0881362 -0.385534 -0.517 149 155 181
0.0898105 -0.388517 -0.521 163 179 215
0.510686 -0.402686 -0.54 140 113 102
0.495528 -0.369874 -0.496 173 126 100
0.4983 -0.369129 -0.495 176 129 103
0.517533 -0.3654 -0.49 169 122 94
-0.338889 -0.428386 -0.573 231 232 224
-0.323609 -0.428386 -0.573 233 234 228
-0.313786 -0.428386 -0.573 233 234 226
-0.211191 -0.428386 -0.573 236 238 227
-0.018019 -0.328952 -0.44 186 147 118
-0.01586 -0.319233 -0.427 190 151 120
-0.01 -0.314 -0.42 194 153 123
0.00278 -0.311757 -0.417 196 153 119
0.00516286 -0.311757 -0.417 193 150 116
0.00754571 -0.311757 -0.417 193 150 116
0.0236562 -0.314748 -0.421 174 128 104
0.0286029 -0.316243 -0.423 177 129 106
0.0578571 -0.336429 -0.45 95 71 67
0.0773143 -0.367829 -0.492 88 70 68
0.0883067 -0.387267 -0.518 163 170 198
0.0984105 -0.404462 -0.541 151 177 210
0.505147 -0.397733 -0.532 141 114 105
0.507555 -0.368576 -0.493 176 131 102
0.519271 -0.365586 -0.489 172 125 97
0.549191 -0.374557 -0.501 151 111 85
0.63999 -0.425395 -0.569 203 198 192
-0.336118 -0.428728 -0.572 231 232 226
-0.33067 -0.428728 -0.572 231 232 226
-0.297414 -0.429477 -0.573 231 232 224
-0.29414 -0.429477 -0.573 231 233 222
-0.290866 -0.429477 -0.573 231 232 224
-0.216649 -0.429477 -0.573 236 237 229
-0.214466 -0.429477 -0.573 236 237 229
-0.0075819 -0.31405 -0.419 197 154 122
0.00278 -0.312551 -0.417 196 153 119
0.0172 -0.3148 -0.42 183 136 108
0.0269914 -0.317049 -0.423 174 128 104
0.0420829 -0.321546 -0.429 138 96 84
0.491871 -0.374012 -0.499 171 125 102
0.496472 -0.371764 -0.496 178 132 106
0.500116 -0.370265 -0.494 180 133 107
0.535577 -0.368766 -0.492 161 117 90
0.0155629 -0.314849 -0.419 184 139 110
0.0269914 -0.317854 -0.423 175 129 105
0.0327086 -0.318606 -0.424 157 109 86
0.0581143 -0.339646 -0.452 95 71 67
0.0603657 -0.342651 -0.456 92 71 68
0.06524 -0.350166 -0.466 89 70 66
0.0717714 -0.360686 -0.48 90 72 70
0.0732914 -0.363691 -0.484 90 72 70
0.0776286 -0.371206 -0.494 89 70 72
0.0886476 -0.390743 -0.52 159 170 202
0.53298 -0.42606 -0.567 119 104 99
0.500545 -0.393749 -0.524 144 116 105
0.49274 -0.37346 -0.497 174 128 104
0.508302 -0.368951 -0.491 175 128 100
0.541671 -0.371957 -0.495 156 115 87
0.618833 -0.41554 -0.553 183 164 147
-0.336618 -0.430153 -0.571 229 232 223
-0.33553 -0.430153 -0.571 230 233 224
-0.323567 -0.430153 -0.571 230 231 225
-0.310515 -0.430153 -0.571 231 232 224
-0.257672 -0.430907 -0.572 234 235 227
-0.250046 -0.430907 -0.572 234 236 225
-0.227166 -0.430907 -0.572 234 235 227
-0.214091 -0.430907 -0.572 235 236 230
-0.210823 -0.430907 -0.572 235 236 230
-0.0107486 -0.314893 -0.418 195 154 122
-0.00595714 -0.31414 -0.417 197 156 124
0.0220524 -0.317153 -0.421 175 129 103
0.0310933 -0.319413 -0.424 163 115 93
0.03692 -0.32092 -0.426 151 105 90
0.039539 -0.322427 -0.428 139 97 85
0.0431 -0.324687 -0.431 128 91 82
0.0528571 -0.33448 -0.444 101 76 71
0.0956371 -0.40454 -0.537 159 182 223
0.511793 -0.406047 -0.539 133 111 100
0.504561 -0.369887 -0.491 179 132 104
0.507367 -0.369887 -0.491 176 129 101
0.510172 -0.369887 -0.491 174 127 99
0.535424 -0.369887 -0.491 159 118 90
0.625431 -0.419607 -0.557 200 190 178
0.641029 -0.427893 -0.568 196 196 188
0.999139 -0.427893 -0.568 203 205 191
-0.3306 -0.430486 -0.57 230 231 225
-0.327917 -0.431241 -0.571 232 233 227
-0.295289 -0.431241 -0.571 232 234 223
-0.0254248 -0.428975 -0.568 192 150 126
-0.0107486 -0.31569 -0.418 195 156 125
0.0606305 -0.345899 -0.458 93 69 65
0.0825686 -0.382906 -0.507 91 76 81
0.524871 -0.419157 -0.555 127 107 100
0.497773 -0.391213 -0.518 156 120 98
0.504561 -0.370822 -0.491 178 131 103
0.512867 -0.370067 -0.49 170 123 95
0.521786 -0.367801 -0.487 170 123 95
0.526424 -0.367801 -0.487 168 123 94
-0.329514 -0.431571 -0.57 230 231 225
-0.309428 -0.432329 -0.571 230 231 223
-0.300727 -0.432329 -0.571 231 232 226
-0.233294 -0.432329 -0.571 233 234 226
-0.226769 -0.432329 -0.571 234 235 227
-0.214805 -0.432329 -0.571 235 236 230
0.00594286 -0.314971 -0.416 193 149 120
0.0269914 -0.320271 -0.423 174 126 103
0.0277971 -0.320271 -0.423 172 126 103
0.042181 -0.325571 -0.43 128 90 79
0.0874886 -0.392957 -0.519 188 202 239
0.526763 -0.421729 -0.557 127 106 101
0.500116 -0.374029 -0.494 177 130 102
0.509133 -0.371 -0.49 172 126 100
0.541361 -0.373271 -0.493 155 115 89
0.98982 -0.4293 -0.567 204 206 192
-0.3458 -0.432657 -0.57 228 231 222
-0.342543 -0.432657 -0.57 229 232 223
-0.334943 -0.432657 -0.57 230 233 224
-0.322433 -0.431898 -0.569 230 231 225
-0.313763 -0.431898 -0.569 231 232 226
-0.012341 -0.317282 -0.418 194 154 119
-0.00673524 -0.315764 -0.416 196 156 121
-0.00515048 -0.315764 -0.416 192 153 120
0.00752762 -0.315764 -0.416 191 148 116
0.0269914 -0.321077 -0.423 174 126 103
0.0302857 -0.321836 -0.424 164 118 95
0.042279 -0.32715 -0.431 127 89 78
0.0644905 -0.354475 -0.467 93 69 67
0.499695 -0.394705 -0.52 161 119 97
0.494529 -0.375729 -0.495 170 124 98
0.4983 -0.375729 -0.495 172 127 96
0.5082 -0.371933 -0.49 175 125 98
0.509133 -0.371933 -0.49 176 126 99
0.510067 -0.371933 -0.49 176 126 99
0.512751 -0.371174 -0.489 175 128 102
0.51993 -0.369656 -0.487 173 126 96
0.523491 -0.368897 -0.486 169 122 94
-0.33869 -0.432982 -0.569 228 231 222
-0.327852 -0.432982 -0.569 232 233 227
-0.309428 -0.432982 -0.569 231 232 224
-0.3078 -0.433743 -0.57 231 232 224
-0.253514 -0.433743 -0.57 234 235 227
-0.0218562 -0.329492 -0.433 188 152 120
-0.0115171 -0.317317 -0.417 193 153 118
-0.00276667 -0.315795 -0.415 194 154 119
0.000395238 -0.315795 -0.415 194 151 117
0.00832 -0.316556 -0.416 188 143 112
0.00992857 -0.317317 -0.417 187 142 111
0.0188 -0.3196 -0.42 181 134 106
0.0413619 -0.32721 -0.43 127 90 81
0.0489171 -0.334058 -0.439 105 77 73
0.493638 -0.377432 -0.496 174 130 103
0.495471 -0.376671 -0.495 162 116 90
0.514491 -0.371345 -0.488 175 128 100
0.514365 -0.370584 -0.487 178 131 103
-0.335931 -0.433303 -0.568 229 232 225
-0.313763 -0.434066 -0.569 231 232 226
-0.308344 -0.434066 -0.569 231 232 224
-0.305092 -0.434066 -0.569 231 232 224
-0.297506 -0.434066 -0.569 230 231 225
-0.296422 -0.434066 -0.569 230 231 225
0.0107229 -0.318111 -0.417 187 142 111
0.018 -0.3204 -0.42 177 130 102
0.0543076 -0.342523 -0.449 96 72 68
0.06116 -0.35244 -0.462 87 67 68
0.0742 -0.3738 -0.49 90 72 68
0.08016 -0.38448 -0.504 88 70 70
0.0830571 -0.389057 -0.51 101 89 103
0.0895 -0.4005 -0.525 113 130 176
0.102566 -0.425674 -0.558 98 125 180
0.506329 -0.403551 -0.529 143 113 102
0.492857 -0.381429 -0.5 170 126 99
0.494529 -0.377614 -0.495 165 119 93
0.513437 -0.371511 -0.487 176 129 99
0.514365 -0.371511 -0.487 179 132 102
0.520714 -0.370749 -0.486 172 125 95
0.99171 -0.431014 -0.565 203 205 191
-0.316457 -0.434385 -0.568 231 232 226
-0.309966 -0.434385 -0.568 230 231 225
-0.283416 -0.43515 -0.569 231 233 222
-0.269327 -0.43515 -0.569 231 233 222
-0.249818 -0.43515 -0.569 231 233 222
-0.24765 -0.43515 -0.569 232 234 223
-0.225974 -0.43515 -0.569 233 234 226
-0.0196933 -0.32273 -0.422 191 152 121
-0.0147295 -0.31967 -0.418 199 158 126
-0.0122819 -0.318141 -0.416 189 148 116
-0.00671905 -0.317376 -0.415 198 158 123
-0.000395238 -0.317376 -0.415 192 149 115
0.0139667 -0.320435 -0.419 183 138 107
0.0147648 -0.320435 -0.419 185 138 110
0.0196 -0.3212 -0.42 180 133 107
0.0344857 -0.325789 -0.426 151 105 89
0.0370067 -0.326553 -0.427 143 100 83
0.0521286 -0.340319 -0.445 101 74 67
0.063601 -0.357144 -0.467 89 68 67
0.06622 -0.361732 -0.473 90 69 68
0.0675467 -0.364027 -0.476 88 68 69
0.08322 -0.390793 -0.511 104 95 114
0.0895 -0.4015 -0.525 103 120 166
0.492822 -0.381616 -0.499 174 127 101
0.500043 -0.377028 -0.493 176 129 103
0.508094 -0.373969 -0.489 174 127 99
0.509844 -0.373204 -0.488 175 130 101
0.52149 -0.37091 -0.485 168 121 93
0.5379 -0.373969 -0.489 154 115 86
0.545117 -0.377028 -0.493 149 110 81
-0.31806 -0.4347 -0.567 230 231 223
-0.30131 -0.435467 -0.568 230 231 223
-0.292655 -0.435467 -0.568 231 232 224
-0.274746 -0.436233 -0.569 231 233 222
-0.264526 -0.435467 -0.568 231 232 224
-0.0146943 -0.3197 -0.417 198 157 127
-0.00118286 -0.3174 -0.414 191 148 116
-0.000395238 -0.318167 -0.415 189 146 114
0.000395238 -0.318167 -0.415 190 145 114
0.031901 -0.325067 -0.424 154 107 89
0.0352971 -0.3266 -0.426 150 104 88
0.06636 -0.3634 -0.474 90 69 66
0.105114 -0.433933 -0.566 99 125 182
0.5045 -0.4025 -0.525 149 113 99
0.499747 -0.397133 -0.518 155 117 98
0.496877 -0.3933 -0.513 158 117 97
0.494583 -0.380267 -0.496 173 126 100
0.495528 -0.380267 -0.496 172 125 99
0.504561 -0.376433 -0.491 176 130 104
0.52149 -0.371833 -0.485 169 122 94
0.523181 -0.371067 -0.484 170 125 96
0.526869 -0.371067 -0.484 162 118 91
-0.34398 -0.43578 -0.567 228 229 221
-0.33642 -0.43578 -0.567 228 229 223
-0.33534 -0.43578 -0.567 229 230 224
-0.330436 -0.435011 -0.566 229 230 224
-0.288328 -0.436549 -0.568 231 232 224
-0.286164 -0.436549 -0.568 231 232 224
-0.267771 -0.436549 -0.568 231 232 224
-0.236396 -0.436549 -0.568 234 236 225
-0.0196 -0.3228 -0.42 190 149 117
-0.0179143 -0.321263 -0.418 193 152 120
-0.0114619 -0.318957 -0.415 180 137 105
-0.00592857 -0.318957 -0.415 200 157 125
0.00913429 -0.320494 -0.417 188 143 112
0.00992857 -0.320494 -0.417 186 141 110
0.017159 -0.322031 -0.419 180 133 105
0.045261 -0.335097 -0.436 109 79 71
0.0601495 -0.354311 -0.461 91 67 65
0.527091 -0.425789 -0.554 125 104 101
0.492822 -0.383517 -0.499 172 126 102
0.497293 -0.379674 -0.494 173 126 100
0.504561 -0.377369 -0.491 175 129 103
0.509727 -0.374294 -0.487 170 123 97
0.515948 -0.372757 -0.485 176 129 101
0.521337 -0.371989 -0.484 169 122 94
0.5221 -0.37122 -0.483 172 125 97
0.548105 -0.379674 -0.494 147 107 82
0.941611 -0.433474 -0.564 205 207 193
-0.343373 -0.43609 -0.566 229 230 222
-0.325046 -0.43609 -0.566 228 229 223
-0.312109 -0.43609 -0.566 229 230 224
-0.309952 -0.43609 -0.566 230 231 226
-0.29754 -0.43686 -0.567 229 230 222
-0.28782 -0.43686 -0.567 231 232 224
-0.26838 -0.43686 -0.567 230 232 221
-0.26514 -0.43686 -0.567 231 232 224
-0.25587 -0.43763 -0.568 232 233 225
-0.23922 -0.43686 -0.567 233 235 224
-0.03294 -0.43686 -0.567 191 152 119
-0.0178714 -0.321289 -0.417 192 151 119
-0.00670286 -0.318977 -0.414 198 155 123
-0.00118286 -0.318977 -0.414 191 146 115
0.0481905 -0.33901 -0.44 102 72 64
0.06664 -0.366747 -0.476 90 69 68
0.0835457 -0.395254 -0.513 123 124 152
0.0883314 -0.40373 -0.524 138 157 200
0.535405 -0.435319 -0.565 119 106 100
0.495914 -0.392943 -0.51 162 120 98
0.493898 -0.38755 -0.503 166 124 102
0.494583 -0.382156 -0.496 172 126 102
0.499104 -0.379845 -0.493 172 124 101
0.502777 -0.379074 -0.492 174 128 102
0.506333 -0.377533 -0.49 175 128 102
0.509727 -0.375222 -0.487 166 119 91
0.5141 -0.373681 -0.485 178 131 103
0.52026 -0.37214 -0.483 171 124 96
0.539589 -0.375992 -0.488 152 112 86
0.645109 -0.434549 -0.564 195 196 188
0.935166 -0.434549 -0.564 206 208 194
-0.337983 -0.437168 -0.566 228 229 223
-0.325548 -0.436395 -0.565 228 229 223
-0.320733 -0.437168 -0.566 230 231 225
-0.28458 -0.43794 -0.567 229 230 222
-0.2673 -0.43794 -0.567 230 231 223
-0.26298 -0.43794 -0.567 231 232 224
-0.25758 -0.43794 -0.567 233 234 226
-0.2565 -0.43794 -0.567 233 234 226
-0.25434 -0.43794 -0.567 231 232 224
-0.2511 -0.43794 -0.567 231 232 224
-0.24354 -0.43794 -0.567 232 234 223
-0.2403 -0.43794 -0.567 234 236 225
-0.22518 -0.43794 -0.567 233 234 226
-0.20466 -0.43794 -0.567 234 235 227
-0.1971 -0.43794 -0.567 234 235 229
-0.19494 -0.43794 -0.567 233 234 228
-0.1593 -0.43794 -0.567 236 237 229
-0.0204 -0.3244 -0.42 190 149 117
-0.0138333 -0.320538 -0.415 192 147 116
0.00750952 -0.320538 -0.415 192 142 115
0.00832 -0.32131 -0.416 187 142 109
0.0131057 -0.322083 -0.417 186 141 110
0.0147295 -0.322855 -0.418 181 136 107
0.0389048 -0.332124 -0.43 126 88 75
0.0398162 -0.332896 -0.431 124 88 74
0.0444305 -0.336758 -0.436 110 80 69
0.0792 -0.38928 -0.504 88 78 79
0.497854 -0.396231 -0.513 157 116 96
0.495905 -0.39237 -0.508 162 120 96
0.5054 -0.378467 -0.49 175 129 103
0.513176 -0.374605 -0.485 176 129 101
0.630505 -0.427899 -0.554 193 194 186
0.997851 -0.43485 -0.563 203 205 191
-0.335233 -0.437471 -0.565 229 230 224
-0.326624 -0.437471 -0.565 228 229 223
-0.316938 -0.437471 -0.565 229 230 224
-0.306176 -0.437471 -0.565 229 230 224
-0.2835 -0.43902 -0.567 230 231 223
-0.2781 -0.43902 -0.567 230 231 223
-0.273297 -0.438246 -0.566 230 232 221
-0.267907 -0.438246 -0.566 232 234 223
-0.258204 -0.438246 -0.566 233 234 226
-0.0350381 -0.438246 -0.566 191 150 120
-0.0239933 -0.33062 -0.427 192 149 117
-0.0221048 -0.326749 -0.422 194 151 119
-0.0114343 -0.320554 -0.414 190 145 114
0.00276 -0.320554 -0.414 191 144 116
0.0155257 -0.323651 -0.418 180 135 106
0.017159 -0.324426 -0.419 176 130 104
0.0204 -0.3252 -0.42 175 129 103
0.0228543 -0.325974 -0.421 170 124 98
0.0269276 -0.326749 -0.422 164 118 95
0.0335952 -0.329071 -0.425 140 97 78
0.0389048 -0.332943 -0.43 124 88 74
0.0493629 -0.343009 -0.443 101 73 69
0.060541 -0.359269 -0.464 92 66 65
0.0807962 -0.393337 -0.508 90 80 91
0.528147 -0.428954 -0.554 125 102 94
0.4949 -0.391014 -0.505 161 123 100
0.493843 -0.387917 -0.501 165 123 98
0.497226 -0.381723 -0.493 176 132 105
0.502777 -0.380949 -0.492 174 128 102
0.503626 -0.380174 -0.491 175 129 103
0.503533 -0.3794 -0.49 179 132 104
0.506231 -0.378626 -0.489 174 127 99
0.513962 -0.374754 -0.484 180 133 107
0.51658 -0.37398 -0.483 175 128 102
0.526528 -0.373206 -0.482 163 119 90
0.528364 -0.373206 -0.482 162 118 89
-0.329852 -0.438548 -0.565 228 229 223
-0.323395 -0.438548 -0.565 228 229 223
-0.3051 -0.438548 -0.565 230 231 225
-0.290547 -0.439324 -0.566 230 231 223
-0.272219 -0.439324 -0.566 230 232 221
-0.268985 -0.439324 -0.566 232 234 223
-0.263594 -0.439324 -0.566 231 232 224
-0.259282 -0.439324 -0.566 230 231 223
-0.257126 -0.439324 -0.566 231 232 224
-0.196752 -0.439324 -0.566 234 235 227
-0.178425 -0.439324 -0.566 234 235 229
-0.0349762 -0.438548 -0.565 190 149 119
0.0147295 -0.324448 -0.418 180 135 106
0.0236562 -0.326776 -0.421 167 121 95
0.0310933 -0.329105 -0.424 145 102 85
0.0751086 -0.38499 -0.496 92 73 69
0.503633 -0.404395 -0.521 146 112 100
0.509727 -0.378005 -0.487 174 127 101
0.511329 -0.376452 -0.485 172 125 99
0.51304 -0.375676 -0.484 181 134 108
0.519938 -0.373348 -0.481 165 121 96
0.523603 -0.373348 -0.481 162 118 89
0.53314 -0.3749 -0.483 158 117 87
0.892242 -0.436219 -0.562 206 208 194
-0.333566 -0.438846 -0.564 228 229 223
-0.315303 -0.438846 -0.564 228 229 223
-0.298643 -0.439624 -0.565 229 230 224
-0.284652 -0.439624 -0.565 230 231 223
-0.256671 -0.439624 -0.565 231 232 224
-0.249138 -0.439624 -0.565 232 234 223
-0.241605 -0.439624 -0.565 231 233 222
-0.197481 -0.439624 -0.565 234 235 227
0.00671905 -0.32291 -0.415 186 141 112
0.0379971 -0.333803 -0.429 123 86 78
0.0632486 -0.366483 -0.471 89 69 70
0.510314 -0.41239 -0.53 142 112 101
0.499029 -0.382823 -0.492 175 129 103
0.501755 -0.382045 -0.491 173 127 101
0.504467 -0.381267 -0.49 181 134 106
0.507871 -0.378932 -0.487 175 128 100
0.511196 -0.376598 -0.484 180 133 107
0.5129 -0.37582 -0.483 181 134 108
0.523603 -0.374264 -0.481 166 122 95
0.88903 -0.43729 -0.562 207 209 195
0.927568 -0.43729 -0.562 205 208 191
0.930779 -0.43729 -0.562 204 207 190
-0.335714 -0.43992 -0.564 227 230 223
-0.31208 -0.43992 -0.564 227 228 220
-0.268034 -0.43992 -0.564 232 233 225
-0.265886 -0.43992 -0.564 231 232 224
-0.252994 -0.43992 -0.564 231 232 224
-0.243757 -0.4407 -0.565 232 234 223
-0.216852 -0.4407 -0.565 233 235 224
-0.17811 -0.4407 -0.565 234 235 229
-0.166271 -0.4407 -0.565 234 235 229
-0.152281 -0.4407 -0.565 236 237 231
-0.0381371 -0.43992 -0.564 192 153 124
-0.0369971 -0.43914 -0.563 191 152 123
-0.00433714 -0.32292 -0.414 194 147 119
0.0187552 -0.32682 -0.419 171 125 99
0.0336743 -0.33228 -0.426 136 93 77
0.03718 -0.33462 -0.429 125 87 78
0.0683981 -0.37596 -0.482 89 68 73
0.516031 -0.41886 -0.537 140 111 97
0.494723 -0.38922 -0.499 166 124 99
0.50269 -0.38298 -0.491 177 131 105
0.5053 -0.38142 -0.489 177 130 104
0.506231 -0.38142 -0.489 176 129 103
0.524343 -0.3744 -0.48 167 123 94
-0.342626 -0.440212 -0.563 227 230 223
-0.332974 -0.440212 -0.563 226 229 222
-0.273406 -0.440994 -0.564 230 231 223
-0.256217 -0.440994 -0.564 230 232 221
-0.254069 -0.440994 -0.564 231 233 222
-0.249771 -0.440994 -0.564 230 232 221
-0.246549 -0.440994 -0.564 231 232 224
-0.245474 -0.440994 -0.564 232 233 225
-0.22936 -0.440994 -0.564 232 233 225
-0.219005 -0.441776 -0.565 232 233 225
-0.217929 -0.441776 -0.565 232 233 225
-0.216852 -0.441776 -0.565 232 233 225
-0.184567 -0.441776 -0.565 233 234 228
-0.0380695 -0.440212 -0.563 191 154 125
-0.0226914 -0.326836 -0.418 188 149 118
-0.01298 -0.322927 -0.413 194 154 119
-0.00354857 -0.323709 -0.414 195 150 121
-0.00276 -0.323709 -0.414 195 150 121
-0.000394286 -0.323709 -0.414 190 143 115
0.00592857 -0.32449 -0.415 184 137 109
0.0155257 -0.326836 -0.418 179 134 105
0.0456762 -0.344038 -0.44 103 76 65
0.0496971 -0.34873 -0.446 96 71 66
0.0698914 -0.380006 -0.486 90 69 74
0.49468 -0.389389 -0.498 168 126 102
0.496352 -0.386261 -0.494 172 126 100
0.515357 -0.376096 -0.481 178 131 105
0.522514 -0.375314 -0.48 170 125 96
0.533872 -0.376878 -0.482 162 119 85
0.64702 -0.438649 -0.561 197 199 194
0.898134 -0.438649 -0.561 204 207 190
0.929123 -0.438649 -0.561 204 207 190
0.932329 -0.438649 -0.561 205 208 191
0.945151 -0.438649 -0.561 203 206 189
0.94622 -0.438649 -0.561 204 207 190
-0.311527 -0.441285 -0.563 227 228 220
-0.305092 -0.441285 -0.563 229 230 224
-0.243967 -0.441285 -0.563 232 233 225
-0.235806 -0.442069 -0.564 232 233 225
-0.215394 -0.442069 -0.564 233 235 224
-0.200354 -0.442069 -0.564 233 234 226
-0.198206 -0.442069 -0.564 232 233 225
-0.156309 -0.442069 -0.564 235 236 230
-0.148789 -0.442069 -0.564 237 238 232
0.00276 -0.324497 -0.414 183 138 109
0.0083 -0.325281 -0.415 186 139 109
0.0302857 -0.332335 -0.424 145 102 85
0.08436 -0.406013 -0.518 194 201 227
0.495814 -0.394256 -0.503 161 121 96
0.507754 -0.380931 -0.486 177 130 104
0.512756 -0.377796 -0.482 179 132 106
0.5152 -0.376229 -0.48 176 129 103
0.517943 -0.376229 -0.48 174 127 99
0.549267 -0.384067 -0.49 154 111 79
0.865009 -0.439717 -0.561 207 209 195
0.934933 -0.438933 -0.56 204 206 192
-0.301339 -0.441571 -0.562 228 229 223
-0.292224 -0.442357 -0.563 229 230 224
-0.262197 -0.442357 -0.563 230 231 223
-0.186389 -0.443143 -0.564 234 235 229
-0.185314 -0.443143 -0.564 233 234 228
-0.15067 -0.442357 -0.563 235 236 230
-0.0225829 -0.326857 -0.416 190 149 119
0.0541667 -0.3575 -0.455 89 68 65
0.0563914 -0.360643 -0.459 89 69 68
0.0783952 -0.396786 -0.505 97 92 99
0.0855114 -0.407786 -0.519 184 191 217
0.49981 -0.402286 -0.512 156 118 95
0.49558 -0.3905 -0.497 169 127 103
0.499029 -0.386571 -0.492 174 128 102
0.501755 -0.385786 -0.491 178 132 106
0.517943 -0.377143 -0.48 175 128 100
0.520513 -0.376357 -0.479 176 129 101
0.557882 -0.389714 -0.496 148 113 83
0.888 -0.44 -0.56 207 210 191
0.92 -0.44 -0.56 203 206 189
0.9232 -0.44 -0.56 205 208 191
0.933867 -0.44 -0.56 204 206 192
-0.321106 -0.441854 -0.561 228 229 223
-0.289564 -0.442642 -0.562 230 231 225
-0.275648 -0.442642 -0.562 230 232 221
-0.274577 -0.442642 -0.562 229 231 220
-0.268631 -0.44343 -0.563 231 232 224
-0.226809 -0.44343 -0.563 232 233 225
-0.215012 -0.44343 -0.563 233 235 224
-0.211795 -0.44343 -0.563 231 233 222
-0.206433 -0.44343 -0.563 232 233 225
-0.199999 -0.44343 -0.563 234 235 227
-0.143163 -0.44343 -0.563 237 238 232
-0.042359 -0.44343 -0.563 190 149 117
-0.0278629 -0.33395 -0.424 189 153 121
-0.00745524 -0.324499 -0.412 193 150 118
-0.00667048 -0.324499 -0.412 193 148 117
0.00275333 -0.325287 -0.413 183 138 107
0.00354 -0.325287 -0.413 180 135 106
0.040001 -0.341039 -0.433 111 81 71
0.0589 -0.366243 -0.465 88 70 68
0.06762 -0.38042 -0.483 90 72 72
0.0780848 -0.396172 -0.503 89 86 95
0.519943 -0.425314 -0.54 135 107 103
0.5085 -0.4135 -0.525 147 109 96
0.500786 -0.404049 -0.513 152 115 96
0.499807 -0.402473 -0.511 154 117 98
0.506944 -0.38357 -0.487 176 130 104
0.521426 -0.37727 -0.479 170 123 95
0.52325 -0.37727 -0.479 169 124 95
0.534597 -0.378845 -0.481 163 120 88
0.625452 -0.429252 -0.545 195 189 175
0.646843 -0.440279 -0.559 197 200 189
-0.339271 -0.442923 -0.561 226 229 222
-0.31042 -0.442923 -0.561 229 230 225
-0.299734 -0.442923 -0.561 228 229 223
-0.292775 -0.443712 -0.562 229 230 224
-0.286911 -0.442923 -0.561 229 230 224
-0.285843 -0.442923 -0.561 229 230 222
-0.274577 -0.443712 -0.562 230 232 221
-0.263872 -0.443712 -0.562 230 231 223
-0.253168 -0.443712 -0.562 230 231 223
-0.145308 -0.444502 -0.563 237 238 232
-0.138873 -0.444502 -0.563 237 238 232
-0.0286705 -0.334758 -0.424 193 154 123
-0.023319 -0.327652 -0.415 187 148 117
-0.0160876 -0.325284 -0.412 191 147 118
-0.0121343 -0.324494 -0.411 195 152 120
-0.00900286 -0.324494 -0.411 195 152 120
0.000393333 -0.326073 -0.413 186 141 110
0.00118 -0.326073 -0.413 184 139 108
0.00275333 -0.326073 -0.413 183 138 107
0.00354 -0.326073 -0.413 180 135 106
0.0122819 -0.328442 -0.416 180 133 105
0.0139 -0.329231 -0.417 177 130 102
0.0310933 -0.334758 -0.424 136 97 82
0.0400933 -0.342653 -0.434 112 80 69
0.0429657 -0.345811 -0.438 107 78 70
0.0555171 -0.362391 -0.459 90 70 69
0.0626162 -0.373445 -0.473 89 71 69
0.518077 -0.423974 -0.537 138 108 98
0.5133 -0.419237 -0.531 140 110 100
0.497808 -0.399499 -0.506 164 122 98
0.51092 -0.38055 -0.482 177 131 98
0.923681 -0.441344 -0.559 204 206 192
0.946041 -0.441344 -0.559 204 206 192
-0.3408 -0.4432 -0.56 226 229 222
-0.291186 -0.443991 -0.561 228 229 221
-0.244169 -0.443991 -0.561 231 233 222
-0.23711 -0.444783 -0.562 232 233 225
-0.19001 -0.444783 -0.562 232 233 227
-0.166459 -0.444783 -0.562 235 236 230
-0.165389 -0.444783 -0.562 234 235 229
-0.161107 -0.444783 -0.562 235 236 230
-0.154409 -0.443991 -0.561 235 236 230
-0.139697 -0.444783 -0.562 237 238 232
-0.0224743 -0.327651 -0.414 189 150 117
-0.0105686 -0.325277 -0.411 194 151 119
-0.00978571 -0.325277 -0.411 195 152 120
-0.0019619 -0.326069 -0.412 189 144 113
0.0146943 -0.330026 -0.417 175 130 101
0.0310933 -0.335566 -0.424 135 95 83
0.0400933 -0.34348 -0.434 109 80 72
0.0556381 -0.364057 -0.46 88 68 67
0.05676 -0.36564 -0.462 89 70 66
0.0878333 -0.417083 -0.527 161 182 213
0.507633 -0.383843 -0.485 179 134 103
0.522158 -0.378303 -0.478 170 125 92
0.523069 -0.378303 -0.478 169 124 91
0.53643 -0.380677 -0.481 155 114 82
0.853407 -0.442409 -0.559 208 210 197
0.88322 -0.442409 -0.559 205 207 193
0.902386 -0.442409 -0.559 205 208 191
0.92794 -0.442409 -0.559 205 207 194
0.930531 -0.441617 -0.558 204 206 192
0.936458 -0.442409 -0.559 203 205 192
-0.329067 -0.444267 -0.56 226 229 222
-0.322174 -0.44506 -0.561 227 228 222
-0.309867 -0.444267 -0.56 229 230 224
-0.303467 -0.444267 -0.56 229 230 222
-0.284267 -0.444267 -0.56 230 231 223
-0.2805 -0.44506 -0.561 229 230 222
-0.278363 -0.44506 -0.561 230 232 221
-0.247374 -0.44506 -0.561 229 231 220
-0.245237 -0.44506 -0.561 231 233 222
-0.214249 -0.44506 -0.561 232 233 225
-0.187869 -0.445853 -0.562 232 233 227
-0.186798 -0.445853 -0.562 232 233 227
-0.181446 -0.445853 -0.562 234 235 229
-0.161889 -0.44506 -0.561 234 235 229
-0.00978571 -0.32606 -0.411 195 152 118
-0.00587143 -0.32606 -0.411 190 147 113
0.0171181 -0.331613 -0.418 170 124 98
0.0179143 -0.331613 -0.418 168 122 96
0.0277314 -0.334787 -0.422 146 104 90
0.0302857 -0.336373 -0.424 136 94 82
0.0411086 -0.345893 -0.436 108 79 71
0.062881 -0.376833 -0.475 89 71 71
0.0665619 -0.382387 -0.482 88 70 70
0.0798286 -0.403013 -0.508 225 220 226
0.0846857 -0.412533 -0.52 149 166 194
0.088 -0.41888 -0.528 148 171 202
0.520971 -0.4284 -0.54 132 106 105
0.50078 -0.405393 -0.511 154 116 95
0.496741 -0.398253 -0.502 164 122 98
0.496577 -0.39508 -0.498 171 127 102
0.513371 -0.3808 -0.48 176 130 97
0.523791 -0.37842 -0.477 170 125 92
0.539381 -0.382387 -0.482 152 117 85
0.936909 -0.44268 -0.558 202 204 191
-0.296 -0.445333 -0.56 228 229 221
-0.274089 -0.446129 -0.561 229 230 222
-0.2512 -0.445333 -0.56 230 231 223
-0.207467 -0.445333 -0.56 231 232 224
-0.2032 -0.445333 -0.56 232 233 225
-0.18326 -0.446129 -0.561 232 233 227
-0.166163 -0.446129 -0.561 234 235 229
-0.158683 -0.446129 -0.561 235 236 230
-0.0256905 -0.330024 -0.415 186 147 116
-0.0128857 -0.326048 -0.41 193 153 118
-0.0121048 -0.326048 -0.41 193 153 118
-0.0082 -0.326048 -0.41 194 151 117
-0.00352286 -0.326843 -0.411 187 142 111
0.0146943 -0.331614 -0.417 174 128 102
0.0195067 -0.33241 -0.418 158 112 88
0.0211495 -0.333205 -0.419 157 112 93
0.0401857 -0.345929 -0.435 107 78 70
0.0729238 -0.392848 -0.494 88 72 72
0.506629 -0.413524 -0.52 149 111 98
0.496667 -0.397619 -0.5 169 127 103
0.497154 -0.391257 -0.492 174 128 102
0.504161 -0.387281 -0.487 175 128 100
0.50843 -0.384895 -0.484 174 129 100
0.509084 -0.383305 -0.482 177 132 101
0.517606 -0.380124 -0.478 177 132 101
0.518516 -0.380124 -0.478 175 130 99
0.529243 -0.379329 -0.477 164 121 89
0.530151 -0.379329 -0.477 161 118 86
0.64549 -0.442152 -0.556 196 197 189
0.832749 -0.443743 -0.558 207 209 195
0.834874 -0.443743 -0.558 208 210 197
0.838063 -0.443743 -0.558 207 209 195
0.846566 -0.443743 -0.558 207 209 195
0.862509 -0.443743 -0.558 207 209 195
-0.334868 -0.445603 -0.559 227 228 220
-0.326933 -0.4464 -0.56 228 229 221
-0.314637 -0.445603 -0.559 228 229 221
-0.311443 -0.445603 -0.559 229 230 222
-0.281067 -0.4464 -0.56 230 231 223
-0.231346 -0.447197 -0.561 230 231 223
-0.197867 -0.4464 -0.56 232 233 225
-0.18326 -0.447197 -0.561 231 232 226
-0.170437 -0.447197 -0.561 233 234 228
-0.165094 -0.447197 -0.561 235 236 230
-0.139449 -0.447197 -0.561 236 237 231
-0.0256286 -0.330017 -0.414 185 146 115
-0.0082 -0.326829 -0.41 194 151 119
0.0170771 -0.332409 -0.417 167 121 97
0.0482133 -0.35712 -0.448 93 72 67
0.0525486 -0.363497 -0.456 89 70 66
0.06392 -0.37944 -0.476 88 72 72
0.497697 -0.400166 -0.502 165 123 99
0.49766 -0.399369 -0.501 166 124 100
0.497619 -0.398571 -0.5 168 123 100
0.497526 -0.396977 -0.498 171 127 102
0.497357 -0.394586 -0.495 164 118 94
0.49895 -0.391397 -0.491 179 132 106
0.505903 -0.387411 -0.486 178 131 103
0.516695 -0.381034 -0.478 179 132 102
0.522883 -0.380237 -0.477 173 126 96
0.527227 -0.37944 -0.476 173 126 96
0.54326 -0.38502 -0.483 150 115 87
0.560337 -0.393789 -0.494 147 112 84
0.788109 -0.444806 -0.558 208 210 199
0.853536 -0.444009 -0.557 207 209 195
-0.298666 -0.446668 -0.559 227 228 222
-0.286953 -0.446668 -0.559 228 229 223
-0.284824 -0.446668 -0.559 228 229 223
-0.276306 -0.446668 -0.559 230 231 223
-0.264593 -0.446668 -0.559 230 231 223
-0.262933 -0.447467 -0.56 228 230 219
-0.258205 -0.446668 -0.559 231 233 222
-0.227733 -0.447467 -0.56 230 231 223
-0.217067 -0.447467 -0.56 232 234 223
-0.2096 -0.447467 -0.56 232 233 227
-0.205333 -0.447467 -0.56 232 233 225
-0.201772 -0.446668 -0.559 232 233 225
-0.196449 -0.446668 -0.559 231 232 224
-0.182933 -0.447467 -0.56 232 233 227
-0.179733 -0.447467 -0.56 232 233 227
-0.1616 -0.447467 -0.56 235 236 230
-0.137067 -0.447467 -0.56 234 235 229
-0.0289914 -0.333203 -0.417 188 152 120
-0.0113238 -0.32761 -0.41 194 151 119
0.0302857 -0.338796 -0.424 132 94 83
0.0691076 -0.389136 -0.487 87 73 73
0.0835343 -0.414706 -0.519 157 173 199
0.517217 -0.426691 -0.534 133 105 93
0.504862 -0.387538 -0.485 177 130 102
0.507633 -0.387538 -0.485 178 131 105
0.510776 -0.384342 -0.481 173 126 96
0.511543 -0.383543 -0.48 146 97 67
0.517606 -0.381945 -0.478 181 134 106
0.531969 -0.381146 -0.477 155 116 85
0.828073 -0.44507 -0.557 208 211 194
0.830195 -0.44507 -0.557 207 210 193
0.845049 -0.44507 -0.557 206 208 194
0.846109 -0.44507 -0.557 206 208 194
-0.327891 -0.446931 -0.558 226 227 219
-0.285889 -0.447732 -0.559 229 230 222
-0.28163 -0.447732 -0.559 227 228 220
-0.270982 -0.447732 -0.559 230 231 223
-0.261399 -0.447732 -0.559 229 231 220
-0.252881 -0.447732 -0.559 230 231 223
-0.23265 -0.447732 -0.559 231 232 224
-0.223467 -0.448533 -0.56 231 232 224
-0.21455 -0.447732 -0.559 231 232 224
-0.213485 -0.447732 -0.559 231 232 224
-0.184 -0.448533 -0.56 232 233 227
-0.181867 -0.448533 -0.56 232 233 227
-0.173333 -0.448533 -0.56 233 234 228
-0.162667 -0.448533 -0.56 235 236 230
-0.154923 -0.447732 -0.559 233 234 228
-0.1136 -0.448533 -0.56 235 236 230
-0.0762667 -0.448533 -0.56 236 235 230
-0.0175714 -0.32839 -0.41 188 147 117
0.0269276 -0.338002 -0.422 144 100 87
0.058139 -0.373244 -0.466 87 69 67
0.0617152 -0.37885 -0.473 90 72 72
0.510526 -0.419699 -0.524 142 110 95
0.507619 -0.416495 -0.52 144 111 96
0.500723 -0.406083 -0.507 167 122 101
0.498614 -0.401277 -0.501 168 123 102
0.504862 -0.388462 -0.485 177 130 104
0.5083 -0.38686 -0.483 178 131 103
0.514286 -0.384457 -0.48 177 130 100
0.532877 -0.382054 -0.477 161 122 93
0.792001 -0.44613 -0.557 208 210 197
0.793062 -0.44613 -0.557 208 210 196
0.850353 -0.44613 -0.557 206 208 195
-0.322577 -0.447994 -0.558 227 228 222
-0.3162 -0.447994 -0.558 228 229 223
-0.306634 -0.447994 -0.558 229 230 222
-0.290691 -0.447994 -0.558 229 230 224
-0.27156 -0.447994 -0.558 231 232 224
-0.24924 -0.447994 -0.558 229 230 222
-0.220938 -0.448797 -0.559 232 234 223
-0.183671 -0.448797 -0.559 233 234 228
-0.157052 -0.448797 -0.559 235 236 230
-0.14747 -0.448797 -0.559 234 235 229
-0.140016 -0.448797 -0.559 235 236 230
-0.0238771 -0.329974 -0.411 189 150 119
-0.0144124 -0.328369 -0.409 192 151 119
0.00749143 -0.332383 -0.414 178 132 106
0.0244 -0.3372 -0.42 152 105 89
0.0411086 -0.350046 -0.436 103 78 73
0.0790162 -0.408654 -0.509 220 226 238
0.508595 -0.418289 -0.521 141 109 98
0.501729 -0.408654 -0.509 159 117 95
0.49968 -0.40464 -0.504 166 121 98
0.501378 -0.390991 -0.487 177 130 104
0.502306 -0.390991 -0.487 179 132 106
0.504862 -0.389386 -0.485 177 130 104
0.52088 -0.38216 -0.476 165 120 89
0.54602 -0.38778 -0.483 157 115 91
0.848827 -0.446389 -0.556 206 208 195
-0.322577 -0.449057 -0.558 227 228 222
-0.314572 -0.448252 -0.557 228 229 223
-0.307146 -0.448252 -0.557 227 228 220
-0.277937 -0.449057 -0.558 229 230 222
-0.265183 -0.449057 -0.558 228 229 221
-0.260931 -0.449057 -0.558 230 231 223
-0.258342 -0.448252 -0.557 229 230 222
-0.242863 -0.449057 -0.558 230 231 223
-0.225857 -0.449057 -0.558 231 232 224
-0.223068 -0.449862 -0.559 232 233 225
-0.21948 -0.449057 -0.558 231 233 222
-0.215229 -0.449057 -0.558 230 232 221
-0.15252 -0.449057 -0.558 235 236 230
-0.150394 -0.449057 -0.558 235 236 230
-0.136822 -0.449862 -0.559 236 237 231
-0.134692 -0.449862 -0.559 235 236 230
-0.111268 -0.449862 -0.559 235 236 230
-0.0505762 -0.449862 -0.559 185 150 120
-0.04836 -0.449057 -0.558 187 148 115
-0.0348905 -0.346852 -0.431 189 152 123
-0.0337533 -0.343633 -0.427 189 152 123
-0.0306533 -0.33639 -0.418 190 151 120
-0.0262895 -0.331562 -0.412 189 150 117
-0.0214762 -0.329952 -0.41 189 150 119
-0.0206952 -0.329952 -0.41 190 149 117
-0.0175286 -0.329148 -0.409 187 146 116
-0.00740095 -0.329148 -0.409 190 147 115
0.00909048 -0.333976 -0.415 174 129 100
0.0138667 -0.334781 -0.416 169 123 100
0.0365324 -0.346852 -0.431 119 85 75
0.0392667 -0.349267 -0.434 108 81 72
0.50666 -0.416062 -0.517 146 109 101
0.497933 -0.394333 -0.49 179 131 108
0.500549 -0.392724 -0.488 177 129 106
0.508944 -0.38709 -0.481 179 132 104
0.515785 -0.384676 -0.478 176 131 100
0.52088 -0.383067 -0.476 166 119 89
0.553114 -0.391114 -0.486 147 112 80
0.825528 -0.447448 -0.556 209 211 197
0.842472 -0.447448 -0.556 206 208 195
0.843531 -0.447448 -0.556 207 209 196
0.84459 -0.447448 -0.556 207 209 196
0.853063 -0.447448 -0.556 207 209 196
0.861535 -0.447448 -0.556 206 208 194
-0.318816 -0.449313 -0.557 227 228 220
-0.315633 -0.449313 -0.557 228 229 221
-0.231171 -0.45012 -0.558 230 231 223
-0.21204 -0.45012 -0.558 231 233 222
-0.192909 -0.45012 -0.558 232 233 225
-0.173024 -0.450927 -0.559 233 234 228
-0.170589 -0.45012 -0.558 233 234 228
-0.165274 -0.45012 -0.558 233 234 228
-0.158897 -0.45012 -0.558 235 236 230
-0.121697 -0.45012 -0.558 235 238 231
-0.02466 -0.33154 -0.411 189 150 117
-0.0019619 -0.332347 -0.412 187 142 109
0.0138667 -0.335573 -0.416 168 122 99
0.014659 -0.335573 -0.416 168 122 99
0.0170771 -0.33638 -0.417 161 116 97
0.03744 -0.34848 -0.432 112 82 72
0.0735143 -0.40172 -0.498 88 74 71
0.07632 -0.40656 -0.504 135 130 134
0.0778933 -0.409787 -0.508 228 223 227
0.516334 -0.42834 -0.531 132 104 93
0.499609 -0.404947 -0.502 168 120 97
0.52069 -0.383167 -0.475 171 124 94
-0.329893 -0.449566 -0.556 224 227 218
-0.325657 -0.449566 -0.556 226 229 220
-0.308712 -0.449566 -0.556 228 229 223
-0.302358 -0.449566 -0.556 227 228 222
-0.299181 -0.449566 -0.556 229 230 224
-0.293886 -0.449566 -0.556 228 229 223
-0.265769 -0.450374 -0.557 228 229 221
-0.256819 -0.449566 -0.556 231 232 224
-0.248347 -0.449566 -0.556 229 230 222
-0.223731 -0.451183 -0.558 230 231 223
-0.222669 -0.451183 -0.558 230 231 223
-0.183343 -0.451183 -0.558 232 233 227
-0.162856 -0.450374 -0.557 235 236 230
-0.151186 -0.450374 -0.557 234 235 229
-0.123823 -0.451183 -0.558 235 236 228
-0.0738686 -0.451183 -0.558 236 237 231
-0.0254429 -0.332323 -0.411 189 150 117
-0.0222571 -0.331514 -0.41 189 148 116
-0.0097381 -0.330706 -0.409 190 147 115
-0.00352286 -0.332323 -0.411 184 139 106
0.0178714 -0.337174 -0.417 158 111 91
0.0515667 -0.3679 -0.455 89 70 64
0.0571286 -0.375986 -0.465 89 70 66
0.06818 -0.393774 -0.487 87 73 70
0.0736619 -0.403477 -0.499 88 77 75
0.50064 -0.40752 -0.504 163 121 99
0.498474 -0.402669 -0.498 175 125 100
0.498362 -0.401051 -0.496 169 122 96
0.503126 -0.392966 -0.486 178 131 101
0.519067 -0.38488 -0.476 177 130 102
1.03232 -0.462503 -0.572 111 112 107
1.03668 -0.462503 -0.572 106 107 102
-0.331414 -0.449814 -0.555 227 228 222
-0.297063 -0.450625 -0.556 229 230 224
-0.281177 -0.450625 -0.556 228 229 221
-0.276941 -0.450625 -0.556 228 229 223
-0.204233 -0.451435 -0.557 231 232 224
-0.203172 -0.451435 -0.557 230 231 223
-0.19999 -0.451435 -0.557 231 232 224
-0.171344 -0.451435 -0.557 232 233 227
-0.162856 -0.451435 -0.557 233 234 228
-0.15543 -0.451435 -0.557 235 236 230
-0.152247 -0.451435 -0.557 234 235 227
-0.14482 -0.451435 -0.557 235 236 230
-0.139515 -0.451435 -0.557 234 235 229
-0.131263 -0.452246 -0.558 234 235 227
-0.128906 -0.451435 -0.557 234 235 227
-0.0190867 -0.331485 -0.409 192 148 119
-0.0183076 -0.331485 -0.409 193 149 120
-0.00117429 -0.333106 -0.411 184 139 108
0.00117714 -0.333916 -0.412 184 139 110
0.06832 -0.395512 -0.488 88 73 70
0.510566 -0.423069 -0.522 138 111 104
0.499569 -0.406049 -0.501 170 124 100
0.498362 -0.401996 -0.496 171 124 96
0.504743 -0.39227 -0.484 179 132 102
0.515614 -0.386597 -0.477 175 130 99
0.5372 -0.385787 -0.476 158 117 89
0.543323 -0.388218 -0.479 157 116 88
1.00591 -0.461971 -0.57 119 119 119
-0.309712 -0.450059 -0.554 226 227 221
-0.309214 -0.450871 -0.555 227 228 222
-0.296529 -0.450871 -0.555 228 229 221
-0.295471 -0.450871 -0.555 229 230 222
-0.278557 -0.450871 -0.555 228 229 223
-0.2775 -0.450871 -0.555 228 229 223
-0.272705 -0.451684 -0.556 230 231 225
-0.269528 -0.451684 -0.556 229 230 222
-0.268469 -0.451684 -0.556 228 229 221
-0.265871 -0.450871 -0.555 229 230 222
-0.2479 -0.450871 -0.555 228 229 221
-0.204233 -0.452496 -0.557 230 232 221
-0.193276 -0.451684 -0.556 232 233 225
-0.170283 -0.452496 -0.557 233 234 228
-0.146678 -0.451684 -0.556 234 235 227
-0.145619 -0.451684 -0.556 234 235 227
-0.139515 -0.452496 -0.557 236 237 231
-0.0737362 -0.452496 -0.557 234 235 229
-0.0320143 -0.337138 -0.415 188 148 113
-0.0246 -0.333076 -0.41 190 149 117
-0.0229819 -0.332264 -0.409 190 149 117
-0.00507619 -0.333076 -0.41 184 139 108
-0.00274 -0.333889 -0.411 184 139 108
0.00275333 -0.335513 -0.413 183 138 109
0.00432667 -0.335513 -0.413 173 127 101
0.00988095 -0.337138 -0.415 168 123 94
0.0366171 -0.350949 -0.432 111 81 71
0.0412971 -0.355823 -0.438 103 76 69
0.056001 -0.376132 -0.463 88 70 66
0.0572514 -0.37857 -0.466 89 71 67
0.0669762 -0.394005 -0.485 89 71 69
0.0782 -0.414314 -0.51 228 227 235
0.507645 -0.420001 -0.517 142 110 99
0.505678 -0.417564 -0.514 147 114 99
0.50554 -0.39238 -0.483 180 134 101
0.509411 -0.388318 -0.478 174 127 97
0.652665 -0.450059 -0.554 199 199 187
1.05078 -0.471993 -0.581 106 105 110
1.05551 -0.473618 -0.583 106 105 110
1.06429 -0.476055 -0.586 105 104 109
-0.331872 -0.451114 -0.554 226 227 219
-0.294414 -0.451929 -0.555 229 230 222
-0.289129 -0.451929 -0.555 228 229 221
-0.275386 -0.451929 -0.555 229 230 224
-0.271157 -0.451929 -0.555 228 229 223
-0.263757 -0.451929 -0.555 229 230 222
-0.237329 -0.451929 -0.555 229 230 222
-0.215516 -0.452743 -0.556 229 230 222
-0.213398 -0.452743 -0.556 230 231 223
-0.161505 -0.452743 -0.556 235 236 230
-0.153032 -0.452743 -0.556 234 235 227
-0.129733 -0.452743 -0.556 233 234 228
-0.12254 -0.453557 -0.557 235 236 228
-0.104504 -0.453557 -0.557 236 237 231
-0.054541 -0.452743 -0.556 189 151 115
-0.0302133 -0.335486 -0.412 194 149 110
-0.01904 -0.332229 -0.408 192 149 115
-0.00740095 -0.333043 -0.409 187 142 113
0.0130743 -0.338743 -0.416 165 119 95
0.0195533 -0.341186 -0.419 149 104 85
0.0244581 -0.342814 -0.421 147 101 86
0.0321267 -0.3477 -0.427 122 85 76
0.0330171 -0.348514 -0.428 120 83 74
0.0412971 -0.356657 -0.438 103 76 69
0.0619762 -0.386786 -0.475 91 71 70
0.0671143 -0.395743 -0.486 88 73 70
0.0738095 -0.407143 -0.5 83 74 75
0.525028 -0.440529 -0.541 123 104 97
0.505671 -0.417729 -0.513 145 113 100
0.501633 -0.411214 -0.505 159 121 102
0.5016 -0.4104 -0.504 164 122 98
0.499524 -0.407143 -0.5 167 123 98
0.497849 -0.398186 -0.489 173 129 104
0.50774 -0.390043 -0.479 180 134 101
0.519594 -0.385971 -0.474 176 130 97
0.525493 -0.384343 -0.472 170 124 91
0.536976 -0.386786 -0.475 163 120 88
0.645857 -0.447857 -0.55 198 198 186
0.654775 -0.451114 -0.554 200 200 188
0.967053 -0.4674 -0.574 130 130 122
0.998978 -0.464957 -0.571 108 108 108
1.01407 -0.4674 -0.574 109 111 110
-0.335038 -0.45217 -0.554 225 226 220
-0.329167 -0.451353 -0.553 225 227 216
-0.317099 -0.45217 -0.554 227 228 220
-0.311823 -0.45217 -0.554 227 228 220
-0.300727 -0.451353 -0.553 227 228 220
-0.287552 -0.45217 -0.554 228 229 223
-0.277 -0.45217 -0.554 229 230 224
-0.272214 -0.452986 -0.555 227 228 222
-0.269043 -0.452986 -0.555 228 229 223
-0.25484 -0.45217 -0.554 229 230 222
-0.25273 -0.45217 -0.554 229 230 222
-0.251674 -0.45217 -0.554 229 230 222
-0.249564 -0.45217 -0.554 229 230 222
-0.197157 -0.452986 -0.555 231 232 224
-0.172843 -0.452986 -0.555 232 233 225
-0.158328 -0.453802 -0.556 234 235 229
-0.13291 -0.453802 -0.556 234 235 229
-0.125497 -0.453802 -0.556 234 235 227
-0.113848 -0.453802 -0.556 234 237 228
-0.0725448 -0.453802 -0.556 233 234 228
-0.0319371 -0.337903 -0.414 189 150 117
-0.00971429 -0.333006 -0.408 189 146 114
0.0146943 -0.340351 -0.417 160 114 91
0.022 -0.3428 -0.42 151 103 89
0.0433581 -0.360756 -0.442 94 71 63
0.0484286 -0.367286 -0.45 91 71 64
0.0632781 -0.390139 -0.478 86 71 68
0.502627 -0.412992 -0.506 158 120 101
0.499475 -0.407279 -0.499 164 122 97
0.49869 -0.398301 -0.488 178 134 107
0.505279 -0.392588 -0.481 177 131 98
0.506828 -0.390955 -0.479 177 131 98
0.524594 -0.385242 -0.472 171 125 89
0.559818 -0.397485 -0.487 149 112 83
0.98236 -0.468493 -0.574 114 114 106
-0.309153 -0.452407 -0.553 227 228 220
-0.303887 -0.452407 -0.553 225 226 218
-0.260116 -0.453225 -0.554 229 230 222
-0.259061 -0.453225 -0.554 228 229 221
-0.255895 -0.453225 -0.554 229 230 222
-0.240067 -0.453225 -0.554 229 230 222
-0.2109 -0.454043 -0.555 231 233 222
-0.201386 -0.454043 -0.555 231 233 222
-0.187305 -0.453225 -0.554 231 232 224
-0.183084 -0.453225 -0.554 231 232 224
-0.171786 -0.454043 -0.555 233 234 226
-0.164682 -0.454861 -0.556 233 234 228
-0.141129 -0.454043 -0.555 233 234 226
-0.118084 -0.454861 -0.556 235 236 228
-0.108552 -0.454861 -0.556 235 236 228
-0.104316 -0.454861 -0.556 236 237 231
-0.03014 -0.336237 -0.411 189 149 114
-0.0276562 -0.334601 -0.409 187 148 115
-0.0260981 -0.334601 -0.409 190 152 116
-0.0127914 -0.332965 -0.407 186 143 111
0.000391429 -0.336237 -0.411 177 133 104
0.0019619 -0.337055 -0.412 176 133 101
0.00909048 -0.33951 -0.415 167 121 97
0.0139 -0.341146 -0.417 160 113 93
0.03124 -0.348509 -0.426 124 87 78
0.0394476 -0.35669 -0.436 103 75 63
0.0433581 -0.361598 -0.442 97 73 63
0.514478 -0.430318 -0.526 136 107 99
0.497933 -0.400867 -0.49 173 129 102
0.511813 -0.389413 -0.476 173 129 92
0.520998 -0.386141 -0.472 172 126 90
0.521897 -0.386141 -0.472 171 125 91
0.529989 -0.386141 -0.472 165 119 85
-0.331726 -0.45264 -0.552 224 225 219
-0.318633 -0.45346 -0.553 225 227 216
-0.311749 -0.45264 -0.552 227 228 220
-0.304389 -0.45264 -0.552 227 228 220
-0.2923 -0.45346 -0.553 227 228 220
-0.284387 -0.45428 -0.554 228 229 221
-0.281767 -0.45346 -0.553 228 229 221
-0.277553 -0.45346 -0.553 227 228 222
-0.23858 -0.45346 -0.553 228 229 221
-0.2109 -0.4551 -0.555 231 233 222
-0.207354 -0.45428 -0.554 230 232 221
-0.165443 -0.4551 -0.555 233 234 228
-0.164386 -0.4551 -0.555 233 234 228
-0.162271 -0.4551 -0.555 233 234 228
-0.140874 -0.45428 -0.554 233 234 226
-0.0681857 -0.4551 -0.555 231 232 227
-0.0629 -0.4551 -0.555 235 229 217
-0.0564552 -0.45428 -0.554 184 147 118
-0.0363133 -0.34358 -0.419 184 145 112
-0.0213714 -0.33456 -0.408 193 150 116
0.0203514 -0.34358 -0.419 150 104 89
0.0507 -0.3731 -0.455 88 70 66
0.0621067 -0.39032 -0.476 87 72 69
0.50863 -0.42394 -0.517 140 109 91
0.501563 -0.41246 -0.503 162 122 97
0.498234 -0.40508 -0.494 167 125 101
0.498014 -0.40262 -0.491 171 127 100
0.507437 -0.39114 -0.477 174 128 94
0.515983 -0.38868 -0.474 177 133 96
0.531787 -0.38704 -0.472 164 120 85
0.694673 -0.45346 -0.553 204 208 194
-0.334273 -0.45287 -0.551 225 226 220
-0.323314 -0.453691 -0.552 227 228 220
-0.28598 -0.454513 -0.553 228 229 221
-0.272287 -0.454513 -0.553 228 229 223
-0.26702 -0.454513 -0.553 228 229 223
-0.2607 -0.454513 -0.553 228 229 223
-0.259647 -0.454513 -0.553 228 229 223
-0.25438 -0.454513 -0.553 229 230 222
-0.226349 -0.455335 -0.554 228 229 221
-0.18802 -0.454513 -0.553 233 234 226
-0.185913 -0.454513 -0.553 232 233 225
-0.169366 -0.455335 -0.554 232 233 227
-0.150371 -0.455335 -0.554 233 234 226
-0.115757 -0.456157 -0.555 235 236 228
-0.0755857 -0.456157 -0.555 235 234 229
-0.0585657 -0.455335 -0.554 185 155 127
0.00828 -0.340269 -0.414 166 120 96
0.0139 -0.342734 -0.417 159 112 92
0.0212 -0.3452 -0.42 150 104 89
0.03124 -0.350131 -0.426 122 88 76
0.0445 -0.365748 -0.445 94 74 67
0.055119 -0.380542 -0.463 88 70 66
0.0728571 -0.410952 -0.5 89 85 86
0.0742524 -0.413418 -0.503 171 169 182
0.0789667 -0.423281 -0.515 213 215 227
0.506649 -0.421637 -0.513 147 111 95
0.518498 -0.388761 -0.473 175 129 93
0.523483 -0.387117 -0.471 170 124 88
0.544453 -0.391227 -0.476 159 116 84
0.546506 -0.392049 -0.477 156 113 81
-0.321211 -0.454743 -0.552 226 227 219
-0.290193 -0.455567 -0.553 228 229 221
-0.26702 -0.455567 -0.553 228 229 221
-0.241303 -0.454743 -0.552 228 229 221
-0.228047 -0.455567 -0.553 230 232 221
-0.22278 -0.455567 -0.553 228 230 219
-0.209087 -0.455567 -0.553 230 232 221
-0.192233 -0.455567 -0.553 232 234 223
-0.16409 -0.45639 -0.554 233 234 228
-0.14694 -0.455567 -0.553 235 236 228
-0.142727 -0.455567 -0.553 234 235 227
-0.112383 -0.45639 -0.554 235 236 228
-0.0712286 -0.45639 -0.554 232 235 228
-0.0517629 -0.452271 -0.549 186 147 114
-0.02448 -0.336114 -0.408 194 151 117
-0.0104657 -0.33529 -0.407 189 144 113
0.00117429 -0.338586 -0.411 173 128 99
0.00195714 -0.338586 -0.411 172 127 98
0.00353143 -0.33941 -0.412 166 120 94
0.00670286 -0.341057 -0.414 167 122 99
0.0322019 -0.35259 -0.428 116 88 74
0.0425162 -0.364124 -0.442 95 75 66
0.0486438 -0.372362 -0.452 89 72 65
0.0517933 -0.376481 -0.457 89 70 64
0.0562429 -0.383071 -0.465 87 69 65
0.07912 -0.425086 -0.516 207 209 224
0.5145 -0.4325 -0.525 131 104 97
0.500243 -0.399548 -0.485 177 132 101
0.502657 -0.397076 -0.482 177 132 99
0.508187 -0.392133 -0.476 180 134 101
0.541263 -0.390486 -0.474 162 118 83
0.542166 -0.390486 -0.474 161 118 84
0.646502 -0.450624 -0.547 197 197 187
-0.334714 -0.454143 -0.55 226 227 219
-0.305936 -0.454969 -0.551 227 228 220
-0.293342 -0.454969 -0.551 228 229 221
-0.250766 -0.455794 -0.552 228 229 221
-0.247611 -0.455794 -0.552 228 229 221
-0.24656 -0.455794 -0.552 229 230 222
-0.242354 -0.455794 -0.552 229 230 222
-0.240251 -0.455794 -0.552 229 230 222
-0.237097 -0.455794 -0.552 228 229 221
-0.224887 -0.45662 -0.553 227 229 218
-0.220673 -0.45662 -0.553 230 232 219
-0.21962 -0.45662 -0.553 230 232 219
-0.184526 -0.455794 -0.552 232 233 225
-0.177487 -0.45662 -0.553 231 232 224
-0.176433 -0.45662 -0.553 231 232 224
-0.1501 -0.45662 -0.553 233 236 229
-0.149047 -0.45662 -0.553 233 236 229
-0.122935 -0.457446 -0.554 234 235 227
-0.120825 -0.457446 -0.554 235 238 229
-0.107107 -0.457446 -0.554 234 237 228
-0.0849467 -0.457446 -0.554 234 235 227
-0.07756 -0.457446 -0.554 235 234 229
-0.06162 -0.45662 -0.553 181 169 153
-0.0515743 -0.451666 -0.547 187 146 114
-0.0317057 -0.339369 -0.411 190 150 115
-0.0174429 -0.336066 -0.407 189 144 111
-0.0143419 -0.336066 -0.407 190 145 112
-0.0135667 -0.336066 -0.407 189 144 111
-0.00738286 -0.336891 -0.408 185 140 107
0.000391429 -0.339369 -0.411 173 128 99
0.00117429 -0.339369 -0.411 173 127 101
0.00749143 -0.341846 -0.414 162 117 94
0.0154886 -0.344323 -0.417 155 108 90
0.0286705 -0.350103 -0.424 127 94 79
0.0660524 -0.400471 -0.485 85 71 70
0.532633 -0.454969 -0.551 112 97 92
0.53085 -0.451666 -0.547 113 98 93
0.51839 -0.437629 -0.53 122 102 95
0.51548 -0.434326 -0.526 130 101 97
0.50359 -0.417811 -0.506 153 117 95
0.500426 -0.412031 -0.499 164 122 97
0.541022 -0.390563 -0.473 161 118 84
-0.324828 -0.456018 -0.551 226 227 219
-0.323778 -0.456018 -0.551 226 227 219
-0.266537 -0.456846 -0.552 228 229 223
-0.264434 -0.456846 -0.552 227 228 222
-0.258126 -0.456846 -0.552 227 228 222
-0.246113 -0.456018 -0.551 228 229 221
-0.222377 -0.456846 -0.552 228 230 219
-0.186629 -0.456846 -0.552 233 234 226
-0.184526 -0.456846 -0.552 232 233 225
-0.158527 -0.457673 -0.553 231 232 224
-0.138263 -0.456846 -0.552 234 235 227
-0.132193 -0.457673 -0.553 233 234 226
-0.12482 -0.457673 -0.553 234 235 227
-0.07742 -0.457673 -0.553 234 235 227
-0.07426 -0.457673 -0.553 235 235 227
-0.03588 -0.342634 -0.414 188 147 115
-0.0324095 -0.339324 -0.41 190 150 115
-0.0220943 -0.336841 -0.407 191 148 113
-0.0204933 -0.336013 -0.406 190 147 113
-0.0174 -0.336013 -0.406 189 146 111
0.0059 -0.341807 -0.413 165 120 97
0.04158 -0.36498 -0.441 100 77 71
0.530777 -0.453535 -0.548 112 97 92
0.51839 -0.438638 -0.53 118 103 98
0.504613 -0.42043 -0.508 147 111 95
0.499175 -0.408844 -0.494 168 124 97
0.501055 -0.400568 -0.484 174 129 98
0.502657 -0.398912 -0.482 178 133 102
0.503575 -0.398912 -0.482 180 134 100
0.50409 -0.39643 -0.479 177 131 97
0.510566 -0.392291 -0.474 174 128 94
0.520581 -0.388981 -0.47 171 125 92
0.52662 -0.388153 -0.469 166 120 87
0.528407 -0.388153 -0.469 167 121 87
0.534905 -0.388981 -0.47 164 119 86
