ply
format ascii 1.0
comment Created by Open3D
element vertex 1317
property double x
property double y
property double z
property uchar red
property uchar green
property uchar blue
end_header
0.436511 -0.259757 -0.627 73 68 88
0.429888 -0.222886 -0.538 141 88 84
0.43911 -0.222886 -0.538 138 94 85
0.447742 -0.224129 -0.541 135 91 82
0.478817 -0.231171 -0.558 129 86 77
0.48439 -0.232829 -0.562 126 86 76
-0.305153 -0.265113 -0.637 250 251 246
-0.297591 -0.265946 -0.639 252 253 248
-0.289656 -0.26761 -0.643 250 250 248
-0.287316 -0.268859 -0.646 251 253 250
-0.283269 -0.269691 -0.648 156 156 156
-0.161524 -0.266362 -0.64 192 193 179
0.105414 -0.196026 -0.471 202 160 144
0.118104 -0.191864 -0.461 207 160 142
0.121352 -0.191448 -0.46 200 155 136
0.137669 -0.189783 -0.456 182 135 117
0.141452 -0.190199 -0.457 169 121 107
0.17272 -0.198107 -0.476 120 81 74
0.176546 -0.199355 -0.479 115 77 74
0.179115 -0.200188 -0.481 109 75 74
0.276257 -0.243888 -0.586 80 62 78
0.277703 -0.234731 -0.564 89 67 80
0.282309 -0.229737 -0.552 104 81 89
0.286003 -0.227656 -0.547 117 90 99
0.28756 -0.22724 -0.546 118 91 100
0.298718 -0.22391 -0.538 124 97 106
0.302254 -0.223494 -0.537 126 99 108
0.330755 -0.219332 -0.527 133 107 120
0.334135 -0.218916 -0.526 184 167 177
0.3385 -0.2185 -0.525 137 113 126
0.364431 -0.228489 -0.549 63 63 75
0.404486 -0.247217 -0.594 115 112 129
0.408351 -0.228489 -0.549 151 101 100
0.42169 -0.22391 -0.538 153 102 98
0.422714 -0.22391 -0.538 154 103 99
0.429888 -0.22391 -0.538 133 83 76
0.469463 -0.229737 -0.552 132 89 80
-0.324453 -0.269253 -0.644 252 253 248
-0.317562 -0.267581 -0.64 252 253 248
-0.310007 -0.266327 -0.637 252 253 248
-0.295619 -0.267581 -0.64 254 255 250
-0.2944 -0.267581 -0.64 255 255 251
-0.286529 -0.270508 -0.647 252 254 251
-0.160054 -0.267163 -0.639 196 194 182
-0.154903 -0.270926 -0.648 198 196 184
-0.0874143 -0.264654 -0.633 69 67 81
0.124913 -0.19107 -0.457 198 153 132
0.125784 -0.19107 -0.457 199 154 133
0.128395 -0.19107 -0.457 195 148 128
0.149715 -0.192742 -0.461 144 101 92
0.15301 -0.193578 -0.463 135 92 85
0.160559 -0.19525 -0.467 125 86 79
0.179488 -0.201522 -0.482 105 73 74
0.180406 -0.201522 -0.482 105 73 74
0.183754 -0.203194 -0.486 98 73 76
0.285476 -0.229952 -0.55 113 86 93
0.286003 -0.229534 -0.549 115 88 95
0.286526 -0.229116 -0.548 118 91 98
0.288087 -0.228698 -0.547 119 92 99
0.294686 -0.225771 -0.54 122 95 102
0.31117 -0.222845 -0.533 133 105 117
0.319514 -0.22159 -0.53 131 103 115
0.329371 -0.220754 -0.528 137 109 121
0.333133 -0.219918 -0.526 198 181 191
0.3564 -0.225771 -0.54 54 47 54
0.397483 -0.245422 -0.587 106 104 118
0.408349 -0.250021 -0.598 118 114 131
0.408351 -0.229534 -0.549 146 96 95
0.410739 -0.229116 -0.548 151 101 100
-0.299276 -0.2688 -0.64 251 252 247
-0.289329 -0.2709 -0.645 251 251 249
-0.286971 -0.27216 -0.648 251 253 250
-0.164923 -0.26838 -0.639 212 213 208
-0.162234 -0.26796 -0.638 198 198 186
-0.0910314 -0.26586 -0.633 72 70 83
-0.0787867 -0.26124 -0.622 70 68 81
-0.0719086 -0.26208 -0.624 68 68 78
-0.0566857 -0.2688 -0.64 68 68 80
-0.0451905 -0.273 -0.65 69 72 81
0.10384 -0.19824 -0.472 201 159 145
0.105183 -0.19572 -0.466 203 160 143
0.106729 -0.1953 -0.465 202 159 142
0.117591 -0.19278 -0.459 206 161 142
0.131589 -0.19152 -0.456 193 145 125
0.137669 -0.19152 -0.456 175 128 108
0.142323 -0.19194 -0.457 162 116 101
0.164276 -0.1974 -0.47 120 83 75
0.284354 -0.23352 -0.556 98 72 85
0.305775 -0.22512 -0.536 130 102 114
0.333133 -0.22092 -0.526 198 181 191
0.360738 -0.2289 -0.545 51 51 63
0.38986 -0.24318 -0.579 113 106 122
0.39816 -0.24696 -0.588 110 104 118
0.402675 -0.24906 -0.593 116 110 124
0.41612 -0.25452 -0.606 119 112 130
0.4182 -0.24108 -0.574 135 97 94
0.409095 -0.231 -0.55 146 97 93
0.416057 -0.2268 -0.54 148 99 94
0.431937 -0.22596 -0.538 138 91 83
0.44198 -0.22638 -0.539 139 90 83
0.462085 -0.22974 -0.547 132 88 77
0.49194 -0.23814 -0.567 131 87 76
-0.309278 -0.269175 -0.638 252 253 248
-0.297302 -0.270441 -0.641 252 253 248
-0.0919457 -0.266222 -0.631 76 72 86
-0.0678 -0.2658 -0.63 67 70 77
-0.0601543 -0.269175 -0.638 69 69 79
0.105843 -0.196186 -0.465 204 161 144
0.106499 -0.195764 -0.464 203 160 143
0.125509 -0.192389 -0.456 199 154 133
0.138537 -0.192389 -0.456 169 123 107
0.144694 -0.193654 -0.459 149 103 90
0.168028 -0.199561 -0.473 120 82 79
0.181154 -0.204202 -0.484 91 70 67
0.286929 -0.246814 -0.585 84 63 72
0.285442 -0.233735 -0.554 108 82 85
0.294201 -0.22825 -0.541 127 97 109
0.298718 -0.226985 -0.538 122 96 105
0.32395 -0.223188 -0.529 127 101 112
0.328366 -0.222766 -0.528 134 111 121
0.409031 -0.252721 -0.599 117 110 126
0.433234 -0.263269 -0.624 75 71 88
0.456069 -0.273394 -0.648 70 65 87
0.409731 -0.235423 -0.558 146 101 96
0.40922 -0.233313 -0.553 150 102 98
0.409839 -0.23247 -0.551 146 98 94
0.488263 -0.237954 -0.564 131 87 76
0.497586 -0.240908 -0.571 137 94 85
-0.291786 -0.273357 -0.645 252 254 249
-0.290226 -0.274205 -0.647 252 254 249
-0.16198 -0.269967 -0.637 241 240 236
-0.149503 -0.273781 -0.646 196 196 184
-0.0928524 -0.266576 -0.629 73 71 85
-0.0764171 -0.26361 -0.622 69 69 79
-0.048679 -0.274205 -0.647 70 73 80
0.115219 -0.194952 -0.46 205 162 143
0.164626 -0.199614 -0.471 121 82 77
0.166773 -0.200038 -0.472 119 80 75
0.191137 -0.211057 -0.498 99 72 79
0.284717 -0.238605 -0.563 96 72 85
0.286472 -0.235638 -0.556 106 81 87
0.288094 -0.233519 -0.551 115 88 95
0.294254 -0.230129 -0.543 124 97 106
0.303277 -0.227586 -0.537 126 100 109
0.31464 -0.225467 -0.532 131 105 114
0.320524 -0.224619 -0.53 127 101 110
0.326972 -0.224195 -0.529 132 106 117
0.330755 -0.223348 -0.527 138 116 128
0.3355 -0.2225 -0.525 148 128 140
0.340793 -0.223348 -0.527 139 118 127
0.342446 -0.223771 -0.528 140 119 128
0.398837 -0.249624 -0.589 113 109 124
0.44329 -0.269119 -0.635 82 77 97
0.412922 -0.230552 -0.544 141 93 89
0.427838 -0.22801 -0.538 141 92 85
0.431937 -0.22801 -0.538 142 94 84
0.437061 -0.22801 -0.538 142 94 84
0.447742 -0.229281 -0.541 132 85 75
-0.305849 -0.272883 -0.641 253 253 251
-0.300679 -0.273734 -0.643 254 254 252
-0.158091 -0.270754 -0.636 203 202 197
-0.153969 -0.272031 -0.639 199 199 189
-0.145811 -0.275011 -0.646 200 198 185
-0.114348 -0.276289 -0.649 241 240 235
-0.0962933 -0.267349 -0.628 66 66 76
-0.0753533 -0.26522 -0.623 71 71 81
-0.0590314 -0.272031 -0.639 69 69 77
0.132167 -0.1937 -0.455 186 139 119
0.1365 -0.1937 -0.455 172 125 107
0.161247 -0.19966 -0.469 125 86 79
0.299273 -0.22946 -0.539 124 97 106
0.312186 -0.226906 -0.533 127 101 110
0.316071 -0.226054 -0.531 132 106 115
0.406529 -0.254151 -0.597 101 97 114
0.414231 -0.231163 -0.543 142 93 88
0.443007 -0.22946 -0.539 139 91 81
0.444857 -0.229886 -0.54 139 92 82
0.457281 -0.232014 -0.545 136 89 79
0.475385 -0.235846 -0.554 134 90 81
-0.309252 -0.274959 -0.643 253 254 248
-0.150552 -0.273676 -0.64 200 200 190
-0.14089 -0.276242 -0.646 222 220 207
-0.104789 -0.271966 -0.636 70 68 81
-0.085481 -0.264696 -0.619 68 71 80
-0.0702 -0.2694 -0.63 70 70 80
-0.0612733 -0.272393 -0.637 70 70 78
-0.045121 -0.277525 -0.649 70 70 78
0.107567 -0.197132 -0.461 204 163 145
0.1339 -0.194567 -0.455 184 135 118
0.173809 -0.20483 -0.479 107 77 75
0.18135 -0.20825 -0.487 98 69 74
0.29106 -0.24246 -0.567 92 74 90
0.292823 -0.236046 -0.552 116 90 103
0.2938 -0.23348 -0.546 123 97 106
0.3003 -0.230487 -0.539 126 99 108
0.31464 -0.227493 -0.532 131 105 114
0.409643 -0.237329 -0.555 141 97 94
0.41119 -0.23519 -0.55 138 93 88
0.415266 -0.232197 -0.543 141 92 87
0.421447 -0.230487 -0.539 143 94 87
0.422473 -0.230487 -0.539 145 96 89
-0.312409 -0.277902 -0.647 252 253 248
-0.305773 -0.277472 -0.646 252 253 248
-0.304543 -0.277472 -0.646 252 253 248
-0.146436 -0.274036 -0.638 197 197 187
-0.122243 -0.277043 -0.645 242 242 232
-0.11819 -0.276184 -0.643 231 232 227
-0.0950667 -0.266305 -0.62 62 62 64
-0.0900514 -0.265446 -0.618 68 73 76
-0.0841657 -0.265446 -0.618 72 72 80
-0.0521333 -0.276613 -0.644 72 72 82
-0.0509857 -0.277043 -0.645 72 72 82
-0.0463571 -0.278761 -0.649 71 71 79
0.101632 -0.200158 -0.466 201 162 145
0.1023 -0.199729 -0.465 201 162 145
0.121767 -0.195433 -0.455 208 163 144
0.127833 -0.195433 -0.455 188 141 121
0.137669 -0.195863 -0.456 157 111 96
0.15069 -0.199299 -0.464 132 89 80
0.164975 -0.202735 -0.472 120 81 76
0.171625 -0.205312 -0.478 107 78 74
0.181722 -0.209608 -0.488 99 70 75
0.294414 -0.239245 -0.557 99 81 95
0.303842 -0.231084 -0.538 127 101 112
0.315653 -0.228507 -0.532 129 106 116
0.3325 -0.2255 -0.525 212 194 206
0.35266 -0.231513 -0.539 49 36 45
0.409643 -0.238386 -0.555 140 96 93
0.40996 -0.237956 -0.554 140 95 92
0.413115 -0.23495 -0.547 141 93 89
0.414994 -0.233661 -0.544 141 94 88
0.415266 -0.233231 -0.543 141 92 87
0.415797 -0.232372 -0.541 142 95 87
0.425789 -0.231084 -0.538 141 94 84
0.435011 -0.231084 -0.538 145 96 89
0.466911 -0.235809 -0.549 140 96 87
-0.156633 -0.273957 -0.635 236 238 237
-0.147933 -0.273526 -0.634 238 239 234
-0.12412 -0.276977 -0.642 238 238 230
-0.0874133 -0.26576 -0.616 73 73 81
-0.0745238 -0.270074 -0.626 74 72 83
-0.0714 -0.2718 -0.63 72 70 83
-0.0658152 -0.273526 -0.634 70 69 77
-0.0624867 -0.27482 -0.637 70 68 79
0.130433 -0.1963 -0.455 185 138 118
0.1339 -0.1963 -0.455 172 125 107
0.149483 -0.199751 -0.463 129 86 80
0.302353 -0.23254 -0.539 124 98 109
0.314216 -0.229951 -0.533 127 104 114
0.316667 -0.22952 -0.532 128 105 115
0.318911 -0.228226 -0.529 125 102 112
0.330128 -0.226931 -0.526 135 113 125
0.394573 -0.252817 -0.586 98 94 111
0.41358 -0.236854 -0.549 139 94 89
0.414994 -0.234697 -0.544 138 91 85
0.435011 -0.232109 -0.538 146 98 88
0.454569 -0.234266 -0.543 138 91 81
0.459357 -0.235129 -0.545 137 90 82
0.464169 -0.235991 -0.547 138 91 83
0.501726 -0.246777 -0.572 140 93 83
-0.14091 -0.275167 -0.635 253 252 247
-0.13992 -0.2756 -0.636 251 250 245
-0.138927 -0.276033 -0.637 249 248 244
-0.123347 -0.276467 -0.638 192 192 190
-0.0681229 -0.2743 -0.633 70 68 79
-0.0637 -0.276033 -0.637 70 69 77
-0.0509857 -0.2795 -0.645 70 68 79
0.0994067 -0.208433 -0.481 202 161 141
0.111229 -0.198467 -0.458 203 162 144
0.123229 -0.196733 -0.454 201 158 141
0.134767 -0.197167 -0.455 163 117 102
0.172343 -0.208 -0.48 99 73 74
0.17526 -0.2093 -0.483 98 74 74
0.311319 -0.231833 -0.535 124 101 111
0.313789 -0.2314 -0.534 126 103 113
0.316667 -0.230533 -0.532 129 106 116
0.326354 -0.2288 -0.528 125 102 112
0.33113 -0.227933 -0.526 125 105 116
0.43343 -0.271267 -0.626 78 75 96
0.431937 -0.233133 -0.538 143 95 85
0.432962 -0.233133 -0.538 144 96 86
0.443007 -0.233567 -0.539 142 94 84
0.449803 -0.234433 -0.541 138 91 83
0.450833 -0.234433 -0.541 137 90 82
-0.16281 -0.282905 -0.65 113 114 118
-0.146767 -0.273765 -0.629 231 231 233
-0.0976552 -0.267236 -0.614 77 75 86
-0.0963286 -0.266801 -0.613 76 74 85
-0.0904905 -0.266801 -0.613 75 75 83
-0.08624 -0.268107 -0.616 74 74 82
-0.0822086 -0.270283 -0.621 73 71 82
-0.0439524 -0.282905 -0.65 71 69 80
0.114468 -0.198904 -0.457 204 161 142
0.132741 -0.197598 -0.454 168 125 109
0.155222 -0.203256 -0.467 131 87 78
0.165674 -0.206303 -0.474 115 77 74
0.302286 -0.240251 -0.552 127 101 112
0.396593 -0.256355 -0.589 101 98 115
0.403577 -0.259402 -0.596 90 87 106
0.410381 -0.241992 -0.556 136 93 87
0.411015 -0.241122 -0.554 132 89 83
0.419919 -0.235464 -0.541 147 98 93
0.433987 -0.234158 -0.538 148 100 90
0.44116 -0.234158 -0.538 142 93 79
0.46521 -0.238075 -0.547 137 90 82
-0.1547 -0.27846 -0.637 105 106 110
-0.143682 -0.273651 -0.626 172 171 177
-0.139134 -0.274089 -0.627 179 180 182
-0.0590314 -0.279334 -0.639 72 72 82
-0.045121 -0.283706 -0.649 73 71 82
0.104705 -0.201086 -0.46 202 161 143
0.1157 -0.1989 -0.455 204 161 142
0.11804 -0.198463 -0.454 205 162 143
0.132741 -0.198463 -0.454 167 121 105
0.143257 -0.201086 -0.46 137 92 86
0.145325 -0.201523 -0.461 134 90 81
0.314806 -0.233434 -0.534 131 105 114
0.33113 -0.229937 -0.526 210 190 199
0.3315 -0.2295 -0.525 201 181 190
0.336139 -0.229937 -0.526 141 121 132
0.388324 -0.253543 -0.58 102 99 116
0.422987 -0.26928 -0.616 87 82 102
0.411665 -0.248297 -0.568 143 93 92
0.410186 -0.246111 -0.563 139 95 94
0.410794 -0.243926 -0.558 137 92 89
0.41144 -0.243051 -0.556 135 91 88
0.414626 -0.239991 -0.549 133 85 83
0.46332 -0.23868 -0.546 138 90 80
-0.155914 -0.281869 -0.642 116 117 121
-0.144643 -0.274405 -0.625 93 92 98
-0.0833914 -0.272649 -0.621 73 72 80
-0.0759581 -0.275722 -0.628 73 72 80
-0.074881 -0.276161 -0.629 73 72 80
-0.0638 -0.280112 -0.638 71 71 79
0.100096 -0.203279 -0.463 203 162 144
0.103829 -0.201962 -0.46 204 163 145
0.105351 -0.201523 -0.459 204 163 145
0.122957 -0.198889 -0.453 198 153 134
0.12382 -0.198889 -0.453 193 148 129
0.154332 -0.205035 -0.467 130 87 80
0.164771 -0.208109 -0.474 114 80 78
0.176711 -0.213816 -0.487 92 72 71
0.308628 -0.237525 -0.541 131 101 109
0.310437 -0.235769 -0.537 124 101 111
0.3305 -0.2305 -0.525 186 165 174
0.337141 -0.230939 -0.526 145 124 133
0.41207 -0.243232 -0.554 136 91 88
0.417833 -0.239281 -0.545 137 89 85
0.419663 -0.237964 -0.542 141 94 88
0.427607 -0.236647 -0.539 146 96 87
0.430687 -0.236647 -0.539 146 96 87
0.470905 -0.241476 -0.55 146 98 88
0.47491 -0.241915 -0.551 140 92 82
0.482396 -0.24411 -0.556 141 91 82
-0.127927 -0.27295 -0.619 68 67 75
-0.09802 -0.26854 -0.609 74 74 82
-0.0545867 -0.283973 -0.644 104 103 117
0.105994 -0.201956 -0.458 205 164 144
0.11248 -0.201074 -0.456 201 158 139
0.117175 -0.200192 -0.454 204 161 142
0.11977 -0.200192 -0.454 203 160 141
0.1339 -0.200633 -0.455 153 108 89
0.149806 -0.204602 -0.464 137 95 83
0.156446 -0.206366 -0.468 127 84 77
0.157337 -0.206366 -0.468 128 85 78
0.311593 -0.237673 -0.539 125 102 112
0.403117 -0.263249 -0.597 112 109 128
0.418094 -0.257075 -0.583 129 93 97
0.410133 -0.246933 -0.56 134 93 89
0.420437 -0.239437 -0.543 139 92 86
0.456637 -0.239437 -0.543 141 93 81
0.48994 -0.247374 -0.561 142 93 86
0.501262 -0.250902 -0.569 143 96 90
-0.132 -0.2728 -0.616 74 73 79
-0.128271 -0.272357 -0.615 63 62 68
-0.111021 -0.267486 -0.604 58 56 67
-0.0857571 -0.275014 -0.621 74 75 80
-0.0804857 -0.277229 -0.626 74 73 79
-0.0771543 -0.278114 -0.628 74 73 81
-0.0739171 -0.279443 -0.631 73 72 80
-0.0683381 -0.281214 -0.635 71 70 78
0.1012 -0.203714 -0.46 203 161 145
0.106633 -0.202386 -0.457 204 163 143
0.118905 -0.201057 -0.454 202 160 138
0.155554 -0.207257 -0.468 129 86 77
0.173779 -0.214343 -0.484 97 72 75
0.18318 -0.2201 -0.497 90 77 84
0.31205 -0.242243 -0.547 125 98 105
0.312871 -0.240471 -0.543 131 104 111
0.3325 -0.2325 -0.525 152 131 140
0.441047 -0.2821 -0.637 78 70 93
0.41584 -0.244457 -0.552 130 85 80
0.436036 -0.238257 -0.538 145 97 83
0.448971 -0.239143 -0.54 138 90 78
-0.152957 -0.286871 -0.645 110 111 115
-0.150788 -0.285092 -0.641 108 109 114
-0.114093 -0.267747 -0.602 60 59 67
-0.109325 -0.267302 -0.601 51 51 61
-0.102968 -0.268636 -0.604 66 69 76
-0.097019 -0.271305 -0.61 74 73 81
-0.0592162 -0.285092 -0.641 71 71 83
0.0994476 -0.20459 -0.46 202 160 144
0.104892 -0.203256 -0.457 206 163 147
0.106633 -0.203256 -0.457 204 163 143
0.139145 -0.203701 -0.458 142 98 87
0.158905 -0.209038 -0.47 125 85 77
0.165119 -0.211262 -0.475 108 80 79
0.414487 -0.245953 -0.553 128 84 81
0.416593 -0.245953 -0.553 127 83 80
0.440135 -0.239282 -0.538 141 94 78
0.451029 -0.240171 -0.54 140 90 79
0.488193 -0.248622 -0.559 137 88 81
-0.13391 -0.274253 -0.614 83 84 89
-0.126394 -0.27068 -0.606 66 66 74
-0.118286 -0.268 -0.6 74 74 82
-0.0921067 -0.275147 -0.616 74 75 80
-0.0806143 -0.28006 -0.627 74 73 78
-0.0614657 -0.28542 -0.639 71 69 80
-0.05336 -0.287653 -0.644 109 109 121
0.0957486 -0.210827 -0.472 197 158 143
0.0963067 -0.208147 -0.466 200 158 144
0.0994476 -0.205467 -0.46 202 160 144
0.11631 -0.202787 -0.454 206 163 144
0.120369 -0.20234 -0.453 198 157 137
0.124408 -0.201893 -0.452 184 141 122
0.158905 -0.209933 -0.47 125 85 77
0.318896 -0.249687 -0.559 104 86 98
0.319891 -0.23852 -0.534 135 109 118
0.344673 -0.238073 -0.533 71 54 62
0.39368 -0.26264 -0.588 70 67 86
0.400633 -0.265767 -0.595 84 82 96
0.458706 -0.24254 -0.543 136 86 77
0.480661 -0.247453 -0.554 140 92 82
-0.131876 -0.273629 -0.61 72 73 78
-0.0475933 -0.291123 -0.649 73 71 82
0.118643 -0.203203 -0.453 201 160 142
0.122957 -0.203203 -0.453 190 149 131
0.124408 -0.202754 -0.452 184 141 124
0.130147 -0.203651 -0.454 161 116 97
0.142381 -0.206343 -0.46 143 99 90
0.155554 -0.209931 -0.468 132 89 80
0.158905 -0.210829 -0.47 124 84 76
0.165467 -0.21352 -0.476 99 77 80
0.322338 -0.239089 -0.533 135 109 120
0.325174 -0.238191 -0.531 133 107 116
0.327744 -0.236397 -0.527 128 105 115
0.34532 -0.239537 -0.534 63 46 52
0.438452 -0.284843 -0.635 80 75 95
0.410547 -0.25748 -0.574 132 96 96
0.40878 -0.25434 -0.567 135 93 94
0.409137 -0.253891 -0.566 136 94 95
0.41292 -0.250303 -0.558 125 81 78
0.415236 -0.248509 -0.554 127 83 80
0.417647 -0.24806 -0.553 123 80 74
0.425857 -0.243126 -0.542 136 92 81
0.428163 -0.242677 -0.541 140 93 83
0.497738 -0.253443 -0.565 148 95 89
-0.147354 -0.289206 -0.642 108 109 111
-0.0964857 -0.276592 -0.614 71 71 79
-0.0807429 -0.282899 -0.628 75 74 80
-0.0774 -0.2838 -0.63 74 73 79
-0.0752381 -0.284701 -0.632 74 73 79
-0.0558133 -0.290107 -0.644 72 70 81
0.0970295 -0.20767 -0.461 202 161 143
0.103567 -0.204967 -0.455 204 166 147
0.106167 -0.204967 -0.455 203 165 144
0.120964 -0.203615 -0.452 193 155 132
0.132167 -0.204967 -0.455 152 109 92
0.135359 -0.205868 -0.457 154 106 92
0.136528 -0.206318 -0.458 153 105 91
0.151014 -0.209471 -0.465 140 96 83
0.158905 -0.211724 -0.47 124 84 74
0.335774 -0.237401 -0.527 132 110 122
0.337417 -0.237851 -0.528 136 114 126
0.360511 -0.248212 -0.551 39 33 35
0.39368 -0.26488 -0.588 79 77 91
0.415046 -0.251366 -0.558 124 80 77
0.431486 -0.243257 -0.54 146 99 89
0.439927 -0.242807 -0.539 145 98 82
0.455986 -0.243708 -0.541 146 96 85
0.460774 -0.244609 -0.543 138 88 77
0.461809 -0.244609 -0.543 138 88 79
0.46748 -0.24596 -0.546 146 96 87
0.469378 -0.24641 -0.547 149 99 90
0.494025 -0.253168 -0.562 147 94 86
-0.144231 -0.289071 -0.639 105 109 112
-0.127338 -0.27369 -0.605 65 65 73
-0.121106 -0.270071 -0.597 60 59 67
-0.119768 -0.269619 -0.596 61 60 68
-0.114647 -0.268262 -0.593 68 71 76
-0.0569514 -0.290881 -0.643 72 71 79
0.0947343 -0.211262 -0.467 198 159 142
0.096819 -0.208095 -0.46 201 163 144
0.147719 -0.209452 -0.463 143 99 86
0.156446 -0.211714 -0.468 126 89 81
0.327011 -0.241571 -0.534 133 105 119
0.327197 -0.240214 -0.531 131 105 118
0.332763 -0.238405 -0.527 148 127 134
0.344303 -0.241571 -0.534 78 63 68
0.426607 -0.281833 -0.623 69 65 88
0.407686 -0.257857 -0.57 138 93 96
0.411934 -0.253786 -0.561 129 84 79
0.425609 -0.245643 -0.543 131 84 78
0.433543 -0.244286 -0.54 148 98 87
0.451029 -0.244286 -0.54 149 99 88
-0.0906343 -0.282566 -0.622 72 73 78
-0.0852552 -0.284383 -0.626 75 74 80
-0.0787248 -0.286654 -0.631 75 74 80
-0.0775229 -0.286654 -0.631 74 73 79
-0.0546714 -0.293014 -0.645 73 72 80
0.128134 -0.205791 -0.453 166 121 102
0.132457 -0.207154 -0.456 159 112 96
0.134489 -0.207609 -0.457 155 108 92
0.138272 -0.208063 -0.458 151 104 88
0.326993 -0.24486 -0.539 136 109 118
0.333767 -0.239409 -0.527 126 105 112
0.337049 -0.240317 -0.529 133 110 116
0.358157 -0.249403 -0.549 43 36 44
0.367217 -0.253491 -0.558 46 39 47
0.40697 -0.258489 -0.569 138 94 95
0.408059 -0.257126 -0.566 135 95 93
0.427677 -0.246677 -0.543 135 88 80
0.428711 -0.246677 -0.543 138 91 83
0.463695 -0.247131 -0.544 139 89 80
-0.133286 -0.28375 -0.622 129 133 136
-0.12839 -0.278276 -0.61 130 134 137
-0.122652 -0.273258 -0.599 135 136 141
-0.0940371 -0.283294 -0.621 68 69 74
-0.0832676 -0.286944 -0.629 76 75 81
-0.05704 -0.293787 -0.644 70 69 77
0.100967 -0.207567 -0.455 203 165 146
0.108289 -0.206654 -0.453 207 166 146
0.113466 -0.206654 -0.453 204 161 142
0.130147 -0.20711 -0.454 163 116 100
0.155554 -0.213497 -0.468 124 90 81
0.329923 -0.250449 -0.549 137 111 120
0.32942 -0.247711 -0.543 129 108 115
0.331383 -0.240869 -0.528 131 105 114
0.350877 -0.246799 -0.541 45 40 44
0.36681 -0.25501 -0.559 41 34 42
0.37224 -0.257291 -0.564 42 35 43
0.406981 -0.258204 -0.566 143 97 97
0.421384 -0.251361 -0.551 124 81 74
0.427176 -0.248624 -0.545 131 84 78
0.442185 -0.24543 -0.538 140 92 80
0.44321 -0.24543 -0.538 142 94 82
0.445259 -0.24543 -0.538 140 92 80
0.451029 -0.246343 -0.54 144 94 83
-0.131251 -0.283103 -0.618 123 127 130
-0.10764 -0.273941 -0.598 59 60 65
-0.102491 -0.278522 -0.608 61 60 66
-0.0953733 -0.284935 -0.622 66 67 72
-0.09078 -0.285393 -0.623 71 70 76
-0.0855276 -0.287684 -0.628 76 75 80
-0.0822 -0.2886 -0.63 76 75 80
0.0931543 -0.214389 -0.468 197 158 141
0.122686 -0.207059 -0.452 181 140 120
0.125546 -0.207517 -0.453 173 128 109
0.129282 -0.207975 -0.454 166 119 103
0.1313 -0.208433 -0.455 161 114 98
0.152227 -0.213472 -0.466 131 94 85
0.167552 -0.220802 -0.482 94 73 78
0.43078 -0.248746 -0.543 136 89 81
0.440953 -0.246913 -0.539 138 90 80
0.46852 -0.25012 -0.546 142 93 86
0.484882 -0.253785 -0.554 142 93 86
-0.125977 -0.27784 -0.604 122 126 129
-0.10429 -0.2783 -0.605 63 64 69
-0.0964029 -0.28566 -0.621 61 61 69
-0.08778 -0.28842 -0.627 74 73 79
-0.064 -0.2944 -0.64 72 71 76
0.103111 -0.20838 -0.453 206 165 145
0.10891 -0.20792 -0.452 207 166 144
0.110632 -0.20792 -0.452 204 163 141
0.118381 -0.20792 -0.452 194 153 131
0.124408 -0.20792 -0.452 168 125 106
0.125269 -0.20792 -0.452 170 125 106
0.164685 -0.22034 -0.479 99 79 80
0.33654 -0.25438 -0.553 138 115 123
0.420807 -0.25438 -0.553 127 84 77
0.440743 -0.2484 -0.54 141 93 83
0.449167 -0.24794 -0.539 140 91 77
0.454114 -0.2484 -0.54 144 95 81
0.480157 -0.25346 -0.551 143 95 85
-0.120294 -0.27391 -0.593 117 118 123
-0.110883 -0.272986 -0.591 107 108 113
-0.0934524 -0.28869 -0.625 64 63 69
-0.0856638 -0.290538 -0.629 74 73 79
-0.0721933 -0.294233 -0.637 73 72 78
-0.0698762 -0.294695 -0.638 72 71 77
-0.064 -0.295619 -0.64 72 72 74
-0.059401 -0.297005 -0.643 72 71 76
-0.0547562 -0.29839 -0.646 70 69 75
0.0955257 -0.211552 -0.458 200 162 143
0.0977143 -0.210629 -0.456 199 161 142
0.109771 -0.208781 -0.452 206 165 143
0.110632 -0.208781 -0.452 204 163 141
0.122414 -0.208319 -0.451 176 133 114
0.126409 -0.209243 -0.453 167 122 103
0.133618 -0.21109 -0.457 158 111 95
0.160257 -0.218943 -0.474 104 76 72
0.16184 -0.219867 -0.476 98 77 76
0.350493 -0.250352 -0.542 51 41 49
0.357111 -0.253586 -0.549 42 39 46
0.381027 -0.265133 -0.574 37 29 42
0.395247 -0.271138 -0.587 49 39 50
0.408323 -0.27391 -0.593 58 53 73
0.40122 -0.2619 -0.567 125 81 80
0.434917 -0.250814 -0.543 136 88 78
0.439278 -0.250352 -0.542 139 91 81
0.443007 -0.248967 -0.539 138 90 80
0.501154 -0.260514 -0.564 144 100 91
-0.11704 -0.27272 -0.588 116 117 122
-0.108999 -0.275039 -0.593 63 64 69
-0.106679 -0.277822 -0.599 66 66 74
-0.10266 -0.28246 -0.609 61 60 68
-0.059401 -0.29823 -0.643 72 71 79
0.0983667 -0.211033 -0.455 202 164 145
0.119837 -0.209178 -0.451 187 144 125
0.132748 -0.211961 -0.457 160 113 97
0.138574 -0.212889 -0.459 152 104 90
0.156551 -0.218454 -0.471 114 84 76
0.157783 -0.218918 -0.472 111 81 73
0.339852 -0.248138 -0.535 140 114 125
0.365091 -0.258806 -0.558 45 38 45
0.385884 -0.268082 -0.578 29 21 34
0.399959 -0.273184 -0.589 55 51 65
0.402814 -0.271329 -0.585 66 55 69
0.397914 -0.264371 -0.57 109 89 91
0.40232 -0.261589 -0.564 127 86 80
0.404105 -0.260661 -0.562 133 89 88
0.417794 -0.257878 -0.556 124 79 74
0.418853 -0.257878 -0.556 124 79 74
0.43802 -0.251849 -0.543 136 89 79
0.465768 -0.252312 -0.544 141 93 81
0.49742 -0.260197 -0.561 142 98 89
-0.0778914 -0.295263 -0.634 75 74 80
-0.0594933 -0.29992 -0.644 71 71 79
0.109529 -0.210037 -0.451 206 165 145
0.15288 -0.217954 -0.468 125 88 79
0.158451 -0.220749 -0.474 109 78 73
0.370091 -0.262663 -0.564 49 37 47
0.386985 -0.269183 -0.578 27 17 28
0.409067 -0.2608 -0.56 126 83 77
0.435718 -0.253349 -0.544 132 85 75
0.436986 -0.252883 -0.543 135 88 78
0.444857 -0.251486 -0.54 140 92 82
0.445886 -0.251486 -0.54 136 88 78
-0.136929 -0.298809 -0.639 113 117 120
-0.119686 -0.275895 -0.59 114 115 120
-0.11441 -0.274025 -0.586 110 113 120
-0.108233 -0.278233 -0.595 64 64 72
-0.0813857 -0.296003 -0.633 74 73 81
-0.0687686 -0.298809 -0.639 74 73 79
-0.0617543 -0.300211 -0.642 70 70 78
-0.0583571 -0.301614 -0.645 71 70 78
0.0922371 -0.214637 -0.459 199 161 142
0.0931114 -0.214637 -0.459 200 162 143
0.103515 -0.210896 -0.451 202 164 143
0.105233 -0.210896 -0.451 205 164 144
0.121555 -0.210896 -0.451 174 131 112
0.125269 -0.211364 -0.452 168 121 105
0.347396 -0.25345 -0.542 79 64 69
0.386315 -0.269816 -0.577 29 15 28
0.41153 -0.261399 -0.559 126 82 81
0.412595 -0.261399 -0.559 126 82 81
0.413983 -0.260931 -0.558 125 84 82
0.426631 -0.257658 -0.551 127 84 77
0.446914 -0.252514 -0.54 135 87 75
0.469738 -0.254852 -0.545 142 95 85
0.476499 -0.256255 -0.548 146 99 89
0.478414 -0.256723 -0.549 144 100 89
-0.112177 -0.275141 -0.586 106 109 116
-0.109757 -0.277489 -0.591 68 71 78
-0.10764 -0.280775 -0.598 76 76 84
-0.105443 -0.284062 -0.605 73 72 78
-0.100809 -0.290635 -0.619 63 62 68
-0.0676571 -0.300495 -0.64 72 72 80
0.09944 -0.212225 -0.452 205 164 146
0.104374 -0.211755 -0.451 205 164 142
0.111247 -0.211755 -0.451 203 162 142
0.118714 -0.211286 -0.45 184 138 122
0.122414 -0.211755 -0.451 172 127 108
0.125546 -0.212694 -0.453 167 120 104
0.126409 -0.212694 -0.453 167 120 104
0.127552 -0.213164 -0.454 166 119 103
0.129567 -0.213633 -0.455 165 118 102
0.132748 -0.214572 -0.457 162 113 99
0.134783 -0.215042 -0.458 160 111 97
0.150774 -0.219268 -0.467 132 88 77
0.17914 -0.238049 -0.507 242 240 255
0.362315 -0.261525 -0.557 50 39 47
0.3762 -0.267629 -0.57 51 41 49
0.38169 -0.269976 -0.575 44 34 43
0.393272 -0.26669 -0.568 133 99 98
0.4048 -0.262933 -0.56 132 91 87
0.406207 -0.262464 -0.559 134 90 87
0.410794 -0.261994 -0.558 123 79 76
0.429528 -0.257299 -0.548 122 79 70
0.43187 -0.25683 -0.547 122 78 67
0.454114 -0.253543 -0.54 145 97 87
-0.125977 -0.284743 -0.604 110 111 115
-0.0894 -0.297 -0.63 62 61 69
-0.08834 -0.297471 -0.631 63 62 70
-0.0871381 -0.297471 -0.631 65 64 72
0.0892657 -0.222043 -0.471 202 163 146
0.0920362 -0.215914 -0.458 202 163 146
0.096421 -0.214029 -0.454 203 165 146
0.0987971 -0.213557 -0.453 205 164 146
0.121555 -0.212614 -0.451 173 127 111
0.1287 -0.2145 -0.455 167 120 104
0.141812 -0.217329 -0.461 144 97 87
0.152313 -0.2211 -0.469 124 84 74
0.177823 -0.238543 -0.506 233 231 252
0.410794 -0.263057 -0.558 126 81 76
0.4181 -0.261643 -0.555 131 86 80
0.433703 -0.258343 -0.548 127 83 72
0.434995 -0.257871 -0.547 128 84 71
0.463877 -0.255986 -0.543 144 96 86
0.487167 -0.2607 -0.553 140 93 83
0.491928 -0.262114 -0.556 141 94 84
-0.102667 -0.291573 -0.616 68 67 75
-0.0964467 -0.297727 -0.629 59 58 66
-0.0860724 -0.299147 -0.632 65 64 70
0.10781 -0.213473 -0.451 205 163 139
0.113571 -0.213 -0.45 199 158 136
0.122686 -0.213947 -0.452 173 126 110
0.129851 -0.21584 -0.456 167 118 104
0.147471 -0.2201 -0.465 129 89 81
0.352524 -0.260333 -0.55 68 51 61
0.37752 -0.270747 -0.572 53 43 51
0.390713 -0.269327 -0.569 135 99 99
0.393726 -0.26696 -0.564 137 97 97
0.420214 -0.2627 -0.555 135 90 84
0.424251 -0.26128 -0.552 132 89 80
0.427952 -0.260333 -0.55 125 82 73
0.434747 -0.259387 -0.548 130 83 73
0.434995 -0.258913 -0.547 130 84 71
0.441123 -0.25702 -0.543 136 90 77
0.447943 -0.2556 -0.54 136 89 79
0.464911 -0.25702 -0.543 142 94 84
0.484355 -0.260807 -0.551 140 93 83
0.487167 -0.261753 -0.553 139 92 82
0.504377 -0.26696 -0.564 140 95 89
-0.138214 -0.306529 -0.645 105 109 112
-0.112177 -0.27849 -0.586 91 94 99
-0.110508 -0.279915 -0.589 70 71 76
-0.10746 -0.283717 -0.597 86 86 94
-0.0966 -0.2994 -0.63 59 58 66
-0.0918 -0.2994 -0.63 58 57 63
-0.0860724 -0.30035 -0.632 65 64 70
-0.0781371 -0.302251 -0.636 72 71 79
-0.0562467 -0.30843 -0.649 70 70 78
0.09922 -0.214332 -0.451 206 165 145
0.106092 -0.214332 -0.451 206 164 140
0.112714 -0.213857 -0.45 196 155 135
0.143 -0.21956 -0.462 139 96 89
0.147789 -0.221461 -0.466 124 87 81
0.16626 -0.232391 -0.489 92 77 82
0.36084 -0.265183 -0.558 50 37 47
0.366218 -0.267559 -0.563 57 44 53
0.397682 -0.267084 -0.562 140 100 100
0.41218 -0.264708 -0.557 136 91 86
0.417794 -0.264232 -0.556 135 90 85
0.438595 -0.259005 -0.545 136 88 76
0.46698 -0.258054 -0.543 141 92 85
-0.125977 -0.288194 -0.604 100 104 107
-0.12338 -0.284854 -0.597 101 102 107
-0.12081 -0.281514 -0.59 99 100 105
-0.108233 -0.2839 -0.595 85 85 93
-0.105617 -0.289149 -0.606 81 80 86
-0.0872762 -0.301554 -0.632 61 60 66
-0.0793486 -0.303463 -0.636 70 69 77
-0.0644 -0.30728 -0.644 72 72 80
0.0938267 -0.216623 -0.454 203 162 144
0.09922 -0.215191 -0.451 207 166 148
0.105857 -0.214714 -0.45 207 164 145
0.127833 -0.2171 -0.455 170 118 107
0.132748 -0.218054 -0.457 164 112 99
0.150527 -0.22378 -0.469 116 82 80
0.40548 -0.266246 -0.558 138 94 91
0.406543 -0.266246 -0.558 138 94 91
0.416735 -0.265291 -0.556 133 90 84
0.420512 -0.264337 -0.554 136 91 85
0.438121 -0.260997 -0.547 137 89 77
0.446914 -0.257657 -0.54 140 92 82
0.448971 -0.257657 -0.54 138 89 82
0.477713 -0.260997 -0.547 139 92 82
0.490158 -0.264337 -0.554 139 92 82
0.4921 -0.264814 -0.555 141 94 86
-0.103671 -0.294614 -0.615 77 76 82
-0.102833 -0.295572 -0.617 76 75 81
-0.0955514 -0.302279 -0.631 56 57 62
-0.08848 -0.302758 -0.632 59 58 64
-0.0703143 -0.307549 -0.642 73 72 80
-0.0574829 -0.310902 -0.649 72 72 80
0.0880571 -0.220362 -0.46 202 165 147
0.114174 -0.215092 -0.449 190 147 130
0.119837 -0.21605 -0.451 176 127 113
0.123547 -0.21653 -0.452 168 119 105
0.144503 -0.222278 -0.464 130 91 86
0.16762 -0.23617 -0.493 190 183 190
0.36666 -0.27162 -0.567 51 32 36
0.38148 -0.27689 -0.578 114 88 89
0.400883 -0.267788 -0.559 133 92 90
0.419157 -0.265871 -0.555 137 92 87
0.44171 -0.261081 -0.545 137 89 77
0.452057 -0.258686 -0.54 142 96 83
0.463199 -0.259165 -0.541 147 99 87
-0.138 -0.309733 -0.644 96 100 103
-0.115846 -0.279914 -0.582 95 96 101
-0.10764 -0.28761 -0.598 90 91 95
-0.0944991 -0.303962 -0.632 58 57 63
0.0929619 -0.218352 -0.454 202 163 146
0.0968571 -0.21739 -0.452 207 165 149
0.101571 -0.216429 -0.45 205 164 146
0.109043 -0.215948 -0.449 204 161 145
0.124683 -0.217871 -0.453 168 119 105
0.125823 -0.218352 -0.454 167 118 104
0.149952 -0.226048 -0.47 110 80 80
0.417347 -0.266448 -0.554 137 92 86
0.431615 -0.263562 -0.548 135 89 76
0.44148 -0.2626 -0.546 139 93 80
0.44444 -0.260676 -0.542 140 92 82
0.459257 -0.259714 -0.54 147 100 84
0.462169 -0.260195 -0.541 150 101 86
0.47389 -0.262119 -0.545 142 92 81
0.484524 -0.264524 -0.55 139 91 81
0.502763 -0.269814 -0.561 137 93 80
1.13934 -0.311176 -0.647 203 205 192
-0.125769 -0.291163 -0.603 97 98 103
-0.11125 -0.283437 -0.587 75 76 81
-0.0839295 -0.306131 -0.634 61 60 68
-0.0816429 -0.306614 -0.635 65 64 72
-0.0749714 -0.309029 -0.64 72 71 79
-0.0715371 -0.309994 -0.642 71 70 78
0.08816 -0.220183 -0.456 203 164 149
0.0897 -0.2197 -0.455 207 163 150
0.0981429 -0.217286 -0.45 206 168 149
0.105857 -0.217286 -0.45 206 164 148
0.124683 -0.218734 -0.453 167 115 102
0.133038 -0.221149 -0.458 159 106 98
0.13391 -0.221149 -0.458 159 106 98
0.147531 -0.225977 -0.468 119 85 83
0.154587 -0.22984 -0.476 88 67 74
0.156147 -0.230806 -0.478 89 68 75
0.165406 -0.237566 -0.492 183 172 186
0.372565 -0.281506 -0.583 147 112 118
0.387587 -0.27716 -0.574 148 108 109
0.393348 -0.272814 -0.565 137 97 97
0.393726 -0.272331 -0.564 140 100 100
0.40548 -0.269434 -0.558 138 94 93
0.4232 -0.266537 -0.552 133 86 80
0.42481 -0.265571 -0.55 135 91 82
0.433953 -0.264123 -0.547 138 92 79
0.452057 -0.260743 -0.54 148 101 85
0.4572 -0.260743 -0.54 147 98 83
0.474929 -0.263157 -0.545 142 92 81
-0.0783829 -0.309278 -0.638 69 68 76
-0.0681857 -0.312671 -0.645 72 72 80
0.0863048 -0.22299 -0.46 201 164 148
0.0972857 -0.218143 -0.45 206 165 145
0.120696 -0.218628 -0.451 177 125 112
0.15181 -0.229292 -0.473 105 79 82
0.241603 -0.309763 -0.639 183 189 201
0.377469 -0.282131 -0.582 127 93 94
0.377927 -0.281647 -0.581 130 96 97
0.401229 -0.270497 -0.558 137 96 92
0.41144 -0.269528 -0.556 142 97 92
0.424532 -0.267104 -0.551 136 89 81
0.427174 -0.266134 -0.549 131 84 76
0.42744 -0.26565 -0.548 132 85 77
0.429528 -0.26565 -0.548 136 88 78
0.444226 -0.263226 -0.543 142 94 80
0.446505 -0.262741 -0.542 147 99 87
0.459257 -0.261771 -0.54 150 99 82
0.463371 -0.261771 -0.54 146 94 80
0.46526 -0.262256 -0.541 147 95 81
0.473021 -0.26371 -0.544 144 92 79
0.482762 -0.26565 -0.548 140 91 77
0.502933 -0.271467 -0.56 143 96 86
-0.114934 -0.283727 -0.583 93 93 101
-0.112907 -0.284213 -0.584 87 87 95
-0.109571 -0.287133 -0.59 71 71 79
-0.102482 -0.302707 -0.622 79 79 87
-0.1002 -0.3066 -0.63 72 72 80
-0.0923829 -0.308547 -0.634 53 53 61
-0.0794733 -0.310007 -0.637 66 65 73
0.103056 -0.218513 -0.449 204 161 142
0.11136 -0.218027 -0.448 194 148 132
0.148477 -0.22922 -0.471 109 80 82
0.388513 -0.280807 -0.577 143 103 103
0.398043 -0.27302 -0.561 143 102 100
0.3984 -0.272533 -0.56 142 101 99
0.407204 -0.270587 -0.556 139 96 90
0.451029 -0.2628 -0.54 149 100 85
0.45738 -0.262313 -0.539 149 100 86
0.477005 -0.265233 -0.545 144 92 79
0.487667 -0.267667 -0.55 140 91 77
-0.141762 -0.317571 -0.65 96 99 104
-0.122553 -0.289723 -0.593 93 96 101
-0.117155 -0.284837 -0.583 94 94 102
-0.114934 -0.284837 -0.583 93 93 101
-0.110508 -0.287769 -0.589 62 65 74
-0.0993143 -0.308777 -0.632 73 73 81
-0.0949476 -0.310243 -0.635 58 58 66
-0.0925286 -0.310243 -0.635 53 53 61
0.10624 -0.21888 -0.448 203 162 142
0.111963 -0.218391 -0.447 191 145 129
0.114773 -0.21888 -0.448 179 133 117
0.120696 -0.220346 -0.451 174 122 111
0.122957 -0.221323 -0.453 169 117 106
0.131293 -0.223766 -0.458 153 105 93
0.1386 -0.22572 -0.462 133 95 84
0.139782 -0.226209 -0.463 128 91 82
0.15621 -0.235003 -0.481 89 72 78
0.159686 -0.237446 -0.486 94 83 89
0.402167 -0.310243 -0.635 130 91 94
0.391684 -0.279463 -0.572 142 101 99
0.39474 -0.27702 -0.567 141 97 96
0.3948 -0.275554 -0.564 142 101 99
0.401948 -0.273111 -0.559 142 98 95
0.405814 -0.272134 -0.557 140 97 91
0.406875 -0.272134 -0.557 140 97 91
0.414929 -0.271157 -0.555 139 94 89
0.42481 -0.268714 -0.55 137 90 82
0.446294 -0.265294 -0.543 149 100 86
0.453273 -0.26334 -0.539 144 95 80
0.4543 -0.26334 -0.539 149 100 85
0.47996 -0.26676 -0.546 143 94 79
0.5031 -0.273111 -0.559 143 94 80
-0.0925286 -0.311452 -0.635 53 53 61
0.0831705 -0.229052 -0.467 202 166 150
0.0836762 -0.225619 -0.46 203 164 147
0.0855543 -0.223657 -0.456 201 163 152
0.0899695 -0.221695 -0.452 205 163 147
0.0947143 -0.220714 -0.45 204 165 148
0.117595 -0.220224 -0.449 176 124 113
0.1261 -0.223167 -0.455 161 113 99
0.144857 -0.229543 -0.468 112 86 85
0.154971 -0.235429 -0.48 96 76 78
0.160343 -0.239352 -0.488 149 139 150
0.242267 -0.315867 -0.644 243 247 255
0.386212 -0.293795 -0.599 124 83 91
0.388276 -0.289381 -0.59 136 94 96
0.395874 -0.276629 -0.564 140 99 97
0.429786 -0.26829 -0.547 142 94 84
0.430828 -0.26829 -0.547 142 94 84
0.446505 -0.265838 -0.542 151 102 85
-0.12214 -0.290997 -0.591 97 97 105
-0.102111 -0.308723 -0.627 83 86 91
-0.0996286 -0.31217 -0.634 74 77 84
-0.0938857 -0.313154 -0.636 58 58 66
-0.07176 -0.317093 -0.644 72 71 79
0.084001 -0.225018 -0.457 205 163 151
0.0891086 -0.222556 -0.452 201 160 142
0.0923476 -0.222064 -0.451 202 163 146
0.10368 -0.220587 -0.448 199 161 142
0.154057 -0.236343 -0.48 99 79 81
0.239069 -0.316109 -0.642 183 187 212
0.388985 -0.294444 -0.598 128 86 90
0.39188 -0.286566 -0.582 139 95 94
0.399462 -0.27721 -0.563 144 100 97
0.401249 -0.276226 -0.561 143 98 93
0.440899 -0.267855 -0.544 149 100 85
0.46046 -0.265393 -0.539 147 95 81
0.471282 -0.26687 -0.542 142 93 78
-0.116954 -0.287674 -0.582 94 97 104
-0.112907 -0.288663 -0.584 84 87 94
-0.105791 -0.300031 -0.607 95 98 105
-0.105325 -0.302009 -0.611 94 94 102
-0.0878286 -0.314366 -0.636 49 49 57
-0.0831133 -0.31486 -0.637 52 51 59
-0.0729867 -0.31832 -0.644 70 69 77
0.0945038 -0.221934 -0.449 208 167 149
0.0962143 -0.221934 -0.449 210 168 152
0.0979248 -0.221934 -0.449 209 168 150
0.10368 -0.22144 -0.448 201 160 142
0.111111 -0.220946 -0.447 186 143 126
0.1261 -0.2249 -0.455 157 109 97
0.393228 -0.291134 -0.589 136 92 89
0.402317 -0.277294 -0.561 140 95 90
0.402667 -0.2768 -0.56 141 96 91
0.412814 -0.274329 -0.555 143 99 90
0.413871 -0.274329 -0.555 143 99 90
0.436519 -0.269386 -0.545 150 101 87
0.472314 -0.267903 -0.542 146 94 81
1.13554 -0.316343 -0.64 201 205 188
-0.112907 -0.289775 -0.584 87 87 95
-0.11125 -0.291264 -0.587 65 68 75
-0.108999 -0.294241 -0.593 113 113 121
-0.104177 -0.306646 -0.618 90 90 98
-0.100518 -0.313592 -0.632 79 80 85
-0.09282 -0.316073 -0.637 54 54 62
-0.0867533 -0.316073 -0.637 47 47 55
-0.08094 -0.317066 -0.639 52 51 59
0.0921429 -0.223286 -0.45 208 167 149
0.107706 -0.221797 -0.447 198 153 134
0.111963 -0.221797 -0.447 184 139 120
0.158809 -0.242637 -0.489 181 176 182
0.396477 -0.287294 -0.579 132 87 84
0.403386 -0.278363 -0.561 138 93 88
0.419753 -0.274393 -0.553 144 97 87
0.443191 -0.269431 -0.543 153 101 87
0.448772 -0.268439 -0.541 156 102 90
0.465429 -0.267943 -0.54 153 101 88
0.482195 -0.270424 -0.545 148 96 83
-0.14256 -0.322766 -0.648 97 100 105
-0.114934 -0.29039 -0.583 98 101 108
-0.10746 -0.297363 -0.597 108 108 116
-0.102976 -0.31131 -0.625 89 90 95
-0.0999429 -0.316789 -0.636 79 80 85
-0.0990419 -0.317785 -0.638 75 76 81
-0.08554 -0.317287 -0.637 49 48 56
0.0811914 -0.234603 -0.471 203 163 151
0.0858543 -0.225637 -0.453 206 164 150
0.0865257 -0.225139 -0.452 207 165 151
0.102597 -0.222649 -0.447 196 155 135
0.13596 -0.23012 -0.462 124 94 86
0.149147 -0.237093 -0.476 97 67 67
0.155983 -0.242074 -0.486 118 105 114
0.242911 -0.323264 -0.649 229 237 255
0.397715 -0.293378 -0.589 131 87 84
0.397847 -0.289393 -0.581 131 86 83
0.39758 -0.288397 -0.579 132 87 84
0.398682 -0.282918 -0.568 138 90 86
0.401957 -0.281424 -0.565 137 92 87
0.41144 -0.276941 -0.556 137 93 84
0.421384 -0.27445 -0.551 146 98 88
0.433405 -0.271462 -0.545 153 104 90
0.435481 -0.271462 -0.545 151 99 86
0.445472 -0.269968 -0.542 156 103 87
0.452057 -0.268971 -0.54 153 101 87
0.456353 -0.268473 -0.539 151 99 85
0.462513 -0.268473 -0.539 151 99 85
-0.109571 -0.295 -0.59 96 97 102
-0.10728 -0.298 -0.596 110 111 116
-0.105966 -0.304 -0.608 101 101 109
-0.104346 -0.3095 -0.619 94 94 102
0.0815676 -0.229 -0.458 203 165 152
0.0871933 -0.2255 -0.451 206 167 152
0.0966371 -0.2235 -0.447 208 167 149
0.100894 -0.2235 -0.447 200 159 141
0.117857 -0.225 -0.45 168 119 104
0.123229 -0.227 -0.454 161 110 93
0.125233 -0.2275 -0.455 156 107 92
0.126377 -0.228 -0.456 155 109 94
0.127525 -0.2285 -0.457 149 103 88
0.1398 -0.233 -0.466 116 86 78
0.406006 -0.313 -0.626 120 75 80
0.399719 -0.2935 -0.587 124 85 80
0.405867 -0.28 -0.56 141 94 86
0.431329 -0.2725 -0.545 157 105 92
0.457556 -0.269 -0.538 151 99 86
0.476444 -0.271 -0.542 146 97 83
0.495 -0.275 -0.55 149 97 83
-0.14212 -0.32423 -0.646 101 102 107
-0.116954 -0.292109 -0.582 105 105 113
-0.09798 -0.320717 -0.639 73 74 79
-0.08094 -0.320717 -0.639 48 47 55
-0.0685029 -0.325234 -0.648 67 66 72
0.0794419 -0.233888 -0.466 202 164 153
0.119242 -0.226861 -0.452 165 116 101
0.147024 -0.238405 -0.475 95 69 72
0.148551 -0.239409 -0.477 97 71 74
0.409731 -0.280063 -0.558 139 92 84
0.415986 -0.278557 -0.555 143 94 87
0.42796 -0.27404 -0.546 154 105 91
0.436754 -0.273036 -0.544 151 102 88
0.446711 -0.27153 -0.541 157 104 90
0.455327 -0.270527 -0.539 151 99 85
0.499954 -0.277051 -0.552 149 100 86
0.507514 -0.280063 -0.558 155 101 91
-0.111061 -0.295232 -0.586 68 69 74
-0.110132 -0.295736 -0.587 61 62 67
0.0825848 -0.22873 -0.454 202 164 151
0.0925867 -0.225707 -0.448 209 170 155
0.0942933 -0.225707 -0.448 207 168 153
0.100894 -0.225203 -0.447 201 159 143
0.107465 -0.224699 -0.446 185 142 123
0.11726 -0.227218 -0.451 163 116 98
0.131867 -0.231752 -0.46 126 89 83
0.1342 -0.23276 -0.462 122 89 84
0.136549 -0.233768 -0.464 118 88 80
0.412367 -0.313873 -0.623 122 88 89
0.411562 -0.312362 -0.62 118 84 85
0.404191 -0.295736 -0.587 128 89 82
0.402103 -0.290194 -0.576 136 89 83
0.410794 -0.281126 -0.558 138 91 83
0.417043 -0.279614 -0.555 141 93 83
0.423762 -0.277095 -0.55 150 100 89
0.425352 -0.276088 -0.548 153 103 92
0.427702 -0.275584 -0.547 153 104 90
0.43212 -0.27508 -0.546 152 103 89
0.436754 -0.274072 -0.544 151 102 88
0.459606 -0.27105 -0.538 151 102 87
0.46063 -0.27105 -0.538 152 103 88
0.461655 -0.27105 -0.538 154 103 86
-0.139799 -0.324163 -0.641 97 100 105
-0.116954 -0.294326 -0.582 106 109 116
-0.104167 -0.316071 -0.625 100 99 105
-0.101154 -0.321634 -0.636 86 87 91
-0.08946 -0.323151 -0.639 46 45 51
-0.0868895 -0.322646 -0.638 51 50 56
-0.0685029 -0.327703 -0.648 67 66 72
0.08832 -0.22656 -0.448 208 169 154
0.0972705 -0.225549 -0.446 208 166 150
0.0989695 -0.225549 -0.446 205 163 147
0.108557 -0.226054 -0.447 179 136 117
0.125509 -0.230606 -0.456 147 101 86
0.126654 -0.231111 -0.457 144 100 87
0.163355 -0.254374 -0.503 247 249 248
0.236133 -0.32568 -0.644 251 255 255
0.404197 -0.292809 -0.579 134 90 87
0.40662 -0.28674 -0.567 129 86 79
0.409797 -0.283706 -0.561 138 91 85
0.414302 -0.281683 -0.557 141 94 86
0.42186 -0.27966 -0.553 147 99 89
0.43212 -0.27612 -0.546 152 103 89
0.463705 -0.272074 -0.538 154 102 88
0.482494 -0.274603 -0.543 150 98 84
-0.113824 -0.295942 -0.583 104 104 114
0.0799905 -0.230459 -0.454 205 167 154
0.0898257 -0.226906 -0.447 208 169 154
0.11136 -0.227413 -0.448 166 123 104
0.13332 -0.23452 -0.462 121 88 83
0.413596 -0.306602 -0.604 122 82 82
0.405394 -0.292389 -0.576 132 91 85
0.425083 -0.278683 -0.549 151 101 90
0.42744 -0.278175 -0.548 152 102 91
0.428744 -0.277668 -0.547 152 102 91
0.438827 -0.276145 -0.544 145 96 81
0.444226 -0.275637 -0.543 154 102 88
0.458581 -0.273099 -0.538 153 102 85
0.467647 -0.273607 -0.539 151 99 85
0.470727 -0.273607 -0.539 149 97 83
0.478656 -0.274622 -0.541 150 98 84
0.50402 -0.280713 -0.553 150 101 86
0.510703 -0.283251 -0.558 153 105 93
-0.352238 -0.33119 -0.65 251 252 246
-0.332429 -0.33119 -0.65 252 253 248
-0.311381 -0.33119 -0.65 253 254 248
-0.134357 -0.319471 -0.627 98 98 106
-0.125977 -0.307752 -0.604 107 107 115
-0.113824 -0.297052 -0.583 106 106 114
-0.09844 -0.327114 -0.642 79 80 84
-0.0776514 -0.327114 -0.642 42 41 49
-0.0719829 -0.329152 -0.646 60 59 67
0.0898257 -0.227757 -0.447 209 169 157
0.099819 -0.227248 -0.446 199 157 141
0.102368 -0.227248 -0.446 193 151 135
0.118381 -0.230305 -0.452 156 110 97
0.138617 -0.238457 -0.468 107 81 82
0.1413 -0.239986 -0.471 107 78 80
0.145826 -0.243043 -0.477 103 77 78
0.14919 -0.24559 -0.482 94 79 86
0.407903 -0.294505 -0.578 126 85 81
0.407589 -0.293486 -0.576 126 85 81
0.40986 -0.2889 -0.567 127 84 78
0.4144 -0.285333 -0.56 137 90 84
0.425857 -0.280238 -0.55 150 102 92
0.463705 -0.274124 -0.538 157 105 91
0.470727 -0.274633 -0.539 149 97 83
0.498283 -0.279729 -0.549 150 99 82
-0.377 -0.332429 -0.65 247 248 240
-0.367095 -0.332429 -0.65 251 252 244
-0.358429 -0.332429 -0.65 251 252 244
-0.351696 -0.331917 -0.649 250 251 243
-0.121424 -0.303277 -0.593 107 107 115
-0.108597 -0.305323 -0.597 221 222 227
-0.10413 -0.323223 -0.632 94 98 99
-0.094919 -0.328849 -0.643 61 62 67
-0.0868895 -0.326291 -0.638 41 40 48
-0.0731 -0.329871 -0.645 56 55 61
0.0904743 -0.228097 -0.446 208 168 156
0.119506 -0.231677 -0.453 151 107 96
0.126059 -0.234234 -0.458 138 94 81
0.1495 -0.24702 -0.483 103 90 99
0.428371 -0.326291 -0.638 101 97 112
0.427567 -0.324757 -0.635 110 94 104
0.4123 -0.301231 -0.589 122 85 79
0.413403 -0.287934 -0.563 133 88 82
0.420971 -0.284354 -0.556 144 95 88
0.425303 -0.282309 -0.552 150 102 92
0.426631 -0.281797 -0.551 151 103 93
0.445681 -0.276683 -0.541 153 102 85
0.451029 -0.276171 -0.54 153 102 85
0.4543 -0.27566 -0.539 156 105 88
0.46063 -0.275149 -0.538 159 108 91
0.474833 -0.27566 -0.539 150 99 82
0.509931 -0.284354 -0.556 155 107 95
-0.385073 -0.333153 -0.649 248 249 241
-0.364058 -0.333153 -0.649 250 251 243
-0.14727 -0.332127 -0.647 126 128 127
-0.128601 -0.313647 -0.611 99 99 107
-0.104833 -0.322887 -0.629 136 138 135
-0.0896 -0.328533 -0.64 40 40 50
-0.0868895 -0.327507 -0.638 37 35 46
-0.0831133 -0.326993 -0.637 37 35 46
-0.0820286 -0.327507 -0.638 37 35 46
-0.0787514 -0.329047 -0.641 37 36 42
-0.0764286 -0.32956 -0.642 41 40 46
0.0794619 -0.231513 -0.451 202 166 152
0.132727 -0.237673 -0.463 116 86 84
0.229072 -0.327507 -0.638 252 251 255
0.413473 -0.292087 -0.569 129 86 79
0.41418 -0.29106 -0.567 129 86 79
0.415548 -0.289007 -0.563 137 90 82
0.448971 -0.2772 -0.54 151 102 87
0.490636 -0.279253 -0.544 152 101 84
0.49751 -0.280793 -0.547 155 104 85
-0.326469 -0.333874 -0.648 252 253 248
-0.312891 -0.333874 -0.648 252 253 247
-0.30672 -0.333874 -0.648 251 252 246
-0.131251 -0.318417 -0.618 92 92 100
-0.1131 -0.301414 -0.585 90 88 99
-0.10736 -0.317387 -0.616 195 195 195
-0.106207 -0.320993 -0.623 168 168 166
-0.101631 -0.329237 -0.639 90 94 95
-0.0776514 -0.330783 -0.642 42 41 47
0.0853771 -0.229796 -0.446 206 168 155
0.0894238 -0.229281 -0.445 205 167 154
0.091119 -0.229281 -0.445 204 166 153
0.0962048 -0.229281 -0.445 202 163 148
0.0970524 -0.229281 -0.445 199 160 145
0.127486 -0.23701 -0.46 126 91 85
0.136834 -0.241131 -0.468 107 81 80
0.14431 -0.246284 -0.478 100 78 81
0.151048 -0.251436 -0.488 138 135 162
0.222103 -0.32563 -0.632 236 239 255
0.430048 -0.283381 -0.55 143 95 81
0.434995 -0.281835 -0.547 141 92 77
0.447943 -0.278229 -0.54 154 101 83
0.453273 -0.277713 -0.539 154 103 86
0.46063 -0.277198 -0.538 159 108 89
0.46182 -0.276683 -0.537 157 106 89
0.467957 -0.276683 -0.537 154 101 85
0.46898 -0.276683 -0.537 151 100 83
0.484839 -0.278744 -0.541 152 100 79
0.48587 -0.278744 -0.541 152 101 80
-0.37033 -0.334591 -0.647 250 251 243
-0.35431 -0.334591 -0.647 250 251 243
-0.306247 -0.334591 -0.647 251 252 246
-0.1408 -0.330971 -0.64 94 94 102
-0.107829 -0.316491 -0.612 220 220 220
-0.10736 -0.31856 -0.616 212 212 212
-0.0923257 -0.332006 -0.642 42 43 48
-0.0776514 -0.332006 -0.642 46 45 51
0.105766 -0.230646 -0.446 171 132 115
0.114683 -0.233231 -0.451 154 106 94
0.138609 -0.243574 -0.471 103 78 82
0.156673 -0.25702 -0.497 218 219 249
0.4277 -0.315974 -0.611 121 81 81
0.41671 -0.298909 -0.578 124 83 79
0.417102 -0.295289 -0.571 128 85 79
0.421232 -0.290634 -0.562 137 92 86
0.428385 -0.287531 -0.556 146 100 87
0.432143 -0.284429 -0.55 144 96 82
0.438121 -0.282877 -0.547 138 90 76
0.448772 -0.279774 -0.541 154 103 86
0.451029 -0.279257 -0.54 156 105 88
0.453086 -0.279257 -0.54 155 104 87
0.474977 -0.278223 -0.538 152 99 81
0.503511 -0.283911 -0.549 159 111 89
-0.388816 -0.335824 -0.647 247 248 240
-0.364836 -0.335305 -0.646 250 251 243
-0.351301 -0.335305 -0.646 250 251 245
-0.345149 -0.335305 -0.646 252 253 247
-0.117959 -0.304681 -0.587 87 87 95
-0.116443 -0.303643 -0.585 87 87 95
-0.115329 -0.303643 -0.585 87 87 95
-0.108005 -0.318176 -0.613 229 229 231
-0.106377 -0.323886 -0.624 198 198 200
-0.09844 -0.333229 -0.642 69 73 74
-0.08946 -0.331671 -0.639 36 35 41
-0.0820286 -0.331152 -0.638 36 35 41
0.0782543 -0.233052 -0.449 202 165 156
0.0834905 -0.230976 -0.445 209 171 160
0.0909143 -0.230457 -0.444 203 163 151
0.09768 -0.230457 -0.444 192 154 135
0.132414 -0.241357 -0.465 112 82 80
0.155727 -0.257967 -0.497 196 201 241
0.226997 -0.331671 -0.639 201 206 226
0.421036 -0.303124 -0.584 122 82 80
0.419637 -0.300529 -0.579 120 83 77
0.423054 -0.292224 -0.563 136 92 83
0.424444 -0.291705 -0.562 139 92 82
0.433978 -0.285995 -0.551 142 94 82
0.44101 -0.284438 -0.548 143 95 81
0.442289 -0.283919 -0.547 143 95 81
0.45 -0.280286 -0.54 158 106 92
0.453086 -0.280286 -0.54 157 106 89
0.456353 -0.279767 -0.539 155 104 87
0.456531 -0.279248 -0.538 157 106 89
0.47219 -0.27821 -0.536 154 101 83
-0.378371 -0.336535 -0.646 247 248 240
-0.361814 -0.336014 -0.645 249 250 242
-0.361145 -0.336535 -0.646 249 250 242
-0.320539 -0.336535 -0.646 252 253 248
-0.14536 -0.335493 -0.644 97 99 96
-0.122243 -0.311009 -0.597 84 84 92
-0.116841 -0.305799 -0.587 84 84 92
-0.0934029 -0.33393 -0.641 42 43 47
-0.0921819 -0.33393 -0.641 41 42 46
-0.0879667 -0.331847 -0.637 35 35 43
-0.0841943 -0.331326 -0.636 35 34 42
0.0934514 -0.231303 -0.444 197 157 145
0.110753 -0.233908 -0.449 153 109 96
0.120033 -0.237033 -0.455 141 97 86
0.12661 -0.239638 -0.46 123 86 78
0.140987 -0.247973 -0.476 103 77 80
0.422886 -0.296943 -0.57 126 88 79
0.4239 -0.29538 -0.567 134 91 82
0.431843 -0.289129 -0.555 142 95 85
0.4469 -0.283919 -0.545 147 98 83
0.447116 -0.283398 -0.544 149 100 85
0.477163 -0.279751 -0.537 153 101 80
