ply
format ascii 1.0
comment Created by Open3D
element vertex 1298
property double x
property double y
property double z
property uchar red
property uchar green
property uchar blue
end_header
0.126007 -0.239281 -0.461 106 81 77
0.128317 -0.240319 -0.463 100 75 71
0.13266 -0.243433 -0.469 106 93 110
0.403577 -0.309352 -0.596 125 83 85
0.403124 -0.307276 -0.592 124 82 83
0.402963 -0.296376 -0.571 134 89 84
0.41207 -0.287552 -0.554 135 88 80
0.426392 -0.282362 -0.544 148 100 88
0.452453 -0.276133 -0.532 161 105 90
0.46112 -0.274057 -0.528 168 111 91
0.469392 -0.273019 -0.526 161 104 84
0.491789 -0.277171 -0.534 158 101 82
0.495672 -0.27821 -0.536 161 104 85
0.496693 -0.27821 -0.536 165 108 89
0.504607 -0.279767 -0.539 168 117 98
-0.110871 -0.304757 -0.585 93 94 99
-0.107142 -0.306841 -0.589 75 73 86
-0.0976733 -0.331847 -0.637 135 136 138
0.0598914 -0.232345 -0.446 204 167 158
0.0611762 -0.230782 -0.443 205 168 160
0.0632762 -0.229219 -0.44 203 166 158
0.0832714 -0.226614 -0.435 195 155 143
0.0841 -0.226614 -0.435 193 154 139
0.0990886 -0.228698 -0.439 162 114 102
0.0999248 -0.228698 -0.439 161 113 101
0.105054 -0.230782 -0.443 152 104 94
0.108919 -0.231824 -0.445 143 96 86
0.114174 -0.233908 -0.449 117 86 84
0.123711 -0.239117 -0.459 110 78 79
0.133226 -0.245369 -0.471 199 188 202
0.40804 -0.315697 -0.606 124 82 83
0.407429 -0.312571 -0.6 122 80 81
0.41144 -0.28965 -0.556 133 86 80
0.416891 -0.287566 -0.552 138 91 81
0.432514 -0.281314 -0.54 146 98 84
0.445454 -0.279751 -0.537 148 97 80
0.448709 -0.27923 -0.536 150 99 82
0.454637 -0.276626 -0.531 158 103 83
0.463131 -0.275063 -0.528 172 115 95
0.465266 -0.274542 -0.527 173 116 96
0.471396 -0.274021 -0.526 162 105 85
0.477211 -0.275063 -0.528 159 102 82
0.490868 -0.277668 -0.533 156 99 80
-0.134705 -0.334629 -0.64 82 83 88
-0.117891 -0.312669 -0.598 89 88 94
-0.112177 -0.306394 -0.586 90 91 96
-0.0783829 -0.333583 -0.638 32 31 37
-0.0749714 -0.334629 -0.64 34 33 39
0.0776495 -0.227966 -0.436 202 162 150
0.0899 -0.227443 -0.435 178 136 122
0.09636 -0.229011 -0.438 164 116 104
0.0971943 -0.229011 -0.438 164 116 104
0.20853 -0.329923 -0.631 174 180 206
0.4134 -0.3294 -0.63 116 81 87
0.411542 -0.314237 -0.601 120 80 80
0.408059 -0.295937 -0.566 134 86 82
0.436629 -0.282343 -0.54 141 92 78
0.440953 -0.28182 -0.539 141 92 77
0.445259 -0.281297 -0.538 146 95 78
0.446284 -0.281297 -0.538 147 96 79
0.452289 -0.278683 -0.533 154 102 81
0.457819 -0.277114 -0.53 159 104 83
0.45897 -0.276591 -0.529 166 111 90
0.481138 -0.276591 -0.529 166 109 90
0.485076 -0.277114 -0.53 162 105 86
1.1328 -0.329923 -0.631 203 205 192
0.0589095 -0.233519 -0.445 202 167 163
0.0718362 -0.228796 -0.436 203 165 156
0.0993143 -0.230895 -0.44 162 114 102
0.41493 -0.312758 -0.596 116 81 77
0.415046 -0.292817 -0.558 133 86 80
0.417794 -0.291768 -0.556 136 89 81
0.435149 -0.284421 -0.542 141 92 78
0.439498 -0.283896 -0.541 139 90 75
0.446087 -0.282847 -0.539 144 93 76
0.446284 -0.282322 -0.538 145 94 77
0.45075 -0.281272 -0.536 148 97 78
0.451103 -0.280223 -0.534 154 103 84
0.452289 -0.279698 -0.533 151 100 81
0.455649 -0.278649 -0.531 158 106 85
0.45897 -0.277599 -0.529 167 112 91
0.463258 -0.27655 -0.527 170 115 94
0.46839 -0.276025 -0.526 171 115 92
1.13577 -0.332699 -0.634 202 204 190
-0.120822 -0.319687 -0.607 83 82 90
-0.101988 -0.326007 -0.619 218 218 218
-0.100756 -0.329693 -0.626 195 197 196
-0.0832438 -0.336013 -0.638 31 31 39
0.0909371 -0.229627 -0.436 172 130 116
0.0982524 -0.231207 -0.439 162 114 102
0.113571 -0.237 -0.45 120 85 81
0.1183 -0.239633 -0.455 106 78 77
0.123372 -0.242793 -0.461 107 77 77
0.134923 -0.25122 -0.477 247 251 252
0.136686 -0.2528 -0.48 252 255 255
0.419349 -0.318107 -0.604 112 78 77
0.44814 -0.283873 -0.539 138 86 72
0.45897 -0.278607 -0.529 167 112 92
0.46839 -0.277027 -0.526 170 114 91
0.49096 -0.280187 -0.532 157 100 81
0.492898 -0.280713 -0.533 158 103 82
1.1328 -0.332327 -0.631 202 204 190
-0.109386 -0.311329 -0.589 79 78 86
-0.103166 -0.323486 -0.612 229 228 234
-0.0771676 -0.337229 -0.638 37 38 43
0.06006 -0.2331 -0.441 203 169 160
0.0629886 -0.231514 -0.438 199 162 156
0.0670067 -0.230986 -0.437 205 166 159
0.0807857 -0.229929 -0.435 196 158 149
0.0839067 -0.2294 -0.434 191 153 140
0.0847333 -0.2294 -0.434 188 150 137
0.10421 -0.234157 -0.443 149 102 94
0.112464 -0.237329 -0.449 117 86 83
0.129087 -0.2479 -0.469 160 152 150
0.427277 -0.333529 -0.631 126 114 116
0.427638 -0.331943 -0.628 108 92 93
0.426607 -0.3293 -0.623 108 86 89
0.415653 -0.302343 -0.572 120 81 76
0.416014 -0.301814 -0.571 121 80 76
0.415992 -0.300229 -0.568 121 80 74
0.420483 -0.296529 -0.561 129 84 78
0.423243 -0.295471 -0.559 135 88 80
0.43524 -0.2886 -0.546 144 94 83
0.43628 -0.2886 -0.546 142 93 79
0.440089 -0.287014 -0.543 136 87 72
0.450569 -0.283843 -0.537 149 98 81
0.451771 -0.283314 -0.536 153 101 87
0.458829 -0.280143 -0.53 165 108 89
1.1274 -0.330886 -0.626 207 209 195
-0.10382 -0.32306 -0.609 228 227 235
-0.100917 -0.332609 -0.627 217 218 220
-0.0993143 -0.335261 -0.632 198 200 199
-0.0831133 -0.337913 -0.637 35 35 43
-0.0771676 -0.338444 -0.638 39 38 44
0.0550333 -0.241367 -0.455 198 165 160
0.0693448 -0.231288 -0.436 205 166 159
0.0741571 -0.230757 -0.435 202 161 155
0.0882429 -0.230757 -0.435 178 136 122
0.0974162 -0.232879 -0.439 159 112 102
0.20776 -0.337383 -0.636 182 196 243
0.431734 -0.332609 -0.627 103 92 106
0.419637 -0.307146 -0.579 116 78 69
0.419238 -0.30131 -0.568 121 82 77
0.423373 -0.298128 -0.562 130 83 75
0.424444 -0.298128 -0.562 130 86 77
0.44857 -0.287518 -0.542 139 90 75
0.455005 -0.283805 -0.535 154 99 79
0.459978 -0.280622 -0.529 169 112 93
0.494929 -0.282744 -0.533 161 109 85
0.498909 -0.283274 -0.534 162 110 86
0.5029 -0.283805 -0.535 168 120 98
0.510844 -0.285396 -0.538 175 128 108
-0.12006 -0.32422 -0.609 77 76 84
-0.105538 -0.318896 -0.599 71 70 78
-0.103334 -0.32635 -0.613 232 230 241
-0.0817714 -0.338594 -0.636 37 36 44
0.0685143 -0.232118 -0.436 206 165 159
0.0799571 -0.231586 -0.435 196 156 146
0.0806 -0.231053 -0.434 195 155 145
0.0814267 -0.231053 -0.434 194 154 144
0.0847333 -0.231053 -0.434 191 151 139
0.102291 -0.235312 -0.442 150 102 90
0.42148 -0.305587 -0.574 119 78 76
0.42219 -0.304522 -0.572 119 80 75
0.43423 -0.294939 -0.554 132 84 74
0.437381 -0.29281 -0.55 129 81 69
0.4715 -0.2795 -0.525 169 114 93
0.4755 -0.2795 -0.525 161 106 85
-0.120454 -0.326449 -0.611 76 75 81
0.0628448 -0.233483 -0.437 203 166 158
0.0691857 -0.232414 -0.435 205 164 158
0.0863867 -0.23188 -0.434 176 134 122
0.09658 -0.234551 -0.439 155 108 98
0.105529 -0.237757 -0.445 140 96 87
0.123557 -0.248443 -0.465 92 72 71
0.440366 -0.333394 -0.624 97 92 112
0.426947 -0.30668 -0.574 119 80 75
0.447938 -0.291186 -0.545 132 82 71
0.457365 -0.284774 -0.533 158 102 85
0.459694 -0.283706 -0.531 166 109 90
0.4685 -0.2805 -0.525 170 113 93
0.4745 -0.2805 -0.525 164 109 88
0.481327 -0.281569 -0.527 160 108 84
0.502977 -0.285309 -0.534 170 122 100
0.507924 -0.286377 -0.536 170 123 105
-0.0988429 -0.337264 -0.629 214 214 214
-0.09706 -0.339409 -0.633 93 95 94
0.0683571 -0.233243 -0.435 204 165 158
0.0708429 -0.233243 -0.435 205 162 156
0.08308 -0.232707 -0.434 188 145 136
0.104446 -0.238069 -0.444 137 94 87
0.44512 -0.334583 -0.624 102 85 101
0.431023 -0.309918 -0.578 113 78 72
0.439214 -0.29973 -0.559 126 82 73
0.441357 -0.297586 -0.555 123 76 66
0.452297 -0.291688 -0.544 139 87 76
0.469392 -0.282036 -0.526 167 110 90
0.4705 -0.2815 -0.525 166 111 90
0.4755 -0.2815 -0.525 164 109 88
0.507995 -0.286862 -0.535 169 122 104
0.509966 -0.287398 -0.536 170 124 108
0.51194 -0.287934 -0.537 165 119 103
-0.113904 -0.323395 -0.601 76 76 86
-0.10399 -0.328238 -0.61 195 192 203
-0.0978 -0.339 -0.63 107 107 107
0.0658714 -0.234071 -0.435 205 166 161
0.0936429 -0.235148 -0.437 156 109 101
0.12956 -0.255057 -0.474 255 253 255
0.449129 -0.340614 -0.633 97 109 161
0.449885 -0.338462 -0.629 130 133 168
0.435497 -0.314248 -0.584 110 77 70
0.440402 -0.304562 -0.566 121 81 73
0.4407 -0.304024 -0.565 122 79 72
0.441854 -0.301871 -0.561 120 76 67
0.445586 -0.298643 -0.555 123 76 68
0.453129 -0.293262 -0.545 135 83 72
0.465143 -0.284114 -0.528 166 109 89
0.46839 -0.283038 -0.526 159 102 82
0.4735 -0.2825 -0.525 164 109 88
0.4755 -0.2825 -0.525 162 107 86
0.487269 -0.284114 -0.528 162 107 86
0.507995 -0.287881 -0.535 169 122 104
0.517886 -0.290571 -0.54 166 121 100
-0.10399 -0.3294 -0.61 129 128 136
-0.103166 -0.33048 -0.612 219 216 225
-0.0946486 -0.34182 -0.633 56 55 61
-0.0851371 -0.34236 -0.634 34 33 39
0.0543029 -0.23868 -0.442 205 166 161
0.07812 -0.23436 -0.434 194 151 144
0.118724 -0.2484 -0.46 100 78 80
0.122935 -0.25164 -0.466 92 68 64
0.124354 -0.25272 -0.468 165 155 156
0.136175 -0.26352 -0.488 254 252 255
0.13851 -0.26622 -0.493 255 254 255
0.453 -0.3402 -0.63 159 160 190
0.441095 -0.3186 -0.59 110 77 72
0.441453 -0.31644 -0.586 113 78 74
0.441414 -0.31482 -0.583 112 75 69
0.441694 -0.31266 -0.579 113 76 70
0.443133 -0.31212 -0.578 114 77 71
0.444714 -0.30564 -0.566 116 73 66
0.454167 -0.2943 -0.545 130 80 69
0.459939 -0.28944 -0.536 156 100 83
0.4755 -0.2835 -0.525 163 106 87
0.50008 -0.28728 -0.532 163 112 91
0.504066 -0.28782 -0.533 166 118 98
0.515968 -0.29052 -0.538 164 118 95
-0.110102 -0.324601 -0.599 79 78 86
-0.102333 -0.33273 -0.614 231 230 238
-0.0973343 -0.339774 -0.627 70 69 74
0.0618705 -0.23627 -0.436 210 169 163
0.0691857 -0.235729 -0.435 205 162 156
0.0899 -0.235729 -0.435 156 112 101
0.112603 -0.245483 -0.453 105 75 73
0.124354 -0.253611 -0.468 138 120 118
0.438905 -0.352238 -0.65 158 164 190
0.4471 -0.322433 -0.595 108 77 75
0.447101 -0.320808 -0.592 110 77 72
0.447079 -0.319182 -0.589 109 74 70
0.44744 -0.31864 -0.588 109 74 70
0.447647 -0.314847 -0.581 112 73 68
0.451733 -0.303467 -0.56 115 75 65
0.453225 -0.300215 -0.554 120 77 68
0.465016 -0.286668 -0.529 161 104 84
0.466149 -0.286126 -0.528 161 104 84
0.469281 -0.285584 -0.527 156 99 79
0.4745 -0.2845 -0.525 161 104 85
-0.121048 -0.337162 -0.62 83 83 91
-0.10836 -0.327373 -0.602 82 81 87
-0.100646 -0.336074 -0.618 214 213 219
-0.0997905 -0.337162 -0.62 150 149 155
0.0548952 -0.239276 -0.44 202 164 161
0.0708429 -0.236557 -0.435 204 161 155
0.07564 -0.236013 -0.434 193 151 137
0.0901067 -0.237101 -0.436 156 108 98
0.102986 -0.241995 -0.445 139 91 79
0.105151 -0.243083 -0.447 133 90 81
0.109286 -0.244714 -0.45 108 83 79
0.4551 -0.334443 -0.615 106 80 81
0.451941 -0.314322 -0.578 113 74 69
0.453187 -0.312147 -0.574 112 75 67
0.453787 -0.311059 -0.572 110 71 64
0.462291 -0.290394 -0.534 157 100 80
0.4636 -0.289307 -0.532 158 101 81
0.470285 -0.286588 -0.527 162 105 85
0.4745 -0.2855 -0.525 161 104 84
0.491291 -0.287131 -0.528 157 105 83
0.506096 -0.28985 -0.533 163 116 96
-0.111021 -0.329611 -0.604 85 86 91
-0.10757 -0.329611 -0.604 78 77 83
-0.0986095 -0.338343 -0.62 73 72 78
-0.08848 -0.344891 -0.632 50 51 56
0.0518943 -0.241751 -0.443 200 165 161
0.0764667 -0.23684 -0.434 193 149 140
0.0882429 -0.237386 -0.435 162 114 104
0.0901067 -0.237931 -0.436 152 105 97
0.114217 -0.248846 -0.456 97 71 72
0.12116 -0.254303 -0.466 108 87 96
0.322028 -0.354169 -0.649 159 179 206
0.329952 -0.354714 -0.65 150 168 214
0.45746 -0.33998 -0.623 90 86 100
0.46102 -0.33998 -0.623 89 81 104
0.45954 -0.30942 -0.567 107 70 62
0.459808 -0.308874 -0.566 107 70 62
0.460108 -0.295231 -0.541 139 86 70
0.46182 -0.293049 -0.537 145 94 73
0.50312 -0.29032 -0.532 164 113 92
0.504133 -0.29032 -0.532 161 113 91
0.524831 -0.296869 -0.544 156 113 96
-0.116747 -0.337333 -0.616 94 95 100
-0.1089 -0.33131 -0.605 85 86 91
-0.10498 -0.3335 -0.609 88 87 93
-0.0975857 -0.340071 -0.621 69 68 74
-0.0915086 -0.343905 -0.628 55 54 62
0.052381 -0.240952 -0.44 202 165 159
0.05548 -0.239857 -0.438 201 164 158
0.0762905 -0.237119 -0.433 192 147 142
0.0940714 -0.240405 -0.439 148 103 97
0.118616 -0.253548 -0.463 98 75 81
0.31461 -0.355405 -0.649 238 240 255
0.456069 -0.354857 -0.648 46 81 145
0.466737 -0.338429 -0.618 97 82 87
0.466523 -0.332405 -0.607 105 77 74
0.46367 -0.324738 -0.593 110 76 77
0.464403 -0.313786 -0.573 106 71 65
0.463309 -0.292429 -0.534 156 101 81
0.465016 -0.28969 -0.529 155 100 79
0.472398 -0.288048 -0.526 156 101 81
0.4755 -0.2875 -0.525 162 105 85
0.4805 -0.2875 -0.525 161 106 86
0.489357 -0.288595 -0.527 160 105 84
-0.117505 -0.340705 -0.62 98 99 104
-0.112124 -0.33521 -0.61 95 96 101
-0.108282 -0.33411 -0.608 92 93 98
0.0484286 -0.247286 -0.45 200 165 159
0.0585486 -0.239592 -0.436 206 167 162
0.059379 -0.239592 -0.436 206 167 162
0.0624133 -0.238493 -0.434 207 168 163
0.0698533 -0.238493 -0.434 199 155 152
0.0787648 -0.237944 -0.433 185 140 135
0.109771 -0.248385 -0.452 105 81 81
0.12053 -0.256628 -0.467 126 112 129
0.312891 -0.356091 -0.648 242 244 255
0.316594 -0.356091 -0.648 231 236 255
0.319063 -0.356091 -0.648 186 198 224
0.322766 -0.356091 -0.648 159 183 227
0.330681 -0.356641 -0.649 122 152 206
0.347286 -0.35719 -0.65 193 199 223
0.445095 -0.35719 -0.65 83 95 135
0.455 -0.35719 -0.65 35 68 139
0.466737 -0.339606 -0.618 97 82 87
0.471277 -0.32257 -0.587 105 74 71
0.465198 -0.31103 -0.566 109 72 63
0.463333 -0.305535 -0.556 113 79 70
0.461809 -0.298391 -0.543 138 87 70
0.461655 -0.295644 -0.538 142 94 72
0.470285 -0.289599 -0.527 160 105 84
0.4755 -0.2885 -0.525 164 109 89
0.518017 -0.295644 -0.538 160 115 96
-0.09568 -0.344091 -0.624 59 58 64
-0.0895419 -0.347951 -0.631 68 68 78
0.0529771 -0.241526 -0.438 200 163 157
0.063919 -0.238769 -0.433 202 163 158
0.0820638 -0.238769 -0.433 170 127 118
0.0837133 -0.238769 -0.433 162 119 110
0.08556 -0.23932 -0.434 156 113 104
0.0991476 -0.244283 -0.443 138 93 88
0.31536 -0.357326 -0.648 231 236 255
0.316594 -0.357326 -0.648 231 236 255
0.445647 -0.357877 -0.649 102 112 148
0.450591 -0.357877 -0.649 53 88 152
0.477357 -0.339129 -0.615 106 82 80
0.47618 -0.33582 -0.609 108 80 79
0.476897 -0.327549 -0.594 104 73 70
0.472041 -0.318174 -0.577 107 74 65
0.462513 -0.29722 -0.539 144 93 74
0.468277 -0.290603 -0.527 154 99 78
0.477589 -0.288949 -0.524 162 108 84
0.4855 -0.2895 -0.525 165 110 89
0.503186 -0.292809 -0.531 167 116 97
-0.114957 -0.342513 -0.619 101 102 106
-0.0997905 -0.343067 -0.62 75 74 82
-0.0916543 -0.348047 -0.629 70 68 79
0.0529771 -0.24236 -0.438 200 163 157
0.0663933 -0.239593 -0.433 200 159 155
0.0688676 -0.239593 -0.433 197 154 148
0.074641 -0.239593 -0.433 190 145 139
0.0903133 -0.241807 -0.437 148 103 97
0.277902 -0.358007 -0.647 249 248 254
0.35046 -0.359113 -0.649 153 165 205
0.355952 -0.359667 -0.65 60 85 152
0.37081 -0.359667 -0.65 80 101 154
0.380714 -0.359667 -0.65 123 130 158
0.391857 -0.359667 -0.65 22 64 136
0.450591 -0.359113 -0.649 61 96 160
0.451828 -0.359113 -0.649 58 91 158
0.463991 -0.358007 -0.647 156 165 194
0.476356 -0.346387 -0.626 99 114 157
0.48282 -0.342513 -0.619 101 77 77
0.48332 -0.333107 -0.602 110 77 72
0.466898 -0.309313 -0.559 111 77 68
0.464751 -0.29382 -0.531 160 102 82
0.470285 -0.291607 -0.527 162 105 85
0.4735 -0.2905 -0.525 166 110 87
-0.0928524 -0.349245 -0.629 76 75 81
0.0535657 -0.242084 -0.436 201 164 158
0.0552267 -0.242084 -0.436 202 165 159
0.0655686 -0.240418 -0.433 197 156 152
0.074641 -0.240418 -0.433 189 145 136
0.279134 -0.359239 -0.647 243 252 255
0.293469 -0.358684 -0.646 126 144 194
0.305773 -0.358684 -0.646 228 234 255
0.321035 -0.359239 -0.647 149 170 213
0.324732 -0.359239 -0.647 114 150 212
0.342514 -0.359794 -0.648 194 204 231
0.354169 -0.36035 -0.649 60 85 151
0.404238 -0.360905 -0.65 151 163 187
0.411667 -0.360905 -0.65 134 141 169
0.421571 -0.360905 -0.65 19 52 119
0.461527 -0.359239 -0.647 64 96 157
0.468196 -0.358684 -0.646 174 172 185
0.470657 -0.358684 -0.646 133 133 143
0.487127 -0.345913 -0.623 119 100 104
0.488276 -0.340916 -0.614 95 73 76
0.488649 -0.340361 -0.613 93 71 74
0.464169 -0.303715 -0.547 138 86 75
0.463877 -0.301494 -0.543 147 91 76
0.464055 -0.300939 -0.542 147 91 76
0.4725 -0.2915 -0.525 173 115 91
0.498331 -0.293166 -0.528 160 110 87
0.0672181 -0.241243 -0.433 195 151 148
0.0680429 -0.241243 -0.433 197 153 150
0.07794 -0.241243 -0.433 180 135 129
0.116221 -0.258514 -0.464 87 76 92
0.369003 -0.361586 -0.649 56 95 160
0.397435 -0.361586 -0.649 46 82 142
0.41227 -0.361586 -0.649 148 151 168
0.424631 -0.361586 -0.649 26 56 118
0.451131 -0.361029 -0.648 63 94 158
0.4536 -0.361029 -0.648 50 81 148
0.472386 -0.359357 -0.645 161 161 185
0.493048 -0.345429 -0.62 102 98 113
0.486346 -0.328157 -0.589 102 76 75
0.475833 -0.318129 -0.571 106 79 72
0.465017 -0.305314 -0.548 139 87 76
0.470285 -0.293614 -0.527 172 116 91
0.4725 -0.2925 -0.525 173 117 90
0.47867 -0.291386 -0.523 171 115 88
-0.116257 -0.349964 -0.626 109 110 115
-0.113509 -0.348846 -0.624 108 109 114
-0.11214 -0.348287 -0.623 107 108 113
-0.10502 -0.348287 -0.623 107 106 112
-0.101786 -0.349405 -0.625 106 107 112
-0.0995638 -0.349964 -0.626 99 100 105
0.0581457 -0.242068 -0.433 202 165 159
0.0738162 -0.242068 -0.433 190 145 140
0.0754657 -0.242068 -0.433 182 137 132
0.0762905 -0.242068 -0.433 179 134 129
0.081239 -0.242068 -0.433 169 125 116
0.0839067 -0.242627 -0.434 155 113 101
0.0847333 -0.242627 -0.434 155 113 101
0.109874 -0.254926 -0.456 96 73 79
0.272129 -0.360586 -0.645 211 223 255
0.277043 -0.360586 -0.645 250 253 255
0.289329 -0.360586 -0.645 143 159 210
0.3139 -0.360586 -0.645 193 199 223
0.356091 -0.362263 -0.648 46 77 144
0.36035 -0.362822 -0.649 28 62 136
0.372711 -0.362822 -0.649 149 162 196
0.378309 -0.362263 -0.648 161 163 184
0.398671 -0.362822 -0.649 52 83 147
0.44797 -0.361704 -0.647 70 103 156
0.455365 -0.361704 -0.647 67 97 157
0.466966 -0.361145 -0.646 170 173 182
0.475333 -0.360027 -0.644 57 85 125
0.49266 -0.347169 -0.621 104 96 117
0.48995 -0.330956 -0.592 103 79 79
0.477589 -0.292941 -0.524 174 120 94
0.481581 -0.292941 -0.524 172 116 91
0.488568 -0.292941 -0.524 167 112 91
0.496444 -0.294059 -0.526 156 106 83
0.514166 -0.298531 -0.534 159 111 89
0.516148 -0.29909 -0.535 159 111 89
-0.116629 -0.352278 -0.628 115 116 120
-0.11268 -0.351156 -0.626 117 116 121
0.0596571 -0.242331 -0.432 202 165 159
0.06048 -0.242331 -0.432 203 162 156
0.0713419 -0.242892 -0.433 191 146 141
0.0985257 -0.249063 -0.444 132 90 91
0.321271 -0.361814 -0.645 100 130 184
0.341457 -0.362375 -0.646 197 205 228
0.351845 -0.362936 -0.647 139 160 191
0.3672 -0.363497 -0.648 69 103 177
0.391886 -0.363497 -0.648 47 80 157
0.400526 -0.363497 -0.648 129 145 179
0.419626 -0.362936 -0.647 22 57 121
0.44797 -0.362936 -0.647 61 92 139
0.4522 -0.362375 -0.646 83 105 163
0.456597 -0.362936 -0.647 76 107 164
0.459062 -0.362936 -0.647 71 96 153
0.48024 -0.361253 -0.644 115 141 192
0.500595 -0.350595 -0.625 168 174 196
0.465195 -0.30011 -0.535 161 102 86
0.466905 -0.297305 -0.53 165 107 85
0.468039 -0.296744 -0.529 173 113 89
0.471289 -0.295622 -0.527 178 122 97
0.489566 -0.293939 -0.524 168 113 92
0.0695314 -0.243154 -0.432 191 148 141
0.0771152 -0.243717 -0.433 178 133 127
0.0839067 -0.24428 -0.434 155 112 103
0.0957724 -0.249346 -0.443 136 92 93
0.0987476 -0.250471 -0.445 129 89 89
0.106798 -0.255537 -0.454 104 79 85
0.128071 -0.275237 -0.489 150 164 213
0.27416 -0.36248 -0.644 187 196 229
0.331613 -0.363606 -0.646 95 135 207
0.358007 -0.364169 -0.647 30 68 143
0.376492 -0.364169 -0.647 180 175 182
0.383887 -0.364169 -0.647 66 94 157
0.387584 -0.364169 -0.647 68 105 173
0.409767 -0.364169 -0.647 139 137 159
0.417161 -0.364169 -0.647 27 58 113
0.418393 -0.364169 -0.647 35 66 121
0.43195 -0.364169 -0.647 39 66 119
0.454661 -0.363606 -0.646 101 127 178
0.462044 -0.363606 -0.646 107 128 181
0.472386 -0.363043 -0.645 159 159 187
0.479935 -0.321954 -0.572 122 85 77
0.465088 -0.305069 -0.542 147 89 75
0.490564 -0.294937 -0.524 168 116 94
0.504366 -0.297189 -0.528 161 110 91
0.51224 -0.29944 -0.532 157 109 89
0.0588343 -0.243977 -0.432 204 161 154
0.0907267 -0.24793 -0.439 139 95 94
0.0989695 -0.251884 -0.446 123 87 87
0.1122 -0.26092 -0.462 93 77 88
0.268835 -0.363142 -0.643 159 181 228
0.277409 -0.363142 -0.643 227 229 242
0.285982 -0.363142 -0.643 167 182 221
0.3036 -0.363707 -0.644 206 220 255
0.317826 -0.363142 -0.643 126 154 204
0.328643 -0.364271 -0.645 85 125 195
0.342157 -0.364271 -0.645 196 207 225
0.378371 -0.364836 -0.646 146 142 159
0.409133 -0.364836 -0.646 152 150 174
0.434973 -0.364836 -0.646 137 142 161
0.437434 -0.364836 -0.646 162 165 182
0.439895 -0.364836 -0.646 147 145 159
0.464505 -0.364836 -0.646 162 170 191
0.465014 -0.364271 -0.645 170 167 188
0.48392 -0.363707 -0.644 106 121 154
0.46526 -0.305536 -0.541 148 92 77
0.469047 -0.298759 -0.529 177 119 97
0.491562 -0.295935 -0.524 169 117 95
0.0494133 -0.247067 -0.436 208 165 158
0.0588343 -0.2448 -0.432 203 159 150
0.0754657 -0.245367 -0.433 182 140 128
0.0771152 -0.245367 -0.433 175 132 123
0.0917714 -0.249333 -0.44 139 93 93
0.303129 -0.364367 -0.643 212 227 255
0.312927 -0.364367 -0.643 207 206 224
0.32568 -0.364933 -0.644 83 121 183
0.3311 -0.3655 -0.645 97 137 206
0.3483 -0.3655 -0.645 159 169 194
0.351986 -0.3655 -0.645 64 94 148
0.353214 -0.3655 -0.645 52 82 136
0.366067 -0.366067 -0.646 42 81 150
0.379602 -0.366067 -0.646 170 168 190
0.420786 -0.3655 -0.645 54 78 126
0.4343 -0.3655 -0.645 156 161 183
0.447814 -0.3655 -0.645 82 97 138
0.475333 -0.364933 -0.644 134 142 179
0.477787 -0.364933 -0.644 132 142 177
0.501978 -0.340567 -0.601 109 83 82
0.47729 -0.320167 -0.565 130 90 80
0.465487 -0.302033 -0.533 166 107 89
0.465627 -0.301467 -0.532 166 107 89
0.469281 -0.298633 -0.527 182 121 100
0.472398 -0.298067 -0.526 178 122 95
0.05084 -0.24676 -0.434 206 163 154
0.07794 -0.246191 -0.433 168 125 116
0.0907267 -0.249603 -0.439 138 94 93
0.103745 -0.256994 -0.452 109 79 79
0.111802 -0.263817 -0.464 97 74 80
0.113414 -0.265523 -0.467 87 76 93
0.273309 -0.365023 -0.642 236 243 255
0.274531 -0.365023 -0.642 244 243 251
0.29578 -0.365591 -0.643 133 148 205
0.31244 -0.365023 -0.642 227 224 241
0.331813 -0.36616 -0.644 112 151 208
0.376557 -0.366729 -0.645 171 177 191
0.386985 -0.367297 -0.646 78 103 157
0.422014 -0.366729 -0.645 115 134 177
0.431173 -0.36616 -0.644 59 73 118
0.439214 -0.366729 -0.645 152 156 181
0.484643 -0.326929 -0.575 123 86 78
0.479666 -0.297363 -0.523 178 121 94
0.48365 -0.297363 -0.523 175 118 98
0.488631 -0.297363 -0.523 176 119 99
0.505418 -0.299637 -0.527 157 110 90
0.507383 -0.300206 -0.528 154 107 87
0.510314 -0.301343 -0.53 153 106 86
0.0428048 -0.253862 -0.445 197 159 148
0.0477524 -0.248728 -0.436 206 164 152
0.0493 -0.248157 -0.435 207 165 153
0.0531971 -0.247016 -0.433 203 161 149
0.0555429 -0.246446 -0.432 202 160 148
0.0938724 -0.25215 -0.442 130 88 89
0.0949286 -0.252721 -0.443 127 85 86
0.31244 -0.366246 -0.642 233 230 249
0.341627 -0.367387 -0.644 200 208 231
0.391907 -0.368528 -0.646 100 132 183
0.401129 -0.367957 -0.645 164 169 189
0.407867 -0.367387 -0.644 150 156 190
0.420133 -0.367387 -0.644 109 123 162
0.501201 -0.365675 -0.641 139 144 173
0.480907 -0.32403 -0.568 131 88 79
0.46636 -0.304634 -0.534 166 108 88
0.474594 -0.29893 -0.524 182 125 98
0.47867 -0.298359 -0.523 182 125 98
0.494609 -0.298359 -0.523 171 117 93
0.516249 -0.304064 -0.533 156 111 90
0.0628029 -0.246696 -0.431 193 153 143
0.0711771 -0.247269 -0.432 178 134 123
0.0994133 -0.256427 -0.448 117 83 84
0.10956 -0.26444 -0.462 95 73 75
0.280209 -0.366896 -0.641 245 250 254
0.342321 -0.368041 -0.643 195 203 224
0.372871 -0.369186 -0.645 183 184 214
0.400507 -0.368613 -0.644 167 171 196
0.42193 -0.368041 -0.643 145 154 187
0.45255 -0.368041 -0.643 88 103 160
0.459898 -0.368041 -0.643 118 135 181
0.466022 -0.368041 -0.643 153 157 186
0.477526 -0.367469 -0.642 168 172 199
0.498759 -0.366896 -0.641 99 105 129
0.4715 -0.3005 -0.525 179 123 96
0.479666 -0.299355 -0.523 184 127 100
0.479743 -0.298783 -0.522 183 126 99
0.495605 -0.299355 -0.523 171 119 95
0.497597 -0.299355 -0.523 166 114 92
0.5025 -0.3005 -0.525 158 113 90
0.0652657 -0.247517 -0.431 194 152 140
0.0660867 -0.247517 -0.431 190 148 136
0.0711771 -0.248091 -0.432 179 136 129
0.0806 -0.24924 -0.434 153 110 103
0.096421 -0.256131 -0.446 122 83 86
0.09856 -0.25728 -0.448 117 82 86
0.291197 -0.368117 -0.641 170 187 231
0.296081 -0.368117 -0.641 162 180 230
0.3205 -0.368117 -0.641 155 175 210
0.34967 -0.369266 -0.643 82 103 148
0.354569 -0.369266 -0.643 161 182 225
0.365591 -0.369266 -0.643 112 135 176
0.36984 -0.36984 -0.644 74 95 138
0.371067 -0.36984 -0.644 126 147 190
0.372293 -0.36984 -0.644 164 173 212
0.37352 -0.36984 -0.644 173 182 221
0.407233 -0.369266 -0.643 65 74 107
0.416383 -0.368691 -0.642 157 162 191
0.418829 -0.368691 -0.642 102 109 138
0.421274 -0.368691 -0.642 154 161 189
0.427389 -0.368691 -0.642 157 161 186
0.442063 -0.368691 -0.642 134 136 161
0.458673 -0.369266 -0.643 120 136 185
0.464797 -0.369266 -0.643 136 136 162
0.467743 -0.368691 -0.642 78 86 123
0.514843 -0.353186 -0.615 104 89 92
0.47042 -0.314134 -0.547 149 96 80
0.474685 -0.300351 -0.523 185 128 101
0.476677 -0.300351 -0.523 183 126 99
0.481801 -0.299203 -0.521 182 127 97
0.482793 -0.299203 -0.521 183 128 98
0.497597 -0.300351 -0.523 168 118 93
0.0484714 -0.250643 -0.435 203 161 149
0.0685495 -0.248338 -0.431 182 139 130
0.0703543 -0.248914 -0.432 177 134 125
0.093241 -0.255252 -0.443 125 90 88
0.0942971 -0.255829 -0.444 121 87 86
0.0966371 -0.257557 -0.447 117 87 89
0.101162 -0.260438 -0.452 103 78 81
0.309511 -0.369338 -0.641 234 235 255
0.310732 -0.369338 -0.641 232 233 254
0.314395 -0.369338 -0.641 224 229 249
0.321721 -0.369338 -0.641 165 189 233
0.339343 -0.369914 -0.642 198 205 223
0.356463 -0.369914 -0.642 137 146 177
0.387637 -0.37049 -0.643 108 127 169
0.393147 -0.371067 -0.644 66 94 134
0.416383 -0.369914 -0.642 166 170 195
0.446258 -0.369338 -0.641 77 99 146
0.455514 -0.369914 -0.642 79 102 146
0.488229 -0.368762 -0.64 174 174 184
0.490667 -0.368762 -0.64 177 174 201
0.508952 -0.368762 -0.64 151 164 206
0.511809 -0.368186 -0.639 83 113 167
0.47214 -0.316329 -0.549 146 96 85
0.467653 -0.306533 -0.532 176 114 93
0.49371 -0.300195 -0.521 176 120 97
0.515323 -0.305957 -0.531 156 115 95
0.518279 -0.30711 -0.533 156 115 95
0.04158 -0.25494 -0.441 199 162 146
0.0423238 -0.254362 -0.44 198 161 145
0.0438 -0.253206 -0.438 199 160 145
0.0491867 -0.250893 -0.434 202 162 150
0.0530743 -0.249737 -0.432 199 159 147
0.0685495 -0.249159 -0.431 180 138 126
0.0789467 -0.250893 -0.434 151 111 101
0.0923971 -0.256096 -0.443 126 90 90
0.108033 -0.267658 -0.463 91 74 80
0.270814 -0.369403 -0.639 241 248 255
0.272031 -0.369403 -0.639 238 245 255
0.28542 -0.369403 -0.639 172 188 224
0.292723 -0.369403 -0.639 160 173 205
0.300026 -0.369403 -0.639 153 161 208
0.309029 -0.369981 -0.64 227 228 255
0.347361 -0.370559 -0.641 174 191 219
0.353466 -0.370559 -0.641 175 184 215
0.374806 -0.371137 -0.642 154 166 208
0.378474 -0.371137 -0.642 169 169 203
0.391311 -0.371715 -0.643 69 96 143
0.4066 -0.371137 -0.642 92 101 134
0.431607 -0.370559 -0.641 146 157 175
0.449921 -0.370559 -0.641 89 111 169
0.46091 -0.370559 -0.641 163 174 204
0.464572 -0.370559 -0.641 89 91 129
0.509374 -0.369403 -0.639 92 109 161
0.474594 -0.302922 -0.524 184 127 100
0.0429657 -0.25404 -0.438 201 162 147
0.0762905 -0.25114 -0.433 161 119 107
0.0807857 -0.2523 -0.435 147 106 100
0.32 -0.3712 -0.64 148 161 196
0.334629 -0.3712 -0.64 200 206 230
0.340035 -0.37178 -0.641 184 191 219
0.357129 -0.37178 -0.641 133 142 171
0.38092 -0.37236 -0.642 165 172 200
0.396817 -0.37236 -0.642 158 163 193
0.4066 -0.37236 -0.642 129 138 169
0.418176 -0.37178 -0.641 163 163 187
0.50694 -0.37062 -0.639 94 110 159
0.518299 -0.37004 -0.638 81 104 156
0.52073 -0.37004 -0.638 88 110 159
0.479816 -0.30218 -0.521 186 130 103
0.481867 -0.3016 -0.52 187 131 104
0.485829 -0.3016 -0.52 183 127 102
0.512411 -0.30624 -0.528 155 114 96
0.0421314 -0.254874 -0.438 201 162 147
0.0498981 -0.251965 -0.433 200 161 146
0.0522514 -0.251383 -0.432 198 158 146
0.0772933 -0.252547 -0.434 155 115 105
0.354133 -0.372419 -0.64 178 188 213
0.38399 -0.373001 -0.641 89 105 138
0.38521 -0.373001 -0.641 75 99 143
0.398641 -0.373001 -0.641 154 159 188
0.404746 -0.373001 -0.641 131 145 174
0.407771 -0.372419 -0.64 163 168 190
0.40899 -0.372419 -0.64 164 169 191
0.412071 -0.373001 -0.641 160 169 186
0.421181 -0.372419 -0.64 164 166 189
0.435129 -0.371837 -0.639 132 135 166
0.437563 -0.371837 -0.639 73 76 107
0.454095 -0.372419 -0.64 48 74 133
0.457752 -0.372419 -0.64 108 126 174
0.467991 -0.371837 -0.639 163 165 180
0.488683 -0.371837 -0.639 162 169 187
0.505723 -0.371837 -0.639 74 91 145
0.506147 -0.371255 -0.638 72 89 143
0.475771 -0.321211 -0.552 150 101 84
0.469047 -0.307828 -0.529 175 117 95
0.475681 -0.304336 -0.523 190 134 107
0.485829 -0.30259 -0.52 186 130 105
0.516371 -0.30841 -0.53 153 112 94
0.0378886 -0.260963 -0.447 193 156 140
0.0420352 -0.255125 -0.437 202 163 148
0.0427695 -0.254541 -0.436 201 162 147
0.0521305 -0.251622 -0.431 200 158 144
0.06006 -0.250454 -0.429 192 152 140
0.0659333 -0.251038 -0.43 182 139 130
0.0711771 -0.252206 -0.432 180 136 125
0.074641 -0.25279 -0.433 161 118 109
0.107846 -0.272055 -0.466 87 68 74
0.272393 -0.371887 -0.637 242 245 252
0.301513 -0.371887 -0.637 224 231 255
0.324369 -0.373054 -0.639 129 156 199
0.340724 -0.373638 -0.64 94 104 140
0.341943 -0.373638 -0.64 96 105 138
0.348038 -0.373638 -0.64 186 197 225
0.360229 -0.373638 -0.64 177 188 210
0.366324 -0.373638 -0.64 174 185 207
0.373001 -0.374222 -0.641 109 123 160
0.378514 -0.373638 -0.64 166 176 211
0.381548 -0.374222 -0.641 135 146 176
0.393757 -0.374222 -0.641 135 156 199
0.427156 -0.37247 -0.638 158 165 184
0.438093 -0.37247 -0.638 84 89 119
0.450951 -0.373054 -0.639 41 69 132
0.504506 -0.373054 -0.639 76 89 133
0.523553 -0.371887 -0.637 93 106 148
0.523943 -0.371303 -0.636 144 157 199
0.475771 -0.322263 -0.552 150 101 84
0.467786 -0.310003 -0.531 170 112 92
0.472598 -0.305916 -0.524 188 130 106
0.488849 -0.302997 -0.519 181 127 103
0.495733 -0.303581 -0.52 173 121 97
0.498671 -0.304165 -0.521 167 119 97
0.0467067 -0.2542 -0.434 206 162 151
0.0584257 -0.251271 -0.429 197 155 143
0.0736457 -0.253029 -0.432 163 123 115
0.074641 -0.253614 -0.433 157 117 109
0.08778 -0.2583 -0.441 128 89 90
0.308793 -0.3731 -0.637 196 205 238
0.312433 -0.3731 -0.637 216 223 249
0.33654 -0.374271 -0.639 147 160 192
0.342626 -0.374271 -0.639 121 130 159
0.35358 -0.374271 -0.639 183 191 212
0.365751 -0.374271 -0.639 178 186 209
0.368186 -0.374271 -0.639 177 185 208
0.403483 -0.374271 -0.639 116 129 148
0.450951 -0.374271 -0.639 30 59 119
0.47455 -0.373686 -0.638 150 152 167
0.526748 -0.371929 -0.635 197 194 211
0.484824 -0.330929 -0.565 134 96 87
0.468252 -0.313357 -0.535 163 107 94
0.486871 -0.303986 -0.519 180 126 100
0.493791 -0.303986 -0.519 171 121 96
0.499664 -0.305157 -0.521 165 119 96
0.0474238 -0.254439 -0.433 208 161 151
0.0711771 -0.253851 -0.432 166 122 111
0.0736457 -0.253851 -0.432 160 122 113
0.0754657 -0.254439 -0.433 154 116 107
0.0838457 -0.257377 -0.438 135 97 96
0.08468 -0.257377 -0.438 132 94 93
0.279234 -0.373726 -0.636 237 240 255
0.34452 -0.374901 -0.638 187 192 211
0.356672 -0.374901 -0.638 181 189 210
0.380357 -0.375489 -0.639 119 134 173
0.410143 -0.374901 -0.638 164 170 186
0.465313 -0.374313 -0.637 160 166 188
0.488367 -0.374313 -0.637 170 168 182
0.52152 -0.373726 -0.636 147 165 205
0.521871 -0.361386 -0.615 114 96 92
0.474411 -0.322015 -0.548 146 100 85
0.481929 -0.304974 -0.519 188 134 108
0.48396 -0.304387 -0.518 185 131 105
0.487907 -0.304387 -0.518 180 126 102
0.0651143 -0.253495 -0.43 184 140 127
0.0659333 -0.253495 -0.43 184 140 127
0.0667524 -0.253495 -0.43 181 139 127
0.0736457 -0.254674 -0.432 165 118 112
0.101632 -0.270002 -0.458 92 71 76
0.103176 -0.27177 -0.461 92 73 79
0.109234 -0.278255 -0.472 92 75 94
0.277586 -0.374348 -0.635 189 195 221
0.331847 -0.375527 -0.637 180 195 238
0.345193 -0.375527 -0.637 184 186 198
0.360967 -0.375527 -0.637 178 184 206
0.364607 -0.375527 -0.637 176 182 204
0.37004 -0.376116 -0.638 174 182 205
0.374901 -0.376116 -0.638 133 143 170
0.388269 -0.376116 -0.638 19 54 120
0.39313 -0.376116 -0.638 51 85 149
0.396775 -0.376116 -0.638 58 81 125
0.42406 -0.375527 -0.637 114 120 142
0.43672 -0.374937 -0.636 111 118 146
0.437931 -0.374937 -0.636 54 75 130
0.440354 -0.374937 -0.636 33 61 124
0.453891 -0.376116 -0.638 70 99 157
0.465313 -0.375527 -0.637 165 170 200
0.466527 -0.375527 -0.637 172 175 192
0.470167 -0.375527 -0.637 105 106 111
0.4876 -0.374937 -0.636 149 149 159
0.495647 -0.375527 -0.637 165 167 182
0.498073 -0.375527 -0.637 166 169 188
0.469411 -0.314806 -0.534 168 110 96
0.475681 -0.308321 -0.523 187 131 106
0.478824 -0.307142 -0.521 189 133 110
0.484947 -0.305373 -0.518 185 131 105
0.522373 -0.313627 -0.532 154 115 98
0.0353343 -0.264369 -0.447 192 155 139
0.0402781 -0.257863 -0.436 199 160 145
0.0496676 -0.254906 -0.431 200 157 141
0.0830114 -0.259046 -0.438 134 99 97
0.104957 -0.275014 -0.465 97 76 85
0.270329 -0.375557 -0.635 207 212 232
0.31629 -0.375557 -0.635 164 181 227
0.327691 -0.376149 -0.636 122 148 205
0.337913 -0.37674 -0.637 165 181 215
0.360967 -0.37674 -0.637 173 180 199
0.374313 -0.37674 -0.637 159 167 188
0.377953 -0.37674 -0.637 49 70 125
0.393727 -0.37674 -0.637 38 70 131
0.41976 -0.376149 -0.636 131 138 166
0.425817 -0.376149 -0.636 160 163 180
0.437243 -0.375557 -0.635 50 71 124
0.439662 -0.375557 -0.635 37 66 126
0.441566 -0.376149 -0.636 46 75 135
0.51949 -0.375557 -0.635 151 161 196
0.5207 -0.375557 -0.635 176 186 221
0.52471 -0.374966 -0.634 98 110 132
0.527126 -0.374966 -0.634 139 146 172
0.470003 -0.317597 -0.537 162 109 95
0.470054 -0.312866 -0.529 177 115 92
0.473689 -0.309317 -0.523 186 130 105
0.479951 -0.306951 -0.519 191 135 108
0.48692 -0.30636 -0.518 184 130 104
0.497746 -0.306951 -0.519 158 117 95
0.500686 -0.307543 -0.52 158 117 97
0.504626 -0.308134 -0.521 154 113 93
0.507559 -0.309317 -0.523 154 113 93
0.05434 -0.25454 -0.429 197 155 139
0.0651143 -0.255133 -0.43 184 140 127
0.0840371 -0.260473 -0.439 127 92 90
0.0913238 -0.264627 -0.446 115 85 87
0.1012 -0.272933 -0.46 93 71 74
0.268695 -0.376173 -0.634 211 218 247
0.279564 -0.376173 -0.634 217 216 230
0.310962 -0.376173 -0.634 173 186 221
0.31217 -0.376173 -0.634 188 201 236
0.333749 -0.37736 -0.636 98 114 165
0.341017 -0.37736 -0.636 186 197 217
0.350709 -0.37736 -0.636 169 174 193
0.356766 -0.37736 -0.636 149 163 189
0.414262 -0.376767 -0.635 109 119 155
0.420971 -0.37736 -0.636 137 143 175
0.422183 -0.37736 -0.636 146 149 168
0.446411 -0.37736 -0.636 53 73 136
0.485624 -0.376767 -0.635 169 169 181
0.47476 -0.32396 -0.546 149 105 94
0.470878 -0.319213 -0.538 157 108 94
0.491853 -0.307347 -0.518 169 117 93
0.0449495 -0.257738 -0.433 203 158 139
0.0582895 -0.254762 -0.428 189 148 130
0.0728229 -0.257143 -0.432 158 115 106
0.0821771 -0.260714 -0.438 131 96 92
0.0892229 -0.264286 -0.444 119 88 86
0.273526 -0.377381 -0.634 225 236 255
0.356766 -0.378571 -0.636 133 149 175
0.383417 -0.378571 -0.636 41 72 137
0.39432 -0.378571 -0.636 20 51 115
0.458526 -0.378571 -0.636 158 173 212
0.517465 -0.377381 -0.634 141 163 204
0.509709 -0.353571 -0.594 131 93 90
0.483069 -0.332143 -0.558 141 101 93
0.48692 -0.308333 -0.518 182 130 106
0.0616943 -0.256174 -0.429 185 142 125
0.0633286 -0.256174 -0.429 181 138 122
0.0642952 -0.256771 -0.43 179 136 120
0.0687086 -0.257966 -0.432 171 127 116
0.0783 -0.259757 -0.435 144 103 99
0.317706 -0.377991 -0.633 70 97 164
0.373138 -0.379186 -0.635 138 142 169
0.397329 -0.379186 -0.635 74 92 132
0.404586 -0.379186 -0.635 169 169 193
0.408779 -0.378589 -0.634 96 98 111
0.411194 -0.378589 -0.634 165 166 187
0.430516 -0.378589 -0.634 163 162 176
0.460224 -0.379186 -0.635 155 159 194
0.467481 -0.379186 -0.635 165 163 185
0.482444 -0.378589 -0.634 166 167 187
0.521088 -0.378589 -0.634 185 184 200
0.515715 -0.358883 -0.601 133 98 94
0.47676 -0.311709 -0.522 182 126 103
0.478824 -0.311111 -0.521 185 129 104
0.619729 -0.364854 -0.611 205 203 206
0.0448457 -0.258789 -0.432 203 156 136
0.0803248 -0.261784 -0.437 135 97 94
0.0919381 -0.268972 -0.449 102 80 82
0.0992314 -0.274963 -0.459 96 70 73
0.106763 -0.28335 -0.473 102 86 96
0.30035 -0.378598 -0.632 226 231 253
0.329763 -0.379197 -0.633 56 88 163
0.357414 -0.380395 -0.635 146 158 182
0.388862 -0.380395 -0.635 99 126 179
0.396703 -0.379796 -0.634 37 52 93
0.405723 -0.379197 -0.633 166 170 181
0.415369 -0.379197 -0.633 158 159 180
0.466745 -0.379796 -0.634 145 143 165
0.467952 -0.379796 -0.634 122 120 142
0.483651 -0.379796 -0.634 169 168 182
0.484859 -0.379796 -0.634 172 171 185
0.496935 -0.379796 -0.634 93 98 130
0.497554 -0.345051 -0.576 141 102 97
0.479886 -0.311505 -0.52 184 130 104
0.48094 -0.310906 -0.519 185 129 104
0.489919 -0.309708 -0.517 185 131 107
0.527416 -0.319292 -0.533 153 110 91
0.0400933 -0.260813 -0.434 202 157 138
0.0455629 -0.25901 -0.431 201 154 134
0.0495524 -0.25841 -0.43 199 154 133
0.0582895 -0.257208 -0.428 191 144 124
0.0608771 -0.257809 -0.429 183 140 123
0.0729914 -0.260212 -0.433 157 113 104
0.0803248 -0.262616 -0.437 133 95 92
0.0833905 -0.264419 -0.44 126 92 91
0.100978 -0.278241 -0.463 97 72 76
0.299147 -0.379802 -0.632 221 226 248
0.328038 -0.379802 -0.632 66 99 168
0.355644 -0.381004 -0.634 175 180 200
0.365934 -0.380403 -0.633 185 184 200
0.370135 -0.381004 -0.634 134 139 158
0.371343 -0.381004 -0.634 126 135 164
0.382814 -0.381605 -0.635 77 107 157
0.391872 -0.381004 -0.634 140 154 191
0.396077 -0.380403 -0.633 55 68 110
0.404517 -0.380403 -0.633 172 170 192
0.405723 -0.380403 -0.633 160 162 174
0.414712 -0.379802 -0.632 165 164 182
0.441894 -0.380403 -0.633 129 140 172
0.447423 -0.381004 -0.634 103 126 170
0.454669 -0.381004 -0.634 134 149 182
0.462391 -0.380403 -0.633 133 134 162
0.487711 -0.380403 -0.633 166 165 179
0.49452 -0.381004 -0.634 83 84 112
0.495728 -0.381004 -0.634 89 90 118
0.504591 -0.380403 -0.633 150 147 174
0.516649 -0.380403 -0.633 101 120 163
0.523055 -0.379802 -0.632 158 155 172
0.529074 -0.379802 -0.632 179 182 199
0.523438 -0.366581 -0.61 125 100 95
0.470943 -0.318505 -0.53 171 116 95
0.4735 -0.3155 -0.525 175 120 99
0.478895 -0.312495 -0.52 185 131 105
0.478963 -0.311894 -0.519 184 130 104
0.498782 -0.310692 -0.517 166 120 96
0.507619 -0.312495 -0.52 157 115 93
0.514518 -0.314899 -0.524 153 112 90
0.0695314 -0.260434 -0.432 164 120 107
0.0794924 -0.263449 -0.437 133 98 94
0.0803248 -0.263449 -0.437 131 96 92
0.0854533 -0.266463 -0.442 119 87 88
0.0972705 -0.276109 -0.458 95 72 78
0.273433 -0.380403 -0.631 228 234 255
0.28425 -0.380403 -0.631 177 179 200
0.319106 -0.380403 -0.631 68 105 173
0.396077 -0.381609 -0.633 92 104 142
0.399063 -0.381006 -0.632 88 103 144
0.414712 -0.381006 -0.632 140 141 159
0.419528 -0.381006 -0.632 166 165 183
0.430362 -0.381006 -0.632 63 69 95
0.473807 -0.32494 -0.539 155 109 94
0.471707 -0.32072 -0.532 167 115 94
0.474594 -0.315897 -0.524 176 121 100
0.483026 -0.311677 -0.517 188 132 109
0.498782 -0.311677 -0.517 166 120 96
0.513536 -0.315294 -0.523 157 115 93
0.040001 -0.261862 -0.433 201 159 137
0.0423771 -0.261257 -0.432 201 159 137
0.0616943 -0.259443 -0.429 178 135 118
0.0910829 -0.271538 -0.449 96 80 81
0.326317 -0.381605 -0.631 115 151 199
0.355726 -0.38221 -0.632 180 183 200
0.358133 -0.38221 -0.632 186 192 208
0.365356 -0.38221 -0.632 188 186 207
0.399063 -0.38221 -0.632 55 70 111
0.406286 -0.38221 -0.632 128 122 136
0.418324 -0.38221 -0.632 165 167 190
0.429158 -0.38221 -0.632 79 80 101
0.437585 -0.38221 -0.632 169 169 193
0.446011 -0.38221 -0.632 114 135 178
0.487372 -0.381605 -0.631 143 147 174
0.494164 -0.38221 -0.632 103 109 131
0.51824 -0.38221 -0.632 102 117 156
0.524631 -0.381605 -0.631 184 181 198
0.473189 -0.319314 -0.528 170 115 95
0.476914 -0.314476 -0.52 183 129 105
0.481 -0.313267 -0.518 186 130 107
0.499767 -0.312662 -0.517 168 122 98
0.538457 -0.326571 -0.54 152 114 93
0.0314286 -0.266933 -0.44 196 149 129
0.0591048 -0.259653 -0.428 183 140 121
0.0766429 -0.2639 -0.435 148 104 101
0.0794924 -0.265113 -0.437 135 97 96
0.0879257 -0.270573 -0.446 106 80 81
0.0902276 -0.272393 -0.449 105 81 79
0.2754 -0.3822 -0.63 230 235 254
0.3066 -0.3822 -0.63 117 122 152
0.3258 -0.3822 -0.63 139 174 214
0.337669 -0.383413 -0.632 181 185 212
0.35997 -0.382807 -0.631 182 187 206
0.362374 -0.382807 -0.631 182 184 205
0.382814 -0.38402 -0.633 110 127 179
0.390636 -0.383413 -0.632 145 154 187
0.39723 -0.382807 -0.631 110 122 162
0.4074 -0.3822 -0.63 167 166 184
0.4146 -0.3822 -0.63 132 142 169
0.426075 -0.382807 -0.631 171 169 191
0.43569 -0.382807 -0.631 173 174 192
0.483767 -0.382807 -0.631 156 152 179
0.4866 -0.3822 -0.63 90 95 127
0.490978 -0.382807 -0.631 90 103 135
0.488871 -0.34034 -0.561 143 106 98
0.480506 -0.33306 -0.549 148 108 98
0.474594 -0.317893 -0.524 174 119 99
0.488971 -0.31304 -0.516 175 123 99
0.0319733 -0.265337 -0.436 196 151 132
0.0487333 -0.261686 -0.43 196 154 132
0.0574743 -0.260469 -0.428 183 140 121
0.05992 -0.260469 -0.428 183 137 121
0.0729914 -0.263511 -0.433 152 107 102
0.08274 -0.26838 -0.441 121 90 88
0.0848029 -0.269597 -0.443 116 86 84
0.273765 -0.382791 -0.629 238 240 252
0.277359 -0.382791 -0.629 237 241 253
0.315698 -0.382791 -0.629 101 132 186
0.350355 -0.384009 -0.631 179 184 203
0.368384 -0.384009 -0.631 76 82 114
0.4278 -0.3834 -0.63 147 151 178
0.4338 -0.3834 -0.63 176 169 187
0.440498 -0.384009 -0.631 94 109 138
0.446508 -0.384009 -0.631 106 126 177
0.4806 -0.3834 -0.63 126 140 175
0.504199 -0.384009 -0.631 114 128 167
0.5058 -0.3834 -0.63 73 96 140
0.484057 -0.314023 -0.516 185 131 105
0.506653 -0.31524 -0.518 162 115 89
0.613911 -0.366969 -0.603 205 201 198
0.0509524 -0.261284 -0.428 190 148 126
0.0703543 -0.263726 -0.432 154 109 104
0.327679 -0.38399 -0.629 188 203 234
0.3654 -0.3846 -0.63 97 103 125
0.3666 -0.3846 -0.63 61 68 97
0.387614 -0.38521 -0.631 90 112 159
0.399 -0.3846 -0.63 144 148 175
0.4158 -0.3846 -0.63 129 137 174
0.462132 -0.38521 -0.631 158 158 170
0.4674 -0.3846 -0.63 72 80 116
0.4686 -0.3846 -0.63 56 73 116
0.5022 -0.3846 -0.63 163 162 178
0.5058 -0.3846 -0.63 80 101 144
0.474085 -0.322942 -0.529 172 122 97
0.487043 -0.314395 -0.515 179 125 99
0.488024 -0.314395 -0.515 177 123 97
0.495888 -0.313785 -0.514 176 125 98
0.0509524 -0.262099 -0.428 193 148 127
0.0749857 -0.266386 -0.435 142 98 95
0.318785 -0.384575 -0.628 144 174 226
0.321177 -0.384575 -0.628 118 149 193
0.325962 -0.384575 -0.628 163 178 209
0.3546 -0.3858 -0.63 168 176 199
0.379201 -0.386412 -0.631 94 113 156
0.397169 -0.385188 -0.629 164 168 195
0.411546 -0.385188 -0.629 99 110 140
0.417536 -0.385188 -0.629 151 162 192
0.431913 -0.385188 -0.629 143 147 159
0.4542 -0.3858 -0.63 132 148 174
0.469054 -0.385188 -0.629 46 65 107
0.47145 -0.385188 -0.629 87 104 147
0.491818 -0.385188 -0.629 159 164 194
0.503799 -0.385188 -0.629 86 97 129
0.528471 -0.383963 -0.627 153 154 182
0.4743 -0.322725 -0.527 170 120 95
0.478895 -0.318438 -0.52 185 131 105
0.490013 -0.314764 -0.514 178 124 98
0.0303124 -0.267829 -0.436 192 151 131
0.0446381 -0.264143 -0.43 196 151 130
0.0461686 -0.263529 -0.429 199 154 133
0.0897705 -0.277043 -0.451 98 76 79
0.102258 -0.290557 -0.473 87 75 79
0.393574 -0.386386 -0.629 170 172 195
0.39597 -0.386386 -0.629 170 174 201
0.398367 -0.386386 -0.629 148 150 175
0.410891 -0.385771 -0.628 82 99 129
0.425246 -0.385771 -0.628 138 147 180
0.47429 -0.385771 -0.628 120 136 172
0.476682 -0.385771 -0.628 51 73 123
0.50979 -0.386386 -0.629 115 136 181
0.513384 -0.386386 -0.629 98 115 158
0.516978 -0.386386 -0.629 129 138 167
0.475514 -0.328029 -0.534 160 113 93
0.475092 -0.324957 -0.529 171 121 96
0.492969 -0.315129 -0.513 177 123 97
0.497846 -0.315743 -0.514 172 122 97
0.499804 -0.315743 -0.514 170 122 99
0.513562 -0.319429 -0.52 160 115 94
0.530494 -0.326186 -0.531 153 112 90
0.0494371 -0.264346 -0.429 194 149 128
0.0749857 -0.268043 -0.435 136 96 94
0.302751 -0.386351 -0.627 182 189 215
0.307529 -0.386351 -0.627 168 169 187
0.312306 -0.386351 -0.627 147 162 205
0.3135 -0.386351 -0.627 143 158 201
0.319471 -0.386351 -0.627 152 177 218
0.326637 -0.386351 -0.627 185 200 231
0.342709 -0.386968 -0.628 151 150 164
0.360028 -0.387584 -0.629 160 166 190
0.38998 -0.387584 -0.629 160 174 209
0.427638 -0.386968 -0.628 163 169 183
0.450366 -0.386968 -0.628 73 100 147
0.451562 -0.386968 -0.628 103 119 152
0.492232 -0.386968 -0.628 152 157 177
0.501802 -0.386968 -0.628 154 160 184
0.508979 -0.386968 -0.628 109 130 175
0.475304 -0.324732 -0.527 170 120 97
0.502741 -0.316722 -0.514 160 114 90
0.509614 -0.31857 -0.517 161 116 93
0.0294143 -0.268871 -0.435 195 153 131
0.0373533 -0.266399 -0.431 203 156 136
0.0461686 -0.265163 -0.429 200 155 134
0.0642952 -0.265781 -0.43 165 119 106
0.0751581 -0.26949 -0.436 133 93 93
0.0780057 -0.270726 -0.438 124 90 89
0.0914333 -0.281233 -0.455 96 73 81
0.297499 -0.386928 -0.626 211 217 241
0.304653 -0.386928 -0.626 218 219 240
0.359455 -0.388164 -0.628 133 139 173
0.394145 -0.388164 -0.628 175 178 197
0.403071 -0.387546 -0.627 38 60 117
0.436011 -0.388164 -0.628 117 115 126
0.461131 -0.388164 -0.628 170 174 186
0.469951 -0.387546 -0.627 152 163 185
0.494625 -0.388164 -0.628 152 155 174
0.501802 -0.388164 -0.628 153 160 179
0.513764 -0.388164 -0.628 96 114 150
0.531548 -0.38631 -0.625 184 183 199
0.475639 -0.329445 -0.533 166 118 95
0.481157 -0.318319 -0.515 175 121 97
0.482138 -0.318319 -0.515 177 125 103
0.499809 -0.317083 -0.513 171 123 100
0.50372 -0.317701 -0.514 164 116 93
0.526498 -0.325736 -0.527 154 112 96
0.0270524 -0.27094 -0.437 196 149 129
0.03168 -0.26784 -0.432 199 151 131
0.0364476 -0.2666 -0.43 202 155 135
0.0429 -0.26598 -0.429 198 150 130
0.0705171 -0.26846 -0.433 152 104 100
0.0931114 -0.28458 -0.459 93 72 79
0.322539 -0.38812 -0.626 109 137 185
0.331414 -0.38874 -0.627 196 202 228
0.340316 -0.38936 -0.628 129 138 167
0.366632 -0.38936 -0.628 175 182 201
0.382791 -0.38998 -0.629 106 134 182
0.386968 -0.38936 -0.628 83 113 165
0.396537 -0.38936 -0.628 137 143 159
0.400683 -0.38874 -0.627 122 123 144
0.424569 -0.38874 -0.627 117 126 159
0.440094 -0.38874 -0.627 80 98 146
0.442483 -0.38874 -0.627 102 130 177
0.444871 -0.38874 -0.627 107 132 173
0.474729 -0.38874 -0.627 138 142 167
0.498614 -0.38874 -0.627 135 133 147
0.511751 -0.38874 -0.627 83 105 152
0.523694 -0.38874 -0.627 115 122 150
0.475304 -0.32674 -0.527 169 121 99
0.479027 -0.32116 -0.518 173 119 95
0.480176 -0.3193 -0.515 170 116 92
0.481157 -0.3193 -0.515 162 108 84
0.485151 -0.31806 -0.513 178 126 102
0.487106 -0.31806 -0.513 174 122 98
0.496884 -0.31744 -0.512 177 125 104
0.0248362 -0.274882 -0.442 199 154 133
0.0364476 -0.267419 -0.43 202 155 135
0.0633286 -0.266797 -0.429 165 119 103
0.0781838 -0.273016 -0.439 118 87 84
0.0824571 -0.276126 -0.444 109 83 82
0.08576 -0.278613 -0.448 105 79 80
0.100244 -0.293539 -0.472 96 80 81
0.340969 -0.389934 -0.627 94 107 142
0.357689 -0.389934 -0.627 109 127 167
0.383379 -0.390556 -0.628 93 120 167
0.386351 -0.389934 -0.627 81 113 164
0.391129 -0.389934 -0.627 172 176 201
0.470394 -0.389312 -0.626 173 170 191
0.520474 -0.389312 -0.626 151 154 171
0.475877 -0.330231 -0.531 165 117 95
0.4761 -0.328988 -0.529 172 121 100
0.493958 -0.318415 -0.512 173 122 101
0.507643 -0.320281 -0.515 166 119 101
0.520509 -0.324634 -0.522 158 113 94
0.0437171 -0.267614 -0.429 199 152 132
0.0445343 -0.267614 -0.429 197 150 130
0.0576086 -0.267614 -0.429 177 130 114
0.0608771 -0.267614 -0.429 173 127 111
0.0687086 -0.269486 -0.432 150 107 98
0.0965133 -0.291319 -0.467 95 74 73
0.324405 -0.389881 -0.625 132 146 183
0.379186 -0.391129 -0.627 97 115 165
0.385157 -0.391129 -0.627 69 101 152
0.394082 -0.390505 -0.626 127 130 145
0.44297 -0.390505 -0.626 109 132 174
0.445833 -0.389881 -0.625 102 126 170
0.451316 -0.390505 -0.626 146 160 189
0.452509 -0.390505 -0.626 146 160 189
0.457278 -0.390505 -0.626 167 167 179
0.482738 -0.389881 -0.625 167 170 189
0.487088 -0.390505 -0.626 169 170 188
0.48828 -0.390505 -0.626 169 170 188
0.496627 -0.390505 -0.626 112 114 135
0.505357 -0.389881 -0.625 78 101 145
0.514512 -0.390505 -0.626 132 147 180
0.479076 -0.33561 -0.538 158 116 100
0.477549 -0.333114 -0.534 160 113 93
0.47676 -0.325629 -0.522 152 101 82
0.485151 -0.320014 -0.513 176 121 101
0.49981 -0.31939 -0.512 168 120 98
0.0364476 -0.269057 -0.43 203 155 135
0.0437171 -0.268431 -0.429 198 151 131
0.0493219 -0.267806 -0.428 191 143 123
0.0608771 -0.268431 -0.429 172 125 109
