ply
format ascii 1.0
comment Created by Open3D
element vertex 1289
property double x
property double y
property double z
property uchar red
property uchar green
property uchar blue
end_header
0.449812 -0.404424 -0.611 168 172 183
0.476194 -0.405086 -0.612 79 95 144
0.510657 -0.403762 -0.61 134 142 163
0.51678 -0.4031 -0.609 162 165 172
0.525196 -0.402438 -0.608 73 97 143
0.479411 -0.348162 -0.526 166 120 97
0.484233 -0.338233 -0.511 166 118 98
0.49488 -0.3336 -0.504 171 126 97
0.00598571 -0.278136 -0.419 201 153 131
0.00676762 -0.277472 -0.418 202 154 132
0.0487314 -0.276145 -0.416 170 122 102
0.0736657 -0.290085 -0.437 99 74 77
0.227152 -0.404924 -0.61 225 228 247
0.266657 -0.404924 -0.61 213 214 232
0.281762 -0.404924 -0.61 204 206 221
0.301514 -0.404924 -0.61 178 196 220
0.310155 -0.405588 -0.611 108 147 206
0.318302 -0.405588 -0.611 156 176 209
0.36312 -0.406251 -0.612 130 125 132
0.383475 -0.405588 -0.611 166 174 197
0.389294 -0.405588 -0.611 149 150 171
0.395113 -0.405588 -0.611 156 164 187
0.397441 -0.405588 -0.611 133 141 164
0.405588 -0.405588 -0.611 137 143 167
0.469597 -0.405588 -0.611 60 81 128
0.478908 -0.405588 -0.611 61 81 132
0.50634 -0.40426 -0.609 75 99 137
0.526354 -0.403596 -0.608 65 87 137
0.492014 -0.335224 -0.505 176 130 104
0.50064 -0.33456 -0.504 167 121 98
0.51038 -0.336551 -0.507 161 116 95
0.00518762 -0.278934 -0.419 195 155 130
0.00832 -0.276937 -0.416 200 155 132
0.0176571 -0.274274 -0.412 201 155 131
0.0279267 -0.27494 -0.413 193 145 123
0.0554676 -0.278934 -0.419 151 108 92
0.0645086 -0.283594 -0.426 118 84 82
0.07602 -0.29358 -0.441 94 74 75
0.2059 -0.40542 -0.609 231 234 251
0.20938 -0.40542 -0.609 231 233 248
0.2117 -0.40542 -0.609 214 216 231
0.28362 -0.40542 -0.609 206 209 224
0.29522 -0.40542 -0.609 105 115 151
0.2987 -0.40542 -0.609 189 194 214
0.32359 -0.406086 -0.61 154 168 194
0.33521 -0.406086 -0.61 119 121 133
0.348561 -0.406751 -0.611 181 183 198
0.388657 -0.406086 -0.61 173 166 182
0.393305 -0.406086 -0.61 62 75 107
0.415381 -0.406086 -0.61 94 110 146
0.42119 -0.406086 -0.61 177 177 189
0.453724 -0.406086 -0.61 161 161 173
0.484727 -0.406751 -0.611 160 166 178
0.489382 -0.406751 -0.611 110 110 112
0.487203 -0.337517 -0.507 176 130 106
0.525259 -0.342177 -0.514 154 109 88
0.0153029 -0.275059 -0.412 196 152 127
0.0160876 -0.275059 -0.412 198 154 129
0.0207457 -0.274391 -0.411 196 150 126
0.03186 -0.275727 -0.413 191 143 120
0.0471467 -0.27773 -0.416 173 122 103
0.06466 -0.285073 -0.427 117 83 84
0.204404 -0.405912 -0.608 227 232 252
0.213669 -0.405912 -0.608 221 223 238
0.227566 -0.405912 -0.608 226 229 248
0.239147 -0.405912 -0.608 190 210 243
0.254202 -0.405912 -0.608 216 223 251
0.26622 -0.40658 -0.609 213 209 232
0.27434 -0.40658 -0.609 202 209 217
0.3161 -0.40658 -0.609 131 149 185
0.3219 -0.40658 -0.609 188 189 209
0.34799 -0.407248 -0.61 170 175 195
0.367743 -0.407248 -0.61 112 123 151
0.381686 -0.407248 -0.61 170 178 199
0.42514 -0.40658 -0.609 137 139 152
0.43558 -0.40658 -0.609 88 110 159
0.45182 -0.40658 -0.609 169 169 179
0.474638 -0.407248 -0.61 29 58 114
0.506667 -0.405912 -0.608 70 91 136
0.493054 -0.366523 -0.549 154 115 98
0.48793 -0.361182 -0.541 159 118 100
0.482181 -0.343156 -0.514 167 121 98
0.491052 -0.337148 -0.505 173 127 103
0.507405 -0.337148 -0.505 161 116 95
0.516225 -0.33915 -0.508 156 114 92
0.00201429 -0.283209 -0.423 193 152 130
0.00280667 -0.28187 -0.421 197 155 131
0.00359143 -0.28053 -0.419 198 156 132
0.0207457 -0.275174 -0.411 193 147 123
0.0255048 -0.275844 -0.412 187 141 117
0.0262895 -0.275844 -0.412 189 143 119
0.0374571 -0.277183 -0.414 184 133 112
0.0398229 -0.277183 -0.414 180 129 108
0.0471467 -0.278522 -0.416 168 117 98
0.0495238 -0.278522 -0.416 164 116 96
0.0675714 -0.287895 -0.43 108 79 81
0.0789333 -0.299947 -0.448 91 71 73
0.207878 -0.40707 -0.608 231 235 247
0.278522 -0.40707 -0.608 204 203 217
0.280838 -0.40707 -0.608 205 206 227
0.283154 -0.40707 -0.608 203 208 227
0.28547 -0.40707 -0.608 197 203 215
0.299368 -0.40707 -0.608 160 160 172
0.30914 -0.40774 -0.609 127 158 202
0.32074 -0.40774 -0.609 189 190 211
0.32832 -0.40707 -0.608 84 100 134
0.38222 -0.40774 -0.609 174 181 200
0.423284 -0.40707 -0.608 166 168 180
0.43139 -0.40707 -0.608 82 111 155
0.433707 -0.40707 -0.608 88 116 166
0.44138 -0.40774 -0.609 76 104 154
0.4495 -0.40774 -0.609 173 173 183
0.45066 -0.40774 -0.609 167 167 179
0.503192 -0.40707 -0.608 56 96 158
0.505833 -0.406401 -0.607 81 100 142
0.504437 -0.33677 -0.503 161 115 92
0.517192 -0.340118 -0.508 157 115 93
0.532264 -0.346144 -0.517 149 108 88
0.00749143 -0.277971 -0.414 199 157 132
0.0168314 -0.275957 -0.411 201 155 132
0.0382457 -0.277971 -0.414 184 133 112
0.205224 -0.407557 -0.607 227 233 247
0.246847 -0.407557 -0.607 140 169 213
0.251471 -0.407557 -0.607 183 199 235
0.253044 -0.408229 -0.608 206 210 237
0.277364 -0.408229 -0.608 173 175 188
0.306316 -0.408229 -0.608 110 138 185
0.32253 -0.408229 -0.608 189 194 216
0.39266 -0.4089 -0.609 100 120 153
0.427916 -0.408229 -0.608 87 110 154
0.429074 -0.408229 -0.608 85 108 152
0.486257 -0.409571 -0.61 161 162 192
0.4959 -0.4089 -0.609 77 106 166
0.518851 -0.406886 -0.606 70 89 132
0.526062 -0.406214 -0.605 34 59 113
0.520038 -0.392114 -0.584 134 113 118
0.481157 -0.345786 -0.515 169 122 102
0.495751 -0.336386 -0.501 168 122 98
0.51816 -0.341086 -0.508 159 114 91
0.0511086 -0.280107 -0.416 155 108 88
0.0656267 -0.288187 -0.428 109 81 78
0.0677286 -0.290207 -0.431 102 76 75
0.0731667 -0.295593 -0.439 93 72 71
0.08208 -0.30704 -0.456 91 66 70
0.14442 -0.41006 -0.609 233 234 252
0.148815 -0.409387 -0.608 218 220 235
0.150883 -0.408713 -0.607 237 239 251
0.236441 -0.408713 -0.607 170 171 189
0.253784 -0.408713 -0.607 210 214 239
0.259565 -0.408713 -0.607 141 154 189
0.266502 -0.408713 -0.607 208 213 242
0.271127 -0.408713 -0.607 203 205 218
0.283845 -0.408713 -0.607 190 191 211
0.290303 -0.40804 -0.606 143 161 185
0.306969 -0.408713 -0.607 133 160 203
0.321999 -0.408713 -0.607 185 190 210
0.33411 -0.409387 -0.608 137 152 185
0.337585 -0.409387 -0.608 171 185 222
0.3451 -0.41006 -0.609 161 180 213
0.34858 -0.41006 -0.609 106 125 168
0.367695 -0.409387 -0.608 86 104 140
0.377496 -0.408713 -0.607 81 108 153
0.388541 -0.409387 -0.608 172 170 181
0.404754 -0.409387 -0.608 57 86 144
0.41981 -0.409387 -0.608 176 175 183
0.445711 -0.408713 -0.607 143 159 192
0.477714 -0.409387 -0.608 150 160 187
0.493928 -0.409387 -0.608 72 94 141
0.529794 -0.406693 -0.604 38 58 109
0.530066 -0.40602 -0.603 42 62 113
0.488961 -0.364273 -0.541 160 117 98
0.486216 -0.342727 -0.509 169 121 99
0.487186 -0.342727 -0.509 164 116 94
-0.000402857 -0.285626 -0.423 195 153 129
0.0105943 -0.278198 -0.412 197 152 129
0.0113514 -0.277523 -0.411 198 153 130
0.0214762 -0.276848 -0.41 191 143 121
0.0230943 -0.277523 -0.411 193 142 121
0.0335143 -0.279549 -0.414 183 137 113
0.0350914 -0.279549 -0.414 182 134 111
0.0414 -0.279549 -0.414 172 124 102
0.043081 -0.280224 -0.415 170 119 98
0.0478238 -0.280224 -0.415 164 113 94
0.0573362 -0.284275 -0.421 129 92 86
0.14442 -0.41122 -0.609 238 240 253
0.1479 -0.41122 -0.609 234 233 249
0.200269 -0.409194 -0.606 225 230 250
0.25452 -0.409194 -0.606 211 214 231
0.26997 -0.40987 -0.607 199 201 216
0.301846 -0.409194 -0.606 88 109 152
0.31275 -0.40987 -0.607 114 147 188
0.330703 -0.409194 -0.606 72 99 146
0.332405 -0.40987 -0.607 71 98 145
0.344533 -0.410545 -0.608 144 171 218
0.34685 -0.410545 -0.608 104 130 181
0.351482 -0.410545 -0.608 75 95 148
0.363063 -0.410545 -0.608 175 181 195
0.368247 -0.40987 -0.607 86 106 141
0.37634 -0.40987 -0.607 81 109 156
0.383277 -0.40987 -0.607 116 125 134
0.392527 -0.40987 -0.607 111 125 151
0.416807 -0.40987 -0.607 168 175 185
0.436462 -0.40987 -0.607 50 84 145
0.43993 -0.40987 -0.607 80 108 156
0.441514 -0.409194 -0.606 79 101 148
0.489295 -0.410545 -0.608 142 149 168
0.507624 -0.408519 -0.605 60 83 133
0.525192 -0.407844 -0.604 30 56 107
0.530333 -0.406493 -0.602 37 62 116
0.481157 -0.347748 -0.515 171 124 106
0.493872 -0.33897 -0.502 174 126 104
0.49766 -0.338294 -0.501 171 123 101
0.501522 -0.33897 -0.502 168 120 98
0.503434 -0.33897 -0.502 162 116 93
0.507311 -0.339645 -0.503 166 120 97
0.00276667 -0.281014 -0.415 194 152 128
0.0199143 -0.277629 -0.41 194 146 124
0.0230943 -0.278306 -0.411 192 141 120
0.027859 -0.278983 -0.412 186 135 114
0.0438714 -0.281014 -0.415 167 119 97
0.0446619 -0.281014 -0.415 165 117 95
0.0648114 -0.289817 -0.428 110 79 74
0.0711686 -0.295911 -0.437 100 74 73
0.147657 -0.411703 -0.608 239 241 254
0.209157 -0.409671 -0.605 211 213 226
0.21031 -0.409671 -0.605 184 186 199
0.23451 -0.409671 -0.605 218 223 245
0.242576 -0.409671 -0.605 149 169 206
0.259137 -0.410349 -0.606 199 203 228
0.2626 -0.410349 -0.606 134 143 176
0.293281 -0.409671 -0.605 198 198 222
0.299043 -0.409671 -0.605 161 167 193
0.333011 -0.410349 -0.606 71 101 155
0.353216 -0.411026 -0.607 172 180 199
0.363622 -0.411026 -0.607 142 151 168
0.401776 -0.411026 -0.607 37 67 127
0.45652 -0.410349 -0.606 133 142 171
0.457674 -0.410349 -0.606 119 142 176
0.462291 -0.410349 -0.606 33 67 128
0.480397 -0.411026 -0.607 66 82 116
0.515989 -0.408994 -0.604 109 117 138
0.521741 -0.408994 -0.604 91 109 149
0.527493 -0.408994 -0.604 25 52 107
0.48222 -0.347374 -0.513 171 124 104
0.484277 -0.344666 -0.509 171 125 102
0.487206 -0.342634 -0.506 175 127 105
-0.00201905 -0.287916 -0.424 193 156 130
0.0105686 -0.279089 -0.411 194 149 126
0.0144476 -0.27841 -0.41 195 150 127
0.0454524 -0.281805 -0.415 167 115 101
0.0471467 -0.282484 -0.416 161 112 95
0.047939 -0.282484 -0.416 160 111 94
0.0495238 -0.282484 -0.416 157 110 92
0.0565343 -0.285879 -0.421 129 91 82
0.0619286 -0.288595 -0.425 116 83 78
0.0628857 -0.289274 -0.426 114 81 76
0.0701752 -0.296065 -0.436 101 76 71
0.143025 -0.412861 -0.608 238 242 251
0.268371 -0.411503 -0.606 157 166 199
0.286367 -0.410824 -0.605 128 146 192
0.323243 -0.410824 -0.605 190 193 208
0.338783 -0.411503 -0.606 87 120 187
0.36764 -0.411503 -0.606 88 111 155
0.396497 -0.411503 -0.606 61 91 141
0.435743 -0.411503 -0.606 32 73 139
0.448852 -0.410824 -0.605 161 168 186
0.451157 -0.410824 -0.605 127 129 150
0.460376 -0.410824 -0.605 35 67 116
0.462681 -0.410824 -0.605 18 48 108
0.474989 -0.411503 -0.606 38 65 118
0.477297 -0.411503 -0.606 48 76 124
0.480397 -0.412182 -0.607 54 73 113
0.494611 -0.411503 -0.606 29 62 115
0.50071 -0.410824 -0.605 23 65 125
0.503014 -0.410824 -0.605 42 78 138
0.51054 -0.409466 -0.603 147 153 169
0.511689 -0.409466 -0.603 162 163 184
0.523174 -0.409466 -0.603 92 110 146
0.524323 -0.409466 -0.603 54 84 136
0.529187 -0.408787 -0.602 34 55 102
0.490897 -0.368044 -0.542 161 118 102
0.481658 -0.355142 -0.523 164 121 102
0.48326 -0.346993 -0.511 171 124 104
0.489108 -0.341561 -0.503 177 129 107
0.500523 -0.340203 -0.501 170 122 99
0.507259 -0.340882 -0.502 166 118 96
0.516062 -0.342919 -0.505 167 121 98
0.522998 -0.344956 -0.508 155 109 86
0.00432667 -0.281233 -0.413 197 155 131
0.00745524 -0.280552 -0.412 195 151 126
0.0198657 -0.27851 -0.409 191 143 120
0.0350914 -0.281914 -0.414 182 134 111
0.0374571 -0.281914 -0.414 180 132 109
0.0763733 -0.305067 -0.448 95 71 71
0.200758 -0.411295 -0.604 224 230 254
0.239119 -0.411976 -0.605 139 150 178
0.264471 -0.411976 -0.605 168 179 209
0.27369 -0.411976 -0.605 183 201 239
0.277148 -0.411976 -0.605 162 176 213
0.297398 -0.411295 -0.604 188 189 210
0.309414 -0.411976 -0.605 108 136 183
0.315176 -0.411976 -0.605 102 129 172
0.32501 -0.411295 -0.604 126 130 139
0.32616 -0.411295 -0.604 171 175 184
0.37971 -0.411976 -0.605 132 153 196
0.397651 -0.412657 -0.606 49 85 145
0.415433 -0.411976 -0.605 132 146 173
0.468443 -0.411976 -0.605 24 54 114
0.490338 -0.411976 -0.605 74 99 140
0.49149 -0.411976 -0.605 57 82 123
0.502183 -0.411295 -0.604 51 91 152
0.505634 -0.411295 -0.604 58 85 138
0.52662 -0.410614 -0.603 24 54 104
0.485261 -0.345924 -0.508 168 120 100
0.487203 -0.345243 -0.507 174 126 106
0.491004 -0.341838 -0.502 180 133 113
0.49098 -0.341157 -0.501 181 134 114
0.501477 -0.341157 -0.501 169 123 99
0.51504 -0.3432 -0.504 165 118 98
-0.00039619 -0.284069 -0.416 198 156 132
0.00432667 -0.28202 -0.413 196 154 129
0.00822 -0.280654 -0.411 193 149 124
0.0121048 -0.279971 -0.41 200 156 131
0.0136667 -0.279971 -0.41 198 152 128
0.0214762 -0.279971 -0.41 191 144 118
0.0287133 -0.28202 -0.413 191 143 120
0.039919 -0.283386 -0.415 177 126 105
0.0487314 -0.284069 -0.416 157 110 94
0.0504371 -0.284751 -0.417 151 105 89
0.0673733 -0.29636 -0.434 105 76 70
0.14279 -0.414494 -0.607 242 245 250
0.203059 -0.412446 -0.604 199 206 234
0.292311 -0.411763 -0.603 197 202 221
0.305957 -0.413129 -0.605 88 121 164
0.311719 -0.413129 -0.605 109 142 195
0.318107 -0.412446 -0.604 185 191 205
0.328461 -0.412446 -0.604 176 179 194
0.332462 -0.413129 -0.605 82 113 167
0.334767 -0.413129 -0.605 30 67 137
0.342246 -0.413811 -0.606 34 73 138
0.35148 -0.413811 -0.606 163 179 212
0.358967 -0.413129 -0.605 182 187 207
0.383684 -0.412446 -0.604 167 171 196
0.40391 -0.413129 -0.605 14 53 118
0.44811 -0.412446 -0.604 108 113 132
0.49643 -0.412446 -0.604 36 72 132
0.499882 -0.412446 -0.604 25 67 127
0.518867 -0.41108 -0.602 149 147 160
0.52116 -0.41108 -0.602 93 116 148
0.524323 -0.411763 -0.603 53 87 133
0.491022 -0.369426 -0.541 157 113 102
0.481929 -0.354403 -0.519 169 124 105
0.493843 -0.342111 -0.501 164 117 91
0.53407 -0.350989 -0.514 152 110 88
0.00431619 -0.282122 -0.412 195 153 128
0.0113238 -0.280752 -0.41 201 157 132
0.0254429 -0.281437 -0.411 190 143 117
0.0262895 -0.282122 -0.412 193 145 122
0.0391286 -0.284176 -0.415 177 126 105
0.0422905 -0.284176 -0.415 174 123 102
0.070819 -0.301295 -0.44 95 70 73
0.208466 -0.412911 -0.603 206 220 246
0.242175 -0.413596 -0.604 162 181 213
0.269787 -0.413596 -0.604 96 122 171
0.282653 -0.412227 -0.602 68 103 161
0.305451 -0.413596 -0.604 96 134 181
0.31758 -0.412911 -0.603 183 190 206
0.349748 -0.414281 -0.605 164 178 207
0.3509 -0.414281 -0.605 168 182 211
0.369878 -0.413596 -0.604 52 84 143
0.390587 -0.413596 -0.604 97 116 146
0.434305 -0.413596 -0.604 15 56 122
0.438907 -0.413596 -0.604 26 67 121
0.441208 -0.413596 -0.604 50 81 135
0.450814 -0.412911 -0.603 109 118 151
0.468819 -0.413596 -0.604 23 49 110
0.498731 -0.413596 -0.604 27 69 129
0.501351 -0.412911 -0.603 38 82 145
0.516573 -0.412227 -0.602 161 160 165
0.518867 -0.412227 -0.602 131 141 150
0.488167 -0.345805 -0.505 173 126 106
0.490048 -0.34375 -0.502 178 130 110
0.49766 -0.343066 -0.501 168 120 98
0.498571 -0.342381 -0.5 167 119 97
0.500476 -0.342381 -0.5 166 118 98
0.00898095 -0.281533 -0.41 194 150 125
0.0105429 -0.281533 -0.41 199 155 130
0.027859 -0.282907 -0.412 187 139 116
0.0529467 -0.287027 -0.418 142 98 87
0.0538714 -0.287713 -0.419 141 97 86
0.142554 -0.41612 -0.606 237 242 255
0.260151 -0.41406 -0.603 212 211 225
0.280826 -0.41406 -0.603 60 95 153
0.281507 -0.413373 -0.602 89 123 171
0.379603 -0.41406 -0.603 103 127 173
0.383049 -0.41406 -0.603 128 137 154
0.385346 -0.41406 -0.603 115 114 122
0.416357 -0.41406 -0.603 60 82 119
0.439329 -0.41406 -0.603 50 90 152
0.450814 -0.41406 -0.603 143 144 149
0.501351 -0.41406 -0.603 49 81 138
0.52116 -0.413373 -0.602 57 81 117
0.5246 -0.413373 -0.602 40 67 112
0.528308 -0.412687 -0.601 64 87 137
0.482793 -0.357753 -0.521 169 126 107
0.483074 -0.35432 -0.516 170 125 106
0.483119 -0.353633 -0.515 169 124 105
0.487206 -0.347453 -0.506 175 128 108
0.503333 -0.343333 -0.5 167 119 97
0.514018 -0.345393 -0.503 164 117 97
0.00741905 -0.282314 -0.41 186 142 115
0.0206952 -0.282314 -0.41 190 144 120
0.0374571 -0.285069 -0.414 175 127 105
0.0557324 -0.289889 -0.421 132 94 85
0.0565343 -0.289889 -0.421 129 92 86
0.0634762 -0.296086 -0.43 106 78 77
0.0736486 -0.307791 -0.447 90 69 74
0.140246 -0.417274 -0.606 232 235 252
0.205827 -0.41452 -0.602 183 198 231
0.20812 -0.41452 -0.602 193 213 248
0.236787 -0.41452 -0.602 138 154 188
0.260151 -0.415209 -0.603 200 199 215
0.2613 -0.415209 -0.603 200 199 215
0.26316 -0.41452 -0.602 163 165 186
0.278067 -0.41452 -0.602 60 93 162
0.291342 -0.413831 -0.601 196 202 228
0.301 -0.41452 -0.602 101 131 183
0.334809 -0.415209 -0.603 36 73 143
0.341116 -0.415897 -0.604 19 61 135
0.356072 -0.415897 -0.604 166 173 201
0.361825 -0.415897 -0.604 113 128 159
0.392237 -0.415209 -0.603 41 74 128
0.420253 -0.41452 -0.602 162 165 180
0.44204 -0.41452 -0.602 87 128 184
0.450067 -0.41452 -0.602 107 108 113
0.453507 -0.41452 -0.602 162 164 176
0.460003 -0.415209 -0.603 39 75 133
0.460387 -0.41452 -0.602 18 54 112
0.474934 -0.415209 -0.603 121 136 159
0.484123 -0.415209 -0.603 161 165 177
0.48642 -0.415209 -0.603 156 162 178
0.50052 -0.41452 -0.602 56 87 141
0.506557 -0.413831 -0.601 138 155 183
0.511136 -0.413831 -0.601 156 153 162
0.492889 -0.344974 -0.501 175 127 107
0.502381 -0.344286 -0.5 167 119 97
-0.00602857 -0.291381 -0.422 193 149 120
-0.00521238 -0.29069 -0.421 193 152 124
-0.00197619 -0.286548 -0.415 199 157 132
0.00274667 -0.284476 -0.412 197 153 126
0.0097381 -0.282405 -0.409 198 152 126
0.0254429 -0.283786 -0.411 191 145 121
0.0454524 -0.286548 -0.415 169 118 99
0.0636238 -0.297595 -0.431 105 77 76
0.0645943 -0.298286 -0.432 100 74 73
0.0713019 -0.305881 -0.443 92 72 74
0.23908 -0.415667 -0.602 149 169 204
0.268893 -0.415667 -0.602 83 111 158
0.305587 -0.415667 -0.602 67 102 166
0.306733 -0.415667 -0.602 54 89 153
0.317671 -0.414976 -0.601 179 187 210
0.329119 -0.414976 -0.601 118 139 182
0.3354 -0.415667 -0.602 28 68 137
0.348591 -0.416357 -0.603 60 95 149
0.360077 -0.416357 -0.603 89 106 134
0.37324 -0.415667 -0.602 22 67 132
0.384707 -0.415667 -0.602 150 153 168
0.39732 -0.415667 -0.602 20 59 128
0.413373 -0.415667 -0.602 141 156 179
0.467267 -0.415667 -0.602 22 54 113
0.474147 -0.415667 -0.602 92 102 127
0.475293 -0.415667 -0.602 125 128 147
0.522857 -0.414286 -0.6 69 94 134
0.487822 -0.368024 -0.533 161 118 101
0.485207 -0.352833 -0.511 171 124 104
0.485229 -0.352143 -0.51 171 124 104
0.498525 -0.344548 -0.499 167 119 97
0.00274 -0.284569 -0.411 196 155 127
0.0190867 -0.283184 -0.409 189 143 117
0.0222571 -0.283876 -0.41 191 145 121
0.0230381 -0.283876 -0.41 189 143 119
0.0277914 -0.284569 -0.411 185 137 114
0.03588 -0.286646 -0.414 169 121 99
0.0391286 -0.287338 -0.415 173 122 103
0.308513 -0.416121 -0.601 59 106 176
0.309658 -0.416121 -0.601 72 116 177
0.311948 -0.416121 -0.601 86 122 184
0.325685 -0.416121 -0.601 90 103 138
0.34228 -0.416813 -0.602 16 66 137
0.346867 -0.416813 -0.602 42 75 142
0.3526 -0.416813 -0.602 64 89 145
0.38012 -0.416813 -0.602 138 154 188
0.39666 -0.416121 -0.601 18 57 122
0.40076 -0.416813 -0.602 23 59 119
0.411542 -0.416121 -0.601 161 166 185
0.417266 -0.416121 -0.601 169 172 181
0.44245 -0.416121 -0.601 139 146 164
0.449319 -0.416121 -0.601 172 172 182
0.453507 -0.416813 -0.602 121 121 131
0.463056 -0.416121 -0.601 44 74 136
0.464201 -0.416121 -0.601 64 94 156
0.481027 -0.416813 -0.602 158 165 175
0.483662 -0.416121 -0.601 158 161 176
0.487096 -0.416121 -0.601 146 152 174
0.496254 -0.416121 -0.601 90 120 170
0.506857 -0.415429 -0.6 159 159 169
0.508 -0.415429 -0.6 161 161 171
0.512571 -0.415429 -0.6 163 161 162
0.513714 -0.415429 -0.6 159 158 164
0.521714 -0.415429 -0.6 69 91 130
0.508095 -0.34619 -0.5 167 119 96
0.0066219 -0.283963 -0.409 194 153 121
0.0190867 -0.283963 -0.409 190 144 118
0.0447695 -0.288823 -0.416 166 115 96
0.078419 -0.319371 -0.46 85 70 75
0.250857 -0.416571 -0.6 176 201 242
0.261578 -0.417266 -0.601 203 205 228
0.273026 -0.417266 -0.601 50 85 153
0.277605 -0.417266 -0.601 49 87 160
0.309143 -0.416571 -0.6 46 89 157
0.317143 -0.416571 -0.6 100 117 145
0.324 -0.416571 -0.6 78 92 118
0.333698 -0.417266 -0.601 20 60 129
0.352014 -0.417266 -0.601 113 129 165
0.365751 -0.417266 -0.601 56 98 158
0.446286 -0.416571 -0.6 159 169 171
0.493965 -0.417266 -0.601 83 110 153
0.512571 -0.416571 -0.6 158 156 159
0.524268 -0.415877 -0.599 112 132 159
0.530477 -0.414489 -0.597 124 132 151
0.487095 -0.367971 -0.53 153 114 99
0.490066 -0.349226 -0.503 173 126 106
0.49381 -0.347143 -0.5 171 123 100
0.495673 -0.346449 -0.499 166 118 96
0.513883 -0.347837 -0.501 165 119 95
0.520725 -0.349226 -0.503 163 118 95
-0.00354 -0.287527 -0.413 197 156 126
0.00117429 -0.286134 -0.411 196 155 125
0.00274 -0.286134 -0.411 196 155 123
0.00507619 -0.285438 -0.41 201 158 126
0.0159705 -0.284742 -0.409 188 142 116
0.0270743 -0.28683 -0.412 183 136 110
0.0522752 -0.291704 -0.419 136 93 84
0.0683048 -0.306324 -0.44 95 75 76
0.229902 -0.417018 -0.599 216 218 239
0.236 -0.417714 -0.6 140 163 204
0.237143 -0.417714 -0.6 140 163 204
0.246696 -0.41841 -0.601 135 162 209
0.258857 -0.417714 -0.6 204 207 224
0.290372 -0.417018 -0.599 183 194 216
0.311429 -0.417714 -0.6 47 86 155
0.321714 -0.417714 -0.6 126 133 159
0.332 -0.417714 -0.6 32 69 137
0.336571 -0.417714 -0.6 20 62 134
0.342286 -0.417714 -0.6 23 66 134
0.361172 -0.41841 -0.601 135 149 184
0.364607 -0.41841 -0.601 54 95 159
0.368041 -0.41841 -0.601 38 86 150
0.410172 -0.417018 -0.599 138 139 159
0.415877 -0.417018 -0.599 165 169 181
0.426857 -0.417714 -0.6 73 108 166
0.453143 -0.417714 -0.6 103 109 121
0.460374 -0.417018 -0.599 70 96 145
0.466857 -0.417714 -0.6 93 111 157
0.468 -0.417714 -0.6 81 99 145
0.469143 -0.417714 -0.6 62 82 115
0.477938 -0.41841 -0.601 142 153 173
0.479429 -0.417714 -0.6 162 164 179
0.503429 -0.417714 -0.6 73 101 140
0.511717 -0.417018 -0.599 161 160 165
0.516281 -0.417018 -0.599 100 103 120
0.524268 -0.417018 -0.599 112 124 146
0.483906 -0.361323 -0.519 168 122 106
0.486237 -0.352969 -0.507 168 123 102
0.48816 -0.35088 -0.504 173 126 106
0.499475 -0.347399 -0.499 170 122 99
0.532753 -0.354361 -0.509 149 112 85
-0.0084 -0.2932 -0.42 183 141 116
-0.00673524 -0.290408 -0.416 181 141 115
-0.00432667 -0.288313 -0.413 196 155 127
-0.000391429 -0.286917 -0.411 197 156 128
0.00584286 -0.285521 -0.409 202 158 129
0.0167086 -0.284823 -0.408 189 143 117
0.0222571 -0.286219 -0.41 191 144 118
0.0357933 -0.288313 -0.413 176 125 104
0.0541286 -0.293898 -0.421 129 90 83
0.0608771 -0.299483 -0.429 100 76 74
0.0640667 -0.302973 -0.434 98 74 72
0.0748019 -0.316935 -0.454 88 69 73
0.244 -0.418857 -0.6 112 143 198
0.247429 -0.418857 -0.6 127 155 203
0.283527 -0.418159 -0.599 77 109 166
0.2995 -0.418159 -0.599 69 102 155
0.321178 -0.418159 -0.599 173 181 204
0.364 -0.418857 -0.6 52 91 156
0.375429 -0.418857 -0.6 59 100 164
0.426857 -0.418857 -0.6 67 98 153
0.461515 -0.418159 -0.599 104 127 171
0.477143 -0.418857 -0.6 138 153 176
0.512858 -0.418159 -0.599 151 150 166
0.523392 -0.417461 -0.598 135 142 161
0.497767 -0.380462 -0.545 153 114 99
0.486216 -0.35533 -0.509 167 120 102
0.48816 -0.35184 -0.504 175 128 108
0.48815 -0.351142 -0.503 176 129 109
0.491004 -0.350444 -0.502 168 122 99
0.510952 -0.349048 -0.5 169 121 98
0.526643 -0.352538 -0.505 162 116 93
-0.0101429 -0.2982 -0.426 191 149 124
-0.00752762 -0.2912 -0.416 182 142 116
0.00195238 -0.287 -0.41 197 153 126
0.05992 -0.2996 -0.428 101 76 71
0.0663257 -0.3066 -0.438 95 74 73
0.13451 -0.4207 -0.601 154 168 195
0.138173 -0.4214 -0.602 141 161 198
0.210154 -0.4186 -0.598 91 119 182
0.220406 -0.4186 -0.598 201 210 239
0.234466 -0.4193 -0.599 127 154 199
0.250439 -0.4193 -0.599 153 181 229
0.253862 -0.4193 -0.599 190 201 223
0.268694 -0.4193 -0.599 43 85 159
0.270976 -0.4193 -0.599 49 82 161
0.273258 -0.4193 -0.599 48 81 158
0.27554 -0.4193 -0.599 51 82 165
0.304064 -0.4193 -0.599 36 79 148
0.348561 -0.4193 -0.599 174 179 199
0.356 -0.42 -0.6 142 145 150
0.379367 -0.4193 -0.599 171 179 198
0.405609 -0.4193 -0.599 43 75 126
0.409488 -0.4186 -0.598 85 94 109
0.4186 -0.4186 -0.598 166 172 184
0.421582 -0.4193 -0.599 162 172 182
0.445542 -0.4193 -0.599 166 170 179
0.460745 -0.4186 -0.598 135 154 194
0.496885 -0.4193 -0.599 117 135 171
0.517343 -0.399 -0.57 145 111 101
0.492506 -0.3759 -0.537 150 112 99
0.499475 -0.3493 -0.499 166 118 95
0.512857 -0.35 -0.5 166 119 93
0.519609 -0.3507 -0.501 162 116 92
0.534692 -0.3563 -0.509 154 114 89
-0.00915619 -0.293396 -0.418 189 152 126
0.00428476 -0.287079 -0.409 200 157 125
0.0159314 -0.286377 -0.408 192 147 118
0.0350067 -0.289887 -0.413 175 124 103
0.0366686 -0.290589 -0.414 176 126 103
0.0374571 -0.290589 -0.414 175 125 102
0.0551914 -0.296906 -0.423 121 86 82
0.0642143 -0.305329 -0.435 96 75 72
0.221545 -0.419739 -0.598 181 195 222
0.229518 -0.419739 -0.598 185 194 223
0.247016 -0.420441 -0.599 95 135 194
0.265271 -0.420441 -0.599 90 113 155
0.266412 -0.420441 -0.599 67 97 149
0.27508 -0.419739 -0.598 53 86 153
0.276219 -0.419739 -0.598 47 80 147
0.300139 -0.419739 -0.598 74 110 172
0.309251 -0.419739 -0.598 61 109 173
0.326337 -0.419739 -0.598 163 179 204
0.353125 -0.420441 -0.599 155 151 152
0.361111 -0.420441 -0.599 86 99 116
0.391917 -0.420441 -0.599 63 85 122
0.396958 -0.419739 -0.598 57 83 132
0.400375 -0.419739 -0.598 72 106 151
0.401514 -0.419739 -0.598 68 106 151
0.428428 -0.420441 -0.599 93 126 171
0.433408 -0.419739 -0.598 110 133 183
0.435686 -0.419739 -0.598 69 97 147
0.45581 -0.420441 -0.599 64 80 106
0.494916 -0.419739 -0.598 104 126 167
0.507446 -0.419739 -0.598 161 155 165
0.517697 -0.419739 -0.598 154 160 176
0.525929 -0.419037 -0.597 141 143 156
0.486156 -0.359375 -0.512 169 121 101
0.4862 -0.357971 -0.51 171 124 104
0.487196 -0.356568 -0.508 170 123 105
0.489108 -0.353058 -0.503 173 125 105
0.491934 -0.351654 -0.501 172 124 102
0.50993 -0.35025 -0.499 169 119 92
0.520563 -0.351654 -0.501 157 111 85
0.523514 -0.352356 -0.502 157 111 85
-0.00668667 -0.290673 -0.413 191 154 127
0.00349714 -0.287154 -0.408 201 158 126
0.0489657 -0.294192 -0.418 141 98 89
0.0580171 -0.299823 -0.426 109 80 76
0.139767 -0.421582 -0.599 124 146 196
0.216989 -0.420878 -0.598 135 157 207
0.22686 -0.420174 -0.597 192 198 220
0.247743 -0.420878 -0.598 81 121 180
0.275757 -0.420174 -0.597 50 83 152
0.293951 -0.420174 -0.597 130 142 154
0.296226 -0.420174 -0.597 106 134 181
0.305834 -0.420878 -0.598 37 83 160
0.31153 -0.420878 -0.598 61 104 173
0.32238 -0.420174 -0.597 178 185 203
0.323517 -0.420174 -0.597 177 186 203
0.325791 -0.420174 -0.597 161 177 202
0.326929 -0.420174 -0.597 144 160 185
0.332032 -0.420878 -0.598 53 82 138
0.338867 -0.420878 -0.598 23 62 127
0.352535 -0.420878 -0.598 123 121 122
0.355952 -0.420878 -0.598 180 184 187
0.357091 -0.420878 -0.598 179 183 195
0.35823 -0.420878 -0.598 172 176 188
0.37076 -0.420878 -0.598 64 103 158
0.376455 -0.420878 -0.598 156 163 182
0.391263 -0.420878 -0.598 63 86 120
0.434547 -0.420878 -0.598 89 113 159
0.441381 -0.420878 -0.598 161 167 181
0.445937 -0.420878 -0.598 163 165 177
0.447076 -0.420878 -0.598 164 164 172
0.47783 -0.420878 -0.598 138 154 169
0.480109 -0.420878 -0.598 152 158 180
0.497194 -0.420878 -0.598 91 115 149
0.509724 -0.420878 -0.598 150 153 170
0.48817 -0.356128 -0.506 171 125 102
0.496624 -0.351201 -0.499 171 125 101
0.510881 -0.351201 -0.499 172 122 97
0.514683 -0.351201 -0.499 165 118 92
0.515633 -0.351201 -0.499 163 116 90
-0.00909048 -0.292871 -0.415 194 154 129
-0.00667048 -0.290754 -0.412 193 153 127
0.0489657 -0.294989 -0.418 139 96 87
0.0730724 -0.320394 -0.454 88 69 71
0.223449 -0.421311 -0.597 136 153 181
0.285991 -0.421311 -0.597 193 200 216
0.296226 -0.421311 -0.597 104 135 179
0.297363 -0.421311 -0.597 88 119 163
0.324654 -0.421311 -0.597 165 172 188
0.326929 -0.421311 -0.597 111 126 155
0.329203 -0.421311 -0.597 64 89 130
0.354813 -0.422017 -0.598 181 186 192
0.367343 -0.422017 -0.598 88 121 172
0.37014 -0.421311 -0.597 78 114 164
0.386707 -0.422017 -0.598 130 139 154
0.390124 -0.422017 -0.598 55 78 112
0.43382 -0.421311 -0.597 89 110 155
0.450877 -0.421311 -0.597 98 110 134
0.453151 -0.421311 -0.597 122 134 158
0.464523 -0.421311 -0.597 135 143 164
0.486703 -0.368383 -0.522 168 123 104
0.486062 -0.363443 -0.515 171 122 105
0.486216 -0.359209 -0.509 171 124 104
0.487186 -0.359209 -0.509 169 122 102
0.48817 -0.357091 -0.506 172 125 105
0.489129 -0.356386 -0.505 163 117 94
0.492857 -0.352857 -0.5 169 123 100
0.494723 -0.352151 -0.499 170 124 101
0.495629 -0.351446 -0.498 170 122 100
0.512703 -0.351446 -0.498 161 115 89
0.522471 -0.353563 -0.501 158 114 89
-0.0106971 -0.29437 -0.416 193 149 124
0.00116571 -0.288709 -0.408 195 154 126
0.00581429 -0.288001 -0.407 196 152 123
0.0222029 -0.289416 -0.409 186 139 111
0.0406114 -0.292954 -0.414 165 119 96
0.0624133 -0.307107 -0.434 96 76 75
0.219669 -0.421741 -0.596 118 145 190
0.22875 -0.421741 -0.596 166 174 197
0.23482 -0.422449 -0.597 92 128 186
0.275295 -0.421741 -0.596 48 85 155
0.285512 -0.421741 -0.596 191 199 220
0.287783 -0.421741 -0.596 194 199 218
0.290053 -0.421741 -0.596 180 182 194
0.304186 -0.422449 -0.597 47 93 155
0.311009 -0.422449 -0.597 70 110 172
0.339437 -0.422449 -0.597 63 103 152
0.37014 -0.422449 -0.597 99 132 177
0.370655 -0.421741 -0.596 86 118 165
0.44104 -0.421741 -0.596 159 164 183
0.451257 -0.421741 -0.596 122 136 162
0.452392 -0.421741 -0.596 147 158 180
0.461474 -0.421741 -0.596 93 101 120
0.46261 -0.421741 -0.596 97 105 124
0.499774 -0.422449 -0.597 71 90 132
0.502049 -0.422449 -0.597 101 115 144
0.503186 -0.422449 -0.597 130 144 173
0.488429 -0.372208 -0.526 161 120 102
0.486763 -0.36867 -0.521 165 122 105
0.485933 -0.366547 -0.518 166 121 102
0.486062 -0.364424 -0.515 169 122 104
0.486129 -0.363009 -0.513 171 124 106
0.490026 -0.354517 -0.501 173 127 104
0.497526 -0.352394 -0.498 165 117 95
0.512703 -0.352394 -0.498 165 119 95
0.521429 -0.35381 -0.5 159 117 92
0.535489 -0.358763 -0.507 147 109 88
-0.00822 -0.291614 -0.411 193 154 125
-0.000388571 -0.289486 -0.408 197 153 126
0.00736476 -0.288776 -0.407 197 154 122
0.0174857 -0.289486 -0.408 189 144 115
0.0277914 -0.291614 -0.411 180 130 107
0.0563943 -0.302257 -0.426 109 80 76
0.05734 -0.302967 -0.427 104 79 75
0.1393 -0.423586 -0.597 115 142 195
0.232156 -0.422876 -0.596 116 144 192
0.25259 -0.422876 -0.596 197 208 226
0.267797 -0.423586 -0.597 71 102 157
0.278701 -0.422876 -0.596 109 142 196
0.2805 -0.422167 -0.595 165 178 212
0.311623 -0.422876 -0.596 96 128 179
0.313893 -0.422876 -0.596 185 190 209
0.316164 -0.422876 -0.596 184 194 206
0.336598 -0.422876 -0.596 65 88 120
0.34568 -0.422876 -0.596 56 88 145
0.355357 -0.423586 -0.597 176 180 191
0.381511 -0.423586 -0.597 172 175 190
0.383786 -0.423586 -0.597 168 173 192
0.400633 -0.422167 -0.595 148 153 175
0.4097 -0.422167 -0.595 103 117 144
0.4131 -0.422167 -0.595 155 166 186
0.44104 -0.422876 -0.596 156 163 181
0.518236 -0.422876 -0.596 151 149 154
0.5219 -0.422167 -0.595 149 152 161
0.5328 -0.420038 -0.592 139 137 142
0.490048 -0.356181 -0.502 170 124 101
0.49 -0.354762 -0.5 173 126 106
0.492857 -0.354762 -0.5 170 122 102
0.503217 -0.353343 -0.498 176 126 103
-0.0122819 -0.295954 -0.416 191 152 121
-0.00428476 -0.290974 -0.409 195 154 122
0.01044 -0.28884 -0.406 191 151 116
0.0151171 -0.289551 -0.407 191 148 116
0.0174429 -0.289551 -0.407 187 143 114
0.025381 -0.291686 -0.41 179 132 106
0.03014 -0.292397 -0.411 177 126 105
0.0341371 -0.293109 -0.412 172 119 103
0.0398229 -0.294531 -0.414 163 116 96
0.0438714 -0.295243 -0.415 148 102 89
0.0481695 -0.297377 -0.418 135 95 85
0.05358 -0.300934 -0.423 120 85 81
0.0584257 -0.305203 -0.429 99 75 73
0.0638229 -0.311606 -0.438 93 72 69
0.0750771 -0.327969 -0.461 88 69 73
0.078 -0.332949 -0.468 88 72 75
0.2193 -0.4233 -0.595 200 207 233
0.245779 -0.424011 -0.596 105 141 193
0.249185 -0.424011 -0.596 191 211 246
0.3145 -0.4233 -0.595 186 192 208
0.315633 -0.4233 -0.595 181 193 207
0.320167 -0.4233 -0.595 183 188 207
0.355897 -0.424011 -0.596 178 181 188
0.36725 -0.424011 -0.596 118 145 188
0.384923 -0.424723 -0.597 161 173 195
0.391567 -0.4233 -0.595 139 152 169
0.3961 -0.4233 -0.595 121 133 149
0.400633 -0.4233 -0.595 160 165 185
0.405167 -0.4233 -0.595 133 145 167
0.417633 -0.4233 -0.595 156 164 183
0.422167 -0.4233 -0.595 108 122 148
0.435767 -0.4233 -0.595 95 119 155
0.4403 -0.4233 -0.595 154 163 180
0.466367 -0.4233 -0.595 152 159 175
0.476567 -0.4233 -0.595 61 75 101
0.483367 -0.4233 -0.595 151 159 182
0.530074 -0.422589 -0.594 147 142 149
0.492898 -0.379191 -0.533 153 116 97
0.487171 -0.362829 -0.51 166 119 101
0.488167 -0.359271 -0.505 167 120 100
0.522287 -0.355003 -0.499 167 118 88
0.525238 -0.355714 -0.5 157 115 91
-0.00898095 -0.292467 -0.41 194 155 124
-0.00116286 -0.290327 -0.407 196 157 126
0.00270667 -0.289613 -0.406 198 157 125
0.0058 -0.289613 -0.406 196 155 125
0.0143419 -0.290327 -0.407 191 148 116
0.0285743 -0.29318 -0.411 179 129 106
0.0333524 -0.293893 -0.412 176 124 103
0.043081 -0.296033 -0.415 151 104 94
0.0447695 -0.296747 -0.416 146 99 93
0.0545143 -0.302453 -0.424 113 82 77
0.0628448 -0.311727 -0.437 95 73 75
0.0673857 -0.317433 -0.445 92 70 72
0.0738771 -0.32742 -0.459 89 69 71
0.133838 -0.426573 -0.598 151 167 201
0.238166 -0.42372 -0.594 76 118 176
0.2635 -0.424433 -0.595 116 138 177
0.285686 -0.42372 -0.594 180 184 187
0.323023 -0.42372 -0.594 143 157 184
0.337731 -0.42372 -0.594 162 182 209
0.346233 -0.424433 -0.595 80 95 124
0.3485 -0.424433 -0.595 170 177 193
0.3519 -0.424433 -0.595 182 178 195
0.422589 -0.42372 -0.594 92 111 144
0.4709 -0.424433 -0.595 154 160 172
0.489033 -0.424433 -0.595 102 121 163
0.4913 -0.424433 -0.595 61 89 137
0.4981 -0.424433 -0.595 63 82 125
0.5083 -0.424433 -0.595 82 93 121
0.506395 -0.393047 -0.551 144 118 105
0.490286 -0.37664 -0.528 156 119 100
0.492822 -0.355953 -0.499 169 121 99
0.494723 -0.355953 -0.499 172 124 101
0.505047 -0.354527 -0.497 173 126 98
0.518394 -0.35524 -0.498 163 117 91
-0.00895905 -0.292532 -0.409 196 155 125
0.0135333 -0.290387 -0.406 193 148 119
0.0269429 -0.293248 -0.41 183 133 110
0.0277238 -0.293248 -0.41 180 130 107
0.0406114 -0.296109 -0.414 159 112 94
0.135661 -0.426282 -0.596 118 141 185
0.200829 -0.424851 -0.594 101 129 192
0.211011 -0.424851 -0.594 88 117 173
0.215537 -0.424851 -0.594 180 196 232
0.23364 -0.424851 -0.594 122 161 216
0.235903 -0.424851 -0.594 108 145 197
0.262367 -0.425567 -0.595 95 118 160
0.276634 -0.424851 -0.594 79 109 159
0.278897 -0.424851 -0.594 62 91 147
0.293606 -0.424851 -0.594 186 193 199
0.310577 -0.424851 -0.594 122 147 187
0.316234 -0.424851 -0.594 176 186 198
0.319629 -0.424851 -0.594 180 187 206
0.363233 -0.425567 -0.595 92 114 164
0.371674 -0.424851 -0.594 109 135 170
0.381367 -0.425567 -0.595 151 155 180
0.424851 -0.424851 -0.594 65 88 130
0.496131 -0.424851 -0.594 40 70 120
0.510567 -0.425567 -0.595 132 142 167
0.523534 -0.424136 -0.593 122 121 129
0.487006 -0.369063 -0.516 172 124 101
0.487076 -0.367632 -0.514 169 123 100
0.510644 -0.354758 -0.496 169 124 95
0.512533 -0.354758 -0.496 168 122 96
0.52124 -0.356189 -0.498 164 119 90
0.522189 -0.356189 -0.498 164 119 90
0.531164 -0.35905 -0.502 155 111 84
-0.0113514 -0.294746 -0.411 187 148 119
-0.00582857 -0.292594 -0.408 198 157 127
-0.0019381 -0.291877 -0.407 197 156 126
0.00889333 -0.29116 -0.406 195 151 122
0.0151171 -0.291877 -0.407 191 146 117
0.0333524 -0.295463 -0.412 173 123 100
0.0381533 -0.29618 -0.413 165 116 99
0.0414 -0.296897 -0.414 152 106 93
0.043081 -0.297614 -0.415 147 100 90
0.0537067 -0.304069 -0.424 110 81 75
0.135433 -0.4267 -0.595 126 149 191
0.205009 -0.425266 -0.593 117 140 194
0.237765 -0.425266 -0.593 93 128 182
0.240024 -0.425266 -0.593 107 145 192
0.248349 -0.425983 -0.594 193 209 242
0.259226 -0.425266 -0.593 144 161 191
0.264189 -0.425983 -0.594 82 115 166
0.267583 -0.425983 -0.594 132 160 208
0.280687 -0.425266 -0.593 111 139 189
0.285205 -0.425266 -0.593 155 158 173
0.289723 -0.425266 -0.593 193 194 199
0.291982 -0.425266 -0.593 191 195 207
0.310577 -0.425983 -0.594 143 159 192
0.32022 -0.425266 -0.593 182 189 215
0.324738 -0.425266 -0.593 118 137 167
0.334337 -0.425983 -0.594 125 140 161
0.335469 -0.425983 -0.594 121 136 157
0.358097 -0.425983 -0.594 161 166 188
0.372178 -0.425266 -0.593 128 149 180
0.373937 -0.425983 -0.594 167 178 196
0.381857 -0.425983 -0.594 76 87 117
0.397028 -0.425266 -0.593 160 172 184
0.476094 -0.425266 -0.593 130 139 154
0.494167 -0.425266 -0.593 52 82 134
0.506314 -0.425983 -0.594 88 94 128
0.523516 -0.410206 -0.572 132 108 106
0.490066 -0.360723 -0.503 170 124 101
-0.0105171 -0.29409 -0.409 193 154 125
-0.00736476 -0.292652 -0.407 196 155 125
-0.00503905 -0.292652 -0.407 199 158 128
0.00889333 -0.291933 -0.406 193 149 120
0.0119867 -0.291933 -0.406 190 147 115
0.0325676 -0.296248 -0.412 171 120 99
0.03894 -0.296967 -0.413 159 111 91
0.0620124 -0.314224 -0.437 91 70 69
0.218563 -0.426395 -0.593 213 219 243
0.221951 -0.426395 -0.593 211 217 233
0.232117 -0.426395 -0.593 115 146 193
0.244542 -0.426395 -0.593 116 144 191
0.260355 -0.426395 -0.593 101 120 152
0.27278 -0.426395 -0.593 117 136 166
0.289723 -0.426395 -0.593 193 192 198
0.301638 -0.425676 -0.592 138 170 211
0.315702 -0.426395 -0.593 182 189 205
0.36653 -0.426395 -0.593 85 113 160
0.369919 -0.426395 -0.593 78 105 148
0.396358 -0.425676 -0.592 170 179 194
0.407193 -0.426395 -0.593 163 170 180
0.408323 -0.426395 -0.593 163 171 184
0.46176 -0.425676 -0.592 156 159 168
0.489649 -0.426395 -0.593 28 56 104
0.493037 -0.426395 -0.593 39 67 115
0.498685 -0.426395 -0.593 62 89 132
0.502073 -0.426395 -0.593 52 75 116
0.487171 -0.366714 -0.51 171 124 104
0.488169 -0.364557 -0.507 170 124 101
0.490048 -0.360962 -0.502 173 125 102
0.49 -0.359524 -0.5 170 122 99
0.500313 -0.357367 -0.497 173 127 101
0.506865 -0.356648 -0.496 165 119 93
0.50781 -0.356648 -0.496 167 121 95
-0.0128857 -0.29559 -0.41 190 151 120
-0.00116 -0.292707 -0.406 193 152 122
0.02454 -0.29487 -0.409 181 134 106
0.025381 -0.29559 -0.41 180 133 107
0.0398229 -0.298474 -0.414 158 112 89
0.0492 -0.3028 -0.42 123 86 78
0.0588343 -0.311451 -0.432 92 71 70
0.0706333 -0.328033 -0.455 87 65 67
0.0777676 -0.34029 -0.472 90 70 72
0.206918 -0.426804 -0.592 140 161 208
0.210301 -0.426804 -0.592 94 122 172
0.218194 -0.426804 -0.592 204 214 241
0.239619 -0.426804 -0.592 149 182 225
0.310659 -0.426804 -0.592 171 186 219
0.356365 -0.427525 -0.593 170 176 198
0.359753 -0.427525 -0.593 117 131 158
0.36766 -0.427525 -0.593 79 107 155
0.369295 -0.426804 -0.592 80 107 152
0.388465 -0.426804 -0.592 175 182 188
0.404251 -0.426804 -0.592 175 184 191
0.415528 -0.426804 -0.592 79 100 131
0.417783 -0.426804 -0.592 157 169 195
0.429784 -0.427525 -0.593 59 91 140
0.462888 -0.426804 -0.592 141 140 148
0.48995 -0.426804 -0.592 25 53 101
0.493333 -0.426804 -0.592 24 54 106
0.498685 -0.427525 -0.593 36 64 111
0.503203 -0.427525 -0.593 48 65 108
0.514498 -0.427525 -0.593 145 146 151
0.520146 -0.427525 -0.593 104 106 119
0.521524 -0.426804 -0.592 114 117 132
0.523779 -0.426804 -0.592 89 94 114
0.526034 -0.426804 -0.592 83 89 111
0.531 -0.425362 -0.59 109 110 114
0.499473 -0.388593 -0.539 150 118 105
0.489686 -0.376337 -0.522 165 123 101
0.487203 -0.365523 -0.507 170 124 101
0.488167 -0.364081 -0.505 169 123 100
0.490066 -0.362639 -0.503 170 122 99
0.49098 -0.361197 -0.501 171 123 100
0.492822 -0.359755 -0.499 170 124 100
0.502207 -0.358313 -0.497 174 127 101
0.515368 -0.357592 -0.496 169 119 92
0.517257 -0.357592 -0.496 169 119 92
0.532969 -0.361197 -0.501 157 113 88
0.542249 -0.365523 -0.507 151 109 85
-0.0058 -0.29348 -0.406 197 156 128
-0.00115714 -0.292757 -0.405 191 147 118
0.0269429 -0.296371 -0.41 179 131 108
0.0292857 -0.296371 -0.41 176 128 105
0.0317057 -0.297094 -0.411 169 118 97
0.0373667 -0.29854 -0.413 163 115 92
0.03894 -0.29854 -0.413 157 111 85
0.0406114 -0.299263 -0.414 153 108 85
0.0722857 -0.332514 -0.46 88 68 69
0.0842943 -0.353477 -0.489 90 71 73
0.0875667 -0.35926 -0.497 87 74 81
0.09108 -0.365766 -0.506 82 78 92
0.0944781 -0.371549 -0.514 134 156 205
0.221577 -0.427931 -0.592 213 210 219
0.229083 -0.427209 -0.591 182 188 204
0.231726 -0.427931 -0.592 117 142 182
0.264427 -0.427931 -0.592 149 174 214
0.273448 -0.427931 -0.592 157 168 190
0.275703 -0.427931 -0.592 152 163 191
0.283596 -0.427931 -0.592 183 190 209
0.284724 -0.427931 -0.592 183 190 209
0.286979 -0.427931 -0.592 193 196 213
0.32419 -0.427931 -0.592 176 182 208
0.369295 -0.427931 -0.592 96 123 170
0.378316 -0.427931 -0.592 80 91 121
0.383954 -0.427931 -0.592 172 181 198
0.402443 -0.427209 -0.591 158 163 167
0.408071 -0.427209 -0.591 167 175 186
0.4137 -0.427209 -0.591 92 109 139
0.429059 -0.427931 -0.592 48 80 129
0.449356 -0.427931 -0.592 150 154 163
0.462106 -0.427209 -0.591 147 150 159
0.46886 -0.427209 -0.591 152 159 167
0.469986 -0.427209 -0.591 150 157 165
0.471111 -0.427209 -0.591 155 157 169
0.481243 -0.427209 -0.591 65 83 121
0.482369 -0.427209 -0.591 46 64 102
0.519016 -0.428654 -0.593 127 129 142
0.522651 -0.427931 -0.592 106 111 131
0.511263 -0.400463 -0.554 136 109 100
0.487186 -0.367934 -0.509 169 124 101
0.493772 -0.360706 -0.499 174 126 103
0.50781 -0.358537 -0.496 172 123 93
0.511589 -0.358537 -0.496 170 121 91
-0.00889333 -0.294253 -0.406 195 152 120
-0.00812 -0.294253 -0.406 196 153 121
0.0277238 -0.297152 -0.41 173 125 103
0.0309229 -0.297877 -0.411 172 121 100
0.0448771 -0.302226 -0.417 137 94 85
0.0510419 -0.30585 -0.422 112 78 69
0.0549 -0.309473 -0.427 103 76 69
0.100069 -0.382674 -0.528 131 167 215
0.223454 -0.428334 -0.591 194 189 195
0.247094 -0.428334 -0.591 206 214 233
0.252723 -0.428334 -0.591 202 208 224
0.260603 -0.428334 -0.591 152 173 204
0.272986 -0.428334 -0.591 177 187 212
0.301743 -0.42761 -0.59 107 135 182
0.307883 -0.428334 -0.591 126 149 190
0.313511 -0.428334 -0.591 176 184 205
0.314637 -0.428334 -0.591 176 184 205
0.368671 -0.428334 -0.591 109 137 185
0.385557 -0.428334 -0.591 176 182 194
0.386683 -0.428334 -0.591 181 187 199
0.420454 -0.428334 -0.591 100 123 167
0.448597 -0.428334 -0.591 140 143 148
0.457603 -0.428334 -0.591 129 138 155
0.46886 -0.428334 -0.591 138 145 153
0.472237 -0.428334 -0.591 157 157 169
0.475614 -0.428334 -0.591 136 140 151
0.490249 -0.428334 -0.591 21 53 102
0.506009 -0.428334 -0.591 140 147 157
0.514498 -0.429784 -0.593 142 143 148
0.52402 -0.428334 -0.591 74 79 98
0.532344 -0.426885 -0.589 95 93 96
0.489108 -0.364555 -0.503 172 126 102
0.493772 -0.361656 -0.499 172 124 101
0.493731 -0.360931 -0.498 173 126 100
0.497526 -0.360931 -0.498 178 131 105
0.509614 -0.358757 -0.495 171 122 92
-0.0152657 -0.29866 -0.411 192 151 121
-0.0027 -0.2943 -0.405 172 127 94
-0.00192857 -0.2943 -0.405 180 135 102
0.00732857 -0.2943 -0.405 189 143 117
0.01508 -0.295027 -0.406 189 143 119
0.0182181 -0.295753 -0.407 183 137 113
0.0341371 -0.299387 -0.412 169 117 93
0.0357067 -0.299387 -0.412 166 118 96
0.0406114 -0.30084 -0.414 149 103 87
0.0422905 -0.301567 -0.415 144 101 85
0.050119 -0.305927 -0.421 117 80 71
0.0602095 -0.316827 -0.436 94 69 64
0.09144 -0.369147 -0.508 131 127 152
0.104013 -0.390947 -0.538 140 184 229
0.205443 -0.42946 -0.591 114 133 166
0.217457 -0.428733 -0.59 201 216 245
0.251171 -0.428733 -0.59 202 207 226
0.300619 -0.428733 -0.59 106 138 189
0.35066 -0.42946 -0.591 83 104 135
0.363552 -0.428733 -0.59 85 113 163
0.376551 -0.42946 -0.591 87 103 136
0.383306 -0.42946 -0.591 178 184 198
0.391648 -0.428733 -0.59 175 179 190
0.449723 -0.42946 -0.591 92 93 97
0.47481 -0.428733 -0.59 136 139 148
0.486871 -0.42946 -0.591 39 67 117
0.490249 -0.42946 -0.591 23 55 106
0.491374 -0.42946 -0.591 19 51 102
0.509386 -0.42946 -0.591 136 134 137
0.519517 -0.42946 -0.591 140 142 157
0.527629 -0.428733 -0.59 136 132 146
0.488143 -0.3706 -0.51 168 122 99
0.490026 -0.36406 -0.501 171 125 99
0.491905 -0.363333 -0.5 175 128 102
0.49468 -0.36188 -0.498 174 127 101
0.506786 -0.3597 -0.495 176 126 99
0.52576 -0.360427 -0.496 162 115 89
0.532742 -0.362607 -0.499 149 107 82
0.535831 -0.36406 -0.501 148 106 81
-0.0144124 -0.297986 -0.409 193 152 124
0.00887143 -0.295071 -0.405 194 148 122
0.0104143 -0.295071 -0.405 193 148 119
0.0111857 -0.295071 -0.405 195 150 121
0.023761 -0.297986 -0.409 179 132 104
0.02454 -0.297986 -0.409 177 130 102
0.0285048 -0.298714 -0.41 170 122 100
0.0502381 -0.307457 -0.422 112 82 72
0.05828 -0.3162 -0.434 95 70 65
0.0675848 -0.329314 -0.452 89 65 65
0.102606 -0.390514 -0.536 154 185 231
0.2242 -0.429857 -0.59 215 213 227
0.229819 -0.429857 -0.59 165 188 219
0.253419 -0.429857 -0.59 174 184 209
0.265106 -0.430586 -0.591 202 210 231
0.290505 -0.429857 -0.59 185 193 212
0.316352 -0.429857 -0.59 85 105 142
0.335457 -0.429857 -0.59 166 171 177
0.338829 -0.429857 -0.59 173 177 189
0.348943 -0.429857 -0.59 130 145 168
0.350067 -0.429857 -0.59 104 121 151
0.35681 -0.429857 -0.59 139 157 195
0.371419 -0.429857 -0.59 135 159 195
0.379929 -0.430586 -0.591 165 178 197
0.40401 -0.429857 -0.59 135 139 142
0.406257 -0.429857 -0.59 177 180 185
0.407812 -0.429129 -0.589 174 178 189
0.447838 -0.429857 -0.59 113 114 116
0.461324 -0.429857 -0.59 102 110 129
0.465819 -0.429857 -0.59 117 120 129
0.466943 -0.429857 -0.59 115 118 127
0.484924 -0.429857 -0.59 36 64 112
0.510511 -0.430586 -0.591 150 149 157
0.519517 -0.430586 -0.591 142 144 156
0.532772 -0.427671 -0.587 118 117 115
0.488155 -0.370843 -0.509 173 125 102
0.49468 -0.362829 -0.498 175 128 100
0.50403 -0.361371 -0.496 177 128 98
0.507729 -0.360643 -0.495 176 129 103
-0.0187552 -0.30607 -0.419 192 152 117
-0.0168724 -0.300956 -0.412 191 150 122
-0.0143771 -0.298034 -0.408 193 152 124
-0.0119867 -0.296573 -0.406 193 152 122
-0.00346286 -0.295112 -0.404 185 140 111
0.00269333 -0.295112 -0.404 198 153 124
0.0050019 -0.295112 -0.404 193 146 118
0.01508 -0.296573 -0.406 189 142 116
0.0166267 -0.296573 -0.406 186 139 111
0.0182181 -0.297304 -0.407 184 137 109
0.025381 -0.299495 -0.41 173 127 101
0.0595152 -0.319218 -0.437 94 69 65
0.0805 -0.35282 -0.483 91 71 72
0.230551 -0.43025 -0.589 129 152 184
0.25299 -0.43025 -0.589 138 152 178
0.255233 -0.43025 -0.589 91 111 138
0.273648 -0.430981 -0.59 201 202 223
0.275895 -0.430981 -0.59 197 200 219
0.289381 -0.430981 -0.59 174 188 217
0.368546 -0.43025 -0.589 102 129 174
0.375914 -0.430981 -0.59 132 152 189
0.38874 -0.43025 -0.589 157 160 165
0.414544 -0.43025 -0.589 118 127 166
0.41791 -0.43025 -0.589 59 77 125
0.429129 -0.43025 -0.589 33 64 111
0.436982 -0.43025 -0.589 29 60 107
0.48298 -0.43025 -0.589 51 78 121
0.504029 -0.430981 -0.59 48 62 89
0.511895 -0.430981 -0.59 148 147 155
0.52449 -0.43025 -0.589 133 137 148
0.498824 -0.390805 -0.535 142 115 104
0.491674 -0.381309 -0.522 163 121 99
0.489034 -0.375465 -0.514 176 127 97
0.48906 -0.374734 -0.513 172 124 101
0.493772 -0.364508 -0.499 167 121 95
0.502141 -0.362316 -0.496 170 123 95
0.510467 -0.360855 -0.494 171 124 98
0.517053 -0.360855 -0.494 171 124 98
-0.0151543 -0.298811 -0.408 193 154 123
0.00269333 -0.295882 -0.404 196 151 122
0.00731048 -0.295882 -0.404 192 147 118
0.0166267 -0.297347 -0.406 184 137 107
0.0221486 -0.298811 -0.408 183 138 107
0.0229819 -0.299544 -0.409 182 137 106
0.0390343 -0.303206 -0.414 153 107 91
0.0503571 -0.309797 -0.423 112 79 72
0.0574533 -0.317853 -0.434 99 71 68
0.0971286 -0.383035 -0.523 175 196 227
0.126643 -0.432837 -0.591 216 228 242
0.22382 -0.431372 -0.589 207 216 233
0.22943 -0.431372 -0.589 159 175 208
0.24808 -0.43064 -0.588 199 206 225
0.25256 -0.43064 -0.588 104 125 156
0.266452 -0.431372 -0.589 199 206 222
0.310207 -0.431372 -0.589 179 193 219
0.332645 -0.431372 -0.589 138 141 146
0.34723 -0.431372 -0.589 167 171 182
0.385374 -0.431372 -0.589 170 174 177
0.41944 -0.43064 -0.588 45 78 131
0.42616 -0.43064 -0.588 32 59 114
0.466151 -0.431372 -0.589 148 154 166
0.474005 -0.431372 -0.589 149 149 161
0.494199 -0.431372 -0.589 35 67 108
0.51639 -0.432105 -0.59 148 147 161
0.521125 -0.431372 -0.589 143 143 155
0.516153 -0.407936 -0.557 132 112 103
0.509786 -0.402077 -0.549 135 115 106
0.489129 -0.369852 -0.505 169 123 99
0.499367 -0.363993 -0.497 176 129 103
0.511408 -0.361796 -0.494 171 124 98
0.531553 -0.363993 -0.497 153 113 88
0.616 -0.410133 -0.56 197 188 179
-0.0193667 -0.304729 -0.415 195 154 124
-0.0159314 -0.299589 -0.408 192 153 122
-0.00731048 -0.296651 -0.404 200 157 123
-0.00577143 -0.296651 -0.404 198 155 121
-0.00192381 -0.296651 -0.404 196 153 119
-0.00115429 -0.296651 -0.404 194 151 117
0.00423238 -0.296651 -0.404 192 149 117
0.00961905 -0.296651 -0.404 189 144 113
0.0213714 -0.299589 -0.408 180 137 105
0.0221486 -0.299589 -0.408 181 137 108
0.0309229 -0.301791 -0.411 168 119 102
0.0382457 -0.303994 -0.414 153 108 89
0.05434 -0.315009 -0.429 99 71 70
0.0762914 -0.348051 -0.474 89 69 70
0.0808333 -0.356129 -0.485 91 71 72
