ply
format ascii 1.0
comment Created by Open3D
element vertex 1282
property double x
property double y
property double z
property uchar red
property uchar green
property uchar blue
end_header
0.530208 -0.358093 -0.502 157 113 88
0.539351 -0.36166 -0.507 155 113 88
-0.00926571 -0.302546 -0.423 197 152 121
0.00909048 -0.296824 -0.415 201 158 126
0.0275343 -0.299685 -0.419 188 142 116
0.10092 -0.373354 -0.522 137 135 159
0.193387 -0.423421 -0.592 198 210 234
0.216304 -0.424136 -0.593 206 212 238
0.233247 -0.424136 -0.593 105 145 197
0.268262 -0.424136 -0.593 98 126 165
0.27391 -0.424136 -0.593 104 128 176
0.281816 -0.424136 -0.593 181 180 188
0.301018 -0.424136 -0.593 111 143 190
0.341126 -0.424851 -0.594 115 141 168
0.370033 -0.425567 -0.595 94 123 165
0.388646 -0.424851 -0.594 175 181 203
0.394303 -0.424851 -0.594 134 141 159
0.396566 -0.424851 -0.594 167 174 192
0.402223 -0.424851 -0.594 182 189 208
0.410582 -0.424136 -0.593 84 96 122
0.421457 -0.424851 -0.594 106 124 148
0.42372 -0.424851 -0.594 72 95 127
0.459204 -0.426282 -0.596 153 157 169
0.48645 -0.426282 -0.596 124 139 162
0.504613 -0.426282 -0.596 136 141 163
0.513695 -0.426282 -0.596 151 155 166
0.495314 -0.377646 -0.528 154 117 99
0.492976 -0.361195 -0.505 174 130 105
0.494856 -0.359765 -0.503 170 124 100
0.502327 -0.356904 -0.499 175 127 104
0.523237 -0.356904 -0.499 167 121 95
0.0154514 -0.298331 -0.416 194 149 120
0.0373771 -0.302634 -0.422 171 123 101
0.0772733 -0.33634 -0.469 92 67 70
0.0816581 -0.343511 -0.479 92 70 72
0.155911 -0.423831 -0.591 222 228 252
0.175049 -0.423831 -0.591 130 158 206
0.186306 -0.423831 -0.591 211 223 235
0.191934 -0.423831 -0.591 212 216 227
0.19306 -0.423831 -0.591 182 197 226
0.196437 -0.423831 -0.591 116 139 181
0.241874 -0.424549 -0.592 100 128 178
0.271192 -0.424549 -0.592 146 162 195
0.274575 -0.424549 -0.592 85 122 167
0.299889 -0.425266 -0.593 142 170 207
0.302148 -0.425266 -0.593 153 177 211
0.337163 -0.425266 -0.593 160 172 194
0.387991 -0.425266 -0.593 178 187 204
0.395898 -0.425266 -0.593 174 188 201
0.435034 -0.425983 -0.594 138 152 178
0.473503 -0.425983 -0.594 144 150 162
0.530311 -0.425266 -0.593 137 140 149
0.53257 -0.425266 -0.593 132 135 144
0.492762 -0.372914 -0.52 170 125 102
0.494856 -0.360723 -0.503 174 128 104
0.494829 -0.360006 -0.502 177 131 107
-0.0117657 -0.306314 -0.426 191 150 120
-0.0075819 -0.301281 -0.419 193 154 123
0.0138333 -0.298405 -0.415 194 149 120
0.0218429 -0.299843 -0.417 191 144 114
0.0324 -0.302 -0.42 174 128 104
0.0356848 -0.302719 -0.421 177 131 107
0.05472 -0.310629 -0.432 121 87 78
0.0556714 -0.311348 -0.433 116 82 73
0.0566267 -0.312067 -0.434 109 78 73
0.0995429 -0.373905 -0.52 117 122 151
0.101307 -0.376781 -0.524 156 161 190
0.10649 -0.38469 -0.535 226 234 253
0.114287 -0.397633 -0.553 226 233 252
0.137006 -0.425676 -0.592 107 133 190
0.143286 -0.424238 -0.59 111 131 182
0.152276 -0.424238 -0.59 219 224 243
0.16801 -0.424238 -0.59 133 161 200
0.170257 -0.424238 -0.59 115 142 189
0.189362 -0.424238 -0.59 215 224 241
0.237364 -0.425676 -0.592 138 171 214
0.246385 -0.425676 -0.592 205 213 232
0.266682 -0.425676 -0.592 166 185 225
0.273448 -0.425676 -0.592 151 172 203
0.31517 -0.425676 -0.592 188 199 219
0.325318 -0.425676 -0.592 165 176 198
0.363142 -0.426395 -0.593 94 121 166
0.373308 -0.426395 -0.593 173 185 197
0.374437 -0.426395 -0.593 175 187 199
0.39025 -0.426395 -0.593 183 190 208
0.393639 -0.426395 -0.593 178 185 201
0.407634 -0.425676 -0.592 135 147 169
0.454269 -0.427114 -0.594 107 102 106
0.468188 -0.426395 -0.593 151 158 168
0.471576 -0.426395 -0.593 153 161 174
0.496131 -0.427114 -0.594 27 55 103
0.499233 -0.427833 -0.595 97 118 161
0.526923 -0.426395 -0.593 95 103 114
0.494829 -0.360962 -0.502 176 130 106
0.496741 -0.360962 -0.502 175 129 105
0.508909 -0.358086 -0.498 172 125 99
0.511754 -0.358086 -0.498 174 127 101
0.518394 -0.358086 -0.498 169 122 96
0.522189 -0.358086 -0.498 168 121 95
0.532014 -0.360243 -0.501 158 116 92
0.00197143 -0.298474 -0.414 184 139 110
0.0106457 -0.298474 -0.414 191 146 117
0.0178286 -0.299916 -0.416 190 143 117
0.0283324 -0.302079 -0.419 189 143 117
0.13879 -0.425362 -0.59 110 135 191
0.155384 -0.424641 -0.589 224 231 249
0.172505 -0.425362 -0.59 158 186 226
0.219322 -0.426804 -0.592 219 217 230
0.235109 -0.426804 -0.592 133 165 206
0.249346 -0.426083 -0.591 206 217 235
0.266231 -0.426083 -0.591 178 194 230
0.285369 -0.426083 -0.591 203 204 222
0.318014 -0.426083 -0.591 93 106 138
0.351847 -0.427525 -0.593 171 177 201
0.36766 -0.427525 -0.593 78 105 152
0.379444 -0.426804 -0.592 87 102 133
0.383954 -0.426804 -0.592 179 188 205
0.393639 -0.427525 -0.593 179 187 200
0.40989 -0.426804 -0.592 122 136 162
0.414826 -0.426083 -0.591 150 166 191
0.442209 -0.427525 -0.593 97 112 141
0.456892 -0.427525 -0.593 155 159 170
0.473835 -0.427525 -0.593 151 160 167
0.482554 -0.428246 -0.594 72 83 111
0.498394 -0.428246 -0.594 73 95 142
0.536403 -0.426083 -0.591 129 123 127
0.49284 -0.373453 -0.518 170 124 101
0.491971 -0.37057 -0.514 173 127 104
0.49296 -0.36336 -0.504 172 126 102
0.493898 -0.362639 -0.503 174 128 104
0.501429 -0.360476 -0.5 175 127 104
0.508909 -0.359034 -0.498 173 125 102
0.510727 -0.358313 -0.497 175 128 102
0.517353 -0.358313 -0.497 168 121 95
0.522189 -0.359034 -0.498 170 120 95
0.52799 -0.359755 -0.499 162 116 90
0.53808 -0.36336 -0.504 150 108 84
-0.0108257 -0.304323 -0.421 191 152 123
0.0162048 -0.299986 -0.415 191 144 118
0.0397886 -0.305046 -0.422 164 118 95
0.0751648 -0.337574 -0.467 91 70 69
0.0821695 -0.348417 -0.482 92 70 72
0.0852257 -0.353477 -0.489 92 74 74
0.0914981 -0.363597 -0.503 91 71 70
0.0964362 -0.371549 -0.514 80 78 102
0.105274 -0.386006 -0.534 213 227 253
0.133397 -0.427209 -0.591 111 134 188
0.152018 -0.425763 -0.589 222 225 242
0.157628 -0.425763 -0.589 218 224 238
0.178944 -0.425763 -0.589 179 196 226
0.189041 -0.425763 -0.589 200 207 223
0.192733 -0.426486 -0.59 125 147 196
0.211838 -0.426486 -0.59 107 131 175
0.2167 -0.427209 -0.591 189 192 211
0.245969 -0.427209 -0.591 206 213 229
0.24822 -0.427209 -0.591 207 215 236
0.254974 -0.427209 -0.591 201 208 224
0.259477 -0.427209 -0.591 139 157 193
0.288746 -0.427209 -0.591 208 207 221
0.333774 -0.427209 -0.591 176 183 202
0.3349 -0.427209 -0.591 178 185 203
0.339977 -0.427931 -0.592 182 189 207
0.36704 -0.427931 -0.592 78 106 154
0.394103 -0.427931 -0.592 182 191 200
0.401996 -0.427931 -0.592 184 188 197
0.403569 -0.427209 -0.591 179 186 194
0.43882 -0.428654 -0.593 112 126 155
0.471909 -0.427931 -0.592 152 159 167
0.478353 -0.428654 -0.593 120 131 151
0.499526 -0.429377 -0.594 55 76 123
0.515628 -0.428654 -0.593 143 143 155
0.518141 -0.427931 -0.592 101 105 117
0.536403 -0.427209 -0.591 134 126 124
0.4955 -0.3795 -0.525 163 122 102
0.493898 -0.363597 -0.503 174 128 104
0.49766 -0.362151 -0.501 174 126 104
0.510806 -0.359983 -0.498 176 128 105
0.520193 -0.35926 -0.497 172 122 97
0.0364 -0.3044 -0.42 172 126 100
0.0966238 -0.373252 -0.515 81 81 109
0.14392 -0.42616 -0.588 131 153 194
0.14616 -0.42616 -0.588 122 145 186
0.16408 -0.42616 -0.588 141 156 185
0.178944 -0.426885 -0.589 189 205 230
0.219705 -0.42761 -0.59 168 166 179
0.22458 -0.428334 -0.591 213 212 228
0.292752 -0.42761 -0.59 150 166 199
0.314105 -0.42761 -0.59 130 144 170
0.315229 -0.42761 -0.59 95 114 154
0.325343 -0.42761 -0.59 185 193 212
0.32759 -0.42761 -0.59 184 193 210
0.339403 -0.428334 -0.591 181 190 205
0.388934 -0.428334 -0.591 174 178 187
0.403569 -0.428334 -0.591 185 190 196
0.410323 -0.428334 -0.591 166 175 190
0.412574 -0.428334 -0.591 109 121 143
0.415248 -0.42761 -0.59 145 160 191
0.447101 -0.429059 -0.592 164 166 165
0.458377 -0.429059 -0.592 120 126 140
0.478674 -0.429059 -0.592 146 153 172
0.479802 -0.429059 -0.592 112 125 157
0.51111 -0.429784 -0.593 118 118 116
0.49284 -0.375427 -0.518 176 126 103
0.493872 -0.36383 -0.502 177 131 108
0.49766 -0.363106 -0.501 173 127 104
0.513478 -0.359482 -0.496 174 127 101
0.517353 -0.360207 -0.497 169 122 96
0.520193 -0.360207 -0.497 173 126 98
0.52989 -0.361656 -0.499 164 120 93
0.546221 -0.368179 -0.508 150 108 84
-0.00354857 -0.30084 -0.414 200 156 131
0.000394286 -0.30084 -0.414 200 154 128
0.04828 -0.30956 -0.426 138 96 80
0.0501371 -0.311013 -0.428 128 90 77
0.0528286 -0.312467 -0.43 122 85 76
0.06202 -0.321913 -0.443 97 71 70
0.0665762 -0.327727 -0.451 94 70 68
0.0727571 -0.336447 -0.463 91 70 69
0.1596 -0.42728 -0.588 202 201 209
0.16184 -0.42728 -0.588 196 197 202
0.16296 -0.42728 -0.588 161 177 202
0.17864 -0.42728 -0.588 194 211 231
0.18536 -0.42728 -0.588 216 225 242
0.201382 -0.428007 -0.589 168 183 206
0.202504 -0.428007 -0.589 166 181 204
0.217089 -0.428007 -0.589 208 214 240
0.23319 -0.428733 -0.59 161 186 226
0.242181 -0.428733 -0.59 167 188 217
0.246676 -0.428733 -0.59 208 213 232
0.2478 -0.428733 -0.59 204 210 232
0.269818 -0.428007 -0.589 196 204 227
0.27094 -0.428007 -0.589 201 209 232
0.279915 -0.428007 -0.589 96 112 146
0.281037 -0.428007 -0.589 97 113 147
0.309085 -0.428007 -0.589 194 205 223
0.361917 -0.42946 -0.591 91 123 174
0.400191 -0.42946 -0.591 170 173 180
0.422706 -0.42946 -0.591 45 72 127
0.436214 -0.42946 -0.591 56 73 117
0.4531 -0.42946 -0.591 129 139 149
0.455351 -0.42946 -0.591 130 139 154
0.457603 -0.42946 -0.591 111 118 136
0.465483 -0.42946 -0.591 92 95 100
0.529649 -0.42946 -0.591 120 120 128
0.520929 -0.40766 -0.561 124 111 105
0.500005 -0.387313 -0.533 152 116 102
0.505178 -0.362607 -0.499 177 129 106
-0.0115448 -0.304543 -0.418 191 152 123
-0.0051381 -0.302357 -0.415 194 153 123
0.00983333 -0.3009 -0.413 195 151 122
0.0122229 -0.301629 -0.414 192 147 118
0.0146238 -0.302357 -0.415 186 141 110
0.0162048 -0.302357 -0.415 185 140 111
0.0548467 -0.315471 -0.433 112 81 78
0.0655714 -0.327857 -0.45 95 71 69
0.0798333 -0.348986 -0.479 93 68 71
0.0886914 -0.362829 -0.498 92 68 68
0.09036 -0.365743 -0.502 96 76 77
0.17304 -0.4284 -0.588 167 190 224
0.19656 -0.4284 -0.588 185 195 222
0.210357 -0.429129 -0.589 167 177 202
0.213723 -0.429129 -0.589 124 138 175
0.220454 -0.429129 -0.589 209 214 233
0.283281 -0.429129 -0.589 123 145 182
0.31245 -0.429129 -0.589 97 113 146
0.325913 -0.429129 -0.589 187 195 208
0.37479 -0.429857 -0.59 96 111 142
0.388276 -0.429857 -0.59 131 134 141
0.407381 -0.429857 -0.59 186 195 200
0.42946 -0.430586 -0.591 40 68 118
0.431711 -0.430586 -0.591 62 89 136
0.440717 -0.430586 -0.591 158 168 195
0.448597 -0.430586 -0.591 120 122 121
0.472237 -0.430586 -0.591 153 156 163
0.475614 -0.430586 -0.591 139 145 161
0.495877 -0.430586 -0.591 58 85 132
0.497844 -0.431314 -0.592 40 68 115
0.515886 -0.431314 -0.592 147 149 162
0.519517 -0.430586 -0.591 139 141 154
0.525381 -0.429857 -0.59 129 132 141
0.508251 -0.396343 -0.544 142 115 104
0.498268 -0.385414 -0.529 157 117 105
0.503333 -0.364286 -0.5 179 131 108
0.505114 -0.362829 -0.498 178 130 107
0.521036 -0.361371 -0.496 170 123 97
-0.0106971 -0.303878 -0.416 191 152 123
0.00275333 -0.301687 -0.413 201 157 128
0.00354 -0.301687 -0.413 197 153 124
0.00588571 -0.300956 -0.412 193 149 120
0.0114067 -0.301687 -0.413 192 147 118
0.0380905 -0.30753 -0.421 161 113 90
0.0510714 -0.313374 -0.429 123 89 79
0.0692029 -0.333828 -0.457 93 69 67
0.0937429 -0.372543 -0.51 86 84 98
0.104257 -0.390074 -0.534 230 235 254
0.144793 -0.42879 -0.587 149 165 198
0.159329 -0.42879 -0.587 223 222 230
0.168273 -0.42879 -0.587 182 205 237
0.169391 -0.42879 -0.587 182 201 233
0.171628 -0.42879 -0.587 178 196 232
0.217089 -0.43025 -0.589 166 181 210
0.237283 -0.43025 -0.589 117 146 190
0.2436 -0.42952 -0.588 202 213 233
0.24696 -0.42952 -0.588 202 213 233
0.2492 -0.42952 -0.588 184 195 215
0.25368 -0.42952 -0.588 125 139 176
0.27944 -0.42952 -0.588 142 158 184
0.28889 -0.43025 -0.589 195 205 230
0.303475 -0.43025 -0.589 127 150 194
0.329279 -0.43025 -0.589 189 198 207
0.351786 -0.431711 -0.591 84 105 136
0.359057 -0.430981 -0.59 61 91 141
0.370295 -0.430981 -0.59 127 143 194
0.41791 -0.43025 -0.589 63 84 139
0.439971 -0.430981 -0.59 146 156 181
0.442219 -0.430981 -0.59 157 165 168
0.456829 -0.430981 -0.59 96 108 130
0.4925 -0.431711 -0.591 28 56 103
0.493626 -0.431711 -0.591 31 59 106
0.505543 -0.394457 -0.54 146 116 108
0.494829 -0.366699 -0.502 176 128 106
0.507011 -0.363777 -0.498 174 128 104
0.511673 -0.363047 -0.497 170 124 100
0.511589 -0.362316 -0.496 171 125 101
0.514329 -0.361586 -0.495 171 123 100
0.539769 -0.366699 -0.502 152 110 86
0.01062 -0.302473 -0.413 190 147 115
0.0169952 -0.303938 -0.415 184 137 109
0.0242257 -0.305403 -0.417 184 137 107
0.0274686 -0.306135 -0.418 180 133 105
0.033121 -0.306868 -0.419 168 122 96
0.0440152 -0.31053 -0.424 144 103 85
0.0758086 -0.344951 -0.471 90 68 70
0.0973743 -0.380106 -0.519 148 157 190
0.12936 -0.43064 -0.588 138 151 193
0.138966 -0.429175 -0.586 200 211 239
0.169391 -0.429908 -0.587 182 201 233
0.173568 -0.429175 -0.586 145 170 201
0.263311 -0.429908 -0.587 204 213 228
0.27384 -0.43064 -0.588 200 212 226
0.27496 -0.43064 -0.588 201 213 227
0.2884 -0.43064 -0.588 201 211 238
0.30856 -0.43064 -0.588 192 199 227
0.3108 -0.43064 -0.588 125 135 170
0.31752 -0.43064 -0.588 191 196 215
0.354562 -0.432105 -0.59 113 131 179
0.358449 -0.431372 -0.589 55 79 141
0.371911 -0.431372 -0.589 74 94 144
0.426885 -0.431372 -0.589 50 81 138
0.428007 -0.431372 -0.589 56 87 134
0.43025 -0.431372 -0.589 54 84 138
0.452333 -0.432105 -0.59 136 144 155
0.519762 -0.432105 -0.59 150 150 158
0.521125 -0.431372 -0.589 130 130 140
0.532344 -0.431372 -0.589 124 122 127
0.538363 -0.429908 -0.587 43 46 55
0.508351 -0.397683 -0.543 147 114 107
0.4965 -0.3845 -0.525 153 116 100
0.492929 -0.377176 -0.515 170 125 104
0.492031 -0.371317 -0.507 172 126 103
0.496706 -0.366923 -0.501 170 124 101
0.502381 -0.36619 -0.5 179 133 109
0.50978 -0.363993 -0.497 170 124 100
-0.00749143 -0.303994 -0.414 194 153 125
0.0146238 -0.304729 -0.415 188 141 113
0.0162048 -0.304729 -0.415 184 137 109
0.0193667 -0.304729 -0.415 175 128 100
0.0226371 -0.306197 -0.417 183 136 106
0.0234314 -0.306197 -0.417 183 136 106
0.0242257 -0.306197 -0.417 182 135 107
0.029061 -0.306931 -0.418 179 133 107
0.0601962 -0.324554 -0.442 102 75 66
0.147895 -0.430291 -0.586 147 157 182
0.163522 -0.430291 -0.586 153 167 194
0.193659 -0.430291 -0.586 210 215 237
0.198124 -0.430291 -0.586 209 214 234
0.202934 -0.431026 -0.587 171 177 199
0.206289 -0.431026 -0.587 210 215 237
0.214115 -0.431026 -0.587 161 171 196
0.216351 -0.431026 -0.587 107 120 154
0.22306 -0.431026 -0.587 211 209 230
0.23464 -0.43176 -0.588 138 169 213
0.248776 -0.431026 -0.587 104 123 153
0.266211 -0.430291 -0.586 202 212 224
0.273374 -0.431026 -0.587 207 217 227
0.281201 -0.431026 -0.587 166 176 203
0.29848 -0.43176 -0.588 129 159 221
0.313626 -0.431026 -0.587 189 198 215
0.32984 -0.43176 -0.588 151 151 163
0.349473 -0.432494 -0.589 171 185 211
0.415372 -0.431026 -0.587 58 84 145
0.434738 -0.432494 -0.589 37 61 109
0.436982 -0.432494 -0.589 71 95 143
0.460542 -0.432494 -0.589 145 154 171
0.471761 -0.432494 -0.589 159 162 171
0.495321 -0.432494 -0.589 92 120 159
0.501781 -0.433229 -0.59 89 104 127
0.508524 -0.433229 -0.59 144 146 161
0.510224 -0.400186 -0.545 147 112 106
0.499275 -0.388437 -0.529 148 115 106
0.492983 -0.375954 -0.512 170 125 102
0.492 -0.37008 -0.504 174 128 104
0.501429 -0.367143 -0.5 175 129 105
0.502381 -0.367143 -0.5 179 133 109
0.504228 -0.366409 -0.499 181 135 111
0.515271 -0.363471 -0.495 169 123 99
0.516214 -0.363471 -0.495 173 127 103
0.541682 -0.368611 -0.502 149 112 86
0.0162048 -0.305519 -0.415 182 135 105
0.0431057 -0.311409 -0.423 146 104 82
0.0511905 -0.316562 -0.43 121 89 78
0.0582476 -0.323924 -0.44 105 77 73
0.05922 -0.32466 -0.441 101 76 72
0.0696571 -0.338648 -0.46 90 70 69
0.0958286 -0.379874 -0.516 150 150 174
0.10868 -0.40196 -0.546 231 234 251
0.140957 -0.430671 -0.585 207 215 234
0.147643 -0.430671 -0.585 178 189 211
0.158786 -0.430671 -0.585 222 228 242
0.210761 -0.432144 -0.587 208 215 234
0.217099 -0.431408 -0.586 107 122 161
0.229769 -0.432144 -0.587 118 141 185
0.235359 -0.432144 -0.587 131 163 212
0.247658 -0.432144 -0.587 103 122 154
0.268444 -0.431408 -0.586 184 191 201
0.287419 -0.431408 -0.586 177 192 225
0.302445 -0.432144 -0.587 103 134 189
0.30751 -0.431408 -0.586 118 132 179
0.313091 -0.431408 -0.586 193 202 219
0.31644 -0.431408 -0.586 193 198 218
0.318672 -0.431408 -0.586 192 199 217
0.319789 -0.431408 -0.586 193 199 215
0.32257 -0.432144 -0.587 198 204 218
0.34552 -0.43288 -0.588 161 165 166
0.35112 -0.43288 -0.588 122 138 187
0.35448 -0.43288 -0.588 56 82 139
0.360586 -0.432144 -0.587 43 73 135
0.374003 -0.432144 -0.587 168 177 192
0.38742 -0.432144 -0.587 157 169 185
0.39368 -0.43288 -0.588 141 151 176
0.40376 -0.43288 -0.588 174 174 184
0.420963 -0.432144 -0.587 59 90 144
0.4676 -0.43288 -0.588 154 158 159
0.46872 -0.43288 -0.588 127 132 138
0.478492 -0.433616 -0.589 115 139 167
0.490833 -0.433616 -0.589 37 71 119
0.491955 -0.433616 -0.589 37 71 119
0.496443 -0.433616 -0.589 99 123 159
0.52248 -0.43288 -0.588 146 146 156
0.497619 -0.368095 -0.5 175 129 106
0.507887 -0.365887 -0.497 176 129 101
0.508754 -0.36515 -0.496 172 125 97
0.519043 -0.364414 -0.495 170 123 97
0.522814 -0.364414 -0.495 169 123 99
0.00510095 -0.304095 -0.412 198 155 123
0.0122229 -0.305571 -0.414 186 141 110
0.0185762 -0.30631 -0.415 181 134 104
0.0202057 -0.307048 -0.416 180 133 105
0.0348 -0.31 -0.42 158 115 96
0.0364 -0.31 -0.42 160 114 91
0.0521305 -0.318119 -0.431 119 86 77
0.0541467 -0.320333 -0.434 112 82 74
0.0696571 -0.339524 -0.46 90 70 71
0.0833629 -0.360929 -0.489 91 72 74
0.127804 -0.432524 -0.586 209 215 237
0.133157 -0.431786 -0.585 212 219 238
0.138729 -0.431786 -0.585 206 215 232
0.145414 -0.431786 -0.585 210 218 237
0.179957 -0.431786 -0.585 216 221 240
0.181381 -0.432524 -0.586 210 215 234
0.26063 -0.432524 -0.586 204 210 224
0.281838 -0.432524 -0.586 187 193 205
0.333751 -0.433262 -0.587 162 167 187
0.344932 -0.433262 -0.587 133 135 132
0.35 -0.434 -0.588 132 135 150
0.35336 -0.434 -0.588 68 97 155
0.400837 -0.433262 -0.587 192 195 204
0.407968 -0.432524 -0.586 190 194 205
0.414665 -0.432524 -0.586 95 119 163
0.427671 -0.433262 -0.587 101 133 182
0.43736 -0.434 -0.588 61 74 108
0.4676 -0.434 -0.588 166 167 171
0.480736 -0.434738 -0.589 145 165 190
0.502052 -0.434738 -0.589 110 121 141
0.511028 -0.434738 -0.589 145 149 161
0.493872 -0.370524 -0.502 172 126 102
0.497619 -0.369048 -0.5 177 129 106
0.526586 -0.365357 -0.495 164 118 94
0.625805 -0.417024 -0.565 195 195 187
0.0661543 -0.33596 -0.454 92 70 72
0.0864457 -0.36704 -0.496 91 71 80
0.126471 -0.4329 -0.585 218 224 248
0.179957 -0.4329 -0.585 196 207 227
0.185529 -0.4329 -0.585 156 169 203
0.2145 -0.4329 -0.585 193 204 222
0.243471 -0.4329 -0.585 143 154 186
0.264643 -0.4329 -0.585 190 194 205
0.266871 -0.4329 -0.585 145 149 160
0.288043 -0.4329 -0.585 86 109 163
0.294729 -0.4329 -0.585 62 93 158
0.306986 -0.4329 -0.585 84 105 168
0.336531 -0.43364 -0.586 157 165 178
0.344345 -0.43364 -0.586 143 144 146
0.34605 -0.43438 -0.587 129 126 133
0.358855 -0.43364 -0.586 58 87 147
0.385644 -0.43364 -0.586 183 185 197
0.406851 -0.43364 -0.586 135 140 143
0.411316 -0.43364 -0.586 86 91 121
0.442207 -0.43438 -0.587 170 173 192
0.444443 -0.43438 -0.587 175 177 190
0.451151 -0.43438 -0.587 175 175 185
0.454506 -0.43438 -0.587 168 172 181
0.48776 -0.43512 -0.588 54 88 134
0.52271 -0.43438 -0.587 136 140 149
0.526064 -0.43438 -0.587 143 146 155
0.50854 -0.40034 -0.541 146 113 106
0.492983 -0.37888 -0.512 167 121 98
0.49766 -0.37074 -0.501 180 133 107
0.500426 -0.36926 -0.499 180 133 107
0.512443 -0.3663 -0.495 175 128 102
0.515171 -0.36556 -0.494 175 128 102
0.530357 -0.3663 -0.495 164 120 95
0.533318 -0.36704 -0.496 163 119 94
-0.0114067 -0.306407 -0.413 189 150 121
-0.00274667 -0.305665 -0.412 193 154 123
0.00195714 -0.304923 -0.411 194 153 121
0.00667048 -0.305665 -0.412 192 151 119
0.00983333 -0.306407 -0.413 185 140 109
0.0315248 -0.310858 -0.419 169 125 100
0.0356848 -0.312342 -0.421 156 111 92
0.0423 -0.313826 -0.423 144 101 85
0.06272 -0.332373 -0.448 96 72 68
0.101457 -0.39321 -0.53 221 228 247
0.134923 -0.43253 -0.583 212 217 236
0.146278 -0.433272 -0.584 219 222 241
0.153801 -0.43253 -0.583 172 183 213
0.167127 -0.43253 -0.583 150 179 219
0.177425 -0.433272 -0.584 209 221 237
0.197448 -0.433272 -0.584 209 215 229
0.214133 -0.433272 -0.584 207 213 227
0.215246 -0.433272 -0.584 196 202 216
0.233842 -0.434756 -0.586 107 146 205
0.249043 -0.434014 -0.585 200 208 231
0.265303 -0.433272 -0.584 165 169 180
0.285814 -0.434014 -0.585 149 164 205
0.298071 -0.434014 -0.585 49 83 147
0.301414 -0.434014 -0.585 60 90 152
0.327043 -0.434014 -0.585 149 160 180
0.342112 -0.434756 -0.586 188 192 203
0.349926 -0.434756 -0.586 100 117 161
0.378947 -0.434756 -0.586 149 147 158
0.38676 -0.434756 -0.586 198 197 211
0.387876 -0.434756 -0.586 198 197 211
0.396806 -0.434756 -0.586 196 199 208
0.4095 -0.434014 -0.585 96 103 132
0.427329 -0.434014 -0.585 153 173 208
0.442207 -0.435498 -0.587 168 174 196
0.46601 -0.434756 -0.586 168 168 180
0.523828 -0.435498 -0.587 135 141 155
0.51042 -0.402854 -0.543 141 112 108
0.50305 -0.395435 -0.533 144 111 102
0.496687 -0.386532 -0.521 165 120 97
0.49391 -0.382081 -0.515 169 124 101
0.49393 -0.381339 -0.514 167 122 99
0.495751 -0.371694 -0.501 179 132 106
0.505047 -0.368727 -0.497 177 130 102
0.516946 -0.365759 -0.493 175 125 98
0.535208 -0.367985 -0.496 161 117 90
-0.0188895 -0.313888 -0.422 196 155 127
0.02502 -0.310169 -0.417 177 132 103
0.0274686 -0.310912 -0.418 174 130 103
0.029061 -0.310912 -0.418 170 126 101
0.0432076 -0.315375 -0.424 138 96 82
0.0574095 -0.327276 -0.44 103 77 76
0.0651457 -0.336946 -0.453 91 71 70
0.0663 -0.338433 -0.455 91 71 72
0.131817 -0.434385 -0.584 220 229 244
0.15047 -0.433641 -0.583 155 166 194
0.1752 -0.434385 -0.584 194 206 230
0.199672 -0.434385 -0.584 210 214 226
0.200785 -0.434385 -0.584 212 216 228
0.256404 -0.434385 -0.584 204 207 222
0.265303 -0.434385 -0.584 165 169 180
0.279764 -0.434385 -0.584 157 164 170
0.297562 -0.434385 -0.584 61 92 157
0.304236 -0.434385 -0.584 65 99 160
0.306461 -0.434385 -0.584 70 99 159
0.338186 -0.435129 -0.585 192 195 202
0.369386 -0.435129 -0.585 130 153 194
0.371614 -0.435129 -0.585 79 91 129
0.3783 -0.435129 -0.585 162 161 175
0.381643 -0.435129 -0.585 198 198 210
0.382757 -0.435129 -0.585 195 195 207
0.435872 -0.435872 -0.586 150 157 176
0.471277 -0.436616 -0.587 84 89 108
0.473513 -0.436616 -0.587 87 95 118
0.501466 -0.436616 -0.587 154 156 168
0.507056 -0.436616 -0.587 52 60 81
0.498571 -0.371905 -0.5 182 134 111
0.539263 -0.370417 -0.498 155 114 92
-0.0121933 -0.30798 -0.413 186 147 116
0.0298571 -0.311709 -0.418 169 125 100
0.0467667 -0.31842 -0.427 124 90 80
0.0664457 -0.340046 -0.456 91 71 72
0.0701114 -0.345266 -0.463 90 70 71
0.0780086 -0.357197 -0.479 90 71 73
0.141586 -0.434751 -0.583 217 227 239
0.146886 -0.434006 -0.582 217 227 229
0.156863 -0.434006 -0.582 218 224 238
0.161297 -0.434006 -0.582 189 205 238
0.171569 -0.434751 -0.583 128 156 196
0.202662 -0.434751 -0.583 216 216 226
0.208571 -0.435497 -0.584 211 211 221
0.212656 -0.434751 -0.583 213 215 230
0.214877 -0.434751 -0.583 213 212 228
0.234156 -0.435497 -0.584 58 94 156
0.276427 -0.435497 -0.584 198 206 217
0.279764 -0.435497 -0.584 185 192 198
0.289279 -0.434751 -0.583 73 102 168
0.305349 -0.435497 -0.584 57 88 145
0.327596 -0.435497 -0.584 146 158 174
0.33427 -0.435497 -0.584 188 190 205
0.348214 -0.436243 -0.585 87 99 125
0.357129 -0.436243 -0.585 101 130 172
0.369867 -0.435497 -0.584 116 125 158
0.398789 -0.435497 -0.584 202 200 214
0.412137 -0.435497 -0.584 192 199 215
0.425486 -0.435497 -0.584 118 140 187
0.429557 -0.436243 -0.585 159 170 188
0.450729 -0.436243 -0.585 178 184 196
0.458529 -0.436243 -0.585 171 179 190
0.462986 -0.436243 -0.585 172 172 184
0.465214 -0.436243 -0.585 175 172 191
0.467443 -0.436243 -0.585 164 164 174
0.47159 -0.436989 -0.586 77 84 112
0.472707 -0.436989 -0.586 115 122 150
0.50396 -0.436989 -0.586 122 136 162
0.525203 -0.418346 -0.561 132 107 103
0.51512 -0.408651 -0.548 135 111 101
0.493958 -0.381806 -0.512 162 121 99
0.492997 -0.378077 -0.507 175 128 100
0.507729 -0.369129 -0.495 180 133 107
-0.00195714 -0.307271 -0.411 193 152 120
-0.00117429 -0.307271 -0.411 195 154 122
0.000391429 -0.307271 -0.411 196 152 123
0.00824 -0.308019 -0.412 185 140 111
0.00983333 -0.308767 -0.413 184 139 110
0.02502 -0.311757 -0.417 176 130 104
0.0266086 -0.311757 -0.417 172 126 102
0.05548 -0.327457 -0.438 101 77 75
0.0689305 -0.344652 -0.461 91 71 73
0.142451 -0.435114 -0.582 222 230 241
0.162406 -0.435114 -0.582 139 154 193
0.172383 -0.435114 -0.582 160 182 229
0.202662 -0.435862 -0.583 208 210 222
0.213767 -0.435862 -0.583 208 209 229
0.228594 -0.43661 -0.584 60 91 156
0.235269 -0.43661 -0.584 57 93 151
0.252633 -0.435862 -0.583 200 205 224
0.253744 -0.435862 -0.583 198 203 222
0.293721 -0.435862 -0.583 67 106 163
0.332046 -0.43661 -0.584 193 199 215
0.355406 -0.43661 -0.584 141 171 207
0.35763 -0.43661 -0.584 98 129 176
0.368754 -0.43661 -0.584 174 191 211
0.38099 -0.43661 -0.584 193 200 210
0.382103 -0.43661 -0.584 193 200 210
0.441059 -0.43661 -0.584 116 126 151
0.4485 -0.437357 -0.585 183 185 206
0.482752 -0.438105 -0.586 113 121 142
0.499475 -0.373062 -0.499 176 128 105
0.507729 -0.370071 -0.495 175 128 102
0.511408 -0.369324 -0.494 172 125 99
0.516946 -0.368576 -0.493 170 123 97
0.523266 -0.367081 -0.491 167 121 97
0.527143 -0.367829 -0.492 166 120 96
0.538042 -0.370819 -0.496 154 112 87
-0.00900286 -0.308054 -0.411 194 154 119
-0.00665429 -0.308054 -0.411 193 150 118
0.0137667 -0.309553 -0.413 183 138 109
0.0298571 -0.313301 -0.418 165 120 99
0.034 -0.3148 -0.42 152 106 93
0.0398829 -0.317049 -0.423 150 103 87
0.093499 -0.385255 -0.514 163 167 202
0.0986876 -0.39425 -0.526 203 218 241
0.100637 -0.397997 -0.531 210 225 248
0.126931 -0.436223 -0.582 219 227 238
0.129149 -0.436223 -0.582 222 231 240
0.132247 -0.435473 -0.581 221 227 239
0.138017 -0.436223 -0.582 221 223 235
0.189011 -0.436223 -0.582 209 214 233
0.206749 -0.436223 -0.582 210 212 225
0.223377 -0.436223 -0.582 86 108 155
0.232645 -0.436972 -0.583 63 92 160
0.273263 -0.436223 -0.582 204 208 219
0.294326 -0.436223 -0.582 73 113 174
0.295434 -0.436223 -0.582 67 106 173
0.301494 -0.436972 -0.583 113 147 193
0.318714 -0.436223 -0.582 193 196 203
0.329256 -0.436972 -0.583 189 192 207
0.348731 -0.437722 -0.584 150 162 186
0.373675 -0.436972 -0.583 105 113 134
0.377007 -0.436972 -0.583 191 197 213
0.4081 -0.436972 -0.583 153 160 186
0.418094 -0.436972 -0.583 132 152 187
0.424757 -0.436972 -0.583 129 151 188
0.466644 -0.437722 -0.584 147 153 167
0.484157 -0.438471 -0.585 94 112 152
0.489729 -0.438471 -0.585 108 133 164
0.497529 -0.438471 -0.585 166 170 181
0.513129 -0.438471 -0.585 134 141 160
0.515357 -0.438471 -0.585 146 151 171
0.520038 -0.437722 -0.584 52 73 104
0.528948 -0.423481 -0.565 127 108 102
0.496757 -0.389003 -0.519 162 121 103
0.498571 -0.374762 -0.5 173 125 102
0.502269 -0.373263 -0.498 177 130 104
0.505843 -0.371014 -0.495 177 130 104
0.538987 -0.371764 -0.496 156 114 89
-0.0203514 -0.314849 -0.419 193 154 121
-0.0137333 -0.309589 -0.412 191 150 118
-0.0082 -0.308086 -0.41 192 152 117
-0.000390476 -0.308086 -0.41 194 153 121
0.00429524 -0.308086 -0.41 189 145 116
0.01298 -0.31034 -0.413 185 140 111
0.0274029 -0.313346 -0.417 167 122 99
0.0415924 -0.318606 -0.424 146 100 87
0.0459533 -0.32086 -0.427 127 90 84
0.0597571 -0.334386 -0.445 93 73 72
0.0655771 -0.342651 -0.456 89 71 71
0.0704143 -0.349414 -0.465 89 70 72
0.169873 -0.43658 -0.581 88 117 173
0.173193 -0.43658 -0.581 125 149 209
0.186473 -0.43658 -0.581 211 212 230
0.200097 -0.437331 -0.582 175 178 195
0.201206 -0.437331 -0.582 166 169 186
0.256193 -0.43658 -0.581 186 195 204
0.279433 -0.43658 -0.581 191 201 211
0.295434 -0.437331 -0.582 83 126 194
0.320931 -0.437331 -0.582 198 202 211
0.324257 -0.437331 -0.582 196 200 212
0.348134 -0.438083 -0.583 167 175 196
0.371454 -0.438083 -0.583 135 143 166
0.387001 -0.438083 -0.583 198 200 213
0.389222 -0.438083 -0.583 138 145 161
0.402548 -0.438083 -0.583 203 201 214
0.429199 -0.438083 -0.583 174 188 214
0.466644 -0.438834 -0.584 110 118 137
0.500871 -0.439586 -0.585 170 170 182
0.508671 -0.439586 -0.585 80 87 106
0.515357 -0.439586 -0.585 144 156 182
0.5247 -0.438083 -0.583 85 99 125
0.49392 -0.37872 -0.504 178 130 107
0.494797 -0.376466 -0.501 172 126 103
0.498525 -0.374963 -0.499 173 125 102
0.50592 -0.372709 -0.496 177 130 104
0.507644 -0.371206 -0.494 174 126 103
0.511311 -0.370454 -0.493 173 126 100
0.525136 -0.368951 -0.491 172 124 101
0.632262 -0.424557 -0.565 196 193 188
-0.0185762 -0.312633 -0.415 193 154 121
-0.0169133 -0.311127 -0.413 194 153 123
0.00665429 -0.30962 -0.411 187 142 113
0.0241676 -0.313387 -0.416 171 125 101
0.02496 -0.313387 -0.416 170 124 100
0.038181 -0.317907 -0.422 150 102 88
0.044119 -0.320167 -0.425 132 93 86
0.0644248 -0.342013 -0.454 90 70 71
0.0729619 -0.354067 -0.47 91 71 72
0.12118 -0.437687 -0.581 220 226 242
0.136438 -0.436933 -0.58 219 221 234
0.189793 -0.437687 -0.581 203 210 229
0.208607 -0.437687 -0.581 203 201 222
0.2241 -0.437687 -0.581 86 111 168
0.235167 -0.437687 -0.581 112 147 213
0.265047 -0.437687 -0.581 189 200 218
0.266153 -0.437687 -0.581 193 204 222
0.271687 -0.437687 -0.581 202 208 220
0.309313 -0.437687 -0.581 110 128 166
0.319273 -0.437687 -0.581 198 202 211
0.336451 -0.43844 -0.582 197 201 212
0.365274 -0.43844 -0.582 175 186 204
0.440657 -0.43844 -0.582 150 161 179
0.441766 -0.43844 -0.582 136 143 169
0.448417 -0.43844 -0.582 180 184 196
0.45363 -0.439193 -0.583 82 101 141
0.459182 -0.439193 -0.583 173 175 190
0.467756 -0.439947 -0.584 147 155 174
0.477768 -0.439947 -0.584 180 184 193
0.47888 -0.439947 -0.584 180 184 193
0.487779 -0.439947 -0.584 115 139 177
0.490004 -0.439947 -0.584 96 123 153
0.494453 -0.439947 -0.584 67 86 118
0.500371 -0.37516 -0.498 175 127 104
0.504975 -0.373653 -0.496 177 129 106
-0.0144829 -0.310403 -0.411 190 151 118
0.00587143 -0.310403 -0.411 190 145 116
0.0258143 -0.314934 -0.417 169 123 100
0.0274029 -0.314934 -0.417 166 121 100
0.0770962 -0.361759 -0.479 93 73 74
0.0784971 -0.364025 -0.482 93 73 74
0.1276 -0.438038 -0.58 222 226 237
0.138648 -0.438038 -0.58 212 215 224
0.140857 -0.438038 -0.58 178 181 188
0.210457 -0.438038 -0.58 209 208 224
0.217086 -0.438038 -0.58 199 210 232
0.236971 -0.438038 -0.58 97 123 174
0.251767 -0.438793 -0.581 200 204 215
0.26901 -0.438038 -0.58 202 208 222
0.296033 -0.438793 -0.581 87 130 185
0.299353 -0.438793 -0.581 176 195 228
0.318167 -0.438793 -0.581 202 205 212
0.324807 -0.438793 -0.581 199 202 219
0.335873 -0.438793 -0.581 196 198 210
0.340886 -0.439549 -0.582 164 176 200
0.347537 -0.439549 -0.582 191 194 211
0.3569 -0.438793 -0.581 147 162 191
0.3901 -0.438793 -0.581 176 181 200
0.404074 -0.439549 -0.582 161 174 193
0.405183 -0.439549 -0.582 171 182 202
0.406291 -0.439549 -0.582 194 205 225
0.41666 -0.438793 -0.581 124 150 187
0.434367 -0.438793 -0.581 194 196 211
0.47888 -0.441059 -0.584 177 181 190
0.482217 -0.441059 -0.584 84 111 154
0.500015 -0.441059 -0.584 171 170 178
0.5264 -0.422933 -0.56 138 109 103
0.493898 -0.379885 -0.503 174 126 104
0.50592 -0.374598 -0.496 173 127 103
0.539786 -0.373843 -0.495 152 110 85
-0.0097381 -0.309671 -0.409 193 152 122
0.0161657 -0.313457 -0.414 183 137 111
0.0209476 -0.314214 -0.415 168 124 99
0.0307267 -0.317243 -0.419 159 114 95
0.0323229 -0.317243 -0.419 154 108 92
0.0348 -0.318 -0.42 149 102 94
0.0526143 -0.329357 -0.435 109 78 73
0.0557333 -0.333143 -0.44 99 74 70
0.163774 -0.438386 -0.579 92 117 174
0.16598 -0.438386 -0.579 89 111 171
0.193886 -0.439143 -0.58 179 186 204
0.203829 -0.439143 -0.58 186 192 206
0.206038 -0.439143 -0.58 202 208 222
0.207143 -0.439143 -0.58 206 212 226
0.249553 -0.4399 -0.581 197 205 218
0.268546 -0.438386 -0.579 204 210 224
0.295524 -0.439143 -0.58 96 136 185
0.301048 -0.439143 -0.58 169 185 210
0.324248 -0.439143 -0.58 199 202 217
0.326457 -0.439143 -0.58 149 152 167
0.355181 -0.439143 -0.58 152 166 193
0.36686 -0.4399 -0.581 195 200 219
0.387887 -0.4399 -0.581 100 119 151
0.405593 -0.4399 -0.581 200 207 225
0.421467 -0.439143 -0.58 138 168 204
0.43658 -0.4399 -0.581 198 198 206
0.438793 -0.4399 -0.581 189 197 208
0.441007 -0.4399 -0.581 163 171 194
0.444327 -0.4399 -0.581 102 118 154
0.47917 -0.441414 -0.583 174 176 188
0.50027 -0.441414 -0.583 173 172 177
0.50669 -0.442171 -0.584 167 174 182
0.514706 -0.441414 -0.583 136 151 180
0.517149 -0.440657 -0.582 83 94 122
0.493898 -0.380843 -0.503 173 125 105
0.496667 -0.378571 -0.5 173 127 104
0.497619 -0.378571 -0.5 171 125 102
0.531533 -0.371 -0.49 159 115 88
0.533553 -0.371757 -0.491 158 114 87
-0.00428476 -0.31045 -0.409 194 153 123
-0.00195238 -0.31121 -0.41 194 153 123
0.000389524 -0.31045 -0.409 192 148 119
0.00351429 -0.31121 -0.41 189 145 118
0.00507619 -0.31121 -0.41 188 144 117
0.0201571 -0.315005 -0.415 168 122 98
0.0241676 -0.315764 -0.416 166 122 97
0.0323229 -0.318041 -0.419 155 108 92
0.0425 -0.322595 -0.425 131 94 86
0.0433095 -0.322595 -0.425 129 92 84
0.0557333 -0.333981 -0.44 98 73 68
0.0707171 -0.354475 -0.467 91 69 71
0.0893286 -0.384837 -0.507 86 93 121
0.0942267 -0.393187 -0.518 94 120 171
0.180317 -0.439489 -0.579 207 214 230
0.183626 -0.439489 -0.579 207 214 230
0.22002 -0.439489 -0.579 175 184 223
0.264134 -0.439489 -0.579 199 205 217
0.287294 -0.439489 -0.579 150 153 172
0.298323 -0.439489 -0.579 163 182 215
0.35739 -0.440248 -0.58 153 168 197
0.358495 -0.440248 -0.58 152 171 203
0.362289 -0.439489 -0.579 143 157 184
0.365124 -0.440248 -0.58 196 202 218
0.366229 -0.440248 -0.58 195 201 217
0.395633 -0.441007 -0.581 188 189 207
0.405593 -0.441007 -0.581 199 205 221
0.410814 -0.439489 -0.579 172 167 174
0.41302 -0.439489 -0.579 130 138 151
0.423676 -0.440248 -0.58 105 134 178
0.434367 -0.441007 -0.581 200 203 210
0.436933 -0.440248 -0.58 199 199 209
0.44986 -0.441007 -0.581 168 180 204
0.452073 -0.441007 -0.581 84 111 156
0.462829 -0.441766 -0.582 62 81 124
0.473618 -0.442525 -0.583 178 179 183
0.518473 -0.441007 -0.581 60 89 133
0.51636 -0.41444 -0.546 141 108 101
0.5015 -0.3985 -0.525 155 113 99
0.502207 -0.377247 -0.497 176 128 105
0.512149 -0.373451 -0.492 169 122 94
0.530449 -0.371174 -0.489 159 117 92
0.536514 -0.373451 -0.492 154 114 88
0.632116 -0.426585 -0.562 196 196 186
-0.0136667 -0.31199 -0.41 193 152 120
0.00743714 -0.312751 -0.411 184 138 112
0.0185314 -0.315034 -0.414 173 127 101
0.0209476 -0.315795 -0.415 167 123 96
0.0282648 -0.318078 -0.418 163 116 98
0.0323229 -0.318839 -0.419 155 107 93
0.06342 -0.344711 -0.453 90 69 68
0.08784 -0.38352 -0.504 96 80 90
0.0910067 -0.388847 -0.511 103 116 150
0.180006 -0.43983 -0.578 191 200 233
0.186934 -0.440591 -0.579 212 218 232
0.216711 -0.440591 -0.579 96 105 144
0.226637 -0.440591 -0.579 101 131 169
0.242077 -0.440591 -0.579 145 162 192
0.252003 -0.440591 -0.579 177 180 195
0.253106 -0.440591 -0.579 169 169 181
0.256414 -0.440591 -0.579 202 205 212
0.263031 -0.440591 -0.579 199 207 218
0.268546 -0.440591 -0.579 201 209 222
0.31266 -0.440591 -0.579 177 189 215
0.317071 -0.440591 -0.579 194 202 215
0.340819 -0.441352 -0.58 157 168 196
0.343029 -0.441352 -0.58 179 191 215
0.40379 -0.441352 -0.58 202 205 222
0.406 -0.441352 -0.58 212 211 225
0.411917 -0.440591 -0.579 185 192 208
0.43141 -0.441352 -0.58 164 163 161
0.48306 -0.442113 -0.581 90 124 159
0.494977 -0.442874 -0.582 150 167 193
0.523814 -0.422329 -0.555 135 106 98
0.494929 -0.385803 -0.507 172 124 104
0.507555 -0.37515 -0.493 176 129 101
0.512043 -0.373628 -0.491 176 129 101
0.517409 -0.372106 -0.489 174 127 101
0.519139 -0.371345 -0.488 170 124 98
0.528434 -0.371345 -0.488 159 115 88
0.544655 -0.377432 -0.496 144 107 80
-0.00818 -0.312009 -0.409 194 151 119
-0.00350571 -0.312009 -0.409 196 155 125
0.0169133 -0.31506 -0.413 176 130 104
0.0185314 -0.315823 -0.414 173 127 101
0.0323229 -0.319637 -0.419 155 106 92
0.0356848 -0.321163 -0.421 149 99 92
0.0683476 -0.353203 -0.463 91 69 71
0.0708686 -0.357017 -0.468 92 70 72
0.128039 -0.440169 -0.577 192 198 214
0.189914 -0.440931 -0.578 211 215 227
0.195757 -0.441694 -0.579 200 203 212
0.211933 -0.440931 -0.578 196 198 219
0.215609 -0.441694 -0.579 92 106 145
0.225145 -0.440931 -0.578 138 158 195
0.232851 -0.440931 -0.578 144 174 224
0.24276 -0.440931 -0.578 119 136 164
0.261476 -0.440931 -0.578 165 178 187
0.264779 -0.440931 -0.578 196 208 222
0.266981 -0.440931 -0.578 200 208 227
0.295014 -0.441694 -0.579 154 175 206
0.35126 -0.441694 -0.579 129 144 163
0.372214 -0.441694 -0.579 205 204 218
0.383243 -0.441694 -0.579 192 202 229
0.401581 -0.442457 -0.58 201 203 218
0.414509 -0.440931 -0.578 108 140 179
0.43618 -0.441694 -0.579 204 209 205
0.445003 -0.441694 -0.579 126 146 196
0.451295 -0.442457 -0.58 108 128 165
0.468673 -0.44322 -0.581 168 171 180
0.487487 -0.44322 -0.581 124 146 183
0.494127 -0.44322 -0.581 152 167 208
0.499411 -0.443983 -0.582 140 147 140
0.503846 -0.443983 -0.582 174 178 177
0.522 -0.442457 -0.58 158 168 180
0.52882 -0.441694 -0.579 155 158 167
0.503957 -0.377614 -0.495 173 127 101
0.508494 -0.376089 -0.493 178 131 105
0.512867 -0.3738 -0.49 173 126 100
0.514733 -0.3738 -0.49 179 132 106
0.521928 -0.372274 -0.488 173 126 98
0.528434 -0.372274 -0.488 158 114 85
-0.0224743 -0.316611 -0.414 190 151 120
0.00822 -0.314317 -0.411 181 136 107
0.0274029 -0.318906 -0.417 159 112 94
0.0434114 -0.325789 -0.426 128 89 82
0.0538114 -0.334966 -0.438 103 73 71
0.0684952 -0.35485 -0.464 90 68 70
0.0698276 -0.357144 -0.467 90 70 71
0.09306 -0.395382 -0.517 148 175 220
0.153317 -0.441268 -0.577 142 157 190
0.168704 -0.441268 -0.577 158 181 225
0.188487 -0.441268 -0.577 212 214 229
0.191015 -0.442032 -0.578 214 218 230
0.226246 -0.442032 -0.578 113 134 165
0.229549 -0.442032 -0.578 120 153 196
0.233952 -0.442032 -0.578 167 184 212
0.235053 -0.442032 -0.578 162 179 207
0.266519 -0.441268 -0.577 199 206 224
0.269816 -0.441268 -0.577 194 196 208
0.283005 -0.441268 -0.577 199 207 220
0.291202 -0.442032 -0.578 149 172 206
0.316524 -0.442032 -0.578 177 185 204
0.317625 -0.442032 -0.578 196 197 215
0.338543 -0.442032 -0.578 195 197 218
0.364966 -0.442032 -0.578 204 203 219
0.383243 -0.442797 -0.579 183 196 228
0.403094 -0.442797 -0.579 206 204 218
0.431769 -0.442797 -0.579 195 197 196
0.455714 -0.443562 -0.58 162 179 195
0.46978 -0.444327 -0.581 183 186 193
0.491913 -0.444327 -0.581 81 105 149
0.500767 -0.444327 -0.581 175 178 187
0.510952 -0.443562 -0.58 166 174 187
0.519997 -0.442797 -0.579 156 163 173
0.523503 -0.442032 -0.578 117 121 124
0.527717 -0.442797 -0.579 156 159 164
0.494937 -0.388499 -0.508 164 122 100
0.496706 -0.383146 -0.501 174 128 104
0.513683 -0.373969 -0.489 180 133 107
0.515546 -0.373969 -0.489 176 129 103
0.523641 -0.372439 -0.487 166 121 92
-0.0224743 -0.3174 -0.414 189 148 116
-0.0159314 -0.3128 -0.408 191 151 115
-0.00272 -0.3128 -0.408 190 147 115
0.0201571 -0.318167 -0.415 169 123 99
0.0407848 -0.325067 -0.424 133 93 85
0.0614219 -0.345767 -0.451 91 70 69
0.0751143 -0.366467 -0.478 91 72 74
0.0898571 -0.391 -0.51 107 131 175
0.091719 -0.394833 -0.515 125 149 193
0.125623 -0.4416 -0.576 216 222 236
0.135497 -0.4416 -0.576 214 218 229
0.136831 -0.442367 -0.577 216 220 231
0.14208 -0.4416 -0.576 214 217 234
0.20717 -0.442367 -0.577 203 208 227
0.214864 -0.442367 -0.577 119 135 169
0.228448 -0.443133 -0.578 140 163 197
0.233952 -0.443133 -0.578 160 175 206
0.248265 -0.443133 -0.578 170 178 197
0.25443 -0.442367 -0.577 196 204 215
0.285203 -0.442367 -0.577 192 199 217
0.319273 -0.442367 -0.577 186 192 216
0.32257 -0.442367 -0.577 184 190 214
0.328066 -0.442367 -0.577 177 194 222
0.338543 -0.443133 -0.578 198 203 223
0.344048 -0.443133 -0.578 203 206 223
0.362764 -0.443133 -0.578 156 176 213
0.368269 -0.443133 -0.578 180 184 187
0.433225 -0.443133 -0.578 192 196 199
0.445335 -0.443133 -0.578 179 186 205
0.460133 -0.444667 -0.58 174 186 208
0.472286 -0.444667 -0.58 189 196 204
0.481397 -0.4439 -0.579 109 133 167
0.4825 -0.4439 -0.579 121 150 184
0.494381 -0.444667 -0.58 172 176 185
0.51338 -0.4439 -0.579 164 166 179
0.5211 -0.4439 -0.579 169 174 180
0.526806 -0.443133 -0.578 163 164 168
0.529008 -0.443133 -0.578 152 158 170
0.499723 -0.3979 -0.519 154 119 99
0.495814 -0.385633 -0.503 173 129 104
0.503014 -0.3795 -0.495 175 129 106
-0.023319 -0.318957 -0.415 189 148 116
-0.0191333 -0.315114 -0.41 194 153 121
0.0121638 -0.316651 -0.412 177 131 105
0.0161267 -0.31742 -0.413 173 127 103
0.0177429 -0.318189 -0.414 165 119 95
0.0725267 -0.363534 -0.473 90 72 72
0.077901 -0.371989 -0.484 89 73 74
0.08378 -0.38198 -0.497 91 76 79
0.108357 -0.426557 -0.555 120 138 176
0.137691 -0.442697 -0.576 214 220 234
0.210103 -0.442697 -0.576 169 176 194
0.245637 -0.443466 -0.577 106 121 152
0.264321 -0.443466 -0.577 192 205 224
0.267154 -0.442697 -0.576 197 205 218
0.271543 -0.442697 -0.576 168 179 201
0.275931 -0.442697 -0.576 193 201 222
0.295094 -0.443466 -0.577 137 167 201
0.342947 -0.444234 -0.578 203 206 221
0.358839 -0.443466 -0.577 130 153 194
0.367631 -0.443466 -0.577 203 208 214
0.374226 -0.443466 -0.577 191 203 217
0.396893 -0.444234 -0.578 116 135 168
0.417089 -0.443466 -0.577 146 175 215
0.491067 -0.445771 -0.58 104 132 169
0.493276 -0.445771 -0.58 144 161 189
0.4988 -0.445771 -0.58 174 174 186
0.502114 -0.445771 -0.58 105 108 117
0.514695 -0.444234 -0.578 172 171 185
0.526993 -0.443466 -0.577 158 162 174
0.514723 -0.415797 -0.541 145 114 96
0.497833 -0.395814 -0.515 159 123 101
0.4949 -0.388129 -0.505 167 125 101
0.500371 -0.382749 -0.498 175 129 105
0.503957 -0.380443 -0.495 181 135 111
0.505762 -0.379674 -0.494 176 128 105
0.5084 -0.378137 -0.492 178 130 107
0.51182 -0.375831 -0.489 180 133 107
0.513562 -0.375063 -0.488 178 132 106
0.543239 -0.378906 -0.493 153 114 85
0.0266086 -0.321289 -0.417 160 112 92
0.0365733 -0.325141 -0.422 148 100 88
0.0426 -0.328223 -0.426 127 89 80
0.0444305 -0.329764 -0.428 122 88 79
0.0604286 -0.346714 -0.45 91 73 73
0.0752714 -0.369058 -0.479 88 72 73
0.123429 -0.443794 -0.576 219 223 235
0.125405 -0.443024 -0.575 219 222 237
0.137691 -0.443794 -0.576 215 221 233
0.237944 -0.444565 -0.577 197 205 226
0.252891 -0.443794 -0.576 189 196 214
0.262766 -0.443794 -0.576 172 184 206
0.281417 -0.443794 -0.576 201 205 217
0.282514 -0.443794 -0.576 201 205 217
0.291291 -0.443794 -0.576 121 147 182
0.298971 -0.443794 -0.576 122 145 177
0.314331 -0.443794 -0.576 83 104 151
0.331363 -0.444565 -0.577 143 155 195
0.351146 -0.444565 -0.577 124 146 183
0.368091 -0.443794 -0.576 203 210 220
0.379721 -0.444565 -0.577 170 189 221
0.43983 -0.445335 -0.578 173 176 193
0.449739 -0.445335 -0.578 188 191 208
0.510071 -0.446106 -0.579 178 178 188
0.522597 -0.444565 -0.577 151 152 147
0.495914 -0.392943 -0.51 167 125 101
0.494856 -0.38755 -0.503 171 126 103
0.524262 -0.373681 -0.485 166 120 87
-0.0167086 -0.315131 -0.408 193 155 119
-0.00658952 -0.314359 -0.407 188 145 111
0.0185314 -0.319766 -0.414 165 119 95
0.034 -0.3244 -0.42 147 100 84
0.0391695 -0.32749 -0.424 136 93 86
0.0453514 -0.331351 -0.429 122 85 79
0.0500133 -0.335213 -0.434 103 79 75
0.138548 -0.444119 -0.575 211 219 230
0.228754 -0.444891 -0.576 150 168 204
0.259024 -0.444119 -0.575 101 117 151
0.317623 -0.444891 -0.576 131 146 185
0.382354 -0.444891 -0.576 200 208 227
0.415269 -0.444891 -0.576 155 178 210
0.420754 -0.444891 -0.576 158 182 218
0.424046 -0.444891 -0.576 145 168 202
0.4416 -0.444891 -0.576 207 210 227
0.445664 -0.445664 -0.577 207 210 229
0.459648 -0.446436 -0.578 206 208 223
0.528274 -0.444891 -0.576 159 158 164
0.503539 -0.404728 -0.524 153 116 97
0.514365 -0.37615 -0.487 179 132 104
0.517795 -0.374605 -0.485 176 129 101
-0.0239933 -0.31978 -0.413 190 151 118
-0.0127914 -0.315134 -0.407 192 152 117
-0.00891524 -0.315134 -0.407 191 151 115
0.0137333 -0.319006 -0.412 174 128 102
0.01932 -0.320554 -0.414 166 118 96
0.0299286 -0.324426 -0.419 151 104 88
0.034 -0.3252 -0.42 147 101 85
0.0702762 -0.363914 -0.47 88 70 70
0.0782229 -0.376303 -0.486 90 70 69
0.121024 -0.445214 -0.575 219 222 231
0.125187 -0.44444 -0.574 218 222 234
0.153613 -0.44444 -0.574 212 223 229
0.194405 -0.445214 -0.575 187 193 209
0.19769 -0.445214 -0.575 177 191 218
0.207548 -0.445214 -0.575 204 203 221
0.240405 -0.445214 -0.575 195 207 223
0.250262 -0.445214 -0.575 146 156 181
0.253548 -0.445214 -0.575 175 184 213
0.263405 -0.445214 -0.575 182 199 219
0.284214 -0.445214 -0.575 190 196 212
0.299548 -0.445214 -0.575 174 202 241
0.306119 -0.445214 -0.575 203 205 218
0.319262 -0.445214 -0.575 172 186 213
0.342262 -0.445214 -0.575 208 209 227
0.370738 -0.445214 -0.575 173 179 195
0.397714 -0.445989 -0.576 199 212 221
0.422949 -0.445989 -0.576 148 166 202
0.467354 -0.447537 -0.578 88 105 135
0.491575 -0.447537 -0.578 148 164 187
0.509957 -0.378626 -0.489 173 126 98
0.513437 -0.377077 -0.487 179 132 106
0.51516 -0.376303 -0.486 179 132 104
0.516871 -0.375529 -0.485 176 129 101
0.523181 -0.374754 -0.484 170 123 93
0.528881 -0.375529 -0.485 166 121 88
0.63513 -0.432826 -0.559 197 199 188
-0.0222571 -0.318238 -0.41 189 151 115
-0.0143419 -0.31591 -0.407 193 153 118
0.000388571 -0.316686 -0.408 187 144 112
0.00350571 -0.317462 -0.409 183 138 107
0.00428476 -0.317462 -0.409 182 137 106
0.00506381 -0.317462 -0.409 182 137 106
0.01932 -0.321343 -0.414 165 117 97
0.0324 -0.326 -0.42 148 101 85
0.0373771 -0.327552 -0.422 139 95 82
0.0552695 -0.343852 -0.443 99 75 73
0.0563667 -0.345405 -0.445 96 75 74
0.0606971 -0.350838 -0.452 91 71 70
0.08592 -0.3912 -0.504 108 98 109
0.08906 -0.396633 -0.511 154 165 187
0.207548 -0.44631 -0.575 165 167 182
0.213024 -0.44631 -0.575 200 210 220
0.21631 -0.44631 -0.575 206 207 228
0.22069 -0.44631 -0.575 151 165 178
0.226167 -0.44631 -0.575 145 166 195
0.232738 -0.44631 -0.575 117 145 184
0.244786 -0.44631 -0.575 197 205 218
0.317613 -0.445533 -0.574 163 180 208
0.326929 -0.44631 -0.575 174 190 223
0.341167 -0.44631 -0.575 208 207 225
0.35916 -0.445533 -0.574 133 153 186
0.363071 -0.44631 -0.575 209 211 226
0.415643 -0.44631 -0.575 146 166 199
0.444891 -0.447086 -0.576 210 213 222
0.472041 -0.447862 -0.577 178 192 221
0.476437 -0.447862 -0.577 165 171 187
0.479734 -0.447862 -0.577 158 174 189
0.492923 -0.447862 -0.577 183 189 203
0.498814 -0.399738 -0.515 158 120 97
0.495751 -0.388871 -0.501 171 127 102
0.502141 -0.38499 -0.496 181 129 105
0.536628 -0.378005 -0.487 160 116 87
-0.0214238 -0.318241 -0.409 186 147 114
-0.00966667 -0.315907 -0.406 191 151 116
0.000388571 -0.317463 -0.408 185 142 110
0.00116571 -0.317463 -0.408 186 143 111
0.0113514 -0.319797 -0.411 175 130 101
0.0129486 -0.320575 -0.412 175 129 103
0.0445343 -0.333803 -0.429 116 87 81
0.0665838 -0.360258 -0.463 89 69 70
0.123877 -0.445849 -0.573 216 222 234
0.139157 -0.445849 -0.573 215 217 232
0.14134 -0.445849 -0.573 215 218 233
0.144614 -0.445849 -0.573 113 121 140
0.146797 -0.445849 -0.573 176 186 211
0.147889 -0.445849 -0.573 200 208 229
0.153346 -0.445849 -0.573 216 220 232
0.225773 -0.446627 -0.574 142 165 199
0.245453 -0.446627 -0.574 195 201 213
0.25748 -0.446627 -0.574 105 133 173
0.301213 -0.446627 -0.574 201 207 221
0.3034 -0.446627 -0.574 207 212 216
0.307773 -0.446627 -0.574 211 208 227
0.31652 -0.446627 -0.574 176 187 209
0.367907 -0.446627 -0.574 189 203 216
0.376653 -0.446627 -0.574 208 203 223
0.397024 -0.447405 -0.575 210 212 233
0.407267 -0.446627 -0.574 212 215 230
0.409453 -0.446627 -0.574 206 208 220
0.441929 -0.447405 -0.575 211 215 224
0.49622 -0.448961 -0.577 90 109 142
0.516206 -0.448183 -0.576 122 129 139
0.518595 -0.447405 -0.575 165 170 176
0.520786 -0.447405 -0.575 169 168 174
0.522976 -0.447405 -0.575 170 169 175
0.5055 -0.4085 -0.525 151 116 96
0.497574 -0.38827 -0.499 175 129 103
0.50388 -0.384379 -0.494 180 133 107
0.507367 -0.382045 -0.491 177 130 102
0.522259 -0.376598 -0.484 172 125 99
0.528712 -0.376598 -0.484 170 125 96
0.537555 -0.378932 -0.487 163 118 89
-0.02466 -0.32058 -0.411 189 150 117
-0.0135667 -0.31746 -0.407 194 153 121
0.00740095 -0.31902 -0.409 178 133 102
0.01932 -0.32292 -0.414 167 116 97
0.0242257 -0.32526 -0.417 161 113 91
0.02502 -0.32526 -0.417 160 112 90
0.0543029 -0.34476 -0.442 96 75 70
0.06426 -0.35802 -0.459 88 70 68
0.122786 -0.44694 -0.573 217 224 230
