ply
format ascii 1.0
comment Created by Open3D
element vertex 1315
property double x
property double y
property double z
property uchar red
property uchar green
property uchar blue
end_header
0.2475 -0.1045 -0.525 126 82 83
0.257728 -0.107088 -0.538 138 94 95
0.275241 -0.111268 -0.559 77 45 48
0.280348 -0.112462 -0.565 48 27 34
0.303893 -0.117836 -0.592 18 11 18
0.312146 -0.118831 -0.597 28 18 26
0.315229 -0.117438 -0.59 28 17 23
0.302871 -0.110471 -0.555 115 85 95
0.303563 -0.108083 -0.543 142 110 121
0.309303 -0.108282 -0.544 142 106 116
0.383909 -0.108282 -0.544 199 142 148
0.201343 -0.0976629 -0.486 182 131 130
0.206819 -0.0980648 -0.488 179 128 124
0.209106 -0.0982657 -0.489 176 125 121
0.210467 -0.0984667 -0.49 177 124 120
0.246557 -0.105098 -0.523 118 76 78
0.262741 -0.108916 -0.542 127 89 88
0.30011 -0.118361 -0.589 22 16 20
0.304597 -0.109117 -0.543 141 109 120
0.385271 -0.109117 -0.543 204 147 153
0.385594 -0.108916 -0.542 199 142 148
0.208678 -0.0989943 -0.488 177 123 121
0.212767 -0.0996029 -0.491 177 123 121
0.215074 -0.0998057 -0.492 172 121 118
0.312233 -0.1207 -0.595 16 9 16
0.301971 -0.109949 -0.542 139 106 115
0.303475 -0.109746 -0.541 142 109 118
0.38353 -0.109949 -0.542 201 144 150
0.226643 -0.102586 -0.501 156 106 107
0.25779 -0.109752 -0.536 114 75 78
0.263287 -0.110776 -0.541 112 71 75
0.300209 -0.120195 -0.587 18 9 14
0.320554 -0.110981 -0.542 141 104 112
0.381791 -0.110776 -0.541 193 136 142
0.382433 -0.110367 -0.539 199 142 148
0.186833 -0.0981667 -0.475 178 125 121
0.190346 -0.09858 -0.477 175 122 118
0.196618 -0.0989933 -0.479 171 120 116
0.211467 -0.100853 -0.488 174 123 120
0.23414 -0.105193 -0.509 130 85 88
0.242227 -0.107053 -0.518 101 65 69
0.277937 -0.11532 -0.558 42 23 27
0.30968 -0.12152 -0.588 16 9 16
0.30119 -0.113667 -0.55 129 98 104
0.301139 -0.113253 -0.548 127 96 102
0.30108 -0.11284 -0.546 127 96 102
0.328813 -0.112013 -0.542 138 101 108
0.334972 -0.113047 -0.547 140 105 111
0.38324 -0.11284 -0.546 170 116 116
0.215133 -0.1022 -0.49 168 117 113
0.251401 -0.110334 -0.529 102 62 70
0.285156 -0.118051 -0.566 28 19 24
0.30744 -0.12264 -0.588 17 12 18
0.307252 -0.119094 -0.571 19 13 17
0.302914 -0.112629 -0.54 137 104 111
0.316727 -0.11242 -0.539 145 110 116
0.317753 -0.11242 -0.539 142 107 113
0.31878 -0.11242 -0.539 140 105 111
0.325543 -0.112629 -0.54 139 102 109
0.158451 -0.0997657 -0.474 203 148 141
0.165325 -0.0995552 -0.473 203 145 144
0.174865 -0.0993448 -0.472 211 167 154
0.202514 -0.101029 -0.48 163 112 108
0.2211 -0.104186 -0.495 152 101 98
0.300095 -0.115341 -0.548 125 94 100
0.300529 -0.11471 -0.545 127 96 102
0.307487 -0.113447 -0.539 145 108 116
0.31204 -0.113236 -0.538 151 116 123
0.320238 -0.113236 -0.538 140 103 111
0.380761 -0.113868 -0.541 169 110 112
0.390514 -0.112815 -0.536 196 140 143
0.154911 -0.101306 -0.477 212 158 148
0.156646 -0.100669 -0.474 209 154 147
0.173597 -0.100031 -0.471 211 161 152
0.198107 -0.101093 -0.476 166 113 107
0.204769 -0.102155 -0.481 163 112 109
0.230832 -0.107465 -0.506 129 87 88
0.24363 -0.11065 -0.521 93 57 61
0.245561 -0.111075 -0.523 90 54 56
0.306119 -0.122119 -0.575 18 9 14
0.30999 -0.114261 -0.538 147 107 115
0.31204 -0.114261 -0.538 149 114 120
0.315114 -0.114261 -0.538 156 119 126
0.329871 -0.114049 -0.537 143 101 113
0.330894 -0.114049 -0.537 142 100 112
0.38092 -0.113411 -0.534 209 152 159
0.156315 -0.101357 -0.473 207 153 143
0.157216 -0.101357 -0.473 207 153 143
0.271462 -0.116786 -0.545 110 77 84
0.283759 -0.119786 -0.559 24 19 23
0.302948 -0.121071 -0.565 15 13 18
0.315551 -0.115071 -0.537 153 118 122
0.325173 -0.114857 -0.536 138 104 105
0.388329 -0.114214 -0.533 204 143 148
0.396807 -0.1155 -0.539 175 125 116
0.15368 -0.102907 -0.476 205 152 144
0.194644 -0.102042 -0.472 162 111 108
0.23598 -0.110906 -0.513 110 71 76
0.260317 -0.116094 -0.537 99 56 63
0.267409 -0.116959 -0.541 111 70 76
0.276088 -0.118472 -0.548 42 26 29
0.301841 -0.123012 -0.569 16 15 21
0.298452 -0.117824 -0.545 126 93 102
0.301327 -0.116527 -0.539 131 98 107
0.307369 -0.116094 -0.537 133 97 107
0.309414 -0.116094 -0.537 134 98 108
0.32049 -0.115662 -0.535 145 110 114
0.327011 -0.115446 -0.534 141 104 111
0.328029 -0.115446 -0.534 141 104 111
0.33249 -0.11523 -0.533 139 103 107
0.341251 -0.115446 -0.534 136 100 104
0.389344 -0.11523 -0.533 194 135 139
0.3996 -0.116743 -0.54 170 117 111
0.152773 -0.103813 -0.476 206 149 142
0.153937 -0.103377 -0.474 204 151 143
0.155086 -0.102941 -0.472 205 151 141
0.16482 -0.102287 -0.469 204 154 143
0.17657 -0.10185 -0.467 183 127 114
0.189833 -0.102287 -0.469 164 111 107
0.193334 -0.102723 -0.471 161 110 107
0.198595 -0.103595 -0.475 159 109 108
0.217886 -0.107303 -0.492 129 85 86
0.23644 -0.112101 -0.514 106 70 74
0.242637 -0.113628 -0.521 86 47 52
0.25779 -0.116899 -0.536 94 51 58
0.27508 -0.11908 -0.546 46 27 31
0.292224 -0.122788 -0.563 33 23 31
0.303842 -0.117335 -0.538 131 95 105
0.304867 -0.117335 -0.538 132 96 106
0.305891 -0.117335 -0.538 131 95 105
0.406414 -0.118862 -0.545 174 120 120
0.157114 -0.1034 -0.47 202 149 141
0.160011 -0.10296 -0.468 204 151 143
0.161794 -0.10296 -0.468 206 154 143
0.167143 -0.10296 -0.468 203 154 140
0.198177 -0.10428 -0.474 163 109 109
0.210167 -0.1067 -0.485 139 89 88
0.230323 -0.11154 -0.507 105 69 73
0.255271 -0.1177 -0.535 84 45 50
0.25677 -0.11792 -0.536 87 48 53
0.263876 -0.11836 -0.538 103 61 63
0.266914 -0.1188 -0.54 112 66 69
0.272534 -0.11946 -0.543 93 73 75
0.279729 -0.12078 -0.549 39 31 42
0.283873 -0.12166 -0.553 38 32 42
0.296376 -0.1199 -0.545 120 97 103
0.297357 -0.11946 -0.543 126 93 100
0.31088 -0.11792 -0.536 133 98 105
0.31684 -0.11748 -0.534 135 100 107
0.34338 -0.11682 -0.531 135 99 103
0.35112 -0.11704 -0.532 139 100 105
0.380507 -0.11704 -0.532 207 148 154
0.179239 -0.10363 -0.467 172 115 108
0.19162 -0.104073 -0.469 162 107 104
0.267943 -0.119829 -0.54 119 70 73
0.26947 -0.12005 -0.541 118 78 79
0.29484 -0.12116 -0.546 132 117 124
0.296323 -0.120494 -0.543 125 92 99
0.317857 -0.118497 -0.534 136 101 108
0.318277 -0.118275 -0.533 136 101 108
0.319292 -0.118275 -0.533 136 101 108
0.331629 -0.11761 -0.53 142 107 113
0.341079 -0.117388 -0.529 136 100 104
0.35081 -0.11761 -0.53 138 99 104
0.378732 -0.121382 -0.547 133 88 91
0.3787 -0.12005 -0.541 128 79 83
0.384849 -0.117831 -0.531 206 147 153
0.388613 -0.118053 -0.532 200 143 149
0.154429 -0.10519 -0.47 201 148 142
0.163228 -0.104519 -0.467 199 146 140
0.16536 -0.104743 -0.468 197 144 136
0.166786 -0.104519 -0.467 197 144 136
0.170344 -0.104519 -0.467 200 147 141
0.173012 -0.104519 -0.467 179 125 115
0.174417 -0.104295 -0.466 181 124 117
0.187245 -0.104519 -0.467 162 107 102
0.203917 -0.107205 -0.479 158 103 98
0.214255 -0.109219 -0.488 120 78 79
0.235919 -0.115262 -0.515 96 57 62
0.240652 -0.116605 -0.521 92 53 58
0.26947 -0.121081 -0.541 117 75 77
0.308838 -0.119962 -0.536 131 99 104
0.318277 -0.11929 -0.533 132 100 105
0.32214 -0.118843 -0.531 133 98 104
0.344457 -0.118171 -0.528 135 100 106
0.378176 -0.11929 -0.533 136 86 89
0.148863 -0.107891 -0.478 200 146 136
0.151229 -0.106989 -0.474 196 144 133
0.174417 -0.105183 -0.466 177 122 115
0.186844 -0.105183 -0.466 163 108 103
0.200405 -0.107214 -0.475 165 110 105
0.214694 -0.110374 -0.489 121 81 81
0.247838 -0.119629 -0.53 82 39 48
0.258811 -0.120983 -0.536 90 48 60
0.2782 -0.12324 -0.546 182 176 188
0.285476 -0.124143 -0.55 139 135 150
0.299273 -0.12166 -0.539 127 96 101
0.313357 -0.120757 -0.535 130 98 103
0.319707 -0.12008 -0.532 135 100 104
0.332763 -0.118951 -0.527 134 102 107
0.3525 -0.1185 -0.525 136 100 104
0.374877 -0.121209 -0.537 109 70 75
0.377557 -0.120757 -0.535 114 72 74
0.382533 -0.12008 -0.532 196 141 146
0.382826 -0.119854 -0.531 204 145 151
0.424733 -0.125046 -0.554 186 143 136
0.162878 -0.10607 -0.466 194 144 137
0.165007 -0.106298 -0.467 197 144 136
0.165896 -0.106298 -0.467 199 146 138
0.185956 -0.10607 -0.466 159 104 101
0.192513 -0.106753 -0.469 159 104 99
0.203491 -0.108802 -0.478 161 108 102
0.244428 -0.119955 -0.527 96 53 62
0.248306 -0.120866 -0.531 84 41 50
0.290186 -0.124963 -0.549 53 47 61
0.304867 -0.122459 -0.538 129 96 103
0.314806 -0.121549 -0.534 133 98 102
0.323151 -0.120866 -0.531 133 101 104
0.340147 -0.119728 -0.526 135 103 108
0.3475 -0.1195 -0.525 147 112 118
0.365307 -0.121093 -0.532 130 99 104
0.383547 -0.121093 -0.532 198 141 147
0.401194 -0.122459 -0.538 162 106 107
0.406242 -0.12337 -0.542 155 103 105
0.144874 -0.111549 -0.486 203 148 143
0.145518 -0.11063 -0.482 202 147 142
0.149423 -0.108794 -0.474 193 143 134
0.15091 -0.108565 -0.473 194 144 133
0.155554 -0.107417 -0.468 199 149 142
0.162878 -0.106958 -0.466 193 143 136
0.168729 -0.106729 -0.465 197 144 136
0.175814 -0.106729 -0.465 182 127 120
0.20838 -0.11086 -0.483 164 109 106
0.272032 -0.124402 -0.542 144 115 117
0.280263 -0.125779 -0.548 76 65 73
0.285476 -0.126238 -0.55 58 47 63
0.29068 -0.12532 -0.546 54 49 56
0.29322 -0.124631 -0.543 115 94 101
0.295231 -0.124172 -0.541 125 90 94
0.297771 -0.123943 -0.54 127 92 98
0.314806 -0.122566 -0.534 134 99 105
0.32798 -0.121418 -0.529 135 99 103
0.328988 -0.121418 -0.529 137 98 103
0.349165 -0.120041 -0.523 145 113 116
0.35315 -0.120041 -0.523 139 103 105
0.361873 -0.120959 -0.527 137 101 105
0.383547 -0.122107 -0.532 192 136 139
0.387883 -0.121877 -0.531 203 144 150
0.391653 -0.122107 -0.532 188 128 128
0.402967 -0.123713 -0.539 162 104 102
0.419571 -0.126238 -0.55 204 161 152
0.147929 -0.109929 -0.475 197 147 138
0.153207 -0.10854 -0.469 197 147 140
0.161103 -0.107846 -0.466 201 148 142
0.182014 -0.107614 -0.465 166 111 106
0.185557 -0.107614 -0.465 154 98 97
0.233957 -0.119186 -0.515 144 106 117
0.260853 -0.124046 -0.536 114 62 64
0.27871 -0.126591 -0.547 46 33 42
0.290701 -0.126823 -0.548 53 46 54
0.291688 -0.125897 -0.544 69 59 67
0.292724 -0.125897 -0.544 113 90 98
0.299829 -0.124971 -0.54 130 95 101
0.32798 -0.122426 -0.529 135 100 104
0.347172 -0.121037 -0.523 136 101 105
0.369292 -0.122426 -0.529 139 113 116
0.372711 -0.122889 -0.531 147 125 127
0.373723 -0.122889 -0.531 118 96 98
0.387883 -0.122889 -0.531 194 137 143
0.4134 -0.12636 -0.546 195 148 142
0.143023 -0.1134 -0.486 199 149 140
0.144914 -0.112 -0.48 197 147 138
0.154663 -0.1092 -0.468 199 146 140
0.161103 -0.108733 -0.466 199 146 140
0.237675 -0.121567 -0.521 158 122 132
0.261386 -0.124833 -0.535 132 80 84
0.296743 -0.126 -0.54 127 92 98
0.3003 -0.125767 -0.539 128 93 97
0.306346 -0.1253 -0.537 133 98 102
0.307817 -0.125067 -0.536 133 98 102
0.308838 -0.125067 -0.536 134 99 103
0.311319 -0.124833 -0.535 133 98 104
0.31684 -0.1246 -0.534 134 99 105
0.325174 -0.1239 -0.531 132 102 102
0.330377 -0.1232 -0.528 138 103 107
0.342846 -0.122267 -0.524 135 100 104
0.344184 -0.122033 -0.523 135 100 104
0.366196 -0.122733 -0.526 135 103 108
0.385573 -0.124133 -0.532 195 139 140
0.41085 -0.126933 -0.544 179 130 126
0.427681 -0.128567 -0.551 184 131 127
0.142764 -0.113385 -0.482 196 146 137
0.146427 -0.111973 -0.476 197 147 138
0.163414 -0.109386 -0.465 194 141 135
0.171386 -0.109386 -0.465 186 127 121
0.186443 -0.109386 -0.465 150 99 96
0.206601 -0.11315 -0.481 127 84 78
0.219657 -0.116678 -0.496 115 79 81
0.232524 -0.120912 -0.514 168 126 138
0.255271 -0.125852 -0.535 95 49 51
0.284429 -0.129381 -0.55 54 42 54
0.294201 -0.127264 -0.541 129 89 97
0.301792 -0.126558 -0.538 129 94 98
0.306346 -0.126323 -0.537 133 98 102
0.312338 -0.125852 -0.535 135 100 106
0.31684 -0.125617 -0.534 136 101 107
0.324163 -0.124911 -0.531 132 102 102
0.325571 -0.124676 -0.53 133 103 103
0.329371 -0.124206 -0.528 132 100 103
0.332763 -0.12397 -0.527 135 104 109
0.343844 -0.123265 -0.524 133 101 106
0.347503 -0.122794 -0.522 136 101 105
0.363806 -0.123265 -0.524 135 100 106
0.383252 -0.125382 -0.533 159 117 118
0.387883 -0.124911 -0.531 191 135 136
0.392667 -0.125147 -0.532 187 131 130
0.14552 -0.11288 -0.476 200 147 139
0.155222 -0.110746 -0.467 198 148 141
0.179357 -0.110271 -0.465 174 122 108
0.203066 -0.113117 -0.477 119 75 74
0.233429 -0.122366 -0.516 175 131 144
0.261914 -0.126634 -0.534 155 105 104
0.276652 -0.129243 -0.545 59 34 38
0.292186 -0.128769 -0.543 114 83 89
0.309859 -0.127109 -0.536 129 97 100
0.31088 -0.127109 -0.536 130 98 101
0.344184 -0.124026 -0.523 128 99 103
0.395435 -0.126397 -0.533 185 129 128
0.42145 -0.129717 -0.547 200 160 148
0.425352 -0.129954 -0.548 191 142 137
0.142171 -0.114743 -0.48 198 145 137
0.144613 -0.113787 -0.476 199 146 140
0.156111 -0.111635 -0.467 196 146 139
0.15844 -0.111396 -0.466 197 144 138
0.168729 -0.111157 -0.465 186 127 121
0.1705 -0.111157 -0.465 182 123 117
0.171386 -0.111157 -0.465 185 126 120
0.174929 -0.111157 -0.465 188 127 122
0.175436 -0.110918 -0.464 190 127 122
0.179357 -0.111157 -0.465 173 121 107
0.182507 -0.110918 -0.464 162 110 97
0.18339 -0.110918 -0.464 157 104 98
0.192994 -0.111874 -0.468 143 93 94
0.201733 -0.113787 -0.476 145 97 97
0.203066 -0.114026 -0.477 129 85 84
0.211961 -0.116416 -0.487 120 82 81
0.2142 -0.117133 -0.49 122 86 86
0.222381 -0.119524 -0.5 91 54 61
0.233881 -0.123588 -0.517 165 121 134
0.275109 -0.130042 -0.544 74 52 55
0.306796 -0.12813 -0.536 133 98 102
0.314216 -0.127412 -0.533 132 100 103
0.320117 -0.126934 -0.531 134 102 105
0.325174 -0.126934 -0.531 136 101 105
0.32759 -0.126695 -0.53 136 101 107
0.380614 -0.12789 -0.535 27 12 17
0.381633 -0.12789 -0.535 32 10 12
0.386587 -0.127173 -0.532 190 130 132
0.390917 -0.126934 -0.531 191 136 133
0.412922 -0.130042 -0.544 170 120 113
0.41652 -0.13052 -0.546 190 140 133
0.420409 -0.130759 -0.547 204 157 147
0.43319 -0.131476 -0.55 192 134 132
0.149374 -0.113489 -0.471 185 135 126
0.154332 -0.112525 -0.467 197 144 138
0.166598 -0.111802 -0.464 190 131 125
0.173669 -0.111802 -0.464 187 126 121
0.179357 -0.112043 -0.465 169 117 103
0.240869 -0.127223 -0.528 175 140 147
0.252047 -0.129873 -0.539 97 67 75
0.261424 -0.128428 -0.533 160 109 108
0.264443 -0.12891 -0.535 154 104 103
0.27153 -0.130355 -0.541 97 67 69
0.291688 -0.131078 -0.544 108 83 89
0.296743 -0.130114 -0.54 123 89 90
0.298247 -0.129873 -0.539 126 92 93
0.308838 -0.12915 -0.536 131 96 100
0.315231 -0.128428 -0.533 133 101 104
0.316667 -0.128187 -0.532 133 101 104
0.323151 -0.127946 -0.531 136 101 107
0.32759 -0.127705 -0.53 136 99 106
0.334135 -0.126741 -0.526 66 44 47
0.335137 -0.126741 -0.526 64 44 46
0.338853 -0.126259 -0.524 123 97 100
0.344184 -0.126018 -0.523 112 85 90
0.374029 -0.127705 -0.53 33 17 27
0.378886 -0.128669 -0.534 23 11 15
0.39294 -0.127946 -0.531 186 133 129
0.401745 -0.12915 -0.536 167 114 110
0.412163 -0.130837 -0.543 165 112 108
0.42692 -0.13156 -0.546 193 142 138
0.139893 -0.118514 -0.488 200 149 145
0.1431 -0.115843 -0.477 197 144 138
0.146405 -0.114871 -0.473 202 149 143
0.148792 -0.114629 -0.472 189 139 130
0.150848 -0.114143 -0.47 187 137 128
0.161643 -0.112929 -0.465 193 140 134
0.163414 -0.112929 -0.465 191 138 132
0.16925 -0.112686 -0.464 183 124 118
0.178088 -0.112686 -0.464 178 117 112
0.182014 -0.112929 -0.465 166 112 100
0.1829 -0.112929 -0.465 161 107 95
0.210167 -0.117786 -0.485 105 71 69
0.219657 -0.120457 -0.496 100 63 70
0.253073 -0.1309 -0.539 107 67 75
0.256397 -0.128957 -0.531 151 98 106
0.258907 -0.1292 -0.532 156 104 108
0.262439 -0.129443 -0.533 159 108 107
0.280774 -0.133329 -0.549 45 29 39
0.29317 -0.131386 -0.541 122 87 91
0.307817 -0.130171 -0.536 132 97 101
0.318693 -0.1292 -0.532 134 102 105
0.321129 -0.128957 -0.531 133 101 104
0.331759 -0.127986 -0.527 133 104 109
0.334135 -0.127743 -0.526 66 44 47
0.3355 -0.1275 -0.525 65 45 47
0.345514 -0.126771 -0.522 125 94 99
0.34783 -0.126529 -0.521 132 101 106
0.348822 -0.126529 -0.521 130 101 105
0.390917 -0.128957 -0.531 191 138 134
0.141257 -0.117486 -0.48 197 144 140
0.174552 -0.11357 -0.464 186 125 120
0.19866 -0.115772 -0.473 144 89 94
0.253895 -0.129724 -0.53 136 89 95
0.255914 -0.129724 -0.53 155 102 112
0.265462 -0.130948 -0.535 147 97 98
0.27716 -0.13364 -0.546 44 24 33
0.282847 -0.134864 -0.551 49 29 41
0.285463 -0.135109 -0.552 53 33 44
0.29017 -0.133885 -0.547 49 32 42
0.292186 -0.132906 -0.543 119 84 88
0.295714 -0.132171 -0.54 121 87 88
0.296743 -0.132171 -0.54 123 89 90
0.298247 -0.131927 -0.539 126 92 93
0.315653 -0.130213 -0.532 132 100 103
0.320117 -0.129969 -0.531 133 101 104
0.328988 -0.129479 -0.529 138 101 108
0.332763 -0.12899 -0.527 125 96 100
0.333767 -0.12899 -0.527 76 51 55
0.334135 -0.128745 -0.526 72 47 51
0.3395 -0.1285 -0.525 120 91 95
0.345514 -0.127766 -0.522 115 84 89
0.378886 -0.130703 -0.534 28 13 20
0.38469 -0.130948 -0.535 109 73 73
0.384989 -0.130703 -0.534 153 97 98
0.386298 -0.130458 -0.533 190 125 129
0.391929 -0.129969 -0.531 186 132 130
0.397466 -0.130458 -0.533 173 122 119
0.421986 -0.133395 -0.545 203 153 146
0.426138 -0.133395 -0.545 195 147 143
0.140635 -0.118647 -0.481 198 143 138
0.163063 -0.114453 -0.464 193 136 129
0.166598 -0.114453 -0.464 189 130 124
0.16925 -0.114453 -0.464 184 125 119
0.17632 -0.114453 -0.464 181 122 116
0.20838 -0.11914 -0.483 127 85 86
0.210167 -0.119633 -0.485 104 65 68
0.27716 -0.13468 -0.546 42 25 31
0.294686 -0.1332 -0.54 121 86 90
0.298718 -0.132707 -0.538 126 91 95
0.315653 -0.131227 -0.532 133 101 106
0.359048 -0.128267 -0.52 130 101 106
0.361723 -0.128513 -0.521 132 101 106
0.386587 -0.131227 -0.532 188 129 125
0.403517 -0.13246 -0.537 172 117 112
0.409614 -0.133447 -0.541 158 110 100
0.140343 -0.119314 -0.48 196 143 137
0.141283 -0.118569 -0.477 198 145 139
0.144909 -0.117823 -0.474 200 147 141
0.153443 -0.116083 -0.467 193 143 136
0.161643 -0.115586 -0.465 192 137 132
0.17153 -0.115089 -0.463 187 130 123
0.174552 -0.115337 -0.464 180 123 114
0.199983 -0.117823 -0.474 127 82 79
0.242237 -0.131991 -0.531 116 83 90
0.251486 -0.134229 -0.54 98 68 70
0.251876 -0.131743 -0.53 131 80 87
0.259462 -0.131494 -0.529 165 115 118
0.275109 -0.135223 -0.544 44 29 36
0.281286 -0.136714 -0.55 38 25 35
0.288094 -0.136963 -0.551 47 34 44
0.29017 -0.135969 -0.547 52 29 37
0.291688 -0.135223 -0.544 110 77 86
0.292186 -0.134974 -0.543 116 79 87
0.298247 -0.13398 -0.539 120 88 91
0.3043 -0.133483 -0.537 127 95 98
0.314216 -0.132489 -0.533 131 99 102
0.320117 -0.131991 -0.531 133 101 104
0.334135 -0.130749 -0.526 128 97 102
0.351437 -0.129009 -0.519 129 97 100
0.361723 -0.129506 -0.521 126 95 100
0.378576 -0.132986 -0.535 32 18 18
0.387023 -0.132737 -0.534 174 116 114
0.423284 -0.135223 -0.544 202 149 141
0.138317 -0.122483 -0.489 195 146 141
0.144006 -0.118726 -0.474 201 148 142
0.16483 -0.116221 -0.464 185 135 126
0.172412 -0.11597 -0.463 181 129 118
0.184671 -0.116471 -0.465 141 90 87
0.185557 -0.116471 -0.465 136 90 90
0.188619 -0.116722 -0.466 134 90 89
0.192994 -0.117223 -0.468 126 81 78
0.22922 -0.127993 -0.511 90 53 60
0.279219 -0.137261 -0.548 40 27 37
0.29017 -0.13701 -0.547 68 45 53
0.292186 -0.136009 -0.543 115 78 86
0.330377 -0.132251 -0.528 136 104 109
0.331383 -0.132251 -0.528 134 102 107
0.331759 -0.132001 -0.527 136 104 109
0.338853 -0.13125 -0.524 117 86 91
0.341195 -0.130999 -0.523 112 81 87
0.342191 -0.130999 -0.523 112 81 87
0.386729 -0.134005 -0.535 150 102 102
0.389906 -0.133003 -0.531 197 146 143
0.39294 -0.133003 -0.531 191 140 136
0.421471 -0.136009 -0.543 196 143 137
0.428465 -0.136259 -0.544 195 144 140
0.138394 -0.122657 -0.486 195 144 140
0.151664 -0.117862 -0.467 193 140 136
0.17153 -0.116852 -0.463 178 125 117
0.183786 -0.117357 -0.465 143 94 90
0.190803 -0.117862 -0.467 133 89 88
0.20838 -0.1219 -0.483 130 90 90
0.23569 -0.13149 -0.521 116 79 86
0.2385 -0.1325 -0.525 150 119 124
0.249975 -0.132752 -0.526 139 86 94
0.2505 -0.1325 -0.525 146 90 99
0.276652 -0.137548 -0.545 42 27 34
0.288094 -0.139062 -0.551 57 50 57
0.288094 -0.138557 -0.549 51 40 46
0.303277 -0.135529 -0.537 125 95 97
0.314216 -0.134519 -0.533 132 100 103
0.326972 -0.13351 -0.529 133 101 104
0.374427 -0.134267 -0.532 33 19 18
0.394963 -0.134014 -0.531 184 129 126
0.395974 -0.134014 -0.531 185 127 123
0.418103 -0.137295 -0.544 166 114 103
0.42354 -0.137043 -0.543 190 137 131
0.139091 -0.122566 -0.482 193 143 136
0.141283 -0.121294 -0.477 194 144 137
0.167121 -0.117734 -0.463 176 126 119
0.175058 -0.117734 -0.463 175 121 111
0.178088 -0.117989 -0.464 163 109 99
0.192103 -0.119006 -0.468 132 88 85
0.196923 -0.119769 -0.471 125 81 78
0.210167 -0.123329 -0.485 119 80 81
0.22922 -0.12994 -0.511 88 52 56
0.23569 -0.132483 -0.521 103 68 74
0.2495 -0.1335 -0.525 143 92 99
0.288094 -0.140111 -0.551 62 57 63
0.318094 -0.135026 -0.531 133 102 107
0.319106 -0.135026 -0.531 133 102 107
0.335137 -0.133754 -0.526 131 99 104
0.342191 -0.132991 -0.523 129 98 103
0.352426 -0.131974 -0.519 117 88 93
0.382822 -0.137569 -0.541 41 25 28
0.389906 -0.135026 -0.531 194 143 139
0.395974 -0.135026 -0.531 186 128 126
0.409127 -0.13706 -0.539 152 105 95
0.4163 -0.138077 -0.543 149 96 88
0.43524 -0.13884 -0.546 168 114 112
0.144006 -0.121434 -0.474 196 146 139
0.150774 -0.119641 -0.467 191 142 135
0.168003 -0.118616 -0.463 177 124 118
0.1694 -0.11836 -0.462 177 124 118
0.17116 -0.11836 -0.462 180 127 119
0.182507 -0.118872 -0.464 146 93 87
0.184671 -0.119129 -0.465 141 92 88
0.186844 -0.119385 -0.466 136 91 88
0.210167 -0.124252 -0.485 118 80 79
0.215133 -0.125533 -0.49 114 78 80
0.250542 -0.133988 -0.523 152 101 106
0.253017 -0.134244 -0.524 158 103 108
0.255013 -0.134244 -0.524 156 106 109
0.288094 -0.141161 -0.551 54 47 54
0.292186 -0.139111 -0.543 110 78 83
0.342191 -0.133988 -0.523 133 101 106
0.349814 -0.133475 -0.521 131 100 106
0.387748 -0.137062 -0.535 153 100 96
0.137667 -0.126467 -0.49 197 150 142
0.141893 -0.122853 -0.476 193 142 138
0.158644 -0.119756 -0.464 180 130 123
0.160411 -0.119756 -0.464 182 129 123
0.164475 -0.119498 -0.463 178 128 121
0.166239 -0.119498 -0.463 176 126 119
0.17204 -0.11924 -0.462 177 124 116
0.192994 -0.120789 -0.468 132 88 87
0.20838 -0.12466 -0.483 118 78 76
0.258992 -0.135758 -0.526 151 102 105
0.290148 -0.140662 -0.545 97 75 78
0.303733 -0.138339 -0.536 126 94 99
0.31464 -0.137307 -0.532 133 101 104
0.331759 -0.136016 -0.527 149 118 123
0.340199 -0.134984 -0.523 111 79 84
0.343526 -0.134726 -0.522 131 98 105
0.352114 -0.13421 -0.52 105 78 83
0.381791 -0.13963 -0.541 40 25 28
0.388894 -0.137049 -0.531 194 140 140
0.415533 -0.139888 -0.542 134 81 73
0.425857 -0.139888 -0.542 177 122 117
0.137012 -0.12766 -0.491 195 151 140
0.138173 -0.12532 -0.482 195 147 137
0.143103 -0.12324 -0.474 195 144 140
0.143702 -0.12298 -0.473 195 146 141
0.14874 -0.12194 -0.469 196 146 139
0.151339 -0.12116 -0.466 189 140 135
0.156876 -0.12064 -0.464 184 134 127
0.15776 -0.12064 -0.464 183 133 126
0.164475 -0.12038 -0.463 179 129 120
0.183786 -0.1209 -0.465 134 89 84
0.185557 -0.1209 -0.465 132 88 85
0.244348 -0.13754 -0.529 76 41 45
0.248591 -0.13546 -0.521 150 101 105
0.253046 -0.13572 -0.522 157 102 107
0.289657 -0.14248 -0.548 88 76 78
0.297693 -0.13988 -0.538 117 87 89
0.316071 -0.13806 -0.531 132 100 103
0.322543 -0.1378 -0.53 136 100 102
0.337855 -0.13624 -0.524 133 100 107
0.339203 -0.13598 -0.523 131 98 105
0.342191 -0.13598 -0.523 128 95 102
0.393381 -0.143 -0.55 56 47 50
0.390126 -0.14144 -0.544 67 51 51
0.395229 -0.1378 -0.53 193 138 135
0.421728 -0.14092 -0.542 169 116 108
0.42276 -0.14092 -0.542 174 119 112
0.424825 -0.14092 -0.542 173 118 113
0.425857 -0.14092 -0.542 168 113 108
0.136793 -0.130167 -0.497 195 148 142
0.142801 -0.123881 -0.473 195 146 141
0.150451 -0.122048 -0.466 191 142 135
0.156329 -0.121786 -0.465 186 136 127
0.15776 -0.121524 -0.464 180 130 121
0.159528 -0.121524 -0.464 182 129 123
0.160066 -0.121262 -0.463 183 130 124
0.162711 -0.121262 -0.463 179 129 120
0.178971 -0.121524 -0.464 150 97 89
0.1829 -0.121786 -0.465 138 89 84
0.189024 -0.12231 -0.467 126 82 79
0.196923 -0.123357 -0.471 127 86 84
0.199561 -0.123881 -0.473 130 86 85
0.20131 -0.124405 -0.475 130 86 85
0.214637 -0.128595 -0.491 111 75 77
0.228771 -0.133571 -0.51 78 47 53
0.244034 -0.137238 -0.524 98 55 62
0.294201 -0.14169 -0.541 114 84 86
0.296743 -0.141429 -0.54 115 85 87
0.303733 -0.140381 -0.536 126 94 97
0.30972 -0.139857 -0.534 130 95 99
0.313201 -0.139595 -0.533 133 98 102
0.315231 -0.139595 -0.533 133 98 102
0.319106 -0.139071 -0.531 135 100 104
0.320524 -0.13881 -0.53 135 101 102
0.32395 -0.138548 -0.529 142 99 109
0.3345 -0.1375 -0.525 136 105 111
0.342531 -0.136714 -0.522 132 99 106
0.34452 -0.136714 -0.522 137 104 111
0.350807 -0.136452 -0.521 133 102 107
0.351124 -0.13619 -0.52 132 101 106
0.353105 -0.13619 -0.52 129 97 102
0.382169 -0.142214 -0.543 45 29 30
0.388329 -0.139595 -0.533 177 123 121
0.39976 -0.139333 -0.532 180 127 119
0.409392 -0.140905 -0.538 157 107 100
0.1422 -0.125046 -0.474 192 143 138
0.142801 -0.124782 -0.473 195 146 141
0.152786 -0.122671 -0.465 189 139 132
0.16676 -0.12188 -0.462 176 126 117
0.189024 -0.123199 -0.467 127 83 82
0.191211 -0.123463 -0.468 126 82 81
0.236683 -0.137445 -0.521 60 31 36
0.2405 -0.1385 -0.525 59 27 32
0.248114 -0.137181 -0.52 153 102 107
0.250576 -0.137445 -0.521 157 102 107
0.288094 -0.145359 -0.551 36 27 32
0.291648 -0.142985 -0.542 105 74 79
0.303733 -0.141402 -0.536 125 93 96
0.331759 -0.139028 -0.527 236 221 228
0.3355 -0.1385 -0.525 134 105 110
0.350807 -0.137445 -0.521 131 100 105
0.389197 -0.141666 -0.537 139 95 96
0.40685 -0.141402 -0.536 160 109 105
0.419663 -0.142985 -0.542 148 95 87
0.137255 -0.128074 -0.482 200 151 146
0.1376 -0.127543 -0.48 195 146 141
0.141595 -0.126214 -0.475 197 148 143
0.142801 -0.125683 -0.473 196 147 142
0.146953 -0.12462 -0.469 194 143 139
0.153671 -0.123557 -0.465 190 140 133
0.212396 -0.129669 -0.488 111 71 71
0.294201 -0.143751 -0.541 113 83 85
0.303733 -0.142423 -0.536 124 92 95
0.314216 -0.141626 -0.533 131 99 102
0.315653 -0.14136 -0.532 131 99 102
0.3345 -0.1395 -0.525 133 106 111
0.343526 -0.138703 -0.522 131 100 105
0.352114 -0.138171 -0.52 133 102 107
0.359434 -0.138703 -0.522 126 101 107
0.366583 -0.140297 -0.528 40 25 28
0.36999 -0.140829 -0.53 35 23 25
0.390343 -0.143486 -0.54 105 74 79
0.400773 -0.14136 -0.532 173 120 114
0.441814 -0.145877 -0.549 151 103 99
0.138848 -0.127922 -0.478 192 145 139
0.150451 -0.12471 -0.466 190 140 133
0.155992 -0.124175 -0.464 187 138 131
0.165357 -0.123908 -0.463 181 134 126
0.16588 -0.12364 -0.462 181 132 125
0.199561 -0.126584 -0.473 126 82 79
0.210167 -0.129795 -0.485 124 84 82
0.228323 -0.136218 -0.509 66 36 44
0.243213 -0.138627 -0.518 130 84 87
0.245698 -0.138359 -0.517 152 103 107
0.289657 -0.146655 -0.548 89 74 77
0.29068 -0.14612 -0.546 97 72 76
0.366583 -0.141303 -0.528 38 23 26
0.392198 -0.145585 -0.544 86 55 60
0.39321 -0.141838 -0.53 193 138 133
0.397248 -0.141838 -0.53 175 122 116
0.40787 -0.143444 -0.536 162 109 105
0.44101 -0.146655 -0.548 146 98 94
0.135573 -0.133684 -0.496 195 148 142
0.143686 -0.126676 -0.47 199 150 145
0.159184 -0.12479 -0.463 183 134 127
0.174176 -0.12479 -0.463 164 111 103
0.184274 -0.125059 -0.464 136 91 85
0.207517 -0.129641 -0.481 124 81 75
0.232976 -0.138805 -0.515 56 25 30
0.236763 -0.139883 -0.519 66 34 37
0.29068 -0.14716 -0.546 97 74 80
0.29317 -0.145812 -0.541 112 83 87
0.304754 -0.144465 -0.536 123 93 95
0.333133 -0.14177 -0.526 202 182 191
0.33721 -0.140961 -0.523 109 88 93
0.36181 -0.14123 -0.524 67 47 49
0.367277 -0.142578 -0.529 38 23 26
0.40554 -0.15282 -0.567 53 44 47
0.390359 -0.143656 -0.533 187 132 129
0.3922 -0.142848 -0.53 193 138 133
0.396238 -0.142848 -0.53 184 129 124
0.397248 -0.142848 -0.53 177 122 117
0.408891 -0.144465 -0.536 171 117 115
0.43078 -0.146351 -0.543 163 112 111
0.159184 -0.125671 -0.463 183 134 127
0.170649 -0.125671 -0.463 169 119 112
0.180739 -0.125943 -0.464 150 100 89
0.189913 -0.126757 -0.467 128 87 81
0.193407 -0.1273 -0.469 128 85 78
0.19824 -0.128114 -0.472 126 85 79
0.23874 -0.140871 -0.519 88 52 56
0.240253 -0.1406 -0.518 111 72 75
0.242274 -0.140057 -0.516 143 94 98
0.266 -0.1444 -0.532 109 73 73
0.285442 -0.150371 -0.554 33 26 34
0.315653 -0.1444 -0.532 132 100 105
0.321533 -0.143857 -0.53 133 101 106
0.321934 -0.143586 -0.529 133 100 107
0.32395 -0.143586 -0.529 134 101 108
0.326354 -0.143314 -0.528 132 102 100
0.357753 -0.141414 -0.521 129 100 105
0.39294 -0.144129 -0.531 194 139 134
0.419919 -0.146843 -0.541 143 90 86
0.427922 -0.147114 -0.542 168 117 114
0.134753 -0.134753 -0.493 196 149 143
0.144857 -0.12792 -0.468 195 146 141
0.168003 -0.126553 -0.463 177 128 121
0.174176 -0.126553 -0.463 162 112 103
0.199561 -0.129287 -0.473 128 88 80
0.224673 -0.137487 -0.503 58 29 31
0.233503 -0.140493 -0.514 65 33 36
0.239326 -0.14104 -0.516 115 76 79
0.241291 -0.14104 -0.516 133 88 91
0.246683 -0.141313 -0.517 159 107 109
0.251591 -0.14186 -0.519 143 91 95
0.288094 -0.150607 -0.551 80 71 76
0.29268 -0.148147 -0.542 108 77 82
0.301792 -0.147053 -0.538 120 89 94
0.325349 -0.14432 -0.528 130 101 103
0.338207 -0.142953 -0.523 86 61 67
0.33989 -0.142407 -0.521 107 82 88
0.3432 -0.142133 -0.52 92 67 73
0.407267 -0.156893 -0.574 44 33 39
0.410494 -0.157713 -0.577 44 33 39
0.412692 -0.157713 -0.577 46 37 42
0.415287 -0.147327 -0.539 149 96 90
0.432849 -0.14842 -0.543 159 109 108
0.440205 -0.149513 -0.547 155 107 105
0.134345 -0.13817 -0.502 198 153 147
0.151573 -0.12771 -0.464 185 138 130
0.153341 -0.12771 -0.464 185 138 130
0.155109 -0.12771 -0.464 187 140 132
0.15776 -0.12771 -0.464 186 137 132
0.166239 -0.127435 -0.463 183 134 129
0.168885 -0.127435 -0.463 177 128 121
0.187329 -0.127986 -0.465 133 94 89
0.19824 -0.129912 -0.472 128 87 81
0.21109 -0.13349 -0.485 120 81 76
0.224227 -0.13817 -0.502 56 27 29
0.226529 -0.138995 -0.505 53 24 26
0.249133 -0.142573 -0.518 147 95 99
0.256029 -0.143674 -0.522 137 85 89
0.290148 -0.150005 -0.545 94 71 77
0.292186 -0.149454 -0.543 105 74 79
0.299273 -0.148353 -0.539 116 87 91
0.307243 -0.147252 -0.535 124 93 98
0.313201 -0.146702 -0.533 130 100 102
0.321934 -0.145601 -0.529 130 99 105
0.329751 -0.14505 -0.527 134 107 114
0.3432 -0.143124 -0.52 81 56 60
0.360123 -0.14395 -0.523 69 53 56
0.39549 -0.145601 -0.529 184 129 126
0.399267 -0.145876 -0.53 180 124 123
0.418114 -0.148629 -0.54 134 83 79
0.425071 -0.148904 -0.541 165 114 111
0.436519 -0.150005 -0.545 161 107 105
0.450871 -0.152757 -0.555 156 105 104
0.134086 -0.136909 -0.494 197 154 147
0.134207 -0.136077 -0.491 197 152 146
0.139197 -0.131089 -0.473 193 144 139
0.149806 -0.128594 -0.464 190 140 133
0.151573 -0.128594 -0.464 189 139 132
0.205312 -0.132474 -0.478 119 81 78
0.212889 -0.134969 -0.487 116 82 80
0.259994 -0.145777 -0.526 134 88 91
0.268519 -0.148271 -0.535 69 49 51
0.274097 -0.150211 -0.542 27 21 25
0.286497 -0.153537 -0.554 30 20 28
0.295231 -0.149934 -0.541 110 79 84
0.297771 -0.149657 -0.54 113 82 87
0.33989 -0.144391 -0.521 121 90 96
0.340883 -0.144391 -0.521 121 90 96
0.37107 -0.147717 -0.533 37 22 27
0.39294 -0.147163 -0.531 186 130 129
0.444714 -0.152429 -0.55 141 97 96
0.133684 -0.138408 -0.496 196 153 146
0.139802 -0.13171 -0.472 192 145 139
0.147471 -0.129757 -0.465 193 144 139
0.152129 -0.129199 -0.463 191 140 136
0.16148 -0.12892 -0.462 182 132 125
0.16324 -0.12892 -0.462 188 138 131
0.16412 -0.12892 -0.462 187 137 130
0.185158 -0.129478 -0.464 136 93 86
0.19782 -0.131431 -0.471 130 91 84
0.306224 -0.14929 -0.535 123 92 97
0.308262 -0.14929 -0.535 127 96 101
0.314216 -0.148732 -0.533 131 99 102
0.320927 -0.147616 -0.529 133 102 107
0.329751 -0.147058 -0.527 131 100 105
0.33113 -0.146779 -0.526 132 101 106
0.332131 -0.146779 -0.526 131 100 105
0.335859 -0.146221 -0.524 131 102 106
0.341875 -0.145384 -0.521 131 100 106
0.356761 -0.145384 -0.521 124 99 105
0.3815 -0.152081 -0.545 34 23 27
0.414763 -0.162685 -0.583 42 29 36
0.4173 -0.163243 -0.585 41 28 35
0.419143 -0.150686 -0.54 133 82 79
0.42198 -0.150965 -0.541 141 92 88
0.433883 -0.151523 -0.543 169 114 111
0.46248 -0.157383 -0.564 149 101 101
0.137686 -0.133171 -0.474 187 144 135
0.146901 -0.130924 -0.466 193 144 139
0.151247 -0.130081 -0.463 191 140 136
0.159184 -0.130081 -0.463 185 135 128
0.16412 -0.1298 -0.462 185 135 128
0.16588 -0.1298 -0.462 188 138 129
0.178586 -0.130081 -0.463 151 104 98
0.182995 -0.130081 -0.463 143 98 92
0.227941 -0.142162 -0.506 57 27 27
0.22981 -0.142724 -0.508 65 35 35
0.245729 -0.14469 -0.515 145 99 99
0.25012 -0.145533 -0.518 142 92 93
0.254057 -0.146095 -0.52 131 83 83
0.296743 -0.151714 -0.54 112 83 88
0.306224 -0.15031 -0.535 123 92 97
0.307243 -0.15031 -0.535 124 93 98
0.31464 -0.149467 -0.532 130 100 102
0.319514 -0.148905 -0.53 130 100 102
0.323337 -0.148343 -0.528 129 100 102
0.324343 -0.148343 -0.528 130 101 103
0.3345 -0.1475 -0.525 135 103 108
0.340883 -0.146376 -0.521 132 103 107
0.347483 -0.145814 -0.519 112 85 90
0.35844 -0.146657 -0.522 75 52 58
0.397248 -0.148905 -0.53 182 127 124
0.398513 -0.148624 -0.529 180 126 124
0.427132 -0.151995 -0.541 165 114 110
0.435718 -0.152838 -0.544 167 116 113
0.140403 -0.133226 -0.471 192 145 139
0.144548 -0.132094 -0.467 192 143 138
0.15069 -0.131246 -0.464 192 143 138
0.165 -0.13068 -0.462 185 135 126
0.178586 -0.130963 -0.463 151 104 98
0.185158 -0.131246 -0.464 138 95 88
0.187329 -0.131529 -0.465 132 89 83
0.237934 -0.145106 -0.513 141 96 99
0.245729 -0.145671 -0.515 142 97 94
0.259994 -0.148783 -0.526 107 69 68
0.29268 -0.153309 -0.542 100 74 77
0.300768 -0.152177 -0.538 118 89 93
0.315653 -0.15048 -0.532 129 99 101
0.322331 -0.149349 -0.528 129 100 104
0.323337 -0.149349 -0.528 129 100 104
0.351437 -0.146803 -0.519 134 103 109
0.355769 -0.147369 -0.521 137 106 114
0.401518 -0.156703 -0.554 70 38 41
0.393126 -0.151046 -0.534 179 124 121
0.396238 -0.149914 -0.53 181 127 125
0.41734 -0.15246 -0.539 150 99 96
0.458133 -0.1584 -0.56 160 112 110
0.133 -0.139533 -0.49 196 151 145
0.138609 -0.134123 -0.471 193 146 140
0.153892 -0.131845 -0.463 191 142 135
0.178586 -0.131845 -0.463 149 102 96
0.185158 -0.13213 -0.464 138 95 88
0.203119 -0.135262 -0.475 125 84 78
0.206654 -0.136401 -0.479 121 82 77
0.212451 -0.138394 -0.486 108 73 71
0.22244 -0.141811 -0.498 77 43 42
0.24282 -0.146083 -0.513 146 100 100
0.287571 -0.156619 -0.55 83 67 70
0.320524 -0.150924 -0.53 133 102 107
0.322331 -0.150354 -0.528 129 100 104
0.33721 -0.14893 -0.523 131 102 106
0.338554 -0.148646 -0.522 126 100 103
0.34419 -0.148076 -0.52 129 102 107
0.347483 -0.147791 -0.519 114 89 95
0.351437 -0.147791 -0.519 134 103 109
0.368347 -0.151493 -0.532 34 22 26
0.39442 -0.151778 -0.533 180 127 123
0.397506 -0.150639 -0.529 180 127 123
0.399521 -0.150639 -0.529 179 128 125
0.426102 -0.154056 -0.541 162 113 108
0.133113 -0.139607 -0.487 197 150 144
0.138609 -0.13502 -0.471 193 146 140
0.163593 -0.132727 -0.463 183 135 125
0.17468 -0.13244 -0.462 153 106 98
0.203119 -0.136167 -0.475 125 84 78
0.208433 -0.137887 -0.481 118 80 77
0.228905 -0.145053 -0.506 78 44 45
0.248652 -0.148207 -0.517 137 88 91
0.256029 -0.14964 -0.522 119 78 76
0.28598 -0.158527 -0.553 24 14 22
0.289657 -0.157093 -0.548 88 66 69
0.3345 -0.1505 -0.525 131 100 105
0.338898 -0.149353 -0.521 131 102 107
0.3432 -0.149067 -0.52 128 99 104
0.410583 -0.162827 -0.568 58 37 42
0.399667 -0.157667 -0.55 93 61 64
0.405077 -0.15222 -0.531 147 96 93
0.414769 -0.15394 -0.537 146 97 93
0.427132 -0.155087 -0.541 162 113 108
0.132336 -0.141689 -0.491 197 152 146
0.132457 -0.140823 -0.488 196 151 145
0.134295 -0.137937 -0.478 196 149 141
0.134923 -0.137649 -0.477 196 149 141
0.136783 -0.136783 -0.474 196 149 141
0.144548 -0.134763 -0.467 191 144 138
0.156538 -0.133609 -0.463 183 134 127
0.16852 -0.13332 -0.462 178 130 120
0.17556 -0.13332 -0.462 154 107 99
0.17732 -0.13332 -0.462 148 101 91
0.189507 -0.134474 -0.466 134 91 84
0.215185 -0.140823 -0.488 105 70 66
0.232657 -0.147171 -0.51 115 74 78
0.292186 -0.156694 -0.543 97 70 75
0.294201 -0.156117 -0.541 106 75 81
0.302817 -0.155251 -0.538 118 87 92
0.325349 -0.152366 -0.528 135 100 107
0.328366 -0.152366 -0.528 132 99 106
0.329371 -0.152366 -0.528 133 100 107
0.338554 -0.150634 -0.522 131 98 105
0.341219 -0.150057 -0.52 134 103 109
0.401536 -0.152654 -0.529 151 98 94
0.406853 -0.15352 -0.532 150 99 96
0.435718 -0.156983 -0.544 165 114 111
0.437557 -0.157271 -0.545 162 111 108
0.133664 -0.139138 -0.479 194 150 141
0.1407 -0.136233 -0.469 192 147 141
0.148038 -0.134781 -0.464 187 140 134
0.155656 -0.13449 -0.463 186 137 130
0.17996 -0.1342 -0.462 146 99 93
0.221993 -0.144367 -0.497 88 54 52
0.286524 -0.159762 -0.55 86 70 73
0.290148 -0.15831 -0.545 90 69 68
0.302817 -0.156276 -0.538 118 89 94
0.304754 -0.155695 -0.536 123 92 97
0.306796 -0.155695 -0.536 124 93 98
0.312186 -0.154824 -0.533 128 97 103
0.321934 -0.153662 -0.529 136 98 109
0.394143 -0.155114 -0.534 178 123 120
0.398513 -0.153662 -0.529 172 116 115
0.400529 -0.153662 -0.529 163 108 105
0.414769 -0.155986 -0.537 146 98 94
0.425071 -0.157148 -0.541 148 103 97
0.442053 -0.159181 -0.548 151 103 99
0.134014 -0.139466 -0.477 193 151 139
0.136783 -0.138589 -0.474 196 149 141
0.13921 -0.137419 -0.47 192 147 141
0.15069 -0.135665 -0.464 194 144 137
0.153341 -0.135665 -0.464 192 142 135
0.172546 -0.134788 -0.461 157 108 101
0.183877 -0.135372 -0.463 143 96 90
0.191282 -0.13625 -0.466 132 89 83
0.235571 -0.149114 -0.51 150 100 101
0.238486 -0.149114 -0.51 148 98 99
0.260489 -0.154085 -0.527 89 65 61
0.272561 -0.158178 -0.541 35 25 23
0.299273 -0.157593 -0.539 113 84 88
0.3043 -0.157009 -0.537 122 93 97
0.309281 -0.156424 -0.535 127 96 102
0.341537 -0.152623 -0.522 131 102 107
0.346494 -0.151746 -0.519 134 105 110
0.353105 -0.152038 -0.52 136 103 112
0.436176 -0.17689 -0.605 83 62 67
0.401536 -0.15467 -0.529 158 100 98
0.407867 -0.155547 -0.532 138 82 81
0.432051 -0.15847 -0.542 166 115 111
0.442053 -0.160225 -0.548 153 105 101
0.142183 -0.137726 -0.468 190 144 131
0.145126 -0.137137 -0.466 189 143 130
0.148038 -0.136549 -0.464 189 141 127
0.15742 -0.136254 -0.463 183 135 125
0.164475 -0.136254 -0.463 184 136 126
0.16852 -0.13596 -0.462 178 130 116
0.17996 -0.13596 -0.462 151 104 98
0.182995 -0.136254 -0.463 142 94 90
0.186042 -0.136549 -0.464 137 92 86
0.187329 -0.136843 -0.465 134 89 84
0.203119 -0.139786 -0.475 119 78 72
0.208433 -0.141551 -0.481 117 78 73
0.245251 -0.151263 -0.514 138 88 91
0.295714 -0.158914 -0.54 98 72 75
0.325349 -0.155383 -0.528 132 99 106
0.332131 -0.154794 -0.526 186 172 187
0.413996 -0.157737 -0.536 122 74 70
0.428163 -0.159209 -0.541 160 113 107
0.132293 -0.143356 -0.484 194 151 142
0.135262 -0.14069 -0.475 191 149 137
0.136206 -0.139802 -0.472 189 147 135
0.144814 -0.137729 -0.465 189 143 130
0.147471 -0.137729 -0.465 187 141 128
0.15742 -0.137136 -0.463 179 131 119
0.164475 -0.137136 -0.463 183 135 125
0.17116 -0.13684 -0.462 167 119 105
0.182995 -0.137136 -0.463 143 95 91
0.192582 -0.138321 -0.467 129 86 80
0.200462 -0.140098 -0.473 125 82 76
0.21114 -0.14306 -0.483 113 72 68
0.226139 -0.148688 -0.502 131 85 85
0.236583 -0.150465 -0.508 145 97 97
0.262981 -0.156981 -0.53 72 51 50
0.273569 -0.160831 -0.543 26 22 23
0.27612 -0.16172 -0.546 25 24 29
0.28911 -0.161424 -0.545 84 64 65
0.289615 -0.161128 -0.544 89 69 70
0.296743 -0.159943 -0.54 99 81 81
0.317083 -0.157277 -0.531 126 99 108
0.323337 -0.156389 -0.528 129 98 104
0.334135 -0.155796 -0.526 129 119 130
0.445346 -0.183934 -0.621 100 89 97
0.395435 -0.15787 -0.533 177 117 116
0.39672 -0.157573 -0.532 175 117 113
0.399267 -0.156981 -0.53 166 111 106
0.13802 -0.139807 -0.469 195 148 140
0.148038 -0.138316 -0.464 188 140 126
0.164475 -0.138018 -0.463 185 135 124
0.18035 -0.138018 -0.463 148 99 94
0.191282 -0.138912 -0.466 133 88 83
0.21022 -0.14398 -0.483 112 68 65
0.221547 -0.147855 -0.496 111 70 68
0.23368 -0.151432 -0.508 142 94 94
0.234648 -0.151432 -0.508 145 97 97
0.235615 -0.151432 -0.508 145 97 97
0.238988 -0.15173 -0.509 142 92 93
0.254546 -0.155308 -0.521 113 73 73
0.278683 -0.163654 -0.549 13 12 17
0.283873 -0.164847 -0.553 9 8 6
0.286003 -0.163654 -0.549 74 58 61
0.287045 -0.163058 -0.547 80 60 62
0.28756 -0.16276 -0.546 82 62 64
0.289615 -0.162164 -0.544 87 68 70
0.290651 -0.162164 -0.544 89 70 72
0.295231 -0.16127 -0.541 92 73 75
0.300768 -0.160375 -0.538 141 131 132
0.310737 -0.159183 -0.534 122 99 105
0.318094 -0.158289 -0.531 168 147 154
0.328748 -0.157096 -0.527 126 103 109
0.334135 -0.156798 -0.526 191 185 197
0.338853 -0.156202 -0.524 126 105 112
0.351124 -0.15501 -0.52 138 108 116
0.357134 -0.155904 -0.523 59 38 43
0.360185 -0.156798 -0.526 39 24 29
0.410417 -0.159183 -0.534 123 73 72
0.412205 -0.159481 -0.535 122 72 71
0.428163 -0.16127 -0.541 158 110 106
0.434917 -0.161866 -0.543 159 114 111
0.436754 -0.162164 -0.544 154 109 106
0.453802 -0.165741 -0.556 148 103 100
0.464629 -0.168126 -0.564 154 109 106
0.13802 -0.1407 -0.469 195 148 140
0.159184 -0.1389 -0.463 180 130 121
0.17292 -0.1386 -0.462 158 110 100
0.182113 -0.1389 -0.463 144 95 91
0.183877 -0.1389 -0.463 142 93 89
0.188214 -0.1395 -0.465 137 88 84
0.200462 -0.1419 -0.473 123 79 76
0.215626 -0.1467 -0.489 105 61 58
0.223837 -0.1497 -0.499 111 67 64
0.308838 -0.1608 -0.536 124 121 128
0.312186 -0.1599 -0.533 121 96 102
0.317083 -0.1593 -0.531 178 161 167
0.32736 -0.1584 -0.528 130 105 108
0.345181 -0.156 -0.52 129 106 112
0.351124 -0.156 -0.52 136 109 116
0.36087 -0.1581 -0.527 38 23 28
0.406933 -0.168 -0.56 107 81 84
0.41759 -0.1614 -0.538 129 81 79
0.426102 -0.1623 -0.541 147 102 97
0.466529 -0.1695 -0.565 152 109 103
0.164475 -0.139782 -0.463 183 133 124
0.1782 -0.13948 -0.462 150 101 97
0.191692 -0.14099 -0.467 132 84 80
0.200886 -0.143103 -0.474 121 77 74
0.23368 -0.153368 -0.508 134 88 88
0.258992 -0.158802 -0.526 88 58 56
0.28282 -0.166953 -0.553 9 7 12
0.284946 -0.16635 -0.551 60 49 53
0.311754 -0.161217 -0.534 121 102 106
0.320524 -0.16001 -0.53 134 113 122
0.331759 -0.159104 -0.527 224 218 230
0.342531 -0.157594 -0.522 127 100 105
0.356138 -0.157896 -0.523 71 52 58
0.44138 -0.18386 -0.609 98 73 76
0.395334 -0.162123 -0.537 179 119 119
0.397997 -0.160311 -0.531 166 111 106
0.413996 -0.161821 -0.536 127 78 74
0.425071 -0.16333 -0.541 139 91 87
0.433084 -0.163632 -0.542 160 115 110
0.456497 -0.168463 -0.558 147 104 98
0.135917 -0.143094 -0.471 191 147 138
0.143043 -0.141271 -0.465 186 138 128
0.148038 -0.140968 -0.464 186 138 126
0.15069 -0.140968 -0.464 189 141 129
0.189507 -0.141575 -0.466 130 87 81
0.19782 -0.143094 -0.471 126 82 79
0.223837 -0.151601 -0.499 108 67 65
0.231796 -0.153728 -0.506 129 83 83
0.23322 -0.154031 -0.507 129 83 83
0.259485 -0.160108 -0.527 86 57 53
0.261477 -0.160715 -0.529 66 46 45
0.283873 -0.168007 -0.553 11 7 8
0.284411 -0.167703 -0.552 24 20 21
0.294745 -0.164665 -0.542 89 75 75
0.295777 -0.164665 -0.542 77 66 72
0.2988 -0.164057 -0.54 77 83 83
0.317083 -0.161323 -0.531 213 194 200
0.320524 -0.161019 -0.53 135 109 120
0.321533 -0.161019 -0.53 126 100 111
0.341195 -0.158892 -0.523 129 104 108
0.362924 -0.161019 -0.53 35 23 27
0.367367 -0.162538 -0.535 39 27 31
0.370451 -0.16345 -0.538 39 30 35
0.40548 -0.169526 -0.558 106 81 85
0.39672 -0.161627 -0.532 168 113 110
0.443097 -0.166488 -0.548 144 99 94
0.464629 -0.171349 -0.564 150 105 100
0.13331 -0.155609 -0.509 201 156 150
0.132474 -0.146131 -0.478 195 151 142
0.143043 -0.142157 -0.465 186 138 128
0.147154 -0.141851 -0.464 186 136 125
0.149483 -0.141546 -0.463 188 140 128
0.16764 -0.14124 -0.462 167 118 104
0.17644 -0.14124 -0.462 152 102 101
0.17908 -0.14124 -0.462 147 102 97
0.217886 -0.150411 -0.492 100 60 58
0.219712 -0.151023 -0.494 100 60 58
0.221547 -0.151634 -0.496 103 63 61
0.243322 -0.156526 -0.512 131 82 85
0.283873 -0.16906 -0.553 28 19 22
0.284946 -0.168449 -0.551 74 59 62
0.28756 -0.16692 -0.546 86 67 73
0.290148 -0.166614 -0.545 85 68 74
0.311754 -0.163251 -0.534 118 101 107
0.318505 -0.162029 -0.53 220 197 207
0.328748 -0.161111 -0.527 215 198 206
0.338853 -0.160194 -0.524 198 190 201
0.367367 -0.163557 -0.535 40 28 32
0.401031 -0.162334 -0.531 143 93 84
0.403305 -0.162029 -0.53 128 78 77
0.415791 -0.164169 -0.537 132 84 82
0.438595 -0.166614 -0.545 154 106 104
0.456497 -0.170589 -0.558 146 98 96
0.133791 -0.145504 -0.473 189 145 136
0.143929 -0.143043 -0.465 188 140 130
0.147154 -0.142735 -0.464 186 136 125
0.179468 -0.142428 -0.463 147 99 95
0.182113 -0.142428 -0.463 141 94 88
0.182995 -0.142428 -0.463 138 91 85
0.196923 -0.144889 -0.471 124 81 75
0.19824 -0.145196 -0.472 123 80 74
0.205742 -0.14735 -0.479 111 70 66
0.220157 -0.152271 -0.495 98 58 58
0.237083 -0.155963 -0.507 135 87 87
0.248171 -0.158731 -0.516 121 79 80
0.27508 -0.16796 -0.546 61 45 48
0.290651 -0.167345 -0.544 85 69 72
0.291151 -0.167037 -0.543 86 70 73
0.293712 -0.16673 -0.542 87 72 77
0.297771 -0.166114 -0.54 150 154 163
0.301792 -0.165499 -0.538 125 136 140
0.3043 -0.165191 -0.537 68 89 92
0.31464 -0.163653 -0.532 120 97 107
0.329751 -0.162115 -0.527 228 220 231
0.331759 -0.162115 -0.527 228 222 234
0.399009 -0.163346 -0.531 160 107 99
0.40002 -0.163346 -0.531 152 102 93
0.426102 -0.166422 -0.541 144 96 94
0.430224 -0.166422 -0.541 155 107 105
0.463805 -0.17319 -0.563 148 99 95
0.130466 -0.151976 -0.491 194 150 141
0.130557 -0.148881 -0.481 195 151 142
0.16588 -0.143 -0.462 177 125 114
0.17204 -0.143 -0.462 162 112 105
0.179468 -0.14331 -0.463 145 98 92
0.196923 -0.145786 -0.471 121 77 74
0.212451 -0.150429 -0.486 100 59 55
0.214255 -0.151048 -0.488 98 59 54
0.228506 -0.15569 -0.503 113 71 72
0.236615 -0.156619 -0.506 141 91 92
0.27919 -0.170238 -0.55 61 45 46
0.283896 -0.170548 -0.551 75 52 58
0.316667 -0.164667 -0.532 197 178 184
0.329751 -0.163119 -0.527 223 218 225
0.331759 -0.163119 -0.527 227 215 227
0.340199 -0.161881 -0.523 226 214 226
0.345845 -0.161262 -0.521 99 78 85
0.346171 -0.160952 -0.52 116 93 99
0.351799 -0.161262 -0.521 136 111 117
0.466662 -0.200881 -0.649 119 113 123
0.39578 -0.166833 -0.539 172 123 116
0.401286 -0.164048 -0.53 143 94 89
0.413996 -0.165905 -0.536 131 81 80
0.429193 -0.167452 -0.541 157 108 104
0.442289 -0.16931 -0.547 146 97 93
0.444951 -0.169929 -0.549 142 93 89
0.460267 -0.173333 -0.56 141 93 89
0.13921 -0.145437 -0.467 191 143 133
0.142157 -0.144814 -0.465 189 141 131
0.15004 -0.14388 -0.462 187 139 129
0.154984 -0.143569 -0.461 184 136 126
0.16148 -0.14388 -0.462 183 135 123
0.16236 -0.14388 -0.462 183 135 125
0.17732 -0.14388 -0.462 143 96 90
0.181231 -0.144191 -0.463 136 91 85
0.192513 -0.14606 -0.469 125 82 76
0.207949 -0.150109 -0.482 105 64 60
0.223837 -0.155403 -0.499 104 65 60
0.265462 -0.166614 -0.535 72 53 55
0.290148 -0.169729 -0.545 83 68 71
0.294745 -0.168794 -0.542 119 108 112
0.295777 -0.168794 -0.542 150 154 163
0.3043 -0.167237 -0.537 149 159 168
0.31464 -0.16568 -0.532 109 90 94
0.316667 -0.16568 -0.532 216 197 203
0.333133 -0.163811 -0.526 227 217 228
0.346171 -0.161943 -0.52 122 97 103
0.424286 -0.168171 -0.54 138 90 86
0.432285 -0.168483 -0.541 159 111 107
0.43779 -0.169417 -0.544 152 104 100
0.13018 -0.15134 -0.483 191 147 138
0.13192 -0.149147 -0.476 198 151 143
0.135629 -0.147267 -0.47 189 142 134
0.140688 -0.146013 -0.466 185 137 127
0.15674 -0.144447 -0.461 186 138 128
0.16588 -0.14476 -0.462 177 127 118
0.185557 -0.1457 -0.465 128 87 81
0.211526 -0.15228 -0.486 100 61 56
0.251591 -0.16262 -0.519 118 74 73
0.296262 -0.169513 -0.541 162 166 175
0.297292 -0.169513 -0.541 152 159 167
0.297771 -0.1692 -0.54 171 178 186
0.299273 -0.168887 -0.539 138 145 153
0.3345 -0.1645 -0.525 221 218 229
0.34085 -0.164187 -0.524 229 219 228
0.342191 -0.163873 -0.523 193 177 187
0.464797 -0.201473 -0.643 120 113 120
0.396218 -0.169513 -0.541 164 117 109
0.396919 -0.167633 -0.535 173 123 114
0.419393 -0.168887 -0.539 128 78 77
0.432285 -0.169513 -0.541 160 111 107
0.439633 -0.170767 -0.545 147 99 97
0.45217 -0.173587 -0.554 141 93 91
0.472829 -0.1786 -0.57 143 97 97
0.12991 -0.151945 -0.482 190 146 137
0.131289 -0.150369 -0.477 194 147 139
0.1401 -0.147216 -0.467 187 139 129
0.140688 -0.146901 -0.466 186 138 128
0.144503 -0.14627 -0.464 189 141 131
0.148601 -0.145955 -0.463 189 141 131
0.17204 -0.14564 -0.462 159 112 104
0.186443 -0.146586 -0.465 126 85 79
0.191211 -0.147531 -0.468 122 81 75
0.201733 -0.150053 -0.476 110 73 67
0.214694 -0.154151 -0.489 96 59 53
0.225238 -0.157619 -0.5 101 63 60
0.229008 -0.15825 -0.502 115 75 73
0.23472 -0.15888 -0.504 140 90 89
0.23711 -0.159195 -0.505 137 87 86
0.253553 -0.164239 -0.521 99 68 66
0.273538 -0.171805 -0.545 67 50 56
0.276088 -0.17275 -0.548 67 50 56
0.2988 -0.170229 -0.54 183 187 196
0.299273 -0.169913 -0.539 161 165 174
0.302817 -0.169598 -0.538 143 147 156
