ply
format ascii 1.0
comment Created by Open3D
element vertex 1283
property double x
property double y
property double z
property uchar red
property uchar green
property uchar blue
end_header
0.47686 -0.185077 -0.633 178 121 112
0.485177 -0.185954 -0.636 171 114 105
-0.286357 -0.186283 -0.633 254 255 251
-0.28274 -0.186283 -0.633 253 254 248
-0.135214 -0.185694 -0.631 185 185 177
-0.12941 -0.185989 -0.632 187 187 179
-0.113995 -0.190403 -0.647 195 192 183
0.398672 -0.183046 -0.622 133 128 134
0.4005 -0.18334 -0.623 149 144 150
0.456322 -0.187754 -0.638 199 148 144
0.462391 -0.186283 -0.633 193 136 129
0.470088 -0.185989 -0.632 185 130 123
-0.290432 -0.187785 -0.634 250 252 247
-0.279886 -0.187192 -0.632 248 249 243
-0.275167 -0.188081 -0.635 251 252 246
-0.141895 -0.187785 -0.634 182 179 174
0.4009 -0.187489 -0.633 65 63 77
0.456595 -0.188081 -0.635 195 142 138
0.45998 -0.187489 -0.633 194 139 134
0.464803 -0.187489 -0.633 189 131 127
0.46768 -0.187192 -0.632 185 130 123
0.482444 -0.187785 -0.634 168 115 101
0.491117 -0.189266 -0.639 158 103 96
-0.295535 -0.188396 -0.632 250 251 246
-0.1362 -0.1878 -0.63 183 183 175
-0.127605 -0.18929 -0.635 188 188 178
-0.118373 -0.191973 -0.644 194 191 182
-0.113286 -0.193762 -0.65 193 191 179
0.478514 -0.188396 -0.632 174 120 108
-0.305371 -0.192 -0.64 252 253 247
-0.2958 -0.189 -0.63 251 252 247
-0.284548 -0.1887 -0.629 167 168 163
-0.264757 -0.1935 -0.645 252 253 248
-0.264754 -0.1944 -0.648 252 253 248
-0.146436 -0.1914 -0.638 178 178 170
-0.141224 -0.1893 -0.631 182 182 174
-0.134012 -0.1893 -0.631 184 184 176
-0.125777 -0.1914 -0.638 191 188 181
-0.122706 -0.1923 -0.641 192 189 180
0.407867 -0.1932 -0.644 53 50 67
0.406552 -0.192 -0.64 54 51 68
0.41128 -0.1908 -0.636 80 75 82
0.453891 -0.1914 -0.638 196 143 137
0.46694 -0.1893 -0.631 185 127 123
0.478514 -0.1896 -0.632 175 121 109
0.4876 -0.1908 -0.636 160 106 94
0.48958 -0.1911 -0.637 164 105 101
-0.294861 -0.189596 -0.628 248 249 244
-0.290076 -0.189596 -0.628 179 180 174
-0.150267 -0.194427 -0.644 177 177 169
-0.142426 -0.190502 -0.631 183 183 175
-0.135 -0.1902 -0.63 184 184 174
-0.115584 -0.195936 -0.649 192 190 178
0.454176 -0.19171 -0.635 190 137 131
0.457084 -0.191408 -0.634 189 134 129
0.457569 -0.191106 -0.633 189 134 129
0.459729 -0.190502 -0.631 189 134 129
0.463334 -0.190502 -0.631 185 130 125
-0.286488 -0.190792 -0.628 141 142 136
-0.273433 -0.191704 -0.631 158 159 154
-0.271459 -0.192008 -0.632 233 234 229
-0.26791 -0.192919 -0.635 250 251 245
-0.133021 -0.192008 -0.632 186 186 176
-0.3139 -0.197186 -0.645 254 255 251
-0.265909 -0.194434 -0.636 255 255 251
-0.134012 -0.192906 -0.631 187 184 175
-0.133021 -0.193211 -0.632 188 185 176
-0.129017 -0.194434 -0.636 190 187 178
-0.127191 -0.195351 -0.639 190 188 176
-0.117874 -0.198103 -0.648 191 189 177
0.467856 -0.192294 -0.629 186 129 122
0.4758 -0.1926 -0.63 180 126 114
0.490023 -0.194434 -0.636 159 104 97
-0.261894 -0.197184 -0.641 252 253 247
-0.259817 -0.199337 -0.648 251 252 247
-0.149611 -0.195646 -0.636 181 181 173
-0.143172 -0.193492 -0.629 184 181 172
-0.137182 -0.193492 -0.629 183 184 176
-0.135214 -0.194108 -0.631 185 185 175
-0.12328 -0.198107 -0.644 192 190 178
0.46093 -0.194108 -0.631 182 125 118
0.4614 -0.1938 -0.63 183 124 116
0.4662 -0.1938 -0.63 185 127 123
0.47145 -0.193492 -0.629 184 127 120
0.48333 -0.194415 -0.632 173 119 107
-0.140552 -0.194381 -0.628 183 183 175
0.451657 -0.198095 -0.64 196 146 139
0.458527 -0.19531 -0.631 182 129 121
0.488482 -0.196238 -0.634 168 109 105
-0.320297 -0.201806 -0.648 252 253 247
-0.258583 -0.201806 -0.648 252 253 248
-0.1458 -0.1962 -0.63 184 181 172
-0.136416 -0.196511 -0.631 186 186 178
-0.130433 -0.19838 -0.637 189 186 177
-0.120343 -0.201806 -0.648 190 188 176
0.450753 -0.19838 -0.637 198 145 139
0.455642 -0.196823 -0.632 181 126 119
0.485737 -0.196823 -0.632 172 113 107
0.50232 -0.20056 -0.644 157 99 95
-0.294643 -0.195833 -0.625 154 156 151
-0.291071 -0.195833 -0.625 154 156 153
-0.28869 -0.195833 -0.625 150 152 149
-0.261884 -0.199907 -0.638 252 253 247
-0.257349 -0.20304 -0.648 252 253 248
-0.13838 -0.197087 -0.629 185 185 177
-0.1374 -0.1974 -0.63 185 185 177
0.449921 -0.200847 -0.641 195 144 140
0.450046 -0.19928 -0.636 194 141 135
0.461866 -0.197087 -0.629 180 123 114
0.470252 -0.197087 -0.629 183 126 119
0.491671 -0.198967 -0.635 162 107 100
-0.300595 -0.197024 -0.625 211 214 207
-0.25986 -0.201437 -0.639 252 253 247
-0.155896 -0.203959 -0.647 181 181 173
-0.142945 -0.19797 -0.628 186 183 174
-0.139578 -0.198285 -0.629 185 185 175
-0.135643 -0.199546 -0.633 186 186 176
0.448517 -0.201437 -0.639 196 145 141
0.456123 -0.198915 -0.631 179 124 117
0.45947 -0.198285 -0.629 182 125 116
0.47145 -0.198285 -0.629 184 127 118
-0.307311 -0.199483 -0.629 249 251 246
-0.291794 -0.197897 -0.624 148 150 145
-0.264654 -0.200751 -0.633 225 224 220
-0.261473 -0.20202 -0.637 252 253 247
-0.256554 -0.204874 -0.646 252 253 248
-0.1386 -0.1998 -0.63 184 184 174
-0.129626 -0.202654 -0.639 187 187 175
0.4487 -0.203289 -0.641 194 141 135
0.449338 -0.201386 -0.635 190 137 131
0.45154 -0.200751 -0.633 183 130 124
0.454921 -0.200117 -0.631 179 124 117
0.459 -0.1998 -0.63 182 125 116
0.47429 -0.199166 -0.628 177 123 113
0.490897 -0.201069 -0.634 172 115 106
0.509476 -0.206143 -0.65 157 104 100
-0.323264 -0.207062 -0.649 251 252 247
-0.320043 -0.205786 -0.645 252 253 248
-0.298926 -0.199086 -0.624 152 154 149
-0.148435 -0.201319 -0.631 185 182 173
-0.145337 -0.200362 -0.628 187 185 173
-0.139578 -0.200681 -0.629 185 185 175
-0.132651 -0.202914 -0.636 185 185 175
0.445562 -0.20419 -0.64 192 141 137
0.452517 -0.201319 -0.631 180 125 118
0.45947 -0.200681 -0.629 182 125 116
0.46472 -0.200362 -0.628 180 126 116
0.475486 -0.200362 -0.628 182 128 118
0.479074 -0.200362 -0.628 180 126 116
-0.301786 -0.200595 -0.625 202 203 197
-0.259453 -0.204768 -0.638 253 253 245
-0.148435 -0.202521 -0.631 186 183 174
0.4459 -0.204447 -0.637 193 142 138
0.446717 -0.203163 -0.633 189 134 129
0.450827 -0.202842 -0.632 181 126 119
0.453 -0.2022 -0.63 178 123 116
0.46398 -0.201237 -0.627 182 128 118
0.474729 -0.201237 -0.627 183 129 119
0.479074 -0.201558 -0.628 181 127 115
0.482233 -0.201879 -0.629 180 126 114
-0.310692 -0.203723 -0.631 253 254 249
-0.302491 -0.201463 -0.624 240 243 236
-0.141 -0.2034 -0.63 187 184 177
-0.129011 -0.207274 -0.642 189 187 175
0.445201 -0.207597 -0.643 195 142 136
0.461131 -0.202754 -0.628 184 125 117
0.468757 -0.202431 -0.627 181 127 117
0.48027 -0.202754 -0.628 183 126 115
-0.31486 -0.206873 -0.637 253 254 249
-0.258643 -0.207523 -0.639 251 254 247
-0.138054 -0.205574 -0.633 188 185 176
-0.137065 -0.205899 -0.634 188 185 176
0.442777 -0.206549 -0.636 193 140 134
0.462786 -0.203626 -0.627 184 127 120
0.47234 -0.203626 -0.627 186 129 122
0.481467 -0.20395 -0.628 176 121 114
0.48463 -0.204275 -0.629 176 122 112
0.485828 -0.204275 -0.629 172 118 106
0.4878 -0.2046 -0.63 171 117 105
-0.257829 -0.209067 -0.64 253 254 249
-0.131252 -0.209393 -0.641 190 188 176
-0.0264143 -0.2107 -0.645 75 74 82
0.441047 -0.208087 -0.637 186 133 125
0.444306 -0.20678 -0.633 184 129 124
0.4506 -0.2058 -0.63 184 126 122
0.460397 -0.20482 -0.627 187 130 123
-0.3225 -0.211929 -0.645 253 254 249
-0.314366 -0.208971 -0.636 252 253 248
-0.261862 -0.208643 -0.635 253 254 249
-0.261063 -0.208971 -0.636 253 254 249
-0.255667 -0.213571 -0.65 252 253 248
-0.1482 -0.207 -0.63 189 186 177
-0.137281 -0.208643 -0.635 189 186 177
-0.0203971 -0.213243 -0.649 83 81 92
0.407325 -0.213243 -0.649 38 26 36
0.446508 -0.207329 -0.631 186 128 124
0.471587 -0.205686 -0.626 178 121 112
0.477117 -0.206014 -0.627 178 121 112
-0.309215 -0.207539 -0.628 252 253 248
-0.261862 -0.209852 -0.635 254 255 250
-0.25701 -0.211835 -0.641 252 253 248
-0.156892 -0.211835 -0.641 182 182 172
-0.1422 -0.2082 -0.63 187 185 173
-0.126319 -0.213818 -0.647 188 186 173
-0.125473 -0.214479 -0.649 184 182 169
-0.0300067 -0.212496 -0.643 68 67 75
-0.0238829 -0.212496 -0.643 79 78 86
0.408534 -0.213818 -0.647 39 25 38
0.439833 -0.210513 -0.637 181 126 121
0.439662 -0.209852 -0.635 186 133 125
0.447 -0.2082 -0.63 185 127 123
0.458009 -0.207209 -0.627 187 130 123
0.466817 -0.206878 -0.626 181 126 119
0.472779 -0.206878 -0.626 178 121 112
0.49374 -0.209191 -0.633 157 107 98
-0.324732 -0.21505 -0.647 253 254 249
-0.313871 -0.211062 -0.635 252 253 248
-0.297968 -0.206741 -0.622 142 144 139
-0.296783 -0.206741 -0.622 129 131 126
-0.145106 -0.208403 -0.627 189 186 177
-0.125473 -0.215715 -0.649 184 182 169
-0.0352857 -0.216048 -0.65 66 65 73
0.439467 -0.212724 -0.64 181 123 121
0.439992 -0.210065 -0.632 189 134 129
0.445092 -0.209068 -0.629 183 126 119
-0.319777 -0.214611 -0.642 253 254 249
-0.302007 -0.20826 -0.623 254 255 251
-0.26026 -0.21294 -0.637 253 254 248
-0.151078 -0.211269 -0.632 187 187 175
-0.136714 -0.213274 -0.638 189 187 175
0.391857 -0.217286 -0.65 150 107 116
0.398675 -0.216283 -0.647 119 78 84
0.412186 -0.215614 -0.645 38 28 37
0.437243 -0.212271 -0.635 181 128 120
0.437585 -0.211269 -0.632 186 133 125
0.441 -0.2106 -0.63 190 132 128
0.45847 -0.209263 -0.626 193 135 131
0.470394 -0.209263 -0.626 179 125 115
-0.317066 -0.214826 -0.639 253 254 249
-0.30082 -0.209447 -0.623 241 246 240
-0.295598 -0.20911 -0.622 139 141 136
-0.263449 -0.212809 -0.633 254 253 249
-0.160087 -0.218188 -0.649 183 184 178
-0.12528 -0.217851 -0.648 183 184 170
0.408409 -0.215498 -0.641 50 33 39
0.412132 -0.21617 -0.643 56 37 43
0.437852 -0.21617 -0.643 185 130 125
0.446066 -0.210791 -0.627 186 128 124
0.457738 -0.210119 -0.625 194 137 130
0.458929 -0.210119 -0.625 195 138 131
0.476356 -0.210455 -0.626 184 127 116
-0.307038 -0.211648 -0.626 251 253 248
-0.295598 -0.210295 -0.622 155 157 152
-0.134705 -0.216381 -0.64 190 188 176
-0.133694 -0.216719 -0.641 190 188 176
0.397443 -0.218071 -0.645 145 96 100
0.435129 -0.216043 -0.639 188 133 128
0.435 -0.213 -0.63 180 127 119
0.4396 -0.212324 -0.628 189 130 126
0.448454 -0.211986 -0.627 192 134 130
0.454167 -0.21131 -0.625 194 137 130
0.459383 -0.210971 -0.624 191 137 127
0.466071 -0.21131 -0.625 181 127 117
0.479167 -0.21131 -0.625 177 120 109
-0.320275 -0.21862 -0.643 252 253 248
-0.135924 -0.2176 -0.64 188 188 176
-0.0347971 -0.21794 -0.641 69 67 78
-0.033419 -0.21692 -0.638 70 68 79
0.393137 -0.21964 -0.646 157 108 114
0.399263 -0.21828 -0.642 149 104 111
0.450124 -0.21284 -0.626 193 135 131
0.466514 -0.21216 -0.624 183 126 115
0.470833 -0.2125 -0.625 178 121 110
0.480357 -0.2125 -0.625 182 125 108
0.482318 -0.21284 -0.626 183 126 109
0.4914 -0.2142 -0.63 168 116 103
-0.31217 -0.216768 -0.634 253 254 249
-0.294413 -0.212665 -0.622 202 207 201
-0.256951 -0.221212 -0.647 252 253 248
-0.128585 -0.22087 -0.646 186 184 171
-0.0308429 -0.21711 -0.635 74 71 82
-0.0216 -0.221554 -0.648 82 80 91
0.391886 -0.221554 -0.648 163 114 120
0.399862 -0.219161 -0.641 155 106 112
0.401083 -0.219161 -0.641 159 110 116
0.401676 -0.218819 -0.64 160 111 117
0.402266 -0.218477 -0.639 160 111 115
0.4047 -0.218477 -0.639 157 111 114
0.409569 -0.218477 -0.639 162 116 118
0.410786 -0.218477 -0.639 165 119 121
0.412003 -0.218477 -0.639 166 120 122
0.416955 -0.219161 -0.641 168 122 122
0.42504 -0.220187 -0.644 170 122 122
0.426267 -0.220187 -0.644 169 123 123
0.429714 -0.218819 -0.64 175 127 125
0.433111 -0.215058 -0.629 181 127 125
0.4389 -0.214374 -0.627 184 129 126
0.440094 -0.214374 -0.627 183 130 126
0.444162 -0.214032 -0.626 193 138 133
0.450595 -0.21369 -0.625 190 135 128
0.458647 -0.213007 -0.623 192 138 128
0.475595 -0.21369 -0.625 184 127 116
-0.318554 -0.220726 -0.642 253 253 251
-0.304653 -0.215225 -0.626 253 254 249
-0.260669 -0.21935 -0.638 251 254 247
-0.134111 -0.22107 -0.643 191 189 177
0.396214 -0.221757 -0.645 156 105 112
0.427156 -0.21935 -0.638 178 127 126
0.429681 -0.216944 -0.631 186 132 130
0.431227 -0.215912 -0.628 183 132 129
0.447024 -0.214881 -0.625 190 135 130
0.451063 -0.214537 -0.624 193 138 131
0.471269 -0.214537 -0.624 185 128 117
0.485895 -0.215225 -0.626 174 117 106
0.491818 -0.216256 -0.629 168 115 101
-0.291794 -0.215726 -0.624 238 240 235
-0.260669 -0.220566 -0.638 252 254 249
-0.130016 -0.223677 -0.647 189 187 175
-0.0320019 -0.219183 -0.634 74 71 82
0.396827 -0.22264 -0.644 159 104 110
0.408287 -0.22022 -0.637 173 122 121
0.410713 -0.22022 -0.637 175 124 123
0.422183 -0.219874 -0.636 183 129 127
0.42622 -0.218837 -0.633 182 131 130
0.431734 -0.216763 -0.627 186 132 130
0.453171 -0.215034 -0.622 190 137 129
0.454356 -0.215034 -0.622 191 138 130
0.46265 -0.215034 -0.622 183 129 119
0.465767 -0.21538 -0.623 181 127 115
0.46814 -0.21538 -0.623 184 130 118
-0.322766 -0.225257 -0.648 253 253 251
-0.2875 -0.217262 -0.625 213 214 209
-0.285119 -0.217262 -0.625 185 185 183
-0.261884 -0.221781 -0.638 252 254 249
-0.261077 -0.222129 -0.639 252 254 249
-0.156158 -0.221781 -0.638 184 184 172
-0.1458 -0.219 -0.63 191 188 179
-0.136349 -0.223171 -0.642 191 191 181
-0.125667 -0.225952 -0.65 182 182 170
-0.0451905 -0.225952 -0.65 84 84 84
-0.03804 -0.22039 -0.634 69 67 78
-0.022799 -0.22491 -0.647 80 78 91
0.399831 -0.222129 -0.639 169 114 120
0.407073 -0.221433 -0.637 171 116 121
0.421519 -0.220738 -0.635 184 130 128
0.435119 -0.217262 -0.625 185 130 125
0.445593 -0.216567 -0.623 193 138 131
0.457174 -0.215871 -0.621 191 139 128
0.46814 -0.216567 -0.623 186 132 120
0.469327 -0.216567 -0.623 186 132 120
0.470513 -0.216567 -0.623 186 132 120
-0.28319 -0.218802 -0.626 239 240 235
-0.27103 -0.22055 -0.631 127 127 127
-0.26628 -0.221598 -0.634 230 230 228
-0.148435 -0.22055 -0.631 189 189 177
-0.136561 -0.224744 -0.643 192 192 182
-0.125667 -0.22719 -0.65 183 181 169
-0.0448429 -0.225443 -0.645 66 64 67
0.402851 -0.222996 -0.638 171 116 119
0.404067 -0.222996 -0.638 174 118 121
0.425923 -0.21985 -0.629 187 134 130
0.432238 -0.218802 -0.626 184 129 124
0.440366 -0.218103 -0.624 187 133 123
0.445593 -0.217753 -0.623 195 141 131
0.455991 -0.217054 -0.621 190 138 127
0.4717 -0.217753 -0.623 188 131 120
0.472887 -0.217753 -0.623 187 130 119
0.48631 -0.218452 -0.625 172 118 106
0.505353 -0.222647 -0.637 156 106 97
-0.285575 -0.219994 -0.626 253 254 249
-0.284383 -0.219994 -0.626 253 254 249
-0.28006 -0.220346 -0.627 253 253 251
-0.268271 -0.222454 -0.633 148 147 145
-0.0489048 -0.228429 -0.65 112 112 114
-0.0307457 -0.222454 -0.633 71 72 77
-0.02392 -0.22632 -0.644 79 75 89
-0.0216333 -0.228077 -0.649 80 78 91
0.393757 -0.226671 -0.645 159 104 107
0.396827 -0.22632 -0.644 168 113 116
0.399831 -0.224563 -0.639 173 119 119
0.410633 -0.223157 -0.635 183 127 126
0.411843 -0.223157 -0.635 185 129 128
0.416025 -0.222806 -0.634 185 130 127
0.418324 -0.222103 -0.632 189 134 131
0.430357 -0.219643 -0.625 187 132 125
0.444407 -0.21894 -0.623 195 141 131
0.445593 -0.21894 -0.623 195 141 131
0.446063 -0.218589 -0.622 194 140 130
0.462343 -0.217886 -0.62 188 136 123
0.470943 -0.218589 -0.622 189 135 123
0.485531 -0.219291 -0.624 174 120 108
0.493429 -0.220697 -0.628 166 114 101
0.502973 -0.222806 -0.634 158 105 99
-0.285575 -0.221187 -0.626 253 254 249
-0.28319 -0.221187 -0.626 253 254 249
-0.281254 -0.22154 -0.627 253 254 249
-0.278114 -0.221893 -0.628 253 253 251
-0.264697 -0.22472 -0.636 246 246 244
-0.261051 -0.22896 -0.648 255 255 253
-0.154943 -0.225427 -0.638 187 187 177
-0.147233 -0.222953 -0.631 190 188 176
-0.133507 -0.228253 -0.646 192 189 180
-0.124429 -0.229667 -0.65 203 199 187
-0.0456429 -0.22578 -0.639 71 68 75
-0.0262505 -0.226487 -0.641 77 73 87
0.411194 -0.224013 -0.634 184 129 126
0.41712 -0.223307 -0.632 190 135 132
0.420066 -0.222953 -0.631 190 132 128
0.42405 -0.221893 -0.628 190 135 130
0.430357 -0.220833 -0.625 192 135 128
0.459981 -0.219067 -0.62 190 138 127
0.462343 -0.219067 -0.62 190 138 125
0.475682 -0.219773 -0.622 189 135 123
0.476867 -0.219773 -0.622 187 133 121
0.487909 -0.22048 -0.624 171 118 104
0.49661 -0.222247 -0.629 166 112 100
0.500183 -0.223307 -0.632 162 107 100
-0.28842 -0.222734 -0.627 253 254 249
-0.262711 -0.228418 -0.643 253 253 251
-0.153005 -0.225576 -0.635 186 186 176
-0.145059 -0.22451 -0.632 191 189 176
-0.0273857 -0.226997 -0.639 78 75 86
0.403483 -0.226997 -0.639 168 113 116
0.41712 -0.22451 -0.632 190 137 131
0.4206 -0.2238 -0.63 190 135 128
0.434913 -0.221313 -0.623 184 129 122
0.4361 -0.221313 -0.623 187 132 125
0.437287 -0.221313 -0.623 192 135 126
0.453344 -0.219892 -0.619 196 144 131
0.456143 -0.219537 -0.618 193 141 130
0.468248 -0.220248 -0.62 192 140 127
0.469429 -0.220248 -0.62 192 140 127
0.495821 -0.22309 -0.628 170 113 102
-0.27507 -0.225714 -0.632 253 254 249
-0.26754 -0.2275 -0.637 170 170 168
-0.264336 -0.228929 -0.641 244 244 242
-0.151078 -0.225714 -0.632 190 190 180
-0.143855 -0.225714 -0.632 192 190 177
-0.133507 -0.230714 -0.646 192 189 180
-0.131249 -0.231071 -0.647 191 188 179
-0.12319 -0.232143 -0.65 222 220 208
-0.0341457 -0.224643 -0.629 70 70 80
-0.033 -0.225 -0.63 70 70 80
-0.031901 -0.225714 -0.632 72 70 83
-0.0307943 -0.226429 -0.634 73 71 84
0.396199 -0.231786 -0.649 160 110 113
0.398671 -0.230357 -0.645 167 112 117
0.421657 -0.224286 -0.628 191 137 125
0.429669 -0.222857 -0.624 189 137 126
0.433727 -0.2225 -0.623 184 134 123
0.443693 -0.222143 -0.622 193 136 127
0.466313 -0.221071 -0.619 192 136 123
0.473734 -0.221786 -0.621 190 132 118
0.49305 -0.223571 -0.626 167 113 101
0.495031 -0.223929 -0.627 167 113 101
-0.291272 -0.225482 -0.628 253 254 249
-0.282151 -0.225841 -0.629 253 253 251
-0.2802 -0.2262 -0.63 253 253 251
-0.278241 -0.226559 -0.631 253 253 251
-0.26796 -0.229072 -0.638 120 122 119
-0.153728 -0.229072 -0.638 191 191 183
-0.12319 -0.233381 -0.65 220 218 206
-0.0562467 -0.233022 -0.649 156 156 158
-0.0375 -0.224405 -0.625 69 67 80
-0.0285581 -0.229072 -0.638 74 72 85
-0.0262914 -0.230509 -0.642 75 73 86
0.4095 -0.228713 -0.637 176 125 121
0.417662 -0.226559 -0.631 189 134 127
0.444163 -0.222969 -0.621 191 137 127
0.450257 -0.221891 -0.618 195 141 131
0.468671 -0.22225 -0.619 191 135 122
0.492262 -0.224405 -0.625 172 115 104
-0.128784 -0.233536 -0.647 192 189 180
-0.126514 -0.233897 -0.648 201 199 186
-0.0410057 -0.225234 -0.624 70 68 79
-0.0239571 -0.232814 -0.645 78 76 89
0.404746 -0.23137 -0.641 168 114 112
0.410713 -0.229927 -0.637 179 126 122
0.418864 -0.227761 -0.631 194 140 130
0.42113 -0.227039 -0.629 195 141 129
0.423374 -0.226317 -0.627 191 136 129
0.426786 -0.225595 -0.625 189 134 127
0.430167 -0.224873 -0.623 188 134 124
0.448628 -0.22343 -0.619 196 142 132
0.480057 -0.22379 -0.62 181 122 108
-0.309252 -0.233317 -0.643 253 254 249
-0.30707 -0.232591 -0.641 253 254 249
-0.14483 -0.228963 -0.631 193 190 181
0.411358 -0.231503 -0.638 177 124 118
0.414262 -0.230414 -0.635 185 132 124
0.416025 -0.230051 -0.634 183 130 122
0.41778 -0.229689 -0.633 185 132 124
0.45232 -0.22352 -0.616 202 148 138
0.475746 -0.224609 -0.619 184 125 111
0.476925 -0.224609 -0.619 183 124 110
0.495833 -0.226786 -0.625 171 113 101
0.501403 -0.228237 -0.629 169 111 99
0.505797 -0.229689 -0.633 168 110 98
-0.282424 -0.231624 -0.635 253 253 251
-0.279673 -0.232353 -0.637 253 253 253
-0.134111 -0.234542 -0.643 196 193 184
-0.0591238 -0.233448 -0.64 88 86 87
-0.0520343 -0.22907 -0.628 67 65 78
-0.0468733 -0.227247 -0.623 69 67 78
-0.0239571 -0.235271 -0.645 77 75 86
0.419528 -0.23053 -0.632 188 133 126
0.426786 -0.227976 -0.625 187 133 123
0.42848 -0.227611 -0.624 189 135 123
0.44908 -0.225423 -0.618 195 141 131
0.456271 -0.224329 -0.615 197 140 129
0.4836 -0.226152 -0.62 179 121 107
-0.29591 -0.233933 -0.638 253 253 251
-0.281769 -0.2343 -0.639 253 253 253
-0.13849 -0.232833 -0.635 199 196 187
-0.122811 -0.2376 -0.648 216 212 200
-0.0331571 -0.2321 -0.633 72 71 85
0.407325 -0.237967 -0.649 156 108 108
0.418549 -0.2332 -0.636 185 130 123
0.419648 -0.232467 -0.634 186 132 122
0.423 -0.231 -0.63 185 131 121
0.429669 -0.2288 -0.624 187 135 122
0.430167 -0.228433 -0.623 186 134 121
0.43254 -0.228433 -0.623 190 137 123
0.4664 -0.225867 -0.616 183 125 111
0.467573 -0.225867 -0.616 182 124 110
-0.279858 -0.236991 -0.643 253 253 253
-0.27174 -0.238466 -0.647 251 251 251
-0.131457 -0.236623 -0.642 196 192 181
-0.0625848 -0.235149 -0.638 81 80 85
-0.0320524 -0.234043 -0.635 73 73 85
-0.0227638 -0.238097 -0.646 77 77 89
0.415807 -0.236991 -0.643 172 119 113
0.41865 -0.235149 -0.638 180 125 120
0.42848 -0.229989 -0.624 188 134 122
0.447903 -0.227777 -0.618 194 142 131
0.45436 -0.226303 -0.614 197 145 132
0.478509 -0.227777 -0.618 185 124 106
0.488324 -0.228514 -0.62 178 120 106
0.493453 -0.229251 -0.622 174 116 104
0.503799 -0.231831 -0.629 164 110 100
-0.294555 -0.238216 -0.643 253 254 249
-0.287983 -0.237846 -0.642 253 253 251
-0.2795 -0.238957 -0.645 253 253 253
-0.149847 -0.235993 -0.637 234 235 230
-0.141749 -0.232659 -0.628 193 193 181
-0.118056 -0.240439 -0.649 220 216 204
-0.11682 -0.240439 -0.649 220 216 204
-0.113286 -0.24081 -0.65 222 219 204
-0.0798571 -0.24081 -0.65 252 249 232
0.418329 -0.238957 -0.645 172 119 113
0.418829 -0.237846 -0.642 175 120 113
0.421633 -0.235993 -0.637 181 127 115
0.440139 -0.230436 -0.622 194 140 130
0.448353 -0.228584 -0.617 192 140 129
0.451586 -0.227843 -0.615 198 148 137
0.472267 -0.228213 -0.616 184 126 112
0.506603 -0.23377 -0.631 161 111 100
0.511829 -0.235623 -0.636 154 107 97
-0.294243 -0.240186 -0.645 253 254 249
-0.282831 -0.24093 -0.647 253 253 253
-0.281599 -0.24093 -0.647 253 253 253
-0.153669 -0.241303 -0.648 247 247 245
-0.125343 -0.239069 -0.642 220 217 202
-0.0442143 -0.230504 -0.619 70 68 79
-0.0386905 -0.232738 -0.625 70 68 79
-0.0364838 -0.233855 -0.628 71 69 80
0.421633 -0.237207 -0.637 181 127 115
0.4242 -0.2346 -0.63 181 124 113
0.428151 -0.233483 -0.627 186 129 118
0.459038 -0.228642 -0.614 195 141 129
0.461377 -0.228642 -0.614 188 132 119
0.482435 -0.229759 -0.617 180 122 108
0.489894 -0.230504 -0.619 172 115 96
-0.29762 -0.242163 -0.647 253 254 249
-0.291458 -0.242163 -0.647 253 253 251
-0.289777 -0.241789 -0.646 253 253 251
-0.288993 -0.242163 -0.647 253 253 251
-0.280429 -0.243286 -0.65 254 254 254
-0.1491 -0.239169 -0.639 248 250 247
-0.141297 -0.234303 -0.626 201 203 192
-0.0871514 -0.242911 -0.649 254 251 236
-0.0844181 -0.242163 -0.647 247 244 227
-0.0777724 -0.240666 -0.643 248 249 235
-0.0763095 -0.239917 -0.641 235 236 222
-0.0707571 -0.237671 -0.635 142 142 142
-0.0693286 -0.236923 -0.633 107 106 111
-0.0584571 -0.232057 -0.62 71 69 80
-0.03762 -0.234677 -0.627 71 71 79
-0.0308914 -0.238046 -0.636 72 72 80
0.430357 -0.233929 -0.625 187 130 121
0.431548 -0.233929 -0.625 186 129 120
0.440614 -0.232431 -0.621 195 141 131
0.44298 -0.232431 -0.621 195 141 131
0.452021 -0.229811 -0.614 195 141 129
0.45436 -0.229811 -0.614 197 143 131
0.479307 -0.23056 -0.616 180 123 106
0.492252 -0.231683 -0.619 170 113 96
-0.302714 -0.244524 -0.65 253 253 251
-0.301012 -0.244148 -0.649 253 253 251
-0.147883 -0.240386 -0.639 244 244 242
-0.113995 -0.243395 -0.647 223 220 201
-0.104619 -0.244524 -0.65 235 229 213
-0.0958048 -0.244148 -0.649 241 238 221
-0.0931886 -0.243771 -0.648 243 240 223
-0.0799724 -0.241138 -0.641 242 240 227
-0.0659657 -0.234743 -0.624 74 72 83
-0.0557333 -0.231733 -0.616 71 70 78
-0.05104 -0.231733 -0.616 70 69 77
-0.0421943 -0.234743 -0.624 69 69 77
-0.0410714 -0.235119 -0.625 69 69 77
-0.0251467 -0.242267 -0.644 75 75 85
0.424281 -0.241138 -0.641 178 121 114
0.424838 -0.240762 -0.64 176 119 112
0.432238 -0.235495 -0.626 183 129 119
0.441797 -0.233614 -0.621 193 139 129
0.447903 -0.232486 -0.618 195 141 129
0.464886 -0.230981 -0.614 187 129 115
0.466814 -0.231357 -0.615 186 128 114
0.470329 -0.231357 -0.615 184 126 112
0.488311 -0.23211 -0.617 173 116 99
0.493431 -0.232862 -0.619 167 110 93
-0.146436 -0.241225 -0.638 239 239 237
-0.135119 -0.23631 -0.625 203 202 197
-0.131191 -0.237822 -0.629 203 200 191
-0.12296 -0.240469 -0.636 226 221 202
-0.117638 -0.241981 -0.64 225 222 203
-0.114871 -0.243871 -0.645 224 222 201
-0.111358 -0.24425 -0.646 227 225 204
-0.0979743 -0.244628 -0.647 240 234 218
-0.0808133 -0.241225 -0.638 224 220 209
-0.06942 -0.235553 -0.623 74 75 80
-0.0487724 -0.233285 -0.617 70 70 78
-0.0355124 -0.238956 -0.632 70 71 76
-0.0308914 -0.240469 -0.636 72 73 78
0.426609 -0.241603 -0.639 168 115 111
0.431227 -0.237444 -0.628 178 126 115
0.438473 -0.235553 -0.623 184 130 120
0.43966 -0.235553 -0.623 182 128 116
0.441797 -0.234797 -0.621 188 134 122
0.461377 -0.23215 -0.614 183 127 114
0.462547 -0.23215 -0.614 187 131 116
0.489487 -0.233285 -0.617 169 112 95
-0.13869 -0.2375 -0.625 250 250 250
-0.133714 -0.23712 -0.624 224 223 218
-0.130357 -0.2375 -0.625 202 202 194
-0.128386 -0.23826 -0.627 199 199 189
-0.1266 -0.2394 -0.63 204 204 192
-0.125599 -0.23978 -0.631 216 214 201
-0.11329 -0.24434 -0.643 226 223 204
-0.109787 -0.24472 -0.644 230 227 208
-0.102745 -0.24548 -0.646 237 231 215
-0.0989 -0.2451 -0.645 239 233 217
-0.0921819 -0.24358 -0.641 244 238 222
-0.0759581 -0.23864 -0.628 86 85 93
-0.0675762 -0.23446 -0.617 66 67 71
-0.0650143 -0.2337 -0.615 73 72 80
-0.0488514 -0.23484 -0.618 71 71 79
-0.0422619 -0.2375 -0.625 71 71 79
-0.0378 -0.2394 -0.63 70 70 78
-0.0297733 -0.24244 -0.638 72 72 80
-0.0239571 -0.2451 -0.645 77 77 87
-0.0204286 -0.247 -0.65 80 78 91
0.4314 -0.2394 -0.63 174 121 113
0.434123 -0.23826 -0.627 179 125 115
0.437989 -0.23712 -0.624 179 125 115
0.441797 -0.23598 -0.621 184 131 117
0.45436 -0.23332 -0.614 192 136 123
0.457869 -0.23332 -0.614 190 134 121
0.464886 -0.23332 -0.614 185 127 113
0.473843 -0.2337 -0.615 186 129 112
0.475014 -0.2337 -0.615 185 128 111
0.512634 -0.24092 -0.634 167 108 94
-0.148502 -0.247092 -0.647 154 154 152
-0.133071 -0.237163 -0.621 248 247 245
-0.130916 -0.237545 -0.622 235 235 227
-0.127771 -0.238309 -0.624 210 212 201
-0.122805 -0.240218 -0.629 223 220 205
-0.109275 -0.244801 -0.641 231 228 209
-0.086481 -0.24251 -0.635 217 217 209
-0.0836648 -0.241364 -0.632 191 190 186
-0.0612 -0.233726 -0.612 72 73 78
-0.0589648 -0.234108 -0.613 70 71 76
-0.0262914 -0.245183 -0.642 75 75 87
0.430127 -0.243273 -0.637 158 109 104
0.43869 -0.23869 -0.625 179 122 111
0.449529 -0.235635 -0.617 192 134 122
0.478529 -0.234871 -0.615 183 124 110
0.485173 -0.235253 -0.616 178 119 105
-0.140022 -0.242184 -0.631 207 207 209
-0.123214 -0.239881 -0.625 232 232 224
-0.11448 -0.244103 -0.636 228 225 210
-0.101631 -0.245254 -0.639 241 237 228
-0.0899676 -0.243335 -0.634 228 223 217
-0.0577971 -0.235275 -0.613 69 69 77
-0.0445714 -0.239497 -0.624 72 72 84
-0.03094 -0.244487 -0.637 73 73 83
-0.022799 -0.248325 -0.647 77 75 89
0.441071 -0.239881 -0.625 176 119 108
0.443693 -0.23873 -0.622 182 125 114
0.447903 -0.237194 -0.618 193 135 124
0.475014 -0.236043 -0.615 185 126 112
0.476186 -0.236043 -0.615 186 127 113
0.493012 -0.23681 -0.617 168 109 93
-0.145811 -0.249171 -0.646 113 114 118
-0.134687 -0.2403 -0.623 206 206 208
-0.126543 -0.238371 -0.618 247 247 245
-0.125569 -0.238757 -0.619 249 249 247
-0.12122 -0.241843 -0.627 236 232 220
-0.112734 -0.244157 -0.633 239 235 224
-0.10929 -0.244543 -0.634 243 239 230
-0.102205 -0.244929 -0.635 253 249 237
-0.07828 -0.238371 -0.618 78 78 86
-0.0742648 -0.236829 -0.614 75 76 81
-0.0715743 -0.235671 -0.611 76 76 84
-0.0600343 -0.236057 -0.612 73 71 82
-0.0578914 -0.236829 -0.614 72 70 81
-0.0567219 -0.236829 -0.614 73 71 82
-0.0501905 -0.239143 -0.62 72 70 81
-0.0216333 -0.250329 -0.649 78 76 90
0.43519 -0.250714 -0.65 148 107 103
0.434178 -0.248014 -0.643 146 102 101
0.434139 -0.244543 -0.634 163 114 109
0.437904 -0.242614 -0.629 175 118 107
0.4396 -0.242229 -0.628 175 118 107
0.450257 -0.238371 -0.618 186 128 117
0.453493 -0.2376 -0.616 185 128 117
0.4797 -0.237214 -0.615 187 128 114
-0.12496 -0.238773 -0.616 230 230 230
-0.119451 -0.241874 -0.624 253 250 243
-0.106369 -0.244588 -0.631 252 249 244
-0.1002 -0.2442 -0.63 234 233 229
-0.0962933 -0.243425 -0.628 209 208 206
-0.0949457 -0.243037 -0.627 185 183 186
-0.081679 -0.239161 -0.617 76 76 84
-0.0700648 -0.235672 -0.608 74 74 82
-0.0423971 -0.243037 -0.627 73 71 82
-0.03792 -0.244975 -0.632 76 74 85
-0.0216333 -0.251565 -0.649 78 76 89
0.438094 -0.244588 -0.631 170 118 107
0.44297 -0.24265 -0.626 171 114 107
0.443931 -0.241874 -0.624 174 117 108
0.456271 -0.238386 -0.615 183 126 115
0.469157 -0.238386 -0.615 189 127 112
0.476581 -0.237998 -0.614 194 134 123
0.482429 -0.237998 -0.614 185 126 110
-0.142907 -0.250853 -0.644 124 123 128
-0.113509 -0.243063 -0.624 241 240 238
-0.11131 -0.243452 -0.625 242 240 241
-0.102111 -0.244231 -0.627 205 205 207
-0.0722619 -0.236441 -0.607 75 74 82
-0.0654324 -0.23683 -0.608 75 74 82
-0.0469486 -0.243063 -0.624 72 70 81
-0.022799 -0.252022 -0.647 77 75 88
0.438452 -0.247348 -0.635 164 113 109
0.444162 -0.243842 -0.626 167 114 106
0.44512 -0.243063 -0.624 174 120 110
0.481643 -0.238778 -0.613 186 127 111
-0.13295 -0.245034 -0.626 115 114 119
-0.124757 -0.240729 -0.615 160 159 164
-0.120071 -0.240729 -0.615 200 200 202
-0.08568 -0.239554 -0.612 76 74 85
-0.0676371 -0.237597 -0.607 75 75 83
-0.0602305 -0.240337 -0.614 76 74 85
-0.0345257 -0.248949 -0.636 77 75 88
-0.0263324 -0.251689 -0.643 74 72 83
-0.0251857 -0.252471 -0.645 75 73 84
-0.0203971 -0.254037 -0.649 76 76 88
0.446547 -0.245034 -0.626 171 116 109
0.455405 -0.241511 -0.617 180 122 111
0.472671 -0.240729 -0.615 190 131 117
0.486313 -0.239946 -0.613 178 119 103
-0.136071 -0.249767 -0.635 121 120 125
-0.124554 -0.241507 -0.614 98 97 103
-0.0839619 -0.239147 -0.608 75 74 82
-0.0826676 -0.238753 -0.607 77 77 85
-0.0777857 -0.237967 -0.605 75 75 83
-0.0687933 -0.238753 -0.607 75 75 83
-0.0504333 -0.245047 -0.623 74 72 83
-0.0391857 -0.24898 -0.633 73 71 82
-0.03804 -0.249373 -0.634 77 75 86
-0.0345257 -0.25016 -0.636 74 72 85
0.464053 -0.242293 -0.616 183 123 112
0.4715 -0.2419 -0.615 190 131 117
0.475014 -0.2419 -0.615 190 131 117
0.501314 -0.243867 -0.62 170 112 98
-0.126133 -0.243467 -0.616 100 99 105
-0.122983 -0.241886 -0.612 97 96 102
-0.114448 -0.241095 -0.61 81 80 88
-0.1098 -0.241095 -0.61 71 70 78
-0.107652 -0.24149 -0.611 68 67 75
-0.0858524 -0.239119 -0.605 72 72 80
-0.0616 -0.243467 -0.616 76 74 85
-0.0550029 -0.245443 -0.621 75 73 84
-0.03804 -0.250581 -0.634 72 70 81
-0.0357371 -0.251371 -0.636 78 76 89
-0.033419 -0.252162 -0.638 74 72 85
-0.0298667 -0.252952 -0.64 74 72 85
-0.0251857 -0.254929 -0.645 74 74 86
0.44571 -0.250976 -0.635 149 107 108
0.446717 -0.250186 -0.633 161 108 102
0.446508 -0.249395 -0.631 163 110 104
0.447489 -0.248605 -0.629 166 113 107
0.451063 -0.246629 -0.624 171 114 107
0.461281 -0.243862 -0.617 174 115 107
0.463631 -0.243862 -0.617 174 116 105
0.465227 -0.243467 -0.616 177 119 108
0.467573 -0.243467 -0.616 180 122 110
0.492954 -0.242676 -0.614 176 120 105
0.499697 -0.244257 -0.618 171 113 99
-0.130566 -0.248611 -0.626 108 107 112
-0.116197 -0.241066 -0.607 91 90 96
-0.0995162 -0.239874 -0.604 59 59 69
-0.0982029 -0.239477 -0.603 60 58 69
-0.0865733 -0.23908 -0.602 67 67 75
-0.0368905 -0.252186 -0.635 75 73 84
0.444866 -0.253774 -0.639 143 103 103
0.446919 -0.252186 -0.635 149 107 109
0.4588 -0.246229 -0.62 165 106 100
0.467573 -0.24464 -0.616 175 117 105
0.47814 -0.243449 -0.613 188 129 115
0.481643 -0.243449 -0.613 188 129 115
-0.110837 -0.240626 -0.603 66 65 73
-0.0926771 -0.238231 -0.597 55 54 62
-0.0776571 -0.241025 -0.604 79 77 88
-0.0725 -0.24302 -0.609 78 76 87
-0.0683057 -0.244616 -0.613 77 75 86
-0.060721 -0.24701 -0.619 76 74 85
-0.0449286 -0.251001 -0.629 74 72 83
0.242911 -0.258982 -0.649 163 110 116
0.448 -0.25539 -0.64 145 103 104
0.449129 -0.252597 -0.633 162 109 103
0.450113 -0.251799 -0.631 164 111 105
0.461162 -0.24741 -0.62 166 109 100
0.465982 -0.246212 -0.617 173 115 104
0.46992 -0.245813 -0.616 177 119 108
0.474242 -0.245015 -0.614 184 125 111
-0.130613 -0.253402 -0.632 115 117 116
-0.126177 -0.249392 -0.622 108 109 113
-0.118705 -0.243779 -0.608 101 104 109
-0.115814 -0.242576 -0.605 89 92 97
-0.101604 -0.238968 -0.596 60 60 70
-0.0991667 -0.238567 -0.595 63 64 69
-0.0944743 -0.238166 -0.594 61 61 69
-0.0768867 -0.243378 -0.607 78 76 87
-0.0672476 -0.246185 -0.614 77 76 84
-0.0505952 -0.250595 -0.625 74 72 83
-0.0472495 -0.251798 -0.628 73 73 83
-0.0403914 -0.253803 -0.633 75 75 87
-0.0252248 -0.259015 -0.646 74 74 86
0.217653 -0.246987 -0.616 173 125 125
0.219182 -0.247388 -0.617 168 122 124
0.234043 -0.254605 -0.635 161 112 116
0.449355 -0.260218 -0.649 146 105 99
0.448347 -0.258213 -0.644 148 102 102
0.450438 -0.25661 -0.64 152 103 109
0.450753 -0.255407 -0.637 156 107 103
0.456548 -0.250595 -0.625 164 109 102
0.47814 -0.245784 -0.613 190 131 117
0.479308 -0.245784 -0.613 189 130 116
0.480857 -0.245383 -0.612 191 132 116
0.484354 -0.245383 -0.612 191 132 116
0.488218 -0.244982 -0.611 188 129 113
0.494846 -0.245383 -0.612 181 122 108
0.496822 -0.245784 -0.613 179 120 106
0.499614 -0.246586 -0.615 175 119 104
0.504043 -0.24819 -0.619 170 114 99
-0.127597 -0.253397 -0.629 107 108 112
-0.10728 -0.240103 -0.596 68 68 76
-0.102222 -0.238894 -0.593 72 71 79
-0.0939971 -0.238089 -0.591 62 62 70
-0.087981 -0.240103 -0.596 66 65 73
-0.0859981 -0.240909 -0.598 68 67 75
-0.0749429 -0.245743 -0.61 76 75 83
-0.0695867 -0.247354 -0.614 78 77 85
-0.0662933 -0.24816 -0.616 76 75 83
-0.0563667 -0.25098 -0.623 75 73 84
-0.0438695 -0.254203 -0.631 73 73 83
-0.0204286 -0.261857 -0.65 75 75 87
0.211005 -0.244534 -0.607 183 133 136
0.235717 -0.255009 -0.633 147 97 100
0.238881 -0.255814 -0.635 148 96 100
0.249943 -0.261051 -0.648 156 101 106
0.4508 -0.25944 -0.644 156 103 111
0.45847 -0.252189 -0.626 161 108 102
0.47814 -0.246951 -0.613 190 131 117
0.479308 -0.246951 -0.613 191 132 118
0.480857 -0.246549 -0.612 193 134 118
0.498802 -0.247354 -0.614 177 120 103
-0.08414 -0.243262 -0.601 71 70 76
-0.0831333 -0.243667 -0.602 74 73 79
-0.0784286 -0.246905 -0.61 76 75 83
-0.0773933 -0.24731 -0.611 76 75 83
-0.0461267 -0.254595 -0.629 74 74 84
-0.0276 -0.260667 -0.644 74 74 86
-0.0216333 -0.26269 -0.649 74 74 86
0.235426 -0.254595 -0.629 148 97 102
0.454132 -0.261881 -0.647 152 105 97
0.481235 -0.24731 -0.611 191 134 117
0.497177 -0.247714 -0.612 171 120 103
0.508037 -0.251357 -0.621 163 114 97
-0.111614 -0.244407 -0.601 68 71 76
-0.0869914 -0.24278 -0.597 65 66 71
-0.08428 -0.244813 -0.602 69 70 75
-0.0720429 -0.2501 -0.615 77 76 84
-0.0653314 -0.25132 -0.618 77 76 82
0.199729 -0.2501 -0.615 186 145 141
0.203775 -0.242373 -0.596 186 138 134
0.228146 -0.251727 -0.619 149 97 99
0.232366 -0.25376 -0.624 142 92 95
0.24251 -0.258233 -0.635 148 99 102
0.253646 -0.26352 -0.648 143 92 97
0.455891 -0.262707 -0.646 157 107 106
0.456026 -0.260673 -0.641 158 108 107
0.461131 -0.255387 -0.628 157 107 100
0.482771 -0.248067 -0.61 193 134 118
0.48546 -0.24766 -0.609 194 135 119
0.498343 -0.24888 -0.612 167 114 96
-0.114072 -0.248411 -0.608 85 90 94
-0.108597 -0.243917 -0.597 68 71 76
-0.105432 -0.241874 -0.592 66 69 74
-0.0888171 -0.242691 -0.594 55 55 63
-0.08442 -0.246369 -0.603 67 67 75
-0.0766038 -0.250863 -0.614 76 75 83
-0.0709867 -0.25168 -0.616 78 77 85
-0.0609171 -0.253723 -0.621 75 74 82
-0.0484457 -0.256583 -0.628 74 72 83
-0.0370067 -0.26026 -0.637 152 152 162
-0.0204286 -0.265571 -0.65 73 73 85
0.199361 -0.242283 -0.593 188 141 135
0.220617 -0.248411 -0.608 156 102 102
0.22287 -0.249637 -0.611 154 100 100
0.25488 -0.264754 -0.648 145 94 101
0.469003 -0.253723 -0.621 159 107 96
0.47736 -0.250046 -0.612 191 134 117
0.477744 -0.249637 -0.611 193 136 119
0.497529 -0.249637 -0.611 170 114 97
-0.108961 -0.245875 -0.599 106 111 115
-0.0954343 -0.240539 -0.586 100 101 106
-0.08178 -0.24998 -0.609 66 65 73
-0.0788143 -0.251622 -0.613 74 73 81
-0.0598305 -0.255316 -0.622 75 74 82
0.192073 -0.251622 -0.613 193 149 140
0.205095 -0.242181 -0.59 184 131 123
0.224767 -0.251622 -0.613 139 86 92
0.25208 -0.264347 -0.644 133 83 92
0.465916 -0.257779 -0.628 151 102 95
0.471858 -0.253264 -0.617 173 120 106
0.472671 -0.252443 -0.615 176 118 104
0.473843 -0.252443 -0.615 178 120 106
0.477744 -0.250801 -0.611 192 135 118
-0.110837 -0.248666 -0.603 125 128 133
-0.0836857 -0.249903 -0.606 64 63 71
-0.0633848 -0.256501 -0.622 77 76 84
-0.0553571 -0.257738 -0.625 75 74 82
-0.0393714 -0.262274 -0.636 74 74 82
-0.0347429 -0.263924 -0.64 75 75 83
-0.0276 -0.265573 -0.644 76 74 85
-0.0252248 -0.266398 -0.646 74 72 83
-0.0216333 -0.267635 -0.649 74 72 83
0.191777 -0.244954 -0.594 193 146 138
0.200698 -0.242068 -0.587 191 141 134
0.469505 -0.258975 -0.628 153 105 95
0.469951 -0.258563 -0.627 154 104 95
0.470943 -0.256501 -0.622 162 110 99
0.485022 -0.250315 -0.607 192 133 115
0.50266 -0.25279 -0.613 170 114 99
-0.0780267 -0.2552 -0.616 70 69 75
-0.0508381 -0.260171 -0.628 74 73 81
-0.0462733 -0.261414 -0.631 70 73 78
-0.0451429 -0.261829 -0.632 70 73 78
-0.0335762 -0.265557 -0.641 75 74 82
0.193329 -0.242357 -0.585 194 147 139
0.19411 -0.241943 -0.584 194 147 139
0.195223 -0.241943 -0.584 191 144 136
0.20328 -0.2436 -0.588 177 125 114
0.244487 -0.2639 -0.637 130 84 87
0.464797 -0.266386 -0.643 149 101 97
0.466044 -0.264314 -0.638 150 99 95
0.467259 -0.264314 -0.638 148 95 89
0.467952 -0.262657 -0.634 144 95 91
0.471146 -0.259757 -0.627 153 103 94
0.47658 -0.253129 -0.611 191 134 115
0.48003 -0.251886 -0.608 193 134 116
0.485022 -0.251471 -0.607 192 134 114
0.48884 -0.251057 -0.606 186 127 109
0.499038 -0.252714 -0.61 168 112 97
-0.0920857 -0.243888 -0.586 75 76 80
-0.0854267 -0.250547 -0.602 59 58 64
-0.0769781 -0.25679 -0.617 70 69 77
-0.0335762 -0.266778 -0.641 73 72 78
-0.0228343 -0.269691 -0.648 73 74 79
-0.0216333 -0.270108 -0.649 73 73 81
0.18107 -0.24805 -0.596 191 144 134
0.184677 -0.246801 -0.593 185 137 127
0.191557 -0.242639 -0.583 196 148 138
0.233929 -0.260119 -0.625 129 78 85
0.242891 -0.264697 -0.636 129 82 88
0.468235 -0.266778 -0.641 149 96 92
0.47344 -0.256373 -0.616 182 125 106
0.475411 -0.255541 -0.614 190 133 114
0.48271 -0.252628 -0.607 195 136 118
0.48884 -0.252211 -0.606 186 127 109
-0.10472 -0.24584 -0.588 117 118 123
-0.050919 -0.262982 -0.629 74 73 79
-0.0394333 -0.266327 -0.637 73 72 80
-0.0371229 -0.267163 -0.639 73 72 80
-0.0324057 -0.268417 -0.642 73 72 78
-0.0252638 -0.270508 -0.647 72 73 78
0.175886 -0.270926 -0.648 200 161 154
0.1785 -0.248767 -0.595 197 150 140
0.17903 -0.24793 -0.593 194 147 137
0.18231 -0.246258 -0.589 185 137 125
0.185846 -0.245004 -0.586 195 147 137
0.189336 -0.24375 -0.583 196 146 137
0.191229 -0.243331 -0.582 197 145 134
0.228514 -0.259219 -0.62 119 68 75
0.230807 -0.260473 -0.623 125 75 84
0.249627 -0.269253 -0.644 107 64 73
0.468921 -0.270508 -0.647 147 96 93
0.469427 -0.27009 -0.646 147 96 93
0.480397 -0.253784 -0.607 193 136 119
0.495428 -0.253784 -0.607 177 121 106
-0.108779 -0.25116 -0.598 116 117 122
-0.0864295 -0.25242 -0.601 60 59 65
-0.0812819 -0.25788 -0.614 62 61 69
-0.0738095 -0.2604 -0.62 71 70 78
-0.0532305 -0.26376 -0.628 75 74 80
-0.0474752 -0.26502 -0.631 76 75 83
-0.0452143 -0.26586 -0.633 76 75 81
-0.0394333 -0.26754 -0.637 73 72 80
0.172765 -0.26922 -0.641 202 159 152
0.173714 -0.2688 -0.64 203 160 153
0.184099 -0.24528 -0.584 199 149 138
0.255273 -0.27258 -0.649 113 69 82
0.471888 -0.27132 -0.646 143 93 86
0.474242 -0.25788 -0.614 191 134 117
0.478085 -0.25494 -0.607 195 136 118
0.49149 -0.2541 -0.605 181 126 106
0.506163 -0.25746 -0.613 172 116 99
-0.09462 -0.245127 -0.581 108 111 116
-0.0938352 -0.24597 -0.583 93 97 100
-0.0920857 -0.247236 -0.586 63 66 71
-0.0864295 -0.253565 -0.601 61 60 68
-0.0803733 -0.259893 -0.616 62 61 69
-0.0670467 -0.262847 -0.623 74 73 81
-0.0498 -0.2658 -0.63 75 74 80
-0.0429381 -0.26791 -0.635 74 73 81
-0.0394333 -0.268753 -0.637 73 72 80
-0.0359619 -0.270019 -0.64 75 74 82
-0.0324562 -0.271285 -0.643 74 73 81
-0.0288714 -0.272129 -0.645 73 72 80
0.190243 -0.244283 -0.579 194 146 136
0.193886 -0.244705 -0.58 186 134 121
0.206918 -0.249768 -0.592 166 109 100
0.21094 -0.251877 -0.597 152 95 86
0.21982 -0.25694 -0.609 134 84 85
0.227333 -0.261581 -0.62 114 69 76
0.240847 -0.268753 -0.637 122 76 86
0.475315 -0.273816 -0.649 147 99 97
0.47399 -0.267488 -0.634 151 103 93
0.475353 -0.266222 -0.631 156 106 95
0.475384 -0.260315 -0.617 189 130 114
0.482625 -0.25483 -0.604 198 140 120
0.487227 -0.25483 -0.604 193 135 115
0.490678 -0.25483 -0.604 186 129 110
0.493795 -0.255252 -0.605 184 129 109
-0.0865733 -0.255133 -0.602 63 62 70
-0.0841 -0.2581 -0.609 60 59 67
-0.0772276 -0.262338 -0.619 63 62 70
-0.0706067 -0.264033 -0.623 72 71 79
-0.0636905 -0.264881 -0.625 76 75 83
-0.0533152 -0.266576 -0.629 76 75 81
-0.0288714 -0.273357 -0.645 73 72 80
0.162743 -0.271238 -0.64 213 165 163
0.165262 -0.267424 -0.631 201 153 149
0.166603 -0.265729 -0.627 205 158 152
0.169993 -0.251319 -0.593 197 147 136
0.172746 -0.248776 -0.587 191 140 123
0.174386 -0.247929 -0.585 192 141 124
0.179034 -0.246657 -0.582 204 152 138
0.205095 -0.250048 -0.59 168 111 104
0.251952 -0.275476 -0.65 115 65 76
0.476406 -0.268695 -0.634 150 103 95
0.475682 -0.26361 -0.622 184 126 112
0.484123 -0.255557 -0.603 201 143 123
-0.0953971 -0.246489 -0.579 108 111 116
-0.0897971 -0.252449 -0.593 71 72 77
-0.0659657 -0.265646 -0.624 74 73 81
-0.0441476 -0.270329 -0.635 74 73 81
-0.03828 -0.271606 -0.638 74 73 81
0.161144 -0.267774 -0.629 205 155 156
0.165121 -0.262666 -0.617 202 157 151
0.166187 -0.258834 -0.608 202 155 147
0.168847 -0.250746 -0.589 195 145 134
0.180317 -0.246489 -0.579 201 149 135
0.182991 -0.245637 -0.577 203 151 138
0.185966 -0.245211 -0.576 200 149 132
0.203626 -0.250746 -0.589 169 110 104
0.220903 -0.260537 -0.612 130 84 86
0.234972 -0.268626 -0.631 111 69 79
0.250714 -0.276714 -0.65 111 64 72
0.47618 -0.25926 -0.609 198 139 121
-0.104364 -0.250585 -0.586 109 110 115
-0.0996362 -0.247164 -0.578 108 109 114
-0.0825857 -0.262986 -0.615 60 59 67
-0.0683429 -0.266834 -0.624 72 71 79
-0.0546 -0.2694 -0.63 75 74 80
-0.0464933 -0.27111 -0.634 73 72 80
-0.0360181 -0.274104 -0.641 73 72 80
0.158853 -0.275387 -0.644 203 166 158
0.159607 -0.266407 -0.623 201 153 151
0.165454 -0.255289 -0.597 198 150 140
0.166603 -0.251868 -0.589 197 147 138
0.172087 -0.248447 -0.581 189 138 121
0.180006 -0.247164 -0.578 200 148 135
0.205443 -0.252723 -0.591 160 107 103
0.207617 -0.254006 -0.594 154 101 97
0.211647 -0.256144 -0.599 144 93 92
0.213853 -0.257427 -0.602 139 90 93
0.223883 -0.263841 -0.617 125 82 89
0.478529 -0.275814 -0.645 144 100 101
0.491347 -0.257427 -0.602 192 137 117
0.49446 -0.257854 -0.603 185 132 114
-0.122706 -0.275325 -0.641 109 110 115
-0.121106 -0.274466 -0.639 108 109 114
-0.0935133 -0.249553 -0.581 94 97 102
-0.0899486 -0.255137 -0.594 77 78 83
-0.083621 -0.263728 -0.614 62 61 69
-0.0797143 -0.266305 -0.62 60 59 67
-0.07072 -0.268023 -0.624 69 68 76
-0.0615057 -0.269311 -0.627 76 75 81
-0.0430733 -0.273607 -0.637 74 73 81
-0.0313286 -0.277043 -0.645 72 71 79
0.164638 -0.253419 -0.59 192 142 133
0.167949 -0.249983 -0.582 188 136 123
0.183133 -0.246547 -0.574 187 135 122
0.189257 -0.247406 -0.576 193 140 126
0.480501 -0.277472 -0.646 144 103 101
0.479695 -0.274895 -0.64 145 104 98
0.477441 -0.27017 -0.629 168 116 105
0.482517 -0.258144 -0.601 202 144 124
0.502365 -0.260721 -0.607 178 125 107
-0.100563 -0.248934 -0.577 102 103 108
-0.0901 -0.2567 -0.595 77 77 85
-0.0885714 -0.258857 -0.6 74 73 81
-0.0593057 -0.271369 -0.629 75 74 82
-0.0325067 -0.27784 -0.644 73 72 80
0.155913 -0.27482 -0.637 205 161 162
0.155606 -0.270074 -0.626 203 159 160
0.156789 -0.264034 -0.612 200 152 140
0.15808 -0.262309 -0.608 199 149 142
0.179071 -0.248071 -0.575 200 148 135
0.217143 -0.262309 -0.608 131 85 87
0.242643 -0.278271 -0.645 98 57 71
0.480627 -0.275251 -0.638 155 110 104
0.477549 -0.270074 -0.626 175 118 109
0.477211 -0.269211 -0.624 177 119 108
0.476154 -0.266623 -0.618 181 123 109
0.476186 -0.265329 -0.615 190 133 116
0.481027 -0.25972 -0.602 205 147 127
0.488571 -0.258857 -0.6 199 142 123
0.49282 -0.259289 -0.601 194 139 119
-0.10602 -0.255233 -0.589 102 103 108
-0.0919286 -0.2535 -0.585 69 68 76
-0.0894152 -0.259133 -0.598 77 77 85
-0.0649848 -0.271267 -0.626 72 71 79
-0.0638943 -0.2717 -0.627 73 72 80
-0.0546867 -0.273433 -0.631 76 75 83
-0.0442867 -0.276033 -0.637 73 72 80
-0.037239 -0.277767 -0.641 73 72 80
-0.033681 -0.278633 -0.643 72 71 79
0.15392 -0.2704 -0.624 201 155 158
0.159233 -0.257833 -0.595 196 146 135
0.162964 -0.253067 -0.584 193 141 127
0.177667 -0.248733 -0.574 203 149 137
0.178449 -0.2483 -0.573 204 150 138
0.19856 -0.253067 -0.584 167 110 103
0.228341 -0.271267 -0.626 107 66 74
0.24104 -0.279067 -0.644 92 54 67
0.243771 -0.2808 -0.648 99 61 74
0.483969 -0.281233 -0.649 142 104 103
0.476559 -0.267367 -0.617 186 129 112
0.477297 -0.2626 -0.606 201 142 124
0.478023 -0.261733 -0.604 204 146 126
0.499882 -0.261733 -0.604 185 129 112
-0.0919286 -0.254614 -0.585 70 69 75
-0.0582924 -0.274635 -0.631 74 73 81
-0.0536543 -0.275506 -0.633 75 74 82
-0.0501162 -0.275941 -0.634 77 76 84
-0.04664 -0.276811 -0.636 76 75 83
-0.0455 -0.277247 -0.637 75 74 82
-0.033681 -0.279858 -0.643 72 70 81
0.154097 -0.263754 -0.606 202 149 141
0.156357 -0.259837 -0.597 198 145 131
0.169214 -0.250262 -0.575 184 131 115
0.178137 -0.248956 -0.572 209 153 140
0.181089 -0.248521 -0.571 204 147 136
0.183585 -0.248956 -0.572 199 142 131
0.193217 -0.251568 -0.578 175 115 105
0.19856 -0.254179 -0.584 170 113 106
0.232467 -0.275941 -0.634 93 53 61
0.480477 -0.275506 -0.633 162 115 109
0.476556 -0.264625 -0.608 196 139 122
0.477297 -0.263754 -0.606 201 142 124
0.478023 -0.262884 -0.604 205 147 127
0.484 -0.261143 -0.6 205 148 128
0.485475 -0.260708 -0.599 201 144 124
0.49708 -0.262013 -0.602 191 132 114
-0.108233 -0.2601 -0.595 96 99 104
-0.0942943 -0.253106 -0.579 85 86 91
-0.05486 -0.276711 -0.633 74 73 81
-0.0536543 -0.276711 -0.633 74 73 81
-0.0513238 -0.277149 -0.634 76 75 83
-0.0455 -0.27846 -0.637 75 74 82
-0.0419914 -0.279334 -0.639 73 72 80
-0.03846 -0.280209 -0.641 74 73 81
0.151559 -0.274963 -0.629 202 162 152
0.173779 -0.250046 -0.572 196 143 129
0.193551 -0.253106 -0.579 175 116 108
0.209015 -0.261411 -0.598 139 88 87
0.50699 -0.265346 -0.607 177 128 111
-0.116511 -0.272649 -0.621 98 101 106
-0.0942943 -0.254209 -0.579 84 85 90
-0.0901 -0.261233 -0.595 85 86 91
-0.08582 -0.269136 -0.613 70 71 76
-0.0801 -0.273527 -0.623 58 57 65
-0.0732143 -0.274405 -0.625 59 58 66
-0.0651924 -0.275722 -0.628 70 69 77
-0.0640981 -0.276161 -0.629 71 70 78
0.155177 -0.256404 -0.584 196 143 129
0.156593 -0.255087 -0.581 196 143 129
0.162643 -0.252452 -0.575 190 137 123
0.169421 -0.251135 -0.572 200 147 133
0.190024 -0.252452 -0.575 177 120 113
0.243286 -0.285381 -0.65 89 51 64
0.479236 -0.273088 -0.622 177 125 114
0.478085 -0.266502 -0.607 202 144 122
0.478023 -0.265185 -0.604 201 144 124
0.47838 -0.264746 -0.603 203 146 126
0.481714 -0.263429 -0.6 205 147 127
0.499373 -0.264307 -0.602 190 132 112
-0.0952324 -0.25487 -0.578 85 86 91
-0.0927248 -0.257075 -0.583 71 72 77
-0.0720238 -0.275595 -0.625 58 57 65
-0.0640981 -0.277359 -0.629 70 69 77
-0.0606962 -0.278241 -0.631 73 72 80
-0.0594943 -0.278241 -0.631 73 72 80
-0.0583848 -0.278682 -0.632 73 72 80
-0.0409019 -0.28265 -0.641 74 73 81
0.150967 -0.285296 -0.647 204 158 145
0.150791 -0.261485 -0.593 195 139 126
0.152952 -0.257516 -0.584 193 139 127
0.155785 -0.25487 -0.578 193 140 126
0.158537 -0.253989 -0.576 189 136 122
0.177203 -0.250902 -0.569 194 138 125
0.223328 -0.274272 -0.622 93 56 64
0.483966 -0.280446 -0.636 170 123 115
0.479283 -0.27295 -0.619 183 131 118
0.477744 -0.269422 -0.611 199 140 122
0.477714 -0.268099 -0.608 198 140 120
0.478733 -0.265453 -0.602 203 148 128
0.484665 -0.26369 -0.598 208 150 130
0.50052 -0.265453 -0.602 192 135 115
-0.115761 -0.273243 -0.617 95 98 103
-0.107506 -0.261729 -0.591 95 98 103
-0.0867038 -0.270586 -0.611 77 78 83
-0.0843019 -0.274129 -0.619 71 70 78
-0.0456429 -0.282986 -0.639 75 74 80
0.149567 -0.283871 -0.641 201 153 143
0.148451 -0.277229 -0.626 196 146 135
0.150128 -0.259514 -0.586 195 139 126
0.193551 -0.256414 -0.579 176 117 109
0.19924 -0.259514 -0.586 159 104 99
0.486249 -0.282986 -0.639 171 124 118
0.482387 -0.264829 -0.598 206 149 129
-0.0969286 -0.255738 -0.575 90 91 96
-0.0824733 -0.277087 -0.623 63 62 70
-0.063 -0.2802 -0.63 69 68 76
-0.0596829 -0.281534 -0.633 72 71 79
0.147895 -0.26063 -0.586 195 141 129
0.149103 -0.258851 -0.582 192 139 125
0.149695 -0.257962 -0.58 197 141 128
0.161511 -0.253959 -0.571 195 139 126
