ply
format ascii 1.0
comment Created by Open3D
element vertex 1312
property double x
property double y
property double z
property uchar red
property uchar green
property uchar blue
end_header
0.460375 -0.26801 -0.526 163 110 96
0.4645 -0.2675 -0.525 161 108 90
0.469392 -0.26801 -0.526 155 102 86
0.473296 -0.268519 -0.527 157 101 84
0.485791 -0.271576 -0.533 152 99 81
-0.115846 -0.297651 -0.582 91 91 99
-0.105184 -0.315551 -0.617 173 173 171
-0.101561 -0.322711 -0.631 137 141 140
-0.0803067 -0.324246 -0.634 36 36 44
0.109105 -0.327314 -0.64 185 137 133
0.110587 -0.292537 -0.572 189 136 132
0.114871 -0.286911 -0.561 181 128 124
0.133488 -0.283331 -0.554 175 116 108
0.154133 -0.2864 -0.56 152 94 92
0.156825 -0.287423 -0.562 151 92 86
0.157895 -0.287423 -0.562 151 92 86
0.165281 -0.291003 -0.569 143 97 100
0.211518 -0.299697 -0.586 174 111 104
0.250947 -0.326291 -0.638 244 246 255
0.433627 -0.32936 -0.644 163 159 182
0.419037 -0.305323 -0.597 124 89 87
0.407204 -0.284354 -0.556 128 85 79
0.41119 -0.281286 -0.55 132 88 79
0.4235 -0.27566 -0.539 151 101 92
0.424527 -0.27566 -0.539 155 105 94
0.42602 -0.274637 -0.537 152 102 91
0.432373 -0.274126 -0.536 147 98 84
0.448894 -0.270546 -0.529 156 105 88
0.452069 -0.270034 -0.528 159 106 88
0.4645 -0.2685 -0.525 163 108 87
0.498447 -0.27566 -0.539 152 100 79
0.5004 -0.276171 -0.54 154 102 81
-0.129443 -0.3157 -0.615 85 86 91
-0.112713 -0.299273 -0.583 84 84 92
0.119986 -0.2849 -0.555 187 131 130
0.125046 -0.284387 -0.554 179 121 119
0.136653 -0.284387 -0.554 174 111 102
0.148796 -0.285413 -0.556 147 93 93
0.204317 -0.30338 -0.591 197 138 132
0.20817 -0.300813 -0.586 173 117 118
0.212997 -0.301327 -0.587 165 102 95
0.23104 -0.312107 -0.608 85 69 82
0.253348 -0.329047 -0.641 221 225 252
0.437171 -0.32956 -0.642 56 70 109
0.434489 -0.323913 -0.631 73 74 105
0.433619 -0.322373 -0.628 82 83 114
0.421471 -0.27874 -0.543 145 96 89
0.430331 -0.275147 -0.536 149 101 87
0.44232 -0.273093 -0.532 152 100 86
0.445534 -0.27258 -0.531 153 100 86
0.449902 -0.271553 -0.529 158 105 89
0.452925 -0.271553 -0.529 160 107 91
0.4645 -0.2695 -0.525 163 108 87
0.4655 -0.2695 -0.525 160 105 85
0.4743 -0.270527 -0.527 151 98 80
0.488837 -0.273607 -0.533 157 104 86
0.49271 -0.274633 -0.535 156 103 85
0.499473 -0.276687 -0.539 153 105 82
-0.122243 -0.307597 -0.597 82 83 88
-0.112907 -0.300899 -0.584 78 78 86
-0.0848686 -0.32563 -0.632 33 33 41
-0.0813857 -0.326146 -0.633 35 35 43
-0.079099 -0.326661 -0.634 38 38 46
0.107688 -0.305021 -0.592 188 139 135
0.109689 -0.295231 -0.573 190 139 136
0.112462 -0.29111 -0.565 178 127 124
0.116383 -0.287503 -0.558 182 128 126
0.12482 -0.284927 -0.553 179 121 119
0.126927 -0.284927 -0.553 174 116 114
0.13114 -0.284927 -0.553 175 116 110
0.136653 -0.285442 -0.554 172 109 100
0.155477 -0.289049 -0.561 135 85 86
0.159249 -0.290079 -0.563 133 84 87
0.165281 -0.29317 -0.569 140 90 93
0.19797 -0.32357 -0.628 212 215 248
0.204459 -0.308112 -0.598 198 137 136
0.204052 -0.302445 -0.587 183 132 129
0.23142 -0.31378 -0.609 84 70 87
0.23449 -0.316356 -0.614 186 172 189
0.253348 -0.330268 -0.641 221 222 252
0.440302 -0.331298 -0.643 76 90 137
0.412267 -0.288533 -0.56 127 84 78
0.415236 -0.285442 -0.554 132 87 81
0.42658 -0.277713 -0.539 153 104 90
0.427838 -0.277198 -0.538 148 99 85
0.438897 -0.275137 -0.534 146 94 81
0.448733 -0.273076 -0.53 162 109 91
0.4635 -0.2705 -0.525 163 110 92
0.4645 -0.2705 -0.525 164 111 93
0.4734 -0.271015 -0.526 153 100 82
0.488837 -0.274622 -0.533 156 103 87
0.50535 -0.279259 -0.542 164 109 89
-0.138054 -0.327351 -0.633 85 86 91
-0.109183 -0.307183 -0.594 78 76 87
-0.0859362 -0.326317 -0.631 32 32 42
-0.0836648 -0.326834 -0.632 36 35 43
0.137709 -0.286497 -0.554 167 107 99
0.138764 -0.286497 -0.554 165 106 100
0.16362 -0.29322 -0.567 137 91 93
0.176916 -0.303046 -0.586 120 84 98
0.206347 -0.302011 -0.584 188 129 133
0.214845 -0.304597 -0.589 143 85 81
0.253348 -0.331489 -0.641 211 215 250
0.443976 -0.332523 -0.643 49 71 121
0.417811 -0.298909 -0.578 120 80 72
0.41638 -0.296323 -0.573 120 82 73
0.41491 -0.293737 -0.568 120 81 76
0.414871 -0.292186 -0.565 127 84 77
0.416424 -0.288049 -0.557 128 85 79
0.419285 -0.284946 -0.551 136 92 83
0.42145 -0.282877 -0.547 140 93 85
0.425356 -0.281326 -0.544 146 98 88
0.426643 -0.280809 -0.543 146 98 88
0.427132 -0.279774 -0.541 147 99 87
0.430912 -0.278223 -0.538 147 99 87
0.448569 -0.274603 -0.531 155 104 87
0.453074 -0.273051 -0.528 156 104 83
0.456231 -0.272534 -0.527 158 105 87
0.457235 -0.272534 -0.527 161 108 90
0.4675 -0.2715 -0.525 161 106 85
0.494748 -0.276671 -0.535 153 101 87
1.14286 -0.335626 -0.649 207 211 196
-0.115526 -0.304162 -0.586 76 79 84
-0.0858 -0.327 -0.63 32 32 40
-0.082461 -0.328038 -0.632 36 35 41
0.109117 -0.328557 -0.633 187 139 137
0.10764 -0.31039 -0.598 186 137 133
0.110007 -0.295338 -0.569 186 135 132
0.126927 -0.287033 -0.553 175 117 115
0.136653 -0.287552 -0.554 169 108 103
0.150125 -0.28911 -0.557 131 86 83
0.159249 -0.292224 -0.563 131 85 85
0.17031 -0.298452 -0.575 127 81 84
0.203805 -0.329595 -0.635 243 239 255
0.206873 -0.330633 -0.637 229 223 249
0.204886 -0.314543 -0.606 198 138 140
0.20332 -0.31039 -0.598 199 139 139
0.211518 -0.304162 -0.586 157 97 89
0.214845 -0.305719 -0.589 139 84 77
0.417762 -0.293781 -0.566 122 85 79
0.421568 -0.287552 -0.554 135 92 85
0.424576 -0.283919 -0.547 139 92 84
0.428954 -0.281324 -0.542 145 95 86
0.430687 -0.279767 -0.539 149 101 91
0.441949 -0.277171 -0.534 146 97 83
0.455086 -0.274057 -0.528 163 107 90
0.46661 -0.271981 -0.524 166 109 89
0.478315 -0.273538 -0.527 158 102 85
0.499666 -0.278729 -0.537 160 107 89
-0.135984 -0.327679 -0.629 79 82 87
-0.132101 -0.324032 -0.622 79 83 86
-0.121309 -0.31153 -0.598 72 75 80
-0.10955 -0.310488 -0.596 73 73 81
-0.105184 -0.321428 -0.617 215 213 214
-0.102111 -0.326637 -0.627 192 194 193
0.1079 -0.302673 -0.581 185 136 132
0.122935 -0.288608 -0.554 177 121 120
0.207539 -0.327158 -0.628 149 117 130
0.207073 -0.324553 -0.623 171 115 126
0.235635 -0.321428 -0.617 253 242 255
0.23873 -0.324032 -0.622 252 249 255
0.243812 -0.327679 -0.629 205 214 247
0.25134 -0.332889 -0.639 163 171 210
0.450246 -0.332368 -0.638 146 150 185
0.420996 -0.294859 -0.566 122 85 79
0.429501 -0.283398 -0.544 143 95 85
0.429746 -0.282877 -0.543 143 93 84
0.433543 -0.281314 -0.54 143 95 85
0.441363 -0.279751 -0.537 141 92 78
0.443983 -0.278189 -0.534 144 92 78
0.4484 -0.277147 -0.532 151 99 85
0.448569 -0.276626 -0.531 151 99 85
0.456091 -0.275063 -0.528 156 103 85
0.467608 -0.272979 -0.524 164 107 87
0.485076 -0.276105 -0.53 159 107 86
0.51042 -0.282877 -0.543 166 114 100
0.513338 -0.283919 -0.545 174 122 108
0.529834 -0.290691 -0.558 167 124 107
-0.1362 -0.3294 -0.63 74 78 81
-0.10757 -0.315806 -0.604 234 233 239
0.119143 -0.290709 -0.556 176 120 119
0.136653 -0.289663 -0.554 169 110 102
0.143243 -0.290186 -0.555 142 91 87
0.17601 -0.304826 -0.583 114 71 78
0.205993 -0.304826 -0.583 182 117 115
0.220804 -0.311623 -0.596 118 74 71
0.23332 -0.321034 -0.614 243 235 250
0.24934 -0.33306 -0.637 159 168 209
0.454805 -0.335151 -0.641 164 166 178
0.45203 -0.330446 -0.632 123 114 115
0.4239 -0.29646 -0.567 121 84 78
0.424127 -0.294369 -0.563 119 82 74
0.424 -0.2928 -0.56 123 84 77
0.425972 -0.291231 -0.557 124 86 77
0.426267 -0.290709 -0.556 126 88 79
0.427681 -0.288094 -0.551 135 88 80
0.427952 -0.287571 -0.55 136 89 81
0.429786 -0.286003 -0.547 141 93 83
0.437873 -0.28182 -0.539 138 90 78
0.440953 -0.28182 -0.539 141 93 79
0.451762 -0.277114 -0.53 153 100 84
0.468606 -0.273977 -0.524 167 112 91
0.470602 -0.273977 -0.524 160 105 84
-0.102811 -0.327451 -0.624 206 207 209
-0.0894 -0.3306 -0.63 36 36 44
0.109813 -0.298065 -0.568 186 135 132
0.119143 -0.291768 -0.556 173 117 116
0.132193 -0.290193 -0.553 181 121 111
0.14193 -0.290718 -0.554 148 93 86
0.150125 -0.292292 -0.557 136 87 82
0.153583 -0.292817 -0.558 134 86 82
0.156267 -0.293867 -0.56 136 88 86
0.1734 -0.303312 -0.578 116 70 73
0.2193 -0.312233 -0.595 119 78 74
0.25134 -0.335323 -0.639 152 164 204
0.457449 -0.337422 -0.643 177 181 193
0.427563 -0.29859 -0.569 118 81 75
0.429031 -0.294391 -0.561 122 83 76
0.429155 -0.292292 -0.557 129 85 76
0.4342 -0.28652 -0.546 136 88 78
0.438246 -0.284421 -0.542 136 88 76
0.445833 -0.280748 -0.535 143 91 78
0.452453 -0.279173 -0.532 152 99 83
0.484161 -0.277599 -0.529 162 107 86
0.50666 -0.282847 -0.539 168 119 102
1.14233 -0.340046 -0.648 202 204 191
-0.112388 -0.312313 -0.593 70 75 81
-0.0967533 -0.332327 -0.631 47 48 53
-0.0858 -0.3318 -0.63 40 40 48
0.112064 -0.296513 -0.563 185 131 129
0.118084 -0.292827 -0.556 170 115 112
0.12188 -0.291773 -0.554 180 120 119
0.130087 -0.291247 -0.553 174 117 110
0.133247 -0.291247 -0.553 177 118 110
0.147737 -0.292827 -0.556 140 91 86
0.153583 -0.29388 -0.558 138 90 86
0.163043 -0.297567 -0.565 141 93 91
0.1731 -0.303887 -0.577 120 75 78
0.184167 -0.313367 -0.595 122 81 89
0.202533 -0.326533 -0.62 128 118 153
0.199697 -0.31284 -0.594 193 137 140
0.219669 -0.313893 -0.596 118 76 77
0.231772 -0.322847 -0.613 252 236 247
0.459471 -0.33654 -0.639 162 160 171
0.43038 -0.29862 -0.567 119 80 73
0.431937 -0.295987 -0.562 124 81 74
0.433714 -0.29072 -0.552 127 83 74
0.43628 -0.28756 -0.546 131 84 74
0.439054 -0.28598 -0.543 132 86 73
0.44031 -0.285453 -0.542 140 92 80
0.441559 -0.284927 -0.541 136 88 76
0.487095 -0.279133 -0.53 157 102 81
-0.10836 -0.3182 -0.602 79 79 87
-0.105497 -0.323486 -0.612 220 221 226
-0.104009 -0.326129 -0.617 227 226 231
-0.0994048 -0.330357 -0.625 56 57 61
0.10723 -0.332471 -0.629 189 141 139
0.107221 -0.328771 -0.622 190 142 140
0.106419 -0.319257 -0.604 190 142 140
0.132193 -0.2923 -0.553 178 118 117
0.139819 -0.292829 -0.554 157 100 91
0.1647 -0.2997 -0.567 133 87 87
0.167743 -0.301286 -0.57 131 79 81
0.171405 -0.303929 -0.575 117 72 75
0.1731 -0.304986 -0.577 117 72 75
0.18088 -0.3108 -0.588 127 81 84
0.199938 -0.319786 -0.605 180 122 121
0.199234 -0.315029 -0.596 192 131 128
0.207104 -0.308157 -0.583 164 95 90
0.211879 -0.310271 -0.587 145 90 85
0.215574 -0.312386 -0.591 125 77 75
0.434955 -0.295471 -0.559 122 82 74
0.443191 -0.287014 -0.543 134 86 74
0.44444 -0.286486 -0.542 134 86 74
0.44465 -0.285957 -0.541 134 86 74
0.448709 -0.283314 -0.536 145 96 82
0.44889 -0.282786 -0.535 145 96 82
0.467608 -0.276971 -0.524 173 118 98
0.4716 -0.276971 -0.524 165 110 89
0.50478 -0.283843 -0.537 166 119 101
0.508713 -0.2849 -0.539 173 126 106
-0.112956 -0.316164 -0.596 76 81 87
-0.105497 -0.324651 -0.612 223 222 228
-0.0927048 -0.333139 -0.628 40 41 46
0.106889 -0.332609 -0.627 188 140 138
0.106876 -0.328895 -0.62 191 143 141
0.105967 -0.315633 -0.595 189 141 139
0.106232 -0.309798 -0.584 192 143 139
0.121043 -0.294414 -0.555 177 119 117
0.14193 -0.293884 -0.554 147 95 84
0.142985 -0.293884 -0.554 142 94 82
0.16168 -0.299189 -0.564 142 93 88
0.178231 -0.309268 -0.583 114 74 82
0.196943 -0.32359 -0.61 157 143 176
0.197455 -0.32253 -0.608 148 110 125
0.197448 -0.309798 -0.584 192 136 139
0.198647 -0.308207 -0.581 191 134 140
0.19941 -0.307676 -0.58 189 125 123
0.201967 -0.308207 -0.581 183 119 117
0.227566 -0.32253 -0.608 156 133 139
0.461661 -0.335261 -0.632 92 92 116
0.4614 -0.3342 -0.63 100 102 125
0.440248 -0.307676 -0.58 117 77 75
0.439623 -0.303432 -0.572 114 79 73
0.438649 -0.297597 -0.561 121 82 77
0.44252 -0.28964 -0.546 130 83 73
0.443786 -0.28911 -0.545 131 83 73
0.446914 -0.286457 -0.54 141 92 78
0.459109 -0.280091 -0.528 169 112 93
0.461377 -0.27903 -0.526 171 114 95
0.462379 -0.27903 -0.526 171 114 95
0.4625 -0.2785 -0.525 171 114 95
0.469704 -0.277439 -0.523 165 108 89
0.4795 -0.2785 -0.525 157 102 82
-0.111243 -0.318896 -0.599 81 84 91
-0.0947943 -0.33327 -0.626 43 44 49
-0.0925571 -0.333803 -0.627 46 47 52
0.106369 -0.335932 -0.631 180 137 131
0.139819 -0.294939 -0.554 156 99 90
0.147737 -0.296004 -0.556 137 88 81
0.157333 -0.298133 -0.56 139 92 86
0.158683 -0.298666 -0.561 137 90 84
0.1728 -0.306651 -0.576 117 72 77
0.192067 -0.320493 -0.602 211 177 194
0.19754 -0.309313 -0.581 188 132 135
0.204531 -0.309846 -0.582 166 102 92
0.214449 -0.314637 -0.591 125 74 70
0.216304 -0.315702 -0.593 119 78 72
0.230981 -0.326882 -0.614 219 210 231
0.467014 -0.341256 -0.641 126 127 158
0.444234 -0.307716 -0.578 117 79 76
0.442117 -0.30399 -0.571 118 79 74
0.442069 -0.300263 -0.564 119 79 71
0.443667 -0.29281 -0.55 125 82 75
0.44857 -0.28855 -0.542 138 90 78
0.450193 -0.286953 -0.539 138 88 77
0.456507 -0.283227 -0.532 152 100 86
0.45666 -0.282694 -0.531 153 101 87
0.4645 -0.2795 -0.525 168 111 92
0.46661 -0.278968 -0.524 171 114 95
-0.125163 -0.329654 -0.617 87 92 98
-0.0903124 -0.335531 -0.628 45 44 52
0.105869 -0.310954 -0.582 190 139 138
0.106786 -0.307214 -0.575 191 140 137
0.12188 -0.295994 -0.554 177 117 116
0.125046 -0.295994 -0.554 179 119 118
0.138764 -0.295994 -0.554 156 99 90
0.140874 -0.295994 -0.554 151 99 88
0.148796 -0.297063 -0.556 141 91 82
0.179342 -0.311489 -0.583 112 65 71
0.187251 -0.317366 -0.594 90 45 52
0.239836 -0.335531 -0.628 145 146 176
0.463834 -0.332326 -0.622 101 93 114
0.44631 -0.307214 -0.575 118 79 74
0.44613 -0.297597 -0.557 121 78 71
0.44876 -0.29172 -0.546 127 83 74
0.455171 -0.285309 -0.534 143 91 78
0.457819 -0.283171 -0.53 163 106 87
0.474685 -0.279431 -0.523 161 106 86
0.47659 -0.279966 -0.524 161 106 86
0.504861 -0.286377 -0.536 170 121 104
-0.116006 -0.324931 -0.606 89 94 100
-0.0913629 -0.336191 -0.627 52 52 60
0.105695 -0.332438 -0.62 190 139 138
0.10713 -0.306165 -0.571 189 135 135
0.110597 -0.300803 -0.561 184 128 127
0.122935 -0.29705 -0.554 181 121 121
0.138513 -0.296513 -0.553 159 102 95
0.145357 -0.297586 -0.555 149 97 86
0.146414 -0.297586 -0.555 146 94 83
0.167449 -0.305092 -0.569 125 84 82
0.195327 -0.311527 -0.581 191 132 134
0.209286 -0.314208 -0.586 136 82 80
0.21112 -0.31528 -0.588 136 82 80
0.471643 -0.342626 -0.639 71 94 144
0.47111 -0.340481 -0.635 87 110 162
0.451667 -0.290615 -0.542 128 84 73
0.45466 -0.287934 -0.537 139 90 75
0.4707 -0.280428 -0.523 164 109 89
0.473689 -0.280428 -0.523 163 108 88
0.477589 -0.280964 -0.524 159 104 84
0.4815 -0.2815 -0.525 155 103 82
0.488274 -0.283109 -0.528 154 102 80
1.14409 -0.347988 -0.649 203 205 191
-0.101329 -0.330929 -0.615 68 69 74
-0.0944914 -0.335771 -0.624 51 51 59
0.104571 -0.322857 -0.6 191 137 137
0.109724 -0.30241 -0.562 185 129 128
0.113194 -0.300257 -0.558 184 126 125
0.118084 -0.299181 -0.556 181 123 122
0.12399 -0.298105 -0.554 184 124 124
0.131954 -0.297029 -0.552 175 114 111
0.1584 -0.301333 -0.56 138 88 81
0.167449 -0.306176 -0.569 132 82 81
0.192007 -0.312633 -0.581 194 136 134
0.224879 -0.326624 -0.607 120 98 110
0.232862 -0.333081 -0.619 124 121 150
0.473699 -0.340076 -0.632 70 87 141
0.472779 -0.336848 -0.626 107 94 111
0.456742 -0.315862 -0.587 115 81 80
0.454456 -0.310481 -0.577 116 81 75
0.453976 -0.309405 -0.575 117 82 76
0.453787 -0.30779 -0.572 110 73 65
0.45414 -0.3051 -0.567 113 72 66
0.453095 -0.295952 -0.55 121 78 71
0.453925 -0.29111 -0.541 130 83 73
0.459694 -0.285729 -0.531 160 103 84
0.4645 -0.2825 -0.525 163 106 87
0.4655 -0.2825 -0.525 163 106 87
0.467608 -0.281962 -0.524 160 103 84
0.471789 -0.280886 -0.522 164 107 88
0.4825 -0.2825 -0.525 157 102 82
0.493152 -0.28519 -0.53 155 103 81
0.500005 -0.286805 -0.533 161 110 89
0.510844 -0.289495 -0.538 166 119 103
-0.121834 -0.33372 -0.618 92 94 106
-0.11426 -0.32886 -0.609 94 97 104
-0.101329 -0.3321 -0.615 62 61 69
-0.0994686 -0.33372 -0.618 54 53 61
-0.0964029 -0.33534 -0.621 54 53 59
0.109724 -0.30348 -0.562 187 129 128
0.125873 -0.29862 -0.553 181 121 121
0.136407 -0.29862 -0.553 169 109 101
0.1443 -0.2997 -0.555 148 96 85
0.1584 -0.3024 -0.56 144 91 83
0.17051 -0.30888 -0.572 141 86 81
0.187436 -0.31536 -0.584 167 112 115
0.193217 -0.31212 -0.578 186 126 126
0.193982 -0.31158 -0.577 183 123 123
0.454569 -0.29322 -0.543 124 81 74
0.457043 -0.2889 -0.535 149 93 76
0.464383 -0.28404 -0.526 160 103 84
0.4645 -0.2835 -0.525 161 104 85
0.4665 -0.2835 -0.525 162 105 86
0.502035 -0.28782 -0.533 166 115 96
0.509894 -0.28998 -0.537 167 120 102
0.511869 -0.29052 -0.538 165 118 100
1.14162 -0.35046 -0.649 203 205 191
-0.126583 -0.338149 -0.624 97 100 105
0.106568 -0.307802 -0.568 189 133 134
0.1104 -0.303467 -0.56 183 124 126
0.130087 -0.299673 -0.553 174 116 114
0.131954 -0.299131 -0.552 172 113 109
0.135109 -0.299131 -0.552 173 110 105
0.145357 -0.300757 -0.555 149 95 85
0.184894 -0.31593 -0.583 133 79 79
0.192883 -0.312679 -0.577 184 126 125
0.456353 -0.292087 -0.539 135 85 74
0.460848 -0.28721 -0.53 160 103 84
0.4665 -0.2845 -0.525 161 104 85
0.468606 -0.283958 -0.524 158 101 82
0.469604 -0.283958 -0.524 162 105 86
0.471696 -0.283416 -0.523 164 107 88
0.479666 -0.283416 -0.523 157 102 82
1.08643 -0.352238 -0.65 207 209 195
1.13967 -0.352238 -0.65 202 204 190
1.14209 -0.348445 -0.643 202 204 191
-0.116747 -0.334987 -0.616 105 108 113
-0.10567 -0.333355 -0.613 89 90 95
-0.0975857 -0.337706 -0.621 70 69 77
0.103601 -0.32683 -0.601 190 140 141
0.104777 -0.313234 -0.576 187 136 135
0.105857 -0.309971 -0.57 189 133 134
0.138513 -0.300727 -0.553 165 108 99
0.152247 -0.302902 -0.557 145 92 84
0.168829 -0.309971 -0.57 136 81 76
0.170212 -0.310515 -0.571 135 80 75
0.176397 -0.313778 -0.577 127 72 77
0.177804 -0.314322 -0.578 123 68 73
0.183943 -0.31541 -0.58 158 103 100
0.185048 -0.31541 -0.58 162 107 104
0.483513 -0.346407 -0.637 162 167 199
0.472571 -0.326286 -0.6 111 83 82
0.47124 -0.323023 -0.594 107 79 78
0.46984 -0.31976 -0.588 112 78 76
0.463329 -0.309428 -0.569 111 74 68
0.459329 -0.301814 -0.555 116 77 70
0.456637 -0.295289 -0.543 124 84 76
0.457016 -0.294201 -0.541 129 85 76
0.46056 -0.289307 -0.532 158 101 82
0.460706 -0.288763 -0.531 157 100 81
0.461717 -0.288763 -0.531 159 102 83
0.461857 -0.288219 -0.53 160 103 84
0.464383 -0.286044 -0.526 158 101 82
0.477673 -0.284412 -0.523 157 105 84
0.495245 -0.287675 -0.529 156 104 83
0.500151 -0.288763 -0.531 163 112 91
0.51194 -0.292026 -0.537 162 115 95
1.13843 -0.353476 -0.65 203 205 191
1.13791 -0.352932 -0.649 203 205 191
1.14196 -0.350757 -0.645 201 205 190
-0.121243 -0.338889 -0.621 111 115 118
-0.119867 -0.338343 -0.62 108 112 115
-0.11034 -0.334523 -0.613 101 102 107
-0.100809 -0.337797 -0.619 79 79 87
0.103138 -0.330157 -0.605 188 142 142
0.104955 -0.311603 -0.571 184 134 133
0.109333 -0.3056 -0.56 186 130 129
0.130903 -0.301234 -0.552 171 114 107
0.134057 -0.301234 -0.552 173 116 109
0.150914 -0.303417 -0.556 144 89 82
0.197621 -0.315423 -0.578 172 105 97
0.221833 -0.330157 -0.605 95 77 91
0.235119 -0.341071 -0.625 164 161 178
0.23978 -0.344346 -0.631 154 153 159
0.486251 -0.342709 -0.628 107 107 131
0.485119 -0.341071 -0.625 98 87 91
0.475127 -0.321426 -0.589 110 74 76
0.473823 -0.319789 -0.586 110 74 76
0.461215 -0.303417 -0.556 111 78 71
0.45924 -0.291411 -0.534 153 97 80
0.459395 -0.290866 -0.533 153 98 78
0.469604 -0.285954 -0.524 159 102 82
0.4716 -0.285954 -0.524 160 105 85
0.493303 -0.288137 -0.528 156 104 83
0.500151 -0.289774 -0.531 160 109 92
1.08847 -0.354169 -0.649 205 208 191
1.09094 -0.354169 -0.649 205 208 191
1.10948 -0.354169 -0.649 205 207 193
1.13719 -0.354714 -0.65 203 206 189
1.13616 -0.353623 -0.648 203 206 189
1.1381 -0.353077 -0.647 203 205 191
-0.109707 -0.337333 -0.616 109 110 114
-0.108533 -0.337333 -0.616 109 110 114
0.102895 -0.31981 -0.584 186 140 140
0.107583 -0.307762 -0.562 183 133 132
0.112131 -0.305571 -0.558 185 129 128
0.113194 -0.305571 -0.558 186 130 129
0.116174 -0.305024 -0.557 181 125 124
0.117025 -0.304476 -0.556 179 123 122
0.130087 -0.302833 -0.553 173 114 108
0.138513 -0.302833 -0.553 163 106 97
0.148529 -0.303929 -0.555 145 90 83
0.150914 -0.304476 -0.556 147 92 85
0.154646 -0.305571 -0.558 144 89 84
0.205234 -0.31981 -0.584 135 85 78
0.484123 -0.330214 -0.603 107 74 69
0.458581 -0.294619 -0.538 148 92 75
0.460257 -0.292429 -0.534 156 101 81
0.4685 -0.2875 -0.525 162 105 85
0.506096 -0.291881 -0.533 162 113 96
0.508063 -0.292429 -0.534 163 116 98
1.10037 -0.354857 -0.648 206 209 192
1.10283 -0.354857 -0.648 205 208 191
1.10654 -0.354857 -0.648 206 208 194
-0.113594 -0.339606 -0.618 113 117 118
-0.106704 -0.340155 -0.619 109 110 112
0.113194 -0.306634 -0.558 184 128 127
0.126927 -0.303887 -0.553 180 125 122
0.12798 -0.303887 -0.553 178 119 113
0.13114 -0.303887 -0.553 171 112 106
0.134057 -0.303337 -0.552 170 113 106
0.138513 -0.303887 -0.553 163 106 99
0.145095 -0.304436 -0.554 152 95 88
0.154646 -0.306634 -0.558 142 87 82
0.19618 -0.317075 -0.577 165 101 92
0.213274 -0.326417 -0.594 105 69 69
0.236248 -0.345101 -0.628 160 159 175
0.491073 -0.340155 -0.619 95 84 100
0.488377 -0.331912 -0.604 110 74 76
0.46926 -0.31158 -0.567 110 73 65
0.462729 -0.291797 -0.531 160 103 84
0.464009 -0.290698 -0.529 161 106 86
0.470602 -0.28795 -0.524 158 106 85
0.476677 -0.287401 -0.523 158 106 84
0.49726 -0.290698 -0.529 157 109 89
0.506096 -0.292896 -0.533 162 114 94
1.10236 -0.355542 -0.647 204 207 190
1.11147 -0.356091 -0.648 204 207 190
1.11394 -0.356091 -0.648 205 208 191
1.14141 -0.353893 -0.644 201 203 189
1.13686 -0.350596 -0.638 201 203 192
1.13036 -0.347849 -0.633 202 203 195
-0.105695 -0.341886 -0.62 140 140 142
-0.104683 -0.342437 -0.621 153 153 153
0.101604 -0.328651 -0.596 187 141 141
0.101957 -0.322586 -0.585 184 136 136
0.102939 -0.318726 -0.578 186 136 135
0.10332 -0.31652 -0.574 185 135 134
0.106005 -0.311557 -0.565 185 135 134
0.109138 -0.308249 -0.559 182 131 128
0.119143 -0.306594 -0.556 180 124 123
0.133247 -0.30494 -0.553 171 112 106
0.135353 -0.30494 -0.553 166 107 101
0.140874 -0.305491 -0.554 162 105 98
0.149855 -0.306594 -0.556 147 92 85
0.159751 -0.309351 -0.561 139 84 81
0.161107 -0.309903 -0.562 136 81 78
0.164119 -0.311557 -0.565 133 77 76
0.17269 -0.315417 -0.572 125 74 71
0.17548 -0.31652 -0.574 113 62 58
0.177976 -0.317071 -0.575 115 62 58
0.192214 -0.317071 -0.575 172 108 108
0.193646 -0.317623 -0.576 173 108 104
0.213633 -0.3281 -0.595 103 68 72
0.226303 -0.338577 -0.614 67 66 98
0.496151 -0.349054 -0.633 159 165 197
0.496627 -0.345194 -0.626 104 116 156
0.47034 -0.31266 -0.567 112 78 79
0.459926 -0.298874 -0.542 147 94 78
0.459939 -0.295566 -0.536 156 97 83
0.462867 -0.292257 -0.53 158 101 82
0.463001 -0.291706 -0.529 160 103 84
0.4695 -0.2895 -0.525 159 107 86
0.4716 -0.288949 -0.524 162 109 91
0.47867 -0.288397 -0.523 158 106 84
0.503186 -0.292809 -0.531 160 112 90
0.511052 -0.295014 -0.535 165 114 95
1.10236 -0.356774 -0.647 204 207 190
1.13564 -0.356774 -0.647 203 205 191
1.13758 -0.356223 -0.646 204 206 192
1.13976 -0.353466 -0.641 201 203 190
0.10332 -0.317613 -0.574 182 134 132
0.103868 -0.315953 -0.571 182 132 131
0.105817 -0.31208 -0.564 179 129 128
0.12798 -0.305993 -0.553 178 119 113
0.132193 -0.305993 -0.553 168 109 103
0.1343 -0.305993 -0.553 164 105 99
0.140874 -0.306547 -0.554 159 102 95
0.179853 -0.317613 -0.574 162 102 101
0.188271 -0.31706 -0.573 181 117 117
0.189363 -0.31706 -0.573 180 116 116
0.19618 -0.319273 -0.577 165 101 99
0.21621 -0.331447 -0.599 90 70 81
0.2244 -0.33864 -0.612 80 72 95
0.501 -0.3486 -0.63 103 126 176
0.461886 -0.303227 -0.548 140 91 76
0.465143 -0.29216 -0.528 160 105 85
0.467389 -0.291053 -0.526 162 107 87
0.4685 -0.2905 -0.525 162 107 87
0.474594 -0.289947 -0.524 164 109 88
0.4885 -0.2905 -0.525 160 108 86
1.12824 -0.358007 -0.647 205 208 191
1.13758 -0.357453 -0.646 204 206 192
1.13686 -0.353027 -0.638 201 203 190
1.13393 -0.351367 -0.635 203 205 192
0.102014 -0.321483 -0.579 189 143 143
0.105114 -0.314265 -0.566 178 127 126
0.123157 -0.308157 -0.555 183 129 127
0.126101 -0.307602 -0.554 179 123 122
0.135353 -0.307047 -0.553 164 105 99
0.140874 -0.307602 -0.554 157 100 93
0.146414 -0.308157 -0.555 149 94 87
0.180631 -0.318151 -0.573 163 103 102
0.181723 -0.318151 -0.573 170 106 106
0.185764 -0.317596 -0.572 171 106 102
0.20086 -0.322593 -0.581 140 83 76
0.2125 -0.330367 -0.595 98 67 72
0.22214 -0.33814 -0.609 84 79 99
0.225133 -0.340916 -0.614 98 93 113
0.390018 -0.36035 -0.649 32 76 149
0.506974 -0.348134 -0.627 115 132 178
0.462085 -0.303715 -0.547 142 93 78
0.460958 -0.300939 -0.542 148 93 73
0.46627 -0.29261 -0.527 162 107 87
0.475592 -0.290945 -0.524 167 113 87
0.47867 -0.29039 -0.523 168 114 86
0.493438 -0.292055 -0.526 160 108 84
0.49538 -0.29261 -0.527 160 108 86
0.497326 -0.293166 -0.528 160 108 86
0.500283 -0.293721 -0.529 161 111 88
0.507173 -0.295387 -0.532 164 114 91
1.12158 -0.358684 -0.646 205 208 189
1.14087 -0.357018 -0.643 203 205 191
1.14031 -0.356463 -0.642 202 204 190
0.108267 -0.312 -0.56 180 122 121
0.109333 -0.312 -0.56 182 124 123
0.120202 -0.309771 -0.556 183 127 128
0.125046 -0.308657 -0.554 180 126 124
0.145357 -0.309214 -0.555 150 93 84
0.15252 -0.310886 -0.558 145 90 85
0.168532 -0.317014 -0.569 128 72 71
0.169914 -0.317571 -0.57 125 69 68
0.189363 -0.319243 -0.573 180 115 111
0.210301 -0.329829 -0.592 100 66 67
0.230436 -0.346543 -0.622 142 143 171
0.379543 -0.361029 -0.648 108 121 156
0.466729 -0.309214 -0.555 137 95 83
0.463774 -0.305871 -0.549 143 94 79
0.463127 -0.304757 -0.547 145 92 74
0.46063 -0.299743 -0.538 157 100 81
0.465143 -0.294171 -0.528 163 107 84
0.4715 -0.2925 -0.525 176 119 90
0.474594 -0.291943 -0.524 173 117 90
0.475592 -0.291943 -0.524 173 117 90
0.480737 -0.290829 -0.522 163 109 81
0.486639 -0.291386 -0.523 162 108 82
0.51507 -0.298629 -0.536 157 111 87
1.11001 -0.359357 -0.645 205 208 191
1.1137 -0.359357 -0.645 205 208 191
1.13581 -0.359357 -0.645 203 205 191
1.1392 -0.356571 -0.64 202 204 190
0.0989276 -0.347728 -0.622 189 150 145
0.101486 -0.322011 -0.576 185 135 136
0.112131 -0.311949 -0.558 186 132 130
0.113194 -0.311949 -0.558 185 131 129
0.123157 -0.310271 -0.555 184 130 128
0.151186 -0.31139 -0.557 146 88 84
0.162754 -0.315303 -0.564 126 73 69
0.165488 -0.316421 -0.566 125 72 68
0.16686 -0.31698 -0.567 127 73 71
0.5142 -0.3522 -0.63 188 188 198
0.463973 -0.306358 -0.548 146 90 73
0.4685 -0.2935 -0.525 175 119 92
0.47867 -0.292382 -0.523 170 114 87
0.480662 -0.292382 -0.523 167 111 84
0.4935 -0.2935 -0.525 163 113 88
0.495442 -0.294059 -0.526 161 111 86
0.496444 -0.294059 -0.526 158 110 87
1.09848 -0.360027 -0.644 206 209 190
1.10584 -0.360027 -0.644 205 208 191
1.13336 -0.360586 -0.645 203 205 191
1.13693 -0.355554 -0.636 203 205 192
0.100326 -0.326474 -0.582 184 133 132
0.102049 -0.321426 -0.573 183 132 131
0.10278 -0.320304 -0.571 178 127 126
0.113194 -0.313011 -0.558 184 130 128
0.127156 -0.310768 -0.554 178 122 121
0.130087 -0.310207 -0.553 171 110 107
0.137709 -0.310768 -0.554 161 102 98
0.14193 -0.310768 -0.554 159 98 93
0.172388 -0.320304 -0.571 123 68 65
0.189693 -0.321987 -0.574 168 103 101
0.193646 -0.323109 -0.576 152 90 79
0.201206 -0.326474 -0.582 121 72 67
0.39621 -0.362936 -0.647 90 117 172
0.462843 -0.304597 -0.543 152 99 83
0.461119 -0.30011 -0.535 157 100 81
0.464009 -0.296744 -0.529 168 112 87
0.497446 -0.295061 -0.526 149 101 79
1.12179 -0.361253 -0.644 205 208 191
1.13807 -0.357888 -0.638 205 207 193
1.1375 -0.357327 -0.637 208 210 196
0.0988248 -0.345594 -0.614 184 139 144
0.0991667 -0.3349 -0.595 192 141 146
0.112131 -0.314074 -0.558 185 131 131
0.117025 -0.312949 -0.556 180 126 126
0.1221 -0.312386 -0.555 184 128 127
0.12798 -0.31126 -0.553 178 120 118
0.146678 -0.312949 -0.556 150 92 88
0.149064 -0.313511 -0.557 141 86 79
0.151457 -0.314074 -0.558 140 85 78
0.160036 -0.316326 -0.562 130 77 71
0.16441 -0.318577 -0.566 125 72 68
0.188271 -0.322517 -0.573 170 105 103
0.199753 -0.32702 -0.581 129 75 65
0.211722 -0.335463 -0.596 102 67 73
0.219098 -0.341654 -0.607 61 60 78
0.382063 -0.363606 -0.646 91 105 134
0.515705 -0.352349 -0.626 112 97 104
0.463695 -0.306194 -0.544 155 100 80
0.463023 -0.305069 -0.542 155 103 82
0.475681 -0.294374 -0.523 176 119 92
0.477673 -0.294374 -0.523 175 118 89
0.48372 -0.293811 -0.522 166 112 88
0.508243 -0.298877 -0.531 149 108 86
0.513149 -0.300566 -0.534 152 105 85
1.11392 -0.361917 -0.643 204 207 188
1.13352 -0.361917 -0.643 203 205 191
1.13474 -0.361917 -0.643 202 204 190
1.13732 -0.360791 -0.641 203 206 189
0.0986914 -0.342246 -0.606 188 136 140
0.0993876 -0.329256 -0.583 185 134 133
0.142186 -0.313443 -0.555 156 97 91
0.150394 -0.315137 -0.558 139 84 79
0.160036 -0.317396 -0.562 128 78 71
0.16686 -0.32022 -0.567 122 69 63
0.174563 -0.322479 -0.571 129 76 70
0.177826 -0.322479 -0.571 141 86 81
0.180001 -0.322479 -0.571 151 92 88
0.189693 -0.324173 -0.574 163 98 94
0.229989 -0.352411 -0.624 71 78 120
0.389446 -0.364836 -0.646 59 97 168
0.46268 -0.303842 -0.538 154 103 82
0.464262 -0.29763 -0.527 168 112 89
0.4685 -0.2965 -0.525 183 126 97
0.479743 -0.294806 -0.522 177 120 93
0.4975 -0.2965 -0.525 159 111 89
0.501403 -0.29763 -0.527 157 109 87
0.512188 -0.301018 -0.533 154 107 87
1.09018 -0.362577 -0.642 206 208 194
1.09751 -0.362577 -0.642 205 208 191
1.10241 -0.362577 -0.642 206 209 192
1.10485 -0.362577 -0.642 206 209 190
1.1392 -0.361448 -0.64 202 205 188
0.0985 -0.3349 -0.591 191 141 142
0.0996362 -0.327533 -0.578 183 133 132
0.110203 -0.316767 -0.559 181 127 127
0.113848 -0.315067 -0.556 183 127 130
0.117025 -0.315067 -0.556 182 128 128
0.122935 -0.313933 -0.554 176 120 119
0.125046 -0.313933 -0.554 174 118 117
0.136653 -0.313933 -0.554 165 106 102
0.161393 -0.319033 -0.563 125 78 68
0.16441 -0.320733 -0.566 122 75 65
0.168236 -0.321867 -0.568 121 71 64
0.172086 -0.323 -0.57 112 63 56
0.181089 -0.323567 -0.571 154 90 88
0.182176 -0.323567 -0.571 158 94 92
0.18718 -0.3247 -0.573 167 99 98
0.222794 -0.347933 -0.614 56 61 90
0.471593 -0.315633 -0.557 148 95 81
0.462843 -0.3043 -0.537 162 105 85
0.462441 -0.302033 -0.533 167 110 90
0.479666 -0.296367 -0.523 177 121 96
0.489686 -0.2958 -0.522 167 116 95
0.49162 -0.296367 -0.523 165 114 93
0.4985 -0.2975 -0.525 160 112 90
0.500451 -0.298067 -0.526 158 110 87
1.10435 -0.363233 -0.641 204 207 190
1.12197 -0.3638 -0.642 205 208 191
1.12809 -0.3638 -0.642 203 206 189
1.13298 -0.3638 -0.642 203 206 189
0.0980333 -0.3383 -0.595 181 142 145
0.108267 -0.3184 -0.56 182 128 128
0.109138 -0.317831 -0.559 183 129 129
0.111069 -0.317263 -0.558 185 131 131
0.116814 -0.315557 -0.555 185 129 130
0.135598 -0.314989 -0.554 161 103 101
0.146942 -0.316694 -0.557 144 89 84
0.153067 -0.3184 -0.56 134 81 75
0.158966 -0.319537 -0.562 129 81 71
0.176738 -0.324654 -0.571 133 83 76
0.21094 -0.339437 -0.597 100 69 74
0.215714 -0.343417 -0.604 82 72 81
0.38088 -0.36616 -0.644 126 134 153
0.388843 -0.366729 -0.645 94 130 190
0.478135 -0.321811 -0.566 138 93 87
0.463002 -0.304754 -0.536 166 109 89
0.4675 -0.2985 -0.525 184 127 100
0.4716 -0.297931 -0.524 184 127 98
0.47867 -0.297363 -0.523 180 124 99
0.496552 -0.297931 -0.524 160 112 89
1.13554 -0.363886 -0.64 203 206 189
0.0977038 -0.338292 -0.593 186 142 141
0.0982771 -0.332588 -0.583 187 140 134
0.103852 -0.322319 -0.565 182 131 130
0.105442 -0.320608 -0.562 184 133 132
0.112991 -0.317755 -0.557 184 128 131
0.115757 -0.316614 -0.555 183 127 128
0.133488 -0.316044 -0.554 163 105 104
0.153067 -0.319467 -0.56 134 81 75
0.16168 -0.321749 -0.564 127 78 71
0.164119 -0.322319 -0.565 122 75 65
0.177826 -0.325742 -0.571 136 86 79
0.191784 -0.329165 -0.577 139 84 81
0.194654 -0.330306 -0.579 133 78 75
0.205095 -0.336581 -0.59 106 72 73
0.2091 -0.339433 -0.595 103 71 74
0.374165 -0.366816 -0.643 185 187 199
0.463866 -0.306346 -0.537 162 105 85
0.464009 -0.301782 -0.529 174 118 93
0.465385 -0.30007 -0.526 178 121 94
0.4675 -0.2995 -0.525 183 126 99
0.477754 -0.297789 -0.522 183 127 102
0.480737 -0.297789 -0.522 174 118 93
0.48372 -0.297789 -0.522 173 119 95
0.489686 -0.297789 -0.522 169 119 94
0.493663 -0.297789 -0.522 160 113 87
0.509305 -0.302352 -0.53 153 106 86
0.517167 -0.305205 -0.535 152 111 91
0.525028 -0.308628 -0.541 151 110 88
1.13814 -0.362823 -0.636 203 205 191
1.1352 -0.35997 -0.631 203 205 191
0.100605 -0.32683 -0.571 184 132 134
0.103669 -0.322823 -0.564 182 131 130
0.105442 -0.321678 -0.562 183 132 131
0.1072 -0.320533 -0.56 182 128 128
0.114907 -0.318244 -0.556 182 126 127
0.118714 -0.317099 -0.554 184 128 129
0.11977 -0.317099 -0.554 185 129 130
0.142442 -0.318244 -0.556 153 95 91
0.143501 -0.318244 -0.556 149 91 87
0.145881 -0.318816 -0.557 147 88 84
0.16441 -0.323968 -0.566 121 72 65
0.180001 -0.32683 -0.571 146 89 82
0.190685 -0.330264 -0.577 143 83 82
0.216786 -0.347435 -0.607 63 63 101
0.383963 -0.368041 -0.643 95 121 172
0.386412 -0.368041 -0.643 107 139 188
0.394986 -0.368041 -0.643 119 138 178
0.474566 -0.319389 -0.558 138 95 89
0.469857 -0.31481 -0.55 147 98 84
0.466804 -0.311375 -0.544 160 105 84
0.46612 -0.31023 -0.542 158 103 82
0.464567 -0.308513 -0.539 164 107 87
0.463876 -0.303362 -0.53 171 115 92
0.466387 -0.301072 -0.526 181 124 95
0.481731 -0.298783 -0.522 178 122 95
0.5015 -0.3005 -0.525 156 112 85
1.10821 -0.365751 -0.639 204 207 190
1.13189 -0.366324 -0.64 202 205 188
1.1362 -0.365751 -0.639 203 206 189
0.0983648 -0.331363 -0.577 188 139 135
0.101336 -0.326769 -0.569 185 134 131
0.105442 -0.322749 -0.562 181 130 127
0.134786 -0.318729 -0.555 158 100 98
0.137957 -0.318729 -0.555 156 98 94
0.14482 -0.319877 -0.557 145 88 81
0.15334 -0.322174 -0.561 134 81 73
0.161967 -0.324471 -0.565 125 74 70
0.16441 -0.325046 -0.566 120 70 63
0.189257 -0.330789 -0.576 139 83 82
0.193217 -0.331937 -0.578 125 77 77
0.38948 -0.368691 -0.642 95 125 175
0.481989 -0.326194 -0.568 137 97 95
0.46852 -0.31356 -0.546 158 105 87
0.504459 -0.302074 -0.526 158 110 90
0.627203 -0.361226 -0.629 211 209 210
1.13133 -0.366969 -0.639 203 206 189
1.13759 -0.363523 -0.633 202 204 190
1.1364 -0.362374 -0.631 209 210 196
0.0967152 -0.338224 -0.587 184 144 145
0.097 -0.335343 -0.582 184 139 134
0.112789 -0.320362 -0.556 182 126 129
0.158457 -0.324971 -0.564 128 78 71
0.16089 -0.325548 -0.565 127 77 70
0.204317 -0.340529 -0.591 101 71 69
0.21563 -0.349748 -0.607 94 68 77
0.217857 -0.351476 -0.61 55 64 103
0.373001 -0.369338 -0.641 186 190 217
0.38092 -0.369914 -0.642 141 157 191
0.4636 -0.306533 -0.532 171 115 92
0.473689 -0.301348 -0.523 188 131 104
0.475766 -0.300771 -0.522 185 128 99
1.13078 -0.36761 -0.638 203 205 191
1.13756 -0.365881 -0.635 202 204 190
0.0959057 -0.348591 -0.603 189 145 146
0.0962486 -0.341654 -0.591 188 146 148
0.104186 -0.324311 -0.561 183 132 129
0.106133 -0.323733 -0.56 186 132 130
0.110006 -0.322577 -0.558 186 132 130
0.12399 -0.320265 -0.554 176 120 121
0.125046 -0.320265 -0.554 176 120 121
0.151203 -0.324311 -0.561 133 83 74
0.168236 -0.328358 -0.568 117 70 60
0.169318 -0.328358 -0.568 117 69 57
0.200698 -0.339342 -0.587 108 72 72
0.211209 -0.347435 -0.601 92 70 73
0.382769 -0.370559 -0.641 86 110 146
0.38399 -0.370559 -0.641 101 125 161
0.387652 -0.370559 -0.641 97 118 181
0.485622 -0.330092 -0.571 136 101 95
0.4665 -0.3035 -0.525 178 121 92
0.46661 -0.302922 -0.524 182 125 96
0.474771 -0.301766 -0.522 188 131 104
0.476839 -0.301188 -0.521 189 132 105
0.477831 -0.301188 -0.521 190 133 106
0.478824 -0.301188 -0.521 186 129 102
0.486819 -0.30061 -0.52 177 123 97
0.5133 -0.306969 -0.531 151 110 92
0.62122 -0.360153 -0.623 212 207 211
1.13265 -0.368247 -0.637 204 206 192
1.13386 -0.368247 -0.637 203 205 191
0.0960857 -0.3422 -0.59 190 146 147
0.0999 -0.32886 -0.567 186 136 135
0.12399 -0.32132 -0.554 175 119 120
0.127156 -0.32132 -0.554 169 113 114
0.132671 -0.3219 -0.555 159 106 100
0.137957 -0.3219 -0.555 154 101 95
0.139265 -0.32248 -0.556 150 97 91
0.146405 -0.32422 -0.559 136 83 77
0.157383 -0.32712 -0.564 128 80 70
0.178913 -0.33118 -0.571 142 89 85
0.187063 -0.33408 -0.576 115 74 72
0.214473 -0.35206 -0.607 93 82 96
0.382171 -0.3712 -0.64 90 109 151
0.393143 -0.3712 -0.64 136 152 186
0.468185 -0.31436 -0.542 160 107 91
0.464262 -0.30566 -0.527 177 121 96
0.465385 -0.30508 -0.526 178 121 94
0.475847 -0.30218 -0.521 191 134 107
0.478895 -0.3016 -0.52 184 127 100
0.481867 -0.3016 -0.52 184 128 101
0.48786 -0.30102 -0.519 177 123 97
0.492803 -0.30102 -0.519 175 121 97
0.503539 -0.30392 -0.524 153 110 91
1.11202 -0.36946 -0.637 204 207 190
1.13022 -0.36946 -0.637 203 205 191
1.13577 -0.36772 -0.634 202 204 190
0.0997238 -0.329358 -0.566 189 139 140
0.103301 -0.32703 -0.562 186 135 134
0.12188 -0.322375 -0.554 175 121 119
0.142954 -0.324703 -0.558 142 89 83
0.156309 -0.328194 -0.564 129 81 71
0.17565 -0.332268 -0.571 126 77 70
0.196335 -0.339832 -0.584 111 70 74
0.19992 -0.34216 -0.588 110 71 74
0.203879 -0.34507 -0.593 106 70 70
0.210413 -0.350307 -0.602 88 68 80
0.221532 -0.359035 -0.617 115 121 157
0.369403 -0.371837 -0.639 72 85 127
0.374271 -0.371837 -0.639 171 182 210
0.375489 -0.371837 -0.639 176 187 215
0.379733 -0.372419 -0.64 151 158 187
0.491575 -0.336341 -0.578 138 101 95
0.480963 -0.327612 -0.563 139 98 92
0.466065 -0.311901 -0.536 161 109 95
0.4655 -0.3055 -0.525 179 123 98
0.47287 -0.303172 -0.521 192 135 108
0.473862 -0.303172 -0.521 192 135 108
0.474854 -0.303172 -0.521 192 135 108
0.486819 -0.30259 -0.52 178 124 98
0.492803 -0.302009 -0.519 171 119 95
0.610081 -0.356708 -0.613 212 206 206
1.13087 -0.370091 -0.636 203 206 189
0.0951105 -0.349118 -0.598 194 144 143
0.0954343 -0.342112 -0.586 188 142 145
0.100446 -0.329269 -0.564 192 141 140
0.105944 -0.32635 -0.559 184 130 128
0.110006 -0.325766 -0.558 182 128 126
0.12399 -0.32343 -0.554 175 119 120
0.130557 -0.324014 -0.555 161 108 100
0.14321 -0.32635 -0.559 142 89 83
0.158738 -0.329852 -0.565 127 79 69
0.1647 -0.33102 -0.567 123 75 65
0.1707 -0.332188 -0.569 123 75 65
0.186289 -0.336858 -0.577 115 67 65
0.194889 -0.340361 -0.583 110 70 71
0.202408 -0.345615 -0.592 106 67 68
0.206391 -0.348534 -0.597 101 68 75
0.394963 -0.373054 -0.639 170 176 198
0.398614 -0.373054 -0.639 79 90 118
0.523414 -0.362546 -0.621 122 101 98
0.47386 -0.321679 -0.551 144 104 96
0.465143 -0.308251 -0.528 174 119 98
0.465266 -0.307668 -0.527 177 122 101
0.4698 -0.304749 -0.522 188 131 104
0.488893 -0.302413 -0.518 174 122 98
0.512374 -0.308835 -0.529 154 113 93
0.519251 -0.311754 -0.534 152 111 93
0.522217 -0.312922 -0.536 150 111 94
0.0958333 -0.336786 -0.575 189 139 142
0.104879 -0.327414 -0.559 183 132 131
0.107009 -0.327414 -0.559 185 131 131
0.108943 -0.326829 -0.558 180 126 126
0.1147 -0.325071 -0.555 185 131 131
0.115757 -0.325071 -0.555 182 128 128
0.153086 -0.330343 -0.564 130 82 72
0.16578 -0.3321 -0.567 122 74 64
0.1707 -0.333271 -0.569 125 76 69
0.20491 -0.349086 -0.596 107 69 68
0.211112 -0.353771 -0.604 88 70 86
0.388269 -0.373686 -0.638 108 134 185
0.389484 -0.373686 -0.638 133 159 210
0.391914 -0.373686 -0.638 151 161 196
0.478817 -0.326829 -0.558 143 105 96
0.465763 -0.311014 -0.531 165 112 94
0.4665 -0.3075 -0.525 180 122 100
0.470885 -0.305157 -0.521 190 134 107
0.471877 -0.305157 -0.521 190 134 107
0.476914 -0.304571 -0.52 191 135 108
0.486871 -0.303986 -0.519 182 128 102
0.491853 -0.3034 -0.518 172 122 97
0.503574 -0.306329 -0.523 156 114 92
1.13214 -0.371343 -0.634 203 205 191
1.13397 -0.370757 -0.633 202 204 190
1.13459 -0.370171 -0.632 202 204 190
1.1358 -0.369 -0.63 200 204 190
0.11087 -0.327304 -0.557 186 132 132
0.125046 -0.325541 -0.554 172 119 115
0.127156 -0.325541 -0.554 162 109 105
0.128211 -0.325541 -0.554 159 109 100
0.153086 -0.331417 -0.564 131 82 75
0.177357 -0.336706 -0.573 120 75 70
0.199476 -0.346695 -0.59 109 70 65
0.327691 -0.373726 -0.636 156 176 213
0.38038 -0.374313 -0.637 125 149 195
0.381593 -0.374313 -0.637 76 100 146
0.521547 -0.361973 -0.616 128 103 98
0.46661 -0.307912 -0.524 180 119 100
0.467608 -0.307912 -0.524 180 124 99
0.468708 -0.307325 -0.523 180 124 99
0.471877 -0.30615 -0.521 189 133 108
0.477974 -0.304974 -0.519 188 132 105
0.48396 -0.304387 -0.518 186 130 103
0.494813 -0.304387 -0.518 165 120 99
0.496757 -0.304974 -0.519 165 120 99
1.07369 -0.371963 -0.633 206 209 192
1.13459 -0.371375 -0.632 202 204 191
1.1358 -0.3702 -0.63 200 204 189
1.12911 -0.366087 -0.623 200 203 194
0.115757 -0.327186 -0.555 176 126 117
0.116814 -0.327186 -0.555 175 125 116
0.130557 -0.327186 -0.555 154 104 97
0.1424 -0.330133 -0.56 137 88 81
0.144791 -0.330723 -0.561 135 88 78
0.152011 -0.332491 -0.564 133 84 77
0.188687 -0.342513 -0.581 108 66 67
0.194443 -0.344871 -0.585 103 69 67
0.203433 -0.350767 -0.595 109 71 70
0.24575 -0.373758 -0.634 181 189 210
0.252996 -0.373758 -0.634 110 128 168
0.254204 -0.373758 -0.634 118 133 172
0.390087 -0.375527 -0.637 113 136 186
0.393727 -0.375527 -0.637 107 126 169
0.515389 -0.357251 -0.606 137 104 95
0.47025 -0.319522 -0.542 157 111 96
0.468806 -0.307731 -0.522 182 126 103
0.47287 -0.307142 -0.521 192 136 111
0.478963 -0.305963 -0.519 190 133 106
0.48988 -0.305373 -0.518 178 126 102
0.491889 -0.304784 -0.517 169 117 95
0.51439 -0.311858 -0.529 149 111 92
0.51832 -0.313627 -0.532 147 110 91
0.0941286 -0.354266 -0.599 190 148 149
0.0959171 -0.336523 -0.569 187 138 133
0.105944 -0.330609 -0.559 183 132 129
0.106817 -0.330017 -0.558 182 131 128
0.109809 -0.329426 -0.557 180 131 127
0.113643 -0.328243 -0.555 179 129 122
0.115757 -0.328243 -0.555 178 128 119
0.1295 -0.328243 -0.555 159 109 100
0.148525 -0.332974 -0.563 131 84 78
0.155785 -0.334749 -0.566 126 79 73
0.189011 -0.344211 -0.582 109 68 62
0.215426 -0.362546 -0.613 116 103 121
0.24054 -0.374374 -0.633 141 145 180
0.242951 -0.374374 -0.633 177 182 204
0.244157 -0.374374 -0.633 176 181 203
0.246569 -0.374374 -0.633 171 179 202
0.397954 -0.376149 -0.636 166 173 199
0.525266 -0.366094 -0.619 126 107 111
0.466905 -0.313457 -0.53 173 118 98
0.47287 -0.308134 -0.521 189 135 109
0.482041 -0.305769 -0.517 185 131 103
1.07079 -0.373783 -0.632 205 207 193
1.0744 -0.373783 -0.632 206 209 192
1.12915 -0.374374 -0.633 202 204 190
1.134 -0.373191 -0.631 203 205 192
1.1352 -0.373191 -0.631 203 206 185
0.0938381 -0.350067 -0.59 192 148 149
0.0939962 -0.346507 -0.584 189 145 146
0.120825 -0.328707 -0.554 164 114 105
0.122935 -0.328707 -0.554 167 117 108
0.126101 -0.328707 -0.554 160 110 99
0.13764 -0.33108 -0.558 138 89 82
0.138951 -0.331673 -0.559 136 87 80
0.14505 -0.333453 -0.562 136 87 80
0.148789 -0.33464 -0.564 132 85 77
0.169914 -0.3382 -0.57 118 75 68
0.192214 -0.3471 -0.585 109 68 62
0.234141 -0.374987 -0.632 159 160 181
0.24898 -0.37558 -0.633 145 154 187
0.252597 -0.37558 -0.633 119 133 172
0.377976 -0.376767 -0.635 63 93 147
0.468829 -0.319213 -0.538 157 109 97
0.467273 -0.312687 -0.527 173 116 97
0.469604 -0.310907 -0.524 180 125 104
0.4698 -0.30972 -0.522 183 129 105
0.47804 -0.307347 -0.518 190 134 107
0.489919 -0.306753 -0.517 175 123 99
0.490937 -0.30616 -0.516 163 111 89
1.134 -0.374393 -0.631 203 205 191
1.1358 -0.3738 -0.63 202 205 186
1.13459 -0.372613 -0.628 202 204 191
1.13512 -0.370833 -0.625 213 215 204
0.0939686 -0.343452 -0.577 190 142 142
0.0982971 -0.335714 -0.564 187 134 130
0.122935 -0.329762 -0.554 166 116 107
0.1295 -0.330357 -0.555 154 105 98
0.145308 -0.335119 -0.563 136 87 80
0.154707 -0.336905 -0.566 127 80 70
0.16038 -0.3375 -0.567 123 79 70
0.166365 -0.33869 -0.569 120 77 68
0.179383 -0.342857 -0.576 115 74 70
0.182208 -0.344048 -0.578 110 71 66
0.197229 -0.35119 -0.59 106 71 69
0.199361 -0.352976 -0.593 103 68 66
0.205485 -0.357738 -0.601 103 77 80
0.36772 -0.377381 -0.634 179 187 206
0.402167 -0.377976 -0.635 174 174 186
0.477009 -0.327976 -0.551 155 111 100
0.4697 -0.320833 -0.539 155 109 96
0.467517 -0.317262 -0.533 170 117 99
0.466905 -0.315476 -0.53 174 118 101
0.475997 -0.308929 -0.519 185 129 106
0.476986 -0.308929 -0.519 186 130 107
0.477053 -0.308333 -0.518 188 132 107
0.482041 -0.307738 -0.517 191 137 111
0.484995 -0.307738 -0.517 183 129 105
0.493858 -0.307738 -0.517 162 120 96
0.50853 -0.311905 -0.524 157 116 94
1.134 -0.374405 -0.629 203 205 192
1.13694 -0.372619 -0.626 202 204 191
0.0936429 -0.343357 -0.575 188 142 144
0.0948333 -0.339774 -0.569 188 140 136
0.09558 -0.33858 -0.567 188 140 136
0.0981229 -0.336191 -0.563 187 131 130
0.101867 -0.3344 -0.56 184 130 128
0.105754 -0.333206 -0.558 187 132 129
0.112586 -0.331414 -0.555 179 124 121
0.12188 -0.330817 -0.554 167 117 108
0.1295 -0.331414 -0.555 157 108 103
0.130557 -0.331414 -0.555 153 104 99
0.153629 -0.337983 -0.566 131 84 74
0.160663 -0.339177 -0.568 123 79 70
0.189336 -0.348134 -0.583 110 72 69
0.232569 -0.376797 -0.631 162 164 185
0.237752 -0.377394 -0.632 147 153 185
0.24016 -0.377394 -0.632 106 115 148
0.243771 -0.377394 -0.632 175 182 211
0.24979 -0.377394 -0.632 147 156 195
0.39791 -0.378589 -0.634 169 176 202
0.47874 -0.33022 -0.553 153 113 103
0.466905 -0.316486 -0.53 171 118 102
0.471962 -0.310514 -0.52 184 132 110
0.52929 -0.321263 -0.538 149 108 88
1.11957 -0.376797 -0.631 203 205 191
1.12318 -0.376797 -0.631 204 206 192
0.0931914 -0.346849 -0.579 189 143 145
0.09348 -0.343853 -0.574 190 142 142
0.0972229 -0.337863 -0.564 189 133 132
0.103629 -0.334269 -0.558 183 128 125
0.126329 -0.332471 -0.555 157 109 97
0.130792 -0.33307 -0.556 151 101 94
0.136822 -0.334868 -0.559 144 94 85
0.151205 -0.338462 -0.565 130 82 72
0.153629 -0.339061 -0.566 132 85 75
0.237376 -0.377999 -0.631 165 169 198
0.23978 -0.377999 -0.631 116 122 154
0.250597 -0.377999 -0.631 95 109 156
0.524531 -0.367815 -0.614 135 110 105
0.47804 -0.310307 -0.518 185 131 107
0.489954 -0.309109 -0.516 176 124 100
1.1238 -0.3774 -0.63 204 206 192
1.125 -0.3774 -0.63 204 206 192
1.1334 -0.3774 -0.63 202 204 191
1.13639 -0.376801 -0.629 204 206 193
0.0927143 -0.354562 -0.59 191 145 145
0.0961486 -0.338937 -0.564 188 134 132
0.105565 -0.33473 -0.557 186 132 130
0.144235 -0.338336 -0.563 136 86 77
0.147714 -0.338937 -0.564 136 86 77
0.15714 -0.34074 -0.567 125 78 70
0.19208 -0.35336 -0.588 112 73 66
0.2358 -0.3786 -0.63 168 170 191
0.237 -0.3786 -0.63 174 176 199
0.2466 -0.3786 -0.63 118 132 177
0.2538 -0.3786 -0.63 84 103 159
0.2574 -0.3786 -0.63 81 100 156
0.360541 -0.379802 -0.632 181 186 205
0.362949 -0.379802 -0.632 184 189 208
0.397283 -0.380403 -0.633 156 171 204
0.523132 -0.367182 -0.611 135 114 113
0.472952 -0.312495 -0.52 182 128 104
0.478102 -0.310692 -0.517 185 131 103
0.481056 -0.310692 -0.517 190 136 110
0.483074 -0.310091 -0.516 186 132 106
0.48504 -0.310091 -0.516 184 133 106
0.499747 -0.311293 -0.518 160 118 96
0.51646 -0.316702 -0.527 152 111 93
1.1304 -0.377999 -0.629 202 204 190
1.1316 -0.377999 -0.629 202 204 191
0.0909105 -0.366537 -0.608 189 144 139
0.0970505 -0.339409 -0.563 188 135 131
0.104504 -0.335791 -0.557 182 129 125
0.108552 -0.335189 -0.556 180 127 123
0.113438 -0.333983 -0.554 177 124 120
0.122935 -0.333983 -0.554 162 112 103
0.159581 -0.342423 -0.568 125 78 72
0.16695 -0.344231 -0.571 122 77 71
0.236624 -0.379197 -0.629 182 184 205
0.397859 -0.381006 -0.632 156 165 194
0.40147 -0.381006 -0.632 169 172 191
0.471026 -0.323734 -0.537 163 117 102
0.46839 -0.317103 -0.526 169 118 99
0.476067 -0.31228 -0.518 187 133 107
0.483074 -0.311074 -0.516 183 132 105
0.490967 -0.310471 -0.515 172 122 99
1.12681 -0.379197 -0.629 202 205 188
1.12801 -0.379197 -0.629 202 205 188
1.1292 -0.379197 -0.629 202 205 188
1.13698 -0.378594 -0.628 202 204 190
1.13756 -0.377991 -0.627 201 203 189
0.0922476 -0.350762 -0.58 187 136 135
0.0925476 -0.347738 -0.575 186 135 134
0.0928286 -0.344714 -0.57 187 136 133
0.0997333 -0.338667 -0.56 186 135 131
0.112383 -0.335038 -0.554 177 124 120
0.128443 -0.335643 -0.555 159 106 98
0.129733 -0.336248 -0.556 155 102 94
0.185211 -0.353181 -0.584 114 76 73
0.191285 -0.356205 -0.589 113 75 72
0.205224 -0.36709 -0.607 128 115 125
0.226678 -0.37979 -0.628 136 133 150
0.231831 -0.380395 -0.629 168 171 188
0.237822 -0.380395 -0.629 167 173 189
0.247407 -0.380395 -0.629 69 90 143
0.373191 -0.381605 -0.631 163 182 212
0.376797 -0.381605 -0.631 135 158 202
0.399063 -0.38221 -0.632 156 166 201
0.480847 -0.334433 -0.553 153 113 101
0.471903 -0.325362 -0.538 159 116 100
0.470429 -0.322943 -0.534 165 116 99
0.46968 -0.321733 -0.532 167 118 101
0.4695 -0.3175 -0.525 171 120 99
0.4841 -0.311452 -0.515 180 128 104
0.492929 -0.311452 -0.515 167 121 98
1.13578 -0.37979 -0.628 202 204 190
0.117447 -0.335487 -0.553 169 119 112
0.122935 -0.336093 -0.554 163 112 108
0.130792 -0.337307 -0.556 148 95 87
0.149316 -0.343373 -0.566 133 88 82
0.158778 -0.345193 -0.569 125 82 76
0.175906 -0.35126 -0.579 114 80 70
0.179833 -0.352473 -0.581 115 76 71
0.191934 -0.35854 -0.591 110 75 71
0.230267 -0.380987 -0.628 160 158 172
0.245817 -0.380987 -0.628 75 97 147
0.249406 -0.380987 -0.628 88 109 164
0.396028 -0.382807 -0.631 55 68 112
