ply
format ascii 1.0
comment Created by Open3D
element vertex 1317
property double x
property double y
property double z
property uchar red
property uchar green
property uchar blue
end_header
0.365329 -0.147252 -0.535 131 91 92
0.37433 -0.145601 -0.529 197 136 141
0.37878 -0.146151 -0.531 189 131 129
0.39695 -0.149179 -0.542 139 81 80
0.400048 -0.149179 -0.542 164 105 101
0.403431 -0.148904 -0.541 175 118 111
0.414994 -0.14973 -0.544 158 103 100
0.416795 -0.150005 -0.545 161 103 99
0.142197 -0.130534 -0.471 199 150 145
0.14664 -0.129703 -0.468 206 157 152
0.17018 -0.12998 -0.469 193 142 138
0.182443 -0.131089 -0.473 189 139 128
0.19176 -0.13192 -0.476 173 118 111
0.204769 -0.133306 -0.481 158 103 98
0.264 -0.1552 -0.56 31 16 21
0.283226 -0.158803 -0.573 21 9 11
0.276687 -0.14938 -0.539 105 74 79
0.283843 -0.148826 -0.537 116 85 90
0.2889 -0.148271 -0.535 125 90 94
0.329333 -0.144114 -0.52 132 102 104
0.379791 -0.147163 -0.531 184 124 124
0.402401 -0.149934 -0.541 171 111 111
0.431562 -0.154091 -0.556 173 109 110
0.126046 -0.137291 -0.492 208 158 151
0.14338 -0.130873 -0.469 200 153 145
0.188246 -0.132269 -0.474 187 135 124
0.19985 -0.133385 -0.478 163 108 103
0.202092 -0.133664 -0.479 162 107 102
0.210167 -0.135338 -0.485 140 95 90
0.27041 -0.158778 -0.569 23 8 13
0.27641 -0.16101 -0.577 22 7 10
0.283611 -0.160731 -0.576 27 15 19
0.279431 -0.156546 -0.561 56 40 41
0.303797 -0.147616 -0.529 133 98 104
0.316895 -0.146221 -0.524 128 97 105
0.320275 -0.145942 -0.523 117 86 92
0.322646 -0.145663 -0.522 116 87 91
0.325629 -0.145663 -0.522 121 90 95
0.33562 -0.144826 -0.519 133 102 107
0.36668 -0.149011 -0.534 148 99 103
0.371308 -0.147616 -0.529 193 143 136
0.372617 -0.147337 -0.528 197 139 137
0.378067 -0.147895 -0.53 186 126 126
0.39931 -0.150965 -0.541 150 92 90
0.409614 -0.150965 -0.541 178 120 118
0.414231 -0.151523 -0.543 172 112 112
0.4455 -0.15822 -0.567 162 104 103
0.153114 -0.130924 -0.466 205 156 149
0.181158 -0.13261 -0.472 179 131 119
0.182956 -0.13261 -0.472 172 123 109
0.28178 -0.162671 -0.579 26 14 18
0.283005 -0.16211 -0.577 27 15 19
0.287881 -0.15031 -0.535 121 89 90
0.303362 -0.148905 -0.53 131 99 104
0.324634 -0.146657 -0.522 120 89 94
0.32699 -0.146376 -0.521 99 68 73
0.331666 -0.145814 -0.519 119 88 93
0.336609 -0.145814 -0.519 131 100 105
0.338586 -0.145814 -0.519 126 99 104
0.342868 -0.146376 -0.521 55 36 38
0.367367 -0.15031 -0.535 138 93 98
0.397543 -0.151714 -0.54 132 77 72
0.44766 -0.1593 -0.567 157 104 98
0.128832 -0.135206 -0.478 199 152 142
0.141291 -0.132377 -0.468 203 157 144
0.15489 -0.131811 -0.466 203 154 147
0.15967 -0.132094 -0.467 204 157 149
0.182956 -0.133509 -0.472 174 127 111
0.18875 -0.133791 -0.473 174 122 109
0.198107 -0.13464 -0.476 166 107 103
0.267433 -0.159814 -0.565 27 15 19
0.27799 -0.163491 -0.578 25 13 17
0.275143 -0.152743 -0.54 101 70 75
0.276687 -0.15246 -0.539 103 73 75
0.278223 -0.152177 -0.538 106 76 78
0.282293 -0.151611 -0.536 113 83 85
0.283314 -0.151611 -0.536 113 83 85
0.290394 -0.151046 -0.534 123 91 94
0.371074 -0.155006 -0.548 57 45 47
0.370081 -0.154157 -0.545 63 51 53
0.368386 -0.151329 -0.535 150 95 100
0.375634 -0.149349 -0.528 187 129 127
0.404462 -0.153026 -0.541 164 109 104
0.41603 -0.153874 -0.544 175 117 115
0.43446 -0.157551 -0.557 168 113 116
0.125976 -0.13697 -0.481 202 155 147
0.13261 -0.134408 -0.472 202 156 143
0.151014 -0.132414 -0.465 204 156 146
0.187849 -0.134692 -0.473 173 124 110
0.193167 -0.135262 -0.475 162 107 100
0.199431 -0.135831 -0.477 159 104 101
0.213816 -0.138679 -0.487 130 86 83
0.279091 -0.164592 -0.578 26 14 18
0.291881 -0.151778 -0.533 124 92 95
0.303362 -0.150924 -0.53 132 100 105
0.304371 -0.150924 -0.53 132 100 105
0.330677 -0.147791 -0.519 135 104 109
0.33562 -0.147791 -0.519 132 101 106
0.341875 -0.148361 -0.521 91 64 69
0.369076 -0.154341 -0.542 79 54 58
0.372315 -0.150639 -0.529 189 134 129
0.387023 -0.152063 -0.534 182 124 123
0.3996 -0.153771 -0.54 139 86 80
0.401657 -0.153771 -0.54 147 94 88
0.417833 -0.155195 -0.545 172 114 112
0.12291 -0.139607 -0.487 204 155 148
0.127387 -0.136453 -0.476 203 154 147
0.1398 -0.133587 -0.466 203 155 145
0.149243 -0.1333 -0.465 204 155 148
0.184363 -0.13502 -0.471 172 124 110
0.194566 -0.13588 -0.474 163 108 103
0.27513 -0.155373 -0.542 96 70 73
0.3155 -0.1505 -0.525 131 102 106
0.328343 -0.149067 -0.52 117 86 92
0.331666 -0.14878 -0.519 117 86 91
0.339238 -0.149067 -0.52 122 95 100
0.373323 -0.151647 -0.529 194 136 132
0.3996 -0.1548 -0.54 139 86 80
0.414231 -0.15566 -0.543 177 119 117
0.445291 -0.16168 -0.564 163 113 112
0.127485 -0.136494 -0.473 200 151 144
0.133553 -0.13534 -0.469 203 155 145
0.142735 -0.133897 -0.464 207 158 151
0.156876 -0.133897 -0.464 206 162 151
0.196786 -0.137071 -0.475 161 103 99
0.202581 -0.137937 -0.478 148 97 94
0.218823 -0.141977 -0.492 118 80 77
0.224337 -0.143709 -0.498 108 79 75
0.287398 -0.154674 -0.536 117 86 91
0.304371 -0.152943 -0.53 132 100 103
0.31989 -0.151211 -0.524 124 93 98
0.337597 -0.149769 -0.519 133 102 108
0.3724 -0.15352 -0.532 188 127 126
0.386587 -0.15352 -0.532 180 122 118
0.425857 -0.158714 -0.55 149 95 95
0.134763 -0.135652 -0.467 201 153 143
0.136843 -0.135071 -0.465 200 153 145
0.142735 -0.134781 -0.464 203 156 148
0.15069 -0.134781 -0.464 205 161 150
0.160411 -0.134781 -0.464 200 156 145
0.201249 -0.138557 -0.477 151 97 95
0.202581 -0.138848 -0.478 150 96 94
0.215185 -0.141752 -0.488 121 81 79
0.218823 -0.142914 -0.492 117 79 78
0.272926 -0.166152 -0.572 22 12 13
0.281417 -0.167314 -0.576 19 8 12
0.297866 -0.154243 -0.531 130 98 101
0.309675 -0.153081 -0.527 131 102 104
0.3155 -0.1525 -0.525 136 101 107
0.327617 -0.151629 -0.522 133 102 107
0.373019 -0.153952 -0.53 188 128 128
0.374629 -0.153371 -0.528 194 134 133
0.391091 -0.155114 -0.534 191 133 131
0.423265 -0.159181 -0.548 155 104 103
0.437366 -0.162086 -0.558 172 121 120
0.442642 -0.163248 -0.562 170 120 121
0.459154 -0.167314 -0.576 163 108 114
0.122203 -0.139466 -0.477 204 151 143
0.148038 -0.135665 -0.464 201 154 146
0.152457 -0.135665 -0.464 209 162 152
0.156876 -0.135665 -0.464 204 160 149
0.181793 -0.137127 -0.469 176 126 117
0.186157 -0.137711 -0.471 166 116 107
0.2093 -0.14122 -0.483 128 84 81
0.28032 -0.168411 -0.576 22 11 15
0.275546 -0.160517 -0.549 84 62 64
0.290938 -0.156424 -0.535 120 88 91
0.325629 -0.152623 -0.522 131 102 106
0.333643 -0.151746 -0.519 124 99 102
0.340229 -0.152038 -0.52 112 90 93
0.405771 -0.157886 -0.54 159 106 100
0.12006 -0.14214 -0.483 202 159 150
0.121294 -0.140374 -0.477 199 155 146
0.130315 -0.137431 -0.467 204 157 147
0.166239 -0.136254 -0.463 194 150 139
0.17657 -0.137431 -0.467 182 130 117
0.182687 -0.13802 -0.469 172 120 107
0.220653 -0.145377 -0.494 111 76 72
0.226643 -0.147437 -0.501 100 72 69
0.278738 -0.169214 -0.575 19 10 15
0.27566 -0.15862 -0.539 94 69 72
0.278223 -0.158326 -0.538 107 75 78
0.287398 -0.157737 -0.536 117 85 88
0.307246 -0.155383 -0.528 132 102 104
0.329333 -0.153029 -0.52 132 100 103
0.333 -0.15244 -0.518 133 104 108
0.339238 -0.153029 -0.52 107 87 89
0.383662 -0.166271 -0.565 53 43 42
0.3731 -0.156854 -0.533 177 117 116
0.37664 -0.155383 -0.528 187 128 124
0.377934 -0.155089 -0.527 187 127 126
0.436582 -0.163917 -0.557 173 115 114
0.12324 -0.140394 -0.474 203 153 146
0.125151 -0.139506 -0.471 201 153 143
0.156538 -0.137136 -0.463 200 153 143
0.17657 -0.138321 -0.467 179 130 116
0.180514 -0.138617 -0.468 177 123 111
0.194155 -0.140098 -0.473 154 100 100
0.203917 -0.141875 -0.479 135 85 84
0.217 -0.145133 -0.49 115 77 76
0.275586 -0.169717 -0.573 20 11 16
0.27918 -0.16794 -0.567 21 12 13
0.280272 -0.15935 -0.538 110 78 81
0.288419 -0.158758 -0.536 118 86 89
0.31989 -0.155204 -0.524 125 94 99
0.328974 -0.154315 -0.521 133 101 106
0.332654 -0.153723 -0.519 135 106 110
0.33562 -0.153723 -0.519 134 101 108
0.373526 -0.15935 -0.538 149 99 100
0.37664 -0.156389 -0.528 185 125 124
0.397661 -0.158758 -0.536 155 105 98
0.401194 -0.15935 -0.538 131 84 76
0.446647 -0.166755 -0.563 168 112 111
0.124886 -0.140105 -0.47 203 155 145
0.126757 -0.13921 -0.467 204 156 146
0.131246 -0.138316 -0.464 205 158 148
0.15796 -0.13772 -0.462 203 159 148
0.163593 -0.138018 -0.463 200 156 145
0.164475 -0.138018 -0.463 201 159 145
0.166239 -0.138018 -0.463 202 159 143
0.183189 -0.139509 -0.468 168 114 104
0.195056 -0.140999 -0.473 150 95 98
0.19769 -0.141595 -0.475 142 87 90
0.217 -0.146067 -0.49 114 76 75
0.26851 -0.168424 -0.565 22 12 13
0.275105 -0.17051 -0.572 18 9 14
0.276677 -0.170809 -0.573 20 11 16
0.274603 -0.161866 -0.543 92 63 65
0.299889 -0.158289 -0.531 129 99 101
0.321886 -0.156202 -0.524 130 99 105
0.331314 -0.15501 -0.52 137 102 108
0.33562 -0.154711 -0.519 135 102 109
0.344842 -0.156202 -0.524 36 26 27
0.386911 -0.170809 -0.573 43 32 36
0.3745 -0.159481 -0.535 170 116 114
0.374734 -0.158289 -0.531 181 121 121
0.419139 -0.162164 -0.544 167 109 105
0.1342 -0.1386 -0.462 203 161 149
0.134788 -0.1383 -0.461 206 159 149
0.150593 -0.1383 -0.461 207 160 150
0.157618 -0.1383 -0.461 205 158 148
0.172785 -0.1392 -0.464 180 132 120
0.185367 -0.1407 -0.469 163 110 102
0.18626 -0.1407 -0.469 158 105 97
0.188448 -0.141 -0.47 155 102 96
0.190643 -0.1413 -0.471 147 94 90
0.202581 -0.1434 -0.478 137 87 86
0.21109 -0.1455 -0.485 119 78 76
0.217443 -0.1473 -0.491 111 75 75
0.275143 -0.162 -0.54 92 68 68
0.298427 -0.1596 -0.532 128 98 100
0.30682 -0.1587 -0.529 133 98 102
0.390867 -0.1722 -0.574 48 36 40
0.375963 -0.1629 -0.543 115 73 74
0.374817 -0.1602 -0.534 176 118 114
0.377934 -0.1581 -0.527 185 125 124
0.385414 -0.1587 -0.529 154 96 94
0.432393 -0.1659 -0.553 155 97 93
0.449589 -0.1692 -0.564 167 107 106
0.122571 -0.141291 -0.468 199 155 144
0.126827 -0.140084 -0.464 200 156 145
0.136248 -0.138876 -0.46 205 161 150
0.14269 -0.139178 -0.461 207 163 152
0.143569 -0.139178 -0.461 207 163 152
0.169767 -0.139782 -0.463 180 132 118
0.173669 -0.140084 -0.464 171 119 108
0.183189 -0.141291 -0.468 162 113 99
0.189343 -0.141895 -0.47 149 98 94
0.192437 -0.142197 -0.471 143 94 90
0.199013 -0.143707 -0.476 141 90 87
0.19992 -0.143707 -0.476 136 85 82
0.204343 -0.144914 -0.48 129 85 82
0.229414 -0.152462 -0.505 81 63 63
0.283843 -0.162123 -0.537 111 81 83
0.300453 -0.160613 -0.532 129 97 102
0.31989 -0.158198 -0.524 126 99 106
0.322268 -0.157896 -0.523 130 99 105
0.333643 -0.156689 -0.519 135 106 110
0.391653 -0.160613 -0.532 151 96 91
0.396919 -0.161519 -0.535 145 95 88
0.420175 -0.164236 -0.544 165 105 104
0.442409 -0.168765 -0.559 174 114 113
0.12892 -0.14036 -0.462 203 159 146
0.178855 -0.141575 -0.466 172 118 106
0.188047 -0.142487 -0.469 147 98 91
0.196371 -0.144006 -0.474 141 91 92
0.273662 -0.172868 -0.569 26 15 19
0.274542 -0.166184 -0.547 84 58 61
0.295942 -0.16193 -0.533 126 96 98
0.315099 -0.159804 -0.526 159 136 142
0.321271 -0.158892 -0.523 112 85 90
0.3455 -0.1595 -0.525 34 25 26
0.383214 -0.168614 -0.555 57 37 38
0.382674 -0.160411 -0.528 169 110 106
0.117823 -0.144909 -0.474 204 158 145
0.120789 -0.143074 -0.468 200 156 147
0.1377 -0.140323 -0.459 204 162 150
0.152895 -0.140629 -0.46 206 162 151
0.165521 -0.140934 -0.461 192 146 133
0.167277 -0.140934 -0.461 177 129 117
0.174552 -0.141851 -0.464 171 119 106
0.18063 -0.142463 -0.466 160 112 100
0.192846 -0.144297 -0.472 138 89 85
0.217886 -0.150411 -0.492 104 73 70
0.27054 -0.17334 -0.567 37 31 31
0.275345 -0.173646 -0.568 38 27 31
0.276629 -0.172423 -0.564 37 28 31
0.276226 -0.171506 -0.561 35 26 29
0.274072 -0.166309 -0.544 86 60 63
0.29944 -0.16264 -0.532 127 96 101
0.314694 -0.161111 -0.527 235 214 219
0.334631 -0.158666 -0.519 136 103 110
0.3455 -0.1605 -0.525 33 24 27
0.355802 -0.163863 -0.536 33 22 26
0.391797 -0.173951 -0.569 61 45 46
0.376538 -0.163557 -0.535 175 117 116
0.380946 -0.161111 -0.527 170 111 107
0.38368 -0.161417 -0.528 157 97 96
0.386422 -0.161723 -0.529 151 91 90
0.389171 -0.162029 -0.53 148 90 86
0.126007 -0.141812 -0.461 203 161 149
0.134783 -0.14089 -0.458 206 164 150
0.14382 -0.141197 -0.459 205 161 148
0.14994 -0.141197 -0.459 205 159 146
0.156934 -0.141197 -0.459 199 155 142
0.167277 -0.141812 -0.461 181 135 122
0.169033 -0.141812 -0.461 177 127 116
0.178471 -0.143043 -0.465 165 111 99
0.199013 -0.146427 -0.476 130 82 82
0.204343 -0.147657 -0.48 121 75 75
0.20838 -0.14858 -0.483 120 76 75
0.211526 -0.149503 -0.486 112 72 72
0.27594 -0.17442 -0.567 38 32 34
0.276531 -0.174112 -0.566 39 33 35
0.277713 -0.165807 -0.539 99 70 74
0.307828 -0.16273 -0.529 129 100 105
0.310679 -0.162115 -0.527 155 140 143
0.324634 -0.160577 -0.522 90 69 74
0.378728 -0.167345 -0.544 111 69 70
0.376851 -0.164269 -0.534 170 109 106
0.38368 -0.162423 -0.528 149 89 88
0.407073 -0.165807 -0.539 145 92 88
0.440034 -0.171036 -0.556 160 104 105
0.449065 -0.172882 -0.562 161 105 106
0.451737 -0.173497 -0.564 165 106 110
0.115416 -0.148262 -0.479 203 159 156
0.157809 -0.142071 -0.459 202 156 143
0.166914 -0.142381 -0.46 191 145 130
0.20034 -0.147643 -0.477 125 79 79
0.277198 -0.166524 -0.538 99 70 74
0.286377 -0.165905 -0.536 113 83 85
0.299889 -0.164357 -0.531 127 98 102
0.304371 -0.164048 -0.53 131 102 106
0.312687 -0.163119 -0.527 237 214 220
0.352795 -0.164976 -0.533 33 22 26
0.361483 -0.168071 -0.543 34 23 29
0.397922 -0.181381 -0.586 38 26 30
0.405133 -0.182619 -0.59 67 52 55
0.382674 -0.163429 -0.528 154 96 94
0.390917 -0.164357 -0.531 121 70 66
0.397938 -0.165595 -0.535 144 94 87
0.403244 -0.166524 -0.538 125 72 68
0.412971 -0.167143 -0.54 165 109 108
0.433714 -0.170857 -0.552 154 100 98
0.120014 -0.144814 -0.465 201 158 151
0.130136 -0.142323 -0.457 207 163 152
0.131877 -0.142323 -0.457 209 165 154
0.143507 -0.142634 -0.458 209 162 152
0.144379 -0.142634 -0.458 212 165 155
0.145251 -0.142634 -0.458 217 170 160
0.160082 -0.142634 -0.458 200 156 143
0.182014 -0.144814 -0.465 153 103 96
0.186754 -0.145749 -0.468 143 94 90
0.19154 -0.146683 -0.471 139 91 89
0.20034 -0.148551 -0.477 122 76 78
0.212889 -0.151666 -0.487 111 71 72
0.218329 -0.153534 -0.493 103 67 67
0.258238 -0.171286 -0.55 27 15 19
0.274967 -0.175957 -0.565 25 15 16
0.278223 -0.167549 -0.538 101 72 76
0.286862 -0.166614 -0.535 114 84 86
0.2889 -0.166614 -0.535 118 88 90
0.31369 -0.164123 -0.527 226 201 205
0.31989 -0.163189 -0.524 102 79 85
0.322268 -0.162877 -0.523 97 76 81
0.333295 -0.161943 -0.52 130 99 107
0.340883 -0.162254 -0.521 71 54 60
0.382209 -0.170974 -0.549 102 63 66
0.380376 -0.164746 -0.529 172 108 106
0.38743 -0.164746 -0.529 123 72 68
0.4081 -0.16786 -0.539 144 89 86
0.422248 -0.169417 -0.544 158 102 103
0.13797 -0.143193 -0.457 205 161 150
0.146675 -0.143193 -0.457 210 163 153
0.147546 -0.143193 -0.457 207 163 152
0.152769 -0.143193 -0.457 204 160 149
0.176822 -0.145073 -0.463 156 108 96
0.243886 -0.16544 -0.528 25 14 18
0.27874 -0.168887 -0.539 100 71 76
0.3155 -0.1645 -0.525 132 103 108
0.34848 -0.16544 -0.528 35 23 27
0.377869 -0.16732 -0.534 175 114 111
0.382674 -0.16544 -0.528 150 92 88
0.384686 -0.16544 -0.528 133 80 74
0.385691 -0.16544 -0.528 134 81 75
0.38743 -0.165753 -0.529 130 80 73
0.390917 -0.16638 -0.531 135 85 78
0.409886 -0.1692 -0.54 149 96 92
0.429528 -0.171707 -0.548 150 96 96
0.11924 -0.14564 -0.462 201 157 148
0.140582 -0.144064 -0.457 208 161 151
0.15504 -0.143749 -0.456 203 157 144
0.164444 -0.144379 -0.458 183 140 123
0.181623 -0.14627 -0.464 145 96 91
0.185466 -0.147216 -0.467 145 96 92
0.196371 -0.149423 -0.474 128 80 80
0.20654 -0.15226 -0.483 114 70 71
0.228452 -0.159195 -0.505 80 56 56
0.254385 -0.17149 -0.544 27 15 19
0.273507 -0.177164 -0.562 28 17 21
0.273686 -0.175903 -0.558 30 18 22
0.273454 -0.173066 -0.549 74 53 58
0.283843 -0.169283 -0.537 109 78 83
0.28836 -0.168337 -0.534 117 87 89
0.302352 -0.167076 -0.53 129 98 103
0.315099 -0.165815 -0.526 137 106 112
0.3165 -0.1655 -0.525 126 97 102
0.338898 -0.164239 -0.521 115 94 101
0.409714 -0.189143 -0.6 46 35 41
0.37848 -0.167707 -0.532 178 117 114
0.399703 -0.168968 -0.536 145 92 86
0.403244 -0.169598 -0.538 132 79 75
0.431357 -0.173066 -0.549 152 98 98
0.115586 -0.147471 -0.465 200 156 147
0.121697 -0.145251 -0.458 204 161 152
0.127833 -0.1443 -0.455 205 161 150
0.139711 -0.144934 -0.457 206 159 149
0.14896 -0.144617 -0.456 204 157 147
0.157646 -0.144617 -0.456 197 153 140
0.162344 -0.144934 -0.457 181 138 121
0.166189 -0.145251 -0.458 177 131 115
0.1683 -0.145569 -0.459 173 127 112
0.169174 -0.145569 -0.459 167 121 106
0.213763 -0.155083 -0.489 105 65 65
0.215133 -0.1554 -0.49 103 64 65
0.228905 -0.160474 -0.506 78 54 54
0.272533 -0.1776 -0.56 45 33 37
0.275143 -0.171257 -0.54 93 64 68
0.27566 -0.17094 -0.539 94 65 69
0.296957 -0.169037 -0.533 126 96 98
0.302352 -0.168086 -0.53 129 98 103
0.314097 -0.166817 -0.526 134 103 109
0.329967 -0.165231 -0.521 136 111 117
0.337906 -0.165231 -0.521 131 110 117
0.4081 -0.17094 -0.539 142 88 86
0.42432 -0.172526 -0.544 153 97 96
0.1147 -0.148357 -0.465 199 155 146
0.117848 -0.146762 -0.46 202 158 149
0.122903 -0.145486 -0.456 207 165 153
0.1235 -0.145167 -0.455 208 166 154
0.131876 -0.144848 -0.454 210 166 153
0.133033 -0.145167 -0.455 209 165 154
0.141143 -0.145486 -0.456 208 161 151
0.142011 -0.145486 -0.456 212 165 155
0.150367 -0.145167 -0.455 196 152 141
0.152967 -0.145167 -0.455 199 155 144
0.1547 -0.145167 -0.455 197 153 142
0.166189 -0.146124 -0.458 174 128 112
0.187646 -0.149314 -0.468 145 95 94
0.202092 -0.152824 -0.479 115 73 74
0.259757 -0.175795 -0.551 59 38 45
0.272214 -0.177071 -0.555 46 27 31
0.273 -0.1742 -0.546 79 57 60
0.275143 -0.172286 -0.54 90 64 67
0.27874 -0.171967 -0.539 100 69 75
0.284866 -0.171329 -0.537 111 80 85
0.295942 -0.170052 -0.533 123 94 96
0.302923 -0.169414 -0.531 129 98 103
0.3175 -0.1675 -0.525 128 99 104
0.318891 -0.167181 -0.524 130 103 108
0.322268 -0.166862 -0.523 127 100 105
0.331666 -0.165586 -0.519 124 97 104
0.379191 -0.170052 -0.533 174 114 113
0.385691 -0.168457 -0.528 139 88 84
0.430571 -0.174838 -0.548 151 95 94
0.11908 -0.146996 -0.458 203 159 146
0.121166 -0.146354 -0.456 205 163 151
0.126688 -0.145712 -0.454 209 165 154
0.131876 -0.145712 -0.454 210 166 155
0.167933 -0.146996 -0.458 170 124 111
0.168806 -0.146996 -0.458 169 123 110
0.203852 -0.154378 -0.481 111 69 70
0.221491 -0.159834 -0.498 91 59 60
0.27196 -0.17524 -0.546 81 55 58
0.27874 -0.172993 -0.539 100 69 75
0.291881 -0.171068 -0.533 119 89 91
0.294927 -0.171068 -0.533 122 92 94
0.303362 -0.170105 -0.53 129 98 103
0.305381 -0.170105 -0.53 129 98 104
0.308251 -0.169463 -0.528 126 95 100
0.310679 -0.169142 -0.527 130 99 104
0.3175 -0.1685 -0.525 127 98 103
0.3195 -0.1685 -0.525 125 98 103
0.346816 -0.169142 -0.527 35 22 29
0.383114 -0.170105 -0.53 158 98 97
0.388437 -0.169784 -0.529 131 82 77
0.418114 -0.173314 -0.54 159 103 102
0.42796 -0.17524 -0.546 152 96 97
0.433449 -0.176203 -0.549 153 99 97
0.111973 -0.15368 -0.476 203 160 154
0.11396 -0.14916 -0.462 200 156 145
0.124683 -0.146254 -0.453 207 163 154
0.168806 -0.147869 -0.458 169 123 110
0.169678 -0.147869 -0.458 164 118 105
0.176058 -0.148837 -0.461 154 106 94
0.195469 -0.153034 -0.474 120 76 77
0.198107 -0.15368 -0.476 118 74 75
0.213267 -0.1582 -0.49 99 63 63
0.262807 -0.17854 -0.553 121 85 89
0.269127 -0.17854 -0.553 101 72 76
0.273065 -0.174989 -0.542 88 59 61
0.274633 -0.17402 -0.539 94 65 67
0.285889 -0.173374 -0.537 110 79 85
0.3195 -0.1695 -0.525 119 92 97
0.330677 -0.167563 -0.519 137 106 112
0.42642 -0.200494 -0.621 94 83 91
0.425597 -0.197911 -0.613 92 65 70
0.38368 -0.170469 -0.528 148 93 90
0.433449 -0.177249 -0.549 156 102 102
0.453347 -0.181446 -0.562 153 100 96
0.111874 -0.151989 -0.468 204 162 150
0.11308 -0.15004 -0.462 202 158 147
0.137065 -0.147442 -0.454 208 161 151
0.187646 -0.151989 -0.468 140 91 87
0.210106 -0.158159 -0.487 104 65 66
0.219657 -0.161082 -0.496 91 57 58
0.232594 -0.166278 -0.512 82 54 53
0.23821 -0.168876 -0.52 98 66 69
0.24104 -0.170175 -0.524 102 70 73
0.277713 -0.175047 -0.539 98 67 72
0.279767 -0.175047 -0.539 101 72 76
0.287881 -0.173748 -0.535 115 86 88
0.298427 -0.172773 -0.532 124 93 98
0.31369 -0.17115 -0.527 126 97 102
0.323882 -0.170175 -0.524 135 100 107
0.342191 -0.16985 -0.523 49 32 38
0.35112 -0.172773 -0.532 36 24 28
0.429853 -0.203301 -0.626 93 82 88
0.379903 -0.173423 -0.534 169 109 108
0.38092 -0.173423 -0.534 173 112 111
0.383114 -0.172124 -0.53 159 104 99
0.410153 -0.175047 -0.539 159 103 102
0.410417 -0.174722 -0.538 163 107 106
0.42095 -0.175696 -0.541 150 97 93
0.436333 -0.178619 -0.55 155 101 101
0.11322 -0.14994 -0.459 200 156 147
0.120369 -0.14798 -0.453 205 161 150
0.132449 -0.14798 -0.453 206 162 149
0.151431 -0.14798 -0.453 195 151 140
0.162857 -0.14896 -0.456 178 130 116
0.1829 -0.1519 -0.465 147 98 94
0.194155 -0.154513 -0.473 122 80 81
0.198523 -0.15582 -0.477 116 74 75
0.204276 -0.157453 -0.482 109 71 70
0.244348 -0.172807 -0.529 117 81 85
0.289919 -0.174767 -0.535 117 87 89
0.296957 -0.174113 -0.533 126 95 100
0.3009 -0.17346 -0.531 127 98 102
0.317103 -0.171827 -0.526 125 98 103
0.4326 -0.2058 -0.63 91 80 88
0.435177 -0.206453 -0.632 95 80 87
0.38428 -0.17836 -0.546 135 99 103
0.380614 -0.174767 -0.535 168 110 108
0.389171 -0.173133 -0.53 148 90 88
0.39368 -0.173787 -0.532 143 87 86
0.415541 -0.175747 -0.538 163 110 106
0.423792 -0.177053 -0.542 149 95 95
0.111561 -0.152129 -0.463 203 159 150
0.141389 -0.149171 -0.454 212 165 155
0.147117 -0.148843 -0.453 201 157 146
0.166331 -0.149829 -0.456 171 125 112
0.168437 -0.150157 -0.457 163 115 105
0.181623 -0.152457 -0.464 148 97 94
0.20562 -0.1587 -0.483 104 69 67
0.276687 -0.1771 -0.539 95 66 70
0.277713 -0.1771 -0.539 96 67 71
0.28182 -0.1771 -0.539 105 76 80
0.287398 -0.176114 -0.536 111 82 86
0.310263 -0.173486 -0.528 130 98 103
0.331666 -0.170529 -0.519 135 108 113
0.335276 -0.170857 -0.52 135 110 116
0.345156 -0.172829 -0.526 35 20 25
0.382497 -0.178086 -0.542 161 106 101
0.122414 -0.149045 -0.451 210 166 153
0.1356 -0.149375 -0.452 207 163 150
0.137322 -0.149375 -0.452 206 162 151
0.145931 -0.149375 -0.452 204 160 149
0.149375 -0.149375 -0.452 192 148 137
0.151958 -0.149375 -0.452 196 150 137
0.160413 -0.150036 -0.454 176 128 114
0.1625 -0.150367 -0.455 176 130 115
0.1672 -0.150697 -0.456 167 119 109
0.1782 -0.15268 -0.462 150 99 95
0.192846 -0.155985 -0.472 122 80 81
0.194155 -0.156315 -0.473 118 78 78
0.208749 -0.160611 -0.486 99 65 64
0.233503 -0.169865 -0.514 96 64 65
0.26052 -0.18044 -0.546 129 89 97
0.273086 -0.178457 -0.54 95 64 69
0.279767 -0.178127 -0.539 101 72 77
0.28182 -0.178127 -0.539 105 76 80
0.285889 -0.177466 -0.537 109 78 83
0.291411 -0.176474 -0.534 119 89 91
0.311269 -0.174491 -0.528 128 99 103
0.328611 -0.172509 -0.522 133 108 112
0.341848 -0.17317 -0.524 45 30 35
0.382114 -0.178457 -0.54 164 111 105
0.381014 -0.177466 -0.537 167 112 109
0.38092 -0.176474 -0.534 171 111 110
0.399976 -0.176805 -0.535 140 85 82
0.409392 -0.177796 -0.538 157 101 100
0.411442 -0.177796 -0.538 169 113 112
0.418367 -0.178127 -0.539 163 109 107
0.419393 -0.178127 -0.539 159 105 103
0.436586 -0.181431 -0.549 159 105 105
0.438429 -0.181762 -0.55 157 103 103
-0.143 -0.216048 -0.65 186 185 180
-0.138048 -0.216048 -0.65 190 189 184
0.122414 -0.149904 -0.451 210 168 154
0.127569 -0.149904 -0.451 207 165 151
0.147653 -0.150236 -0.452 202 158 147
0.163367 -0.151233 -0.455 172 124 110
0.169308 -0.151898 -0.457 157 109 99
0.183786 -0.154557 -0.465 139 91 87
0.192846 -0.156884 -0.472 122 80 81
0.202936 -0.159875 -0.481 106 72 71
0.218712 -0.164861 -0.496 93 61 62
0.228391 -0.168517 -0.507 82 52 52
0.2415 -0.1745 -0.525 116 80 84
0.253543 -0.179486 -0.54 127 84 91
0.262119 -0.181148 -0.545 133 90 97
0.268397 -0.180483 -0.543 80 48 51
0.27566 -0.179153 -0.539 95 63 68
0.276687 -0.179153 -0.539 96 65 71
0.296957 -0.177159 -0.533 125 96 100
0.312274 -0.175497 -0.528 129 100 105
0.317103 -0.174832 -0.526 228 211 219
0.323882 -0.174168 -0.524 131 105 114
0.327249 -0.173835 -0.523 131 106 112
0.328611 -0.173503 -0.522 133 108 112
0.329967 -0.17317 -0.521 135 108 113
0.440153 -0.213056 -0.641 93 77 87
0.382237 -0.177159 -0.533 161 106 103
0.386143 -0.176162 -0.53 147 93 91
0.413491 -0.178821 -0.538 170 117 113
0.110986 -0.152769 -0.457 200 161 146
0.113466 -0.151431 -0.453 201 162 147
0.119571 -0.150429 -0.45 205 165 153
0.137877 -0.150763 -0.451 206 162 149
0.164233 -0.1521 -0.455 167 119 105
0.169308 -0.152769 -0.457 156 108 98
0.173546 -0.153437 -0.459 153 102 98
0.19985 -0.159789 -0.478 109 73 73
0.231167 -0.17082 -0.511 88 58 58
0.254571 -0.180514 -0.54 127 84 91
0.272057 -0.180514 -0.54 87 58 63
0.283347 -0.179846 -0.538 107 75 80
0.288419 -0.179177 -0.536 115 80 86
0.3009 -0.177506 -0.531 129 100 105
0.304371 -0.177171 -0.53 154 127 134
0.325878 -0.175166 -0.524 131 104 113
0.332305 -0.173829 -0.52 139 110 115
0.336913 -0.174163 -0.521 138 115 121
0.446586 -0.215614 -0.645 87 66 73
0.385133 -0.177171 -0.53 147 98 93
0.399976 -0.178843 -0.535 138 85 81
0.428465 -0.181851 -0.544 162 106 105
0.43212 -0.18252 -0.546 165 109 108
0.11174 -0.152294 -0.453 201 162 147
0.117857 -0.151286 -0.45 206 164 150
0.123 -0.151286 -0.45 209 167 153
0.145609 -0.151622 -0.451 206 160 147
0.168069 -0.153303 -0.456 158 110 100
0.176058 -0.154984 -0.461 151 100 96
0.207395 -0.163052 -0.485 102 66 68
0.261709 -0.182215 -0.542 127 86 92
0.274633 -0.181207 -0.539 94 63 68
0.27566 -0.181207 -0.539 95 64 69
0.304371 -0.178181 -0.53 140 113 120
0.314694 -0.177172 -0.527 220 204 214
0.317103 -0.176836 -0.526 187 176 190
0.3225 -0.1765 -0.525 214 201 208
0.328245 -0.175828 -0.523 132 107 113
0.334286 -0.174819 -0.52 140 113 118
0.383143 -0.181543 -0.54 164 117 111
0.41759 -0.18087 -0.538 166 111 108
0.428465 -0.182888 -0.544 162 106 105
-0.141544 -0.219424 -0.649 188 189 183
0.116143 -0.152143 -0.45 205 166 151
0.125292 -0.151805 -0.449 206 164 148
0.126148 -0.151805 -0.449 206 164 148
0.135 -0.152143 -0.45 204 162 148
0.135857 -0.152143 -0.45 204 162 148
0.141 -0.152143 -0.45 200 158 144
0.143571 -0.152143 -0.45 199 157 145
0.15334 -0.152481 -0.451 175 129 114
0.157124 -0.152819 -0.452 174 126 112
0.163872 -0.153495 -0.454 163 115 103
0.202936 -0.162624 -0.481 108 69 72
0.2047 -0.1633 -0.483 107 68 71
0.302352 -0.17919 -0.53 157 131 140
0.326252 -0.176824 -0.523 125 102 110
0.328611 -0.176486 -0.522 132 111 118
0.331314 -0.17581 -0.52 137 107 115
0.334286 -0.17581 -0.52 140 115 121
0.338554 -0.176486 -0.522 105 86 92
0.448347 -0.217733 -0.644 84 68 71
0.384614 -0.184262 -0.545 137 100 92
0.38306 -0.181557 -0.537 165 116 111
0.383252 -0.180205 -0.533 154 105 101
0.389906 -0.179529 -0.531 144 85 87
0.399229 -0.180543 -0.534 138 85 81
0.409654 -0.181557 -0.537 164 111 107
0.4117 -0.181557 -0.537 177 124 120
0.413746 -0.181557 -0.537 172 114 110
0.430537 -0.183924 -0.544 165 109 108
-0.146263 -0.22032 -0.648 186 185 180
0.110257 -0.15436 -0.454 201 158 149
0.11845 -0.15266 -0.449 206 167 152
0.125292 -0.15266 -0.449 205 163 149
0.127003 -0.15266 -0.449 207 163 150
0.135555 -0.15266 -0.449 204 162 150
0.138121 -0.15266 -0.449 204 160 149
0.138976 -0.15266 -0.449 207 163 152
0.149571 -0.153 -0.45 194 148 133
0.163872 -0.15436 -0.454 163 115 105
0.184181 -0.15844 -0.466 137 92 87
0.202936 -0.16354 -0.481 109 69 70
0.215511 -0.16762 -0.493 96 62 63
0.2415 -0.1785 -0.525 113 77 81
0.244348 -0.17986 -0.529 119 78 84
0.253629 -0.18292 -0.538 118 77 83
0.256153 -0.18326 -0.539 112 72 80
0.318105 -0.17884 -0.526 226 220 234
0.327249 -0.17782 -0.523 127 106 113
0.328245 -0.17782 -0.523 130 109 116
0.452524 -0.221 -0.65 83 68 71
0.38346 -0.18326 -0.539 160 120 112
0.405829 -0.18224 -0.536 143 90 86
0.413746 -0.18258 -0.537 168 113 108
0.414769 -0.18258 -0.537 155 100 97
-0.140308 -0.221896 -0.649 190 190 182
0.108767 -0.155567 -0.455 203 160 153
0.109151 -0.154883 -0.453 202 159 150
0.122727 -0.153515 -0.449 206 164 150
0.133845 -0.153515 -0.449 205 163 149
0.137266 -0.153515 -0.449 204 160 149
0.15334 -0.154199 -0.451 182 134 120
0.156776 -0.154199 -0.451 170 122 108
0.166833 -0.155567 -0.455 160 111 104
0.170178 -0.15625 -0.457 151 102 95
0.1748 -0.157276 -0.46 147 98 93
0.18035 -0.158302 -0.463 146 95 92
0.251665 -0.183261 -0.536 113 72 80
0.25718 -0.184287 -0.539 113 72 80
0.293911 -0.182235 -0.533 120 94 95
0.296957 -0.182235 -0.533 120 96 96
0.310263 -0.180526 -0.528 126 99 106
0.320109 -0.179842 -0.526 223 213 222
0.329606 -0.178474 -0.522 131 110 117
0.331951 -0.178132 -0.521 129 102 109
0.384268 -0.182235 -0.533 159 105 95
0.399229 -0.182577 -0.534 136 83 79
0.433646 -0.185996 -0.544 167 111 112
0.447949 -0.189415 -0.554 158 104 102
-0.140524 -0.223476 -0.65 190 190 182
0.108289 -0.155746 -0.453 201 158 149
0.111857 -0.154714 -0.45 204 162 150
0.122727 -0.15437 -0.449 206 164 150
0.13299 -0.15437 -0.449 206 164 150
0.156776 -0.155058 -0.451 169 121 109
0.17055 -0.157465 -0.458 151 102 95
0.171423 -0.157465 -0.458 152 103 98
0.250176 -0.183938 -0.535 111 72 77
0.260743 -0.185657 -0.54 95 63 66
0.280793 -0.185313 -0.539 99 73 74
0.288419 -0.184282 -0.536 109 84 88
0.297972 -0.18325 -0.533 119 93 96
0.311269 -0.181531 -0.528 127 100 107
0.314694 -0.181188 -0.527 217 212 218
0.33756 -0.179469 -0.522 131 110 115
0.386026 -0.188064 -0.547 118 85 92
0.39368 -0.182907 -0.532 134 80 78
0.43732 -0.18772 -0.546 162 108 108
0.44714 -0.190127 -0.553 158 104 102
-0.152199 -0.223677 -0.647 183 180 175
-0.147042 -0.223331 -0.646 188 185 180
-0.144805 -0.223677 -0.647 188 188 180
0.107033 -0.1573 -0.455 202 159 150
0.113319 -0.155226 -0.449 208 166 154
0.120747 -0.15488 -0.448 204 162 148
0.149239 -0.155226 -0.449 188 142 126
0.152143 -0.155571 -0.45 177 131 116
0.168069 -0.157646 -0.456 152 102 95
0.1748 -0.159029 -0.46 149 98 94
0.186355 -0.161449 -0.467 135 90 85
0.209608 -0.168709 -0.488 98 62 64
0.219153 -0.17182 -0.497 92 58 57
0.245819 -0.183229 -0.53 112 73 76
0.263287 -0.187031 -0.541 86 57 59
0.3195 -0.1815 -0.525 218 215 226
0.349093 -0.18392 -0.532 38 27 33
0.398481 -0.184266 -0.533 139 86 82
0.405071 -0.184957 -0.535 141 88 84
0.415017 -0.185303 -0.536 166 111 106
0.4235 -0.18634 -0.539 159 105 103
0.426343 -0.186686 -0.54 159 105 105
0.113067 -0.155733 -0.448 206 164 152
0.125867 -0.155733 -0.448 207 165 151
0.141227 -0.155733 -0.448 201 158 141
0.153857 -0.156429 -0.45 177 129 117
0.166833 -0.158167 -0.455 157 107 100
0.170178 -0.158862 -0.457 156 105 101
0.173546 -0.159557 -0.459 148 99 94
0.187646 -0.162686 -0.468 128 83 78
0.227426 -0.176243 -0.507 89 55 54
0.263773 -0.18841 -0.542 80 51 53
0.268397 -0.188757 -0.543 78 54 54
0.269431 -0.188757 -0.543 86 62 62
0.271 -0.18841 -0.542 82 53 57
0.284371 -0.187019 -0.538 103 78 84
0.298427 -0.184933 -0.532 116 91 97
0.3009 -0.184586 -0.531 126 103 113
0.317103 -0.182848 -0.526 220 217 226
0.3215 -0.1825 -0.525 218 216 227
0.325878 -0.182152 -0.524 219 209 218
0.330237 -0.181805 -0.523 130 113 121
0.332944 -0.18111 -0.521 127 106 111
0.411186 -0.185976 -0.535 177 122 115
0.422714 -0.187019 -0.538 158 105 101
0.427371 -0.187714 -0.54 156 102 100
-0.148043 -0.225443 -0.645 188 185 180
-0.146037 -0.226142 -0.647 187 187 179
0.125867 -0.156587 -0.448 207 165 151
0.128427 -0.156587 -0.448 208 166 152
0.137506 -0.156237 -0.447 202 161 143
0.14006 -0.156237 -0.447 201 160 142
0.14208 -0.156587 -0.448 198 157 139
0.148384 -0.156936 -0.449 185 138 122
0.159707 -0.157985 -0.452 162 112 105
0.161429 -0.157985 -0.452 159 106 100
0.194566 -0.165674 -0.474 117 79 76
0.264806 -0.189442 -0.542 71 42 44
0.283347 -0.188044 -0.538 100 79 86
0.29548 -0.186646 -0.534 118 92 101
0.309257 -0.184549 -0.528 128 101 108
0.310263 -0.184549 -0.528 124 97 104
0.332944 -0.182102 -0.521 127 106 111
0.347426 -0.185597 -0.531 39 28 34
0.385271 -0.189791 -0.543 143 106 98
0.385106 -0.187694 -0.537 156 107 103
0.391653 -0.185947 -0.532 135 81 79
0.394693 -0.185947 -0.532 137 81 80
0.422714 -0.188044 -0.538 157 104 100
0.427371 -0.188743 -0.54 154 100 98
0.430224 -0.189092 -0.541 157 103 101
0.4394 -0.19084 -0.546 163 110 106
-0.152957 -0.226671 -0.645 184 181 174
0.103603 -0.161306 -0.459 206 162 153
0.114517 -0.157089 -0.447 207 165 153
0.120477 -0.157089 -0.447 200 160 148
0.12218 -0.157089 -0.447 203 161 149
0.139747 -0.156737 -0.446 198 156 140
0.142614 -0.157089 -0.447 196 155 137
0.153857 -0.158143 -0.45 173 123 112
0.155571 -0.158143 -0.45 169 119 110
0.173924 -0.161657 -0.46 147 96 92
0.190238 -0.165171 -0.47 124 83 79
0.195881 -0.166929 -0.475 114 76 73
0.217768 -0.174309 -0.496 95 61 60
0.252686 -0.188366 -0.536 109 70 73
0.273591 -0.190123 -0.541 84 59 62
0.281297 -0.189069 -0.538 93 74 78
0.297972 -0.187311 -0.533 118 92 101
0.32488 -0.184149 -0.524 217 209 220
0.332944 -0.183094 -0.521 133 112 119
0.400511 -0.187311 -0.533 143 90 86
-0.15272 -0.227547 -0.644 184 181 174
-0.147042 -0.228253 -0.646 188 185 178
0.104663 -0.16112 -0.456 204 161 152
0.106092 -0.159353 -0.451 201 159 147
0.123031 -0.15794 -0.447 204 164 152
0.142614 -0.15794 -0.447 193 151 135
0.18894 -0.165713 -0.469 122 81 75
0.19154 -0.16642 -0.471 122 83 78
0.221871 -0.17702 -0.501 92 58 57
0.23821 -0.183733 -0.52 98 64 62
0.264747 -0.192213 -0.544 63 41 43
0.276171 -0.1908 -0.54 88 70 70
0.318105 -0.185853 -0.526 221 213 228
0.344102 -0.186913 -0.529 44 29 36
0.347719 -0.188327 -0.533 38 29 34
0.389057 -0.18868 -0.534 144 86 85
0.395707 -0.187973 -0.532 140 84 83
0.400511 -0.188327 -0.533 146 93 89
0.40228 -0.18868 -0.534 145 92 88
0.412451 -0.18868 -0.534 167 115 104
-0.148043 -0.229129 -0.645 188 185 178
0.107947 -0.159147 -0.448 202 160 148
0.112814 -0.158791 -0.447 206 164 148
0.125305 -0.158436 -0.446 208 166 152
0.159353 -0.160212 -0.451 159 109 100
0.160212 -0.160212 -0.451 159 106 100
0.252686 -0.190408 -0.536 105 69 69
0.287398 -0.190408 -0.536 167 169 181
0.32111 -0.186855 -0.526 216 214 227
0.326876 -0.186145 -0.524 224 214 225
0.332589 -0.185434 -0.522 124 104 113
0.385981 -0.19325 -0.544 132 102 92
0.387451 -0.190408 -0.536 148 101 95
0.44333 -0.194315 -0.547 161 112 108
-0.159347 -0.230714 -0.646 183 180 175
-0.154932 -0.229643 -0.643 184 181 174
-0.147042 -0.230714 -0.646 187 184 177
0.103567 -0.1625 -0.455 205 162 146
0.110013 -0.159286 -0.446 204 162 148
0.11511 -0.159286 -0.446 203 161 149
0.121907 -0.159286 -0.446 207 168 153
0.14976 -0.16 -0.448 176 126 117
0.194566 -0.169286 -0.474 118 78 76
0.2425 -0.1875 -0.525 101 68 63
0.270964 -0.194286 -0.544 69 53 54
0.289919 -0.191071 -0.535 68 72 81
0.309843 -0.188929 -0.529 124 101 111
0.333583 -0.186429 -0.522 129 109 111
0.38654 -0.1925 -0.539 160 110 103
0.438827 -0.194286 -0.544 162 111 107
0.449721 -0.196786 -0.551 159 110 105
0.45592 -0.198571 -0.556 158 109 104
-0.157382 -0.230868 -0.643 184 181 174
0.127567 -0.159776 -0.445 207 165 151
0.130663 -0.159417 -0.444 201 162 147
0.138274 -0.159417 -0.444 199 153 137
0.143994 -0.160135 -0.446 181 138 121
0.159 -0.161571 -0.45 156 107 100
0.160212 -0.16193 -0.451 155 105 96
0.163511 -0.162649 -0.453 153 103 94
0.172671 -0.164803 -0.459 145 96 91
0.194566 -0.170189 -0.474 117 78 73
0.216823 -0.178088 -0.496 96 62 60
0.250726 -0.191731 -0.534 105 66 67
0.254653 -0.193168 -0.538 92 60 63
0.290938 -0.19209 -0.535 52 61 70
0.294463 -0.191731 -0.534 187 191 202
0.298877 -0.190654 -0.531 107 85 98
0.405588 -0.191372 -0.533 143 88 85
0.408633 -0.191372 -0.533 177 124 118
0.410417 -0.191731 -0.534 179 126 118
0.411679 -0.191372 -0.533 163 110 102
0.412694 -0.191372 -0.533 167 114 106
0.447043 -0.197117 -0.549 153 102 98
0.452407 -0.198553 -0.553 157 106 102
0.462981 -0.201785 -0.562 146 95 91
-0.15323 -0.23137 -0.641 186 183 174
0.109164 -0.160985 -0.446 207 165 151
0.118243 -0.160624 -0.445 208 166 152
0.123329 -0.160624 -0.445 208 169 154
0.131509 -0.160263 -0.444 204 162 148
0.135737 -0.160263 -0.444 196 154 138
0.136583 -0.160263 -0.444 195 152 135
0.160212 -0.16279 -0.451 152 104 94
0.22416 -0.18192 -0.504 93 59 57
0.233957 -0.18589 -0.515 93 59 57
0.2425 -0.1895 -0.525 100 67 62
0.26829 -0.197441 -0.547 23 11 13
0.26988 -0.19708 -0.546 61 46 51
0.27513 -0.195636 -0.542 85 66 72
0.278229 -0.194914 -0.54 85 72 79
0.283873 -0.194553 -0.539 87 101 104
0.286911 -0.193831 -0.537 106 115 124
0.315698 -0.190222 -0.527 225 213 225
0.3306 -0.188417 -0.522 116 97 103
0.441381 -0.234619 -0.65 87 81 95
0.389493 -0.19347 -0.536 141 90 87
0.393405 -0.192388 -0.533 138 87 83
0.430687 -0.194553 -0.539 148 95 91
0.45077 -0.198885 -0.551 155 102 98
0.470088 -0.205021 -0.568 145 94 91
-0.15323 -0.232591 -0.641 185 182 173
-0.145476 -0.235857 -0.65 189 186 177
0.117977 -0.161109 -0.444 210 168 154
0.12728 -0.161109 -0.444 205 166 151
0.146543 -0.161834 -0.446 177 129 117
0.222314 -0.182154 -0.502 94 58 58
0.255127 -0.19558 -0.539 81 52 56
0.286911 -0.194854 -0.537 122 130 141
0.290938 -0.194129 -0.535 137 149 161
0.295942 -0.193403 -0.533 130 134 146
0.309843 -0.191951 -0.529 122 102 114
0.314694 -0.191226 -0.527 226 213 223
0.328245 -0.189774 -0.523 124 105 111
0.1043 -0.163049 -0.447 205 163 149
0.106376 -0.162319 -0.445 205 163 149
0.119669 -0.161954 -0.444 208 169 154
0.145693 -0.162684 -0.446 180 132 120
0.158143 -0.164143 -0.45 148 101 93
0.168437 -0.166696 -0.457 143 96 90
0.171797 -0.167426 -0.459 136 91 86
0.210896 -0.179098 -0.491 99 64 62
0.230193 -0.186393 -0.511 93 54 55
0.24012 -0.190406 -0.522 95 61 59
0.257579 -0.197701 -0.542 68 43 46
0.2626 -0.19916 -0.546 43 24 26
0.269332 -0.199525 -0.547 57 45 49
0.3009 -0.193689 -0.531 187 163 177
0.312687 -0.19223 -0.527 149 129 141
0.322884 -0.191135 -0.524 129 110 116
0.325878 -0.191135 -0.524 128 107 112
0.329606 -0.190406 -0.522 135 112 118
0.334577 -0.190406 -0.522 140 115 121
0.388897 -0.196242 -0.538 154 104 103
0.397733 -0.194053 -0.532 134 81 77
0.41574 -0.194418 -0.533 160 107 103
-0.151258 -0.235767 -0.643 186 183 174
-0.146714 -0.238333 -0.65 189 187 175
0.120514 -0.1628 -0.444 207 168 153
0.1326 -0.162067 -0.442 200 158 144
0.140811 -0.1628 -0.444 186 140 124
0.15488 -0.164267 -0.448 154 107 97
0.1651 -0.166833 -0.455 143 99 90
0.196706 -0.1749 -0.477 109 74 70
0.213633 -0.180767 -0.493 96 65 60
0.232071 -0.1881 -0.513 94 55 56
0.24058 -0.191767 -0.523 89 58 55
0.273036 -0.199467 -0.544 80 63 69
0.273569 -0.1991 -0.543 81 64 70
0.294927 -0.195433 -0.533 152 155 164
0.297413 -0.195067 -0.532 150 147 158
0.302923 -0.1947 -0.531 158 135 145
0.311683 -0.193233 -0.527 122 98 111
0.314694 -0.193233 -0.527 118 97 106
0.389529 -0.2013 -0.549 107 77 79
0.387659 -0.198733 -0.542 156 109 103
0.39516 -0.1958 -0.534 141 88 82
0.459923 -0.204233 -0.557 145 95 94
-0.147725 -0.239203 -0.649 189 187 175
0.0990152 -0.167331 -0.454 203 161 147
0.10112 -0.16512 -0.448 208 159 152
0.116868 -0.163277 -0.443 210 168 156
0.13062 -0.16254 -0.441 201 159 145
0.173048 -0.169543 -0.46 129 86 80
0.182014 -0.171386 -0.465 121 80 76
0.272 -0.200503 -0.544 77 62 69
0.278227 -0.199766 -0.542 93 73 82
0.311683 -0.194237 -0.527 123 99 112
0.334577 -0.192394 -0.522 136 113 123
0.394143 -0.196817 -0.534 143 92 88
0.401787 -0.19608 -0.532 143 90 84
0.424206 -0.197554 -0.536 156 102 100
0.428066 -0.197923 -0.537 141 87 85
-0.162281 -0.238216 -0.643 184 181 174
0.098579 -0.167455 -0.452 201 162 147
0.149091 -0.165232 -0.446 161 117 104
0.178586 -0.17153 -0.463 125 81 78
0.194071 -0.175976 -0.475 105 70 66
0.245355 -0.195982 -0.529 84 56 52
0.24776 -0.197093 -0.532 83 55 52
0.274072 -0.201539 -0.544 83 68 75
0.277713 -0.200428 -0.541 91 74 82
0.281314 -0.200057 -0.54 185 189 192
0.2964 -0.197093 -0.532 169 166 175
0.310263 -0.195611 -0.528 122 96 105
0.312687 -0.195241 -0.527 119 98 107
0.3185 -0.1945 -0.525 124 103 108
0.3215 -0.1945 -0.525 124 101 109
0.321886 -0.19413 -0.524 125 104 111
0.328245 -0.193759 -0.523 132 109 119
0.328611 -0.193389 -0.522 133 110 120
0.390948 -0.204132 -0.551 108 79 83
0.392556 -0.198575 -0.536 147 96 92
0.395435 -0.197464 -0.533 145 96 89
0.397466 -0.197464 -0.533 140 92 82
0.410907 -0.197093 -0.532 148 95 89
0.425227 -0.198575 -0.536 154 101 97
-0.305957 -0.241675 -0.649 254 255 251
0.12054 -0.16422 -0.441 206 169 151
0.12222 -0.16422 -0.441 209 172 154
0.12306 -0.16422 -0.441 205 168 150
0.12978 -0.16422 -0.441 203 157 141
0.1323 -0.16422 -0.441 198 152 136
0.13314 -0.16422 -0.441 196 150 134
0.140811 -0.165337 -0.444 179 136 119
0.141657 -0.165337 -0.444 175 132 113
0.147062 -0.16571 -0.445 168 122 109
0.148757 -0.16571 -0.445 161 114 104
0.17732 -0.17204 -0.462 125 82 76
0.181129 -0.173157 -0.465 119 78 74
0.19276 -0.176509 -0.474 109 74 70
0.214067 -0.183956 -0.494 95 64 62
0.2725 -0.202948 -0.545 78 63 68
0.27513 -0.20183 -0.542 87 72 79
0.277713 -0.201458 -0.541 86 75 83
0.287446 -0.200341 -0.538 165 172 182
0.3195 -0.1955 -0.525 126 103 111
0.389724 -0.20183 -0.542 159 102 95
0.39645 -0.198479 -0.533 146 93 87
0.401527 -0.198479 -0.533 139 86 80
0.404572 -0.198479 -0.533 156 103 99
0.405588 -0.198479 -0.533 152 99 95
0.40584 -0.198107 -0.532 159 106 102
0.428066 -0.199969 -0.537 135 84 80
0.436407 -0.201458 -0.541 139 90 86
0.0989695 -0.166931 -0.446 204 162 148
0.102523 -0.165809 -0.443 202 160 146
0.109027 -0.165434 -0.442 207 165 149
0.11886 -0.16506 -0.441 206 167 150
0.126133 -0.164686 -0.44 204 163 145
0.13482 -0.16506 -0.441 194 148 132
0.135968 -0.165434 -0.442 191 148 131
0.148757 -0.166557 -0.445 159 115 104
0.18626 -0.17554 -0.469 113 76 70
0.20194 -0.18078 -0.483 102 68 66
0.243886 -0.197623 -0.528 84 55 57
0.287446 -0.201366 -0.538 163 167 176
0.28847 -0.201366 -0.538 181 185 194
0.31085 -0.197997 -0.529 124 101 109
0.31328 -0.197623 -0.528 123 100 108
0.334577 -0.195377 -0.522 139 110 115
0.39645 -0.199494 -0.533 145 92 86
0.401527 -0.199494 -0.533 138 85 79
0.404572 -0.199494 -0.533 149 96 90
0.410664 -0.199494 -0.533 140 87 81
0.413947 -0.19912 -0.532 150 97 89
0.426248 -0.200617 -0.536 139 86 78
0.453095 -0.205857 -0.55 150 102 100
-0.305773 -0.243019 -0.646 189 194 188
-0.158837 -0.240386 -0.639 186 183 174
0.10626 -0.1659 -0.441 208 166 150
0.119429 -0.165524 -0.44 208 169 152
0.127519 -0.165148 -0.439 198 157 139
0.130324 -0.165524 -0.44 198 152 137
0.147062 -0.167405 -0.445 166 122 111
0.163008 -0.17079 -0.454 137 94 88
0.168806 -0.172295 -0.458 128 87 81
0.190551 -0.177938 -0.473 111 78 73
0.214933 -0.18659 -0.496 95 61 60
0.248691 -0.200886 -0.534 76 51 55
0.268714 -0.206905 -0.55 70 54 57
0.269825 -0.206152 -0.548 72 55 61
0.278744 -0.203519 -0.541 89 78 84
0.294463 -0.200886 -0.534 209 203 215
0.303934 -0.199757 -0.531 209 192 200
0.309419 -0.199381 -0.53 122 99 109
0.3215 -0.1975 -0.525 124 103 110
0.327617 -0.196371 -0.522 129 108 117
0.428101 -0.238505 -0.634 73 71 84
0.403557 -0.20051 -0.533 144 91 83
0.41777 -0.20051 -0.533 150 97 89
0.421606 -0.200886 -0.534 160 107 99
0.424433 -0.201262 -0.535 144 91 83
0.4356 -0.203143 -0.54 139 90 85
-0.311926 -0.24425 -0.646 250 253 246
-0.3036 -0.243493 -0.644 145 147 142
-0.15762 -0.241603 -0.639 187 184 175
0.0955714 -0.16863 -0.446 206 164 150
0.09768 -0.167874 -0.444 207 165 149
0.10122 -0.16674 -0.441 206 164 148
0.10206 -0.16674 -0.441 208 166 150
0.12083 -0.165984 -0.439 207 168 151
0.121666 -0.165984 -0.439 204 165 148
0.125847 -0.165984 -0.439 202 161 143
0.128355 -0.165984 -0.439 199 153 137
0.132 -0.166362 -0.44 196 150 134
0.13398 -0.16674 -0.441 194 148 133
0.144713 -0.167496 -0.443 169 125 112
0.154027 -0.169387 -0.448 151 104 98
0.163008 -0.171655 -0.454 139 94 89
0.178971 -0.175436 -0.464 121 82 77
0.190551 -0.178839 -0.473 109 76 71
0.220402 -0.189804 -0.502 95 64 62
0.255986 -0.205306 -0.543 65 44 51
0.25844 -0.20644 -0.546 65 45 54
0.26043 -0.207196 -0.548 66 46 55
0.269271 -0.207574 -0.549 73 54 60
0.279774 -0.20455 -0.541 71 69 72
0.283873 -0.203793 -0.539 179 190 192
0.291957 -0.202281 -0.535 198 196 210
0.327874 -0.198122 -0.524 130 107 117
0.442619 -0.245762 -0.65 78 76 90
0.390574 -0.207574 -0.549 101 85 98
0.389724 -0.204928 -0.542 159 106 102
0.390035 -0.20455 -0.541 153 103 102
0.398211 -0.201903 -0.534 146 93 87
0.436629 -0.204171 -0.54 141 92 87
0.4469 -0.206062 -0.545 142 94 90
0.454143 -0.207952 -0.55 142 94 92
-0.304353 -0.24434 -0.643 147 149 144
-0.2967 -0.2451 -0.645 141 142 137
-0.158837 -0.24282 -0.639 188 185 176
0.0938267 -0.17252 -0.454 207 165 151
0.0953571 -0.1691 -0.445 207 168 153
0.113562 -0.1672 -0.44 210 172 153
0.1144 -0.1672 -0.44 210 172 153
0.126683 -0.16682 -0.439 201 159 143
0.137651 -0.16796 -0.442 184 141 125
0.143026 -0.16834 -0.443 173 130 114
0.146731 -0.16872 -0.444 161 117 104
0.158494 -0.17138 -0.451 144 96 92
0.167567 -0.17366 -0.457 131 87 84
0.18408 -0.17784 -0.468 112 77 73
0.197943 -0.1824 -0.48 99 68 65
0.210389 -0.18696 -0.492 95 61 60
0.218571 -0.19 -0.5 95 61 62
0.230566 -0.19532 -0.514 87 55 56
0.234786 -0.19722 -0.519 87 59 58
0.236683 -0.19798 -0.521 83 57 56
0.256457 -0.20672 -0.544 65 46 50
0.269825 -0.20824 -0.548 76 57 63
0.281314 -0.2052 -0.54 62 72 73
0.283371 -0.2052 -0.54 162 173 175
0.2849 -0.20482 -0.539 144 155 157
0.293911 -0.20254 -0.533 174 174 186
0.303934 -0.20178 -0.531 217 200 210
0.335218 -0.19874 -0.523 134 108 117
0.391971 -0.20444 -0.538 158 107 103
0.424433 -0.2033 -0.535 147 97 88
0.437657 -0.2052 -0.54 149 98 94
-0.304353 -0.245565 -0.643 155 158 151
-0.164987 -0.245947 -0.644 182 182 174
-0.162997 -0.244801 -0.641 186 183 176
-0.160305 -0.244419 -0.64 187 184 177
-0.155671 -0.244801 -0.641 188 185 176
-0.151964 -0.24671 -0.646 187 184 175
-0.14919 -0.248238 -0.65 188 186 174
0.100152 -0.168038 -0.44 208 169 154
0.101829 -0.168038 -0.44 208 168 156
0.106857 -0.168038 -0.44 209 170 155
0.111048 -0.168038 -0.44 209 170 153
0.118051 -0.167274 -0.438 209 172 156
0.124726 -0.167274 -0.438 198 159 142
0.13566 -0.16842 -0.441 188 145 128
0.14387 -0.169184 -0.443 168 124 111
0.147577 -0.169566 -0.444 157 113 102
0.160923 -0.173003 -0.453 138 95 89
0.18408 -0.178731 -0.468 110 75 73
0.209026 -0.187515 -0.491 95 64 62
0.279259 -0.206992 -0.542 89 74 81
0.283873 -0.205847 -0.539 99 113 116
0.287446 -0.205465 -0.538 139 143 155
0.30639 -0.20241 -0.53 127 101 110
0.310263 -0.201646 -0.528 124 98 107
0.318891 -0.200118 -0.524 132 101 109
0.321886 -0.200118 -0.524 132 102 110
0.32488 -0.200118 -0.524 129 102 109
0.327874 -0.200118 -0.524 132 105 114
0.397194 -0.203937 -0.534 144 91 83
0.400246 -0.203937 -0.534 142 90 79
0.405588 -0.203555 -0.533 144 92 79
0.409649 -0.203555 -0.533 143 91 80
0.413947 -0.203173 -0.532 144 94 83
0.415973 -0.203173 -0.532 157 105 94
-0.308771 -0.246406 -0.642 169 172 165
-0.307549 -0.246406 -0.642 153 156 149
0.0999248 -0.168492 -0.439 207 170 154
0.106614 -0.168492 -0.439 210 170 158
0.109959 -0.168492 -0.439 210 171 156
0.118051 -0.168109 -0.438 209 170 155
0.130864 -0.168492 -0.439 192 149 133
0.143026 -0.170028 -0.443 169 126 110
0.156429 -0.172714 -0.45 145 100 95
0.18408 -0.179623 -0.468 110 75 73
0.190954 -0.181926 -0.474 105 71 69
0.192262 -0.18231 -0.475 104 70 68
0.19398 -0.183077 -0.477 101 70 68
0.217619 -0.191905 -0.5 91 63 60
0.225414 -0.195359 -0.509 86 60 59
0.242332 -0.203035 -0.529 77 52 55
0.273538 -0.209176 -0.545 86 71 76
0.277181 -0.208792 -0.544 91 76 83
0.28944 -0.205722 -0.536 130 138 151
0.298427 -0.204187 -0.532 112 99 109
0.29944 -0.204187 -0.532 106 93 103
0.308835 -0.203035 -0.529 125 99 108
0.3175 -0.2015 -0.525 128 101 108
0.326252 -0.200732 -0.523 133 106 113
0.329606 -0.200349 -0.522 134 107 116
0.443174 -0.249092 -0.649 72 73 93
0.39052 -0.20956 -0.546 147 105 107
0.391371 -0.207257 -0.54 163 111 100
0.391673 -0.206873 -0.539 165 113 102
0.408633 -0.20457 -0.533 145 93 82
0.425452 -0.205338 -0.535 149 99 92
0.42931 -0.205722 -0.536 146 96 89
0.437657 -0.207257 -0.54 147 96 92
0.454363 -0.210711 -0.549 139 90 86
-0.30829 -0.247243 -0.641 147 150 143
-0.302657 -0.247629 -0.642 154 155 150
-0.156892 -0.247243 -0.641 188 185 176
-0.0399905 -0.249171 -0.646 74 71 82
0.0968 -0.169714 -0.44 206 166 154
0.10745 -0.169329 -0.439 211 171 159
0.114714 -0.168943 -0.438 210 168 152
0.120279 -0.168557 -0.437 207 165 149
0.121944 -0.168557 -0.437 204 162 146
0.124441 -0.168557 -0.437 201 159 143
0.127229 -0.168943 -0.438 196 154 138
0.13902 -0.1701 -0.441 172 129 113
0.142703 -0.170486 -0.442 165 122 106
0.195706 -0.184757 -0.479 99 69 67
0.201852 -0.187071 -0.485 95 65 63
0.222597 -0.195557 -0.507 85 59 58
0.243249 -0.204814 -0.531 74 51 57
0.258343 -0.211371 -0.548 71 48 54
0.274576 -0.210214 -0.545 89 72 80
0.279259 -0.209057 -0.542 90 73 81
0.279774 -0.208671 -0.541 87 77 85
0.294463 -0.205971 -0.534 116 120 131
