ply
format ascii 1.0
comment Created by Open3D
element vertex 1319
property double x
property double y
property double z
property uchar red
property uchar green
property uchar blue
end_header
-0.0448429 -0.254929 -0.645 71 69 80
-0.0426486 -0.25651 -0.649 72 72 82
0.102729 -0.181414 -0.459 209 166 150
0.104477 -0.181414 -0.459 209 163 147
0.114217 -0.180229 -0.456 206 163 146
0.127552 -0.179438 -0.454 196 153 136
0.13797 -0.180624 -0.457 161 117 104
0.15489 -0.184181 -0.466 148 101 93
0.19632 -0.1992 -0.504 90 70 72
0.208495 -0.205524 -0.52 90 69 76
0.28914 -0.216986 -0.549 115 88 95
0.306916 -0.212638 -0.538 126 99 106
0.325174 -0.209871 -0.531 133 106 115
0.33201 -0.209081 -0.529 138 110 122
0.333394 -0.208686 -0.528 137 109 121
0.336139 -0.207895 -0.526 148 120 132
0.34782 -0.20829 -0.527 133 107 116
0.410371 -0.214219 -0.542 157 104 100
0.427607 -0.213033 -0.539 150 97 91
0.460842 -0.21659 -0.548 143 96 86
-0.31486 -0.25298 -0.637 211 217 207
-0.157371 -0.257349 -0.648 191 189 177
-0.0549467 -0.251789 -0.634 68 68 76
-0.053739 -0.251789 -0.634 68 68 76
0.0996638 -0.183083 -0.461 207 165 149
0.106633 -0.181494 -0.457 207 164 147
0.108374 -0.181494 -0.457 207 164 147
0.11631 -0.180303 -0.454 210 167 150
0.131011 -0.180303 -0.454 183 142 124
0.1519 -0.184671 -0.465 150 106 97
0.167833 -0.188643 -0.475 127 81 83
0.171625 -0.189834 -0.478 114 80 79
0.206117 -0.206117 -0.519 93 68 74
0.236486 -0.221606 -0.558 174 184 219
0.252625 -0.225577 -0.568 81 65 76
0.25434 -0.22518 -0.567 85 65 74
0.282276 -0.220017 -0.554 101 76 82
0.298323 -0.214854 -0.541 121 94 103
0.305891 -0.213663 -0.538 123 96 103
0.313357 -0.212471 -0.535 129 102 111
0.322747 -0.21128 -0.532 132 106 117
0.33201 -0.210089 -0.529 136 108 120
0.344154 -0.208897 -0.526 139 111 125
0.345156 -0.208897 -0.526 139 111 125
0.409643 -0.220414 -0.555 163 110 106
0.434203 -0.213266 -0.537 149 96 90
0.44116 -0.213663 -0.538 143 94 87
-0.31657 -0.254592 -0.638 251 254 247
-0.311709 -0.254592 -0.638 143 148 144
-0.0572714 -0.252597 -0.633 67 67 75
-0.0471533 -0.256588 -0.643 69 69 81
0.102505 -0.182764 -0.458 203 164 147
0.1064 -0.181966 -0.456 207 164 148
0.111611 -0.181966 -0.456 207 164 147
0.12382 -0.180769 -0.453 194 151 134
0.1474 -0.18436 -0.462 154 105 98
0.1519 -0.185557 -0.465 146 101 95
0.170357 -0.190346 -0.477 114 80 81
0.180792 -0.194735 -0.488 100 75 79
0.19057 -0.199125 -0.499 93 68 74
0.199047 -0.203913 -0.511 91 68 76
0.216143 -0.213091 -0.534 95 78 86
0.261125 -0.224664 -0.563 85 65 74
0.278 -0.22187 -0.556 94 71 79
0.281729 -0.221471 -0.555 99 76 82
0.2943 -0.217481 -0.545 120 93 102
0.298323 -0.215885 -0.541 120 93 102
0.303842 -0.214688 -0.538 123 96 105
0.31088 -0.21389 -0.536 128 101 110
0.313357 -0.21349 -0.535 126 99 108
0.32961 -0.211495 -0.53 135 108 117
0.335774 -0.210298 -0.527 145 117 129
0.417048 -0.241025 -0.604 102 107 127
0.418922 -0.228255 -0.572 131 98 105
0.407906 -0.218279 -0.547 163 110 106
0.430687 -0.215087 -0.539 147 94 90
0.430912 -0.214688 -0.538 150 97 89
0.440135 -0.214688 -0.538 144 94 85
0.450634 -0.216284 -0.542 138 91 81
0.473924 -0.22187 -0.556 135 88 80
-0.0648114 -0.255006 -0.636 66 66 78
-0.0560657 -0.253803 -0.633 67 67 77
-0.0515667 -0.255407 -0.637 69 69 79
0.102281 -0.183235 -0.457 203 164 147
0.112851 -0.182032 -0.454 209 166 149
0.122364 -0.182032 -0.454 196 153 134
0.140017 -0.183636 -0.458 154 107 97
0.154002 -0.186844 -0.466 138 95 88
0.251543 -0.227741 -0.568 82 68 81
0.25898 -0.225736 -0.563 84 64 73
0.26327 -0.225736 -0.563 86 66 75
0.275317 -0.22333 -0.557 91 70 77
0.281729 -0.222529 -0.555 99 76 82
0.28914 -0.220123 -0.549 115 90 96
0.295289 -0.217717 -0.543 121 94 103
0.300857 -0.216514 -0.54 122 95 104
0.30338 -0.216113 -0.539 123 96 105
0.34215 -0.210901 -0.526 133 112 127
0.413831 -0.240972 -0.601 98 103 123
0.411943 -0.216514 -0.54 152 99 93
0.41734 -0.216113 -0.539 150 95 88
0.419393 -0.216113 -0.539 144 89 82
0.42966 -0.216113 -0.539 147 94 88
0.431937 -0.215712 -0.538 156 103 95
0.44321 -0.215712 -0.538 141 92 85
0.453534 -0.217717 -0.543 135 87 77
0.461886 -0.219722 -0.548 139 92 82
-0.326691 -0.260246 -0.646 251 254 247
-0.314139 -0.257023 -0.638 244 246 241
-0.312924 -0.257023 -0.638 223 225 220
-0.311709 -0.257023 -0.638 189 194 187
-0.165697 -0.258634 -0.642 185 185 173
-0.158116 -0.260246 -0.646 194 191 182
-0.0700952 -0.257829 -0.64 69 71 83
-0.053739 -0.255411 -0.634 69 69 79
0.131011 -0.182897 -0.454 174 131 115
0.140017 -0.184509 -0.458 152 105 95
0.142381 -0.185314 -0.46 149 102 94
0.156446 -0.188537 -0.468 133 95 84
0.183956 -0.199011 -0.494 95 73 76
0.18867 -0.201026 -0.499 91 68 74
0.197486 -0.206263 -0.512 100 70 82
0.199624 -0.207471 -0.515 97 68 73
0.246489 -0.233254 -0.579 78 80 121
0.249827 -0.23124 -0.574 90 67 77
0.256671 -0.227614 -0.565 85 65 74
0.258366 -0.227211 -0.564 85 65 74
0.278 -0.223989 -0.556 93 72 77
0.294254 -0.218751 -0.543 120 93 100
0.312922 -0.215931 -0.536 123 97 106
0.340147 -0.211903 -0.526 149 131 143
0.4382 -0.252189 -0.626 82 79 96
0.431713 -0.21714 -0.539 155 103 92
-0.311709 -0.258238 -0.638 237 243 233
-0.281233 -0.26269 -0.649 255 255 251
-0.162029 -0.259857 -0.642 189 186 177
-0.0570905 -0.255405 -0.631 66 66 76
0.0950505 -0.191452 -0.473 201 166 146
0.09636 -0.187 -0.462 201 164 146
0.103794 -0.184571 -0.456 204 166 147
0.134767 -0.184167 -0.455 161 111 100
0.142381 -0.18619 -0.46 150 103 93
0.15069 -0.18781 -0.464 147 100 92
0.264342 -0.227881 -0.563 89 66 74
0.266013 -0.227476 -0.562 89 66 74
0.277439 -0.225452 -0.557 95 72 78
0.283873 -0.223833 -0.553 105 80 86
0.289657 -0.22181 -0.548 117 92 98
0.29017 -0.221405 -0.547 116 89 96
0.29376 -0.22019 -0.544 120 93 100
0.303842 -0.217762 -0.538 123 96 105
0.315823 -0.216143 -0.534 128 101 110
0.31684 -0.216143 -0.534 128 100 112
0.321733 -0.215333 -0.532 134 106 118
0.41028 -0.221 -0.546 166 113 105
0.430687 -0.218167 -0.539 155 105 94
0.43911 -0.217762 -0.538 143 90 84
0.454569 -0.219786 -0.543 139 90 85
0.461043 -0.221405 -0.547 138 89 84
0.473924 -0.225048 -0.556 132 85 79
0.491508 -0.23031 -0.569 137 93 80
-0.313414 -0.25986 -0.639 250 253 246
-0.16718 -0.261487 -0.643 188 188 178
-0.156378 -0.263927 -0.649 193 190 181
-0.0723067 -0.259453 -0.638 69 67 80
-0.0693286 -0.25742 -0.633 67 67 77
-0.0414762 -0.264333 -0.65 70 70 80
0.121231 -0.18422 -0.453 195 154 136
0.126409 -0.18422 -0.453 188 145 128
0.154332 -0.189913 -0.467 142 95 87
0.163523 -0.192353 -0.473 115 82 73
0.17342 -0.19642 -0.483 94 73 68
0.178369 -0.19886 -0.489 97 73 71
0.251343 -0.2318 -0.57 85 68 78
0.25944 -0.22936 -0.564 87 67 76
0.261589 -0.22936 -0.564 88 67 76
0.277439 -0.226513 -0.557 94 71 77
0.279059 -0.226107 -0.556 96 73 79
0.312338 -0.217567 -0.535 127 100 109
0.319292 -0.216753 -0.533 129 101 113
0.352133 -0.216347 -0.532 54 40 53
0.411404 -0.220413 -0.542 152 99 91
0.415029 -0.2196 -0.54 151 96 89
0.467563 -0.224073 -0.551 140 91 86
0.473071 -0.2257 -0.555 137 88 83
-0.285643 -0.263529 -0.645 146 146 144
-0.163251 -0.262303 -0.642 192 189 180
-0.157871 -0.263529 -0.645 195 192 183
-0.0745029 -0.259851 -0.636 68 64 81
-0.057181 -0.258217 -0.632 67 67 79
-0.0494486 -0.261894 -0.641 65 67 79
-0.0483029 -0.262303 -0.642 67 70 79
-0.0426486 -0.265163 -0.649 70 70 80
0.109392 -0.185491 -0.454 209 167 151
0.116917 -0.185083 -0.453 207 165 149
0.125269 -0.184674 -0.452 188 145 129
0.149806 -0.189577 -0.464 141 99 85
0.252625 -0.232069 -0.568 85 68 76
0.2599 -0.230843 -0.565 88 68 77
0.267677 -0.229209 -0.561 89 68 75
0.270883 -0.229209 -0.561 91 68 74
0.274749 -0.227983 -0.558 94 71 77
0.29681 -0.221446 -0.542 124 97 106
0.307941 -0.219811 -0.538 121 95 104
0.318277 -0.217769 -0.533 128 100 112
0.33201 -0.216134 -0.529 129 101 113
0.3344 -0.215726 -0.528 135 109 120
0.399038 -0.239423 -0.586 98 101 120
0.412163 -0.221854 -0.543 151 98 92
0.416057 -0.220629 -0.54 150 95 88
0.439927 -0.22022 -0.539 142 92 85
0.44506 -0.22022 -0.539 144 94 87
0.496278 -0.233703 -0.572 138 91 85
-0.328714 -0.26681 -0.65 252 253 247
-0.317562 -0.262705 -0.64 251 253 248
-0.301243 -0.262294 -0.639 196 198 193
-0.28247 -0.266399 -0.649 212 211 209
-0.0835714 -0.26681 -0.65 63 63 71
-0.0617019 -0.25819 -0.629 66 64 77
-0.0506695 -0.263115 -0.641 67 67 79
0.0985829 -0.187177 -0.456 204 165 150
0.119242 -0.185535 -0.452 196 158 139
0.120103 -0.185535 -0.452 194 153 135
0.130723 -0.185946 -0.453 160 114 101
0.1474 -0.18964 -0.462 144 100 87
0.25542 -0.23274 -0.567 88 68 79
0.258824 -0.231919 -0.565 88 67 76
0.271467 -0.229867 -0.56 91 68 74
0.287049 -0.225351 -0.549 114 89 95
0.299353 -0.222068 -0.541 117 90 99
0.304407 -0.221247 -0.539 119 93 102
0.318277 -0.218784 -0.533 130 102 114
0.327197 -0.217963 -0.531 131 103 115
0.348132 -0.217142 -0.529 119 97 109
0.352795 -0.218784 -0.533 55 43 55
0.365855 -0.224941 -0.548 59 59 71
0.434215 -0.255316 -0.622 83 81 102
0.414871 -0.231919 -0.565 132 92 93
0.40996 -0.227404 -0.554 153 100 96
0.409695 -0.224941 -0.548 157 104 100
0.41028 -0.22412 -0.546 159 106 100
0.440135 -0.220836 -0.538 143 93 86
0.471367 -0.226993 -0.553 138 89 84
0.489994 -0.23233 -0.566 137 82 77
-0.304894 -0.263511 -0.639 252 253 247
-0.303677 -0.263511 -0.639 252 253 248
-0.299276 -0.263924 -0.64 242 243 238
-0.280429 -0.268048 -0.65 235 236 231
-0.16473 -0.265161 -0.643 194 194 186
-0.0811933 -0.264336 -0.641 61 61 71
-0.0752381 -0.260625 -0.632 67 65 76
-0.0738 -0.2598 -0.63 65 65 77
-0.0662829 -0.258563 -0.627 67 67 79
-0.0484533 -0.265573 -0.644 69 69 79
0.0977143 -0.188046 -0.456 207 165 153
0.124408 -0.186396 -0.452 180 137 121
0.1519 -0.191757 -0.465 137 93 82
0.155554 -0.192994 -0.468 127 90 81
0.15801 -0.193819 -0.47 122 87 81
0.173929 -0.20083 -0.487 87 73 73
0.187461 -0.208665 -0.506 95 74 79
0.251135 -0.235882 -0.572 89 67 79
0.251343 -0.235057 -0.57 90 68 80
0.266013 -0.231758 -0.562 90 67 75
0.277439 -0.229696 -0.557 98 75 83
0.286003 -0.226397 -0.549 112 87 93
0.295777 -0.22351 -0.542 123 96 105
0.30338 -0.222273 -0.539 119 93 102
0.31684 -0.220211 -0.534 127 99 111
0.338143 -0.216912 -0.526 143 126 134
0.340147 -0.216912 -0.526 131 110 119
0.440094 -0.258563 -0.627 82 81 99
0.447943 -0.222686 -0.54 143 93 86
0.462085 -0.225572 -0.547 141 92 87
-0.306111 -0.264729 -0.639 251 252 246
-0.301714 -0.265143 -0.64 251 252 247
-0.292874 -0.265971 -0.642 251 252 247
-0.28888 -0.2668 -0.644 253 254 249
-0.0896238 -0.268871 -0.649 111 107 106
-0.0762 -0.261 -0.63 66 66 74
-0.07106 -0.259757 -0.627 67 65 76
-0.05642 -0.2639 -0.637 68 68 80
-0.0507486 -0.265971 -0.642 68 68 78
0.0955257 -0.189743 -0.458 204 165 150
0.0992333 -0.1885 -0.455 208 166 152
0.105467 -0.187257 -0.452 196 157 140
0.109771 -0.187257 -0.452 208 169 152
0.113215 -0.187257 -0.452 208 166 150
0.131876 -0.188086 -0.454 161 115 102
0.164906 -0.197614 -0.477 105 76 78
0.18034 -0.2059 -0.497 93 70 78
0.26 -0.248571 -0.6 84 62 75
0.251784 -0.236557 -0.571 92 69 79
0.254789 -0.235314 -0.568 89 68 75
0.258204 -0.234486 -0.566 88 67 76
0.272047 -0.231586 -0.559 92 69 75
0.2785 -0.230757 -0.557 98 75 83
0.293262 -0.225786 -0.545 119 91 103
0.29376 -0.225371 -0.544 121 93 105
0.305891 -0.222886 -0.538 120 94 103
0.307369 -0.222471 -0.537 121 95 104
0.311319 -0.221643 -0.535 127 100 109
0.323151 -0.219986 -0.531 133 106 115
0.336139 -0.217914 -0.526 193 170 180
0.346117 -0.219157 -0.529 142 116 127
0.371586 -0.229929 -0.555 72 80 91
0.396564 -0.241943 -0.584 89 90 110
0.4004 -0.2436 -0.588 100 101 121
0.420968 -0.251886 -0.608 96 95 113
0.409397 -0.227443 -0.549 155 102 98
0.416313 -0.2233 -0.539 156 103 95
0.444033 -0.2233 -0.539 139 89 82
0.469662 -0.228271 -0.551 144 95 90
-0.317331 -0.267194 -0.642 251 252 247
-0.296081 -0.266778 -0.641 250 251 246
-0.292874 -0.267194 -0.642 252 253 248
-0.286871 -0.268443 -0.645 253 253 251
-0.0661771 -0.260535 -0.626 67 66 80
-0.0586619 -0.264281 -0.635 68 67 81
0.0941905 -0.191448 -0.46 203 164 149
0.115798 -0.188118 -0.452 201 159 145
0.122414 -0.187702 -0.451 182 139 123
0.133033 -0.189367 -0.455 165 117 103
0.155887 -0.195193 -0.469 122 87 81
0.158346 -0.196026 -0.471 117 83 81
0.159581 -0.196442 -0.472 114 80 78
0.165251 -0.198939 -0.478 102 77 80
0.179032 -0.20643 -0.496 89 66 72
0.262663 -0.234731 -0.564 90 67 75
0.274176 -0.23265 -0.559 94 71 79
0.277439 -0.231818 -0.557 100 74 83
0.286003 -0.228489 -0.549 112 86 95
0.286526 -0.228072 -0.548 114 88 97
0.29172 -0.22724 -0.546 119 91 103
0.313789 -0.222246 -0.534 130 103 112
0.417457 -0.237229 -0.57 141 100 98
0.411031 -0.227656 -0.547 151 98 94
0.414501 -0.225575 -0.542 149 96 90
0.416057 -0.224743 -0.54 155 100 95
0.421447 -0.224327 -0.539 151 96 91
0.43274 -0.224327 -0.539 136 83 75
0.434793 -0.224327 -0.539 140 87 81
0.449803 -0.225159 -0.541 140 89 85
-0.321035 -0.270508 -0.647 251 252 247
-0.286871 -0.269671 -0.645 254 254 252
-0.0808714 -0.262982 -0.629 73 71 84
-0.0720238 -0.26131 -0.625 68 66 79
-0.0708333 -0.26131 -0.625 68 66 79
-0.0642 -0.2634 -0.63 68 68 80
-0.0619962 -0.264236 -0.632 68 68 80
-0.0450514 -0.270926 -0.648 71 69 80
0.0922629 -0.195669 -0.468 199 161 150
0.103745 -0.188979 -0.452 207 165 153
0.120696 -0.188561 -0.451 187 144 128
0.140323 -0.191906 -0.459 155 109 96
0.141505 -0.192324 -0.46 152 108 95
0.143257 -0.192324 -0.46 148 104 91
0.258096 -0.24793 -0.593 92 68 81
0.267084 -0.23497 -0.562 92 69 77
0.268154 -0.23497 -0.562 92 69 77
0.286003 -0.229534 -0.549 113 87 98
0.31768 -0.222427 -0.532 135 107 119
0.330619 -0.22159 -0.53 131 105 114
0.359785 -0.226608 -0.542 61 49 61
0.364146 -0.228698 -0.547 57 57 69
0.430246 -0.258383 -0.618 95 90 110
0.411119 -0.232879 -0.557 146 95 92
0.418114 -0.225771 -0.54 154 99 94
0.428633 -0.225353 -0.539 146 93 87
0.46124 -0.22828 -0.546 139 88 84
0.471566 -0.230789 -0.552 142 93 88
0.4773 -0.232043 -0.555 140 91 86
-0.30659 -0.2688 -0.64 252 253 248
-0.289329 -0.2709 -0.645 253 253 251
-0.287316 -0.27132 -0.646 255 255 253
-0.160305 -0.2688 -0.64 204 205 199
-0.158837 -0.26838 -0.639 196 197 191
-0.149966 -0.27216 -0.648 198 196 183
-0.0934029 -0.26922 -0.641 72 70 73
-0.0830029 -0.26334 -0.627 72 70 83
-0.0753533 -0.26166 -0.623 70 68 81
-0.0741667 -0.26166 -0.623 70 68 81
-0.0531943 -0.26964 -0.642 69 69 81
0.0913714 -0.19656 -0.468 199 160 153
0.0972857 -0.19068 -0.454 208 169 154
0.0987971 -0.19026 -0.453 209 167 153
0.105467 -0.18984 -0.452 206 167 152
0.12613 -0.18984 -0.452 169 126 110
0.129282 -0.19068 -0.454 168 122 107
0.131011 -0.19068 -0.454 170 122 108
0.135063 -0.19152 -0.456 161 114 98
0.146837 -0.19446 -0.463 139 99 91
0.150129 -0.1953 -0.465 132 94 85
0.151339 -0.19572 -0.466 135 91 82
0.171497 -0.20496 -0.488 91 75 78
0.264811 -0.23688 -0.564 90 67 73
0.267084 -0.23604 -0.562 92 69 75
0.286003 -0.23058 -0.549 114 88 97
0.288613 -0.23016 -0.548 117 91 100
0.30338 -0.22638 -0.539 120 93 102
0.317262 -0.22386 -0.533 133 105 117
0.31768 -0.22344 -0.532 135 107 119
0.331003 -0.22218 -0.529 127 104 114
0.332389 -0.22176 -0.528 131 105 116
0.359785 -0.22764 -0.542 61 49 61
0.412922 -0.22848 -0.544 146 95 91
0.4163 -0.22806 -0.543 147 96 92
0.422473 -0.22638 -0.539 152 102 95
0.42658 -0.22638 -0.539 149 99 90
-0.313413 -0.271707 -0.644 251 252 247
-0.312187 -0.271707 -0.644 251 252 247
-0.305103 -0.270863 -0.642 253 254 249
-0.29823 -0.271285 -0.643 253 254 249
-0.297005 -0.271285 -0.643 252 253 248
-0.288993 -0.272972 -0.647 253 254 249
-0.0926743 -0.268331 -0.636 79 78 86
-0.0599657 -0.268331 -0.636 69 69 81
0.100301 -0.190701 -0.452 207 165 151
0.103515 -0.190279 -0.451 209 167 153
0.112106 -0.190279 -0.451 204 165 150
0.119571 -0.189857 -0.45 186 147 130
0.124132 -0.190279 -0.451 174 131 115
0.132167 -0.191967 -0.455 172 124 110
0.135063 -0.192389 -0.456 161 113 99
0.140629 -0.194076 -0.46 153 109 96
0.149243 -0.196186 -0.465 136 97 90
0.253989 -0.243017 -0.576 94 71 79
0.26036 -0.238798 -0.566 90 69 78
0.278557 -0.234157 -0.555 100 75 81
0.29681 -0.228672 -0.542 119 91 103
0.300384 -0.22825 -0.541 122 94 106
0.303943 -0.227829 -0.54 119 92 101
0.312338 -0.225719 -0.535 127 99 111
0.326186 -0.224031 -0.531 136 106 116
0.335406 -0.222766 -0.528 126 103 113
0.404934 -0.25019 -0.593 116 113 130
0.412238 -0.232048 -0.55 146 97 92
0.4163 -0.229094 -0.543 143 92 88
0.430687 -0.227407 -0.539 147 94 88
0.431713 -0.227407 -0.539 147 94 88
0.436847 -0.227407 -0.539 143 90 84
0.471761 -0.23247 -0.551 149 100 95
-0.29269 -0.274205 -0.647 254 255 250
-0.158837 -0.270814 -0.639 222 223 217
-0.138048 -0.275476 -0.65 221 220 202
-0.0904562 -0.266576 -0.629 73 73 85
0.112965 -0.191138 -0.451 204 162 146
0.123273 -0.191138 -0.451 178 135 119
0.128134 -0.191986 -0.453 173 127 112
0.143569 -0.195376 -0.461 144 101 94
0.257222 -0.241995 -0.571 92 71 80
0.259572 -0.241148 -0.569 89 68 77
0.260198 -0.240724 -0.568 90 69 78
0.2619 -0.2403 -0.567 90 67 75
0.26696 -0.239029 -0.564 90 67 75
0.277439 -0.236062 -0.557 100 75 81
0.27911 -0.23479 -0.554 101 76 82
0.297842 -0.229705 -0.542 121 93 105
0.3286 -0.224619 -0.53 135 108 117
0.351423 -0.226314 -0.534 62 50 60
0.379357 -0.239452 -0.565 126 125 143
0.411313 -0.253862 -0.599 123 120 137
0.411757 -0.235214 -0.555 148 100 96
0.427607 -0.228433 -0.539 144 94 85
0.46124 -0.2314 -0.546 141 91 84
0.484999 -0.23691 -0.559 141 91 84
-0.307004 -0.275011 -0.646 253 254 249
-0.1547 -0.27118 -0.637 214 215 209
-0.151297 -0.271606 -0.638 199 199 191
-0.148346 -0.272883 -0.641 200 200 190
-0.1419 -0.274586 -0.645 206 204 191
-0.135363 -0.276289 -0.649 223 220 205
-0.110469 -0.275863 -0.648 237 234 227
-0.106107 -0.27416 -0.644 196 195 193
-0.0999429 -0.270754 -0.636 67 65 70
-0.0752324 -0.264794 -0.622 72 70 81
-0.0544171 -0.273309 -0.642 71 69 82
-0.0509857 -0.274586 -0.645 70 68 79
0.0979343 -0.192849 -0.453 205 166 151
0.108429 -0.191571 -0.45 208 170 151
0.115286 -0.191571 -0.45 201 160 142
0.130147 -0.193274 -0.454 169 123 108
0.1313 -0.1937 -0.455 169 121 107
0.155654 -0.200511 -0.471 111 80 85
0.15969 -0.202214 -0.475 97 77 79
0.168017 -0.206897 -0.486 90 71 75
0.171616 -0.209026 -0.491 90 73 83
0.173606 -0.210303 -0.494 89 71 85
0.257072 -0.246063 -0.578 92 73 79
0.280713 -0.23542 -0.553 101 78 86
0.286526 -0.233291 -0.548 116 90 99
0.2938 -0.23244 -0.546 123 95 107
0.302914 -0.229886 -0.54 120 93 102
0.314806 -0.227331 -0.534 132 106 115
0.317262 -0.226906 -0.533 134 108 117
0.331383 -0.224777 -0.528 131 108 118
0.34808 -0.22648 -0.532 105 85 96
0.371196 -0.236697 -0.556 93 91 105
0.401762 -0.251171 -0.59 126 123 140
0.446215 -0.269903 -0.634 104 101 122
0.411857 -0.237549 -0.558 150 102 98
0.41444 -0.23244 -0.546 140 91 86
0.417334 -0.231163 -0.543 144 95 90
0.440953 -0.22946 -0.539 144 94 85
0.452699 -0.230737 -0.542 140 90 81
-0.147651 -0.272821 -0.638 200 199 194
-0.14146 -0.274959 -0.643 205 203 191
-0.0921143 -0.266834 -0.624 71 71 83
-0.0764171 -0.265979 -0.622 72 70 81
-0.0622905 -0.271538 -0.635 69 69 79
-0.0555533 -0.274104 -0.641 70 70 80
-0.0532771 -0.274959 -0.643 70 70 80
0.0977181 -0.193284 -0.452 207 168 151
0.109286 -0.192429 -0.45 206 168 149
0.143569 -0.197132 -0.461 141 101 91
0.158786 -0.203119 -0.475 100 76 76
0.262824 -0.243315 -0.569 90 67 77
0.26514 -0.24246 -0.567 89 66 76
0.270776 -0.24075 -0.563 94 68 77
0.281767 -0.236473 -0.553 103 80 88
0.292254 -0.233908 -0.547 121 93 105
0.2943 -0.233052 -0.545 124 96 108
0.297842 -0.23177 -0.542 121 93 105
0.308966 -0.230059 -0.538 127 101 110
0.317262 -0.227921 -0.533 134 108 119
0.324773 -0.227493 -0.532 132 105 114
0.326186 -0.227066 -0.531 132 106 115
0.363104 -0.233908 -0.547 46 43 52
0.423045 -0.261275 -0.611 80 75 97
0.426986 -0.262986 -0.615 99 94 116
0.4403 -0.268972 -0.629 95 92 113
0.411327 -0.236473 -0.553 143 95 91
0.427607 -0.230487 -0.539 146 96 89
-0.156892 -0.275325 -0.641 236 236 234
-0.145977 -0.273177 -0.636 220 219 217
-0.123471 -0.277043 -0.645 248 246 234
-0.0678 -0.2706 -0.63 72 70 81
-0.0611771 -0.273177 -0.636 68 68 78
-0.0521333 -0.276613 -0.644 71 71 81
-0.0463571 -0.278761 -0.649 72 70 81
-0.0439524 -0.27919 -0.65 72 70 81
0.0911638 -0.196722 -0.458 203 166 150
0.0959962 -0.194145 -0.452 207 170 152
0.09922 -0.193715 -0.451 206 167 150
0.102429 -0.193286 -0.45 207 169 150
0.105857 -0.193286 -0.45 205 167 148
0.110143 -0.193286 -0.45 204 166 147
0.15912 -0.204453 -0.476 97 73 73
0.171724 -0.212185 -0.494 89 72 82
0.260171 -0.249124 -0.58 90 67 77
0.262489 -0.246117 -0.573 90 67 77
0.26421 -0.245688 -0.572 91 68 78
0.266075 -0.244399 -0.569 90 67 77
0.26669 -0.24397 -0.568 93 67 78
0.269586 -0.242681 -0.565 93 67 78
0.273507 -0.241392 -0.562 96 70 79
0.274089 -0.240963 -0.561 98 72 81
0.275241 -0.240104 -0.559 100 74 83
0.284429 -0.236238 -0.55 114 88 97
0.284957 -0.235809 -0.549 114 88 97
0.286003 -0.235809 -0.549 117 91 100
0.300384 -0.232372 -0.541 123 95 107
0.31684 -0.229366 -0.534 134 106 118
0.326186 -0.228077 -0.531 133 105 117
0.32759 -0.227648 -0.53 131 105 116
0.329995 -0.227218 -0.529 134 108 119
0.42768 -0.264587 -0.616 86 78 99
0.452363 -0.275325 -0.641 73 68 88
0.41491 -0.24397 -0.568 135 100 98
0.412267 -0.240533 -0.56 146 98 94
0.414037 -0.236668 -0.551 137 89 85
0.414626 -0.235809 -0.549 138 91 85
0.418369 -0.233231 -0.543 141 92 87
0.42301 -0.232372 -0.541 143 94 87
0.427607 -0.231513 -0.539 144 94 87
0.44506 -0.231513 -0.539 147 94 86
0.46332 -0.23452 -0.546 140 92 82
0.471952 -0.236238 -0.55 148 102 89
0.475771 -0.237097 -0.552 143 96 86
0.480471 -0.238386 -0.555 141 92 87
0.500381 -0.24397 -0.568 145 98 88
-0.142119 -0.273957 -0.635 247 246 241
-0.13992 -0.274389 -0.636 245 244 239
-0.0937343 -0.267054 -0.619 74 74 84
-0.0807648 -0.267054 -0.619 72 72 80
-0.07654 -0.26878 -0.623 70 70 78
0.0909648 -0.197163 -0.457 202 165 147
0.110143 -0.194143 -0.45 205 164 146
0.1313 -0.1963 -0.455 163 115 101
0.145073 -0.199751 -0.463 135 96 91
0.155086 -0.203634 -0.472 112 83 79
0.159454 -0.205791 -0.477 92 70 72
0.263057 -0.256269 -0.594 88 67 76
0.262414 -0.252386 -0.585 89 65 78
0.263738 -0.251523 -0.583 88 66 78
0.267478 -0.246777 -0.572 92 69 79
0.279561 -0.240306 -0.557 102 77 83
0.290701 -0.236423 -0.548 119 91 103
0.292254 -0.235991 -0.547 122 94 106
0.347067 -0.22952 -0.532 128 108 119
0.457122 -0.278703 -0.646 72 68 85
0.425314 -0.232971 -0.54 145 95 88
-0.110648 -0.272133 -0.628 63 62 70
-0.109277 -0.2717 -0.627 69 68 76
-0.101134 -0.2691 -0.621 73 73 81
-0.0799714 -0.269533 -0.622 72 72 80
-0.048679 -0.280367 -0.647 68 66 77
-0.04752 -0.2808 -0.648 69 67 78
0.0883181 -0.201933 -0.466 198 162 146
0.299426 -0.2353 -0.543 122 94 106
0.301414 -0.234433 -0.541 125 99 110
0.317857 -0.2314 -0.534 131 103 117
0.320308 -0.230967 -0.533 133 107 118
0.331003 -0.229233 -0.529 127 103 116
0.343743 -0.229667 -0.53 140 118 130
0.392313 -0.251767 -0.581 122 121 137
0.4063 -0.257833 -0.595 107 104 121
0.43303 -0.269533 -0.622 77 72 92
0.447623 -0.2756 -0.636 85 82 103
0.412814 -0.2405 -0.555 136 91 86
0.494904 -0.243967 -0.563 144 98 82
0.50058 -0.2457 -0.567 146 96 85
0.506084 -0.247867 -0.572 145 95 84
-0.14437 -0.273765 -0.629 209 208 213
-0.1386 -0.2742 -0.63 223 223 223
-0.117825 -0.27333 -0.628 75 74 80
-0.07904 -0.271589 -0.624 73 73 83
-0.0735657 -0.27333 -0.628 72 71 79
-0.0724848 -0.273765 -0.629 72 71 79
-0.0487543 -0.282034 -0.648 86 84 95
0.0882143 -0.206738 -0.475 198 158 148
0.08844 -0.20108 -0.462 202 165 149
0.0898971 -0.198469 -0.456 192 156 140
0.108188 -0.195422 -0.449 204 165 148
0.109043 -0.195422 -0.449 203 164 147
0.155743 -0.206303 -0.474 96 74 77
0.157307 -0.207173 -0.476 99 77 80
0.163976 -0.21109 -0.485 96 67 85
0.170186 -0.215443 -0.495 83 70 77
0.279431 -0.244169 -0.561 98 75 83
0.288094 -0.239816 -0.551 119 93 102
0.290701 -0.23851 -0.548 119 91 103
0.303943 -0.235029 -0.54 125 99 108
0.330619 -0.230676 -0.53 135 109 120
0.331003 -0.230241 -0.529 131 108 118
0.410172 -0.260708 -0.599 94 93 111
0.42119 -0.265495 -0.61 64 62 83
0.413795 -0.24591 -0.565 143 94 97
0.413241 -0.242428 -0.557 137 94 88
0.417002 -0.23851 -0.548 133 84 80
0.429429 -0.235029 -0.54 142 94 84
0.430457 -0.235029 -0.54 147 99 89
0.442185 -0.234158 -0.538 146 97 83
0.448971 -0.235029 -0.54 139 89 78
0.469192 -0.23851 -0.548 144 96 84
0.47214 -0.238946 -0.549 149 101 89
0.474048 -0.239381 -0.55 145 97 85
0.482586 -0.241557 -0.555 144 94 85
0.489258 -0.243298 -0.559 145 97 87
0.494025 -0.244604 -0.562 145 97 87
-0.133163 -0.274089 -0.627 121 120 125
-0.12859 -0.274526 -0.628 96 95 100
-0.104672 -0.268406 -0.614 66 65 73
-0.0929771 -0.268406 -0.614 74 74 82
-0.0907857 -0.268843 -0.615 75 75 83
0.0880571 -0.201086 -0.46 202 165 147
0.104767 -0.196277 -0.449 205 168 150
0.109043 -0.196277 -0.449 203 164 147
0.136826 -0.200649 -0.459 145 101 90
0.14331 -0.202397 -0.463 132 93 88
0.159543 -0.209829 -0.48 98 74 87
0.1865 -0.2295 -0.525 154 165 221
0.277064 -0.254854 -0.583 81 63 77
0.288617 -0.241303 -0.552 117 91 102
0.290714 -0.240429 -0.55 120 94 105
0.293296 -0.239117 -0.547 122 99 109
0.29484 -0.23868 -0.546 126 99 108
0.328209 -0.232123 -0.531 127 99 111
0.32922 -0.232123 -0.531 131 103 115
0.348371 -0.233434 -0.534 106 89 99
0.400638 -0.257914 -0.59 104 106 121
0.439102 -0.274963 -0.629 86 83 102
0.421426 -0.254854 -0.583 116 96 107
0.41345 -0.247423 -0.566 142 98 95
0.412669 -0.245674 -0.562 137 96 94
0.413871 -0.242614 -0.555 136 91 88
0.4186 -0.23868 -0.546 133 85 81
0.41964 -0.23868 -0.546 132 87 82
0.41991 -0.238243 -0.545 134 89 84
0.4389 -0.23562 -0.539 147 98 84
-0.1335 -0.273527 -0.623 92 91 96
-0.127567 -0.273527 -0.623 79 78 84
-0.0985029 -0.268697 -0.612 74 73 81
-0.0931286 -0.270014 -0.615 74 74 82
-0.0876971 -0.271331 -0.618 75 75 83
-0.0703114 -0.277039 -0.631 73 72 80
-0.0681229 -0.277917 -0.633 72 71 77
0.0932067 -0.19801 -0.451 206 166 154
0.0964286 -0.197571 -0.45 205 166 151
0.121555 -0.19801 -0.451 177 129 115
0.132748 -0.200645 -0.457 156 109 99
0.14331 -0.203279 -0.463 130 92 91
0.1457 -0.204157 -0.465 125 90 88
0.163725 -0.213816 -0.487 99 80 86
0.282829 -0.250257 -0.57 90 67 77
0.287014 -0.243671 -0.555 113 90 100
0.293857 -0.241476 -0.55 124 97 106
0.318277 -0.234012 -0.533 132 104 116
0.324773 -0.233573 -0.532 126 100 109
0.330619 -0.232695 -0.53 137 109 121
0.33201 -0.232256 -0.529 136 110 121
0.333018 -0.232256 -0.529 137 113 126
0.335406 -0.231817 -0.528 213 193 204
0.35904 -0.238842 -0.544 50 40 48
0.36775 -0.243232 -0.554 49 49 57
0.376537 -0.247623 -0.564 110 114 125
0.435119 -0.274405 -0.625 75 70 90
0.451142 -0.28143 -0.641 61 56 76
0.414181 -0.243232 -0.554 133 88 83
0.415236 -0.243232 -0.554 133 88 83
0.4389 -0.236647 -0.539 148 100 86
0.44506 -0.236647 -0.539 142 93 79
0.448971 -0.237086 -0.54 140 91 77
-0.135873 -0.274713 -0.623 94 93 98
-0.127927 -0.27295 -0.619 70 69 75
-0.114448 -0.268981 -0.61 64 63 71
-0.1131 -0.26854 -0.609 61 60 68
-0.09918 -0.26854 -0.609 71 70 78
-0.0910809 -0.272068 -0.617 74 74 82
-0.0814171 -0.275154 -0.624 74 74 84
-0.0703114 -0.278241 -0.631 73 72 80
-0.0693286 -0.279123 -0.633 72 71 77
-0.0636 -0.280446 -0.636 72 70 81
-0.0557267 -0.283532 -0.643 71 69 80
-0.0487543 -0.285737 -0.648 74 72 83
0.0938571 -0.198429 -0.45 207 167 155
0.0947143 -0.198429 -0.45 207 168 153
0.101346 -0.197988 -0.449 205 164 146
0.104767 -0.197988 -0.449 204 165 148
0.109898 -0.197988 -0.449 196 154 138
0.113067 -0.197547 -0.448 187 144 128
0.129567 -0.200633 -0.455 159 112 102
0.157057 -0.210775 -0.478 89 70 76
0.1683 -0.218271 -0.495 97 87 96
0.287371 -0.248697 -0.564 103 81 94
0.296964 -0.241642 -0.548 124 98 107
0.303475 -0.238555 -0.541 125 97 109
0.306 -0.238114 -0.54 127 99 111
0.30999 -0.237232 -0.538 130 102 114
0.310437 -0.236791 -0.537 129 101 113
0.328209 -0.234146 -0.531 127 99 111
0.335406 -0.232823 -0.528 171 151 162
0.339429 -0.232823 -0.528 145 132 141
0.344391 -0.234146 -0.531 147 126 135
0.414071 -0.247374 -0.561 134 90 87
0.42068 -0.24076 -0.546 134 89 83
0.423284 -0.239878 -0.544 141 94 88
0.437873 -0.237673 -0.539 146 98 86
0.488569 -0.24561 -0.557 144 94 83
-0.150267 -0.2852 -0.644 110 112 111
-0.1189 -0.2697 -0.609 61 59 70
-0.107391 -0.267043 -0.603 59 59 67
-0.0950057 -0.271029 -0.612 74 73 81
-0.08366 -0.2759 -0.623 75 75 83
-0.0693286 -0.280329 -0.633 71 71 79
-0.0499114 -0.286529 -0.647 74 72 83
0.124683 -0.200614 -0.453 170 122 108
0.290852 -0.262614 -0.593 89 75 88
0.293886 -0.246229 -0.556 116 90 101
0.30004 -0.2418 -0.546 124 98 109
0.307029 -0.239143 -0.54 127 101 112
0.316414 -0.236929 -0.535 127 101 112
0.32961 -0.234714 -0.53 130 102 114
0.337417 -0.233829 -0.528 144 127 135
0.414071 -0.248443 -0.561 134 90 89
0.42145 -0.242243 -0.547 133 88 82
0.42276 -0.2418 -0.546 135 90 84
0.425857 -0.240029 -0.542 136 89 81
0.432285 -0.239586 -0.541 149 99 88
0.434346 -0.239586 -0.541 149 99 88
0.443007 -0.2387 -0.539 141 93 81
0.45 -0.239143 -0.54 141 92 78
0.452894 -0.239586 -0.541 144 95 81
0.455796 -0.240029 -0.542 144 95 81
0.470236 -0.242686 -0.548 148 100 90
0.50382 -0.2511 -0.567 150 101 94
-0.098181 -0.271305 -0.61 69 68 74
-0.0727152 -0.280645 -0.631 72 72 82
-0.0625848 -0.283758 -0.638 72 71 79
-0.0522143 -0.286871 -0.645 85 83 94
-0.0487543 -0.288206 -0.648 129 128 136
0.093 -0.200143 -0.45 208 167 147
0.0945038 -0.199698 -0.449 207 166 146
0.0996352 -0.199698 -0.449 209 168 146
0.103056 -0.199698 -0.449 207 165 143
0.105387 -0.199253 -0.448 202 161 143
0.141546 -0.205925 -0.463 129 92 86
0.15181 -0.210372 -0.473 101 77 75
0.29356 -0.255293 -0.574 96 69 84
0.30999 -0.239282 -0.538 128 102 113
0.32376 -0.236613 -0.532 124 101 111
0.33201 -0.235279 -0.529 137 111 122
0.337417 -0.234834 -0.528 185 168 176
0.339429 -0.234834 -0.528 140 127 136
0.37854 -0.25218 -0.567 116 116 126
0.448 -0.284648 -0.64 71 66 86
0.412751 -0.253959 -0.571 130 98 101
0.511334 -0.254849 -0.573 146 99 91
0.517791 -0.257517 -0.579 139 95 84
-0.103946 -0.26934 -0.603 57 58 63
-0.0728305 -0.282293 -0.632 73 72 80
-0.0649133 -0.284527 -0.637 73 71 82
0.0884429 -0.20234 -0.453 203 163 151
0.0912857 -0.201 -0.45 206 168 147
0.15059 -0.210827 -0.472 99 78 77
0.162202 -0.217973 -0.488 91 77 74
0.296895 -0.255493 -0.572 89 69 80
0.299719 -0.248793 -0.557 116 90 101
0.30954 -0.240753 -0.539 125 102 112
0.315551 -0.23986 -0.537 125 102 112
0.322338 -0.238073 -0.533 125 102 112
0.333394 -0.23584 -0.528 184 163 172
0.3344 -0.23584 -0.528 218 201 209
0.404033 -0.265767 -0.595 94 94 106
0.41818 -0.27202 -0.609 68 66 80
0.415467 -0.250133 -0.56 130 86 85
0.4209 -0.24522 -0.549 123 78 73
0.460774 -0.24254 -0.543 145 95 86
0.46852 -0.24388 -0.546 147 97 88
-0.117891 -0.268246 -0.598 69 69 79
-0.1105 -0.2669 -0.595 54 55 60
-0.105714 -0.269143 -0.6 45 44 50
-0.0985029 -0.274526 -0.612 65 66 71
-0.0861714 -0.279909 -0.624 75 76 81
-0.0626829 -0.286637 -0.639 73 72 80
0.0910829 -0.201409 -0.449 206 168 147
0.0936486 -0.201409 -0.449 206 168 145
0.0951467 -0.20096 -0.448 205 167 146
0.096 -0.20096 -0.448 209 168 150
0.102827 -0.20096 -0.448 207 166 146
0.11026 -0.200511 -0.447 189 143 127
0.129851 -0.204549 -0.456 152 104 92
0.1386 -0.20724 -0.462 128 89 82
0.13948 -0.20724 -0.462 128 89 82
0.143043 -0.208586 -0.465 117 82 76
0.151229 -0.212623 -0.474 95 77 75
0.302948 -0.253443 -0.565 96 76 87
0.303446 -0.250303 -0.558 117 95 107
0.304826 -0.246266 -0.549 124 101 111
0.305719 -0.244471 -0.545 125 102 112
0.315114 -0.241331 -0.538 123 100 110
0.318027 -0.240434 -0.536 128 105 115
0.326186 -0.238191 -0.531 130 104 113
0.446781 -0.287086 -0.64 74 67 85
0.454834 -0.290674 -0.648 74 66 87
0.412371 -0.253891 -0.566 138 97 95
0.431019 -0.243126 -0.542 142 95 87
0.435149 -0.243126 -0.542 150 100 91
0.457016 -0.242677 -0.541 151 101 92
0.482953 -0.24806 -0.553 142 92 85
-0.112577 -0.267583 -0.594 57 58 63
-0.110314 -0.267583 -0.594 61 62 67
-0.109367 -0.268033 -0.595 66 67 72
-0.104746 -0.270736 -0.601 48 47 53
-0.09476 -0.278394 -0.618 69 70 75
-0.0784752 -0.28335 -0.629 74 73 81
-0.0706457 -0.285602 -0.634 72 71 79
-0.0649133 -0.286953 -0.637 74 73 81
-0.0558133 -0.290107 -0.644 76 75 83
0.0831705 -0.210372 -0.467 203 166 147
0.0951467 -0.201813 -0.448 204 166 145
0.117595 -0.202264 -0.449 178 130 116
0.119571 -0.202714 -0.45 174 128 113
0.144238 -0.209922 -0.466 108 80 79
0.161603 -0.220283 -0.489 95 82 76
0.336411 -0.237851 -0.528 206 190 200
0.358662 -0.24551 -0.545 43 34 37
0.39839 -0.265781 -0.59 73 71 85
0.412014 -0.258123 -0.573 120 93 98
0.434116 -0.244158 -0.542 145 96 89
0.437437 -0.243708 -0.541 150 102 92
0.439714 -0.243257 -0.54 146 96 89
0.476323 -0.247311 -0.549 141 91 82
-0.110314 -0.268714 -0.594 92 93 98
-0.102154 -0.274143 -0.606 56 55 61
-0.0949133 -0.280024 -0.619 67 68 73
-0.0875 -0.282738 -0.625 74 74 82
-0.0807429 -0.284095 -0.628 77 76 84
-0.0638 -0.288619 -0.638 74 73 81
0.10368 -0.202667 -0.448 202 164 143
0.311837 -0.245643 -0.543 121 100 107
0.319048 -0.242476 -0.536 131 108 118
0.337417 -0.238857 -0.528 174 151 161
0.34338 -0.240214 -0.531 144 121 131
0.35932 -0.247 -0.546 39 34 40
0.455365 -0.29269 -0.647 69 66 85
0.413063 -0.255143 -0.564 132 95 89
0.423762 -0.24881 -0.55 126 78 74
0.43261 -0.246095 -0.544 141 94 88
0.439714 -0.244286 -0.54 144 95 88
0.477369 -0.248357 -0.549 147 100 92
0.491751 -0.251976 -0.557 147 98 91
0.49742 -0.253786 -0.561 147 98 91
0.50598 -0.2565 -0.567 148 99 92
-0.109183 -0.269846 -0.594 117 117 125
-0.10728 -0.270754 -0.596 101 101 109
-0.105538 -0.272117 -0.599 54 54 62
-0.0959371 -0.280749 -0.618 63 64 69
-0.0830029 -0.284837 -0.627 76 75 83
0.084001 -0.207609 -0.457 204 167 149
0.0957857 -0.203066 -0.447 202 164 145
0.111963 -0.203066 -0.447 184 137 121
0.126967 -0.2067 -0.455 156 110 95
0.314024 -0.247586 -0.545 129 106 114
0.322529 -0.243043 -0.535 130 104 113
0.323353 -0.242134 -0.533 130 107 117
0.327197 -0.241226 -0.531 129 106 116
0.332389 -0.239863 -0.528 154 131 141
0.333394 -0.239863 -0.528 171 148 158
0.3901 -0.26394 -0.581 77 80 85
0.448177 -0.291651 -0.642 74 71 88
0.452729 -0.293014 -0.645 68 63 83
0.4232 -0.250766 -0.552 125 77 73
0.433646 -0.247131 -0.544 143 94 89
0.438246 -0.246223 -0.542 144 96 86
0.4428 -0.245314 -0.54 143 93 84
-0.110129 -0.270521 -0.593 120 123 130
-0.10728 -0.27189 -0.596 92 92 100
-0.0960924 -0.282382 -0.619 62 61 67
-0.0841971 -0.286031 -0.627 75 74 82
-0.0787248 -0.287856 -0.631 76 75 83
-0.073061 -0.289225 -0.634 74 73 81
-0.0684457 -0.290137 -0.636 71 70 78
-0.0616581 -0.292418 -0.641 74 73 81
-0.0571286 -0.294243 -0.645 73 72 80
0.0815657 -0.213497 -0.468 200 163 147
0.0836333 -0.207567 -0.455 204 167 149
0.104067 -0.203461 -0.446 201 160 142
0.106615 -0.203461 -0.446 191 148 131
0.108314 -0.203461 -0.446 185 142 125
0.11026 -0.203917 -0.447 186 140 124
0.135666 -0.210304 -0.461 131 92 77
0.138018 -0.211216 -0.463 120 87 78
0.1389 -0.211216 -0.463 120 87 78
0.316377 -0.257291 -0.564 105 85 97
0.3145 -0.253186 -0.555 127 106 115
0.315954 -0.251817 -0.552 125 102 110
0.3161 -0.248624 -0.545 126 104 116
0.36366 -0.251361 -0.551 40 33 40
0.390771 -0.265503 -0.582 99 100 105
0.402223 -0.270977 -0.594 85 83 97
0.420668 -0.254098 -0.557 122 77 74
0.42744 -0.249992 -0.548 129 82 76
0.429 -0.24908 -0.546 130 83 77
0.431329 -0.248624 -0.545 135 88 82
0.435951 -0.247711 -0.543 142 94 84
0.438246 -0.247255 -0.542 144 96 86
0.453925 -0.246799 -0.541 144 94 83
0.454955 -0.246799 -0.541 145 95 84
-0.128133 -0.284019 -0.62 124 127 136
-0.073061 -0.290432 -0.634 74 73 79
-0.064 -0.293181 -0.64 75 74 82
-0.062879 -0.293639 -0.641 75 74 82
0.0861429 -0.206143 -0.45 206 167 150
0.111111 -0.204769 -0.447 182 135 119
0.118714 -0.206143 -0.45 170 121 106
0.13684 -0.21164 -0.462 119 89 81
0.1389 -0.212098 -0.463 117 87 79
0.339064 -0.242332 -0.529 135 114 119
0.349306 -0.245997 -0.537 60 39 46
0.373061 -0.25745 -0.562 45 35 43
0.409933 -0.275773 -0.602 67 63 78
0.439483 -0.289974 -0.633 99 96 113
0.410914 -0.258366 -0.564 134 93 91
0.422329 -0.254243 -0.555 123 78 73
0.435718 -0.249204 -0.544 137 90 80
0.438246 -0.248288 -0.542 140 92 82
0.44031 -0.248288 -0.542 142 94 84
0.45 -0.247371 -0.54 140 90 81
0.478414 -0.251494 -0.549 146 98 86
0.485234 -0.252869 -0.552 147 99 89
-0.137623 -0.29808 -0.648 121 122 126
-0.128547 -0.28612 -0.622 121 124 131
-0.114453 -0.27232 -0.592 119 120 125
-0.109943 -0.27232 -0.592 112 112 120
-0.105362 -0.27508 -0.598 56 57 62
-0.0962476 -0.2852 -0.62 59 60 65
0.0868067 -0.20654 -0.449 207 168 151
0.0932314 -0.20562 -0.447 208 167 149
0.0949343 -0.20562 -0.447 207 164 147
0.111111 -0.20562 -0.447 180 133 117
0.11503 -0.20654 -0.449 177 128 113
0.120964 -0.20792 -0.452 166 117 102
0.121825 -0.20792 -0.452 163 116 100
0.122957 -0.20838 -0.453 160 113 97
0.324249 -0.24978 -0.543 132 109 119
0.334026 -0.24334 -0.529 194 171 181
0.337049 -0.24334 -0.529 185 164 173
0.378126 -0.26128 -0.568 76 71 78
0.409137 -0.26036 -0.566 136 94 95
0.418667 -0.2576 -0.56 123 79 76
0.434443 -0.2507 -0.545 135 88 80
0.459077 -0.24886 -0.541 150 102 90
0.476499 -0.25208 -0.548 145 97 85
0.501518 -0.25852 -0.562 146 99 91
0.504377 -0.25944 -0.564 147 103 94
0.511914 -0.2622 -0.57 146 102 91
-0.103773 -0.278067 -0.602 64 63 71
-0.102968 -0.27899 -0.604 65 64 72
-0.0971143 -0.285457 -0.618 59 58 66
-0.0832676 -0.290538 -0.629 72 73 78
-0.0822 -0.291 -0.63 73 74 79
-0.0811286 -0.291462 -0.631 74 75 80
-0.0663343 -0.295157 -0.639 75 74 82
0.07964 -0.2134 -0.462 203 165 152
0.11392 -0.206933 -0.448 179 130 115
0.117 -0.207857 -0.45 172 120 107
0.117857 -0.207857 -0.45 168 120 100
0.13596 -0.2134 -0.462 120 86 77
0.147617 -0.218943 -0.474 98 73 77
0.326927 -0.25451 -0.551 131 105 114
0.326993 -0.248967 -0.539 134 108 117
0.36498 -0.255433 -0.553 44 38 42
0.417705 -0.281762 -0.61 59 55 70
0.418667 -0.258667 -0.56 124 81 75
0.423386 -0.256357 -0.555 123 80 74
0.429266 -0.253586 -0.549 124 79 73
0.437557 -0.251738 -0.545 130 86 75
0.438827 -0.251276 -0.544 131 87 76
0.452057 -0.249429 -0.54 141 91 80
0.454955 -0.24989 -0.541 143 93 82
0.457016 -0.24989 -0.541 149 101 89
-0.135547 -0.298693 -0.644 117 120 127
-0.122729 -0.280605 -0.605 117 117 125
-0.120571 -0.278286 -0.6 117 117 125
-0.118831 -0.276894 -0.597 114 118 121
-0.11163 -0.273184 -0.589 112 115 122
-0.0868619 -0.291736 -0.629 69 68 76
-0.0698762 -0.29591 -0.638 74 72 83
0.082221 -0.209642 -0.452 199 159 147
0.0889743 -0.207323 -0.447 210 168 154
0.0955714 -0.206859 -0.446 204 162 146
0.103833 -0.206395 -0.445 194 153 133
0.106615 -0.206859 -0.446 186 145 125
0.112213 -0.207787 -0.448 177 130 114
0.11503 -0.20825 -0.449 175 126 112
0.120103 -0.209642 -0.452 165 116 99
0.149773 -0.221701 -0.478 90 73 83
0.330817 -0.25695 -0.554 135 112 122
0.329763 -0.253704 -0.547 134 108 117
0.378126 -0.263444 -0.568 51 46 52
0.414826 -0.274111 -0.591 65 61 76
0.407267 -0.266227 -0.574 105 76 81
0.406255 -0.263444 -0.568 129 85 86
0.406981 -0.262516 -0.566 135 89 89
0.421113 -0.25927 -0.559 122 79 73
0.434995 -0.253704 -0.547 125 81 72
0.446711 -0.250921 -0.541 139 93 80
0.446914 -0.250457 -0.54 139 93 80
0.468876 -0.252312 -0.544 144 98 85
0.499733 -0.259733 -0.56 144 97 87
-0.103946 -0.280826 -0.603 71 70 78
-0.0835324 -0.293866 -0.631 70 70 78
-0.0664381 -0.298057 -0.64 73 74 79
-0.06072 -0.29992 -0.644 70 71 76
0.0801667 -0.2119 -0.455 200 162 151
0.096421 -0.207709 -0.446 204 162 150
0.113067 -0.20864 -0.448 179 132 116
0.135372 -0.215626 -0.463 116 85 80
0.332928 -0.258006 -0.554 139 113 122
0.332535 -0.250554 -0.538 132 106 117
0.33232 -0.249623 -0.536 131 105 116
0.3663 -0.258471 -0.555 47 38 41
0.386985 -0.269183 -0.578 78 78 80
0.409031 -0.278963 -0.599 58 51 67
0.415433 -0.281757 -0.605 54 52 65
0.421431 -0.282689 -0.607 62 53 70
0.407338 -0.263129 -0.565 127 83 82
0.41514 -0.261266 -0.561 121 80 74
0.420049 -0.260334 -0.559 123 78 73
0.42279 -0.259403 -0.557 122 77 71
0.423386 -0.258471 -0.555 126 81 75
0.424733 -0.258006 -0.554 126 79 73
0.444226 -0.252883 -0.543 139 92 82
0.446505 -0.252417 -0.542 140 94 81
0.455143 -0.251486 -0.54 146 100 85
-0.11519 -0.275895 -0.59 111 114 121
-0.0769257 -0.297406 -0.636 73 72 80
-0.0573057 -0.30255 -0.647 71 71 79
-0.051381 -0.303952 -0.65 69 69 77
0.0799905 -0.212299 -0.454 201 163 152
0.0833857 -0.209961 -0.449 204 166 153
0.0887752 -0.208558 -0.446 208 168 156
0.112213 -0.209493 -0.448 176 129 113
0.113067 -0.209493 -0.448 179 132 116
0.118978 -0.210896 -0.451 167 115 101
0.128676 -0.21417 -0.458 136 98 89
0.409782 -0.274492 -0.587 67 59 74
0.413739 -0.262802 -0.562 122 81 77
0.431357 -0.256723 -0.549 122 79 72
0.43836 -0.25532 -0.546 128 84 75
0.465946 -0.253917 -0.543 151 102 87
0.47389 -0.254852 -0.545 144 92 79
0.501867 -0.261867 -0.56 140 97 90
-0.135968 -0.303312 -0.646 111 111 121
-0.0699857 -0.300026 -0.639 76 75 83
-0.0665419 -0.300965 -0.641 73 73 81
0.0769438 -0.219268 -0.467 199 164 158
0.0832 -0.210347 -0.448 204 166 155
0.0953571 -0.208938 -0.445 195 156 141
0.0962048 -0.208938 -0.445 198 159 144
0.119242 -0.212225 -0.452 163 114 100
0.131275 -0.21645 -0.461 121 87 85
0.3379 -0.25589 -0.545 128 105 115
0.337694 -0.254951 -0.543 128 102 113
0.338054 -0.252134 -0.537 134 106 118
0.3382 -0.250726 -0.534 133 107 116
0.340234 -0.250726 -0.534 133 112 119
0.40338 -0.26622 -0.567 130 92 91
0.406969 -0.264342 -0.563 124 84 82
0.414071 -0.263403 -0.561 125 84 80
0.42978 -0.258708 -0.551 125 82 75
0.43554 -0.257769 -0.549 121 76 71
0.461138 -0.254012 -0.541 147 98 84
0.468014 -0.254951 -0.543 147 98 84
-0.0993076 -0.290871 -0.617 68 67 73
-0.0977429 -0.293229 -0.622 64 63 69
0.0765429 -0.221571 -0.47 203 165 154
0.091119 -0.209786 -0.445 208 169 154
0.118381 -0.213086 -0.452 162 114 102
0.138321 -0.220157 -0.467 112 83 85
0.34253 -0.252686 -0.536 140 114 123
0.356852 -0.257871 -0.547 45 35 43
0.399909 -0.271543 -0.576 71 61 72
0.401551 -0.268243 -0.569 132 94 93
0.42978 -0.259757 -0.551 126 83 77
0.436586 -0.258814 -0.549 125 80 74
0.44044 -0.2574 -0.546 130 83 75
0.442748 -0.256929 -0.545 137 89 79
0.456171 -0.254571 -0.54 146 96 85
0.47788 -0.2574 -0.546 146 96 85
0.495271 -0.261643 -0.555 145 97 87
0.514268 -0.268243 -0.569 145 97 83
-0.102491 -0.287787 -0.608 77 76 84
-0.093 -0.2982 -0.63 59 58 66
-0.0896838 -0.299147 -0.632 59 58 64
-0.05616 -0.30672 -0.648 70 70 78
0.0845276 -0.211107 -0.446 211 171 161
0.0862267 -0.211107 -0.446 211 171 161
0.114429 -0.213 -0.45 165 116 102
0.136542 -0.221047 -0.467 110 78 81
0.34355 -0.253707 -0.536 139 118 127
0.398267 -0.274533 -0.58 53 48 55
0.399371 -0.274533 -0.58 65 55 63
0.408729 -0.26554 -0.561 135 91 90
0.410866 -0.26554 -0.561 136 92 91
0.440205 -0.258913 -0.547 129 82 74
0.44252 -0.25844 -0.546 133 86 76
0.482762 -0.259387 -0.548 147 99 87
0.489603 -0.260807 -0.551 142 94 84
-0.122323 -0.286569 -0.603 100 101 106
-0.107688 -0.281341 -0.592 62 62 70
-0.097179 -0.297499 -0.626 64 63 69
0.0828286 -0.211956 -0.446 209 169 157
0.100217 -0.211006 -0.444 187 146 128
0.102754 -0.211006 -0.444 183 137 121
0.106615 -0.211956 -0.446 178 132 117
0.107465 -0.211956 -0.446 173 127 112
0.123771 -0.216709 -0.456 136 92 81
0.128083 -0.218134 -0.459 122 87 83
0.134186 -0.220986 -0.465 112 81 78
0.135652 -0.221936 -0.467 111 80 77
0.143405 -0.225738 -0.475 101 81 90
0.146743 -0.228114 -0.48 84 76 99
0.15416 -0.233817 -0.492 149 157 206
0.34372 -0.25948 -0.546 136 110 121
0.342866 -0.258054 -0.543 136 110 121
0.364186 -0.263757 -0.555 46 39 46
0.394952 -0.275638 -0.58 30 23 31
0.397914 -0.270886 -0.57 138 104 105
0.399764 -0.269935 -0.568 142 104 103
0.406591 -0.266609 -0.561 132 91 89
0.409067 -0.266133 -0.56 135 91 90
0.4112 -0.266133 -0.56 133 89 88
0.419297 -0.265183 -0.558 131 87 84
0.42873 -0.261856 -0.551 131 86 80
0.44356 -0.25948 -0.546 136 88 76
0.451864 -0.257104 -0.541 142 92 81
0.471117 -0.258054 -0.543 145 97 83
0.481881 -0.259955 -0.547 149 101 89
-0.117836 -0.282469 -0.592 97 98 103
-0.116117 -0.281037 -0.589 98 99 104
-0.109386 -0.281037 -0.589 81 84 91
-0.0655248 -0.306803 -0.643 71 72 77
0.0751314 -0.217577 -0.456 203 165 154
0.116401 -0.215191 -0.451 161 112 98
0.389612 -0.275311 -0.577 32 19 28
0.394009 -0.275311 -0.577 23 13 22
0.3983 -0.271494 -0.569 135 99 101
0.398682 -0.271017 -0.568 135 99 101
0.401957 -0.269586 -0.565 141 103 102
0.417171 -0.266246 -0.558 135 91 88
0.418234 -0.266246 -0.558 134 90 87
0.42873 -0.262906 -0.551 133 86 80
0.441247 -0.260997 -0.547 136 88 76
0.44252 -0.26052 -0.546 136 88 76
0.44608 -0.259566 -0.544 142 93 79
0.464055 -0.258611 -0.542 153 102 85
0.465088 -0.258611 -0.542 155 104 87
0.472151 -0.259089 -0.543 142 93 79
0.485893 -0.261474 -0.548 140 92 80
0.490652 -0.262906 -0.551 142 94 82
-0.0974895 -0.300842 -0.628 66 67 72
-0.0645 -0.308986 -0.645 72 71 79
-0.0597705 -0.309944 -0.647 72 72 80
0.08028 -0.213655 -0.446 206 169 153
0.0949286 -0.212218 -0.443 195 157 138
0.0957724 -0.212218 -0.443 196 158 139
0.105529 -0.213176 -0.445 174 128 112
0.139802 -0.22611 -0.472 108 76 81
0.146132 -0.230422 -0.481 115 107 122
0.34996 -0.26156 -0.546 143 117 128
0.355417 -0.262518 -0.548 54 37 47
0.36985 -0.269225 -0.562 50 39 47
0.393738 -0.275452 -0.575 85 68 74
0.397216 -0.272578 -0.569 140 101 102
0.409401 -0.267788 -0.559 137 93 90
0.41292 -0.267309 -0.558 137 94 88
0.418546 -0.26683 -0.557 136 91 86
0.426073 -0.264913 -0.553 134 89 83
0.454114 -0.258686 -0.54 152 100 86
0.455143 -0.258686 -0.54 151 100 83
0.4572 -0.258686 -0.54 153 102 85
0.471117 -0.260123 -0.543 147 95 81
-0.105538 -0.28809 -0.599 89 90 95
-0.0985286 -0.301557 -0.627 72 73 78
-0.0957029 -0.303962 -0.632 62 62 70
-0.0622352 -0.311176 -0.647 72 71 79
0.0841486 -0.213543 -0.444 209 170 155
0.0900686 -0.213543 -0.444 203 164 147
0.0923971 -0.213062 -0.443 199 162 143
0.0940848 -0.213062 -0.443 196 158 139
0.109653 -0.215467 -0.448 164 117 101
0.352977 -0.266448 -0.554 138 115 131
0.357363 -0.265005 -0.551 52 35 43
0.395743 -0.274143 -0.57 142 102 102
0.400512 -0.272219 -0.566 138 98 98
0.41292 -0.268371 -0.558 137 94 88
0.431095 -0.264524 -0.55 130 83 77
0.461138 -0.260195 -0.541 156 103 85
0.468185 -0.260676 -0.542 152 96 79
0.496647 -0.265967 -0.553 153 101 87
-0.0925286 -0.306614 -0.635 57 57 65
0.0770543 -0.215837 -0.447 209 171 160
0.0801 -0.214871 -0.445 207 169 156
0.0892229 -0.214389 -0.444 205 166 149
0.0909143 -0.214389 -0.444 198 161 143
0.102986 -0.214871 -0.445 181 134 116
0.112464 -0.216803 -0.449 160 110 99
0.14582 -0.23322 -0.483 160 157 184
0.3555 -0.26702 -0.553 127 104 114
0.359957 -0.267986 -0.555 48 33 40
0.381027 -0.27716 -0.574 55 45 54
0.39196 -0.27716 -0.574 133 99 98
0.399434 -0.273297 -0.566 138 98 98
0.400512 -0.273297 -0.566 135 95 95
0.40766 -0.270883 -0.561 133 89 88
0.416424 -0.268951 -0.557 140 95 89
0.430048 -0.265571 -0.55 128 81 71
0.433449 -0.265089 -0.549 134 86 76
0.447329 -0.262191 -0.543 147 95 82
0.451667 -0.261709 -0.542 152 103 89
0.4572 -0.260743 -0.54 148 99 84
-0.1314 -0.3054 -0.63 97 100 109
-0.10674 -0.287464 -0.593 82 82 90
-0.105362 -0.289888 -0.598 94 94 102
-0.0958543 -0.306854 -0.633 66 67 72
-0.0938857 -0.308309 -0.636 61 60 66
0.07172 -0.22396 -0.462 203 164 157
0.0801 -0.215719 -0.445 208 170 159
0.0890219 -0.21475 -0.443 204 165 150
0.101063 -0.215234 -0.444 178 137 119
0.3632 -0.271467 -0.56 48 35 45
0.386985 -0.280192 -0.578 90 65 69
0.390034 -0.279223 -0.576 140 102 101
0.393053 -0.278253 -0.574 146 108 107
0.39906 -0.27486 -0.567 140 98 99
0.40766 -0.271951 -0.561 136 92 91
0.422329 -0.269043 -0.555 138 93 87
0.433449 -0.266134 -0.549 136 88 78
0.437878 -0.26565 -0.548 138 90 80
0.44333 -0.265165 -0.547 142 92 81
0.449602 -0.262741 -0.542 151 99 86
0.463199 -0.262256 -0.541 151 100 83
0.475411 -0.262741 -0.542 145 94 77
0.490963 -0.266134 -0.549 142 95 75
-0.121511 -0.291513 -0.599 96 96 106
-0.109945 -0.285187 -0.586 84 84 94
-0.10674 -0.288593 -0.593 84 84 94
-0.0986857 -0.305627 -0.628 76 76 84
0.0727505 -0.219973 -0.452 204 166 153
0.07992 -0.21608 -0.444 209 171 160
0.0873343 -0.215593 -0.443 208 168 156
0.120033 -0.221433 -0.455 137 94 88
0.392369 -0.27886 -0.573 146 106 106
0.399434 -0.275453 -0.566 145 101 100
0.410794 -0.27156 -0.558 139 94 89
0.44857 -0.263773 -0.542 153 101 88
0.457016 -0.263287 -0.541 153 101 88
0.463371 -0.2628 -0.54 152 100 86
0.509333 -0.272533 -0.56 150 100 89
-0.109014 -0.286791 -0.587 72 72 82
-0.10674 -0.289723 -0.593 88 88 98
-0.0986857 -0.306823 -0.628 77 77 85
-0.0940333 -0.31122 -0.637 65 66 71
-0.0867533 -0.31122 -0.637 51 50 56
-0.0808133 -0.311709 -0.638 55 54 62
-0.0740981 -0.314151 -0.643 69 68 76
0.0913467 -0.215949 -0.442 196 156 144
