ply
format ascii 1.0
comment Created by Open3D
element vertex 1293
property double x
property double y
property double z
property uchar red
property uchar green
property uchar blue
end_header
0.508872 -0.316126 -0.556 177 135 111
1.15499 -0.365023 -0.642 204 206 193
0.108104 -0.346279 -0.607 191 151 141
0.108597 -0.340574 -0.597 197 147 140
0.113739 -0.32289 -0.566 192 142 135
0.148003 -0.317755 -0.557 165 112 98
0.149064 -0.317755 -0.557 163 110 96
0.157333 -0.319467 -0.56 146 94 83
0.1698 -0.32289 -0.566 137 87 76
0.184351 -0.325742 -0.571 125 77 65
0.202025 -0.329735 -0.578 152 93 87
0.210435 -0.332588 -0.583 147 90 81
0.221951 -0.338292 -0.593 117 81 83
0.232972 -0.346279 -0.607 112 81 78
0.456533 -0.365105 -0.64 209 216 222
0.469456 -0.365675 -0.641 145 181 229
0.470677 -0.365675 -0.641 140 176 224
0.476782 -0.365675 -0.641 226 233 252
0.48006 -0.32346 -0.567 196 161 141
0.47988 -0.318326 -0.558 203 166 147
0.482953 -0.315473 -0.553 198 162 140
0.499954 -0.314903 -0.552 187 141 115
0.501006 -0.314903 -0.552 188 142 116
0.509014 -0.316614 -0.555 177 136 114
0.107748 -0.34629 -0.605 192 152 140
0.10836 -0.344573 -0.602 192 152 140
0.117217 -0.321678 -0.562 191 138 130
0.118288 -0.321678 -0.562 190 137 129
0.12 -0.320533 -0.56 187 134 126
0.124267 -0.320533 -0.56 192 135 126
0.12511 -0.319961 -0.559 189 132 123
0.129137 -0.319389 -0.558 184 130 120
0.13315 -0.318816 -0.557 186 132 122
0.149064 -0.318816 -0.557 163 110 96
0.166271 -0.323395 -0.565 139 89 78
0.168722 -0.323968 -0.566 142 92 81
0.178287 -0.325685 -0.569 132 84 72
0.179686 -0.326257 -0.57 132 84 72
0.182176 -0.32683 -0.571 132 84 72
0.212271 -0.334843 -0.585 128 78 71
0.2156 -0.33656 -0.588 118 75 68
0.2227 -0.340567 -0.595 118 80 79
0.462629 -0.366324 -0.64 176 197 240
0.471162 -0.366324 -0.64 146 170 214
0.490517 -0.368041 -0.643 81 110 170
0.508889 -0.368041 -0.643 72 98 149
0.512989 -0.367469 -0.642 184 183 199
0.490778 -0.339422 -0.593 176 151 144
0.481271 -0.32683 -0.571 190 159 141
0.479443 -0.323395 -0.565 196 163 144
0.485405 -0.315382 -0.551 200 162 143
0.486454 -0.315382 -0.551 198 160 141
0.487504 -0.315382 -0.551 199 158 138
0.502057 -0.315954 -0.552 192 148 123
0.505073 -0.316527 -0.553 182 140 116
0.508097 -0.317099 -0.554 178 137 117
0.510071 -0.317671 -0.555 174 133 113
1.1567 -0.369186 -0.645 203 205 191
0.110393 -0.327917 -0.571 190 145 139
0.128074 -0.320451 -0.558 177 121 108
0.14482 -0.319877 -0.557 173 116 105
0.151729 -0.321026 -0.559 160 106 94
0.153858 -0.321026 -0.559 145 91 81
0.166271 -0.324471 -0.565 140 90 81
0.1786 -0.327343 -0.57 133 85 73
0.180771 -0.327343 -0.57 133 85 73
0.197279 -0.331363 -0.577 135 82 74
0.199823 -0.331937 -0.578 144 90 80
0.200924 -0.331937 -0.578 144 90 80
0.203477 -0.332511 -0.579 145 88 79
0.209325 -0.334809 -0.583 119 75 76
0.211157 -0.335957 -0.585 119 74 71
0.2227 -0.3417 -0.595 118 80 79
0.44417 -0.366394 -0.638 223 233 255
0.452169 -0.366969 -0.639 220 219 224
0.460689 -0.366969 -0.639 179 194 235
0.463848 -0.367543 -0.64 196 218 255
0.467991 -0.366969 -0.639 187 216 255
0.482887 -0.368117 -0.641 228 228 238
0.488531 -0.368691 -0.642 133 140 169
0.501983 -0.368691 -0.642 168 195 242
0.502197 -0.316431 -0.551 187 143 118
0.594643 -0.358929 -0.625 225 220 227
1.15499 -0.368691 -0.642 206 207 193
0.132089 -0.320938 -0.557 186 133 119
0.135271 -0.320938 -0.557 172 118 106
0.138454 -0.320938 -0.557 161 107 95
0.14482 -0.320938 -0.557 166 109 98
0.151729 -0.32209 -0.559 151 99 86
0.167644 -0.326124 -0.566 139 84 77
0.200169 -0.333614 -0.579 136 87 82
0.211518 -0.337648 -0.586 119 75 72
0.44903 -0.36761 -0.638 255 253 254
0.455107 -0.36761 -0.638 239 241 238
0.456322 -0.36761 -0.638 239 241 238
0.498759 -0.369338 -0.641 117 139 180
0.505651 -0.369914 -0.642 138 161 205
0.51219 -0.369338 -0.641 191 196 216
0.494089 -0.343986 -0.597 174 149 142
0.486944 -0.335919 -0.583 184 151 142
0.481271 -0.329005 -0.571 189 157 142
0.479467 -0.322667 -0.56 199 162 143
0.47902 -0.320938 -0.557 198 160 141
0.483131 -0.318057 -0.552 195 157 138
0.484355 -0.317481 -0.551 200 162 141
0.485405 -0.317481 -0.551 200 163 144
0.511263 -0.31921 -0.554 173 131 106
0.525863 -0.324971 -0.564 163 126 108
0.590837 -0.357814 -0.621 224 217 224
0.111583 -0.327202 -0.566 193 146 140
0.127011 -0.322577 -0.558 182 130 119
0.128074 -0.322577 -0.558 183 131 120
0.149331 -0.322577 -0.558 161 107 95
0.164119 -0.326624 -0.565 143 90 82
0.166566 -0.327202 -0.566 142 87 80
0.1701 -0.32778 -0.567 141 86 79
0.183585 -0.33067 -0.572 129 79 72
0.186089 -0.331249 -0.573 128 78 71
0.187507 -0.331827 -0.574 129 79 72
0.199066 -0.334717 -0.579 130 83 77
0.427029 -0.367669 -0.636 229 234 255
0.429451 -0.367669 -0.636 232 242 254
0.433086 -0.367669 -0.636 227 233 255
0.444687 -0.368247 -0.637 231 239 255
0.44954 -0.368247 -0.637 246 255 255
0.450753 -0.368247 -0.637 249 252 255
0.463613 -0.368825 -0.638 201 220 252
0.474077 -0.369403 -0.639 220 236 255
0.480163 -0.369403 -0.639 225 227 248
0.488229 -0.369981 -0.64 157 167 202
0.492654 -0.370559 -0.641 173 188 221
0.497538 -0.370559 -0.641 182 196 231
0.49998 -0.370559 -0.641 159 172 206
0.51139 -0.369981 -0.64 191 192 212
0.514243 -0.369403 -0.639 172 172 182
0.497906 -0.348591 -0.603 175 151 141
0.487779 -0.337608 -0.584 181 154 145
0.483291 -0.332983 -0.576 181 153 142
0.479254 -0.324311 -0.561 198 161 143
0.48208 -0.319109 -0.552 198 160 141
0.483306 -0.31853 -0.551 194 156 137
0.493054 -0.317374 -0.549 198 157 137
0.4941 -0.317374 -0.549 194 153 131
0.496191 -0.317374 -0.549 192 151 129
0.511393 -0.319687 -0.553 173 131 109
0.58608 -0.356107 -0.616 217 205 209
-0.315763 -0.34278 -0.591 243 244 236
0.115076 -0.32596 -0.562 186 136 127
0.12085 -0.32422 -0.559 184 131 123
0.124045 -0.32422 -0.559 187 135 124
0.138206 -0.32248 -0.556 177 123 113
0.14482 -0.32306 -0.557 162 105 96
0.148269 -0.32364 -0.558 163 109 97
0.152 -0.3248 -0.56 147 93 81
0.156825 -0.32596 -0.562 149 95 85
0.16686 -0.32886 -0.567 142 87 80
0.179686 -0.3306 -0.57 131 80 76
0.183585 -0.33176 -0.572 131 80 76
0.197963 -0.33582 -0.579 127 79 75
0.207459 -0.33872 -0.584 118 74 71
0.217067 -0.34336 -0.592 119 77 78
0.427567 -0.3683 -0.635 242 249 255
0.46046 -0.36946 -0.637 185 198 230
0.461673 -0.36946 -0.637 185 204 237
0.482597 -0.37062 -0.639 202 212 239
0.48579 -0.3712 -0.64 164 175 205
0.488229 -0.3712 -0.64 199 210 242
0.494324 -0.3712 -0.64 193 207 236
0.504076 -0.3712 -0.64 180 191 219
0.51139 -0.3712 -0.64 167 172 194
0.502524 -0.3538 -0.61 176 149 142
0.493567 -0.3451 -0.595 174 149 142
0.479254 -0.32538 -0.561 199 162 146
0.500507 -0.31784 -0.548 183 138 115
0.503511 -0.31842 -0.549 186 142 117
0.509544 -0.31958 -0.551 174 132 110
0.5319 -0.32886 -0.567 167 129 110
0.593203 -0.36018 -0.621 213 211 222
1.15383 -0.3712 -0.64 203 205 194
0.106501 -0.347979 -0.598 197 148 144
0.107157 -0.335759 -0.577 193 144 139
0.107693 -0.334013 -0.574 193 146 140
0.1107 -0.32994 -0.567 192 143 136
0.114209 -0.327612 -0.563 187 137 130
0.117009 -0.326449 -0.561 187 137 128
0.12298 -0.325285 -0.559 187 135 124
0.124045 -0.325285 -0.559 189 137 126
0.129967 -0.324121 -0.557 182 129 121
0.13291 -0.323539 -0.556 182 127 120
0.139265 -0.323539 -0.556 173 119 109
0.142698 -0.324121 -0.557 172 115 106
0.147206 -0.324703 -0.558 162 108 98
0.155754 -0.32703 -0.562 150 96 86
0.16578 -0.32994 -0.567 144 89 82
0.179686 -0.331686 -0.57 130 79 75
0.186089 -0.333431 -0.573 129 78 74
0.19652 -0.336341 -0.578 127 79 75
0.20086 -0.338087 -0.581 121 76 73
0.202314 -0.338669 -0.582 119 74 71
0.203772 -0.33925 -0.583 119 75 72
0.208929 -0.340414 -0.585 116 75 71
0.41361 -0.368928 -0.634 213 216 231
0.41844 -0.368928 -0.634 238 246 255
0.456103 -0.370091 -0.636 225 230 252
0.458033 -0.370673 -0.637 213 218 240
0.459247 -0.370673 -0.637 180 190 225
0.462887 -0.370673 -0.637 182 201 234
0.466527 -0.370673 -0.637 168 187 230
0.481842 -0.371255 -0.638 156 167 197
0.494769 -0.371837 -0.639 205 215 240
0.500854 -0.371837 -0.639 201 209 232
0.503289 -0.371837 -0.639 192 202 227
0.505723 -0.371837 -0.639 194 201 227
0.508157 -0.371837 -0.639 181 189 212
0.509374 -0.371837 -0.639 125 133 156
0.513026 -0.371837 -0.639 161 168 194
0.513438 -0.371255 -0.638 184 191 217
0.485809 -0.336923 -0.579 182 155 146
0.482957 -0.333431 -0.573 183 153 142
0.479977 -0.321211 -0.552 197 160 142
0.482256 -0.32063 -0.551 198 160 141
0.49751 -0.318302 -0.547 190 148 124
0.498551 -0.318302 -0.547 187 145 121
0.508619 -0.320048 -0.55 174 132 107
1.15441 -0.373001 -0.641 203 205 194
0.105714 -0.350286 -0.6 192 149 142
0.115076 -0.328101 -0.562 188 138 131
0.117009 -0.327517 -0.561 188 135 129
0.12085 -0.32635 -0.559 185 132 124
0.154684 -0.328101 -0.562 147 92 85
0.159531 -0.329269 -0.564 146 91 84
0.165488 -0.330436 -0.566 141 86 81
0.177826 -0.333355 -0.571 129 78 74
0.178913 -0.333355 -0.571 129 78 74
0.190024 -0.33569 -0.575 126 77 73
0.212601 -0.343864 -0.589 115 74 72
0.446919 -0.370719 -0.635 190 198 217
0.449338 -0.370719 -0.635 245 249 255
0.451757 -0.370719 -0.635 242 242 252
0.480627 -0.37247 -0.638 159 166 194
0.508577 -0.37247 -0.638 165 176 198
0.509792 -0.37247 -0.638 95 104 135
0.512223 -0.37247 -0.638 107 118 150
0.482957 -0.334523 -0.573 184 154 143
0.47989 -0.328685 -0.563 195 159 145
0.479414 -0.324014 -0.555 201 162 145
0.479606 -0.32343 -0.554 201 163 144
0.484689 -0.320511 -0.549 202 161 139
0.487981 -0.319928 -0.548 202 161 139
0.490216 -0.319344 -0.547 197 159 136
0.49868 -0.31876 -0.546 192 148 123
0.510714 -0.321095 -0.55 171 131 106
0.10492 -0.3526 -0.602 192 149 143
0.109427 -0.331514 -0.566 186 138 128
0.112263 -0.330343 -0.564 192 139 131
0.114871 -0.328586 -0.561 190 137 131
0.124045 -0.327414 -0.559 190 137 129
0.138206 -0.325657 -0.556 176 122 110
0.14747 -0.327414 -0.559 165 110 103
0.176738 -0.334443 -0.571 133 82 78
0.184997 -0.335614 -0.573 129 80 76
0.186413 -0.3362 -0.574 129 80 76
0.19686 -0.339129 -0.579 126 78 76
0.213323 -0.346157 -0.591 114 73 71
0.218533 -0.349086 -0.596 117 73 72
0.222286 -0.351429 -0.6 119 78 76
0.226817 -0.354943 -0.606 111 77 75
0.249009 -0.367243 -0.627 137 143 169
0.450548 -0.371929 -0.635 240 245 255
0.467006 -0.372514 -0.636 158 175 218
0.47866 -0.3731 -0.637 165 174 203
0.479873 -0.3731 -0.637 137 146 175
0.501286 -0.373686 -0.638 202 210 231
0.513847 -0.3731 -0.637 145 152 181
0.481753 -0.333271 -0.569 189 155 143
0.479219 -0.325657 -0.556 200 161 144
0.48485 -0.320971 -0.548 203 161 137
0.486937 -0.320971 -0.548 200 159 137
0.48709 -0.320386 -0.547 201 160 138
0.49348 -0.3198 -0.546 200 156 131
0.515726 -0.323314 -0.552 171 129 107
1.14663 -0.371343 -0.634 200 204 190
0.103946 -0.354334 -0.603 189 150 143
0.11031 -0.332005 -0.565 188 138 129
0.111189 -0.331417 -0.564 192 139 131
0.112064 -0.33083 -0.563 192 139 131
0.114871 -0.329654 -0.561 191 138 132
0.1168 -0.329067 -0.56 190 137 131
0.12085 -0.328479 -0.559 189 136 128
0.140576 -0.327304 -0.557 162 108 96
0.151203 -0.329654 -0.561 152 95 88
0.169318 -0.333768 -0.568 135 82 78
0.1707 -0.334355 -0.569 136 83 79
0.182495 -0.336118 -0.572 129 80 76
0.198647 -0.341407 -0.581 122 76 76
0.219267 -0.351396 -0.598 117 73 72
0.455876 -0.37255 -0.634 226 233 252
0.462643 -0.373138 -0.635 186 209 253
0.482754 -0.373726 -0.636 215 223 244
0.486389 -0.373726 -0.636 223 229 251
0.498073 -0.374313 -0.637 206 213 231
0.488326 -0.341994 -0.582 177 148 140
0.480109 -0.330242 -0.562 199 160 145
0.485893 -0.322015 -0.548 199 157 135
0.48828 -0.32084 -0.546 198 156 132
0.500881 -0.320252 -0.545 187 141 115
1.14663 -0.37255 -0.634 201 205 190
0.106229 -0.337208 -0.572 185 135 128
0.106943 -0.336029 -0.57 181 131 124
0.108349 -0.33367 -0.566 186 137 130
0.110991 -0.331902 -0.563 190 137 129
0.127615 -0.327775 -0.556 182 132 123
0.13291 -0.327775 -0.556 179 127 113
0.135029 -0.327775 -0.556 169 117 103
0.168236 -0.33485 -0.568 134 80 78
0.180316 -0.337208 -0.572 131 80 77
0.182814 -0.337797 -0.573 129 80 76
0.193217 -0.340745 -0.578 121 77 76
0.209235 -0.34723 -0.589 116 72 71
0.458291 -0.373758 -0.634 188 202 228
0.460707 -0.373758 -0.634 168 191 235
0.467481 -0.374348 -0.635 175 186 231
0.473529 -0.374348 -0.635 223 230 249
0.475948 -0.374348 -0.635 161 171 196
0.479576 -0.374348 -0.635 198 209 229
0.500926 -0.374937 -0.636 213 216 231
0.505353 -0.375527 -0.637 205 208 223
0.506983 -0.374937 -0.636 199 202 219
0.509406 -0.374937 -0.636 184 189 208
0.51304 -0.374937 -0.636 101 106 135
0.49224 -0.34664 -0.588 174 146 142
0.4826 -0.336029 -0.57 185 151 141
0.47989 -0.331902 -0.563 197 159 146
0.479414 -0.327186 -0.555 200 159 141
0.479793 -0.326007 -0.553 203 162 142
0.486049 -0.32247 -0.547 198 157 137
0.488424 -0.32129 -0.545 200 159 137
0.495817 -0.320701 -0.544 193 149 122
0.503995 -0.32129 -0.545 178 129 99
0.514905 -0.324238 -0.55 177 130 104
0.517829 -0.325417 -0.552 175 128 102
1.15203 -0.376706 -0.639 202 204 190
0.10472 -0.34776 -0.588 195 148 142
0.10476 -0.344211 -0.582 191 144 138
0.113803 -0.331791 -0.561 191 138 132
0.115733 -0.3312 -0.56 187 137 130
0.125723 -0.329426 -0.557 185 132 124
0.126556 -0.328834 -0.556 186 131 124
0.128674 -0.328834 -0.556 185 133 120
0.13291 -0.328834 -0.556 177 123 111
0.135029 -0.328834 -0.556 175 121 109
0.146405 -0.330609 -0.559 163 106 95
0.150134 -0.331791 -0.561 150 92 81
0.156309 -0.333566 -0.564 141 87 77
0.158738 -0.334157 -0.565 140 85 78
0.159814 -0.334157 -0.565 142 87 80
0.167154 -0.335931 -0.568 141 88 84
0.17565 -0.337706 -0.571 134 83 80
0.176738 -0.337706 -0.571 130 79 76
0.189257 -0.340663 -0.576 128 80 76
0.203705 -0.346577 -0.586 116 75 73
0.20517 -0.347169 -0.587 117 75 76
0.208113 -0.348351 -0.589 117 73 74
0.213274 -0.351309 -0.594 112 77 75
0.444808 -0.373783 -0.632 234 243 252
0.452746 -0.374374 -0.633 227 237 249
0.46916 -0.374966 -0.634 211 220 249
0.472783 -0.374966 -0.634 215 223 244
0.477157 -0.375557 -0.635 173 184 212
0.481995 -0.375557 -0.635 227 233 249
0.483205 -0.375557 -0.635 224 230 246
0.485624 -0.375557 -0.635 226 231 251
0.50456 -0.376149 -0.636 207 209 224
0.513443 -0.375557 -0.635 109 113 140
0.506989 -0.363137 -0.614 172 147 150
0.498026 -0.354266 -0.599 174 149 145
0.479467 -0.3312 -0.56 194 157 141
0.47902 -0.329426 -0.557 193 156 140
0.496974 -0.321146 -0.543 191 147 122
0.499962 -0.321737 -0.544 190 146 121
0.108157 -0.335233 -0.565 189 139 132
0.111666 -0.33286 -0.561 191 141 134
0.118721 -0.331673 -0.559 192 139 131
0.142698 -0.330487 -0.557 169 113 100
0.144017 -0.33108 -0.558 169 113 100
0.171 -0.3382 -0.57 131 80 77
0.181723 -0.33998 -0.573 130 82 80
0.184227 -0.340573 -0.574 128 80 78
0.18816 -0.34176 -0.576 130 82 78
0.191015 -0.342947 -0.578 126 81 78
0.241874 -0.37024 -0.624 163 168 190
0.440498 -0.374393 -0.631 253 254 255
0.450827 -0.374987 -0.632 189 198 231
0.46916 -0.376173 -0.634 191 210 253
0.476406 -0.376173 -0.634 182 194 216
0.483651 -0.376173 -0.634 230 225 245
0.500138 -0.376767 -0.635 209 212 227
0.504976 -0.376767 -0.635 205 204 222
0.507395 -0.376767 -0.635 202 207 227
0.508605 -0.376767 -0.635 197 202 222
0.512233 -0.376767 -0.635 168 171 188
0.513443 -0.376767 -0.635 126 129 146
0.484293 -0.339387 -0.572 182 154 140
0.483965 -0.324553 -0.547 196 153 134
0.50711 -0.323367 -0.545 180 134 110
0.104231 -0.341071 -0.573 187 138 131
0.1136 -0.333333 -0.56 192 142 133
0.124438 -0.330952 -0.556 187 135 124
0.126556 -0.330952 -0.556 182 130 119
0.146405 -0.332738 -0.559 153 100 84
0.167449 -0.33869 -0.569 141 88 84
0.175958 -0.340476 -0.572 134 85 81
0.191015 -0.344048 -0.578 126 81 78
0.20587 -0.350595 -0.589 116 76 76
0.214351 -0.355357 -0.597 113 73 71
0.250194 -0.371429 -0.624 177 180 199
0.446508 -0.375595 -0.631 227 233 255
0.451315 -0.375595 -0.631 158 171 213
0.453234 -0.37619 -0.632 173 186 228
0.456846 -0.37619 -0.632 147 167 217
0.480477 -0.376786 -0.633 233 235 250
0.492105 -0.377381 -0.634 211 217 233
0.496935 -0.377381 -0.634 200 207 223
0.512634 -0.377381 -0.634 172 178 190
0.503521 -0.36131 -0.607 172 145 138
0.495589 -0.352381 -0.592 173 146 139
0.48514 -0.341071 -0.573 178 150 136
0.479606 -0.329762 -0.554 200 162 143
0.479108 -0.327976 -0.551 201 160 142
0.48412 -0.325 -0.546 195 154 132
0.494906 -0.323214 -0.543 192 149 130
0.499156 -0.322619 -0.542 192 147 126
0.509186 -0.324405 -0.545 180 136 109
0.102567 -0.3553 -0.595 195 146 141
0.103071 -0.349329 -0.585 192 143 138
0.107774 -0.336191 -0.563 188 138 131
0.130557 -0.331414 -0.555 183 130 116
0.137147 -0.332011 -0.556 174 121 105
0.14534 -0.333803 -0.559 158 105 89
0.151742 -0.336191 -0.563 147 93 83
0.172388 -0.340969 -0.571 132 83 76
0.173475 -0.340969 -0.571 132 83 76
0.174869 -0.341566 -0.572 132 83 78
0.193886 -0.346343 -0.58 124 80 77
0.19711 -0.348134 -0.583 122 78 75
0.204748 -0.351717 -0.589 116 76 74
0.216932 -0.358883 -0.601 114 78 78
0.4398 -0.3762 -0.63 254 253 255
0.447 -0.3762 -0.63 225 230 249
0.456846 -0.377394 -0.632 130 156 207
0.474903 -0.377394 -0.632 232 240 255
0.49935 -0.378589 -0.634 194 200 214
0.504181 -0.378589 -0.634 207 206 222
0.507804 -0.378589 -0.634 174 171 180
0.512634 -0.378589 -0.634 187 194 204
0.508158 -0.366646 -0.614 174 149 144
0.48307 -0.339177 -0.568 185 153 138
0.47988 -0.333206 -0.558 198 159 142
0.479108 -0.329026 -0.551 198 160 141
0.48308 -0.32604 -0.546 196 155 133
0.4896 -0.324846 -0.544 200 158 136
0.496059 -0.323651 -0.542 192 147 126
0.497205 -0.323054 -0.541 194 149 128
0.5122 -0.32604 -0.546 179 135 106
0.100974 -0.35883 -0.599 184 146 143
0.102306 -0.351641 -0.587 194 145 140
0.123379 -0.33307 -0.556 188 133 126
0.157941 -0.339061 -0.566 146 92 80
0.159019 -0.339061 -0.566 144 90 78
0.168829 -0.341457 -0.57 133 83 76
0.1713 -0.342056 -0.571 134 84 77
0.172388 -0.342056 -0.571 136 86 79
0.177357 -0.343254 -0.573 135 88 82
0.17876 -0.343853 -0.574 133 86 80
0.200698 -0.351641 -0.587 120 79 75
0.26166 -0.373207 -0.623 85 110 164
0.435508 -0.376801 -0.629 249 250 252
0.46694 -0.377999 -0.631 116 145 203
0.474151 -0.377999 -0.631 212 219 238
0.488272 -0.34625 -0.578 175 151 139
0.479606 -0.331872 -0.554 198 160 141
0.479108 -0.330075 -0.551 198 160 141
0.485455 -0.325882 -0.544 196 154 132
0.498235 -0.324085 -0.541 191 146 123
0.502357 -0.324085 -0.541 188 142 116
0.50535 -0.324684 -0.542 186 141 112
0.515222 -0.327679 -0.547 174 133 105
0.598784 -0.369612 -0.617 206 201 207
0.109529 -0.337134 -0.561 195 145 138
0.113397 -0.335932 -0.559 194 141 135
0.118296 -0.33473 -0.557 195 142 134
0.126329 -0.333529 -0.555 190 135 128
0.127386 -0.333529 -0.555 190 135 128
0.137147 -0.33413 -0.556 176 119 108
0.141637 -0.33473 -0.557 166 110 97
0.151742 -0.338336 -0.563 149 95 83
0.172388 -0.343144 -0.571 134 85 80
0.191676 -0.348552 -0.58 122 81 75
0.20579 -0.355764 -0.592 119 80 75
0.250577 -0.373792 -0.622 175 178 193
0.252947 -0.373792 -0.622 157 163 187
0.256501 -0.373792 -0.622 93 106 159
0.451083 -0.377999 -0.629 130 153 207
0.452281 -0.377999 -0.629 130 153 207
0.4566 -0.3786 -0.63 152 180 230
0.4578 -0.3786 -0.63 132 160 210
0.465 -0.3786 -0.63 148 178 232
0.4758 -0.3786 -0.63 234 236 251
0.480161 -0.379201 -0.631 188 185 194
0.486941 -0.379802 -0.632 188 193 212
0.498563 -0.380403 -0.633 181 186 205
0.499769 -0.380403 -0.633 170 175 194
0.507003 -0.380403 -0.633 193 192 190
0.507669 -0.367783 -0.612 174 146 142
0.493639 -0.352759 -0.587 173 148 141
0.481391 -0.337134 -0.561 191 152 137
0.486491 -0.326918 -0.544 196 154 130
0.489865 -0.325716 -0.542 200 155 132
0.5004 -0.324514 -0.54 190 143 117
1.15146 -0.381004 -0.634 201 203 189
0.1003 -0.3587 -0.595 186 138 136
0.101015 -0.353274 -0.586 194 145 140
0.101692 -0.344231 -0.571 191 142 137
0.104743 -0.340011 -0.564 198 145 139
0.10846 -0.338203 -0.561 197 144 138
0.118296 -0.335791 -0.557 193 140 132
0.123157 -0.334586 -0.555 188 133 126
0.128443 -0.334586 -0.555 180 126 116
0.151742 -0.339409 -0.563 148 94 82
0.155785 -0.341217 -0.566 148 94 82
0.16038 -0.34182 -0.567 140 88 77
0.166657 -0.343629 -0.57 138 85 77
0.169125 -0.344231 -0.571 132 83 76
0.206138 -0.357494 -0.593 119 82 76
0.209803 -0.359906 -0.597 119 82 76
0.211293 -0.360509 -0.598 118 83 79
0.239529 -0.374374 -0.621 174 170 187
0.245838 -0.374977 -0.622 178 177 195
0.443189 -0.378594 -0.628 254 255 255
0.448687 -0.379197 -0.629 154 163 202
0.4614 -0.3798 -0.63 119 145 202
0.4734 -0.3798 -0.63 215 224 255
0.483767 -0.380403 -0.631 225 227 240
0.500183 -0.381006 -0.632 198 200 213
0.5025 -0.363523 -0.603 172 144 140
0.489962 -0.349657 -0.58 178 151 142
0.484771 -0.343629 -0.57 183 151 138
0.47963 -0.330366 -0.548 197 156 136
0.487666 -0.327351 -0.543 199 157 133
1.15146 -0.382211 -0.634 202 204 191
0.0995 -0.361043 -0.597 196 145 142
0.100957 -0.346529 -0.573 193 144 139
0.103485 -0.340481 -0.563 199 146 140
0.138206 -0.336248 -0.556 175 118 107
0.140576 -0.336852 -0.557 166 109 98
0.141891 -0.337457 -0.558 162 105 94
0.1456 -0.338667 -0.56 153 95 84
0.15067 -0.340481 -0.563 148 95 81
0.1593 -0.3429 -0.567 145 91 79
0.165571 -0.344714 -0.57 140 88 77
0.174083 -0.346529 -0.573 131 84 74
0.207181 -0.360438 -0.596 119 82 76
0.251357 -0.375557 -0.621 104 109 139
0.256089 -0.375557 -0.621 154 167 199
0.257271 -0.375557 -0.621 132 145 177
0.452758 -0.37979 -0.628 175 194 237
0.463064 -0.380395 -0.629 154 181 236
0.464262 -0.380395 -0.629 176 203 255
0.473847 -0.380395 -0.629 214 224 255
0.489776 -0.381605 -0.631 216 219 238
0.495786 -0.381605 -0.631 201 206 226
0.49819 -0.381605 -0.631 210 211 229
0.504998 -0.38221 -0.632 202 209 215
0.509813 -0.38221 -0.632 192 192 216
0.482347 -0.32899 -0.544 202 159 140
0.512489 -0.328386 -0.543 172 133 104
1.14965 -0.382814 -0.633 202 204 191
0.0999809 -0.351867 -0.58 194 143 139
0.104186 -0.34034 -0.561 199 146 142
0.1072 -0.339733 -0.56 198 147 143
0.115113 -0.337913 -0.557 191 140 136
0.134786 -0.3367 -0.555 175 116 108
0.149597 -0.341553 -0.563 151 98 84
0.168037 -0.346407 -0.571 133 85 75
0.179071 -0.348833 -0.575 130 86 75
0.18409 -0.350047 -0.577 125 81 72
0.189467 -0.351867 -0.58 120 79 73
0.197344 -0.356113 -0.587 121 81 73
0.2057 -0.360967 -0.595 118 83 77
0.24859 -0.376133 -0.62 146 146 180
0.253723 -0.37674 -0.621 152 163 185
0.256089 -0.37674 -0.621 175 187 211
0.453954 -0.380987 -0.628 203 219 255
0.457543 -0.380987 -0.628 142 174 221
0.462328 -0.380987 -0.628 156 179 231
0.467112 -0.380987 -0.628 213 233 255
0.471897 -0.380987 -0.628 122 134 172
0.476243 -0.381593 -0.629 225 232 255
0.477441 -0.381593 -0.629 232 239 249
0.4914 -0.3822 -0.63 207 210 229
0.512612 -0.382807 -0.631 58 72 111
0.505 -0.36764 -0.606 173 144 140
0.501978 -0.364607 -0.601 173 144 140
0.497844 -0.359147 -0.592 173 146 139
0.48225 -0.340947 -0.562 195 151 138
0.479606 -0.336093 -0.554 196 157 140
0.485735 -0.328813 -0.542 198 155 136
0.48793 -0.328207 -0.541 201 158 139
0.49126 -0.326993 -0.539 195 150 129
0.495472 -0.326387 -0.538 192 147 124
0.496497 -0.326387 -0.538 189 144 121
0.510601 -0.328207 -0.541 175 133 109
0.51948 -0.33124 -0.546 172 130 108
0.59334 -0.36946 -0.609 210 206 205
0.0986667 -0.360274 -0.592 197 149 137
0.0989514 -0.357231 -0.587 194 146 134
0.104186 -0.341409 -0.561 198 145 139
0.106133 -0.3408 -0.56 199 146 140
0.108943 -0.339583 -0.558 199 146 140
0.119986 -0.337757 -0.555 191 137 127
0.129267 -0.337149 -0.554 183 123 115
0.131377 -0.337149 -0.554 178 118 110
0.132671 -0.337757 -0.555 174 114 106
0.150937 -0.343234 -0.564 149 95 83
0.154707 -0.344451 -0.566 149 95 83
0.159581 -0.345669 -0.568 139 89 78
0.18441 -0.351754 -0.578 125 82 75
0.203091 -0.361491 -0.594 116 80 68
0.252133 -0.377314 -0.62 146 156 192
0.259219 -0.377314 -0.62 174 182 201
0.439392 -0.380966 -0.626 244 248 251
0.444162 -0.380966 -0.626 151 161 188
0.459935 -0.382183 -0.628 151 174 228
0.483431 -0.382791 -0.629 219 214 218
0.485828 -0.382791 -0.629 230 230 240
0.4902 -0.3834 -0.63 224 227 244
0.507805 -0.384009 -0.631 194 193 207
0.514582 -0.382791 -0.629 180 186 208
0.47996 -0.33228 -0.546 201 159 143
0.519567 -0.331671 -0.545 169 127 103
0.104 -0.341867 -0.56 196 143 137
0.115757 -0.338814 -0.555 191 136 129
0.12188 -0.338204 -0.554 194 138 125
0.131377 -0.338204 -0.554 180 117 110
0.154707 -0.34553 -0.566 147 93 83
0.160946 -0.347361 -0.569 136 87 80
0.177189 -0.351634 -0.576 130 86 77
0.186152 -0.354076 -0.58 122 79 72
0.205598 -0.365065 -0.598 116 84 73
0.236399 -0.377885 -0.619 175 174 188
0.237578 -0.377885 -0.619 173 174 195
0.241115 -0.377885 -0.619 173 174 195
0.24701 -0.377885 -0.619 110 114 143
0.256857 -0.378495 -0.62 169 172 191
0.448931 -0.382158 -0.626 234 242 245
0.451316 -0.382158 -0.626 213 225 251
0.452509 -0.382158 -0.626 216 228 254
0.456814 -0.382769 -0.627 163 190 235
0.46398 -0.382769 -0.627 213 228 255
0.465174 -0.382769 -0.627 203 218 247
0.467563 -0.382769 -0.627 237 247 255
0.47234 -0.382769 -0.627 118 133 162
0.48027 -0.383379 -0.628 226 225 233
0.481467 -0.383379 -0.628 233 232 238
0.491818 -0.38399 -0.629 218 219 237
0.493016 -0.38399 -0.629 216 215 229
0.497809 -0.38399 -0.629 211 214 221
0.513384 -0.38399 -0.629 179 196 226
0.48671 -0.348582 -0.571 184 150 140
0.479108 -0.336372 -0.551 193 154 137
0.478755 -0.33393 -0.547 197 159 140
0.482638 -0.330878 -0.542 199 158 138
0.486 -0.329657 -0.54 202 160 136
0.498735 -0.327215 -0.536 192 151 121
0.0980238 -0.352119 -0.575 195 145 138
0.104879 -0.342321 -0.559 196 143 135
0.142146 -0.342321 -0.559 163 104 96
0.154707 -0.346608 -0.566 145 93 82
0.188226 -0.357018 -0.583 120 79 73
0.192543 -0.358855 -0.586 122 81 77
0.19432 -0.36008 -0.588 122 81 79
0.236017 -0.378451 -0.618 171 170 188
0.237194 -0.378451 -0.618 175 173 195
0.244257 -0.378451 -0.618 155 155 179
0.245434 -0.378451 -0.618 107 112 141
0.248966 -0.378451 -0.618 138 148 183
0.257622 -0.379064 -0.619 157 167 192
0.258801 -0.379064 -0.619 153 163 188
0.454893 -0.38335 -0.626 179 200 227
0.457278 -0.38335 -0.626 183 206 247
0.475923 -0.383963 -0.627 199 201 222
0.507 -0.3858 -0.63 162 167 186
0.5118 -0.3858 -0.63 140 154 189
0.485234 -0.347832 -0.568 183 149 139
0.483748 -0.345995 -0.565 187 153 143
0.484839 -0.331298 -0.541 198 158 133
0.487029 -0.330686 -0.54 202 162 137
0.48818 -0.330073 -0.539 201 159 135
0.495672 -0.328236 -0.536 188 147 119
0.517739 -0.33191 -0.542 165 130 102
1.14842 -0.386412 -0.631 202 204 191
0.0999114 -0.344614 -0.561 195 142 134
0.109611 -0.341543 -0.556 197 145 134
0.113438 -0.340314 -0.554 193 140 134
0.127156 -0.340314 -0.554 178 125 109
0.128211 -0.340314 -0.554 174 121 105
0.134786 -0.340929 -0.555 176 114 103
0.149863 -0.346457 -0.564 152 98 86
0.15498 -0.3483 -0.567 144 92 81
0.1725 -0.353214 -0.575 129 84 78
0.18426 -0.3569 -0.581 123 82 76
0.23484 -0.379629 -0.618 173 171 192
0.239549 -0.379629 -0.618 175 173 195
0.246611 -0.379629 -0.618 85 90 119
0.25956 -0.379629 -0.618 139 155 191
0.460119 -0.383929 -0.625 184 199 240
0.471587 -0.384543 -0.626 214 221 240
0.484283 -0.385157 -0.627 225 229 241
0.50979 -0.386386 -0.629 151 160 193
0.480943 -0.342771 -0.558 191 154 138
0.486 -0.331714 -0.54 202 161 141
0.49363 -0.329257 -0.536 198 153 132
0.501881 -0.328643 -0.535 189 145 120
0.515829 -0.331714 -0.54 166 131 101
0.0965914 -0.353077 -0.573 194 144 137
0.0973952 -0.348148 -0.565 195 145 136
0.10044 -0.343834 -0.558 195 142 134
0.126927 -0.340753 -0.553 182 126 109
0.147452 -0.346915 -0.563 153 96 89
0.163973 -0.352461 -0.572 132 89 82
0.166443 -0.353077 -0.573 130 87 80
0.170013 -0.353693 -0.574 127 84 77
0.175602 -0.356158 -0.578 129 86 79
0.187757 -0.360471 -0.585 121 82 75
0.23446 -0.38019 -0.617 173 170 191
0.23681 -0.38019 -0.617 170 167 188
0.241511 -0.38019 -0.617 176 176 200
0.252089 -0.38019 -0.617 195 191 206
0.370826 -0.382654 -0.621 248 249 251
0.374374 -0.382654 -0.621 172 175 192
0.498213 -0.386968 -0.628 215 213 224
0.504194 -0.386968 -0.628 152 160 179
0.50539 -0.386968 -0.628 108 116 135
0.500657 -0.366017 -0.594 176 148 144
0.489267 -0.353693 -0.574 180 150 140
0.486943 -0.351229 -0.57 184 152 141
0.479238 -0.335208 -0.544 199 157 141
0.479391 -0.334591 -0.543 199 157 141
0.483943 -0.332743 -0.54 201 158 141
0.488414 -0.330894 -0.537 197 155 133
0.494748 -0.329662 -0.535 196 151 130
0.497891 -0.329046 -0.534 195 150 127
0.499926 -0.329046 -0.534 192 147 124
0.502977 -0.329046 -0.534 185 141 116
0.51194 -0.330894 -0.537 177 133 104
0.517886 -0.332743 -0.54 167 131 105
0.520836 -0.333975 -0.542 165 129 103
0.0958914 -0.359731 -0.582 196 148 138
0.111328 -0.342425 -0.554 192 140 129
0.11534 -0.341807 -0.553 188 136 123
0.125646 -0.341189 -0.552 184 128 111
0.130087 -0.341807 -0.553 181 122 106
0.136088 -0.343661 -0.556 165 107 95
0.137393 -0.344279 -0.557 159 101 89
0.17031 -0.355405 -0.575 128 85 78
0.1731 -0.356641 -0.577 129 86 80
0.183784 -0.36035 -0.583 121 82 77
0.188078 -0.362204 -0.586 122 83 78
0.197767 -0.367767 -0.595 122 84 81
0.224693 -0.380747 -0.616 158 155 176
0.22704 -0.380747 -0.616 113 113 141
0.228213 -0.380747 -0.616 83 83 111
0.23211 -0.381365 -0.617 145 147 172
0.447967 -0.385073 -0.623 223 230 255
0.466514 -0.385691 -0.624 240 244 255
0.475595 -0.38631 -0.625 177 182 201
0.504194 -0.388164 -0.628 142 150 171
0.511371 -0.388164 -0.628 196 198 213
0.487797 -0.352932 -0.571 185 153 140
0.478755 -0.338098 -0.547 197 158 141
0.47892 -0.33748 -0.546 196 157 140
0.479687 -0.33439 -0.541 200 159 141
0.480857 -0.333771 -0.54 198 157 139
0.505081 -0.329445 -0.533 183 142 112
0.510033 -0.330681 -0.535 177 136 106
0.0983143 -0.34596 -0.558 195 143 132
0.119337 -0.34224 -0.552 193 140 126
0.151472 -0.35092 -0.566 139 92 84
0.159057 -0.3534 -0.57 130 85 79
0.166733 -0.35588 -0.574 130 85 80
0.195171 -0.36828 -0.594 121 86 80
0.223157 -0.3813 -0.615 152 152 176
0.245813 -0.38192 -0.616 179 184 206
0.257547 -0.38192 -0.616 118 133 164
0.25872 -0.38192 -0.616 136 156 191
0.456273 -0.38626 -0.623 192 210 248
0.466514 -0.38688 -0.624 241 245 255
0.467703 -0.38688 -0.624 242 246 255
0.479167 -0.3875 -0.625 218 219 249
0.502197 -0.38874 -0.627 158 168 195
0.49784 -0.36456 -0.588 181 151 141
0.482667 -0.3472 -0.56 189 152 136
0.479687 -0.33542 -0.541 197 159 140
0.4842 -0.33356 -0.538 201 160 140
0.485225 -0.33356 -0.538 199 158 138
0.48625 -0.33356 -0.538 198 156 134
0.491691 -0.3317 -0.535 199 154 131
0.50102 -0.33046 -0.533 187 146 118
0.504066 -0.33046 -0.533 186 145 117
0.504133 -0.32984 -0.532 185 144 114
1.14774 -0.38936 -0.628 202 204 191
0.0972514 -0.347023 -0.558 192 144 132
0.099021 -0.345779 -0.556 191 143 129
0.102886 -0.344535 -0.554 199 147 134
0.140016 -0.347645 -0.559 158 101 92
0.175105 -0.360705 -0.58 124 83 77
0.220455 -0.38185 -0.614 122 128 176
0.224329 -0.382471 -0.615 130 130 154
0.229014 -0.382471 -0.615 67 78 123
0.236043 -0.382471 -0.615 119 123 168
0.243071 -0.382471 -0.615 175 180 209
0.427603 -0.386203 -0.621 239 243 254
0.455541 -0.386825 -0.622 191 210 250
0.46814 -0.387447 -0.623 246 244 255
0.477211 -0.388069 -0.624 142 147 169
0.482738 -0.38869 -0.625 197 209 231
0.48828 -0.389312 -0.626 201 199 221
0.500204 -0.389312 -0.626 148 163 194
0.50578 -0.389934 -0.627 151 158 176
0.509743 -0.389312 -0.626 194 203 210
0.47892 -0.33956 -0.546 194 155 138
0.478357 -0.337694 -0.543 191 154 135
0.479541 -0.337072 -0.542 197 159 140
0.480857 -0.335829 -0.54 198 160 141
0.48202 -0.335207 -0.539 199 158 138
0.490671 -0.332719 -0.535 198 155 136
0.495013 -0.330853 -0.532 192 150 125
0.499067 -0.330853 -0.532 187 146 118
0.107967 -0.344967 -0.553 192 143 128
0.108823 -0.344343 -0.552 190 138 124
0.12122 -0.343719 -0.551 189 136 120
0.125646 -0.344343 -0.552 182 126 109
0.136332 -0.347462 -0.557 160 103 92
0.145308 -0.351205 -0.563 149 94 89
0.165929 -0.35869 -0.575 128 85 79
0.179957 -0.364929 -0.585 122 83 76
0.182497 -0.365552 -0.586 121 82 75
0.186797 -0.367424 -0.589 122 85 79
0.188238 -0.368048 -0.59 120 85 83
0.227472 -0.383019 -0.614 48 58 119
0.229014 -0.383643 -0.615 55 67 125
0.232529 -0.383643 -0.615 144 150 186
0.237214 -0.383643 -0.615 82 89 141
0.242676 -0.383019 -0.614 178 184 208
0.453171 -0.38801 -0.622 175 200 241
0.46028 -0.38801 -0.622 158 177 219
0.463393 -0.388633 -0.623 195 209 235
0.46458 -0.388633 -0.623 235 249 255
0.465767 -0.388633 -0.623 242 249 255
0.46814 -0.388633 -0.623 243 242 247
0.474834 -0.389257 -0.624 240 238 251
0.479589 -0.389257 -0.624 124 137 171
0.48631 -0.389881 -0.625 183 199 225
0.494643 -0.389881 -0.625 200 206 228
0.491824 -0.359938 -0.577 180 149 144
0.489506 -0.357443 -0.573 183 150 143
0.48418 -0.351205 -0.563 181 149 134
0.479977 -0.344343 -0.552 191 155 141
0.478755 -0.341224 -0.547 194 157 141
0.478656 -0.337481 -0.541 200 158 142
0.479829 -0.336857 -0.54 202 161 143
0.484442 -0.334362 -0.536 194 151 132
0.601797 -0.378652 -0.607 206 201 195
0.104807 -0.34602 -0.553 196 147 132
0.107771 -0.345394 -0.552 193 141 127
0.113873 -0.344769 -0.551 192 141 124
0.114923 -0.344769 -0.551 194 141 125
0.121 -0.344143 -0.55 188 135 117
0.124369 -0.344769 -0.551 183 128 108
0.142909 -0.351651 -0.562 149 96 88
0.159615 -0.357909 -0.572 131 84 78
0.23215 -0.384189 -0.614 135 141 177
0.236829 -0.384189 -0.614 70 82 132
0.428095 -0.387943 -0.62 195 203 224
0.432819 -0.387943 -0.62 156 171 200
0.470513 -0.38982 -0.623 243 240 249
0.494643 -0.391071 -0.625 187 197 224
0.498214 -0.391071 -0.625 95 114 154
0.506548 -0.391071 -0.625 192 194 206
0.507738 -0.391071 -0.625 189 191 203
0.506785 -0.377931 -0.604 175 147 136
0.478656 -0.338511 -0.541 198 159 144
0.4788 -0.337886 -0.54 197 158 143
0.4824 -0.335383 -0.536 199 158 140
0.484557 -0.334757 -0.535 195 152 135
0.488737 -0.334131 -0.534 198 155 136
0.492987 -0.33288 -0.532 194 152 128
0.496106 -0.332254 -0.531 181 139 115
0.509254 -0.332254 -0.531 173 133 107
0.0916114 -0.361509 -0.576 195 146 139
0.0967286 -0.348329 -0.555 197 149 135
0.09954 -0.347073 -0.553 198 150 136
0.110524 -0.34519 -0.55 191 140 121
0.123319 -0.345818 -0.551 181 126 106
0.124369 -0.345818 -0.551 181 126 105
0.131377 -0.347701 -0.554 170 114 97
0.135029 -0.348956 -0.556 160 107 91
0.138951 -0.350839 -0.559 150 98 87
0.145566 -0.353977 -0.564 143 92 88
0.1469 -0.354605 -0.565 141 90 86
0.153359 -0.357115 -0.569 133 86 80
0.158249 -0.35837 -0.571 134 87 81
0.159615 -0.358998 -0.572 131 84 78
0.167895 -0.362764 -0.578 124 81 75
0.169289 -0.363391 -0.579 125 82 76
0.176614 -0.367157 -0.585 122 82 74
0.213909 -0.384103 -0.612 150 148 172
0.217761 -0.38473 -0.613 57 60 91
0.450533 -0.389124 -0.62 164 183 223
0.481966 -0.391634 -0.624 161 176 215
0.483154 -0.391634 -0.624 174 187 221
0.490286 -0.391634 -0.624 76 106 160
0.497417 -0.391634 -0.624 102 121 161
0.504167 -0.392262 -0.625 203 205 217
0.509303 -0.391634 -0.624 200 199 204
0.5015 -0.373433 -0.595 174 146 142
0.499254 -0.370923 -0.591 173 148 141
0.48654 -0.35586 -0.567 177 149 135
0.478755 -0.343308 -0.547 192 156 142
0.478357 -0.340797 -0.543 188 149 134
0.480101 -0.337659 -0.538 200 158 142
0.480231 -0.337031 -0.537 196 154 138
0.485686 -0.335149 -0.534 199 156 137
0.486703 -0.335149 -0.534 200 157 138
0.491049 -0.333266 -0.531 195 153 131
0.525086 -0.338914 -0.54 166 130 108
0.0909752 -0.360088 -0.572 193 146 138
0.100411 -0.347497 -0.552 201 152 137
0.113667 -0.346238 -0.55 192 141 122
0.132671 -0.349386 -0.555 164 108 91
0.142909 -0.353792 -0.562 139 90 83
0.1485 -0.35694 -0.567 133 86 80
0.157161 -0.359458 -0.571 130 85 80
0.158526 -0.360088 -0.572 131 86 81
0.17098 -0.365753 -0.581 124 82 83
0.211577 -0.385269 -0.612 155 152 173
0.2244 -0.385269 -0.612 127 127 153
0.229437 -0.385898 -0.613 119 138 181
0.238778 -0.385898 -0.613 47 56 97
0.463089 -0.390934 -0.621 227 244 255
0.468573 -0.391564 -0.622 245 244 250
0.483567 -0.392193 -0.623 215 226 255
0.49504 -0.392823 -0.624 188 200 224
0.50336 -0.392823 -0.624 200 206 218
0.505737 -0.392823 -0.624 206 211 215
0.505412 -0.378344 -0.601 171 146 141
0.482519 -0.336795 -0.535 200 159 139
0.48792 -0.334907 -0.532 195 153 131
0.491049 -0.334277 -0.531 197 155 133
0.493152 -0.333648 -0.53 194 152 130
0.499337 -0.332389 -0.528 189 144 121
0.0898857 -0.361177 -0.572 194 148 135
0.09018 -0.35802 -0.567 191 144 136
0.0913629 -0.354231 -0.561 189 146 130
0.09936 -0.348549 -0.552 197 148 133
0.110323 -0.346654 -0.549 194 143 124
0.131377 -0.349811 -0.554 163 107 92
0.165693 -0.364966 -0.578 126 82 79
0.168476 -0.366229 -0.58 128 84 81
0.227897 -0.386434 -0.612 98 114 148
0.233726 -0.386434 -0.612 149 159 186
0.448628 -0.390854 -0.619 168 186 224
0.456881 -0.390854 -0.619 178 196 234
0.45806 -0.390854 -0.619 167 184 228
0.462343 -0.391486 -0.62 227 242 255
0.4895 -0.39338 -0.623 107 132 172
0.502171 -0.394011 -0.624 171 178 206
0.50374 -0.39338 -0.623 195 207 221
0.51086 -0.39338 -0.623 197 195 200
0.51241 -0.392749 -0.622 140 143 158
0.500944 -0.374437 -0.593 173 146 139
0.492923 -0.364334 -0.577 179 148 145
0.478043 -0.344129 -0.545 193 156 138
0.4815 -0.337814 -0.535 199 158 138
0.484776 -0.336551 -0.533 198 156 134
0.498391 -0.332763 -0.527 189 145 120
0.08832 -0.3648 -0.576 191 149 137
0.0912781 -0.350867 -0.554 194 146 134
0.102329 -0.348967 -0.551 196 147 130
0.114506 -0.3477 -0.549 194 143 126
0.13397 -0.352133 -0.556 153 100 86
0.140768 -0.355933 -0.562 139 91 79
0.14209 -0.356567 -0.563 134 90 81
0.151191 -0.360367 -0.569 130 85 79
0.163209 -0.365433 -0.577 127 84 78
0.219378 -0.386967 -0.611 168 166 188
0.462343 -0.392667 -0.62 228 242 255
0.463524 -0.392667 -0.62 238 245 255
0.469003 -0.3933 -0.621 245 243 255
0.498192 -0.393933 -0.622 198 204 228
0.50018 -0.394567 -0.623 173 181 202
0.506113 -0.394567 -0.623 197 209 225
0.504029 -0.378733 -0.598 171 146 141
0.47946 -0.3477 -0.549 189 153 139
0.478755 -0.346433 -0.547 191 155 141
0.478186 -0.3401 -0.537 199 157 141
0.487003 -0.3363 -0.531 198 156 134
0.492222 -0.335033 -0.529 197 155 131
0.49323 -0.335033 -0.529 195 153 129
0.495314 -0.3344 -0.528 185 143 119
0.49945 -0.333133 -0.526 188 144 117
0.502455 -0.333133 -0.526 187 143 114
0.503457 -0.333133 -0.526 183 139 110
0.506463 -0.333133 -0.526 181 139 115
0.50843 -0.333767 -0.527 179 137 113
0.0939324 -0.350016 -0.551 197 150 132
0.0949819 -0.350016 -0.551 197 150 132
0.10614 -0.348746 -0.549 197 146 129
0.111166 -0.34811 -0.548 197 146 129
0.11221 -0.34811 -0.548 195 144 127
0.129033 -0.351287 -0.553 172 113 97
0.14209 -0.357639 -0.563 132 89 80
0.148762 -0.360815 -0.568 124 86 77
0.160452 -0.365262 -0.575 124 83 79
0.166267 -0.368438 -0.58 124 84 82
0.17075 -0.370979 -0.584 122 84 81
0.175578 -0.374155 -0.589 120 85 83
0.2074 -0.387495 -0.61 156 152 175
0.219019 -0.387495 -0.61 168 163 183
0.229852 -0.38813 -0.611 166 171 201
0.231016 -0.38813 -0.611 172 177 207
0.234508 -0.38813 -0.611 171 184 200
0.452165 -0.393212 -0.619 192 212 247
0.459239 -0.393212 -0.619 168 183 226
0.460418 -0.393212 -0.619 205 216 244
0.495823 -0.395118 -0.622 215 216 236
0.499377 -0.395118 -0.622 199 208 225
0.502931 -0.395118 -0.622 150 163 182
0.479583 -0.339217 -0.534 197 156 138
0.483761 -0.338582 -0.533 199 158 138
0.485991 -0.337311 -0.531 197 155 133
0.493303 -0.335406 -0.528 194 152 128
0.4985 -0.3335 -0.525 188 144 117
0.5035 -0.3335 -0.525 181 137 110
0.507465 -0.334135 -0.526 181 139 114
0.510437 -0.33477 -0.527 180 140 114
0.0850971 -0.372091 -0.584 196 154 142
0.08694 -0.36126 -0.567 193 151 139
0.0948095 -0.350429 -0.55 198 151 135
0.0967286 -0.349791 -0.549 201 152 137
0.110122 -0.349154 -0.548 194 143 124
0.111166 -0.349154 -0.548 197 145 124
0.13315 -0.354889 -0.557 153 96 79
0.141018 -0.358711 -0.563 136 89 79
0.228314 -0.388657 -0.61 171 177 199
0.454966 -0.393754 -0.618 194 210 246
0.466313 -0.394391 -0.619 241 243 255
0.467492 -0.394391 -0.619 233 234 254
0.476514 -0.395029 -0.62 226 234 253
0.485563 -0.395666 -0.621 184 196 218
0.486746 -0.395666 -0.621 184 196 218
0.497391 -0.395666 -0.621 205 210 239
0.505671 -0.395666 -0.621 197 195 208
0.504871 -0.381649 -0.599 171 147 143
0.477476 -0.345331 -0.542 193 156 138
0.478051 -0.342783 -0.538 192 154 135
0.478316 -0.341509 -0.536 197 159 138
0.48488 -0.33896 -0.532 202 160 138
0.503539 -0.333863 -0.524 177 138 109
0.5075 -0.3345 -0.525 183 140 108
0.515397 -0.337049 -0.529 172 135 109
0.0853781 -0.364896 -0.571 195 151 138
0.0863267 -0.359784 -0.563 196 154 140
0.0869333 -0.357867 -0.56 197 153 140
0.114089 -0.349559 -0.547 196 145 124
0.124143 -0.351476 -0.55 184 131 113
0.135757 -0.357228 -0.559 150 97 83
0.141269 -0.360423 -0.564 134 87 79
0.14526 -0.36234 -0.567 128 87 81
0.14768 -0.362979 -0.568 127 87 85
0.149024 -0.363618 -0.569 126 86 84
0.155529 -0.366174 -0.573 128 87 81
0.156893 -0.366813 -0.574 129 88 82
0.162671 -0.370009 -0.579 124 86 85
0.168814 -0.373843 -0.585 121 86 82
0.170219 -0.374482 -0.586 121 87 77
0.20093 -0.388541 -0.608 137 139 162
0.2059 -0.38918 -0.609 129 134 172
0.20822 -0.38918 -0.609 81 85 132
0.2117 -0.38918 -0.609 124 126 164
0.21402 -0.38918 -0.609 164 162 183
0.22678 -0.38918 -0.609 170 171 191
0.460418 -0.39557 -0.619 203 215 241
0.484781 -0.39621 -0.62 209 216 235
0.490686 -0.39621 -0.62 216 223 242
0.508037 -0.396849 -0.621 163 166 171
0.510762 -0.39621 -0.62 177 184 194
0.505714 -0.383429 -0.6 171 146 139
0.49083 -0.365535 -0.572 174 149 142
0.477626 -0.345725 -0.541 199 158 136
0.478316 -0.34253 -0.536 198 157 139
0.48184 -0.339973 -0.532 202 159 140
0.492436 -0.336139 -0.526 196 152 125
0.4955 -0.3355 -0.525 191 147 118
0.496552 -0.334861 -0.524 191 147 118
0.516405 -0.338056 -0.529 168 130 107
0.0864676 -0.35701 -0.557 200 157 140
0.0935914 -0.351883 -0.549 201 154 134
0.100728 -0.351242 -0.548 198 150 130
0.101771 -0.351242 -0.548 198 150 130
0.105753 -0.350601 -0.547 194 143 122
0.106795 -0.350601 -0.547 194 143 122
0.107837 -0.350601 -0.547 193 142 121
0.108879 -0.350601 -0.547 192 141 120
0.130557 -0.355729 -0.555 153 101 88
0.133389 -0.357651 -0.558 150 98 85
0.146598 -0.364061 -0.568 128 87 83
0.14794 -0.364702 -0.569 127 88 83
0.153078 -0.366625 -0.572 132 89 82
0.198287 -0.389058 -0.607 113 118 148
0.20706 -0.39034 -0.609 73 78 118
0.2117 -0.39034 -0.609 149 149 183
0.23142 -0.39034 -0.609 176 181 200
0.23374 -0.39034 -0.609 179 185 197
0.426986 -0.394186 -0.615 252 252 252
0.428157 -0.394186 -0.615 254 249 255
0.45658 -0.395468 -0.617 188 203 232
0.469091 -0.396109 -0.618 147 153 177
0.490686 -0.39739 -0.62 219 224 243
0.5084 -0.39739 -0.62 199 203 215
0.509938 -0.39675 -0.619 174 181 197
0.505714 -0.384571 -0.6 173 148 141
0.49779 -0.374316 -0.584 168 145 137
0.481716 -0.355088 -0.554 186 153 138
0.47946 -0.351883 -0.549 191 153 134
0.478186 -0.344191 -0.537 197 159 138
0.478443 -0.34291 -0.535 201 160 140
0.491434 -0.337141 -0.526 193 149 122
0.492436 -0.337141 -0.526 195 151 124
0.4945 -0.3365 -0.525 193 149 122
0.496552 -0.335859 -0.524 191 147 118
0.503606 -0.334577 -0.522 187 143 116
0.606013 -0.385853 -0.602 214 210 209
0.0852533 -0.357429 -0.556 200 157 140
0.0860019 -0.356143 -0.554 202 157 138
0.0895714 -0.353571 -0.55 202 157 138
0.0975962 -0.352286 -0.548 201 154 136
0.11076 -0.351 -0.546 196 146 123
0.130792 -0.357429 -0.556 150 100 89
0.137556 -0.361286 -0.562 139 92 84
0.145516 -0.365143 -0.568 127 86 80
0.150635 -0.367071 -0.571 129 89 79
0.166301 -0.375429 -0.584 122 84 83
0.200599 -0.390214 -0.607 137 143 175
0.202911 -0.390214 -0.607 137 145 181
0.204404 -0.390857 -0.608 108 116 152
0.210194 -0.390857 -0.608 145 146 176
0.213669 -0.390857 -0.608 164 162 183
0.214827 -0.390857 -0.608 168 167 181
0.218301 -0.390857 -0.608 114 112 115
0.23104 -0.390857 -0.608 177 182 201
0.442214 -0.395357 -0.615 242 244 255
0.443386 -0.395357 -0.615 231 233 245
0.447627 -0.396 -0.616 218 231 250
0.449973 -0.396 -0.616 166 182 218
0.460106 -0.396643 -0.617 221 231 255
0.462456 -0.396643 -0.617 244 245 255
0.46556 -0.397286 -0.618 177 174 193
0.466737 -0.397286 -0.618 167 167 191
0.4738 -0.397286 -0.618 231 238 254
0.487536 -0.397929 -0.619 219 225 241
0.491073 -0.397929 -0.619 215 221 237
0.49659 -0.398571 -0.62 210 219 234
0.500133 -0.398571 -0.62 208 210 231
0.511469 -0.397286 -0.618 157 168 190
0.491689 -0.368357 -0.573 171 146 139
0.4902 -0.366429 -0.57 171 146 139
0.480934 -0.341357 -0.531 200 158 136
0.481946 -0.341357 -0.531 199 157 135
0.484251 -0.339429 -0.528 199 157 133
0.494556 -0.336857 -0.524 193 149 122
0.495554 -0.336857 -0.524 192 148 121
0.502641 -0.334929 -0.521 186 142 113
0.503633 -0.334929 -0.521 186 141 112
0.0883629 -0.353974 -0.549 201 156 137
0.0953343 -0.352685 -0.547 199 152 136
0.0995019 -0.352685 -0.547 197 148 131
0.10764 -0.35204 -0.546 196 145 126
0.117214 -0.352685 -0.547 191 140 119
0.123095 -0.354619 -0.55 180 128 107
0.128211 -0.357198 -0.554 149 97 76
0.133389 -0.359777 -0.558 143 95 85
0.140194 -0.363646 -0.564 135 91 82
0.156343 -0.371383 -0.576 122 82 82
0.195651 -0.390726 -0.606 85 100 133
0.213669 -0.392015 -0.608 164 165 183
0.232972 -0.39137 -0.607 185 191 205
0.235285 -0.39137 -0.607 186 193 203
0.458187 -0.397173 -0.616 211 222 252
0.463631 -0.397818 -0.617 228 226 247
0.464807 -0.397818 -0.617 191 189 210
0.465982 -0.397818 -0.617 153 154 182
0.476559 -0.397818 -0.617 231 237 251
0.483217 -0.398463 -0.618 221 226 245
0.496969 -0.399108 -0.619 211 217 231
0.498379 -0.37783 -0.586 164 139 132
0.49634 -0.374607 -0.581 171 142 134
0.492547 -0.370093 -0.574 173 146 139
0.478202 -0.35075 -0.544 194 153 133
0.479813 -0.343013 -0.532 203 161 139
0.48757 -0.337855 -0.524 194 150 125
0.496601 -0.33721 -0.523 192 148 123
0.499664 -0.335921 -0.521 190 147 115
0.503657 -0.335276 -0.52 183 138 107
0.512522 -0.337855 -0.524 170 134 112
0.08078 -0.373127 -0.577 202 159 142
0.085381 -0.355667 -0.55 202 157 138
0.10036 -0.35308 -0.546 192 143 126
0.10868 -0.35308 -0.546 198 147 128
0.119516 -0.354373 -0.548 184 133 112
0.129733 -0.359547 -0.556 145 97 87
0.196806 -0.39188 -0.606 94 109 152
0.214473 -0.392527 -0.607 166 168 183
0.216786 -0.392527 -0.607 172 170 184
0.223723 -0.392527 -0.607 135 134 150
0.224879 -0.392527 -0.607 155 154 170
0.227191 -0.392527 -0.607 175 178 195
0.394594 -0.39576 -0.612 235 246 255
0.451586 -0.3977 -0.615 146 174 224
0.452757 -0.3977 -0.615 134 167 218
0.467157 -0.398993 -0.617 160 161 191
0.468332 -0.398993 -0.617 199 203 228
0.489103 -0.39964 -0.618 218 224 240
0.491457 -0.39964 -0.618 214 220 234
0.494989 -0.39964 -0.618 214 222 233
0.504043 -0.400287 -0.619 168 170 185
0.49106 -0.369247 -0.571 176 147 141
0.4819 -0.357607 -0.553 184 151 136
0.479797 -0.353727 -0.547 191 153 132
0.477027 -0.347907 -0.538 193 155 134
0.47767 -0.344673 -0.533 201 160 138
0.478685 -0.344673 -0.533 202 161 139
0.48757 -0.338853 -0.524 196 154 129
0.504648 -0.336267 -0.52 185 141 112
0.51352 -0.338853 -0.524 170 132 109
0.0819286 -0.359957 -0.555 202 160 144
0.088041 -0.354769 -0.547 201 155 139
0.09724 -0.35412 -0.546 198 151 131
0.118256 -0.354769 -0.547 188 137 118
0.12078 -0.356066 -0.549 176 125 106
0.124369 -0.357363 -0.551 157 104 86
0.133628 -0.362551 -0.559 139 92 84
0.144434 -0.368389 -0.568 130 86 77
0.149548 -0.370334 -0.571 129 85 76
0.20604 -0.393034 -0.606 144 150 184
0.21412 -0.393034 -0.606 169 171 186
0.224509 -0.393034 -0.606 140 142 155
0.234897 -0.393034 -0.606 187 194 213
0.470683 -0.400169 -0.617 232 237 243
0.504406 -0.400817 -0.618 144 145 163
0.501506 -0.383306 -0.591 160 133 126
0.481207 -0.357363 -0.551 189 152 134
0.477027 -0.348931 -0.538 192 156 134
0.495694 -0.337906 -0.521 191 150 122
0.498671 -0.337906 -0.521 189 148 118
0.507619 -0.337257 -0.52 177 135 110
0.0908333 -0.35451 -0.545 205 154 135
0.0970619 -0.35451 -0.545 198 151 133
0.100176 -0.35451 -0.545 193 144 127
0.119516 -0.356461 -0.548 181 130 113
0.123095 -0.357762 -0.55 165 112 96
0.128443 -0.361014 -0.555 142 91 74
0.133628 -0.363616 -0.559 138 91 83
0.14177 -0.36817 -0.566 133 86 76
0.147114 -0.370771 -0.57 130 86 77
0.14846 -0.371422 -0.571 131 84 74
0.160189 -0.378577 -0.582 124 80 79
0.200269 -0.394189 -0.606 33 51 101
0.2057 -0.393538 -0.605 154 159 191
0.217224 -0.393538 -0.605 157 154 171
0.451285 -0.398742 -0.613 106 141 199
0.45319 -0.399392 -0.614 113 148 206
0.45436 -0.399392 -0.614 135 165 219
0.45553 -0.399392 -0.614 173 203 255
0.47344 -0.400693 -0.616 242 240 241
0.498889 -0.401344 -0.617 177 176 172
0.502354 -0.385082 -0.592 167 140 133
0.491286 -0.370771 -0.57 172 145 136
0.488916 -0.36817 -0.566 173 146 137
0.484999 -0.363616 -0.559 178 150 138
0.483455 -0.361665 -0.556 182 149 134
0.47767 -0.346704 -0.533 200 159 137
0.49371 -0.338898 -0.521 191 150 120
