ply
format ascii 1.0
comment Created by Open3D
element vertex 1316
property double x
property double y
property double z
property uchar red
property uchar green
property uchar blue
end_header
0.46374 -0.252351 -0.531 155 102 86
0.497767 -0.259005 -0.545 149 98 81
-0.133903 -0.306326 -0.642 108 108 118
-0.103084 -0.285331 -0.598 82 81 89
-0.10034 -0.29058 -0.609 74 75 80
-0.0988248 -0.292966 -0.614 71 72 77
-0.0955267 -0.29726 -0.623 63 62 70
-0.0946429 -0.298214 -0.625 60 59 67
-0.0892581 -0.300123 -0.629 57 56 64
-0.0858 -0.3006 -0.63 59 58 66
-0.0847343 -0.301077 -0.631 62 61 67
-0.0674457 -0.304417 -0.638 74 73 79
-0.0651171 -0.304894 -0.639 75 74 80
-0.0534429 -0.307757 -0.645 71 70 76
0.077619 -0.238571 -0.5 183 138 135
0.0781 -0.23714 -0.497 183 138 135
0.0884124 -0.229506 -0.481 172 119 113
0.0942343 -0.228074 -0.478 172 117 112
0.0994886 -0.227597 -0.477 161 109 96
0.106981 -0.228074 -0.478 143 92 88
0.114743 -0.229029 -0.48 123 78 72
0.1219 -0.23046 -0.483 115 72 66
0.159826 -0.241911 -0.507 114 69 72
0.164334 -0.242866 -0.509 119 79 80
0.174457 -0.246206 -0.516 109 70 75
0.179125 -0.248591 -0.521 97 65 68
0.362062 -0.260997 -0.547 103 80 86
0.384057 -0.269109 -0.564 109 83 84
0.387666 -0.268631 -0.563 149 109 109
0.390563 -0.267677 -0.561 154 108 108
0.40281 -0.262429 -0.55 150 104 104
0.403123 -0.261951 -0.549 151 105 105
0.410567 -0.260043 -0.545 148 101 95
0.415266 -0.259089 -0.543 146 99 93
0.423257 -0.257657 -0.54 154 104 95
0.42658 -0.25718 -0.539 151 101 92
0.441757 -0.255271 -0.535 163 107 92
0.443983 -0.254794 -0.534 158 105 91
0.466774 -0.253363 -0.531 156 100 85
0.471707 -0.25384 -0.532 158 105 89
0.477549 -0.254794 -0.534 158 102 87
-0.108643 -0.280243 -0.585 93 94 99
-0.0593086 -0.307549 -0.642 71 72 77
-0.0581762 -0.308028 -0.643 71 72 77
-0.0511438 -0.309944 -0.647 70 71 76
0.0774638 -0.239045 -0.499 183 138 135
0.0804038 -0.233775 -0.488 177 129 127
0.0836048 -0.232338 -0.485 175 124 121
0.0851 -0.23138 -0.483 175 124 121
0.0893286 -0.230422 -0.481 172 117 114
0.103123 -0.228506 -0.477 153 101 87
0.108117 -0.229464 -0.479 143 90 82
0.112 -0.229943 -0.48 128 83 77
0.123996 -0.231859 -0.484 116 72 69
0.142666 -0.240003 -0.501 112 71 69
0.36814 -0.264913 -0.553 62 40 42
0.403857 -0.263476 -0.55 154 104 103
0.404476 -0.262518 -0.548 151 103 99
0.407906 -0.262039 -0.547 147 98 93
0.409529 -0.261081 -0.545 148 101 95
0.429089 -0.257249 -0.537 156 104 91
0.435643 -0.25629 -0.535 163 110 96
0.446017 -0.255811 -0.534 159 106 90
0.447034 -0.255811 -0.534 160 107 91
0.455649 -0.254374 -0.531 157 101 84
0.475639 -0.255332 -0.533 157 101 84
0.50076 -0.26156 -0.546 148 97 80
0.502719 -0.262039 -0.547 148 97 80
-0.11441 -0.281838 -0.586 97 97 105
-0.093 -0.303 -0.63 61 60 68
-0.0800533 -0.303962 -0.632 66 65 71
-0.0755952 -0.305405 -0.635 70 69 75
-0.0743857 -0.305405 -0.635 71 70 76
-0.0732914 -0.305886 -0.636 72 71 77
-0.07208 -0.305886 -0.636 72 71 77
-0.0617543 -0.308771 -0.642 72 72 80
0.0819257 -0.233743 -0.486 177 124 118
0.0909714 -0.230857 -0.48 170 117 111
0.0928 -0.230857 -0.48 170 117 111
0.0953438 -0.230376 -0.479 169 116 110
0.100608 -0.229895 -0.478 160 106 96
0.111086 -0.230857 -0.48 130 85 80
0.12006 -0.2323 -0.483 115 74 70
0.147652 -0.242881 -0.505 106 66 64
0.1666 -0.245286 -0.51 121 76 81
0.17646 -0.249614 -0.519 103 67 69
0.17779 -0.250095 -0.52 102 66 68
0.1815 -0.2525 -0.525 91 60 65
0.187663 -0.256829 -0.534 253 251 255
0.376 -0.269333 -0.56 94 70 70
0.38689 -0.271738 -0.565 160 114 116
0.392 -0.269333 -0.56 154 114 112
0.405822 -0.263081 -0.547 143 95 91
0.406864 -0.263081 -0.547 144 95 90
0.424286 -0.259714 -0.54 154 104 95
0.437681 -0.25731 -0.535 165 112 98
0.445 -0.256829 -0.534 160 102 88
0.455649 -0.255386 -0.531 163 106 87
1.14087 -0.309252 -0.643 203 207 193
-0.133903 -0.309994 -0.642 99 102 109
-0.10957 -0.281989 -0.584 92 93 98
-0.0989857 -0.296957 -0.615 78 79 84
-0.08848 -0.305166 -0.632 55 53 64
-0.0859362 -0.304683 -0.631 57 55 66
-0.0836648 -0.305166 -0.632 60 59 65
0.0777857 -0.239014 -0.495 181 133 129
0.0788667 -0.2366 -0.49 180 132 128
0.0937143 -0.231771 -0.48 170 117 111
0.117057 -0.232737 -0.482 121 77 74
0.124252 -0.234186 -0.485 116 72 71
0.1464 -0.24336 -0.504 104 65 66
0.15886 -0.244809 -0.507 111 72 73
0.159826 -0.244809 -0.507 113 74 75
0.175133 -0.25012 -0.518 104 65 66
0.178132 -0.251569 -0.521 90 58 59
0.377729 -0.279574 -0.579 128 85 94
0.37422 -0.27378 -0.567 153 112 120
0.375202 -0.271366 -0.562 101 69 74
0.38981 -0.271849 -0.563 156 112 111
0.402492 -0.266054 -0.551 151 101 100
0.40281 -0.265571 -0.55 152 101 100
0.4082 -0.26364 -0.546 144 97 91
0.410567 -0.263157 -0.545 145 98 90
0.427838 -0.259777 -0.538 154 105 91
0.459838 -0.255914 -0.53 161 105 90
0.462867 -0.255914 -0.53 156 100 85
0.468924 -0.255914 -0.53 161 105 90
0.482519 -0.258329 -0.535 153 100 82
0.49126 -0.26026 -0.539 150 97 79
0.50677 -0.264606 -0.548 149 101 79
-0.133694 -0.310732 -0.641 100 100 110
-0.117438 -0.28601 -0.59 96 99 104
-0.111411 -0.282131 -0.582 93 96 101
-0.0919457 -0.305885 -0.631 59 59 67
0.0758762 -0.249168 -0.514 182 138 137
0.0777857 -0.239957 -0.495 179 131 127
0.08602 -0.23414 -0.483 178 125 121
0.0946286 -0.232686 -0.48 169 116 112
0.107205 -0.232201 -0.479 147 94 86
0.108117 -0.232201 -0.479 144 91 83
0.116139 -0.233655 -0.482 123 80 74
0.123074 -0.234625 -0.484 116 72 71
0.148614 -0.244805 -0.505 102 64 63
0.149576 -0.244805 -0.505 100 62 61
0.153066 -0.245774 -0.507 92 53 54
0.15886 -0.245774 -0.507 111 71 72
0.164334 -0.246744 -0.509 121 79 81
0.173474 -0.250137 -0.516 105 69 69
0.391577 -0.273406 -0.564 150 104 104
0.3934 -0.272436 -0.562 150 104 104
0.402171 -0.267589 -0.552 153 104 100
0.414994 -0.26371 -0.544 149 99 92
0.424041 -0.262256 -0.541 154 102 91
0.446017 -0.258863 -0.534 158 105 89
0.448051 -0.258863 -0.534 157 104 88
0.45666 -0.257409 -0.531 161 105 88
0.468039 -0.256439 -0.529 162 106 89
0.469047 -0.256439 -0.529 160 104 87
0.470943 -0.256924 -0.53 158 102 85
0.477787 -0.257893 -0.532 156 103 85
-0.114019 -0.284213 -0.584 96 100 103
-0.101167 -0.295407 -0.607 88 89 91
-0.09614 -0.30514 -0.627 71 72 76
-0.0932952 -0.307573 -0.632 62 63 68
-0.0778914 -0.308547 -0.634 63 62 70
-0.0642 -0.31244 -0.642 73 72 80
0.0885962 -0.234573 -0.482 173 120 116
0.0946286 -0.2336 -0.48 168 115 111
0.107205 -0.233113 -0.479 147 94 86
0.108117 -0.233113 -0.479 144 91 83
0.111086 -0.2336 -0.48 130 85 80
0.11315 -0.234087 -0.481 129 84 79
0.116139 -0.234573 -0.482 123 78 73
0.12636 -0.23652 -0.486 119 75 76
0.1679 -0.248687 -0.511 117 74 83
0.172157 -0.250633 -0.515 112 69 76
0.178816 -0.254527 -0.523 92 63 65
0.381257 -0.28032 -0.576 127 80 90
0.385561 -0.277887 -0.571 142 96 98
0.387736 -0.277887 -0.571 145 99 101
0.397689 -0.272047 -0.559 148 100 98
0.403542 -0.268153 -0.551 153 104 99
0.405214 -0.26718 -0.549 150 99 95
0.412643 -0.265233 -0.545 149 99 92
0.414994 -0.264747 -0.544 148 98 89
0.436662 -0.260367 -0.535 163 110 94
0.446017 -0.25988 -0.534 154 101 85
0.449069 -0.25988 -0.534 159 106 90
0.457671 -0.25842 -0.531 157 101 84
0.460848 -0.257933 -0.53 162 106 89
0.466024 -0.257447 -0.529 162 106 89
0.505033 -0.265233 -0.545 149 98 79
-0.135126 -0.313663 -0.642 99 99 109
-0.113824 -0.284837 -0.583 96 99 104
-0.110303 -0.284349 -0.582 91 94 99
-0.100505 -0.298029 -0.61 88 89 93
-0.0952486 -0.307311 -0.629 71 72 77
-0.0943495 -0.308289 -0.631 67 68 73
-0.0922371 -0.309266 -0.633 63 64 69
-0.0827219 -0.309754 -0.634 55 54 62
-0.0676571 -0.312686 -0.64 72 71 79
-0.0665419 -0.313174 -0.641 72 71 79
0.0760171 -0.245263 -0.502 183 137 137
0.080239 -0.237934 -0.487 175 124 120
0.12006 -0.23598 -0.483 120 75 72
0.123074 -0.236469 -0.484 119 75 74
0.154031 -0.247706 -0.507 107 68 69
0.396611 -0.274577 -0.562 146 98 94
0.40085 -0.271646 -0.556 147 98 93
0.401518 -0.270669 -0.554 147 98 93
0.403953 -0.27018 -0.553 152 103 98
0.408948 -0.267249 -0.547 144 94 87
0.419663 -0.264806 -0.542 147 97 88
0.432373 -0.261874 -0.536 161 109 95
0.435643 -0.261386 -0.535 160 108 94
0.445 -0.260897 -0.534 157 104 88
0.492398 -0.262851 -0.538 151 100 83
0.500189 -0.264806 -0.542 157 106 89
-0.12212 -0.295267 -0.602 94 97 102
-0.110303 -0.285457 -0.582 91 94 101
-0.0998314 -0.300662 -0.613 88 89 94
-0.0910314 -0.310471 -0.633 59 60 65
-0.08876 -0.310962 -0.634 54 55 60
0.0774714 -0.241805 -0.493 179 130 126
0.0788667 -0.240333 -0.49 178 127 123
0.0946286 -0.235429 -0.48 168 115 109
0.10903 -0.234938 -0.479 137 87 78
0.125176 -0.237881 -0.485 120 76 75
0.1261 -0.237881 -0.485 120 76 75
0.139071 -0.242786 -0.495 113 72 70
0.156619 -0.248181 -0.506 107 67 67
0.1795 -0.2575 -0.525 91 65 68
0.387618 -0.28889 -0.589 126 81 88
0.387001 -0.285948 -0.583 125 78 86
0.392773 -0.280552 -0.572 146 96 95
0.393571 -0.279571 -0.57 146 96 95
0.393965 -0.279081 -0.569 147 97 96
0.404274 -0.270743 -0.552 150 100 93
0.408351 -0.269271 -0.549 147 97 90
0.41236 -0.2678 -0.546 146 96 87
0.419663 -0.265838 -0.542 148 98 89
0.420695 -0.265838 -0.542 150 100 89
0.431134 -0.263386 -0.537 158 109 94
0.433394 -0.262895 -0.536 159 107 93
0.436457 -0.262895 -0.536 161 109 95
0.45448 -0.260933 -0.532 161 105 88
0.465143 -0.258971 -0.528 166 110 95
0.47599 -0.259952 -0.53 157 101 86
0.489547 -0.262895 -0.536 154 101 87
0.491483 -0.263386 -0.537 152 99 85
0.50318 -0.266329 -0.543 153 102 85
-0.121917 -0.295921 -0.601 94 98 101
-0.0973343 -0.308723 -0.627 79 80 85
-0.0817714 -0.313154 -0.636 53 52 60
-0.0700952 -0.315124 -0.64 70 69 77
0.0939095 -0.236835 -0.481 169 116 110
0.0948257 -0.236835 -0.481 169 116 110
0.106292 -0.23585 -0.479 143 93 86
0.124252 -0.238805 -0.485 121 76 73
0.131528 -0.240282 -0.488 121 77 74
0.17782 -0.257515 -0.523 88 61 66
0.183574 -0.261454 -0.531 185 173 187
0.394952 -0.281642 -0.572 144 94 93
0.4016 -0.275733 -0.56 142 93 89
0.418369 -0.267363 -0.543 148 100 90
0.425314 -0.265886 -0.54 156 107 92
0.426343 -0.265886 -0.54 158 109 94
0.432373 -0.263916 -0.536 160 108 94
0.442776 -0.263424 -0.535 155 102 86
0.443983 -0.262931 -0.534 150 97 79
0.447034 -0.262931 -0.534 157 104 86
0.461993 -0.26047 -0.529 160 104 89
0.492506 -0.264409 -0.537 152 99 83
-0.116841 -0.290146 -0.587 94 97 102
-0.112133 -0.286686 -0.58 96 99 104
-0.0973343 -0.309917 -0.627 79 80 85
-0.0925286 -0.313871 -0.635 64 65 69
0.0861981 -0.239234 -0.484 174 123 120
0.0913505 -0.238246 -0.482 171 118 114
0.0939095 -0.237751 -0.481 170 117 113
0.0973714 -0.237257 -0.48 168 113 108
0.0992 -0.237257 -0.48 163 110 104
0.12098 -0.23874 -0.483 126 78 74
0.129137 -0.240223 -0.486 124 80 77
0.395819 -0.295583 -0.598 127 80 88
0.39435 -0.291134 -0.589 127 81 84
0.397427 -0.28372 -0.574 142 94 92
0.397131 -0.282731 -0.572 141 93 91
0.399764 -0.280754 -0.568 137 87 86
0.40014 -0.28026 -0.567 138 88 87
0.40159 -0.279766 -0.566 140 91 87
0.402317 -0.277294 -0.561 140 91 87
0.402291 -0.275811 -0.558 140 91 86
0.404684 -0.273834 -0.554 146 96 89
0.40669 -0.272351 -0.551 148 98 91
0.411783 -0.270869 -0.548 150 100 91
0.426343 -0.266914 -0.54 158 109 94
0.437478 -0.264937 -0.536 159 107 93
0.442776 -0.264443 -0.535 153 100 84
0.450258 -0.263454 -0.533 159 106 90
0.470285 -0.260489 -0.527 159 103 88
-0.106596 -0.290768 -0.586 66 69 74
0.101029 -0.238171 -0.48 157 107 100
0.114303 -0.239164 -0.482 134 87 81
0.13757 -0.244622 -0.493 114 70 69
0.14928 -0.25008 -0.504 100 62 61
0.17884 -0.260996 -0.526 87 61 72
0.180526 -0.261989 -0.528 101 75 86
0.40326 -0.303172 -0.611 131 79 83
0.398097 -0.296722 -0.598 128 85 92
0.398953 -0.288287 -0.581 138 90 90
0.399371 -0.28779 -0.58 137 89 89
0.398811 -0.285806 -0.576 139 91 89
0.399214 -0.28531 -0.575 138 90 88
0.400788 -0.283325 -0.571 135 87 85
0.404417 -0.276874 -0.558 144 94 87
0.405086 -0.275882 -0.556 144 94 87
0.40879 -0.273401 -0.551 148 98 91
0.425071 -0.268439 -0.541 154 104 95
0.432157 -0.266454 -0.537 154 106 92
0.444814 -0.265462 -0.535 153 101 87
0.472292 -0.261492 -0.527 160 105 85
0.496597 -0.266454 -0.537 156 99 80
0.502457 -0.267943 -0.54 159 105 81
0.507317 -0.269431 -0.543 159 109 84
1.13507 -0.316073 -0.637 202 206 192
-0.110113 -0.289393 -0.581 95 95 103
-0.10566 -0.292382 -0.587 69 70 75
-0.102911 -0.297363 -0.597 102 102 110
-0.0831133 -0.317287 -0.637 50 49 57
-0.0677629 -0.319279 -0.641 70 69 77
0.0749114 -0.249546 -0.501 183 135 135
0.0766876 -0.246059 -0.494 176 126 125
0.0819257 -0.242074 -0.486 175 120 117
0.0861981 -0.241078 -0.484 177 123 121
0.08694 -0.24058 -0.483 175 122 118
0.104686 -0.239086 -0.48 148 98 91
0.111317 -0.239584 -0.481 137 88 83
0.114303 -0.240082 -0.482 137 86 82
0.116139 -0.240082 -0.482 131 82 77
0.146775 -0.250044 -0.502 102 61 65
0.236462 -0.31629 -0.635 210 215 237
0.402384 -0.299355 -0.601 122 75 81
0.40198 -0.297363 -0.597 129 83 85
0.401581 -0.288895 -0.58 135 87 87
0.405142 -0.278435 -0.559 142 92 85
0.437478 -0.266979 -0.536 151 99 85
0.463131 -0.262994 -0.528 167 112 92
0.468277 -0.262496 -0.527 163 107 84
0.479123 -0.263492 -0.529 153 98 77
0.482048 -0.26399 -0.53 151 99 77
0.493729 -0.266481 -0.535 155 103 82
-0.130566 -0.313 -0.626 97 100 109
-0.105076 -0.295 -0.59 97 98 103
-0.101333 -0.304 -0.608 97 98 103
-0.0926743 -0.318 -0.636 69 69 77
0.0780924 -0.2455 -0.491 177 121 120
0.0804038 -0.244 -0.488 178 120 118
0.0828514 -0.243 -0.486 176 121 118
0.0836048 -0.2425 -0.485 176 120 119
0.0897 -0.2415 -0.483 171 116 113
0.11822 -0.2415 -0.483 129 82 74
0.140297 -0.248 -0.496 105 65 63
0.145529 -0.2505 -0.501 103 63 64
0.150538 -0.2525 -0.505 100 60 60
0.163686 -0.255 -0.51 112 73 74
0.169214 -0.2575 -0.515 104 65 70
0.170526 -0.258 -0.516 104 65 70
0.406214 -0.3025 -0.605 126 75 84
0.406493 -0.301 -0.602 125 79 79
0.405617 -0.297 -0.594 128 82 85
0.405394 -0.288 -0.576 135 85 76
0.406591 -0.2805 -0.561 143 95 91
0.414333 -0.275 -0.55 142 92 81
0.415958 -0.274 -0.548 143 93 82
0.421986 -0.2725 -0.545 146 96 87
0.424574 -0.2715 -0.543 152 102 93
0.449069 -0.267 -0.534 158 106 92
0.451103 -0.267 -0.534 153 101 87
0.45212 -0.267 -0.534 155 104 87
0.455649 -0.2655 -0.531 162 109 91
0.45897 -0.2645 -0.529 164 111 95
0.467273 -0.2635 -0.527 164 109 88
0.484067 -0.265 -0.53 154 102 81
0.48792 -0.266 -0.532 158 106 85
-0.0725333 -0.321219 -0.64 58 57 65
0.0739324 -0.261492 -0.521 182 137 140
0.0889638 -0.242922 -0.484 171 116 113
0.12098 -0.24242 -0.483 127 80 70
0.15886 -0.254466 -0.507 112 73 74
0.172506 -0.260489 -0.519 97 62 66
0.410733 -0.306162 -0.61 117 81 85
0.410145 -0.30315 -0.604 125 84 88
0.40824 -0.29512 -0.588 133 83 82
0.408664 -0.294618 -0.587 130 82 80
0.408054 -0.285584 -0.569 139 90 83
0.412686 -0.277051 -0.552 139 91 81
0.415087 -0.27655 -0.551 140 92 82
0.415381 -0.276048 -0.55 140 92 82
0.417763 -0.275546 -0.549 144 96 86
0.442583 -0.269021 -0.536 146 97 82
0.458829 -0.26601 -0.53 165 109 94
0.463131 -0.265006 -0.528 167 112 92
0.50948 -0.272032 -0.542 164 109 89
0.514376 -0.273538 -0.545 161 110 91
-0.107345 -0.294225 -0.584 72 72 80
-0.0982143 -0.314881 -0.625 89 90 94
0.0898857 -0.243844 -0.484 172 117 114
0.09246 -0.24334 -0.483 172 116 115
0.10582 -0.242332 -0.481 145 95 86
0.1173 -0.24334 -0.483 130 83 73
0.12006 -0.24334 -0.483 129 82 72
0.13785 -0.248882 -0.494 108 67 63
0.150538 -0.254424 -0.505 98 58 58
0.160456 -0.256439 -0.509 111 72 75
0.415177 -0.306316 -0.608 123 84 87
0.4131 -0.299767 -0.595 124 82 83
0.428954 -0.273065 -0.542 151 101 90
0.434203 -0.270546 -0.537 151 103 91
0.438294 -0.270546 -0.537 151 101 90
0.439317 -0.270546 -0.537 147 97 86
0.446852 -0.269538 -0.535 152 100 87
0.447871 -0.269538 -0.535 152 100 87
0.44991 -0.269538 -0.535 153 101 87
0.467273 -0.265508 -0.527 168 113 93
0.474402 -0.265004 -0.526 160 105 84
0.490037 -0.267523 -0.531 159 107 86
0.491973 -0.268027 -0.532 157 105 83
-0.08932 -0.322646 -0.638 51 52 57
-0.0856743 -0.322646 -0.638 49 48 56
-0.0795981 -0.322646 -0.638 46 45 53
-0.0771676 -0.322646 -0.638 48 47 55
-0.0748543 -0.323151 -0.639 48 47 55
0.0790276 -0.248306 -0.491 176 121 118
0.0873 -0.245271 -0.485 175 122 118
0.0889638 -0.244766 -0.484 171 117 115
0.102368 -0.243754 -0.482 152 102 93
0.11454 -0.24426 -0.483 132 86 73
0.124252 -0.245271 -0.485 123 79 68
0.140297 -0.250834 -0.496 105 65 63
0.155303 -0.256903 -0.508 101 62 63
0.170529 -0.262466 -0.519 100 66 67
0.172178 -0.263477 -0.521 96 62 63
0.17919 -0.268029 -0.53 129 107 119
0.412029 -0.288257 -0.57 131 88 79
0.411643 -0.285729 -0.565 129 86 80
0.411598 -0.284211 -0.562 129 85 82
0.414302 -0.281683 -0.557 132 87 81
0.417347 -0.280166 -0.554 137 90 82
0.431019 -0.274097 -0.542 153 103 92
0.435011 -0.272074 -0.538 153 105 93
0.447688 -0.271063 -0.536 151 99 86
0.458683 -0.268534 -0.531 158 102 85
0.458829 -0.268029 -0.53 156 103 85
0.46839 -0.266006 -0.526 169 117 95
0.4695 -0.2655 -0.525 172 118 94
0.476406 -0.266006 -0.526 160 105 84
0.491049 -0.268534 -0.531 159 107 85
0.492987 -0.26904 -0.532 157 105 83
1.13335 -0.320623 -0.634 202 204 191
-0.10584 -0.29848 -0.588 66 66 74
-0.104481 -0.301018 -0.593 133 133 141
-0.0997905 -0.314724 -0.62 96 96 104
-0.084459 -0.323861 -0.638 49 48 56
0.073199 -0.258378 -0.509 181 139 143
0.0830219 -0.24721 -0.487 176 122 120
0.09154 -0.24518 -0.483 170 117 113
0.0981829 -0.245688 -0.484 163 110 102
0.167577 -0.261931 -0.516 97 65 66
0.41599 -0.292896 -0.577 124 86 77
0.4142 -0.289343 -0.57 126 83 76
0.416424 -0.282744 -0.557 135 88 80
0.423762 -0.27919 -0.55 143 94 87
0.426396 -0.278175 -0.548 143 94 87
0.42744 -0.278175 -0.548 147 98 91
0.433084 -0.27513 -0.542 152 104 92
0.439927 -0.273607 -0.539 146 96 85
0.45075 -0.272084 -0.536 147 98 84
0.452967 -0.271576 -0.535 148 96 82
0.45666 -0.269546 -0.531 156 103 87
0.458829 -0.269038 -0.53 156 103 85
0.459978 -0.26853 -0.529 159 106 88
0.46627 -0.267515 -0.527 167 115 93
0.466387 -0.267008 -0.526 168 116 94
-0.111411 -0.296543 -0.582 109 112 119
-0.09706 -0.322529 -0.633 84 85 90
-0.0806867 -0.324567 -0.637 52 52 60
0.0773143 -0.250686 -0.492 177 126 125
0.0917295 -0.24661 -0.484 170 117 113
0.0935733 -0.24661 -0.484 171 118 114
0.0981829 -0.24661 -0.484 162 109 101
0.119387 -0.24661 -0.484 128 81 71
0.139352 -0.252724 -0.496 107 66 64
0.14058 -0.253233 -0.497 104 64 64
0.148614 -0.25731 -0.505 95 56 57
0.162377 -0.260876 -0.512 103 67 69
0.16954 -0.264443 -0.519 96 65 63
0.171514 -0.265971 -0.522 94 62 63
0.17317 -0.26699 -0.524 99 67 68
0.431046 -0.318962 -0.626 115 95 106
0.4291 -0.312338 -0.613 126 85 79
0.427569 -0.306224 -0.601 126 86 86
0.417471 -0.291957 -0.573 127 79 75
0.423678 -0.282276 -0.554 139 92 84
0.425582 -0.280748 -0.551 144 95 88
0.426905 -0.280238 -0.55 143 94 87
0.450569 -0.273614 -0.537 145 95 84
0.455171 -0.272086 -0.534 155 103 89
0.464262 -0.268519 -0.527 165 112 94
0.466387 -0.26801 -0.526 172 117 96
0.483334 -0.268519 -0.527 160 108 86
0.516626 -0.276671 -0.543 172 127 108
-0.105432 -0.302766 -0.592 168 168 178
-0.104049 -0.305323 -0.597 185 184 192
0.0891476 -0.248043 -0.485 169 113 112
0.0900714 -0.248043 -0.485 168 112 111
0.0944952 -0.247531 -0.484 171 116 113
0.10626 -0.24702 -0.483 146 98 88
0.119387 -0.247531 -0.484 128 81 73
0.120309 -0.247531 -0.484 128 81 73
0.124509 -0.248554 -0.486 121 78 69
0.129934 -0.250089 -0.489 118 73 68
0.135968 -0.252646 -0.494 108 67 65
0.144863 -0.256737 -0.502 101 60 66
0.1524 -0.259806 -0.508 97 58 61
0.160427 -0.261851 -0.512 103 67 69
0.18292 -0.275149 -0.538 170 165 185
0.435181 -0.317086 -0.62 113 91 104
0.424911 -0.284866 -0.557 133 88 82
0.4255 -0.283843 -0.555 136 91 85
0.434443 -0.278729 -0.545 142 93 86
0.446087 -0.27566 -0.539 145 93 82
0.451591 -0.274637 -0.537 143 93 82
0.458829 -0.271057 -0.53 159 106 88
0.461993 -0.270546 -0.529 160 107 89
0.464137 -0.270034 -0.528 165 112 94
0.467389 -0.269011 -0.526 172 117 96
0.469392 -0.269011 -0.526 173 118 97
0.4725 -0.2685 -0.525 172 118 94
0.4765 -0.2685 -0.525 166 111 90
0.0780924 -0.252047 -0.491 178 128 127
0.0805686 -0.25102 -0.489 178 124 122
0.0873 -0.248967 -0.485 173 120 116
0.134753 -0.253073 -0.493 109 68 62
0.163011 -0.263853 -0.514 102 67 71
0.175497 -0.27104 -0.528 98 71 88
0.231 -0.3234 -0.63 255 253 255
0.4218 -0.2926 -0.57 123 79 76
0.421402 -0.291573 -0.568 123 79 76
0.424 -0.287467 -0.56 131 86 81
0.43056 -0.28336 -0.552 140 90 83
0.43579 -0.281307 -0.548 144 95 88
0.43802 -0.27874 -0.543 146 93 87
0.441343 -0.278227 -0.542 144 92 81
0.446914 -0.2772 -0.54 144 92 81
0.447943 -0.2772 -0.54 146 94 83
0.44814 -0.276687 -0.539 143 91 80
0.452432 -0.276173 -0.538 142 92 81
0.458533 -0.273093 -0.532 152 100 86
0.460848 -0.272067 -0.53 161 108 92
0.464262 -0.270527 -0.527 167 114 96
0.481415 -0.270013 -0.526 162 107 86
0.483419 -0.270013 -0.526 159 104 83
0.490207 -0.271553 -0.529 159 102 82
0.49899 -0.273607 -0.533 160 105 85
0.500943 -0.27412 -0.534 167 112 92
-0.12772 -0.318417 -0.618 93 96 105
-0.108643 -0.301414 -0.585 94 94 104
-0.099 -0.3246 -0.63 96 97 99
0.0822629 -0.251436 -0.488 174 121 117
0.0882238 -0.24989 -0.485 171 116 113
0.113855 -0.249375 -0.484 136 86 79
0.119633 -0.24989 -0.485 128 79 72
0.129003 -0.251951 -0.489 118 73 68
0.1527 -0.262256 -0.509 96 60 60
0.169201 -0.268439 -0.521 89 48 54
0.2321 -0.326146 -0.633 250 249 255
0.445008 -0.326661 -0.634 100 112 160
0.43025 -0.303475 -0.589 114 76 73
0.4255 -0.296262 -0.575 124 83 79
0.452247 -0.277713 -0.539 145 95 86
0.461993 -0.272561 -0.529 167 112 91
0.4785 -0.2705 -0.525 166 111 90
0.500005 -0.274622 -0.533 161 109 88
-0.117239 -0.304597 -0.589 98 102 105
-0.105186 -0.308734 -0.597 221 220 226
-0.101823 -0.319594 -0.618 162 164 161
-0.101134 -0.321146 -0.621 150 152 149
0.0731486 -0.259606 -0.502 181 136 139
0.0744629 -0.257537 -0.498 182 133 136
0.0751086 -0.256503 -0.496 181 132 135
0.0831924 -0.252366 -0.488 175 122 118
0.110168 -0.250297 -0.484 139 90 85
0.117786 -0.250814 -0.485 131 82 77
0.135027 -0.255469 -0.494 109 65 64
0.138687 -0.25702 -0.497 106 64 65
0.157809 -0.265294 -0.513 101 65 67
0.167886 -0.268914 -0.52 97 63 64
0.434302 -0.306666 -0.593 114 81 76
0.4293 -0.29322 -0.567 124 81 74
0.429621 -0.292703 -0.566 123 83 75
0.432826 -0.289083 -0.559 130 85 79
0.435521 -0.288049 -0.557 134 87 79
0.44171 -0.281843 -0.545 135 85 76
0.44857 -0.280291 -0.542 139 87 76
0.460706 -0.274603 -0.531 157 104 90
0.474594 -0.270983 -0.524 166 111 90
0.48928 -0.273051 -0.528 158 106 82
0.0790276 -0.254852 -0.491 178 124 122
0.0815 -0.253814 -0.489 177 124 120
0.0983857 -0.251738 -0.485 161 108 100
0.102081 -0.251738 -0.485 154 104 97
0.103929 -0.251738 -0.485 153 103 96
0.123837 -0.252776 -0.487 120 75 72
0.129267 -0.254333 -0.49 115 72 66
0.137463 -0.257448 -0.496 105 65 63
0.141429 -0.259524 -0.5 102 63 64
0.14295 -0.260562 -0.502 100 61 62
0.15555 -0.265752 -0.512 98 62 66
0.18632 -0.284438 -0.548 252 252 255
0.454921 -0.327519 -0.631 143 128 133
0.434385 -0.294819 -0.568 123 79 76
0.452894 -0.280805 -0.541 140 88 77
0.454955 -0.280805 -0.541 144 92 81
0.4705 -0.2725 -0.525 174 117 97
0.4835 -0.2725 -0.525 159 107 85
0.488353 -0.273538 -0.527 157 105 81
-0.107324 -0.307362 -0.59 69 67 80
-0.104746 -0.313092 -0.601 227 226 234
-0.101988 -0.32247 -0.619 189 189 187
0.0735143 -0.259434 -0.498 180 134 136
0.0763771 -0.256309 -0.492 179 129 128
0.104636 -0.252141 -0.484 154 101 97
0.108324 -0.252141 -0.484 141 87 85
0.151057 -0.265686 -0.51 94 59 63
0.1533 -0.266207 -0.511 97 61 65
0.16168 -0.268811 -0.516 95 63 66
0.440212 -0.293296 -0.563 123 80 73
0.440501 -0.292775 -0.562 126 81 75
0.464137 -0.275063 -0.528 170 116 92
0.465143 -0.275063 -0.528 170 116 92
0.470394 -0.274021 -0.526 169 112 92
0.4745 -0.2735 -0.525 168 111 91
0.477589 -0.272979 -0.524 165 110 89
0.480583 -0.272979 -0.524 161 106 85
0.509014 -0.27871 -0.535 166 117 100
-0.111794 -0.305349 -0.584 86 85 91
-0.0991571 -0.329923 -0.631 169 169 169
0.0900714 -0.253586 -0.485 168 117 113
0.0909952 -0.253586 -0.485 167 116 112
0.0974619 -0.253586 -0.485 165 110 105
0.109246 -0.253063 -0.484 140 86 84
0.110168 -0.253063 -0.484 139 85 83
0.11109 -0.253063 -0.484 139 85 83
0.136518 -0.259337 -0.496 104 66 65
0.1533 -0.26718 -0.511 97 61 65
0.158424 -0.269271 -0.515 97 62 66
0.45423 -0.322603 -0.617 112 84 83
0.444783 -0.293846 -0.562 121 78 71
0.45396 -0.28548 -0.546 134 84 75
0.456442 -0.284434 -0.544 139 86 78
0.459257 -0.282343 -0.54 142 90 79
0.46063 -0.281297 -0.538 146 92 82
0.464009 -0.276591 -0.529 167 113 89
0.470394 -0.275023 -0.526 165 108 88
0.4705 -0.2745 -0.525 168 111 91
0.488429 -0.275023 -0.526 162 105 85
0.504066 -0.278683 -0.533 162 109 91
0.515968 -0.281297 -0.538 167 120 102
-0.111986 -0.306986 -0.585 83 83 91
-0.102833 -0.323778 -0.617 227 227 229
0.0721924 -0.26343 -0.502 182 136 136
0.0993095 -0.25451 -0.485 161 105 104
0.124346 -0.256609 -0.489 118 72 72
0.130058 -0.258708 -0.493 110 70 68
0.157443 -0.270252 -0.515 97 62 66
0.16262 -0.272351 -0.519 94 62 65
0.454791 -0.287045 -0.547 129 81 71
0.457478 -0.28547 -0.544 132 82 73
0.457671 -0.284946 -0.543 134 84 75
0.4725 -0.2755 -0.525 163 106 86
0.518017 -0.282322 -0.538 166 119 99
0.108548 -0.255433 -0.485 137 86 83
0.11409 -0.255433 -0.485 133 81 83
0.116177 -0.25596 -0.486 135 83 85
0.118271 -0.256487 -0.487 127 79 79
0.130058 -0.259647 -0.493 110 70 68
0.142277 -0.264913 -0.503 99 63 65
0.157749 -0.27176 -0.516 96 64 69
0.161631 -0.27334 -0.519 95 63 68
0.274238 -0.342333 -0.65 216 234 255
0.452073 -0.305993 -0.581 115 78 72
0.45162 -0.30494 -0.579 115 78 72
0.451906 -0.300727 -0.571 119 78 72
0.455335 -0.291773 -0.554 121 77 68
0.455794 -0.29072 -0.552 124 80 71
0.460108 -0.284927 -0.541 138 88 77
0.4705 -0.2765 -0.525 162 105 86
0.474594 -0.275973 -0.524 164 107 88
0.480583 -0.275973 -0.524 161 106 86
0.503186 -0.27966 -0.531 159 107 86
0.517054 -0.28282 -0.537 167 119 97
-0.126952 -0.327714 -0.62 81 81 91
-0.099 -0.333 -0.63 198 200 197
0.07152 -0.2664 -0.504 185 137 137
0.0824314 -0.258471 -0.489 173 123 124
0.100233 -0.256357 -0.485 154 105 98
0.115014 -0.256357 -0.485 129 81 79
0.123667 -0.259 -0.49 117 73 74
0.12579 -0.259529 -0.491 115 73 74
0.12818 -0.260586 -0.493 114 72 73
0.135171 -0.263229 -0.498 103 68 64
0.146017 -0.267457 -0.506 97 62 66
0.159347 -0.2738 -0.518 96 65 70
0.307667 -0.343571 -0.65 249 250 255
0.315095 -0.343571 -0.65 173 177 202
0.464905 -0.343571 -0.65 110 128 174
0.456177 -0.307629 -0.582 117 80 74
0.457801 -0.294414 -0.557 117 74 67
0.470394 -0.278029 -0.526 162 105 86
0.4745 -0.2775 -0.525 162 105 86
0.47659 -0.276971 -0.524 160 103 84
0.481581 -0.276971 -0.524 162 105 86
0.503186 -0.280671 -0.531 159 107 86
0.51411 -0.282786 -0.535 168 120 98
-0.127362 -0.329956 -0.622 78 81 88
-0.112751 -0.31245 -0.589 74 77 84
-0.102833 -0.327304 -0.617 233 231 236
-0.10146 -0.330487 -0.623 221 220 225
0.0824314 -0.259403 -0.489 172 122 123
0.103929 -0.257281 -0.485 147 98 93
0.117344 -0.258342 -0.487 125 80 75
0.126046 -0.260994 -0.492 114 73 69
0.15165 -0.271604 -0.512 92 60 63
0.15707 -0.274256 -0.517 98 64 62
0.15836 -0.274787 -0.518 97 66 64
0.159654 -0.275317 -0.519 96 65 63
0.172083 -0.282744 -0.533 130 118 132
0.275052 -0.344279 -0.649 247 248 253
0.281667 -0.34481 -0.65 186 187 215
0.282905 -0.34481 -0.65 182 194 220
0.467898 -0.344279 -0.649 175 175 187
0.466909 -0.321469 -0.606 107 75 76
0.461683 -0.291231 -0.549 117 79 70
0.477589 -0.27797 -0.524 158 103 82
0.505209 -0.281683 -0.531 164 112 91
0.5191 -0.284866 -0.537 167 116 97
-0.103334 -0.32635 -0.613 230 228 233
0.0946905 -0.258205 -0.485 161 110 106
0.114326 -0.258737 -0.486 127 82 76
0.115489 -0.25927 -0.487 126 81 75
0.13206 -0.264593 -0.497 104 69 63
0.14534 -0.269917 -0.507 96 65 62
0.270926 -0.344983 -0.648 188 200 240
0.30843 -0.345515 -0.649 244 247 255
0.326238 -0.346048 -0.65 166 185 218
0.468619 -0.346048 -0.65 170 171 191
0.471095 -0.346048 -0.65 177 172 192
0.471607 -0.345515 -0.649 177 172 192
0.474405 -0.332738 -0.625 85 90 130
0.474977 -0.329011 -0.618 106 81 77
0.467846 -0.316234 -0.594 114 80 78
0.465845 -0.310378 -0.583 111 79 68
0.465957 -0.308249 -0.579 110 77 70
0.465494 -0.305054 -0.573 109 76 69
0.463333 -0.296004 -0.556 115 75 65
0.498331 -0.281097 -0.528 160 105 84
0.0696295 -0.345683 -0.647 183 197 234
0.0765324 -0.263403 -0.493 180 130 131
0.0782514 -0.262869 -0.492 178 128 127
0.0807333 -0.2618 -0.49 178 127 124
0.085981 -0.260731 -0.488 169 118 115
0.0921086 -0.259663 -0.486 162 111 107
0.112474 -0.259663 -0.486 130 83 77
0.119933 -0.2618 -0.49 119 76 69
0.122049 -0.262334 -0.491 115 75 67
0.137619 -0.267143 -0.5 102 67 63
0.142843 -0.269814 -0.505 96 65 62
0.175696 -0.289049 -0.541 201 199 223
0.268043 -0.345683 -0.647 187 201 236
0.304251 -0.346217 -0.648 232 230 252
0.309189 -0.346217 -0.648 190 194 221
0.467381 -0.347286 -0.65 153 166 211
0.474079 -0.346751 -0.649 175 172 199
0.47736 -0.326983 -0.612 113 83 85
0.472033 -0.3179 -0.595 108 80 76
0.471576 -0.316831 -0.593 107 82 78
0.471397 -0.311489 -0.583 108 75 68
0.465228 -0.297597 -0.557 114 77 69
0.46423 -0.289049 -0.541 147 94 78
0.465195 -0.285843 -0.535 155 99 82
0.470171 -0.282103 -0.528 159 102 82
0.480662 -0.279431 -0.523 164 109 88
0.482654 -0.279431 -0.523 161 106 86
0.50129 -0.282637 -0.529 160 108 86
-0.103166 -0.328149 -0.612 231 228 235
-0.101823 -0.331366 -0.618 226 225 230
0.0705467 -0.277747 -0.518 185 141 142
0.0774714 -0.264342 -0.493 180 130 129
0.0790276 -0.26327 -0.491 177 126 123
0.0816667 -0.262733 -0.49 175 124 120
0.0869105 -0.261661 -0.488 170 116 116
0.0985886 -0.260589 -0.486 157 106 103
0.0995143 -0.260589 -0.486 155 106 102
0.102291 -0.260589 -0.486 147 98 94
0.105776 -0.260052 -0.485 139 91 89
0.114561 -0.261125 -0.487 126 81 76
0.116655 -0.261661 -0.488 124 79 74
0.1287 -0.265414 -0.495 108 71 63
0.137894 -0.268631 -0.501 101 66 62
0.141881 -0.270776 -0.505 99 66 61
0.16544 -0.283109 -0.528 86 65 72
0.174343 -0.289543 -0.54 197 193 216
0.217183 -0.331366 -0.618 251 250 248
0.279566 -0.347451 -0.648 253 253 255
0.300549 -0.347451 -0.648 216 218 243
0.307479 -0.346915 -0.647 171 177 209
0.312409 -0.346915 -0.647 204 206 227
0.34481 -0.348524 -0.65 205 217 233
0.346048 -0.348524 -0.65 203 215 231
0.474079 -0.347988 -0.649 151 152 180
0.481643 -0.328685 -0.613 113 87 86
0.465017 -0.293832 -0.548 124 84 76
0.471289 -0.282572 -0.527 161 104 85
0.4734 -0.282036 -0.526 161 104 85
0.489566 -0.280964 -0.524 162 107 86
0.499337 -0.283109 -0.528 159 107 85
0.618847 -0.334047 -0.623 215 207 205
-0.12006 -0.3277 -0.609 76 75 83
-0.108233 -0.320167 -0.595 74 73 79
0.0719829 -0.34761 -0.646 158 165 211
0.0782514 -0.264743 -0.492 180 129 126
0.0841219 -0.26259 -0.488 173 119 119
0.111549 -0.261514 -0.486 127 81 81
0.119 -0.263667 -0.49 120 77 71
0.164434 -0.284114 -0.528 89 62 67
0.169671 -0.287881 -0.535 123 115 136
0.317829 -0.348686 -0.648 242 241 255
0.321531 -0.348686 -0.648 198 203 232
0.328937 -0.348686 -0.648 162 184 225
0.352238 -0.349762 -0.65 107 129 179
0.465426 -0.349224 -0.649 87 106 164
0.47037 -0.349224 -0.649 167 173 197
0.471607 -0.349224 -0.649 160 166 190
0.481731 -0.34761 -0.646 40 58 104
0.4843 -0.3277 -0.609 111 80 78
0.483686 -0.319629 -0.594 108 79 75
0.481105 -0.314248 -0.584 106 75 72
0.478364 -0.311019 -0.578 108 74 72
0.467031 -0.284652 -0.529 162 105 85
0.517167 -0.287881 -0.535 160 114 90
-0.126786 -0.3375 -0.625 82 83 85
-0.118705 -0.32832 -0.608 79 78 84
-0.109734 -0.32238 -0.597 80 81 86
-0.108415 -0.32184 -0.596 75 75 83
-0.10382 -0.32886 -0.609 152 151 159
-0.102167 -0.33102 -0.613 225 223 234
0.0700019 -0.27756 -0.514 182 138 137
0.0741638 -0.26784 -0.496 182 132 133
0.0824314 -0.26406 -0.489 173 122 119
0.0833629 -0.26406 -0.489 173 119 119
0.09396 -0.26244 -0.486 159 108 105
0.0958114 -0.26244 -0.486 157 106 103
0.104143 -0.26244 -0.486 143 95 91
0.111778 -0.26298 -0.487 128 82 82
0.130167 -0.26838 -0.497 107 70 62
0.132591 -0.26946 -0.499 104 70 61
0.133542 -0.26946 -0.499 104 70 61
0.137213 -0.27108 -0.502 102 68 59
0.14746 -0.27594 -0.511 96 65 60
0.165057 -0.2862 -0.53 94 72 75
0.27667 -0.34938 -0.647 251 251 253
0.303312 -0.34884 -0.646 179 191 229
0.313156 -0.34884 -0.646 242 244 255
0.355952 -0.351 -0.65 65 96 160
0.367095 -0.351 -0.65 55 90 156
0.477548 -0.34938 -0.647 76 78 116
0.47878 -0.34938 -0.647 69 78 121
0.491873 -0.33642 -0.623 110 94 104
0.473823 -0.30564 -0.566 109 79 71
0.466502 -0.28782 -0.533 160 103 84
0.469166 -0.28512 -0.528 162 105 85
0.482654 -0.28242 -0.523 168 114 90
0.499395 -0.28458 -0.527 161 111 84
0.51224 -0.28728 -0.532 161 115 92
-0.10365 -0.329478 -0.608 96 95 101
0.0749571 -0.268243 -0.495 180 130 129
0.0824314 -0.264991 -0.489 171 121 120
0.0833629 -0.264991 -0.489 174 120 120
0.0976629 -0.263366 -0.486 153 106 100
0.10044 -0.263366 -0.486 149 102 96
0.120423 -0.266617 -0.492 117 76 70
0.12922 -0.269327 -0.497 109 72 64
0.169283 -0.291003 -0.537 139 134 156
0.294699 -0.35007 -0.646 187 200 242
0.300851 -0.35007 -0.646 188 200 238
0.318078 -0.35007 -0.646 236 238 253
0.406714 -0.352238 -0.65 167 172 201
0.446333 -0.352238 -0.65 126 132 168
0.4543 -0.351696 -0.649 33 74 138
0.473349 -0.351154 -0.648 105 111 137
0.467957 -0.297506 -0.549 138 92 77
0.46636 -0.289377 -0.534 157 99 79
-0.119876 -0.333899 -0.614 91 92 97
-0.116389 -0.330636 -0.608 91 92 97
-0.102 -0.332811 -0.612 184 183 189
0.0922981 -0.264835 -0.487 163 112 111
0.0930343 -0.264291 -0.486 162 111 110
0.09396 -0.264291 -0.486 160 109 108
0.103217 -0.264291 -0.486 142 97 92
0.105994 -0.264291 -0.486 135 90 85
0.112008 -0.265379 -0.488 127 84 78
0.132591 -0.271361 -0.499 109 72 66
0.135031 -0.272449 -0.501 103 68 62
0.139957 -0.274624 -0.505 101 66 60
0.146487 -0.277887 -0.511 97 66 61
0.167633 -0.290938 -0.535 148 146 170
0.2967 -0.350757 -0.645 162 175 217
0.308986 -0.350757 -0.645 244 243 255
0.314387 -0.351301 -0.646 248 247 255
0.32843 -0.351845 -0.647 135 164 206
0.333874 -0.352389 -0.648 143 173 227
0.367767 -0.352932 -0.649 34 73 138
0.379476 -0.353476 -0.65 180 185 205
0.405476 -0.353476 -0.65 155 171 204
0.448119 -0.352932 -0.649 65 80 123
0.465943 -0.352389 -0.648 78 100 160
0.469646 -0.352389 -0.648 151 158 184
0.487129 -0.350757 -0.645 31 55 117
0.490053 -0.350213 -0.644 50 73 127
0.487779 -0.317585 -0.584 107 82 77
0.46629 -0.294201 -0.541 151 94 75
0.470171 -0.287131 -0.528 166 106 82
0.4755 -0.2855 -0.525 177 121 96
0.4765 -0.2855 -0.525 177 121 96
0.484647 -0.284412 -0.523 170 116 88
0.489628 -0.284412 -0.523 164 113 86
-0.120462 -0.336706 -0.617 94 95 99
-0.113885 -0.331249 -0.607 93 94 99
-0.105443 -0.330157 -0.605 85 84 89
0.0791886 -0.268491 -0.492 178 128 127
0.0913705 -0.265763 -0.487 165 114 111
0.112237 -0.266854 -0.489 125 84 78
0.131905 -0.272857 -0.5 107 74 69
0.262711 -0.350894 -0.643 205 215 251
0.275814 -0.351986 -0.645 252 252 255
0.291786 -0.351986 -0.645 147 163 215
0.2967 -0.351986 -0.645 155 168 213
0.307757 -0.351986 -0.645 228 236 255
0.320043 -0.351986 -0.645 180 188 224
0.347451 -0.353623 -0.648 201 213 237
0.382601 -0.354169 -0.649 173 180 208
0.383837 -0.354169 -0.649 166 173 201
0.41845 -0.354169 -0.649 47 69 126
0.434521 -0.354169 -0.649 62 75 120
0.452366 -0.353623 -0.648 35 71 133
0.459062 -0.353077 -0.647 38 77 146
0.472618 -0.353077 -0.647 148 153 173
0.476315 -0.353077 -0.647 111 118 137
0.492507 -0.35144 -0.644 68 87 143
0.497091 -0.350349 -0.642 151 154 173
0.498314 -0.350349 -0.642 175 173 186
0.509114 -0.337251 -0.618 135 123 127
0.47498 -0.306146 -0.561 128 86 70
0.472014 -0.302871 -0.555 142 90 69
0.467517 -0.290866 -0.533 160 102 80
0.470054 -0.288683 -0.529 169 109 85
0.471177 -0.288137 -0.528 168 108 84
0.507336 -0.288683 -0.529 161 111 88
-0.115989 -0.335143 -0.612 96 97 102
-0.111205 -0.33131 -0.605 95 96 101
-0.09434 -0.341167 -0.623 61 62 67
0.114333 -0.268333 -0.49 123 80 74
0.125181 -0.271619 -0.496 111 72 67
0.127327 -0.272167 -0.497 108 70 67
0.13927 -0.277095 -0.506 101 68 63
0.145798 -0.280381 -0.512 99 65 63
0.1575 -0.2875 -0.525 94 63 60
0.275814 -0.353214 -0.645 251 254 255
0.278271 -0.353214 -0.645 253 253 255
0.286427 -0.352667 -0.644 225 234 243
0.330383 -0.353762 -0.646 118 152 213
0.335824 -0.35431 -0.647 129 163 209
0.362263 -0.354857 -0.648 46 78 151
0.38448 -0.354857 -0.648 118 139 186
0.391254 -0.355405 -0.649 38 73 139
0.407931 -0.354857 -0.648 130 138 175
0.420923 -0.355405 -0.649 22 54 115
0.456597 -0.35431 -0.647 29 67 142
0.493733 -0.352667 -0.644 78 99 156
0.512296 -0.338976 -0.619 161 145 148
0.468014 -0.297357 -0.543 151 98 80
0.466934 -0.294071 -0.537 154 99 79
0.467233 -0.292976 -0.535 156 99 80
0.468039 -0.28969 -0.529 163 105 81
0.481658 -0.286405 -0.523 175 119 96
0.515233 -0.291881 -0.533 155 107 87
1.1314 -0.340071 -0.621 201 203 189
-0.118111 -0.339056 -0.617 102 103 107
0.0773143 -0.270366 -0.492 183 133 132
0.0816667 -0.269267 -0.49 174 123 122
0.0826 -0.269267 -0.49 175 124 123
0.0835333 -0.269267 -0.49 177 123 123
0.0995143 -0.267069 -0.486 149 104 101
0.10044 -0.267069 -0.486 148 103 100
0.12879 -0.274212 -0.499 108 71 65
0.145798 -0.281356 -0.512 99 66 61
0.153029 -0.285752 -0.52 94 60 59
0.1578 -0.28905 -0.526 97 69 66
0.308507 -0.353893 -0.644 242 246 255
0.324453 -0.353893 -0.644 143 174 229
0.334074 -0.354992 -0.646 130 165 229
0.338289 -0.355542 -0.647 131 154 208
0.361704 -0.355542 -0.647 50 80 150
0.366633 -0.355542 -0.647 34 69 137
0.389417 -0.356091 -0.648 25 62 132
0.40607 -0.355542 -0.647 165 174 203
0.422743 -0.356091 -0.648 27 56 124
0.42768 -0.356091 -0.648 20 51 116
0.428914 -0.356091 -0.648 20 51 116
0.431383 -0.356091 -0.648 67 92 146
0.438789 -0.356091 -0.648 145 150 170
0.440023 -0.356091 -0.648 160 165 185
0.443041 -0.355542 -0.647 156 164 183
0.458352 -0.354992 -0.646 50 88 153
0.464505 -0.354992 -0.646 96 128 187
0.470657 -0.354992 -0.646 166 167 185
0.488357 -0.354443 -0.645 27 57 117
0.474776 -0.306085 -0.557 140 94 79
0.471761 -0.302788 -0.551 147 95 81
0.46956 -0.30004 -0.546 151 99 78
0.467086 -0.294545 -0.536 155 100 80
0.468394 -0.293446 -0.534 162 105 85
0.470171 -0.290149 -0.528 171 113 91
0.473296 -0.289599 -0.527 177 121 96
0.481581 -0.28795 -0.524 179 123 98
0.482654 -0.287401 -0.523 178 122 97
0.489686 -0.286851 -0.522 166 114 92
0.5005 -0.2885 -0.525 162 114 92
0.506377 -0.290149 -0.528 163 112 91
0.517217 -0.293446 -0.534 157 109 89
-0.121633 -0.34354 -0.623 107 108 112
-0.106489 -0.336923 -0.611 100 99 105
0.0691571 -0.283986 -0.515 181 135 135
0.0782514 -0.271303 -0.492 183 133 132
0.0995143 -0.267994 -0.486 148 103 100
0.106212 -0.268546 -0.487 132 87 84
0.11879 -0.271854 -0.493 120 79 73
0.127839 -0.275163 -0.499 105 70 64
0.142314 -0.281229 -0.51 100 67 62
0.145106 -0.282883 -0.513 98 67 64
0.169417 -0.299977 -0.544 175 180 209
0.301147 -0.35512 -0.644 155 172 218
0.302373 -0.35512 -0.644 185 202 248
0.306053 -0.35512 -0.644 229 240 255
0.31096 -0.35512 -0.644 233 235 250
0.345149 -0.356223 -0.646 170 184 213
0.353077 -0.356774 -0.647 71 106 172
0.359239 -0.356774 -0.647 51 85 148
0.364169 -0.356774 -0.647 26 59 128
0.365401 -0.356774 -0.647 26 59 128
0.371563 -0.356774 -0.647 59 84 140
0.38019 -0.356774 -0.647 173 179 203
0.381422 -0.356774 -0.647 148 155 183
0.386351 -0.356774 -0.647 54 89 155
0.409767 -0.356774 -0.647 148 154 176
0.425211 -0.357326 -0.648 20 49 115
0.440576 -0.356774 -0.647 167 168 189
0.479757 -0.355671 -0.645 57 82 139
0.489586 -0.355671 -0.645 39 68 126
0.49496 -0.35512 -0.644 48 74 125
0.496187 -0.35512 -0.644 58 84 135
0.503206 -0.354017 -0.642 184 184 194
0.504864 -0.353466 -0.641 184 185 203
0.468797 -0.292809 -0.531 169 112 92
0.484647 -0.288397 -0.523 181 126 105
0.487697 -0.287846 -0.522 165 113 91
0.49068 -0.287846 -0.522 164 114 91
0.503457 -0.290051 -0.526 161 113 90
-0.108005 -0.339193 -0.613 101 100 106
-0.0996295 -0.342513 -0.619 85 85 93
0.07028 -0.277773 -0.502 185 140 137
0.0790276 -0.271687 -0.491 180 130 129
0.102502 -0.269473 -0.487 138 93 90
0.10736 -0.270027 -0.488 129 85 82
0.131214 -0.27722 -0.501 104 71 66
0.133654 -0.278327 -0.503 106 71 65
0.137343 -0.279987 -0.506 102 69 64
0.13858 -0.28054 -0.507 103 70 65
0.209957 -0.34362 -0.621 251 251 251
0.274959 -0.355793 -0.643 238 245 255
0.284757 -0.355793 -0.643 234 244 254
0.301904 -0.355793 -0.643 176 194 244
0.311702 -0.355793 -0.643 228 231 248
0.316601 -0.355793 -0.643 203 209 235
0.317826 -0.355793 -0.643 184 198 233
0.322 -0.356347 -0.644 140 167 214
0.37345 -0.357453 -0.646 137 144 173
0.415929 -0.358007 -0.647 103 119 145
0.443587 -0.357453 -0.646 164 166 179
0.447278 -0.357453 -0.646 71 95 143
0.508527 -0.354687 -0.641 136 143 169
0.470171 -0.29216 -0.528 172 114 92
0.4765 -0.2905 -0.525 182 126 101
0.505418 -0.291607 -0.527 160 113 87
0.0689124 -0.28095 -0.506 184 139 136
0.07014 -0.278174 -0.501 185 140 137
0.07242 -0.275953 -0.497 184 139 136
0.095081 -0.270401 -0.487 159 109 108
0.101574 -0.270401 -0.487 139 93 93
0.113631 -0.272622 -0.491 123 82 78
0.135148 -0.280395 -0.505 103 69 67
0.152623 -0.289834 -0.522 95 65 65
0.157692 -0.293721 -0.529 85 70 77
0.199277 -0.334809 -0.603 249 249 255
0.257829 -0.355352 -0.64 183 197 244
0.264749 -0.356463 -0.642 157 182 236
0.274959 -0.357018 -0.643 216 228 244
0.284314 -0.356463 -0.642 209 221 245
0.317826 -0.357018 -0.643 152 168 204
0.32568 -0.357573 -0.644 87 126 191
0.338471 -0.358129 -0.645 128 163 221
0.3397 -0.358129 -0.645 145 165 192
0.359914 -0.358684 -0.646 38 72 135
0.369758 -0.358684 -0.646 129 158 224
0.404814 -0.358129 -0.645 166 174 193
0.412825 -0.358684 -0.646 104 115 137
0.437434 -0.358684 -0.646 154 153 169
0.439895 -0.358684 -0.646 135 134 152
0.449573 -0.357573 -0.644 63 98 154
0.4508 -0.357573 -0.644 59 89 151
0.4692 -0.357573 -0.644 131 129 143
0.471653 -0.357573 -0.644 169 169 179
0.49864 -0.357573 -0.644 133 147 182
0.502765 -0.357018 -0.643 156 160 172
0.515048 -0.355352 -0.64 149 169 204
0.472292 -0.29261 -0.527 177 121 96
0.48372 -0.289834 -0.522 179 123 96
0.527193 -0.299273 -0.539 153 110 91
-0.104514 -0.345429 -0.62 107 106 111
-0.102317 -0.345986 -0.621 105 104 109
-0.0989276 -0.346543 -0.622 95 94 99
0.0708105 -0.278014 -0.499 186 141 138
0.100647 -0.271329 -0.487 143 99 98
0.111761 -0.273557 -0.491 129 85 82
0.127143 -0.278571 -0.5 107 72 70
0.129306 -0.279129 -0.501 106 71 69
0.139127 -0.283586 -0.509 103 69 68
0.281869 -0.357686 -0.642 180 185 223
0.289206 -0.357686 -0.642 138 160 207
0.306326 -0.357686 -0.642 154 166 204
0.31244 -0.357686 -0.642 209 211 232
0.331813 -0.3588 -0.644 92 129 197
0.345307 -0.3588 -0.644 194 199 228
0.352667 -0.3588 -0.644 136 156 193
0.364271 -0.359357 -0.645 31 71 141
0.366729 -0.359357 -0.645 44 85 165
0.377786 -0.359357 -0.645 153 152 168
0.394986 -0.359357 -0.645 71 108 178
0.397443 -0.359357 -0.645 65 102 172
0.424471 -0.359357 -0.645 31 61 123
0.4501 -0.358243 -0.643 71 100 158
0.451325 -0.358243 -0.643 83 112 170
0.458673 -0.358243 -0.643 82 112 164
0.464797 -0.358243 -0.643 174 175 195
0.467247 -0.358243 -0.643 118 117 133
0.482417 -0.357686 -0.642 139 156 202
0.52055 -0.344871 -0.619 93 89 104
0.477959 -0.310329 -0.557 147 94 80
0.470171 -0.294171 -0.528 178 117 96
0.505461 -0.293057 -0.526 158 112 89
0.0674562 -0.289028 -0.517 188 138 137
0.0675143 -0.285114 -0.51 185 140 135
0.0679486 -0.282878 -0.506 185 140 135
0.0748057 -0.27617 -0.494 183 135 131
0.0782514 -0.275051 -0.492 182 134 132
0.0978638 -0.272256 -0.487 153 107 107
0.123789 -0.278406 -0.498 112 74 73
0.12619 -0.279524 -0.5 109 70 71
0.132 -0.28176 -0.504 105 69 69
0.134451 -0.282878 -0.506 103 69 68
0.146237 -0.289028 -0.517 99 67 68
0.254991 -0.357231 -0.639 156 178 227
0.292418 -0.35835 -0.641 138 156 206
0.297766 -0.358909 -0.642 139 156 210
0.317331 -0.358909 -0.642 196 210 245
0.322223 -0.358909 -0.642 115 151 213
0.333748 -0.359468 -0.643 93 135 193
0.341627 -0.360027 -0.644 210 212 237
0.350213 -0.360027 -0.644 188 194 220
0.35144 -0.360027 -0.644 160 178 216
0.352667 -0.360027 -0.644 125 143 181
0.35512 -0.360027 -0.644 52 78 137
0.383333 -0.360027 -0.644 130 126 149
0.393147 -0.360027 -0.644 66 107 171
0.40664 -0.360027 -0.644 174 177 192
0.416453 -0.360027 -0.644 45 74 130
0.418907 -0.360027 -0.644 56 87 142
0.448177 -0.358909 -0.642 70 101 147
0.472146 -0.359468 -0.643 172 171 189
0.488068 -0.359468 -0.643 153 167 202
0.492967 -0.359468 -0.643 100 116 150
0.51341 -0.35835 -0.641 117 131 180
0.518705 -0.35779 -0.64 112 134 175
0.487755 -0.291264 -0.521 179 123 96
0.0713295 -0.278232 -0.496 187 140 134
0.0887695 -0.273745 -0.488 169 118 117
0.114094 -0.27655 -0.493 125 81 82
0.13104 -0.28272 -0.504 105 71 70
0.154377 -0.296183 -0.528 100 67 78
0.1617 -0.302353 -0.539 146 147 175
0.254991 -0.358449 -0.639 157 171 218
0.32956 -0.360131 -0.642 85 126 192
0.342321 -0.360692 -0.643 208 208 234
0.344234 -0.360131 -0.642 200 207 233
0.34967 -0.360692 -0.643 183 190 218
0.35512 -0.361253 -0.644 55 81 138
0.3588 -0.361253 -0.644 53 87 161
0.367387 -0.361253 -0.644 63 99 161
0.379064 -0.360692 -0.643 165 163 176
0.385787 -0.361253 -0.644 70 106 164
0.390693 -0.361253 -0.644 72 113 177
0.417031 -0.360692 -0.643 78 110 157
0.423813 -0.361253 -0.644 100 130 180
0.437852 -0.360692 -0.643 167 164 183
0.445731 -0.360131 -0.642 110 121 149
0.4494 -0.360131 -0.642 94 121 174
0.46652 -0.360131 -0.642 170 172 195
0.490977 -0.360131 -0.642 139 149 176
0.497091 -0.360131 -0.642 110 118 157
0.513829 -0.35901 -0.64 116 134 174
0.517486 -0.35901 -0.64 121 138 181
0.476823 -0.309646 -0.552 147 97 88
0.470003 -0.301231 -0.537 164 107 88
0.51832 -0.298427 -0.532 148 112 90
0.536229 -0.305158 -0.544 154 113 93
0.0664714 -0.290997 -0.517 186 141 135
0.0721286 -0.278614 -0.495 187 140 132
0.08784 -0.274674 -0.488 170 120 119
0.105 -0.2758 -0.49 134 89 86
0.105933 -0.2758 -0.49 132 88 87
0.117623 -0.279177 -0.496 120 79 77
0.165142 -0.307883 -0.547 142 157 196
0.167095 -0.309571 -0.55 149 164 203
0.200573 -0.345594 -0.614 209 216 242
0.266362 -0.360229 -0.64 156 179 223
0.276114 -0.360229 -0.64 249 254 255
0.277333 -0.360229 -0.64 249 254 255
0.280551 -0.359666 -0.639 235 238 255
0.281769 -0.359666 -0.639 233 236 255
0.28542 -0.359666 -0.639 198 216 252
0.290289 -0.359666 -0.639 138 154 203
0.299276 -0.360229 -0.64 131 155 201
0.305849 -0.360791 -0.641 231 242 255
0.313174 -0.360791 -0.641 215 216 234
0.316837 -0.360791 -0.641 206 211 241
0.355793 -0.361917 -0.643 46 80 144
0.357018 -0.361917 -0.643 48 82 146
0.374165 -0.361917 -0.643 185 187 200
0.415807 -0.361917 -0.643 82 109 156
0.428054 -0.361917 -0.643 99 123 171
0.437852 -0.361917 -0.643 160 166 188
0.446258 -0.360791 -0.641 96 115 155
0.452363 -0.360791 -0.641 122 146 192
0.464074 -0.361354 -0.642 173 177 206
0.469456 -0.360791 -0.641 156 162 188
0.492654 -0.360791 -0.641 160 159 191
0.510171 -0.360229 -0.64 124 127 162
0.51261 -0.360229 -0.64 103 120 163
0.46968 -0.29944 -0.532 172 115 88
0.47867 -0.294374 -0.523 186 129 102
0.102923 -0.276169 -0.489 135 91 90
0.121186 -0.281816 -0.499 114 76 75
0.122136 -0.281816 -0.499 114 76 75
0.126695 -0.28351 -0.502 107 73 71
0.13008 -0.28464 -0.504 106 72 70
0.133751 -0.286334 -0.507 104 73 68
0.141748 -0.290852 -0.515 106 70 72
0.159647 -0.304407 -0.539 131 125 153
0.258643 -0.360883 -0.639 163 184 231
0.271238 -0.361448 -0.64 219 231 255
0.282986 -0.360883 -0.639 233 246 255
0.33393 -0.362012 -0.641 98 137 196
0.368691 -0.362577 -0.642 45 75 127
0.410269 -0.362577 -0.642 107 112 142
0.416383 -0.362577 -0.642 114 136 177
0.430504 -0.363142 -0.643 101 119 159
0.437171 -0.362577 -0.642 156 161 190
0.450438 -0.361448 -0.64 105 132 179
0.452876 -0.361448 -0.64 110 133 183
0.463351 -0.362012 -0.641 171 176 205
0.465793 -0.362012 -0.641 174 174 198
0.479695 -0.361448 -0.64 165 171 197
0.491433 -0.362012 -0.641 166 167 197
0.526806 -0.360318 -0.638 149 155 179
0.47117 -0.302712 -0.536 168 112 89
0.4734 -0.297065 -0.526 177 121 96
0.4745 -0.2965 -0.525 181 125 100
0.488748 -0.294241 -0.521 182 127 97
0.48979 -0.293676 -0.52 182 127 97
0.496687 -0.294241 -0.521 176 122 94
0.515397 -0.298759 -0.529 151 113 92
0.06958 -0.281633 -0.497 188 141 133
0.0798 -0.277667 -0.49 180 131 124
0.105 -0.277667 -0.49 133 87 87
0.107085 -0.278233 -0.491 131 85 85
0.124783 -0.284467 -0.502 110 75 73
0.136753 -0.289567 -0.511 102 71 68
0.14356 -0.293533 -0.518 103 67 69
0.144826 -0.2941 -0.519 95 61 60
0.147934 -0.296367 -0.523 95 69 68
0.251767 -0.360967 -0.637 185 199 228
0.275683 -0.3621 -0.639 248 252 251
0.301243 -0.3621 -0.639 171 188 234
0.30659 -0.362667 -0.64 234 237 255
0.366246 -0.3638 -0.642 81 108 163
