ply
format ascii 1.0
comment Created by Open3D
element vertex 1263
property double x
property double y
property double z
property uchar red
property uchar green
property uchar blue
end_header
-0.295524 -0.423676 -0.58 234 237 228
-0.27058 -0.424407 -0.581 234 236 225
-0.251767 -0.424407 -0.581 235 236 230
-0.249553 -0.424407 -0.581 237 238 230
-0.238076 -0.423676 -0.58 237 238 230
-0.236971 -0.423676 -0.58 237 238 230
-0.207143 -0.423676 -0.58 236 237 231
-0.0259171 -0.422946 -0.579 192 155 128
-0.00274667 -0.300956 -0.412 190 146 117
0.000392381 -0.300956 -0.412 197 154 122
0.00353143 -0.300956 -0.412 194 149 120
0.00588571 -0.300956 -0.412 194 149 120
0.0138 -0.302417 -0.414 191 146 115
0.0194133 -0.303878 -0.416 186 141 112
0.0226371 -0.304609 -0.417 186 139 113
0.0324 -0.3068 -0.42 170 119 98
0.0356848 -0.30753 -0.421 166 120 97
0.0754286 -0.350629 -0.48 91 71 73
0.0872248 -0.369621 -0.506 80 68 70
0.513969 -0.401031 -0.549 137 112 107
0.502207 -0.363047 -0.497 184 134 109
-0.33419 -0.424781 -0.58 232 233 227
-0.296629 -0.424781 -0.58 235 236 228
-0.278952 -0.424781 -0.58 234 236 225
-0.250229 -0.424781 -0.58 237 238 230
-0.236971 -0.424781 -0.58 237 238 232
-0.215981 -0.424781 -0.58 236 237 231
-0.200514 -0.424781 -0.58 238 239 233
-0.198305 -0.424781 -0.58 238 239 233
-0.1972 -0.424781 -0.58 239 240 234
-0.016439 -0.308332 -0.421 192 153 122
-0.00353143 -0.301741 -0.412 193 152 122
0.00588571 -0.301741 -0.412 193 148 117
0.00983333 -0.302473 -0.413 192 147 116
0.0193667 -0.303938 -0.415 185 140 111
0.0274686 -0.306135 -0.418 174 126 103
0.0661524 -0.336895 -0.46 90 68 70
0.0920752 -0.378641 -0.517 134 131 150
0.0955 -0.3845 -0.525 174 187 219
0.531302 -0.41819 -0.571 127 109 105
0.500283 -0.38743 -0.529 159 115 104
0.492034 -0.37205 -0.508 172 124 104
0.49392 -0.36912 -0.504 175 124 103
0.506786 -0.362529 -0.495 178 128 103
1.01569 -0.417457 -0.57 204 206 192
1.01786 -0.417457 -0.57 203 205 191
1.03306 -0.417457 -0.57 203 206 189
-0.320928 -0.424417 -0.578 232 233 225
-0.319827 -0.424417 -0.578 232 233 225
-0.310454 -0.425151 -0.579 232 234 223
-0.306043 -0.425151 -0.579 233 235 224
-0.2895 -0.425151 -0.579 231 233 222
-0.285581 -0.425886 -0.58 234 236 225
-0.273429 -0.425886 -0.58 233 235 224
-0.272324 -0.425886 -0.58 233 235 224
-0.244283 -0.425151 -0.579 236 237 231
-0.239871 -0.425151 -0.579 236 237 231
-0.232151 -0.425151 -0.579 237 238 232
-0.222226 -0.425151 -0.579 237 238 232
-0.215609 -0.425151 -0.579 236 237 231
-0.202374 -0.425151 -0.579 237 238 230
0.00983333 -0.30326 -0.413 189 144 115
0.0177857 -0.304729 -0.415 185 140 111
0.0242257 -0.306197 -0.417 181 135 109
0.0580619 -0.326757 -0.445 93 72 69
0.0771381 -0.356129 -0.485 91 71 73
0.499395 -0.386969 -0.527 154 118 106
0.492983 -0.375954 -0.512 167 122 103
0.492033 -0.373751 -0.509 174 127 109
0.496624 -0.366409 -0.499 179 131 109
1.00374 -0.418543 -0.57 203 206 189
1.00483 -0.418543 -0.57 204 207 190
-0.351867 -0.42699 -0.58 230 231 225
-0.341334 -0.426254 -0.579 231 232 226
-0.315423 -0.425518 -0.578 234 236 225
-0.292809 -0.426254 -0.579 233 234 226
-0.238769 -0.426254 -0.579 235 236 230
-0.225534 -0.426254 -0.579 236 237 231
-0.222226 -0.426254 -0.579 237 238 232
-0.214135 -0.425518 -0.578 235 236 230
-0.2123 -0.426254 -0.579 236 237 231
-0.202374 -0.426254 -0.579 238 239 231
-0.016361 -0.308464 -0.419 191 152 121
-0.00510095 -0.30331 -0.412 195 155 120
-0.00352286 -0.302574 -0.411 194 153 121
0.00430571 -0.302574 -0.411 194 151 119
0.0169952 -0.305519 -0.415 184 139 110
0.0177857 -0.305519 -0.415 185 140 111
0.0209981 -0.306255 -0.416 182 138 111
0.0258143 -0.306991 -0.417 179 133 109
0.0373771 -0.310672 -0.422 151 108 89
0.0452457 -0.31509 -0.428 125 87 84
0.0461686 -0.315826 -0.429 121 85 85
0.504938 -0.393862 -0.535 138 113 106
0.502174 -0.390917 -0.531 144 114 104
0.496646 -0.384291 -0.522 160 122 109
0.492969 -0.377666 -0.513 171 124 106
0.496624 -0.367359 -0.499 180 132 110
0.520583 -0.362206 -0.492 171 124 98
0.529153 -0.362942 -0.493 165 118 92
0.546463 -0.369568 -0.502 147 111 87
1.01716 -0.418892 -0.569 202 205 188
1.02041 -0.418892 -0.569 203 206 189
1.0345 -0.418892 -0.569 202 205 188
-0.352363 -0.427357 -0.579 232 233 228
-0.347951 -0.427357 -0.579 230 231 225
-0.297808 -0.426619 -0.578 231 232 224
-0.293404 -0.426619 -0.578 233 234 226
-0.291706 -0.427357 -0.579 232 233 225
-0.271854 -0.427357 -0.579 233 235 224
-0.265237 -0.427357 -0.579 235 236 228
-0.260826 -0.427357 -0.579 234 236 225
-0.248265 -0.426619 -0.578 236 237 231
-0.0105943 -0.304095 -0.412 193 152 120
0.00587143 -0.303357 -0.411 191 147 118
0.0114067 -0.304833 -0.413 182 137 108
0.0137667 -0.304833 -0.413 183 138 109
0.0185762 -0.30631 -0.415 184 139 110
0.0787057 -0.360929 -0.489 89 73 74
0.097419 -0.39119 -0.53 182 198 232
0.0991714 -0.394143 -0.534 166 182 216
0.112174 -0.419976 -0.569 228 233 253
0.53239 -0.421452 -0.571 128 109 105
0.49945 -0.388238 -0.526 152 118 106
0.496687 -0.384548 -0.521 166 121 102
0.5041 -0.366833 -0.497 181 131 106
0.95863 -0.419976 -0.569 205 208 191
0.99006 -0.419976 -0.569 205 207 193
0.994395 -0.419976 -0.569 202 204 190
0.995479 -0.419976 -0.569 202 204 190
1.00198 -0.419976 -0.569 204 206 192
-0.351754 -0.42772 -0.578 232 233 228
-0.347951 -0.42846 -0.579 230 231 225
-0.346849 -0.42846 -0.579 230 231 225
-0.321471 -0.42698 -0.577 233 234 228
-0.318174 -0.42698 -0.577 233 234 228
-0.314877 -0.42698 -0.577 233 234 226
-0.290101 -0.42772 -0.578 233 234 226
-0.286798 -0.42772 -0.578 234 235 227
-0.283495 -0.42772 -0.578 233 234 226
-0.280192 -0.42772 -0.578 234 236 225
-0.268082 -0.42772 -0.578 234 235 227
-0.262577 -0.42772 -0.578 234 236 225
-0.255971 -0.42772 -0.578 235 236 228
-0.214864 -0.42698 -0.577 236 237 231
-0.209731 -0.42772 -0.578 237 238 230
-0.206429 -0.42772 -0.578 237 238 230
-0.200924 -0.42772 -0.578 237 238 230
-0.00430571 -0.30414 -0.411 195 154 122
0.0193667 -0.3071 -0.415 182 137 108
0.0307267 -0.31006 -0.419 163 116 96
0.0348 -0.3108 -0.42 156 111 92
0.0470952 -0.3182 -0.43 116 82 80
0.0529771 -0.32412 -0.438 105 76 70
0.0654181 -0.34114 -0.461 90 70 69
0.0692333 -0.34706 -0.469 90 72 72
0.0760571 -0.35816 -0.484 92 73 75
0.0788667 -0.3626 -0.49 88 72 73
0.0993571 -0.3959 -0.535 167 183 217
0.494869 -0.38184 -0.516 165 124 104
0.493 -0.3774 -0.51 164 123 101
0.492025 -0.37444 -0.506 173 131 107
0.492 -0.37296 -0.504 173 128 105
0.502269 -0.36852 -0.498 177 130 104
0.52233 -0.36334 -0.491 168 121 95
0.530891 -0.36408 -0.492 166 116 91
0.534931 -0.36556 -0.494 160 114 90
0.542109 -0.36852 -0.498 149 112 86
0.948875 -0.42106 -0.569 204 207 190
-0.345149 -0.428821 -0.578 230 231 225
-0.337442 -0.428821 -0.578 231 232 226
-0.330264 -0.428079 -0.577 233 234 228
-0.324769 -0.428079 -0.577 233 234 228
-0.312137 -0.427337 -0.576 233 234 226
-0.304986 -0.428079 -0.577 233 234 228
-0.224755 -0.428079 -0.577 236 237 231
-0.221458 -0.428079 -0.577 235 236 230
-0.20717 -0.428079 -0.577 236 237 231
-0.01974 -0.313826 -0.423 193 154 125
-0.0179143 -0.310116 -0.418 190 155 127
-0.00900286 -0.304923 -0.411 188 148 113
0.000391429 -0.304923 -0.411 192 149 117
0.00352286 -0.304923 -0.411 192 149 117
0.00824 -0.305665 -0.412 187 142 109
0.0177857 -0.30789 -0.415 182 138 109
0.0217905 -0.308632 -0.416 180 135 106
0.0225829 -0.308632 -0.416 180 135 106
0.0373771 -0.313084 -0.422 146 105 87
0.0540571 -0.326438 -0.44 104 75 69
0.0584533 -0.332373 -0.448 96 72 68
0.0692333 -0.347953 -0.469 90 70 71
0.0894086 -0.380597 -0.513 103 102 116
0.0924314 -0.385049 -0.519 207 215 236
0.505957 -0.396919 -0.535 141 113 101
0.49764 -0.387274 -0.522 157 119 100
0.494869 -0.382823 -0.516 165 124 106
0.49196 -0.372436 -0.502 175 130 107
0.507644 -0.366501 -0.494 177 127 102
0.514849 -0.364275 -0.491 175 124 97
0.963436 -0.421402 -0.568 203 205 191
0.990484 -0.421402 -0.568 205 207 193
0.996975 -0.421402 -0.568 205 207 193
1.00455 -0.421402 -0.568 204 206 192
-0.333561 -0.429178 -0.577 231 232 226
-0.320914 -0.428434 -0.576 232 233 225
-0.298391 -0.429178 -0.577 232 233 227
-0.275311 -0.429178 -0.577 233 234 226
-0.268717 -0.429178 -0.577 233 234 226
-0.259925 -0.429178 -0.577 234 235 227
-0.248503 -0.428434 -0.576 236 237 231
-0.247406 -0.428434 -0.576 235 236 230
-0.23025 -0.429178 -0.577 236 237 231
-0.210103 -0.428434 -0.576 236 237 231
-0.201675 -0.429178 -0.577 237 238 232
-0.00117143 -0.304962 -0.41 197 154 122
0.00665429 -0.305706 -0.411 189 144 113
0.01298 -0.307193 -0.413 175 130 99
0.0266086 -0.310169 -0.417 168 122 96
0.0282648 -0.310912 -0.418 167 121 98
0.0332 -0.3124 -0.42 157 110 92
0.0416905 -0.316119 -0.425 127 89 78
0.0585838 -0.33397 -0.449 96 72 68
0.0668714 -0.345871 -0.465 90 71 65
0.069381 -0.34959 -0.47 89 71 71
0.07208 -0.354053 -0.476 90 71 75
0.499367 -0.369673 -0.497 176 128 105
0.535727 -0.366698 -0.493 159 115 88
-0.327497 -0.429531 -0.576 232 233 225
-0.319262 -0.428786 -0.575 232 233 225
-0.27751 -0.430277 -0.577 233 235 224
-0.261669 -0.429531 -0.576 233 234 226
-0.246309 -0.429531 -0.576 235 236 230
-0.232046 -0.429531 -0.576 235 236 230
-0.215589 -0.429531 -0.576 235 236 230
-0.2112 -0.429531 -0.576 235 236 231
-0.209006 -0.429531 -0.576 235 236 230
-0.205714 -0.429531 -0.576 236 237 231
-0.16512 -0.429531 -0.576 238 239 231
-0.0113514 -0.306489 -0.411 190 151 118
0.00195714 -0.306489 -0.411 191 148 116
0.0307267 -0.312454 -0.419 160 115 96
0.101877 -0.404923 -0.543 189 203 229
0.531756 -0.423566 -0.568 129 104 97
0.51899 -0.410889 -0.551 130 109 104
0.499547 -0.390754 -0.524 152 116 102
0.49296 -0.37584 -0.504 173 127 101
0.500313 -0.37062 -0.497 176 128 105
0.507644 -0.368383 -0.494 174 124 99
0.508585 -0.368383 -0.494 173 123 98
0.528733 -0.3654 -0.49 163 115 92
0.95634 -0.42282 -0.567 205 207 193
0.95958 -0.42282 -0.567 204 206 192
0.96174 -0.42282 -0.567 204 207 190
0.96498 -0.42282 -0.567 203 206 189
1.00494 -0.42282 -0.567 203 205 191
1.01142 -0.42282 -0.567 203 205 191
1.0179 -0.42282 -0.567 203 205 191
-0.350537 -0.430629 -0.576 231 232 227
-0.317071 -0.429881 -0.575 232 233 227
-0.31269 -0.429881 -0.575 231 232 224
-0.3105 -0.429881 -0.575 232 233 225
-0.309405 -0.429881 -0.575 232 233 225
-0.305024 -0.429881 -0.575 232 233 225
-0.299548 -0.429881 -0.575 231 232 226
-0.294583 -0.430629 -0.576 231 233 222
-0.283611 -0.430629 -0.576 232 234 223
-0.267154 -0.430629 -0.576 234 235 227
-0.263863 -0.430629 -0.576 233 234 226
-0.255738 -0.429881 -0.575 235 236 230
-0.251357 -0.429881 -0.575 235 236 230
-0.247406 -0.430629 -0.576 235 236 230
-0.24192 -0.430629 -0.576 235 236 228
-0.240823 -0.430629 -0.576 235 236 228
-0.221074 -0.430629 -0.576 235 236 230
-0.202423 -0.430629 -0.576 236 237 231
-0.0221571 -0.316243 -0.423 193 156 127
-0.0212 -0.314 -0.42 194 157 128
-0.0177857 -0.310262 -0.415 186 150 116
-0.0169543 -0.309514 -0.414 186 150 118
0.00195714 -0.307271 -0.411 190 147 113
0.02502 -0.311757 -0.417 173 127 101
0.0399771 -0.31699 -0.424 132 92 80
0.0777743 -0.365586 -0.489 95 71 71
0.0806143 -0.370071 -0.495 96 75 74
0.533629 -0.426143 -0.57 125 105 98
0.5138 -0.366333 -0.49 179 129 102
0.519271 -0.365586 -0.489 171 124 98
0.545903 -0.372314 -0.498 147 109 86
0.99023 -0.423152 -0.566 203 205 191
0.998855 -0.423152 -0.566 204 206 192
1.01395 -0.423152 -0.566 203 205 191
-0.346643 -0.430976 -0.575 231 232 227
-0.30996 -0.430227 -0.574 232 233 227
-0.291881 -0.430976 -0.575 232 234 223
-0.280929 -0.430976 -0.575 233 235 224
-0.277029 -0.431726 -0.576 233 235 224
-0.27264 -0.431726 -0.576 233 235 224
-0.261214 -0.430976 -0.575 233 234 226
-0.252013 -0.430227 -0.574 234 235 227
0.00195238 -0.307305 -0.41 191 148 114
0.0298571 -0.313301 -0.418 155 109 93
0.0399771 -0.317798 -0.424 131 93 82
0.0454571 -0.322295 -0.43 115 85 77
0.0599686 -0.339534 -0.453 90 69 68
0.0851286 -0.37851 -0.505 94 83 89
0.497746 -0.389003 -0.519 159 120 103
0.494933 -0.383756 -0.512 167 121 105
0.494762 -0.374762 -0.5 171 123 101
0.49842 -0.372513 -0.497 172 124 101
0.501196 -0.371764 -0.496 182 132 109
0.54371 -0.371764 -0.496 147 110 84
0.636567 -0.423481 -0.565 199 199 189
0.964356 -0.42423 -0.566 204 206 192
0.979449 -0.42423 -0.566 204 206 193
0.994543 -0.42423 -0.566 204 206 192
0.995621 -0.42423 -0.566 204 206 192
1.00317 -0.42423 -0.566 202 206 189
1.01826 -0.42423 -0.566 202 205 188
-0.335107 -0.43132 -0.574 229 232 225
-0.31652 -0.43132 -0.574 232 233 225
-0.308867 -0.43132 -0.574 232 233 227
-0.307773 -0.43132 -0.574 232 233 227
-0.29356 -0.43132 -0.574 231 232 224
-0.2875 -0.432071 -0.575 231 232 224
-0.279833 -0.432071 -0.575 232 234 223
-0.269976 -0.432071 -0.575 234 236 225
-0.249827 -0.43132 -0.574 235 236 228
-0.242173 -0.43132 -0.574 234 235 229
-0.203167 -0.432071 -0.575 235 236 230
0.00273333 -0.308086 -0.41 190 147 115
0.0241676 -0.312594 -0.416 172 127 104
0.0365733 -0.317103 -0.422 142 100 86
0.04836 -0.32612 -0.434 104 79 75
0.0852971 -0.380223 -0.506 93 83 94
0.0884314 -0.385483 -0.513 130 141 173
0.502407 -0.396003 -0.527 152 116 100
0.494933 -0.384731 -0.512 164 118 103
0.956809 -0.425309 -0.566 204 206 192
0.992786 -0.424557 -0.565 204 206 192
0.996014 -0.424557 -0.565 205 207 193
1.01539 -0.424557 -0.565 203 206 189
-0.343853 -0.432413 -0.574 229 232 225
-0.323609 -0.43166 -0.573 231 232 226
-0.318707 -0.432413 -0.574 231 232 226
-0.30942 -0.43166 -0.573 231 232 226
-0.304493 -0.432413 -0.574 231 232 226
-0.297933 -0.432413 -0.574 231 232 224
-0.29684 -0.432413 -0.574 230 231 223
-0.294653 -0.432413 -0.574 230 231 223
-0.279347 -0.432413 -0.574 232 234 223
-0.277643 -0.433167 -0.575 232 234 223
-0.2706 -0.432413 -0.574 233 235 224
-0.26732 -0.432413 -0.574 232 234 223
-0.262947 -0.432413 -0.574 234 236 225
-0.2378 -0.432413 -0.574 234 235 229
-0.213747 -0.432413 -0.574 236 237 229
-0.0176571 -0.310373 -0.412 191 149 111
-0.00506381 -0.308113 -0.409 197 154 120
0.00195238 -0.308867 -0.41 190 146 117
0.00508857 -0.30962 -0.411 185 140 111
0.0105943 -0.310373 -0.412 186 141 112
0.0417886 -0.32092 -0.426 124 90 81
0.0739067 -0.363107 -0.482 88 72 72
0.0793495 -0.371393 -0.493 93 75 75
0.0884314 -0.38646 -0.513 147 162 203
0.505762 -0.372147 -0.494 176 126 103
0.507555 -0.371393 -0.493 177 127 102
0.511211 -0.37064 -0.492 178 128 101
0.512867 -0.369133 -0.49 175 125 100
0.521786 -0.366873 -0.487 171 124 98
0.539326 -0.37064 -0.492 147 111 85
0.548749 -0.37516 -0.498 143 109 82
0.630933 -0.421867 -0.56 194 195 187
0.96911 -0.425633 -0.565 205 207 194
0.970186 -0.425633 -0.565 205 207 194
0.977719 -0.425633 -0.565 205 207 193
0.996014 -0.425633 -0.565 204 206 192
0.999243 -0.425633 -0.565 204 206 192
-0.346529 -0.432751 -0.573 229 232 225
-0.323609 -0.432751 -0.573 231 232 226
-0.315969 -0.432751 -0.573 231 232 226
-0.312694 -0.432751 -0.573 231 232 227
-0.284317 -0.432751 -0.573 232 233 225
-0.282134 -0.432751 -0.573 232 233 225
-0.27716 -0.433507 -0.574 232 233 225
-0.272787 -0.433507 -0.574 233 234 226
-0.247209 -0.432751 -0.573 233 234 228
-0.226867 -0.433507 -0.574 235 236 230
-0.189693 -0.433507 -0.574 236 237 231
-0.02574 -0.323997 -0.429 192 155 126
-0.0136667 -0.309648 -0.41 192 156 124
0.0201571 -0.313424 -0.415 172 128 103
0.0315248 -0.316445 -0.419 149 106 90
0.0332 -0.3172 -0.42 147 104 88
0.0391695 -0.320221 -0.424 126 89 80
0.0739067 -0.364025 -0.482 89 74 71
0.0780924 -0.370822 -0.491 91 73 71
0.524758 -0.419912 -0.556 134 110 100
0.502455 -0.397255 -0.526 150 114 100
0.494942 -0.384416 -0.509 172 125 105
0.493938 -0.381395 -0.505 170 123 103
0.5084 -0.371577 -0.492 179 129 102
0.51993 -0.367801 -0.487 167 120 92
0.53823 -0.370822 -0.491 149 112 86
1.02218 -0.425954 -0.564 202 205 188
-0.346529 -0.433843 -0.573 229 232 225
-0.342163 -0.433843 -0.573 228 231 224
-0.312149 -0.433086 -0.572 230 231 225
-0.305054 -0.433843 -0.573 230 231 225
-0.300689 -0.433843 -0.573 231 232 226
-0.290866 -0.433843 -0.573 231 232 224
-0.2865 -0.433843 -0.573 231 232 224
-0.282134 -0.433843 -0.573 232 233 225
-0.273403 -0.433843 -0.573 232 233 225
-0.269037 -0.433843 -0.573 231 232 224
-0.264671 -0.433843 -0.573 233 234 226
-0.259214 -0.433843 -0.573 233 234 226
-0.246777 -0.433086 -0.572 232 233 227
-0.226471 -0.433843 -0.573 235 236 230
-0.211191 -0.433843 -0.573 234 235 227
-0.0128857 -0.310429 -0.41 191 152 119
0.00587143 -0.311186 -0.411 187 141 115
0.0209476 -0.314214 -0.415 167 126 94
0.0348829 -0.318757 -0.421 144 102 90
0.0365733 -0.319514 -0.422 136 97 82
0.0591057 -0.342986 -0.453 86 71 68
0.0795105 -0.374029 -0.494 89 75 75
0.495913 -0.3869 -0.511 166 121 102
0.494942 -0.385386 -0.509 167 125 103
0.493938 -0.382357 -0.505 166 124 100
0.494797 -0.379329 -0.501 174 128 105
0.51728 -0.369486 -0.488 175 125 98
0.536037 -0.370243 -0.489 150 112 89
0.957726 -0.427029 -0.564 204 206 192
0.998549 -0.427029 -0.564 202 206 191
1.01251 -0.427029 -0.564 203 206 189
1.01789 -0.427029 -0.564 202 205 188
1.02755 -0.427029 -0.564 203 206 189
-0.344834 -0.434175 -0.572 228 231 224
-0.342655 -0.434175 -0.572 228 231 224
-0.318686 -0.434175 -0.572 230 231 225
-0.317596 -0.434175 -0.572 230 231 225
-0.313238 -0.434175 -0.572 231 232 226
-0.30997 -0.434175 -0.572 231 232 226
-0.28491 -0.434175 -0.572 231 232 224
-0.280552 -0.434175 -0.572 231 232 224
-0.255493 -0.434175 -0.572 232 233 225
-0.208644 -0.434175 -0.572 234 235 227
-0.207554 -0.434175 -0.572 235 236 228
-0.205734 -0.434934 -0.573 235 236 228
-0.0208467 -0.313487 -0.413 190 154 122
-0.00506381 -0.31045 -0.409 193 152 122
0.00194762 -0.31045 -0.409 186 142 113
0.00429524 -0.31121 -0.41 183 139 110
0.00822 -0.311969 -0.411 184 139 110
0.0137667 -0.313487 -0.413 179 134 105
0.0233752 -0.315764 -0.416 167 123 96
0.0266086 -0.316523 -0.417 153 110 93
0.029061 -0.317282 -0.418 147 104 88
0.0365733 -0.320318 -0.422 138 96 84
0.0392619 -0.322595 -0.425 129 92 83
0.505321 -0.401536 -0.529 148 117 99
0.494856 -0.381801 -0.503 169 127 102
0.504821 -0.37497 -0.494 178 128 101
0.93624 -0.428103 -0.564 205 208 191
0.957726 -0.428103 -0.564 204 206 193
0.960949 -0.428103 -0.564 205 207 193
0.962023 -0.428103 -0.564 205 207 193
0.963097 -0.428103 -0.564 205 207 193
0.967394 -0.428103 -0.564 204 206 192
0.977475 -0.427344 -0.563 204 206 193
0.982837 -0.427344 -0.563 204 206 192
-0.345924 -0.435265 -0.572 228 231 222
-0.338297 -0.435265 -0.572 228 231 222
-0.329581 -0.435265 -0.572 231 232 226
-0.325742 -0.434504 -0.571 230 231 225
-0.322479 -0.434504 -0.571 230 231 225
-0.317041 -0.434504 -0.571 230 231 225
-0.311603 -0.434504 -0.571 231 232 226
-0.292537 -0.435265 -0.572 230 231 223
-0.279463 -0.435265 -0.572 231 232 224
-0.255047 -0.434504 -0.571 232 234 223
-0.233703 -0.435265 -0.572 234 235 227
-0.232613 -0.435265 -0.572 233 234 228
-0.22133 -0.434504 -0.571 234 235 227
-0.21736 -0.435265 -0.572 234 235 227
-0.0112962 -0.31123 -0.409 190 151 118
-0.00660571 -0.310469 -0.408 192 151 121
0.00194762 -0.31123 -0.409 187 143 114
0.0153771 -0.315034 -0.414 176 131 102
0.0274686 -0.318078 -0.418 152 106 93
0.0383619 -0.322644 -0.424 134 94 84
0.0558933 -0.340907 -0.448 89 68 65
0.0581143 -0.34395 -0.452 90 69 68
0.07406 -0.36754 -0.483 95 71 69
0.51282 -0.410153 -0.539 143 116 97
0.504738 -0.37515 -0.493 178 130 107
0.510067 -0.372867 -0.49 173 123 98
0.517011 -0.369823 -0.486 176 129 103
0.518863 -0.369823 -0.486 176 129 101
0.518719 -0.369062 -0.485 175 128 100
0.524103 -0.368301 -0.484 163 119 92
0.525025 -0.368301 -0.484 161 117 90
0.528881 -0.369062 -0.485 159 115 90
0.974258 -0.428416 -0.563 204 206 193
0.978548 -0.428416 -0.563 205 207 194
0.987127 -0.428416 -0.563 203 205 191
0.991416 -0.428416 -0.563 204 206 192
-0.342655 -0.436354 -0.572 228 231 222
-0.323567 -0.435591 -0.571 230 231 225
-0.320304 -0.435591 -0.571 231 232 226
-0.300727 -0.435591 -0.571 230 231 225
-0.249609 -0.435591 -0.571 232 234 223
-0.246346 -0.435591 -0.571 233 235 224
-0.225681 -0.435591 -0.571 234 235 227
-0.22133 -0.435591 -0.571 234 235 227
-0.209367 -0.435591 -0.571 233 234 226
-0.0199629 -0.313534 -0.411 188 149 118
-0.00116857 -0.312009 -0.409 191 147 118
0.0121638 -0.314297 -0.412 180 135 106
0.0153771 -0.315823 -0.414 172 127 98
0.0177429 -0.315823 -0.414 169 124 95
0.0383619 -0.323451 -0.424 132 92 84
0.0419848 -0.326503 -0.428 121 88 81
0.043819 -0.328029 -0.43 113 82 77
0.0538238 -0.339471 -0.445 95 71 67
0.0592362 -0.346337 -0.454 89 68 67
0.0675905 -0.358543 -0.47 91 71 73
0.0798324 -0.378377 -0.496 92 74 74
0.495629 -0.379903 -0.498 174 128 102
0.819143 -0.430251 -0.564 210 212 199
0.935652 -0.429489 -0.563 204 207 190
0.969969 -0.429489 -0.563 203 205 192
0.981091 -0.428726 -0.562 203 207 192
-0.337706 -0.436679 -0.571 229 232 225
-0.317571 -0.435914 -0.57 230 231 225
-0.3078 -0.435914 -0.57 231 232 226
-0.305077 -0.436679 -0.571 229 230 224
-0.28985 -0.436679 -0.571 231 232 226
-0.274624 -0.436679 -0.571 232 233 225
-0.249171 -0.435914 -0.57 232 234 223
-0.237645 -0.436679 -0.571 234 236 225
-0.191965 -0.436679 -0.571 234 235 229
-0.186527 -0.436679 -0.571 234 235 229
-0.185439 -0.436679 -0.571 232 233 227
-0.183264 -0.436679 -0.571 233 234 228
-0.177826 -0.436679 -0.571 235 236 230
-0.0120457 -0.312023 -0.408 190 149 117
-0.00349714 -0.312023 -0.408 191 147 118
0.0129486 -0.315082 -0.412 175 129 103
0.0137333 -0.315082 -0.412 172 126 100
0.0169543 -0.316611 -0.414 169 124 95
0.0185762 -0.317376 -0.415 168 123 94
0.0308 -0.3212 -0.42 146 102 91
0.0429 -0.328083 -0.429 114 85 79
0.0467067 -0.331907 -0.434 105 77 73
0.0814286 -0.382381 -0.5 96 82 81
0.0859714 -0.390029 -0.51 101 122 169
0.089121 -0.395382 -0.517 89 113 175
0.506526 -0.376263 -0.492 179 132 104
0.507463 -0.376263 -0.492 179 132 104
0.6384 -0.428267 -0.56 199 199 189
0.977209 -0.429031 -0.561 203 207 192
0.982162 -0.429796 -0.562 202 206 191
1.02391 -0.429796 -0.562 204 207 190
-0.346886 -0.437 -0.57 229 230 224
-0.340969 -0.437767 -0.571 227 230 223
-0.334443 -0.437767 -0.571 229 232 225
-0.331686 -0.437 -0.57 230 231 225
-0.320829 -0.437 -0.57 231 232 226
-0.313229 -0.437 -0.57 229 230 222
-0.303457 -0.437 -0.57 229 230 222
-0.291514 -0.437 -0.57 231 232 226
-0.280657 -0.437 -0.57 229 230 222
-0.275229 -0.437 -0.57 231 232 226
-0.247 -0.437 -0.57 231 233 222
-0.242657 -0.437 -0.57 232 234 223
-0.227457 -0.437 -0.57 233 235 224
-0.215514 -0.437 -0.57 232 233 225
-0.199578 -0.437767 -0.571 234 235 229
-0.174563 -0.437767 -0.571 234 235 229
-0.173475 -0.437767 -0.571 235 236 230
-0.0183076 -0.313567 -0.409 190 151 118
-0.0143771 -0.3128 -0.408 192 151 119
-0.00660571 -0.3128 -0.408 193 149 120
-0.00582857 -0.3128 -0.408 192 148 119
0.0066381 -0.314333 -0.41 182 137 108
0.00741905 -0.314333 -0.41 182 137 108
0.0185762 -0.318167 -0.415 169 124 95
0.0324 -0.322 -0.42 146 100 87
0.03666 -0.3243 -0.423 136 93 84
0.0384524 -0.325833 -0.425 128 88 80
0.0457743 -0.331967 -0.433 106 78 74
0.0517771 -0.338867 -0.442 95 70 65
0.0640762 -0.355733 -0.464 89 71 71
0.0716219 -0.367233 -0.479 89 73 73
0.0785695 -0.378733 -0.494 88 72 73
0.0845 -0.3887 -0.507 105 106 124
0.107081 -0.433167 -0.565 87 116 174
0.524137 -0.4232 -0.552 126 111 104
0.495629 -0.3818 -0.498 173 127 101
0.498362 -0.380267 -0.496 174 129 100
0.502939 -0.378733 -0.494 181 134 106
0.62945 -0.424733 -0.554 204 201 194
0.953259 -0.430867 -0.562 204 206 192
0.957541 -0.430867 -0.562 204 206 192
0.974003 -0.4301 -0.561 204 206 192
0.979346 -0.4301 -0.561 202 206 191
-0.318098 -0.437317 -0.569 230 231 225
-0.312143 -0.438086 -0.57 229 230 224
-0.299114 -0.438086 -0.57 230 231 225
-0.292087 -0.437317 -0.569 230 231 225
-0.273662 -0.437317 -0.569 231 232 226
-0.254153 -0.437317 -0.569 232 233 225
-0.245483 -0.437317 -0.569 232 234 223
-0.218388 -0.437317 -0.569 233 235 224
-0.214429 -0.438086 -0.57 231 232 224
-0.2014 -0.438086 -0.57 233 234 228
-0.191629 -0.438086 -0.57 235 236 230
-0.181857 -0.438086 -0.57 235 236 230
-0.175343 -0.438086 -0.57 233 234 228
-0.135171 -0.438086 -0.57 237 238 230
-0.0198657 -0.314346 -0.409 189 148 116
-0.00893714 -0.313577 -0.408 198 155 123
-0.00738286 -0.313577 -0.408 195 152 120
0.0145181 -0.316651 -0.412 171 126 97
0.0225829 -0.319726 -0.416 162 116 92
0.0266724 -0.321263 -0.418 154 106 92
0.0549171 -0.343551 -0.447 90 71 67
0.0560181 -0.345089 -0.449 90 71 67
0.0642143 -0.357386 -0.465 89 71 71
0.0678781 -0.362766 -0.472 92 71 70
0.0815914 -0.385054 -0.501 89 77 77
0.516707 -0.416566 -0.542 141 112 98
0.498362 -0.381211 -0.496 175 130 101
0.521937 -0.370451 -0.482 170 124 91
0.86548 -0.431937 -0.562 207 209 195
0.915792 -0.431937 -0.562 205 208 191
0.930191 -0.431169 -0.561 204 207 190
0.9744 -0.4304 -0.56 203 207 192
0.975467 -0.4304 -0.56 202 206 191
0.978667 -0.4304 -0.56 203 207 192
0.988963 -0.431169 -0.561 202 206 191
-0.34411 -0.438401 -0.569 227 230 223
-0.331104 -0.438401 -0.569 229 230 224
-0.32403 -0.43763 -0.568 229 230 224
-0.313763 -0.438401 -0.569 230 231 225
-0.30726 -0.438401 -0.569 230 231 225
-0.295338 -0.438401 -0.569 230 231 225
-0.276913 -0.438401 -0.569 230 231 225
-0.266075 -0.438401 -0.569 230 232 221
-0.23898 -0.438401 -0.569 232 233 225
-0.233561 -0.438401 -0.569 232 233 225
-0.223807 -0.438401 -0.569 232 234 223
-0.218388 -0.438401 -0.569 233 234 226
-0.209717 -0.438401 -0.569 234 235 229
-0.194886 -0.439171 -0.57 234 235 229
-0.178287 -0.438401 -0.569 234 235 229
-0.172086 -0.439171 -0.57 236 237 231
-0.0182629 -0.314354 -0.408 192 151 119
-0.0104657 -0.313584 -0.407 194 151 117
-0.00969048 -0.313584 -0.407 196 153 119
0.00584286 -0.315125 -0.409 180 135 106
0.0129486 -0.317436 -0.412 171 126 97
0.0617714 -0.354419 -0.46 90 72 72
0.0666952 -0.362124 -0.47 90 72 70
0.07452 -0.374451 -0.486 89 72 80
0.500733 -0.399107 -0.518 155 118 99
0.499783 -0.397566 -0.516 161 120 98
0.494856 -0.38755 -0.503 169 125 98
0.498362 -0.382156 -0.496 176 130 104
0.507367 -0.378304 -0.491 177 127 100
0.510773 -0.375992 -0.488 176 126 99
0.512252 -0.373681 -0.485 182 132 105
0.519183 -0.37137 -0.482 181 132 100
0.52946 -0.37214 -0.483 167 122 89
0.534424 -0.373681 -0.485 163 118 87
0.640454 -0.430696 -0.559 198 198 188
0.937671 -0.432237 -0.561 205 208 191
-0.341942 -0.439485 -0.569 226 229 222
-0.337607 -0.439485 -0.569 228 231 224
-0.334355 -0.439485 -0.569 228 231 224
-0.321867 -0.438712 -0.568 229 230 224
-0.305092 -0.439485 -0.569 229 230 225
-0.301841 -0.439485 -0.569 229 230 225
-0.265608 -0.438712 -0.568 231 232 224
-0.25587 -0.438712 -0.568 232 233 225
-0.247215 -0.438712 -0.568 232 234 223
-0.203939 -0.438712 -0.568 235 236 228
-0.197795 -0.439485 -0.569 233 234 226
-0.195628 -0.439485 -0.569 234 235 229
-0.190209 -0.439485 -0.569 234 235 229
-0.188041 -0.439485 -0.569 233 234 228
-0.180454 -0.439485 -0.569 234 235 229
0.00194286 -0.315131 -0.408 182 137 108
0.00898095 -0.316676 -0.41 179 134 105
0.0121343 -0.317449 -0.411 173 127 101
0.0349657 -0.325945 -0.422 140 96 87
0.0375543 -0.32749 -0.424 128 90 81
0.05082 -0.34062 -0.441 91 71 70
0.0539448 -0.344482 -0.446 91 71 70
0.0848333 -0.393142 -0.509 123 129 161
0.516784 -0.417858 -0.541 138 110 99
0.510213 -0.410907 -0.532 145 113 100
0.504561 -0.379239 -0.491 175 128 102
0.514884 -0.373832 -0.484 176 126 99
0.552986 -0.382329 -0.495 145 109 83
0.860734 -0.433306 -0.561 206 208 194
0.865009 -0.433306 -0.561 207 209 195
0.900271 -0.433306 -0.561 206 209 190
0.946667 -0.432533 -0.56 203 205 191
0.947733 -0.432533 -0.56 203 205 191
-0.32022 -0.43902 -0.567 229 230 224
-0.31806 -0.43902 -0.567 230 231 225
-0.31213 -0.439794 -0.568 229 230 224
-0.307802 -0.439794 -0.568 230 231 225
-0.287246 -0.439794 -0.568 230 231 225
-0.280754 -0.439794 -0.568 230 231 223
-0.275345 -0.439794 -0.568 230 231 223
-0.22125 -0.439794 -0.568 233 234 226
-0.208267 -0.439794 -0.568 234 235 227
-0.192376 -0.440569 -0.569 234 235 229
-0.181538 -0.440569 -0.569 234 235 229
-0.16203 -0.440569 -0.569 236 237 229
-0.0166676 -0.315134 -0.407 195 155 120
-0.0158924 -0.315134 -0.407 193 153 118
-0.00426381 -0.315134 -0.407 188 143 114
0.0121343 -0.318231 -0.411 171 125 99
0.0193667 -0.321329 -0.415 165 119 96
0.0201571 -0.321329 -0.415 163 117 94
0.0431 -0.333717 -0.431 112 84 81
0.05082 -0.34146 -0.441 92 73 67
0.0529762 -0.344557 -0.445 92 72 71
0.0707095 -0.370883 -0.479 83 72 76
0.514943 -0.416566 -0.538 141 109 96
0.498825 -0.397983 -0.514 151 118 101
0.498831 -0.397209 -0.513 160 122 99
0.49588 -0.391789 -0.506 164 123 95
0.498362 -0.384046 -0.496 176 131 102
0.507267 -0.3794 -0.49 180 133 105
0.508094 -0.378626 -0.489 179 132 102
0.516429 -0.373206 -0.482 177 132 103
0.643733 -0.4336 -0.56 203 203 195
0.859666 -0.434374 -0.561 207 209 196
0.953067 -0.4336 -0.56 205 207 193
0.9872 -0.4336 -0.56 202 206 191
-0.339177 -0.440876 -0.568 227 230 223
-0.335931 -0.440876 -0.568 227 230 223
-0.333768 -0.440876 -0.568 227 230 223
-0.319655 -0.439324 -0.566 229 230 224
-0.315343 -0.439324 -0.566 228 229 223
-0.30942 -0.4401 -0.567 229 230 224
-0.307802 -0.440876 -0.568 230 231 225
-0.29862 -0.4401 -0.567 230 231 225
-0.290491 -0.440876 -0.568 229 230 224
-0.28242 -0.4401 -0.567 229 230 222
-0.26514 -0.4401 -0.567 231 232 226
-0.2511 -0.4401 -0.567 230 231 223
-0.24894 -0.4401 -0.567 231 233 222
-0.22626 -0.4401 -0.567 233 234 226
-0.180137 -0.440876 -0.568 234 235 229
-0.0229819 -0.317462 -0.409 192 151 119
-0.00503905 -0.31591 -0.407 184 139 110
-0.000387619 -0.31591 -0.407 185 141 112
0.00349714 -0.316686 -0.408 179 135 106
0.00740095 -0.317462 -0.409 177 133 106
0.0137333 -0.31979 -0.412 168 122 98
0.0161657 -0.321343 -0.414 166 120 97
0.0266724 -0.324448 -0.418 150 103 85
0.04588 -0.336867 -0.434 101 77 75
0.0762219 -0.38111 -0.491 89 73 73
0.0806371 -0.388871 -0.501 86 81 88
0.49686 -0.393529 -0.507 168 123 100
0.495714 -0.388095 -0.5 172 126 100
0.501057 -0.383438 -0.494 180 134 108
0.550571 -0.381886 -0.492 145 111 84
0.64702 -0.435443 -0.561 202 199 190
0.8944 -0.434667 -0.56 206 209 190
-0.33858 -0.44118 -0.567 227 230 223
-0.33534 -0.44118 -0.567 227 230 223
-0.33318 -0.44118 -0.567 227 230 223
-0.312109 -0.440402 -0.566 229 230 224
-0.3105 -0.44118 -0.567 228 229 223
-0.30834 -0.44118 -0.567 229 230 224
-0.30186 -0.44118 -0.567 229 230 224
-0.27054 -0.44118 -0.567 231 232 226
-0.23382 -0.44118 -0.567 230 231 223
-0.22302 -0.44118 -0.567 232 234 223
-0.21438 -0.44118 -0.567 232 233 225
-0.2079 -0.44118 -0.567 233 234 226
-0.1971 -0.44118 -0.567 233 234 228
-0.19494 -0.44118 -0.567 233 234 228
-0.188792 -0.441958 -0.568 234 235 229
-0.186629 -0.441958 -0.568 233 234 228
-0.0309467 -0.328356 -0.422 190 146 117
-0.00734667 -0.315907 -0.406 189 145 116
-0.00426381 -0.316685 -0.407 187 143 114
0.00428476 -0.318241 -0.409 179 135 108
0.0121343 -0.319797 -0.411 166 120 96
0.0233752 -0.323688 -0.416 157 109 89
0.0324771 -0.327578 -0.421 139 95 84
0.0459857 -0.338471 -0.435 99 78 75
0.0563924 -0.351699 -0.452 89 70 66
0.0868143 -0.400719 -0.515 119 151 200
0.495785 -0.390604 -0.502 175 129 103
0.497417 -0.385935 -0.496 176 129 103
0.500116 -0.384379 -0.494 180 133 107
0.504651 -0.382823 -0.492 175 130 101
0.510773 -0.37971 -0.488 180 133 103
0.510654 -0.378932 -0.487 181 134 104
0.511457 -0.378154 -0.486 178 131 101
0.5129 -0.37582 -0.483 176 129 99
0.518106 -0.374264 -0.481 179 132 102
0.525435 -0.374264 -0.481 171 126 93
0.539043 -0.377376 -0.485 148 113 83
0.555814 -0.385157 -0.495 143 109 82
0.565587 -0.390604 -0.502 142 108 81
0.86086 -0.434955 -0.559 206 208 194
0.86299 -0.434955 -0.559 207 209 195
0.916228 -0.434955 -0.559 203 206 189
0.922616 -0.434955 -0.559 205 208 189
0.929005 -0.434955 -0.559 204 207 190
0.939652 -0.434955 -0.559 203 206 189
0.942847 -0.434955 -0.559 203 206 187
0.960948 -0.434955 -0.559 204 206 192
-0.344451 -0.44148 -0.566 226 229 220
-0.334749 -0.44148 -0.566 228 231 224
-0.331514 -0.44148 -0.566 228 231 224
-0.317499 -0.44148 -0.566 228 231 224
-0.284078 -0.44148 -0.566 229 230 222
-0.264672 -0.44148 -0.566 230 231 225
-0.238798 -0.44148 -0.566 231 232 224
-0.23772 -0.44148 -0.566 231 232 224
-0.236642 -0.44148 -0.566 232 233 225
-0.22194 -0.44226 -0.567 232 233 225
-0.204299 -0.44148 -0.566 233 234 226
-0.19386 -0.44226 -0.567 233 234 226
-0.19278 -0.44226 -0.567 233 234 226
-0.18522 -0.44226 -0.567 234 235 227
-0.18306 -0.44226 -0.567 234 235 227
-0.18198 -0.44226 -0.567 234 235 227
-0.16686 -0.44226 -0.567 236 237 229
-0.15606 -0.44226 -0.567 236 237 231
-0.1539 -0.44226 -0.567 234 235 229
-0.0287829 -0.32292 -0.414 187 148 117
-0.025319 -0.31902 -0.409 188 149 118
-0.01276 -0.31668 -0.406 187 146 114
-0.00966667 -0.31668 -0.406 191 148 116
-0.00657333 -0.31668 -0.406 190 146 117
0.000388571 -0.31824 -0.408 188 142 116
0.00116571 -0.31824 -0.408 185 139 113
0.0541867 -0.34944 -0.448 92 73 67
0.0608952 -0.3588 -0.46 87 69 67
0.530897 -0.43524 -0.558 131 103 100
0.496824 -0.3939 -0.505 171 125 101
0.495785 -0.39156 -0.502 171 127 102
0.510773 -0.38064 -0.488 179 132 102
0.510531 -0.37908 -0.486 179 132 102
0.522514 -0.3744 -0.48 172 127 94
0.5291 -0.37518 -0.481 164 119 86
0.530016 -0.37518 -0.481 164 119 86
0.539967 -0.3783 -0.485 150 113 84
0.635687 -0.43134 -0.553 199 201 190
0.852342 -0.43602 -0.559 208 210 196
0.855536 -0.43602 -0.559 207 209 196
0.86086 -0.43602 -0.559 206 208 195
0.880026 -0.43602 -0.559 206 208 194
0.881091 -0.43602 -0.559 207 209 195
0.909839 -0.43602 -0.559 205 208 191
0.914098 -0.43602 -0.559 204 207 190
-0.340614 -0.441776 -0.565 227 228 220
-0.312633 -0.441776 -0.565 228 231 224
-0.309952 -0.442558 -0.566 229 230 224
-0.30025 -0.442558 -0.566 229 230 222
-0.292703 -0.442558 -0.566 227 228 220
-0.289469 -0.442558 -0.566 230 231 223
-0.286234 -0.442558 -0.566 230 231 223
-0.285156 -0.442558 -0.566 230 231 223
-0.276531 -0.442558 -0.566 230 231 223
-0.261438 -0.442558 -0.566 229 230 224
-0.257126 -0.442558 -0.566 231 232 226
-0.251735 -0.442558 -0.566 229 230 224
-0.244189 -0.442558 -0.566 231 232 226
-0.196752 -0.442558 -0.566 233 234 226
-0.184893 -0.442558 -0.566 233 234 226
-0.18306 -0.44334 -0.567 233 234 226
-0.17658 -0.44334 -0.567 233 234 226
-0.162253 -0.442558 -0.566 235 236 230
-0.15498 -0.44334 -0.567 235 236 230
-0.118051 -0.442558 -0.566 237 238 232
-0.0277914 -0.321363 -0.411 189 148 118
-0.00348857 -0.318235 -0.407 191 146 117
-0.00116286 -0.318235 -0.407 185 139 113
0.0325543 -0.329964 -0.422 135 91 80
0.521643 -0.426138 -0.545 134 107 100
0.496472 -0.387825 -0.496 176 130 104
0.497357 -0.387043 -0.495 177 131 105
0.502777 -0.384697 -0.492 176 129 101
0.509844 -0.38157 -0.488 179 132 102
0.5129 -0.37766 -0.483 178 131 101
0.516273 -0.376096 -0.481 177 130 100
0.519771 -0.375314 -0.48 176 129 99
0.527086 -0.375314 -0.48 168 123 90
0.532765 -0.376096 -0.481 147 110 81
0.53682 -0.37766 -0.483 153 118 90
0.544976 -0.380788 -0.487 146 111 83
0.548146 -0.382351 -0.489 145 110 82
0.554508 -0.385479 -0.493 144 109 81
0.558827 -0.387825 -0.496 144 108 82
0.646843 -0.437085 -0.559 200 200 188
0.845953 -0.437085 -0.559 207 209 195
0.86299 -0.437085 -0.559 207 209 195
0.88908 -0.436303 -0.558 206 209 192
0.9114 -0.436303 -0.558 203 206 189
0.912463 -0.436303 -0.558 204 207 190
0.964543 -0.436303 -0.558 204 206 192
0.973046 -0.436303 -0.558 203 205 191
-0.34169 -0.442852 -0.565 226 229 220
-0.315862 -0.442852 -0.565 227 230 221
-0.304024 -0.442852 -0.565 230 231 223
-0.276043 -0.442852 -0.565 230 231 223
-0.272814 -0.442852 -0.565 229 230 224
-0.269586 -0.442852 -0.565 230 231 225
-0.242681 -0.442852 -0.565 232 233 227
-0.240529 -0.442852 -0.565 231 232 224
-0.212548 -0.442852 -0.565 232 233 225
-0.203938 -0.442852 -0.565 232 233 225
-0.199633 -0.442852 -0.565 231 232 224
-0.18705 -0.443636 -0.566 233 234 226
-0.178425 -0.443636 -0.566 232 233 225
-0.177347 -0.443636 -0.566 233 234 226
-0.165488 -0.443636 -0.566 236 237 231
-0.162253 -0.443636 -0.566 235 236 230
-0.155785 -0.443636 -0.566 235 236 230
-0.15255 -0.443636 -0.566 235 236 230
-0.151472 -0.443636 -0.566 235 236 230
-0.137457 -0.443636 -0.566 236 237 229
-0.111583 -0.443636 -0.566 237 238 232
-0.0204933 -0.318227 -0.406 193 153 118
-0.0119571 -0.317443 -0.405 189 146 112
-0.0111857 -0.317443 -0.405 189 146 112
-0.00889333 -0.318227 -0.406 191 148 114
0.000388571 -0.319794 -0.408 185 142 110
0.0193667 -0.325281 -0.415 161 113 91
0.0292 -0.3292 -0.42 143 99 86
0.0316752 -0.329984 -0.421 137 93 82
0.0386333 -0.334687 -0.427 117 87 76
0.0565171 -0.355066 -0.453 90 70 69
0.0737457 -0.381715 -0.487 88 71 79
0.49981 -0.40131 -0.512 161 119 97
0.497826 -0.397391 -0.507 166 121 98
0.495673 -0.391121 -0.499 162 120 95
0.499175 -0.387202 -0.494 173 127 101
0.500903 -0.385634 -0.492 177 130 104
0.512118 -0.379364 -0.484 162 115 85
0.514592 -0.377796 -0.482 178 131 101
0.516114 -0.376229 -0.48 178 129 99
0.517943 -0.376229 -0.48 177 130 100
0.532765 -0.377012 -0.481 152 117 87
0.552258 -0.38485 -0.491 144 110 82
0.645686 -0.437366 -0.558 198 200 186
0.805492 -0.43815 -0.559 209 211 197
0.811881 -0.43815 -0.559 208 210 196
0.847629 -0.437366 -0.558 207 209 195
0.848691 -0.437366 -0.558 208 210 196
0.884829 -0.437366 -0.558 206 209 192
0.91884 -0.437366 -0.558 204 206 192
-0.316377 -0.443143 -0.564 226 229 220
-0.314229 -0.443143 -0.564 226 229 220
-0.31208 -0.443143 -0.564 227 230 221
-0.287371 -0.443143 -0.564 231 232 226
-0.284149 -0.443143 -0.564 229 230 222
-0.279271 -0.443929 -0.565 229 230 222
-0.278195 -0.443929 -0.565 229 230 222
-0.246986 -0.443929 -0.565 231 232 224
-0.232995 -0.443929 -0.565 232 233 225
-0.217929 -0.443929 -0.565 233 234 226
-0.208949 -0.443143 -0.564 232 233 225
-0.202862 -0.443929 -0.565 232 233 225
-0.180262 -0.443929 -0.565 232 233 225
-0.176269 -0.444714 -0.566 233 234 226
-0.162253 -0.444714 -0.566 235 236 230
-0.0235867 -0.319 -0.406 191 152 119
-0.0126971 -0.317429 -0.404 190 152 115
-0.00964286 -0.318214 -0.405 188 148 113
-0.00348857 -0.319786 -0.407 187 144 110
0.00116571 -0.320571 -0.408 182 139 105
0.0129486 -0.323714 -0.412 167 119 96
0.0242257 -0.327643 -0.417 152 105 89
0.0647667 -0.3685 -0.469 88 69 71
0.102566 -0.438429 -0.558 197 209 235
0.528247 -0.4345 -0.553 119 98 93
0.522338 -0.376357 -0.479 176 131 100
0.542738 -0.381071 -0.485 150 115 85
0.842314 -0.438429 -0.558 208 210 196
0.857194 -0.438429 -0.558 208 210 196
0.875263 -0.438429 -0.558 206 208 194
0.878451 -0.438429 -0.558 206 208 194
-0.338937 -0.444217 -0.564 226 229 222
-0.335714 -0.444217 -0.564 227 230 223
-0.303486 -0.444217 -0.564 229 230 224
-0.290594 -0.444217 -0.564 230 231 223
-0.273406 -0.444217 -0.564 228 229 223
-0.239029 -0.444217 -0.564 230 231 223
-0.225063 -0.444217 -0.564 231 232 224
-0.212171 -0.444217 -0.564 232 233 225
-0.210023 -0.444217 -0.564 232 233 225
-0.193176 -0.445005 -0.565 233 234 226
-0.191024 -0.445005 -0.565 233 234 226
-0.175957 -0.445005 -0.565 232 233 227
-0.159814 -0.445005 -0.565 234 235 229
-0.15551 -0.445005 -0.565 234 235 227
-0.126452 -0.445005 -0.565 236 237 229
-0.114614 -0.445005 -0.565 237 238 232
-0.0330419 -0.329225 -0.418 184 148 114
-0.0235867 -0.319773 -0.406 190 151 118
-0.0212143 -0.318986 -0.405 191 152 119
-0.000387619 -0.320561 -0.407 183 140 108
0.00898095 -0.322924 -0.41 174 126 103
0.0129486 -0.324499 -0.412 166 118 96
0.0325543 -0.332375 -0.422 131 96 74
0.05776 -0.359154 -0.456 89 69 68
0.0777857 -0.389871 -0.495 91 75 75
0.0871514 -0.407199 -0.517 174 196 233
0.504648 -0.409562 -0.52 147 112 93
0.512756 -0.379632 -0.482 176 131 102
0.529637 -0.37727 -0.479 163 122 90
0.643371 -0.437916 -0.556 199 199 191
0.64559 -0.438704 -0.557 199 199 189
0.882182 -0.438704 -0.557 206 208 194
-0.327612 -0.444502 -0.563 226 229 220
-0.311527 -0.444502 -0.563 227 230 223
-0.309382 -0.444502 -0.563 228 229 223
-0.266487 -0.444502 -0.563 230 231 225
-0.227211 -0.445291 -0.564 231 232 226
-0.20965 -0.444502 -0.563 231 232 226
-0.206433 -0.444502 -0.563 231 232 224
-0.19928 -0.445291 -0.564 233 234 226
-0.196057 -0.445291 -0.564 233 234 226
-0.143671 -0.446081 -0.565 237 238 230
-0.141519 -0.446081 -0.565 236 237 229
-0.13912 -0.445291 -0.564 236 237 229
-0.133749 -0.445291 -0.564 236 237 229
-0.0328838 -0.328442 -0.416 186 150 118
-0.0267457 -0.321336 -0.407 188 149 116
-0.0219857 -0.319757 -0.405 191 152 119
-0.00270667 -0.320547 -0.406 181 138 104
0.00584286 -0.322915 -0.409 176 131 100
0.00978571 -0.324494 -0.411 169 121 99
0.0129486 -0.325284 -0.412 166 118 96
0.01534 -0.326073 -0.413 165 117 95
0.02502 -0.329231 -0.417 150 105 84
0.0258143 -0.329231 -0.417 146 105 85
0.03692 -0.336337 -0.426 118 85 76
0.06608 -0.372655 -0.472 90 70 69
0.0777857 -0.390814 -0.495 90 75 78
0.52364 -0.43108 -0.546 118 99 92
0.498234 -0.390025 -0.494 175 127 104
0.501667 -0.386867 -0.49 177 131 105
0.506126 -0.385288 -0.488 178 129 97
0.512756 -0.38055 -0.482 180 133 103
0.516114 -0.378971 -0.48 173 126 100
0.53643 -0.379761 -0.481 155 114 84
0.841866 -0.439765 -0.557 206 208 194
0.854597 -0.439765 -0.557 206 208 194
0.856719 -0.439765 -0.557 206 208 194
0.862024 -0.439765 -0.557 206 208 194
0.886426 -0.439765 -0.557 206 209 192
0.888548 -0.439765 -0.557 205 208 191
-0.334524 -0.444783 -0.562 226 229 222
-0.325468 -0.445574 -0.563 227 230 221
-0.324395 -0.445574 -0.563 227 230 221
-0.315255 -0.444783 -0.562 227 228 222
-0.313114 -0.444783 -0.562 228 229 223
-0.305092 -0.445574 -0.563 229 230 222
-0.301339 -0.444783 -0.562 229 230 222
-0.293846 -0.444783 -0.562 229 230 222
-0.288493 -0.444783 -0.562 229 230 222
-0.265414 -0.445574 -0.563 230 231 225
-0.262197 -0.445574 -0.563 229 230 224
-0.260052 -0.445574 -0.563 229 230 224
-0.255763 -0.445574 -0.563 229 230 224
-0.248256 -0.445574 -0.563 230 231 225
-0.235388 -0.445574 -0.563 232 233 227
-0.232583 -0.446366 -0.564 231 232 226
-0.227881 -0.445574 -0.563 230 231 225
-0.225736 -0.445574 -0.563 231 232 226
-0.193565 -0.445574 -0.563 232 233 225
-0.151742 -0.445574 -0.563 234 235 227
-0.14664 -0.446366 -0.564 236 237 229
-0.136971 -0.446366 -0.564 235 236 230
-0.121931 -0.446366 -0.564 236 237 231
-0.112263 -0.446366 -0.564 236 237 231
-0.105817 -0.446366 -0.564 237 238 232
-0.104743 -0.446366 -0.564 237 238 230
-0.100446 -0.446366 -0.564 237 238 232
-0.0327257 -0.327651 -0.414 186 150 118
-0.0317829 -0.326069 -0.412 187 151 119
-0.00578571 -0.320529 -0.405 183 140 108
0.00741905 -0.324486 -0.41 169 124 95
0.0209476 -0.328443 -0.415 155 110 91
0.0242257 -0.330026 -0.417 148 105 86
0.0283324 -0.331609 -0.419 139 101 82
0.0637371 -0.370389 -0.468 88 70 68
0.0779429 -0.392549 -0.496 89 77 81
0.501763 -0.406003 -0.513 165 120 99
0.49773 -0.398089 -0.503 171 123 100
0.497697 -0.397297 -0.502 172 124 101
0.497619 -0.395714 -0.5 169 123 99
0.498234 -0.390966 -0.494 176 129 103
0.510274 -0.383051 -0.484 180 133 105
0.528531 -0.378303 -0.478 161 120 90
0.786696 -0.440826 -0.557 208 210 199
-0.330723 -0.44506 -0.561 227 229 224
-0.328586 -0.44506 -0.561 227 229 224
-0.309903 -0.445853 -0.562 227 228 222
-0.298128 -0.445853 -0.562 228 229 223
-0.292775 -0.445853 -0.562 229 230 222
-0.291705 -0.445853 -0.562 228 229 221
-0.275648 -0.445853 -0.562 229 230 222
-0.26327 -0.446647 -0.563 230 231 225
-0.256379 -0.445853 -0.562 230 231 223
-0.243967 -0.446647 -0.563 230 231 225
-0.211795 -0.446647 -0.563 232 233 225
-0.169972 -0.446647 -0.563 235 236 228
-0.142343 -0.44744 -0.564 236 237 229
-0.141269 -0.44744 -0.564 236 237 229
-0.134823 -0.44744 -0.564 235 236 230
-0.131367 -0.446647 -0.563 237 238 230
-0.10563 -0.446647 -0.563 236 237 231
-0.0325676 -0.326853 -0.412 181 146 116
-0.0274533 -0.322093 -0.406 186 147 114
-0.0219314 -0.320507 -0.404 188 148 113
-0.0196229 -0.320507 -0.404 189 149 114
-0.0165038 -0.319713 -0.403 192 152 117
0.00822 -0.32606 -0.411 170 122 99
0.06594 -0.37366 -0.471 85 69 69
0.0697971 -0.380007 -0.479 83 71 73
0.101685 -0.443473 -0.559 146 157 179
0.511406 -0.41888 -0.528 137 111 96
0.5095 -0.4165 -0.525 141 115 100
0.498748 -0.400633 -0.505 169 123 99
0.499029 -0.39032 -0.492 174 129 100
0.50843 -0.383973 -0.484 181 134 106
0.50922 -0.38318 -0.483 181 134 106
0.523069 -0.379213 -0.478 174 127 97
0.526517 -0.37842 -0.477 170 123 95
0.555999 -0.389527 -0.491 149 110 81
0.629605 -0.432367 -0.545 197 194 185
-0.337134 -0.446129 -0.561 227 228 220
-0.336066 -0.446129 -0.561 226 227 219
-0.320608 -0.446924 -0.562 227 228 222
-0.318969 -0.446129 -0.561 228 229 221
-0.270295 -0.446924 -0.562 230 231 223
-0.267084 -0.446924 -0.562 229 230 222
-0.243533 -0.446924 -0.562 230 231 225
-0.242463 -0.446924 -0.562 230 231 225
-0.233899 -0.446924 -0.562 231 232 226
-0.232829 -0.446924 -0.562 231 232 224
-0.181769 -0.447719 -0.563 234 235 229
-0.172117 -0.447719 -0.563 233 234 228
-0.162466 -0.447719 -0.563 235 236 230
-0.137801 -0.447719 -0.563 235 236 230
-0.0691686 -0.447719 -0.563 230 235 231
-0.0670238 -0.447719 -0.563 229 234 230
-0.0219314 -0.321276 -0.404 188 148 113
-0.0149686 -0.320481 -0.403 191 151 116
-0.00424286 -0.322071 -0.405 182 137 106
0.000387619 -0.323662 -0.407 176 133 101
0.00584286 -0.325252 -0.409 169 122 96
0.0209476 -0.330024 -0.415 156 110 87
0.0242257 -0.331614 -0.417 148 103 82
0.0258143 -0.331614 -0.417 144 101 82
0.0360238 -0.337976 -0.425 114 81 72
0.0493629 -0.35229 -0.443 91 73 73
0.0557771 -0.361038 -0.454 88 70 70
0.520906 -0.430224 -0.541 125 108 101
0.514267 -0.423067 -0.532 131 111 102
0.49872 -0.4008 -0.504 170 126 101
0.497574 -0.396824 -0.499 171 127 102
0.521248 -0.380124 -0.478 174 127 97
0.521066 -0.379329 -0.477 174 127 97
0.624984 -0.430224 -0.541 191 189 177
0.785284 -0.442152 -0.556 209 211 200
0.787402 -0.442152 -0.556 209 211 198
0.791638 -0.442152 -0.556 208 210 196
0.831882 -0.442152 -0.556 207 210 193
-0.3376 -0.4464 -0.56 226 227 219
-0.3344 -0.4464 -0.56 227 228 220
-0.332267 -0.4464 -0.56 226 227 219
-0.321106 -0.447197 -0.561 227 228 220
-0.312557 -0.447197 -0.561 228 229 223
-0.28798 -0.447197 -0.561 229 230 224
-0.284774 -0.447197 -0.561 229 230 224
-0.271951 -0.447197 -0.561 230 231 223
-0.264471 -0.447197 -0.561 230 231 223
-0.228547 -0.447994 -0.562 231 232 226
-0.214249 -0.447197 -0.561 232 233 225
-0.193221 -0.447994 -0.562 233 234 226
-0.14719 -0.447994 -0.562 236 237 231
-0.14612 -0.447994 -0.562 236 237 231
-0.131133 -0.447994 -0.562 236 237 231
-0.116147 -0.447994 -0.562 236 237 231
-0.0604819 -0.447994 -0.562 219 203 187
0.0201571 -0.330814 -0.415 159 111 88
0.0258762 -0.333206 -0.418 146 101 82
0.0275343 -0.334003 -0.419 143 100 83
0.063601 -0.372266 -0.467 85 71 70
0.07544 -0.392194 -0.492 88 74 73
0.101867 -0.4464 -0.56 183 194 216
0.506629 -0.414514 -0.52 150 114 102
0.498689 -0.400963 -0.503 171 127 102
0.50843 -0.385817 -0.484 181 134 104
0.5083 -0.38502 -0.483 180 133 103
0.50922 -0.38502 -0.483 176 129 99
0.516864 -0.381831 -0.479 172 127 94
0.519427 -0.381034 -0.478 174 129 96
-0.328 -0.447467 -0.56 227 228 222
-0.320037 -0.448266 -0.561 227 228 220
-0.2864 -0.447467 -0.56 228 229 223
-0.283706 -0.448266 -0.561 230 231 225
-0.27302 -0.448266 -0.561 230 231 223
-0.260197 -0.448266 -0.561 230 231 223
-0.236689 -0.448266 -0.561 230 231 223
-0.222797 -0.448266 -0.561 231 232 226
-0.212111 -0.448266 -0.561 231 232 224
-0.209974 -0.448266 -0.561 231 232 224
-0.182516 -0.449065 -0.562 232 233 225
-0.181446 -0.449065 -0.562 232 233 225
-0.16753 -0.449065 -0.562 234 235 229
-0.141838 -0.449065 -0.562 235 236 230
-0.127922 -0.449065 -0.562 235 236 228
-0.125781 -0.449065 -0.562 236 237 229
-0.119358 -0.449065 -0.562 236 237 231
-0.117217 -0.449065 -0.562 235 236 228
-0.0615524 -0.449065 -0.562 219 216 207
-0.03614 -0.333203 -0.417 187 147 112
-0.0314743 -0.326011 -0.408 188 147 115
-0.018039 -0.322016 -0.403 191 151 116
-0.0172714 -0.322016 -0.403 191 148 114
0.03 -0.3356 -0.42 132 92 80
0.0370067 -0.341193 -0.427 112 82 71
0.0416505 -0.345988 -0.433 102 77 70
0.0473524 -0.351581 -0.44 94 73 68
0.0555314 -0.36117 -0.452 87 69 67
0.0590143 -0.366763 -0.459 85 70 67
0.498653 -0.401122 -0.502 167 122 99
0.504977 -0.388337 -0.486 181 134 106
0.507633 -0.387538 -0.485 180 133 103
0.52431 -0.379548 -0.475 170 124 91
0.525214 -0.379548 -0.475 169 123 90
0.638409 -0.438677 -0.549 197 193 182
1.02688 -0.457055 -0.572 108 110 107
-0.312 -0.448533 -0.56 228 229 223
-0.262933 -0.448533 -0.56 229 230 222
-0.259733 -0.448533 -0.56 229 230 222
-0.224934 -0.449334 -0.561 232 233 227
-0.181446 -0.450135 -0.562 232 233 225
-0.180054 -0.449334 -0.561 232 233 225
-0.177917 -0.449334 -0.561 233 234 228
-0.159751 -0.449334 -0.561 235 236 230
-0.131969 -0.449334 -0.561 234 235 227
-0.11594 -0.449334 -0.561 235 236 228
