ply
format ascii 1.0
comment Created by Open3D
element vertex 1290
property double x
property double y
property double z
property uchar red
property uchar green
property uchar blue
end_header
0.535429 -0.415429 -0.6 48 71 112
0.494748 -0.370424 -0.535 161 115 99
0.492987 -0.368347 -0.532 163 117 101
0.489954 -0.357269 -0.516 176 129 109
0.493952 -0.350345 -0.506 178 132 109
0.4968 -0.34896 -0.504 171 125 101
0.49773 -0.348268 -0.503 170 124 100
0.503479 -0.348268 -0.503 171 125 101
0.504437 -0.348268 -0.503 164 118 94
0.51984 -0.34896 -0.504 164 118 92
0.528729 -0.351037 -0.507 158 114 89
0.530739 -0.35173 -0.508 159 115 90
0.0107486 -0.290211 -0.418 197 155 130
0.0235438 -0.290906 -0.419 194 148 122
0.0333581 -0.292989 -0.422 182 134 112
0.0389848 -0.292989 -0.422 177 129 107
0.0558438 -0.297154 -0.428 142 98 89
0.06062 -0.300626 -0.433 128 87 81
0.0748019 -0.315206 -0.454 91 71 72
0.207083 -0.415877 -0.599 102 123 186
0.226479 -0.415877 -0.599 214 217 234
0.244734 -0.415877 -0.599 130 160 212
0.255003 -0.415877 -0.599 210 212 235
0.297218 -0.415877 -0.599 82 115 158
0.308628 -0.415877 -0.599 40 85 152
0.314332 -0.415877 -0.599 92 118 169
0.317755 -0.415877 -0.599 163 177 204
0.32346 -0.415877 -0.599 82 93 121
0.359429 -0.416571 -0.6 148 154 178
0.39895 -0.417266 -0.601 26 60 124
0.41841 -0.417266 -0.601 157 171 184
0.435582 -0.417266 -0.601 64 103 160
0.449319 -0.417266 -0.601 168 168 176
0.4558 -0.41796 -0.602 105 110 132
0.464973 -0.41796 -0.602 75 112 167
0.46612 -0.41796 -0.602 43 75 132
0.493311 -0.418654 -0.603 64 94 144
0.498227 -0.41796 -0.602 80 109 151
0.500077 -0.376997 -0.543 148 115 98
0.48979 -0.361029 -0.52 169 124 103
0.488934 -0.358946 -0.517 170 125 104
0.508215 -0.348531 -0.502 171 124 98
0.516892 -0.349226 -0.503 167 120 94
0.524719 -0.350614 -0.505 169 123 99
-0.00453619 -0.30145 -0.433 189 152 126
0.0075819 -0.291704 -0.419 199 158 130
0.0115448 -0.291008 -0.418 197 156 126
0.0139 -0.290311 -0.417 197 156 126
0.0292 -0.2924 -0.42 186 139 113
0.0373771 -0.293792 -0.422 179 133 110
0.0489762 -0.295881 -0.425 157 110 94
0.0702429 -0.311197 -0.447 95 77 73
0.0845952 -0.33069 -0.475 91 71 72
0.11242 -0.375247 -0.539 237 238 255
0.145714 -0.417714 -0.6 134 152 198
0.204459 -0.416322 -0.598 91 121 181
0.225338 -0.417018 -0.599 214 219 239
0.230657 -0.416322 -0.598 174 193 223
0.236352 -0.416322 -0.598 132 164 215
0.23977 -0.416322 -0.598 86 123 176
0.258426 -0.417018 -0.599 163 168 190
0.259567 -0.417018 -0.599 151 163 187
0.288749 -0.416322 -0.598 170 185 208
0.292166 -0.416322 -0.598 94 109 138
0.317755 -0.417018 -0.599 180 192 216
0.331447 -0.417018 -0.599 29 68 137
0.338292 -0.417018 -0.599 28 62 134
0.343997 -0.417018 -0.599 99 134 190
0.350286 -0.417714 -0.6 169 174 194
0.366286 -0.417714 -0.6 50 90 151
0.375429 -0.417714 -0.6 73 110 162
0.388 -0.417714 -0.6 124 127 136
0.389143 -0.417714 -0.6 146 151 170
0.408571 -0.417714 -0.6 131 147 180
0.410857 -0.417714 -0.6 131 134 149
0.428 -0.417714 -0.6 56 95 152
0.492493 -0.419107 -0.602 73 100 147
0.512281 -0.41841 -0.601 158 162 161
0.521714 -0.417714 -0.6 101 121 148
0.524 -0.417714 -0.6 124 138 165
0.529972 -0.417018 -0.599 132 138 162
0.52334 -0.398917 -0.573 139 113 112
0.493938 -0.351576 -0.505 175 127 105
0.500566 -0.349488 -0.502 173 125 102
0.513952 -0.349488 -0.502 173 125 102
-0.00201429 -0.295294 -0.423 194 157 130
0.00995238 -0.291804 -0.418 197 158 127
0.01946 -0.291106 -0.417 195 151 122
0.0243419 -0.292502 -0.419 190 145 116
0.0324771 -0.293898 -0.421 181 133 110
0.0365733 -0.294596 -0.422 180 134 111
0.0440152 -0.295992 -0.424 175 128 108
0.0577429 -0.300181 -0.43 131 92 87
0.231796 -0.417461 -0.598 125 147 186
0.235213 -0.417461 -0.598 118 149 203
0.252299 -0.417461 -0.598 191 201 228
0.269385 -0.417461 -0.598 50 84 156
0.27508 -0.417461 -0.598 52 85 162
0.276219 -0.417461 -0.598 50 83 160
0.300139 -0.417461 -0.598 57 95 158
0.318364 -0.417461 -0.598 186 194 215
0.340574 -0.418159 -0.599 28 64 138
0.366816 -0.418159 -0.599 51 92 156
0.373662 -0.418159 -0.599 61 97 157
0.380508 -0.418159 -0.599 175 181 193
0.390776 -0.418159 -0.599 104 123 163
0.40675 -0.418159 -0.599 77 108 155
0.43071 -0.418159 -0.599 58 95 147
0.453143 -0.418857 -0.6 88 94 120
0.46878 -0.419555 -0.601 78 93 134
0.496254 -0.419555 -0.601 110 132 171
0.506557 -0.419555 -0.601 149 158 187
0.52655 -0.418159 -0.599 119 130 152
0.4915 -0.3665 -0.525 166 125 105
0.490781 -0.36301 -0.52 167 126 104
0.491064 -0.35533 -0.509 174 128 105
0.503434 -0.350444 -0.502 167 119 96
0.513952 -0.350444 -0.502 171 125 101
0.522641 -0.351142 -0.503 153 111 87
0.5256 -0.35184 -0.504 154 109 86
0.541826 -0.358123 -0.513 150 108 86
0.00199524 -0.2933 -0.419 198 159 130
0.00834 -0.2919 -0.417 197 158 125
0.0154886 -0.2919 -0.417 195 154 122
0.0186657 -0.2919 -0.417 195 152 120
0.0267362 -0.2933 -0.419 189 143 117
0.0365733 -0.2954 -0.422 179 133 109
0.0397886 -0.2954 -0.422 173 127 104
0.0440152 -0.2968 -0.424 175 127 107
0.0497857 -0.2975 -0.425 151 102 88
0.0515257 -0.2982 -0.426 151 103 91
0.0532733 -0.2989 -0.427 147 100 90
0.0569238 -0.301 -0.43 133 92 86
0.0835143 -0.3318 -0.474 92 72 74
0.089699 -0.3416 -0.488 90 73 79
0.107514 -0.371 -0.53 233 236 253
0.109343 -0.3738 -0.534 238 241 255
0.111187 -0.3766 -0.538 238 240 255
0.137026 -0.4179 -0.597 124 144 195
0.138626 -0.4193 -0.599 117 137 188
0.142049 -0.4193 -0.599 127 149 199
0.2189 -0.4179 -0.597 176 184 220
0.222311 -0.4179 -0.597 173 181 217
0.223449 -0.4179 -0.597 191 203 227
0.248882 -0.4186 -0.598 117 145 184
0.262111 -0.4179 -0.597 97 120 162
0.288266 -0.4179 -0.597 195 202 228
0.333171 -0.4186 -0.598 24 64 126
0.33545 -0.4186 -0.598 24 65 131
0.362252 -0.4193 -0.599 58 95 163
0.363393 -0.4193 -0.599 73 110 178
0.365675 -0.4193 -0.599 57 96 153
0.371899 -0.4186 -0.598 80 116 174
0.373038 -0.4186 -0.598 63 99 157
0.405609 -0.4193 -0.599 50 76 127
0.40789 -0.4193 -0.599 76 89 123
0.415877 -0.4193 -0.599 166 173 183
0.4193 -0.4193 -0.599 167 175 188
0.429569 -0.4193 -0.599 77 109 158
0.444401 -0.4193 -0.599 162 169 177
0.450857 -0.42 -0.6 134 140 156
0.468 -0.42 -0.6 77 87 122
0.489386 -0.4207 -0.601 107 124 152
0.496254 -0.4207 -0.601 114 134 171
0.498544 -0.4207 -0.601 114 134 169
0.502286 -0.42 -0.6 84 104 139
0.510286 -0.42 -0.6 158 156 169
0.513999 -0.4193 -0.599 134 144 153
0.499371 -0.378 -0.54 157 117 105
0.492369 -0.3689 -0.527 165 123 101
0.490992 -0.3598 -0.514 173 128 105
0.492989 -0.3542 -0.506 174 128 104
0.499609 -0.3514 -0.502 173 127 104
0.50439 -0.3514 -0.502 168 120 97
0.506303 -0.3514 -0.502 175 127 104
-0.002 -0.2948 -0.42 191 154 125
0.0170771 -0.292694 -0.417 194 151 119
0.0218952 -0.293396 -0.418 192 147 118
0.0324771 -0.295502 -0.421 184 136 113
0.0597952 -0.303925 -0.433 122 84 81
0.0670829 -0.310944 -0.443 100 76 74
0.08694 -0.33902 -0.483 91 73 73
0.119357 -0.390961 -0.557 237 234 253
0.223449 -0.419037 -0.597 168 175 201
0.230271 -0.419037 -0.597 113 138 178
0.23482 -0.419037 -0.597 99 127 177
0.248466 -0.419037 -0.597 129 147 183
0.31442 -0.419037 -0.597 182 194 220
0.317831 -0.419037 -0.597 184 192 211
0.318969 -0.419037 -0.597 185 193 212
0.321243 -0.419037 -0.597 183 191 210
0.324654 -0.419037 -0.597 172 184 206
0.33034 -0.419037 -0.597 34 71 123
0.340006 -0.419739 -0.598 35 75 137
0.364534 -0.420441 -0.599 65 113 162
0.37076 -0.419739 -0.598 75 113 175
0.378733 -0.419739 -0.598 176 179 196
0.387846 -0.419739 -0.598 90 106 132
0.391263 -0.419739 -0.598 69 93 137
0.396958 -0.419739 -0.598 86 112 171
0.4186 -0.419739 -0.598 168 174 188
0.420878 -0.419739 -0.598 155 169 180
0.428851 -0.419739 -0.598 85 115 169
0.459233 -0.420441 -0.599 130 142 166
0.462656 -0.420441 -0.599 71 90 120
0.478286 -0.421143 -0.6 152 162 172
0.480571 -0.421143 -0.6 159 161 174
0.484 -0.421143 -0.6 165 164 178
0.511717 -0.420441 -0.599 137 142 161
0.515586 -0.393769 -0.561 147 115 104
0.490867 -0.363587 -0.518 168 128 103
0.490904 -0.362885 -0.517 167 127 102
0.500566 -0.352356 -0.502 173 127 103
0.503434 -0.352356 -0.502 164 116 93
0.513883 -0.351654 -0.501 172 124 101
0.514837 -0.351654 -0.501 171 123 100
0.522558 -0.352356 -0.502 162 116 93
-0.002 -0.2956 -0.42 192 153 124
0.0106971 -0.292785 -0.416 196 155 125
0.014659 -0.292785 -0.416 195 151 122
0.0218952 -0.294192 -0.418 192 147 116
0.0226914 -0.294192 -0.418 190 145 114
0.038181 -0.297008 -0.422 175 129 105
0.0440152 -0.298415 -0.424 174 123 104
0.0448229 -0.298415 -0.424 169 118 99
0.0599333 -0.305453 -0.434 119 84 80
0.0744257 -0.321641 -0.457 94 72 74
0.077 -0.32516 -0.462 91 71 72
0.09552 -0.35472 -0.504 93 74 80
0.106304 -0.372315 -0.529 227 229 250
0.109957 -0.377946 -0.537 234 235 255
0.139533 -0.420878 -0.598 110 132 189
0.215128 -0.41947 -0.596 102 126 196
0.2189 -0.420174 -0.597 101 128 175
0.233291 -0.41947 -0.596 85 118 169
0.238968 -0.41947 -0.596 61 104 173
0.294594 -0.41947 -0.596 153 158 178
0.318434 -0.41947 -0.596 185 192 210
0.326381 -0.41947 -0.596 118 134 167
0.357631 -0.420174 -0.597 162 166 175
0.363926 -0.420878 -0.598 62 106 153
0.38606 -0.420174 -0.597 127 134 150
0.396294 -0.420174 -0.597 75 99 147
0.414489 -0.420174 -0.597 168 177 184
0.462656 -0.421582 -0.599 93 109 134
0.486286 -0.422286 -0.6 159 167 180
0.499167 -0.421582 -0.599 81 102 145
0.535265 -0.41947 -0.596 129 136 152
0.5364 -0.41947 -0.596 138 141 160
0.495944 -0.37513 -0.533 155 117 104
0.490992 -0.361758 -0.514 169 124 103
0.491014 -0.361054 -0.513 171 126 105
0.493938 -0.355424 -0.505 172 126 103
0.50434 -0.352609 -0.501 175 127 104
0.509111 -0.352609 -0.501 171 123 100
0.520646 -0.353312 -0.502 166 120 96
-0.00119429 -0.294989 -0.418 193 154 123
0.00198571 -0.294283 -0.417 197 156 126
0.018621 -0.293577 -0.416 192 147 118
0.0324771 -0.297106 -0.421 186 139 111
0.0464381 -0.299223 -0.424 158 110 90
0.05246 -0.30134 -0.427 138 95 86
0.0939971 -0.353563 -0.501 93 72 79
0.102909 -0.368383 -0.522 145 141 164
0.240103 -0.420606 -0.596 74 114 184
0.267349 -0.420606 -0.596 74 106 165
0.270754 -0.420606 -0.596 51 84 151
0.279836 -0.420606 -0.596 162 189 232
0.285512 -0.420606 -0.596 202 205 224
0.301406 -0.420606 -0.596 71 111 170
0.322975 -0.420606 -0.596 170 181 201
0.32411 -0.420606 -0.596 139 150 170
0.327516 -0.420606 -0.596 67 92 132
0.337163 -0.421311 -0.597 70 107 160
0.35422 -0.421311 -0.597 181 179 184
0.359906 -0.421311 -0.597 94 113 153
0.365065 -0.422017 -0.598 85 123 168
0.366729 -0.421311 -0.597 88 121 172
0.367866 -0.421311 -0.597 98 131 182
0.371277 -0.421311 -0.597 73 106 159
0.372414 -0.421311 -0.597 82 115 168
0.3781 -0.421311 -0.597 181 182 200
0.388334 -0.421311 -0.597 74 90 123
0.400171 -0.420606 -0.596 133 158 188
0.447466 -0.421311 -0.597 157 163 177
0.468718 -0.422017 -0.598 129 141 163
0.488898 -0.422723 -0.599 106 121 140
0.496885 -0.422723 -0.599 95 120 161
0.490967 -0.363443 -0.515 177 132 111
0.495814 -0.354974 -0.503 175 129 106
0.507203 -0.353563 -0.501 172 125 99
0.512857 -0.352857 -0.5 171 125 99
0.525427 -0.354269 -0.502 162 120 96
0.536454 -0.357797 -0.507 152 111 89
0.00278 -0.295077 -0.417 197 156 126
0.00516286 -0.295077 -0.417 198 157 125
0.00990476 -0.29437 -0.416 196 155 123
0.02508 -0.295785 -0.418 187 142 111
0.0348829 -0.297908 -0.421 178 130 107
0.0397886 -0.298615 -0.422 174 126 103
0.0815362 -0.334704 -0.473 92 72 73
0.101524 -0.367962 -0.52 93 95 120
0.106907 -0.376453 -0.532 205 214 243
0.140202 -0.421741 -0.596 102 128 187
0.228367 -0.421033 -0.595 189 197 220
0.237433 -0.421033 -0.595 72 111 178
0.241967 -0.421033 -0.595 96 131 187
0.2465 -0.421033 -0.595 145 174 234
0.262367 -0.421033 -0.595 165 182 225
0.2635 -0.421033 -0.595 139 156 199
0.285033 -0.421033 -0.595 204 207 222
0.291833 -0.421033 -0.595 184 185 203
0.3213 -0.421033 -0.595 189 195 211
0.3281 -0.421033 -0.595 62 86 132
0.342274 -0.421741 -0.596 56 86 140
0.355897 -0.421741 -0.596 179 179 189
0.368385 -0.421741 -0.596 110 141 188
0.44178 -0.422449 -0.597 158 164 180
0.46566 -0.422449 -0.597 143 154 174
0.470209 -0.422449 -0.597 143 151 170
0.47783 -0.423156 -0.598 100 110 137
0.49036 -0.423156 -0.598 74 90 123
0.491499 -0.423156 -0.598 74 93 135
0.51428 -0.423156 -0.598 96 106 131
0.533233 -0.421033 -0.595 138 142 153
0.491853 -0.366547 -0.518 173 128 109
0.491047 -0.361593 -0.511 170 125 104
0.500566 -0.355225 -0.502 172 126 102
0.510066 -0.354517 -0.501 173 128 99
0.51381 -0.35381 -0.5 170 125 96
0.5177 -0.354517 -0.501 168 123 94
0.52839 -0.355932 -0.503 161 119 95
0.529348 -0.355932 -0.503 160 118 94
-0.00939714 -0.304386 -0.429 189 154 126
-0.00278667 -0.296581 -0.418 195 158 129
0.00198095 -0.295162 -0.416 197 158 125
0.00673524 -0.295162 -0.416 199 158 126
0.0178286 -0.295162 -0.416 191 148 116
0.0242838 -0.296581 -0.418 188 143 114
0.034081 -0.29871 -0.421 178 130 107
0.0431057 -0.300129 -0.423 169 121 99
0.0507143 -0.302257 -0.426 143 101 89
0.101719 -0.369662 -0.521 121 126 155
0.123229 -0.404429 -0.57 138 155 185
0.217033 -0.422167 -0.595 205 214 245
0.2193 -0.422167 -0.595 204 211 227
0.3349 -0.422167 -0.595 73 93 126
0.353627 -0.422876 -0.596 182 181 187
0.372926 -0.422876 -0.596 120 139 172
0.383143 -0.422876 -0.596 180 186 200
0.386549 -0.422876 -0.596 79 98 128
0.4165 -0.422167 -0.595 166 178 192
0.418767 -0.422167 -0.595 167 175 194
0.426282 -0.422876 -0.596 88 113 154
0.433093 -0.422876 -0.596 81 103 144
0.439905 -0.422876 -0.596 158 163 183
0.452014 -0.423586 -0.597 151 163 189
0.454289 -0.423586 -0.597 146 154 175
0.462249 -0.423586 -0.597 93 96 113
0.46566 -0.423586 -0.597 152 160 181
0.5321 -0.422167 -0.595 141 148 158
0.50596 -0.3874 -0.546 146 114 99
0.491948 -0.365405 -0.515 175 133 111
0.491032 -0.363276 -0.512 172 127 106
0.49296 -0.3576 -0.504 172 126 103
0.501522 -0.356181 -0.502 169 123 99
-0.00518762 -0.298089 -0.419 190 153 124
0.0275343 -0.298089 -0.419 188 142 118
0.0307267 -0.298089 -0.419 184 138 114
0.0332 -0.2988 -0.42 180 132 109
0.0405924 -0.300223 -0.422 171 123 100
0.06342 -0.31374 -0.441 101 75 74
0.0644057 -0.314451 -0.442 100 75 71
0.0778333 -0.332237 -0.467 88 69 71
0.0966571 -0.362829 -0.51 96 77 83
0.11139 -0.387017 -0.544 205 210 242
0.135206 -0.422589 -0.594 110 134 182
0.139967 -0.4233 -0.595 109 134 190
0.212143 -0.422589 -0.594 118 144 201
0.215537 -0.422589 -0.594 199 206 234
0.226851 -0.422589 -0.594 208 210 231
0.266451 -0.422589 -0.594 74 101 156
0.267583 -0.422589 -0.594 75 102 157
0.283423 -0.422589 -0.594 206 205 219
0.284554 -0.422589 -0.594 196 199 208
0.28908 -0.422589 -0.594 205 205 215
0.330943 -0.422589 -0.594 144 162 200
0.349633 -0.4233 -0.595 185 182 193
0.371167 -0.4233 -0.595 108 135 182
0.3723 -0.4233 -0.595 136 155 185
0.3791 -0.4233 -0.595 178 185 203
0.387033 -0.4233 -0.595 139 156 182
0.3995 -0.4233 -0.595 169 177 196
0.411967 -0.4233 -0.595 137 149 175
0.4233 -0.4233 -0.595 77 100 141
0.427417 -0.424011 -0.596 86 112 149
0.428967 -0.4233 -0.595 102 123 170
0.44331 -0.424011 -0.596 154 163 180
0.444446 -0.424011 -0.596 142 151 168
0.458433 -0.4233 -0.595 154 157 172
0.503186 -0.424723 -0.597 130 145 168
0.520507 -0.424011 -0.596 153 161 164
0.5253 -0.4233 -0.595 133 136 145
0.535731 -0.422589 -0.594 131 135 147
0.536863 -0.422589 -0.594 130 132 147
0.49444 -0.374211 -0.526 165 124 106
0.492762 -0.369943 -0.52 171 124 106
0.49284 -0.36852 -0.518 171 122 105
0.492025 -0.359983 -0.506 172 125 105
0.509048 -0.355714 -0.5 175 126 96
0.513732 -0.355003 -0.499 173 126 98
0.525334 -0.356426 -0.501 165 119 93
0.00277333 -0.296747 -0.416 188 149 120
0.00434762 -0.296033 -0.415 188 149 118
0.0397886 -0.301027 -0.422 173 123 100
0.0405924 -0.301027 -0.422 173 123 100
0.078 -0.33384 -0.468 88 68 69
0.0852762 -0.345253 -0.484 90 72 68
0.140626 -0.423007 -0.593 110 135 192
0.212915 -0.423007 -0.593 144 172 222
0.22572 -0.42372 -0.594 202 211 220
0.350767 -0.424433 -0.595 179 176 197
0.3519 -0.424433 -0.595 183 180 201
0.3723 -0.424433 -0.595 138 155 181
0.373433 -0.424433 -0.595 158 175 201
0.387514 -0.42372 -0.594 163 175 191
0.397697 -0.42372 -0.594 170 178 199
0.410143 -0.42372 -0.594 74 90 116
0.413537 -0.42372 -0.594 158 170 196
0.422167 -0.424433 -0.595 117 134 152
0.428967 -0.424433 -0.595 93 113 163
0.4505 -0.424433 -0.595 152 160 183
0.4573 -0.424433 -0.595 159 165 179
0.4607 -0.424433 -0.595 137 143 155
0.503186 -0.42586 -0.597 127 143 168
0.526433 -0.424433 -0.595 107 107 115
0.491991 -0.36594 -0.513 169 124 105
0.492976 -0.360233 -0.505 173 126 106
0.493898 -0.358807 -0.503 171 124 104
0.498614 -0.35738 -0.501 173 127 103
0.500566 -0.358093 -0.502 174 128 104
0.510952 -0.356667 -0.5 172 125 95
0.520386 -0.355953 -0.499 163 116 88
0.00828 -0.296109 -0.414 203 159 130
0.0162048 -0.296824 -0.415 189 145 116
0.0202057 -0.297539 -0.416 190 145 116
0.0364867 -0.301115 -0.421 179 129 106
0.0507143 -0.304691 -0.426 145 98 88
0.0533981 -0.306122 -0.428 128 88 78
0.0592429 -0.311129 -0.435 109 80 76
0.0716571 -0.326149 -0.456 90 69 68
0.0809762 -0.339738 -0.475 91 69 72
0.0823981 -0.341884 -0.478 92 67 73
0.0989686 -0.369778 -0.517 83 84 105
0.107911 -0.384083 -0.537 211 228 248
0.210656 -0.424136 -0.593 86 118 179
0.24793 -0.424136 -0.593 206 218 232
0.251319 -0.424136 -0.593 209 217 236
0.252449 -0.424136 -0.593 209 217 236
0.255837 -0.424136 -0.593 209 215 231
0.275039 -0.424136 -0.593 107 133 182
0.287464 -0.424136 -0.593 206 207 211
0.289723 -0.424136 -0.593 205 205 217
0.294241 -0.424136 -0.593 128 158 186
0.301018 -0.424136 -0.593 129 160 204
0.34452 -0.424851 -0.594 99 109 134
0.388646 -0.424851 -0.594 174 181 197
0.4267 -0.425567 -0.595 87 113 146
0.442954 -0.424851 -0.594 80 93 109
0.4607 -0.425567 -0.595 148 157 166
0.461833 -0.425567 -0.595 148 157 166
0.4777 -0.425567 -0.595 73 88 117
0.501208 -0.426282 -0.596 120 137 165
0.51029 -0.426282 -0.596 108 126 136
0.511425 -0.426282 -0.596 125 143 153
0.535959 -0.424136 -0.593 135 137 150
0.524183 -0.406255 -0.568 134 109 105
0.505238 -0.357619 -0.5 172 125 95
0.521336 -0.356904 -0.499 167 120 92
-0.00197619 -0.297614 -0.415 196 155 125
0.000395238 -0.297614 -0.415 199 155 126
0.00354857 -0.296897 -0.414 173 130 96
0.00749143 -0.296897 -0.414 203 158 127
0.0218429 -0.299049 -0.417 191 146 117
0.02508 -0.299766 -0.418 185 140 111
0.034 -0.3012 -0.42 178 128 105
0.0397886 -0.302634 -0.422 173 122 101
0.0456305 -0.304069 -0.424 154 107 87
0.0507143 -0.305503 -0.426 142 98 87
0.05828 -0.31124 -0.434 109 81 77
0.0939714 -0.362874 -0.506 96 75 80
0.09916 -0.37148 -0.518 88 92 121
0.138133 -0.424549 -0.592 109 132 186
0.223832 -0.424549 -0.592 183 176 183
0.257661 -0.424549 -0.592 160 172 194
0.261044 -0.424549 -0.592 80 111 168
0.27683 -0.424549 -0.592 87 119 170
0.310659 -0.424549 -0.592 186 196 221
0.328701 -0.424549 -0.592 161 173 195
0.330956 -0.424549 -0.592 169 180 198
0.332084 -0.424549 -0.592 147 158 176
0.338292 -0.425266 -0.593 167 175 198
0.355834 -0.425983 -0.594 180 180 204
0.36653 -0.425266 -0.593 88 112 156
0.371049 -0.425266 -0.593 127 145 181
0.373308 -0.425266 -0.593 180 188 211
0.384603 -0.425266 -0.593 173 186 203
0.387991 -0.425266 -0.593 178 188 197
0.408323 -0.425266 -0.593 142 150 173
0.461057 -0.425983 -0.594 154 164 174
0.469767 -0.4267 -0.595 152 162 172
0.4709 -0.4267 -0.595 153 163 173
0.473167 -0.4267 -0.595 151 164 173
0.500367 -0.4267 -0.595 106 131 162
0.5049 -0.4267 -0.595 96 113 141
0.535959 -0.425266 -0.593 136 136 148
0.526951 -0.409489 -0.571 131 107 103
0.498129 -0.380803 -0.531 155 116 101
0.507143 -0.358571 -0.5 174 129 100
0.515549 -0.357137 -0.498 168 121 93
0.533076 -0.360006 -0.502 158 116 91
-0.00594286 -0.299124 -0.416 192 150 125
0.000395238 -0.298405 -0.415 197 152 123
0.00749143 -0.297686 -0.414 202 155 125
0.00828 -0.297686 -0.414 198 153 124
0.0266724 -0.300562 -0.418 185 139 113
0.0324 -0.302 -0.42 180 132 109
0.0356848 -0.302719 -0.421 178 127 106
0.0516467 -0.307033 -0.427 132 90 78
0.211429 -0.425676 -0.592 94 122 172
0.236236 -0.425676 -0.592 133 165 214
0.256533 -0.425676 -0.592 195 210 233
0.259916 -0.425676 -0.592 90 112 153
0.282469 -0.425676 -0.592 160 172 196
0.289234 -0.425676 -0.592 205 206 210
0.329829 -0.425676 -0.592 181 189 210
0.345615 -0.425676 -0.592 85 97 119
0.408762 -0.425676 -0.592 146 154 175
0.415528 -0.425676 -0.592 143 154 176
0.420748 -0.426395 -0.593 154 165 183
0.468977 -0.427114 -0.594 153 160 168
0.489343 -0.427114 -0.594 42 64 111
0.490474 -0.427114 -0.594 43 68 122
0.506033 -0.427833 -0.595 72 91 123
0.510567 -0.427833 -0.595 149 156 172
0.533928 -0.425676 -0.592 133 133 145
0.497326 -0.379657 -0.528 162 121 101
0.496444 -0.378219 -0.526 162 121 101
0.492929 -0.37031 -0.515 169 124 101
0.50619 -0.359524 -0.5 175 130 101
0.522189 -0.358086 -0.498 168 118 91
0.523137 -0.358086 -0.498 171 124 98
0.524086 -0.358086 -0.498 172 125 99
-0.00118286 -0.298474 -0.414 201 157 130
0.0185762 -0.299195 -0.415 188 141 113
0.0258762 -0.301358 -0.418 185 140 111
0.0266724 -0.301358 -0.418 186 141 112
0.0356 -0.3028 -0.42 176 128 106
0.218951 -0.426083 -0.591 213 213 221
0.222329 -0.426083 -0.591 188 187 193
0.245969 -0.426083 -0.591 205 216 236
0.260603 -0.426083 -0.591 119 140 183
0.298877 -0.426083 -0.591 139 162 206
0.329271 -0.426083 -0.591 186 193 212
0.343906 -0.426083 -0.591 175 186 206
0.358019 -0.426804 -0.592 125 140 171
0.374933 -0.426804 -0.592 164 176 198
0.379444 -0.426804 -0.592 84 100 136
0.381699 -0.426804 -0.592 138 154 179
0.386862 -0.427525 -0.593 181 190 199
0.387991 -0.427525 -0.593 181 190 199
0.392975 -0.426804 -0.592 181 191 203
0.394103 -0.426804 -0.592 177 187 199
0.409197 -0.426083 -0.591 152 163 185
0.414826 -0.426083 -0.591 122 133 163
0.417783 -0.426804 -0.592 171 177 199
0.422293 -0.426804 -0.592 114 133 165
0.43995 -0.427525 -0.593 108 115 143
0.444468 -0.427525 -0.593 139 155 188
0.484817 -0.428246 -0.594 98 112 147
0.485949 -0.428246 -0.594 93 112 155
0.514234 -0.428246 -0.594 138 136 139
0.51876 -0.428246 -0.594 122 123 128
0.512692 -0.397245 -0.551 144 117 108
0.500943 -0.384989 -0.534 157 120 104
0.498268 -0.381384 -0.529 161 120 100
0.497388 -0.379942 -0.527 162 121 101
0.493827 -0.373453 -0.518 172 127 106
0.491991 -0.369849 -0.513 171 126 103
0.492031 -0.365523 -0.507 174 129 106
0.49766 -0.361197 -0.501 173 129 102
0.505238 -0.360476 -0.5 172 125 97
0.524086 -0.359034 -0.498 172 122 97
0.52799 -0.359755 -0.499 165 119 95
0.535945 -0.361918 -0.502 155 113 89
-0.0143333 -0.310829 -0.43 192 155 126
-0.0116 -0.3036 -0.42 192 151 121
0.0234314 -0.301431 -0.417 185 138 110
0.0348 -0.3036 -0.42 176 128 106
0.0638514 -0.320949 -0.444 101 73 70
0.0709438 -0.330346 -0.457 92 68 66
0.0981733 -0.37444 -0.518 114 113 127
0.101693 -0.380223 -0.526 145 158 192
0.133397 -0.427209 -0.591 120 142 189
0.229083 -0.427209 -0.591 149 171 194
0.26398 -0.427209 -0.591 178 189 217
0.266231 -0.427209 -0.591 187 201 227
0.268483 -0.427209 -0.591 159 171 195
0.270734 -0.427209 -0.591 195 206 228
0.277489 -0.427209 -0.591 191 201 228
0.278614 -0.427209 -0.591 161 172 202
0.27974 -0.427209 -0.591 135 146 176
0.283117 -0.427209 -0.591 169 183 212
0.297751 -0.427209 -0.591 115 138 180
0.322517 -0.427209 -0.591 189 197 218
0.332649 -0.427209 -0.591 154 162 175
0.336026 -0.427209 -0.591 184 192 205
0.343906 -0.427209 -0.591 183 192 209
0.404694 -0.427209 -0.591 180 192 206
0.444846 -0.427931 -0.592 159 168 185
0.452739 -0.427931 -0.592 154 152 153
0.472706 -0.428654 -0.593 153 157 168
0.507446 -0.429377 -0.594 138 152 178
0.50998 -0.428654 -0.593 130 129 125
0.513103 -0.429377 -0.594 110 108 111
0.519016 -0.428654 -0.593 100 104 113
0.506383 -0.391789 -0.542 147 115 104
0.504286 -0.361429 -0.5 173 126 100
0.509857 -0.359983 -0.498 174 127 101
0.513651 -0.359983 -0.498 172 125 99
0.549343 -0.368657 -0.51 146 110 86
-0.00591429 -0.300051 -0.414 197 151 117
0.00511333 -0.299327 -0.413 194 153 121
0.0193667 -0.300776 -0.415 186 139 113
0.0209476 -0.300776 -0.415 187 142 113
0.0282648 -0.30295 -0.418 186 141 112
0.0307267 -0.303675 -0.419 178 131 105
0.0555429 -0.313097 -0.432 115 80 74
0.0575857 -0.315271 -0.435 113 79 77
0.0585486 -0.315996 -0.436 108 77 75
0.0805771 -0.346436 -0.478 93 71 73
0.0836048 -0.35151 -0.485 93 71 74
0.0966238 -0.373252 -0.515 81 82 100
0.265781 -0.42761 -0.59 194 204 229
0.266905 -0.42761 -0.59 156 169 186
0.290505 -0.42761 -0.59 200 203 220
0.293876 -0.42761 -0.59 148 162 188
0.330962 -0.42761 -0.59 185 195 205
0.339952 -0.42761 -0.59 183 192 207
0.348409 -0.428334 -0.591 93 111 147
0.360791 -0.428334 -0.591 84 112 159
0.383306 -0.428334 -0.591 183 192 199
0.399514 -0.42761 -0.59 185 188 195
0.415248 -0.42761 -0.59 118 129 159
0.429059 -0.429059 -0.592 45 75 129
0.448229 -0.429059 -0.592 162 166 177
0.452739 -0.429059 -0.592 158 158 158
0.470781 -0.429059 -0.592 151 158 166
0.48995 -0.429059 -0.592 19 47 95
0.494461 -0.429059 -0.592 22 48 99
0.503482 -0.429059 -0.592 66 89 131
0.50998 -0.429784 -0.593 101 100 96
0.51111 -0.429784 -0.593 105 104 100
0.512239 -0.429784 -0.593 134 132 137
0.519269 -0.429059 -0.592 119 123 132
0.526271 -0.428334 -0.591 99 107 120
0.529649 -0.428334 -0.591 104 103 109
0.49202 -0.370353 -0.511 173 128 107
0.498614 -0.363106 -0.501 173 127 103
0.511673 -0.360207 -0.497 174 128 104
0.63029 -0.414564 -0.572 198 197 192
-0.0083 -0.301567 -0.415 195 154 122
-0.000393333 -0.300113 -0.413 199 158 126
0.0177429 -0.30084 -0.414 183 138 107
0.0396943 -0.305927 -0.421 159 114 95
0.0430038 -0.306653 -0.422 153 108 89
0.0508333 -0.310287 -0.427 124 91 76
0.0651343 -0.32482 -0.447 97 72 68
0.07638 -0.340807 -0.469 92 68 66
0.0868619 -0.358247 -0.493 94 73 78
0.0968114 -0.37496 -0.516 92 93 114
0.206219 -0.428733 -0.59 203 214 242
0.283762 -0.428733 -0.59 120 141 188
0.326467 -0.428733 -0.59 188 195 211
0.348943 -0.428733 -0.59 112 127 156
0.39006 -0.42946 -0.591 127 130 137
0.406257 -0.428733 -0.59 187 196 205
0.449723 -0.42946 -0.591 112 112 114
0.455351 -0.42946 -0.591 130 137 153
0.48093 -0.430187 -0.592 83 96 128
0.486568 -0.430187 -0.592 27 55 103
0.488823 -0.430187 -0.592 23 54 100
0.50912 -0.430187 -0.592 103 103 103
0.528523 -0.42946 -0.591 120 123 130
0.524643 -0.410567 -0.565 125 111 108
0.520136 -0.406207 -0.559 133 112 107
0.514674 -0.40112 -0.552 134 113 108
0.495694 -0.378593 -0.521 170 127 108
0.492029 -0.3706 -0.51 176 131 108
0.510727 -0.361153 -0.497 173 127 103
0.51546 -0.361153 -0.497 168 122 98
0.519147 -0.360427 -0.496 173 123 98
0.521036 -0.360427 -0.496 170 123 97
0.521981 -0.360427 -0.496 171 124 98
0.532742 -0.362607 -0.499 165 120 97
0.545034 -0.367693 -0.506 149 112 86
-0.0149057 -0.308186 -0.423 193 156 127
-0.0131686 -0.305271 -0.419 196 157 126
-0.00354 -0.3009 -0.413 196 155 123
-0.00275333 -0.3009 -0.413 198 157 125
0.0185314 -0.301629 -0.414 182 137 106
0.0315248 -0.305271 -0.419 179 133 107
0.0885133 -0.3621 -0.497 88 70 68
0.131824 -0.429129 -0.589 134 152 192
0.239527 -0.429129 -0.589 111 141 177
0.260843 -0.429129 -0.589 205 210 229
0.268696 -0.429129 -0.589 203 210 229
0.342742 -0.429129 -0.589 170 175 179
0.347819 -0.429857 -0.59 160 171 191
0.357933 -0.429857 -0.59 136 158 195
0.360181 -0.429857 -0.59 66 92 143
0.361305 -0.429857 -0.59 78 110 167
0.386029 -0.429857 -0.59 190 195 199
0.397715 -0.429129 -0.589 186 188 201
0.401081 -0.429129 -0.589 165 170 176
0.416788 -0.429129 -0.589 73 91 141
0.420153 -0.429129 -0.589 72 92 151
0.454581 -0.429857 -0.59 127 136 151
0.456829 -0.429857 -0.59 112 123 143
0.4602 -0.429857 -0.59 115 123 146
0.466609 -0.430586 -0.591 111 112 116
0.481243 -0.430586 -0.591 43 64 107
0.4925 -0.430586 -0.591 25 53 103
0.515886 -0.431314 -0.592 149 149 159
0.5265 -0.4131 -0.567 122 111 109
0.495694 -0.379586 -0.521 168 125 106
0.492993 -0.3723 -0.511 177 132 109
0.500523 -0.365014 -0.501 173 129 102
0.527767 -0.3621 -0.497 166 121 98
0.559737 -0.375943 -0.516 145 107 86
-0.0114895 -0.303878 -0.416 191 152 121
0.000392381 -0.300956 -0.412 197 156 124
0.0019619 -0.300956 -0.412 199 156 124
0.00510095 -0.300956 -0.412 195 152 120
0.01298 -0.301687 -0.413 189 146 112
0.0161657 -0.302417 -0.414 184 139 108
0.0169543 -0.302417 -0.414 183 138 107
0.0185314 -0.302417 -0.414 181 136 105
0.0323229 -0.30607 -0.419 174 128 104
0.0473571 -0.310452 -0.425 136 98 87
0.0528286 -0.314105 -0.43 120 85 79
0.0597876 -0.320679 -0.439 101 76 72
0.082681 -0.354281 -0.485 93 72 71
0.0888695 -0.364508 -0.499 91 73 73
0.0989314 -0.381309 -0.522 163 168 198
0.340498 -0.43025 -0.589 187 202 209
0.344986 -0.43025 -0.589 184 186 199
0.34723 -0.43025 -0.589 172 184 200
0.353961 -0.43025 -0.589 134 153 186
0.356205 -0.43025 -0.589 123 151 190
0.364058 -0.43025 -0.589 56 87 151
0.366302 -0.43025 -0.589 67 94 149
0.367424 -0.43025 -0.589 108 135 190
0.432105 -0.430981 -0.59 46 76 130
0.438848 -0.430981 -0.59 93 110 138
0.451567 -0.43025 -0.589 109 123 134
0.452689 -0.43025 -0.589 121 135 146
0.454932 -0.43025 -0.589 121 134 150
0.477866 -0.431711 -0.591 145 156 188
0.528978 -0.43025 -0.589 135 138 145
0.493 -0.372543 -0.51 172 127 104
0.493872 -0.366699 -0.502 175 129 106
0.495751 -0.365969 -0.501 173 127 104
0.496706 -0.365969 -0.501 172 126 103
0.499569 -0.365969 -0.501 172 126 102
0.517257 -0.362316 -0.496 172 126 102
0.52387 -0.362316 -0.496 169 121 98
0.527767 -0.363047 -0.497 165 121 96
0.532623 -0.363777 -0.498 158 113 90
0.54384 -0.36816 -0.504 149 111 90
-0.0122819 -0.30467 -0.416 193 154 123
-0.0106457 -0.303206 -0.414 193 152 122
0.0282648 -0.306135 -0.418 179 134 105
0.0396943 -0.308332 -0.421 156 110 94
0.0404962 -0.308332 -0.421 157 114 97
0.0455229 -0.309797 -0.423 140 98 84
0.0501371 -0.313459 -0.428 121 87 77
0.0578505 -0.32005 -0.437 106 78 74
0.0768686 -0.345684 -0.472 91 70 69
0.0828514 -0.355937 -0.486 93 71 73
0.10266 -0.388894 -0.531 204 211 239
0.22456 -0.43064 -0.588 208 215 233
0.23016 -0.43064 -0.588 122 152 190
0.23352 -0.43064 -0.588 128 152 196
0.26712 -0.43064 -0.588 197 201 226
0.32312 -0.43064 -0.588 191 201 211
0.353961 -0.431372 -0.589 77 98 145
0.375277 -0.431372 -0.589 181 184 201
0.37688 -0.43064 -0.588 185 194 203
0.378 -0.43064 -0.588 184 193 202
0.38696 -0.43064 -0.588 153 153 165
0.3892 -0.43064 -0.588 159 161 173
0.40264 -0.43064 -0.588 158 158 160
0.41384 -0.43064 -0.588 104 122 170
0.426885 -0.431372 -0.589 54 82 132
0.458298 -0.431372 -0.589 94 101 127
0.489419 -0.432105 -0.59 32 62 112
0.496162 -0.432105 -0.59 86 115 157
0.510511 -0.432837 -0.591 146 146 158
0.513889 -0.432837 -0.591 151 151 163
0.52201 -0.432105 -0.59 146 146 156
0.508448 -0.39695 -0.542 148 114 105
0.499337 -0.386697 -0.528 156 118 99
0.492976 -0.369852 -0.505 173 127 104
0.49766 -0.366923 -0.501 175 129 106
0.501429 -0.36619 -0.5 175 129 105
0.508909 -0.364726 -0.498 174 128 102
0.539649 -0.366923 -0.501 151 111 86
0.00588571 -0.302526 -0.412 195 152 120
0.0145533 -0.30326 -0.413 188 143 112
0.0169543 -0.303994 -0.414 182 135 105
0.0193667 -0.304729 -0.415 176 129 99
0.0201571 -0.304729 -0.415 175 128 98
0.0209476 -0.304729 -0.415 178 132 99
0.0217381 -0.304729 -0.415 181 135 102
0.0548467 -0.317946 -0.433 110 81 75
0.0692029 -0.335569 -0.457 94 70 70
0.0756476 -0.345114 -0.47 90 70 69
0.0860971 -0.362737 -0.494 82 70 70
0.0958286 -0.378891 -0.516 133 134 155
0.34888 -0.43176 -0.588 178 191 208
0.35672 -0.43176 -0.588 71 101 155
0.3724 -0.43176 -0.588 122 143 186
0.37576 -0.43176 -0.588 177 180 199
0.39368 -0.43176 -0.588 140 146 168
0.39592 -0.43176 -0.588 163 171 184
0.39704 -0.43176 -0.588 159 166 182
0.447079 -0.432494 -0.589 174 177 184
0.462786 -0.432494 -0.589 157 163 175
0.481858 -0.432494 -0.589 116 140 174
0.48859 -0.432494 -0.589 42 74 123
0.50654 -0.432494 -0.589 123 129 141
0.515267 -0.433229 -0.59 152 152 160
0.520003 -0.432494 -0.589 147 147 155
0.525612 -0.432494 -0.589 144 143 148
0.52808 -0.43176 -0.588 138 141 148
0.52493 -0.413403 -0.563 135 114 111
0.49296 -0.37008 -0.504 173 127 104
0.505114 -0.365674 -0.498 176 130 106
0.507887 -0.36494 -0.497 174 127 101
0.513386 -0.363471 -0.495 173 126 100
0.519986 -0.363471 -0.495 170 123 97
-0.00824 -0.30331 -0.412 192 151 123
0.00510095 -0.30331 -0.412 196 153 121
0.0121638 -0.30331 -0.412 187 142 109
0.0137667 -0.304047 -0.413 186 141 110
0.0193667 -0.305519 -0.415 177 130 100
0.0201571 -0.305519 -0.415 177 130 100
0.0209476 -0.305519 -0.415 181 135 102
0.0396943 -0.309936 -0.421 157 112 93
0.0634314 -0.329077 -0.447 96 72 68
0.0645705 -0.33055 -0.449 96 72 68
0.0860971 -0.363678 -0.494 82 70 70
0.225296 -0.432144 -0.587 200 206 230
0.22865 -0.432144 -0.587 148 176 215
0.233123 -0.432144 -0.587 141 172 226
0.323689 -0.432144 -0.587 188 195 205
0.337106 -0.432144 -0.587 180 188 199
0.36232 -0.43288 -0.588 46 77 134
0.36344 -0.43288 -0.588 45 75 135
0.367294 -0.432144 -0.587 55 88 141
0.37016 -0.43288 -0.588 55 90 146
0.379593 -0.432144 -0.587 181 186 190
0.422081 -0.432144 -0.587 61 91 143
0.43624 -0.43288 -0.588 86 114 154
0.507662 -0.433616 -0.589 122 134 150
0.514143 -0.434352 -0.59 154 154 162
0.51639 -0.434352 -0.59 154 153 161
0.503994 -0.393126 -0.534 150 118 107
0.506063 -0.366623 -0.498 176 130 104
0.509699 -0.36515 -0.496 173 126 98
0.522699 -0.363678 -0.494 167 121 95
0.525643 -0.364414 -0.495 167 123 96
0.531429 -0.36515 -0.496 161 120 92
0.534393 -0.365887 -0.497 160 119 91
-0.0138333 -0.30631 -0.415 197 157 131
0.01534 -0.304833 -0.413 182 135 105
0.0161267 -0.304833 -0.413 182 136 103
0.02502 -0.307786 -0.417 180 133 103
0.0289914 -0.307786 -0.417 173 128 99
0.038 -0.31 -0.42 156 111 92
0.0404962 -0.310738 -0.421 151 108 91
0.0759695 -0.348381 -0.472 88 70 70
0.0801667 -0.355024 -0.481 89 71 71
0.087919 -0.36831 -0.499 94 75 77
0.203705 -0.432524 -0.586 208 214 230
0.219706 -0.433262 -0.587 115 131 167
0.36008 -0.434 -0.588 59 90 147
0.432144 -0.433262 -0.587 131 156 197
0.44744 -0.434 -0.588 178 178 186
0.4564 -0.434 -0.588 161 165 176
0.45752 -0.434 -0.588 155 159 171
0.46648 -0.434 -0.588 167 167 169
0.47768 -0.434 -0.588 108 119 147
0.4788 -0.434 -0.588 108 119 147
0.48664 -0.434 -0.588 85 108 139
0.48776 -0.434 -0.588 52 88 138
0.49112 -0.434 -0.588 47 84 136
0.5012 -0.434 -0.588 115 124 139
0.531654 -0.433262 -0.587 140 137 146
0.504938 -0.394881 -0.535 145 116 108
0.498571 -0.369048 -0.5 176 130 106
0.499475 -0.36831 -0.499 179 132 106
0.504228 -0.36831 -0.499 179 132 106
0.5115 -0.365357 -0.495 176 129 101
0.516214 -0.365357 -0.495 172 125 97
0.517994 -0.364619 -0.494 172 125 97
0.527529 -0.365357 -0.495 162 118 91
-0.0154514 -0.30784 -0.416 196 157 128
0.00117143 -0.3034 -0.41 195 154 122
0.00665429 -0.30414 -0.411 195 152 120
0.01932 -0.30636 -0.414 175 130 97
0.0541467 -0.32116 -0.434 109 80 74
0.0733857 -0.34558 -0.467 89 71 71
0.19924 -0.43364 -0.586 210 216 228
0.328718 -0.43364 -0.586 154 157 176
0.33095 -0.43364 -0.586 137 145 166
0.359468 -0.43438 -0.587 67 100 154
0.36332 -0.43364 -0.586 68 99 154
0.364436 -0.43364 -0.586 92 121 177
0.371133 -0.43364 -0.586 89 111 161
0.423594 -0.43364 -0.586 86 118 175
0.42879 -0.43438 -0.587 132 163 207
0.43997 -0.43438 -0.587 109 119 144
0.466805 -0.43438 -0.587 171 170 178
0.521591 -0.43438 -0.587 78 80 92
0.52271 -0.43438 -0.587 123 126 141
0.526937 -0.41736 -0.564 130 109 106
0.506826 -0.39738 -0.537 141 114 107
0.49764 -0.38628 -0.522 167 122 101
0.49489 -0.3811 -0.515 170 123 103
0.493963 -0.37518 -0.507 171 125 102
0.493898 -0.37222 -0.503 175 129 106
0.496706 -0.37074 -0.501 174 128 102
0.512443 -0.3663 -0.495 176 129 101
0.516112 -0.36556 -0.494 174 127 97
0.518935 -0.36556 -0.494 172 125 95
0.521758 -0.36556 -0.494 172 127 96
0.545507 -0.37148 -0.502 149 113 91
0.549729 -0.3737 -0.505 146 111 89
-0.00978571 -0.304923 -0.411 193 154 123
0.00508857 -0.304923 -0.411 195 151 122
0.0129486 -0.305665 -0.412 186 139 109
0.02502 -0.309374 -0.417 176 131 100
0.0314495 -0.310116 -0.418 167 126 98
0.0582476 -0.326438 -0.44 99 75 73
0.0648581 -0.334599 -0.451 91 71 70
0.0762914 -0.351663 -0.474 87 69 69
0.0776829 -0.353889 -0.477 89 71 71
0.0996895 -0.390242 -0.526 187 202 231
0.1989 -0.434014 -0.585 211 215 226
0.208929 -0.434014 -0.585 168 173 179
0.216729 -0.434014 -0.585 191 202 222
0.217843 -0.434014 -0.585 151 162 182
0.328157 -0.434014 -0.585 150 157 176
0.448915 -0.435498 -0.587 180 183 198
0.474631 -0.435498 -0.587 82 94 118
0.480222 -0.435498 -0.587 162 168 182
0.50904 -0.43624 -0.588 109 118 135
0.521591 -0.435498 -0.587 67 73 89
0.493952 -0.375404 -0.506 173 127 104
0.497619 -0.370952 -0.5 177 130 104
0.515171 -0.366501 -0.494 170 123 93
0.517053 -0.366501 -0.494 177 128 98
0.52258 -0.365759 -0.493 170 123 95
0.53818 -0.368727 -0.497 156 114 89
-0.011379 -0.30645 -0.412 189 150 121
-0.00430571 -0.305706 -0.411 193 152 122
0.00117143 -0.304962 -0.41 195 154 124
0.0121638 -0.30645 -0.412 185 138 108
0.029061 -0.310912 -0.418 166 125 97
0.033919 -0.311656 -0.419 151 108 92
0.0493219 -0.31835 -0.428 123 89 79
0.0650019 -0.336202 -0.452 93 72 67
0.099879 -0.391988 -0.527 195 209 235
0.200014 -0.435129 -0.585 212 216 227
0.210043 -0.435129 -0.585 212 215 230
0.212271 -0.435129 -0.585 210 214 226
0.218957 -0.435129 -0.585 139 144 166
0.442929 -0.435129 -0.585 173 178 198
0.451499 -0.435872 -0.586 181 183 195
0.472707 -0.435872 -0.586 76 89 108
0.524271 -0.435129 -0.585 146 149 166
0.529843 -0.435129 -0.585 124 122 133
0.498571 -0.371905 -0.5 180 133 107
0.510644 -0.36893 -0.496 176 129 103
0.51329 -0.367442 -0.494 170 123 95
0.523519 -0.366698 -0.493 171 124 94
0.525397 -0.366698 -0.493 167 122 91
0.0105943 -0.307234 -0.412 185 138 108
0.0899381 -0.376586 -0.505 93 85 83
0.09162 -0.379569 -0.509 85 86 116
0.0965714 -0.387771 -0.52 174 187 219
0.284213 -0.435497 -0.584 153 157 166
0.358243 -0.436243 -0.585 97 129 168
0.360471 -0.436243 -0.585 98 130 169
0.372091 -0.435497 -0.584 78 93 126
0.38099 -0.435497 -0.584 199 196 215
0.395451 -0.435497 -0.584 203 202 220
0.40435 -0.435497 -0.584 195 200 219
0.439586 -0.436243 -0.585 90 101 133
0.468242 -0.436989 -0.586 178 176 187
0.469358 -0.436989 -0.586 141 148 164
0.514883 -0.437734 -0.587 153 153 165
0.49494 -0.38106 -0.511 168 124 99
0.493938 -0.376586 -0.505 173 127 101
0.49392 -0.37584 -0.504 175 129 105
0.505047 -0.37062 -0.497 183 136 110
0.51329 -0.368383 -0.494 171 124 96
0.52258 -0.367637 -0.493 171 124 96
0.52808 -0.366891 -0.492 165 120 91
0.53197 -0.367637 -0.493 159 120 91
0.620127 -0.415363 -0.557 208 192 177
-0.01534 -0.308767 -0.413 194 153 125
-0.0121343 -0.307271 -0.411 192 151 121
-0.0097619 -0.306524 -0.41 195 154 124
0.00507619 -0.306524 -0.41 192 148 119
0.0105686 -0.307271 -0.411 183 136 106
0.01534 -0.308767 -0.413 181 134 106
0.0314495 -0.312505 -0.418 161 119 94
0.0483933 -0.319233 -0.427 121 91 83
0.0503714 -0.321476 -0.43 116 86 78
0.05332 -0.324467 -0.434 106 78 74
0.0724962 -0.349138 -0.467 88 68 69
0.0780086 -0.35811 -0.479 87 71 72
0.0869686 -0.373062 -0.499 91 74 80
0.22637 -0.43661 -0.584 89 119 173
0.347619 -0.43661 -0.584 76 87 115
0.352069 -0.43661 -0.584 180 196 221
0.481636 -0.438105 -0.586 155 160 179
0.494186 -0.437357 -0.585 77 102 142
0.520929 -0.437357 -0.585 50 76 109
0.533387 -0.43661 -0.584 113 127 154
0.496812 -0.386519 -0.517 163 125 104
0.494929 -0.379043 -0.507 173 127 103
0.498571 -0.37381 -0.5 175 129 105
0.522457 -0.367829 -0.492 171 126 97
0.523394 -0.367829 -0.492 168 123 94
-0.00507619 -0.307305 -0.41 192 148 119
0.0066381 -0.307305 -0.41 190 144 118
0.00900286 -0.308054 -0.411 184 137 109
0.0169133 -0.309553 -0.413 182 135 109
0.0265448 -0.311802 -0.416 171 125 101
0.0356 -0.3148 -0.42 150 107 91
0.0523724 -0.324544 -0.433 109 80 74
0.063999 -0.338035 -0.451 88 70 70
0.085501 -0.371764 -0.496 89 70 74
0.19711 -0.436972 -0.583 199 205 221
0.344803 -0.436972 -0.583 131 139 162
0.447733 -0.437722 -0.584 187 188 209
0.452957 -0.438471 -0.585 179 181 193
0.466644 -0.437722 -0.584 165 166 184
0.475243 -0.438471 -0.585 179 178 183
0.477471 -0.438471 -0.585 174 177 186
0.493071 -0.438471 -0.585 87 109 146
0.501986 -0.438471 -0.585 165 173 176
0.505329 -0.438471 -0.585 165 165 173
0.501453 -0.39425 -0.526 154 117 99
0.494929 -0.380009 -0.507 172 128 103
0.496667 -0.374762 -0.5 172 126 100
0.51496 -0.368766 -0.492 175 129 103
-0.0160876 -0.309589 -0.412 193 152 122
-0.00584286 -0.307334 -0.409 193 150 118
-0.00350571 -0.307334 -0.409 188 144 115
-0.00116857 -0.307334 -0.409 192 148 119
0.00350571 -0.307334 -0.409 188 142 116
0.0169133 -0.31034 -0.413 183 135 112
0.0273371 -0.312594 -0.416 168 122 99
0.0322457 -0.314097 -0.418 158 113 90
0.0423 -0.317854 -0.423 137 97 85
0.0652895 -0.341149 -0.454 89 71 71
0.0781714 -0.360686 -0.48 89 73 74
0.436972 -0.438083 -0.583 196 198 213
0.443635 -0.438083 -0.583 180 187 206
0.458857 -0.438834 -0.584 167 173 185
0.464419 -0.438834 -0.584 159 166 184
0.475543 -0.438834 -0.584 171 173 172
0.479992 -0.438834 -0.584 177 179 194
0.496852 -0.386986 -0.515 163 122 100
0.505047 -0.37346 -0.497 182 134 111
0.509526 -0.371206 -0.494 177 130 104
0.516834 -0.369703 -0.492 176 129 101
0.519525 -0.368951 -0.491 174 127 99
-0.0152657 -0.30962 -0.411 194 153 125
-0.0121048 -0.308867 -0.41 192 151 121
-0.0112962 -0.308113 -0.409 192 151 121
0.00194762 -0.308113 -0.409 192 146 120
0.00350571 -0.308113 -0.409 188 142 116
0.0137333 -0.310373 -0.412 184 137 111
0.0145181 -0.310373 -0.412 186 138 115
0.0161267 -0.311127 -0.413 185 137 114
0.033121 -0.315647 -0.419 152 107 86
0.0440152 -0.319413 -0.424 130 93 84
0.125823 -0.43844 -0.582 224 227 242
0.396314 -0.43844 -0.582 199 203 215
0.426246 -0.43844 -0.582 122 147 178
0.429571 -0.43844 -0.582 192 196 208
0.439549 -0.43844 -0.582 185 190 210
0.442874 -0.43844 -0.582 122 133 153
0.450298 -0.439193 -0.583 186 189 204
0.45552 -0.439947 -0.584 82 100 136
0.458857 -0.439947 -0.584 162 174 188
0.471397 -0.439193 -0.583 175 184 191
0.48333 -0.439947 -0.584 81 104 146
0.485554 -0.439947 -0.584 89 113 151
0.486667 -0.439947 -0.584 110 136 171
0.50249 -0.439193 -0.583 169 172 181
0.510767 -0.406047 -0.539 138 116 105
0.510372 -0.371393 -0.493 177 130 104
0.514023 -0.37064 -0.492 177 130 104
0.627733 -0.421867 -0.56 208 198 188
-0.0136667 -0.309648 -0.41 189 148 118
-0.0120752 -0.308892 -0.409 191 150 120
-0.0097381 -0.308892 -0.409 192 151 121
-0.00428476 -0.308892 -0.409 195 151 122
0.000389524 -0.308892 -0.409 193 147 121
0.00428476 -0.308892 -0.409 188 142 116
0.0322457 -0.31569 -0.418 154 111 92
0.0414943 -0.319466 -0.423 141 97 84
0.0587771 -0.335326 -0.444 95 71 67
0.0620048 -0.339102 -0.449 90 69 66
0.0654333 -0.343633 -0.455 90 69 68
0.0667371 -0.345899 -0.458 89 69 68
0.450634 -0.439549 -0.582 176 187 205
0.452519 -0.440304 -0.583 159 170 188
0.469176 -0.440304 -0.583 176 179 188
0.520983 -0.416891 -0.552 131 108 100
0.496852 -0.388948 -0.515 162 119 100
0.494929 -0.382906 -0.507 174 128 104
0.4949 -0.381395 -0.505 174 126 103
0.494856 -0.379885 -0.503 175 129 105
0.507729 -0.373843 -0.495 176 129 103
0.5194 -0.370067 -0.49 176 129 101
0.538544 -0.372332 -0.493 156 115 87
-0.00272667 -0.309671 -0.409 197 151 125
0.00272667 -0.309671 -0.409 191 147 120
0.00898095 -0.310429 -0.41 183 137 111
0.0161267 -0.3127 -0.413 182 136 112
0.0249 -0.314214 -0.415 168 122 99
0.0644248 -0.343743 -0.454 89 68 65
0.0655771 -0.345257 -0.456 89 68 65
0.0799095 -0.367214 -0.485 89 73 74
0.0813333 -0.369486 -0.488 91 75 76
0.352473 -0.4399 -0.581 169 177 190
0.358007 -0.4399 -0.581 154 169 200
0.379033 -0.4399 -0.581 194 200 222
0.392313 -0.4399 -0.581 197 196 210
0.401167 -0.4399 -0.581 146 153 179
0.447309 -0.440657 -0.582 139 161 202
0.450634 -0.440657 -0.582 176 191 212
0.463937 -0.440657 -0.582 60 86 121
0.512714 -0.440657 -0.582 98 118 151
0.527467 -0.424 -0.56 128 108 101
0.4949 -0.382357 -0.505 172 126 103
0.508585 -0.374029 -0.494 174 127 101
0.511311 -0.373271 -0.493 178 131 105
0.511108 -0.371757 -0.491 173 126 100
0.514849 -0.371757 -0.491 178 131 101
0.536359 -0.371757 -0.491 155 111 84
-0.0217381 -0.315005 -0.415 189 150 119
-0.0208971 -0.314246 -0.414 189 150 119
-0.0105171 -0.31045 -0.409 193 152 120
-0.00349714 -0.309691 -0.408 197 154 122
-0.00272667 -0.31045 -0.409 197 153 124
-0.00194762 -0.31045 -0.409 195 151 122
0.00194286 -0.309691 -0.408 188 144 115
0.00506381 -0.31045 -0.409 189 145 116
0.00741905 -0.31121 -0.41 184 140 113
0.0208971 -0.314246 -0.414 167 121 97
0.0621429 -0.341571 -0.45 92 68 66
0.44986 -0.441007 -0.581 168 184 207
0.475023 -0.441766 -0.582 182 189 195
0.486109 -0.441766 -0.582 111 143 181
0.503846 -0.441766 -0.582 177 177 185
0.507171 -0.441766 -0.582 126 142 168
0.52622 -0.441007 -0.581 119 132 138
0.527327 -0.441007 -0.581 121 134 140
0.528433 -0.441007 -0.581 111 120 129
0.53286 -0.441007 -0.581 145 153 166
0.500623 -0.396223 -0.522 155 116 99
0.494916 -0.384078 -0.506 171 124 104
0.50403 -0.376488 -0.496 178 130 107
0.50592 -0.376488 -0.496 172 124 101
0.514849 -0.372692 -0.491 178 131 105
0.558386 -0.383319 -0.505 146 109 82
-0.0243419 -0.318839 -0.419 188 149 118
-0.0160095 -0.31199 -0.41 191 150 118
-0.00816 -0.310469 -0.408 197 154 120
0.00428476 -0.31123 -0.409 188 144 115
0.00818 -0.31123 -0.409 184 139 106
0.0168724 -0.313512 -0.412 177 131 105
0.0388924 -0.320361 -0.421 144 97 87
0.0645667 -0.346233 -0.455 89 68 67
0.0847267 -0.378193 -0.497 94 78 79
0.35739 -0.441352 -0.58 153 170 198
0.432514 -0.441352 -0.58 174 178 179
0.448753 -0.442113 -0.581 128 143 176
0.480566 -0.442874 -0.582 105 126 155
0.482783 -0.442874 -0.582 87 114 157
0.486109 -0.442874 -0.582 116 148 187
0.491913 -0.442113 -0.581 82 108 141
0.511833 -0.442113 -0.581 139 157 181
0.520895 -0.441352 -0.58 151 158 174
0.52421 -0.441352 -0.58 154 164 174
0.526419 -0.441352 -0.58 133 142 147
0.531943 -0.441352 -0.58 95 101 117
0.52759 -0.425372 -0.559 135 107 96
0.513692 -0.411675 -0.541 137 114 98
0.495751 -0.381237 -0.501 174 128 105
0.496667 -0.380476 -0.5 173 127 104
0.497619 -0.380476 -0.5 173 127 103
0.504975 -0.377432 -0.496 175 129 105
0.506786 -0.376671 -0.495 174 128 102
0.507555 -0.37515 -0.493 175 128 102
0.525343 -0.369823 -0.486 163 118 89
0.541361 -0.37515 -0.493 147 110 84
-0.0199629 -0.313534 -0.411 192 153 120
-0.0159705 -0.312009 -0.409 191 151 116
0.033121 -0.319637 -0.419 151 104 88
0.0372886 -0.321163 -0.421 146 100 87
0.0380905 -0.321163 -0.421 144 98 85
0.0487333 -0.328029 -0.43 117 84 79
0.0720667 -0.358543 -0.47 92 74 74
0.0734276 -0.360831 -0.473 91 73 73
0.0832743 -0.376851 -0.494 93 77 78
0.0945905 -0.396686 -0.52 138 172 220
0.442457 -0.442457 -0.58 128 142 187
0.464247 -0.44322 -0.581 68 90 131
0.467567 -0.44322 -0.581 182 191 198
0.478633 -0.44322 -0.581 175 188 196
0.485273 -0.44322 -0.581 125 154 186
0.505193 -0.44322 -0.581 169 173 184
0.529477 -0.427963 -0.561 135 107 96
0.502541 -0.399737 -0.524 156 117 102
0.501617 -0.398211 -0.522 156 118 99
0.50592 -0.378377 -0.496 177 131 107
-0.0159705 -0.312788 -0.409 192 152 117
-0.0151543 -0.312023 -0.408 192 152 117
-0.0143771 -0.312023 -0.408 192 152 117
0.0177 -0.315847 -0.413 169 125 100
0.0314495 -0.31967 -0.418 153 105 91
0.0487333 -0.328848 -0.43 116 82 80
0.0683476 -0.354085 -0.463 89 71 71
0.381037 -0.442797 -0.579 132 152 187
0.429563 -0.442797 -0.579 217 215 226
0.459029 -0.443562 -0.58 172 183 201
0.461238 -0.443562 -0.58 156 168 192
0.468971 -0.443562 -0.58 158 164 162
0.471181 -0.443562 -0.58 190 195 199
0.474495 -0.443562 -0.58 186 190 199
0.489962 -0.443562 -0.58 99 125 162
0.533231 -0.442797 -0.579 53 54 74
0.522138 -0.421384 -0.551 136 108 96
0.495894 -0.387734 -0.507 167 127 102
0.4949 -0.386205 -0.505 165 124 102
0.494856 -0.384675 -0.503 170 126 101
0.495751 -0.383146 -0.501 173 129 104
0.502141 -0.379322 -0.496 174 127 101
0.512867 -0.374733 -0.49 176 129 103
0.513683 -0.373969 -0.489 179 132 104
0.514614 -0.373969 -0.489 182 135 107
0.519003 -0.372439 -0.487 173 126 96
0.524262 -0.37091 -0.485 165 120 89
0.534011 -0.373204 -0.488 155 114 86
-0.021581 -0.315867 -0.412 190 151 118
-0.0167495 -0.313567 -0.409 193 152 120
-0.0143771 -0.3128 -0.408 192 151 119
-0.00814 -0.312033 -0.407 194 151 119
-0.00503905 -0.312033 -0.407 181 138 104
0.00116286 -0.312033 -0.407 184 139 108
0.0209476 -0.318167 -0.415 167 121 98
0.0415924 -0.325067 -0.424 136 91 85
0.04514 -0.327367 -0.427 123 86 80
0.0479143 -0.329667 -0.43 114 83 80
0.0590419 -0.341933 -0.446 91 71 72
0.0821667 -0.377967 -0.493 91 72 74
0.09342 -0.3979 -0.519 145 173 213
0.449414 -0.4439 -0.579 193 196 211
0.455714 -0.444667 -0.58 156 173 199
0.456819 -0.444667 -0.58 171 188 214
