ply
format ascii 1.0
comment Created by Open3D
element vertex 1290
property double x
property double y
property double z
property uchar red
property uchar green
property uchar blue
end_header
0.470367 -0.407586 -0.515 174 143 125
0.468043 -0.387009 -0.489 186 149 123
0.470464 -0.380677 -0.481 190 149 119
0.472992 -0.378303 -0.478 191 151 116
0.4891 -0.37118 -0.469 180 136 97
0.49446 -0.37118 -0.469 169 126 92
0.500157 -0.372763 -0.471 168 126 88
0.0385219 -0.406187 -0.512 203 158 125
0.0442867 -0.405393 -0.511 205 160 129
0.0547781 -0.403807 -0.509 194 147 119
0.0605952 -0.403807 -0.509 193 143 118
0.0615648 -0.403807 -0.509 194 144 119
0.0707048 -0.406187 -0.512 194 144 121
0.102414 -0.424433 -0.535 144 107 99
0.121067 -0.444267 -0.56 70 67 76
0.122133 -0.444267 -0.56 71 68 77
0.128992 -0.445853 -0.562 140 142 154
0.143723 -0.44506 -0.561 187 192 212
0.154133 -0.444267 -0.56 214 223 232
0.160533 -0.444267 -0.56 153 165 187
0.168 -0.444267 -0.56 179 198 230
0.1712 -0.444267 -0.56 162 181 214
0.445686 -0.4522 -0.57 176 183 202
0.465494 -0.45458 -0.573 219 219 229
0.495189 -0.453787 -0.572 112 133 180
0.468714 -0.4046 -0.51 176 144 123
0.468129 -0.3927 -0.495 184 146 123
0.469486 -0.3808 -0.48 191 150 120
0.48374 -0.372073 -0.469 183 139 104
0.485383 -0.37128 -0.468 181 137 100
0.493406 -0.37128 -0.468 171 126 93
0.496247 -0.372073 -0.469 171 127 92
0.4982 -0.372867 -0.47 172 130 92
0.0384467 -0.406367 -0.511 207 161 128
0.0451714 -0.405571 -0.51 202 157 124
0.0705667 -0.406367 -0.511 195 145 122
0.0832124 -0.411138 -0.517 184 136 113
0.121067 -0.445333 -0.56 66 63 72
0.122133 -0.445333 -0.56 91 88 97
0.129831 -0.446129 -0.561 151 158 168
0.134933 -0.445333 -0.56 103 106 121
0.141333 -0.445333 -0.56 188 191 206
0.1488 -0.445333 -0.56 139 145 177
0.157333 -0.445333 -0.56 214 226 240
0.438401 -0.45249 -0.569 226 230 242
0.448943 -0.453286 -0.57 221 225 236
0.466861 -0.454876 -0.572 214 220 232
0.482494 -0.431814 -0.543 163 135 121
0.467185 -0.394438 -0.496 181 145 121
0.467176 -0.392052 -0.493 183 145 122
0.472911 -0.379329 -0.477 191 150 118
0.473643 -0.377738 -0.475 189 146 114
0.476153 -0.376148 -0.473 189 146 112
0.478743 -0.375352 -0.472 190 145 112
0.0301514 -0.413717 -0.519 194 149 120
0.0337114 -0.408934 -0.513 195 148 118
0.058541 -0.404949 -0.508 188 143 114
0.0644733 -0.405746 -0.509 189 144 115
0.0684857 -0.406543 -0.51 195 148 122
0.0865 -0.413717 -0.519 184 136 113
0.0935 -0.4185 -0.525 160 118 104
0.0986143 -0.423283 -0.531 149 111 102
0.122133 -0.4464 -0.56 106 103 112
0.140267 -0.4464 -0.56 199 201 213
0.144275 -0.445603 -0.559 202 210 223
0.146405 -0.445603 -0.559 183 192 207
0.158117 -0.445603 -0.559 203 209 223
0.160247 -0.445603 -0.559 164 175 193
0.1677 -0.445603 -0.559 162 185 217
0.432221 -0.452777 -0.568 185 201 227
0.442736 -0.453574 -0.569 120 125 145
0.453286 -0.454371 -0.57 221 226 232
0.460607 -0.455169 -0.571 202 205 222
0.465771 -0.455966 -0.572 216 219 226
0.483204 -0.455966 -0.572 199 205 219
0.49192 -0.455966 -0.572 98 125 170
0.471962 -0.414514 -0.52 171 140 122
0.46866 -0.40734 -0.511 177 142 123
0.467186 -0.394586 -0.495 181 145 121
0.467166 -0.392194 -0.492 182 144 121
0.467151 -0.391397 -0.491 182 144 121
0.468015 -0.389006 -0.488 183 146 120
0.472911 -0.380237 -0.477 190 149 119
0.474451 -0.377846 -0.474 189 146 112
0.476046 -0.376251 -0.472 190 147 112
0.476945 -0.376251 -0.472 190 146 111
0.477844 -0.376251 -0.472 190 146 111
0.487014 -0.372266 -0.467 179 135 98
0.489683 -0.372266 -0.467 176 132 93
0.502849 -0.375454 -0.471 162 121 89
0.0300352 -0.413108 -0.517 193 146 118
0.0327343 -0.409911 -0.513 194 149 120
0.0421743 -0.406715 -0.509 203 159 124
0.0470219 -0.406715 -0.509 202 158 123
0.05746 -0.405117 -0.507 190 145 114
0.0799476 -0.41151 -0.515 186 138 115
0.0888181 -0.416304 -0.521 175 127 105
0.117235 -0.44507 -0.557 94 82 84
0.119786 -0.446668 -0.559 59 54 60
0.129369 -0.446668 -0.559 165 166 170
0.130433 -0.446668 -0.559 167 168 172
0.131498 -0.446668 -0.559 160 164 175
0.132563 -0.446668 -0.559 123 127 138
0.133628 -0.446668 -0.559 112 112 122
0.135757 -0.446668 -0.559 130 129 135
0.148534 -0.446668 -0.559 84 101 147
0.149599 -0.446668 -0.559 101 118 164
0.158117 -0.446668 -0.559 203 203 215
0.159182 -0.446668 -0.559 170 177 193
0.433303 -0.453859 -0.568 206 218 234
0.43763 -0.453859 -0.568 214 223 238
0.444904 -0.454658 -0.569 166 169 176
0.459519 -0.456256 -0.571 185 183 197
0.461694 -0.456256 -0.571 220 223 230
0.466045 -0.456256 -0.571 220 223 230
0.485383 -0.457055 -0.572 173 182 199
0.488651 -0.457055 -0.572 129 145 170
0.49083 -0.457055 -0.572 106 130 168
0.487504 -0.440275 -0.551 161 132 126
0.4735 -0.4195 -0.525 167 137 126
0.471133 -0.413907 -0.518 174 141 124
0.469453 -0.41071 -0.514 175 142 123
0.468714 -0.407514 -0.51 176 140 124
0.46704 -0.40272 -0.504 176 144 123
0.467071 -0.401921 -0.503 179 144 124
0.467984 -0.389136 -0.487 183 146 120
0.472003 -0.381146 -0.477 189 148 118
0.472738 -0.379548 -0.475 190 149 117
0.473549 -0.378749 -0.474 192 149 117
0.476046 -0.37715 -0.472 192 149 115
0.476831 -0.376351 -0.471 188 145 110
0.4794 -0.375552 -0.47 190 145 112
0.501781 -0.375552 -0.47 162 121 89
0.6017 -0.437079 -0.547 203 200 183
0.0392657 -0.407685 -0.509 207 158 126
0.0421743 -0.407685 -0.509 202 157 124
0.063379 -0.406884 -0.508 193 148 115
0.0736305 -0.410088 -0.512 192 145 117
0.0757286 -0.410889 -0.513 191 144 116
0.134692 -0.447732 -0.559 181 181 189
0.137887 -0.447732 -0.559 150 148 153
0.142954 -0.446931 -0.558 207 210 219
0.42714 -0.45414 -0.567 132 156 190
0.446286 -0.454941 -0.568 199 199 197
0.456543 -0.456543 -0.57 228 229 233
0.461694 -0.457344 -0.571 219 224 230
0.467132 -0.457344 -0.571 208 209 211
0.475833 -0.457344 -0.571 88 101 135
0.479096 -0.457344 -0.571 175 193 213
0.48671 -0.457344 -0.571 164 180 203
0.494543 -0.456543 -0.57 90 114 158
0.479209 -0.430111 -0.537 159 132 123
0.471877 -0.417296 -0.521 170 138 125
0.466223 -0.398874 -0.498 180 144 122
0.468015 -0.390865 -0.488 182 146 122
0.483157 -0.372443 -0.465 182 138 103
0.488471 -0.372443 -0.465 177 133 94
0.492185 -0.373244 -0.466 174 131 97
0.500713 -0.375647 -0.469 164 121 87
0.029919 -0.413471 -0.515 194 146 123
0.0431438 -0.408654 -0.509 202 157 124
0.0488648 -0.407851 -0.508 201 156 123
0.0545629 -0.407049 -0.507 197 151 118
0.0593914 -0.407049 -0.507 193 148 115
0.0704286 -0.409457 -0.51 194 147 117
0.0810857 -0.414274 -0.516 185 138 112
0.0911514 -0.419894 -0.523 167 124 107
0.12085 -0.448797 -0.559 107 105 108
0.132326 -0.447994 -0.558 175 174 180
0.134451 -0.447994 -0.558 195 194 200
0.143759 -0.447191 -0.557 209 212 221
0.43578 -0.45522 -0.567 217 226 243
0.450323 -0.456826 -0.569 228 232 235
0.457629 -0.457629 -0.57 227 228 230
0.4598 -0.457629 -0.57 223 222 236
0.460886 -0.457629 -0.57 217 221 232
0.473658 -0.458431 -0.571 196 199 208
0.478009 -0.458431 -0.571 86 106 143
0.479096 -0.458431 -0.571 146 167 194
0.492371 -0.457629 -0.57 55 90 156
0.472692 -0.419894 -0.523 168 138 127
0.471133 -0.41588 -0.518 172 139 124
0.468602 -0.411063 -0.512 173 140 123
0.467086 -0.391794 -0.488 181 145 121
0.470261 -0.383766 -0.478 191 152 121
0.474248 -0.378949 -0.472 191 148 116
0.482271 -0.373329 -0.465 184 140 105
0.484043 -0.373329 -0.465 177 133 96
0.485653 -0.372526 -0.464 177 134 92
0.489357 -0.373329 -0.465 177 133 98
0.497689 -0.374934 -0.467 167 123 84
0.0272381 -0.418476 -0.52 199 149 122
0.038221 -0.408819 -0.508 203 154 122
0.0420914 -0.408819 -0.508 203 156 126
0.0525276 -0.40721 -0.506 196 152 117
0.055419 -0.40721 -0.506 193 148 115
0.0653143 -0.408819 -0.508 196 151 120
0.0778343 -0.413648 -0.514 184 137 109
0.0799476 -0.414452 -0.515 181 134 108
0.0876571 -0.418476 -0.52 173 127 104
0.1302 -0.449057 -0.558 181 181 181
0.142698 -0.448252 -0.557 217 212 218
0.14482 -0.448252 -0.557 217 216 224
0.148003 -0.448252 -0.557 166 181 220
0.150125 -0.448252 -0.557 80 96 145
0.152247 -0.448252 -0.557 157 173 206
0.153308 -0.448252 -0.557 197 213 246
0.15543 -0.448252 -0.557 188 197 204
0.15649 -0.448252 -0.557 188 186 197
0.171344 -0.448252 -0.557 185 210 241
0.431777 -0.455495 -0.566 186 200 227
0.435011 -0.455495 -0.566 212 225 244
0.43902 -0.4563 -0.567 102 122 157
0.480429 -0.458714 -0.57 165 185 218
0.483686 -0.458714 -0.57 179 189 199
0.480857 -0.434571 -0.54 160 131 123
0.4735 -0.4225 -0.525 165 136 122
0.471877 -0.419281 -0.521 169 137 124
0.469453 -0.413648 -0.514 171 138 121
0.467795 -0.409624 -0.509 171 138 119
0.467176 -0.396748 -0.493 179 143 119
0.489189 -0.37341 -0.464 175 131 94
0.490072 -0.37341 -0.464 172 129 94
0.490956 -0.37341 -0.464 171 128 93
0.0254514 -0.422693 -0.524 196 146 121
0.0334486 -0.410593 -0.509 200 149 118
0.0343505 -0.409787 -0.508 199 148 117
0.0362143 -0.40898 -0.507 205 156 124
0.0651857 -0.40898 -0.507 198 153 122
0.0725133 -0.412207 -0.511 191 146 115
0.0878257 -0.420273 -0.521 175 129 105
0.102989 -0.433987 -0.538 133 100 91
0.117025 -0.448507 -0.556 83 72 78
0.127845 -0.449313 -0.557 173 173 175
0.131028 -0.449313 -0.557 178 177 183
0.44658 -0.45738 -0.567 192 193 198
0.466314 -0.4598 -0.57 168 166 167
0.4902 -0.4598 -0.57 60 100 159
0.491286 -0.4598 -0.57 58 98 157
0.494971 -0.458187 -0.568 139 146 174
0.47599 -0.427533 -0.53 161 133 121
0.467795 -0.410593 -0.509 172 140 119
0.466243 -0.3993 -0.495 181 146 124
0.466237 -0.397687 -0.493 178 144 119
0.470107 -0.383973 -0.476 190 149 121
0.47084 -0.38236 -0.474 193 149 122
0.478729 -0.3751 -0.465 184 139 108
0.484607 -0.373487 -0.463 178 133 102
0.495557 -0.3751 -0.465 165 122 88
0.51129 -0.381553 -0.473 149 113 81
0.615786 -0.4477 -0.555 199 199 189
0.0562714 -0.408329 -0.505 195 150 117
0.0612019 -0.409137 -0.506 197 150 120
0.0621657 -0.409137 -0.506 198 151 121
0.0632543 -0.409946 -0.507 194 149 118
0.0799476 -0.416414 -0.515 181 135 109
0.0925 -0.4245 -0.525 161 123 100
0.132089 -0.450374 -0.557 162 165 174
0.139265 -0.449566 -0.556 167 165 168
0.424557 -0.456843 -0.565 92 131 196
0.429938 -0.456843 -0.565 142 173 220
0.434243 -0.456843 -0.565 157 186 230
0.467664 -0.460077 -0.569 215 218 223
0.481753 -0.460077 -0.569 167 185 221
0.491508 -0.460077 -0.569 45 86 148
0.47599 -0.428543 -0.53 161 133 121
0.467086 -0.394583 -0.488 180 143 117
0.4669 -0.39054 -0.483 184 144 118
0.469277 -0.385689 -0.477 189 148 118
0.470024 -0.384071 -0.475 190 149 121
0.47245 -0.381646 -0.472 191 148 116
0.47302 -0.37922 -0.469 190 147 115
0.477843 -0.375986 -0.465 188 143 112
0.495375 -0.375177 -0.464 162 121 91
0.50518 -0.37922 -0.469 149 118 87
0.0268714 -0.415774 -0.513 200 155 126
0.0631295 -0.410101 -0.506 193 148 117
0.0855114 -0.420637 -0.519 177 131 107
0.0901552 -0.423879 -0.523 168 122 98
0.100376 -0.433605 -0.535 134 101 92
0.125723 -0.451435 -0.557 160 160 168
0.146414 -0.449814 -0.555 215 218 225
0.150643 -0.449814 -0.555 108 128 161
0.158043 -0.449814 -0.555 163 189 216
0.182686 -0.450625 -0.556 238 242 253
0.421657 -0.457109 -0.564 86 124 186
0.4509 -0.45954 -0.567 220 220 228
0.456023 -0.46035 -0.568 200 207 217
0.457105 -0.46035 -0.568 166 174 185
0.463596 -0.46035 -0.568 205 209 218
0.46658 -0.461161 -0.569 207 210 215
0.47525 -0.461161 -0.569 202 213 233
0.477418 -0.461161 -0.569 121 139 163
0.49389 -0.46035 -0.568 78 108 168
0.47599 -0.429552 -0.53 160 132 120
0.472692 -0.423879 -0.523 166 137 123
0.468602 -0.414964 -0.512 173 141 120
0.467795 -0.412532 -0.509 177 142 122
0.465298 -0.399565 -0.493 181 145 123
0.465267 -0.397133 -0.49 177 141 119
0.4662 -0.397133 -0.49 177 141 119
0.467056 -0.394702 -0.487 179 142 116
0.47302 -0.380113 -0.469 188 145 111
0.475577 -0.379303 -0.468 190 147 115
0.479467 -0.376061 -0.464 187 142 109
0.48427 -0.37363 -0.461 176 133 98
0.486026 -0.37363 -0.461 174 132 94
0.497143 -0.376061 -0.464 156 117 88
0.504994 -0.379303 -0.468 151 115 83
0.506967 -0.380113 -0.469 151 115 83
0.0241733 -0.420813 -0.518 188 142 116
0.0323514 -0.411877 -0.507 203 156 126
0.0467448 -0.411065 -0.506 204 155 125
0.0495381 -0.410252 -0.505 203 157 124
0.0592743 -0.411065 -0.506 196 151 120
0.0661514 -0.411877 -0.507 197 150 120
0.0723714 -0.414314 -0.51 194 147 117
0.075581 -0.415939 -0.512 190 143 115
0.133729 -0.450871 -0.555 172 178 194
0.423806 -0.458183 -0.564 84 122 184
0.427029 -0.458183 -0.564 139 173 234
0.4324 -0.458183 -0.564 77 112 170
0.449027 -0.459808 -0.566 222 222 230
0.470088 -0.461432 -0.568 214 219 222
0.477661 -0.461432 -0.568 135 152 168
0.478743 -0.461432 -0.568 76 98 147
0.494307 -0.459808 -0.566 81 104 154
0.48516 -0.44356 -0.546 154 127 120
0.469453 -0.417564 -0.514 174 139 119
0.468602 -0.415939 -0.512 175 140 120
0.466209 -0.405378 -0.499 180 145 125
0.466223 -0.404566 -0.498 179 143 121
0.466233 -0.403753 -0.497 178 142 120
0.466156 -0.396442 -0.488 179 142 116
0.469937 -0.385069 -0.474 188 147 117
0.47302 -0.381007 -0.469 186 143 111
0.474686 -0.380194 -0.468 193 150 118
0.476815 -0.376945 -0.464 185 142 110
0.0223714 -0.425057 -0.522 191 144 118
0.0266619 -0.414471 -0.509 203 156 128
0.0476143 -0.411214 -0.505 202 153 121
0.0631295 -0.412029 -0.506 192 145 115
0.0820686 -0.420171 -0.516 175 128 102
0.0866667 -0.423429 -0.52 174 128 104
0.0925 -0.4275 -0.525 154 113 91
0.115757 -0.451929 -0.555 100 90 91
0.126329 -0.451929 -0.555 148 147 165
0.1295 -0.451929 -0.555 141 139 160
0.150371 -0.451114 -0.554 200 211 229
0.151427 -0.451114 -0.554 127 149 196
0.152482 -0.451114 -0.554 80 102 149
0.154592 -0.451114 -0.554 95 122 167
0.155648 -0.451114 -0.554 115 139 185
0.43992 -0.459257 -0.564 222 222 234
0.45522 -0.4617 -0.567 174 186 200
0.46062 -0.4617 -0.567 192 201 216
0.46602 -0.4617 -0.567 169 174 178
0.4671 -0.4617 -0.567 161 163 162
0.477661 -0.462514 -0.568 167 181 190
0.48438 -0.4617 -0.567 78 114 174
0.4887 -0.4617 -0.567 32 71 136
0.466876 -0.413657 -0.508 173 138 118
0.466223 -0.405514 -0.498 179 143 121
0.466233 -0.4047 -0.497 178 142 120
0.46624 -0.403886 -0.496 177 141 117
0.466097 -0.395743 -0.486 180 143 117
0.467715 -0.391671 -0.481 188 148 122
0.469277 -0.388414 -0.477 188 148 122
0.470651 -0.384343 -0.472 187 146 118
0.472238 -0.382714 -0.47 187 146 116
0.475186 -0.378643 -0.465 186 143 111
0.479879 -0.375386 -0.461 182 139 105
0.485666 -0.373757 -0.459 168 130 91
0.493929 -0.375386 -0.461 154 117 88
0.0331857 -0.412176 -0.505 203 156 126
0.0428048 -0.412176 -0.505 199 150 120
0.05328 -0.41136 -0.504 195 148 118
0.07126 -0.415441 -0.509 191 144 114
0.0832124 -0.42197 -0.517 172 125 99
0.113233 -0.451353 -0.553 91 81 82
0.117871 -0.452986 -0.555 122 117 121
0.1295 -0.452986 -0.555 129 130 151
0.438846 -0.460331 -0.564 219 219 229
0.49302 -0.46278 -0.567 42 70 143
0.484419 -0.444008 -0.544 151 127 117
0.482778 -0.441559 -0.541 152 128 118
0.466209 -0.407279 -0.499 179 144 122
0.46624 -0.40483 -0.496 178 142 118
0.465201 -0.397485 -0.487 179 142 116
0.466023 -0.395036 -0.484 184 147 121
0.4692 -0.388507 -0.476 185 145 119
0.470651 -0.385242 -0.472 189 148 120
0.47564 -0.37708 -0.462 185 142 108
0.477962 -0.375448 -0.46 184 141 107
0.479546 -0.374631 -0.459 178 138 103
0.483917 -0.374631 -0.459 175 137 100
0.48548 -0.373815 -0.458 166 128 91
0.613381 -0.448905 -0.55 200 200 192
0.0195371 -0.430318 -0.526 190 150 124
0.0351095 -0.413138 -0.505 207 158 126
0.05232 -0.41232 -0.504 197 148 118
0.0591571 -0.413138 -0.505 194 149 118
0.0631295 -0.413956 -0.506 193 146 116
0.07446 -0.418047 -0.511 190 143 113
0.115549 -0.453225 -0.554 103 94 95
0.128211 -0.453225 -0.554 144 145 166
0.133247 -0.452407 -0.553 127 129 142
0.149047 -0.452407 -0.553 194 203 218
0.428416 -0.460588 -0.563 82 121 180
0.433778 -0.460588 -0.563 125 153 193
0.43485 -0.460588 -0.563 183 211 251
0.46412 -0.463042 -0.566 213 214 218
0.475979 -0.463042 -0.566 170 180 190
0.477057 -0.463042 -0.566 123 145 194
0.493229 -0.463042 -0.566 29 60 124
0.493433 -0.462224 -0.565 38 69 133
0.481126 -0.440135 -0.538 155 128 119
0.4745 -0.4295 -0.525 163 135 121
0.469453 -0.420501 -0.514 171 138 119
0.466143 -0.410684 -0.502 176 139 120
0.466209 -0.40823 -0.499 177 142 120
0.465267 -0.400867 -0.49 178 142 118
0.4669 -0.39514 -0.483 184 147 120
0.466851 -0.394322 -0.482 185 148 121
0.469119 -0.388595 -0.475 184 145 116
0.469847 -0.386959 -0.473 187 148 119
0.470551 -0.385323 -0.471 189 148 120
0.47112 -0.382869 -0.468 189 148 116
0.472657 -0.381232 -0.466 192 149 117
0.473545 -0.381232 -0.466 191 148 116
0.475048 -0.379596 -0.464 188 145 113
0.478671 -0.375506 -0.459 179 139 103
0.484608 -0.374688 -0.458 167 129 92
0.488097 -0.374688 -0.458 158 122 90
0.495486 -0.376324 -0.46 150 112 89
0.509451 -0.382869 -0.468 144 110 85
0.05424 -0.41328 -0.504 199 150 120
0.0722295 -0.41738 -0.509 190 145 114
0.0979705 -0.43706 -0.533 126 102 92
0.126101 -0.45428 -0.554 144 143 159
0.132193 -0.45346 -0.553 135 135 147
0.138263 -0.45264 -0.552 207 205 216
0.427655 -0.46084 -0.562 123 156 209
0.44343 -0.46166 -0.563 224 223 221
0.452538 -0.4633 -0.565 211 214 221
0.465198 -0.46412 -0.566 219 219 221
0.479213 -0.46412 -0.566 63 97 143
0.493229 -0.46412 -0.566 32 66 127
0.493634 -0.46248 -0.564 60 90 142
0.471962 -0.4264 -0.52 165 136 120
0.471133 -0.42476 -0.518 167 136 118
0.466062 -0.3977 -0.485 182 145 119
0.467715 -0.39442 -0.481 187 147 121
0.469277 -0.39114 -0.477 186 149 120
0.472011 -0.38376 -0.468 189 148 116
0.477629 -0.37556 -0.458 181 143 106
0.482679 -0.37474 -0.457 170 135 105
0.48529 -0.37474 -0.457 159 124 94
0.0264524 -0.415062 -0.505 202 156 123
0.03216 -0.41424 -0.504 202 156 123
0.03696 -0.41424 -0.504 200 151 119
0.03888 -0.41424 -0.504 202 153 121
0.0426352 -0.413418 -0.503 202 153 123
0.113029 -0.453691 -0.552 95 85 86
0.11977 -0.455335 -0.554 147 150 157
0.125873 -0.454513 -0.553 154 156 169
0.129033 -0.454513 -0.553 150 149 165
0.45469 -0.464376 -0.565 207 211 220
0.458183 -0.463554 -0.564 216 218 230
0.462224 -0.464376 -0.565 222 219 226
0.472986 -0.464376 -0.565 211 211 221
0.492357 -0.464376 -0.565 35 70 126
0.478685 -0.438075 -0.533 156 132 120
0.47287 -0.428212 -0.521 164 135 121
0.466923 -0.416706 -0.507 173 138 118
0.465171 -0.399446 -0.486 181 143 120
0.4669 -0.39698 -0.483 182 145 119
0.466743 -0.394514 -0.48 186 146 120
0.470229 -0.384651 -0.468 188 149 116
0.47177 -0.383008 -0.466 189 148 118
0.473581 -0.378076 -0.46 184 144 109
0.474457 -0.378076 -0.46 185 145 110
0.488772 -0.37561 -0.457 142 110 89
0.0200705 -0.423438 -0.514 194 150 121
0.0349705 -0.414376 -0.503 199 153 120
0.0426352 -0.414376 -0.503 203 154 124
0.0435933 -0.414376 -0.503 204 155 125
0.0630048 -0.416024 -0.505 200 151 119
0.0639667 -0.416024 -0.505 200 151 119
0.07126 -0.419319 -0.509 191 144 114
0.0743143 -0.420143 -0.51 190 140 113
0.110725 -0.453919 -0.551 105 90 85
0.114287 -0.455567 -0.553 106 97 98
0.135913 -0.453919 -0.551 202 204 217
0.442642 -0.462981 -0.562 226 226 234
0.458183 -0.464629 -0.564 222 221 226
0.47752 -0.464629 -0.564 153 168 199
0.49256 -0.464629 -0.564 61 100 157
0.48202 -0.444033 -0.539 153 129 119
0.46866 -0.420967 -0.511 170 137 120
0.466966 -0.416848 -0.506 173 138 119
0.46619 -0.411905 -0.5 175 140 120
0.465298 -0.406138 -0.493 176 140 116
0.465249 -0.402843 -0.489 177 139 116
0.465201 -0.401195 -0.487 180 142 119
0.466023 -0.398724 -0.484 182 145 119
0.475884 -0.377305 -0.458 173 132 102
0.478149 -0.375657 -0.456 169 132 106
0.479017 -0.375657 -0.456 164 127 101
0.480567 -0.374833 -0.455 151 114 95
0.484033 -0.374833 -0.455 123 94 78
0.0236133 -0.417811 -0.506 197 153 124
0.0378448 -0.415334 -0.503 199 153 120
0.0425505 -0.414509 -0.502 201 154 124
0.0492438 -0.414509 -0.502 198 149 119
0.0550905 -0.415334 -0.503 201 154 124
0.0639667 -0.416986 -0.505 200 151 121
0.0733429 -0.421114 -0.51 190 140 113
0.07866 -0.423591 -0.513 181 135 109
0.0797924 -0.424417 -0.514 177 131 107
0.120607 -0.45662 -0.553 162 163 165
0.130666 -0.454969 -0.551 188 191 196
0.445853 -0.464051 -0.562 228 229 234
0.46248 -0.465703 -0.564 220 221 226
0.479669 -0.465703 -0.564 164 180 205
0.470367 -0.425243 -0.515 167 135 120
0.465171 -0.401297 -0.486 179 143 119
0.46753 -0.394691 -0.478 187 148 119
0.468293 -0.39304 -0.476 187 148 117
0.468757 -0.388911 -0.471 186 145 115
0.470496 -0.382306 -0.463 187 146 116
0.471829 -0.379829 -0.46 179 138 110
0.0145829 -0.436983 -0.528 193 153 127
0.0155295 -0.435328 -0.526 192 150 125
0.0425505 -0.415465 -0.502 200 153 123
0.0473314 -0.415465 -0.502 198 151 121
0.0570067 -0.416292 -0.503 198 151 121
0.06096 -0.41712 -0.504 197 150 120
0.066021 -0.418775 -0.506 195 150 119
0.0765562 -0.423741 -0.512 181 134 108
0.0775314 -0.423741 -0.512 179 133 107
0.0868333 -0.43119 -0.521 158 115 96
0.0879943 -0.432017 -0.522 155 112 93
0.0916743 -0.435328 -0.526 143 107 91
0.129616 -0.456018 -0.551 191 194 201
0.130666 -0.456018 -0.551 199 202 209
0.432533 -0.463467 -0.56 183 192 209
0.462732 -0.46595 -0.563 219 220 225
0.470239 -0.46595 -0.563 176 182 194
0.475601 -0.46595 -0.563 187 204 232
0.476673 -0.46595 -0.563 190 201 219
0.47989 -0.46595 -0.563 171 184 203
0.488263 -0.466777 -0.564 71 116 175
0.492759 -0.46595 -0.563 130 150 185
0.470297 -0.427051 -0.516 163 134 120
0.465258 -0.412982 -0.499 176 139 120
0.465281 -0.406361 -0.491 176 140 116
0.465101 -0.400568 -0.484 182 146 120
0.468214 -0.393119 -0.475 188 149 118
0.46786 -0.389809 -0.471 186 147 116
0.473806 -0.377394 -0.456 155 117 96
0.492914 -0.377394 -0.456 49 37 37
0.499654 -0.379877 -0.459 54 43 41
0.507749 -0.384015 -0.464 64 50 49
0.0329886 -0.416421 -0.502 199 154 123
0.034901 -0.416421 -0.502 195 150 119
0.0578495 -0.416421 -0.502 197 150 120
0.0733429 -0.423057 -0.51 185 135 108
0.0754333 -0.423887 -0.511 184 137 111
0.0797924 -0.426375 -0.514 176 130 106
0.11408 -0.457897 -0.552 107 107 119
0.119121 -0.457068 -0.551 161 161 161
0.132524 -0.456238 -0.55 201 201 211
0.134619 -0.456238 -0.55 207 209 221
0.4336 -0.464533 -0.56 145 154 171
0.456558 -0.466192 -0.562 222 223 228
0.487189 -0.467851 -0.564 73 118 173
0.46414 -0.40066 -0.483 181 145 121
0.464914 -0.398171 -0.48 180 143 117
0.468131 -0.393194 -0.474 187 148 119
0.46786 -0.390706 -0.471 187 148 119
0.468986 -0.385729 -0.465 189 148 120
0.469614 -0.38407 -0.463 186 145 113
0.47065 -0.379922 -0.458 172 132 107
0.471522 -0.379922 -0.458 163 125 104
0.472069 -0.378263 -0.456 143 106 88
0.476916 -0.376604 -0.454 87 65 54
0.0310143 -0.416546 -0.501 201 156 125
0.0540248 -0.417377 -0.502 197 150 120
0.0578495 -0.417377 -0.502 197 150 120
0.059881 -0.418209 -0.503 197 152 121
0.06288 -0.41904 -0.504 196 151 120
0.0765562 -0.425691 -0.512 181 135 109
0.0845229 -0.431511 -0.519 157 114 95
0.119121 -0.458117 -0.551 164 162 163
0.122048 -0.457286 -0.55 178 177 175
0.128333 -0.457286 -0.55 193 193 195
0.449334 -0.466431 -0.561 224 225 230
0.457629 -0.467263 -0.562 221 222 227
0.46731 -0.394929 -0.475 186 147 118
0.467554 -0.389109 -0.468 185 146 117
0.469622 -0.379963 -0.457 155 120 98
0.476051 -0.377469 -0.454 56 41 36
0.479317 -0.376637 -0.453 36 25 23
0.489023 -0.377469 -0.454 30 24 26
0.4927 -0.3783 -0.455 30 24 26
0.0215571 -0.419167 -0.503 197 156 126
0.0588057 -0.418333 -0.502 197 152 121
0.0700143 -0.4225 -0.507 190 145 114
0.0810857 -0.43 -0.516 172 126 103
0.0822276 -0.430833 -0.517 163 121 99
0.0920229 -0.44 -0.528 135 107 95
0.109476 -0.458333 -0.55 64 55 60
0.112824 -0.459167 -0.551 69 71 94
0.117022 -0.459167 -0.551 154 152 163
0.131237 -0.4575 -0.549 201 201 213
0.43815 -0.465833 -0.559 113 144 175
0.465363 -0.4675 -0.561 204 207 216
0.472843 -0.4675 -0.561 156 169 177
0.477117 -0.4675 -0.561 186 194 207
0.48332 -0.468333 -0.562 97 120 161
0.487602 -0.468333 -0.562 94 131 175
0.489743 -0.468333 -0.562 80 116 164
0.476308 -0.439167 -0.527 155 128 117
0.466113 -0.419167 -0.503 173 138 119
0.465287 -0.414167 -0.497 176 139 120
0.465281 -0.409167 -0.491 178 142 120
0.464317 -0.4075 -0.489 178 142 120
0.465573 -0.396667 -0.476 183 146 119
0.475003 -0.3775 -0.453 35 27 25
0.477398 -0.376667 -0.452 33 22 26
0.47912 -0.376667 -0.452 35 24 28
0.498348 -0.380833 -0.457 25 23 28
0.0169333 -0.424301 -0.508 193 152 124
0.0242857 -0.417619 -0.5 200 156 127
0.0319048 -0.417619 -0.5 201 158 126
0.0548714 -0.418454 -0.501 197 152 121
0.059881 -0.420125 -0.503 198 153 120
0.0765562 -0.427642 -0.512 179 133 107
0.130191 -0.458546 -0.549 204 202 213
0.43524 -0.466063 -0.558 148 166 186
0.43815 -0.466898 -0.559 101 128 155
0.453867 -0.467733 -0.56 206 207 212
0.4675 -0.468569 -0.561 105 119 148
0.480323 -0.468569 -0.561 104 123 153
0.464734 -0.398409 -0.477 182 145 118
0.466156 -0.394232 -0.472 186 147 118
0.466969 -0.386715 -0.463 184 143 113
0.47414 -0.378363 -0.453 37 30 37
0.474815 -0.377528 -0.452 29 24 30
0.47912 -0.377528 -0.452 33 28 34
0.515479 -0.390056 -0.467 39 37 42
0.01776 -0.42192 -0.504 196 155 127
0.0261381 -0.417734 -0.499 196 152 123
0.0414286 -0.418571 -0.5 197 152 119
0.042381 -0.418571 -0.5 197 152 119
0.0471429 -0.418571 -0.5 197 152 119
0.0490476 -0.418571 -0.5 197 152 119
0.0568933 -0.420246 -0.502 196 151 118
0.0608391 -0.421083 -0.503 196 151 120
0.06384 -0.42192 -0.504 192 147 116
0.0776829 -0.429454 -0.513 174 128 105
0.0797924 -0.430291 -0.514 168 120 98
0.0856762 -0.435314 -0.52 153 111 95
0.126823 -0.458754 -0.548 173 177 186
0.421729 -0.466289 -0.557 124 156 195
0.437366 -0.467126 -0.558 112 136 160
0.467733 -0.4688 -0.56 107 125 161
0.474133 -0.4688 -0.56 197 198 200
0.4816 -0.4688 -0.56 99 125 162
0.471209 -0.432803 -0.517 160 132 118
0.466113 -0.421083 -0.503 172 137 118
0.466143 -0.420246 -0.502 173 138 118
0.464317 -0.409363 -0.489 177 141 119
0.464297 -0.408526 -0.488 174 138 114
0.464 -0.401829 -0.48 180 143 117
0.46621 -0.388434 -0.464 188 148 122
0.469133 -0.380063 -0.454 47 35 37
0.482355 -0.377551 -0.451 31 29 34
0.484073 -0.377551 -0.451 32 30 35
0.48859 -0.378389 -0.452 33 28 34
0.0204762 -0.419524 -0.5 194 150 121
0.0242371 -0.418685 -0.499 196 153 121
0.0309524 -0.419524 -0.5 198 154 125
0.0319048 -0.419524 -0.5 199 156 124
0.0385714 -0.419524 -0.5 200 155 122
0.0422962 -0.418685 -0.499 197 152 121
0.0765562 -0.429592 -0.512 175 131 106
0.116385 -0.459798 -0.548 153 155 170
0.121382 -0.458959 -0.547 167 162 168
0.435521 -0.46735 -0.557 194 201 217
0.440554 -0.468189 -0.558 178 195 225
0.44268 -0.468189 -0.558 218 217 233
0.467963 -0.469028 -0.559 175 186 208
0.469867 -0.469867 -0.56 201 207 221
0.470933 -0.469867 -0.56 204 210 224
0.476267 -0.469867 -0.56 178 189 209
0.479467 -0.469867 -0.56 98 119 146
0.465287 -0.417007 -0.497 174 138 116
0.4653 -0.415329 -0.495 175 139 117
0.464297 -0.409455 -0.488 175 139 115
0.464358 -0.39603 -0.472 184 148 122
0.464669 -0.390996 -0.466 185 144 114
0.474624 -0.37841 -0.451 28 26 31
0.478919 -0.37841 -0.451 29 27 32
0.48665 -0.37841 -0.451 33 28 34
0.497033 -0.381767 -0.455 34 29 35
0.498994 -0.382606 -0.456 33 28 34
0.511064 -0.388479 -0.463 37 35 40
0.01584 -0.42384 -0.504 196 152 125
0.0186086 -0.421317 -0.501 196 152 123
0.0195238 -0.420476 -0.5 193 149 120
0.0242371 -0.419635 -0.499 198 153 120
0.0337419 -0.419635 -0.499 199 154 121
0.0375438 -0.419635 -0.499 199 154 121
0.0597619 -0.422158 -0.502 196 151 120
0.085841 -0.438136 -0.521 150 108 94
0.129717 -0.460001 -0.547 198 201 220
0.444009 -0.46841 -0.557 197 203 217
0.465833 -0.470092 -0.559 161 173 199
0.469028 -0.470092 -0.559 203 207 218
0.479675 -0.470092 -0.559 104 132 171
0.489067 -0.470933 -0.56 111 131 166
0.484971 -0.454114 -0.54 147 123 111
0.472952 -0.437295 -0.52 161 129 116
0.465274 -0.418794 -0.498 173 138 118
0.464246 -0.408703 -0.486 176 140 118
0.464097 -0.405339 -0.482 179 143 119
0.46405 -0.404498 -0.481 179 143 119
0.46947 -0.37927 -0.451 26 24 29
0.485791 -0.37927 -0.451 29 27 32
0.506876 -0.386838 -0.46 34 33 38
0.607066 -0.451591 -0.537 197 198 190
0.01036 -0.4366 -0.518 194 149 120
0.0157771 -0.423114 -0.502 193 149 120
0.0499 -0.420586 -0.499 198 153 122
0.051801 -0.420586 -0.499 198 153 122
0.0547619 -0.421429 -0.5 195 150 119
0.0566667 -0.421429 -0.5 193 148 115
0.0586886 -0.422271 -0.501 195 150 119
0.0627552 -0.423957 -0.503 191 146 115
0.087 -0.439971 -0.522 143 105 92
0.117214 -0.461043 -0.547 164 168 193
0.431562 -0.468629 -0.556 226 229 234
0.45012 -0.470314 -0.558 203 209 225
0.460749 -0.470314 -0.558 177 189 213
0.466063 -0.470314 -0.558 205 211 223
0.479675 -0.471157 -0.559 107 136 170
0.487129 -0.471157 -0.559 139 160 189
0.4833 -0.452614 -0.537 146 122 112
0.465301 -0.416371 -0.494 175 138 119
0.463781 -0.392771 -0.466 180 140 115
0.463671 -0.391929 -0.465 179 139 114
0.464819 -0.387714 -0.46 132 103 87
0.464683 -0.386871 -0.459 118 89 73
0.46965 -0.380971 -0.452 26 24 29
0.473765 -0.380129 -0.451 29 27 32
0.474429 -0.379286 -0.45 28 27 32
0.47594 -0.378443 -0.449 27 26 31
0.48751 -0.380129 -0.451 27 26 32
0.489228 -0.380129 -0.451 29 28 34
0.490087 -0.380129 -0.451 28 29 34
0.603674 -0.450086 -0.534 196 197 189
0.614783 -0.456829 -0.542 199 201 190
0.0103 -0.435052 -0.515 192 145 115
0.0194457 -0.420691 -0.498 192 148 119
0.0375438 -0.421536 -0.499 196 151 118
0.0565533 -0.421536 -0.499 193 148 115
0.0752857 -0.430829 -0.51 176 132 107
0.109921 -0.462085 -0.547 120 118 121
0.11221 -0.46293 -0.548 113 122 137
0.13884 -0.46124 -0.546 188 200 222
0.13988 -0.46124 -0.546 188 200 222
0.14612 -0.46124 -0.546 225 229 241
0.442152 -0.469688 -0.556 137 153 186
0.478817 -0.471377 -0.558 109 135 168
0.488383 -0.471377 -0.558 108 126 164
0.489446 -0.471377 -0.558 90 108 146
0.474685 -0.44181 -0.523 157 127 116
0.47212 -0.437587 -0.518 159 127 116
0.466923 -0.428294 -0.507 166 133 116
0.466143 -0.42407 -0.502 168 132 116
0.463134 -0.40633 -0.481 180 142 121
0.461881 -0.401262 -0.475 179 141 118
0.46239 -0.397038 -0.47 182 144 121
0.462206 -0.395349 -0.468 182 141 119
0.463195 -0.389435 -0.461 140 107 88
0.464251 -0.385211 -0.456 38 32 34
0.472714 -0.380143 -0.45 27 26 32
0.475085 -0.379298 -0.449 27 28 33
0.481071 -0.379298 -0.449 26 27 32
0.482782 -0.379298 -0.449 26 27 32
0.00840286 -0.43942 -0.519 189 145 116
0.0138648 -0.425027 -0.502 192 148 119
0.0441086 -0.42164 -0.498 196 153 119
0.0450571 -0.42164 -0.498 197 154 120
0.0488514 -0.42164 -0.498 199 154 123
0.0498 -0.42164 -0.498 198 153 122
0.0507486 -0.42164 -0.498 199 154 123
0.0516971 -0.42164 -0.498 200 155 124
0.0546524 -0.422487 -0.499 196 151 120
0.0626305 -0.425027 -0.502 190 146 117
0.073199 -0.430953 -0.509 171 131 105
0.0788133 -0.435187 -0.514 167 120 100
0.0910171 -0.44704 -0.528 125 93 82
0.10329 -0.461433 -0.545 107 89 89
0.131319 -0.461433 -0.545 168 182 208
0.133395 -0.461433 -0.545 147 164 194
0.135471 -0.461433 -0.545 100 120 153
0.4329 -0.4699 -0.555 223 224 228
0.442152 -0.470747 -0.556 108 136 176
0.458862 -0.471593 -0.557 102 131 175
0.466289 -0.471593 -0.557 210 211 215
0.474566 -0.47244 -0.558 197 201 212
0.475629 -0.47244 -0.558 168 172 183
0.486257 -0.47244 -0.558 161 177 202
0.474685 -0.442807 -0.523 154 127 116
0.47212 -0.438573 -0.518 157 127 116
0.466113 -0.425873 -0.503 164 131 114
0.465258 -0.422487 -0.499 170 134 118
0.465301 -0.418253 -0.494 175 140 121
0.462171 -0.4064 -0.48 178 140 119
0.460837 -0.400473 -0.473 179 141 118
0.465674 -0.384387 -0.454 24 21 32
0.470329 -0.381847 -0.451 24 24 26
0.471188 -0.381847 -0.451 25 24 30
0.484492 -0.380153 -0.449 25 26 31
0.498535 -0.384387 -0.454 24 27 32
0.5005 -0.385233 -0.455 26 29 34
0.01018 -0.431923 -0.509 191 150 118
0.0212571 -0.420891 -0.496 193 149 120
0.0231467 -0.420891 -0.496 192 148 119
0.0240914 -0.420891 -0.496 191 148 116
0.0279267 -0.42174 -0.497 194 151 117
0.0422114 -0.422589 -0.498 198 152 118
0.0478067 -0.42174 -0.497 196 151 118
0.0545429 -0.422589 -0.498 195 151 122
0.0575038 -0.423437 -0.499 193 152 120
0.07098 -0.430226 -0.507 176 132 105
0.0752857 -0.432771 -0.51 174 129 106
0.0776829 -0.435317 -0.513 168 123 104
0.0885 -0.4455 -0.525 133 97 85
0.10452 -0.46332 -0.546 103 87 88
0.107837 -0.464169 -0.547 113 105 102
0.11388 -0.46332 -0.546 107 121 148
0.128205 -0.462471 -0.545 184 200 226
0.138586 -0.462471 -0.545 197 216 248
0.139624 -0.462471 -0.545 216 223 239
0.140662 -0.462471 -0.545 215 222 238
0.44427 -0.471806 -0.556 110 143 194
0.454618 -0.472654 -0.557 187 204 234
0.460984 -0.472654 -0.557 85 121 169
0.469471 -0.472654 -0.557 190 194 193
0.472654 -0.472654 -0.557 198 206 209
0.47988 -0.473503 -0.558 128 154 187
0.48963 -0.472654 -0.557 85 108 140
0.465287 -0.42174 -0.497 171 136 117
0.460976 -0.403071 -0.475 177 139 118
0.460837 -0.401374 -0.473 178 140 117
0.460023 -0.393737 -0.464 167 129 108
0.465511 -0.384403 -0.453 25 19 31
0.502233 -0.3861 -0.455 28 29 34
0.0137819 -0.424388 -0.499 189 148 118
0.0212571 -0.421836 -0.496 195 151 122
0.0240914 -0.421836 -0.496 191 148 116
0.0278705 -0.421836 -0.496 196 153 121
0.0307667 -0.422687 -0.497 196 153 119
0.0515933 -0.422687 -0.497 194 151 119
0.0604762 -0.425238 -0.5 195 152 118
0.06768 -0.42864 -0.504 183 139 110
0.0687762 -0.42949 -0.505 182 141 113
0.0810857 -0.438846 -0.516 150 109 89
0.0860057 -0.443949 -0.522 139 106 89
0.102065 -0.462659 -0.544 104 86 82
0.1118 -0.46436 -0.546 134 139 145
0.113671 -0.46351 -0.545 120 135 164
0.118862 -0.46351 -0.545 101 118 170
0.1199 -0.46351 -0.545 105 117 139
0.129243 -0.46351 -0.545 160 176 202
0.132357 -0.46351 -0.545 100 129 171
0.13651 -0.46351 -0.545 111 142 188
0.442414 -0.472014 -0.555 84 121 174
0.446389 -0.472865 -0.556 135 167 214
0.448507 -0.472865 -0.556 169 197 237
0.456979 -0.472865 -0.556 97 128 175
0.460156 -0.472865 -0.556 86 123 175
0.460023 -0.394621 -0.464 155 118 99
0.459913 -0.39377 -0.463 138 106 93
0.462798 -0.389518 -0.458 31 26 32
0.475085 -0.381864 -0.449 25 26 31
0.476795 -0.381864 -0.449 24 27 32
0.478293 -0.381013 -0.448 24 27 32
0.00638857 -0.439829 -0.516 188 148 122
0.0202714 -0.421929 -0.495 197 154 122
0.0278143 -0.421929 -0.495 198 155 123
0.02976 -0.422781 -0.496 198 155 123
0.0325943 -0.422781 -0.496 196 153 121
0.0645429 -0.427895 -0.502 186 142 113
0.0752857 -0.434714 -0.51 168 123 100
0.0799476 -0.438976 -0.515 151 110 92
0.118644 -0.463695 -0.544 74 99 153
0.138331 -0.463695 -0.544 176 196 223
0.139368 -0.463695 -0.544 203 211 224
0.43423 -0.472219 -0.554 222 228 228
0.440562 -0.472219 -0.554 90 122 169
0.460156 -0.473924 -0.556 79 114 168
0.464392 -0.473924 -0.556 210 210 212
0.480081 -0.474776 -0.557 109 140 171
0.486447 -0.474776 -0.557 118 137 177
0.4765 -0.4475 -0.525 146 123 117
0.4598 -0.3938 -0.462 101 79 66
0.46219 -0.392095 -0.46 44 32 34
0.461926 -0.39039 -0.458 32 30 35
0.461788 -0.389538 -0.457 30 31 36
0.463786 -0.386129 -0.453 26 27 32
0.464484 -0.385276 -0.452 25 26 31
0.470143 -0.383571 -0.45 24 25 30
0.488769 -0.382719 -0.449 25 28 33
0.489624 -0.382719 -0.449 25 28 33
0.61788 -0.46199 -0.542 197 198 190
0.0174429 -0.422871 -0.495 199 155 126
0.0231 -0.422871 -0.495 198 153 122
0.0249857 -0.422871 -0.495 198 153 120
0.0278143 -0.422871 -0.495 197 154 122
0.0354286 -0.423726 -0.496 200 155 122
0.0448762 -0.423726 -0.496 198 155 121
0.045821 -0.423726 -0.496 197 154 120
0.0788133 -0.439103 -0.514 157 114 97
0.0810857 -0.440811 -0.516 143 104 87
0.0822276 -0.441666 -0.517 141 106 87
0.10329 -0.465586 -0.545 96 82 81
0.10764 -0.46644 -0.546 121 117 118
0.113463 -0.464731 -0.544 94 111 137
0.117391 -0.463877 -0.543 51 77 134
0.124631 -0.463877 -0.543 85 107 146
0.137295 -0.464731 -0.544 180 198 222
0.437396 -0.473274 -0.554 227 222 229
0.450871 -0.474129 -0.555 136 176 237
0.470957 -0.474129 -0.555 206 207 209
0.484325 -0.475837 -0.557 153 171 209
0.466966 -0.432269 -0.506 162 129 112
0.458964 -0.403223 -0.472 174 137 118
0.458889 -0.402369 -0.471 173 137 121
0.46308 -0.387846 -0.454 28 29 34
0.464484 -0.386137 -0.452 25 26 31
0.480631 -0.381866 -0.447 23 26 31
0.00247619 -0.445219 -0.52 186 147 118
0.00443143 -0.44265 -0.517 185 148 119
0.00816 -0.43152 -0.504 191 150 120
0.00908381 -0.429808 -0.502 191 146 115
0.0183486 -0.422958 -0.494 197 152 121
0.0202305 -0.422958 -0.494 199 154 121
0.0231 -0.423814 -0.495 198 153 120
0.0287571 -0.423814 -0.495 197 152 121
0.0306429 -0.423814 -0.495 197 152 121
0.0410971 -0.42467 -0.496 195 150 119
0.0439314 -0.42467 -0.496 199 154 123
0.05644 -0.426383 -0.498 192 147 114
0.0604762 -0.428095 -0.5 192 147 116
0.0687762 -0.432376 -0.505 179 135 110
0.0799476 -0.440938 -0.515 145 106 89
0.10329 -0.466624 -0.545 96 82 81
0.11139 -0.465768 -0.544 156 161 164
0.120494 -0.464911 -0.543 70 95 149
0.4345 -0.473473 -0.553 216 219 226
0.43766 -0.473473 -0.553 213 208 214
0.465888 -0.47433 -0.554 210 209 214
0.485757 -0.475186 -0.555 75 107 154
0.486127 -0.461487 -0.539 145 122 114
0.478315 -0.451212 -0.527 145 120 115
0.468714 -0.436657 -0.51 162 130 115
0.465238 -0.428095 -0.5 164 131 114
0.465274 -0.426383 -0.498 162 126 110
0.464354 -0.421246 -0.492 171 134 116
0.4634 -0.419533 -0.49 171 134 116
0.463368 -0.417821 -0.488 171 134 116
0.461343 -0.412684 -0.482 169 133 117
0.460311 -0.392991 -0.459 29 30 35
0.464649 -0.387854 -0.453 25 26 31
0.47232 -0.383573 -0.448 25 26 31
0.484889 -0.382717 -0.447 24 27 32
0.49219 -0.38443 -0.449 26 29 34
0.495 -0.385286 -0.45 27 30 35
0.61777 -0.463199 -0.541 197 199 188
0.0118333 -0.426473 -0.497 196 153 121
0.0155257 -0.423899 -0.494 197 154 122
0.0486552 -0.425615 -0.496 195 150 119
0.0544333 -0.426473 -0.497 197 152 121
0.0720876 -0.435912 -0.508 171 126 103
0.0730552 -0.435912 -0.508 169 127 102
0.109318 -0.466804 -0.544 146 146 146
0.11222 -0.465946 -0.543 156 160 161
0.117175 -0.465088 -0.542 46 77 131
0.122337 -0.465088 -0.542 82 109 162
0.441873 -0.474527 -0.553 142 166 194
0.442927 -0.474527 -0.553 84 123 178
0.449004 -0.475385 -0.554 79 117 180
0.45639 -0.475385 -0.554 114 155 207
0.461667 -0.475385 -0.554 165 164 170
0.485757 -0.476243 -0.555 71 109 158
0.489103 -0.475385 -0.554 65 103 152
0.479223 -0.453074 -0.528 142 122 113
0.460343 -0.411886 -0.48 170 133 114
0.459227 -0.408453 -0.476 171 133 112
0.460777 -0.391291 -0.456 34 32 35
0.464484 -0.387859 -0.452 22 23 28
0.469953 -0.385285 -0.449 25 26 31
0.470613 -0.384427 -0.448 23 24 29
0.471467 -0.384427 -0.448 21 24 29
0.483186 -0.383569 -0.447 23 26 31
0.488294 -0.383569 -0.447 26 29 34
0.49219 -0.385285 -0.449 27 30 35
0.6099 -0.459081 -0.535 196 198 187
0.00245238 -0.4429 -0.515 189 145 116
0.028699 -0.42484 -0.494 193 148 117
0.030581 -0.42484 -0.494 197 150 120
0.0334038 -0.42484 -0.494 200 154 121
0.0534867 -0.42742 -0.497 199 152 122
0.0584543 -0.42914 -0.499 192 147 116
0.0604762 -0.43 -0.5 191 146 117
0.0850114 -0.44892 -0.522 125 97 83
0.0996248 -0.46612 -0.542 101 83 81
0.103101 -0.46784 -0.544 96 82 79
0.110981 -0.46612 -0.542 162 166 169
0.11924 -0.46612 -0.542 44 76 133
0.12337 -0.46612 -0.542 94 121 176
0.131629 -0.46612 -0.542 104 135 192
0.134726 -0.46612 -0.542 179 201 224
0.135758 -0.46612 -0.542 192 214 237
0.435817 -0.47472 -0.552 210 210 212
0.451353 -0.47558 -0.553 67 102 168
0.45346 -0.47558 -0.553 56 96 157
0.480471 -0.4773 -0.555 93 124 171
0.484442 -0.46096 -0.536 137 119 109
0.479223 -0.45408 -0.528 141 123 113
0.4775 -0.4515 -0.525 147 124 110
0.462418 -0.41882 -0.487 167 132 113
0.461443 -0.4171 -0.485 167 132 113
0.457568 -0.40076 -0.466 102 79 71
0.462367 -0.3913 -0.455 30 29 35
0.477008 -0.38356 -0.446 19 22 27
0.486591 -0.38442 -0.447 26 29 34
0.0258238 -0.424919 -0.493 195 150 119
0.0362267 -0.425781 -0.494 195 148 118
0.0399905 -0.425781 -0.494 198 152 119
0.0495 -0.426643 -0.495 197 152 121
0.0524343 -0.427505 -0.496 198 151 121
0.0573886 -0.429229 -0.498 191 146 115
0.104137 -0.468876 -0.544 106 95 91
0.108083 -0.468014 -0.543 143 141 144
0.110981 -0.467152 -0.542 162 166 175
0.112013 -0.467152 -0.542 162 166 175
0.116959 -0.46629 -0.541 52 92 143
0.11799 -0.46629 -0.541 34 74 125
0.131386 -0.46629 -0.541 133 163 217
0.43083 -0.47491 -0.551 220 223 228
0.460833 -0.476633 -0.553 195 193 196
0.477495 -0.477495 -0.554 73 110 163
0.481716 -0.477495 -0.554 64 99 155
0.485346 -0.462843 -0.537 137 118 111
0.466143 -0.432676 -0.502 160 128 113
0.460181 -0.394752 -0.458 32 30 35
0.462762 -0.389581 -0.452 25 24 30
0.477857 -0.38441 -0.446 21 24 29
0.0117619 -0.426722 -0.494 196 151 118
0.0173371 -0.424994 -0.492 198 153 120
0.02296 -0.424994 -0.492 196 151 118
0.0238971 -0.424994 -0.492 196 150 116
0.0257714 -0.424994 -0.492 194 149 116
0.0604762 -0.431905 -0.5 189 144 115
0.0698762 -0.437088 -0.506 171 126 103
0.0801029 -0.445726 -0.516 139 102 86
0.101877 -0.469049 -0.543 98 83 80
0.10498 -0.469049 -0.543 118 112 112
0.463993 -0.477687 -0.553 211 207 206
0.47242 -0.477687 -0.553 101 133 180
0.48506 -0.477687 -0.553 58 98 160
0.467889 -0.437951 -0.507 158 126 111
0.46435 -0.42845 -0.496 165 132 115
0.463419 -0.426722 -0.494 164 131 114
0.45668 -0.402535 -0.466 58 40 36
0.457049 -0.398216 -0.461 23 21 26
0.456933 -0.397352 -0.46 18 19 24
0.460047 -0.394761 -0.457 28 27 33
0.460633 -0.393033 -0.455 26 25 31
0.475309 -0.385259 -0.446 23 26 31
0.476158 -0.385259 -0.446 21 24 31
0.487202 -0.385259 -0.446 25 25 33
0.502366 -0.390442 -0.452 26 29 36
0.00428571 -0.432857 -0.5 191 150 118
0.0136162 -0.426797 -0.493 197 152 119
0.0238971 -0.425931 -0.492 195 149 115
0.0314581 -0.426797 -0.493 199 154 121
0.0333362 -0.426797 -0.493 197 151 118
0.0361533 -0.426797 -0.493 197 150 120
0.0698762 -0.438051 -0.506 168 126 101
0.106851 -0.469217 -0.542 134 137 146
0.108916 -0.469217 -0.542 145 149 160
0.119829 -0.467486 -0.54 37 78 142
0.122111 -0.468351 -0.541 44 79 143
0.127264 -0.468351 -0.541 66 93 146
0.133447 -0.468351 -0.541 202 221 251
0.437127 -0.477009 -0.551 160 171 175
0.453691 -0.477874 -0.552 65 100 164
0.464206 -0.477874 -0.552 206 209 218
0.466309 -0.477874 -0.552 208 207 215
0.488389 -0.477874 -0.552 50 92 150
0.457514 -0.413811 -0.478 162 126 110
0.455966 -0.405154 -0.468 71 52 48
0.464143 -0.389571 -0.45 24 25 30
0.469563 -0.386974 -0.447 24 25 29
0.474459 -0.386109 -0.446 25 25 33
0.475309 -0.386109 -0.446 24 24 32
0.502113 -0.390437 -0.451 27 31 34
0.00708571 -0.430339 -0.496 195 150 117
0.00893905 -0.428604 -0.494 195 152 120
0.0494 -0.428604 -0.494 197 150 120
0.0513857 -0.429471 -0.495 193 146 118
0.0543238 -0.430339 -0.496 193 146 118
0.05538 -0.431207 -0.497 191 144 116
0.0614286 -0.43381 -0.5 184 139 110
0.0665876 -0.436412 -0.503 172 130 105
0.0838562 -0.45203 -0.521 121 95 82
0.106851 -0.47025 -0.542 133 140 156
0.113657 -0.468514 -0.54 128 149 178
0.136286 -0.468514 -0.54 202 204 227
0.139371 -0.468514 -0.54 215 222 238
0.354769 -0.474588 -0.547 84 130 180
0.463365 -0.478058 -0.551 182 193 213
0.465238 -0.43381 -0.5 159 127 112
0.463414 -0.429471 -0.495 168 132 118
0.457564 -0.39737 -0.458 27 26 32
0.458306 -0.396502 -0.457 27 28 33
0.462429 -0.390429 -0.45 24 25 30
0.464822 -0.389561 -0.449 24 25 30
0.467009 -0.387826 -0.447 26 27 32
0.470414 -0.387826 -0.447 24 25 30
0.472117 -0.387826 -0.447 24 25 30
0.474243 -0.38609 -0.445 23 24 29
0.475938 -0.38609 -0.445 25 25 33
-0.00346 -0.451283 -0.519 186 145 113
0.00425143 -0.431284 -0.496 193 150 116
0.0117143 -0.427806 -0.492 197 153 118
0.0210429 -0.426936 -0.491 193 149 114
0.0285248 -0.426936 -0.491 200 154 120
0.02946 -0.426936 -0.491 200 154 120
0.0332686 -0.427806 -0.492 196 151 118
0.0625057 -0.435631 -0.501 182 136 110
0.06346 -0.435631 -0.501 182 136 110
0.0754333 -0.444327 -0.511 151 113 92
0.108514 -0.469543 -0.54 98 112 141
0.117553 -0.468673 -0.539 35 75 134
0.119607 -0.468673 -0.539 37 75 138
0.12782 -0.468673 -0.539 80 109 153
0.426129 -0.477369 -0.549 170 181 201
0.429266 -0.477369 -0.549 207 217 229
0.454969 -0.479108 -0.551 81 118 170
0.457068 -0.479108 -0.551 75 109 144
0.478926 -0.479977 -0.552 25 70 135
0.479977 -0.479977 -0.552 22 67 132
0.484183 -0.479977 -0.552 36 76 137
0.486286 -0.479977 -0.552 39 79 140
0.479411 -0.45737 -0.526 142 120 107
0.47676 -0.453891 -0.522 147 119 107
0.4577 -0.41998 -0.483 160 124 112
0.455504 -0.40259 -0.463 26 25 31
0.461571 -0.391286 -0.45 26 27 32
0.465493 -0.389547 -0.448 24 25 30
0.4672 -0.389547 -0.448 26 29 34
0.477406 -0.386069 -0.444 22 26 29
0.497067 -0.389547 -0.448 28 29 33
-0.00146 -0.4453 -0.511 185 146 115
0.00142857 -0.435714 -0.5 190 149 117
0.0154 -0.427 -0.49 196 153 119
0.0238 -0.427 -0.49 197 152 119
0.0592857 -0.433971 -0.498 185 140 109
0.06346 -0.436586 -0.501 181 135 109
0.07112 -0.442686 -0.508 162 120 96
0.0767057 -0.447043 -0.513 145 109 87
0.07912 -0.449657 -0.516 135 102 83
0.0984105 -0.471443 -0.541 93 80 74
0.10169 -0.472314 -0.542 76 67 60
0.108514 -0.470571 -0.54 71 85 120
0.442619 -0.479286 -0.55 55 95 165
0.468612 -0.480157 -0.551 109 129 156
0.475959 -0.480157 -0.551 42 82 141
0.458691 -0.423514 -0.486 159 127 116
0.454693 -0.4148 -0.476 135 107 96
0.458306 -0.398243 -0.457 27 26 32
0.460334 -0.394757 -0.453 27 26 32
0.462429 -0.392143 -0.45 25 26 31
0.469563 -0.389529 -0.447 25 26 31
0.475714 -0.386914 -0.444 24 25 30
0.481634 -0.386914 -0.444 26 27 31
0.00047619 -0.436667 -0.5 188 149 118
0.0163333 -0.427933 -0.49 195 152 120
0.0247333 -0.427933 -0.49 197 152 121
0.0446048 -0.430553 -0.493 195 149 116
0.0959933 -0.470727 -0.539 96 78 76
0.102722 -0.473347 -0.542 81 77 78
0.104593 -0.472473 -0.541 111 113 126
0.443906 -0.47946 -0.549 52 91 160
0.456238 -0.480333 -0.55 88 127 182
0.485405 -0.481207 -0.551 70 110 159
0.466113 -0.439287 -0.503 153 126 109
0.458708 -0.425313 -0.487 154 125 111
0.453367 -0.409593 -0.469 32 32 34
0.453291 -0.40872 -0.468 31 31 33
0.475714 -0.38776 -0.444 24 25 30
0.490348 -0.388633 -0.445 26 25 31
0.494848 -0.389507 -0.446 25 26 31
0.00235714 -0.433243 -0.495 190 149 117
0.0098 -0.428867 -0.49 191 147 112
0.0153686 -0.427991 -0.489 193 150 116
0.0256667 -0.428867 -0.49 195 152 117
0.0435771 -0.430617 -0.492 194 148 115
0.0562133 -0.434118 -0.496 187 140 110
0.0614286 -0.437619 -0.5 183 136 106
0.0700143 -0.443746 -0.507 162 118 93
0.0959933 -0.471753 -0.539 95 80 77
0.104593 -0.473504 -0.541 123 127 139
0.106457 -0.472629 -0.54 81 92 114
0.109137 -0.470878 -0.538 66 81 112
0.112211 -0.470878 -0.538 65 97 146
0.11836 -0.470878 -0.538 40 78 143
0.140905 -0.470878 -0.538 200 210 222
0.14193 -0.470878 -0.538 177 184 202
0.44286 -0.480506 -0.549 64 102 164
0.453317 -0.480506 -0.549 115 156 208
0.463774 -0.480506 -0.549 197 209 223
0.477009 -0.482256 -0.551 60 101 155
0.483476 -0.481381 -0.55 80 122 172
0.488553 -0.482256 -0.551 56 94 141
0.489603 -0.482256 -0.551 78 116 163
0.475924 -0.455124 -0.52 142 119 105
0.45363 -0.413988 -0.473 52 40 40
0.454622 -0.405235 -0.463 25 26 31
0.460334 -0.396483 -0.453 26 27 32
0.469362 -0.390356 -0.446 25 26 30
0.489246 -0.388606 -0.444 25 24 30
0.494848 -0.390356 -0.446 23 24 29
0.618317 -0.470003 -0.537 195 197 186
0.00234762 -0.432431 -0.493 191 152 121
0.00420857 -0.430677 -0.491 190 151 120
0.00606667 -0.4298 -0.49 190 149 117
0.0153371 -0.428046 -0.488 191 148 114
0.0256143 -0.428923 -0.489 194 151 116
0.0284667 -0.4298 -0.49 198 154 119
0.035 -0.4298 -0.49 199 153 120
0.0463886 -0.431554 -0.492 195 148 118
0.0562133 -0.435063 -0.496 187 140 110
0.0656295 -0.441203 -0.503 172 128 101
0.07112 -0.445589 -0.508 157 115 91
0.0934171 -0.470149 -0.536 91 80 78
0.101502 -0.474534 -0.541 98 90 88
0.1044 -0.473657 -0.54 134 138 147
0.108112 -0.471903 -0.538 100 113 132
0.114049 -0.471026 -0.537 107 133 170
0.124277 -0.471026 -0.537 53 88 152
0.448089 -0.481551 -0.549 54 93 162
0.45018 -0.481551 -0.549 67 104 172
0.47719 -0.482429 -0.55 71 108 160
0.483476 -0.482429 -0.55 85 123 172
0.488714 -0.482429 -0.55 72 107 147
0.460603 -0.432431 -0.493 154 125 111
0.455834 -0.422783 -0.482 145 117 103
0.453787 -0.41752 -0.476 85 64 61
0.453043 -0.407871 -0.465 24 25 30
0.457435 -0.400854 -0.457 26 27 32
0.459318 -0.396469 -0.452 25 26 31
0.467663 -0.391206 -0.446 25 26 30
0.476097 -0.387697 -0.442 24 25 30
0.478623 -0.387697 -0.442 24 25 30
0.501333 -0.39296 -0.448 30 29 35
0.610397 -0.465763 -0.531 192 194 183
0.00790095 -0.428975 -0.488 191 151 116
0.0200257 -0.429854 -0.489 196 151 120
0.0209571 -0.429854 -0.489 195 150 119
0.0274771 -0.429854 -0.489 195 150 117
0.0522229 -0.43425 -0.494 191 144 114
0.0689124 -0.444798 -0.506 159 117 93
0.102343 -0.474686 -0.54 124 122 125
0.108112 -0.472928 -0.538 136 148 160
0.117117 -0.472049 -0.537 47 86 143
0.343497 -0.478202 -0.544 130 163 204
0.379424 -0.479081 -0.545 50 95 162
0.43187 -0.480839 -0.547 212 222 234
0.462729 -0.482597 -0.549 202 211 226
0.46482 -0.482597 -0.549 202 209 219
0.478238 -0.483476 -0.55 64 100 150
