ply
format ascii 1.0
comment Created by Open3D
element vertex 1292
property double x
property double y
property double z
property uchar red
property uchar green
property uchar blue
end_header
0.50974 -0.30646 -0.539 154 108 84
0.060019 -0.262419 -0.46 194 157 151
0.0687705 -0.252721 -0.443 203 163 155
0.0766857 -0.25101 -0.44 200 160 152
0.0800381 -0.25101 -0.44 194 154 144
0.08274 -0.25158 -0.441 190 150 140
0.0951429 -0.253291 -0.444 153 113 103
0.137948 -0.280104 -0.491 220 216 230
0.247301 -0.363964 -0.638 189 198 227
0.248516 -0.363964 -0.638 173 182 211
0.259453 -0.363964 -0.638 172 191 231
0.263099 -0.363964 -0.638 172 187 230
0.343698 -0.365675 -0.641 128 138 174
0.393757 -0.365675 -0.641 177 184 203
0.407771 -0.365105 -0.64 168 172 197
0.421181 -0.365105 -0.64 166 170 199
0.432152 -0.365105 -0.64 69 84 125
0.439997 -0.364534 -0.639 134 148 185
0.457752 -0.365105 -0.64 164 171 199
0.463848 -0.365105 -0.64 125 136 166
0.478946 -0.364534 -0.639 165 168 187
0.49521 -0.363964 -0.638 137 142 164
0.501713 -0.363393 -0.637 115 132 178
0.48216 -0.33544 -0.588 125 91 90
0.469006 -0.32403 -0.568 148 95 79
0.464392 -0.317185 -0.556 152 99 81
0.46664 -0.303493 -0.532 178 121 94
0.467653 -0.303493 -0.532 178 121 94
0.47599 -0.302352 -0.53 165 108 79
0.493071 -0.302923 -0.531 163 113 90
0.0599686 -0.259289 -0.453 196 159 150
0.0819 -0.25242 -0.441 190 150 138
0.09812 -0.255282 -0.446 145 104 98
0.100043 -0.255854 -0.447 141 100 94
0.125151 -0.269591 -0.471 108 79 73
0.13294 -0.27646 -0.483 168 158 167
0.279673 -0.364607 -0.637 162 172 207
0.315849 -0.365751 -0.639 138 158 195
0.340724 -0.366324 -0.64 125 130 159
0.381548 -0.366896 -0.641 84 101 145
0.38399 -0.366896 -0.641 102 127 181
0.391315 -0.366896 -0.641 155 170 211
0.405917 -0.365751 -0.639 172 173 201
0.418089 -0.365751 -0.639 166 172 198
0.443649 -0.365751 -0.639 71 95 143
0.450951 -0.365751 -0.639 96 121 177
0.460689 -0.365751 -0.639 90 99 130
0.49521 -0.365179 -0.638 155 160 179
0.496425 -0.365179 -0.638 147 152 171
0.465833 -0.319961 -0.559 150 97 79
0.48013 -0.30279 -0.529 170 114 87
0.481138 -0.30279 -0.529 172 116 89
0.0766857 -0.252686 -0.44 197 157 147
0.0808762 -0.252686 -0.44 189 149 139
0.0962048 -0.255557 -0.445 145 107 98
0.0972705 -0.256131 -0.446 144 106 97
0.114969 -0.263597 -0.459 121 86 80
0.118616 -0.265894 -0.463 116 82 80
0.190976 -0.354334 -0.617 167 186 229
0.251767 -0.36582 -0.637 187 203 239
0.259047 -0.36582 -0.637 195 211 245
0.29666 -0.36582 -0.637 178 191 225
0.297873 -0.36582 -0.637 146 159 193
0.315354 -0.366394 -0.638 137 156 189
0.319 -0.366394 -0.638 168 189 232
0.328722 -0.366394 -0.638 186 193 221
0.351146 -0.366969 -0.639 158 166 189
0.352363 -0.366969 -0.639 139 147 170
0.365751 -0.366969 -0.639 113 122 153
0.394963 -0.366969 -0.639 136 140 169
0.407712 -0.366394 -0.638 170 176 198
0.408928 -0.366394 -0.638 170 176 200
0.426609 -0.366969 -0.639 166 171 193
0.442431 -0.366969 -0.639 82 105 155
0.454603 -0.366969 -0.639 129 144 187
0.481842 -0.366394 -0.638 164 165 186
0.492007 -0.36582 -0.637 125 123 134
0.50456 -0.365246 -0.636 39 61 119
0.49118 -0.343997 -0.599 125 91 89
0.485746 -0.339403 -0.591 134 91 84
0.475611 -0.330789 -0.576 148 94 84
0.468681 -0.324471 -0.565 146 95 78
0.469757 -0.324471 -0.565 146 95 78
0.461623 -0.312411 -0.544 161 109 88
0.461314 -0.310114 -0.54 164 109 88
0.464326 -0.306669 -0.534 179 123 96
0.502977 -0.306669 -0.534 158 110 87
0.504938 -0.307243 -0.535 155 110 87
0.0694571 -0.254676 -0.442 202 164 153
0.0792 -0.253524 -0.44 191 151 141
0.0846114 -0.254676 -0.442 182 140 128
0.11748 -0.2662 -0.462 114 83 78
0.122833 -0.270233 -0.469 105 77 74
0.127387 -0.274267 -0.476 93 74 67
0.253794 -0.366457 -0.636 188 204 240
0.255006 -0.366457 -0.636 182 198 234
0.257429 -0.366457 -0.636 207 224 254
0.287714 -0.366457 -0.636 215 220 250
0.32214 -0.367033 -0.637 119 140 185
0.327507 -0.36761 -0.638 154 179 220
0.348166 -0.36761 -0.638 189 201 225
0.397397 -0.368186 -0.639 91 98 127
0.415004 -0.36761 -0.638 164 169 191
0.436878 -0.36761 -0.638 113 127 166
0.445385 -0.36761 -0.638 67 93 154
0.450246 -0.36761 -0.638 58 80 140
0.468474 -0.36761 -0.638 166 173 189
0.47138 -0.367033 -0.637 157 160 177
0.462343 -0.311143 -0.54 167 109 87
0.465343 -0.307686 -0.534 181 123 99
0.466502 -0.30711 -0.533 179 123 96
0.0587143 -0.260143 -0.45 198 160 149
0.0775238 -0.254362 -0.44 194 154 144
0.0900686 -0.256674 -0.444 166 126 116
0.247348 -0.36709 -0.635 199 210 230
0.258233 -0.36709 -0.635 193 202 241
0.259443 -0.36709 -0.635 181 191 227
0.328207 -0.368247 -0.637 189 195 221
0.34398 -0.368247 -0.637 187 195 218
0.34762 -0.368247 -0.637 188 199 221
0.360318 -0.368825 -0.638 181 192 212
0.37062 -0.369403 -0.639 99 108 151
0.388877 -0.369403 -0.639 138 159 206
0.4277 -0.368247 -0.637 165 168 187
0.436193 -0.368247 -0.637 57 73 124
0.43862 -0.368247 -0.637 80 101 154
0.441047 -0.368247 -0.637 49 73 135
0.455107 -0.368825 -0.638 47 70 137
0.457537 -0.368825 -0.638 63 79 138
0.464829 -0.368825 -0.638 134 131 138
0.488367 -0.368247 -0.637 120 116 117
0.492446 -0.367669 -0.636 167 160 168
0.498929 -0.36709 -0.635 41 58 102
0.503767 -0.36709 -0.635 65 91 152
0.461623 -0.314484 -0.544 166 103 88
0.462169 -0.31275 -0.541 167 109 85
0.462513 -0.311593 -0.539 170 116 90
0.464326 -0.308703 -0.534 178 121 94
0.473077 -0.305812 -0.529 180 123 94
0.477108 -0.305812 -0.529 176 119 92
0.483246 -0.305234 -0.528 174 118 93
0.0598914 -0.25868 -0.446 200 161 154
0.0677733 -0.25636 -0.442 203 163 155
0.0955714 -0.25868 -0.446 145 105 95
0.261862 -0.3683 -0.635 211 220 249
0.272748 -0.3683 -0.635 171 175 200
0.319211 -0.36888 -0.636 140 168 216
0.35126 -0.36946 -0.637 187 195 214
0.365179 -0.37004 -0.638 182 188 214
0.366394 -0.37004 -0.638 179 185 217
0.371255 -0.37004 -0.638 99 107 144
0.377331 -0.37004 -0.638 150 158 197
0.382192 -0.37004 -0.638 75 105 165
0.39799 -0.37004 -0.638 166 177 205
0.399206 -0.37004 -0.638 150 156 178
0.433767 -0.36946 -0.637 136 144 183
0.439143 -0.36888 -0.636 50 72 132
0.440354 -0.36888 -0.636 32 56 120
0.454393 -0.36946 -0.637 51 75 139
0.481543 -0.36888 -0.636 129 135 159
0.483966 -0.36888 -0.636 145 146 164
0.488811 -0.36888 -0.636 159 156 163
0.509011 -0.36772 -0.634 46 68 126
0.489649 -0.34394 -0.593 131 87 84
0.47191 -0.3277 -0.565 140 98 84
0.46199 -0.31436 -0.542 169 108 89
0.475092 -0.30682 -0.529 180 123 94
0.4761 -0.30682 -0.529 181 124 95
0.487269 -0.30624 -0.528 175 119 92
0.49719 -0.3074 -0.53 158 111 85
0.518694 -0.31494 -0.543 156 115 93
0.0554762 -0.271168 -0.466 199 158 152
0.0555171 -0.267094 -0.459 199 160 153
0.057 -0.261857 -0.45 199 160 153
0.0577286 -0.261275 -0.449 200 160 152
0.08274 -0.25662 -0.441 183 141 129
0.109874 -0.265349 -0.456 126 89 80
0.110743 -0.265349 -0.456 126 89 80
0.237297 -0.368928 -0.634 238 244 255
0.238505 -0.368928 -0.634 249 250 255
0.260242 -0.368928 -0.634 191 202 234
0.278356 -0.368928 -0.634 234 241 249
0.289225 -0.368928 -0.634 228 232 255
0.295263 -0.368928 -0.634 224 230 252
0.314366 -0.370091 -0.636 130 147 191
0.315577 -0.370091 -0.636 120 137 181
0.34344 -0.370091 -0.636 188 196 207
0.350709 -0.370091 -0.636 184 191 210
0.353131 -0.370091 -0.636 188 195 213
0.36582 -0.370673 -0.637 180 186 210
0.412491 -0.370091 -0.636 121 128 154
0.42824 -0.370091 -0.636 118 117 133
0.4452 -0.370091 -0.636 29 57 120
0.446411 -0.370091 -0.636 33 61 124
0.473529 -0.36951 -0.635 133 137 162
0.478367 -0.36951 -0.635 128 135 163
0.488043 -0.36951 -0.635 172 170 181
0.492881 -0.36951 -0.635 167 164 183
0.46268 -0.313065 -0.538 174 117 88
0.465487 -0.310155 -0.533 180 123 96
0.467786 -0.308991 -0.531 183 126 97
0.478217 -0.307246 -0.528 181 126 96
0.48233 -0.306664 -0.527 175 120 90
0.0568733 -0.26213 -0.449 199 159 149
0.0581924 -0.260379 -0.446 203 160 151
0.070819 -0.256876 -0.44 201 159 145
0.074839 -0.256292 -0.439 193 151 139
0.0945095 -0.259795 -0.445 143 103 95
0.118751 -0.272639 -0.467 110 80 78
0.272318 -0.370135 -0.634 182 185 218
0.283187 -0.370135 -0.634 234 237 254
0.29164 -0.370135 -0.634 227 232 254
0.312662 -0.370719 -0.635 178 191 226
0.31871 -0.370719 -0.635 125 157 214
0.336852 -0.370719 -0.635 194 199 218
0.341017 -0.371303 -0.636 174 177 194
0.347074 -0.371303 -0.636 190 198 219
0.415471 -0.370719 -0.635 130 140 165
0.4191 -0.370719 -0.635 132 135 154
0.428776 -0.370719 -0.635 159 155 169
0.475198 -0.370135 -0.634 115 119 144
0.502973 -0.370135 -0.634 113 131 169
0.47207 -0.308835 -0.529 187 132 102
0.478217 -0.308251 -0.528 181 126 96
0.481327 -0.307668 -0.527 177 122 92
0.0541667 -0.2665 -0.455 199 161 150
0.0741714 -0.257714 -0.44 195 153 139
0.0765114 -0.257129 -0.439 188 148 136
0.0792 -0.257714 -0.44 185 143 131
0.0994133 -0.2624 -0.448 137 96 90
0.126365 -0.280557 -0.479 95 79 82
0.131528 -0.285829 -0.488 195 184 200
0.135573 -0.290514 -0.496 247 242 255
0.236923 -0.370757 -0.633 182 189 215
0.241746 -0.370757 -0.633 245 249 255
0.263449 -0.370757 -0.633 242 247 253
0.339271 -0.371929 -0.635 191 194 211
0.346529 -0.371929 -0.635 185 193 216
0.354995 -0.371929 -0.635 173 178 200
0.364034 -0.372514 -0.636 182 189 208
0.36888 -0.372514 -0.636 173 176 193
0.374937 -0.372514 -0.636 46 70 134
0.387051 -0.372514 -0.636 37 67 139
0.405795 -0.371929 -0.635 148 144 159
0.413052 -0.371929 -0.635 99 109 136
0.416025 -0.371343 -0.634 132 138 160
0.449338 -0.371929 -0.635 88 119 176
0.454891 -0.372514 -0.636 98 116 162
0.471575 -0.371343 -0.634 172 171 189
0.484859 -0.371343 -0.634 153 150 159
0.487274 -0.371343 -0.634 165 167 182
0.499769 -0.370757 -0.633 146 157 185
0.503386 -0.370757 -0.633 121 139 185
0.508209 -0.370757 -0.633 45 75 135
0.474062 -0.330929 -0.565 141 101 89
0.464326 -0.312771 -0.534 178 120 96
0.467914 -0.310429 -0.53 189 132 105
0.479319 -0.308671 -0.527 181 127 99
0.482417 -0.308086 -0.526 178 124 96
0.486425 -0.308086 -0.526 175 125 98
0.488353 -0.308671 -0.527 174 124 97
0.508063 -0.312771 -0.534 155 117 94
0.535443 -0.325071 -0.555 154 109 86
0.0587771 -0.260903 -0.444 203 158 152
0.0756752 -0.257965 -0.439 190 148 134
0.0873343 -0.260315 -0.443 162 118 105
0.0881781 -0.260315 -0.443 161 117 104
0.0890219 -0.260315 -0.443 159 116 109
0.238956 -0.371375 -0.632 202 208 232
0.246179 -0.371375 -0.632 203 213 238
0.257013 -0.371375 -0.632 177 186 225
0.270683 -0.371963 -0.633 218 224 246
0.314585 -0.37255 -0.634 80 101 156
0.323038 -0.37255 -0.634 126 155 215
0.356851 -0.37255 -0.634 154 160 184
0.362252 -0.373138 -0.635 179 186 205
0.366457 -0.373726 -0.636 176 183 199
0.36888 -0.373726 -0.636 163 164 182
0.387652 -0.373138 -0.635 36 65 133
0.4438 -0.37255 -0.634 59 84 150
0.445008 -0.37255 -0.634 51 76 142
0.44863 -0.37255 -0.634 106 133 188
0.459014 -0.373138 -0.635 56 68 106
0.488482 -0.37255 -0.634 169 167 188
0.493312 -0.37255 -0.634 98 99 130
0.498143 -0.37255 -0.634 148 156 192
0.498563 -0.371963 -0.633 153 159 183
0.504591 -0.371963 -0.633 89 106 150
0.509813 -0.371375 -0.632 69 92 144
0.46521 -0.321428 -0.547 161 108 90
0.464548 -0.320252 -0.545 164 111 93
0.466774 -0.312026 -0.531 185 128 101
0.490432 -0.309088 -0.526 170 120 95
0.491434 -0.309088 -0.526 169 119 94
0.500283 -0.31085 -0.529 157 112 89
0.507111 -0.313201 -0.533 157 115 93
0.532549 -0.324366 -0.552 151 109 85
0.06594 -0.25998 -0.441 198 156 144
0.0716571 -0.25939 -0.44 195 153 141
0.0775238 -0.25939 -0.44 186 144 130
0.0936619 -0.262338 -0.445 149 106 100
0.102656 -0.265875 -0.451 134 95 88
0.104837 -0.267054 -0.453 129 95 93
0.132875 -0.290635 -0.493 156 147 174
0.246991 -0.37199 -0.631 202 212 247
0.266644 -0.372579 -0.632 191 196 226
0.2743 -0.373169 -0.633 232 239 255
0.303962 -0.372579 -0.632 183 190 219
0.305166 -0.372579 -0.632 144 158 195
0.3165 -0.373169 -0.633 83 112 180
0.330969 -0.373169 -0.633 178 191 223
0.332174 -0.373169 -0.633 184 197 229
0.352671 -0.373169 -0.633 150 157 185
0.364097 -0.373758 -0.634 177 185 198
0.405723 -0.373169 -0.633 159 160 178
0.416574 -0.373169 -0.633 167 170 189
0.420191 -0.373169 -0.633 163 162 178
0.431043 -0.373169 -0.633 58 64 112
0.43466 -0.373169 -0.633 147 160 205
0.435866 -0.373169 -0.633 135 155 190
0.4853 -0.373169 -0.633 140 143 152
0.498979 -0.372579 -0.632 158 160 181
0.470532 -0.328365 -0.557 146 104 92
0.464731 -0.320701 -0.544 162 111 92
0.46354 -0.317753 -0.539 172 117 97
0.468039 -0.311858 -0.529 194 137 108
0.469166 -0.311269 -0.528 193 136 107
0.477408 -0.31009 -0.526 185 129 102
0.479411 -0.31009 -0.526 184 130 104
0.485423 -0.31009 -0.526 174 123 96
0.493438 -0.31009 -0.526 168 120 97
0.50908 -0.314806 -0.534 157 112 91
0.511052 -0.315395 -0.535 152 111 89
0.0610381 -0.261411 -0.442 203 160 151
0.0716571 -0.260229 -0.44 193 151 139
0.074839 -0.259637 -0.439 191 148 132
0.0977067 -0.26496 -0.448 147 103 100
0.106167 -0.2691 -0.455 133 90 84
0.120023 -0.279154 -0.472 101 77 75
0.262616 -0.373191 -0.631 215 226 246
0.268626 -0.373191 -0.631 229 234 253
0.276274 -0.373783 -0.632 222 229 245
0.28109 -0.373783 -0.632 232 238 252
0.34182 -0.374374 -0.633 180 182 205
0.343026 -0.374374 -0.633 129 125 139
0.366512 -0.374966 -0.634 169 167 189
0.385834 -0.374966 -0.634 68 99 156
0.396703 -0.374966 -0.634 167 172 202
0.411101 -0.373783 -0.632 145 146 166
0.41712 -0.373783 -0.632 173 174 192
0.422603 -0.374374 -0.633 112 111 125
0.42622 -0.374374 -0.633 170 173 192
0.441196 -0.373783 -0.632 67 96 154
0.456363 -0.374374 -0.633 137 147 183
0.48333 -0.373783 -0.632 156 158 171
0.496571 -0.373783 -0.632 161 167 191
0.497775 -0.373783 -0.632 167 166 184
0.501387 -0.373783 -0.632 124 128 155
0.0594886 -0.262847 -0.443 203 160 151
0.06594 -0.26166 -0.441 198 156 144
0.0765114 -0.260473 -0.439 189 146 130
0.0783619 -0.261067 -0.44 183 140 124
0.08022 -0.26166 -0.441 178 134 123
0.0819 -0.26166 -0.441 174 130 119
0.0856467 -0.262847 -0.443 167 123 114
0.105069 -0.269373 -0.454 133 92 86
0.113325 -0.274713 -0.463 105 84 81
0.2298 -0.3738 -0.63 247 250 255
0.2346 -0.3738 -0.63 238 245 253
0.274635 -0.374393 -0.631 234 240 255
0.275837 -0.374393 -0.631 234 240 255
0.330446 -0.374987 -0.632 183 192 223
0.335261 -0.374987 -0.632 196 201 223
0.346095 -0.374987 -0.632 151 159 180
0.359906 -0.37558 -0.633 184 191 210
0.364729 -0.37558 -0.633 153 161 184
0.371343 -0.376173 -0.634 85 103 153
0.382211 -0.376173 -0.634 67 97 161
0.394871 -0.37558 -0.633 116 132 181
0.40749 -0.374987 -0.632 175 178 195
0.41712 -0.374987 -0.632 170 176 192
0.453951 -0.37558 -0.633 170 168 192
0.466476 -0.374987 -0.632 169 167 189
0.471748 -0.374393 -0.631 173 171 193
0.476555 -0.374393 -0.631 156 162 186
0.488145 -0.374987 -0.632 105 110 130
0.504199 -0.374393 -0.631 94 118 156
0.507805 -0.374393 -0.631 100 121 164
0.509007 -0.374393 -0.631 106 119 164
0.5118 -0.3738 -0.63 83 103 140
0.466252 -0.324553 -0.547 152 105 97
0.464326 -0.31684 -0.534 175 121 97
0.464471 -0.316247 -0.533 175 121 97
0.46816 -0.31328 -0.528 196 136 108
0.474402 -0.312093 -0.526 189 132 105
0.519943 -0.3204 -0.54 155 109 86
0.0529762 -0.264881 -0.445 194 154 142
0.0538238 -0.264881 -0.445 198 156 144
0.06258 -0.2625 -0.441 200 157 148
0.06342 -0.2625 -0.441 200 156 147
0.0691429 -0.261905 -0.44 195 153 141
0.074839 -0.26131 -0.439 189 147 133
0.102023 -0.269048 -0.452 133 96 90
0.104204 -0.270238 -0.454 130 93 87
0.111079 -0.274405 -0.461 110 86 86
0.122459 -0.284524 -0.478 98 78 80
0.2622 -0.375 -0.63 147 156 197
0.2694 -0.375 -0.63 232 240 251
0.2754 -0.375 -0.63 234 239 255
0.305885 -0.375595 -0.631 116 124 163
0.311894 -0.375595 -0.631 103 134 199
0.314298 -0.375595 -0.631 68 98 170
0.342484 -0.37619 -0.632 189 195 209
0.344891 -0.37619 -0.632 157 162 181
0.355726 -0.37619 -0.632 187 192 212
0.373169 -0.376786 -0.633 160 180 230
0.377991 -0.376786 -0.633 98 127 187
0.41045 -0.375595 -0.631 166 168 189
0.427277 -0.375595 -0.631 59 65 101
0.4338 -0.375 -0.63 164 166 191
0.442902 -0.375595 -0.631 103 131 181
0.481363 -0.375595 -0.631 172 174 195
0.484969 -0.375595 -0.631 161 160 176
0.49819 -0.375595 -0.631 168 166 188
0.501795 -0.375595 -0.631 82 96 135
0.504199 -0.375595 -0.631 89 114 155
0.5106 -0.375 -0.63 82 105 146
0.513 -0.375 -0.63 93 107 146
0.46526 -0.322024 -0.541 173 115 91
0.464567 -0.320833 -0.539 173 118 98
0.465763 -0.316071 -0.531 182 126 101
0.4875 -0.3125 -0.525 172 122 99
0.499395 -0.31369 -0.527 159 113 90
0.504313 -0.314881 -0.529 157 111 88
0.510157 -0.317262 -0.533 152 111 89
0.512131 -0.317857 -0.534 156 111 90
0.0593543 -0.263937 -0.442 206 162 153
0.0846114 -0.263937 -0.442 165 121 112
0.0883771 -0.265131 -0.444 155 108 100
0.0998571 -0.268714 -0.45 134 96 93
0.119629 -0.283046 -0.474 98 73 76
0.24501 -0.375603 -0.629 171 183 223
0.279 -0.3762 -0.63 195 195 219
0.2898 -0.3762 -0.63 192 194 219
0.3066 -0.3762 -0.63 94 108 155
0.320308 -0.376797 -0.631 124 157 224
0.361745 -0.377394 -0.632 183 188 208
0.365356 -0.377394 -0.632 143 149 175
0.405643 -0.376797 -0.631 177 179 194
0.417 -0.3762 -0.63 169 175 191
0.430883 -0.376797 -0.631 156 160 185
0.4662 -0.3762 -0.63 163 161 183
0.4674 -0.3762 -0.63 167 165 187
0.4722 -0.3762 -0.63 145 145 169
0.477 -0.3762 -0.63 140 151 183
0.5034 -0.3762 -0.63 81 105 151
0.513 -0.3762 -0.63 76 91 132
0.46664 -0.31768 -0.532 183 125 103
0.469166 -0.315291 -0.528 197 137 111
0.471396 -0.314097 -0.526 190 134 109
0.4734 -0.314097 -0.526 188 132 107
0.520007 -0.32186 -0.539 157 112 93
0.523933 -0.323651 -0.542 155 113 89
0.06006 -0.26418 -0.441 206 162 151
0.0783619 -0.263581 -0.44 175 131 120
0.112929 -0.278557 -0.465 108 82 83
0.114059 -0.279156 -0.466 106 81 84
0.237444 -0.376202 -0.628 233 237 248
0.24821 -0.376202 -0.628 137 151 198
0.26418 -0.376801 -0.629 218 224 250
0.264956 -0.376202 -0.628 224 230 255
0.282151 -0.376801 -0.629 172 174 197
0.290538 -0.376801 -0.629 219 221 244
0.292934 -0.376801 -0.629 219 223 248
0.309708 -0.376801 -0.629 141 163 210
0.316896 -0.376801 -0.629 77 112 178
0.3294 -0.3774 -0.63 68 85 128
0.3366 -0.3774 -0.63 197 203 219
0.3414 -0.3774 -0.63 185 193 206
0.3522 -0.3774 -0.63 186 192 208
0.386412 -0.377999 -0.631 165 172 198
0.3966 -0.3774 -0.63 117 126 155
0.411546 -0.376801 -0.629 162 170 193
0.4302 -0.3774 -0.63 171 173 194
0.4314 -0.3774 -0.63 171 167 190
0.4602 -0.3774 -0.63 124 128 155
0.472649 -0.376801 -0.629 84 97 132
0.478639 -0.376801 -0.629 157 157 181
0.503799 -0.376801 -0.629 92 114 163
0.515334 -0.375603 -0.627 153 147 157
0.466804 -0.325882 -0.544 163 110 96
0.469166 -0.316297 -0.528 193 136 109
0.4755 -0.3145 -0.525 190 134 109
0.4785 -0.3145 -0.525 189 133 108
0.483577 -0.313901 -0.524 181 125 100
0.491562 -0.313901 -0.524 166 116 93
0.531821 -0.328278 -0.548 152 110 85
0.0505467 -0.268025 -0.446 197 155 143
0.0607619 -0.264419 -0.44 204 160 147
0.0740029 -0.263818 -0.439 185 143 129
0.0792 -0.264419 -0.44 172 128 119
0.0800381 -0.264419 -0.44 172 128 119
0.08274 -0.26502 -0.441 166 122 113
0.269741 -0.377398 -0.628 231 239 252
0.356433 -0.377999 -0.629 186 193 211
0.3906 -0.3786 -0.63 171 173 196
0.3954 -0.3786 -0.63 52 68 94
0.401961 -0.377999 -0.629 171 169 180
0.404357 -0.377999 -0.629 177 176 192
0.407951 -0.377999 -0.629 142 153 183
0.40915 -0.377999 -0.629 74 85 115
0.4434 -0.3786 -0.63 113 134 187
0.454677 -0.377999 -0.629 172 173 194
0.477441 -0.377999 -0.629 152 158 184
0.46636 -0.320909 -0.534 177 122 102
0.477589 -0.314899 -0.524 187 131 106
0.479585 -0.314899 -0.524 186 130 105
0.48757 -0.314899 -0.524 170 118 94
0.490564 -0.314899 -0.524 169 119 96
0.491562 -0.314899 -0.524 169 119 96
0.0471295 -0.273697 -0.454 197 151 138
0.0490667 -0.27008 -0.448 195 151 138
0.0496971 -0.268874 -0.446 195 151 138
0.0664771 -0.264654 -0.439 197 153 140
0.0706581 -0.264654 -0.439 188 146 132
0.074839 -0.264654 -0.439 184 140 129
0.0783619 -0.265257 -0.44 171 127 118
0.122566 -0.290577 -0.482 106 81 84
0.25498 -0.377991 -0.627 182 198 249
0.258563 -0.377991 -0.627 162 176 221
0.272133 -0.378594 -0.628 229 235 249
0.280507 -0.378594 -0.628 223 227 239
0.281703 -0.378594 -0.628 191 195 207
0.28888 -0.378594 -0.628 224 226 249
0.290076 -0.378594 -0.628 224 226 249
0.300842 -0.378594 -0.628 130 134 163
0.311608 -0.378594 -0.628 121 143 190
0.318785 -0.378594 -0.628 163 193 243
0.322373 -0.378594 -0.628 160 185 226
0.33966 -0.379197 -0.629 190 196 212
0.342709 -0.378594 -0.628 139 146 156
0.343905 -0.378594 -0.628 174 181 191
0.347493 -0.378594 -0.628 174 176 197
0.3654 -0.3798 -0.63 101 110 143
0.369 -0.3798 -0.63 186 183 200
0.377999 -0.379197 -0.629 122 144 185
0.386386 -0.379197 -0.629 169 175 199
0.38998 -0.379197 -0.629 179 180 201
0.39597 -0.379197 -0.629 92 97 117
0.410891 -0.378594 -0.628 126 141 184
0.437904 -0.379197 -0.629 82 104 151
0.458271 -0.379197 -0.629 161 163 186
0.495821 -0.378594 -0.628 168 164 179
0.50539 -0.378594 -0.628 96 119 163
0.466774 -0.320117 -0.531 178 123 102
0.466905 -0.319514 -0.53 177 122 101
0.482654 -0.315294 -0.523 181 127 101
0.49755 -0.315897 -0.524 160 114 91
0.523029 -0.325543 -0.54 152 111 89
0.0510505 -0.26791 -0.443 197 150 140
0.0551448 -0.267305 -0.442 205 159 146
0.0731667 -0.26549 -0.439 183 139 128
0.0940829 -0.270329 -0.447 140 100 98
0.23826 -0.379186 -0.627 181 188 217
0.249804 -0.378581 -0.626 146 162 211
0.262146 -0.379186 -0.627 147 162 193
0.269311 -0.379186 -0.627 228 235 254
0.324766 -0.37979 -0.628 195 199 226
0.330747 -0.37979 -0.628 85 103 143
0.337924 -0.37979 -0.628 191 193 206
0.345101 -0.37979 -0.628 176 182 204
0.380395 -0.380395 -0.629 114 134 184
0.39597 -0.380395 -0.629 142 144 165
0.402518 -0.37979 -0.628 159 163 190
0.418069 -0.37979 -0.628 123 135 173
0.419265 -0.37979 -0.628 108 120 158
0.452758 -0.37979 -0.628 177 175 196
0.475486 -0.37979 -0.628 84 107 157
0.48027 -0.37979 -0.628 94 107 151
0.481467 -0.37979 -0.628 65 81 133
0.484283 -0.379186 -0.627 128 142 181
0.471761 -0.333224 -0.551 148 110 101
0.467086 -0.324152 -0.536 165 116 101
0.46816 -0.319314 -0.528 180 128 106
0.4745 -0.3175 -0.525 185 129 104
0.476677 -0.31629 -0.523 184 133 106
0.477673 -0.31629 -0.523 184 133 106
0.486639 -0.31629 -0.523 176 124 100
0.517167 -0.323548 -0.535 153 111 87
0.0461629 -0.27482 -0.453 196 154 140
0.0607619 -0.266933 -0.44 198 155 139
0.074839 -0.266327 -0.439 178 131 121
0.0758476 -0.266933 -0.44 176 129 119
0.0904743 -0.270573 -0.446 148 105 99
0.0975019 -0.273607 -0.451 128 94 92
0.115283 -0.28574 -0.471 103 78 81
0.125277 -0.29666 -0.489 102 91 99
0.23311 -0.379773 -0.626 248 250 255
0.266497 -0.379773 -0.626 213 219 251
0.272459 -0.379773 -0.626 237 240 255
0.294391 -0.38038 -0.627 220 221 249
0.341512 -0.380987 -0.628 147 145 156
0.345746 -0.38038 -0.627 109 116 144
0.348134 -0.38038 -0.627 168 176 212
0.372009 -0.381593 -0.629 172 179 205
0.415676 -0.380987 -0.628 132 141 172
0.432929 -0.38038 -0.627 161 168 184
0.437208 -0.380987 -0.628 78 100 150
0.463524 -0.380987 -0.628 64 74 109
0.466369 -0.38038 -0.627 102 117 160
0.47234 -0.38038 -0.627 47 63 115
0.466779 -0.326387 -0.538 163 115 101
0.467653 -0.322747 -0.532 169 116 98
0.4734 -0.319107 -0.526 184 130 104
0.47867 -0.317287 -0.523 187 133 107
0.0458571 -0.273857 -0.45 196 154 142
0.0478905 -0.270814 -0.445 196 149 139
0.07938 -0.26838 -0.441 171 124 116
0.105122 -0.278726 -0.458 115 87 86
0.118817 -0.290897 -0.478 88 68 69
0.256548 -0.380357 -0.625 205 216 248
0.303461 -0.380966 -0.626 182 180 202
0.304653 -0.380966 -0.626 214 212 233
0.32186 -0.381574 -0.627 160 183 225
0.365436 -0.382183 -0.628 177 183 199
0.375603 -0.382791 -0.629 85 107 154
0.399489 -0.381574 -0.627 50 74 120
0.410237 -0.381574 -0.627 73 98 162
0.415014 -0.381574 -0.627 97 116 149
0.416209 -0.381574 -0.627 76 90 139
0.420986 -0.381574 -0.627 115 127 177
0.441289 -0.381574 -0.627 94 117 167
0.46398 -0.381574 -0.627 69 83 122
0.485895 -0.380966 -0.626 160 167 196
0.493837 -0.381574 -0.627 148 147 161
0.502197 -0.381574 -0.627 94 113 156
0.50578 -0.381574 -0.627 116 136 186
0.515705 -0.380966 -0.626 157 157 169
0.47128 -0.333497 -0.548 153 111 99
0.466934 -0.326803 -0.537 163 114 100
0.474594 -0.318891 -0.524 182 131 104
0.0469371 -0.271051 -0.444 197 150 142
0.05082 -0.26922 -0.441 195 149 134
0.05502 -0.26922 -0.441 201 155 140
0.0599238 -0.26861 -0.44 199 153 138
0.0607619 -0.26861 -0.44 198 152 137
0.0648048 -0.267999 -0.439 196 150 135
0.0915286 -0.272883 -0.447 142 103 98
0.106457 -0.280819 -0.46 112 84 83
0.23869 -0.381548 -0.625 233 238 255
0.245833 -0.381548 -0.625 199 214 247
0.251786 -0.381548 -0.625 162 179 222
0.268023 -0.380937 -0.624 219 226 255
0.275154 -0.380937 -0.624 231 236 255
0.332078 -0.382158 -0.626 175 185 210
0.33327 -0.382158 -0.626 143 153 178
0.334463 -0.382158 -0.626 155 160 190
0.3553 -0.382769 -0.627 138 149 181
0.358883 -0.382769 -0.627 90 99 140
0.407198 -0.382158 -0.626 53 70 114
0.423374 -0.382769 -0.627 173 178 198
0.444162 -0.382158 -0.626 74 101 154
0.448454 -0.382769 -0.627 157 161 186
0.452509 -0.382158 -0.626 150 148 159
0.483929 -0.381548 -0.625 114 121 147
0.48828 -0.382158 -0.626 146 151 173
0.510935 -0.382158 -0.626 97 106 145
0.514512 -0.382158 -0.626 162 164 177
0.469912 -0.332099 -0.544 154 110 97
0.467517 -0.325384 -0.533 163 114 97
0.487697 -0.318669 -0.522 173 121 99
0.494657 -0.318669 -0.522 167 119 96
0.526114 -0.329657 -0.54 155 113 91
0.09344 -0.274347 -0.448 137 99 96
0.13182 -0.310477 -0.507 226 221 228
0.254949 -0.382126 -0.624 208 219 249
0.266834 -0.382126 -0.624 175 182 211
0.275154 -0.382126 -0.624 234 237 254
0.283474 -0.382126 -0.624 213 217 244
0.285851 -0.382126 -0.624 227 229 254
0.28704 -0.382126 -0.624 224 227 244
0.302491 -0.382126 -0.624 198 198 210
0.306057 -0.382126 -0.624 170 179 208
0.355926 -0.38335 -0.626 74 92 138
0.357118 -0.38335 -0.626 54 68 117
0.385735 -0.38335 -0.626 175 181 213
0.397659 -0.38335 -0.626 79 91 129
0.402429 -0.38335 -0.626 97 115 161
0.410775 -0.38335 -0.626 135 148 183
0.41793 -0.38335 -0.626 80 92 130
0.444162 -0.38335 -0.626 89 115 166
0.450124 -0.38335 -0.626 161 159 172
0.456086 -0.38335 -0.626 172 177 197
0.468452 -0.382738 -0.625 163 165 186
0.485119 -0.382738 -0.625 88 94 118
0.51369 -0.382738 -0.625 155 161 177
0.471462 -0.334972 -0.547 153 110 94
0.471396 -0.322112 -0.526 181 129 105
0.0565714 -0.270286 -0.44 201 155 139
0.0664771 -0.269671 -0.439 192 146 131
0.0819 -0.2709 -0.441 161 117 108
0.0925867 -0.2752 -0.448 138 99 94
0.25454 -0.3827 -0.623 201 210 241
0.260473 -0.3827 -0.623 241 240 255
0.281097 -0.383314 -0.624 153 154 182
0.284207 -0.3827 -0.623 215 217 240
0.28704 -0.383314 -0.624 221 224 241
0.308434 -0.383314 -0.624 127 146 188
0.329167 -0.383929 -0.625 188 200 216
0.33631 -0.383929 -0.625 87 97 148
0.36366 -0.385157 -0.627 179 183 208
0.377991 -0.385157 -0.627 118 144 193
0.38038 -0.385157 -0.627 89 115 166
0.382158 -0.384543 -0.626 105 131 182
0.390505 -0.384543 -0.626 159 165 181
0.419122 -0.384543 -0.626 117 133 166
0.447024 -0.383929 -0.625 145 152 181
0.449405 -0.383929 -0.625 177 176 192
0.50855 -0.384543 -0.626 77 97 147
0.51131 -0.383929 -0.625 108 115 143
0.468107 -0.329257 -0.536 163 116 96
0.468797 -0.326186 -0.531 170 119 98
0.469166 -0.324343 -0.528 175 120 99
0.472398 -0.323114 -0.526 181 129 105
0.4745 -0.3225 -0.525 185 133 109
0.481731 -0.320657 -0.522 179 125 101
0.487755 -0.320043 -0.521 174 124 101
0.49764 -0.320657 -0.522 163 116 90
0.0681495 -0.270508 -0.439 189 143 130
0.0723305 -0.270508 -0.439 179 132 122
0.0792 -0.271124 -0.44 167 123 112
0.0885762 -0.274205 -0.445 151 108 99
0.0947143 -0.277286 -0.45 135 97 94
0.120806 -0.299469 -0.486 97 78 80
0.235553 -0.383887 -0.623 232 239 255
0.260473 -0.383887 -0.623 240 239 253
0.291327 -0.383887 -0.623 166 172 206
0.294887 -0.383887 -0.623 218 219 247
0.30082 -0.383887 -0.623 214 217 236
0.32032 -0.384503 -0.624 123 151 199
0.33869 -0.385119 -0.625 120 135 176
0.371427 -0.385735 -0.626 105 120 151
0.39289 -0.385735 -0.626 183 186 195
0.400044 -0.385735 -0.626 88 102 151
0.454167 -0.385119 -0.625 169 170 188
0.467262 -0.385119 -0.625 169 169 193
0.476023 -0.384503 -0.624 168 168 192
0.485531 -0.384503 -0.624 107 107 133
0.492717 -0.321035 -0.521 169 122 94
0.495694 -0.321035 -0.521 165 118 92
0.49764 -0.321651 -0.522 164 117 91
0.509433 -0.324732 -0.527 160 116 91
0.0428048 -0.275052 -0.445 190 150 138
0.0548952 -0.271962 -0.44 198 152 136
0.0564429 -0.271344 -0.439 199 154 135
0.057279 -0.271344 -0.439 200 155 136
0.0698219 -0.271344 -0.439 182 136 123
0.0714943 -0.271344 -0.439 180 134 121
0.0887752 -0.27567 -0.446 149 106 99
0.111457 -0.290505 -0.47 99 77 80
0.229251 -0.384455 -0.622 184 187 204
0.254131 -0.384455 -0.622 181 188 216
0.287305 -0.384455 -0.622 195 198 229
0.29014 -0.385073 -0.623 141 151 186
0.30438 -0.385073 -0.623 201 203 226
0.324553 -0.385073 -0.623 194 200 224
0.369042 -0.386928 -0.626 176 182 204
0.380966 -0.386928 -0.626 86 112 163
0.400595 -0.38631 -0.625 147 157 192
0.41369 -0.38631 -0.625 170 176 200
0.485531 -0.385691 -0.624 144 144 168
0.507738 -0.38631 -0.625 51 81 133
0.47268 -0.33748 -0.546 152 110 96
0.471117 -0.335626 -0.543 153 111 97
0.469853 -0.332535 -0.538 162 116 101
0.47082 -0.328209 -0.531 171 120 101
0.471177 -0.326354 -0.528 177 125 103
0.472398 -0.325118 -0.526 183 131 109
0.4725 -0.3245 -0.525 184 132 110
0.515362 -0.32759 -0.53 157 113 88
0.0498667 -0.2728 -0.44 198 153 134
0.0622962 -0.27218 -0.439 192 150 126
0.0648048 -0.27218 -0.439 191 143 129
0.0664771 -0.27218 -0.439 188 142 126
0.0783619 -0.2728 -0.44 167 121 108
0.237545 -0.38564 -0.622 241 245 255
0.245443 -0.38502 -0.621 194 205 235
0.246626 -0.38502 -0.621 198 212 247
0.257271 -0.38502 -0.621 237 240 255
0.258454 -0.38502 -0.621 240 240 252
0.305076 -0.38564 -0.622 155 168 202
0.31337 -0.38564 -0.622 138 166 214
0.328113 -0.38626 -0.623 201 204 223
0.333394 -0.38688 -0.624 139 151 191
0.344091 -0.38688 -0.624 61 79 125
0.350034 -0.38688 -0.624 169 185 218
0.380357 -0.3875 -0.625 87 114 161
0.381548 -0.3875 -0.625 90 117 164
0.397577 -0.38688 -0.624 167 171 198
0.404709 -0.38688 -0.624 156 164 187
0.410651 -0.38688 -0.624 170 176 208
0.426607 -0.38626 -0.623 169 171 194
0.430167 -0.38626 -0.623 129 125 148
0.464137 -0.38688 -0.624 173 174 192
0.490597 -0.35526 -0.573 144 107 98
0.477495 -0.34348 -0.554 150 108 96
0.470727 -0.33418 -0.539 161 115 100
0.470429 -0.33108 -0.534 166 119 103
0.485829 -0.3224 -0.52 180 126 102
0.497679 -0.32302 -0.521 166 118 95
0.0426124 -0.275504 -0.443 194 152 136
0.0505895 -0.273016 -0.439 200 155 136
0.0547705 -0.273016 -0.439 197 152 131
0.057279 -0.273016 -0.439 197 152 131
0.0673133 -0.273016 -0.439 187 142 123
0.0820857 -0.274882 -0.442 157 112 106
0.107846 -0.289808 -0.466 101 81 83
0.112169 -0.294161 -0.473 95 76 72
0.232431 -0.386203 -0.621 238 241 255
0.248991 -0.386203 -0.621 185 203 241
0.257271 -0.386203 -0.621 234 239 255
0.273831 -0.386203 -0.621 189 199 226
0.280929 -0.386203 -0.621 111 132 179
0.297489 -0.386203 -0.621 211 224 243
0.304586 -0.386203 -0.621 146 160 195
0.330487 -0.387447 -0.623 153 158 178
0.373214 -0.38869 -0.625 92 112 145
0.377371 -0.388069 -0.624 123 147 193
0.388633 -0.387447 -0.623 180 183 200
0.42186 -0.387447 -0.623 65 71 107
0.423047 -0.387447 -0.623 75 81 117
0.427793 -0.387447 -0.623 166 168 191
0.440139 -0.386825 -0.622 87 113 164
0.45034 -0.387447 -0.623 173 175 198
0.46814 -0.387447 -0.623 170 172 193
0.488714 -0.386825 -0.622 113 115 130
0.504927 -0.387447 -0.623 35 67 126
0.475277 -0.341426 -0.549 153 109 96
0.496724 -0.32339 -0.52 165 115 90
0.497714 -0.32339 -0.52 165 115 90
0.08106 -0.2751 -0.441 160 116 107
0.0879257 -0.278219 -0.446 144 103 97
0.093 -0.280714 -0.45 137 98 91
0.249771 -0.386762 -0.62 180 195 226
0.254495 -0.386762 -0.62 203 212 245
0.278114 -0.386762 -0.62 144 156 194
0.288743 -0.386762 -0.62 101 123 164
0.325217 -0.38801 -0.622 198 203 222
0.345913 -0.388633 -0.623 120 145 202
0.383887 -0.388633 -0.623 169 178 209
0.38626 -0.388633 -0.623 172 174 197
0.405247 -0.388633 -0.623 161 167 183
0.408807 -0.388633 -0.623 183 180 201
0.42542 -0.388633 -0.623 118 123 161
0.42898 -0.388633 -0.623 119 113 139
0.4361 -0.388633 -0.623 82 110 150
0.477283 -0.387386 -0.621 168 165 182
0.489111 -0.387386 -0.621 98 107 136
0.500562 -0.38801 -0.622 38 64 121
0.471026 -0.334986 -0.537 163 117 102
0.473296 -0.328748 -0.527 174 123 102
0.481929 -0.323757 -0.519 178 126 102
0.0377829 -0.285326 -0.456 193 151 135
0.0381429 -0.281571 -0.45 193 151 135
0.0464086 -0.274689 -0.439 199 156 139
0.0489171 -0.274689 -0.439 198 156 134
0.0497533 -0.274689 -0.439 199 157 135
0.0638229 -0.274063 -0.438 191 146 125
0.0679943 -0.274063 -0.438 183 137 121
0.0721657 -0.274063 -0.438 176 130 117
0.073 -0.274063 -0.438 174 128 115
0.0765114 -0.274689 -0.439 168 122 109
0.258038 -0.387943 -0.62 233 239 255
0.2604 -0.387943 -0.62 233 236 255
0.265875 -0.387317 -0.619 224 227 244
0.278845 -0.387317 -0.619 126 138 178
0.289924 -0.387943 -0.62 128 141 176
0.315231 -0.388569 -0.621 117 144 189
0.323511 -0.388569 -0.621 194 205 227
0.337706 -0.388569 -0.621 185 190 210
0.342437 -0.388569 -0.621 97 111 138
0.353651 -0.389194 -0.622 178 183 203
0.381513 -0.38982 -0.623 147 163 189
0.409335 -0.389194 -0.622 179 181 204
0.415259 -0.389194 -0.622 182 184 209
0.417629 -0.389194 -0.622 179 184 203
0.43303 -0.389194 -0.622 143 158 191
0.43777 -0.389194 -0.622 65 97 156
0.440139 -0.389194 -0.622 72 102 152
0.446529 -0.388569 -0.621 159 165 199
0.454809 -0.388569 -0.621 130 140 152
0.46028 -0.389194 -0.622 174 176 191
0.469758 -0.389194 -0.622 136 140 167
0.489111 -0.388569 -0.621 144 151 179
0.498192 -0.389194 -0.622 73 103 157
0.511225 -0.389194 -0.622 40 65 119
0.473186 -0.339763 -0.543 158 116 102
0.485933 -0.32412 -0.518 175 123 99
0.495769 -0.324746 -0.519 166 116 93
0.0479714 -0.274897 -0.438 199 154 133
0.0513086 -0.274897 -0.438 201 156 135
0.05548 -0.274897 -0.438 196 149 129
0.0765114 -0.275525 -0.439 168 122 109
0.108771 -0.294981 -0.47 104 78 77
0.111503 -0.297491 -0.474 95 75 76
0.178626 -0.388496 -0.619 178 189 219
0.261159 -0.388496 -0.619 232 234 255
0.316414 -0.389751 -0.621 120 144 188
0.329426 -0.389751 -0.621 145 143 167
0.36018 -0.389751 -0.621 96 104 141
0.421183 -0.390379 -0.622 167 171 196
0.423552 -0.390379 -0.622 115 120 149
0.440614 -0.389751 -0.621 66 97 152
0.445346 -0.389751 -0.621 142 156 191
0.454809 -0.389751 -0.621 117 121 133
0.478466 -0.389751 -0.621 173 173 185
0.50094 -0.389751 -0.621 29 58 118
0.510403 -0.389751 -0.621 42 67 123
0.518531 -0.387869 -0.618 130 126 127
0.487838 -0.355232 -0.566 146 106 96
0.471578 -0.334521 -0.533 158 112 96
0.48094 -0.325734 -0.519 179 125 101
0.490904 -0.324479 -0.517 175 125 100
0.5115 -0.3295 -0.525 156 113 94
0.0714943 -0.276361 -0.439 175 129 116
0.0870762 -0.280768 -0.446 146 105 99
0.0881229 -0.281397 -0.447 143 102 96
0.0998876 -0.288322 -0.458 116 86 84
0.24308 -0.389046 -0.618 167 181 220
0.25132 -0.389046 -0.618 170 182 224
0.273686 -0.389046 -0.618 211 220 249
0.298406 -0.389046 -0.618 211 215 240
0.305963 -0.389675 -0.619 126 142 178
0.3095 -0.389675 -0.619 150 172 209
0.318267 -0.390305 -0.62 153 176 220
0.3519 -0.390934 -0.621 186 192 204
0.357814 -0.390934 -0.621 143 149 173
0.363729 -0.390934 -0.621 160 169 198
0.370238 -0.391564 -0.622 104 110 134
0.381471 -0.390934 -0.621 147 158 188
0.388569 -0.390934 -0.621 70 75 105
0.399214 -0.390934 -0.621 182 184 199
0.416957 -0.390934 -0.621 182 185 204
0.41814 -0.390934 -0.621 179 179 205
0.422871 -0.390934 -0.621 149 151 172
0.430457 -0.390305 -0.62 123 135 173
0.443448 -0.390305 -0.62 97 118 161
0.444629 -0.390305 -0.62 104 125 168
0.464271 -0.390934 -0.621 151 153 166
0.465454 -0.390934 -0.621 142 144 157
0.470186 -0.390934 -0.621 99 105 137
0.478876 -0.390305 -0.62 141 138 147
0.480057 -0.390305 -0.62 124 115 118
0.489505 -0.390305 -0.62 139 144 163
0.502495 -0.390305 -0.62 24 49 106
0.47278 -0.339313 -0.539 156 113 97
0.4745 -0.3305 -0.525 176 121 101
0.48094 -0.326723 -0.519 177 122 101
0.485933 -0.326093 -0.518 176 124 100
0.48795 -0.325464 -0.517 175 125 102
0.5125 -0.3305 -0.525 156 114 92
0.522403 -0.334277 -0.531 153 112 92
0.0422276 -0.277197 -0.439 204 159 140
0.0454686 -0.276566 -0.438 205 160 141
0.0563143 -0.276566 -0.438 194 147 127
0.06716 -0.276566 -0.438 185 138 122
0.0851857 -0.280986 -0.445 149 106 99
0.106526 -0.295509 -0.468 101 79 81
0.114066 -0.303717 -0.481 96 76 78
0.261914 -0.390223 -0.618 223 225 246
0.304291 -0.390223 -0.618 153 162 193
0.308321 -0.390854 -0.619 137 156 196
0.331902 -0.390854 -0.619 193 194 214
0.348351 -0.392117 -0.621 186 191 210
0.352514 -0.391486 -0.62 186 195 204
0.372009 -0.392117 -0.621 129 145 179
0.377923 -0.392117 -0.621 146 164 212
0.379106 -0.392117 -0.621 139 157 205
0.385581 -0.391486 -0.62 107 118 148
0.415105 -0.391486 -0.62 181 182 202
0.417467 -0.391486 -0.62 183 181 203
0.418648 -0.391486 -0.62 180 178 200
0.425047 -0.390854 -0.619 70 74 103
0.437543 -0.391486 -0.62 42 76 140
0.480057 -0.391486 -0.62 109 99 100
0.488324 -0.391486 -0.62 158 161 178
0.493048 -0.391486 -0.62 36 67 114
0.494229 -0.391486 -0.62 37 68 115
0.503676 -0.391486 -0.62 30 55 112
0.473657 -0.340971 -0.54 155 112 96
0.472329 -0.337814 -0.535 160 114 98
0.472843 -0.335289 -0.531 153 106 88
0.478895 -0.328343 -0.52 172 124 101
0.48598 -0.326449 -0.517 174 124 101
0.504648 -0.328343 -0.52 161 116 95
0.0361048 -0.282467 -0.446 196 154 138
0.0383067 -0.279933 -0.442 197 155 139
0.0471371 -0.2774 -0.438 205 158 138
0.0546457 -0.2774 -0.438 195 150 129
0.0638229 -0.2774 -0.438 190 143 123
0.0758476 -0.278667 -0.44 173 125 111
0.08022 -0.2793 -0.441 159 115 104
0.199203 -0.390767 -0.617 239 243 252
0.282645 -0.390767 -0.617 219 225 247
0.306646 -0.3914 -0.618 136 151 184
0.326007 -0.392033 -0.619 88 101 135
0.336074 -0.3914 -0.618 190 202 218
0.340155 -0.392033 -0.619 189 194 214
0.341334 -0.392033 -0.619 188 193 213
0.353125 -0.392033 -0.619 187 192 214
0.366686 -0.392667 -0.62 125 127 150
0.394391 -0.392033 -0.619 179 181 193
0.405657 -0.392667 -0.62 120 127 156
0.430942 -0.392033 -0.619 66 95 153
0.456438 -0.392667 -0.62 123 118 124
0.4588 -0.392667 -0.62 101 96 102
0.459981 -0.392667 -0.62 120 115 121
0.461162 -0.392667 -0.62 148 146 151
0.484781 -0.392667 -0.62 175 172 183
0.478414 -0.3477 -0.549 150 111 96
0.47684 -0.3458 -0.546 151 109 95
0.474402 -0.333133 -0.526 172 121 102
0.475592 -0.331867 -0.524 173 118 98
0.492903 -0.3268 -0.516 173 122 101
0.0389714 -0.279505 -0.44 199 156 139
0.054521 -0.277599 -0.437 196 150 127
0.0862267 -0.283316 -0.446 142 104 93
0.10164 -0.29348 -0.462 106 81 84
0.28688 -0.391307 -0.616 221 223 248
0.299098 -0.391942 -0.617 208 213 242
0.314886 -0.392577 -0.618 149 173 217
0.327834 -0.392577 -0.618 175 181 207
0.339606 -0.392577 -0.618 190 195 214
0.349588 -0.393212 -0.619 185 193 212
0.376706 -0.393212 -0.619 112 137 194
0.389046 -0.392577 -0.618 178 182 193
0.457619 -0.393848 -0.62 121 115 125
0.460418 -0.393212 -0.619 118 116 121
0.492252 -0.393212 -0.619 72 90 128
0.498148 -0.393212 -0.619 52 78 127
0.500506 -0.393212 -0.619 38 69 126
0.50249 -0.370344 -0.583 145 107 94
0.49086 -0.36018 -0.567 147 109 96
0.479286 -0.349381 -0.55 150 111 96
0.473854 -0.337311 -0.531 157 112 93
0.474085 -0.336041 -0.529 167 120 102
0.475592 -0.332865 -0.524 173 117 100
0.49391 -0.327148 -0.515 174 123 102
0.496834 -0.327783 -0.516 171 123 101
0.526427 -0.337947 -0.532 151 110 90
0.0404629 -0.279069 -0.438 199 156 137
0.0470295 -0.278431 -0.437 200 155 132
0.0495267 -0.278431 -0.437 201 154 134
0.054521 -0.278431 -0.437 196 150 127
0.0629886 -0.279069 -0.438 186 141 122
0.07938 -0.28098 -0.441 157 113 100
0.0946914 -0.289263 -0.454 120 85 83
0.249333 -0.39248 -0.616 180 190 226
0.324953 -0.393117 -0.617 118 134 168
0.34196 -0.393754 -0.618 183 184 204
0.344314 -0.393754 -0.618 189 194 213
0.349023 -0.393754 -0.618 190 199 214
0.35551 -0.393117 -0.617 187 190 209
0.364326 -0.393754 -0.618 100 108 144
0.371389 -0.393754 -0.618 62 92 154
0.38489 -0.393117 -0.617 125 147 196
0.387241 -0.393117 -0.617 168 179 209
0.39964 -0.393754 -0.618 152 155 172
0.403171 -0.393754 -0.618 117 129 155
0.40854 -0.394391 -0.619 146 153 181
0.430246 -0.393754 -0.618 42 70 135
0.440127 -0.393117 -0.617 36 61 125
0.441302 -0.393117 -0.617 44 74 136
0.467492 -0.394391 -0.619 172 169 186
0.46985 -0.394391 -0.619 151 149 163
0.489103 -0.393754 -0.618 73 86 120
0.492634 -0.393754 -0.618 146 160 195
0.509114 -0.393754 -0.618 130 149 191
0.515342 -0.393117 -0.617 95 107 129
0.476839 -0.331951 -0.521 176 125 104
0.480071 -0.329403 -0.517 181 129 107
0.481056 -0.329403 -0.517 181 129 107
0.484057 -0.328766 -0.516 170 120 97
0.4988 -0.328766 -0.516 162 115 95
0.500751 -0.329403 -0.517 154 107 87
0.0396286 -0.279903 -0.438 201 156 135
0.0561857 -0.279264 -0.437 193 147 124
0.0588171 -0.279903 -0.438 194 148 125
0.0758476 -0.281181 -0.44 170 124 109
0.0959771 -0.291406 -0.456 113 83 83
0.106311 -0.300991 -0.471 100 80 82
0.17424 -0.393653 -0.616 182 188 222
0.230186 -0.393014 -0.615 223 231 255
0.231357 -0.393014 -0.615 237 239 255
0.240729 -0.393014 -0.615 192 202 227
0.265329 -0.393014 -0.615 214 212 225
0.2747 -0.393014 -0.615 217 223 245
0.275871 -0.393014 -0.615 225 228 247
0.30096 -0.393653 -0.616 192 196 225
0.321428 -0.394292 -0.617 106 122 158
0.341407 -0.394292 -0.617 144 144 168
0.349633 -0.394292 -0.617 185 192 210
0.354334 -0.394292 -0.617 188 190 211
0.363736 -0.394292 -0.617 69 78 121
0.386066 -0.394292 -0.617 165 176 206
0.417297 -0.394931 -0.618 119 110 115
0.420829 -0.394931 -0.618 183 181 182
0.426024 -0.394292 -0.617 62 78 129
0.441302 -0.394292 -0.617 69 97 162
0.443652 -0.394292 -0.617 60 91 145
0.447178 -0.394292 -0.617 47 69 118
0.466737 -0.394931 -0.618 178 171 187
0.511469 -0.394931 -0.618 158 161 192
0.514167 -0.394292 -0.617 74 76 99
0.51568 -0.393653 -0.616 91 96 116
0.519529 -0.393014 -0.615 154 160 172
0.474977 -0.343808 -0.538 153 115 104
0.484057 -0.329749 -0.516 175 123 101
0.485081 -0.32911 -0.515 176 124 102
0.49295 -0.32847 -0.514 175 124 103
0.50468 -0.331027 -0.518 159 114 93
0.512554 -0.333583 -0.522 156 113 96
0.034939 -0.283301 -0.442 197 154 135
0.0420352 -0.280096 -0.437 201 156 135
0.0444305 -0.279455 -0.436 199 152 132
0.0629886 -0.280737 -0.438 187 140 122
0.0914886 -0.28907 -0.451 132 95 89
0.112933 -0.310221 -0.484 90 71 75
0.175129 -0.394186 -0.615 181 189 225
0.2501 -0.394186 -0.615 205 218 253
0.363736 -0.395468 -0.617 46 65 121
0.374313 -0.395468 -0.617 35 78 147
0.375489 -0.395468 -0.617 53 84 149
0.38544 -0.394827 -0.616 157 164 190
0.400169 -0.395468 -0.617 147 154 173
0.40957 -0.395468 -0.617 163 166 183
0.42416 -0.394827 -0.616 111 125 170
0.436601 -0.395468 -0.617 56 89 156
0.470683 -0.395468 -0.617 168 170 183
0.487136 -0.395468 -0.617 74 87 119
0.518357 -0.394186 -0.615 101 108 127
0.482953 -0.354447 -0.553 148 111 93
0.475117 -0.344191 -0.537 156 118 99
0.475681 -0.335218 -0.523 167 119 96
0.487043 -0.33009 -0.515 177 127 104
0.503706 -0.331372 -0.517 161 114 94
0.5096 -0.333295 -0.52 159 114 93
0.0313552 -0.289929 -0.451 195 152 135
0.035619 -0.282857 -0.44 196 155 137
0.0403705 -0.280929 -0.437 200 157 138
0.0536886 -0.280929 -0.437 195 148 128
0.103851 -0.300857 -0.468 99 78 83
0.243846 -0.394714 -0.614 155 170 209
0.248524 -0.394714 -0.614 202 214 254
0.252032 -0.394714 -0.614 211 218 247
0.25788 -0.394714 -0.614 129 140 172
0.271914 -0.394714 -0.614 227 228 246
0.28127 -0.394714 -0.614 218 223 242
0.31504 -0.396 -0.616 127 157 211
0.3485 -0.395357 -0.615 169 177 190
0.390671 -0.395357 -0.615 192 191 199
0.391843 -0.395357 -0.615 183 186 193
0.396 -0.396 -0.616 122 119 126
0.42064 -0.396 -0.616 188 187 201
0.43824 -0.396 -0.616 41 75 138
0.447627 -0.396 -0.616 107 122 161
0.45893 -0.396643 -0.617 158 157 163
0.470683 -0.396643 -0.617 168 170 183
0.485571 -0.397286 -0.618 87 94 122
0.501239 -0.396643 -0.617 68 96 146
0.510987 -0.396 -0.616 157 162 181
0.51216 -0.396 -0.616 156 161 180
0.513333 -0.396 -0.616 154 157 172
0.504711 -0.374786 -0.583 143 107 95
0.4847 -0.356786 -0.555 150 112 93
0.475304 -0.338786 -0.527 168 122 98
0.474594 -0.336857 -0.524 166 120 96
0.475766 -0.335571 -0.522 170 123 97
0.490992 -0.330429 -0.514 174 123 102
0.499795 -0.331071 -0.515 167 120 100
0.528471 -0.341357 -0.531 151 109 93
0.0444305 -0.281116 -0.436 196 151 130
0.0485829 -0.281116 -0.436 198 151 131
0.0586829 -0.281761 -0.437 193 146 126
0.06716 -0.282406 -0.438 181 134 116
0.115737 -0.317223 -0.492 97 81 82
0.256292 -0.395239 -0.613 117 131 168
0.278477 -0.395239 -0.613 214 221 240
0.304661 -0.395884 -0.614 93 119 176
0.311014 -0.396529 -0.615 63 97 171
0.3485 -0.396529 -0.615 163 171 184
0.361386 -0.396529 -0.615 145 151 163
0.363729 -0.396529 -0.615 54 79 135
0.3977 -0.396529 -0.615 175 173 184
0.412427 -0.397173 -0.616 192 188 202
0.424643 -0.396529 -0.615 138 152 189
0.432843 -0.396529 -0.615 74 102 167
0.443386 -0.396529 -0.615 154 173 206
0.453493 -0.397173 -0.616 145 150 172
0.48126 -0.397818 -0.617 123 125 138
0.48361 -0.397818 -0.617 63 75 99
0.496907 -0.397173 -0.616 77 100 144
0.475514 -0.344303 -0.534 162 117 94
0.474866 -0.342369 -0.531 161 119 97
0.475092 -0.341079 -0.529 164 119 98
0.481109 -0.332697 -0.516 181 130 109
0.0331048 -0.284533 -0.44 199 156 139
0.0460914 -0.281947 -0.436 197 152 131
0.0527352 -0.281947 -0.436 195 148 128
0.0553533 -0.282593 -0.437 194 147 127
0.0714943 -0.283887 -0.439 176 127 113
0.0750095 -0.284533 -0.44 167 123 110
0.0872714 -0.28906 -0.447 140 99 97
0.0906295 -0.291647 -0.451 128 88 86
0.10296 -0.30264 -0.468 99 80 86
0.106086 -0.30652 -0.474 96 75 84
0.116208 -0.319453 -0.494 98 82 83
0.120241 -0.325273 -0.503 103 91 103
0.266801 -0.396407 -0.613 221 226 245
0.30183 -0.396407 -0.613 108 131 183
0.324543 -0.397053 -0.614 190 194 206
0.327517 -0.396407 -0.613 191 194 213
0.339747 -0.397053 -0.614 140 144 169
0.352611 -0.397053 -0.614 194 190 204
0.367243 -0.3977 -0.615 87 118 182
0.370757 -0.3977 -0.615 58 88 160
0.372493 -0.397053 -0.614 46 80 144
0.374832 -0.397053 -0.614 80 110 180
0.448071 -0.3977 -0.615 106 115 148
0.458187 -0.398347 -0.616 156 155 169
0.47696 -0.398347 -0.616 169 166 183
0.478133 -0.398347 -0.616 152 149 166
0.493387 -0.398347 -0.616 135 142 161
0.508986 -0.3977 -0.615 140 153 187
0.481718 -0.354373 -0.548 152 113 96
0.478963 -0.33562 -0.519 175 124 103
0.487106 -0.33174 -0.513 179 129 106
0.498825 -0.332387 -0.514 167 122 99
0.511586 -0.33562 -0.519 155 115 89
0.0460914 -0.282777 -0.436 198 153 132
0.0494133 -0.282777 -0.436 201 154 134
0.0646571 -0.284074 -0.438 182 135 117
0.0679943 -0.284074 -0.438 179 132 116
0.08642 -0.289911 -0.447 140 99 95
0.0906295 -0.292506 -0.451 124 87 81
0.10318 -0.30418 -0.469 98 77 84
0.168721 -0.397574 -0.613 233 241 254
0.269136 -0.397574 -0.613 200 198 211
0.290846 -0.396926 -0.612 205 208 227
0.310003 -0.397574 -0.613 44 78 150
0.325182 -0.397574 -0.613 199 197 208
0.32635 -0.397574 -0.613 206 204 215
0.33569 -0.397574 -0.613 134 133 147
0.341529 -0.397574 -0.613 180 181 199
0.370154 -0.398223 -0.614 80 110 182
0.372493 -0.398223 -0.614 59 96 164
0.401731 -0.398223 -0.614 185 187 200
0.40407 -0.398223 -0.614 181 183 198
0.416935 -0.398223 -0.614 173 172 190
0.420444 -0.398223 -0.614 83 97 132
0.435648 -0.398223 -0.614 91 122 177
0.47344 -0.39952 -0.616 168 166 180
0.477357 -0.398871 -0.615 170 168 190
0.483214 -0.398871 -0.615 127 132 151
0.485557 -0.398871 -0.615 159 164 183
0.500427 -0.39952 -0.616 110 131 176
0.519326 -0.396926 -0.612 82 89 118
0.478656 -0.350877 -0.541 160 117 98
0.477027 -0.348931 -0.538 160 117 98
0.477974 -0.336609 -0.519 175 125 102
0.479027 -0.33596 -0.518 174 126 104
0.486129 -0.332717 -0.513 179 129 106
0.0299552 -0.288161 -0.443 195 152 135
0.0494133 -0.283608 -0.436 199 153 130
0.0636771 -0.284258 -0.437 183 135 115
0.0750095 -0.28621 -0.44 166 119 109
0.07686 -0.28686 -0.441 157 113 104
0.0955257 -0.297918 -0.458 111 87 85
0.1034 -0.305724 -0.47 97 76 83
0.312338 -0.398742 -0.613 45 82 153
0.319989 -0.398091 -0.612 174 193 226
0.341529 -0.398742 -0.613 195 194 208
0.349702 -0.398742 -0.613 198 195 212
0.35087 -0.398742 -0.613 198 195 212
0.356708 -0.398742 -0.613 177 180 199
0.376557 -0.398742 -0.613 144 167 209
0.38006 -0.398742 -0.613 178 193 224
0.431435 -0.398742 -0.613 81 107 158
0.432603 -0.398742 -0.613 96 122 173
0.43377 -0.398742 -0.613 101 127 178
0.443111 -0.398742 -0.613 171 175 200
0.456699 -0.399392 -0.614 169 169 193
