ply
format ascii 1.0
comment Created by Open3D
element vertex 1298
property double x
property double y
property double z
property uchar red
property uchar green
property uchar blue
end_header
0.446017 -0.291411 -0.534 139 90 75
0.44991 -0.291957 -0.535 138 89 74
0.455683 -0.293049 -0.537 141 92 77
-0.115949 -0.338429 -0.618 111 112 114
0.105409 -0.255738 -0.467 198 159 144
0.109874 -0.249714 -0.456 206 166 154
0.124408 -0.247524 -0.452 194 151 134
0.1368 -0.249714 -0.456 156 108 96
0.153443 -0.255738 -0.467 123 89 80
0.172073 -0.26669 -0.487 93 70 78
0.287534 -0.351024 -0.641 120 139 195
0.289976 -0.351024 -0.641 118 138 189
0.305103 -0.351571 -0.642 179 180 198
0.306326 -0.351571 -0.642 204 205 223
0.307549 -0.351571 -0.642 185 193 216
0.330587 -0.352667 -0.644 151 170 210
0.331813 -0.352667 -0.644 151 170 210
0.372871 -0.353214 -0.645 175 178 195
0.377786 -0.353214 -0.645 77 109 168
0.382063 -0.353762 -0.646 55 94 171
0.401129 -0.353214 -0.645 175 176 196
0.412132 -0.352119 -0.643 23 56 123
0.415807 -0.352119 -0.643 41 74 141
0.423813 -0.352667 -0.644 72 94 152
0.429947 -0.352667 -0.644 166 172 194
0.431729 -0.352119 -0.643 150 157 165
0.410167 -0.314881 -0.575 121 81 82
0.407337 -0.311048 -0.568 124 85 80
0.404357 -0.303929 -0.555 128 90 77
0.418786 -0.291881 -0.533 142 93 76
0.422053 -0.291333 -0.532 151 100 81
0.43928 -0.291333 -0.532 136 89 71
0.444167 -0.291881 -0.533 143 94 77
0.459606 -0.294619 -0.538 142 93 76
0.4644 -0.295714 -0.54 146 97 80
0.116917 -0.248934 -0.453 202 160 146
0.152227 -0.256078 -0.466 124 89 87
0.162747 -0.261573 -0.476 101 75 78
0.275325 -0.352245 -0.641 175 180 212
0.286313 -0.352245 -0.641 124 145 198
0.298523 -0.352245 -0.641 150 167 213
0.305849 -0.352245 -0.641 187 190 209
0.341096 -0.353344 -0.643 181 197 222
0.345995 -0.353344 -0.643 101 123 181
0.363142 -0.353344 -0.643 163 184 231
0.386386 -0.354443 -0.645 70 104 178
0.401733 -0.353893 -0.644 172 171 189
0.405413 -0.353893 -0.644 93 107 146
0.412132 -0.353344 -0.643 49 78 144
0.430504 -0.353344 -0.643 165 170 176
0.417495 -0.324219 -0.59 119 84 82
0.406377 -0.303337 -0.552 127 84 75
0.408351 -0.301689 -0.549 130 88 76
0.412971 -0.296743 -0.54 143 95 83
0.418786 -0.292896 -0.533 141 92 77
0.423067 -0.292347 -0.532 150 99 82
0.424294 -0.291797 -0.531 147 98 81
0.441307 -0.292347 -0.532 145 96 79
0.471117 -0.298391 -0.543 155 106 91
0.105351 -0.253106 -0.459 204 166 153
0.107504 -0.252003 -0.457 208 168 156
0.108137 -0.251451 -0.456 209 169 157
0.121825 -0.249246 -0.452 196 153 137
0.133606 -0.250349 -0.454 162 114 102
0.144447 -0.254209 -0.461 143 100 94
0.171146 -0.268546 -0.487 98 79 85
0.1775 -0.27406 -0.497 165 170 200
0.257829 -0.352914 -0.64 140 161 208
0.259048 -0.352914 -0.64 140 161 208
0.262705 -0.352914 -0.64 151 172 217
0.263924 -0.352914 -0.64 168 182 227
0.270441 -0.353466 -0.641 238 239 255
0.274104 -0.353466 -0.641 207 212 241
0.277767 -0.353466 -0.641 204 213 246
0.287534 -0.353466 -0.641 129 150 203
0.288755 -0.353466 -0.641 117 134 190
0.29486 -0.353466 -0.641 167 187 237
0.304628 -0.353466 -0.641 185 187 208
0.30707 -0.353466 -0.641 180 182 203
0.343546 -0.354569 -0.643 171 186 219
0.365591 -0.354569 -0.643 177 186 215
0.377839 -0.354569 -0.643 83 104 149
0.400507 -0.35512 -0.644 167 164 181
0.402334 -0.354569 -0.643 161 164 181
0.410269 -0.354017 -0.642 88 115 168
0.413937 -0.354017 -0.642 53 80 135
0.41516 -0.354017 -0.642 78 105 160
0.419481 -0.354569 -0.643 78 109 166
0.430504 -0.354569 -0.643 170 174 185
0.422053 -0.29336 -0.532 149 100 85
0.444347 -0.29336 -0.532 140 93 77
0.106633 -0.252873 -0.457 207 167 157
0.107269 -0.25232 -0.456 209 169 159
0.135633 -0.251767 -0.455 159 111 101
0.143569 -0.255087 -0.461 143 98 93
0.152553 -0.258407 -0.467 125 86 89
0.153771 -0.25896 -0.468 125 86 87
0.166634 -0.266707 -0.482 94 76 74
0.252557 -0.35358 -0.639 135 157 214
0.25539 -0.354133 -0.64 137 158 215
0.276114 -0.354133 -0.64 216 225 255
0.28221 -0.354133 -0.64 126 140 187
0.283429 -0.354133 -0.64 120 137 189
0.288305 -0.354133 -0.64 115 131 190
0.295619 -0.354133 -0.64 177 201 249
0.311467 -0.354133 -0.64 109 140 204
0.315124 -0.354133 -0.64 95 134 191
0.318781 -0.354133 -0.64 64 111 181
0.328337 -0.35524 -0.642 119 164 221
0.330783 -0.35524 -0.642 187 192 212
0.34668 -0.35524 -0.642 61 85 145
0.357686 -0.35524 -0.642 43 76 153
0.360131 -0.35524 -0.642 76 100 162
0.3638 -0.35524 -0.642 133 146 180
0.4066 -0.35524 -0.642 49 80 135
0.409643 -0.3071 -0.555 122 81 75
0.412534 -0.30378 -0.549 122 77 71
0.413736 -0.299353 -0.541 137 90 80
0.418319 -0.296033 -0.535 143 96 80
0.422053 -0.294373 -0.532 151 102 87
0.423067 -0.294373 -0.532 149 100 85
0.441489 -0.29382 -0.531 144 97 81
0.457897 -0.296587 -0.536 146 98 78
0.127851 -0.250968 -0.452 171 128 109
0.150451 -0.258741 -0.466 129 87 88
0.170917 -0.271511 -0.489 91 78 88
0.25539 -0.355352 -0.64 141 163 220
0.271238 -0.355352 -0.64 232 238 252
0.272457 -0.355352 -0.64 233 239 253
0.274895 -0.355352 -0.64 227 235 254
0.301714 -0.355352 -0.64 210 216 240
0.305371 -0.355352 -0.64 212 218 240
0.317562 -0.355352 -0.64 90 123 177
0.327826 -0.355908 -0.641 121 162 216
0.335674 -0.356463 -0.642 194 201 220
0.345457 -0.356463 -0.642 64 90 149
0.355908 -0.355908 -0.641 69 100 165
0.369914 -0.356463 -0.642 187 191 202
0.376029 -0.356463 -0.642 119 128 159
0.382143 -0.356463 -0.642 106 131 188
0.386412 -0.357018 -0.643 95 130 186
0.407823 -0.356463 -0.642 93 121 169
0.413292 -0.355908 -0.641 89 111 152
0.418829 -0.356463 -0.642 121 139 179
0.430386 -0.355908 -0.641 164 173 202
0.438093 -0.354242 -0.638 98 111 146
0.413469 -0.300939 -0.542 130 86 77
0.414767 -0.300384 -0.541 132 88 79
0.438638 -0.294276 -0.53 138 89 72
0.46096 -0.297608 -0.536 157 106 87
0.463866 -0.298163 -0.537 161 108 90
0.109151 -0.252386 -0.453 207 167 157
0.120103 -0.251829 -0.452 195 152 135
0.133606 -0.252943 -0.454 148 103 97
0.151664 -0.260186 -0.467 127 85 86
0.160027 -0.2652 -0.476 99 78 83
0.173254 -0.274671 -0.493 146 135 151
0.248516 -0.355457 -0.638 165 180 223
0.263099 -0.355457 -0.638 186 200 239
0.273676 -0.356571 -0.64 229 237 255
0.28221 -0.356571 -0.64 130 147 191
0.290743 -0.356571 -0.64 109 131 188
0.2944 -0.356571 -0.64 165 188 238
0.309763 -0.356014 -0.639 156 159 174
0.317066 -0.356014 -0.639 101 131 185
0.33271 -0.357129 -0.641 191 198 224
0.338814 -0.357129 -0.641 190 195 214
0.340035 -0.357129 -0.641 152 162 187
0.344919 -0.357129 -0.641 66 92 149
0.347361 -0.357129 -0.641 101 127 184
0.349803 -0.357129 -0.641 110 143 197
0.354133 -0.356571 -0.64 131 156 213
0.402931 -0.357686 -0.642 130 137 163
0.407188 -0.357129 -0.641 114 136 177
0.408409 -0.357129 -0.641 131 143 181
0.41085 -0.357129 -0.641 157 176 209
0.438093 -0.355457 -0.638 99 112 147
0.426395 -0.330386 -0.593 111 76 70
0.41491 -0.316457 -0.568 118 78 76
0.413739 -0.313114 -0.562 117 77 75
0.413871 -0.309214 -0.555 120 81 76
0.414626 -0.305871 -0.549 128 85 79
0.414719 -0.303643 -0.545 128 85 78
0.420589 -0.297514 -0.534 147 100 84
0.426727 -0.294729 -0.529 148 97 78
0.42975 -0.294729 -0.529 144 93 76
0.437629 -0.295286 -0.53 143 92 75
0.4425 -0.295843 -0.531 147 94 76
0.447387 -0.2964 -0.532 148 95 77
0.466779 -0.299743 -0.538 162 114 94
0.10425 -0.256044 -0.458 202 164 151
0.113215 -0.25269 -0.452 201 159 147
0.114076 -0.25269 -0.452 202 160 148
0.138272 -0.256044 -0.458 141 98 92
0.145955 -0.258839 -0.463 132 91 89
0.150774 -0.261075 -0.467 126 84 85
0.164456 -0.268902 -0.481 98 82 85
0.168017 -0.271697 -0.486 91 77 77
0.249731 -0.356672 -0.638 161 185 229
0.252557 -0.357231 -0.639 146 172 221
0.270814 -0.357231 -0.639 232 239 255
0.325586 -0.357231 -0.639 130 154 200
0.337067 -0.35779 -0.64 190 193 212
0.351695 -0.35779 -0.64 103 130 177
0.356571 -0.35779 -0.64 122 142 193
0.367543 -0.35779 -0.64 185 186 206
0.42306 -0.35835 -0.641 162 171 204
0.439833 -0.356113 -0.637 81 93 141
0.42471 -0.327602 -0.586 117 78 81
0.422193 -0.324807 -0.581 118 79 82
0.423283 -0.296854 -0.531 153 102 83
0.103377 -0.256916 -0.458 201 161 151
0.108289 -0.254111 -0.453 210 170 162
0.120696 -0.25299 -0.451 188 145 126
0.131011 -0.254672 -0.454 156 112 99
0.133033 -0.255233 -0.455 149 105 94
0.145073 -0.259721 -0.463 134 90 89
0.149564 -0.261404 -0.466 126 88 85
0.151097 -0.262526 -0.468 122 84 81
0.1632 -0.269257 -0.48 98 79 73
0.2457 -0.357327 -0.637 172 184 206
0.26026 -0.357327 -0.637 165 177 219
0.272821 -0.357888 -0.638 230 237 255
0.282543 -0.357888 -0.638 131 150 193
0.306111 -0.358449 -0.639 209 218 235
0.310493 -0.357888 -0.638 157 172 203
0.319 -0.357888 -0.638 140 167 220
0.323151 -0.358449 -0.639 111 139 187
0.33654 -0.358449 -0.639 196 199 216
0.355352 -0.35901 -0.64 156 170 207
0.356571 -0.35901 -0.64 138 153 192
0.361448 -0.35901 -0.64 79 102 154
0.399862 -0.35957 -0.641 105 120 141
0.421181 -0.35901 -0.64 162 169 198
0.440587 -0.345547 -0.616 106 86 87
0.424757 -0.327035 -0.583 116 76 77
0.417277 -0.314694 -0.561 122 83 78
0.416429 -0.308524 -0.55 127 84 77
0.417086 -0.302914 -0.54 131 85 72
0.419571 -0.299549 -0.534 143 94 77
0.422053 -0.298427 -0.532 153 102 83
0.424505 -0.297305 -0.53 156 105 86
0.456189 -0.299549 -0.534 155 102 84
0.457206 -0.299549 -0.534 159 106 88
0.463157 -0.30011 -0.535 166 118 96
0.467957 -0.301231 -0.537 167 120 100
0.102298 -0.259477 -0.461 200 160 150
0.103151 -0.257226 -0.457 203 163 151
0.10805 -0.254411 -0.452 205 165 155
0.113215 -0.254411 -0.452 197 155 139
0.1374 -0.257789 -0.458 143 98 92
0.139752 -0.258914 -0.46 142 94 90
0.141812 -0.259477 -0.461 143 96 90
0.2457 -0.35854 -0.637 179 187 208
0.275251 -0.359103 -0.638 176 186 221
0.280112 -0.359103 -0.638 138 155 198
0.294233 -0.35854 -0.637 119 133 182
0.32143 -0.359103 -0.638 130 160 214
0.326803 -0.359666 -0.639 178 197 229
0.334106 -0.359666 -0.639 193 202 219
0.358449 -0.359666 -0.639 158 166 203
0.374857 -0.360229 -0.64 174 177 210
0.385829 -0.360229 -0.64 83 109 160
0.391924 -0.360229 -0.64 179 180 208
0.412003 -0.359666 -0.639 159 160 190
0.441495 -0.345594 -0.614 108 93 98
0.435582 -0.338277 -0.601 116 77 78
0.417763 -0.309009 -0.549 126 83 76
0.443686 -0.298314 -0.53 154 101 83
0.113215 -0.255272 -0.452 196 154 138
0.124408 -0.255272 -0.452 176 134 112
0.12986 -0.255837 -0.453 151 107 96
0.134194 -0.257531 -0.456 140 100 92
0.135359 -0.258096 -0.457 140 100 92
0.15142 -0.264873 -0.469 117 82 76
0.155414 -0.267132 -0.473 113 83 85
0.156976 -0.268262 -0.475 112 82 84
0.261473 -0.359753 -0.637 179 191 231
0.2639 -0.359753 -0.637 227 236 255
0.2821 -0.359753 -0.637 192 207 248
0.29302 -0.359753 -0.637 141 154 198
0.3185 -0.359753 -0.637 157 179 226
0.323861 -0.360318 -0.638 130 154 200
0.327507 -0.360318 -0.638 185 201 234
0.329237 -0.360883 -0.639 199 204 233
0.358449 -0.360883 -0.639 173 179 213
0.3621 -0.360883 -0.639 171 181 217
0.38339 -0.361448 -0.64 87 114 167
0.416219 -0.360318 -0.638 169 175 199
0.417434 -0.360318 -0.638 172 178 202
0.43818 -0.340551 -0.603 117 83 84
0.431372 -0.332645 -0.589 113 73 73
0.41909 -0.30949 -0.548 125 82 75
0.419883 -0.303277 -0.537 140 94 81
0.421831 -0.301018 -0.533 153 98 78
0.423067 -0.300453 -0.532 156 101 81
0.430949 -0.298194 -0.528 153 100 82
0.435795 -0.298759 -0.529 152 99 81
0.436803 -0.298759 -0.529 150 97 79
0.455334 -0.301018 -0.533 161 110 91
0.460257 -0.301583 -0.534 167 116 95
0.462291 -0.301583 -0.534 164 116 94
0.468107 -0.302712 -0.536 172 124 102
0.10076 -0.2618 -0.462 197 159 150
0.114683 -0.255567 -0.451 198 156 142
0.115542 -0.255567 -0.451 198 156 140
0.128134 -0.2567 -0.453 161 117 104
0.135359 -0.258967 -0.457 140 99 93
0.146586 -0.2635 -0.465 130 89 87
0.150206 -0.2652 -0.468 121 86 82
0.170783 -0.279933 -0.494 168 165 194
0.255006 -0.3604 -0.636 192 210 250
0.263486 -0.3604 -0.636 229 238 255
0.28408 -0.3604 -0.636 166 180 217
0.291349 -0.3604 -0.636 168 181 215
0.296194 -0.3604 -0.636 125 135 170
0.311943 -0.3604 -0.636 125 145 182
0.354242 -0.361533 -0.638 182 189 218
0.402266 -0.3621 -0.639 169 176 202
0.402851 -0.361533 -0.638 171 178 204
0.42108 -0.361533 -0.638 172 178 200
0.433086 -0.3604 -0.636 154 161 190
0.425853 -0.325267 -0.574 115 77 74
0.422731 -0.3196 -0.564 118 79 74
0.427734 -0.299767 -0.529 158 105 89
0.431954 -0.2992 -0.528 151 98 80
0.443856 -0.299767 -0.529 154 99 78
0.10781 -0.256426 -0.451 201 161 149
0.111247 -0.256426 -0.451 200 161 146
0.146586 -0.264386 -0.465 129 88 86
0.147789 -0.264954 -0.466 126 88 85
0.157637 -0.271209 -0.477 101 74 79
0.251371 -0.361611 -0.636 179 195 231
0.253794 -0.361611 -0.636 196 211 250
0.2756 -0.361611 -0.636 158 165 194
0.30104 -0.361611 -0.636 209 216 245
0.339659 -0.362749 -0.638 190 196 228
0.343305 -0.362749 -0.638 189 196 224
0.356672 -0.362749 -0.638 185 191 213
0.359103 -0.362749 -0.638 186 191 213
0.374271 -0.363317 -0.639 177 180 215
0.394345 -0.362749 -0.638 95 101 135
0.407073 -0.36218 -0.637 176 183 202
0.426549 -0.325223 -0.572 116 78 75
0.420409 -0.311009 -0.547 125 80 74
0.420695 -0.308166 -0.542 132 85 75
0.441006 -0.300206 -0.528 156 102 78
0.447724 -0.301343 -0.53 151 99 75
0.09928 -0.271547 -0.476 201 162 155
0.133326 -0.260137 -0.456 142 99 93
0.1457 -0.265271 -0.465 131 90 86
0.1564 -0.271547 -0.476 102 75 80
0.163976 -0.276681 -0.485 93 76 84
0.247737 -0.362823 -0.636 177 189 227
0.265072 -0.361682 -0.634 232 237 255
0.282424 -0.362252 -0.635 201 206 235
0.283633 -0.362252 -0.635 177 184 212
0.346407 -0.363393 -0.637 188 195 214
0.357327 -0.363393 -0.637 190 195 215
0.360967 -0.363393 -0.637 186 192 216
0.36218 -0.363393 -0.637 185 191 215
0.391914 -0.363964 -0.638 159 169 204
0.40222 -0.363393 -0.637 179 181 204
0.412491 -0.362823 -0.636 172 174 195
0.414914 -0.362823 -0.636 176 178 201
0.416681 -0.362252 -0.635 173 177 202
0.429451 -0.362823 -0.636 113 116 135
0.437243 -0.362252 -0.635 84 111 166
0.440177 -0.361682 -0.634 30 61 118
0.446752 -0.34799 -0.61 113 82 77
0.444243 -0.345138 -0.605 111 80 75
0.422221 -0.312621 -0.548 120 76 67
0.451603 -0.302923 -0.531 156 104 82
0.467377 -0.304634 -0.534 168 119 102
0.47586 -0.307487 -0.539 164 115 98
0.0983324 -0.265012 -0.463 205 165 157
0.0992314 -0.262723 -0.459 203 163 153
0.10161 -0.259861 -0.454 202 162 152
0.103745 -0.258716 -0.452 205 163 151
0.106714 -0.257571 -0.45 201 163 152
0.11726 -0.258144 -0.451 182 140 124
0.146901 -0.26673 -0.466 125 86 81
0.17053 -0.283901 -0.496 246 245 255
0.172857 -0.28619 -0.5 223 227 252
0.24092 -0.36289 -0.634 241 246 252
0.245314 -0.364034 -0.636 213 215 240
0.256619 -0.36289 -0.634 176 188 228
0.279564 -0.36289 -0.634 216 221 250
0.280771 -0.36289 -0.634 218 224 250
0.285602 -0.36289 -0.634 207 212 244
0.306614 -0.363462 -0.635 207 211 238
0.322338 -0.363462 -0.635 140 161 204
0.332537 -0.364034 -0.636 92 102 137
0.34344 -0.364034 -0.636 193 200 219
0.363393 -0.364607 -0.637 181 192 220
0.38402 -0.364607 -0.637 76 105 173
0.39858 -0.364607 -0.637 141 144 161
0.4191 -0.363462 -0.635 171 175 200
0.426357 -0.363462 -0.635 169 172 191
0.44178 -0.341711 -0.597 115 80 74
0.425633 -0.323395 -0.565 117 79 70
0.423024 -0.311948 -0.545 129 85 74
0.423862 -0.305079 -0.533 160 105 85
0.45752 -0.304507 -0.532 167 115 94
0.0985714 -0.264171 -0.46 203 163 153
0.110143 -0.258429 -0.45 198 159 144
0.12613 -0.259577 -0.452 154 113 95
0.130147 -0.260726 -0.454 139 96 87
0.140934 -0.264746 -0.461 133 89 86
0.273094 -0.363523 -0.633 220 225 254
0.275506 -0.363523 -0.633 223 228 255
0.286357 -0.363523 -0.633 217 224 252
0.313377 -0.364097 -0.634 110 131 176
0.319415 -0.364097 -0.634 103 128 182
0.339806 -0.365246 -0.636 194 201 219
0.366457 -0.365246 -0.636 164 174 199
0.380994 -0.365246 -0.636 51 85 157
0.407005 -0.364671 -0.635 160 168 191
0.412402 -0.364097 -0.634 147 154 182
0.419648 -0.364097 -0.634 170 172 193
0.4431 -0.363523 -0.633 24 51 118
0.449623 -0.362949 -0.632 35 58 126
0.450549 -0.351463 -0.612 115 80 76
0.436989 -0.336531 -0.586 115 80 74
0.427533 -0.304371 -0.53 163 111 89
0.427734 -0.303797 -0.529 163 111 89
0.43214 -0.302649 -0.527 155 103 81
0.445029 -0.303223 -0.528 156 101 81
0.476002 -0.308966 -0.538 160 113 95
0.102884 -0.260438 -0.452 203 165 156
0.138876 -0.265048 -0.46 135 91 80
0.24898 -0.364729 -0.633 175 188 220
0.268271 -0.364729 -0.633 158 164 190
0.269477 -0.364729 -0.633 156 162 188
0.285151 -0.364729 -0.633 219 227 250
0.296003 -0.364729 -0.633 203 209 241
0.311677 -0.364729 -0.633 117 135 171
0.327869 -0.365305 -0.634 166 174 213
0.339271 -0.365881 -0.635 189 194 213
0.351367 -0.365881 -0.635 193 194 214
0.364671 -0.365881 -0.635 182 189 207
0.38584 -0.366457 -0.636 72 107 175
0.39249 -0.365881 -0.635 155 174 204
0.412957 -0.364729 -0.633 139 143 172
0.414817 -0.365305 -0.634 132 136 165
0.420855 -0.365305 -0.634 171 170 188
0.450113 -0.363576 -0.631 31 56 123
0.432071 -0.33131 -0.575 118 81 75
0.424443 -0.319786 -0.555 118 81 73
0.42432 -0.313448 -0.544 134 88 75
0.424825 -0.312295 -0.542 137 90 74
0.424764 -0.30999 -0.538 146 97 80
0.426107 -0.306533 -0.532 158 103 82
0.437159 -0.303652 -0.527 152 97 77
0.453781 -0.305381 -0.53 164 113 92
0.467517 -0.30711 -0.533 159 112 94
0.489025 -0.315752 -0.548 149 111 90
0.09656 -0.275173 -0.476 197 158 151
0.0960333 -0.271127 -0.469 198 160 151
0.102656 -0.260721 -0.451 201 163 152
0.136826 -0.265346 -0.459 135 95 87
0.138 -0.265924 -0.46 133 93 85
0.138876 -0.265924 -0.46 135 91 82
0.157714 -0.277486 -0.48 97 71 70
0.283497 -0.365356 -0.632 218 219 247
0.311185 -0.365356 -0.632 114 132 172
0.318911 -0.365934 -0.633 87 113 172
0.321323 -0.365934 -0.633 159 181 238
0.332699 -0.366512 -0.634 193 200 229
0.343568 -0.366512 -0.634 191 197 221
0.344775 -0.366512 -0.634 189 195 219
0.348398 -0.366512 -0.634 163 168 190
0.374348 -0.36709 -0.635 63 94 159
0.375557 -0.36709 -0.635 51 82 147
0.389457 -0.366512 -0.634 58 89 144
0.402741 -0.366512 -0.634 172 169 176
0.40934 -0.365934 -0.633 105 118 150
0.414163 -0.365934 -0.633 139 143 180
0.420191 -0.365934 -0.633 174 172 193
0.425014 -0.365934 -0.633 156 154 165
0.429837 -0.365934 -0.633 141 146 178
0.435177 -0.365356 -0.632 53 88 154
0.436381 -0.365356 -0.632 82 117 183
0.439992 -0.365356 -0.632 38 70 131
0.425071 -0.31275 -0.541 137 91 76
0.425227 -0.309859 -0.536 156 103 85
0.425452 -0.309281 -0.535 157 102 82
0.442178 -0.304656 -0.527 153 98 78
0.100523 -0.26274 -0.453 202 162 152
0.102656 -0.26158 -0.451 200 160 148
0.121555 -0.26158 -0.451 164 123 105
0.125546 -0.26274 -0.453 146 104 90
0.130433 -0.2639 -0.455 137 96 90
0.138 -0.2668 -0.46 132 92 84
0.15929 -0.27956 -0.482 95 69 70
0.241746 -0.36714 -0.633 238 240 255
0.248587 -0.36656 -0.632 176 185 214
0.250597 -0.36598 -0.631 177 186 219
0.277478 -0.36656 -0.632 221 228 247
0.289516 -0.36656 -0.632 217 221 246
0.304443 -0.36714 -0.633 150 156 188
0.309266 -0.36714 -0.633 158 174 208
0.312389 -0.36656 -0.632 82 108 165
0.350813 -0.36772 -0.634 168 174 198
0.352021 -0.36772 -0.634 169 175 199
0.353229 -0.36772 -0.634 167 173 195
0.361682 -0.36772 -0.634 182 187 209
0.384024 -0.3683 -0.635 38 75 146
0.397283 -0.36714 -0.633 179 180 198
0.4009 -0.36714 -0.633 113 112 120
0.438094 -0.36598 -0.631 37 73 135
0.425582 -0.31958 -0.551 119 82 76
0.426908 -0.30914 -0.533 150 98 77
0.43633 -0.30508 -0.526 150 95 74
0.45091 -0.30682 -0.529 157 105 83
0.464613 -0.30856 -0.532 159 110 93
0.465627 -0.30856 -0.532 161 112 95
0.09548 -0.26884 -0.462 197 159 150
0.0990152 -0.264185 -0.454 201 161 151
0.157127 -0.279896 -0.481 96 71 74
0.253001 -0.367182 -0.631 180 195 228
0.313096 -0.367182 -0.631 79 109 173
0.33338 -0.368346 -0.633 202 204 227
0.34182 -0.368346 -0.633 151 157 169
0.359906 -0.368346 -0.633 184 189 211
0.361111 -0.368346 -0.633 185 190 212
0.370135 -0.368928 -0.634 85 93 132
0.393666 -0.368346 -0.633 179 179 203
0.412305 -0.367764 -0.632 166 172 196
0.415258 -0.367182 -0.631 179 178 196
0.418864 -0.367182 -0.631 163 160 171
0.429681 -0.367182 -0.631 62 85 127
0.43569 -0.367182 -0.631 112 135 187
0.454677 -0.366018 -0.629 68 83 124
0.426643 -0.315974 -0.543 132 88 75
0.428133 -0.309573 -0.532 153 101 80
0.431136 -0.306664 -0.527 157 102 81
0.44519 -0.306664 -0.527 153 101 79
0.475253 -0.311901 -0.536 155 108 90
0.0990152 -0.26505 -0.454 200 160 150
0.103286 -0.262714 -0.45 199 159 147
0.109286 -0.262714 -0.45 195 156 141
0.13072 -0.266217 -0.456 143 100 93
0.14036 -0.26972 -0.462 130 89 83
0.237376 -0.368384 -0.631 176 183 212
0.273 -0.3678 -0.63 221 228 246
0.2754 -0.3678 -0.63 204 210 226
0.2778 -0.3678 -0.63 228 233 252
0.2814 -0.3678 -0.63 212 214 237
0.2934 -0.3678 -0.63 217 224 242
0.314298 -0.368384 -0.631 65 95 165
0.338872 -0.368968 -0.632 194 202 215
0.355083 -0.369551 -0.633 179 185 207
0.381609 -0.369551 -0.633 84 118 179
0.387637 -0.369551 -0.633 74 101 156
0.393044 -0.368968 -0.632 175 180 212
0.412854 -0.368384 -0.631 172 177 199
0.4278 -0.3678 -0.63 42 60 98
0.441 -0.3678 -0.63 65 96 153
0.4422 -0.3678 -0.63 59 90 147
0.4434 -0.3678 -0.63 82 109 164
0.4446 -0.3678 -0.63 122 149 204
0.4518 -0.3678 -0.63 159 172 204
0.458271 -0.367216 -0.629 156 158 183
0.42689 -0.316425 -0.542 128 85 69
0.42749 -0.312338 -0.535 145 94 75
0.429351 -0.310003 -0.531 148 97 78
0.43214 -0.307668 -0.527 155 100 79
0.44519 -0.307668 -0.527 154 102 81
0.452925 -0.308835 -0.529 155 103 82
0.467653 -0.310587 -0.532 157 109 89
0.479076 -0.31409 -0.538 148 100 80
0.101797 -0.264157 -0.451 201 161 149
0.110143 -0.263571 -0.45 189 147 131
0.113824 -0.264157 -0.451 188 145 129
0.120964 -0.264743 -0.452 156 115 97
0.149691 -0.276457 -0.472 104 78 79
0.167087 -0.2911 -0.497 231 226 233
0.240982 -0.369586 -0.631 229 238 255
0.25819 -0.368414 -0.629 197 209 249
0.277359 -0.368414 -0.629 219 222 241
0.3042 -0.369 -0.63 122 134 174
0.3054 -0.369 -0.63 115 127 167
0.328721 -0.369586 -0.631 179 197 237
0.348503 -0.370171 -0.632 137 149 175
0.349707 -0.370171 -0.632 156 168 194
0.390018 -0.369586 -0.631 34 55 100
0.39122 -0.369586 -0.631 88 109 154
0.402037 -0.369586 -0.631 129 125 140
0.4218 -0.369 -0.63 168 171 180
0.4518 -0.369 -0.63 166 173 201
0.455875 -0.368414 -0.629 65 73 110
0.459935 -0.367829 -0.628 113 109 124
0.448603 -0.349671 -0.597 119 89 81
0.439549 -0.340886 -0.582 124 87 78
0.42692 -0.3198 -0.546 125 85 73
0.428163 -0.316871 -0.541 132 89 73
0.42851 -0.313357 -0.535 139 90 73
0.430562 -0.310429 -0.53 155 104 85
0.434148 -0.308671 -0.527 154 99 79
0.453074 -0.309257 -0.528 157 105 83
0.45494 -0.309843 -0.529 160 108 86
0.455948 -0.309843 -0.529 161 109 88
0.470563 -0.312186 -0.533 156 105 84
0.476274 -0.313943 -0.536 152 104 84
0.0941905 -0.270305 -0.46 201 161 151
0.100938 -0.265016 -0.451 200 160 148
0.12382 -0.266191 -0.453 152 110 94
0.124683 -0.266191 -0.453 144 102 90
0.132748 -0.268542 -0.457 132 91 89
0.158433 -0.284995 -0.485 101 76 79
0.264956 -0.369025 -0.628 227 233 255
0.280507 -0.369025 -0.628 184 187 206
0.300123 -0.369612 -0.629 197 203 229
0.335932 -0.370788 -0.631 204 206 229
0.337134 -0.370788 -0.631 198 205 223
0.345548 -0.370788 -0.631 147 154 180
0.347951 -0.370788 -0.631 151 161 186
0.352759 -0.370788 -0.631 185 191 215
0.356365 -0.370788 -0.631 190 195 217
0.364778 -0.370788 -0.631 155 164 193
0.386412 -0.370788 -0.631 170 186 220
0.3918 -0.3702 -0.63 102 116 161
0.410348 -0.369612 -0.629 180 181 202
0.429517 -0.369612 -0.629 167 176 205
0.426905 -0.32319 -0.55 129 87 75
0.428465 -0.319665 -0.544 131 87 74
0.4284 -0.317314 -0.54 133 90 74
0.429147 -0.312613 -0.532 143 92 75
0.431765 -0.31085 -0.529 152 101 82
0.43296 -0.310263 -0.528 150 97 79
0.433966 -0.310263 -0.528 153 97 80
0.440337 -0.309088 -0.526 153 98 77
0.444345 -0.309088 -0.526 155 103 82
0.456955 -0.31085 -0.529 161 109 88
0.11726 -0.265875 -0.451 170 128 104
0.125823 -0.267644 -0.454 140 100 90
0.131589 -0.268823 -0.456 132 91 87
0.231463 -0.370221 -0.628 244 244 254
0.256583 -0.370221 -0.628 147 163 212
0.272133 -0.370221 -0.628 220 225 247
0.304915 -0.37081 -0.629 90 104 149
0.332471 -0.37081 -0.629 201 206 228
0.3522 -0.3714 -0.63 192 197 219
0.3846 -0.3714 -0.63 163 181 219
0.458739 -0.370221 -0.628 93 93 117
0.431014 -0.333081 -0.565 127 91 77
0.426905 -0.324238 -0.55 132 90 78
0.427174 -0.323649 -0.549 131 89 77
0.428711 -0.320111 -0.543 132 88 75
0.441339 -0.31009 -0.526 154 99 78
0.452216 -0.310679 -0.527 162 111 90
0.466905 -0.312448 -0.53 158 110 90
0.484839 -0.318932 -0.541 146 98 84
0.111 -0.266143 -0.45 183 142 120
0.111857 -0.266143 -0.45 185 144 122
0.116659 -0.267326 -0.452 175 132 116
0.124958 -0.268509 -0.454 144 101 92
0.126688 -0.268509 -0.454 147 104 97
0.235051 -0.371417 -0.628 236 238 250
0.252591 -0.370826 -0.627 123 141 191
0.264534 -0.370826 -0.627 216 222 244
0.303234 -0.371417 -0.628 125 138 180
0.316392 -0.371417 -0.628 106 140 203
0.33966 -0.372009 -0.629 195 203 224
0.375603 -0.372009 -0.629 106 130 176
0.3858 -0.3726 -0.63 179 183 208
0.391178 -0.372009 -0.629 85 103 149
0.397169 -0.372009 -0.629 183 189 213
0.452758 -0.371417 -0.628 168 171 188
0.457543 -0.371417 -0.628 127 127 151
0.460855 -0.370234 -0.626 169 169 193
0.45426 -0.356631 -0.603 120 89 84
0.449367 -0.3519 -0.595 127 91 79
0.430363 -0.314049 -0.531 149 98 81
0.449354 -0.311091 -0.526 161 110 91
0.0929086 -0.271747 -0.458 200 162 151
0.115542 -0.267593 -0.451 174 131 115
0.119242 -0.268187 -0.452 162 118 105
0.120103 -0.268187 -0.452 156 112 99
0.12382 -0.26878 -0.453 146 102 93
0.127833 -0.269967 -0.455 139 96 89
0.147893 -0.280053 -0.472 102 81 80
0.232289 -0.37202 -0.627 239 235 250
0.233855 -0.372613 -0.628 235 233 254
0.258563 -0.37202 -0.627 124 136 184
0.262146 -0.37202 -0.627 221 225 255
0.265729 -0.37202 -0.627 224 232 253
0.274089 -0.37202 -0.627 214 216 241
0.297253 -0.372613 -0.628 211 214 231
0.312804 -0.372613 -0.628 94 131 199
0.328877 -0.373207 -0.629 122 139 182
0.332471 -0.373207 -0.629 187 201 227
0.346849 -0.373207 -0.629 191 200 215
0.368414 -0.373207 -0.629 188 192 221
0.376801 -0.373207 -0.629 125 146 191
0.380395 -0.373207 -0.629 132 148 182
0.382791 -0.373207 -0.629 149 164 185
0.413284 -0.372613 -0.628 186 180 206
0.415676 -0.372613 -0.628 171 172 193
0.418069 -0.372613 -0.628 179 180 198
0.426442 -0.372613 -0.628 174 175 195
0.450366 -0.372613 -0.628 177 178 198
0.428954 -0.321587 -0.542 135 88 72
0.429089 -0.31862 -0.537 137 88 73
0.42931 -0.318027 -0.536 135 86 71
0.43076 -0.31684 -0.534 142 93 76
0.432581 -0.314467 -0.53 153 100 82
0.43633 -0.312093 -0.526 150 95 75
0.459109 -0.31328 -0.528 164 109 88
0.466905 -0.314467 -0.53 159 107 85
0.467914 -0.314467 -0.53 158 107 86
0.0920362 -0.272619 -0.458 198 160 151
0.09922 -0.268452 -0.451 197 157 145
0.106477 -0.267262 -0.449 192 150 136
0.110143 -0.267857 -0.45 184 141 122
0.146683 -0.280357 -0.471 102 81 78
0.229533 -0.372619 -0.626 239 241 255
0.232289 -0.373214 -0.627 240 238 251
0.268882 -0.372619 -0.626 230 236 255
0.293197 -0.373214 -0.627 217 221 246
0.294391 -0.373214 -0.627 216 220 245
0.301557 -0.373214 -0.627 162 165 198
0.320666 -0.373214 -0.627 170 188 212
0.360651 -0.37381 -0.628 100 104 131
0.366632 -0.37381 -0.628 185 191 205
0.367829 -0.37381 -0.628 192 194 219
0.369025 -0.37381 -0.628 189 191 216
0.385771 -0.37381 -0.628 188 189 210
0.415014 -0.373214 -0.627 161 166 188
0.447973 -0.37381 -0.628 168 184 218
0.460855 -0.372619 -0.626 67 75 114
0.427127 -0.329167 -0.553 138 94 83
0.427681 -0.327976 -0.551 138 94 83
0.427174 -0.326786 -0.549 137 93 82
0.427176 -0.324405 -0.545 142 96 83
0.42931 -0.319048 -0.536 138 89 74
0.429529 -0.318452 -0.535 141 92 77
0.430969 -0.317262 -0.533 149 97 83
0.440337 -0.313095 -0.526 153 98 78
0.0900933 -0.278269 -0.466 200 158 146
0.09922 -0.269311 -0.451 197 157 145
0.102201 -0.268117 -0.449 192 152 140
0.116401 -0.269311 -0.451 161 118 102
0.120964 -0.269909 -0.452 151 109 97
0.142463 -0.278269 -0.466 110 86 82
0.145476 -0.280657 -0.47 103 82 79
0.239881 -0.373214 -0.625 154 168 207
0.244643 -0.373214 -0.625 148 165 211
0.26369 -0.373214 -0.625 220 227 255
0.275595 -0.373214 -0.625 223 227 252
0.306334 -0.374409 -0.627 179 188 219
0.320666 -0.374409 -0.627 173 189 214
0.327831 -0.374409 -0.627 104 118 157
0.357063 -0.375006 -0.628 193 199 215
0.371417 -0.375006 -0.628 141 148 174
0.394711 -0.374409 -0.627 103 109 135
0.411431 -0.374409 -0.627 171 176 198
0.417403 -0.374409 -0.627 135 144 175
0.421507 -0.373811 -0.626 176 178 201
0.441289 -0.374409 -0.627 94 117 167
0.459663 -0.373811 -0.626 109 114 134
0.4625 -0.373214 -0.625 83 94 139
0.427952 -0.328429 -0.55 141 94 84
0.429193 -0.323054 -0.541 138 90 76
0.429429 -0.322457 -0.54 139 91 77
0.433397 -0.317083 -0.531 158 105 87
0.437159 -0.314694 -0.527 157 101 84
0.440337 -0.314097 -0.526 157 101 84
0.4435 -0.3135 -0.525 163 108 88
0.446648 -0.312903 -0.524 162 107 87
0.480358 -0.320069 -0.536 153 108 85
0.0998571 -0.269571 -0.45 195 155 143
0.107332 -0.268972 -0.449 188 146 132
0.111857 -0.269571 -0.45 176 135 115
0.128983 -0.273166 -0.456 142 99 92
0.129851 -0.273166 -0.456 142 99 92
0.13684 -0.27676 -0.462 127 92 88
0.138018 -0.277359 -0.463 121 90 87
0.157834 -0.291137 -0.486 100 78 80
0.26131 -0.374405 -0.625 136 144 181
0.28869 -0.374405 -0.625 223 227 252
0.297024 -0.374405 -0.625 130 135 165
0.310119 -0.374405 -0.625 139 163 209
0.321347 -0.375004 -0.626 197 212 241
0.322539 -0.375004 -0.626 203 211 234
0.327309 -0.375004 -0.626 157 167 202
0.341617 -0.375004 -0.626 190 192 213
0.352911 -0.375603 -0.627 191 200 215
0.354106 -0.375603 -0.627 186 195 210
0.3553 -0.375603 -0.627 189 197 216
0.368437 -0.375603 -0.627 193 192 208
0.369631 -0.375603 -0.627 178 184 210
0.374409 -0.375603 -0.627 131 159 198
0.386928 -0.375004 -0.626 189 187 209
0.38869 -0.374405 -0.625 188 191 208
0.394082 -0.375004 -0.626 109 119 144
0.404813 -0.375004 -0.626 124 135 163
0.406006 -0.375004 -0.626 65 89 151
0.411968 -0.375004 -0.626 153 163 190
0.414352 -0.375004 -0.626 106 122 156
0.427469 -0.375004 -0.626 184 183 191
0.453701 -0.375004 -0.626 179 175 190
0.456086 -0.375004 -0.626 176 173 192
0.460119 -0.374405 -0.625 67 80 132
0.464137 -0.373806 -0.624 112 121 160
0.458829 -0.363023 -0.606 119 94 97
0.430331 -0.32109 -0.536 151 99 85
0.434971 -0.316297 -0.528 155 103 81
0.440337 -0.315099 -0.526 162 107 87
0.460247 -0.315698 -0.527 165 115 92
0.467031 -0.316896 -0.529 155 107 85
0.08932 -0.27764 -0.462 202 160 148
0.0923 -0.273433 -0.455 196 158 149
0.105622 -0.269828 -0.449 190 147 138
0.128114 -0.274034 -0.456 143 103 95
0.131007 -0.274635 -0.457 138 97 91
0.140688 -0.280044 -0.466 111 86 81
0.144581 -0.282448 -0.47 106 82 78
0.232738 -0.375595 -0.625 222 224 245
0.239497 -0.374994 -0.624 204 215 245
0.246629 -0.374994 -0.624 152 169 212
0.285119 -0.375595 -0.625 224 229 251
0.302976 -0.375595 -0.625 219 222 241
0.317262 -0.375595 -0.625 162 180 218
0.323214 -0.375595 -0.625 205 212 231
0.326116 -0.376196 -0.626 199 204 226
0.357689 -0.376797 -0.627 151 157 189
0.406548 -0.375595 -0.625 44 74 138
0.424405 -0.375595 -0.625 179 181 196
0.447739 -0.376196 -0.626 179 182 191
0.451786 -0.375595 -0.625 171 169 180
0.460119 -0.375595 -0.625 59 71 119
0.42822 -0.329923 -0.549 147 99 85
0.429429 -0.324514 -0.54 145 98 82
0.430548 -0.32151 -0.535 155 104 87
0.432187 -0.319707 -0.532 162 109 91
0.432386 -0.319106 -0.531 162 110 89
0.439335 -0.316101 -0.526 162 107 87
0.458371 -0.316101 -0.526 166 114 90
0.103911 -0.270683 -0.449 193 151 139
0.111857 -0.271286 -0.45 174 131 114
0.115542 -0.271889 -0.451 161 115 100
0.122094 -0.273094 -0.453 150 108 94
0.130136 -0.275506 -0.457 139 99 91
0.134495 -0.277314 -0.46 136 95 91
0.155341 -0.291783 -0.484 98 76 78
0.279909 -0.376183 -0.624 213 216 233
0.300114 -0.376183 -0.624 163 169 193
0.302976 -0.376786 -0.625 210 211 229
0.308929 -0.376786 -0.625 156 174 214
0.322697 -0.376183 -0.624 208 213 233
0.33869 -0.376786 -0.625 198 196 218
0.346387 -0.377389 -0.626 162 177 208
0.360119 -0.376786 -0.625 190 197 215
0.381548 -0.376786 -0.625 168 186 222
0.405357 -0.376786 -0.625 40 71 135
0.410119 -0.376786 -0.625 149 164 197
0.431548 -0.376786 -0.625 118 123 143
0.441071 -0.376786 -0.625 81 107 158
0.445833 -0.376786 -0.625 148 165 221
0.451786 -0.376786 -0.625 180 178 191
0.454167 -0.376786 -0.625 178 176 197
0.463393 -0.37558 -0.623 149 157 193
0.437317 -0.343026 -0.569 141 95 80
0.42822 -0.330969 -0.549 154 107 91
0.427702 -0.329763 -0.547 153 106 90
0.427429 -0.327954 -0.544 149 102 84
0.429193 -0.326146 -0.541 149 100 83
0.429888 -0.324337 -0.538 149 98 81
0.43359 -0.319514 -0.53 166 111 90
0.4405 -0.3165 -0.525 163 108 87
0.4445 -0.3165 -0.525 164 110 86
0.447646 -0.315897 -0.524 166 114 90
0.465266 -0.317706 -0.527 155 107 84
0.0870552 -0.28061 -0.464 193 154 149
0.0929619 -0.274562 -0.454 197 157 147
0.101346 -0.271538 -0.449 189 149 139
0.110143 -0.272143 -0.45 174 131 114
0.133619 -0.27819 -0.46 130 91 84
0.140688 -0.281819 -0.466 103 82 77
0.266407 -0.376767 -0.623 222 230 249
0.269967 -0.376767 -0.623 221 229 248
0.287767 -0.376767 -0.623 219 226 244
0.300114 -0.377371 -0.624 201 205 230
0.308434 -0.377371 -0.624 160 175 214
0.319131 -0.377371 -0.624 180 193 228
0.335119 -0.377976 -0.625 137 147 172
0.33631 -0.377976 -0.625 164 168 193
0.341071 -0.377976 -0.625 176 184 207
0.350595 -0.377976 -0.625 168 175 219
0.372024 -0.377976 -0.625 105 123 169
0.375595 -0.377976 -0.625 124 155 202
0.383929 -0.377976 -0.625 188 190 205
0.396389 -0.377371 -0.624 53 73 123
0.421349 -0.377371 -0.624 178 180 203
0.463393 -0.376767 -0.623 160 165 195
0.4425 -0.3175 -0.525 169 115 91
0.447646 -0.316895 -0.524 168 114 90
0.507666 -0.336852 -0.557 149 104 81
0.0876743 -0.277853 -0.458 196 158 149
0.0927571 -0.27482 -0.453 196 155 149
0.099 -0.273 -0.45 189 146 137
0.104767 -0.272393 -0.449 187 143 130
0.10624 -0.271787 -0.448 187 143 130
0.153497 -0.293627 -0.484 94 74 76
0.26124 -0.377347 -0.622 197 206 239
0.262425 -0.377347 -0.622 151 160 193
0.268349 -0.377347 -0.622 224 232 251
0.274272 -0.377347 -0.622 190 192 215
0.3115 -0.377953 -0.623 158 177 220
0.32218 -0.377953 -0.623 209 215 239
0.364297 -0.37856 -0.624 195 195 221
0.371429 -0.37856 -0.624 103 122 165
0.380937 -0.37856 -0.624 157 185 232
0.391007 -0.377953 -0.623 190 185 208
0.401687 -0.377953 -0.623 156 172 195
0.42898 -0.377953 -0.623 135 137 150
0.428484 -0.332453 -0.548 152 104 90
0.427429 -0.330027 -0.544 155 106 91
0.452769 -0.317287 -0.523 161 111 88
0.462379 -0.319107 -0.526 159 108 87
0.493745 -0.330027 -0.544 147 102 83
0.0888333 -0.2769 -0.455 199 161 152
0.0927571 -0.275683 -0.453 198 155 148
0.118381 -0.275074 -0.452 154 111 95
0.122094 -0.275683 -0.453 150 104 89
0.129266 -0.278117 -0.457 137 99 86
0.147024 -0.289071 -0.475 91 70 69
0.161082 -0.301851 -0.496 139 123 126
0.276642 -0.378531 -0.622 174 180 204
0.280196 -0.378531 -0.622 202 209 235
0.28375 -0.378531 -0.622 219 226 245
0.290859 -0.378531 -0.622 173 176 207
0.303891 -0.378531 -0.622 145 156 184
0.32574 -0.37914 -0.623 206 213 229
0.347657 -0.379749 -0.624 168 186 210
0.351223 -0.379749 -0.624 122 142 192
0.354789 -0.379749 -0.624 87 109 159
0.358354 -0.379749 -0.624 191 196 218
0.39694 -0.37914 -0.623 126 138 162
0.399857 -0.378531 -0.622 173 180 209
0.42542 -0.37914 -0.623 174 179 198
0.426607 -0.37914 -0.623 178 181 196
0.42898 -0.37914 -0.623 174 182 203
0.46265 -0.378531 -0.622 172 172 196
0.463834 -0.378531 -0.622 171 171 195
0.4336 -0.3408 -0.56 149 103 88
0.4284 -0.328629 -0.54 156 107 93
0.436983 -0.321326 -0.528 170 113 93
0.446791 -0.318283 -0.523 174 116 94
0.452769 -0.318283 -0.523 172 118 92
0.477787 -0.32376 -0.532 157 111 88
0.0861171 -0.280209 -0.459 201 161 153
0.0872914 -0.278377 -0.456 200 160 152
0.0940657 -0.275325 -0.451 199 156 147
0.0949248 -0.275325 -0.451 199 156 147
0.104533 -0.273493 -0.448 183 137 124
0.10624 -0.273493 -0.448 179 133 120
0.109898 -0.274104 -0.449 174 128 115
0.116401 -0.275325 -0.451 158 112 97
0.125233 -0.277767 -0.455 144 102 88
0.154449 -0.297302 -0.487 100 81 83
0.230066 -0.379106 -0.621 191 195 222
0.23598 -0.379106 -0.621 223 226 243
0.25254 -0.379106 -0.621 191 200 231
0.270283 -0.379106 -0.621 210 215 237
0.304586 -0.379106 -0.621 137 155 193
0.318109 -0.379716 -0.622 165 180 213
0.328113 -0.380327 -0.623 208 211 228
0.3471 -0.380327 -0.623 173 187 213
0.396303 -0.379716 -0.622 151 162 182
0.401042 -0.379716 -0.622 167 183 199
0.405781 -0.379716 -0.622 112 124 164
0.412367 -0.380327 -0.623 179 181 206
0.434215 -0.379716 -0.622 109 130 177
0.445593 -0.380327 -0.623 155 160 180
0.452713 -0.380327 -0.623 137 139 164
0.457174 -0.379106 -0.621 175 174 190
0.436697 -0.344309 -0.564 150 104 91
0.451772 -0.319279 -0.523 169 115 89
0.453765 -0.319279 -0.523 169 115 89
0.459623 -0.31989 -0.524 165 115 90
0.484442 -0.327215 -0.536 153 105 85
0.0908305 -0.276796 -0.452 198 156 144
0.119242 -0.276796 -0.452 159 111 97
0.122094 -0.277409 -0.453 148 102 87
0.130706 -0.281083 -0.459 127 93 83
0.131867 -0.281695 -0.46 126 93 84
0.267917 -0.380289 -0.621 181 182 210
0.280929 -0.380289 -0.621 200 210 245
0.30222 -0.380289 -0.621 195 206 234
0.308134 -0.380289 -0.621 163 180 223
0.309317 -0.380289 -0.621 159 181 220
0.319963 -0.380289 -0.621 216 219 236
0.327587 -0.380901 -0.622 202 205 224
0.377347 -0.380901 -0.622 104 122 172
0.381471 -0.380289 -0.621 187 191 216
0.405129 -0.380289 -0.621 136 142 178
0.417629 -0.380901 -0.622 168 179 199
0.424737 -0.380901 -0.622 171 175 202
0.4347 -0.380289 -0.621 97 119 166
0.435883 -0.380289 -0.621 108 130 177
0.461906 -0.380289 -0.621 172 173 193
0.429786 -0.334972 -0.547 162 106 89
0.429888 -0.329461 -0.538 164 108 93
0.433397 -0.325174 -0.531 168 111 92
0.435977 -0.323337 -0.528 172 115 95
0.436983 -0.323337 -0.528 173 116 96
0.4445 -0.3215 -0.525 170 114 91
0.445795 -0.320275 -0.523 174 118 95
0.450909 -0.319663 -0.522 168 117 90
0.0838829 -0.289329 -0.471 190 149 143
0.0843686 -0.281957 -0.459 196 155 149
0.0996352 -0.275814 -0.449 187 144 135
0.107093 -0.2752 -0.448 176 133 117
0.11726 -0.277043 -0.451 155 111 98
0.22261 -0.380857 -0.62 232 239 255
0.225334 -0.381471 -0.621 215 216 236
0.227333 -0.380857 -0.62 230 228 249
0.229695 -0.380857 -0.62 239 242 255
0.309317 -0.381471 -0.621 146 168 207
0.322329 -0.381471 -0.621 210 217 236
0.341254 -0.381471 -0.621 94 116 173
0.352467 -0.382086 -0.622 162 179 209
0.359575 -0.382086 -0.622 196 198 223
0.36076 -0.382086 -0.622 193 195 220
0.376162 -0.382086 -0.622 116 134 184
0.377923 -0.381471 -0.621 129 148 191
0.407494 -0.381471 -0.621 181 186 206
0.422871 -0.381471 -0.621 140 144 179
0.42642 -0.381471 -0.621 96 102 118
0.428786 -0.381471 -0.621 160 168 181
0.439431 -0.381471 -0.621 83 109 158
0.466313 -0.380243 -0.619 173 172 190
0.430111 -0.329871 -0.537 164 108 91
0.432187 -0.3268 -0.532 168 113 93
0.4665 -0.3225 -0.525 163 113 88
0.472183 -0.324343 -0.528 155 113 89
0.0908305 -0.278518 -0.452 196 153 146
0.108188 -0.27667 -0.449 172 128 115
0.119242 -0.278518 -0.452 150 108 96
0.123229 -0.27975 -0.454 140 100 90
0.22261 -0.382038 -0.62 215 226 246
0.295829 -0.382038 -0.62 222 224 245
0.308819 -0.382038 -0.62 149 171 208
0.331791 -0.382654 -0.621 178 184 216
0.337706 -0.382654 -0.621 194 204 229
0.41814 -0.382654 -0.621 165 172 198
0.428095 -0.382038 -0.62 157 166 181
0.459204 -0.36725 -0.596 138 103 97
0.4284 -0.332743 -0.54 166 110 93
0.451037 -0.321035 -0.521 171 120 91
0.4675 -0.3235 -0.525 163 113 86
0.471289 -0.324732 -0.527 157 115 91
0.484557 -0.329662 -0.535 154 106 84
0.0853667 -0.281233 -0.455 199 159 151
0.08758 -0.279997 -0.453 203 160 153
0.0891086 -0.279379 -0.452 202 159 150
0.101973 -0.276907 -0.448 183 140 131
0.122364 -0.280615 -0.454 143 103 95
0.123229 -0.280615 -0.454 139 101 92
0.136843 -0.287414 -0.465 115 91 89
0.138321 -0.28865 -0.467 109 85 83
0.153521 -0.301012 -0.487 96 77 83
0.22379 -0.383219 -0.62 158 163 195
0.225788 -0.382601 -0.619 235 236 255
0.226967 -0.382601 -0.619 241 242 255
0.294648 -0.383219 -0.62 222 227 249
0.302914 -0.383219 -0.62 153 161 184
0.313037 -0.382601 -0.619 142 161 203
0.315395 -0.382601 -0.619 135 154 196
0.316574 -0.382601 -0.619 180 193 227
0.334157 -0.383837 -0.621 198 205 231
0.337706 -0.383837 -0.621 194 204 229
0.341254 -0.383837 -0.621 79 97 147
0.345986 -0.383837 -0.621 196 202 226
0.353083 -0.383837 -0.621 191 201 228
0.355449 -0.383837 -0.621 138 145 173
0.36018 -0.383837 -0.621 193 197 224
0.369643 -0.383837 -0.621 120 129 158
0.386762 -0.383219 -0.62 146 152 174
0.399752 -0.383219 -0.62 186 193 212
0.438724 -0.383219 -0.62 73 104 159
0.449352 -0.383219 -0.62 63 74 106
0.456881 -0.382601 -0.619 177 173 190
0.463955 -0.382601 -0.619 175 170 192
0.46556 -0.381983 -0.618 145 145 169
0.430828 -0.338098 -0.547 154 109 88
0.429089 -0.331917 -0.537 163 110 92
0.453022 -0.322028 -0.521 171 120 91
0.08262 -0.28458 -0.459 194 151 145
0.0882476 -0.28024 -0.452 199 154 148
0.095359 -0.27838 -0.449 192 149 142
0.101973 -0.27776 -0.448 178 134 125
0.105151 -0.27714 -0.447 173 127 114
0.109653 -0.27776 -0.448 168 122 109
0.113571 -0.279 -0.45 166 120 105
0.119506 -0.28086 -0.453 143 103 95
0.122364 -0.28148 -0.454 144 106 97
0.135957 -0.2883 -0.465 116 85 80
0.14431 -0.2945 -0.475 98 77 76
0.151354 -0.30132 -0.486 98 73 76
0.286634 -0.38316 -0.618 185 191 227
0.288989 -0.38316 -0.618 171 175 212
0.307142 -0.38378 -0.619 168 182 221
0.320771 -0.38316 -0.618 207 211 236
0.32247 -0.38378 -0.619 209 213 238
0.357814 -0.38502 -0.621 87 101 128
0.423371 -0.3844 -0.62 86 84 121
0.45806 -0.38378 -0.619 177 175 189
0.459239 -0.38378 -0.619 176 174 188
0.436582 -0.34534 -0.557 146 107 92
0.43633 -0.32612 -0.526 181 125 98
0.447068 -0.32302 -0.521 175 124 97
0.479923 -0.32922 -0.531 163 111 89
0.0897705 -0.280479 -0.451 199 156 149
0.0906295 -0.280479 -0.451 196 155 149
0.0962143 -0.279235 -0.449 193 150 143
0.109653 -0.278613 -0.448 164 120 109
0.114429 -0.279857 -0.45 162 118 105
0.116401 -0.280479 -0.451 160 116 103
0.119506 -0.281723 -0.453 143 102 96
0.126654 -0.28421 -0.457 132 95 87
0.127804 -0.284832 -0.458 134 95 88
0.152593 -0.302868 -0.487 99 77 79
0.161118 -0.312196 -0.502 166 162 177
0.290166 -0.384337 -0.618 188 192 229
0.304291 -0.384337 -0.618 164 175 207
0.316063 -0.384337 -0.618 185 194 225
0.31724 -0.384337 -0.618 205 214 245
0.344248 -0.385581 -0.62 199 205 229
0.345429 -0.385581 -0.62 201 203 228
0.365505 -0.385581 -0.62 178 179 200
0.382601 -0.384959 -0.619 180 181 209
0.386138 -0.384959 -0.619 80 91 119
0.39557 -0.384959 -0.619 191 194 209
0.439663 -0.384337 -0.618 100 125 182
0.443194 -0.384337 -0.618 71 95 155
0.44908 -0.384337 -0.618 142 160 196
0.450257 -0.384337 -0.618 161 166 185
0.452611 -0.384337 -0.618 118 112 124
0.458497 -0.384337 -0.618 178 176 187
0.460851 -0.384337 -0.618 159 154 174
0.466737 -0.384337 -0.618 103 113 149
0.43319 -0.342048 -0.55 148 106 90
0.444943 -0.324634 -0.522 176 125 98
0.467608 -0.325878 -0.524 167 116 89
0.0970695 -0.28009 -0.449 191 148 141
0.10112 -0.279467 -0.448 182 138 129
0.103449 -0.278843 -0.447 177 130 122
0.110753 -0.28009 -0.449 164 120 109
0.118381 -0.281962 -0.452 150 108 96
0.121499 -0.28321 -0.454 146 106 98
0.223069 -0.385514 -0.618 169 172 205
0.223883 -0.38489 -0.617 218 221 254
0.225058 -0.38489 -0.617 237 239 254
0.302624 -0.38489 -0.617 176 188 214
0.330723 -0.386138 -0.619 209 212 231
0.331902 -0.386138 -0.619 207 210 229
0.362557 -0.386138 -0.619 189 193 220
0.384959 -0.386138 -0.619 66 79 111
0.392033 -0.386138 -0.619 192 199 215
0.401466 -0.386138 -0.619 186 189 206
0.405003 -0.386138 -0.619 179 183 208
0.406182 -0.386138 -0.619 191 192 220
0.416793 -0.386138 -0.619 177 183 197
0.426226 -0.386138 -0.619 134 149 192
0.447903 -0.385514 -0.618 144 155 201
0.459674 -0.385514 -0.618 164 166 178
0.433449 -0.342471 -0.549 155 105 94
0.43076 -0.333114 -0.534 167 115 94
0.431984 -0.33249 -0.533 169 114 94
0.443949 -0.325629 -0.522 180 126 102
0.44819 -0.324381 -0.52 179 125 99
0.46284 -0.325629 -0.522 166 113 95
0.475304 -0.328748 -0.527 161 113 91
0.552352 -0.368048 -0.59 137 136 150
0.558167 -0.371167 -0.595 130 129 143
0.0880524 -0.282197 -0.451 197 152 146
0.123771 -0.285326 -0.456 137 100 92
0.135362 -0.291583 -0.466 118 85 76
0.147354 -0.301594 -0.482 90 74 75
0.220714 -0.386691 -0.618 181 190 221
0.296748 -0.386066 -0.617 213 219 255
0.33372 -0.386691 -0.618 209 210 231
0.340783 -0.386691 -0.618 192 197 216
0.347846 -0.386691 -0.618 199 206 222
0.378451 -0.386691 -0.618 172 191 224
0.392577 -0.386691 -0.618 195 193 206
0.398463 -0.386691 -0.618 186 191 210
0.39964 -0.386691 -0.618 181 186 205
0.411411 -0.386691 -0.618 179 185 201
0.442357 -0.352277 -0.563 143 106 100
0.430111 -0.336009 -0.537 167 114 96
0.430331 -0.335383 -0.536 168 116 95
0.44409 -0.325997 -0.521 181 127 103
0.445083 -0.325997 -0.521 180 126 102
0.450171 -0.325371 -0.52 175 121 97
0.466715 -0.327249 -0.523 163 115 93
0.469604 -0.327874 -0.524 160 112 90
0.0812114 -0.286194 -0.456 192 147 142
0.0904286 -0.282429 -0.45 197 154 145
0.0970695 -0.281801 -0.449 187 143 134
0.105151 -0.280546 -0.447 173 125 115
0.113571 -0.282429 -0.45 162 118 109
0.216831 -0.387241 -0.617 222 233 255
0.309675 -0.387241 -0.617 151 169 207
0.31085 -0.387241 -0.617 148 166 204
0.336706 -0.387241 -0.617 205 213 226
0.365503 -0.387869 -0.618 166 169 188
0.385514 -0.387869 -0.618 152 166 205
0.404349 -0.387869 -0.618 150 157 186
0.422498 -0.387241 -0.617 146 160 197
0.426714 -0.387869 -0.618 36 65 123
0.435426 -0.387241 -0.617 34 66 127
0.457755 -0.387241 -0.617 125 120 126
0.463631 -0.387241 -0.617 150 156 180
0.468747 -0.386613 -0.616 152 156 183
0.431814 -0.340797 -0.543 165 113 99
0.440966 -0.327617 -0.522 184 130 106
0.445219 -0.326362 -0.52 181 127 103
0.451162 -0.326362 -0.52 176 122 98
0.453143 -0.326362 -0.52 176 122 98
0.463938 -0.32699 -0.521 166 117 87
0.08172 -0.285804 -0.454 192 147 141
0.0902276 -0.282656 -0.449 197 153 144
0.0977067 -0.282027 -0.448 183 136 128
0.114429 -0.283286 -0.45 158 114 105
0.137127 -0.295247 -0.469 104 79 74
0.21648 -0.387787 -0.616 227 235 254
0.308 -0.387787 -0.616 142 160 210
0.320907 -0.387787 -0.616 113 123 159
0.326129 -0.388416 -0.617 201 208 236
0.341407 -0.388416 -0.617 199 201 222
0.363736 -0.388416 -0.617 140 150 185
0.366087 -0.388416 -0.617 116 134 182
0.370788 -0.388416 -0.617 69 102 169
0.38019 -0.388416 -0.617 89 116 169
0.390767 -0.388416 -0.617 127 122 129
0.413096 -0.388416 -0.617 180 179 195
0.416622 -0.388416 -0.617 117 114 121
0.417797 -0.388416 -0.617 129 120 121
0.442933 -0.387787 -0.616 47 79 138
0.451879 -0.388416 -0.617 183 176 192
0.439765 -0.350645 -0.557 142 107 101
0.432386 -0.334277 -0.531 175 120 100
0.434971 -0.332389 -0.528 183 128 107
0.436667 -0.32987 -0.524 181 129 107
0.440966 -0.328611 -0.522 183 129 105
0.444229 -0.327352 -0.52 183 129 105
0.44819 -0.327352 -0.52 178 124 100
0.460076 -0.327352 -0.52 162 115 85
0.078419 -0.290457 -0.46 188 143 137
0.0830819 -0.285406 -0.452 201 156 150
0.0848038 -0.285406 -0.452 200 155 149
0.0919381 -0.283511 -0.449 192 148 139
0.0927933 -0.283511 -0.449 192 148 139
0.0962143 -0.283511 -0.449 188 141 133
0.0994133 -0.28288 -0.448 183 136 128
0.308 -0.38896 -0.616 120 142 200
0.309173 -0.38896 -0.616 121 146 200
0.324427 -0.38896 -0.616 193 200 226
0.32912 -0.38896 -0.616 174 175 180
0.331467 -0.38896 -0.616 206 210 213
0.33264 -0.38896 -0.616 212 216 219
0.346108 -0.389591 -0.617 199 203 228
0.348458 -0.389591 -0.617 199 204 223
0.361973 -0.38896 -0.616 86 96 132
0.37488 -0.38896 -0.616 79 115 173
0.391307 -0.38896 -0.616 117 110 117
0.418293 -0.38896 -0.616 181 171 170
0.42064 -0.38896 -0.616 177 172 179
0.44528 -0.38896 -0.616 50 83 136
0.457013 -0.38896 -0.616 106 103 112
0.431567 -0.337814 -0.535 168 115 97
0.432581 -0.334657 -0.53 171 119 98
0.438977 -0.329606 -0.522 185 130 109
0.441113 -0.328974 -0.521 185 131 107
0.0951467 -0.283733 -0.448 189 145 136
0.0968533 -0.283733 -0.448 184 137 127
0.110507 -0.283733 -0.448 168 120 110
0.140394 -0.3002 -0.474 97 81 81
0.305157 -0.3895 -0.615 128 144 196
0.321557 -0.3895 -0.615 163 173 209
0.322729 -0.3895 -0.615 190 200 236
0.336786 -0.3895 -0.615 187 194 212
0.339129 -0.3895 -0.615 139 145 167
0.344373 -0.390133 -0.616 189 193 218
0.34672 -0.390133 -0.616 191 196 215
0.360214 -0.3895 -0.615 96 108 146
0.42416 -0.390133 -0.616 61 88 141
0.443386 -0.3895 -0.615 63 91 138
0.454667 -0.390133 -0.616 181 179 193
0.470733 -0.388867 -0.614 168 166 179
0.452093 -0.363533 -0.574 132 103 99
0.431937 -0.340733 -0.538 165 112 96
0.432386 -0.3363 -0.531 171 119 98
