ply
format ascii 1.0
comment Created by Open3D
element vertex 1299
property double x
property double y
property double z
property uchar red
property uchar green
property uchar blue
end_header
0.179694 -0.43797 -0.577 204 207 224
0.191451 -0.437211 -0.576 205 208 223
0.212297 -0.437211 -0.576 189 200 232
0.215589 -0.437211 -0.576 204 210 222
0.367452 -0.436452 -0.575 182 185 200
0.383881 -0.436452 -0.575 134 151 177
0.384976 -0.436452 -0.575 163 180 206
0.429881 -0.436452 -0.575 158 163 182
0.437548 -0.436452 -0.575 165 168 183
0.447086 -0.437211 -0.576 112 121 136
0.44928 -0.437211 -0.576 121 134 150
0.450377 -0.437211 -0.576 151 155 167
0.47232 -0.437211 -0.576 110 121 139
0.475881 -0.436452 -0.575 88 98 123
0.466252 -0.415199 -0.547 147 111 99
0.452113 -0.387873 -0.511 164 117 97
0.458449 -0.381801 -0.503 167 119 97
0.467143 -0.379524 -0.5 173 123 100
0.470961 -0.378765 -0.499 172 122 97
0.471911 -0.378765 -0.499 172 122 97
0.495673 -0.378765 -0.499 161 115 91
0.0346229 -0.333297 -0.438 196 151 120
0.0531971 -0.329492 -0.433 192 148 121
0.103339 -0.345472 -0.454 123 88 84
0.111802 -0.353082 -0.464 103 79 79
0.11544 -0.356126 -0.468 95 77 77
0.124402 -0.366779 -0.482 89 70 72
0.341167 -0.437548 -0.575 206 209 216
0.373373 -0.436787 -0.574 176 178 203
0.38868 -0.436787 -0.574 196 197 218
0.422573 -0.436787 -0.574 173 179 193
0.42476 -0.436787 -0.574 172 176 188
0.432413 -0.436787 -0.574 78 85 101
0.441929 -0.437548 -0.575 169 168 186
0.452606 -0.392651 -0.516 166 121 102
0.452906 -0.390369 -0.513 164 117 97
0.453171 -0.388086 -0.51 167 116 99
0.45552 -0.38352 -0.504 170 122 100
0.458493 -0.381998 -0.502 168 120 98
0.460443 -0.381237 -0.501 167 120 94
0.465238 -0.380476 -0.5 174 124 101
0.469048 -0.380476 -0.5 174 124 101
0.48706 -0.378193 -0.497 170 120 95
0.513363 -0.387325 -0.509 147 106 84
0.0423771 -0.329554 -0.432 196 153 121
0.0456686 -0.329554 -0.432 195 152 120
0.0556714 -0.330317 -0.433 187 141 115
0.0624133 -0.33108 -0.434 192 148 121
0.0667 -0.331843 -0.435 192 146 122
0.0848733 -0.334894 -0.439 157 114 97
0.102249 -0.345574 -0.453 126 89 83
0.113171 -0.355491 -0.466 99 79 78
0.114304 -0.356254 -0.467 97 77 76
0.12781 -0.372274 -0.488 89 70 74
0.1725 -0.438643 -0.575 198 205 221
0.341667 -0.43788 -0.574 170 176 176
0.38212 -0.43788 -0.574 96 106 131
0.447405 -0.438643 -0.575 154 154 162
0.4485 -0.438643 -0.575 157 157 165
0.458357 -0.438643 -0.575 148 151 156
0.471367 -0.42186 -0.553 134 113 96
0.461655 -0.410417 -0.538 153 115 94
0.4545 -0.4005 -0.525 161 119 97
0.460406 -0.382954 -0.502 170 122 99
0.465238 -0.381429 -0.5 172 124 101
0.475713 -0.380666 -0.499 170 120 93
0.476664 -0.380666 -0.499 169 119 92
0.485194 -0.379903 -0.498 175 125 98
0.505395 -0.383717 -0.503 153 112 90
0.533482 -0.399737 -0.524 150 108 86
0.037461 -0.423678 -0.554 191 150 120
0.0368714 -0.332671 -0.435 198 154 127
0.0376133 -0.331907 -0.434 198 154 127
0.0857095 -0.33573 -0.439 153 109 100
0.08946 -0.33726 -0.441 148 103 97
0.0903 -0.33726 -0.441 149 106 99
0.0955714 -0.341084 -0.446 139 99 91
0.100079 -0.344908 -0.451 130 93 87
0.101162 -0.345672 -0.452 128 93 87
0.1725 -0.439738 -0.575 207 213 227
0.174994 -0.440503 -0.576 189 200 218
0.194405 -0.439738 -0.575 178 194 219
0.394551 -0.438209 -0.573 171 177 191
0.419654 -0.438209 -0.573 143 161 197
0.438973 -0.438973 -0.574 167 172 175
0.440067 -0.438973 -0.574 170 173 180
0.455071 -0.439738 -0.575 111 115 116
0.459452 -0.439738 -0.575 150 153 158
0.471773 -0.438973 -0.574 96 108 132
0.478591 -0.438209 -0.573 41 61 98
0.453765 -0.39997 -0.523 162 119 100
0.452906 -0.392323 -0.513 166 117 100
0.46426 -0.383146 -0.501 170 123 97
0.471911 -0.381616 -0.499 172 122 95
0.485167 -0.380087 -0.497 176 126 99
0.493687 -0.380087 -0.497 157 113 88
0.503386 -0.383146 -0.501 150 109 87
0.52941 -0.397676 -0.52 152 110 88
0.572487 -0.422913 -0.553 198 191 183
0.032879 -0.335033 -0.437 192 152 117
0.0391762 -0.331967 -0.433 198 154 125
0.0514286 -0.3312 -0.432 192 147 118
0.0683571 -0.3335 -0.435 186 140 114
0.0749857 -0.3335 -0.435 177 129 107
0.0838457 -0.3358 -0.438 160 114 99
0.0913467 -0.338867 -0.442 146 103 96
0.232333 -0.440067 -0.574 201 204 223
0.3629 -0.4393 -0.573 205 206 224
0.469192 -0.420133 -0.548 145 107 94
0.465088 -0.415533 -0.542 147 109 96
0.465238 -0.383333 -0.5 170 123 97
0.477606 -0.3818 -0.498 171 121 94
0.478554 -0.3818 -0.498 170 120 93
0.486986 -0.3795 -0.495 168 121 95
0.49558 -0.381033 -0.497 158 114 89
0.513277 -0.3887 -0.507 148 107 85
0.0355419 -0.428094 -0.557 189 155 120
0.0305905 -0.338171 -0.44 192 148 121
0.0431 -0.331254 -0.431 196 154 116
0.0496676 -0.331254 -0.431 192 147 114
0.0555429 -0.332023 -0.432 188 143 112
0.0716714 -0.334329 -0.435 183 136 110
0.07848 -0.335097 -0.436 170 124 101
0.0828219 -0.335866 -0.437 163 118 99
0.0855143 -0.336634 -0.438 155 109 94
0.10821 -0.353543 -0.46 107 81 80
0.115933 -0.361229 -0.47 93 77 77
0.118726 -0.364303 -0.474 90 76 76
0.1394 -0.391971 -0.51 92 81 89
0.171107 -0.44116 -0.574 210 213 228
0.381878 -0.439623 -0.572 189 193 202
0.440391 -0.440391 -0.573 168 171 178
0.442574 -0.440391 -0.573 162 167 173
0.443666 -0.440391 -0.573 167 174 184
0.458653 -0.44116 -0.574 155 155 163
0.465213 -0.44116 -0.574 96 104 123
0.4644 -0.415029 -0.54 144 105 88
0.45281 -0.395046 -0.514 164 119 98
0.4545 -0.388129 -0.505 166 121 98
0.460406 -0.385823 -0.502 169 122 96
0.46426 -0.385054 -0.501 171 125 101
0.486043 -0.380443 -0.495 170 120 95
0.488871 -0.380443 -0.495 167 120 92
0.566275 -0.420409 -0.547 193 175 161
0.0513095 -0.332075 -0.431 191 146 113
0.0614448 -0.333616 -0.433 191 146 117
0.0811571 -0.336698 -0.437 163 116 96
0.103567 -0.350567 -0.455 123 88 84
0.117326 -0.363665 -0.472 94 78 78
0.13557 -0.38755 -0.503 90 75 78
0.146221 -0.40373 -0.524 191 192 212
0.19482 -0.441483 -0.573 187 195 216
0.340476 -0.440712 -0.572 204 204 216
0.341566 -0.440712 -0.572 195 201 213
0.343745 -0.440712 -0.572 177 189 203
0.451608 -0.440712 -0.572 139 139 147
0.461274 -0.411434 -0.534 151 109 93
0.45436 -0.399107 -0.518 161 118 99
0.453589 -0.397566 -0.516 164 119 98
0.453087 -0.393713 -0.511 167 119 97
0.455462 -0.38909 -0.505 168 122 99
0.45648 -0.38832 -0.504 166 120 96
0.46426 -0.386009 -0.501 172 124 101
0.493586 -0.381386 -0.495 161 115 89
0.5112 -0.38832 -0.504 154 110 85
0.572515 -0.424532 -0.551 201 188 180
0.0290457 -0.341392 -0.442 187 148 119
0.0296848 -0.339075 -0.439 187 148 119
0.03348 -0.335213 -0.434 191 150 120
0.03744 -0.333669 -0.432 190 147 115
0.0454571 -0.332124 -0.43 196 151 120
0.0571886 -0.333669 -0.432 186 141 108
0.07316 -0.335213 -0.434 174 127 101
0.100079 -0.348344 -0.451 129 90 85
0.174387 -0.443347 -0.574 211 212 230
0.365984 -0.44103 -0.571 162 174 196
0.433416 -0.44103 -0.571 167 171 174
0.438854 -0.44103 -0.571 165 168 177
0.450518 -0.441802 -0.572 141 148 166
0.451608 -0.441802 -0.572 146 148 161
0.463311 -0.442574 -0.573 147 151 162
0.46904 -0.441802 -0.572 28 47 89
0.470961 -0.385418 -0.499 173 126 98
0.491648 -0.381556 -0.494 162 118 91
0.032359 -0.431277 -0.557 194 153 125
0.0310714 -0.336814 -0.435 193 149 120
0.0318267 -0.33604 -0.434 194 150 121
0.0373533 -0.333717 -0.431 190 149 119
0.07316 -0.33604 -0.434 174 125 108
0.0741571 -0.336814 -0.435 174 125 108
0.0794924 -0.338363 -0.437 166 117 103
0.101386 -0.350751 -0.453 125 90 86
0.104892 -0.353849 -0.457 117 83 81
0.110918 -0.359269 -0.464 99 79 80
0.13611 -0.391014 -0.505 93 78 83
0.174083 -0.443666 -0.573 210 211 229
0.340969 -0.442117 -0.571 195 202 218
0.479343 -0.441343 -0.57 18 39 82
0.459407 -0.389466 -0.503 169 125 98
0.467143 -0.387143 -0.5 173 127 101
0.470017 -0.385594 -0.498 170 125 96
0.483214 -0.383271 -0.495 171 121 94
0.490707 -0.382497 -0.494 164 117 91
0.499307 -0.384046 -0.496 155 113 88
0.0333257 -0.335314 -0.432 195 151 124
0.0348905 -0.334538 -0.431 193 152 122
0.0462762 -0.333762 -0.43 194 151 117
0.0529514 -0.334538 -0.431 189 144 111
0.0715067 -0.336867 -0.434 177 129 107
0.0819895 -0.339195 -0.437 161 115 100
0.087581 -0.341524 -0.44 152 108 97
0.102474 -0.35239 -0.454 118 87 85
0.117574 -0.367138 -0.473 93 73 74
0.12374 -0.3749 -0.483 88 72 75
0.12688 -0.378781 -0.488 88 72 75
0.13611 -0.391976 -0.505 82 71 75
0.139947 -0.39741 -0.512 85 83 94
0.174869 -0.443981 -0.572 211 213 228
0.231119 -0.443205 -0.571 174 200 235
0.367514 -0.442429 -0.57 199 205 219
0.444292 -0.443205 -0.571 97 115 139
0.454081 -0.443205 -0.571 149 153 164
0.459519 -0.443205 -0.571 150 156 156
0.467132 -0.443205 -0.571 50 65 98
0.470395 -0.443205 -0.571 25 50 90
0.461573 -0.412933 -0.532 149 111 98
0.455347 -0.402067 -0.518 161 119 97
0.455265 -0.394305 -0.508 167 121 98
0.45749 -0.390424 -0.503 167 121 97
0.468095 -0.388095 -0.5 173 127 101
0.4757 -0.385767 -0.497 173 123 98
0.486896 -0.382662 -0.493 169 122 94
0.487835 -0.382662 -0.493 170 123 95
0.497357 -0.384214 -0.495 155 113 88
0.500251 -0.38499 -0.496 156 114 89
0.504166 -0.386543 -0.498 156 112 87
0.02664 -0.345474 -0.444 193 153 127
0.043819 -0.334581 -0.43 195 152 118
0.0513095 -0.335359 -0.431 188 143 112
0.0596571 -0.336137 -0.432 190 143 113
0.0647438 -0.336915 -0.433 191 147 112
0.0811571 -0.340028 -0.437 161 115 100
0.0838457 -0.340806 -0.438 156 110 97
0.10161 -0.353255 -0.454 119 90 86
0.1027 -0.354033 -0.455 116 87 83
0.103794 -0.354811 -0.456 113 85 82
0.122311 -0.374264 -0.481 89 73 74
0.12374 -0.37582 -0.483 88 72 73
0.12714 -0.380489 -0.489 88 72 73
0.134345 -0.390604 -0.502 84 68 69
0.456874 -0.406166 -0.522 162 117 94
0.455452 -0.402275 -0.517 164 118 94
0.455114 -0.396829 -0.51 167 122 99
0.463333 -0.389048 -0.5 172 125 99
0.467143 -0.389048 -0.5 175 128 102
0.47001 -0.38827 -0.499 171 124 96
0.474743 -0.385935 -0.496 171 121 96
0.476632 -0.385935 -0.496 173 123 98
0.480356 -0.384379 -0.494 169 119 92
0.5041 -0.386713 -0.497 150 112 91
0.568357 -0.424062 -0.545 194 175 160
0.02852 -0.33852 -0.434 191 150 122
0.029279 -0.33774 -0.433 192 151 123
0.0332486 -0.33618 -0.431 194 153 125
0.0723333 -0.33852 -0.434 173 124 107
0.0793105 -0.34008 -0.436 166 118 104
0.080141 -0.34008 -0.436 164 116 102
0.08778 -0.34398 -0.441 152 108 95
0.10161 -0.35412 -0.454 116 87 83
0.105122 -0.35724 -0.458 111 83 80
0.122311 -0.37518 -0.481 90 72 70
0.17565 -0.44538 -0.571 206 211 230
0.36687 -0.44382 -0.569 202 206 217
0.426479 -0.44382 -0.569 165 168 173
0.437317 -0.44382 -0.569 164 164 174
0.465229 -0.4446 -0.57 82 97 116
0.4674 -0.4446 -0.57 41 60 92
0.460986 -0.41262 -0.529 152 111 91
0.456424 -0.3939 -0.505 166 122 97
0.45945 -0.39156 -0.502 168 122 98
0.483179 -0.38532 -0.494 173 124 94
0.485909 -0.38376 -0.492 167 120 90
0.486846 -0.38376 -0.492 168 121 91
0.49253 -0.38454 -0.493 171 125 99
0.503086 -0.38688 -0.496 153 112 92
0.0323524 -0.336219 -0.43 194 153 125
0.0356286 -0.336219 -0.43 193 149 122
0.0412657 -0.335437 -0.429 197 153 124
0.0487333 -0.336219 -0.43 187 142 111
0.0495524 -0.336219 -0.43 187 142 111
0.0629486 -0.337783 -0.432 190 145 116
0.07316 -0.339347 -0.434 172 123 108
0.0811571 -0.341692 -0.437 164 116 104
0.09944 -0.353421 -0.452 120 89 84
0.115283 -0.368277 -0.471 94 75 71
0.132857 -0.390952 -0.5 84 66 64
0.145223 -0.409718 -0.524 173 184 204
0.168829 -0.445686 -0.57 203 210 226
0.217686 -0.445686 -0.57 127 144 172
0.227457 -0.445686 -0.57 136 160 194
0.447071 -0.444904 -0.569 150 158 169
0.470657 -0.445686 -0.57 86 105 138
0.458625 -0.409718 -0.524 158 116 94
0.4554 -0.395644 -0.506 165 119 95
0.461397 -0.391734 -0.501 166 120 94
0.463333 -0.390952 -0.5 171 124 98
0.02478 -0.34566 -0.441 189 152 126
0.0292114 -0.338606 -0.432 191 149 124
0.0562352 -0.337822 -0.431 188 143 114
0.06048 -0.338606 -0.432 188 143 114
0.0783 -0.340957 -0.435 170 121 107
0.09944 -0.354282 -0.452 120 89 84
0.116673 -0.370742 -0.473 93 74 70
0.136918 -0.398175 -0.508 88 74 74
0.44304 -0.445204 -0.568 149 153 165
0.477661 -0.445204 -0.568 55 80 120
0.475959 -0.431879 -0.551 126 103 97
0.456424 -0.395824 -0.505 168 122 96
0.462381 -0.391905 -0.5 171 124 98
0.47001 -0.391121 -0.499 173 123 96
0.470017 -0.390337 -0.498 177 127 100
0.480323 -0.386418 -0.493 170 121 89
0.485909 -0.385634 -0.492 172 123 90
0.489657 -0.385634 -0.492 170 123 93
0.49528 -0.385634 -0.492 164 119 90
0.496217 -0.385634 -0.492 162 117 88
0.50694 -0.389553 -0.497 152 111 89
1.01037 -0.442069 -0.564 140 141 136
1.02978 -0.44442 -0.567 124 125 119
0.0307143 -0.337857 -0.43 193 151 126
0.0347286 -0.337071 -0.429 189 148 120
0.0537724 -0.338643 -0.431 190 145 116
0.0721667 -0.340214 -0.433 172 123 109
0.080141 -0.342571 -0.436 166 117 103
0.0972857 -0.353571 -0.45 125 90 84
0.098361 -0.354357 -0.451 124 89 83
0.107567 -0.362214 -0.461 103 77 76
0.114143 -0.369286 -0.47 96 75 72
0.212969 -0.447071 -0.569 159 165 181
0.227058 -0.447071 -0.569 150 169 201
0.229226 -0.447071 -0.569 165 177 199
0.432221 -0.446286 -0.568 179 178 186
0.4455 -0.4455 -0.567 168 171 178
0.447368 -0.446286 -0.568 169 172 179
0.463329 -0.447071 -0.569 83 94 116
0.469543 -0.424286 -0.54 135 108 99
0.459623 -0.411714 -0.524 155 117 96
0.456086 -0.400714 -0.51 167 121 95
0.456424 -0.396786 -0.505 170 123 97
0.484034 -0.386571 -0.492 174 125 92
0.492403 -0.385786 -0.491 166 119 91
0.494273 -0.385786 -0.491 163 118 89
0.9964 -0.443143 -0.564 147 148 142
1.00247 -0.443929 -0.565 132 134 129
0.0238857 -0.346552 -0.44 189 152 125
0.0252714 -0.342614 -0.435 188 151 122
0.0307143 -0.338676 -0.43 193 154 125
0.0347286 -0.337889 -0.429 192 151 123
0.07316 -0.341827 -0.434 171 122 108
0.0766429 -0.342614 -0.435 170 118 104
0.0840371 -0.345765 -0.439 157 109 97
0.10425 -0.36073 -0.458 107 82 78
0.11692 -0.373331 -0.474 92 73 69
0.119728 -0.376482 -0.478 93 73 72
0.172086 -0.448943 -0.57 195 202 220
0.43362 -0.44658 -0.567 183 182 196
0.450613 -0.447368 -0.568 168 171 176
0.473333 -0.447368 -0.568 64 84 121
0.476579 -0.447368 -0.568 52 75 109
0.458095 -0.409562 -0.52 158 116 92
0.4563 -0.399323 -0.507 165 119 93
0.458493 -0.395385 -0.502 169 122 96
0.46906 -0.393022 -0.499 173 123 96
0.470017 -0.392234 -0.498 178 128 101
0.470967 -0.391447 -0.497 175 125 98
0.501921 -0.388296 -0.493 153 113 88
0.511831 -0.393022 -0.499 146 109 83
0.512782 -0.393022 -0.499 144 107 81
0.932519 -0.445005 -0.565 194 196 182
0.952354 -0.444217 -0.564 180 182 171
0.96139 -0.44343 -0.563 166 168 157
0.992387 -0.445792 -0.566 133 134 128
0.0306429 -0.338706 -0.429 192 151 121
0.0428 -0.337916 -0.428 192 149 117
0.0520095 -0.339495 -0.43 191 144 116
0.0537724 -0.340285 -0.431 192 145 119
0.0739867 -0.342653 -0.434 169 120 105
0.08778 -0.34818 -0.441 146 102 91
0.135415 -0.399499 -0.506 94 76 76
0.139243 -0.405026 -0.513 107 97 105
0.216922 -0.44845 -0.568 140 163 195
0.43254 -0.44766 -0.567 183 182 198
0.44148 -0.44687 -0.566 173 176 183
0.4671 -0.44766 -0.567 131 140 157
0.47358 -0.44766 -0.567 72 88 124
0.47466 -0.44766 -0.567 73 91 127
0.4779 -0.44766 -0.567 71 91 124
0.474743 -0.391604 -0.496 175 125 98
0.476614 -0.390814 -0.495 173 123 96
0.50781 -0.391604 -0.496 144 108 82
0.578792 -0.432659 -0.548 197 192 189
0.956809 -0.44687 -0.566 156 158 147
0.982473 -0.449239 -0.569 108 109 104
0.0250971 -0.341897 -0.432 191 152 123
0.0274381 -0.340314 -0.43 190 149 121
0.0411695 -0.338731 -0.428 192 149 117
0.0621257 -0.341897 -0.432 182 137 108
0.0647438 -0.342689 -0.433 184 137 111
0.0655686 -0.342689 -0.433 185 137 114
0.0793105 -0.345063 -0.436 166 117 103
0.0830114 -0.346646 -0.438 153 109 96
0.0848733 -0.347437 -0.439 151 107 96
0.087979 -0.349811 -0.442 146 104 92
0.0940829 -0.353769 -0.447 134 96 87
0.10425 -0.362474 -0.458 105 80 76
0.23166 -0.44874 -0.567 183 194 212
0.44148 -0.447949 -0.566 176 179 186
0.46818 -0.44874 -0.567 120 128 147
0.463131 -0.417874 -0.528 150 109 89
0.457328 -0.400463 -0.506 166 125 97
0.461397 -0.396506 -0.501 175 130 101
0.481262 -0.390174 -0.493 174 123 94
0.503799 -0.390174 -0.493 150 110 85
0.508754 -0.392549 -0.496 143 107 85
0.940247 -0.451906 -0.571 177 177 167
0.985474 -0.452697 -0.572 108 108 106
0.0273743 -0.34034 -0.429 189 148 118
0.0305714 -0.339547 -0.428 192 151 119
0.0313867 -0.339547 -0.428 192 151 119
0.0346476 -0.339547 -0.428 195 154 122
0.0544667 -0.341133 -0.43 192 145 119
0.0655686 -0.343513 -0.433 185 139 113
0.0748133 -0.344307 -0.434 168 119 104
0.0774714 -0.3451 -0.435 167 118 104
0.08694 -0.34986 -0.441 146 104 92
0.0909143 -0.35224 -0.444 137 99 88
0.098579 -0.358587 -0.452 116 85 82
0.103151 -0.362553 -0.457 109 81 78
0.121648 -0.382387 -0.482 94 74 73
0.447949 -0.449027 -0.566 175 176 181
0.453339 -0.449027 -0.566 160 165 169
0.46494 -0.44982 -0.567 146 147 151
0.47142 -0.44982 -0.567 69 84 115
0.473823 -0.449027 -0.566 71 91 124
0.474901 -0.449027 -0.566 68 88 121
0.459969 -0.413327 -0.521 160 116 91
0.458493 -0.398253 -0.502 171 127 100
0.469069 -0.39508 -0.498 178 131 103
0.476592 -0.391907 -0.494 168 119 89
0.478445 -0.391113 -0.493 176 127 97
0.48305 -0.389527 -0.491 175 126 96
0.484921 -0.389527 -0.491 173 123 96
0.494123 -0.38794 -0.489 163 116 88
0.497933 -0.388733 -0.49 160 115 86
0.515633 -0.395873 -0.499 144 109 87
0.536029 -0.407773 -0.514 143 105 82
0.979401 -0.452993 -0.571 118 113 110
0.987827 -0.455373 -0.574 114 110 111
0.02142 -0.3507 -0.441 186 145 117
0.0265571 -0.341157 -0.429 191 150 120
0.0321267 -0.339567 -0.427 193 152 120
0.0394467 -0.339567 -0.427 190 146 117
0.0452457 -0.340362 -0.428 188 143 114
0.0494371 -0.341157 -0.429 187 142 113
0.0528286 -0.341952 -0.43 189 144 115
0.059519 -0.342748 -0.431 184 136 113
0.0688676 -0.344338 -0.433 176 128 108
0.0774714 -0.345929 -0.435 166 117 103
0.07848 -0.346724 -0.436 165 116 102
0.0811571 -0.347519 -0.437 158 110 100
0.091119 -0.353881 -0.445 137 99 88
0.114386 -0.374557 -0.471 96 75 72
0.121648 -0.383305 -0.482 95 75 74
0.130167 -0.395233 -0.497 92 74 74
0.233408 -0.450105 -0.566 87 100 144
0.434243 -0.44931 -0.565 179 181 193
0.436395 -0.44931 -0.565 179 182 191
0.438548 -0.44931 -0.565 178 181 190
0.445005 -0.44931 -0.565 174 174 182
0.450105 -0.450105 -0.566 170 170 178
0.457651 -0.450105 -0.566 61 76 107
0.472986 -0.44931 -0.565 73 93 126
0.47729 -0.44931 -0.565 72 92 119
0.473347 -0.431019 -0.542 130 102 88
0.460851 -0.415114 -0.522 156 114 89
0.459191 -0.412729 -0.519 158 116 91
0.458449 -0.400005 -0.503 171 125 101
0.460443 -0.398414 -0.501 174 127 101
0.477506 -0.392052 -0.493 174 125 95
0.486733 -0.389667 -0.49 174 124 97
0.488465 -0.388076 -0.488 171 124 94
0.495986 -0.388871 -0.489 161 116 85
0.505677 -0.392052 -0.493 148 112 88
0.527763 -0.403186 -0.507 145 105 79
0.88903 -0.446924 -0.562 183 183 173
0.0305 -0.34038 -0.427 196 155 123
0.0410733 -0.34038 -0.427 189 145 116
0.0418867 -0.34038 -0.427 190 146 117
0.0552857 -0.342771 -0.43 191 144 118
0.061161 -0.343569 -0.431 183 136 110
0.0850667 -0.350743 -0.44 150 103 95
0.10425 -0.365091 -0.458 107 83 79
0.1078 -0.36828 -0.462 98 77 72
0.46412 -0.451183 -0.566 149 149 151
0.479669 -0.449589 -0.564 61 77 102
0.471753 -0.42966 -0.539 137 104 89
0.45945 -0.400166 -0.502 172 126 102
0.460443 -0.399369 -0.501 175 128 102
0.465238 -0.398571 -0.5 170 123 97
0.490247 -0.388209 -0.487 162 115 85
0.87142 -0.447197 -0.561 195 196 182
0.0328629 -0.340394 -0.426 190 147 113
0.046061 -0.341992 -0.428 187 142 111
0.0774714 -0.347586 -0.435 164 115 101
0.125277 -0.390734 -0.489 90 72 68
0.138266 -0.409911 -0.513 90 100 127
0.230843 -0.451462 -0.565 79 106 159
0.231919 -0.451462 -0.565 145 163 201
0.47752 -0.450663 -0.564 86 100 127
0.459391 -0.413108 -0.517 154 113 91
0.4572 -0.405916 -0.508 164 122 98
0.466209 -0.398725 -0.499 170 124 98
0.470964 -0.396328 -0.496 174 127 99
0.47377 -0.39473 -0.494 172 125 97
0.492102 -0.389136 -0.487 165 119 86
0.49303 -0.389136 -0.487 162 116 83
0.49683 -0.389935 -0.488 167 118 85
0.49878 -0.390734 -0.489 164 115 82
0.868214 -0.448266 -0.561 184 184 172
0.0218562 -0.346812 -0.433 190 149 119
0.0443267 -0.342007 -0.427 190 145 114
0.0803248 -0.350016 -0.437 157 111 95
0.0975019 -0.36123 -0.451 117 85 86
0.098579 -0.36203 -0.452 116 84 85
0.1219 -0.38686 -0.483 92 74 74
0.123583 -0.389263 -0.486 92 74 74
0.125277 -0.391666 -0.489 91 73 73
0.172729 -0.452538 -0.565 203 206 225
0.448514 -0.451737 -0.564 150 154 166
0.458449 -0.402879 -0.503 170 124 100
0.462381 -0.400476 -0.5 170 124 100
0.480245 -0.393268 -0.491 175 128 100
0.4858 -0.392467 -0.49 171 122 90
0.48574 -0.391666 -0.489 169 120 88
0.49776 -0.390865 -0.488 161 115 82
0.504467 -0.392467 -0.49 144 108 82
0.58292 -0.43732 -0.546 190 191 185
0.850667 -0.448533 -0.56 181 181 171
0.854323 -0.449334 -0.561 179 179 169
0.0225762 -0.346031 -0.431 191 150 118
0.0305 -0.34282 -0.427 195 154 122
0.0336743 -0.342017 -0.426 184 143 111
0.04514 -0.34282 -0.427 190 145 114
0.0644448 -0.346031 -0.431 179 133 109
0.0713419 -0.347637 -0.433 168 121 101
0.0890219 -0.355666 -0.443 138 98 86
0.0921733 -0.358074 -0.446 133 95 86
0.113489 -0.378146 -0.471 94 74 73
0.166566 -0.454417 -0.566 107 127 164
0.1695 -0.453614 -0.565 156 170 205
0.446647 -0.452009 -0.563 137 143 159
0.464629 -0.452811 -0.564 155 159 168
0.465703 -0.452811 -0.564 137 141 150
0.474534 -0.434346 -0.541 128 101 92
0.469073 -0.39902 -0.497 172 125 97
0.484867 -0.3934 -0.49 176 127 95
0.49674 -0.390991 -0.487 160 115 84
0.840431 -0.450403 -0.561 169 172 163
0.850493 -0.451206 -0.562 159 160 152
0.859057 -0.451206 -0.562 148 149 141
0.0352143 -0.342024 -0.425 189 146 114
0.0385429 -0.342829 -0.426 191 147 118
0.0510714 -0.345243 -0.429 186 140 114
0.0652657 -0.346852 -0.431 176 128 105
0.0705171 -0.348462 -0.433 168 121 101
0.07564 -0.349267 -0.434 158 116 94
0.095359 -0.361338 -0.449 121 90 87
0.0987971 -0.364557 -0.453 118 87 85
0.114871 -0.380652 -0.473 93 72 71
0.119066 -0.385481 -0.479 94 74 75
0.473456 -0.453081 -0.563 116 128 152
0.474529 -0.453081 -0.563 116 128 152
0.467031 -0.425719 -0.529 137 106 86
0.4645 -0.4225 -0.525 141 110 90
0.460376 -0.416062 -0.517 152 110 88
0.460365 -0.404795 -0.503 168 120 97
0.467159 -0.401576 -0.499 174 126 103
0.473786 -0.398357 -0.495 172 127 98
0.4756 -0.395943 -0.492 176 129 101
0.479267 -0.394333 -0.49 177 128 98
0.492017 -0.391114 -0.486 164 117 89
0.507267 -0.394333 -0.49 155 114 86
0.537767 -0.411233 -0.511 144 108 82
0.571266 -0.432157 -0.537 189 176 159
0.57865 -0.436181 -0.542 195 193 181
0.0263714 -0.34364 -0.426 195 152 120
0.0271829 -0.34364 -0.426 195 152 120
0.0409771 -0.34364 -0.426 191 146 115
0.0483933 -0.344447 -0.427 185 140 111
0.0527057 -0.34606 -0.429 185 139 113
0.0569238 -0.346867 -0.43 179 132 106
0.116262 -0.383167 -0.475 92 74 74
0.445574 -0.454153 -0.563 148 162 189
0.447719 -0.454153 -0.563 116 132 158
0.475565 -0.436407 -0.541 130 98 85
0.461267 -0.417853 -0.518 150 107 88
0.458291 -0.408173 -0.506 166 116 91
0.4719 -0.3993 -0.495 172 125 99
0.474689 -0.397687 -0.493 173 126 98
0.475628 -0.397687 -0.493 175 128 102
0.476537 -0.39688 -0.492 173 123 96
0.476504 -0.396073 -0.491 173 123 96
0.478374 -0.396073 -0.491 176 127 97
0.483 -0.395267 -0.49 175 128 100
0.831883 -0.45254 -0.561 125 125 117
0.838718 -0.453347 -0.562 121 122 116
0.0187714 -0.354154 -0.438 190 147 115
0.0209343 -0.348494 -0.431 184 147 120
0.0368333 -0.343643 -0.425 192 147 118
0.0376429 -0.343643 -0.425 192 147 118
0.0384524 -0.343643 -0.425 191 146 117
0.0492067 -0.34526 -0.427 186 141 112
0.0577429 -0.347686 -0.43 179 133 107
0.061019 -0.347686 -0.43 179 131 108
0.06624 -0.349303 -0.432 173 126 100
0.101189 -0.368709 -0.456 113 85 82
0.172117 -0.455226 -0.563 201 205 216
0.45737 -0.455226 -0.563 131 132 127
0.460588 -0.455226 -0.563 163 163 165
0.471545 -0.454417 -0.562 104 120 154
0.460406 -0.405903 -0.502 165 119 95
0.469073 -0.40186 -0.497 171 124 96
0.47375 -0.398626 -0.493 172 125 97
0.487389 -0.392966 -0.486 168 121 93
0.490081 -0.392157 -0.485 162 115 85
0.498497 -0.392966 -0.486 163 117 91
0.503233 -0.393774 -0.487 162 116 90
0.583893 -0.439863 -0.544 196 193 186
0.809067 -0.4528 -0.56 153 154 146
0.850078 -0.457651 -0.566 120 119 115
0.85914 -0.45846 -0.567 112 111 107
0.870841 -0.460077 -0.569 118 114 111
0.0239933 -0.346073 -0.427 194 150 121
0.0360238 -0.344452 -0.425 191 146 115
0.0400714 -0.344452 -0.425 189 144 113
0.04514 -0.346073 -0.427 186 141 112
0.0459533 -0.346073 -0.427 187 142 113
0.0628029 -0.349315 -0.431 179 132 106
0.0955714 -0.364714 -0.45 120 89 86
0.108267 -0.376061 -0.464 98 76 78
0.117907 -0.387408 -0.478 91 71 70
0.12579 -0.397944 -0.491 90 71 73
0.167051 -0.457109 -0.564 135 155 205
0.43758 -0.454677 -0.561 129 154 194
0.438649 -0.454677 -0.561 139 159 196
0.458443 -0.456298 -0.563 135 136 131
0.466192 -0.455488 -0.562 73 90 116
0.468333 -0.455488 -0.562 69 85 121
0.466223 -0.403617 -0.498 168 121 93
0.477439 -0.397944 -0.491 174 125 95
0.482014 -0.396323 -0.489 176 129 99
0.501274 -0.393891 -0.486 164 117 89
0.578571 -0.437657 -0.54 193 189 180
0.79591 -0.453056 -0.559 136 135 130
0.807306 -0.454677 -0.561 127 126 121
0.810886 -0.455488 -0.562 130 130 122
0.811956 -0.455488 -0.562 127 127 119
0.82052 -0.455488 -0.562 118 118 110
0.824403 -0.454677 -0.561 116 116 108
0.831225 -0.455488 -0.562 117 117 109
0.846844 -0.45873 -0.566 119 120 115
0.868029 -0.461971 -0.57 120 120 112
0.869114 -0.461971 -0.57 123 123 115
0.02318 -0.346887 -0.427 192 149 117
0.0239371 -0.346074 -0.426 193 150 118
0.0247486 -0.346074 -0.426 194 151 119
0.02556 -0.346074 -0.426 195 152 120
0.0459533 -0.346887 -0.427 188 143 112
0.0561048 -0.349324 -0.43 180 133 107
0.0705171 -0.351761 -0.433 169 123 97
0.0881781 -0.359885 -0.443 136 100 88
0.0977181 -0.367196 -0.452 117 87 85
0.102281 -0.371258 -0.457 106 82 82
0.109621 -0.37857 -0.466 96 78 78
0.115114 -0.385069 -0.474 92 72 71
0.449334 -0.455746 -0.561 41 73 124
0.46084 -0.456558 -0.562 165 166 171
0.462981 -0.456558 -0.562 155 161 161
0.477117 -0.455746 -0.561 59 79 114
0.4784 -0.454933 -0.56 64 84 119
0.4816 -0.454933 -0.56 69 84 107
0.477476 -0.44031 -0.542 124 101 95
0.460103 -0.41269 -0.508 160 114 90
0.470014 -0.402129 -0.495 171 126 95
0.472829 -0.401316 -0.494 172 125 95
0.490914 -0.393192 -0.484 166 119 91
0.495524 -0.393192 -0.484 165 118 90
0.503126 -0.394817 -0.486 163 116 88
0.801963 -0.455746 -0.561 108 108 106
0.82627 -0.45737 -0.563 118 115 110
0.831631 -0.45737 -0.563 119 118 113
0.84294 -0.46062 -0.567 119 118 113
0.866289 -0.46387 -0.571 117 117 109
0.872164 -0.464682 -0.572 120 120 110
0.882214 -0.467119 -0.575 125 125 115
0.0223667 -0.3477 -0.427 190 147 113
0.0492067 -0.3477 -0.427 184 139 108
0.06624 -0.351771 -0.432 174 128 102
0.0723333 -0.3534 -0.434 165 121 96
0.0833905 -0.358286 -0.44 139 101 90
0.09238 -0.363986 -0.447 128 93 89
0.4432 -0.456 -0.56 51 77 136
0.456814 -0.456814 -0.561 165 164 162
0.457883 -0.456814 -0.561 164 163 169
0.461089 -0.456814 -0.561 163 162 167
0.477333 -0.456 -0.56 60 84 122
0.464829 -0.425057 -0.522 139 103 91
0.460219 -0.412029 -0.506 158 112 88
0.460365 -0.409586 -0.503 163 119 94
0.461323 -0.409586 -0.503 164 119 96
0.469073 -0.4047 -0.497 171 126 97
0.471888 -0.402257 -0.494 171 124 94
0.476467 -0.399 -0.49 171 122 92
0.489992 -0.394114 -0.484 170 124 91
0.49358 -0.3933 -0.483 165 118 88
0.510889 -0.398186 -0.489 148 111 84
0.827052 -0.460071 -0.565 115 116 108
0.84483 -0.463329 -0.569 119 120 112
0.855 -0.464143 -0.57 115 116 110
0.856086 -0.464143 -0.57 116 117 111
0.863448 -0.465771 -0.572 124 124 116
0.865627 -0.465771 -0.572 126 126 118
0.866716 -0.465771 -0.572 126 126 118
0.875213 -0.4674 -0.574 127 127 117
0.878929 -0.468214 -0.575 127 130 119
0.0163057 -0.358308 -0.439 190 146 117
0.0176914 -0.352594 -0.432 187 146 118
0.0223143 -0.347697 -0.426 190 147 112
0.0302857 -0.346065 -0.424 193 150 116
0.0310933 -0.346065 -0.424 195 152 118
0.0375543 -0.346065 -0.424 188 143 110
0.0400714 -0.346881 -0.425 186 141 110
0.0426 -0.347697 -0.426 185 140 109
0.0483933 -0.348513 -0.427 185 140 109
0.0509524 -0.34933 -0.428 180 135 104
0.0525829 -0.34933 -0.428 180 135 106
0.0569238 -0.350962 -0.43 180 133 105
0.0602 -0.350962 -0.43 180 133 107
0.0628029 -0.351778 -0.431 178 131 103
0.0636238 -0.351778 -0.431 175 130 101
0.0823648 -0.358308 -0.439 139 99 89
0.0945038 -0.36647 -0.449 122 89 82
0.44 -0.457067 -0.56 89 115 176
0.458951 -0.457883 -0.561 164 163 169
0.460943 -0.416257 -0.51 153 111 89
0.462381 -0.408095 -0.5 167 121 98
0.470014 -0.404014 -0.495 173 126 100
0.476467 -0.399933 -0.49 172 122 95
0.47922 -0.399117 -0.489 180 131 101
0.51182 -0.399117 -0.489 147 113 88
0.80911 -0.461964 -0.566 101 101 99
0.810189 -0.461964 -0.566 100 100 98
0.8289 -0.46278 -0.567 119 118 113
0.82998 -0.46278 -0.567 117 118 112
0.83106 -0.46278 -0.567 115 116 110
0.85909 -0.466861 -0.572 113 114 109
0.862358 -0.466861 -0.572 116 117 111
0.0170971 -0.445044 -0.544 185 146 117
0.0270552 -0.346872 -0.424 194 151 116
0.0585619 -0.351781 -0.43 177 130 102
0.0626571 -0.351781 -0.43 177 130 102
0.07866 -0.357508 -0.437 153 107 94
0.09238 -0.365689 -0.447 127 92 88
0.09344 -0.366507 -0.448 123 90 85
0.0945038 -0.367325 -0.449 121 88 83
0.107151 -0.378778 -0.463 95 73 75
0.1085 -0.380414 -0.465 95 73 75
0.109856 -0.38205 -0.467 93 73 72
0.11122 -0.383687 -0.469 92 72 71
0.12974 -0.40823 -0.499 89 71 71
0.437085 -0.457315 -0.559 42 74 131
0.456 -0.458133 -0.56 165 169 170
0.457067 -0.458133 -0.56 167 166 171
0.460267 -0.458133 -0.56 165 160 164
0.461333 -0.458133 -0.56 157 161 164
0.464533 -0.458133 -0.56 68 92 116
0.467963 -0.457315 -0.559 53 76 118
0.475416 -0.457315 -0.559 42 65 106
0.47348 -0.436863 -0.534 128 98 87
0.470054 -0.432772 -0.529 130 100 89
0.465029 -0.42541 -0.52 137 104 89
0.4626 -0.420501 -0.514 146 109 91
0.462351 -0.409866 -0.501 164 117 97
0.46813 -0.405775 -0.496 172 124 101
0.470957 -0.404957 -0.495 174 127 101
0.481029 -0.39923 -0.488 180 130 103
0.48731 -0.396776 -0.485 173 126 96
0.494394 -0.394322 -0.482 169 124 93
0.514733 -0.400867 -0.49 146 109 80
0.83469 -0.464678 -0.568 119 118 113
0.849284 -0.46795 -0.572 119 120 114
0.863866 -0.468769 -0.573 93 95 90
0.86756 -0.469587 -0.574 128 130 125
0.871262 -0.470405 -0.575 108 109 103
0.877166 -0.471223 -0.576 103 104 98
0.878263 -0.471223 -0.576 106 107 101
0.89142 -0.475313 -0.581 102 105 98
0.0175686 -0.35178 -0.429 187 146 114
0.0206914 -0.34932 -0.426 190 150 115
0.0222619 -0.3485 -0.425 191 148 114
0.0517676 -0.35096 -0.428 182 137 106
0.0636238 -0.35342 -0.431 179 132 104
0.0678857 -0.35424 -0.432 169 124 95
0.0723333 -0.35588 -0.434 165 120 99
0.0776495 -0.35752 -0.436 152 108 95
0.0968571 -0.37064 -0.452 115 84 81
0.0979343 -0.37146 -0.453 112 82 80
0.10604 -0.37884 -0.462 97 76 75
0.115357 -0.3895 -0.475 93 73 74
0.445603 -0.45838 -0.559 47 80 131
0.446668 -0.45838 -0.559 76 109 160
0.453056 -0.45838 -0.559 172 173 175
0.465833 -0.45838 -0.559 56 82 117
0.483069 -0.45756 -0.558 106 119 135
0.466223 -0.40836 -0.498 165 117 95
0.471851 -0.40344 -0.492 174 126 103
0.481898 -0.39934 -0.487 181 131 104
0.48907 -0.39688 -0.484 172 125 97
0.49818 -0.39606 -0.483 165 122 90
0.512632 -0.40016 -0.488 149 109 83
0.515667 -0.4018 -0.49 147 110 83
0.581552 -0.44116 -0.538 197 188 181
0.821696 -0.46822 -0.571 79 78 74
0.822429 -0.4674 -0.57 112 113 108
0.834371 -0.4674 -0.57 124 123 118
0.837629 -0.4674 -0.57 130 129 124
0.873874 -0.47232 -0.576 99 102 95
0.878689 -0.47314 -0.577 102 105 98
0.882413 -0.47396 -0.578 102 103 95
0.0160019 -0.445472 -0.542 185 146 115
0.0286029 -0.347666 -0.423 193 150 116
0.05002 -0.350953 -0.427 181 136 105
0.0533981 -0.351775 -0.428 181 136 107
0.0542133 -0.351775 -0.428 179 134 105
0.437366 -0.458623 -0.558 45 75 137
0.46051 -0.459445 -0.559 146 153 169
0.466063 -0.458623 -0.558 51 79 126
0.465123 -0.426569 -0.519 139 103 91
0.461323 -0.413418 -0.503 158 121 95
0.466223 -0.409309 -0.498 162 116 92
0.46718 -0.408487 -0.497 168 120 97
0.470006 -0.406021 -0.494 173 123 100
0.484538 -0.398624 -0.485 174 129 98
0.49174 -0.39698 -0.483 171 126 95
0.49266 -0.39698 -0.483 171 126 95
0.497149 -0.396158 -0.482 163 120 88
0.828583 -0.47013 -0.572 120 119 115
0.831851 -0.47013 -0.572 123 122 118
0.83621 -0.47013 -0.572 128 129 123
0.87759 -0.474239 -0.577 99 102 95
0.0286029 -0.348471 -0.423 193 150 115
0.0367467 -0.349295 -0.424 183 138 107
0.0542133 -0.35259 -0.428 180 135 106
0.0576086 -0.353414 -0.429 181 134 106
0.0636238 -0.355062 -0.431 179 131 108
0.0644448 -0.355062 -0.431 176 128 105
0.0652657 -0.355062 -0.431 173 125 103
0.0670629 -0.355886 -0.432 169 121 99
0.0823648 -0.361652 -0.439 143 99 90
0.443743 -0.459686 -0.558 34 62 125
0.451991 -0.46051 -0.559 143 148 167
0.452246 -0.459686 -0.558 150 155 174
0.455434 -0.459686 -0.558 168 167 175
0.459686 -0.459686 -0.558 139 152 168
0.46282 -0.420967 -0.511 148 110 87
0.470006 -0.406962 -0.494 171 124 98
0.470932 -0.406138 -0.493 170 123 97
0.471871 -0.406138 -0.493 171 124 98
0.471851 -0.405314 -0.492 171 124 98
0.477357 -0.402843 -0.489 172 122 95
0.48276 -0.400371 -0.486 173 126 98
0.483686 -0.400371 -0.486 174 127 97
0.493369 -0.396252 -0.481 167 122 91
0.519525 -0.40449 -0.491 151 110 82
0.585713 -0.444033 -0.539 202 199 192
0.848973 -0.472867 -0.574 101 104 95
0.850067 -0.472867 -0.574 100 103 94
0.853738 -0.47369 -0.575 101 104 95
0.858514 -0.474514 -0.576 106 109 100
0.0350486 -0.349277 -0.423 187 142 111
0.0644448 -0.355883 -0.431 173 125 102
0.0696924 -0.357534 -0.433 170 122 102
0.0723333 -0.35836 -0.434 167 115 101
0.0766429 -0.359186 -0.435 153 106 96
0.0904743 -0.368269 -0.446 130 89 85
0.0925867 -0.36992 -0.448 125 87 84
0.10141 -0.377351 -0.457 102 78 78
0.107614 -0.383957 -0.465 98 75 69
0.123162 -0.402949 -0.488 88 67 74
0.124854 -0.405426 -0.491 89 67 69
0.466063 -0.460749 -0.558 30 61 105
0.47902 -0.459923 -0.557 34 64 102
0.462038 -0.419463 -0.508 149 112 86
0.461323 -0.415334 -0.503 154 117 91
0.462351 -0.413683 -0.501 159 117 93
0.463357 -0.412031 -0.499 164 120 95
0.467185 -0.409554 -0.496 168 123 94
0.4899 -0.39882 -0.483 170 123 93
0.502657 -0.397994 -0.482 154 113 83
0.512383 -0.401297 -0.486 151 107 80
0.835119 -0.474786 -0.575 121 120 116
0.842037 -0.473134 -0.573 103 104 96
0.84788 -0.47396 -0.574 82 83 75
0.0309467 -0.349255 -0.422 189 145 110
0.0425 -0.351738 -0.425 184 137 107
0.044119 -0.351738 -0.425 184 137 107
0.0508333 -0.353393 -0.427 181 136 107
0.0854533 -0.365808 -0.442 133 92 86
0.0949248 -0.373256 -0.451 118 83 79
0.0970714 -0.374911 -0.453 110 80 78
0.10141 -0.378222 -0.457 99 78 75
0.102505 -0.37905 -0.458 98 77 72
0.465287 -0.411327 -0.497 162 116 92
0.4746 -0.405533 -0.49 175 130 101
0.47731 -0.403878 -0.488 175 130 101
0.498866 -0.398085 -0.481 154 111 79
0.51728 -0.403878 -0.488 152 111 83
0.8395 -0.475881 -0.575 107 108 102
0.8446 -0.475053 -0.574 101 102 96
0.885887 -0.480847 -0.581 20 23 14
0.0182143 -0.352548 -0.425 188 145 110
0.0334371 -0.350889 -0.423 187 144 109
0.0550286 -0.355036 -0.428 180 133 105
0.0766429 -0.360843 -0.435 154 108 95
0.07866 -0.362502 -0.437 152 106 93
0.441093 -0.461215 -0.556 39 65 126
0.449566 -0.461215 -0.556 55 85 135
0.45674 -0.462045 -0.557 145 155 164
0.468629 -0.461215 -0.556 33 61 108
0.470747 -0.461215 -0.556 31 63 110
0.480278 -0.461215 -0.556 73 93 126
0.479076 -0.446284 -0.538 114 94 83
0.462195 -0.41891 -0.505 153 112 92
0.463357 -0.413932 -0.499 161 116 95
0.463377 -0.413103 -0.498 162 117 96
0.478188 -0.403978 -0.487 174 129 100
0.49062 -0.399001 -0.481 171 125 92
0.498743 -0.398171 -0.48 160 117 85
0.501486 -0.398171 -0.48 159 115 86
0.503447 -0.399001 -0.481 159 115 86
0.505279 -0.399001 -0.481 158 114 85
0.50922 -0.40066 -0.483 156 112 83
0.836517 -0.480294 -0.579 43 47 46
0.836925 -0.478635 -0.577 116 121 115
0.842413 -0.476147 -0.574 98 99 91
0.854126 -0.477806 -0.576 100 103 96
0.860005 -0.478635 -0.577 113 114 108
0.871809 -0.480294 -0.579 83 85 80
0.874014 -0.480294 -0.579 119 121 116
0.88146 -0.481953 -0.581 103 104 99
0.0229086 -0.350863 -0.422 188 143 110
0.03666 -0.351694 -0.423 187 142 109
0.0391695 -0.352526 -0.424 186 141 108
0.0449286 -0.353357 -0.425 183 136 106
0.0652657 -0.358346 -0.431 168 122 96
0.0723333 -0.36084 -0.434 160 115 96
0.0739867 -0.36084 -0.434 154 109 90
0.076819 -0.362503 -0.436 152 108 95
0.0896248 -0.370817 -0.446 130 89 85
0.10054 -0.379963 -0.457 99 78 73
0.110327 -0.38994 -0.469 97 74 68
0.120309 -0.402411 -0.484 92 73 66
0.13052 -0.417377 -0.502 87 75 75
0.472014 -0.461443 -0.555 40 73 118
0.464326 -0.414051 -0.498 162 117 94
0.470914 -0.409063 -0.492 168 122 96
0.472763 -0.408231 -0.491 172 126 100
0.473667 -0.4074 -0.49 171 126 97
0.47731 -0.405737 -0.488 174 127 99
0.479115 -0.404906 -0.487 172 125 95
0.585516 -0.445646 -0.536 178 171 163
0.839067 -0.482229 -0.58 79 83 82
0.839123 -0.479734 -0.577 119 118 113
0.847543 -0.478903 -0.576 100 103 96
0.850834 -0.478903 -0.576 30 33 26
0.0189343 -0.3525 -0.423 187 143 106
0.0244581 -0.350833 -0.421 188 145 111
0.0260619 -0.350833 -0.421 190 147 113
0.0308733 -0.350833 -0.421 187 144 109
0.0508333 -0.355833 -0.427 181 136 103
0.07866 -0.364167 -0.437 145 101 88
0.0805086 -0.365 -0.438 142 98 87
0.0825524 -0.366667 -0.44 138 95 86
0.0896248 -0.371667 -0.446 129 88 84
0.121982 -0.405833 -0.487 92 72 73
0.129048 -0.416667 -0.5 82 73 78
0.132524 -0.421667 -0.506 89 94 116
0.446643 -0.4625 -0.555 98 124 157
0.484514 -0.463333 -0.556 130 133 140
0.485573 -0.463333 -0.556 123 126 133
0.463274 -0.418333 -0.502 153 111 87
0.468129 -0.4125 -0.495 169 122 96
0.471851 -0.41 -0.492 170 123 95
0.48705 -0.401667 -0.482 177 131 98
0.496791 -0.399167 -0.479 164 121 89
0.498743 -0.4 -0.48 165 122 90
0.500571 -0.4 -0.48 161 117 88
0.519003 -0.405833 -0.487 148 107 77
0.522066 -0.4075 -0.489 146 107 76
0.839826 -0.4825 -0.579 118 122 121
0.844251 -0.48 -0.576 105 108 101
0.851212 -0.480833 -0.577 33 36 29
0.0117848 -0.449358 -0.538 186 143 109
0.0260619 -0.351635 -0.421 189 146 111
0.0550286 -0.357482 -0.428 177 130 100
0.07316 -0.362493 -0.434 157 112 91
0.0906771 -0.373351 -0.447 125 84 80
0.0927933 -0.375022 -0.449 121 87 78
0.108967 -0.390056 -0.467 99 75 71
0.441357 -0.463557 -0.555 37 68 123
0.446643 -0.463557 -0.555 136 158 181
0.452986 -0.463557 -0.555 160 166 178
0.486632 -0.464392 -0.556 128 126 129
0.4632 -0.42096 -0.504 158 110 90
0.470932 -0.411772 -0.493 165 118 90
0.472763 -0.410102 -0.491 172 125 97
0.478188 -0.406761 -0.487 171 122 92
0.486131 -0.402585 -0.482 174 129 96
0.490514 -0.400914 -0.48 176 129 99
0.494967 -0.400079 -0.479 168 121 91
0.504229 -0.400914 -0.48 159 114 81
0.0104286 -0.366669 -0.438 188 143 110
0.0196933 -0.353274 -0.422 188 144 107
0.044119 -0.355786 -0.425 183 138 105
0.0449286 -0.355786 -0.425 181 136 105
0.0652657 -0.360809 -0.431 168 122 98
0.0721667 -0.362483 -0.433 157 112 93
0.0739867 -0.36332 -0.434 153 110 93
0.0805086 -0.366669 -0.438 140 96 85
0.0877286 -0.372529 -0.445 137 92 87
0.0898257 -0.374203 -0.447 131 86 81
0.093 -0.376714 -0.45 114 85 79
0.0951352 -0.378389 -0.452 109 82 73
0.13507 -0.428617 -0.512 159 157 179
0.460386 -0.464614 -0.555 143 156 175
0.479414 -0.464614 -0.555 70 85 106
0.482586 -0.464614 -0.555 135 139 150
0.475877 -0.444523 -0.531 117 95 82
0.473296 -0.441174 -0.527 121 97 85
0.464829 -0.426943 -0.51 146 105 87
0.46718 -0.41606 -0.497 163 117 94
0.469065 -0.413549 -0.494 165 119 93
0.476332 -0.407689 -0.487 173 123 96
0.479057 -0.406851 -0.486 153 107 74
0.481695 -0.405177 -0.484 173 126 96
0.487871 -0.402666 -0.481 168 121 93
0.494054 -0.400991 -0.479 170 125 94
0.844237 -0.484706 -0.579 120 119 115
0.84388 -0.483869 -0.578 125 127 122
0.889877 -0.494751 -0.591 111 116 110
0.00875905 -0.453925 -0.541 186 142 107
0.0180857 -0.354078 -0.422 188 144 109
0.0406886 -0.354917 -0.423 183 138 105
0.0473571 -0.356595 -0.425 182 135 105
0.0540867 -0.358273 -0.427 176 129 103
0.0652657 -0.36163 -0.431 168 122 99
0.0815286 -0.368342 -0.439 138 94 85
0.467786 -0.465671 -0.555 58 89 135
0.468843 -0.465671 -0.555 56 87 133
0.483455 -0.46651 -0.556 129 133 142
0.469077 -0.435466 -0.519 128 101 90
0.465676 -0.429592 -0.512 145 107 88
0.469993 -0.41365 -0.493 166 119 93
0.476332 -0.408616 -0.487 174 124 97
0.488788 -0.403582 -0.481 167 120 92
0.58199 -0.444695 -0.53 72 66 68
0.847503 -0.488326 -0.582 121 121 119
0.0110314 -0.360769 -0.429 187 144 112
0.011821 -0.359928 -0.428 188 145 113
0.0705171 -0.364132 -0.433 158 112 96
0.0996695 -0.384315 -0.457 103 78 73
0.101854 -0.385997 -0.459 101 78 72
0.108077 -0.392725 -0.467 97 77 70
0.114693 -0.400293 -0.476 91 72 74
0.11773 -0.404498 -0.481 86 71 68
0.122483 -0.411226 -0.489 81 65 65
0.466729 -0.466729 -0.555 83 104 133
0.482396 -0.46757 -0.556 103 107 116
0.469993 -0.41459 -0.493 168 121 95
0.470914 -0.413749 -0.492 167 120 92
0.473667 -0.412067 -0.49 169 122 94
0.473631 -0.411226 -0.489 170 123 95
0.480773 -0.407021 -0.484 172 123 93
0.48254 -0.40618 -0.483 174 125 95
0.489492 -0.402816 -0.479 174 125 95
0.493023 -0.401975 -0.478 172 125 95
0.511692 -0.404498 -0.481 157 114 82
0.54455 -0.422158 -0.502 139 104 76
0.00771429 -0.455143 -0.54 172 129 94
0.00878 -0.370014 -0.439 184 141 107
0.0125476 -0.358214 -0.425 189 146 114
0.0156743 -0.355686 -0.422 192 149 115
0.026 -0.354 -0.42 188 145 110
0.0406886 -0.356529 -0.423 183 138 107
0.0465476 -0.358214 -0.425 182 135 105
0.0507143 -0.359057 -0.426 180 133 105
0.0540867 -0.3599 -0.427 173 126 100
0.0776495 -0.367486 -0.436 148 101 91
0.0898257 -0.376757 -0.447 121 86 80
0.127839 -0.420586 -0.499 82 70 70
0.446643 -0.467786 -0.555 115 133 145
0.460386 -0.467786 -0.555 133 133 141
0.467786 -0.467786 -0.555 108 120 134
0.485386 -0.469471 -0.557 118 119 124
0.48981 -0.468629 -0.556 113 102 96
0.464991 -0.427329 -0.507 153 108 85
0.465274 -0.419743 -0.498 159 113 90
0.46624 -0.418057 -0.496 163 116 88
0.469054 -0.415529 -0.493 168 121 93
0.470892 -0.413843 -0.491 167 120 92
0.473592 -0.411314 -0.488 170 123 95
0.483377 -0.406257 -0.482 170 123 93
0.49926 -0.402043 -0.477 165 119 86
0.504859 -0.402886 -0.478 160 115 82
0.51551 -0.406257 -0.482 150 107 75
0.53291 -0.415529 -0.493 143 103 78
0.586123 -0.447557 -0.531 70 64 66
0.589346 -0.449243 -0.533 67 65 66
0.00946286 -0.364937 -0.432 187 144 112
0.0156743 -0.35649 -0.422 192 147 114
0.0212 -0.3548 -0.42 193 149 114
0.0316752 -0.355645 -0.421 184 139 106
0.0356848 -0.355645 -0.421 183 138 105
0.0389848 -0.35649 -0.422 183 138 107
0.0464381 -0.358179 -0.424 181 134 106
0.0515257 -0.359869 -0.426 179 132 104
0.0608771 -0.362403 -0.429 172 124 101
0.0634762 -0.363248 -0.43 167 120 100
0.09088 -0.378453 -0.448 120 85 79
0.116329 -0.404641 -0.479 89 71 67
0.42818 -0.467153 -0.553 165 178 187
0.4551 -0.468843 -0.555 145 143 146
0.469688 -0.469688 -0.556 135 141 141
0.465214 -0.423226 -0.501 143 96 76
0.465274 -0.420691 -0.498 159 113 90
0.476224 -0.40971 -0.485 176 126 99
0.4807 -0.40802 -0.483 174 125 95
0.48162 -0.40802 -0.483 174 125 95
0.48254 -0.40802 -0.483 172 125 95
0.498351 -0.402951 -0.477 165 116 83
0.503803 -0.402951 -0.477 163 117 84
0.50577 -0.403796 -0.478 162 116 83
0.509565 -0.404641 -0.479 162 117 84
0.529667 -0.413933 -0.49 146 104 80
0.0140667 -0.357293 -0.422 191 146 113
0.018 -0.3556 -0.42 193 148 115
0.0456305 -0.358987 -0.424 181 134 106
0.0574743 -0.362373 -0.428 174 127 101
0.0669076 -0.364913 -0.431 155 107 87
0.0889743 -0.37846 -0.447 120 90 79
0.10098 -0.38862 -0.459 103 80 74
0.102076 -0.389467 -0.46 103 80 74
0.399017 -0.46736 -0.552 114 144 182
0.40112 -0.46736 -0.552 108 140 187
0.424251 -0.46736 -0.552 157 156 162
0.4477 -0.4699 -0.555 163 164 168
0.449814 -0.4699 -0.555 166 166 166
0.459329 -0.4699 -0.555 154 152 155
0.460386 -0.4699 -0.555 151 149 152
0.4625 -0.4699 -0.555 146 144 145
0.492987 -0.470747 -0.556 95 85 75
0.466233 -0.420793 -0.497 162 116 92
0.467185 -0.419947 -0.496 162 115 89
0.46904 -0.41656 -0.492 169 122 94
0.47893 -0.409787 -0.484 172 122 95
0.48162 -0.40894 -0.483 170 123 95
0.484295 -0.408093 -0.482 171 124 94
0.487668 -0.405553 -0.479 171 126 97
0.49912 -0.403013 -0.476 166 117 84
0.513371 -0.4064 -0.48 154 109 78
0.00785333 -0.36828 -0.434 184 141 107
0.0117105 -0.359794 -0.424 185 140 109
0.0187552 -0.355551 -0.419 192 148 113
0.0316 -0.3564 -0.42 185 141 106
0.0372886 -0.357249 -0.421 183 137 104
0.0592429 -0.364037 -0.429 173 126 100
0.06006 -0.364037 -0.429 172 125 99
0.0634762 -0.364886 -0.43 164 116 94
0.0817143 -0.373371 -0.44 134 95 80
0.0900267 -0.38016 -0.448 119 90 76
0.0998876 -0.388646 -0.458 103 78 73
0.114934 -0.404769 -0.477 89 70 72
0.412686 -0.468411 -0.552 146 160 169
0.421097 -0.468411 -0.552 180 176 177
0.426073 -0.46926 -0.553 181 182 186
0.427127 -0.46926 -0.553 181 182 186
0.429233 -0.46926 -0.553 176 179 184
0.437396 -0.470109 -0.554 177 175 180
0.456979 -0.471806 -0.556 157 158 162
0.459329 -0.470957 -0.555 155 155 155
0.475629 -0.473503 -0.558 132 133 137
0.477546 -0.474351 -0.559 130 133 138
0.494934 -0.472654 -0.557 88 75 69
0.467563 -0.435317 -0.513 132 100 87
0.469065 -0.419194 -0.494 164 120 93
0.469977 -0.417497 -0.492 169 122 94
0.473631 -0.414951 -0.489 168 121 93
0.474522 -0.414103 -0.488 175 125 98
0.478008 -0.410709 -0.484 171 122 92
0.47978 -0.40986 -0.483 173 123 96
0.483377 -0.409011 -0.482 172 122 95
0.487668 -0.406466 -0.479 169 125 96
0.48858 -0.406466 -0.479 168 124 95
0.500933 -0.40392 -0.476 164 118 85
0.530449 -0.414951 -0.489 147 102 69
0.539786 -0.420043 -0.495 140 103 74
0.0195533 -0.35635 -0.419 190 146 111
0.0203514 -0.35635 -0.419 190 146 111
0.02514 -0.35635 -0.419 185 142 107
0.056659 -0.364004 -0.428 177 127 100
0.0591048 -0.364004 -0.428 176 126 99
0.0669076 -0.366555 -0.431 159 113 90
0.076819 -0.370808 -0.436 143 101 85
0.098799 -0.388668 -0.457 104 79 74
0.1012 -0.391219 -0.46 103 80 74
0.107188 -0.397172 -0.467 97 76 71
0.108309 -0.398023 -0.468 95 76 70
0.123919 -0.417584 -0.491 84 66 62
0.129306 -0.426089 -0.501 76 72 73
0.409531 -0.469463 -0.552 181 186 192
0.417647 -0.470313 -0.553 182 183 185
0.45592 -0.472865 -0.556 152 153 157
0.475416 -0.475416 -0.559 132 130 131
0.4784 -0.476267 -0.56 129 130 132
0.476224 -0.412481 -0.485 173 124 94
0.491991 -0.405677 -0.477 169 123 90
0.0195533 -0.357148 -0.419 190 145 112
0.0219476 -0.357148 -0.419 187 144 109
0.0292 -0.358 -0.42 186 142 107
0.03 -0.358 -0.42 187 142 109
0.0348829 -0.358852 -0.421 180 137 102
0.0389848 -0.359705 -0.422 181 136 103
0.07884 -0.373343 -0.438 140 98 82
0.0955562 -0.386981 -0.454 111 84 77
0.127583 -0.424486 -0.498 76 72 86
0.39376 -0.470514 -0.552 185 189 190
0.398687 -0.471367 -0.553 193 193 203
0.427899 -0.472219 -0.554 179 177 180
0.43212 -0.472219 -0.554 174 170 169
0.45592 -0.473924 -0.556 148 148 150
0.459097 -0.473924 -0.556 144 142 143
0.481179 -0.479038 -0.562 116 115 113
0.48418 -0.47989 -0.563 110 107 116
0.49518 -0.4833 -0.567 97 92 88
0.469386 -0.438976 -0.515 131 98 81
0.467687 -0.435567 -0.511 139 102 84
0.466826 -0.433862 -0.509 144 103 85
0.465155 -0.428748 -0.503 152 110 85
0.468124 -0.421076 -0.494 163 118 89
0.490174 -0.406586 -0.477 168 122 89
0.508346 -0.406586 -0.477 160 115 86
0.5489 -0.425338 -0.499 141 109 88
0.00774476 -0.365634 -0.428 184 138 104
0.0124 -0.3588 -0.42 182 137 104
0.0155629 -0.357946 -0.419 189 144 111
0.017159 -0.357946 -0.419 191 146 113
0.0203029 -0.357091 -0.418 189 145 110
0.0291305 -0.357946 -0.419 185 141 106
0.03 -0.3588 -0.42 185 140 107
0.034 -0.3588 -0.42 181 136 103
0.0456305 -0.362217 -0.424 178 133 102
0.0540867 -0.36478 -0.427 175 125 98
0.0557133 -0.36478 -0.427 177 127 100
0.0582895 -0.365634 -0.428 173 126 98
0.0625114 -0.366489 -0.429 169 118 97
0.0669076 -0.368197 -0.431 161 113 93
0.0687086 -0.369051 -0.432 157 110 92
0.086881 -0.380157 -0.445 122 90 77
0.36261 -0.470711 -0.551 163 164 168
0.377304 -0.470711 -0.551 185 186 188
0.388503 -0.471566 -0.552 188 192 195
0.408167 -0.47242 -0.553 194 195 197
0.416593 -0.47242 -0.553 186 187 189
0.420512 -0.473274 -0.554 181 182 184
0.433957 -0.474129 -0.555 165 165 167
0.435014 -0.474129 -0.555 167 167 169
0.450625 -0.474983 -0.556 147 145 148
0.454861 -0.474983 -0.556 141 137 138
0.45674 -0.475837 -0.557 138 134 135
0.457801 -0.475837 -0.557 136 132 133
0.481817 -0.481817 -0.564 99 97 98
0.510929 -0.491214 -0.575 44 42 45
0.495434 -0.473274 -0.554 91 80 76
0.4806 -0.456189 -0.534 109 86 78
0.46718 -0.42458 -0.497 160 116 89
0.474429 -0.415183 -0.486 168 121 93
0.481458 -0.410911 -0.481 171 125 92
0.485843 -0.409203 -0.479 174 128 95
0.488357 -0.407494 -0.477 172 126 93
