ply
format ascii 1.0
comment Created by Open3D
element vertex 1312
property double x
property double y
property double z
property uchar red
property uchar green
property uchar blue
end_header
0.315176 -0.173477 -0.547 131 95 95
0.31772 -0.17316 -0.546 133 98 102
0.337311 -0.168403 -0.531 129 98 103
0.338323 -0.168403 -0.531 128 97 103
0.349164 -0.166817 -0.526 128 98 100
0.432367 -0.1887 -0.595 45 38 45
0.407343 -0.168086 -0.53 185 136 131
0.4387 -0.169671 -0.535 131 83 79
0.453273 -0.17094 -0.539 145 100 95
0.478357 -0.176014 -0.555 145 103 104
-0.143572 -0.206424 -0.647 191 191 181
0.0907371 -0.151229 -0.474 185 137 123
0.136686 -0.153143 -0.48 133 88 82
0.291573 -0.181219 -0.568 123 88 92
0.302383 -0.178029 -0.558 126 91 95
0.308524 -0.175476 -0.55 127 93 94
0.310619 -0.175476 -0.55 128 94 95
0.313665 -0.174838 -0.548 131 97 98
0.323054 -0.172605 -0.541 130 98 103
0.330894 -0.171329 -0.537 129 99 107
0.3555 -0.1675 -0.525 129 98 103
0.368666 -0.169414 -0.531 70 51 53
0.460571 -0.199086 -0.624 61 58 67
0.411714 -0.167181 -0.524 149 95 85
0.412712 -0.167181 -0.524 144 91 83
0.439719 -0.17069 -0.535 141 93 89
-0.150033 -0.206372 -0.643 187 188 180
0.11307 -0.15181 -0.473 177 125 112
0.143023 -0.155983 -0.486 121 82 77
0.150717 -0.15823 -0.493 111 73 70
0.177845 -0.169784 -0.529 133 101 114
0.302383 -0.179091 -0.558 125 90 94
0.303417 -0.17845 -0.556 124 90 91
0.310619 -0.176524 -0.55 128 94 95
0.348162 -0.168821 -0.526 129 98 103
0.434857 -0.192571 -0.6 46 39 47
0.449682 -0.197065 -0.614 61 56 63
0.411714 -0.168179 -0.524 148 93 86
0.435643 -0.17171 -0.535 109 64 59
0.473669 -0.177166 -0.552 133 93 93
-0.155186 -0.206306 -0.639 186 185 180
-0.14904 -0.20792 -0.644 189 189 181
0.0826667 -0.160137 -0.496 183 138 132
0.0851 -0.15594 -0.483 188 136 125
0.0946486 -0.152066 -0.471 185 137 125
0.105414 -0.152066 -0.471 185 133 120
0.119376 -0.152711 -0.473 167 114 100
0.128293 -0.15368 -0.476 148 100 90
0.168233 -0.166271 -0.515 120 81 82
0.327411 -0.173697 -0.538 137 105 116
0.3565 -0.1695 -0.525 127 97 105
0.37455 -0.173697 -0.538 34 28 32
0.464262 -0.203077 -0.629 65 59 69
0.411714 -0.169177 -0.524 149 94 87
-0.164474 -0.208497 -0.642 179 178 173
-0.161524 -0.207848 -0.64 180 179 174
-0.14727 -0.210121 -0.647 190 190 182
-0.143 -0.211095 -0.65 193 190 181
0.0841219 -0.158484 -0.488 189 136 128
0.0937514 -0.152963 -0.471 188 139 125
0.0962381 -0.152638 -0.47 185 137 123
0.101826 -0.152963 -0.471 184 135 121
0.102723 -0.152963 -0.471 182 133 119
0.29261 -0.189336 -0.583 108 78 86
0.306491 -0.179269 -0.552 126 92 93
0.317138 -0.176995 -0.545 130 96 97
0.317592 -0.17667 -0.544 131 97 98
0.323913 -0.175047 -0.539 138 103 109
0.3317 -0.173748 -0.535 129 97 102
0.340793 -0.17115 -0.527 126 96 96
0.346158 -0.170825 -0.526 126 95 101
0.43113 -0.194208 -0.598 47 40 48
0.407582 -0.171799 -0.529 179 129 118
0.407817 -0.171474 -0.528 180 123 112
0.418087 -0.17115 -0.527 144 95 91
0.437681 -0.173748 -0.535 125 82 76
-0.164218 -0.209393 -0.641 180 179 174
0.0826667 -0.162027 -0.496 187 139 129
0.0864 -0.1568 -0.48 186 136 125
0.0907371 -0.15484 -0.474 186 137 123
0.11283 -0.154187 -0.472 176 124 110
0.146067 -0.160067 -0.49 111 74 68
0.168227 -0.169213 -0.518 126 95 100
0.292537 -0.186853 -0.572 120 89 95
0.2926 -0.1862 -0.57 120 88 91
0.322457 -0.1764 -0.54 131 96 102
0.329871 -0.17542 -0.537 130 98 103
0.362239 -0.172807 -0.529 120 90 98
0.445447 -0.200247 -0.613 57 52 59
0.47455 -0.208413 -0.638 53 53 65
0.407343 -0.173133 -0.53 180 132 120
0.416291 -0.171827 -0.526 143 95 85
0.4387 -0.174767 -0.535 137 92 87
0.449546 -0.17542 -0.537 149 104 99
-0.16744 -0.2116 -0.644 181 178 171
-0.162743 -0.210286 -0.64 180 179 174
-0.159804 -0.209629 -0.638 182 182 174
-0.146263 -0.212914 -0.648 192 189 180
0.0871324 -0.157386 -0.479 185 136 122
0.0962381 -0.154429 -0.47 185 136 122
0.118475 -0.155414 -0.473 166 117 103
0.293721 -0.191557 -0.583 109 80 85
0.29973 -0.183671 -0.559 124 90 91
0.318629 -0.178743 -0.544 130 96 97
0.330278 -0.176114 -0.536 131 99 104
0.363933 -0.174143 -0.53 102 72 80
0.425983 -0.195171 -0.594 48 41 48
0.44283 -0.200757 -0.611 55 49 59
0.408129 -0.175786 -0.535 183 140 134
0.423495 -0.174143 -0.53 126 78 76
0.435643 -0.175786 -0.535 113 68 63
0.439914 -0.175457 -0.534 148 100 96
-0.153469 -0.212166 -0.642 187 187 179
0.0832743 -0.163255 -0.494 190 137 129
0.102505 -0.155324 -0.47 182 133 119
0.111032 -0.155985 -0.472 178 126 113
0.124405 -0.156976 -0.475 156 108 96
0.127387 -0.157307 -0.476 149 103 90
0.136054 -0.158959 -0.481 124 83 79
0.158547 -0.167221 -0.506 113 78 76
0.295414 -0.186719 -0.565 122 90 93
0.2992 -0.185067 -0.56 122 90 93
0.305993 -0.182753 -0.553 126 92 93
0.320993 -0.178788 -0.541 132 98 99
0.321429 -0.178457 -0.54 132 98 99
0.33108 -0.176474 -0.534 130 98 103
0.33592 -0.175813 -0.532 129 97 100
0.337311 -0.175483 -0.531 129 97 100
0.337686 -0.175152 -0.53 129 97 100
0.34144 -0.174491 -0.528 128 96 99
0.351168 -0.17383 -0.526 181 164 170
0.359543 -0.174491 -0.528 131 100 106
0.361231 -0.174822 -0.529 124 93 99
0.439497 -0.20093 -0.608 50 45 52
0.47286 -0.211174 -0.639 54 54 64
0.445833 -0.176805 -0.535 149 101 97
0.461623 -0.179779 -0.544 130 86 85
0.47281 -0.182092 -0.551 129 87 88
-0.162489 -0.212391 -0.639 182 181 176
0.0884 -0.158213 -0.476 190 141 127
0.1705 -0.1745 -0.525 160 118 128
0.1715 -0.1745 -0.525 160 118 128
0.295966 -0.187463 -0.564 125 93 96
0.305491 -0.184139 -0.554 126 92 93
0.317138 -0.181148 -0.545 130 96 97
0.326803 -0.178489 -0.537 129 97 102
0.363609 -0.176494 -0.531 95 72 78
0.466009 -0.210397 -0.633 60 54 64
0.476981 -0.212059 -0.638 57 57 67
0.424294 -0.176494 -0.531 127 77 76
0.434624 -0.177824 -0.535 112 69 63
0.436863 -0.177491 -0.534 133 88 83
0.454114 -0.179486 -0.54 134 89 84
0.4978 -0.189457 -0.57 145 97 97
0.0914467 -0.158117 -0.473 189 140 123
0.0937514 -0.157449 -0.471 189 140 125
0.115772 -0.158117 -0.473 167 119 105
0.118726 -0.158451 -0.474 163 115 101
0.119629 -0.158451 -0.474 163 115 101
0.130653 -0.159789 -0.478 136 93 86
0.1442 -0.1638 -0.49 108 77 72
0.301299 -0.185863 -0.556 123 91 94
0.314024 -0.182186 -0.545 130 96 97
0.319077 -0.181517 -0.543 131 96 100
0.339064 -0.176837 -0.529 127 95 98
0.3495 -0.1755 -0.525 198 183 186
0.355175 -0.175834 -0.526 129 103 106
0.460668 -0.210266 -0.629 60 57 68
0.464069 -0.211269 -0.632 59 56 67
0.4736 -0.213943 -0.64 55 54 62
0.426107 -0.17784 -0.532 123 79 76
0.432794 -0.178509 -0.534 112 69 63
0.0836114 -0.16675 -0.496 190 138 125
0.0928543 -0.158346 -0.471 188 139 122
0.12648 -0.160027 -0.476 147 100 90
0.144494 -0.16507 -0.491 107 76 73
0.158517 -0.171121 -0.509 127 82 87
0.163963 -0.17381 -0.517 138 91 97
0.308035 -0.185241 -0.551 127 93 94
0.31205 -0.183896 -0.547 128 94 95
0.334907 -0.178853 -0.532 128 98 100
0.362597 -0.178517 -0.531 88 65 71
0.447903 -0.207766 -0.618 54 51 62
0.45126 -0.208774 -0.621 56 53 64
0.409127 -0.181207 -0.539 169 133 133
0.407867 -0.178853 -0.532 174 130 117
0.41106 -0.177172 -0.527 151 94 83
0.412064 -0.177172 -0.527 147 90 79
0.428938 -0.17919 -0.533 120 77 71
0.431777 -0.179526 -0.534 114 71 65
0.0844667 -0.165667 -0.49 192 140 127
0.089119 -0.160595 -0.475 192 143 128
0.115772 -0.159919 -0.473 167 117 106
0.127387 -0.160933 -0.476 146 99 91
0.133943 -0.162286 -0.48 128 89 84
0.140534 -0.164652 -0.487 112 78 76
0.15408 -0.1704 -0.504 120 80 80
0.298093 -0.191362 -0.566 123 93 95
0.310054 -0.185614 -0.549 125 93 96
0.323913 -0.182233 -0.539 130 98 101
0.3363 -0.179529 -0.531 128 98 100
0.346158 -0.177838 -0.526 158 144 144
0.350166 -0.177838 -0.526 211 194 200
0.354847 -0.178176 -0.527 130 99 107
0.363963 -0.180205 -0.533 68 49 53
0.411605 -0.184262 -0.545 149 122 129
0.428938 -0.180205 -0.533 122 79 73
0.433811 -0.180543 -0.534 117 72 67
0.0850514 -0.16592 -0.488 190 141 126
0.0858419 -0.16388 -0.482 191 142 127
0.0864 -0.1632 -0.48 193 141 128
0.0898343 -0.16116 -0.474 192 140 126
0.134222 -0.16354 -0.481 128 87 85
0.157857 -0.1734 -0.51 126 86 87
0.340793 -0.17918 -0.527 130 98 103
0.341797 -0.17918 -0.527 133 101 106
0.3485 -0.1785 -0.525 203 194 197
0.364646 -0.18156 -0.534 60 44 47
0.41085 -0.18496 -0.544 156 126 134
0.40787 -0.18224 -0.536 177 133 122
0.407618 -0.18122 -0.533 179 136 120
0.407343 -0.1802 -0.53 171 121 110
0.408352 -0.1802 -0.53 166 116 105
0.410834 -0.17952 -0.528 153 94 86
0.417658 -0.17986 -0.529 130 83 77
0.438075 -0.18122 -0.533 144 99 93
0.441949 -0.18156 -0.534 147 99 95
0.450383 -0.18292 -0.538 134 89 86
-0.300549 -0.221554 -0.648 247 248 243
-0.299314 -0.221554 -0.648 248 249 244
-0.29854 -0.221896 -0.649 247 248 243
-0.295286 -0.222238 -0.65 250 252 247
0.0928543 -0.161037 -0.471 192 140 126
0.111931 -0.161379 -0.472 173 124 110
0.121434 -0.162063 -0.474 157 111 98
0.13811 -0.165824 -0.485 118 79 80
0.154386 -0.172662 -0.505 125 86 87
0.161367 -0.176081 -0.515 136 94 98
0.306986 -0.18839 -0.551 125 90 94
0.317009 -0.185654 -0.543 127 95 96
0.31849 -0.185312 -0.542 127 95 96
0.322457 -0.184629 -0.54 129 97 98
0.327215 -0.183261 -0.536 129 97 98
0.334521 -0.182235 -0.533 127 97 99
0.35217 -0.179842 -0.526 131 103 100
0.408857 -0.184629 -0.54 177 136 132
0.41184 -0.180526 -0.528 144 91 83
0.43503 -0.182235 -0.533 136 88 84
0.440106 -0.182235 -0.533 145 100 95
0.450383 -0.183945 -0.538 139 89 88
-0.171811 -0.220726 -0.642 179 179 171
-0.166833 -0.219007 -0.637 183 180 171
-0.159804 -0.21935 -0.638 183 183 173
-0.155173 -0.221413 -0.644 187 187 177
-0.152434 -0.222789 -0.648 189 187 175
-0.150429 -0.223476 -0.65 190 188 176
0.0841171 -0.171561 -0.499 191 139 128
0.0980286 -0.16159 -0.47 187 135 121
0.10161 -0.16159 -0.47 184 132 119
0.1034 -0.16159 -0.47 180 128 115
0.110133 -0.162278 -0.472 173 124 110
0.118726 -0.162966 -0.474 161 114 104
0.30131 -0.195284 -0.568 116 84 87
0.301841 -0.191502 -0.557 122 90 91
0.306986 -0.189439 -0.551 125 90 94
0.449352 -0.213162 -0.62 52 50 63
0.465272 -0.217288 -0.632 51 51 63
0.40711 -0.183938 -0.535 182 134 124
0.410834 -0.181531 -0.528 146 93 85
0.437253 -0.182907 -0.532 148 103 98
0.444814 -0.183938 -0.535 140 92 88
-0.3036 -0.22264 -0.644 222 223 218
-0.29992 -0.22264 -0.644 225 226 221
0.089119 -0.164214 -0.475 193 144 127
0.0987133 -0.16214 -0.469 182 130 116
0.105414 -0.162831 -0.471 177 125 112
0.119629 -0.163869 -0.474 160 112 102
0.141111 -0.169054 -0.489 111 75 75
0.306986 -0.190489 -0.551 126 91 95
0.317457 -0.187377 -0.542 130 96 97
0.324337 -0.185994 -0.538 130 98 99
0.327215 -0.185303 -0.536 128 96 97
0.339064 -0.182883 -0.529 128 96 101
0.340793 -0.182191 -0.527 128 97 102
0.348162 -0.181846 -0.526 175 158 166
0.349164 -0.181846 -0.526 154 137 145
0.358551 -0.183574 -0.531 103 81 84
0.414037 -0.190489 -0.551 127 107 119
0.407867 -0.18392 -0.532 166 118 108
0.408111 -0.183574 -0.531 169 112 103
0.41262 -0.182883 -0.529 142 92 83
0.460587 -0.188069 -0.544 131 86 83
0.462471 -0.188414 -0.545 128 83 80
0.466252 -0.189106 -0.547 127 82 79
-0.314151 -0.223519 -0.643 249 252 245
-0.293469 -0.224562 -0.646 249 248 244
0.084639 -0.170681 -0.491 190 141 127
0.0912533 -0.164076 -0.472 191 143 123
0.107209 -0.163729 -0.471 175 123 110
0.12531 -0.165119 -0.475 146 99 93
0.137186 -0.168595 -0.485 114 78 78
0.152462 -0.175548 -0.505 112 82 80
0.30241 -0.195362 -0.562 119 87 90
0.314484 -0.189105 -0.544 126 94 95
0.317457 -0.18841 -0.542 126 94 95
0.341797 -0.183195 -0.527 123 101 104
0.351835 -0.183195 -0.527 123 98 104
0.446726 -0.214829 -0.618 49 51 64
0.410371 -0.184238 -0.53 154 99 92
0.434014 -0.185281 -0.533 136 91 86
0.476823 -0.191886 -0.552 136 96 94
-0.317586 -0.225443 -0.645 250 251 246
-0.313663 -0.224394 -0.642 228 231 224
-0.304353 -0.224744 -0.643 136 138 133
0.0864 -0.167771 -0.48 191 142 125
0.0960333 -0.163927 -0.469 188 136 122
0.102505 -0.164276 -0.47 179 127 114
0.122337 -0.165674 -0.474 152 105 95
0.162566 -0.182451 -0.522 116 89 98
0.305936 -0.192588 -0.551 127 92 96
0.312986 -0.19049 -0.545 126 94 97
0.324337 -0.188044 -0.538 125 95 97
0.33108 -0.186646 -0.534 127 95 98
0.333506 -0.186296 -0.533 127 97 99
0.340434 -0.184549 -0.528 127 101 104
0.349828 -0.184199 -0.527 125 102 108
0.350831 -0.184199 -0.527 125 98 103
0.360577 -0.186646 -0.534 77 58 60
0.430414 -0.211462 -0.605 47 45 59
0.441495 -0.214608 -0.614 49 48 62
0.461131 -0.219501 -0.628 51 50 64
0.458187 -0.215307 -0.616 61 59 72
0.410371 -0.185248 -0.53 158 101 94
0.42126 -0.185597 -0.531 132 87 82
0.445833 -0.186995 -0.535 137 89 87
0.450383 -0.188044 -0.538 131 86 83
0.456829 -0.189442 -0.542 133 85 83
0.458706 -0.189791 -0.543 133 85 83
-0.30829 -0.225266 -0.641 145 146 140
-0.154425 -0.227023 -0.646 187 187 177
-0.152434 -0.227726 -0.648 188 186 174
-0.0512229 -0.227726 -0.648 65 64 70
-0.0486038 -0.227023 -0.646 70 68 73
0.0854524 -0.170443 -0.485 191 142 127
0.0884 -0.16728 -0.476 191 142 125
0.1005 -0.16482 -0.469 180 128 115
0.102505 -0.165171 -0.47 179 127 114
0.148095 -0.175714 -0.5 113 81 82
0.305993 -0.19434 -0.553 126 91 95
0.334521 -0.187311 -0.533 127 97 99
0.34782 -0.185203 -0.527 165 146 152
0.364303 -0.189069 -0.538 48 37 45
0.387666 -0.197854 -0.563 38 35 46
0.396734 -0.201369 -0.573 40 37 48
0.427133 -0.21156 -0.602 45 43 57
0.410605 -0.185906 -0.529 154 99 94
0.423283 -0.186609 -0.531 128 83 80
0.426107 -0.18696 -0.532 124 79 74
0.45974 -0.190826 -0.543 134 86 84
-0.312686 -0.226133 -0.64 152 155 148
-0.291458 -0.228607 -0.647 179 178 174
0.0912533 -0.166773 -0.472 190 139 122
0.117823 -0.16748 -0.474 161 113 103
0.1518 -0.178787 -0.506 119 90 95
0.320833 -0.190447 -0.539 126 96 98
0.33249 -0.188327 -0.533 127 95 98
0.35317 -0.186913 -0.529 126 97 102
0.423864 -0.211647 -0.599 46 42 56
0.429147 -0.187973 -0.532 117 72 67
-0.319279 -0.227708 -0.641 254 255 250
-0.0484533 -0.228773 -0.644 73 70 79
0.0896448 -0.168028 -0.473 193 141 127
0.112169 -0.168028 -0.473 166 116 105
0.114871 -0.168028 -0.473 162 112 103
0.142266 -0.175132 -0.493 107 75 80
0.153971 -0.181171 -0.51 117 90 97
0.155854 -0.182237 -0.513 120 97 105
0.32186 -0.191473 -0.539 126 94 95
0.327215 -0.190408 -0.536 127 95 96
0.33592 -0.188987 -0.532 125 95 97
0.343805 -0.18721 -0.527 196 183 192
0.34782 -0.18721 -0.527 130 111 117
0.349486 -0.187566 -0.528 122 96 99
0.457278 -0.222379 -0.626 47 49 62
0.41262 -0.187921 -0.529 146 96 89
0.429147 -0.188987 -0.532 118 73 70
0.448523 -0.190763 -0.537 134 89 84
0.456829 -0.192539 -0.542 136 91 88
0.467294 -0.194315 -0.547 121 77 76
0.475959 -0.195736 -0.551 133 89 88
-0.171956 -0.227857 -0.638 180 180 172
-0.170473 -0.2275 -0.637 180 180 172
-0.157627 -0.23 -0.644 186 183 174
-0.0520524 -0.229643 -0.643 68 67 72
0.0858419 -0.172143 -0.482 193 141 127
0.0874933 -0.17 -0.476 195 144 127
0.0935524 -0.167857 -0.47 186 137 123
0.10161 -0.167857 -0.47 182 130 117
0.106311 -0.168214 -0.471 174 122 111
0.12376 -0.17 -0.476 148 101 95
0.138317 -0.174643 -0.489 110 75 81
0.368366 -0.194286 -0.544 37 34 43
0.447449 -0.221071 -0.619 45 47 60
0.450077 -0.221786 -0.621 45 47 62
0.406603 -0.190357 -0.533 172 123 116
0.426317 -0.189643 -0.531 119 71 67
0.46351 -0.194643 -0.545 127 83 80
0.479793 -0.1975 -0.553 132 86 86
-0.312924 -0.229072 -0.638 152 155 148
-0.306111 -0.229431 -0.639 147 148 143
-0.1651 -0.227995 -0.635 183 180 171
-0.162489 -0.229431 -0.639 181 181 171
-0.158607 -0.230868 -0.643 185 185 175
-0.0559867 -0.231945 -0.646 66 65 70
0.0926571 -0.168752 -0.47 191 140 123
0.104295 -0.168752 -0.47 176 127 113
0.10519 -0.168752 -0.47 176 127 113
0.111268 -0.16983 -0.473 168 116 103
0.30942 -0.20358 -0.567 111 82 86
0.30831 -0.202144 -0.563 114 85 89
0.308035 -0.197835 -0.551 122 93 97
0.317009 -0.194963 -0.543 125 93 94
0.335289 -0.190654 -0.531 126 95 100
0.337049 -0.189936 -0.529 127 97 99
0.373476 -0.197476 -0.55 35 33 44
0.385521 -0.202144 -0.563 39 37 48
0.4095 -0.210043 -0.585 39 39 51
0.419618 -0.212915 -0.593 46 48 60
0.409362 -0.190295 -0.53 157 104 98
0.430363 -0.190654 -0.531 137 92 87
0.441121 -0.191372 -0.533 138 90 86
0.447688 -0.19245 -0.536 138 93 90
0.449546 -0.192809 -0.537 139 94 91
0.455986 -0.194245 -0.541 139 94 89
-0.328643 -0.232814 -0.645 251 254 247
0.108335 -0.17037 -0.472 175 123 110
0.121947 -0.171813 -0.476 146 102 93
0.319963 -0.195275 -0.541 126 94 95
-0.3185 -0.23114 -0.637 197 199 194
-0.316073 -0.23114 -0.637 152 154 149
-0.310007 -0.23114 -0.637 146 148 143
-0.0495257 -0.232954 -0.642 71 69 82
0.09514 -0.17018 -0.469 187 138 123
0.0996067 -0.17018 -0.469 182 130 117
0.1005 -0.17018 -0.469 182 130 117
0.10362 -0.170906 -0.471 177 125 114
0.104517 -0.170906 -0.471 177 125 114
0.12819 -0.173809 -0.479 127 87 87
0.313786 -0.207917 -0.573 104 81 91
0.309967 -0.198483 -0.547 125 93 96
0.31252 -0.19812 -0.546 125 93 98
0.339429 -0.191589 -0.528 189 170 174
0.366293 -0.197394 -0.544 33 30 41
0.415666 -0.213723 -0.589 70 72 84
0.406242 -0.196669 -0.542 178 134 131
0.464548 -0.197757 -0.545 131 86 83
-0.323861 -0.232718 -0.638 250 251 245
-0.167783 -0.231989 -0.636 185 183 171
-0.16345 -0.232718 -0.638 183 183 171
-0.160806 -0.234177 -0.642 184 184 172
-0.0529457 -0.233083 -0.639 68 66 79
-0.0473 -0.235271 -0.645 72 71 79
0.0942467 -0.171073 -0.469 187 138 121
0.119881 -0.173262 -0.475 152 103 96
0.120786 -0.173262 -0.475 149 102 94
0.122853 -0.173627 -0.476 144 97 91
0.143709 -0.181651 -0.498 124 87 94
0.147068 -0.183475 -0.503 146 96 105
0.31552 -0.19843 -0.544 125 93 96
0.326605 -0.195148 -0.535 125 93 96
0.331475 -0.194418 -0.533 125 94 99
0.3914 -0.207914 -0.57 61 61 71
0.401991 -0.211197 -0.579 101 103 115
0.447178 -0.225058 -0.617 55 54 68
0.40609 -0.195148 -0.535 179 130 126
0.480661 -0.202078 -0.554 135 89 91
-0.153906 -0.237967 -0.649 188 186 173
0.1034 -0.172333 -0.47 178 125 111
0.31083 -0.203867 -0.556 118 87 92
0.339429 -0.1936 -0.528 177 160 168
0.35046 -0.1947 -0.531 122 94 93
0.354474 -0.1958 -0.534 82 62 61
0.383376 -0.206433 -0.563 42 45 54
0.424011 -0.218533 -0.596 48 50 62
0.447178 -0.226233 -0.617 57 59 72
0.449243 -0.2255 -0.615 51 53 66
0.446446 -0.222933 -0.608 86 85 99
0.406242 -0.198733 -0.542 186 141 138
0.41665 -0.193967 -0.529 144 95 90
-0.164665 -0.235149 -0.638 184 182 169
0.129641 -0.177283 -0.481 122 83 84
0.135246 -0.179863 -0.488 113 81 86
0.311949 -0.205663 -0.558 121 92 96
0.322887 -0.19866 -0.539 127 95 100
0.325173 -0.197554 -0.536 126 94 99
0.33108 -0.196817 -0.534 126 94 97
0.444243 -0.222986 -0.605 87 86 100
0.406349 -0.196817 -0.534 174 123 119
0.418448 -0.195343 -0.53 139 90 85
-0.158116 -0.239328 -0.646 186 186 174
-0.0506695 -0.237475 -0.641 72 70 81
0.110133 -0.174865 -0.472 170 118 107
0.116017 -0.175606 -0.474 158 109 102
0.118976 -0.175976 -0.475 153 106 100
0.12402 -0.176717 -0.477 137 93 90
0.132567 -0.179681 -0.485 117 82 88
0.138229 -0.182274 -0.492 116 91 97
0.148237 -0.187831 -0.507 176 173 200
0.31356 -0.20228 -0.546 119 94 100
0.325173 -0.198575 -0.536 126 94 97
0.334657 -0.196352 -0.53 124 95 99
0.348437 -0.196723 -0.531 125 94 99
0.391684 -0.211912 -0.572 67 69 81
0.411729 -0.216729 -0.585 67 71 83
0.429858 -0.222656 -0.601 50 50 62
0.436462 -0.224879 -0.607 48 48 60
0.40521 -0.200798 -0.542 173 135 126
0.406603 -0.197464 -0.533 170 117 113
0.41262 -0.195982 -0.529 139 89 82
-0.321129 -0.236462 -0.635 252 253 248
-0.318208 -0.23609 -0.634 174 179 173
-0.168047 -0.237207 -0.637 187 185 173
-0.156378 -0.241675 -0.649 190 188 176
0.0942467 -0.174647 -0.469 188 136 123
0.0996067 -0.174647 -0.469 180 128 114
0.317457 -0.20183 -0.542 126 94 97
0.318932 -0.201458 -0.541 127 95 98
0.322887 -0.200713 -0.539 128 96 99
0.336041 -0.19699 -0.529 161 132 137
0.369286 -0.20481 -0.55 31 29 40
0.398405 -0.214864 -0.577 63 65 77
0.435743 -0.225663 -0.606 57 56 70
0.436431 -0.197734 -0.531 138 91 85
-0.3165 -0.236923 -0.633 140 147 140
-0.177529 -0.241414 -0.645 182 182 172
-0.173714 -0.239543 -0.64 182 182 172
-0.0517286 -0.239169 -0.639 69 69 81
-0.0474467 -0.242163 -0.647 71 71 83
-0.0451905 -0.243286 -0.65 71 71 83
0.0852762 -0.181154 -0.484 197 148 134
0.12104 -0.17816 -0.476 142 102 100
0.127543 -0.179657 -0.48 122 88 89
0.131643 -0.181529 -0.485 117 80 87
0.13879 -0.184897 -0.494 129 110 116
0.31698 -0.21222 -0.567 101 83 83
0.320833 -0.20174 -0.539 127 95 96
0.323312 -0.201366 -0.538 129 95 96
0.326605 -0.200243 -0.535 123 97 96
0.332254 -0.198746 -0.531 126 91 97
0.345762 -0.198371 -0.53 129 100 102
0.374373 -0.208103 -0.556 34 34 44
0.387462 -0.212969 -0.569 43 47 56
0.411729 -0.218957 -0.585 77 83 95
0.414254 -0.219706 -0.587 88 91 108
0.404632 -0.203611 -0.544 177 128 131
0.40521 -0.202863 -0.542 181 132 135
0.4071 -0.198746 -0.531 162 112 103
0.423704 -0.197997 -0.529 152 103 99
0.4346 -0.198371 -0.53 144 97 91
0.443983 -0.199869 -0.534 132 85 79
0.472324 -0.205109 -0.548 140 95 92
-0.313377 -0.238505 -0.634 125 130 124
-0.168047 -0.239633 -0.637 186 186 174
-0.16536 -0.239257 -0.636 188 186 174
-0.05512 -0.239257 -0.636 68 68 80
0.0864048 -0.17869 -0.475 197 149 135
0.110133 -0.177562 -0.472 170 118 105
0.12104 -0.179067 -0.476 139 101 98
0.125452 -0.180195 -0.479 122 90 91
0.13879 -0.185838 -0.494 143 126 132
0.322288 -0.20239 -0.538 126 94 95
0.331867 -0.200133 -0.532 129 94 98
0.332254 -0.199757 -0.531 125 93 98
0.35442 -0.202014 -0.537 69 49 48
0.366523 -0.206529 -0.549 33 32 40
0.407 -0.206905 -0.55 130 100 108
0.405588 -0.20051 -0.533 175 122 116
0.4134 -0.199381 -0.53 144 93 89
0.416429 -0.199381 -0.53 152 101 97
0.419457 -0.199381 -0.53 144 93 89
0.440293 -0.200133 -0.532 134 85 81
0.460958 -0.203895 -0.542 136 88 84
-0.328533 -0.241981 -0.64 250 253 246
-0.279997 -0.245384 -0.649 252 253 248
-0.173714 -0.241981 -0.64 183 183 173
-0.166833 -0.240847 -0.637 186 186 174
0.339064 -0.200012 -0.529 157 134 140
0.340071 -0.200012 -0.529 123 100 106
0.370916 -0.209465 -0.554 36 35 49
0.380159 -0.212868 -0.563 42 44 56
0.420748 -0.22421 -0.593 58 58 70
0.44472 -0.231394 -0.612 71 68 79
0.440161 -0.227235 -0.601 73 71 84
0.40626 -0.207574 -0.549 142 110 115
0.404923 -0.205306 -0.543 179 131 131
0.404743 -0.204171 -0.54 183 133 126
0.424711 -0.200012 -0.529 134 85 78
0.450569 -0.203037 -0.537 139 90 86
0.46852 -0.20644 -0.546 143 95 91
0.476143 -0.207952 -0.55 144 96 92
-0.320623 -0.24092 -0.634 251 252 247
-0.314585 -0.24092 -0.634 129 136 128
-0.175207 -0.24358 -0.641 184 184 174
-0.162281 -0.24434 -0.643 188 188 176
-0.07276 -0.24396 -0.642 62 62 72
-0.0572714 -0.24054 -0.633 67 67 77
0.0890762 -0.1786 -0.47 193 146 130
0.0915667 -0.17822 -0.469 188 141 125
0.104073 -0.17822 -0.469 176 124 110
0.118976 -0.1805 -0.475 146 103 96
0.12428 -0.18164 -0.478 124 89 87
0.12926 -0.18354 -0.483 115 81 82
0.134867 -0.1862 -0.49 111 84 91
0.317671 -0.2109 -0.555 119 90 95
0.386378 -0.21622 -0.569 73 75 87
0.404808 -0.20368 -0.536 180 131 124
0.405588 -0.20254 -0.533 175 122 114
0.416429 -0.2014 -0.53 146 96 89
-0.328533 -0.244419 -0.64 250 253 246
-0.31217 -0.242128 -0.634 117 120 113
-0.161557 -0.246329 -0.645 189 189 177
0.0848971 -0.190189 -0.498 194 148 133
0.0847476 -0.183696 -0.481 198 152 136
0.10318 -0.179113 -0.469 179 127 113
0.10519 -0.179495 -0.47 176 124 110
0.11283 -0.180259 -0.472 164 112 99
0.139633 -0.189807 -0.497 176 165 173
0.154908 -0.199736 -0.523 217 226 255
0.338056 -0.202028 -0.529 163 148 151
0.438286 -0.229143 -0.6 52 48 62
0.404923 -0.207374 -0.543 185 134 131
0.404269 -0.205465 -0.538 184 135 128
0.4134 -0.20241 -0.53 144 94 87
0.466624 -0.208138 -0.545 139 94 89
1.12357 -0.248238 -0.65 196 198 184
-0.325269 -0.244103 -0.636 250 253 246
-0.317706 -0.242951 -0.633 238 241 234
-0.315294 -0.242951 -0.633 159 164 157
-0.0616038 -0.241032 -0.628 65 65 77
-0.05512 -0.244103 -0.636 65 68 77
0.0874714 -0.180774 -0.471 195 148 132
0.0985029 -0.179623 -0.468 182 130 116
0.119881 -0.18231 -0.475 138 98 90
0.318343 -0.207257 -0.54 127 95 100
0.324152 -0.205722 -0.536 125 94 99
0.332638 -0.203419 -0.53 157 132 136
0.363386 -0.210711 -0.549 37 35 40
0.394423 -0.221074 -0.576 87 87 99
0.436094 -0.229134 -0.597 54 50 64
0.404269 -0.20649 -0.538 185 136 131
0.419237 -0.203803 -0.531 139 89 82
0.455327 -0.206873 -0.539 143 95 91
-0.310962 -0.244543 -0.634 121 126 119
-0.283625 -0.249171 -0.646 255 255 250
-0.163706 -0.246471 -0.639 190 188 175
-0.0473733 -0.249171 -0.646 70 68 82
-0.045121 -0.250329 -0.649 72 70 84
0.110797 -0.181671 -0.471 168 119 105
0.121947 -0.1836 -0.476 128 93 89
0.14352 -0.1944 -0.504 210 203 219
0.31849 -0.209057 -0.542 126 95 101
0.325586 -0.206357 -0.535 126 94 97
0.329046 -0.205971 -0.534 124 95 99
0.331243 -0.204814 -0.531 131 106 110
0.354623 -0.209057 -0.542 45 30 35
0.38421 -0.219471 -0.569 102 100 111
0.401167 -0.2241 -0.581 84 84 96
0.4071 -0.204814 -0.531 164 107 96
0.416203 -0.204814 -0.531 148 98 91
0.43359 -0.204429 -0.53 141 91 82
0.465768 -0.209829 -0.544 143 95 91
-0.32578 -0.246913 -0.637 250 253 246
-0.2808 -0.251177 -0.648 255 255 251
-0.162743 -0.248076 -0.64 187 187 177
-0.0637924 -0.24265 -0.626 65 65 75
-0.0628 -0.243425 -0.628 65 65 75
0.0840429 -0.184894 -0.477 195 152 136
0.0856771 -0.182569 -0.471 196 149 133
0.1099 -0.182569 -0.471 173 121 107
0.320833 -0.208927 -0.539 125 94 100
0.332254 -0.205826 -0.531 165 143 146
0.442389 -0.237223 -0.612 90 87 98
0.402401 -0.209702 -0.541 192 137 134
0.403787 -0.207764 -0.536 177 132 129
0.406603 -0.206601 -0.533 168 113 106
0.407867 -0.206213 -0.532 163 106 95
0.415191 -0.205826 -0.531 158 105 99
0.416203 -0.205826 -0.531 153 103 96
0.443983 -0.206989 -0.534 131 82 75
-0.164665 -0.248516 -0.638 190 188 176
-0.0824143 -0.249685 -0.641 70 70 78
-0.07106 -0.244231 -0.627 66 66 78
-0.0439524 -0.25319 -0.65 73 71 82
0.104073 -0.182687 -0.469 182 129 115
0.107876 -0.183076 -0.47 175 122 106
0.130989 -0.189309 -0.486 108 84 84
0.155089 -0.205279 -0.527 203 210 226
0.320111 -0.211511 -0.543 125 92 101
0.325173 -0.208785 -0.536 119 94 97
0.354243 -0.211511 -0.543 41 30 34
0.370406 -0.217354 -0.558 66 64 67
0.41048 -0.22904 -0.588 89 85 100
0.408263 -0.216575 -0.556 122 105 111
0.404476 -0.213459 -0.548 174 130 129
0.464911 -0.211511 -0.543 139 96 89
-0.332844 -0.252863 -0.646 251 252 247
-0.325076 -0.249731 -0.638 252 253 248
-0.287207 -0.251689 -0.643 73 75 72
-0.2808 -0.253646 -0.648 252 253 247
-0.172765 -0.250906 -0.641 188 188 180
-0.0882514 -0.253646 -0.648 75 75 83
-0.0835048 -0.250514 -0.64 66 66 74
0.0833086 -0.187103 -0.478 195 152 135
0.0871 -0.18358 -0.469 192 145 127
0.0911762 -0.182797 -0.467 189 138 121
0.0993943 -0.183189 -0.468 186 133 117
0.109667 -0.183971 -0.47 171 119 105
0.112591 -0.184363 -0.471 166 117 103
0.325586 -0.209414 -0.535 121 90 96
0.33046 -0.208631 -0.533 126 96 104
0.330853 -0.20824 -0.532 126 101 105
0.337311 -0.207849 -0.531 124 107 113
0.353209 -0.212546 -0.543 48 33 36
0.355548 -0.213329 -0.545 38 29 32
0.374131 -0.219983 -0.562 114 112 117
0.390452 -0.225071 -0.575 104 101 112
0.396477 -0.226637 -0.579 83 80 91
0.410134 -0.207849 -0.531 162 109 105
0.413169 -0.207849 -0.531 139 86 82
0.421476 -0.207457 -0.53 132 83 76
0.422486 -0.207457 -0.53 132 83 76
-0.307824 -0.249767 -0.635 230 233 226
-0.0683429 -0.24544 -0.624 66 66 78
-0.0672619 -0.245833 -0.625 66 66 78
-0.0607924 -0.248587 -0.632 65 67 79
-0.0473733 -0.254093 -0.646 70 68 81
0.106086 -0.184867 -0.47 179 128 111
0.114629 -0.185653 -0.472 153 109 100
0.325173 -0.210827 -0.536 126 94 105
0.341628 -0.209647 -0.533 118 99 103
0.395374 -0.22774 -0.579 106 100 112
0.4033 -0.214367 -0.545 179 134 131
0.410907 -0.209253 -0.532 143 93 86
0.411146 -0.20886 -0.531 136 86 79
0.419237 -0.20886 -0.531 136 87 82
0.420467 -0.208467 -0.53 132 83 78
-0.334905 -0.256905 -0.65 252 253 247
-0.3175 -0.250976 -0.635 254 255 250
-0.290429 -0.253743 -0.642 255 255 255
-0.285643 -0.254929 -0.645 144 144 142
-0.169526 -0.252162 -0.638 190 190 182
-0.0867533 -0.251767 -0.637 70 69 83
-0.0806143 -0.247814 -0.627 67 67 77
-0.0742857 -0.246629 -0.624 67 67 77
0.0878057 -0.184971 -0.468 193 144 127
0.109667 -0.185762 -0.47 168 120 108
0.136243 -0.195643 -0.495 158 147 151
0.323734 -0.212243 -0.537 127 97 105
0.325994 -0.211057 -0.534 123 94 99
0.32843 -0.210662 -0.533 126 99 106
0.337947 -0.210267 -0.532 119 98 105
0.432993 -0.23991 -0.607 53 51 65
0.403738 -0.216195 -0.547 177 132 129
0.402401 -0.213824 -0.541 180 132 128
0.403244 -0.212638 -0.538 177 128 123
0.418226 -0.209871 -0.531 136 87 80
0.452614 -0.212243 -0.537 133 89 80
0.456353 -0.213033 -0.539 131 87 78
0.474411 -0.21659 -0.548 129 95 86
-0.30952 -0.252583 -0.636 251 252 244
-0.301513 -0.25298 -0.637 252 253 248
-0.2944 -0.254171 -0.64 251 253 248
-0.280429 -0.258143 -0.65 252 253 248
-0.159831 -0.255363 -0.643 195 195 185
-0.156137 -0.257349 -0.648 193 191 179
-0.0878286 -0.252583 -0.636 57 59 71
-0.0696429 -0.248214 -0.625 65 67 79
-0.0485286 -0.256157 -0.645 72 70 81
-0.0474467 -0.256951 -0.647 72 70 81
0.102069 -0.185863 -0.468 184 135 118
0.136518 -0.196983 -0.496 184 174 183
0.141881 -0.200557 -0.505 221 223 238
0.324249 -0.215649 -0.543 124 97 106
0.35412 -0.21684 -0.546 41 29 33
0.360114 -0.219223 -0.552 37 31 35
0.376794 -0.224783 -0.566 95 94 102
0.380959 -0.225974 -0.569 94 91 100
0.394271 -0.229946 -0.579 110 104 116
0.43442 -0.24186 -0.609 63 61 75
0.403 -0.21684 -0.546 177 129 125
0.40256 -0.216046 -0.544 178 130 126
0.40194 -0.21406 -0.539 177 128 123
0.41192 -0.21128 -0.532 142 92 85
0.423283 -0.210883 -0.531 140 90 83
0.44973 -0.212869 -0.536 136 92 83
0.453637 -0.213266 -0.537 136 91 85
0.475277 -0.218031 -0.549 127 90 81
-0.323657 -0.25539 -0.64 252 253 247
-0.30758 -0.254193 -0.637 250 251 245
-0.293639 -0.25579 -0.641 252 254 249
-0.292418 -0.25579 -0.641 251 253 248
-0.156643 -0.257386 -0.645 196 193 184
-0.152905 -0.259381 -0.65 195 191 180
-0.0717933 -0.248607 -0.623 66 69 76
-0.0587543 -0.253794 -0.636 71 70 78
-0.04968 -0.256987 -0.644 72 71 79
0.0824371 -0.18875 -0.473 200 155 136
0.0902867 -0.186355 -0.467 191 140 123
0.118726 -0.189149 -0.474 131 98 93
0.138571 -0.199524 -0.5 199 198 216
0.143691 -0.202716 -0.508 229 231 246
0.326605 -0.21349 -0.535 119 92 99
0.379208 -0.226659 -0.568 83 82 90
0.437726 -0.244217 -0.612 96 95 109
0.43928 -0.212293 -0.532 130 83 77
0.452614 -0.214289 -0.537 137 92 86
-0.313154 -0.255006 -0.636 252 253 247
-0.305632 -0.255808 -0.638 252 253 247
-0.0973686 -0.257812 -0.643 77 75 78
-0.0824733 -0.249793 -0.623 68 71 80
0.0947343 -0.187245 -0.467 189 138 119
0.0956238 -0.187245 -0.467 189 138 119
0.11122 -0.188047 -0.469 164 118 105
0.118726 -0.190051 -0.474 130 95 93
0.331673 -0.224132 -0.559 122 94 109
0.329046 -0.214109 -0.534 163 140 146
0.337567 -0.213708 -0.533 121 94 103
0.340871 -0.21451 -0.535 113 90 100
0.35075 -0.218118 -0.544 43 32 38
0.41397 -0.237765 -0.593 46 42 56
0.4151 -0.237765 -0.593 46 42 56
0.410914 -0.226137 -0.564 98 77 86
0.40194 -0.216113 -0.539 176 128 124
0.426727 -0.212104 -0.529 151 101 94
0.432581 -0.212505 -0.53 154 104 97
-0.303202 -0.257023 -0.638 252 253 247
-0.290881 -0.259037 -0.643 252 254 249
-0.283706 -0.261454 -0.649 133 135 132
-0.162681 -0.255814 -0.635 192 193 185
-0.159553 -0.25662 -0.637 193 193 183
-0.157867 -0.257829 -0.64 196 196 186
-0.0963086 -0.256217 -0.636 74 73 78
-0.0918 -0.2538 -0.63 72 72 80
-0.0833914 -0.250174 -0.621 68 71 80
-0.0773524 -0.249771 -0.62 67 70 77
-0.068781 -0.252994 -0.628 67 70 77
-0.0543324 -0.258231 -0.641 68 68 78
-0.0486038 -0.260246 -0.646 72 70 81
0.0956238 -0.188134 -0.467 190 139 120
0.0965133 -0.188134 -0.467 190 139 120
0.115528 -0.190149 -0.472 147 104 95
0.1265 -0.19458 -0.483 113 82 87
0.133814 -0.198609 -0.493 177 163 176
0.329046 -0.215126 -0.534 171 148 154
0.33046 -0.214723 -0.533 165 149 152
0.357363 -0.221974 -0.551 30 28 33
0.414669 -0.239297 -0.594 54 50 64
0.403557 -0.214723 -0.533 161 108 102
0.42126 -0.213917 -0.531 146 93 85
0.424505 -0.213514 -0.53 148 93 86
0.455507 -0.216737 -0.538 126 81 76
-0.3215 -0.260262 -0.643 252 253 248
-0.303677 -0.258643 -0.639 252 253 248
-0.299276 -0.259048 -0.64 252 253 248
-0.298057 -0.259048 -0.64 252 253 248
-0.288993 -0.261881 -0.647 251 253 248
-0.286971 -0.262286 -0.648 252 254 251
-0.15834 -0.257833 -0.637 199 199 189
-0.1505 -0.261071 -0.645 197 195 183
-0.146714 -0.263095 -0.65 209 206 189
-0.10488 -0.260667 -0.644 132 133 135
-0.1001 -0.257833 -0.637 75 76 80
-0.0831229 -0.250548 -0.619 68 71 80
-0.0730971 -0.252571 -0.624 69 69 77
-0.0497571 -0.261071 -0.645 72 72 82
0.0819143 -0.190238 -0.47 200 154 138
0.0900933 -0.188619 -0.466 192 143 126
0.0927562 -0.188619 -0.466 191 140 121
0.113248 -0.190238 -0.47 150 108 96
0.130866 -0.197929 -0.489 137 119 131
0.143005 -0.206024 -0.509 162 163 191
0.334521 -0.215738 -0.533 141 115 124
0.338833 -0.216548 -0.535 120 97 107
0.361665 -0.225048 -0.556 36 34 39
0.408505 -0.23881 -0.59 58 54 68
0.429971 -0.245286 -0.606 76 74 87
0.431837 -0.24569 -0.607 85 83 96
0.407271 -0.226262 -0.559 130 100 100
0.407867 -0.215333 -0.532 151 98 92
0.427734 -0.214119 -0.529 159 106 98
0.441121 -0.215738 -0.533 133 84 77
0.447871 -0.216548 -0.535 133 86 80
-0.321271 -0.2623 -0.645 252 253 248
-0.317331 -0.26108 -0.642 252 253 248
-0.287414 -0.263927 -0.649 254 255 253
-0.170949 -0.26352 -0.648 240 240 238
-0.159757 -0.25742 -0.633 210 210 202
-0.0919667 -0.253353 -0.623 72 75 84
-0.0819438 -0.251727 -0.619 69 72 81
-0.0565971 -0.25986 -0.639 69 69 77
0.0804648 -0.191947 -0.472 201 158 142
0.126762 -0.196827 -0.484 113 86 93
0.131133 -0.199267 -0.49 141 124 140
0.331571 -0.223667 -0.55 122 87 107
0.3302 -0.22204 -0.546 115 92 102
0.328813 -0.220413 -0.542 116 93 103
0.330063 -0.21716 -0.534 185 159 168
0.409197 -0.24034 -0.591 49 45 59
0.416987 -0.216347 -0.532 143 91 80
0.419013 -0.216347 -0.532 146 94 83
0.422486 -0.215533 -0.53 148 94 84
0.465946 -0.22082 -0.543 135 92 86
-0.321035 -0.264346 -0.647 252 253 248
-0.29624 -0.26312 -0.644 252 253 248
-0.157346 -0.258626 -0.633 216 217 211
-0.155424 -0.259443 -0.635 205 205 197
-0.150317 -0.261077 -0.639 199 199 189
-0.143572 -0.264346 -0.647 222 219 204
-0.130418 -0.265163 -0.649 228 225 210
-0.11646 -0.264346 -0.647 237 234 227
-0.08652 -0.252497 -0.618 72 72 80
0.0793333 -0.19448 -0.476 199 155 142
0.0918686 -0.190394 -0.466 190 141 124
0.105409 -0.190803 -0.467 175 128 112
0.110327 -0.19162 -0.469 167 121 106
0.115283 -0.192437 -0.471 143 105 96
0.330681 -0.218586 -0.535 135 112 122
0.352929 -0.224306 -0.549 36 30 34
0.418159 -0.244734 -0.599 79 75 89
0.424397 -0.246369 -0.603 45 41 55
0.404052 -0.218586 -0.535 164 114 105
0.43359 -0.216543 -0.53 143 95 85
0.445 -0.218177 -0.534 133 84 79
0.45466 -0.219403 -0.537 129 84 79
0.478058 -0.225123 -0.551 128 79 72
-0.316848 -0.265168 -0.646 252 252 250
-0.29281 -0.26681 -0.65 253 254 249
-0.151795 -0.260652 -0.635 212 211 206
-0.142907 -0.264347 -0.644 224 220 208
-0.135968 -0.265168 -0.646 223 220 205
-0.119786 -0.264757 -0.645 240 240 230
-0.11102 -0.261473 -0.637 106 106 106
-0.07866 -0.254906 -0.621 69 72 81
-0.0734486 -0.257369 -0.627 69 69 79
-0.0474467 -0.265578 -0.647 72 72 80
0.0863571 -0.190871 -0.465 197 151 136
0.112352 -0.192924 -0.47 152 110 98
0.331299 -0.220015 -0.536 116 96 107
0.3317 -0.219605 -0.535 115 95 106
0.360193 -0.228635 -0.557 35 30 36
0.38212 -0.235613 -0.574 69 68 74
0.39342 -0.238487 -0.581 88 85 96
0.416322 -0.245465 -0.598 74 72 85
0.401657 -0.221657 -0.54 170 121 114
0.478926 -0.226583 -0.552 127 80 74
-0.312409 -0.26681 -0.647 253 253 251
-0.164987 -0.265573 -0.644 202 202 204
-0.160514 -0.262274 -0.636 231 233 230
-0.152282 -0.260625 -0.632 249 248 244
-0.147651 -0.263099 -0.638 199 199 191
-0.14124 -0.264749 -0.642 225 221 212
-0.122897 -0.264749 -0.642 234 233 228
-0.0703114 -0.260212 -0.631 70 70 78
-0.0647095 -0.261862 -0.635 71 70 76
0.0925571 -0.191757 -0.465 191 142 125
0.0945314 -0.19217 -0.466 190 141 124
0.095419 -0.19217 -0.466 190 141 124
0.105409 -0.192582 -0.467 173 126 110
0.107188 -0.192582 -0.467 167 121 105
0.1302 -0.202067 -0.49 136 125 155
0.145252 -0.213201 -0.517 223 229 245
0.331917 -0.221449 -0.537 119 99 110
0.358488 -0.229284 -0.556 36 31 38
0.388086 -0.238356 -0.578 69 69 77
0.405086 -0.229284 -0.556 167 124 118
0.403542 -0.227222 -0.551 175 125 116
0.403033 -0.220624 -0.535 162 112 105
0.404314 -0.220211 -0.534 160 107 101
0.406089 -0.218974 -0.531 156 101 94
0.420681 -0.21815 -0.529 153 96 85
0.44973 -0.221036 -0.536 131 86 81
-0.310902 -0.268871 -0.649 251 251 249
-0.303952 -0.269286 -0.65 253 253 251
-0.142567 -0.2639 -0.637 233 230 223
-0.121749 -0.263486 -0.636 192 193 188
-0.0944533 -0.2552 -0.616 65 65 75
-0.0820762 -0.256857 -0.62 72 75 82
0.0863571 -0.192643 -0.465 197 152 133
0.0872429 -0.192643 -0.465 195 150 131
0.0890143 -0.192643 -0.465 195 148 130
0.0925571 -0.192643 -0.465 191 142 125
0.095419 -0.193057 -0.466 189 140 123
0.10252 -0.193057 -0.466 177 130 114
0.1092 -0.193886 -0.468 162 119 102
0.375114 -0.236143 -0.57 69 68 76
0.385216 -0.239043 -0.577 43 41 52
0.391207 -0.2407 -0.581 81 81 91
0.395451 -0.241943 -0.584 78 76 87
0.407193 -0.245671 -0.593 35 35 47
0.403 -0.2262 -0.546 168 119 115
0.41418 -0.219986 -0.531 147 90 81
0.417214 -0.219986 -0.531 149 92 83
-0.153955 -0.261784 -0.629 195 195 197
-0.1494 -0.2622 -0.63 244 244 242
-0.122187 -0.263032 -0.632 112 111 117
-0.115065 -0.260535 -0.626 73 72 80
-0.0779762 -0.260119 -0.625 69 72 79
-0.065919 -0.264281 -0.635 71 71 79
0.0863571 -0.193529 -0.465 197 152 133
0.100745 -0.193945 -0.466 183 136 120
0.105409 -0.194361 -0.467 168 120 106
0.118071 -0.19769 -0.475 123 92 89
0.120638 -0.198939 -0.478 119 89 89
0.41164 -0.238893 -0.574 60 50 58
0.408419 -0.236396 -0.568 82 72 80
0.401471 -0.223494 -0.537 164 114 107
0.411146 -0.220997 -0.531 154 97 90
0.4346 -0.220581 -0.53 135 85 78
0.452614 -0.223494 -0.537 129 84 78
-0.125201 -0.262982 -0.629 90 91 93
-0.116887 -0.260473 -0.623 71 70 78
-0.109885 -0.257965 -0.617 69 68 76
-0.103503 -0.25671 -0.614 75 74 82
-0.0939933 -0.256292 -0.613 74 74 82
-0.0726 -0.2634 -0.63 69 72 79
0.0881286 -0.194414 -0.465 196 151 130
0.100745 -0.194832 -0.466 182 135 119
0.112352 -0.196505 -0.47 144 106 95
0.119477 -0.199431 -0.477 117 87 87
0.128071 -0.204449 -0.489 109 99 124
0.12953 -0.205285 -0.491 119 109 134
0.131263 -0.206539 -0.494 119 115 150
0.133007 -0.207793 -0.497 123 119 154
0.370121 -0.237896 -0.569 53 48 55
0.396806 -0.245004 -0.586 62 62 72
0.417214 -0.222009 -0.531 149 95 85
0.423704 -0.221172 -0.529 153 98 91
0.437443 -0.222009 -0.531 132 83 76
0.46199 -0.226608 -0.542 127 84 77
-0.154934 -0.26586 -0.633 109 108 113
-0.134143 -0.26292 -0.626 116 115 120
-0.122623 -0.26124 -0.622 70 71 76
-0.101833 -0.25662 -0.611 75 74 82
-0.0726 -0.2646 -0.63 72 72 80
-0.05564 -0.26964 -0.642 134 134 142
0.0881286 -0.1953 -0.465 196 151 130
0.101632 -0.19572 -0.466 178 130 116
0.119728 -0.20076 -0.478 116 85 82
0.122311 -0.20202 -0.481 110 86 86
0.12374 -0.20286 -0.483 112 88 88
0.12688 -0.20496 -0.488 123 105 127
0.377089 -0.24066 -0.573 99 100 105
0.39816 -0.24696 -0.588 54 52 63
0.403692 -0.23394 -0.557 162 121 115
0.40256 -0.22848 -0.544 167 114 106
0.425719 -0.22218 -0.529 151 98 90
0.43928 -0.22344 -0.532 129 82 76
0.446017 -0.22428 -0.534 123 76 68
0.454482 -0.22596 -0.538 136 89 83
0.463877 -0.22806 -0.543 123 78 72
1.13595 -0.273 -0.65 202 206 191
-0.153486 -0.266644 -0.632 108 109 113
-0.128133 -0.261581 -0.62 74 73 81
-0.1073 -0.25694 -0.609 68 67 75
-0.0759581 -0.264956 -0.628 70 70 78
-0.0545019 -0.271285 -0.643 78 78 88
0.0844038 -0.195764 -0.464 200 155 136
0.0907857 -0.196186 -0.465 192 147 128
0.117167 -0.200405 -0.475 120 86 85
0.11832 -0.200827 -0.476 120 86 85
0.141748 -0.217281 -0.515 148 159 204
0.393227 -0.246392 -0.584 83 83 93
0.407433 -0.251033 -0.595 40 38 51
0.420737 -0.255674 -0.606 47 44 55
0.41334 -0.245127 -0.581 52 46 58
0.409453 -0.242173 -0.574 74 58 68
0.40194 -0.227407 -0.539 162 109 101
0.422696 -0.223188 -0.529 152 99 93
0.426727 -0.223188 -0.529 141 91 84
0.431765 -0.223188 -0.529 136 87 82
0.437443 -0.224031 -0.531 130 83 77
0.446852 -0.225719 -0.535 121 76 70
0.454482 -0.226985 -0.538 135 90 84
0.45738 -0.227407 -0.539 134 89 83
0.459257 -0.227829 -0.54 128 83 78
-0.129653 -0.261067 -0.616 75 74 82
-0.0983419 -0.258948 -0.611 77 76 84
-0.0814171 -0.264457 -0.624 73 73 81
-0.074881 -0.266576 -0.629 71 71 79
-0.0738 -0.267 -0.63 71 71 79
0.0819286 -0.197071 -0.465 199 156 137
0.0934429 -0.197071 -0.465 191 143 123
0.0952143 -0.197071 -0.465 189 142 124
0.1092 -0.198343 -0.468 148 108 98
0.34372 -0.2314 -0.546 61 49 51
0.362571 -0.239029 -0.564 38 33 39
0.373814 -0.242843 -0.573 88 86 91
0.398837 -0.249624 -0.589 41 39 50
0.41239 -0.224619 -0.53 159 105 93
0.424711 -0.224195 -0.529 145 95 88
0.426727 -0.224195 -0.529 139 89 82
0.44973 -0.227162 -0.536 129 84 78
0.475095 -0.233095 -0.55 120 79 75
-0.156643 -0.274586 -0.645 122 123 125
-0.151317 -0.269477 -0.633 109 110 114
-0.101167 -0.258409 -0.607 73 72 78
-0.100175 -0.258834 -0.608 75 74 82
-0.09918 -0.25926 -0.609 75 74 82
-0.0847105 -0.264794 -0.622 75 75 83
-0.0804857 -0.266497 -0.626 72 72 80
-0.0782257 -0.266923 -0.627 72 72 80
-0.0592162 -0.272883 -0.641 73 73 83
0.087939 -0.197531 -0.464 196 151 132
0.107188 -0.198809 -0.467 157 111 98
0.123074 -0.206046 -0.484 114 98 111
0.379063 -0.245211 -0.576 86 83 90
0.406983 -0.253726 -0.596 40 37 48
0.405588 -0.226906 -0.533 159 107 96
0.410371 -0.225629 -0.53 159 105 93
0.415419 -0.225629 -0.53 160 108 97
0.43928 -0.22648 -0.532 127 83 74
0.45075 -0.228183 -0.536 133 88 82
0.458229 -0.229886 -0.54 130 87 81
0.477874 -0.234994 -0.552 123 83 75
-0.147965 -0.268972 -0.629 105 106 111
-0.133474 -0.261703 -0.612 68 67 73
-0.12934 -0.26042 -0.609 60 59 67
-0.107213 -0.257427 -0.602 65 64 72
-0.10034 -0.26042 -0.609 74 73 81
-0.0964857 -0.262558 -0.614 76 75 83
-0.0815476 -0.267262 -0.625 74 73 79
-0.0604371 -0.274104 -0.641 73 73 83
0.0765429 -0.200981 -0.47 201 158 141
0.0785543 -0.19927 -0.466 201 158 139
0.10252 -0.19927 -0.466 169 121 107
0.110327 -0.200553 -0.469 141 105 93
0.391002 -0.24973 -0.584 43 41 52
0.416586 -0.25871 -0.605 49 43 55
0.424505 -0.226638 -0.53 136 87 80
0.428742 -0.22621 -0.529 135 86 79
0.477874 -0.236046 -0.552 123 82 76
-0.127128 -0.259432 -0.604 66 66 74
-0.0956267 -0.264587 -0.616 74 75 80
-0.0616581 -0.275325 -0.641 71 71 81
-0.0558133 -0.276613 -0.644 97 97 107
-0.0499114 -0.277902 -0.647 73 73 83
0.0757467 -0.212185 -0.494 202 159 143
0.0753886 -0.203594 -0.474 203 159 146
0.0976609 -0.199299 -0.464 178 131 113
0.0985448 -0.199299 -0.464 177 130 112
0.131905 -0.214762 -0.5 130 134 179
0.358711 -0.241822 -0.563 41 31 39
0.379721 -0.247835 -0.577 73 67 77
0.391002 -0.250842 -0.584 29 26 37
0.417438 -0.227648 -0.53 150 100 89
0.425719 -0.227218 -0.529 135 86 79
0.436431 -0.228077 -0.531 130 86 77
0.43928 -0.228507 -0.532 125 81 72
0.448709 -0.230225 -0.536 123 78 72
0.452614 -0.230654 -0.537 126 83 76
1.13348 -0.27919 -0.65 204 206 192
-0.144141 -0.270937 -0.628 97 101 104
-0.136028 -0.264466 -0.613 81 82 87
-0.123587 -0.257994 -0.598 72 73 78
-0.119567 -0.2567 -0.595 66 67 72
-0.0998314 -0.264466 -0.613 71 70 78
-0.0882648 -0.268349 -0.622 75 75 83
-0.0806143 -0.270506 -0.627 73 71 82
-0.0752381 -0.272663 -0.632 73 74 79
-0.0651171 -0.275683 -0.639 73 71 82
0.0776667 -0.201046 -0.466 199 161 142
0.10252 -0.201046 -0.466 164 118 103
0.111457 -0.202771 -0.47 134 98 86
0.119314 -0.207086 -0.48 110 84 87
0.374024 -0.248071 -0.575 37 29 40
0.4033 -0.239443 -0.555 166 116 109
0.403432 -0.236423 -0.548 165 112 104
0.40256 -0.234697 -0.544 163 110 102
0.403787 -0.231246 -0.536 161 107 97
0.409123 -0.229089 -0.531 157 105 92
0.42975 -0.228226 -0.529 133 89 80
0.482396 -0.239874 -0.556 123 85 76
-0.101667 -0.264333 -0.61 67 66 74
-0.0989857 -0.2665 -0.615 68 68 76
-0.0949133 -0.268233 -0.619 73 73 81
-0.0884067 -0.269967 -0.623 77 76 84
-0.0522952 -0.279933 -0.646 73 71 82
0.0750705 -0.204533 -0.472 202 160 144
0.101414 -0.2015 -0.465 161 118 102
0.13069 -0.216233 -0.499 162 174 214
0.367266 -0.2483 -0.573 40 30 39
0.383243 -0.2509 -0.579 23 17 27
0.389222 -0.252633 -0.583 21 18 27
0.406529 -0.2587 -0.597 53 51 64
0.412687 -0.260433 -0.601 42 38 52
0.404105 -0.243533 -0.562 153 113 111
0.440293 -0.230533 -0.532 120 82 71
0.446852 -0.231833 -0.535 116 75 69
1.13388 -0.279933 -0.646 203 205 191
-0.127641 -0.261578 -0.601 66 67 72
-0.118964 -0.257661 -0.592 71 72 77
-0.111446 -0.258531 -0.594 92 93 98
-0.10266 -0.26506 -0.609 62 61 69
-0.0895933 -0.271153 -0.623 76 75 83
-0.0840629 -0.272459 -0.626 76 75 81
-0.0764419 -0.27507 -0.632 74 73 79
0.0948048 -0.201515 -0.463 184 135 118
0.12291 -0.211961 -0.487 120 112 123
0.36572 -0.249827 -0.574 38 33 37
0.377076 -0.251568 -0.578 35 28 35
0.403343 -0.248086 -0.57 111 89 92
0.403953 -0.240687 -0.553 167 112 105
0.402854 -0.236334 -0.543 159 106 98
0.404269 -0.234158 -0.538 158 103 96
0.408352 -0.230676 -0.53 159 105 95
0.4346 -0.230676 -0.53 131 89 77
0.475095 -0.239381 -0.55 121 83 72
-0.109734 -0.260974 -0.597 54 55 60
0.0738933 -0.20808 -0.476 200 162 143
0.0877495 -0.202397 -0.463 194 147 129
0.0895133 -0.202397 -0.463 192 145 125
0.0939229 -0.202397 -0.463 186 137 120
0.110797 -0.205894 -0.471 130 96 97
0.118647 -0.210266 -0.481 104 86 86
0.370648 -0.253543 -0.58 37 29 40
0.376171 -0.253543 -0.58 39 29 38
0.384346 -0.253106 -0.579 20 13 21
0.39928 -0.25704 -0.588 35 27 40
0.404027 -0.243051 -0.556 164 111 107
0.403857 -0.240429 -0.55 165 110 105
0.406603 -0.232997 -0.533 160 106 96
0.421689 -0.231249 -0.529 137 88 74
0.437443 -0.232123 -0.531 126 86 74
0.443151 -0.232997 -0.533 125 85 77
0.446852 -0.233871 -0.535 120 80 72
0.454482 -0.235183 -0.538 121 83 74
0.475095 -0.240429 -0.55 115 79 67
1.12976 -0.284143 -0.65 204 206 192
1.13071 -0.282831 -0.647 204 206 193
-0.128703 -0.266063 -0.606 121 124 129
-0.104635 -0.266502 -0.607 61 60 68
-0.0830029 -0.275283 -0.627 75 76 81
-0.0512229 -0.284503 -0.648 72 70 81
0.0745933 -0.205913 -0.469 205 162 143
0.0912771 -0.203279 -0.463 186 140 117
0.0994286 -0.203718 -0.464 168 120 108
0.113309 -0.208109 -0.474 115 85 87
0.13052 -0.220402 -0.502 201 202 230
0.383682 -0.25377 -0.578 17 11 21
0.40031 -0.252452 -0.575 65 49 59
0.400846 -0.249379 -0.568 119 90 92
0.404357 -0.243671 -0.555 161 108 102
0.404684 -0.243232 -0.554 161 108 102
0.40404 -0.23972 -0.546 155 105 98
0.403596 -0.238842 -0.544 152 102 95
0.428742 -0.232256 -0.529 142 94 82
0.431571 -0.232695 -0.53 141 94 84
0.443151 -0.234012 -0.533 125 85 77
0.447871 -0.23489 -0.535 119 79 71
0.484325 -0.24455 -0.557 117 84 75
-0.106419 -0.266335 -0.604 61 62 67
-0.0853914 -0.276477 -0.627 75 75 83
-0.07098 -0.280887 -0.637 71 74 79
-0.065219 -0.28221 -0.64 74 73 79
-0.0617543 -0.283091 -0.642 73 72 78
-0.0571286 -0.284414 -0.645 70 69 77
-0.0499886 -0.285737 -0.648 71 69 80
0.08668 -0.20372 -0.462 194 147 127
0.105409 -0.205925 -0.467 142 106 92
0.123919 -0.216508 -0.491 163 154 171
0.377469 -0.256634 -0.582 48 33 40
0.396893 -0.25487 -0.578 41 35 47
0.397427 -0.253107 -0.574 56 40 51
0.402679 -0.248256 -0.563 143 106 100
0.410371 -0.233705 -0.53 154 101 95
0.418666 -0.233264 -0.529 148 98 91
0.453457 -0.237232 -0.538 120 81 74
0.484325 -0.24561 -0.557 120 83 75
1.12926 -0.286178 -0.649 205 207 193
1.13336 -0.284414 -0.645 203 205 192
-0.116841 -0.259957 -0.587 116 121 125
-0.0987686 -0.275014 -0.621 60 61 66
-0.0617543 -0.284314 -0.642 72 71 77
0.0757286 -0.205929 -0.465 203 161 145
0.0987571 -0.205929 -0.465 168 118 107
0.104519 -0.206814 -0.467 140 104 90
0.377186 -0.259071 -0.585 85 60 63
0.379934 -0.256414 -0.579 50 35 40
0.416429 -0.234714 -0.53 149 99 92
0.458229 -0.239143 -0.54 121 83 74
0.46956 -0.2418 -0.546 114 76 67
1.11738 -0.287857 -0.65 206 208 195
1.12481 -0.287857 -0.65 205 207 196
-0.122347 -0.263299 -0.592 116 121 125
-0.11928 -0.26152 -0.588 117 122 126
-0.10955 -0.265078 -0.596 61 62 67
-0.106419 -0.268636 -0.604 66 67 72
-0.102333 -0.273084 -0.614 59 59 67
0.0725343 -0.213041 -0.479 205 162 146
0.08492 -0.20548 -0.462 195 149 133
0.107876 -0.209038 -0.47 131 97 87
0.38169 -0.255738 -0.575 71 52 58
0.390594 -0.254404 -0.572 73 57 67
0.403034 -0.249956 -0.562 152 105 97
0.404462 -0.240616 -0.541 149 99 90
0.406586 -0.238837 -0.537 156 103 95
0.410134 -0.236169 -0.531 156 103 97
0.41441 -0.235724 -0.53 151 101 94
0.417658 -0.235279 -0.529 148 98 91
0.422696 -0.235279 -0.529 142 92 81
0.426727 -0.235279 -0.529 142 92 81
0.427734 -0.235279 -0.529 142 92 81
