ply
format ascii 1.0
comment Created by Open3D
element vertex 1321
property double x
property double y
property double z
property uchar red
property uchar green
property uchar blue
end_header
0.436341 -0.466943 -0.554 201 201 203
0.451929 -0.467786 -0.555 191 191 193
0.459556 -0.466943 -0.554 182 180 181
0.465671 -0.467786 -0.555 174 172 173
0.46757 -0.468629 -0.556 174 172 173
0.48074 -0.471157 -0.559 167 165 166
0.492452 -0.471157 -0.559 156 152 153
0.498121 -0.474529 -0.563 127 123 122
0.499193 -0.474529 -0.563 125 121 120
0.499377 -0.473686 -0.562 124 120 119
0.509011 -0.473686 -0.562 104 100 99
0.482381 -0.421429 -0.5 136 104 89
-0.0519686 -0.357334 -0.423 194 154 118
-0.0482848 -0.353955 -0.419 188 148 112
-0.0449848 -0.35311 -0.418 191 152 113
-0.0409057 -0.352266 -0.417 190 151 110
-0.0385229 -0.352266 -0.417 189 150 107
-0.0344686 -0.351421 -0.416 181 143 104
-0.0236 -0.3548 -0.42 178 137 107
-0.0220524 -0.355645 -0.421 174 135 106
-0.0212505 -0.355645 -0.421 170 135 107
-0.0196467 -0.355645 -0.421 168 131 104
-0.0117657 -0.359869 -0.426 163 121 99
0.036441 -0.389435 -0.461 134 98 86
0.0413629 -0.394504 -0.467 126 98 86
0.0512714 -0.40971 -0.485 108 89 82
0.0589229 -0.424915 -0.503 89 79 78
0.430287 -0.467153 -0.553 200 200 200
0.437396 -0.467998 -0.554 192 192 192
0.491687 -0.475601 -0.563 138 134 135
0.50343 -0.48067 -0.569 98 92 92
0.52619 -0.48067 -0.569 54 52 53
0.525571 -0.478135 -0.566 53 49 48
0.47917 -0.412244 -0.488 153 114 85
0.4929 -0.402951 -0.477 177 128 95
0.49368 -0.402107 -0.476 177 128 95
0.494452 -0.401262 -0.475 177 128 95
0.496262 -0.401262 -0.475 179 131 95
0.496875 -0.399572 -0.473 174 126 90
0.501951 -0.397883 -0.471 172 124 88
0.513614 -0.397883 -0.471 163 118 85
0.515409 -0.397883 -0.471 161 116 83
0.517402 -0.398728 -0.472 158 113 80
0.522303 -0.400417 -0.474 152 109 77
0.536627 -0.407175 -0.482 140 104 78
0.547214 -0.413089 -0.489 139 104 76
0.564108 -0.421536 -0.499 129 99 75
-0.31878 -0.456353 -0.539 224 225 217
-0.05396 -0.36068 -0.426 189 151 114
-0.0448771 -0.35306 -0.417 193 154 115
-0.022 -0.3556 -0.42 174 133 103
-0.0196467 -0.356447 -0.421 170 129 101
-0.0133257 -0.358987 -0.424 167 125 101
0.000410476 -0.364913 -0.431 169 124 103
0.00621429 -0.3683 -0.435 166 123 104
0.00957238 -0.369993 -0.437 163 122 100
0.0104048 -0.369993 -0.437 164 123 101
0.012961 -0.371687 -0.439 157 119 98
0.018101 -0.374227 -0.442 150 113 95
0.0403 -0.3937 -0.465 128 100 89
0.0512714 -0.410633 -0.485 109 90 84
0.0695438 -0.451273 -0.533 169 176 182
0.40848 -0.46736 -0.552 200 202 201
0.409531 -0.46736 -0.552 200 200 200
0.422913 -0.468207 -0.553 190 188 189
0.42502 -0.468207 -0.553 189 187 188
0.428954 -0.469053 -0.554 186 185 183
0.43423 -0.469053 -0.554 183 181 182
0.450871 -0.4699 -0.555 168 166 167
0.452986 -0.4699 -0.555 166 164 165
0.456979 -0.470747 -0.556 161 157 158
0.464392 -0.470747 -0.556 146 142 141
0.501262 -0.481753 -0.569 103 99 98
0.525523 -0.48514 -0.573 50 48 51
0.529127 -0.483447 -0.571 42 37 41
0.493791 -0.43942 -0.519 113 93 82
0.49192 -0.43688 -0.516 115 95 84
0.482367 -0.422487 -0.499 135 103 82
0.485843 -0.405553 -0.479 175 129 96
0.492773 -0.403013 -0.476 176 127 94
0.494452 -0.402167 -0.475 175 126 93
0.500157 -0.39878 -0.471 173 124 91
0.510733 -0.397933 -0.47 167 121 87
0.518301 -0.399627 -0.472 159 114 81
0.521201 -0.400473 -0.473 155 110 79
0.524109 -0.40132 -0.474 138 108 74
-0.0719771 -0.454834 -0.536 186 146 110
-0.0297857 -0.353854 -0.417 182 144 107
-0.0281971 -0.353854 -0.417 182 142 107
-0.00692952 -0.363189 -0.428 163 120 101
-0.00611429 -0.363189 -0.428 164 121 102
-0.00122571 -0.364037 -0.429 167 125 103
0.00371143 -0.367431 -0.433 165 123 101
0.0146667 -0.373371 -0.44 157 119 100
0.0343838 -0.387797 -0.457 131 101 90
0.0393295 -0.393737 -0.464 127 98 90
0.0478 -0.405617 -0.478 110 90 83
0.392709 -0.468411 -0.552 201 199 200
0.414487 -0.46926 -0.553 183 183 183
0.431065 -0.470109 -0.554 174 173 171
0.463333 -0.471806 -0.556 115 109 111
0.49194 -0.48114 -0.567 82 76 78
0.500849 -0.484534 -0.571 74 68 70
0.51338 -0.491323 -0.579 54 49 53
0.484317 -0.426831 -0.503 129 102 83
0.480043 -0.413254 -0.487 158 117 89
0.48162 -0.40986 -0.483 159 115 86
0.501054 -0.399677 -0.471 175 126 93
0.500886 -0.398829 -0.47 172 123 90
0.513419 -0.398829 -0.47 164 118 85
0.527024 -0.403071 -0.475 142 108 80
0.55094 -0.414951 -0.489 140 106 79
-0.318189 -0.457556 -0.538 223 224 216
-0.0718429 -0.455005 -0.535 185 145 109
-0.0497619 -0.355499 -0.418 190 152 115
-0.0416 -0.353798 -0.416 192 150 112
-0.0400152 -0.353798 -0.416 191 152 111
-0.0351762 -0.352948 -0.415 182 142 106
-0.0297143 -0.353798 -0.416 182 142 107
-0.022 -0.3572 -0.42 173 132 102
-0.0109286 -0.361452 -0.425 161 120 98
-0.00611429 -0.364004 -0.428 163 122 100
0.0129314 -0.372509 -0.438 156 118 99
0.0146333 -0.373359 -0.439 155 116 99
0.027 -0.382714 -0.45 142 109 94
0.0297686 -0.385266 -0.453 139 106 91
0.37904 -0.469463 -0.552 195 197 194
0.427614 -0.472014 -0.555 154 149 153
0.4403 -0.472014 -0.555 123 119 120
0.464167 -0.473715 -0.557 81 75 79
0.469028 -0.475416 -0.559 71 67 68
0.472843 -0.477117 -0.561 69 65 66
0.538393 -0.494127 -0.581 39 36 47
0.50312 -0.452453 -0.532 107 87 80
0.500343 -0.449051 -0.528 108 88 79
0.481329 -0.420986 -0.495 146 108 87
0.48654 -0.405677 -0.477 174 125 93
0.487449 -0.405677 -0.477 175 126 94
0.489266 -0.405677 -0.477 169 120 88
0.491867 -0.404827 -0.476 177 128 96
0.5181 -0.400574 -0.471 166 117 85
0.544586 -0.412481 -0.485 139 105 78
-0.0415 -0.353738 -0.415 193 150 115
-0.0164781 -0.359705 -0.422 170 130 105
-0.0141 -0.360557 -0.423 167 127 102
-0.00691333 -0.363967 -0.427 162 121 99
0.0120971 -0.373343 -0.438 160 119 101
0.0242657 -0.381014 -0.447 145 108 92
0.0297686 -0.386129 -0.453 139 105 93
0.362217 -0.470514 -0.552 203 204 198
0.363269 -0.470514 -0.552 202 203 197
0.403629 -0.472219 -0.554 164 161 168
0.406794 -0.472219 -0.554 156 155 150
0.40996 -0.472219 -0.554 150 149 145
0.430503 -0.473924 -0.556 109 104 110
0.434739 -0.473924 -0.556 102 96 98
0.441093 -0.473924 -0.556 87 81 85
0.451435 -0.474776 -0.557 70 64 66
0.457801 -0.474776 -0.557 65 56 61
0.463937 -0.475629 -0.558 60 55 59
0.490073 -0.435567 -0.511 128 100 88
0.481262 -0.420224 -0.493 151 111 86
0.481223 -0.419371 -0.492 152 112 86
0.484114 -0.409143 -0.48 172 126 93
0.488357 -0.406586 -0.477 174 125 93
0.490053 -0.405733 -0.476 168 122 89
0.496875 -0.403176 -0.473 177 128 96
0.498522 -0.402324 -0.472 163 114 81
0.49926 -0.401471 -0.471 147 98 65
0.50856 -0.398914 -0.468 165 119 86
0.512327 -0.399767 -0.469 169 123 90
0.51322 -0.399767 -0.469 169 123 90
0.539178 -0.409995 -0.481 144 110 82
0.54234 -0.4117 -0.483 142 108 80
-0.321689 -0.458751 -0.537 223 224 216
-0.0578505 -0.373323 -0.437 185 149 115
-0.0524 -0.3588 -0.42 190 152 116
-0.0226914 -0.357091 -0.418 172 133 102
-0.0218952 -0.357091 -0.418 172 133 104
-0.0148705 -0.360509 -0.422 166 126 101
0.00287333 -0.368197 -0.431 162 121 101
0.00787143 -0.371614 -0.435 164 123 105
0.0146333 -0.375031 -0.439 151 112 95
0.0198295 -0.378449 -0.443 150 114 100
0.0224619 -0.380157 -0.445 143 107 93
0.0251171 -0.381866 -0.447 143 107 91
0.34057 -0.470711 -0.551 207 205 208
0.359713 -0.47242 -0.553 189 189 191
0.407204 -0.474983 -0.556 121 119 122
0.414929 -0.474129 -0.555 110 104 108
0.428385 -0.474983 -0.556 80 74 78
0.43368 -0.474983 -0.556 73 68 72
0.439765 -0.475837 -0.557 68 63 67
0.51352 -0.50232 -0.588 56 55 60
0.542031 -0.504883 -0.591 34 33 41
0.524267 -0.4784 -0.56 43 36 43
0.517829 -0.471566 -0.552 86 79 86
0.482327 -0.42458 -0.497 141 103 82
0.482301 -0.423726 -0.496 144 106 85
0.48097 -0.416037 -0.487 160 116 89
0.480909 -0.415183 -0.486 160 116 89
0.48654 -0.407494 -0.477 167 120 90
0.489929 -0.405786 -0.475 173 127 94
0.495073 -0.404077 -0.473 175 124 93
0.498363 -0.402369 -0.471 162 113 81
0.501781 -0.401514 -0.47 174 125 93
0.543053 -0.411766 -0.482 143 106 80
-0.0429771 -0.354463 -0.414 190 150 114
-0.0406114 -0.354463 -0.414 189 149 113
-0.017241 -0.360456 -0.421 167 127 102
-0.0125181 -0.363025 -0.424 166 126 101
0.0112114 -0.373299 -0.436 160 118 102
0.0287781 -0.386142 -0.451 137 105 92
0.0325 -0.389567 -0.455 133 103 93
0.0422524 -0.399841 -0.467 119 96 88
0.321095 -0.470905 -0.55 208 208 210
0.322143 -0.470905 -0.55 208 208 210
0.324828 -0.471761 -0.551 204 204 206
0.332174 -0.471761 -0.551 197 197 199
0.338034 -0.472617 -0.552 194 192 195
0.339086 -0.472617 -0.552 193 191 194
0.359309 -0.47433 -0.554 176 176 178
0.364585 -0.47433 -0.554 171 171 173
0.393083 -0.476898 -0.557 118 113 117
0.394144 -0.476898 -0.557 114 109 115
0.400883 -0.47861 -0.559 102 97 101
0.407271 -0.47861 -0.559 89 84 90
0.408669 -0.477754 -0.558 86 81 85
0.434177 -0.477754 -0.558 63 61 66
0.451183 -0.477754 -0.558 60 59 65
0.453309 -0.477754 -0.558 60 57 64
0.460267 -0.479467 -0.56 58 57 63
0.464533 -0.479467 -0.56 57 58 63
0.488173 -0.491453 -0.574 55 56 61
0.492923 -0.494022 -0.577 55 56 61
0.507309 -0.501728 -0.586 56 55 63
0.542736 -0.507721 -0.593 16 15 23
0.547046 -0.508577 -0.594 18 12 24
0.503186 -0.454637 -0.531 109 87 76
0.481541 -0.412684 -0.482 167 122 93
0.48654 -0.408403 -0.477 169 120 90
0.493411 -0.405834 -0.474 173 124 92
0.496724 -0.404122 -0.472 176 127 97
0.49999 -0.40241 -0.47 174 125 95
0.500886 -0.40241 -0.47 174 125 95
0.501607 -0.401553 -0.469 175 126 96
0.512126 -0.400697 -0.468 171 125 92
-0.0713057 -0.455649 -0.531 186 148 112
-0.04692 -0.355251 -0.414 190 152 115
-0.03658 -0.354393 -0.413 189 149 114
-0.0350067 -0.354393 -0.413 185 145 110
-0.0295714 -0.355251 -0.414 179 140 107
-0.0234314 -0.357826 -0.417 170 131 102
-0.00769048 -0.36469 -0.425 161 120 98
0.017181 -0.377562 -0.44 149 111 98
0.0189 -0.37842 -0.441 149 113 99
0.0464971 -0.406737 -0.474 111 92 85
0.0477 -0.409311 -0.477 111 92 85
0.0577343 -0.429906 -0.501 87 81 93
0.309571 -0.471952 -0.55 201 201 203
0.33338 -0.474527 -0.553 183 183 185
0.369742 -0.477959 -0.557 127 126 132
0.377846 -0.478817 -0.558 112 109 116
0.382097 -0.478817 -0.558 98 95 102
0.424308 -0.479675 -0.559 59 58 64
0.426437 -0.479675 -0.559 62 61 67
0.432826 -0.479675 -0.559 61 60 66
0.456 -0.480533 -0.56 57 56 64
0.4995 -0.4505 -0.525 97 80 72
0.496687 -0.447068 -0.521 92 75 67
0.491032 -0.439345 -0.512 116 93 79
0.487205 -0.433338 -0.505 125 98 81
0.48162 -0.41446 -0.483 160 113 85
0.482286 -0.411886 -0.48 172 122 95
0.48654 -0.409311 -0.477 171 122 92
0.487449 -0.409311 -0.477 171 122 92
0.489147 -0.408453 -0.476 172 123 93
0.494926 -0.405021 -0.472 176 127 95
0.501607 -0.402447 -0.469 175 126 96
0.503393 -0.402447 -0.469 175 126 96
0.525493 -0.405021 -0.472 149 108 80
0.538547 -0.41017 -0.478 145 108 82
0.545808 -0.413602 -0.482 138 100 77
0.549916 -0.415318 -0.484 137 102 80
-0.323131 -0.46096 -0.536 222 223 215
-0.32211 -0.46096 -0.536 222 223 215
-0.282293 -0.46096 -0.536 224 225 217
-0.276168 -0.46096 -0.536 225 226 218
-0.272084 -0.46096 -0.536 224 225 217
-0.269021 -0.46096 -0.536 225 226 218
-0.266979 -0.46096 -0.536 225 226 218
-0.0484971 -0.35604 -0.414 192 153 120
-0.0477086 -0.35604 -0.414 192 153 120
-0.0413 -0.35518 -0.413 187 153 118
-0.0349219 -0.35432 -0.412 187 148 115
-0.03422 -0.35518 -0.413 186 145 113
-0.0241676 -0.35776 -0.416 171 132 101
-0.0226371 -0.35862 -0.417 170 131 102
-0.0164 -0.3612 -0.42 168 128 102
-0.0156371 -0.36206 -0.421 168 128 102
0.00286667 -0.3698 -0.43 161 122 105
0.00451524 -0.37066 -0.431 161 123 104
0.00868 -0.37324 -0.434 156 117 100
0.0163057 -0.37754 -0.439 149 111 98
0.02688 -0.38528 -0.448 140 106 96
0.0333667 -0.3913 -0.455 132 102 92
0.0432343 -0.40248 -0.468 118 96 85
0.0464971 -0.40764 -0.474 112 93 86
0.300143 -0.473 -0.55 192 192 194
0.313283 -0.47386 -0.551 184 182 187
0.314332 -0.47386 -0.551 183 181 186
0.319109 -0.47472 -0.552 180 179 184
0.337149 -0.47644 -0.554 154 154 156
0.346838 -0.47816 -0.556 142 141 146
0.36084 -0.47988 -0.558 110 108 113
0.363616 -0.48074 -0.559 103 100 107
0.3728 -0.4816 -0.56 88 85 94
0.4304 -0.4816 -0.56 57 58 62
0.463554 -0.48504 -0.564 53 52 60
0.483273 -0.42742 -0.497 138 101 82
0.481133 -0.4214 -0.49 155 109 83
0.480909 -0.41796 -0.486 160 113 87
0.484018 -0.41194 -0.479 167 118 88
0.483918 -0.41108 -0.478 166 117 87
0.492509 -0.40764 -0.474 173 122 91
0.504994 -0.40248 -0.468 172 121 92
0.518366 -0.40248 -0.468 158 114 87
0.523267 -0.4042 -0.47 151 110 82
0.53021 -0.40678 -0.473 150 108 83
0.545591 -0.41366 -0.481 140 100 75
-0.0508629 -0.356829 -0.414 189 149 113
-0.0412 -0.355105 -0.412 185 149 113
-0.038061 -0.355105 -0.412 189 150 117
-0.0287829 -0.356829 -0.414 180 139 107
-0.00445238 -0.36631 -0.425 157 120 101
0.018019 -0.379238 -0.44 147 111 99
0.0259686 -0.385271 -0.447 141 107 95
0.0454019 -0.406819 -0.472 115 95 86
0.268226 -0.473186 -0.549 204 204 202
0.270317 -0.473186 -0.549 200 200 198
0.29859 -0.47491 -0.551 183 181 184
0.299639 -0.47491 -0.551 182 180 185
0.304389 -0.475771 -0.552 177 176 181
0.31442 -0.476633 -0.553 165 162 169
0.320265 -0.477495 -0.554 154 153 159
0.326129 -0.478357 -0.555 143 140 147
0.328243 -0.478357 -0.555 136 133 140
0.341096 -0.480081 -0.557 109 108 113
0.406226 -0.492148 -0.571 61 60 66
0.42219 -0.49301 -0.572 59 58 64
0.426271 -0.485252 -0.563 58 57 65
0.457919 -0.486976 -0.565 36 35 43
0.461148 -0.486976 -0.565 27 24 33
0.484268 -0.43009 -0.499 135 98 79
0.483246 -0.427505 -0.496 144 103 81
0.48216 -0.424057 -0.492 150 108 84
0.481695 -0.417162 -0.484 156 109 83
0.481541 -0.415438 -0.482 154 104 77
0.482374 -0.414576 -0.481 164 114 87
0.490703 -0.408543 -0.474 175 126 96
0.503026 -0.40251 -0.467 172 121 90
0.504805 -0.40251 -0.467 170 119 88
0.51281 -0.40251 -0.467 168 119 89
0.543323 -0.412852 -0.479 144 102 78
-0.283805 -0.462138 -0.535 225 226 218
-0.265462 -0.462138 -0.535 226 227 219
-0.254252 -0.462138 -0.535 226 227 219
-0.05074 -0.356753 -0.413 185 147 111
-0.0403171 -0.355026 -0.411 185 144 112
-0.0395343 -0.355026 -0.411 186 145 113
-0.0348371 -0.355026 -0.411 177 138 107
-0.00767238 -0.366255 -0.424 153 118 99
0.00286 -0.370574 -0.429 158 119 104
0.0577343 -0.432769 -0.501 92 90 93
0.272409 -0.474231 -0.549 186 186 186
0.300727 -0.477687 -0.553 160 158 161
0.311823 -0.47855 -0.554 135 134 140
0.325182 -0.481142 -0.557 107 104 111
0.33108 -0.482006 -0.558 92 89 96
0.333803 -0.48287 -0.559 90 87 94
0.335932 -0.48287 -0.559 83 80 87
0.3376 -0.483733 -0.56 80 77 84
0.345683 -0.484597 -0.561 72 71 77
0.373798 -0.490644 -0.568 60 57 66
0.417089 -0.498418 -0.577 58 57 65
0.421843 -0.500146 -0.579 57 57 65
0.427563 -0.491508 -0.569 51 50 58
0.484723 -0.412037 -0.477 169 122 92
0.48654 -0.412037 -0.477 173 124 94
0.489929 -0.41031 -0.475 174 123 94
0.49237 -0.408582 -0.473 170 119 90
0.498033 -0.405127 -0.469 173 123 90
0.5126 -0.402535 -0.466 168 119 87
-0.269034 -0.462291 -0.534 226 227 219
-0.0411 -0.355809 -0.411 176 137 104
-0.0309229 -0.355809 -0.411 172 135 108
-0.023319 -0.359271 -0.415 166 129 103
0.0214686 -0.382646 -0.442 141 107 98
0.0380314 -0.397363 -0.459 127 100 91
0.262997 -0.475277 -0.549 185 184 180
0.273454 -0.475277 -0.549 175 173 178
0.282333 -0.476143 -0.55 159 157 162
0.283896 -0.477009 -0.551 157 155 160
0.300757 -0.480471 -0.555 126 126 128
0.312949 -0.481337 -0.556 95 92 101
0.318326 -0.483069 -0.558 86 83 92
0.328 -0.4848 -0.56 71 68 77
0.329654 -0.485666 -0.561 71 68 77
0.331791 -0.485666 -0.561 67 64 73
0.371631 -0.496054 -0.573 59 58 64
0.438401 -0.492591 -0.569 15 12 23
0.496724 -0.450171 -0.52 113 86 79
0.48422 -0.43026 -0.497 141 100 82
0.516369 -0.404289 -0.467 160 115 86
-0.282257 -0.463309 -0.534 224 225 217
-0.276154 -0.463309 -0.534 225 226 218
-0.0480286 -0.355724 -0.41 174 135 102
-0.040219 -0.355724 -0.41 165 129 95
-0.0147648 -0.363532 -0.419 161 123 102
-0.0116276 -0.365268 -0.421 155 117 98
-0.00926571 -0.367003 -0.423 154 117 99
-0.00121714 -0.369606 -0.426 158 121 105
0.01116 -0.376547 -0.434 156 117 102
0.0120143 -0.377414 -0.435 156 117 102
0.0128429 -0.377414 -0.435 155 117 104
0.0188571 -0.381752 -0.44 143 109 97
0.0487105 -0.414722 -0.478 109 91 89
0.262429 -0.47719 -0.55 173 171 176
0.288608 -0.480661 -0.554 113 112 118
0.318969 -0.486734 -0.561 64 61 68
0.328194 -0.489337 -0.564 59 58 66
0.334749 -0.491072 -0.566 57 56 64
0.488167 -0.438148 -0.505 131 95 83
0.482115 -0.426001 -0.491 148 106 84
0.481958 -0.423398 -0.488 154 112 88
0.481695 -0.419928 -0.484 161 117 92
0.48254 -0.41906 -0.483 163 117 91
0.492229 -0.409516 -0.472 180 131 98
0.496247 -0.406913 -0.469 172 123 90
0.49714 -0.406913 -0.469 171 122 89
0.497863 -0.406046 -0.468 172 123 90
-0.280713 -0.463456 -0.533 225 226 218
-0.252287 -0.463456 -0.533 226 227 219
-0.07434 -0.461717 -0.531 184 150 113
-0.0562657 -0.36433 -0.419 179 143 107
-0.0540171 -0.359983 -0.414 177 141 107
-0.0504943 -0.357374 -0.411 165 132 99
-0.0495905 -0.356505 -0.41 159 126 95
-0.0385629 -0.355635 -0.409 144 114 88
-0.0377838 -0.355635 -0.409 143 113 87
-0.02478 -0.359113 -0.413 159 123 97
-0.00121714 -0.370417 -0.426 159 122 106
0.00367714 -0.373026 -0.429 160 121 104
0.00781714 -0.375634 -0.432 157 118 101
0.0145333 -0.379112 -0.436 152 114 101
0.0188571 -0.38259 -0.44 143 109 97
0.02682 -0.388677 -0.447 137 105 94
0.0360457 -0.396503 -0.456 130 100 90
0.0379486 -0.398242 -0.458 130 99 94
0.0389905 -0.399981 -0.46 129 98 93
0.0536667 -0.426067 -0.49 100 86 85
0.0656248 -0.45737 -0.526 168 168 180
0.244174 -0.477369 -0.549 177 174 183
0.247311 -0.477369 -0.549 170 167 176
0.254048 -0.478238 -0.55 159 158 166
0.256609 -0.479108 -0.551 154 153 161
0.258126 -0.479977 -0.552 153 152 160
0.272287 -0.480847 -0.553 118 116 121
0.283843 -0.482586 -0.555 93 90 99
0.295471 -0.486064 -0.559 76 75 81
0.306691 -0.488672 -0.562 66 67 72
0.492969 -0.446066 -0.513 118 90 79
0.481695 -0.42085 -0.484 156 114 89
0.490569 -0.411285 -0.473 173 127 94
0.493877 -0.409546 -0.471 171 125 91
0.496247 -0.407807 -0.469 169 123 89
0.5115 -0.404329 -0.465 168 122 88
0.513271 -0.404329 -0.465 165 119 86
0.525497 -0.406937 -0.468 157 113 86
-0.30914 -0.464471 -0.533 223 224 216
-0.306094 -0.464471 -0.533 223 224 216
-0.271576 -0.464471 -0.533 224 226 215
-0.259393 -0.464471 -0.533 225 226 218
-0.252287 -0.464471 -0.533 226 227 219
-0.24721 -0.464471 -0.533 226 227 219
-0.244165 -0.464471 -0.533 226 227 219
-0.0753514 -0.462729 -0.531 178 145 110
-0.0548057 -0.360771 -0.414 171 136 108
-0.0384686 -0.355543 -0.408 95 74 57
-0.0369143 -0.355543 -0.408 97 75 61
-0.03536 -0.355543 -0.408 100 77 63
-0.0345829 -0.355543 -0.408 97 74 60
-0.0285048 -0.357286 -0.41 128 104 92
-0.0100238 -0.366871 -0.421 152 117 98
-0.00121714 -0.371229 -0.426 159 122 104
0.00449429 -0.373843 -0.429 157 118 101
0.0128429 -0.379071 -0.435 154 115 100
0.0452095 -0.409571 -0.47 117 92 85
0.246113 -0.480157 -0.551 142 141 149
0.269043 -0.483643 -0.555 89 88 94
0.272214 -0.483643 -0.555 82 81 87
0.279614 -0.483643 -0.555 72 71 79
0.2928 -0.488 -0.56 65 64 70
0.30942 -0.4941 -0.567 63 63 71
0.314847 -0.495843 -0.569 65 64 70
0.326312 -0.498457 -0.572 61 61 69
0.330214 -0.501071 -0.575 62 62 70
0.344133 -0.505429 -0.58 58 58 66
0.43656 -0.533314 -0.612 11 11 19
0.48314 -0.429614 -0.493 138 105 86
0.481958 -0.425257 -0.488 149 108 86
0.48329 -0.419157 -0.481 161 117 90
0.489531 -0.411314 -0.472 172 127 94
0.497689 -0.406957 -0.467 171 122 89
0.500173 -0.406086 -0.466 173 124 91
0.515929 -0.405214 -0.465 159 113 87
0.518586 -0.405214 -0.465 159 114 85
0.538319 -0.412186 -0.473 143 102 70
0.542405 -0.413929 -0.475 147 107 81
-0.313201 -0.465487 -0.533 224 225 217
-0.304064 -0.465487 -0.533 223 224 216
-0.303049 -0.465487 -0.533 223 224 216
-0.302033 -0.465487 -0.533 223 224 216
-0.292896 -0.465487 -0.533 224 226 215
-0.257893 -0.464613 -0.532 226 227 221
-0.0519333 -0.358067 -0.41 90 73 57
-0.0376914 -0.35632 -0.408 50 33 25
-0.0270086 -0.35894 -0.411 143 112 94
-0.00523714 -0.36942 -0.423 149 117 102
-0.00202381 -0.371167 -0.425 157 120 102
0.0162314 -0.381647 -0.437 150 114 98
0.0232048 -0.386887 -0.443 138 104 95
0.0249486 -0.38776 -0.444 135 101 92
0.0312857 -0.393 -0.45 136 103 96
0.0399533 -0.402607 -0.461 126 97 89
0.222214 -0.47946 -0.549 162 161 167
0.22326 -0.47946 -0.549 159 158 166
0.22681 -0.480333 -0.55 152 151 159
0.237717 -0.481207 -0.551 124 123 131
0.239816 -0.481207 -0.551 117 116 124
0.253785 -0.483827 -0.554 89 88 96
0.255895 -0.483827 -0.554 84 83 91
0.297567 -0.493433 -0.565 62 63 68
0.45847 -0.546707 -0.626 14 12 23
0.462786 -0.54758 -0.627 13 12 20
0.466369 -0.54758 -0.627 13 12 20
0.4901 -0.44278 -0.507 121 93 79
0.481834 -0.42444 -0.486 154 114 89
0.482459 -0.420947 -0.482 156 114 89
0.487994 -0.41396 -0.474 169 124 93
0.489531 -0.412213 -0.472 171 126 93
0.497689 -0.407847 -0.467 172 123 91
0.499286 -0.406973 -0.466 171 122 90
0.502836 -0.406973 -0.466 174 125 92
0.53808 -0.412213 -0.472 143 104 75
0.542166 -0.41396 -0.474 140 106 79
-0.282213 -0.465627 -0.532 224 225 217
-0.276133 -0.465627 -0.532 226 228 217
-0.268027 -0.465627 -0.532 225 226 218
-0.261454 -0.464751 -0.531 225 226 220
-0.2508 -0.465627 -0.532 225 226 218
-0.248773 -0.465627 -0.532 225 226 218
-0.0749257 -0.462126 -0.528 163 132 114
-0.0422505 -0.356222 -0.407 46 33 27
-0.0276562 -0.357972 -0.409 70 59 55
-0.0185762 -0.363224 -0.415 141 110 92
-0.0162438 -0.364099 -0.416 140 109 91
-0.0139333 -0.36585 -0.418 143 112 92
-0.00602857 -0.36935 -0.422 143 114 98
0.00779905 -0.377228 -0.431 157 120 101
0.0102857 -0.378103 -0.432 156 118 99
0.0111343 -0.378978 -0.433 153 114 97
0.0240486 -0.38773 -0.443 140 103 95
0.0312162 -0.392982 -0.449 135 102 95
0.0452095 -0.411362 -0.47 118 95 87
0.0671333 -0.463876 -0.53 136 136 144
0.218429 -0.481381 -0.55 131 130 138
0.222619 -0.481381 -0.55 121 120 128
0.23542 -0.484007 -0.553 91 90 98
0.251524 -0.486632 -0.556 72 71 79
0.25622 -0.487508 -0.557 66 65 73
0.263529 -0.489258 -0.559 65 64 72
0.29322 -0.49626 -0.567 59 60 65
0.302343 -0.500636 -0.572 61 61 69
0.40656 -0.539147 -0.616 12 12 20
0.411411 -0.540897 -0.618 11 11 19
0.4554 -0.5514 -0.63 11 11 19
0.489129 -0.441995 -0.505 120 94 79
0.482014 -0.427991 -0.489 148 107 85
0.484723 -0.417489 -0.477 169 124 93
0.487994 -0.414863 -0.474 169 122 92
0.497689 -0.408736 -0.467 170 124 91
0.504414 -0.406986 -0.465 174 125 92
0.532873 -0.410487 -0.469 153 108 75
0.543971 -0.414863 -0.474 134 103 75
-0.319106 -0.465763 -0.531 224 225 217
-0.31464 -0.46664 -0.532 223 224 216
-0.3116 -0.46664 -0.532 223 224 216
-0.2964 -0.46664 -0.532 224 226 215
-0.270557 -0.465763 -0.531 225 226 218
-0.267523 -0.465763 -0.531 225 226 218
-0.256397 -0.465763 -0.531 226 227 221
-0.0453514 -0.356997 -0.407 42 31 29
-0.0337229 -0.356997 -0.407 38 28 27
-0.0283657 -0.357874 -0.408 44 35 36
-0.01932 -0.363137 -0.414 134 105 91
-0.0115448 -0.366646 -0.418 143 115 101
0.00448381 -0.375417 -0.428 159 122 104
0.0179371 -0.384189 -0.438 146 110 98
0.0312162 -0.393837 -0.449 136 103 94
0.0398667 -0.403486 -0.46 124 97 88
0.0509543 -0.422783 -0.482 106 92 91
0.0656248 -0.461377 -0.526 153 151 156
0.17628 -0.47892 -0.546 149 148 154
0.1794 -0.47892 -0.546 142 141 146
0.198483 -0.479797 -0.547 138 137 143
0.226993 -0.48506 -0.553 79 77 88
0.239874 -0.487691 -0.556 66 64 75
0.258667 -0.4912 -0.56 63 61 72
0.270183 -0.494709 -0.564 62 61 69
0.28458 -0.49734 -0.567 61 60 68
0.287246 -0.498217 -0.568 60 59 67
0.28941 -0.498217 -0.568 60 59 67
0.303887 -0.506111 -0.577 58 58 66
0.390767 -0.541197 -0.617 11 11 19
0.423214 -0.548214 -0.625 11 11 19
0.431227 -0.550846 -0.628 11 11 19
0.452746 -0.555231 -0.633 8 11 16
0.453951 -0.555231 -0.633 7 10 15
0.457805 -0.556986 -0.635 10 11 16
0.461673 -0.55874 -0.637 11 11 19
0.462887 -0.55874 -0.637 12 12 20
0.47286 -0.560494 -0.639 12 12 20
0.504313 -0.464009 -0.529 104 84 75
0.497746 -0.455237 -0.519 111 89 78
0.493946 -0.449974 -0.513 114 90 78
0.491067 -0.445589 -0.508 119 93 78
0.48412 -0.433309 -0.494 132 103 85
0.482459 -0.422783 -0.482 155 111 86
0.482374 -0.421906 -0.481 156 112 87
0.483814 -0.418397 -0.477 167 122 93
0.48552 -0.41752 -0.476 169 124 93
0.49751 -0.408749 -0.466 171 125 91
0.520122 -0.406994 -0.464 159 115 80
0.545527 -0.414889 -0.473 132 101 73
-0.316071 -0.466774 -0.531 223 224 216
-0.277637 -0.466774 -0.531 225 226 218
-0.26601 -0.465895 -0.53 224 225 219
-0.0780905 -0.465016 -0.529 67 56 50
-0.0491067 -0.356893 -0.406 40 31 32
-0.0467867 -0.356893 -0.406 41 32 33
-0.0405 -0.356014 -0.405 39 31 29
-0.0389571 -0.356014 -0.405 35 30 27
-0.03364 -0.356893 -0.406 34 28 28
-0.0306219 -0.357772 -0.407 32 28 29
-0.0246 -0.36041 -0.41 53 38 35
0.000404762 -0.373595 -0.425 154 118 102
0.0119314 -0.379749 -0.432 152 113 96
0.0161943 -0.383265 -0.436 148 110 97
0.02226 -0.38766 -0.441 143 106 98
0.0429571 -0.408757 -0.465 121 96 91
0.0521952 -0.426338 -0.485 101 87 86
0.16692 -0.47996 -0.546 137 136 142
0.171393 -0.480839 -0.547 130 129 135
0.183189 -0.481718 -0.548 100 99 107
0.184232 -0.481718 -0.548 97 96 104
0.201667 -0.483476 -0.55 94 93 101
0.210811 -0.485234 -0.552 75 74 82
0.223586 -0.487871 -0.555 63 61 72
0.243733 -0.492267 -0.56 61 59 70
0.25058 -0.493146 -0.561 60 58 69
0.254238 -0.494025 -0.562 61 59 70
0.256379 -0.494025 -0.562 60 60 70
0.272099 -0.499299 -0.568 60 60 68
0.296777 -0.506331 -0.576 48 49 54
0.411431 -0.551163 -0.627 8 11 16
0.4266 -0.5538 -0.63 11 12 17
0.4302 -0.5538 -0.63 10 11 16
0.435177 -0.555558 -0.632 10 11 16
0.437585 -0.555558 -0.632 11 12 17
0.441196 -0.555558 -0.632 10 11 16
0.484192 -0.567865 -0.646 10 13 20
0.48552 -0.418427 -0.476 167 124 92
0.491933 -0.413152 -0.47 168 123 90
0.49591 -0.410515 -0.467 170 126 91
0.505981 -0.407878 -0.464 168 124 85
0.512168 -0.407878 -0.464 165 121 82
0.516355 -0.406999 -0.463 156 112 77
0.53759 -0.413152 -0.47 140 104 80
-0.310003 -0.467786 -0.531 223 224 218
-0.305957 -0.467786 -0.531 223 224 216
-0.299889 -0.467786 -0.531 224 225 217
-0.252351 -0.467786 -0.531 226 227 219
-0.05782 -0.363833 -0.413 46 42 43
-0.0531038 -0.358548 -0.407 36 31 27
-0.0522 -0.357667 -0.406 36 31 27
-0.0491067 -0.357667 -0.406 37 28 29
-0.0420429 -0.356786 -0.405 35 30 27
-0.0358714 -0.356786 -0.405 32 26 26
-0.0305467 -0.357667 -0.406 31 26 30
-0.0223114 -0.362071 -0.411 45 35 36
-0.0068 -0.37 -0.42 134 106 95
-0.00200952 -0.371762 -0.422 147 111 97
0.00202381 -0.374405 -0.425 152 116 102
0.0119314 -0.380571 -0.432 152 113 96
0.0161943 -0.384095 -0.436 147 109 96
0.0339324 -0.39731 -0.451 128 99 93
0.0348686 -0.39819 -0.452 127 98 92
0.0440314 -0.411405 -0.467 121 96 89
0.0508486 -0.423738 -0.481 104 90 89
0.127167 -0.480119 -0.545 155 156 161
0.17934 -0.483643 -0.549 79 76 85
0.202767 -0.487167 -0.553 68 66 77
0.209465 -0.488048 -0.554 62 60 71
0.2698 -0.502143 -0.57 60 60 70
0.28044 -0.505667 -0.574 50 50 58
0.283119 -0.506548 -0.575 45 45 53
0.288 -0.507429 -0.576 32 32 40
0.32184 -0.525048 -0.596 10 13 20
0.331363 -0.531214 -0.603 16 15 23
0.36076 -0.547952 -0.622 7 8 13
0.381574 -0.552357 -0.627 5 9 12
0.388782 -0.554119 -0.629 6 9 14
0.402674 -0.556762 -0.632 7 10 15
0.431195 -0.559405 -0.635 7 10 15
0.456533 -0.56381 -0.64 9 12 17
0.462851 -0.565571 -0.642 8 11 16
0.485205 -0.571738 -0.649 12 13 18
0.496812 -0.455452 -0.517 113 91 80
0.492033 -0.448405 -0.509 115 89 76
0.484079 -0.43431 -0.493 134 97 78
0.48254 -0.4255 -0.483 149 112 86
0.484829 -0.421095 -0.478 160 119 89
0.495189 -0.412286 -0.468 171 126 93
0.4991 -0.409643 -0.465 167 121 87
0.503529 -0.409643 -0.465 170 124 88
0.504213 -0.408762 -0.464 171 125 89
0.505097 -0.408762 -0.464 167 121 85
0.508632 -0.408762 -0.464 167 121 87
-0.319514 -0.467914 -0.53 223 224 216
-0.0750686 -0.460851 -0.522 36 34 39
-0.041939 -0.356674 -0.404 37 31 31
-0.0411695 -0.356674 -0.404 36 30 30
-0.0374143 -0.357557 -0.405 34 28 28
-0.03132 -0.35844 -0.406 29 25 26
-0.000401905 -0.372566 -0.422 148 112 100
0.0127543 -0.381394 -0.432 150 113 95
0.0239943 -0.390223 -0.442 143 107 95
0.0484048 -0.419357 -0.475 112 94 90
0.049621 -0.422006 -0.478 110 92 88
0.0638857 -0.459086 -0.52 153 153 153
0.134433 -0.481157 -0.545 134 135 139
0.1378 -0.48204 -0.546 128 129 134
0.155006 -0.483806 -0.548 99 98 106
0.171597 -0.486454 -0.551 71 71 79
0.176845 -0.486454 -0.551 69 67 78
0.185577 -0.487337 -0.552 64 64 72
0.191526 -0.489103 -0.554 65 65 73
0.199968 -0.489103 -0.554 59 59 71
0.218809 -0.493517 -0.559 57 57 67
0.233243 -0.497049 -0.563 53 53 63
0.235806 -0.497931 -0.564 54 54 64
0.249379 -0.501463 -0.568 58 58 68
0.252625 -0.501463 -0.568 52 52 64
0.256321 -0.502346 -0.569 50 50 62
0.273737 -0.508526 -0.576 30 29 37
0.326769 -0.532363 -0.603 10 13 20
0.355407 -0.55002 -0.623 8 11 18
0.365436 -0.554434 -0.628 7 6 14
0.368414 -0.555317 -0.629 6 7 12
0.373207 -0.555317 -0.629 6 7 12
0.387025 -0.557966 -0.632 4 8 11
0.390049 -0.558849 -0.633 4 8 11
0.402167 -0.560614 -0.635 6 9 16
0.406434 -0.561497 -0.636 7 10 15
0.407005 -0.560614 -0.635 5 8 15
0.423394 -0.561497 -0.636 7 10 17
0.437563 -0.564146 -0.639 6 9 16
0.458673 -0.567677 -0.643 7 10 15
0.492673 -0.41406 -0.469 171 125 91
0.498214 -0.410529 -0.465 166 120 86
0.511946 -0.408763 -0.463 167 121 85
-0.271057 -0.468924 -0.53 224 225 217
-0.029 -0.359213 -0.406 27 25 28
-0.0222571 -0.362752 -0.41 34 28 32
-0.0107229 -0.368946 -0.417 116 93 87
0.00445238 -0.376024 -0.425 143 105 92
0.00527429 -0.376909 -0.426 144 106 93
0.0102381 -0.380448 -0.43 150 113 97
0.0329267 -0.397258 -0.449 130 101 95
0.109318 -0.481311 -0.544 124 123 129
0.118256 -0.483965 -0.547 112 111 117
0.131319 -0.482195 -0.545 112 111 117
0.164549 -0.488389 -0.552 65 66 71
0.187643 -0.491043 -0.555 64 64 72
0.190099 -0.491928 -0.556 64 64 72
0.192563 -0.492812 -0.557 62 62 70
0.195034 -0.493697 -0.558 62 62 70
0.196097 -0.493697 -0.558 62 62 70
0.208161 -0.494582 -0.559 62 62 72
0.22869 -0.49989 -0.565 61 61 71
0.243743 -0.504314 -0.57 52 52 62
0.25748 -0.507853 -0.574 31 30 38
0.286929 -0.517586 -0.585 16 16 24
0.29624 -0.52024 -0.588 12 12 20
0.306149 -0.523779 -0.592 11 12 17
0.311623 -0.527318 -0.596 10 10 18
0.314947 -0.529088 -0.598 11 12 17
0.329478 -0.537935 -0.608 12 13 18
0.374348 -0.561824 -0.635 9 10 15
0.418089 -0.565363 -0.639 10 11 15
0.432152 -0.566248 -0.64 7 11 14
0.434049 -0.567132 -0.641 7 11 14
0.43581 -0.566248 -0.64 7 11 14
0.443816 -0.567132 -0.641 7 10 15
0.451142 -0.567132 -0.641 9 10 15
0.49009 -0.446805 -0.505 119 93 78
0.4851 -0.437957 -0.495 127 99 78
0.48346 -0.42734 -0.483 148 111 84
0.484018 -0.423801 -0.479 160 119 89
0.49178 -0.414953 -0.469 171 125 91
0.494297 -0.414069 -0.468 169 125 90
0.501562 -0.41053 -0.464 171 125 89
0.505097 -0.41053 -0.464 169 123 89
0.5126 -0.40876 -0.462 168 122 86
0.532128 -0.412299 -0.466 148 107 77
-0.315476 -0.469933 -0.53 223 224 216
-0.313457 -0.469933 -0.53 222 223 215
-0.309419 -0.469933 -0.53 224 226 215
-0.270546 -0.469047 -0.529 224 225 219
-0.26853 -0.469047 -0.529 224 225 219
-0.2645 -0.469047 -0.529 225 226 220
-0.262485 -0.469047 -0.529 225 226 220
-0.0426029 -0.357327 -0.403 31 29 34
-0.0403 -0.357327 -0.403 29 27 32
-0.0312429 -0.3591 -0.405 27 25 30
-0.0176571 -0.365307 -0.412 26 24 29
-0.00990476 -0.368853 -0.416 98 80 78
-0.00597143 -0.370627 -0.418 127 99 88
0.00120571 -0.374173 -0.422 137 103 91
0.00689714 -0.37772 -0.426 145 107 96
0.0119038 -0.382153 -0.431 148 111 95
0.0310076 -0.395453 -0.446 131 102 94
0.0319286 -0.39634 -0.447 130 101 95
0.0472 -0.418507 -0.472 116 95 90
0.108282 -0.482347 -0.544 104 103 111
0.134927 -0.485007 -0.547 81 80 88
0.139603 -0.48678 -0.549 74 73 81
0.151931 -0.48944 -0.552 66 64 75
0.157473 -0.490327 -0.553 64 62 73
0.1665 -0.4921 -0.555 61 64 71
0.195014 -0.49742 -0.561 60 63 72
0.204631 -0.49742 -0.561 62 62 74
0.208208 -0.498307 -0.562 62 62 74
0.212868 -0.499193 -0.563 63 63 73
0.231393 -0.504513 -0.569 50 50 60
0.245453 -0.508947 -0.574 25 25 35
0.246976 -0.509833 -0.575 23 23 31
0.258173 -0.512493 -0.578 16 16 24
0.27849 -0.519587 -0.586 13 13 21
0.297128 -0.524907 -0.592 14 14 22
0.313714 -0.532 -0.6 9 9 17
0.331646 -0.54264 -0.612 11 12 17
0.341334 -0.548847 -0.619 11 14 19
0.380952 -0.567467 -0.64 9 10 14
0.398641 -0.568353 -0.641 9 10 15
0.408458 -0.570127 -0.643 10 11 16
0.428611 -0.56924 -0.642 9 10 15
0.489108 -0.445993 -0.503 121 95 80
0.48269 -0.430033 -0.485 143 109 84
0.498398 -0.413187 -0.466 168 124 89
0.532128 -0.413187 -0.466 146 106 80
-0.318911 -0.470054 -0.529 225 227 216
-0.286668 -0.470054 -0.529 224 226 215
-0.282637 -0.470054 -0.529 223 224 216
-0.280622 -0.470054 -0.529 224 225 217
-0.159708 -0.470054 -0.529 227 228 220
-0.1587 -0.470054 -0.529 227 228 220
-0.156685 -0.470054 -0.529 228 229 221
-0.0495114 -0.358094 -0.403 31 30 35
-0.0379971 -0.358094 -0.403 29 27 32
-0.0349267 -0.358094 -0.403 30 25 31
-0.0311657 -0.358983 -0.404 30 25 32
-0.0289286 -0.359871 -0.405 30 25 32
-0.0282267 -0.36076 -0.406 26 21 28
-0.0137667 -0.36698 -0.413 29 24 30
0.000400952 -0.374089 -0.421 133 101 90
0.0044419 -0.376754 -0.424 122 88 78
0.0102143 -0.381197 -0.429 149 112 96
0.02562 -0.39186 -0.441 139 105 95
0.0337067 -0.39808 -0.448 127 100 93
0.0385667 -0.4043 -0.455 121 97 93
0.0517648 -0.427403 -0.481 100 86 85
0.105173 -0.483383 -0.544 85 84 92
0.117857 -0.488714 -0.55 77 75 86
0.123917 -0.487826 -0.549 80 79 87
0.140111 -0.489603 -0.551 66 66 76
0.148261 -0.492269 -0.554 66 65 73
0.160734 -0.494934 -0.557 63 63 75
0.185397 -0.498489 -0.561 60 63 72
0.186466 -0.498489 -0.561 59 62 71
0.211846 -0.502931 -0.566 56 56 68
0.218004 -0.504709 -0.568 47 47 59
0.282159 -0.523369 -0.589 14 14 22
0.3009 -0.5287 -0.595 11 12 17
0.305323 -0.530477 -0.597 10 11 16
0.309769 -0.532254 -0.599 10 11 16
0.327076 -0.542029 -0.61 10 11 16
0.328776 -0.542917 -0.611 10 11 16
0.355163 -0.560689 -0.631 13 14 19
0.35693 -0.561577 -0.632 12 13 18
0.37236 -0.570463 -0.642 7 8 12
0.379064 -0.571351 -0.643 8 9 13
0.383963 -0.571351 -0.643 9 10 15
0.391926 -0.570463 -0.642 9 10 15
0.40664 -0.57224 -0.644 9 10 15
0.411547 -0.57224 -0.644 9 10 15
0.43976 -0.57224 -0.644 10 11 15
0.469134 -0.576683 -0.649 9 10 15
0.489108 -0.446951 -0.503 120 94 81
0.489091 -0.446063 -0.502 122 95 78
0.488095 -0.444286 -0.5 124 97 80
0.485018 -0.438066 -0.493 127 98 80
0.484383 -0.421183 -0.474 166 119 89
0.501562 -0.412297 -0.464 173 127 91
0.512369 -0.409631 -0.461 166 120 86
0.519393 -0.409631 -0.461 158 113 80
0.5214 -0.41052 -0.462 159 114 81
0.528076 -0.412297 -0.464 152 111 79
-0.31085 -0.471062 -0.529 223 225 214
-0.28566 -0.471062 -0.529 224 226 215
-0.272046 -0.470171 -0.528 225 226 218
-0.269029 -0.470171 -0.528 224 225 217
-0.268023 -0.470171 -0.528 225 226 218
-0.0793486 -0.46661 -0.524 43 44 48
-0.0541171 -0.358862 -0.403 33 33 41
-0.0470914 -0.357971 -0.402 28 27 32
0.00770857 -0.379343 -0.426 138 106 95
0.0229952 -0.390919 -0.439 142 108 98
0.0309381 -0.396262 -0.445 130 101 93
0.0337067 -0.398933 -0.448 126 99 92
0.0437486 -0.413181 -0.464 120 95 90
0.0471 -0.419414 -0.471 115 94 89
0.126238 -0.489762 -0.55 69 67 78
0.129954 -0.487981 -0.548 62 62 72
0.139567 -0.492433 -0.553 64 64 72
0.15252 -0.496886 -0.558 64 64 72
0.157052 -0.497776 -0.559 64 64 74
0.1584 -0.498667 -0.56 63 63 73
0.16967 -0.500448 -0.562 64 67 76
0.184567 -0.503119 -0.565 53 53 65
0.190284 -0.50401 -0.566 43 43 55
0.19602 -0.5049 -0.567 32 32 44
0.20213 -0.506681 -0.569 23 23 35
0.222106 -0.510243 -0.573 20 20 32
0.228357 -0.512024 -0.575 15 17 29
0.240558 -0.514695 -0.578 14 17 26
0.259741 -0.520038 -0.584 11 14 23
0.26956 -0.521819 -0.586 13 13 21
0.273374 -0.52271 -0.587 14 14 22
0.281991 -0.526271 -0.591 13 13 21
0.294594 -0.530724 -0.596 16 16 24
0.296865 -0.530724 -0.596 17 17 25
0.308 -0.534286 -0.6 10 10 18
0.371067 -0.573467 -0.644 7 8 13
0.37591 -0.575248 -0.646 6 7 11
0.413414 -0.574357 -0.645 9 10 15
0.426267 -0.573467 -0.644 10 11 16
0.445357 -0.574357 -0.645 9 10 15
0.467898 -0.577919 -0.649 9 10 15
0.503457 -0.46839 -0.526 99 85 76
0.499695 -0.463048 -0.52 108 86 73
0.495888 -0.457705 -0.514 115 89 74
0.48706 -0.442567 -0.497 128 99 81
0.484971 -0.438114 -0.492 128 99 81
0.483377 -0.42921 -0.482 146 109 83
0.48329 -0.428319 -0.481 149 109 83
0.4832 -0.427429 -0.48 150 110 84
0.488352 -0.418524 -0.47 169 123 90
0.4891 -0.417633 -0.469 169 123 89
0.489993 -0.417633 -0.469 170 124 90
0.490887 -0.417633 -0.469 170 126 91
0.497329 -0.414071 -0.465 165 119 83
0.502245 -0.41229 -0.463 173 127 91
0.507978 -0.41051 -0.461 168 122 88
0.516514 -0.409619 -0.46 162 117 84
0.526056 -0.41229 -0.463 154 111 77
0.526938 -0.41229 -0.463 152 112 77
0.537717 -0.415852 -0.467 149 105 80
0.5427 -0.417633 -0.469 137 103 78
-0.283109 -0.471177 -0.528 223 225 214
-0.281097 -0.471177 -0.528 224 226 215
-0.280091 -0.471177 -0.528 225 227 216
-0.27808 -0.471177 -0.528 224 225 217
-0.210697 -0.471177 -0.528 226 228 217
-0.0585305 -0.363199 -0.407 35 34 40
-0.0576133 -0.362307 -0.406 35 34 42
-0.043919 -0.357845 -0.401 31 30 35
-0.0409657 -0.358737 -0.402 27 26 32
-0.0303962 -0.360522 -0.404 28 25 32
-0.0221486 -0.364091 -0.408 24 22 27
-0.00516286 -0.372123 -0.417 44 39 45
-0.00357429 -0.372123 -0.417 68 58 66
0.0004 -0.3748 -0.42 124 94 83
0.0152229 -0.385509 -0.432 145 108 99
0.0160829 -0.386401 -0.433 146 109 100
0.0203933 -0.38997 -0.437 140 107 100
0.0247238 -0.392648 -0.44 139 105 96
0.111369 -0.489917 -0.549 66 64 77
0.135109 -0.492594 -0.552 69 69 77
0.151472 -0.501518 -0.562 63 63 71
0.163829 -0.503303 -0.564 58 60 72
0.1755 -0.50598 -0.567 44 44 56
0.185873 -0.507765 -0.569 30 29 43
0.190209 -0.507765 -0.569 25 25 37
0.199928 -0.510442 -0.572 21 21 33
0.224366 -0.514011 -0.576 18 20 32
0.232151 -0.516689 -0.579 17 19 31
0.234357 -0.516689 -0.579 17 19 31
0.263311 -0.523828 -0.587 12 15 24
0.269818 -0.525612 -0.589 14 14 22
0.283423 -0.530074 -0.594 11 11 19
0.32635 -0.54703 -0.613 9 9 17
0.331467 -0.549707 -0.616 10 11 16
0.35854 -0.568447 -0.637 10 11 16
0.370989 -0.576478 -0.646 8 8 16
0.377656 -0.579155 -0.649 6 7 11
0.407903 -0.576478 -0.646 8 9 14
0.461527 -0.57737 -0.647 9 10 15
0.469134 -0.579155 -0.649 9 10 15
0.489071 -0.447083 -0.501 123 95 81
0.484114 -0.428343 -0.48 152 110 86
0.485036 -0.421204 -0.472 166 123 89
0.486834 -0.421204 -0.472 166 122 87
0.49413 -0.416742 -0.467 172 126 90
0.49396 -0.41585 -0.466 169 123 87
0.494848 -0.41585 -0.466 167 121 85
0.497329 -0.414957 -0.465 167 121 85
0.501562 -0.414065 -0.464 173 127 91
0.50556 -0.41228 -0.462 167 121 87
0.507978 -0.411388 -0.461 167 121 87
0.535678 -0.41585 -0.466 150 104 80
0.538607 -0.416742 -0.467 149 104 83
0.544217 -0.417634 -0.468 127 98 68
-0.316297 -0.472183 -0.528 222 224 213
-0.297189 -0.472183 -0.528 224 225 217
-0.286126 -0.472183 -0.528 224 225 217
-0.262994 -0.472183 -0.528 225 226 218
-0.08004 -0.466817 -0.522 44 43 49
-0.0530848 -0.358609 -0.401 31 31 39
-0.0492657 -0.358609 -0.401 27 26 34
-0.0152657 -0.367551 -0.411 23 21 26
-0.0129486 -0.368446 -0.412 22 21 26
0.0085 -0.380071 -0.425 141 108 103
0.0229429 -0.391697 -0.438 136 108 97
0.0308686 -0.397063 -0.444 129 102 93
0.101029 -0.486491 -0.544 67 67 79
0.119571 -0.499011 -0.558 74 72 86
0.135598 -0.495434 -0.554 67 70 79
0.154707 -0.506166 -0.566 56 59 68
0.16499 -0.507954 -0.568 41 43 55
0.188271 -0.512426 -0.573 21 23 36
0.235571 -0.520474 -0.582 14 16 28
0.25816 -0.52584 -0.588 14 14 24
0.25928 -0.52584 -0.588 14 14 24
0.272986 -0.528523 -0.591 13 13 21
0.276363 -0.528523 -0.591 13 13 21
0.277958 -0.529417 -0.592 13 13 21
0.294936 -0.535677 -0.599 15 15 23
0.354436 -0.566977 -0.634 12 12 20
0.415286 -0.577709 -0.646 9 10 15
0.418977 -0.577709 -0.646 10 11 16
0.4343 -0.576814 -0.645 7 10 17
0.44344 -0.57592 -0.644 8 11 18
0.449573 -0.57592 -0.644 7 10 19
0.453957 -0.576814 -0.645 9 10 15
0.455891 -0.577709 -0.646 9 10 15
0.502541 -0.468606 -0.524 106 84 73
0.493971 -0.456086 -0.51 116 90 77
0.484921 -0.439094 -0.491 130 99 81
0.484809 -0.437306 -0.489 133 100 81
0.484383 -0.423891 -0.474 160 120 85
0.487457 -0.420314 -0.47 168 124 87
0.487313 -0.41942 -0.469 169 125 90
0.50468 -0.41316 -0.462 168 122 88
0.505344 -0.412266 -0.461 167 121 87
0.508397 -0.410477 -0.459 168 122 88
0.519143 -0.411371 -0.46 164 118 85
0.523784 -0.412266 -0.461 149 110 81
0.528702 -0.414054 -0.463 148 108 82
0.540386 -0.417631 -0.467 140 103 76
-0.275546 -0.472292 -0.527 223 224 216
-0.273538 -0.472292 -0.527 225 227 216
-0.264504 -0.472292 -0.527 225 227 216
-0.253462 -0.472292 -0.527 226 227 219
-0.252458 -0.472292 -0.527 225 226 218
-0.157096 -0.472292 -0.527 228 230 219
-0.084661 -0.471396 -0.526 43 44 46
-0.0613048 -0.367438 -0.41 41 40 46
-0.0485019 -0.359372 -0.401 28 27 35
-0.0385724 -0.359372 -0.401 28 27 33
-0.0370448 -0.359372 -0.401 29 28 34
-0.030321 -0.361165 -0.403 28 25 32
-0.021319 -0.36475 -0.407 25 23 28
-0.0205943 -0.365646 -0.408 24 22 27
-0.0198171 -0.365646 -0.408 22 19 26
-0.01904 -0.365646 -0.408 23 20 27
0.00930952 -0.380881 -0.425 130 101 97
0.0151876 -0.386258 -0.431 143 109 99
0.0211286 -0.389843 -0.435 138 108 97
0.0317857 -0.398805 -0.445 128 101 92
0.0394333 -0.407767 -0.455 120 96 92
0.0414381 -0.410455 -0.458 120 96 92
0.0769124 -0.485735 -0.542 84 81 90
0.09792 -0.487528 -0.544 76 76 84
0.100176 -0.488424 -0.545 75 75 85
0.1014 -0.48932 -0.546 74 74 84
0.1264 -0.501867 -0.56 71 70 84
0.138951 -0.50097 -0.559 57 57 69
0.175786 -0.51531 -0.575 24 28 39
0.182674 -0.516206 -0.576 22 26 37
0.25704 -0.52696 -0.588 12 15 24
0.279557 -0.531441 -0.593 13 13 23
0.285512 -0.53413 -0.596 13 13 23
0.292654 -0.536818 -0.599 13 13 21
0.301 -0.539507 -0.602 16 16 24
0.302147 -0.539507 -0.602 15 15 23
0.320105 -0.546676 -0.61 9 9 17
0.388143 -0.582524 -0.65 9 10 14
0.389381 -0.582524 -0.65 9 10 14
0.399908 -0.579835 -0.647 7 8 13
0.410999 -0.579835 -0.647 10 11 16
0.449043 -0.578043 -0.645 8 11 20
0.464709 -0.580731 -0.648 8 8 16
0.467177 -0.580731 -0.648 9 9 17
0.48804 -0.446303 -0.498 122 93 75
0.484018 -0.429275 -0.479 148 111 85
0.488949 -0.419417 -0.468 172 126 93
0.50556 -0.41404 -0.462 166 120 86
0.5071 -0.413144 -0.461 168 122 88
0.518014 -0.411351 -0.459 164 118 85
-0.310679 -0.473296 -0.527 223 225 214
-0.277553 -0.473296 -0.527 224 225 217
-0.275546 -0.473296 -0.527 223 224 216
-0.268519 -0.473296 -0.527 226 227 219
-0.256473 -0.473296 -0.527 225 226 218
-0.254466 -0.473296 -0.527 226 227 219
-0.252458 -0.473296 -0.527 226 227 219
-0.249447 -0.473296 -0.527 225 226 218
-0.246435 -0.473296 -0.527 225 226 218
-0.0835 -0.4715 -0.525 37 38 40
-0.0610057 -0.366423 -0.408 37 38 43
-0.0500295 -0.360136 -0.401 28 27 35
-0.0416276 -0.360136 -0.401 25 24 29
-0.0355171 -0.360136 -0.401 26 23 30
-0.0250095 -0.36283 -0.404 25 22 29
-0.0152286 -0.368219 -0.41 20 19 24
-0.0136667 -0.368219 -0.41 20 21 25
-0.00591429 -0.371811 -0.414 27 26 32
-0.00434762 -0.37271 -0.415 25 26 31
0.00119429 -0.375404 -0.418 46 40 44
0.0109543 -0.382589 -0.426 135 103 92
0.030799 -0.397856 -0.443 128 104 92
0.0791229 -0.487666 -0.543 84 83 89
0.0811914 -0.487666 -0.543 84 83 89
0.109874 -0.495749 -0.552 66 66 78
0.111127 -0.496647 -0.553 64 64 76
0.156343 -0.517303 -0.576 37 39 52
0.160731 -0.517303 -0.576 33 35 48
0.167605 -0.518201 -0.577 29 31 44
0.171198 -0.519099 -0.578 31 33 46
0.180629 -0.520895 -0.58 23 25 37
0.182838 -0.520895 -0.58 22 24 36
0.191676 -0.520895 -0.58 21 23 35
0.201619 -0.520895 -0.58 19 21 34
0.203829 -0.520895 -0.58 18 20 33
0.215981 -0.520895 -0.58 15 17 30
0.239718 -0.524488 -0.584 12 14 26
0.25213 -0.527182 -0.587 11 13 25
0.3015 -0.541551 -0.603 15 16 21
0.305451 -0.542449 -0.604 13 14 19
0.31726 -0.54694 -0.609 11 11 19
0.328051 -0.55143 -0.614 9 9 17
0.362012 -0.575679 -0.641 10 13 18
0.398057 -0.581966 -0.648 7 8 13
0.398675 -0.581068 -0.647 7 8 13
0.40607 -0.581068 -0.647 9 10 15
0.414055 -0.58017 -0.646 10 11 16
0.416516 -0.58017 -0.646 9 10 15
0.417747 -0.58017 -0.646 9 10 15
0.420208 -0.58017 -0.646 9 10 15
0.444667 -0.578373 -0.644 9 9 17
0.462759 -0.581068 -0.647 9 9 17
0.492025 -0.454436 -0.506 121 92 78
0.484921 -0.440965 -0.491 131 98 79
0.485163 -0.424799 -0.473 162 121 89
0.487597 -0.423003 -0.471 164 120 85
0.501363 -0.415818 -0.463 164 118 84
0.50292 -0.41492 -0.462 172 126 92
0.506222 -0.414022 -0.461 168 122 88
0.531348 -0.415818 -0.463 144 105 76
-0.320109 -0.4734 -0.526 224 225 217
-0.148783 -0.4734 -0.526 228 229 221
-0.0422857 -0.36 -0.4 29 28 34
-0.0378086 -0.3609 -0.401 29 26 33
-0.0355171 -0.3609 -0.401 25 22 29
-0.02204 -0.3654 -0.406 26 23 30
-0.0167495 -0.3681 -0.409 22 19 26
0.0237229 -0.3933 -0.437 136 108 97
0.0271762 -0.3951 -0.439 132 103 95
0.02982 -0.3969 -0.441 130 103 94
0.03926 -0.4077 -0.453 121 96 89
0.051119 -0.4275 -0.475 96 90 94
0.0908333 -0.4905 -0.545 81 81 91
0.09828 -0.4914 -0.546 61 61 71
0.138535 -0.5094 -0.566 10 14 26
0.163233 -0.5229 -0.581 32 34 49
0.176513 -0.5229 -0.581 28 32 44
0.196433 -0.5229 -0.581 19 23 35
0.206393 -0.5229 -0.581 17 21 32
0.233044 -0.5256 -0.584 17 17 29
0.266231 -0.5319 -0.591 12 12 20
0.273448 -0.5328 -0.592 11 11 21
0.275039 -0.5337 -0.593 11 11 21
0.280029 -0.5346 -0.594 10 13 22
0.284377 -0.5364 -0.596 9 12 21
0.294776 -0.5409 -0.601 11 14 23
0.311593 -0.5463 -0.607 12 15 24
0.328051 -0.5526 -0.614 7 10 17
0.332005 -0.5553 -0.617 10 11 16
0.344002 -0.5634 -0.626 9 12 19
0.366729 -0.5805 -0.645 11 11 19
0.390619 -0.585 -0.65 8 9 13
0.397435 -0.5841 -0.649 5 9 12
0.398057 -0.5832 -0.648 5 9 12
0.409767 -0.5823 -0.647 8 11 16
0.410999 -0.5823 -0.647 8 11 16
0.420208 -0.5814 -0.646 9 10 15
0.433627 -0.5796 -0.644 7 9 21
0.476048 -0.585 -0.65 9 9 19
0.48804 -0.4482 -0.498 123 95 81
0.483595 -0.4275 -0.475 150 113 84
0.485935 -0.4248 -0.472 160 119 87
0.494671 -0.4185 -0.465 167 121 87
0.503127 -0.4167 -0.463 168 122 88
0.514887 -0.4113 -0.457 164 118 85
0.527296 -0.4149 -0.461 148 107 77
0.52932 -0.4158 -0.462 145 104 74
-0.313095 -0.474402 -0.526 225 227 216
-0.276025 -0.474402 -0.526 225 226 220
-0.274021 -0.474402 -0.526 224 226 215
-0.267008 -0.474402 -0.526 225 226 218
-0.205891 -0.474402 -0.526 225 226 218
-0.084339 -0.472598 -0.524 32 34 33
-0.06256 -0.367977 -0.408 37 38 43
-0.0596381 -0.36437 -0.404 36 37 42
-0.0553762 -0.361664 -0.401 33 31 42
-0.0453333 -0.360762 -0.4 28 27 33
-0.0287857 -0.363468 -0.403 24 21 28
-0.0151914 -0.368879 -0.409 23 22 27
-0.00980952 -0.371585 -0.412 21 20 26
-0.00354857 -0.373389 -0.414 24 23 29
0.0109286 -0.38331 -0.425 126 97 91
0.01342 -0.385113 -0.427 125 96 88
0.0487905 -0.423895 -0.47 103 91 91
0.0510114 -0.427503 -0.474 96 87 90
0.0792686 -0.490636 -0.544 80 78 89
0.161014 -0.527614 -0.585 32 35 50
0.164076 -0.526712 -0.584 30 33 48
0.176817 -0.524909 -0.582 28 31 46
0.189011 -0.524909 -0.582 19 23 35
0.2134 -0.524909 -0.582 16 20 32
0.229313 -0.52581 -0.583 14 16 28
0.235269 -0.526712 -0.584 14 17 26
0.239014 -0.527614 -0.585 13 16 25
0.25368 -0.53032 -0.588 13 13 23
0.278897 -0.535731 -0.594 10 13 20
0.300351 -0.543849 -0.603 12 15 24
0.397435 -0.585336 -0.649 6 10 13
0.419557 -0.581729 -0.645 9 9 17
0.465224 -0.583532 -0.647 10 10 20
0.472843 -0.585336 -0.649 10 10 20
0.476048 -0.586238 -0.65 9 9 19
0.481 -0.586238 -0.65 8 11 18
0.490026 -0.451854 -0.501 119 93 78
0.485909 -0.443737 -0.492 125 98 77
0.484809 -0.441031 -0.489 128 100 79
0.484611 -0.438326 -0.486 134 102 79
0.485036 -0.425699 -0.472 156 117 84
0.489683 -0.42119 -0.467 168 123 90
0.498027 -0.418484 -0.464 172 126 92
0.500481 -0.417582 -0.463 167 121 87
0.50468 -0.41668 -0.462 169 123 89
0.509664 -0.41217 -0.457 169 123 90
0.511405 -0.41217 -0.457 166 120 87
0.515757 -0.41217 -0.457 162 116 83
0.519503 -0.413072 -0.458 158 114 85
0.528174 -0.415778 -0.461 148 104 77
-0.307084 -0.475404 -0.526 224 225 217
-0.290051 -0.475404 -0.526 223 225 214
-0.287046 -0.475404 -0.526 223 225 214
-0.280032 -0.475404 -0.526 223 224 216
-0.269011 -0.475404 -0.526 225 226 218
-0.26801 -0.475404 -0.526 225 226 218
-0.1535 -0.4745 -0.525 228 229 221
-0.0491429 -0.361524 -0.4 29 28 36
-0.04522 -0.36062 -0.399 27 26 32
0.00358286 -0.377792 -0.418 23 20 27
0.0288486 -0.396772 -0.439 129 106 100
0.0334057 -0.401291 -0.444 126 106 99
0.0361857 -0.404003 -0.447 120 99 94
0.0546267 -0.435636 -0.482 64 55 58
0.0922086 -0.494384 -0.547 19 19 31
0.165471 -0.528729 -0.585 27 30 45
0.168814 -0.528729 -0.585 27 30 45
0.185211 -0.527825 -0.584 21 25 37
0.191557 -0.526921 -0.583 18 22 34
0.200097 -0.526017 -0.582 16 20 32
0.217834 -0.526017 -0.582 15 19 30
0.224486 -0.526017 -0.582 15 17 29
0.256355 -0.532344 -0.589 14 14 24
