ply
format ascii 1.0
comment Created by Open3D
element vertex 1291
property double x
property double y
property double z
property uchar red
property uchar green
property uchar blue
end_header
-0.0978267 -0.301987 -0.638 81 81 89
-0.0956952 -0.302933 -0.64 75 75 83
-0.0726467 -0.303407 -0.641 64 63 71
0.0413486 -0.253707 -0.536 205 171 161
0.0545 -0.257967 -0.545 178 139 140
0.0690457 -0.266013 -0.562 151 117 131
0.07182 -0.26838 -0.567 147 115 128
0.101623 -0.29536 -0.624 126 102 118
0.35881 -0.260333 -0.55 137 89 89
0.360636 -0.259387 -0.548 151 103 103
0.362149 -0.257493 -0.544 145 100 97
0.377161 -0.252287 -0.533 137 93 90
0.379791 -0.25134 -0.531 145 101 98
0.380086 -0.250867 -0.53 146 102 99
0.387236 -0.248973 -0.526 143 98 95
0.402731 -0.248027 -0.524 156 106 95
0.426569 -0.24566 -0.519 149 99 92
0.429534 -0.24566 -0.519 150 100 93
0.492987 -0.263173 -0.556 129 94 92
0.4976 -0.265067 -0.56 134 99 97
1.13877 -0.300567 -0.635 203 205 192
-0.112327 -0.276113 -0.581 103 106 111
-0.10399 -0.289895 -0.61 104 105 110
-0.0987314 -0.302251 -0.636 84 87 92
-0.0956952 -0.304152 -0.64 76 79 86
-0.0881048 -0.303202 -0.638 43 43 51
0.0805095 -0.277064 -0.583 140 112 126
0.0882762 -0.284192 -0.598 131 103 118
0.0898638 -0.285618 -0.601 128 101 116
0.0964857 -0.291796 -0.614 127 103 119
0.362724 -0.26043 -0.548 144 98 98
0.36806 -0.256153 -0.539 147 103 100
0.371809 -0.255203 -0.537 146 102 101
0.379791 -0.252351 -0.531 147 102 99
0.410143 -0.248074 -0.522 157 109 97
0.424419 -0.247124 -0.52 151 101 92
0.42541 -0.247124 -0.52 150 100 91
0.438431 -0.246649 -0.519 134 90 81
0.44409 -0.247599 -0.521 131 88 81
0.457097 -0.250926 -0.528 130 89 83
0.467377 -0.253777 -0.534 127 84 77
0.474686 -0.256629 -0.54 125 80 74
-0.138362 -0.305371 -0.64 100 101 105
-0.112327 -0.27722 -0.581 106 111 115
-0.0906771 -0.304894 -0.639 53 54 59
-0.0808133 -0.304417 -0.638 48 47 55
-0.0783829 -0.304417 -0.638 49 48 56
-0.0738676 -0.305849 -0.641 56 55 63
0.0882762 -0.285331 -0.598 128 104 117
0.101623 -0.297737 -0.624 123 102 117
0.36472 -0.269109 -0.564 136 85 90
0.362873 -0.26386 -0.553 141 95 97
0.370451 -0.256703 -0.538 145 101 98
0.396743 -0.250023 -0.524 160 110 103
0.432343 -0.248114 -0.52 147 100 92
0.437443 -0.247637 -0.519 138 94 85
0.477476 -0.258611 -0.542 125 80 75
-0.132313 -0.298447 -0.623 101 101 109
-0.111411 -0.278806 -0.582 107 110 115
-0.105269 -0.289345 -0.604 104 103 111
-0.0819 -0.305153 -0.637 51 49 60
0.0444114 -0.25677 -0.536 197 162 156
0.0510086 -0.259165 -0.541 175 137 136
0.0613971 -0.263955 -0.551 159 126 133
0.0677333 -0.268267 -0.56 152 119 130
0.0819 -0.280243 -0.585 133 109 122
0.0981324 -0.295572 -0.617 124 103 118
0.101623 -0.298926 -0.624 123 105 119
0.369076 -0.259644 -0.542 146 100 100
0.372501 -0.257728 -0.538 146 101 98
0.373158 -0.25677 -0.536 145 100 97
0.3745 -0.25629 -0.535 142 98 95
0.374817 -0.255811 -0.534 142 98 95
0.376146 -0.255332 -0.533 146 98 96
0.3955 -0.2515 -0.525 155 106 99
0.398739 -0.251021 -0.524 159 109 102
0.403955 -0.250542 -0.523 158 108 101
0.404951 -0.250542 -0.523 159 109 102
0.415311 -0.249584 -0.521 153 105 95
0.420457 -0.249105 -0.52 149 100 93
0.470149 -0.25677 -0.536 126 83 76
0.476595 -0.259165 -0.541 127 82 76
0.480274 -0.260602 -0.544 128 85 79
-0.119077 -0.282319 -0.587 105 108 115
-0.11454 -0.279433 -0.581 105 108 117
-0.113433 -0.279433 -0.581 106 111 117
-0.0881048 -0.306848 -0.638 58 58 66
0.036041 -0.256348 -0.533 206 172 163
0.04654 -0.258271 -0.537 190 153 147
0.05668 -0.2626 -0.546 173 137 141
0.0690457 -0.270295 -0.562 145 115 125
0.0746324 -0.275105 -0.572 140 114 125
0.0789905 -0.278952 -0.58 138 110 122
0.368005 -0.262119 -0.545 142 97 94
0.373481 -0.25731 -0.535 143 98 95
0.376453 -0.255867 -0.532 148 99 95
0.382674 -0.253943 -0.528 149 101 97
0.400967 -0.251538 -0.523 160 110 103
0.401963 -0.251538 -0.523 159 110 103
0.403183 -0.251057 -0.522 159 109 102
0.406166 -0.251057 -0.522 163 113 104
0.42739 -0.250095 -0.52 153 104 97
0.436305 -0.250095 -0.52 144 97 89
-0.1001 -0.30758 -0.637 95 96 100
-0.0819 -0.30758 -0.637 49 47 60
0.0401019 -0.257363 -0.533 205 171 162
0.0476514 -0.259777 -0.538 189 152 146
0.0487667 -0.26026 -0.539 183 146 140
0.052039 -0.261226 -0.541 172 136 138
0.0613971 -0.266054 -0.551 160 127 134
0.0703657 -0.272331 -0.564 145 115 125
0.36868 -0.26364 -0.546 143 95 93
0.377467 -0.25688 -0.532 144 96 92
0.396743 -0.253017 -0.524 159 109 102
0.408571 -0.251086 -0.52 159 109 98
0.409562 -0.251086 -0.52 157 109 95
0.442248 -0.251086 -0.52 130 87 80
0.466502 -0.257363 -0.533 129 88 82
-0.115846 -0.282131 -0.582 106 109 116
-0.11454 -0.281647 -0.581 106 109 116
-0.108448 -0.28601 -0.59 84 78 88
-0.101154 -0.308309 -0.636 101 103 102
0.0275095 -0.264195 -0.545 201 167 157
0.0291514 -0.260317 -0.537 207 173 163
0.03198 -0.258378 -0.533 210 176 166
0.09292 -0.293766 -0.606 127 107 119
0.0946952 -0.295705 -0.61 129 109 121
0.0981324 -0.299098 -0.617 124 104 116
0.101623 -0.302491 -0.624 124 104 116
0.105167 -0.305885 -0.631 139 121 133
0.107211 -0.308309 -0.636 183 179 202
0.370397 -0.265165 -0.547 139 95 94
0.385965 -0.25547 -0.527 149 100 95
0.3895 -0.2545 -0.525 152 103 99
0.3915 -0.2545 -0.525 157 108 104
0.40638 -0.252561 -0.521 161 111 100
0.412533 -0.252076 -0.52 157 109 95
0.413524 -0.252076 -0.52 153 104 90
0.418476 -0.252076 -0.52 151 101 92
0.420457 -0.252076 -0.52 148 98 89
0.430362 -0.252076 -0.52 147 97 86
0.431352 -0.252076 -0.52 148 98 87
0.437443 -0.251591 -0.519 134 89 83
0.455366 -0.254985 -0.526 129 86 79
-0.11928 -0.28616 -0.588 102 105 112
-0.114737 -0.28324 -0.582 101 104 111
-0.111603 -0.283727 -0.583 100 100 112
-0.101154 -0.30952 -0.636 126 128 125
0.0379286 -0.25842 -0.531 206 172 163
0.0486762 -0.261827 -0.538 180 145 141
0.052039 -0.263287 -0.541 177 141 143
0.0716933 -0.275453 -0.566 143 115 129
0.105167 -0.307087 -0.631 148 128 139
0.371971 -0.269613 -0.554 133 92 88
0.3718 -0.26572 -0.546 137 94 88
0.371474 -0.264747 -0.544 137 94 88
0.381384 -0.257447 -0.529 149 101 97
0.386234 -0.255987 -0.526 151 102 97
0.387236 -0.255987 -0.526 152 101 98
0.391752 -0.255013 -0.524 155 104 100
0.397978 -0.254527 -0.523 157 107 98
0.400967 -0.254527 -0.523 159 109 100
0.404177 -0.25404 -0.522 164 114 103
0.404395 -0.253553 -0.521 163 115 103
0.410552 -0.253067 -0.52 157 109 95
0.414514 -0.253067 -0.52 151 102 88
0.418476 -0.253067 -0.52 152 102 93
0.423429 -0.253067 -0.52 154 104 93
0.436454 -0.25258 -0.519 137 89 79
0.462867 -0.257933 -0.53 129 86 79
0.47117 -0.260853 -0.536 123 82 76
-0.117557 -0.285814 -0.585 95 98 107
-0.1092 -0.28728 -0.588 68 66 77
0.0637267 -0.27018 -0.553 155 123 136
0.103306 -0.306334 -0.627 123 103 114
0.37251 -0.265783 -0.544 137 92 87
0.373886 -0.263829 -0.54 145 96 91
0.377161 -0.260409 -0.533 144 96 92
0.398974 -0.255523 -0.523 160 107 99
0.40659 -0.254057 -0.52 159 109 98
0.407581 -0.254057 -0.52 160 110 99
-0.106595 -0.296738 -0.605 232 232 234
0.0409629 -0.260443 -0.531 201 167 158
0.049701 -0.263876 -0.538 179 143 143
0.0530695 -0.265348 -0.541 177 141 143
0.0553343 -0.266329 -0.543 168 132 136
0.0624467 -0.270252 -0.551 158 125 136
0.0997905 -0.304095 -0.62 121 103 115
0.105167 -0.30949 -0.631 154 136 148
0.376851 -0.261914 -0.534 146 98 94
0.383957 -0.258481 -0.527 147 98 93
0.384961 -0.258481 -0.527 147 98 93
0.3895 -0.2575 -0.525 149 100 95
0.391752 -0.25701 -0.524 152 102 95
0.411543 -0.255048 -0.52 157 109 95
0.437443 -0.254557 -0.519 138 91 81
0.443238 -0.255048 -0.52 127 84 75
0.459243 -0.258481 -0.527 131 88 81
0.0474743 -0.263916 -0.536 181 146 144
0.0663095 -0.274256 -0.557 147 117 127
0.0676124 -0.275241 -0.559 147 117 127
0.0865543 -0.292474 -0.594 126 106 117
0.107043 -0.312662 -0.635 203 202 210
0.376221 -0.263916 -0.536 152 101 97
0.380803 -0.261454 -0.531 150 101 96
0.381095 -0.260962 -0.53 150 101 96
0.385965 -0.259485 -0.527 150 100 93
0.3915 -0.2585 -0.525 152 103 98
0.39275 -0.258008 -0.524 154 104 97
0.395986 -0.257515 -0.523 156 106 97
0.398974 -0.257515 -0.523 165 112 104
0.401194 -0.257023 -0.522 167 115 104
0.406797 -0.255546 -0.519 162 113 99
0.436305 -0.256038 -0.52 143 97 84
0.442248 -0.256038 -0.52 132 89 80
0.450776 -0.257515 -0.523 131 88 79
0.458239 -0.259485 -0.527 133 90 83
-0.106014 -0.303986 -0.615 227 225 230
0.0474743 -0.264937 -0.536 181 146 144
0.0542 -0.267903 -0.542 169 133 135
0.0745019 -0.282237 -0.571 141 115 126
0.0996295 -0.305963 -0.619 123 107 118
0.101297 -0.307446 -0.622 121 105 116
0.105 -0.3114 -0.63 189 171 183
0.3895 -0.2595 -0.525 148 99 94
0.391752 -0.259006 -0.524 153 103 96
0.492433 -0.27334 -0.553 133 95 84
0.504377 -0.278777 -0.564 126 96 86
-0.127854 -0.304165 -0.613 81 81 91
0.0473857 -0.265462 -0.535 183 144 145
0.0507257 -0.26695 -0.538 177 139 138
0.0518467 -0.267447 -0.539 173 138 136
0.0961714 -0.303669 -0.612 128 106 119
0.384341 -0.280844 -0.566 131 92 87
0.377242 -0.265958 -0.536 154 103 99
0.3915 -0.2605 -0.525 151 101 94
0.398211 -0.259011 -0.522 162 112 101
0.419649 -0.257523 -0.519 159 107 94
0.421626 -0.257523 -0.519 158 106 93
0.435314 -0.258019 -0.52 150 100 89
0.441397 -0.257523 -0.519 131 89 77
0.447068 -0.258515 -0.521 128 86 74
0.45737 -0.260996 -0.526 131 89 75
0.479541 -0.268935 -0.542 126 86 74
0.483233 -0.270424 -0.545 129 89 77
-0.130916 -0.309815 -0.622 82 82 92
-0.120903 -0.296865 -0.596 79 79 87
0.0277095 -0.263492 -0.529 206 172 160
0.03162 -0.262496 -0.527 207 173 163
0.0346314 -0.262496 -0.527 209 175 163
0.0429857 -0.264489 -0.531 188 151 145
0.0576143 -0.271462 -0.545 163 126 134
0.09454 -0.30334 -0.609 124 100 114
0.385131 -0.280926 -0.564 133 93 91
0.378728 -0.270964 -0.544 145 101 98
0.383399 -0.263492 -0.529 149 100 93
0.388238 -0.261998 -0.526 150 97 91
0.39499 -0.260504 -0.523 156 104 93
0.410947 -0.258013 -0.518 161 109 96
0.422614 -0.258511 -0.519 159 107 94
0.424419 -0.25901 -0.52 159 107 94
0.42541 -0.25901 -0.52 158 106 93
0.428381 -0.25901 -0.52 157 105 91
0.449914 -0.260006 -0.522 130 86 73
-0.128689 -0.3085 -0.617 79 79 89
-0.117637 -0.2955 -0.591 77 77 85
-0.106314 -0.305 -0.61 227 226 234
0.0376429 -0.2635 -0.527 201 167 157
0.0472971 -0.267 -0.534 185 146 147
0.0495162 -0.268 -0.536 178 140 139
0.05876 -0.273 -0.546 161 126 133
0.060019 -0.274 -0.548 160 125 132
0.0961714 -0.306 -0.612 125 102 118
0.384223 -0.279 -0.558 135 93 97
0.379595 -0.2675 -0.535 145 100 97
0.379903 -0.267 -0.534 147 102 99
0.38092 -0.267 -0.534 147 99 97
0.391752 -0.262 -0.524 157 104 96
0.408774 -0.2595 -0.519 159 109 98
0.410947 -0.259 -0.518 159 110 96
0.416683 -0.2595 -0.519 159 110 96
0.419649 -0.2595 -0.519 160 108 95
0.436305 -0.26 -0.52 147 98 84
0.437443 -0.2595 -0.519 140 92 80
0.447068 -0.2605 -0.521 132 90 78
0.02236 -0.27404 -0.546 202 168 156
0.0285543 -0.264002 -0.526 208 174 162
0.0439971 -0.266511 -0.531 184 149 143
0.0461933 -0.267515 -0.533 179 143 143
0.0663095 -0.279561 -0.557 147 117 127
0.0832981 -0.294618 -0.587 127 107 118
0.0996295 -0.310679 -0.619 123 106 122
0.190048 -0.326238 -0.65 146 153 195
0.249476 -0.326238 -0.65 247 249 255
0.394423 -0.289097 -0.576 134 92 94
0.386667 -0.281067 -0.56 139 95 96
0.383246 -0.277051 -0.552 140 97 91
0.37973 -0.27153 -0.541 144 99 93
0.391752 -0.262998 -0.524 157 104 96
0.39275 -0.262998 -0.524 156 103 95
0.393993 -0.262496 -0.523 156 104 93
0.442248 -0.26099 -0.52 143 95 81
0.449914 -0.261994 -0.522 133 89 78
0.480573 -0.272032 -0.542 128 88 80
-0.108779 -0.301278 -0.598 72 72 84
-0.103141 -0.315385 -0.626 224 225 227
-0.102437 -0.316896 -0.629 226 227 229
0.0234743 -0.318408 -0.632 200 167 152
0.0295 -0.2645 -0.525 207 173 161
0.0418162 -0.266515 -0.529 189 155 145
0.0450086 -0.267523 -0.531 180 144 144
0.0563686 -0.273569 -0.543 162 124 135
0.0599095 -0.275584 -0.547 156 123 132
0.381465 -0.273065 -0.542 142 93 88
0.3905 -0.2645 -0.525 156 104 93
0.3915 -0.2645 -0.525 156 104 93
0.397217 -0.262989 -0.522 161 109 98
0.401418 -0.262485 -0.521 162 110 97
0.408774 -0.261477 -0.519 164 115 100
0.417671 -0.261477 -0.519 164 115 100
0.452769 -0.263492 -0.523 133 89 78
0.470429 -0.269034 -0.534 129 86 77
-0.115776 -0.299889 -0.593 71 74 81
0.0255486 -0.266006 -0.526 206 170 156
0.0265 -0.2655 -0.525 210 174 162
0.0324381 -0.264994 -0.524 204 168 156
0.0344343 -0.264994 -0.524 203 167 155
0.0396505 -0.266511 -0.527 194 158 146
0.0551305 -0.273591 -0.541 166 129 136
0.0674914 -0.282189 -0.558 142 114 126
0.0743714 -0.288257 -0.57 134 112 125
0.103141 -0.316577 -0.626 139 128 142
0.187571 -0.328714 -0.65 181 188 217
0.189755 -0.328209 -0.649 172 178 212
0.256905 -0.328714 -0.65 213 224 246
0.286619 -0.328714 -0.65 250 249 254
0.287857 -0.328714 -0.65 253 250 255
0.300238 -0.328714 -0.65 249 250 252
0.390883 -0.284717 -0.563 142 97 91
0.385 -0.278143 -0.55 137 92 87
0.382433 -0.27258 -0.539 143 94 89
0.387972 -0.266511 -0.527 156 102 92
0.417853 -0.26196 -0.518 166 117 103
0.41884 -0.26196 -0.518 166 117 103
0.431511 -0.262466 -0.519 156 104 91
0.437295 -0.262971 -0.52 148 99 85
-0.111446 -0.301526 -0.594 75 75 85
-0.108961 -0.304064 -0.599 74 74 82
0.0354324 -0.265992 -0.524 200 163 154
0.0417371 -0.268023 -0.528 187 150 142
0.0472086 -0.270561 -0.533 178 142 144
0.0483143 -0.271069 -0.534 172 136 138
0.0494238 -0.271576 -0.535 170 134 134
0.0527752 -0.273099 -0.538 171 135 137
0.0878333 -0.302033 -0.595 132 112 124
0.11682 -0.329445 -0.649 192 193 214
0.271762 -0.329952 -0.65 238 249 255
0.280429 -0.329952 -0.65 175 186 208
0.321286 -0.329952 -0.65 178 188 223
0.425237 -0.315231 -0.621 133 104 108
0.402843 -0.263454 -0.519 162 113 99
0.407 -0.262947 -0.518 166 117 103
0.408973 -0.262947 -0.518 164 115 101
0.43942 -0.263454 -0.519 144 96 82
0.4472 -0.263962 -0.52 137 91 76
0.450909 -0.264977 -0.522 137 93 80
0.462126 -0.268023 -0.528 133 89 76
-0.103333 -0.315905 -0.62 228 227 233
0.0283371 -0.265971 -0.522 213 176 167
0.05876 -0.2782 -0.546 154 124 132
0.0688 -0.285333 -0.56 140 114 125
0.101297 -0.316924 -0.622 122 104 120
0.267635 -0.330681 -0.649 196 207 239
0.268871 -0.330681 -0.649 196 207 239
0.293143 -0.330171 -0.648 205 203 216
0.315095 -0.33119 -0.65 247 249 255
0.329952 -0.33119 -0.65 173 192 224
0.341095 -0.33119 -0.65 220 225 247
0.433285 -0.330681 -0.649 157 167 202
0.444363 -0.264443 -0.519 141 95 80
0.445351 -0.264443 -0.519 138 92 77
1.13149 -0.317433 -0.623 200 202 189
-0.119074 -0.308903 -0.604 80 83 92
-0.117338 -0.307369 -0.601 82 83 88
0.0208514 -0.273103 -0.534 205 166 159
0.0217048 -0.271057 -0.53 208 169 162
0.026399 -0.267477 -0.523 210 174 160
0.0374286 -0.267989 -0.524 197 161 149
0.0599095 -0.279751 -0.547 153 123 131
0.0894152 -0.305834 -0.598 134 113 130
0.0910086 -0.307369 -0.601 127 106 123
0.0960143 -0.312483 -0.611 125 101 117
0.101297 -0.318109 -0.622 125 107 123
0.173952 -0.332429 -0.65 217 222 242
0.184526 -0.331406 -0.648 152 159 188
0.274629 -0.331406 -0.648 251 253 252
0.286971 -0.331406 -0.648 243 246 251
0.29808 -0.331406 -0.648 243 245 255
0.304721 -0.331917 -0.649 233 235 248
0.346048 -0.332429 -0.65 214 221 249
0.387775 -0.280263 -0.548 131 86 83
0.38654 -0.27566 -0.539 136 88 84
0.388613 -0.27208 -0.532 150 100 91
0.408973 -0.26492 -0.518 167 118 101
0.411138 -0.264409 -0.517 167 118 101
0.41884 -0.26492 -0.518 164 117 99
0.440547 -0.26492 -0.518 145 97 83
0.4575 -0.2685 -0.525 134 90 77
1.13267 -0.31862 -0.623 203 205 194
-0.107748 -0.310567 -0.605 78 79 84
-0.104502 -0.314673 -0.613 167 166 172
0.0235 -0.2695 -0.525 209 173 161
0.03126 -0.267447 -0.521 200 163 154
0.0505371 -0.275147 -0.536 170 134 138
0.054 -0.2772 -0.54 165 129 139
0.183291 -0.33264 -0.648 154 159 189
0.275437 -0.332127 -0.647 247 247 247
0.286971 -0.33264 -0.648 227 231 243
0.301783 -0.33264 -0.648 218 220 241
0.331406 -0.33264 -0.648 161 174 216
0.33264 -0.33264 -0.648 178 184 216
0.355952 -0.333667 -0.65 172 192 245
0.43519 -0.333667 -0.65 184 176 200
0.38948 -0.28028 -0.546 132 87 82
0.387567 -0.276687 -0.539 143 95 91
0.389627 -0.273093 -0.532 152 102 93
0.392246 -0.270013 -0.526 157 103 91
0.393749 -0.268987 -0.524 160 108 94
0.400426 -0.267447 -0.521 164 115 101
0.401418 -0.267447 -0.521 166 117 103
0.407987 -0.265907 -0.518 167 118 101
0.411138 -0.265393 -0.517 167 119 99
0.426733 -0.265907 -0.518 160 109 92
0.437587 -0.265907 -0.518 155 102 86
0.464009 -0.271553 -0.529 131 87 76
1.1333 -0.32032 -0.624 203 205 194
1.13267 -0.319807 -0.623 201 203 190
-0.116967 -0.311719 -0.605 90 91 96
-0.114283 -0.310689 -0.603 91 92 97
0.02436 -0.268954 -0.522 209 173 159
0.0505371 -0.276168 -0.536 171 137 138
0.0527752 -0.277198 -0.538 165 130 136
0.0715667 -0.29111 -0.565 139 113 124
0.0729 -0.29214 -0.567 137 111 122
0.0772143 -0.296262 -0.575 136 110 121
0.0800952 -0.298838 -0.58 131 104 119
0.0994686 -0.318417 -0.618 122 106 119
0.177393 -0.33439 -0.649 203 208 228
0.185473 -0.333359 -0.647 227 229 254
0.208566 -0.332844 -0.646 249 248 255
0.21841 -0.332844 -0.646 240 247 255
0.255719 -0.333359 -0.647 196 208 232
0.274205 -0.333359 -0.647 251 250 255
0.287761 -0.333359 -0.647 214 226 252
0.308711 -0.333359 -0.647 220 224 236
0.325965 -0.333359 -0.647 182 200 238
0.336343 -0.333874 -0.648 220 230 255
0.340046 -0.333874 -0.648 226 230 255
0.355405 -0.33439 -0.649 122 153 217
0.369571 -0.334905 -0.65 105 130 186
0.438665 -0.332844 -0.646 175 176 204
0.392333 -0.283381 -0.55 129 90 85
0.39052 -0.28132 -0.546 131 92 87
0.407987 -0.266893 -0.518 165 118 102
0.40996 -0.266893 -0.518 171 124 108
0.412123 -0.266378 -0.517 163 114 99
0.416867 -0.266893 -0.518 162 113 98
0.431511 -0.267409 -0.519 159 108 91
0.441533 -0.266893 -0.518 148 95 79
0.452897 -0.268954 -0.522 140 90 81
-0.103671 -0.318043 -0.615 90 89 95
0.0272381 -0.268914 -0.52 206 170 156
0.0301514 -0.268397 -0.519 204 168 156
0.0459333 -0.274086 -0.53 180 142 139
0.0648971 -0.286497 -0.554 143 116 125
0.0800952 -0.299943 -0.58 132 105 120
0.11646 -0.334591 -0.647 165 170 199
0.128143 -0.336143 -0.65 137 151 186
0.140524 -0.336143 -0.65 141 154 189
0.2107 -0.333557 -0.645 249 246 255
0.292238 -0.334074 -0.646 192 203 223
0.327922 -0.334074 -0.646 182 197 240
0.330383 -0.334074 -0.646 161 176 215
0.331613 -0.334074 -0.646 160 178 218
0.338289 -0.334591 -0.647 222 226 251
0.347451 -0.335109 -0.648 185 191 217
0.372711 -0.335626 -0.649 208 208 232
0.384429 -0.336143 -0.65 108 127 170
0.400524 -0.336143 -0.65 177 192 231
0.407952 -0.336143 -0.65 186 194 217
0.40919 -0.336143 -0.65 184 189 208
0.431476 -0.336143 -0.65 158 180 227
0.437667 -0.336143 -0.65 179 179 207
0.394096 -0.284946 -0.551 125 90 86
0.390343 -0.279257 -0.54 136 93 86
0.401194 -0.269949 -0.522 163 111 97
0.40241 -0.269431 -0.521 165 116 101
0.405388 -0.269431 -0.521 168 119 104
0.407786 -0.268397 -0.519 169 120 105
0.41884 -0.26788 -0.518 166 115 98
0.423773 -0.26788 -0.518 165 113 99
0.42476 -0.26788 -0.518 164 112 98
0.429693 -0.26788 -0.518 156 104 90
0.438573 -0.26788 -0.518 153 102 85
0.44634 -0.268397 -0.519 147 95 81
0.465895 -0.274086 -0.53 127 83 72
-0.123609 -0.322329 -0.621 97 100 105
-0.105842 -0.318695 -0.614 83 84 88
-0.100971 -0.32181 -0.62 71 71 79
-0.0999514 -0.322329 -0.621 70 68 79
0.0214181 -0.271462 -0.523 209 171 158
0.0623333 -0.285476 -0.55 146 119 126
0.06478 -0.287033 -0.553 143 116 123
0.07708 -0.297933 -0.574 135 109 118
0.0876857 -0.308314 -0.594 132 110 123
0.11628 -0.335305 -0.646 121 127 159
0.124429 -0.337381 -0.65 193 200 228
0.135363 -0.336862 -0.649 113 134 179
0.157614 -0.336862 -0.649 199 199 223
0.250014 -0.334786 -0.645 251 250 255
0.256951 -0.335824 -0.647 196 213 241
0.261476 -0.335305 -0.646 218 229 255
0.263937 -0.335305 -0.646 208 224 247
0.293469 -0.335305 -0.646 173 189 225
0.332844 -0.335305 -0.646 164 185 228
0.340753 -0.335824 -0.647 223 229 253
0.362263 -0.336343 -0.648 53 90 160
0.385073 -0.336862 -0.649 101 130 196
0.414143 -0.337381 -0.65 143 161 209
0.431671 -0.319214 -0.615 118 98 110
0.405388 -0.270424 -0.521 166 117 102
0.410947 -0.268867 -0.518 166 117 100
0.425747 -0.268867 -0.518 163 112 95
0.428707 -0.268867 -0.518 158 107 90
0.429693 -0.268867 -0.518 158 107 90
0.437587 -0.268867 -0.518 154 101 87
0.443507 -0.268867 -0.518 148 96 82
0.44548 -0.268867 -0.518 150 98 84
-0.108181 -0.319865 -0.614 89 90 92
-0.100112 -0.324032 -0.622 65 63 74
0.0178667 -0.27923 -0.536 205 174 154
0.0393495 -0.272458 -0.523 189 153 141
0.0415 -0.2735 -0.525 182 145 139
0.042581 -0.274021 -0.526 182 145 139
0.0515581 -0.27923 -0.536 167 132 136
0.123001 -0.338098 -0.649 195 199 224
0.13289 -0.338098 -0.649 141 156 197
0.147725 -0.338098 -0.649 193 194 224
0.151433 -0.338098 -0.649 119 132 166
0.15267 -0.338098 -0.649 105 115 150
0.180265 -0.336535 -0.646 224 226 249
0.182443 -0.336014 -0.645 228 231 248
0.198107 -0.335493 -0.644 205 211 245
0.201787 -0.335493 -0.644 178 192 221
0.205467 -0.335493 -0.644 235 240 255
0.255324 -0.336535 -0.646 184 203 235
0.274586 -0.336014 -0.645 249 253 255
0.28152 -0.335493 -0.644 213 219 233
0.286871 -0.336014 -0.645 158 173 216
0.2967 -0.336014 -0.645 156 174 214
0.301614 -0.336014 -0.645 176 186 222
0.35431 -0.337056 -0.647 61 98 169
0.368434 -0.337577 -0.648 185 204 246
0.390018 -0.338098 -0.649 67 105 178
0.40176 -0.337577 -0.648 187 200 232
0.404852 -0.338098 -0.649 189 194 224
0.413506 -0.338098 -0.649 111 133 182
0.438789 -0.337577 -0.648 158 167 198
0.398739 -0.272979 -0.524 162 113 99
0.402189 -0.271937 -0.522 163 114 99
0.414893 -0.269853 -0.518 162 110 96
0.426733 -0.269853 -0.518 163 112 95
0.440547 -0.269853 -0.518 151 99 85
0.462254 -0.274542 -0.527 133 89 78
-0.117126 -0.323126 -0.618 99 98 106
-0.113043 -0.321557 -0.615 100 99 105
-0.1107 -0.321557 -0.615 97 96 101
-0.108533 -0.32208 -0.616 98 97 102
0.0232314 -0.271363 -0.519 206 171 151
0.0360829 -0.271363 -0.519 192 156 144
0.0382067 -0.272409 -0.521 190 154 142
0.0526771 -0.280774 -0.537 164 130 131
0.0610629 -0.286526 -0.548 146 119 128
0.06478 -0.28914 -0.553 143 116 125
0.074241 -0.297506 -0.569 135 109 118
0.0755895 -0.298551 -0.571 132 106 115
0.0994686 -0.323126 -0.618 120 105 124
0.130217 -0.338811 -0.648 131 143 183
0.135154 -0.338811 -0.648 129 150 195
0.140091 -0.338811 -0.648 151 165 202
0.143794 -0.338811 -0.648 191 197 219
0.15267 -0.339334 -0.649 161 170 203
0.16919 -0.337766 -0.646 183 189 221
0.179034 -0.337766 -0.646 226 226 250
0.223519 -0.336197 -0.643 211 225 254
0.224744 -0.336197 -0.643 211 225 254
0.249627 -0.33672 -0.644 254 252 255
0.2623 -0.337243 -0.645 195 210 241
0.29624 -0.33672 -0.644 146 164 210
0.297467 -0.33672 -0.644 159 174 217
0.299157 -0.337243 -0.645 182 197 240
0.300386 -0.337243 -0.645 182 197 240
0.320773 -0.33672 -0.644 165 189 235
0.322 -0.33672 -0.644 151 175 221
0.342688 -0.337766 -0.646 219 224 255
0.373371 -0.338811 -0.648 185 189 216
0.382011 -0.338811 -0.648 116 142 193
0.385714 -0.338811 -0.648 85 122 193
0.402994 -0.338811 -0.648 180 187 215
0.41845 -0.339334 -0.649 41 68 145
0.427104 -0.339334 -0.649 42 71 149
0.429576 -0.339334 -0.649 56 80 126
0.433285 -0.339334 -0.649 68 85 129
0.438789 -0.338811 -0.648 169 174 203
0.440576 -0.338289 -0.647 109 120 152
0.443041 -0.338289 -0.647 80 99 142
0.400967 -0.273454 -0.523 165 113 99
0.402189 -0.272931 -0.522 162 113 98
0.410947 -0.27084 -0.518 163 111 97
0.41292 -0.27084 -0.518 156 104 90
0.428707 -0.27084 -0.518 159 108 91
0.432653 -0.27084 -0.518 160 107 91
0.453891 -0.272931 -0.522 137 91 78
0.487386 -0.284957 -0.545 126 89 73
0.0260962 -0.271302 -0.517 208 172 158
0.0382067 -0.273401 -0.521 188 152 140
0.0436657 -0.27655 -0.527 178 141 133
0.0610629 -0.28757 -0.548 147 119 131
0.0673705 -0.292292 -0.557 139 113 124
0.0799571 -0.303837 -0.579 132 106 115
0.08148 -0.305411 -0.582 131 105 114
0.124046 -0.340046 -0.648 188 188 212
0.136389 -0.340046 -0.648 120 142 189
0.165499 -0.338996 -0.646 180 190 225
0.179986 -0.338471 -0.645 226 227 247
0.180933 -0.337947 -0.644 228 229 249
0.206372 -0.337422 -0.643 249 248 253
0.21862 -0.337422 -0.643 160 174 213
0.260667 -0.337947 -0.644 177 194 237
0.26312 -0.337947 -0.644 188 206 242
0.272933 -0.337947 -0.644 250 253 255
0.282308 -0.337422 -0.643 236 243 255
0.29333 -0.337422 -0.643 143 162 205
0.3036 -0.337947 -0.644 247 251 255
0.304827 -0.337947 -0.644 248 252 255
0.306053 -0.337947 -0.644 250 249 255
0.317093 -0.337947 -0.644 174 185 215
0.3215 -0.337422 -0.643 152 176 224
0.326907 -0.337947 -0.644 155 184 242
0.330587 -0.337947 -0.644 144 168 216
0.334267 -0.337947 -0.644 202 214 252
0.338471 -0.338471 -0.645 223 227 252
0.365401 -0.339521 -0.647 112 139 194
0.367866 -0.339521 -0.647 117 144 199
0.369098 -0.339521 -0.647 121 136 179
0.371563 -0.339521 -0.647 117 124 153
0.382654 -0.339521 -0.647 86 111 165
0.394978 -0.339521 -0.647 65 103 166
0.428914 -0.340046 -0.648 70 92 142
0.398257 -0.276025 -0.526 162 110 97
0.4056 -0.272876 -0.52 169 117 103
0.414893 -0.271827 -0.518 162 110 96
0.417853 -0.271827 -0.518 157 106 89
0.422787 -0.271827 -0.518 160 109 92
0.43956 -0.271827 -0.518 154 103 86
0.482778 -0.283896 -0.541 130 88 76
0.565617 -0.324303 -0.618 200 203 212
-0.112963 -0.32706 -0.621 110 111 115
-0.11178 -0.32706 -0.621 110 111 115
0.0458467 -0.278607 -0.529 173 133 131
0.0799571 -0.30494 -0.579 130 104 113
0.118925 -0.340753 -0.647 199 195 212
0.14234 -0.340753 -0.647 188 199 217
0.163038 -0.340227 -0.646 135 150 189
0.193823 -0.33812 -0.642 201 212 242
0.199937 -0.33812 -0.642 185 193 230
0.249239 -0.338647 -0.643 251 248 255
0.262711 -0.338647 -0.643 178 200 241
0.273734 -0.338647 -0.643 247 250 255
0.287207 -0.338647 -0.643 150 171 226
0.292106 -0.338647 -0.643 136 157 204
0.305578 -0.338647 -0.643 239 242 255
0.344614 -0.3397 -0.645 134 153 195
0.3483 -0.3397 -0.645 117 142 196
0.350757 -0.3397 -0.645 77 108 163
0.415929 -0.340753 -0.647 42 68 119
0.442356 -0.340227 -0.646 145 164 206
0.443587 -0.340227 -0.646 94 113 155
0.400018 -0.277553 -0.527 162 110 96
0.400261 -0.277027 -0.526 161 109 95
0.4025 -0.2765 -0.525 163 110 94
0.405171 -0.27492 -0.522 167 114 100
0.456753 -0.275447 -0.523 131 87 74
0.4605 -0.2765 -0.525 133 89 76
0.468924 -0.279133 -0.53 128 86 74
0.493952 -0.289667 -0.55 132 88 77
-0.113509 -0.329829 -0.624 111 112 116
0.018359 -0.275386 -0.521 204 167 149
0.0585448 -0.287543 -0.544 158 123 129
0.0646629 -0.291771 -0.552 145 115 125
0.0673705 -0.294414 -0.557 138 111 126
0.0784457 -0.304457 -0.576 131 108 124
0.08148 -0.307629 -0.582 125 106 126
0.0910086 -0.317671 -0.601 131 107 123
0.114515 -0.339871 -0.643 207 203 228
0.126124 -0.341457 -0.646 112 125 160
0.254966 -0.339343 -0.642 186 203 249
0.262303 -0.339343 -0.642 180 202 249
0.26964 -0.339343 -0.642 237 247 255
0.342853 -0.3404 -0.644 119 133 162
0.355671 -0.340929 -0.645 78 107 177
0.3569 -0.340929 -0.645 60 91 156
0.369758 -0.341457 -0.646 114 138 186
0.370989 -0.341457 -0.646 124 130 164
0.37345 -0.341457 -0.646 145 149 174
0.380832 -0.341457 -0.646 121 146 200
0.394368 -0.341457 -0.646 61 105 176
0.416516 -0.341457 -0.646 39 69 142
0.439895 -0.341457 -0.646 176 179 196
0.398747 -0.2812 -0.532 145 102 93
0.399521 -0.279614 -0.529 150 102 88
0.401022 -0.278557 -0.527 159 108 91
0.402026 -0.278557 -0.527 159 108 91
0.405948 -0.276443 -0.523 166 113 99
0.417671 -0.274329 -0.519 162 111 92
0.424925 -0.273271 -0.517 161 108 92
0.484703 -0.286486 -0.542 126 89 70
1.12764 -0.326129 -0.617 203 206 189
-0.108754 -0.331017 -0.624 112 112 114
0.0183238 -0.275848 -0.52 206 167 150
0.0329257 -0.273726 -0.516 198 161 145
0.063381 -0.291762 -0.55 141 113 125
0.0713133 -0.298658 -0.563 133 112 129
0.0830143 -0.310329 -0.585 132 109 127
0.100646 -0.327834 -0.618 143 140 169
0.123471 -0.342157 -0.645 147 154 182
0.127157 -0.342157 -0.645 114 136 177
0.133507 -0.342688 -0.646 134 156 203
0.135968 -0.342688 -0.646 117 139 188
0.172079 -0.341096 -0.643 182 190 227
0.267194 -0.340566 -0.642 178 195 238
0.296081 -0.340035 -0.641 151 170 213
0.297302 -0.340035 -0.641 159 178 221
0.345995 -0.341096 -0.643 133 154 207
0.360027 -0.341627 -0.644 49 81 154
0.376557 -0.342157 -0.645 202 205 220
0.381471 -0.342157 -0.645 89 113 151
0.407903 -0.342688 -0.646 180 185 205
0.430051 -0.342688 -0.646 150 168 206
0.434973 -0.342688 -0.646 125 127 142
0.439214 -0.342157 -0.645 178 180 201
0.406875 -0.295475 -0.557 118 88 90
0.399703 -0.284335 -0.536 130 96 87
0.406166 -0.276909 -0.522 167 114 98
0.408154 -0.276909 -0.522 165 112 96
0.427879 -0.274256 -0.517 160 104 89
0.45775 -0.277439 -0.523 135 89 76
0.459623 -0.27797 -0.524 135 91 78
0.0173667 -0.27737 -0.521 205 168 150
0.0201876 -0.275241 -0.517 206 167 150
0.0339086 -0.274709 -0.516 195 159 147
0.0479524 -0.282162 -0.53 170 132 131
0.052579 -0.285356 -0.536 166 127 130
0.0861171 -0.314637 -0.591 133 112 129
0.139659 -0.343918 -0.646 116 139 181
0.161056 -0.342321 -0.643 100 126 177
0.162281 -0.342321 -0.643 105 131 182
0.163506 -0.342321 -0.643 104 127 177
0.16473 -0.342321 -0.643 99 122 172
0.178203 -0.342321 -0.643 230 232 255
0.292418 -0.341256 -0.641 148 168 218
0.344234 -0.341789 -0.642 187 202 231
0.379653 -0.342853 -0.644 155 171 207
0.396827 -0.342853 -0.644 143 179 239
0.401263 -0.284291 -0.534 134 93 87
0.404269 -0.280032 -0.526 161 108 94
0.409357 -0.27737 -0.521 164 111 95
0.411543 -0.276838 -0.52 167 114 98
0.415694 -0.276306 -0.519 160 109 92
0.419649 -0.276306 -0.519 156 105 88
0.435757 -0.275241 -0.517 153 100 84
0.44265 -0.275241 -0.517 146 94 80
0.45775 -0.278435 -0.523 134 90 77
0.498753 -0.294407 -0.553 135 97 86
0.0210905 -0.275157 -0.515 206 169 153
0.0230076 -0.274623 -0.514 207 168 153
0.0513657 -0.285309 -0.534 168 130 129
0.0713133 -0.300803 -0.563 132 111 130
0.0830143 -0.312557 -0.585 130 108 129
0.112938 -0.342477 -0.641 207 208 226
0.128187 -0.34408 -0.644 115 142 189
0.1333 -0.344614 -0.645 105 132 185
0.159831 -0.343546 -0.643 83 108 174
0.165697 -0.343011 -0.642 96 117 182
0.181594 -0.343011 -0.642 236 234 255
0.187124 -0.341943 -0.64 179 185 217
0.263115 -0.342477 -0.641 145 173 223
0.338814 -0.342477 -0.641 221 225 254
0.35524 -0.343011 -0.642 58 94 170
0.372293 -0.34408 -0.644 165 167 192
0.38088 -0.34408 -0.644 101 117 153
0.398053 -0.34408 -0.644 187 198 220
0.39928 -0.34408 -0.644 188 199 221
0.4085 -0.344614 -0.645 133 139 161
0.4171 -0.344614 -0.645 33 66 135
0.419557 -0.344614 -0.645 98 128 198
0.42504 -0.34408 -0.644 49 83 147
0.42872 -0.34408 -0.644 73 97 145
0.43976 -0.34408 -0.644 183 179 194
0.448177 -0.343011 -0.642 87 111 171
0.4487 -0.342477 -0.641 80 111 168
0.403431 -0.289049 -0.541 123 90 85
0.405037 -0.281569 -0.527 159 106 92
0.419649 -0.277294 -0.519 158 106 92
0.4218 -0.27676 -0.518 153 100 86
0.458746 -0.279431 -0.523 134 90 79
0.469047 -0.282637 -0.529 128 88 76
0.0136029 -0.283645 -0.529 205 168 152
0.0490543 -0.284717 -0.531 168 130 127
0.0686771 -0.29973 -0.559 133 111 132
0.0876857 -0.318497 -0.594 133 111 132
0.13432 -0.345307 -0.644 101 128 183
0.151258 -0.34477 -0.643 197 204 220
0.152483 -0.34477 -0.643 199 206 222
0.164218 -0.343698 -0.641 86 114 177
0.185905 -0.343162 -0.64 171 180 209
0.190483 -0.342626 -0.639 172 191 234
0.194134 -0.342626 -0.639 143 165 215
0.195351 -0.342626 -0.639 145 167 217
0.199003 -0.342626 -0.639 178 197 240
0.245638 -0.343162 -0.64 197 204 223
0.271238 -0.343162 -0.64 238 245 253
0.282986 -0.342626 -0.639 171 189 229
0.30781 -0.343162 -0.64 216 214 227
0.315849 -0.342626 -0.639 149 172 222
0.337067 -0.343162 -0.64 220 227 255
0.338286 -0.343162 -0.64 222 229 255
0.341943 -0.343162 -0.64 214 225 247
0.349126 -0.344234 -0.642 121 138 184
0.354017 -0.344234 -0.642 56 94 159
0.366816 -0.34477 -0.643 193 208 241
0.376614 -0.34477 -0.643 197 201 213
0.390087 -0.34477 -0.643 85 129 200
0.411547 -0.345307 -0.644 66 93 146
0.414 -0.345307 -0.644 41 75 138
0.427493 -0.345307 -0.644 52 86 150
0.408276 -0.282036 -0.526 159 107 93
0.413327 -0.279355 -0.521 163 111 97
0.443635 -0.27721 -0.517 147 98 83
0.01238 -0.333081 -0.619 198 161 143
0.0143895 -0.280348 -0.521 208 169 152
0.0229181 -0.275505 -0.512 207 168 151
0.026819 -0.275505 -0.512 207 168 151
0.0277943 -0.275505 -0.512 205 167 148
0.0317571 -0.276043 -0.513 199 162 144
0.0596905 -0.293262 -0.545 152 120 131
0.0646629 -0.297029 -0.552 140 113 130
0.0713133 -0.302948 -0.563 129 110 130
0.0904029 -0.321243 -0.597 129 110 129
0.0937638 -0.32501 -0.604 120 105 126
0.170323 -0.344919 -0.641 205 213 252
0.176428 -0.344919 -0.641 214 218 245
0.274466 -0.343843 -0.639 248 254 254
0.295157 -0.343843 -0.639 164 185 232
0.314631 -0.343843 -0.639 154 169 202
0.317066 -0.343843 -0.639 142 166 212
0.330971 -0.344381 -0.64 128 159 214
0.337067 -0.344381 -0.64 220 227 255
0.340724 -0.344381 -0.64 218 225 253
0.353466 -0.344919 -0.641 59 96 164
0.360131 -0.345457 -0.642 55 84 160
0.423813 -0.346533 -0.644 64 94 154
0.42504 -0.346533 -0.644 57 88 153
0.440987 -0.346533 -0.644 179 182 197
0.442751 -0.345995 -0.643 111 133 182
0.4071 -0.285729 -0.531 142 98 89
0.4105 -0.2825 -0.525 152 103 88
0.415114 -0.280886 -0.522 152 103 88
0.416304 -0.280348 -0.521 152 103 86
0.0181124 -0.27756 -0.514 210 171 156
0.0219857 -0.27702 -0.513 211 169 153
0.0401143 -0.2808 -0.52 178 139 132
0.0411838 -0.28134 -0.521 175 136 129
0.142685 -0.34722 -0.643 194 195 225
0.145134 -0.34722 -0.643 197 204 233
0.165439 -0.34614 -0.641 100 121 186
0.187754 -0.34452 -0.638 151 172 219
0.246086 -0.34452 -0.638 204 207 212
0.258238 -0.34452 -0.638 146 177 234
0.275251 -0.34452 -0.638 246 252 252
0.277682 -0.34452 -0.638 247 252 255
0.278897 -0.34452 -0.638 251 255 255
0.282543 -0.34452 -0.638 188 204 237
0.29348 -0.34452 -0.638 133 154 207
0.294695 -0.34452 -0.638 151 173 220
0.30246 -0.34506 -0.639 235 248 255
0.310493 -0.34452 -0.638 203 209 225
0.312924 -0.34452 -0.638 171 185 214
0.321934 -0.34506 -0.639 122 155 206
0.343162 -0.3456 -0.64 206 214 237
0.346819 -0.3456 -0.64 124 144 197
0.373583 -0.34668 -0.642 207 207 219
0.378474 -0.34668 -0.642 168 174 198
0.388257 -0.34668 -0.642 95 133 196
0.397435 -0.34722 -0.643 188 194 210
0.40111 -0.34722 -0.643 197 199 211
0.414582 -0.34722 -0.643 114 144 204
0.423155 -0.34722 -0.643 90 117 172
0.4487 -0.34614 -0.641 98 126 176
0.410443 -0.29646 -0.549 121 87 85
0.40924 -0.29484 -0.546 120 86 84
0.40685 -0.28944 -0.536 128 88 80
0.409597 -0.28566 -0.529 145 98 82
0.41106 -0.28458 -0.527 150 103 87
0.414913 -0.28242 -0.523 147 100 84
0.426569 -0.28026 -0.519 153 104 87
0.428707 -0.27972 -0.518 153 104 87
0.440811 -0.27864 -0.516 146 99 83
0.459742 -0.28242 -0.523 131 85 70
0.48215 -0.29052 -0.538 133 89 76
0.0152343 -0.279623 -0.516 207 170 152
0.0238933 -0.277455 -0.512 209 170 153
0.0358048 -0.279081 -0.515 183 147 135
0.0368571 -0.279623 -0.516 181 145 133
0.0455 -0.2845 -0.525 173 134 129
0.0488695 -0.286668 -0.529 163 127 127
0.0672495 -0.301299 -0.556 135 114 129
0.116783 -0.347903 -0.642 203 207 236
0.122897 -0.347903 -0.642 109 128 171
0.126566 -0.347903 -0.642 84 115 179
0.135126 -0.347903 -0.642 86 119 188
0.136349 -0.347903 -0.642 97 125 190
0.138794 -0.347903 -0.642 109 134 190
0.142463 -0.347903 -0.642 173 176 207
0.144909 -0.347903 -0.642 180 189 220
0.187754 -0.345735 -0.638 135 156 203
0.23478 -0.345193 -0.637 231 242 255
0.246086 -0.345735 -0.638 236 236 236
0.249731 -0.345735 -0.638 173 190 234
0.252162 -0.345735 -0.638 166 184 232
0.263099 -0.345735 -0.638 161 182 229
0.299556 -0.345735 -0.638 205 225 255
0.305632 -0.345735 -0.638 246 246 255
0.308063 -0.345735 -0.638 249 248 255
0.332889 -0.346277 -0.639 208 227 255
0.34506 -0.346277 -0.639 120 132 170
0.377885 -0.347361 -0.641 160 165 185
0.424943 -0.347903 -0.642 106 129 179
0.437171 -0.347903 -0.642 169 165 180
0.445037 -0.347361 -0.641 92 117 158
0.411031 -0.296422 -0.547 119 86 81
0.412284 -0.285042 -0.526 145 97 83
0.416906 -0.283416 -0.523 148 101 85
0.417103 -0.282874 -0.522 150 103 87
0.423429 -0.28179 -0.52 150 101 86
0.433788 -0.280165 -0.517 156 105 88
0.44462 -0.280165 -0.517 140 93 77
0.455124 -0.28179 -0.52 139 93 77
0.471062 -0.286668 -0.529 132 90 74
0.0559533 -0.293113 -0.539 155 120 124
0.160305 -0.348038 -0.64 83 103 174
0.181678 -0.34695 -0.638 197 194 215
0.184109 -0.34695 -0.638 174 175 203
0.18746 -0.346407 -0.637 138 156 202
0.25298 -0.346407 -0.637 170 189 232
0.254193 -0.346407 -0.637 158 180 229
0.255407 -0.346407 -0.637 148 170 219
0.27118 -0.346407 -0.637 248 255 255
0.272393 -0.346407 -0.637 241 255 251
0.283313 -0.346407 -0.637 162 177 220
0.29302 -0.346407 -0.637 153 169 218
0.302727 -0.346407 -0.637 246 248 255
0.305153 -0.346407 -0.637 248 246 255
0.306367 -0.346407 -0.637 249 247 255
0.308063 -0.34695 -0.638 249 248 255
0.354797 -0.347494 -0.639 115 148 201
0.360229 -0.348038 -0.64 85 114 172
0.382769 -0.348582 -0.641 117 146 188
0.424281 -0.348582 -0.641 128 144 178
0.427389 -0.349126 -0.642 112 130 166
0.431607 -0.348582 -0.641 178 190 212
0.445562 -0.348038 -0.64 98 125 172
0.452676 -0.34695 -0.638 90 116 165
0.455607 -0.346407 -0.637 145 160 201
0.411886 -0.295832 -0.544 121 87 78
0.41192 -0.289307 -0.532 140 92 80
0.416705 -0.284956 -0.524 146 97 83
0.416906 -0.284412 -0.523 145 96 82
0.419894 -0.284412 -0.523 151 102 87
0.422074 -0.283869 -0.522 150 101 86
0.429693 -0.281693 -0.518 146 97 82
0.432653 -0.281693 -0.518 150 99 82
0.444743 -0.280606 -0.516 144 95 80
0.445726 -0.280606 -0.516 143 94 79
0.448559 -0.28115 -0.517 148 99 84
0.449544 -0.28115 -0.517 146 99 83
0.0228286 -0.278314 -0.51 209 172 154
0.02774 -0.27886 -0.511 202 165 147
0.0389733 -0.28268 -0.518 172 135 129
0.0443305 -0.285409 -0.523 171 133 132
0.0455 -0.2865 -0.525 170 132 131
0.054621 -0.292503 -0.536 157 122 126
0.0583295 -0.295777 -0.542 151 124 133
0.059581 -0.296869 -0.544 147 120 129
0.0794048 -0.313786 -0.575 121 106 125
0.120264 -0.349803 -0.641 101 120 150
0.12759 -0.349803 -0.641 56 83 150
0.132473 -0.349803 -0.641 58 87 155
0.150552 -0.349257 -0.64 150 167 211
0.160054 -0.348711 -0.639 87 110 177
0.162489 -0.348711 -0.639 89 111 169
0.164923 -0.348711 -0.639 94 114 175
0.175877 -0.348711 -0.639 198 204 230
0.177094 -0.348711 -0.639 213 219 245
0.184109 -0.348166 -0.638 193 198 227
0.1908 -0.347074 -0.636 134 155 202
0.246913 -0.34762 -0.637 228 239 255
0.251767 -0.34762 -0.637 183 205 246
0.279234 -0.347074 -0.636 166 181 214
0.285291 -0.347074 -0.636 165 182 226
0.287714 -0.347074 -0.636 183 199 248
0.293771 -0.347074 -0.636 153 170 213
0.297406 -0.347074 -0.636 152 165 210
0.305153 -0.34762 -0.637 248 246 255
0.316073 -0.34762 -0.637 157 179 218
0.334798 -0.348166 -0.638 222 233 253
0.376076 -0.349257 -0.64 205 202 223
0.404746 -0.349803 -0.641 168 175 194
0.420618 -0.349803 -0.641 162 171 200
0.42306 -0.349803 -0.641 149 159 184
0.432828 -0.349803 -0.641 146 162 187
0.439467 -0.349257 -0.64 176 177 207
0.449734 -0.348711 -0.639 86 114 162
0.413197 -0.296323 -0.543 127 89 80
0.412971 -0.294686 -0.54 130 89 83
0.413224 -0.291957 -0.535 138 94 85
0.41371 -0.290866 -0.533 139 95 84
0.414857 -0.288137 -0.528 140 94 81
0.42089 -0.285409 -0.523 150 102 90
0.422883 -0.285409 -0.523 147 98 84
0.432803 -0.282134 -0.517 148 99 82
0.440811 -0.281589 -0.516 145 97 77
0.449544 -0.282134 -0.517 145 96 79
0.457105 -0.283771 -0.52 136 89 73
0.47207 -0.288683 -0.529 131 88 72
0.0132171 -0.281476 -0.514 208 171 152
0.0189429 -0.279286 -0.51 208 171 153
0.0238 -0.279286 -0.51 207 167 155
0.0247714 -0.279286 -0.51 206 166 154
0.0594714 -0.297357 -0.543 147 120 127
0.0855343 -0.321452 -0.587 124 111 129
0.0955429 -0.332952 -0.608 116 102 125
0.122514 -0.350476 -0.64 80 104 150
0.12739 -0.350476 -0.64 58 88 152
0.134705 -0.350476 -0.64 74 115 179
0.150317 -0.349929 -0.639 187 203 229
0.154943 -0.349381 -0.638 86 111 168
0.175602 -0.349381 -0.638 221 227 251
0.176817 -0.349381 -0.638 227 233 255
0.182607 -0.348833 -0.637 218 223 252
0.185033 -0.348833 -0.637 157 171 206
0.187166 -0.348286 -0.636 151 169 215
0.242891 -0.348286 -0.636 249 252 255
0.245314 -0.348286 -0.636 249 254 255
0.256217 -0.348286 -0.636 166 187 232
0.265909 -0.348286 -0.636 232 243 255
0.28408 -0.348286 -0.636 184 199 240
0.287714 -0.348286 -0.636 160 175 216
0.304674 -0.348286 -0.636 238 246 255
0.30952 -0.348286 -0.636 241 245 255
0.311943 -0.348286 -0.636 209 217 240
0.319713 -0.348833 -0.637 178 200 239
0.368186 -0.349929 -0.639 190 202 240
0.369403 -0.349929 -0.639 198 207 224
0.389486 -0.350476 -0.64 102 124 171
0.400457 -0.350476 -0.64 175 187 211
0.417524 -0.350476 -0.64 139 146 174
0.454393 -0.348833 -0.637 121 137 173
0.421657 -0.308857 -0.564 121 83 82
0.414994 -0.297905 -0.544 128 85 79
0.426228 -0.28531 -0.521 148 96 82
0.440811 -0.282571 -0.516 146 95 78
0.0189057 -0.279708 -0.509 208 170 151
0.0420952 -0.285752 -0.52 171 132 127
0.113803 -0.351146 -0.639 202 204 227
0.137143 -0.351695 -0.64 117 147 209
0.158589 -0.350596 -0.638 83 108 175
0.164407 -0.350047 -0.637 110 126 185
0.237671 -0.348948 -0.635 250 255 255
0.24009 -0.348948 -0.635 250 251 255
0.278023 -0.349497 -0.636 183 194 212
0.282424 -0.348948 -0.635 194 206 244
0.302251 -0.349497 -0.636 227 234 252
0.359753 -0.350047 -0.637 167 181 210
0.374271 -0.351146 -0.639 205 205 231
0.388877 -0.351146 -0.639 96 120 166
0.393746 -0.351146 -0.639 186 197 227
0.404114 -0.351695 -0.64 75 90 123
0.408351 -0.351146 -0.639 182 183 211
0.412648 -0.351695 -0.64 180 186 212
0.443649 -0.351146 -0.639 78 97 140
0.459014 -0.348948 -0.635 126 131 150
0.416057 -0.296743 -0.54 130 87 80
0.416755 -0.292896 -0.533 133 88 82
0.420094 -0.289599 -0.527 139 92 84
0.439829 -0.283554 -0.516 148 97 78
0.441794 -0.283554 -0.516 149 98 81
0.0087 -0.33582 -0.609 200 162 141
0.011259 -0.283434 -0.514 202 164 143
0.0121905 -0.282331 -0.512 207 169 148
0.01314 -0.28178 -0.511 210 172 151
0.0179362 -0.280677 -0.509 208 170 151
0.022739 -0.280126 -0.508 204 165 148
0.0256924 -0.280677 -0.509 200 161 144
0.047681 -0.290603 -0.527 163 125 122
0.0499714 -0.292257 -0.53 162 127 125
0.05698 -0.29722 -0.539 152 120 123
0.0749276 -0.312109 -0.566 126 109 127
0.0764086 -0.313763 -0.569 124 107 125
0.0870952 -0.325343 -0.59 129 111 133
0.092 -0.330857 -0.6 124 103 122
0.0991467 -0.33968 -0.616 155 151 178
0.118671 -0.352363 -0.639 170 190 225
0.122323 -0.352363 -0.639 90 117 170
0.125974 -0.352363 -0.639 82 115 169
0.127191 -0.352363 -0.639 75 108 162
0.139363 -0.352363 -0.639 189 198 227
0.16198 -0.35126 -0.637 103 121 183
0.163193 -0.35126 -0.637 106 124 186
0.175051 -0.350709 -0.636 223 227 252
0.222806 -0.349606 -0.634 176 191 232
0.232467 -0.349606 -0.634 158 175 221
0.244929 -0.350157 -0.635 250 255 255
0.246138 -0.350157 -0.635 244 254 255
0.26791 -0.350157 -0.635 247 254 255
0.304195 -0.350157 -0.635 241 245 254
0.310243 -0.350157 -0.635 238 241 255
0.330114 -0.350709 -0.636 220 228 251
0.338594 -0.350709 -0.636 201 208 234
0.360967 -0.35126 -0.637 183 190 219
0.378547 -0.351811 -0.638 151 166 199
0.385838 -0.351811 -0.638 94 126 175
0.412003 -0.352363 -0.639 184 188 213
0.438093 -0.351811 -0.638 109 114 134
0.450753 -0.35126 -0.637 72 98 155
0.457805 -0.350157 -0.635 103 110 136
0.418871 -0.300529 -0.545 125 82 75
0.418367 -0.29722 -0.539 131 88 81
0.4245 -0.2895 -0.525 142 96 83
0.425871 -0.288397 -0.523 144 95 81
0.4806 -0.294463 -0.534 140 93 77
0.01026 -0.28386 -0.513 203 165 142
0.0188686 -0.281093 -0.508 210 172 151
0.0377667 -0.284967 -0.515 173 134 129
0.0498771 -0.292713 -0.529 161 126 124
0.0708067 -0.309313 -0.559 135 113 126
0.0735886 -0.31208 -0.564 127 106 123
0.0794048 -0.318167 -0.575 127 110 128
0.116237 -0.35358 -0.639 196 204 225
0.120916 -0.353027 -0.638 93 120 175
0.123347 -0.353027 -0.638 95 125 185
0.124757 -0.35358 -0.639 89 119 179
0.128409 -0.35358 -0.639 71 102 156
0.13793 -0.353027 -0.638 184 190 212
0.139145 -0.353027 -0.638 192 198 220
0.144993 -0.352473 -0.637 200 205 225
0.171417 -0.35192 -0.636 203 211 247
0.180824 -0.351367 -0.635 231 233 255
0.182033 -0.351367 -0.635 214 221 249
0.184162 -0.350813 -0.634 155 169 204
0.228844 -0.350813 -0.634 188 203 246
0.230051 -0.350813 -0.634 171 186 229
0.233674 -0.350813 -0.634 177 191 220
0.244543 -0.350813 -0.634 247 252 255
0.272318 -0.350813 -0.634 246 255 255
0.277149 -0.350813 -0.634 184 192 211
0.282424 -0.351367 -0.635 209 218 249
0.29089 -0.351367 -0.635 224 237 254
0.3175 -0.351367 -0.635 180 197 225
0.327691 -0.35192 -0.636 180 195 234
0.340481 -0.351367 -0.635 182 187 217
0.34169 -0.351367 -0.635 212 218 252
0.349497 -0.35192 -0.636 202 209 235
0.36218 -0.352473 -0.637 200 206 232
0.374901 -0.353027 -0.638 193 202 231
0.396775 -0.353027 -0.638 134 139 168
0.403483 -0.35358 -0.639 127 142 175
0.436878 -0.353027 -0.638 113 121 142
0.4459 -0.352473 -0.637 82 118 178
0.45553 -0.339747 -0.614 118 97 102
0.424 -0.309867 -0.56 125 84 78
0.42279 -0.308207 -0.557 123 84 79
0.419663 -0.299907 -0.542 127 87 79
0.424307 -0.291053 -0.526 136 89 79
0.434627 -0.286627 -0.518 155 103 89
0.4366 -0.286627 -0.518 155 103 89
0.44376 -0.28552 -0.516 147 96 79
0.456333 -0.286627 -0.518 141 95 79
0.485346 -0.29714 -0.537 137 95 73
0.0217286 -0.281506 -0.507 205 167 148
0.03054 -0.282616 -0.509 191 152 135
0.0487771 -0.293166 -0.528 160 126 124
0.0521867 -0.295387 -0.532 159 125 124
0.0839848 -0.324259 -0.584 127 112 131
0.11727 -0.354242 -0.638 185 192 211
0.139145 -0.354242 -0.638 195 198 217
0.15688 -0.353131 -0.636 83 109 158
0.171148 -0.352576 -0.635 194 202 238
0.182954 -0.352021 -0.634 190 197 225
0.185077 -0.351466 -0.633 160 174 209
0.188694 -0.351466 -0.633 181 198 228
0.226071 -0.351466 -0.633 229 237 255
0.248166 -0.352021 -0.634 213 222 251
0.250581 -0.352021 -0.634 191 205 240
0.254204 -0.352021 -0.634 209 223 255
0.271889 -0.351466 -0.633 237 246 251
0.285602 -0.352021 -0.634 215 226 255
0.290432 -0.352021 -0.634 234 242 255
0.300093 -0.352021 -0.634 188 194 228
0.307339 -0.352021 -0.634 244 242 255
0.318208 -0.352021 -0.634 186 202 238
0.346529 -0.352576 -0.635 209 219 246
0.3604 -0.353131 -0.636 199 207 228
0.368247 -0.353687 -0.637 97 109 157
0.36946 -0.353687 -0.637 92 104 152
0.38038 -0.353687 -0.637 103 125 166
0.41678 -0.353687 -0.637 178 185 204
0.417993 -0.353687 -0.637 181 188 207
0.436193 -0.353687 -0.637 119 133 160
0.461661 -0.35091 -0.632 162 164 189
0.425372 -0.310378 -0.559 125 84 80
0.421929 -0.298163 -0.537 118 75 69
0.422395 -0.297052 -0.535 120 77 71
0.423283 -0.294831 -0.531 124 79 74
0.423495 -0.294276 -0.53 126 81 75
0.424914 -0.293166 -0.528 130 83 75
0.4265 -0.2915 -0.525 137 90 80
0.0325429 -0.284143 -0.51 190 150 140
0.0430857 -0.289714 -0.52 169 132 126
0.0521867 -0.2964 -0.532 157 125 126
0.0657143 -0.307543 -0.552 137 114 124
0.0667657 -0.307543 -0.552 137 114 124
0.0708067 -0.311443 -0.559 134 112 124
0.0792667 -0.3198 -0.574 130 112 128
0.0839848 -0.325371 -0.584 127 113 130
0.128208 -0.355457 -0.638 105 132 177
0.131647 -0.3549 -0.637 98 129 183
0.159052 -0.353786 -0.635 139 154 197
0.169938 -0.353786 -0.635 145 155 190
0.279123 -0.352671 -0.633 225 232 248
0.285151 -0.352671 -0.633 211 223 245
0.294055 -0.353229 -0.634 241 243 255
0.306854 -0.352671 -0.633 244 242 255
0.32183 -0.353229 -0.634 142 161 204
0.374313 -0.3549 -0.637 183 196 228
0.37736 -0.354343 -0.636 156 172 198
0.40222 -0.3549 -0.637 186 193 212
0.404647 -0.3549 -0.637 189 192 211
0.41314 -0.3549 -0.637 185 192 211
0.422847 -0.3549 -0.637 180 187 206
0.429451 -0.354343 -0.636 178 183 202
0.446919 -0.353786 -0.635 48 84 146
0.431898 -0.317014 -0.569 125 84 80
0.434167 -0.290271 -0.521 150 99 82
0.435159 -0.290271 -0.521 151 99 85
0.440681 -0.288043 -0.517 152 101 84
0.447914 -0.286371 -0.514 155 104 87
0.467608 -0.291943 -0.524 132 91 73
0.468606 -0.291943 -0.524 132 91 73
0.0055 -0.2935 -0.525 201 166 146
0.020681 -0.282319 -0.505 206 168 149
0.0226495 -0.282878 -0.506 202 164 145
0.0335143 -0.285114 -0.51 187 149 140
0.0376933 -0.28735 -0.514 177 138 133
0.0605057 -0.303563 -0.543 139 116 124
0.0721286 -0.313626 -0.561 131 109 122
0.0904029 -0.333751 -0.597 128 108 120
0.120537 -0.355554 -0.636 98 122 170
0.138709 -0.355554 -0.636 199 206 225
0.142567 -0.356113 -0.637 200 205 225
0.177843 -0.353877 -0.633 228 233 253
0.230894 -0.353877 -0.633 224 231 255
0.242951 -0.353877 -0.633 246 250 249
0.256214 -0.353877 -0.633 202 215 250
0.272663 -0.353318 -0.632 184 189 209
0.29962 -0.353877 -0.633 195 200 220
0.316 -0.353318 -0.632 152 171 204
0.323734 -0.353877 -0.633 157 176 216
0.333907 -0.354436 -0.634 138 149 181
0.380395 -0.354995 -0.635 92 112 163
0.395531 -0.355554 -0.636 91 103 143
