ply
format ascii 1.0
comment Created by Open3D
element vertex 1302
property double x
property double y
property double z
property uchar red
property uchar green
property uchar blue
end_header
-0.0972095 -0.264657 -0.59 87 88 93
-0.0699857 -0.286637 -0.639 55 54 62
-0.0559 -0.289329 -0.645 72 70 81
0.092761 -0.252546 -0.563 184 135 138
0.10116 -0.252097 -0.562 178 118 118
0.113258 -0.255237 -0.569 162 96 97
0.128927 -0.26062 -0.581 121 60 59
0.133812 -0.261517 -0.583 155 89 90
0.163491 -0.259274 -0.578 163 106 112
0.354251 -0.249406 -0.556 155 109 119
0.360738 -0.244471 -0.545 110 71 72
0.41554 -0.24806 -0.553 135 99 103
0.40609 -0.239986 -0.535 155 104 100
0.405077 -0.238191 -0.531 161 111 102
0.406811 -0.236846 -0.528 162 109 103
0.413327 -0.233706 -0.521 160 105 98
0.42197 -0.231911 -0.517 160 105 98
0.437587 -0.23236 -0.518 146 99 91
0.443238 -0.233257 -0.52 132 89 82
0.46664 -0.23864 -0.532 127 88 81
0.468532 -0.239089 -0.533 125 86 79
1.15234 -0.289777 -0.646 202 204 190
-0.103003 -0.266231 -0.591 95 95 103
-0.08976 -0.277493 -0.616 90 91 96
-0.0882648 -0.280196 -0.622 85 84 92
-0.0783829 -0.287404 -0.638 56 55 61
-0.0772886 -0.287854 -0.639 56 55 63
-0.07242 -0.287854 -0.639 52 51 59
-0.0630752 -0.289656 -0.643 64 63 71
-0.0594933 -0.290107 -0.644 70 69 77
0.0912 -0.252267 -0.56 185 133 137
0.113258 -0.256321 -0.569 161 93 94
0.122756 -0.260375 -0.578 141 79 80
0.139604 -0.263078 -0.584 150 84 86
0.140716 -0.263078 -0.584 156 90 92
0.146541 -0.257672 -0.572 202 150 137
0.355931 -0.245059 -0.544 139 95 92
0.362603 -0.241906 -0.537 63 42 47
0.462759 -0.291458 -0.647 88 80 101
0.406047 -0.242807 -0.539 154 103 100
0.419827 -0.233347 -0.518 154 99 92
0.420986 -0.232896 -0.517 159 104 97
0.434772 -0.232896 -0.517 147 94 86
-0.0749714 -0.289524 -0.64 53 52 60
-0.0618505 -0.290881 -0.643 67 66 74
0.0851029 -0.254238 -0.562 193 149 150
0.10223 -0.254238 -0.562 165 101 101
0.105817 -0.255143 -0.564 165 99 101
0.112174 -0.257405 -0.569 160 94 98
0.120346 -0.261024 -0.577 137 75 76
0.131152 -0.265095 -0.586 121 65 68
0.143923 -0.261929 -0.579 210 155 148
0.163209 -0.261024 -0.577 146 98 98
0.35891 -0.255595 -0.565 148 106 116
0.354895 -0.246095 -0.544 146 99 105
0.409718 -0.237048 -0.524 153 98 93
0.437587 -0.234333 -0.518 149 99 92
0.454632 -0.237048 -0.524 129 88 82
1.15123 -0.291333 -0.644 202 204 190
-0.0909105 -0.276206 -0.608 98 99 104
-0.0875 -0.283929 -0.625 85 86 91
-0.054841 -0.293923 -0.647 72 71 79
0.0972514 -0.253491 -0.558 170 106 106
0.10098 -0.254854 -0.561 143 79 80
0.132946 -0.267574 -0.589 129 74 79
0.144434 -0.258034 -0.568 206 152 142
0.15551 -0.256671 -0.565 159 107 93
0.171381 -0.268029 -0.59 132 82 91
0.173674 -0.269846 -0.594 133 84 90
0.199314 -0.290743 -0.64 178 179 200
0.354447 -0.25122 -0.553 152 107 112
0.357346 -0.246677 -0.543 140 91 95
0.4085 -0.2385 -0.525 157 104 98
0.409932 -0.237591 -0.523 154 101 93
0.414514 -0.236229 -0.52 155 100 93
0.427051 -0.234411 -0.516 157 105 94
0.43 -0.234411 -0.516 155 103 92
0.451903 -0.237137 -0.522 128 88 80
0.45563 -0.238046 -0.524 127 87 79
0.459373 -0.238954 -0.526 127 89 80
-0.0972095 -0.269152 -0.59 87 88 93
-0.0775305 -0.292418 -0.641 58 57 63
0.0902229 -0.25273 -0.554 178 122 123
0.0972514 -0.254554 -0.558 168 104 105
0.10854 -0.25866 -0.567 153 84 89
0.120763 -0.264134 -0.579 121 69 71
0.130924 -0.269152 -0.59 98 61 68
0.196238 -0.289225 -0.634 186 187 215
0.354214 -0.251361 -0.551 153 106 112
0.366694 -0.244974 -0.537 72 45 50
0.374238 -0.247255 -0.542 79 66 76
0.475083 -0.295155 -0.647 119 102 110
0.402686 -0.246343 -0.54 133 91 93
0.40303 -0.240412 -0.527 157 108 101
0.408936 -0.238588 -0.523 152 99 93
0.412334 -0.237675 -0.521 152 97 90
0.443374 -0.236763 -0.519 142 94 82
0.450045 -0.237675 -0.521 134 94 84
1.15132 -0.292874 -0.642 201 203 190
1.14959 -0.291506 -0.639 213 215 202
-0.0998991 -0.268444 -0.586 99 99 107
-0.0989514 -0.268902 -0.587 98 98 106
-0.0962486 -0.270734 -0.591 75 79 82
-0.0914629 -0.27669 -0.604 107 108 113
-0.0884067 -0.285393 -0.623 93 92 100
-0.084459 -0.292265 -0.638 82 81 86
-0.0656267 -0.295013 -0.644 53 52 60
-0.0573057 -0.296388 -0.647 68 67 75
-0.05616 -0.296846 -0.648 68 67 75
-0.051381 -0.297762 -0.65 71 70 78
0.112569 -0.261572 -0.571 134 72 77
0.138833 -0.272567 -0.595 110 64 67
0.14321 -0.256075 -0.559 192 137 130
0.150125 -0.255159 -0.557 163 108 103
0.1827 -0.27898 -0.609 124 77 85
0.202727 -0.296388 -0.647 220 232 248
0.363953 -0.246913 -0.539 108 69 70
0.400629 -0.247371 -0.54 133 92 96
0.399703 -0.245539 -0.536 134 90 91
0.403267 -0.240958 -0.526 157 106 102
0.422955 -0.236835 -0.517 159 107 96
0.424925 -0.236835 -0.517 158 106 95
0.428864 -0.236835 -0.517 156 104 91
0.442386 -0.237751 -0.519 143 93 82
0.44621 -0.23821 -0.52 138 88 77
0.449052 -0.238668 -0.521 132 92 84
0.451903 -0.239126 -0.522 127 87 79
0.470429 -0.244623 -0.534 122 83 76
-0.116257 -0.28796 -0.626 98 98 106
-0.11341 -0.28382 -0.617 97 97 105
-0.103952 -0.2714 -0.59 100 100 108
-0.08554 -0.29302 -0.637 86 85 90
-0.0739829 -0.29532 -0.642 50 49 55
-0.0728733 -0.29578 -0.643 49 48 54
0.0790952 -0.253 -0.55 195 150 153
0.0874762 -0.253 -0.55 186 130 131
0.0960162 -0.25622 -0.557 163 102 107
0.13339 -0.27416 -0.596 148 122 131
0.141838 -0.25852 -0.562 207 153 143
0.144833 -0.25438 -0.553 190 136 124
0.181838 -0.2806 -0.61 118 75 84
0.364303 -0.24748 -0.538 113 77 77
0.366352 -0.24748 -0.538 86 60 61
0.370113 -0.24794 -0.539 68 49 51
0.398257 -0.2438 -0.53 158 105 99
0.412334 -0.23966 -0.521 149 94 87
0.425086 -0.23736 -0.516 158 106 93
0.426069 -0.23736 -0.516 158 106 93
0.429849 -0.23782 -0.517 155 106 91
0.444363 -0.23874 -0.519 139 89 78
0.467653 -0.24472 -0.532 123 84 77
0.470429 -0.24564 -0.534 124 85 78
0.488871 -0.25254 -0.549 127 88 81
-0.121674 -0.296543 -0.642 99 99 107
-0.0928324 -0.276219 -0.598 114 115 120
-0.0888743 -0.285457 -0.618 97 100 105
-0.0814467 -0.297005 -0.643 73 74 79
-0.0668533 -0.297467 -0.644 49 48 53
-0.0620429 -0.297929 -0.645 55 54 60
0.0828314 -0.252662 -0.547 174 122 124
0.0921667 -0.255433 -0.553 161 99 102
0.0972514 -0.257743 -0.558 160 99 104
0.11316 -0.265133 -0.574 113 62 67
0.142727 -0.255433 -0.553 187 133 131
0.14378 -0.255433 -0.553 189 135 133
0.144571 -0.254971 -0.552 189 136 128
0.16968 -0.2716 -0.588 150 102 100
0.186275 -0.284995 -0.617 111 70 84
0.200249 -0.297005 -0.643 252 250 255
0.354243 -0.250814 -0.543 143 87 96
0.354623 -0.250352 -0.542 139 83 92
0.355655 -0.250352 -0.542 143 87 96
0.361229 -0.248505 -0.538 141 95 97
0.366352 -0.248505 -0.538 113 83 85
0.370113 -0.248967 -0.539 63 43 45
0.402265 -0.242962 -0.526 155 102 98
0.4045 -0.2425 -0.525 152 102 95
0.409932 -0.241576 -0.523 148 95 87
0.4218 -0.239267 -0.518 156 102 92
0.426069 -0.238343 -0.516 155 103 92
0.441533 -0.239267 -0.518 143 95 85
0.445351 -0.239729 -0.519 139 91 79
-0.121485 -0.297302 -0.641 100 100 108
-0.10136 -0.27272 -0.588 105 105 113
-0.0962486 -0.274111 -0.591 71 71 79
-0.0896143 -0.285243 -0.615 104 105 110
-0.0828 -0.298693 -0.644 80 81 86
-0.0620429 -0.299157 -0.645 54 53 61
-0.0562467 -0.301012 -0.649 66 65 73
0.0849152 -0.253704 -0.547 174 118 121
0.0909486 -0.256023 -0.552 163 99 100
0.0946143 -0.257414 -0.555 158 93 97
0.108218 -0.264835 -0.571 106 54 58
0.112067 -0.266227 -0.574 105 54 59
0.117657 -0.26901 -0.58 108 57 64
0.153067 -0.259733 -0.56 152 102 105
0.169969 -0.273184 -0.589 145 101 100
0.18038 -0.28246 -0.609 111 68 77
0.192906 -0.292664 -0.631 186 165 180
0.20056 -0.298693 -0.644 249 246 255
0.362253 -0.24953 -0.538 153 104 107
0.395435 -0.24721 -0.533 133 91 93
0.398766 -0.244891 -0.528 145 96 89
0.412334 -0.241645 -0.521 150 98 87
0.413327 -0.241645 -0.521 149 97 86
0.416867 -0.240253 -0.518 153 99 89
0.427879 -0.23979 -0.517 153 101 88
0.428864 -0.23979 -0.517 154 102 89
0.434772 -0.23979 -0.517 153 101 90
0.44252 -0.240253 -0.518 141 93 83
0.445351 -0.240717 -0.519 139 91 79
0.451037 -0.241645 -0.521 132 89 80
0.46125 -0.244428 -0.527 127 87 77
0.48709 -0.253704 -0.547 124 87 78
1.14901 -0.29591 -0.638 202 203 189
-0.102654 -0.274306 -0.589 108 108 116
-0.0867533 -0.29666 -0.637 92 93 95
-0.0644 -0.29992 -0.644 49 48 56
0.0692867 -0.254746 -0.547 204 166 163
0.0720152 -0.253349 -0.544 204 164 162
0.0835667 -0.253814 -0.545 166 110 111
0.0907838 -0.256609 -0.551 156 91 95
0.119376 -0.271511 -0.583 94 41 51
0.13932 -0.28036 -0.602 229 198 203
0.140233 -0.279894 -0.601 209 178 183
0.140366 -0.257074 -0.552 196 146 137
0.14326 -0.256609 -0.551 190 139 138
0.14431 -0.256609 -0.551 185 134 130
0.151186 -0.259403 -0.557 149 98 95
0.190489 -0.292003 -0.627 171 137 151
0.356313 -0.256609 -0.551 147 98 104
0.359847 -0.25102 -0.539 139 94 97
0.37114 -0.25102 -0.539 127 98 102
0.372167 -0.25102 -0.539 124 95 99
0.39442 -0.248226 -0.533 138 93 90
0.399014 -0.245431 -0.527 144 97 91
0.413327 -0.242637 -0.521 149 97 86
0.4218 -0.24124 -0.518 152 98 86
0.430833 -0.240774 -0.517 159 102 93
0.435757 -0.240774 -0.517 150 98 87
0.445351 -0.241706 -0.519 138 92 79
0.46125 -0.245431 -0.527 126 88 79
0.48709 -0.254746 -0.547 126 89 80
-0.123663 -0.302082 -0.646 101 101 109
-0.115514 -0.290859 -0.622 101 101 109
-0.0917657 -0.283377 -0.606 132 133 138
-0.0729867 -0.301147 -0.644 47 46 54
-0.0632714 -0.301614 -0.645 50 49 57
0.090619 -0.25719 -0.55 140 78 81
0.116552 -0.271219 -0.58 92 37 43
0.119376 -0.272622 -0.583 96 43 51
0.122014 -0.273557 -0.585 97 51 61
0.1394 -0.268413 -0.574 207 152 147
0.140366 -0.258126 -0.552 196 146 137
0.172833 -0.278233 -0.595 146 110 112
0.355931 -0.254385 -0.544 140 89 94
0.3787 -0.252982 -0.541 121 87 88
0.393405 -0.249241 -0.533 136 92 89
0.396003 -0.246435 -0.527 146 98 94
0.400261 -0.245968 -0.526 146 97 92
0.4025 -0.2455 -0.525 145 96 89
0.4035 -0.2455 -0.525 148 99 92
0.413126 -0.244097 -0.522 145 95 86
0.415505 -0.243162 -0.52 153 101 90
0.4218 -0.242227 -0.518 154 102 91
0.422787 -0.242227 -0.518 151 99 88
0.427879 -0.241759 -0.517 151 99 88
0.46125 -0.246435 -0.527 125 85 75
0.48709 -0.255788 -0.547 128 90 81
-0.118012 -0.29533 -0.629 98 98 106
-0.0831857 -0.303782 -0.647 84 85 89
-0.0755571 -0.302843 -0.645 57 56 62
-0.0729867 -0.302373 -0.644 54 53 61
0.0704571 -0.253543 -0.54 200 155 152
0.0756 -0.253543 -0.54 203 162 158
0.0776571 -0.253543 -0.54 205 161 158
0.0854857 -0.255421 -0.544 177 121 124
0.114146 -0.271854 -0.579 81 31 40
0.119376 -0.273732 -0.583 80 29 36
0.137556 -0.263872 -0.562 202 152 145
0.146409 -0.258708 -0.551 169 119 108
0.149586 -0.260586 -0.555 155 104 100
0.170546 -0.277489 -0.591 132 100 103
0.192008 -0.296739 -0.632 238 224 239
0.360422 -0.262464 -0.559 147 100 106
0.3589 -0.260586 -0.555 146 99 105
0.370786 -0.252134 -0.537 150 110 111
0.3773 -0.253073 -0.539 134 95 98
0.379029 -0.253543 -0.54 133 94 97
0.390126 -0.255421 -0.544 128 92 92
0.395251 -0.24697 -0.526 147 99 95
0.420637 -0.243683 -0.519 155 105 94
0.42476 -0.243213 -0.518 154 104 93
0.431818 -0.242744 -0.517 154 102 89
0.43956 -0.243213 -0.518 153 103 92
0.451903 -0.245091 -0.522 126 86 76
0.464009 -0.248378 -0.529 126 86 76
0.476002 -0.252604 -0.538 128 88 80
0.479687 -0.254012 -0.541 126 88 79
-0.110416 -0.286157 -0.607 106 106 114
-0.0667495 -0.303129 -0.643 45 44 52
0.0631505 -0.258343 -0.548 199 155 154
0.0703267 -0.2541 -0.539 198 150 148
0.071221 -0.253629 -0.538 201 153 151
0.0797143 -0.254571 -0.54 194 148 148
0.0916667 -0.259286 -0.55 138 82 85
0.10152 -0.265886 -0.564 133 76 82
0.112848 -0.272486 -0.578 76 26 35
0.116954 -0.274371 -0.582 86 33 39
0.120693 -0.275314 -0.584 87 36 43
0.138857 -0.282857 -0.6 208 173 171
0.189898 -0.296529 -0.629 236 225 239
0.377625 -0.253629 -0.538 141 99 101
0.40373 -0.247029 -0.524 148 99 92
0.408936 -0.246557 -0.523 152 102 95
0.410929 -0.246557 -0.523 150 100 91
0.414319 -0.245614 -0.521 151 101 92
0.440547 -0.2442 -0.518 148 98 87
0.44634 -0.244671 -0.519 141 91 80
-0.124893 -0.305773 -0.646 96 96 104
-0.123089 -0.304353 -0.643 97 97 105
-0.0904886 -0.29394 -0.621 168 169 171
-0.07176 -0.304827 -0.644 44 43 51
0.0621067 -0.259387 -0.548 197 156 154
0.0671219 -0.254653 -0.538 197 152 149
0.0839838 -0.256073 -0.541 192 142 143
0.0942733 -0.261753 -0.553 143 81 84
0.121806 -0.276427 -0.584 91 45 48
0.135661 -0.282107 -0.596 196 151 148
0.143786 -0.25986 -0.549 176 124 111
0.154959 -0.266487 -0.563 135 88 80
0.161267 -0.271693 -0.574 112 80 81
0.163491 -0.273587 -0.578 118 86 87
0.358752 -0.256547 -0.542 136 87 91
0.363278 -0.254653 -0.538 149 104 101
0.369763 -0.25418 -0.537 153 109 108
0.381326 -0.253707 -0.536 139 97 98
0.389714 -0.24992 -0.528 139 95 96
0.406944 -0.247553 -0.523 148 99 92
0.415505 -0.246133 -0.52 153 103 94
0.421626 -0.24566 -0.519 155 105 94
0.43364 -0.245187 -0.518 155 105 94
0.443374 -0.24566 -0.519 143 93 82
-0.116071 -0.297024 -0.625 96 96 104
-0.101532 -0.279915 -0.589 103 103 111
-0.0586286 -0.307954 -0.648 54 53 61
0.0611743 -0.260906 -0.549 200 156 155
0.0616533 -0.25853 -0.544 199 155 154
0.0641667 -0.256153 -0.539 198 152 152
0.10422 -0.26946 -0.567 133 80 86
0.111553 -0.274212 -0.577 79 29 38
0.112848 -0.274688 -0.578 79 29 38
0.114343 -0.275638 -0.58 79 29 38
0.115647 -0.276113 -0.581 81 34 42
0.12958 -0.279915 -0.589 133 83 84
0.362133 -0.266133 -0.56 147 98 104
0.362927 -0.256153 -0.539 148 103 100
0.3745 -0.254252 -0.535 147 103 104
0.386143 -0.251876 -0.53 142 98 99
0.391244 -0.249975 -0.526 143 97 97
0.411342 -0.247599 -0.521 151 101 94
0.419649 -0.246649 -0.519 153 103 94
0.431667 -0.246173 -0.518 155 105 94
0.434627 -0.246173 -0.518 153 103 92
0.444363 -0.246649 -0.519 143 95 85
0.4472 -0.247124 -0.52 136 88 78
0.46125 -0.25045 -0.527 123 83 73
-0.111144 -0.291534 -0.611 94 94 102
-0.10041 -0.281037 -0.589 98 99 104
-0.0994571 -0.281514 -0.59 99 99 107
-0.0985 -0.281991 -0.591 98 98 106
-0.0941286 -0.285809 -0.599 127 125 138
-0.0852533 -0.30728 -0.644 151 156 152
-0.0770238 -0.308711 -0.647 42 43 48
0.0607286 -0.260043 -0.545 200 156 153
0.0814686 -0.256703 -0.538 190 140 141
0.0826467 -0.25718 -0.539 193 141 143
0.0951543 -0.263383 -0.552 150 94 97
0.102594 -0.269109 -0.564 130 75 81
0.110071 -0.274357 -0.575 79 32 40
0.116552 -0.276743 -0.58 83 41 43
0.13421 -0.265769 -0.557 202 158 155
0.134619 -0.262429 -0.55 199 152 142
0.157417 -0.271017 -0.568 115 81 82
0.362212 -0.258134 -0.541 153 102 107
0.363953 -0.25718 -0.539 150 105 102
0.366352 -0.256703 -0.538 151 105 105
0.373481 -0.255271 -0.535 147 103 104
0.376538 -0.255271 -0.535 145 103 104
0.378576 -0.255271 -0.535 144 102 103
0.381814 -0.253363 -0.531 141 100 98
0.382826 -0.253363 -0.531 143 99 96
0.402959 -0.249546 -0.523 147 98 93
0.413327 -0.248591 -0.521 154 104 95
0.415505 -0.248114 -0.52 154 104 95
0.425747 -0.24716 -0.518 152 102 91
0.43364 -0.24716 -0.518 153 103 94
-0.120916 -0.305632 -0.638 91 92 96
-0.09078 -0.298447 -0.623 214 213 218
-0.0609086 -0.309465 -0.646 48 49 54
0.0638095 -0.25677 -0.536 198 154 151
0.0749 -0.25629 -0.535 207 157 158
0.0759191 -0.25629 -0.535 206 158 156
0.091 -0.26156 -0.546 179 127 131
0.11505 -0.27689 -0.578 88 41 49
0.12118 -0.278327 -0.581 116 64 68
0.132494 -0.281201 -0.587 207 157 150
0.133385 -0.280722 -0.586 217 167 160
0.133006 -0.264434 -0.552 199 156 150
0.145359 -0.263955 -0.551 155 101 89
0.153887 -0.269704 -0.563 126 84 86
0.369763 -0.257249 -0.537 151 107 106
0.374817 -0.255811 -0.534 148 104 105
0.38924 -0.251979 -0.526 149 105 102
0.403955 -0.250542 -0.523 150 102 92
0.420637 -0.248626 -0.519 153 103 92
0.431667 -0.248147 -0.518 151 101 90
0.435613 -0.248147 -0.518 150 102 90
0.440547 -0.248147 -0.518 145 98 88
0.480717 -0.259165 -0.541 124 86 77
-0.1247 -0.310214 -0.645 90 91 96
-0.119138 -0.305405 -0.635 86 87 92
-0.0969 -0.286167 -0.595 77 76 84
-0.0951105 -0.28761 -0.598 70 68 81
-0.0852533 -0.309733 -0.644 161 165 164
-0.0767857 -0.310214 -0.645 40 41 45
-0.0714257 -0.30829 -0.641 36 35 41
0.0609733 -0.258752 -0.538 200 154 154
0.0799952 -0.25731 -0.535 196 146 145
0.0821867 -0.25779 -0.536 190 139 138
0.0946371 -0.264043 -0.549 178 123 128
0.110973 -0.276067 -0.574 83 36 42
0.124714 -0.279914 -0.582 130 71 75
0.134433 -0.262119 -0.545 190 137 119
0.136259 -0.261638 -0.544 190 134 119
0.365304 -0.260195 -0.541 148 102 102
0.36874 -0.258271 -0.537 149 103 103
0.370786 -0.258271 -0.537 149 105 104
0.380803 -0.255386 -0.531 141 97 94
0.381814 -0.255386 -0.531 139 95 92
0.385691 -0.253943 -0.528 148 100 96
0.3895 -0.2525 -0.525 148 104 101
0.393749 -0.252019 -0.524 148 101 95
0.425747 -0.249133 -0.518 148 100 88
0.431667 -0.249133 -0.518 148 98 87
0.470563 -0.256348 -0.533 125 85 77
1.14663 -0.304924 -0.634 200 204 187
-0.126124 -0.311926 -0.646 92 93 98
-0.116814 -0.303717 -0.629 84 85 90
-0.103874 -0.287783 -0.596 84 85 90
-0.0901686 -0.302751 -0.627 218 217 222
-0.0889 -0.306614 -0.635 205 205 203
-0.0870257 -0.308546 -0.639 170 173 166
0.0593619 -0.261709 -0.542 199 153 153
0.0644676 -0.257363 -0.533 202 156 156
0.0798457 -0.257846 -0.534 197 147 146
0.09308 -0.26364 -0.546 184 129 134
0.0944648 -0.264606 -0.548 183 128 133
0.110587 -0.276194 -0.572 89 43 46
0.116846 -0.278126 -0.576 106 57 61
0.129362 -0.279091 -0.578 214 164 153
0.132906 -0.262191 -0.543 187 131 116
0.15661 -0.274746 -0.569 114 79 83
0.369763 -0.259294 -0.537 149 103 103
0.371116 -0.258811 -0.536 149 103 103
0.376453 -0.25688 -0.532 148 106 107
0.377467 -0.25688 -0.532 150 106 105
0.387236 -0.253983 -0.526 147 104 98
0.411342 -0.251569 -0.521 160 110 99
0.435613 -0.25012 -0.518 151 101 92
0.440409 -0.250603 -0.519 143 96 86
0.444363 -0.250603 -0.519 136 92 83
-0.104223 -0.289888 -0.598 82 82 90
-0.101263 -0.287949 -0.594 81 81 91
-0.0980333 -0.288433 -0.595 73 71 84
-0.0935333 -0.295705 -0.61 225 223 236
-0.0879667 -0.308793 -0.637 195 197 192
-0.0870257 -0.309763 -0.639 185 187 182
-0.085121 -0.311702 -0.643 175 177 176
-0.0653209 -0.310732 -0.641 36 36 44
0.0583543 -0.267589 -0.552 198 154 153
0.0616524 -0.259348 -0.535 197 153 152
0.0724533 -0.257893 -0.532 201 153 151
0.08188 -0.258863 -0.534 195 145 144
0.120346 -0.279708 -0.577 114 64 67
0.124742 -0.279708 -0.577 159 108 104
0.128431 -0.27583 -0.569 217 167 156
0.369671 -0.27389 -0.565 138 89 93
0.39275 -0.254015 -0.524 150 101 96
0.396982 -0.25353 -0.523 156 107 100
0.403183 -0.253046 -0.522 160 110 101
0.411543 -0.252076 -0.52 161 112 98
0.420813 -0.251107 -0.518 153 103 92
0.43364 -0.251107 -0.518 152 102 91
0.4366 -0.251107 -0.518 148 100 88
0.4472 -0.252076 -0.52 129 85 74
-0.0955876 -0.292487 -0.601 73 71 84
-0.0752057 -0.31244 -0.642 39 40 45
-0.0630752 -0.312927 -0.643 65 64 70
0.0662486 -0.25842 -0.531 199 154 151
0.115146 -0.27886 -0.573 104 53 58
0.127867 -0.266693 -0.548 203 153 146
0.131386 -0.263287 -0.541 191 133 119
0.149599 -0.272047 -0.559 124 84 84
0.153629 -0.275453 -0.566 115 85 87
0.371476 -0.261827 -0.538 150 102 100
0.372462 -0.260367 -0.535 150 102 100
0.380086 -0.257933 -0.53 147 99 97
0.384961 -0.256473 -0.527 152 104 100
0.419827 -0.252093 -0.518 155 106 92
0.432653 -0.252093 -0.518 154 104 93
0.462254 -0.256473 -0.527 132 89 80
-0.121106 -0.312197 -0.639 83 83 91
-0.1107 -0.300471 -0.615 77 77 85
-0.101774 -0.291677 -0.597 76 76 86
0.0839143 -0.260897 -0.534 195 141 141
0.0963762 -0.267249 -0.547 168 112 115
0.103443 -0.272134 -0.557 171 116 121
0.110895 -0.277509 -0.568 100 50 53
0.121482 -0.279463 -0.572 169 118 115
0.143 -0.268714 -0.55 148 96 85
0.144571 -0.269691 -0.552 134 92 93
0.149867 -0.2736 -0.56 120 85 83
0.158262 -0.280929 -0.575 114 93 100
0.369771 -0.263829 -0.54 145 100 95
0.371476 -0.262851 -0.538 147 102 97
0.374115 -0.260409 -0.533 147 100 94
0.386234 -0.256989 -0.526 151 102 97
0.388238 -0.256989 -0.526 152 103 98
0.3885 -0.2565 -0.525 153 104 99
0.392001 -0.255523 -0.523 149 100 95
0.42772 -0.25308 -0.518 148 98 89
0.47894 -0.26334 -0.539 125 85 75
-0.0777724 -0.315376 -0.643 37 38 42
0.0641048 -0.259952 -0.53 199 154 149
0.0711714 -0.259952 -0.53 203 155 151
0.0721809 -0.259952 -0.53 203 155 151
0.09864 -0.268781 -0.548 166 110 113
0.146678 -0.272705 -0.556 126 87 88
0.374797 -0.276138 -0.563 135 91 90
0.396223 -0.256029 -0.522 155 105 98
0.4002 -0.256029 -0.522 157 107 100
0.408571 -0.255048 -0.52 161 109 96
0.41884 -0.254067 -0.518 155 106 92
0.435613 -0.254067 -0.518 150 100 91
0.4366 -0.254067 -0.518 150 102 92
0.444363 -0.254557 -0.519 137 90 82
0.466024 -0.259462 -0.529 129 86 79
-0.122706 -0.315616 -0.641 81 85 86
-0.0968933 -0.296413 -0.602 71 71 81
-0.0943848 -0.299368 -0.608 75 73 84
-0.0903124 -0.309215 -0.628 225 224 229
-0.0776514 -0.316109 -0.642 37 38 43
-0.07242 -0.314631 -0.639 37 37 45
0.0651143 -0.260962 -0.53 197 152 147
0.0742 -0.260962 -0.53 200 155 150
0.0836 -0.261947 -0.532 193 139 137
0.106817 -0.274749 -0.558 157 102 105
0.124631 -0.267363 -0.543 199 146 138
0.125434 -0.26687 -0.542 200 148 137
0.154986 -0.28115 -0.571 117 88 92
0.3737 -0.273271 -0.555 138 92 92
0.373854 -0.264409 -0.537 141 93 89
0.379076 -0.260962 -0.53 146 99 93
0.381384 -0.26047 -0.529 147 98 93
0.392997 -0.257515 -0.523 152 103 96
0.43068 -0.255053 -0.518 155 103 92
1.14358 -0.309708 -0.629 202 204 190
-0.0962238 -0.299043 -0.605 73 73 83
-0.09078 -0.30794 -0.623 233 232 240
-0.0901686 -0.309917 -0.627 232 231 239
-0.086481 -0.313871 -0.635 196 195 203
-0.0748543 -0.315849 -0.639 37 38 43
0.06018 -0.262466 -0.531 196 152 149
0.0760752 -0.261477 -0.529 196 148 144
0.0812667 -0.261971 -0.53 198 149 145
0.0879829 -0.263949 -0.534 189 135 135
0.0903543 -0.264937 -0.536 187 125 128
0.09394 -0.26642 -0.539 180 118 121
0.111865 -0.277789 -0.562 128 76 80
0.135758 -0.267903 -0.542 157 107 96
0.13884 -0.26988 -0.546 146 99 91
0.37388 -0.26988 -0.546 137 92 89
0.373894 -0.268397 -0.543 140 92 88
0.379791 -0.262466 -0.531 146 98 94
0.382391 -0.261477 -0.529 145 96 91
0.386234 -0.259994 -0.526 153 104 99
0.394234 -0.258017 -0.522 155 105 96
0.409562 -0.257029 -0.52 162 113 99
0.43956 -0.25604 -0.518 146 98 88
0.449181 -0.257029 -0.52 128 85 76
0.463258 -0.260489 -0.527 130 87 78
0.471578 -0.263454 -0.533 130 87 80
0.474367 -0.264443 -0.535 130 87 80
0.498443 -0.274329 -0.555 130 91 86
1.1442 -0.3114 -0.63 202 204 190
1.14478 -0.310906 -0.629 202 204 190
-0.0772886 -0.317066 -0.639 44 45 50
0.0567686 -0.266454 -0.537 195 151 150
0.0639838 -0.262485 -0.529 195 151 150
0.0658743 -0.261989 -0.528 197 153 152
0.0678857 -0.261989 -0.528 201 156 153
0.0709029 -0.261989 -0.528 200 155 152
0.0790981 -0.262485 -0.529 196 148 146
0.0801057 -0.262485 -0.529 195 147 145
0.095319 -0.268439 -0.541 173 113 115
0.134477 -0.268439 -0.541 158 109 95
0.137548 -0.270424 -0.545 148 100 88
0.140649 -0.272409 -0.549 133 90 83
0.376221 -0.265958 -0.536 145 97 93
0.3875 -0.2605 -0.525 153 104 97
0.397449 -0.258515 -0.521 154 104 95
0.404395 -0.258515 -0.521 158 108 97
0.40638 -0.258515 -0.521 161 111 100
0.407581 -0.258019 -0.52 165 113 100
0.414893 -0.257027 -0.518 158 109 95
0.41588 -0.257027 -0.518 158 109 95
0.4218 -0.257027 -0.518 153 104 90
0.434477 -0.257523 -0.519 159 107 96
0.47348 -0.264966 -0.534 131 88 81
0.497545 -0.27489 -0.554 130 89 85
1.14416 -0.311608 -0.628 202 205 188
-0.117929 -0.31629 -0.635 78 81 88
-0.0931286 -0.306329 -0.615 84 84 92
-0.0851371 -0.315792 -0.634 67 68 73
-0.0687686 -0.318283 -0.639 63 64 69
0.0574686 -0.265983 -0.534 198 154 151
0.0590571 -0.26399 -0.53 199 156 150
0.0667533 -0.262496 -0.527 199 154 149
0.07378 -0.262496 -0.527 196 151 148
0.110471 -0.276443 -0.555 188 129 131
0.112789 -0.276941 -0.556 202 151 147
0.139094 -0.272458 -0.547 142 94 94
0.142469 -0.274949 -0.552 127 86 90
0.377667 -0.273952 -0.55 138 92 92
0.376971 -0.268971 -0.54 141 96 93
0.383399 -0.263492 -0.529 148 99 94
0.394234 -0.260006 -0.522 153 103 94
0.416867 -0.258013 -0.518 158 109 94
0.417853 -0.258013 -0.518 153 104 90
0.429534 -0.258511 -0.519 156 104 93
0.431511 -0.258511 -0.519 155 102 94
0.47348 -0.265983 -0.534 130 87 81
0.476274 -0.266979 -0.536 130 87 81
1.14535 -0.312804 -0.628 202 205 188
-0.106014 -0.3075 -0.615 84 84 92
-0.0886905 -0.3125 -0.625 213 212 218
-0.08778 -0.3135 -0.627 151 150 156
-0.0828524 -0.3175 -0.635 57 56 62
-0.08056 -0.318 -0.636 49 48 54
-0.0793486 -0.318 -0.636 50 49 55
-0.07462 -0.3185 -0.637 46 47 52
0.0589457 -0.2645 -0.529 200 155 149
0.068761 -0.2635 -0.527 201 154 148
0.0697648 -0.2635 -0.527 200 153 147
0.0798029 -0.2635 -0.527 195 144 141
0.0972 -0.27 -0.54 178 118 120
0.110926 -0.276 -0.552 207 157 150
0.139094 -0.2735 -0.547 137 93 92
0.382097 -0.279 -0.558 142 91 87
0.380091 -0.276 -0.552 143 92 89
0.382105 -0.265 -0.53 149 100 95
0.3875 -0.2625 -0.525 153 103 96
0.389756 -0.262 -0.524 152 102 95
0.396456 -0.2605 -0.521 153 103 94
0.398441 -0.2605 -0.521 156 106 95
0.438431 -0.2595 -0.519 147 97 86
0.472593 -0.2665 -0.533 130 87 80
-0.111844 -0.315196 -0.628 91 91 101
-0.0698762 -0.320215 -0.638 60 60 68
0.0656248 -0.264002 -0.526 196 151 145
0.0676286 -0.264002 -0.526 199 152 144
0.0886667 -0.267013 -0.532 181 123 121
0.09684 -0.270025 -0.538 180 120 120
0.119738 -0.268519 -0.535 195 143 130
0.121549 -0.268017 -0.534 192 139 125
0.134726 -0.272032 -0.542 149 102 92
0.146929 -0.281569 -0.561 116 85 83
0.388546 -0.285584 -0.569 138 90 90
0.384533 -0.281067 -0.56 139 92 86
0.38368 -0.265006 -0.528 151 101 92
0.391005 -0.262496 -0.523 151 101 92
0.392001 -0.262496 -0.523 148 98 89
0.40659 -0.26099 -0.52 166 114 101
0.428546 -0.260489 -0.519 156 104 93
0.442386 -0.260489 -0.519 142 94 84
0.445351 -0.260489 -0.519 140 93 83
0.447329 -0.260489 -0.519 132 88 79
0.454886 -0.261994 -0.522 131 88 79
0.4615 -0.2635 -0.525 130 87 78
0.475386 -0.268519 -0.535 130 87 78
-0.11551 -0.319919 -0.635 95 96 101
-0.0875 -0.314881 -0.625 72 71 77
-0.0855276 -0.316392 -0.628 64 63 69
0.0542 -0.273065 -0.542 197 152 146
0.0554343 -0.269034 -0.534 198 157 153
0.0808067 -0.265508 -0.527 195 142 138
0.0999143 -0.27105 -0.538 186 131 126
0.108282 -0.274072 -0.544 209 157 146
0.110151 -0.273569 -0.543 210 157 151
0.1177 -0.269538 -0.535 194 141 133
0.124367 -0.26853 -0.533 173 121 100
0.131682 -0.27105 -0.538 151 101 90
0.14719 -0.283141 -0.562 116 88 87
0.391005 -0.263492 -0.523 153 105 95
0.401638 -0.261981 -0.52 164 112 101
0.40482 -0.261477 -0.519 163 111 98
0.414092 -0.26047 -0.517 160 111 97
0.422787 -0.260973 -0.518 158 106 93
0.426569 -0.261477 -0.519 158 106 93
-0.109277 -0.317083 -0.627 99 98 103
-0.106036 -0.314554 -0.622 98 98 100
-0.100483 -0.312026 -0.617 97 98 103
-0.0875 -0.316071 -0.625 71 70 75
-0.0721933 -0.32214 -0.637 64 65 70
0.0695 -0.2655 -0.525 197 150 144
0.0883333 -0.268029 -0.53 178 120 118
0.0895114 -0.268534 -0.531 179 117 122
0.0915343 -0.268534 -0.531 177 115 118
0.0939095 -0.269546 -0.533 177 115 116
0.10318 -0.27258 -0.539 207 154 146
0.105429 -0.273086 -0.54 208 156 145
0.108313 -0.27258 -0.539 206 153 147
0.110367 -0.27258 -0.539 207 152 145
0.117831 -0.268534 -0.531 194 139 132
0.122107 -0.26904 -0.532 176 122 110
0.386717 -0.281683 -0.557 134 90 87
0.382037 -0.271569 -0.537 153 104 99
0.387236 -0.266006 -0.526 152 103 96
0.3895 -0.2655 -0.525 152 103 96
0.392001 -0.264489 -0.523 149 99 90
0.403831 -0.262466 -0.519 159 107 96
0.438431 -0.262466 -0.519 150 100 89
0.443374 -0.262466 -0.519 140 94 81
0.483809 -0.273591 -0.541 129 86 79
-0.0979733 -0.312693 -0.616 98 99 104
-0.0800533 -0.320815 -0.632 59 59 67
0.0552267 -0.270053 -0.532 201 157 154
0.0578286 -0.268023 -0.528 198 153 147
0.0587229 -0.267515 -0.527 199 154 149
0.0665 -0.2665 -0.525 199 152 146
0.0848219 -0.267515 -0.527 192 134 130
0.0881667 -0.26853 -0.529 181 122 118
0.09576 -0.270053 -0.532 189 129 128
0.0969552 -0.270561 -0.533 197 139 135
0.0991714 -0.271069 -0.534 203 148 141
0.102606 -0.272084 -0.536 204 152 141
0.135223 -0.276145 -0.544 141 100 94
0.13676 -0.27716 -0.546 131 93 90
0.138557 -0.278683 -0.549 130 92 89
0.144275 -0.283759 -0.559 127 92 90
0.382954 -0.271069 -0.534 151 104 98
0.397449 -0.26447 -0.521 157 105 94
0.398667 -0.263962 -0.52 159 107 96
0.402843 -0.263454 -0.519 163 111 100
0.406013 -0.262947 -0.518 164 112 99
0.415077 -0.262439 -0.517 159 110 96
0.43364 -0.262947 -0.518 158 106 93
0.453022 -0.26447 -0.521 130 86 77
0.460621 -0.265992 -0.524 130 88 76
-0.109974 -0.32151 -0.631 100 101 103
-0.104167 -0.318452 -0.625 97 98 102
-0.0928543 -0.316414 -0.621 87 88 92
-0.0843314 -0.319981 -0.628 58 57 65
-0.0811286 -0.32151 -0.631 57 56 64
0.0673714 -0.26699 -0.524 196 148 144
0.0826571 -0.26801 -0.526 192 135 128
0.106291 -0.272086 -0.534 207 155 144
0.121648 -0.270048 -0.53 175 119 106
0.12915 -0.273105 -0.536 148 98 89
0.133693 -0.276162 -0.542 138 98 98
0.142698 -0.283805 -0.557 124 90 89
0.385133 -0.270048 -0.53 146 97 92
0.387703 -0.269029 -0.528 149 100 93
0.393993 -0.266481 -0.523 158 105 97
0.410947 -0.263933 -0.518 165 113 100
0.447329 -0.264443 -0.519 135 91 80
-0.0977429 -0.318109 -0.622 99 98 103
-0.0921143 -0.319131 -0.624 91 90 95
-0.0856638 -0.321689 -0.629 72 71 76
0.0536 -0.274126 -0.536 203 154 150
0.0752124 -0.267477 -0.523 195 142 136
0.0773524 -0.267989 -0.524 193 140 134
0.0942124 -0.270546 -0.529 193 139 129
0.0986143 -0.271569 -0.531 203 146 137
0.12041 -0.270546 -0.529 178 122 109
0.121648 -0.271057 -0.53 176 120 107
0.130657 -0.275149 -0.538 141 100 98
0.141129 -0.283843 -0.555 123 91 94
0.359667 -0.332429 -0.65 173 183 218
0.387017 -0.278217 -0.544 143 98 95
0.385106 -0.274637 -0.537 144 97 91
0.385283 -0.272591 -0.533 146 99 93
0.402843 -0.265431 -0.519 162 110 99
0.411138 -0.264409 -0.517 166 114 101
0.426733 -0.26492 -0.518 166 114 101
0.435613 -0.26492 -0.518 154 102 88
0.451162 -0.265943 -0.52 134 90 77
0.452152 -0.265943 -0.52 133 89 76
-0.105 -0.3234 -0.63 117 118 122
-0.0835324 -0.323913 -0.631 80 81 85
0.103476 -0.272067 -0.53 200 146 134
0.105495 -0.272067 -0.53 200 146 134
0.125382 -0.273607 -0.533 165 108 99
0.132416 -0.277713 -0.541 136 93 86
0.135969 -0.280793 -0.547 127 91 91
0.137511 -0.28182 -0.549 122 88 87
0.36035 -0.333153 -0.649 161 169 205
0.369571 -0.333667 -0.65 75 107 168
0.373286 -0.333667 -0.65 71 110 185
0.398048 -0.333667 -0.65 103 132 190
0.388976 -0.270527 -0.527 151 101 94
0.425747 -0.265907 -0.518 168 116 103
0.43956 -0.265907 -0.518 148 99 85
0.44548 -0.265907 -0.518 138 92 79
0.456874 -0.26796 -0.522 132 88 75
0.4625 -0.2695 -0.525 128 86 74
-0.102274 -0.32357 -0.628 115 115 117
-0.0997229 -0.323054 -0.627 114 114 116
-0.0892581 -0.324085 -0.629 108 108 110
-0.0813857 -0.326146 -0.633 100 101 105
-0.0803067 -0.326661 -0.634 135 136 140
0.0534 -0.275137 -0.534 201 152 147
0.06612 -0.268954 -0.522 203 154 149
0.0722238 -0.26947 -0.523 196 146 139
0.0752124 -0.26947 -0.523 194 141 135
0.0886686 -0.271015 -0.526 187 130 121
0.108913 -0.27153 -0.527 202 148 136
0.109917 -0.27153 -0.527 200 146 134
0.118171 -0.272046 -0.528 182 126 111
0.122889 -0.273591 -0.531 174 121 107
0.124133 -0.274107 -0.532 169 116 102
0.369003 -0.33439 -0.649 53 92 161
0.393727 -0.33439 -0.649 165 169 194
0.387313 -0.274622 -0.533 138 94 93
0.389445 -0.272561 -0.529 151 102 95
0.3915 -0.2705 -0.525 150 101 94
0.398441 -0.268439 -0.521 158 104 94
0.40404 -0.266893 -0.518 156 106 95
0.419016 -0.266378 -0.517 165 113 100
0.42772 -0.266893 -0.518 168 116 102
0.456874 -0.268954 -0.522 133 90 74
0.464383 -0.271015 -0.526 129 87 75
0.474624 -0.274622 -0.533 125 85 73
0.0566076 -0.272017 -0.526 201 153 149
0.06612 -0.269949 -0.522 202 153 149
0.0752124 -0.270466 -0.523 191 141 134
0.0956819 -0.272017 -0.526 192 138 128
0.100883 -0.272534 -0.527 198 144 134
0.105701 -0.272017 -0.526 197 145 134
0.124133 -0.27512 -0.532 166 112 100
0.125382 -0.275637 -0.533 162 106 93
0.138263 -0.285463 -0.552 121 87 85
0.363497 -0.335109 -0.648 125 154 220
0.378309 -0.335109 -0.648 124 159 223
0.404852 -0.335626 -0.649 83 122 189
0.417214 -0.335626 -0.649 179 185 217
0.388897 -0.278223 -0.538 138 94 85
0.388613 -0.27512 -0.532 143 96 90
0.389714 -0.273051 -0.528 149 101 91
0.397217 -0.269949 -0.522 157 105 94
0.407987 -0.26788 -0.518 162 113 99
0.409169 -0.267363 -0.517 167 118 104
0.417223 -0.266846 -0.516 166 114 100
0.420986 -0.267363 -0.517 168 116 103
0.449427 -0.26788 -0.518 142 94 80
0.477424 -0.276671 -0.535 127 87 77
-0.10413 -0.328038 -0.632 151 151 153
0.0547076 -0.273538 -0.527 197 156 152
0.0556057 -0.273019 -0.526 197 156 152
0.0659933 -0.270424 -0.521 202 153 149
0.0691029 -0.270943 -0.522 199 150 146
0.0720857 -0.270943 -0.522 197 146 142
0.0831819 -0.271462 -0.523 188 134 124
0.0841781 -0.271462 -0.523 187 130 121
0.102695 -0.273019 -0.526 196 142 130
0.13315 -0.282362 -0.544 125 87 84
0.134927 -0.283919 -0.547 121 86 90
0.361704 -0.335824 -0.647 186 198 240
0.382011 -0.336343 -0.648 173 177 206
0.390049 -0.335824 -0.647 189 192 225
0.435647 -0.335824 -0.647 26 59 136
0.39072 -0.274057 -0.528 152 102 91
0.39275 -0.271981 -0.524 157 105 94
0.407987 -0.268867 -0.518 165 113 100
0.422955 -0.268348 -0.517 165 116 101
0.427879 -0.268348 -0.517 167 115 101
0.44548 -0.268867 -0.518 148 97 80
0.465385 -0.273019 -0.526 133 90 81
0.4905 -0.282881 -0.545 130 84 71
-0.0991571 -0.328721 -0.631 225 225 227
-0.0932952 -0.329242 -0.632 230 230 230
-0.0920914 -0.329242 -0.632 230 230 232
-0.08848 -0.329242 -0.632 226 226 228
0.052579 -0.27923 -0.536 202 157 152
0.0540095 -0.276105 -0.53 200 155 150
0.0592733 -0.272458 -0.523 198 150 148
0.0760629 -0.271937 -0.522 191 138 132
0.0780514 -0.271937 -0.522 189 136 130
0.0831819 -0.272458 -0.523 188 133 126
0.0841781 -0.272458 -0.523 187 130 121
0.0851743 -0.272458 -0.523 181 124 115
0.089159 -0.272458 -0.523 185 128 119
0.0901552 -0.272458 -0.523 186 129 120
0.0953181 -0.272979 -0.524 194 140 130
0.0965 -0.2735 -0.525 196 142 132
0.1045 -0.2735 -0.525 193 141 128
0.1115 -0.2735 -0.525 188 134 122
0.12041 -0.275584 -0.529 168 110 96
0.135173 -0.285482 -0.548 118 83 89
0.145004 -0.294859 -0.566 112 86 85
0.391907 -0.336535 -0.646 138 153 186
0.393137 -0.336535 -0.646 94 122 185
0.411033 -0.338098 -0.649 93 116 166
0.420274 -0.337577 -0.648 69 86 138
0.435086 -0.337577 -0.648 30 67 137
0.432803 -0.269332 -0.517 159 110 95
0.455124 -0.270895 -0.52 136 92 79
0.0556229 -0.328354 -0.628 195 150 145
0.102305 -0.273977 -0.524 195 143 130
0.105299 -0.273977 -0.524 192 138 128
0.107295 -0.273977 -0.524 189 137 126
0.11572 -0.275023 -0.526 180 124 111
0.116944 -0.275546 -0.527 179 123 110
0.124367 -0.278683 -0.533 157 103 93
0.368528 -0.337766 -0.646 59 92 163
0.37526 -0.338289 -0.647 43 77 148
0.381422 -0.338289 -0.647 94 108 147
0.394368 -0.337766 -0.646 73 102 160
0.405463 -0.338811 -0.648 35 75 147
0.416571 -0.338811 -0.648 161 168 196
0.4002 -0.272931 -0.522 159 107 94
0.40404 -0.27084 -0.518 164 115 101
0.408184 -0.270317 -0.517 168 119 104
0.418206 -0.269794 -0.516 163 116 100
0.427879 -0.270317 -0.517 163 114 99
0.44252 -0.27084 -0.518 155 103 82
0.443507 -0.27084 -0.518 156 104 83
0.44548 -0.27084 -0.518 153 101 80
0.475639 -0.278683 -0.533 126 83 74
0.0658667 -0.272876 -0.52 200 151 147
0.0739324 -0.273401 -0.521 193 142 138
0.0798867 -0.273401 -0.521 188 133 126
0.0828638 -0.273401 -0.521 188 133 126
0.0961324 -0.27445 -0.523 198 144 134
0.1135 -0.2755 -0.525 183 126 115
0.122889 -0.278649 -0.531 156 101 94
0.17285 -0.32955 -0.628 157 170 212
0.370414 -0.338471 -0.645 49 84 152
0.386386 -0.338471 -0.645 189 193 218
0.390071 -0.338471 -0.645 125 137 177
0.403605 -0.339521 -0.647 49 88 165
0.412231 -0.339521 -0.647 158 169 199
0.407987 -0.271827 -0.518 165 116 102
0.410153 -0.271302 -0.517 171 122 108
0.413291 -0.270777 -0.516 166 119 103
0.419189 -0.270777 -0.516 162 115 99
0.432803 -0.271302 -0.517 157 108 93
0.434772 -0.271302 -0.517 154 105 88
0.0619048 -0.273867 -0.52 198 150 148
0.0688381 -0.273867 -0.52 197 148 144
0.0818714 -0.274393 -0.521 189 134 127
0.0959486 -0.27492 -0.522 197 143 133
0.0999257 -0.27492 -0.522 194 142 131
0.13413 -0.288613 -0.548 111 83 79
0.142343 -0.29704 -0.564 122 87 93
0.386386 -0.3397 -0.645 187 192 211
0.387614 -0.3397 -0.645 200 203 220
0.394986 -0.3397 -0.645 75 114 181
0.39929 -0.340227 -0.646 64 106 182
0.406672 -0.340227 -0.646 65 105 174
0.417747 -0.340227 -0.646 179 184 216
0.39516 -0.28124 -0.534 143 96 88
0.395707 -0.280187 -0.532 147 100 90
0.396003 -0.277553 -0.527 151 103 93
0.397007 -0.277553 -0.527 153 105 95
0.42312 -0.27176 -0.516 162 113 98
0.424103 -0.27176 -0.516 162 113 98
0.429849 -0.272287 -0.517 166 113 97
0.438711 -0.272287 -0.517 157 104 88
0.440681 -0.272287 -0.517 156 105 88
0.44265 -0.272287 -0.517 154 103 86
0.471062 -0.278607 -0.529 129 85 76
0.0562848 -0.276443 -0.523 199 151 149
0.0600391 -0.275386 -0.521 199 151 147
0.0787429 -0.274857 -0.52 193 140 134
0.0856762 -0.274857 -0.52 189 135 125
0.0868333 -0.275386 -0.521 190 135 128
0.0898105 -0.275386 -0.521 189 136 128
0.0969429 -0.275914 -0.522 196 142 132
0.117948 -0.278557 -0.527 163 111 100
0.125852 -0.282786 -0.535 140 93 87
0.36984 -0.3404 -0.644 48 86 159
0.372871 -0.340929 -0.645 34 80 158
0.374747 -0.3404 -0.644 74 108 180
0.385787 -0.3404 -0.644 153 161 172
0.410957 -0.340929 -0.645 181 192 214
0.420786 -0.340929 -0.645 135 150 173
0.422014 -0.340929 -0.645 133 148 171
0.397095 -0.284371 -0.538 135 92 83
0.3995 -0.2775 -0.525 159 109 98
0.417047 -0.273271 -0.517 165 113 99
0.445605 -0.273271 -0.517 153 104 90
0.459969 -0.275386 -0.521 136 92 81
0.0609143 -0.275848 -0.52 196 148 144
0.0787429 -0.275848 -0.52 193 143 136
0.0927876 -0.276378 -0.521 191 139 128
0.09378 -0.276378 -0.521 191 139 128
0.0999257 -0.276909 -0.522 198 144 132
0.100727 -0.276378 -0.521 195 141 129
0.112286 -0.27797 -0.524 180 121 113
0.116722 -0.27903 -0.526 169 112 105
0.363142 -0.341096 -0.643 102 123 178
0.39192 -0.341627 -0.644 119 142 192
0.393147 -0.341627 -0.644 85 108 158
0.401129 -0.342157 -0.645 55 102 170
0.412773 -0.341627 -0.644 179 193 219
0.423243 -0.342157 -0.645 106 128 175
0.397733 -0.282213 -0.532 148 101 91
0.402731 -0.27797 -0.524 161 113 99
0.403955 -0.277439 -0.523 162 113 99
0.408973 -0.274787 -0.518 171 120 103
0.42312 -0.273726 -0.516 161 110 93
0.457105 -0.275848 -0.52 139 92 82
0.489734 -0.288049 -0.543 129 86 77
0.0528 -0.281097 -0.528 199 156 150
0.0589333 -0.276838 -0.52 197 149 147
0.0599238 -0.276838 -0.52 198 150 148
0.0716714 -0.276306 -0.519 195 144 140
0.0736486 -0.276306 -0.519 196 146 139
0.102909 -0.277903 -0.522 190 136 126
0.1246 -0.284291 -0.534 140 92 90
0.126088 -0.285356 -0.536 131 91 91
0.365023 -0.341789 -0.642 55 89 153
0.37049 -0.342321 -0.643 45 85 157
0.374165 -0.342321 -0.643 47 87 157
0.376029 -0.341789 -0.642 142 165 215
0.379697 -0.341789 -0.642 195 200 230
0.382143 -0.341789 -0.642 195 199 224
0.385811 -0.341789 -0.642 157 157 165
0.393761 -0.342321 -0.643 79 119 180
0.394986 -0.342321 -0.643 79 119 180
0.404187 -0.342853 -0.644 90 128 190
0.411547 -0.342853 -0.644 186 190 217
0.438533 -0.342853 -0.644 45 80 138
0.442751 -0.342321 -0.643 166 173 199
0.401524 -0.289615 -0.544 128 94 85
0.398957 -0.284824 -0.535 137 99 90
0.402265 -0.280032 -0.526 161 109 98
0.413108 -0.275241 -0.517 169 120 105
0.43 -0.274709 -0.516 163 110 96
0.445726 -0.274709 -0.516 148 96 82
0.461846 -0.277903 -0.522 135 88 78
0.469281 -0.280565 -0.527 129 86 77
0.0519905 -0.283171 -0.53 195 154 148
0.0924314 -0.277294 -0.519 194 142 131
0.1155 -0.2805 -0.525 163 108 103
0.117948 -0.281569 -0.527 152 102 95
0.376029 -0.343011 -0.642 142 165 215
0.383366 -0.343011 -0.642 200 202 217
0.385811 -0.343011 -0.642 157 157 165
0.407867 -0.34408 -0.644 120 135 174
0.42504 -0.34408 -0.644 58 93 151
0.4324 -0.34408 -0.644 73 102 162
0.44699 -0.331257 -0.62 116 96 95
0.400995 -0.285843 -0.535 133 94 87
0.407372 -0.278363 -0.521 160 111 97
0.407581 -0.277829 -0.52 163 111 98
0.410947 -0.27676 -0.518 173 121 107
0.414092 -0.276226 -0.517 163 114 99
0.430983 -0.275691 -0.516 158 106 92
0.439829 -0.275691 -0.516 158 105 91
0.441794 -0.275691 -0.516 156 103 89
0.460961 -0.278363 -0.521 134 88 75
0.465611 -0.279966 -0.524 130 86 75
0.0511733 -0.285253 -0.532 194 153 147
0.0570619 -0.279355 -0.521 195 152 146
0.0617857 -0.278283 -0.519 192 147 141
0.0995429 -0.278819 -0.52 198 145 137
0.108874 -0.279891 -0.522 172 115 104
0.362012 -0.343698 -0.641 77 96 152
0.3638 -0.344234 -0.642 65 99 162
0.369914 -0.344234 -0.642 52 92 164
0.394371 -0.344234 -0.642 83 122 179
0.395594 -0.344234 -0.642 90 129 186
0.399885 -0.34477 -0.643 94 130 190
0.40111 -0.34477 -0.643 88 124 184
0.413357 -0.34477 -0.643 187 189 212
0.422587 -0.345307 -0.644 55 80 136
0.426267 -0.345307 -0.644 58 93 151
0.431173 -0.345307 -0.644 72 101 161
0.437171 -0.344234 -0.642 67 98 152
0.448 -0.343162 -0.64 112 111 125
0.408365 -0.279355 -0.521 163 114 100
0.409763 -0.278283 -0.519 163 111 98
0.417853 -0.277747 -0.518 164 115 100
0.419016 -0.27721 -0.517 163 111 97
0.427051 -0.276674 -0.516 157 106 89
0.43 -0.276674 -0.516 162 110 96
0.430983 -0.276674 -0.516 157 105 91
0.435897 -0.276674 -0.516 160 108 94
0.437863 -0.276674 -0.516 158 105 91
0.457214 -0.278283 -0.519 136 92 79
0.464723 -0.280428 -0.523 130 88 76
0.0560695 -0.280348 -0.521 199 156 150
0.0569524 -0.27981 -0.52 197 154 148
0.0598086 -0.279271 -0.519 195 152 145
0.0626533 -0.278733 -0.518 196 151 145
0.0764667 -0.278733 -0.518 197 148 141
0.0822276 -0.278195 -0.517 192 144 134
0.0883067 -0.278733 -0.518 192 142 133
0.0953971 -0.279271 -0.519 196 146 135
0.1145 -0.2825 -0.525 168 111 102
0.11572 -0.283038 -0.526 160 105 98
0.373001 -0.344919 -0.641 69 103 166
0.380327 -0.344919 -0.641 204 205 226
0.390094 -0.344919 -0.641 162 170 193
0.395594 -0.345457 -0.642 82 117 171
0.425605 -0.345995 -0.643 79 110 164
0.404052 -0.287881 -0.535 134 93 87
0.40794 -0.281424 -0.523 157 109 95
0.469392 -0.283038 -0.526 130 90 80
0.05882 -0.28026 -0.519 201 158 151
0.0616667 -0.27972 -0.518 197 152 146
0.068441 -0.27918 -0.517 196 149 141
0.0773038 -0.27918 -0.517 196 149 143
0.0922533 -0.27972 -0.518 201 151 144
0.0973743 -0.28026 -0.519 196 143 135
0.103505 -0.2808 -0.52 180 128 117
0.35901 -0.3456 -0.64 90 116 175
0.373001 -0.34614 -0.641 92 121 181
0.390094 -0.34614 -0.641 137 140 159
0.410269 -0.34668 -0.642 190 191 211
0.416383 -0.34668 -0.642 181 186 206
0.406333 -0.2862 -0.53 140 100 92
0.406574 -0.28566 -0.529 150 101 87
0.406811 -0.28512 -0.528 153 104 90
0.410143 -0.28188 -0.522 159 107 94
0.424925 -0.27918 -0.517 156 105 88
0.428034 -0.27864 -0.516 153 102 85
0.432949 -0.27864 -0.516 156 107 92
0.440811 -0.27864 -0.516 154 102 88
0.444743 -0.27864 -0.516 148 97 80
0.445726 -0.27864 -0.516 150 99 82
0.0528067 -0.337607 -0.623 193 152 148
0.0664714 -0.280165 -0.517 197 150 144
0.0674562 -0.280165 -0.517 195 148 142
0.0761714 -0.279623 -0.516 194 147 141
0.0840343 -0.279623 -0.516 196 146 137
0.0910905 -0.280165 -0.517 198 148 141
0.106681 -0.282332 -0.521 175 120 113
0.108874 -0.282874 -0.522 173 116 109
0.118395 -0.286668 -0.529 142 93 88
0.138627 -0.30455 -0.562 108 75 84
0.38461 -0.346819 -0.64 199 200 218
0.402304 -0.347361 -0.641 101 127 178
0.404746 -0.347361 -0.641 122 153 200
0.429834 -0.347903 -0.642 134 147 189
0.43527 -0.347361 -0.641 136 152 186
0.408352 -0.28721 -0.53 145 97 85
0.416495 -0.28179 -0.52 161 112 98
0.41866 -0.281249 -0.519 163 114 99
0.428864 -0.280165 -0.517 153 101 87
0.453483 -0.280165 -0.517 139 93 78
0.455347 -0.280707 -0.518 137 91 76
0.46284 -0.282874 -0.522 134 92 80
0.474085 -0.286668 -0.529 132 88 75
0.0525 -0.2855 -0.525 194 151 145
0.0625324 -0.28115 -0.517 200 155 150
0.0635171 -0.28115 -0.517 197 152 146
0.07912 -0.280606 -0.516 197 148 141
0.0810857 -0.280606 -0.516 198 150 140
0.0879657 -0.280606 -0.516 199 149 142
0.100147 -0.281693 -0.518 186 134 123
0.119854 -0.288763 -0.531 141 94 88
0.360883 -0.347494 -0.639 149 171 218
0.371837 -0.347494 -0.639 153 171 211
0.374271 -0.347494 -0.639 110 130 180
0.4224 -0.348038 -0.64 149 162 194
0.424838 -0.348038 -0.64 158 171 203
0.430386 -0.348582 -0.641 120 131 163
0.4466 -0.34695 -0.638 170 181 199
0.408633 -0.28985 -0.533 129 94 88
0.420637 -0.282237 -0.519 155 106 92
0.42591 -0.28115 -0.517 155 106 91
0.448674 -0.280606 -0.516 144 97 81
0.467608 -0.284956 -0.524 133 91 79
0.48625 -0.29257 -0.538 128 85 76
0.490897 -0.294745 -0.542 128 89 74
0.566193 -0.332268 -0.611 122 148 185
0.0515371 -0.339434 -0.622 195 154 150
0.0751886 -0.281589 -0.516 194 147 139
0.0869829 -0.281589 -0.516 200 151 144
0.103306 -0.283226 -0.519 180 126 114
0.108874 -0.284863 -0.522 173 116 107
0.119854 -0.289774 -0.531 137 92 87
0.127499 -0.295777 -0.542 117 83 84
0.138873 -0.307237 -0.563 92 64 79
0.384623 -0.348166 -0.638 200 197 226
0.398614 -0.348711 -0.639 122 152 204
0.399831 -0.348711 -0.639 101 131 181
0.403483 -0.348711 -0.639 133 161 211
0.411429 -0.349257 -0.64 190 191 212
0.43878 -0.348711 -0.639 180 180 214
0.439997 -0.348711 -0.639 148 152 187
0.441214 -0.348711 -0.639 78 82 117
0.441739 -0.348166 -0.638 77 85 122
0.4466 -0.348166 -0.638 163 175 199
0.41358 -0.299597 -0.549 126 86 84
0.411129 -0.296323 -0.543 126 86 78
0.410834 -0.288137 -0.528 146 102 91
0.413917 -0.285409 -0.523 155 106 91
0.414913 -0.285409 -0.523 155 106 91
0.415114 -0.284863 -0.522 159 107 93
0.43 -0.281589 -0.516 157 108 94
0.431966 -0.281589 -0.516 155 106 92
0.433931 -0.281589 -0.516 155 106 92
0.441794 -0.281589 -0.516 151 102 88
0.489991 -0.295231 -0.541 127 89 76
0.498419 -0.299051 -0.548 128 92 80
0.0633943 -0.282571 -0.516 198 153 147
0.0899314 -0.282571 -0.516 198 149 142
0.0969991 -0.283119 -0.517 189 139 130
0.105486 -0.284762 -0.52 175 120 115
0.131476 -0.30119 -0.55 119 84 91
0.353687 -0.348833 -0.637 141 152 184
0.371887 -0.348833 -0.637 181 190 219
0.388269 -0.349381 -0.638 192 199 225
0.408351 -0.349929 -0.639 190 192 217
0.418089 -0.349929 -0.639 177 186 215
0.431477 -0.349929 -0.639 180 181 209
0.45368 -0.348286 -0.636 95 111 160
0.418289 -0.28531 -0.521 152 105 89
0.428864 -0.283119 -0.517 156 104 90
0.434914 -0.282571 -0.516 152 103 88
0.449657 -0.282571 -0.516 142 93 79
0.456333 -0.283667 -0.518 144 96 82
0.492837 -0.297357 -0.543 129 89 77
0.559707 -0.330762 -0.604 102 121 161
0.0505962 -0.28905 -0.526 195 152 146
0.0567333 -0.284653 -0.518 200 157 150
0.0595781 -0.284104 -0.517 200 155 149
0.0604457 -0.283554 -0.516 200 155 149
0.0877952 -0.283005 -0.515 202 155 149
0.0958286 -0.283554 -0.516 194 144 135
0.107673 -0.286302 -0.521 168 115 107
0.112286 -0.28795 -0.524 152 105 97
0.35854 -0.350047 -0.637 204 210 242
0.390087 -0.350047 -0.637 144 163 193
0.393727 -0.350047 -0.637 95 118 160
0.39556 -0.350596 -0.638 103 126 168
0.431477 -0.351146 -0.639 182 183 211
0.436878 -0.350596 -0.638 178 184 206
0.450046 -0.349497 -0.636 151 159 180
0.451257 -0.349497 -0.636 152 160 181
0.45368 -0.349497 -0.636 113 131 181
0.415381 -0.302238 -0.55 124 87 79
0.414719 -0.29949 -0.545 123 89 80
0.413169 -0.291797 -0.531 136 93 84
0.413628 -0.290698 -0.529 140 96 85
0.419091 -0.286851 -0.522 148 101 85
0.42772 -0.284653 -0.518 154 105 88
0.435897 -0.283554 -0.516 152 100 86
0.439829 -0.283554 -0.516 152 100 86
0.445726 -0.283554 -0.516 147 95 81
0.446709 -0.283554 -0.516 148 96 82
0.462946 -0.286302 -0.521 136 88 74
0.463938 -0.286302 -0.521 136 88 74
0.468606 -0.28795 -0.524 130 86 73
0.0701381 -0.283986 -0.515 200 153 145
0.0789667 -0.283986 -0.515 196 149 141
0.0838714 -0.283986 -0.515 198 151 143
0.105486 -0.286743 -0.52 171 118 110
0.108874 -0.287846 -0.522 161 113 103
0.1125 -0.2895 -0.525 148 101 93
0.366457 -0.350709 -0.636 194 202 223
0.412573 -0.351811 -0.638 97 108 138
0.416219 -0.351811 -0.638 179 186 212
0.424726 -0.351811 -0.638 179 185 209
0.425941 -0.351811 -0.638 180 186 210
0.439833 -0.35126 -0.637 170 178 197
0.447623 -0.350709 -0.636 114 123 152
0.450046 -0.350709 -0.636 159 166 194
0.452469 -0.350709 -0.636 135 152 204
0.419157 -0.306043 -0.555 122 89 82
0.415262 -0.295014 -0.535 137 94 85
0.414725 -0.293911 -0.533 136 93 84
0.416079 -0.290603 -0.527 145 97 85
0.42108 -0.287846 -0.522 147 100 84
0.424419 -0.286743 -0.52 155 106 91
0.429849 -0.285089 -0.517 153 101 87
0.430833 -0.285089 -0.517 154 102 88
0.434772 -0.285089 -0.517 153 101 87
0.455452 -0.285089 -0.517 146 98 84
0.4705 -0.2895 -0.525 129 85 72
0.0529905 -0.287733 -0.52 198 155 146
0.0538771 -0.28718 -0.519 199 156 147
0.0642524 -0.284967 -0.515 198 154 145
0.0778343 -0.284413 -0.514 194 150 141
0.0817505 -0.284413 -0.514 197 150 142
0.091541 -0.284413 -0.514 196 149 143
0.10788 -0.28884 -0.522 161 114 104
