ply
format ascii 1.0
comment Created by Open3D
element vertex 1303
property double x
property double y
property double z
property uchar red
property uchar green
property uchar blue
end_header
0.350449 -0.108249 -0.519 144 109 116
0.35638 -0.108249 -0.519 144 109 115
0.36852 -0.10804 -0.518 143 108 112
0.38455 -0.107831 -0.517 142 106 108
0.385534 -0.107831 -0.517 141 107 108
0.397133 -0.10804 -0.518 136 105 103
0.399107 -0.10804 -0.518 144 102 104
0.400093 -0.10804 -0.518 142 103 104
0.439498 -0.112837 -0.541 142 91 90
0.43911 -0.112211 -0.538 165 105 107
0.310454 -0.118498 -0.563 70 57 66
0.320304 -0.120182 -0.571 64 51 61
0.328547 -0.120813 -0.574 59 47 57
0.345924 -0.120392 -0.572 57 50 58
0.351986 -0.120603 -0.573 52 45 53
0.354169 -0.120603 -0.573 99 98 106
0.357115 -0.119761 -0.569 75 83 86
0.351066 -0.115972 -0.551 142 110 121
0.35638 -0.109237 -0.519 144 109 115
0.357369 -0.109237 -0.519 143 108 114
0.358357 -0.109237 -0.519 143 108 114
0.360627 -0.109027 -0.518 142 107 111
0.3626 -0.109027 -0.518 142 107 111
0.36852 -0.109027 -0.518 143 108 112
0.373453 -0.109027 -0.518 144 110 111
0.378387 -0.109027 -0.518 144 108 110
0.398336 -0.108816 -0.517 142 102 102
0.40108 -0.109027 -0.518 140 101 102
0.408571 -0.109448 -0.52 142 107 113
0.442966 -0.112394 -0.534 204 149 155
0.309351 -0.119146 -0.561 67 54 63
0.320304 -0.12127 -0.571 60 47 57
0.341071 -0.121694 -0.573 41 31 39
0.341566 -0.121482 -0.572 71 64 72
0.350282 -0.121482 -0.572 49 36 43
0.340229 -0.110438 -0.52 147 112 118
0.367533 -0.110013 -0.518 143 108 112
0.38258 -0.109801 -0.517 146 107 110
0.385534 -0.109801 -0.517 144 107 114
0.389473 -0.109801 -0.517 134 103 108
0.392428 -0.109801 -0.517 65 40 44
0.395382 -0.109801 -0.517 133 107 110
0.398336 -0.109801 -0.517 142 104 103
0.414319 -0.11065 -0.521 147 108 111
0.4195 -0.1115 -0.525 149 107 109
0.337797 -0.122786 -0.573 45 36 41
0.342867 -0.111 -0.518 137 104 111
0.364573 -0.111 -0.518 144 109 116
0.367533 -0.111 -0.518 143 108 112
0.370493 -0.111 -0.518 140 105 109
0.386519 -0.110786 -0.517 145 106 111
0.40523 -0.110786 -0.517 135 99 101
0.42592 -0.113143 -0.528 147 108 113
0.430562 -0.113571 -0.53 133 88 93
0.297567 -0.119553 -0.553 148 127 136
0.29808 -0.119337 -0.552 150 129 138
0.323044 -0.123661 -0.572 46 36 44
0.327453 -0.124093 -0.574 25 18 25
0.332405 -0.12431 -0.575 40 29 37
0.335107 -0.124093 -0.574 41 30 38
0.338889 -0.123877 -0.573 42 31 39
0.347013 -0.123661 -0.572 48 39 44
0.354707 -0.111987 -0.518 145 110 116
0.357667 -0.111987 -0.518 144 109 115
0.361613 -0.111987 -0.518 145 110 114
0.3626 -0.111987 -0.518 144 109 113
0.365839 -0.11177 -0.517 145 110 114
0.367809 -0.11177 -0.517 144 109 113
0.369778 -0.11177 -0.517 142 107 111
0.374702 -0.11177 -0.517 143 108 112
0.378891 -0.111554 -0.516 142 107 111
0.379874 -0.111554 -0.516 141 107 108
0.392651 -0.111554 -0.516 53 34 36
0.410947 -0.111987 -0.518 135 99 101
0.418097 -0.112851 -0.522 143 107 109
0.419894 -0.113068 -0.523 144 108 110
0.427121 -0.113932 -0.527 151 110 116
0.430949 -0.114149 -0.528 133 87 90
0.43781 -0.114365 -0.529 189 136 142
0.29646 -0.119734 -0.549 154 128 139
0.299597 -0.119734 -0.549 149 126 134
0.343745 -0.12475 -0.572 47 36 44
0.345924 -0.12475 -0.572 45 34 42
0.3537 -0.12366 -0.567 71 64 71
0.338695 -0.11559 -0.53 149 116 123
0.337597 -0.113191 -0.519 158 123 130
0.363587 -0.112973 -0.518 143 108 114
0.380857 -0.112537 -0.516 142 107 111
0.38184 -0.112537 -0.516 142 107 111
0.384789 -0.112537 -0.516 142 107 111
0.39189 -0.112319 -0.515 63 41 43
0.398757 -0.112319 -0.515 121 91 93
0.399738 -0.112319 -0.515 132 102 104
0.40248 -0.112537 -0.516 134 102 105
0.405429 -0.112537 -0.516 134 100 101
0.409169 -0.112755 -0.517 135 101 102
0.421887 -0.114064 -0.523 146 107 110
0.308712 -0.12232 -0.556 61 42 48
0.318577 -0.12452 -0.566 46 37 42
0.327402 -0.12584 -0.572 51 44 51
0.336706 -0.12606 -0.573 39 28 36
0.340476 -0.12584 -0.572 41 30 38
0.353242 -0.12496 -0.568 66 55 61
0.347917 -0.12122 -0.551 136 111 115
0.345167 -0.1199 -0.545 148 117 123
0.350083 -0.11374 -0.517 143 108 112
0.351068 -0.11374 -0.517 143 108 112
0.355007 -0.11374 -0.517 144 109 113
0.377909 -0.11352 -0.516 142 107 111
0.38184 -0.11352 -0.516 141 106 110
0.39091 -0.1133 -0.515 94 68 69
0.40936 -0.11352 -0.516 140 104 106
0.443686 -0.1166 -0.53 199 144 149
0.298941 -0.120716 -0.544 154 122 133
0.30108 -0.12116 -0.546 162 130 141
0.3213 -0.12582 -0.567 30 24 28
0.351026 -0.124489 -0.561 109 88 93
0.345474 -0.114503 -0.516 143 108 112
0.346457 -0.114503 -0.516 142 107 111
0.364854 -0.114725 -0.517 139 107 108
0.370763 -0.114725 -0.517 141 109 110
0.372011 -0.114503 -0.516 143 109 110
0.379874 -0.114503 -0.516 140 105 109
0.388948 -0.114281 -0.515 137 105 108
0.39091 -0.114281 -0.515 131 99 102
0.417671 -0.115169 -0.519 132 96 98
0.29111 -0.121081 -0.541 160 126 140
0.321243 -0.126452 -0.565 24 15 20
0.333939 -0.128019 -0.572 34 25 30
0.336706 -0.128243 -0.573 37 28 33
0.341071 -0.128243 -0.573 36 27 32
0.334631 -0.116157 -0.519 137 105 108
0.342205 -0.11571 -0.517 139 107 108
0.355303 -0.115486 -0.516 142 107 111
0.372994 -0.115486 -0.516 141 109 110
0.37496 -0.115486 -0.516 140 108 109
0.382081 -0.115262 -0.515 142 108 109
0.395046 -0.115038 -0.514 113 87 90
0.405624 -0.115262 -0.515 134 102 105
0.407586 -0.115262 -0.515 134 99 103
0.408567 -0.115262 -0.515 134 100 101
0.415077 -0.11571 -0.517 134 100 101
0.44 -0.118171 -0.528 197 147 148
0.443856 -0.118395 -0.529 193 145 145
0.444864 -0.118395 -0.529 193 143 142
0.445871 -0.118395 -0.529 191 141 140
0.447724 -0.118619 -0.53 187 133 131
0.299907 -0.122337 -0.542 160 127 136
0.312386 -0.125271 -0.555 58 35 43
0.328936 -0.128431 -0.569 34 23 31
0.331686 -0.128657 -0.57 35 24 30
0.347271 -0.125271 -0.555 130 108 111
0.342461 -0.122789 -0.544 143 117 120
0.334973 -0.11692 -0.518 134 102 103
0.355303 -0.116469 -0.516 143 109 110
0.376195 -0.116243 -0.515 141 107 108
0.384043 -0.116243 -0.515 141 111 111
0.387213 -0.116017 -0.514 139 104 108
0.397004 -0.116017 -0.514 114 85 89
0.400719 -0.116243 -0.515 113 84 86
0.403662 -0.116243 -0.515 117 87 89
0.448733 -0.119629 -0.53 188 139 135
0.2889 -0.121776 -0.535 162 126 138
0.333857 -0.129743 -0.57 33 22 28
0.34968 -0.128377 -0.564 61 48 55
0.347462 -0.126784 -0.557 144 125 129
0.335311 -0.117679 -0.517 137 103 102
0.343824 -0.117224 -0.515 142 108 109
0.357269 -0.117451 -0.516 142 107 111
0.3612 -0.117451 -0.516 143 108 112
0.395254 -0.116769 -0.513 115 89 92
0.438994 -0.120183 -0.528 199 149 152
0.32489 -0.128992 -0.562 34 23 31
0.343144 -0.131058 -0.571 30 23 30
0.349224 -0.129681 -0.565 54 45 48
0.34906 -0.129222 -0.563 62 53 56
0.334327 -0.118664 -0.517 139 104 108
0.346767 -0.118205 -0.515 139 104 108
0.365131 -0.118434 -0.516 144 109 113
0.36808 -0.118434 -0.516 141 106 110
0.378402 -0.117975 -0.514 143 107 109
0.379381 -0.117975 -0.514 146 110 112
0.404836 -0.117975 -0.514 71 45 46
0.4315 -0.1205 -0.525 79 53 54
0.444186 -0.120959 -0.527 201 145 144
0.285889 -0.124277 -0.537 163 126 134
0.3094 -0.12636 -0.546 142 117 123
0.311577 -0.126823 -0.548 143 120 126
0.348914 -0.131451 -0.568 31 20 28
0.337031 -0.124277 -0.537 157 131 132
0.333342 -0.119649 -0.517 137 102 106
0.335976 -0.119186 -0.515 138 103 107
0.340881 -0.119186 -0.515 138 106 109
0.359519 -0.119186 -0.515 144 109 113
0.399941 -0.118954 -0.514 126 96 98
0.40092 -0.118954 -0.514 121 92 94
0.415433 -0.119186 -0.515 131 97 96
0.438163 -0.121963 -0.527 167 119 117
0.288137 -0.1232 -0.528 162 124 135
0.328586 -0.1309 -0.561 26 13 22
0.346886 -0.133 -0.57 31 18 27
0.34596 -0.1302 -0.558 140 128 130
0.3399 -0.120167 -0.515 137 105 108
0.351671 -0.120167 -0.515 142 107 111
0.354614 -0.120167 -0.515 142 107 111
0.358538 -0.120167 -0.515 144 109 113
0.364424 -0.120167 -0.515 142 107 111
0.381574 -0.1197 -0.513 246 227 231
0.383529 -0.1197 -0.513 245 228 236
0.387437 -0.1197 -0.513 138 103 107
0.388414 -0.1197 -0.513 136 105 103
0.40092 -0.119933 -0.514 132 102 104
0.401899 -0.119933 -0.514 132 102 104
0.405815 -0.119933 -0.514 97 67 69
0.406794 -0.119933 -0.514 104 74 76
0.417223 -0.1204 -0.516 134 95 96
0.421626 -0.1211 -0.519 133 97 101
0.436155 -0.122967 -0.527 89 51 48
0.439167 -0.122967 -0.527 176 126 125
0.446193 -0.122967 -0.527 190 137 133
0.46063 -0.125533 -0.538 163 117 119
0.295286 -0.124676 -0.53 154 121 128
0.311837 -0.127734 -0.543 144 113 121
0.319 -0.129381 -0.55 105 84 91
0.336905 -0.133145 -0.566 27 16 22
0.343629 -0.134086 -0.57 38 32 36
0.344714 -0.134086 -0.57 49 44 48
0.340804 -0.12891 -0.548 114 89 92
0.340219 -0.120912 -0.514 136 104 107
0.358538 -0.121148 -0.515 144 109 113
0.380597 -0.120677 -0.513 231 216 223
0.38083 -0.120442 -0.512 243 228 235
0.384731 -0.120442 -0.512 158 132 141
0.388632 -0.120442 -0.512 138 102 102
0.398186 -0.120677 -0.513 132 100 101
0.401117 -0.120677 -0.513 132 100 103
0.409911 -0.120677 -0.513 112 80 83
0.418031 -0.121618 -0.517 132 93 94
0.436983 -0.124206 -0.528 88 48 46
0.288048 -0.124737 -0.526 158 123 130
0.28905 -0.124737 -0.526 158 123 130
0.313328 -0.128531 -0.542 139 116 122
0.323314 -0.130903 -0.552 42 26 29
0.343043 -0.131614 -0.555 124 104 106
0.328974 -0.123551 -0.521 135 101 102
0.340219 -0.121891 -0.514 138 103 107
0.350989 -0.121891 -0.514 141 106 110
0.40014 -0.121654 -0.513 133 99 100
0.420637 -0.123077 -0.519 131 92 95
0.441174 -0.124974 -0.527 190 134 133
0.442341 -0.124737 -0.526 193 138 135
0.446193 -0.124974 -0.527 191 136 131
0.450057 -0.125211 -0.528 181 123 122
0.337264 -0.134584 -0.563 27 16 22
0.340614 -0.135062 -0.565 32 22 30
0.344309 -0.134823 -0.564 43 36 43
0.342602 -0.13291 -0.556 95 80 85
0.327711 -0.124066 -0.519 135 101 102
0.32911 -0.12311 -0.515 139 103 107
0.344135 -0.12287 -0.514 136 104 107
0.367632 -0.12287 -0.514 141 106 110
0.368611 -0.12287 -0.514 140 105 109
0.36959 -0.12287 -0.514 141 106 110
0.383756 -0.122392 -0.512 214 191 199
0.391346 -0.122631 -0.513 126 97 99
0.396434 -0.122392 -0.512 130 98 99
0.407162 -0.122392 -0.512 116 84 85
0.409911 -0.122631 -0.513 79 49 49
0.443343 -0.125739 -0.526 193 135 131
0.280748 -0.12891 -0.535 163 126 133
0.281729 -0.128428 -0.533 160 123 130
0.281569 -0.126982 -0.527 161 124 131
0.298633 -0.126982 -0.527 152 120 125
0.341256 -0.134692 -0.559 23 18 24
0.340929 -0.133729 -0.555 51 34 40
0.336303 -0.12385 -0.514 139 104 108
0.346397 -0.123609 -0.513 138 103 107
0.350306 -0.123609 -0.513 139 104 108
0.362737 -0.12385 -0.514 142 107 111
0.400335 -0.123368 -0.512 135 96 99
0.409911 -0.123609 -0.513 102 72 72
0.412669 -0.12385 -0.514 132 97 101
0.41884 -0.124813 -0.518 133 97 99
0.434788 -0.127464 -0.529 40 18 21
0.280713 -0.129443 -0.533 160 123 130
0.289947 -0.127257 -0.524 154 121 128
0.306533 -0.1292 -0.532 153 118 124
0.32708 -0.1258 -0.518 136 102 101
0.3268 -0.125314 -0.516 138 104 105
0.327783 -0.125314 -0.516 135 101 102
0.333366 -0.124829 -0.514 138 103 107
0.335324 -0.124829 -0.514 139 104 108
0.341198 -0.124829 -0.514 136 104 107
0.345114 -0.124829 -0.514 137 105 108
0.361758 -0.124829 -0.514 143 108 112
0.366386 -0.125071 -0.515 142 107 111
0.37057 -0.124829 -0.514 143 108 112
0.371549 -0.124829 -0.514 141 106 110
0.37278 -0.124586 -0.513 140 105 109
0.377666 -0.124586 -0.513 146 117 121
0.378643 -0.124586 -0.513 172 143 147
0.379855 -0.124343 -0.512 206 185 190
0.383756 -0.124343 -0.512 159 132 139
0.398385 -0.124343 -0.512 131 95 97
0.40131 -0.124343 -0.512 135 96 99
0.435795 -0.128471 -0.529 50 18 21
0.437629 -0.128714 -0.53 62 30 33
0.280622 -0.129479 -0.529 161 124 131
0.2995 -0.1285 -0.525 152 120 125
0.338974 -0.136332 -0.557 32 27 33
0.32945 -0.125808 -0.514 137 102 106
0.341511 -0.125563 -0.513 137 105 108
0.349329 -0.125563 -0.513 139 104 108
0.364695 -0.125808 -0.514 142 107 111
0.367632 -0.125808 -0.514 141 106 110
0.37888 -0.125318 -0.512 138 107 112
0.385707 -0.125318 -0.512 124 94 96
0.387657 -0.125318 -0.512 110 86 86
0.394484 -0.125318 -0.512 130 100 102
0.396434 -0.125318 -0.512 133 98 102
0.398385 -0.125318 -0.512 134 95 98
0.409911 -0.125563 -0.513 113 83 83
0.41169 -0.125808 -0.514 126 91 97
0.436619 -0.129724 -0.53 70 38 41
0.27923 -0.132213 -0.536 165 125 134
0.279133 -0.130733 -0.53 162 125 133
0.290829 -0.12876 -0.522 155 122 129
0.292817 -0.12876 -0.522 154 121 128
0.299928 -0.129253 -0.524 152 120 125
0.335931 -0.13616 -0.552 42 20 22
0.335649 -0.12654 -0.513 132 96 96
0.337603 -0.12654 -0.513 132 104 103
0.33858 -0.12654 -0.513 130 102 101
0.346397 -0.12654 -0.513 135 107 104
0.348351 -0.12654 -0.513 133 102 100
0.37057 -0.126787 -0.514 140 105 109
0.379855 -0.126293 -0.512 136 104 107
0.386682 -0.126293 -0.512 108 82 83
0.400527 -0.126047 -0.511 133 101 104
0.423879 -0.129007 -0.523 105 76 80
0.442178 -0.129993 -0.527 180 122 121
0.448201 -0.129993 -0.527 193 136 129
0.449205 -0.129993 -0.527 185 130 127
0.287846 -0.129754 -0.522 154 121 128
0.312026 -0.131991 -0.531 147 114 121
0.338895 -0.127269 -0.512 95 89 89
0.347672 -0.127269 -0.512 139 109 111
0.355474 -0.127269 -0.512 136 104 105
0.362031 -0.127517 -0.513 141 109 110
0.366917 -0.127517 -0.513 140 106 107
0.375954 -0.127269 -0.512 136 104 107
0.382033 -0.12702 -0.511 138 106 109
0.39858 -0.12702 -0.511 128 96 99
0.422883 -0.130003 -0.523 114 85 89
0.435227 -0.13224 -0.532 51 31 33
0.448201 -0.130997 -0.527 194 136 132
0.451063 -0.131246 -0.528 179 124 121
0.278223 -0.134756 -0.538 162 127 134
0.282874 -0.130749 -0.522 157 125 130
0.285857 -0.130749 -0.522 155 122 129
0.289279 -0.130498 -0.521 154 121 128
0.294241 -0.130498 -0.521 150 117 124
0.3065 -0.1315 -0.525 150 115 122
0.330763 -0.128494 -0.513 123 103 105
0.35645 -0.128244 -0.512 139 109 111
0.363986 -0.128494 -0.513 192 160 163
0.448201 -0.132001 -0.527 195 137 133
0.293676 -0.131238 -0.52 150 117 124
0.298629 -0.131238 -0.52 150 117 124
0.32251 -0.130481 -0.517 134 104 106
0.325877 -0.129471 -0.513 129 103 102
0.336945 -0.129219 -0.512 49 82 89
0.338895 -0.129219 -0.512 211 224 232
0.348648 -0.129219 -0.512 139 108 113
0.355474 -0.129219 -0.512 135 106 108
0.365227 -0.129219 -0.512 147 116 121
0.374979 -0.129219 -0.512 134 102 103
0.382033 -0.128967 -0.511 135 103 106
0.38982 -0.128967 -0.511 101 75 76
0.395857 -0.128714 -0.51 122 93 95
0.420086 -0.131743 -0.522 126 94 97
0.434829 -0.134771 -0.534 47 27 29
0.440541 -0.135276 -0.536 73 44 46
0.440293 -0.134267 -0.532 109 67 69
0.452069 -0.133257 -0.528 175 124 121
0.279431 -0.132991 -0.523 154 123 129
0.309909 -0.133246 -0.524 144 113 118
0.318505 -0.134771 -0.53 143 111 116
0.321886 -0.133246 -0.524 136 107 111
0.321525 -0.131466 -0.517 129 100 102
0.323575 -0.130703 -0.514 128 104 102
0.325877 -0.130449 -0.513 130 106 104
0.367177 -0.130194 -0.512 139 108 113
0.380087 -0.12994 -0.511 139 105 106
0.38982 -0.12994 -0.511 124 94 96
0.391971 -0.129686 -0.51 102 76 77
0.396829 -0.129686 -0.51 122 93 95
0.276173 -0.13783 -0.538 157 124 133
0.283325 -0.133475 -0.521 154 123 129
0.285752 -0.133219 -0.52 153 122 127
0.292547 -0.132707 -0.518 149 117 122
0.319107 -0.134756 -0.526 145 110 114
0.321262 -0.131938 -0.515 132 106 107
0.332069 -0.13117 -0.512 136 164 165
0.352549 -0.13117 -0.512 139 108 106
0.354499 -0.13117 -0.512 137 107 107
0.376429 -0.130657 -0.51 138 104 105
0.383229 -0.130657 -0.51 138 104 105
0.3842 -0.130657 -0.51 136 101 105
0.399743 -0.130657 -0.51 128 94 95
0.442375 -0.138855 -0.542 46 26 27
0.44321 -0.13783 -0.538 78 42 42
0.442583 -0.137318 -0.536 95 59 59
0.44735 -0.134756 -0.526 196 139 130
0.277439 -0.134984 -0.523 156 123 130
0.283325 -0.134468 -0.521 153 122 128
0.291134 -0.133951 -0.519 150 119 124
0.295507 -0.133693 -0.518 148 117 122
0.318814 -0.133951 -0.519 131 101 103
0.31992 -0.133177 -0.516 127 103 103
0.322946 -0.132403 -0.513 133 105 104
0.326217 -0.132145 -0.512 116 98 94
0.336945 -0.132145 -0.512 97 110 119
0.344747 -0.132145 -0.512 115 125 134
0.351573 -0.132145 -0.512 134 105 107
0.3584 -0.132145 -0.512 131 101 103
0.367433 -0.131887 -0.511 137 108 113
0.378371 -0.131629 -0.51 134 102 103
0.432586 -0.138081 -0.535 47 27 28
0.442971 -0.140404 -0.544 39 21 21
0.444824 -0.140662 -0.545 45 23 25
0.444345 -0.135758 -0.526 204 146 135
0.445347 -0.135758 -0.526 205 147 136
0.289157 -0.13494 -0.519 147 116 121
0.29156 -0.13468 -0.518 149 118 123
0.312495 -0.1352 -0.52 147 112 116
0.317586 -0.13442 -0.517 134 105 107
0.326217 -0.13312 -0.512 111 98 92
0.36062 -0.13286 -0.511 169 148 157
0.371327 -0.13286 -0.511 136 104 107
0.418097 -0.13572 -0.522 123 91 92
0.44854 -0.14222 -0.547 62 33 35
0.444345 -0.13676 -0.526 204 146 135
0.446349 -0.13676 -0.526 203 146 135
0.44735 -0.13676 -0.526 198 141 130
0.277903 -0.136714 -0.522 155 122 129
0.28134 -0.136452 -0.521 151 120 126
0.284762 -0.13619 -0.52 152 119 126
0.29986 -0.135405 -0.517 143 111 116
0.305769 -0.135405 -0.517 145 110 114
0.319037 -0.134357 -0.513 132 102 102
0.33434 -0.133833 -0.511 157 166 175
0.343771 -0.134095 -0.512 62 86 90
0.352549 -0.134095 -0.512 130 100 102
0.356727 -0.133833 -0.511 137 106 111
0.358673 -0.133833 -0.511 177 156 161
0.368407 -0.133833 -0.511 133 99 100
0.371327 -0.133833 -0.511 128 98 98
0.383229 -0.133571 -0.51 129 107 109
0.390029 -0.133571 -0.51 134 102 103
0.404236 -0.134095 -0.512 124 94 96
0.416304 -0.136452 -0.521 126 92 93
0.441307 -0.139333 -0.532 124 83 81
0.444345 -0.137762 -0.526 200 143 132
0.303211 -0.136126 -0.516 144 109 113
0.310091 -0.136126 -0.516 144 112 115
0.326217 -0.13507 -0.512 79 90 92
0.327192 -0.13507 -0.512 79 90 92
0.3285 -0.134807 -0.511 190 199 206
0.33726 -0.134807 -0.511 184 191 199
0.358943 -0.134543 -0.51 243 222 229
0.37763 -0.134279 -0.509 227 216 222
0.381508 -0.134279 -0.509 189 170 174
0.392943 -0.134543 -0.51 135 99 99
0.394886 -0.134543 -0.51 129 95 96
0.450356 -0.138764 -0.526 185 132 124
0.452216 -0.139028 -0.527 178 125 117
0.270557 -0.141094 -0.531 157 120 128
0.288169 -0.137906 -0.519 149 117 122
0.291982 -0.137374 -0.517 150 118 121
0.302229 -0.137109 -0.516 142 110 113
0.309869 -0.136577 -0.514 165 133 136
0.311827 -0.136577 -0.514 134 102 105
0.312806 -0.136577 -0.514 132 104 101
0.339207 -0.13578 -0.511 166 173 179
0.350887 -0.13578 -0.511 123 109 109
0.386355 -0.135249 -0.509 127 98 103
0.391203 -0.135249 -0.509 131 97 98
0.406794 -0.136577 -0.514 124 94 94
0.446711 -0.143751 -0.541 98 62 62
0.2695 -0.1405 -0.525 158 121 129
0.269985 -0.140232 -0.524 156 119 127
0.270466 -0.139965 -0.523 156 119 126
0.271937 -0.139697 -0.522 154 119 125
0.275386 -0.13943 -0.521 154 119 125
0.287613 -0.138627 -0.518 149 117 120
0.293383 -0.138091 -0.516 148 116 121
0.296331 -0.138091 -0.516 146 114 119
0.318415 -0.137021 -0.512 129 105 103
0.320366 -0.137021 -0.512 132 103 107
0.322316 -0.137021 -0.512 131 103 102
0.3285 -0.136753 -0.511 202 220 220
0.349229 -0.136486 -0.51 126 114 114
0.365743 -0.136486 -0.51 135 106 108
0.392172 -0.136218 -0.509 131 99 100
0.396829 -0.136486 -0.51 130 98 101
0.404049 -0.137289 -0.513 129 99 99
0.440337 -0.140768 -0.526 180 130 123
0.268987 -0.14123 -0.524 157 120 127
0.282237 -0.139883 -0.519 148 116 119
0.286627 -0.139613 -0.518 150 115 119
0.318415 -0.137996 -0.512 129 105 103
0.31939 -0.137996 -0.512 130 106 104
0.327527 -0.137727 -0.511 126 148 146
0.330771 -0.137457 -0.51 159 173 176
0.3502 -0.137457 -0.51 95 85 84
0.35533 -0.137188 -0.509 219 198 205
0.3563 -0.137188 -0.509 179 158 165
0.391203 -0.137188 -0.509 128 96 99
0.268954 -0.141686 -0.522 155 118 125
0.276306 -0.140871 -0.519 152 117 121
0.27972 -0.1406 -0.518 150 118 121
0.283667 -0.1406 -0.518 152 117 123
0.314514 -0.138971 -0.512 134 104 106
0.321341 -0.138971 -0.512 131 100 105
0.3366 -0.138429 -0.51 202 207 213
0.348544 -0.138157 -0.509 118 108 109
0.350483 -0.138157 -0.509 114 94 96
0.3978 -0.138429 -0.51 129 94 98
0.40131 -0.138971 -0.512 130 95 99
0.404049 -0.139243 -0.513 125 90 94
0.467132 -0.154986 -0.571 69 44 50
0.442966 -0.144943 -0.534 134 92 94
0.44 -0.143314 -0.528 163 112 109
0.270895 -0.142133 -0.52 154 118 122
0.281693 -0.141587 -0.518 150 115 119
0.284104 -0.141313 -0.517 151 116 120
0.301643 -0.140767 -0.515 145 113 116
0.313539 -0.139947 -0.512 132 103 105
0.31682 -0.139673 -0.511 136 102 103
0.330771 -0.1394 -0.51 150 165 168
0.353391 -0.139127 -0.509 163 142 147
0.374952 -0.138853 -0.508 233 232 248
0.37979 -0.138853 -0.508 231 228 237
0.390434 -0.138853 -0.508 124 95 97
0.440657 -0.144867 -0.53 148 97 94
0.266481 -0.14395 -0.523 157 117 125
0.271363 -0.142849 -0.519 155 119 123
0.280165 -0.142298 -0.517 150 115 119
0.282134 -0.142298 -0.517 151 116 120
0.290434 -0.142023 -0.516 150 116 117
0.291833 -0.141748 -0.515 149 115 116
0.332062 -0.140096 -0.509 173 184 190
0.339818 -0.140096 -0.509 232 232 242
0.340788 -0.140096 -0.509 229 229 239
0.343696 -0.140096 -0.509 180 175 195
0.349513 -0.140096 -0.509 122 110 112
0.365026 -0.140096 -0.509 132 99 106
0.369147 -0.139821 -0.508 235 224 232
0.385803 -0.139546 -0.507 129 98 96
0.407394 -0.142023 -0.516 127 98 100
0.265006 -0.146331 -0.528 161 120 126
0.266933 -0.144114 -0.52 157 118 123
0.2738 -0.14356 -0.518 159 120 125
0.275773 -0.14356 -0.518 156 117 122
0.297719 -0.142729 -0.515 147 112 118
0.311953 -0.14162 -0.511 137 101 105
0.326553 -0.14162 -0.511 64 81 73
0.327527 -0.14162 -0.511 52 75 81
0.354632 -0.140789 -0.508 203 186 194
0.35947 -0.140789 -0.508 127 102 106
0.374952 -0.140789 -0.508 233 227 237
0.380758 -0.140789 -0.508 232 229 238
0.385803 -0.140511 -0.507 133 101 102
0.386769 -0.140511 -0.507 124 92 93
0.404643 -0.142729 -0.515 126 91 95
0.405624 -0.142729 -0.515 126 91 95
0.447646 -0.145223 -0.524 190 133 124
0.467957 -0.148826 -0.537 162 111 107
0.264504 -0.147058 -0.527 160 119 125
0.264994 -0.146221 -0.524 158 118 126
0.270374 -0.144826 -0.519 154 118 122
0.2738 -0.144547 -0.518 157 118 123
0.296162 -0.14343 -0.514 146 111 117
0.297141 -0.14343 -0.514 147 112 116
0.299099 -0.14343 -0.514 143 111 114
0.301449 -0.143151 -0.513 142 110 113
0.307688 -0.142872 -0.512 131 99 102
0.323 -0.142314 -0.51 126 97 101
0.325914 -0.142314 -0.51 131 142 134
0.332062 -0.142035 -0.509 145 163 167
0.377111 -0.141477 -0.507 234 228 240
0.38194 -0.141477 -0.507 244 234 242
0.46978 -0.162127 -0.581 68 43 46
0.4756 -0.161848 -0.58 62 35 42
0.47013 -0.159615 -0.572 70 43 50
0.440833 -0.147616 -0.529 167 118 114
0.447646 -0.146221 -0.524 191 134 125
0.461573 -0.148453 -0.532 159 106 102
0.467957 -0.149849 -0.537 163 110 106
0.470727 -0.150407 -0.539 165 112 108
0.269905 -0.146095 -0.52 156 117 122
0.282571 -0.144971 -0.516 150 115 121
0.286503 -0.144971 -0.516 150 115 121
0.315847 -0.143567 -0.511 137 103 104
0.31682 -0.143567 -0.511 137 103 104
0.338849 -0.143005 -0.509 202 206 215
0.341757 -0.143005 -0.509 179 183 192
0.364309 -0.142724 -0.508 129 104 108
0.379043 -0.142443 -0.507 232 229 240
0.440833 -0.148624 -0.529 170 121 117
0.446791 -0.146938 -0.523 184 130 120
0.461573 -0.149467 -0.532 165 110 107
-0.124429 -0.183857 -0.65 191 188 183
0.262994 -0.149349 -0.528 159 120 125
0.27864 -0.145954 -0.516 151 116 120
0.285948 -0.145671 -0.515 150 115 121
0.306113 -0.14454 -0.511 141 109 110
0.317171 -0.144257 -0.51 135 103 104
0.323336 -0.143974 -0.509 126 94 97
0.326245 -0.143974 -0.509 127 130 135
0.348827 -0.143691 -0.508 148 127 134
0.356831 -0.143409 -0.507 127 101 104
0.363591 -0.143409 -0.507 129 102 109
0.366489 -0.143409 -0.507 235 222 229
0.369386 -0.143409 -0.507 228 226 240
0.370351 -0.143409 -0.507 232 230 244
0.380974 -0.143409 -0.507 231 229 240
0.447742 -0.153026 -0.541 111 70 68
0.441489 -0.150197 -0.531 156 105 102
0.447788 -0.147934 -0.523 186 133 125
0.458829 -0.149914 -0.53 168 113 108
0.263 -0.149785 -0.526 159 120 125
0.274256 -0.147222 -0.517 152 116 120
0.27864 -0.146937 -0.516 151 116 120
0.303787 -0.145798 -0.512 141 109 112
0.33528 -0.144659 -0.508 164 179 186
0.336248 -0.144659 -0.508 174 185 191
0.341086 -0.144659 -0.508 193 197 206
0.359729 -0.144374 -0.507 130 101 106
0.361406 -0.144659 -0.508 133 104 109
0.367454 -0.144374 -0.507 230 227 238
0.373249 -0.144374 -0.507 230 228 242
0.382906 -0.144374 -0.507 233 230 239
0.383871 -0.144374 -0.507 240 229 237
0.390434 -0.144659 -0.508 103 75 74
0.49706 -0.17342 -0.609 114 78 88
0.440833 -0.150639 -0.529 169 118 115
0.44017 -0.15007 -0.527 183 130 126
0.457963 -0.150639 -0.529 164 111 105
0.470878 -0.153202 -0.538 160 107 101
0.482923 -0.155765 -0.547 150 97 91
0.280606 -0.14792 -0.516 150 115 119
0.291267 -0.147347 -0.514 147 112 118
0.292246 -0.147347 -0.514 147 112 118
0.318143 -0.1462 -0.51 134 103 101
0.329153 -0.145913 -0.509 179 182 187
0.363591 -0.14534 -0.507 123 98 104
0.366489 -0.14534 -0.507 234 221 230
0.378077 -0.14534 -0.507 230 228 241
0.386769 -0.14534 -0.507 125 104 109
0.400335 -0.146773 -0.512 120 90 92
0.44857 -0.155373 -0.542 116 70 70
0.444943 -0.14964 -0.522 196 137 129
0.2615 -0.1515 -0.525 158 118 126
0.262971 -0.150057 -0.52 157 120 127
0.277657 -0.148903 -0.516 151 116 120
0.28735 -0.148326 -0.514 147 110 117
0.295183 -0.148326 -0.514 145 110 116
0.330442 -0.146594 -0.508 171 178 186
0.333345 -0.146594 -0.508 79 92 101
0.336248 -0.146594 -0.508 211 224 233
0.37518 -0.146306 -0.507 229 228 242
0.380009 -0.146306 -0.507 230 228 239
0.441657 -0.151211 -0.524 200 143 136
0.442655 -0.151211 -0.524 203 145 134
0.443949 -0.150634 -0.522 195 137 126
0.453362 -0.151789 -0.526 181 126 119
0.264443 -0.150757 -0.519 154 117 125
0.280062 -0.149595 -0.515 147 115 118
0.281043 -0.149595 -0.515 151 114 121
0.2907 -0.149014 -0.513 145 110 116
0.308429 -0.148143 -0.51 148 113 117
0.323336 -0.147852 -0.509 127 96 101
0.326245 -0.147852 -0.509 126 106 105
0.332377 -0.147562 -0.508 141 148 156
0.343311 -0.147271 -0.507 135 116 122
0.359729 -0.147271 -0.507 130 103 108
0.364557 -0.147271 -0.507 145 122 128
0.38215 -0.146981 -0.506 241 231 240
0.395081 -0.147852 -0.509 126 91 95
0.443949 -0.151629 -0.522 195 137 126
-0.130016 -0.18917 -0.647 186 186 178
0.259508 -0.152915 -0.523 155 118 125
0.27176 -0.150869 -0.516 152 117 121
0.275691 -0.150869 -0.516 151 116 120
0.276674 -0.150869 -0.516 152 117 121
0.303571 -0.149114 -0.51 144 110 111
0.305514 -0.149114 -0.51 144 110 111
0.319458 -0.148822 -0.509 135 100 104
0.322701 -0.14853 -0.508 130 101 106
0.327539 -0.14853 -0.508 122 104 104
0.34138 -0.148237 -0.507 144 130 143
0.345243 -0.148237 -0.507 127 104 110
0.372512 -0.147945 -0.506 234 228 240
0.390434 -0.14853 -0.508 92 71 70
0.395857 -0.149114 -0.51 128 93 99
0.448784 -0.152915 -0.523 189 134 127
0.457097 -0.154377 -0.528 165 112 104
0.461717 -0.155254 -0.531 158 105 97
0.48308 -0.15964 -0.546 152 97 90
0.271302 -0.152146 -0.517 151 116 122
0.291677 -0.150969 -0.513 142 110 113
0.294609 -0.150969 -0.513 140 108 109
0.29501 -0.150674 -0.512 140 108 109
0.316895 -0.149497 -0.508 136 104 107
0.321397 -0.149791 -0.509 133 101 104
0.36191 -0.148909 -0.506 126 99 108
0.36673 -0.148909 -0.506 126 101 105
0.395857 -0.150086 -0.51 125 92 101
0.475565 -0.159209 -0.541 154 99 92
-0.132276 -0.191339 -0.646 184 184 176
-0.12319 -0.192524 -0.65 192 189 180
0.260973 -0.153427 -0.518 153 118 122
0.274176 -0.152538 -0.515 151 114 121
0.279081 -0.152538 -0.515 150 113 120
0.280062 -0.152538 -0.515 150 113 120
0.289723 -0.151946 -0.513 145 110 114
0.297353 -0.151353 -0.511 145 110 114
0.307824 -0.150761 -0.509 134 102 107
0.347453 -0.149872 -0.506 214 203 207
0.3542 -0.149872 -0.506 130 101 106
0.359983 -0.149872 -0.506 126 99 104
0.36889 -0.149576 -0.505 121 96 100
0.390434 -0.150465 -0.508 123 99 97
0.443604 -0.158758 -0.536 147 102 109
0.451638 -0.155204 -0.524 165 108 101
-0.13741 -0.192868 -0.647 182 181 176
-0.135968 -0.19257 -0.646 183 183 175
0.259393 -0.158885 -0.533 158 118 126
0.27176 -0.153817 -0.516 150 113 120
0.273726 -0.153817 -0.516 151 114 121
0.288746 -0.152923 -0.513 144 109 113
0.308793 -0.15173 -0.509 137 102 108
0.309763 -0.15173 -0.509 139 104 108
0.310732 -0.15173 -0.509 138 103 107
0.313641 -0.15173 -0.509 138 103 107
0.324963 -0.151134 -0.507 132 100 103
0.350345 -0.150836 -0.506 129 103 106
0.3542 -0.150836 -0.506 131 102 106
0.36191 -0.150836 -0.506 128 99 103
0.370814 -0.150538 -0.505 126 100 101
0.389467 -0.151432 -0.508 113 86 95
0.392172 -0.15173 -0.509 123 97 98
0.5289 -0.192271 -0.645 141 111 113
0.268811 -0.1548 -0.516 151 116 122
0.282455 -0.1542 -0.514 145 113 118
0.294034 -0.1536 -0.512 142 107 111
0.294433 -0.1533 -0.511 142 107 111
0.304915 -0.1527 -0.509 152 117 121
0.332689 -0.1521 -0.507 133 101 106
0.337815 -0.1518 -0.506 131 100 105
0.363119 -0.1515 -0.505 129 100 102
0.441121 -0.1599 -0.533 159 110 113
0.439648 -0.159 -0.53 169 120 123
0.474686 -0.162 -0.54 154 101 95
0.481311 -0.1632 -0.544 150 100 93
-0.13432 -0.194427 -0.644 182 182 174
0.266846 -0.155783 -0.516 149 114 118
0.278539 -0.155179 -0.514 146 111 115
0.308187 -0.153368 -0.508 135 100 104
0.320134 -0.153066 -0.507 132 100 103
0.3211 -0.153066 -0.507 132 100 103
0.323997 -0.153066 -0.507 133 101 104
0.330757 -0.153066 -0.507 130 99 104
0.337815 -0.152764 -0.506 138 103 110
0.349652 -0.152462 -0.505 129 96 103
0.3737 -0.152462 -0.505 126 97 102
0.491349 -0.184766 -0.612 96 79 87
0.5106 -0.1902 -0.63 81 54 61
0.523994 -0.193823 -0.642 131 97 98
0.4385 -0.1585 -0.525 201 144 137
0.44409 -0.157292 -0.521 182 125 118
0.446931 -0.157594 -0.522 171 114 107
0.44978 -0.157896 -0.523 160 103 94
-0.13432 -0.195653 -0.644 184 181 174
-0.125473 -0.197172 -0.649 191 188 179
-0.124429 -0.197476 -0.65 191 188 179
0.260195 -0.164361 -0.541 154 114 123
0.257893 -0.161627 -0.532 155 115 124
0.26829 -0.156462 -0.515 147 115 118
0.279951 -0.155854 -0.513 145 110 114
0.294829 -0.154943 -0.51 141 109 110
0.302007 -0.154639 -0.509 143 109 110
0.303349 -0.154335 -0.508 151 116 120
0.309511 -0.154031 -0.507 135 100 104
0.33811 -0.153424 -0.505 138 103 110
0.3535 -0.153424 -0.505 129 96 103
0.35472 -0.15312 -0.504 125 94 100
0.374662 -0.153424 -0.505 123 94 99
0.389467 -0.154335 -0.508 119 91 88
0.499327 -0.188058 -0.619 86 65 72
0.504549 -0.189577 -0.624 77 52 56
0.51949 -0.192919 -0.635 140 104 104
0.454364 -0.159804 -0.526 130 81 74
0.45897 -0.160715 -0.529 136 87 80
0.256397 -0.162334 -0.531 147 112 119
0.259 -0.15836 -0.518 151 116 123
0.261454 -0.158054 -0.517 151 114 122
0.266329 -0.157443 -0.515 149 117 120
0.269728 -0.157137 -0.514 148 116 119
0.273644 -0.157137 -0.514 148 116 119
0.27756 -0.157137 -0.514 146 114 117
0.286791 -0.156831 -0.513 144 109 113
0.306614 -0.154997 -0.507 133 98 102
0.312409 -0.154997 -0.507 135 100 104
0.323997 -0.154997 -0.507 133 101 104
0.32786 -0.154997 -0.507 134 102 105
0.331723 -0.154997 -0.507 138 102 106
0.335888 -0.154691 -0.506 137 100 107
0.341957 -0.154386 -0.505 229 212 218
0.349652 -0.154386 -0.505 130 97 106
0.3535 -0.154386 -0.505 125 92 99
0.35856 -0.15408 -0.504 126 94 97
0.364081 -0.154386 -0.505 128 96 101
0.36889 -0.154386 -0.505 125 95 97
0.371776 -0.154386 -0.505 122 91 96
0.379471 -0.154386 -0.505 125 89 93
0.513764 -0.191989 -0.628 128 92 92
0.437989 -0.161417 -0.528 175 128 122
0.446931 -0.159583 -0.522 162 107 100
0.474686 -0.165086 -0.54 157 104 98
-0.14168 -0.198107 -0.644 182 179 174
-0.140453 -0.198107 -0.644 183 180 173
0.263897 -0.158731 -0.516 148 115 122
0.285257 -0.157501 -0.512 144 109 113
0.300068 -0.156578 -0.509 143 108 112
0.303349 -0.15627 -0.508 135 100 104
0.311443 -0.155963 -0.507 135 100 104
0.313374 -0.155963 -0.507 135 100 104
0.322394 -0.155655 -0.506 134 99 103
0.336186 -0.155348 -0.505 134 101 108
0.337148 -0.155348 -0.505 130 97 104
0.343881 -0.155348 -0.505 173 154 158
0.35184 -0.15504 -0.504 124 91 98
0.35664 -0.15504 -0.504 130 95 99
0.35856 -0.15504 -0.504 128 93 97
0.36048 -0.15504 -0.504 132 97 101
0.501685 -0.190416 -0.619 56 31 37
0.451 -0.16919 -0.55 127 83 82
0.436983 -0.162423 -0.528 167 120 114
0.437159 -0.162115 -0.527 178 131 125
0.440966 -0.160577 -0.522 198 141 132
0.45064 -0.161192 -0.524 142 85 74
-0.126905 -0.20119 -0.65 191 188 179
0.260973 -0.160333 -0.518 153 118 122
0.289158 -0.158476 -0.512 142 107 111
0.306614 -0.156929 -0.507 136 100 104
0.325286 -0.156619 -0.506 134 101 110
0.336186 -0.15631 -0.505 132 101 109
0.35088 -0.156 -0.504 126 94 99
0.36432 -0.156 -0.504 126 94 97
0.388499 -0.157238 -0.508 121 91 91
0.496907 -0.190667 -0.616 51 21 29
0.500064 -0.190976 -0.617 62 37 41
0.436155 -0.163119 -0.527 176 128 116
0.447788 -0.161881 -0.523 156 101 94
0.459838 -0.164048 -0.53 114 69 63
0.480426 -0.168071 -0.543 156 103 97
-0.144805 -0.201494 -0.647 183 180 175
-0.142907 -0.20056 -0.644 183 180 175
-0.126905 -0.202429 -0.65 191 188 179
0.259987 -0.16132 -0.518 146 114 119
0.26488 -0.160697 -0.516 143 111 116
0.29346 -0.15914 -0.511 141 106 110
0.31372 -0.157583 -0.506 135 101 102
0.329452 -0.157271 -0.505 132 100 101
0.332338 -0.157271 -0.505 128 92 96
0.35088 -0.15696 -0.504 128 96 101
0.3528 -0.15696 -0.504 127 95 100
0.372 -0.15696 -0.504 124 94 96
0.437443 -0.165369 -0.531 156 113 104
0.436155 -0.164123 -0.527 181 133 123
0.442106 -0.162254 -0.521 188 129 123
0.44409 -0.162254 -0.521 174 119 112
0.457963 -0.164746 -0.529 127 78 73
0.467233 -0.166614 -0.535 133 90 83
0.479541 -0.168794 -0.542 158 103 98
-0.128143 -0.203667 -0.65 189 186 177
0.263897 -0.16168 -0.516 145 109 119
0.26777 -0.161053 -0.514 145 113 118
0.271157 -0.16074 -0.513 141 106 112
0.273554 -0.160427 -0.512 146 111 117
0.284282 -0.160427 -0.512 143 108 112
0.297159 -0.159487 -0.509 142 105 112
0.319833 -0.158233 -0.505 133 101 102
0.321757 -0.158233 -0.505 132 100 101
0.346767 -0.158233 -0.505 130 99 105
0.35088 -0.15792 -0.504 127 95 100
0.3576 -0.15792 -0.504 129 97 102
0.36432 -0.15792 -0.504 126 94 97
0.3672 -0.15792 -0.504 126 94 97
0.37872 -0.15792 -0.504 125 93 96
0.385803 -0.15886 -0.507 122 92 92
0.489017 -0.19176 -0.612 72 46 55
0.494271 -0.190193 -0.607 75 50 53
0.467233 -0.167633 -0.535 132 89 82
0.477626 -0.169513 -0.541 159 104 99
-0.142463 -0.202383 -0.642 183 180 175
-0.136349 -0.202383 -0.642 186 183 176
-0.128143 -0.204905 -0.65 189 186 177
0.265005 -0.173696 -0.551 79 66 83
0.272134 -0.161717 -0.513 143 108 114
0.276913 -0.161087 -0.511 145 110 116
0.28178 -0.161087 -0.511 142 107 111
0.307937 -0.15951 -0.506 134 100 99
0.31824 -0.15888 -0.504 132 100 101
0.320795 -0.159195 -0.505 133 101 102
0.34224 -0.15888 -0.504 138 115 121
0.343881 -0.159195 -0.505 128 99 104
0.35689 -0.158565 -0.503 127 95 100
0.366471 -0.158565 -0.503 125 93 94
0.370304 -0.158565 -0.503 127 95 98
0.37968 -0.15888 -0.504 124 92 95
0.384078 -0.15951 -0.506 124 94 96
0.387531 -0.160141 -0.508 123 91 94
0.48271 -0.19135 -0.607 66 47 53
0.496365 -0.19261 -0.611 64 38 41
0.436619 -0.167076 -0.53 160 117 110
0.441113 -0.164239 -0.521 192 133 125
0.443098 -0.164239 -0.521 185 128 121
0.445937 -0.164554 -0.522 163 108 101
0.448784 -0.16487 -0.523 141 91 82
0.475714 -0.170229 -0.54 156 106 99
0.486049 -0.172435 -0.547 152 97 92
-0.28247 -0.205826 -0.649 200 201 196
-0.281233 -0.205826 -0.649 193 194 189
-0.274238 -0.206143 -0.65 195 196 191
-0.14391 -0.203923 -0.643 183 180 175
-0.14102 -0.203289 -0.641 184 181 176
0.260409 -0.169037 -0.533 94 83 99
0.259462 -0.167769 -0.529 113 100 110
0.262947 -0.16428 -0.518 134 103 109
0.289971 -0.161743 -0.51 143 107 111
0.29425 -0.161426 -0.509 142 105 112
0.308901 -0.160474 -0.506 134 100 99
0.324 -0.15984 -0.504 138 102 106
0.33744 -0.15984 -0.504 204 183 192
0.348 -0.15984 -0.504 129 97 102
0.35689 -0.159523 -0.503 126 94 97
0.360723 -0.159523 -0.503 126 94 97
0.363597 -0.159523 -0.503 125 93 94
0.36743 -0.159523 -0.503 124 92 93
0.37968 -0.15984 -0.504 125 93 96
0.435795 -0.167769 -0.529 160 120 112
0.435328 -0.166817 -0.526 185 132 124
0.464471 -0.169037 -0.533 122 81 75
0.48516 -0.17316 -0.546 151 96 91
-0.288206 -0.206743 -0.648 228 229 224
-0.278331 -0.206743 -0.648 141 142 137
-0.143686 -0.204829 -0.642 184 181 176
0.261492 -0.166224 -0.521 103 81 84
0.26731 -0.16431 -0.515 144 112 115
0.26777 -0.16399 -0.514 141 109 112
0.288029 -0.162714 -0.51 142 107 111
0.290372 -0.162395 -0.509 143 107 111
0.292311 -0.162395 -0.509 141 105 109
0.307937 -0.161438 -0.506 134 100 99
0.311176 -0.161119 -0.505 133 99 98
0.3192 -0.1608 -0.504 134 100 101
0.32688 -0.1608 -0.504 132 102 102
0.33168 -0.1608 -0.504 133 97 99
0.341561 -0.160481 -0.503 125 96 101
0.367655 -0.160162 -0.502 125 93 94
0.368611 -0.160162 -0.502 126 94 95
0.384078 -0.161438 -0.506 122 92 94
0.49104 -0.196533 -0.616 71 52 58
0.4345 -0.1675 -0.525 188 138 129
0.434837 -0.166862 -0.523 196 148 134
0.471903 -0.171648 -0.538 150 102 98
-0.14102 -0.20573 -0.641 185 182 177
0.262496 -0.167858 -0.523 108 89 93
0.263477 -0.167216 -0.521 98 76 79
0.271157 -0.164649 -0.513 138 106 111
0.302154 -0.162402 -0.506 135 99 101
0.303118 -0.162402 -0.506 134 98 100
0.349226 -0.161439 -0.503 128 94 95
0.36383 -0.161118 -0.502 125 93 94
0.366699 -0.161118 -0.502 125 93 94
0.376052 -0.161439 -0.503 120 91 95
0.37968 -0.16176 -0.504 124 94 96
0.383114 -0.162402 -0.506 123 93 95
0.434837 -0.167858 -0.523 196 150 135
0.445937 -0.167537 -0.522 155 102 94
0.4515 -0.1685 -0.525 132 88 79
0.457963 -0.169784 -0.529 131 83 81
0.475714 -0.173314 -0.54 154 103 100
-0.278703 -0.208566 -0.646 143 144 139
-0.14102 -0.206951 -0.641 182 181 176
-0.137357 -0.206951 -0.641 184 184 176
0.277887 -0.16498 -0.511 143 108 112
0.279286 -0.164657 -0.51 145 108 115
0.281229 -0.164657 -0.51 144 107 114
0.32688 -0.16272 -0.504 131 101 101
0.343477 -0.162397 -0.503 126 93 100
0.346351 -0.162397 -0.503 129 94 98
0.351142 -0.162397 -0.503 126 94 95
0.361918 -0.162074 -0.502 126 94 95
0.36383 -0.162074 -0.502 126 94 95
0.365743 -0.162074 -0.502 125 93 94
0.366923 -0.161751 -0.501 125 93 94
0.374349 -0.162074 -0.502 203 176 181
0.442106 -0.168209 -0.521 175 122 114
0.456091 -0.170469 -0.528 136 88 84
0.471903 -0.173697 -0.538 143 100 94
-0.293923 -0.210121 -0.647 251 254 247
-0.2852 -0.209147 -0.644 152 154 149
-0.283973 -0.209147 -0.644 151 153 148
-0.283186 -0.209471 -0.645 150 151 146
-0.132481 -0.210121 -0.647 186 186 176
0.266 -0.172773 -0.532 65 60 80
0.2655 -0.1705 -0.525 104 87 95
0.273111 -0.166603 -0.513 143 106 114
0.278314 -0.165629 -0.51 144 109 115
0.280257 -0.165629 -0.51 144 109 115
0.303118 -0.16433 -0.506 133 99 100
0.31665 -0.163355 -0.503 136 102 103
0.320483 -0.163355 -0.503 133 99 100
0.333896 -0.163355 -0.503 133 98 102
0.345393 -0.163355 -0.503 130 95 101
0.351142 -0.163355 -0.503 128 93 99
0.352356 -0.16303 -0.502 131 96 102
0.360962 -0.16303 -0.502 126 91 95
0.374349 -0.16303 -0.502 222 202 204
0.435 -0.169526 -0.522 193 151 137
0.437144 -0.169201 -0.521 186 133 119
0.437295 -0.168876 -0.52 184 131 117
0.456091 -0.171474 -0.528 131 87 84
0.463456 -0.173098 -0.533 125 84 78
0.48146 -0.176346 -0.543 149 100 95
-0.297762 -0.212333 -0.65 252 255 248
-0.291333 -0.210373 -0.644 164 166 161
-0.287653 -0.210373 -0.644 157 159 154
-0.147813 -0.210373 -0.644 184 181 174
-0.144909 -0.20972 -0.642 182 182 174
0.267477 -0.170847 -0.523 103 88 95
0.271233 -0.168233 -0.515 125 95 103
0.284555 -0.166273 -0.509 144 108 112
0.298889 -0.16562 -0.507 136 100 104
0.321441 -0.164313 -0.503 133 99 100
0.323357 -0.164313 -0.503 133 99 100
0.331022 -0.164313 -0.503 133 98 102
0.338687 -0.164313 -0.503 134 99 103
0.345393 -0.164313 -0.503 130 95 101
0.361197 -0.16366 -0.501 126 91 95
0.368831 -0.16366 -0.501 163 133 145
0.370524 -0.163987 -0.502 231 201 213
0.38215 -0.165293 -0.506 123 93 95
0.500133 -0.202533 -0.62 73 47 56
0.434148 -0.172153 -0.527 168 128 120
0.4515 -0.1715 -0.525 137 94 88
-0.29854 -0.213243 -0.649 250 253 246
-0.294699 -0.212257 -0.646 234 236 231
-0.146131 -0.210943 -0.642 185 182 175
-0.1408 -0.210286 -0.64 184 184 176
-0.135757 -0.211929 -0.645 185 185 175
0.271233 -0.169214 -0.515 125 95 103
0.278314 -0.167571 -0.51 142 107 113
0.291737 -0.166914 -0.508 145 106 111
0.305405 -0.165929 -0.505 133 97 99
0.30864 -0.1656 -0.504 134 100 101
0.318567 -0.165271 -0.503 135 101 102
0.325273 -0.165271 -0.503 133 99 100
0.329106 -0.165271 -0.503 133 99 100
0.33198 -0.165271 -0.503 132 97 101
0.33677 -0.165271 -0.503 132 97 101
0.344435 -0.165271 -0.503 130 95 101
0.346619 -0.164943 -0.502 130 95 101
0.38215 -0.166257 -0.506 119 90 94
0.436305 -0.170857 -0.52 189 133 120
0.497949 -0.183343 -0.558 137 98 93
-0.1408 -0.211505 -0.64 184 184 176
-0.0278571 -0.21481 -0.65 71 69 80
0.286899 -0.167882 -0.508 139 104 108
0.306367 -0.16689 -0.505 133 97 99
0.30768 -0.16656 -0.504 134 100 101
0.319525 -0.16623 -0.503 133 101 102
0.320483 -0.16623 -0.503 132 100 101
0.329106 -0.16623 -0.503 134 100 101
0.333896 -0.16623 -0.503 133 98 102
0.33677 -0.16623 -0.503 133 98 102
0.353312 -0.165899 -0.502 131 96 102
0.37701 -0.16623 -0.503 121 95 98
0.448316 -0.181101 -0.548 149 107 111
0.441113 -0.172178 -0.521 171 113 101
0.477771 -0.178457 -0.54 143 102 96
-0.287983 -0.213389 -0.642 145 147 142
-0.147584 -0.213721 -0.643 186 183 176
-0.146131 -0.213389 -0.642 186 183 176
-0.135968 -0.214718 -0.646 186 186 178
0.272287 -0.171841 -0.517 96 81 88
0.274176 -0.171176 -0.515 95 74 79
0.276913 -0.169847 -0.511 139 102 109
0.281647 -0.169182 -0.509 145 110 114
0.282616 -0.169182 -0.509 144 109 113
0.296371 -0.168185 -0.506 135 100 104
0.30768 -0.16752 -0.504 133 99 100
0.330364 -0.166855 -0.502 134 100 101
0.333896 -0.167188 -0.503 133 98 102
0.343477 -0.167188 -0.503 131 96 100
0.350444 -0.166855 -0.502 130 95 101
0.355225 -0.166855 -0.502 129 93 95
0.372436 -0.166855 -0.502 198 175 181
0.380433 -0.167852 -0.505 122 93 97
0.433174 -0.17317 -0.521 193 145 133
0.434167 -0.17317 -0.521 191 143 131
0.460706 -0.176494 -0.531 128 83 78
0.465343 -0.177491 -0.534 130 85 80
0.470003 -0.178489 -0.537 139 94 88
0.494214 -0.184471 -0.555 139 94 88
0.499733 -0.186133 -0.56 143 98 92
-0.143014 -0.213609 -0.639 185 185 177
0.282616 -0.170151 -0.509 142 107 113
0.3048 -0.16848 -0.504 133 99 100
0.30768 -0.16848 -0.504 132 98 99
0.323357 -0.168146 -0.503 134 100 99
0.338687 -0.168146 -0.503 132 98 99
0.341561 -0.168146 -0.503 133 99 100
0.344707 -0.167811 -0.502 131 96 100
0.363106 -0.167477 -0.501 127 96 101
0.368831 -0.167477 -0.501 201 182 186
0.435159 -0.174163 -0.521 185 135 124
0.436305 -0.173829 -0.52 181 127 115
0.442106 -0.174163 -0.521 163 104 96
0.446791 -0.174831 -0.523 142 89 83
0.4505 -0.1755 -0.525 132 84 80
0.475714 -0.180514 -0.54 143 96 88
-0.28676 -0.215834 -0.642 149 151 148
0.322714 -0.168768 -0.502 135 101 100
0.332276 -0.168768 -0.502 131 97 98
0.345929 -0.168431 -0.501 130 95 99
0.349746 -0.168431 -0.501 127 92 96
0.356426 -0.168431 -0.501 128 93 97
0.376052 -0.169104 -0.503 121 89 94
0.441113 -0.175155 -0.521 169 111 100
0.443949 -0.175491 -0.522 152 94 83
0.473807 -0.181207 -0.539 144 97 91
-0.147354 -0.217057 -0.642 187 184 175
0.282616 -0.17209 -0.509 139 107 112
0.329408 -0.169724 -0.502 132 98 97
0.336101 -0.169724 -0.502 131 97 98
0.341838 -0.169724 -0.502 131 97 98
0.347837 -0.169386 -0.501 128 93 97
0.3507 -0.169386 -0.501 127 92 96
0.367143 -0.169048 -0.5 233 206 211
0.374349 -0.169724 -0.502 127 92 98
0.432182 -0.176148 -0.521 184 142 126
0.45236 -0.177838 -0.526 129 81 77
0.455086 -0.178514 -0.528 127 79 75
-0.287534 -0.21794 -0.641 136 141 137
-0.138429 -0.21964 -0.646 186 186 176
-0.136599 -0.22066 -0.649 187 187 177
-0.135571 -0.221 -0.65 187 187 177
0.27864 -0.17544 -0.516 95 79 89
0.280381 -0.17408 -0.512 106 77 82
0.328751 -0.17034 -0.501 133 99 98
0.341157 -0.17034 -0.501 130 96 97
0.372649 -0.17034 -0.501 125 100 103
0.380223 -0.17204 -0.506 113 80 87
0.448644 -0.17816 -0.524 135 84 80
-0.296081 -0.219161 -0.641 250 251 246
-0.0300533 -0.220187 -0.644 71 71 83
0.279966 -0.179158 -0.524 103 90 100
0.281356 -0.175055 -0.512 94 75 79
0.303237 -0.171978 -0.503 131 100 98
0.312196 -0.171636 -0.502 135 101 100
0.325889 -0.171294 -0.501 132 98 97
0.341157 -0.171294 -0.501 129 97 98
0.344974 -0.171294 -0.501 134 100 101
0.347143 -0.170952 -0.5 129 95 96
0.356667 -0.170952 -0.5 131 100 98
0.374349 -0.171636 -0.502 123 94 96
0.43119 -0.178132 -0.521 185 142 133
0.432182 -0.178132 -0.521 187 144 135
0.437295 -0.17779 -0.52 171 113 101
0.456955 -0.180868 -0.529 127 79 75
-0.297766 -0.220726 -0.642 251 252 247
-0.2944 -0.220038 -0.64 199 201 196
-0.13681 -0.223476 -0.65 186 186 176
0.281249 -0.178437 -0.519 100 84 95
0.285525 -0.174999 -0.509 147 114 121
0.292516 -0.173968 -0.506 137 98 103
0.3 -0.17328 -0.504 134 100 101
0.328751 -0.172249 -0.501 132 98 97
0.331905 -0.171905 -0.5 131 97 96
0.335714 -0.171905 -0.5 132 98 97
0.343333 -0.171905 -0.5 130 98 99
0.358805 -0.171561 -0.499 126 94 97
0.371694 -0.172249 -0.501 121 90 96
0.466214 -0.183938 -0.535 127 82 77
0.471903 -0.18497 -0.538 134 90 87
-0.293181 -0.221257 -0.64 153 155 150
-0.144683 -0.221603 -0.641 186 186 176
-0.138643 -0.223677 -0.647 187 187 177
-0.0324057 -0.221949 -0.642 71 69 82
0.3 -0.17424 -0.504 133 99 100
0.319209 -0.173203 -0.501 132 98 99
0.321117 -0.173203 -0.501 133 99 98
0.33381 -0.172857 -0.5 130 96 95
0.361656 -0.172511 -0.499 123 92 98
0.37 -0.172857 -0.5 125 92 99
0.43119 -0.180117 -0.521 191 142 125
0.432343 -0.179771 -0.52 190 141 127
0.451358 -0.181846 -0.526 128 83 77
0.477626 -0.187031 -0.541 134 93 91
-0.291506 -0.222129 -0.639 141 146 140
-0.144683 -0.222824 -0.641 187 187 177
-0.143462 -0.222824 -0.641 186 186 176
-0.142463 -0.223171 -0.642 187 187 177
-0.137835 -0.225605 -0.649 187 187 177
-0.0413486 -0.225257 -0.648 62 60 71
-0.0373552 -0.223519 -0.643 67 65 76
0.284837 -0.178329 -0.513 91 77 90
0.287464 -0.176938 -0.509 134 107 112
0.293862 -0.175548 -0.505 133 97 101
0.31124 -0.174505 -0.502 133 99 100
0.320163 -0.174157 -0.501 133 99 98
0.353102 -0.173462 -0.499 128 94 95
0.355003 -0.173462 -0.499 126 92 93
0.362381 -0.17381 -0.5 190 164 167
0.365458 -0.173462 -0.499 168 147 154
0.368095 -0.17381 -0.5 141 106 112
0.372649 -0.174157 -0.501 124 92 97
0.430852 -0.181805 -0.523 188 140 130
0.433333 -0.180762 -0.52 181 132 118
0.447646 -0.182152 -0.524 135 91 82
0.45408 -0.183543 -0.528 129 84 81
0.463456 -0.185281 -0.533 125 82 76
0.480426 -0.188757 -0.543 132 93 88
-0.303017 -0.226491 -0.648 253 254 249
-0.297302 -0.224045 -0.641 252 253 248
-0.29486 -0.224045 -0.641 224 228 227
-0.290743 -0.223695 -0.64 137 142 138
-0.138048 -0.22719 -0.65 189 189 179
-0.02996 -0.224394 -0.642 71 71 83
-0.0287819 -0.224744 -0.643 72 72 84
0.28552 -0.180354 -0.516 104 87 97
0.287057 -0.178257 -0.51 93 76 84
0.295786 -0.17651 -0.505 131 95 99
0.29616 -0.17616 -0.504 132 96 100
0.29712 -0.17616 -0.504 133 97 101
0.301321 -0.17581 -0.503 133 97 101
0.30359 -0.175461 -0.502 132 96 100
0.3173 -0.175111 -0.501 135 101 100
0.323333 -0.174762 -0.5 131 97 98
0.341429 -0.174762 -0.5 126 95 93
0.342381 -0.174762 -0.5 125 94 92
0.353102 -0.174412 -0.499 129 95 94
0.365458 -0.174412 -0.499 126 101 107
0.437478 -0.187345 -0.536 165 117 107
0.434324 -0.181752 -0.52 171 117 105
0.459694 -0.185597 -0.531 125 82 76
-0.149271 -0.226671 -0.645 188 185 176
-0.147813 -0.22632 -0.644 189 186 177
-0.0371229 -0.224563 -0.639 67 67 79
-0.0288267 -0.22632 -0.644 72 72 82
0.29077 -0.178526 -0.508 107 87 96
0.291737 -0.178526 -0.508 114 91 99
0.296748 -0.177471 -0.505 131 96 100
0.319209 -0.176066 -0.501 133 99 98
0.330952 -0.175714 -0.5 128 94 95
0.341429 -0.175714 -0.5 126 95 93
0.355953 -0.175363 -0.499 123 91 94
0.362607 -0.175363 -0.499 126 106 108
0.369786 -0.176066 -0.501 124 90 91
0.43214 -0.185203 -0.527 180 132 120
0.4495 -0.1845 -0.525 130 89 85
-0.303017 -0.22896 -0.648 253 254 249
-0.29992 -0.227547 -0.644 252 253 248
-0.045121 -0.229313 -0.649 64 61 72
-0.0370067 -0.225073 -0.637 68 67 81
0.288593 -0.180553 -0.511 95 78 88
0.294444 -0.178787 -0.506 125 96 100
0.29808 -0.17808 -0.504 130 99 104
0.334762 -0.176667 -0.5 129 95 96
0.355003 -0.176313 -0.499 129 95 96
0.364508 -0.176313 -0.499 212 189 197
0.432182 -0.184087 -0.521 183 133 122
0.434324 -0.183733 -0.52 172 120 109
0.469128 -0.189387 -0.536 137 96 92
-0.293181 -0.227352 -0.64 245 247 242
-0.0357371 -0.225931 -0.636 68 68 78
0.353476 -0.230905 -0.65 135 134 166
0.295026 -0.180106 -0.507 114 89 93
0.310284 -0.17833 -0.502 131 97 98
0.3173 -0.177974 -0.501 131 97 98
0.322381 -0.177619 -0.5 131 97 98
0.351446 -0.176909 -0.498 124 90 91
0.352394 -0.176909 -0.498 128 94 95
0.431352 -0.184724 -0.52 181 131 124
0.434324 -0.184724 -0.52 170 118 107
0.435314 -0.184724 -0.52 164 112 101
0.438136 -0.185079 -0.521 164 107 96
