ply
format ascii 1.0
comment Created by Open3D
element vertex 1296
property double x
property double y
property double z
property uchar red
property uchar green
property uchar blue
end_header
0.953986 -0.0178143 -0.645 34 32 43
0.968555 -0.0179248 -0.649 15 15 23
0.952757 -0.0202714 -0.645 105 104 110
0.957671 -0.0202714 -0.645 23 21 34
0.956443 -0.0215 -0.645 26 24 35
0.96777 -0.0227638 -0.646 26 24 38
0.952757 -0.0239571 -0.645 218 219 214
0.959867 -0.02392 -0.644 30 28 42
0.95496 -0.0263733 -0.644 178 179 173
0.953986 -0.0276429 -0.645 213 215 202
0.96232 -0.0288267 -0.644 27 26 44
0.972965 -0.028961 -0.647 17 20 27
0.953477 -0.0300067 -0.643 207 210 199
0.957151 -0.0300067 -0.643 116 115 123
0.963275 -0.0300067 -0.643 19 18 34
0.967227 -0.03128 -0.644 17 15 29
0.952252 -0.0324562 -0.643 209 211 198
0.952014 -0.0338905 -0.647 208 210 197
0.960279 -0.0335762 -0.641 31 29 40
0.96695 -0.033681 -0.643 26 28 41
0.951017 -0.0351771 -0.648 212 214 201
0.950012 -0.0364676 -0.649 204 206 195
0.96 -0.0359619 -0.64 34 32 45
0.94955 -0.0375876 -0.647 192 193 187
0.95128 -0.0374133 -0.644 211 212 204
0.953477 -0.0373552 -0.643 210 212 201
0.962438 -0.037181 -0.64 25 27 40
0.982243 -0.0374714 -0.645 17 19 32
0.955124 -0.0384 -0.64 209 210 204
0.9585 -0.03834 -0.639 47 46 42
0.952014 -0.0400524 -0.647 159 160 154
0.951773 -0.0399905 -0.646 198 201 192
0.977972 -0.0398048 -0.643 20 24 36
0.957283 -0.0407743 -0.639 212 214 203
0.956343 -0.0420571 -0.64 208 210 199
0.962151 -0.0419914 -0.639 34 34 42
0.976451 -0.0421886 -0.642 24 26 41
0.94754 -0.0438848 -0.649 213 215 212
0.952014 -0.0437495 -0.647 168 170 167
0.955927 -0.043479 -0.643 210 213 204
0.960934 -0.0432086 -0.639 163 164 166
0.949 -0.0451905 -0.65 214 219 215
0.950012 -0.045121 -0.649 209 211 208
0.955214 -0.0448429 -0.645 203 206 199
0.959717 -0.0444257 -0.639 202 205 196
0.967314 -0.0444952 -0.64 32 34 49
0.969752 -0.0444952 -0.64 30 33 52
0.981647 -0.0447038 -0.643 23 26 43
0.951249 -0.0463571 -0.649 211 213 210
0.969752 -0.0457143 -0.64 30 31 52
0.952251 -0.04752 -0.648 195 196 191
0.956695 -0.0473733 -0.646 200 203 196
0.956443 -0.0473 -0.645 201 204 197
0.960934 -0.04686 -0.639 206 212 202
0.959156 -0.0486038 -0.646 210 212 199
0.9589 -0.0485286 -0.645 211 213 200
0.963657 -0.0481524 -0.64 202 204 199
0.951249 -0.0525381 -0.649 207 209 208
0.960891 -0.0524571 -0.648 206 209 200
0.962126 -0.0524571 -0.648 208 211 200
0.968297 -0.0524571 -0.648 207 209 204
0.970907 -0.0521333 -0.644 207 207 199
0.962374 -0.0537743 -0.649 209 212 203
0.967571 -0.0538571 -0.65 208 211 202
0.973762 -0.0538571 -0.65 208 209 203
0.976748 -0.0532771 -0.643 32 35 44
0.975972 -0.0550105 -0.649 215 214 209
0.980422 -0.0545019 -0.643 25 28 45
0.953952 -0.0563333 -0.65 194 196 195
0.961381 -0.0563333 -0.65 148 150 145
0.952714 -0.0575714 -0.65 201 203 202
0.984996 -0.0584476 -0.646 35 34 39
0.341254 -0.0653933 -0.577 102 87 94
0.343853 -0.06724 -0.574 116 110 110
0.34967 -0.0679762 -0.571 132 111 118
0.348103 -0.0691848 -0.572 121 115 117
0.35046 -0.06858 -0.567 137 121 131
0.340071 -0.0706429 -0.575 102 90 94
0.341167 -0.0706429 -0.575 101 89 93
0.34762 -0.0703971 -0.573 122 111 115
0.34176 -0.07296 -0.576 100 89 93
0.350282 -0.0735429 -0.572 117 105 107
0.354605 -0.0726429 -0.565 129 114 121
0.356757 -0.0726429 -0.565 128 117 121
0.341846 -0.0754152 -0.578 98 88 89
0.349803 -0.0747629 -0.573 110 108 109
0.35262 -0.07398 -0.567 125 108 116
0.341334 -0.0777514 -0.579 97 85 87
0.339714 -0.0789905 -0.58 95 84 88
0.34694 -0.0791267 -0.581 94 83 87
0.347448 -0.0789905 -0.58 95 84 88
0.351634 -0.0784457 -0.576 105 96 101
0.354169 -0.0780371 -0.573 113 103 111
0.362133 -0.0762667 -0.56 127 117 125
0.356195 -0.0788524 -0.571 114 104 112
0.352971 -0.0812 -0.58 98 87 93
0.360767 -0.07742 -0.553 179 172 180
0.351971 -0.0825886 -0.582 94 83 89
0.357595 -0.0815952 -0.575 107 96 104
0.35916 -0.0814533 -0.574 109 97 107
0.36126 -0.08046 -0.567 117 107 118
0.361929 -0.0798924 -0.563 119 112 120
0.360193 -0.0790409 -0.557 120 110 119
0.33756 -0.0836971 -0.582 93 81 85
0.356286 -0.0834095 -0.58 96 83 90
0.361633 -0.0821152 -0.571 113 101 111
0.361166 -0.0793829 -0.552 219 208 214
0.360636 -0.0788076 -0.548 204 194 195
0.36244 -0.07852 -0.546 130 114 115
0.338669 -0.0848057 -0.582 90 78 82
0.349405 -0.0866524 -0.587 79 70 75
0.351641 -0.0866524 -0.587 80 69 75
0.3596 -0.085619 -0.58 92 81 87
0.361976 -0.084881 -0.575 102 90 100
0.36244 -0.0847333 -0.574 102 90 100
0.363171 -0.0841429 -0.57 107 95 107
0.334234 -0.0870229 -0.582 94 79 84
0.357129 -0.0874714 -0.585 77 68 73
0.36022 -0.0868733 -0.581 86 77 82
0.360705 -0.0867238 -0.58 89 78 86
0.359203 -0.0820886 -0.549 152 133 139
0.330909 -0.0881314 -0.582 92 80 84
0.332017 -0.0881314 -0.582 92 80 84
0.357739 -0.0887371 -0.586 68 59 64
0.362764 -0.0875257 -0.578 86 79 86
0.364627 -0.08692 -0.574 92 85 92
0.364896 -0.0864657 -0.571 101 94 101
0.35828 -0.08268 -0.546 140 119 126
0.357793 -0.08162 -0.539 162 131 139
0.328691 -0.08924 -0.582 87 81 85
0.344345 -0.0898533 -0.586 77 66 74
0.35784 -0.09016 -0.588 61 54 61
0.35713 -0.0824933 -0.538 154 124 132
0.335343 -0.0903486 -0.582 83 72 80
0.340945 -0.090659 -0.584 75 62 71
0.351717 -0.0914352 -0.589 52 45 52
0.365083 -0.0889514 -0.573 72 70 75
0.355371 -0.0838286 -0.54 140 110 118
0.329771 -0.0911429 -0.58 88 78 86
0.330876 -0.0911429 -0.58 88 78 86
0.33366 -0.0913 -0.581 86 73 80
0.35448 -0.0924 -0.588 43 36 43
0.358243 -0.0919286 -0.585 75 65 73
0.328146 -0.0927248 -0.583 90 77 86
0.330876 -0.0922476 -0.58 88 78 86
0.336451 -0.0925657 -0.582 85 72 81
0.34605 -0.093361 -0.587 68 58 66
0.352839 -0.093679 -0.589 45 38 45
0.36084 -0.0925657 -0.582 48 38 46
0.354713 -0.0857267 -0.539 141 114 123
0.355138 -0.0850905 -0.535 144 117 124
0.328667 -0.0933524 -0.58 95 75 86
0.35112 -0.09464 -0.588 79 72 79
0.356518 -0.0939962 -0.584 117 106 114
0.325894 -0.0942943 -0.579 89 76 85
0.35739 -0.0944571 -0.58 68 58 66
0.364334 -0.0939686 -0.577 120 110 119
0.3648 -0.0938057 -0.576 84 74 83
0.364257 -0.0928286 -0.57 38 28 37
0.356187 -0.08664 -0.532 149 118 124
0.327533 -0.0952324 -0.578 84 76 87
0.342057 -0.096221 -0.584 52 42 50
0.347619 -0.0973333 -0.584 70 59 67
0.363171 -0.095 -0.57 85 73 83
0.360574 -0.0885 -0.531 150 114 124
0.344803 -0.0982771 -0.583 79 66 76
0.348833 -0.0969286 -0.575 92 80 90
0.357443 -0.0965914 -0.573 118 102 112
0.350765 -0.0898486 -0.533 143 113 121
0.321452 -0.0980238 -0.575 89 73 83
0.346849 -0.0987057 -0.579 133 119 132
0.346643 -0.0980238 -0.575 113 99 112
0.34958 -0.0918867 -0.539 145 112 121
0.351819 -0.0903524 -0.53 156 121 128
0.354178 -0.0901819 -0.529 147 114 123
0.360905 -0.0903524 -0.53 152 117 124
0.321452 -0.099119 -0.575 89 73 83
0.349192 -0.0986019 -0.572 134 117 133
0.357909 -0.0986019 -0.572 107 94 104
0.360546 -0.0984295 -0.571 101 83 95
0.357867 -0.0965333 -0.56 128 107 116
0.355088 -0.0954991 -0.554 144 108 118
0.3498 -0.0913619 -0.53 144 108 118
0.355186 -0.0911895 -0.529 145 112 119
0.361914 -0.0913619 -0.53 148 115 122
0.378176 -0.091879 -0.533 160 123 131
0.38306 -0.0925686 -0.537 158 123 129
0.324206 -0.100389 -0.576 86 73 83
0.329735 -0.100737 -0.578 70 57 66
0.345924 -0.0996914 -0.572 139 122 138
0.348132 -0.0921971 -0.529 147 112 119
0.352163 -0.0921971 -0.529 151 116 123
0.352503 -0.0920229 -0.528 150 115 122
0.375746 -0.0925457 -0.531 164 124 135
0.322548 -0.10131 -0.575 86 73 83
0.333038 -0.101838 -0.578 62 50 60
0.351696 -0.100252 -0.569 83 75 88
0.354948 -0.100252 -0.569 98 90 101
0.349319 -0.0960238 -0.545 142 109 116
0.354514 -0.0930286 -0.528 147 112 119
0.35552 -0.0930286 -0.528 144 111 118
0.36256 -0.0930286 -0.528 146 114 119
0.383971 -0.0940857 -0.534 155 123 124
0.38643 -0.0944381 -0.536 159 125 124
0.318714 -0.103651 -0.582 87 69 83
0.318167 -0.102405 -0.575 89 71 85
0.3198 -0.102227 -0.574 87 71 84
0.320893 -0.102227 -0.574 87 71 84
0.344714 -0.101514 -0.57 170 159 176
0.35234 -0.0984867 -0.553 140 113 122
0.349559 -0.0974181 -0.547 142 115 124
0.3689 -0.0938562 -0.527 152 117 123
0.320893 -0.10332 -0.574 83 67 80
0.325303 -0.10368 -0.576 71 59 69
0.345473 -0.09702 -0.539 144 113 119
0.344457 -0.09504 -0.528 148 113 120
0.350831 -0.09486 -0.527 149 114 121
0.354847 -0.09486 -0.527 142 110 115
0.357858 -0.09486 -0.527 145 113 118
0.382105 -0.0954 -0.53 158 122 126
0.383114 -0.0954 -0.53 155 119 123
0.3198 -0.104413 -0.574 84 70 83
0.328066 -0.104959 -0.577 64 53 61
0.3536 -0.101867 -0.56 76 65 71
0.342733 -0.0964095 -0.53 144 111 120
0.344809 -0.0958638 -0.527 146 113 122
0.367198 -0.0956819 -0.526 147 115 118
0.369202 -0.0956819 -0.526 147 115 118
0.374923 -0.0958638 -0.527 151 116 120
0.383399 -0.0962276 -0.529 152 117 121
0.31652 -0.105507 -0.574 87 70 86
0.342655 -0.105139 -0.572 158 145 171
0.349529 -0.104588 -0.569 56 57 75
0.345156 -0.0966838 -0.526 156 123 130
0.351168 -0.0966838 -0.526 146 111 118
0.357179 -0.0966838 -0.526 147 112 116
0.375213 -0.0966838 -0.526 146 114 117
0.380946 -0.0968676 -0.527 151 119 122
0.325303 -0.106971 -0.576 84 71 81
0.334595 -0.106786 -0.575 135 121 138
0.340573 -0.1066 -0.574 136 123 149
0.346886 -0.105857 -0.57 79 81 102
0.31269 -0.107881 -0.575 80 64 75
0.31652 -0.107693 -0.574 83 66 82
0.326929 -0.107881 -0.575 65 52 61
0.332405 -0.107881 -0.575 76 58 72
0.344154 -0.0986876 -0.526 154 119 125
0.35217 -0.0986876 -0.526 147 112 119
0.3585 -0.0985 -0.525 146 111 115
0.369794 -0.0983124 -0.524 145 113 116
0.312147 -0.108787 -0.574 82 64 76
0.314333 -0.108787 -0.574 81 67 82
0.320357 -0.108976 -0.575 83 67 80
0.332405 -0.108976 -0.575 76 58 72
0.345319 -0.108218 -0.571 239 237 255
0.3435 -0.0995 -0.525 148 115 122
0.373073 -0.099121 -0.523 144 109 113
0.312149 -0.109497 -0.572 83 66 82
0.332405 -0.110071 -0.575 71 53 67
0.34276 -0.10988 -0.574 227 217 241
0.35216 -0.108731 -0.568 71 81 91
0.3385 -0.1005 -0.525 143 110 117
0.3425 -0.1005 -0.525 143 110 117
0.3435 -0.1005 -0.525 143 110 117
0.3475 -0.1005 -0.525 144 112 117
0.373073 -0.100117 -0.523 145 110 114
0.383768 -0.100309 -0.524 150 113 120
0.384766 -0.100309 -0.524 156 119 126
0.391244 -0.100691 -0.526 147 115 118
0.312095 -0.112133 -0.58 83 69 82
0.351829 -0.101307 -0.524 149 114 120
0.353825 -0.101307 -0.524 147 112 118
0.354823 -0.101307 -0.524 145 110 116
0.380047 -0.101113 -0.523 143 108 114
0.392246 -0.101693 -0.526 147 112 118
0.393995 -0.101887 -0.527 148 113 119
0.329119 -0.112262 -0.575 59 43 54
0.334013 -0.112067 -0.574 65 55 66
0.352314 -0.111286 -0.57 71 78 88
0.337855 -0.102305 -0.524 153 121 126
0.344842 -0.102305 -0.524 146 111 115
0.356819 -0.102305 -0.524 143 108 114
0.363111 -0.10211 -0.523 148 113 119
0.366394 -0.101914 -0.522 146 114 117
0.378054 -0.10211 -0.523 144 109 115
0.309428 -0.112569 -0.571 82 66 77
0.311059 -0.112766 -0.572 83 67 78
0.335107 -0.11316 -0.574 81 70 84
0.342262 -0.113357 -0.575 79 72 88
0.349803 -0.112963 -0.573 70 77 95
0.344563 -0.108231 -0.549 143 113 121
0.342461 -0.107246 -0.544 146 111 118
0.339077 -0.105866 -0.537 149 114 121
0.346838 -0.103303 -0.524 148 113 119
0.3935 -0.1035 -0.525 148 116 121
0.330789 -0.114651 -0.576 58 45 54
0.335107 -0.114253 -0.574 81 71 82
0.347738 -0.114452 -0.575 33 43 53
0.337814 -0.10649 -0.535 147 112 119
0.336139 -0.104699 -0.526 143 114 118
0.338853 -0.104301 -0.524 148 113 119
0.343844 -0.104301 -0.524 145 112 119
0.351829 -0.104301 -0.524 144 112 117
0.3955 -0.1045 -0.525 143 111 116
0.322011 -0.115749 -0.576 68 52 63
0.33131 -0.115548 -0.575 58 45 54
0.3362 -0.115347 -0.574 86 78 91
0.337293 -0.115347 -0.574 86 78 91
0.344452 -0.115548 -0.575 106 99 115
0.335406 -0.106103 -0.528 144 113 118
0.34085 -0.105299 -0.524 143 108 114
0.368383 -0.104897 -0.522 146 111 115
0.448434 -0.110926 -0.552 201 145 146
0.350894 -0.116237 -0.573 70 76 88
0.336857 -0.106297 -0.524 158 126 131
0.337855 -0.106297 -0.524 152 117 123
0.341195 -0.106094 -0.523 145 113 118
0.348169 -0.106094 -0.523 147 112 118
0.354146 -0.106094 -0.523 145 110 116
0.4025 -0.1065 -0.525 150 114 116
0.438827 -0.110354 -0.544 201 139 142
0.32257 -0.118148 -0.577 52 36 47
0.346149 -0.117943 -0.576 63 63 73
0.341195 -0.10709 -0.523 143 111 116
0.367677 -0.106681 -0.521 144 112 115
0.382563 -0.106681 -0.521 143 111 114
0.383555 -0.106681 -0.521 131 101 101
0.388517 -0.106681 -0.521 143 111 112
0.392246 -0.106886 -0.522 142 108 109
0.402731 -0.107295 -0.524 146 112 113
0.438246 -0.110981 -0.542 206 145 150
0.349529 -0.117593 -0.569 93 88 95
0.35148 -0.10788 -0.522 146 109 116
0.35844 -0.10788 -0.522 143 108 112
0.36073 -0.107673 -0.521 143 111 112
0.366971 -0.107467 -0.52 145 110 114
0.368952 -0.107467 -0.52 145 110 114
0.371924 -0.107467 -0.52 145 110 114
0.38951 -0.107673 -0.521 139 109 111
0.444008 -0.112427 -0.544 191 141 144
0.342262 -0.119929 -0.575 55 43 53
0.339549 -0.108874 -0.522 143 111 116
0.35148 -0.108874 -0.522 145 110 116
0.38381 -0.108457 -0.52 67 42 45
0.435011 -0.112211 -0.538 189 133 136
0.317623 -0.121234 -0.576 57 43 56
0.3335 -0.121024 -0.575 45 29 39
0.347071 -0.118919 -0.565 99 86 93
0.336857 -0.113657 -0.54 147 116 122
0.336214 -0.110079 -0.523 139 104 110
0.356761 -0.109658 -0.521 145 110 114
0.366971 -0.109448 -0.52 144 109 113
0.371924 -0.109448 -0.52 143 109 110
0.391494 -0.109658 -0.521 130 104 107
0.393714 -0.109448 -0.52 138 106 109
0.40241 -0.109658 -0.521 133 103 103
0.422053 -0.111973 -0.532 146 110 114
0.431352 -0.112815 -0.536 173 121 123
0.297586 -0.11957 -0.563 78 61 71
0.321471 -0.122544 -0.577 54 40 53
0.326967 -0.122544 -0.577 46 34 44
0.3335 -0.122119 -0.575 50 34 44
0.334595 -0.122119 -0.575 66 55 63
0.33569 -0.122119 -0.575 91 80 88
0.346277 -0.120845 -0.569 59 57 62
0.341807 -0.117447 -0.553 147 118 123
0.334986 -0.114049 -0.537 147 115 120
0.341537 -0.110863 -0.522 143 108 114
0.356761 -0.11065 -0.521 144 112 115
0.371924 -0.110438 -0.52 143 109 110
0.376876 -0.110438 -0.52 140 108 109
0.389752 -0.110438 -0.52 131 105 108
0.396686 -0.110438 -0.52 138 103 107
0.425093 -0.112987 -0.532 140 104 106
0.431567 -0.113624 -0.535 170 122 122
0.307802 -0.121714 -0.568 61 47 60
0.342602 -0.119143 -0.556 135 116 120
0.339952 -0.117857 -0.55 143 110 117
0.345845 -0.111643 -0.521 145 110 116
0.351799 -0.111643 -0.521 144 109 113
0.364 -0.111429 -0.52 145 110 114
0.365981 -0.111429 -0.52 145 111 112
0.378857 -0.111429 -0.52 144 112 115
0.419886 -0.113143 -0.528 143 107 111
0.424294 -0.113786 -0.531 147 108 113
0.427923 -0.114214 -0.533 138 97 101
0.293886 -0.120202 -0.556 153 127 136
0.31872 -0.124526 -0.576 32 21 29
0.324769 -0.124742 -0.577 40 28 40
0.330264 -0.124742 -0.577 43 29 42
0.33408 -0.124526 -0.576 40 30 41
0.3348 -0.116743 -0.54 153 120 127
0.32987 -0.113284 -0.524 158 123 129
0.336214 -0.113068 -0.523 141 106 112
0.344852 -0.112635 -0.521 144 109 115
0.346837 -0.112635 -0.521 144 109 113
0.353784 -0.112635 -0.521 144 109 113
0.377867 -0.112419 -0.52 138 106 109
0.289669 -0.120389 -0.552 155 127 139
0.342262 -0.125405 -0.575 41 27 40
0.331233 -0.114064 -0.523 141 109 114
0.334222 -0.114064 -0.523 136 104 109
0.340543 -0.113846 -0.522 141 109 112
0.350807 -0.113628 -0.521 142 107 113
0.358057 -0.11341 -0.52 144 109 113
0.366266 -0.113191 -0.519 145 110 114
0.376876 -0.11341 -0.52 141 107 108
0.4175 -0.1145 -0.525 138 104 105
0.423704 -0.115372 -0.529 134 104 106
0.425514 -0.11559 -0.53 128 98 100
0.28757 -0.12056 -0.548 157 127 139
0.289657 -0.12056 -0.548 157 127 139
0.308874 -0.12452 -0.566 57 48 53
0.330264 -0.12694 -0.577 38 25 35
0.342262 -0.1265 -0.575 41 27 40
0.340543 -0.11484 -0.522 142 107 111
0.341537 -0.11484 -0.522 142 107 111
0.378129 -0.11418 -0.519 143 109 110
0.385049 -0.11418 -0.519 139 107 108
0.386037 -0.11418 -0.519 139 107 108
0.398889 -0.11418 -0.519 135 103 106
0.4387 -0.1177 -0.535 201 146 149
0.446087 -0.11858 -0.539 185 129 130
0.285476 -0.122048 -0.55 163 129 145
0.335759 -0.128039 -0.577 39 27 37
0.338974 -0.123601 -0.557 136 110 113
0.351124 -0.11539 -0.52 143 108 112
0.357369 -0.115169 -0.519 144 110 111
0.396147 -0.114947 -0.518 110 85 88
0.398889 -0.115169 -0.519 127 95 98
0.417703 -0.116278 -0.524 133 101 102
0.441562 -0.118941 -0.536 195 144 143
0.328594 -0.128914 -0.576 34 24 33
0.332462 -0.129138 -0.577 34 24 33
0.335759 -0.129138 -0.577 37 26 34
0.328611 -0.116829 -0.522 137 107 107
0.333583 -0.116829 -0.522 141 105 107
0.390227 -0.115933 -0.518 124 95 97
0.399107 -0.115933 -0.518 128 96 97
0.435846 -0.119514 -0.534 193 145 145
0.448971 -0.120857 -0.54 176 133 127
0.287486 -0.121886 -0.54 161 128 139
0.29538 -0.123466 -0.547 160 124 136
0.309903 -0.126851 -0.562 38 18 27
0.312633 -0.127529 -0.565 38 21 29
0.339271 -0.126626 -0.561 140 117 125
0.327249 -0.118049 -0.523 138 106 107
0.333936 -0.117597 -0.521 142 107 111
0.351437 -0.117146 -0.519 144 109 113
0.361613 -0.11692 -0.518 142 108 109
0.36556 -0.11692 -0.518 143 109 110
0.396147 -0.11692 -0.518 105 79 80
0.43788 -0.120531 -0.534 196 144 148
0.283843 -0.122231 -0.537 161 123 138
0.295338 -0.124052 -0.545 163 122 136
0.342163 -0.130426 -0.573 41 26 31
0.34074 -0.12906 -0.567 64 43 48
0.333936 -0.11859 -0.521 140 108 109
0.357667 -0.117907 -0.518 143 108 112
0.369778 -0.117679 -0.517 138 107 112
0.373717 -0.117679 -0.517 179 148 153
0.387504 -0.117679 -0.517 135 103 104
0.40326 -0.117679 -0.517 114 84 84
0.336274 -0.132206 -0.576 33 22 30
0.351437 -0.119123 -0.519 144 110 111
0.374702 -0.118664 -0.517 246 231 238
0.38455 -0.118664 -0.517 139 103 105
0.444814 -0.122795 -0.535 185 130 127
0.27769 -0.123814 -0.535 163 127 141
0.337371 -0.133303 -0.576 42 35 43
0.340071 -0.133071 -0.575 30 20 29
0.352733 -0.11988 -0.518 143 111 112
0.36387 -0.119649 -0.517 140 108 111
0.366824 -0.119649 -0.517 141 107 108
0.376671 -0.119649 -0.517 253 238 245
0.3956 -0.119417 -0.516 134 102 103
0.398549 -0.119417 -0.516 131 99 100
0.409763 -0.120111 -0.519 136 101 105
0.277147 -0.124133 -0.532 162 126 138
0.280671 -0.1239 -0.531 162 126 138
0.281683 -0.1239 -0.531 160 127 138
0.289919 -0.124833 -0.535 156 123 134
0.303715 -0.127633 -0.547 146 113 124
0.306429 -0.128333 -0.55 138 111 120
0.308594 -0.1288 -0.552 133 106 115
0.320106 -0.131367 -0.563 26 15 21
0.323114 -0.122733 -0.526 137 102 106
0.347129 -0.120633 -0.517 142 108 109
0.349773 -0.120867 -0.518 141 109 112
0.368793 -0.120633 -0.517 141 105 107
0.406013 -0.120867 -0.518 131 101 103
0.409763 -0.1211 -0.519 135 100 104
0.416705 -0.122267 -0.524 126 91 95
0.419297 -0.122733 -0.526 94 65 67
0.425514 -0.123667 -0.53 47 28 30
0.43503 -0.124367 -0.533 165 110 113
0.43706 -0.124367 -0.533 186 130 129
0.437253 -0.124133 -0.532 190 134 133
0.440106 -0.124367 -0.533 193 138 135
0.445833 -0.124833 -0.535 181 128 124
0.277637 -0.124911 -0.531 162 126 138
0.293524 -0.126088 -0.536 156 120 130
0.331686 -0.134086 -0.57 31 22 27
0.335029 -0.134556 -0.572 36 29 36
0.332928 -0.130322 -0.554 133 107 110
0.321721 -0.12397 -0.527 136 104 107
0.324381 -0.122324 -0.52 139 104 108
0.325734 -0.122089 -0.519 138 103 107
0.372011 -0.121383 -0.516 243 223 225
0.379874 -0.121383 -0.516 120 94 95
0.387737 -0.121383 -0.516 132 102 104
0.387967 -0.121148 -0.515 132 100 103
0.39015 -0.120912 -0.514 134 99 103
0.392871 -0.121148 -0.515 136 101 105
0.43928 -0.125147 -0.532 192 134 132
0.443983 -0.125617 -0.534 178 127 124
0.447688 -0.126088 -0.536 172 121 118
0.282637 -0.125449 -0.529 158 125 134
0.303004 -0.128531 -0.542 143 116 123
0.316044 -0.131377 -0.554 71 54 62
0.332013 -0.12284 -0.518 139 105 106
0.33892 -0.12284 -0.518 140 106 107
0.358946 -0.122603 -0.517 140 108 111
0.365131 -0.122366 -0.516 140 109 114
0.36808 -0.122366 -0.516 138 102 102
0.369063 -0.122366 -0.516 144 108 108
0.370046 -0.122366 -0.516 138 108 108
0.380857 -0.122366 -0.516 110 86 86
0.401497 -0.122366 -0.516 94 65 67
0.418295 -0.124737 -0.526 88 59 61
0.442136 -0.126397 -0.533 187 132 127
0.444167 -0.126397 -0.533 183 129 127
0.446852 -0.126871 -0.535 176 123 119
0.274114 -0.129086 -0.54 161 128 137
0.289229 -0.126695 -0.53 160 122 133
0.293911 -0.127412 -0.533 152 119 128
0.298629 -0.12813 -0.536 144 117 124
0.300209 -0.128369 -0.537 150 123 130
0.312621 -0.130998 -0.548 143 122 129
0.315382 -0.131715 -0.551 118 97 104
0.319803 -0.124066 -0.519 139 104 108
0.322769 -0.124066 -0.519 137 102 106
0.37496 -0.123349 -0.516 138 112 115
0.384789 -0.123349 -0.516 70 49 48
0.399738 -0.12311 -0.515 127 97 99
0.274086 -0.127705 -0.53 160 127 134
0.278607 -0.127464 -0.529 159 126 135
0.302254 -0.129391 -0.537 157 127 135
0.332267 -0.134933 -0.56 31 16 23
0.331548 -0.13421 -0.557 81 66 73
0.329623 -0.133006 -0.552 132 109 115
0.319429 -0.125295 -0.52 136 104 107
0.323133 -0.124813 -0.518 139 107 110
0.325107 -0.124813 -0.518 136 104 107
0.333342 -0.124572 -0.517 135 106 108
0.335311 -0.124572 -0.517 135 106 108
0.34056 -0.124331 -0.516 137 105 108
0.362183 -0.124331 -0.516 139 107 110
0.37496 -0.124331 -0.516 139 107 112
0.393088 -0.12385 -0.514 132 97 101
0.397983 -0.12385 -0.514 131 99 100
0.434203 -0.129391 -0.537 85 46 49
0.434415 -0.12915 -0.536 103 64 67
0.43503 -0.128428 -0.533 153 98 101
0.44232 -0.128187 -0.532 192 132 131
0.276591 -0.128471 -0.529 158 125 132
0.277599 -0.128471 -0.529 159 126 135
0.28969 -0.128471 -0.529 152 119 128
0.292257 -0.128714 -0.53 155 122 131
0.321926 -0.129686 -0.534 139 108 113
0.322147 -0.1258 -0.518 136 104 107
0.326449 -0.125557 -0.517 139 107 110
0.334327 -0.125557 -0.517 134 105 107
0.369063 -0.125314 -0.516 142 111 109
0.394067 -0.124829 -0.514 134 99 103
0.281097 -0.129234 -0.528 156 123 132
0.288595 -0.12899 -0.527 155 124 132
0.296854 -0.129969 -0.531 150 119 127
0.323486 -0.132171 -0.54 160 135 139
0.330388 -0.126542 -0.517 124 95 97
0.331714 -0.126297 -0.516 115 93 95
0.344491 -0.126297 -0.516 137 109 108
0.346457 -0.126297 -0.516 139 109 109
0.352354 -0.126297 -0.516 139 107 110
0.356576 -0.126052 -0.515 144 112 117
0.36808 -0.126297 -0.516 136 106 106
0.369063 -0.126297 -0.516 134 104 104
0.397004 -0.125808 -0.514 130 98 99
0.401497 -0.126297 -0.516 128 96 97
0.419673 -0.129479 -0.529 58 38 39
0.437443 -0.129969 -0.531 196 136 135
0.272067 -0.130733 -0.53 159 124 131
0.30954 -0.132953 -0.539 146 115 120
0.324479 -0.127527 -0.517 131 101 99
0.334663 -0.12728 -0.516 100 88 90
0.358538 -0.127033 -0.515 143 117 120
0.3605 -0.127033 -0.515 132 103 107
0.361481 -0.127033 -0.515 137 105 108
0.372011 -0.12728 -0.516 133 98 104
0.3811 -0.127033 -0.515 124 95 100
0.386005 -0.127033 -0.515 94 74 75
0.394067 -0.126787 -0.514 130 98 101
0.397004 -0.126787 -0.514 129 99 99
0.428066 -0.13246 -0.537 37 25 25
0.444347 -0.131227 -0.532 182 127 124
0.301911 -0.131991 -0.531 147 116 121
0.3132 -0.134229 -0.54 146 117 122
0.319214 -0.135471 -0.545 139 108 113
0.32084 -0.13572 -0.546 128 97 102
0.32188 -0.13572 -0.546 161 132 136
0.315686 -0.129754 -0.522 129 103 104
0.324834 -0.128263 -0.516 87 96 95
0.346767 -0.128014 -0.515 133 105 104
0.354905 -0.127766 -0.514 208 177 183
0.364695 -0.127766 -0.514 138 106 107
0.412712 -0.130251 -0.524 121 86 92
0.426248 -0.133234 -0.536 45 26 28
0.435011 -0.133731 -0.538 93 52 56
0.435226 -0.133483 -0.537 108 67 71
0.449069 -0.132737 -0.534 168 115 111
0.451771 -0.133234 -0.536 161 108 104
0.271057 -0.132752 -0.53 162 124 135
0.282036 -0.13175 -0.526 155 122 129
0.2835 -0.1315 -0.525 154 121 128
0.292941 -0.13125 -0.524 151 119 124
0.314673 -0.135007 -0.539 148 116 121
0.316486 -0.132752 -0.53 142 112 114
0.314476 -0.130248 -0.52 130 101 103
0.333033 -0.128995 -0.515 212 225 231
0.34971 -0.128995 -0.515 138 109 111
0.35069 -0.128995 -0.515 139 106 113
0.361758 -0.128745 -0.514 134 102 105
0.372271 -0.128995 -0.515 140 105 109
0.374233 -0.128995 -0.515 136 104 105
0.375214 -0.128995 -0.515 132 102 102
0.378402 -0.128745 -0.514 133 101 104
0.387437 -0.128494 -0.513 94 68 69
0.397983 -0.128745 -0.514 125 95 95
0.401497 -0.129246 -0.516 133 99 100
0.436431 -0.133003 -0.531 194 136 135
0.0996667 -0.164048 -0.65 189 140 133
0.278029 -0.132752 -0.526 156 123 130
0.312771 -0.134771 -0.534 149 117 122
0.34971 -0.129976 -0.515 140 110 112
0.354614 -0.129976 -0.515 216 193 201
0.357842 -0.129724 -0.514 153 132 139
0.364695 -0.129724 -0.514 135 103 106
0.407372 -0.13149 -0.521 127 95 98
0.438121 -0.138052 -0.547 45 22 28
0.09282 -0.16198 -0.637 191 147 138
0.0973686 -0.163506 -0.643 192 142 133
0.2815 -0.1335 -0.525 155 123 128
0.293811 -0.132737 -0.522 149 118 123
0.3015 -0.1335 -0.525 145 114 119
0.307828 -0.134517 -0.529 150 118 123
0.335324 -0.130703 -0.514 155 165 175
0.3399 -0.130957 -0.515 185 185 193
0.353926 -0.130703 -0.514 241 220 227
0.361054 -0.130449 -0.513 139 104 110
0.36959 -0.130703 -0.514 142 112 114
0.375465 -0.130703 -0.514 135 103 106
0.376444 -0.130703 -0.514 137 105 108
0.378402 -0.130703 -0.514 111 81 83
0.384506 -0.130449 -0.513 128 96 99
0.441325 -0.140111 -0.551 48 26 29
0.434829 -0.135789 -0.534 149 101 99
0.0848686 -0.161912 -0.632 197 157 147
0.271015 -0.134756 -0.526 160 123 131
0.294806 -0.133731 -0.522 146 115 120
0.300351 -0.133988 -0.523 144 113 118
0.326167 -0.131938 -0.515 213 230 237
0.338919 -0.131938 -0.515 131 135 146
0.343824 -0.131938 -0.515 130 111 115
0.345786 -0.131938 -0.515 137 108 112
0.37962 -0.131426 -0.513 128 102 103
0.383529 -0.131426 -0.513 133 101 104
0.40129 -0.13245 -0.517 124 94 96
0.2785 -0.1355 -0.525 155 123 128
0.294241 -0.134468 -0.521 146 114 119
0.302344 -0.134984 -0.523 150 115 119
0.31304 -0.133177 -0.516 134 104 104
0.316971 -0.133177 -0.516 136 104 107
0.320903 -0.133177 -0.516 83 88 94
0.328129 -0.132919 -0.515 140 159 165
0.334014 -0.132919 -0.515 66 86 97
0.341862 -0.132919 -0.515 174 173 181
0.362031 -0.132403 -0.513 137 106 111
0.373757 -0.132403 -0.513 171 149 152
0.384506 -0.132403 -0.513 133 101 104
0.435436 -0.138339 -0.536 134 86 84
0.0853914 -0.16302 -0.627 200 162 149
0.09706 -0.16458 -0.633 193 143 132
0.267409 -0.14066 -0.541 164 128 132
0.289714 -0.1352 -0.52 148 116 121
0.294667 -0.1352 -0.52 146 114 117
0.295657 -0.1352 -0.52 145 113 116
0.305157 -0.13546 -0.521 148 118 120
0.307543 -0.1352 -0.52 139 109 111
0.340219 -0.13364 -0.514 219 219 231
0.351283 -0.13338 -0.513 237 220 228
0.363986 -0.13338 -0.513 135 109 118
0.36594 -0.13338 -0.513 120 97 105
0.37693 -0.13312 -0.512 130 106 106
0.459926 -0.14092 -0.542 162 109 105
0.0804857 -0.163952 -0.626 202 162 152
0.0827381 -0.16369 -0.625 203 163 153
0.295657 -0.13619 -0.52 147 112 118
0.307738 -0.135405 -0.517 134 105 107
0.320281 -0.134881 -0.515 57 83 82
0.322243 -0.134881 -0.515 149 156 166
0.327148 -0.134881 -0.515 211 218 224
0.348051 -0.134619 -0.514 132 107 111
0.35001 -0.134619 -0.514 179 156 164
0.3591 -0.134357 -0.513 136 106 106
0.367894 -0.134357 -0.513 239 228 236
0.373029 -0.134095 -0.512 187 172 177
0.377905 -0.134095 -0.512 131 102 107
0.37888 -0.134095 -0.512 131 102 107
0.388632 -0.134095 -0.512 130 100 102
0.395046 -0.134619 -0.514 133 98 102
0.435795 -0.138548 -0.529 199 142 133
0.0791667 -0.164881 -0.625 202 162 152
0.104789 -0.167783 -0.636 180 123 112
0.133713 -0.170685 -0.647 182 129 115
0.135547 -0.169893 -0.644 177 124 108
0.136986 -0.170157 -0.645 178 125 109
0.139443 -0.170157 -0.645 176 123 109
0.26801 -0.138764 -0.526 155 123 128
0.271981 -0.138236 -0.524 157 122 128
0.28531 -0.137445 -0.521 153 118 124
0.299043 -0.136917 -0.519 146 111 117
0.311074 -0.136126 -0.516 132 103 105
0.314395 -0.135862 -0.515 130 106 106
0.317338 -0.135862 -0.515 130 102 99
0.341198 -0.135598 -0.514 84 89 95
0.351283 -0.135334 -0.513 226 206 217
0.0824733 -0.16554 -0.623 199 159 149
0.108593 -0.16926 -0.637 188 135 121
0.128386 -0.171386 -0.645 192 135 124
0.140671 -0.171386 -0.645 157 105 92
0.263477 -0.141094 -0.531 158 121 128
0.282332 -0.138437 -0.521 149 117 122
0.283325 -0.138437 -0.521 150 118 123
0.315376 -0.136843 -0.515 128 102 103
0.318319 -0.136843 -0.515 112 93 95
0.3193 -0.136843 -0.515 96 77 79
0.328129 -0.136843 -0.515 211 215 227
0.332387 -0.136577 -0.514 181 185 196
0.375954 -0.136046 -0.512 143 126 136
0.383007 -0.13578 -0.511 132 102 104
0.43378 -0.140563 -0.529 189 131 127
0.0766629 -0.166994 -0.624 203 163 153
0.0801 -0.166727 -0.623 201 158 149
0.118671 -0.171009 -0.639 191 139 126
0.133069 -0.170741 -0.638 172 119 103
0.262485 -0.14157 -0.529 157 117 125
0.2635 -0.141035 -0.527 161 121 129
0.272458 -0.139965 -0.523 153 118 124
0.277903 -0.139697 -0.522 153 118 124
0.278897 -0.139697 -0.522 151 119 124
0.286743 -0.139162 -0.52 151 116 122
0.299043 -0.138894 -0.519 146 111 117
0.30044 -0.138627 -0.518 146 114 119
0.300845 -0.138359 -0.517 147 115 120
0.306548 -0.137824 -0.515 133 103 103
0.315743 -0.137556 -0.514 134 102 103
0.366202 -0.137021 -0.512 241 236 242
0.434971 -0.141303 -0.528 199 144 139
0.0798429 -0.167374 -0.621 200 158 146
0.085619 -0.167105 -0.62 200 158 146
0.0891619 -0.167105 -0.62 195 151 140
0.100434 -0.168183 -0.624 193 144 130
0.126395 -0.171148 -0.635 183 130 114
0.136929 -0.172226 -0.639 165 114 97
0.140235 -0.173304 -0.643 154 105 91
0.265992 -0.14123 -0.524 154 117 125
0.276443 -0.140961 -0.523 153 118 124
0.285752 -0.140152 -0.52 150 115 121
0.299453 -0.139613 -0.518 145 113 118
0.312806 -0.138535 -0.514 133 103 105
0.316722 -0.138535 -0.514 135 101 102
0.321617 -0.138535 -0.514 149 173 175
0.33174 -0.138266 -0.513 231 231 241
0.374004 -0.137996 -0.512 216 213 220
0.376193 -0.137727 -0.511 135 103 104
0.38106 -0.137727 -0.511 131 101 103
0.466329 -0.157671 -0.585 72 47 51
0.46984 -0.15848 -0.588 71 46 50
0.440899 -0.146621 -0.544 114 75 76
0.435977 -0.142309 -0.528 196 143 137
0.445705 -0.142848 -0.53 169 121 111
0.0762943 -0.168557 -0.621 200 158 146
0.0964029 -0.168557 -0.621 197 149 137
0.115616 -0.170729 -0.629 197 145 132
0.1194 -0.171 -0.63 193 141 128
0.135287 -0.1729 -0.637 163 112 93
0.304194 -0.140057 -0.516 135 103 106
0.323575 -0.139514 -0.514 92 107 110
0.32847 -0.139514 -0.514 185 195 204
0.342796 -0.138971 -0.512 130 113 119
0.343771 -0.138971 -0.512 123 106 112
0.362567 -0.1387 -0.511 230 220 228
0.364513 -0.1387 -0.511 233 232 240
0.395814 -0.139786 -0.515 124 98 97
0.0937343 -0.169193 -0.619 198 150 136
0.0974286 -0.169467 -0.62 199 150 136
0.101134 -0.16974 -0.621 196 147 133
0.1125 -0.170833 -0.625 198 146 133
0.12261 -0.171653 -0.628 187 135 122
0.125201 -0.171927 -0.629 181 130 111
0.269949 -0.14268 -0.522 153 116 123
0.284214 -0.14186 -0.519 150 115 121
0.288169 -0.14186 -0.519 150 115 121
0.289157 -0.14186 -0.519 148 113 119
0.30949 -0.140767 -0.515 133 103 103
0.32847 -0.140493 -0.514 161 174 183
0.335649 -0.14022 -0.513 227 229 241
0.340846 -0.139947 -0.512 177 166 170
0.352833 -0.139673 -0.511 134 105 107
0.395814 -0.140767 -0.515 123 97 96
0.399877 -0.14186 -0.519 113 87 86
0.458993 -0.155527 -0.569 69 40 45
0.43359 -0.144867 -0.53 183 130 126
0.444864 -0.144593 -0.529 179 131 121
0.47386 -0.150607 -0.551 165 114 110
0.0644 -0.177253 -0.644 199 156 147
0.0654 -0.1734 -0.63 205 163 149
0.081679 -0.169822 -0.617 202 158 147
0.0924057 -0.170097 -0.618 197 148 134
0.100971 -0.170648 -0.62 194 145 131
0.130613 -0.17395 -0.632 166 115 96
0.135074 -0.175051 -0.636 160 111 96
0.265971 -0.143674 -0.522 155 118 126
0.274393 -0.143399 -0.521 153 116 123
0.30949 -0.141748 -0.515 135 105 105
0.329786 -0.141197 -0.513 176 191 196
0.333044 -0.140922 -0.512 215 215 225
0.361593 -0.140647 -0.511 243 222 231
0.3638 -0.140371 -0.51 239 237 248
0.378371 -0.140371 -0.51 126 101 104
0.448569 -0.146151 -0.531 163 116 108
0.0702667 -0.171829 -0.62 202 160 148
0.0850667 -0.17072 -0.616 199 151 139
0.106704 -0.171551 -0.619 193 145 133
0.109062 -0.171551 -0.619 198 148 137
0.14168 -0.17848 -0.644 142 95 85
0.143572 -0.179311 -0.647 138 90 86
0.265971 -0.144669 -0.522 154 119 126
0.269431 -0.144391 -0.521 150 118 121
0.28179 -0.144114 -0.52 151 116 120
0.283226 -0.143837 -0.519 152 117 123
0.289587 -0.14356 -0.518 147 112 118
0.293533 -0.14356 -0.518 145 110 116
0.302624 -0.142729 -0.515 134 102 105
0.322596 -0.142451 -0.514 218 230 228
0.341153 -0.14162 -0.511 121 112 115
0.3706 -0.141343 -0.51 234 232 243
0.383229 -0.141343 -0.51 126 96 96
0.478503 -0.165177 -0.596 91 66 70
0.435328 -0.145777 -0.526 199 144 137
0.0874133 -0.171893 -0.616 203 155 145
0.0909333 -0.171893 -0.616 202 152 141
0.260504 -0.145942 -0.523 155 120 127
0.270424 -0.145384 -0.521 149 117 122
0.273867 -0.145105 -0.52 150 118 123
0.294936 -0.144268 -0.517 143 108 114
0.312806 -0.14343 -0.514 142 103 108
0.320014 -0.143151 -0.513 149 145 142
0.330118 -0.142872 -0.512 164 178 187
0.332393 -0.142593 -0.511 171 179 190
0.382257 -0.142314 -0.51 115 87 86
0.451183 -0.155709 -0.558 85 48 56
0.44252 -0.15236 -0.546 104 67 75
0.432772 -0.147616 -0.529 178 128 127
0.434326 -0.146779 -0.526 198 145 137
0.464911 -0.151523 -0.543 152 108 105
0.07568 -0.173067 -0.616 204 160 151
0.0802429 -0.172786 -0.615 204 157 147
0.135074 -0.178686 -0.636 154 104 95
0.138362 -0.17981 -0.64 147 98 94
0.140235 -0.180652 -0.643 146 98 98
0.144016 -0.182338 -0.649 140 94 94
0.256989 -0.147781 -0.526 158 123 130
0.277829 -0.146095 -0.52 148 116 121
0.28026 -0.145814 -0.519 148 116 121
0.281249 -0.145814 -0.519 149 117 122
0.284653 -0.145533 -0.518 149 114 118
0.292547 -0.145533 -0.518 147 112 116
0.309869 -0.14441 -0.514 133 103 103
0.33726 -0.143567 -0.511 205 202 213
0.391346 -0.144129 -0.513 120 90 90
0.489743 -0.157895 -0.562 133 94 87
0.0657543 -0.175937 -0.622 204 161 155
0.0882991 -0.173674 -0.614 199 151 139
0.0894686 -0.173674 -0.614 199 151 139
0.0906381 -0.173674 -0.614 198 150 138
0.104843 -0.173957 -0.615 196 148 136
0.106187 -0.17424 -0.616 192 144 132
0.125796 -0.177069 -0.626 172 119 101
0.133442 -0.179331 -0.634 157 107 98
0.2575 -0.1485 -0.525 157 122 129
0.260504 -0.147934 -0.523 155 120 127
0.2615 -0.147934 -0.523 155 120 127
0.28268 -0.14652 -0.518 149 114 118
0.292967 -0.146237 -0.517 145 110 114
0.294936 -0.146237 -0.517 144 109 113
0.335313 -0.14454 -0.511 170 173 182
0.33726 -0.14454 -0.511 155 148 156
0.380314 -0.144257 -0.51 126 101 104
0.4528 -0.1584 -0.56 103 60 77
0.432772 -0.149631 -0.529 177 126 125
0.434326 -0.148783 -0.526 198 143 136
0.43633 -0.148783 -0.526 195 140 135
0.465946 -0.153591 -0.543 158 113 108
0.0647771 -0.177691 -0.624 200 160 152
0.0719257 -0.174844 -0.614 206 162 153
0.083621 -0.174844 -0.614 201 153 141
0.0963286 -0.174559 -0.613 204 156 142
0.116136 -0.176268 -0.619 184 132 118
0.126989 -0.178261 -0.626 166 117 100
0.27972 -0.147507 -0.518 148 116 121
0.2886 -0.147507 -0.518 147 112 116
0.312806 -0.146368 -0.514 134 100 101
0.317083 -0.146083 -0.513 132 104 103
0.335313 -0.145513 -0.511 170 173 182
0.338543 -0.145229 -0.51 130 113 121
0.3638 -0.145229 -0.51 231 228 237
0.367934 -0.144944 -0.509 231 225 235
0.37666 -0.144944 -0.509 130 111 115
0.388632 -0.145798 -0.512 127 92 98
0.390369 -0.146083 -0.513 123 92 97
0.4687 -0.155195 -0.545 152 108 105
0.0655429 -0.177733 -0.62 202 159 150
0.0741438 -0.175727 -0.613 209 165 154
0.0753114 -0.175727 -0.613 209 165 154
0.104502 -0.175727 -0.613 194 146 134
0.114586 -0.176873 -0.617 184 135 120
0.117315 -0.177447 -0.619 181 129 115
0.124206 -0.17888 -0.624 168 119 105
0.125595 -0.179167 -0.625 164 115 101
0.136714 -0.182893 -0.638 141 96 90
0.258008 -0.150213 -0.524 156 121 128
0.260504 -0.149927 -0.523 155 120 126
0.269431 -0.149353 -0.521 149 116 123
0.271416 -0.149353 -0.521 148 115 122
0.286627 -0.148493 -0.518 146 111 115
0.329143 -0.146773 -0.512 201 218 225
0.338543 -0.1462 -0.51 136 117 123
0.349229 -0.1462 -0.51 125 98 105
0.3502 -0.1462 -0.51 128 101 108
0.360886 -0.1462 -0.51 221 205 215
0.361857 -0.1462 -0.51 235 224 232
0.367686 -0.1462 -0.51 230 227 238
0.370843 -0.145913 -0.509 232 230 241
0.374721 -0.145913 -0.509 236 224 234
0.390369 -0.14706 -0.513 123 92 97
0.435328 -0.150787 -0.526 192 137 130
0.0644657 -0.179203 -0.621 196 159 151
0.0674667 -0.17776 -0.616 204 162 150
0.114586 -0.178049 -0.617 185 136 121
0.117315 -0.178626 -0.619 181 130 113
0.138578 -0.184974 -0.641 140 95 90
0.260006 -0.150634 -0.522 154 119 125
0.27676 -0.14948 -0.518 149 117 122
0.289028 -0.149191 -0.517 146 111 115
0.30438 -0.148037 -0.513 137 105 110
0.33434 -0.14746 -0.511 161 154 161
0.342429 -0.147171 -0.51 227 216 224
0.3434 -0.147171 -0.51 237 218 224
-0.132686 -0.188229 -0.648 195 195 187
0.0854 -0.17719 -0.61 209 163 148
0.0946952 -0.17719 -0.61 210 164 149
0.100505 -0.17719 -0.61 203 155 141
0.134862 -0.184452 -0.635 138 90 90
0.25384 -0.154533 -0.532 162 122 131
0.28115 -0.150176 -0.517 148 113 117
0.283119 -0.150176 -0.517 145 110 114
0.299099 -0.149305 -0.514 146 111 117
0.300078 -0.149305 -0.514 144 109 115
0.303403 -0.149014 -0.513 137 105 110
0.305357 -0.149014 -0.513 137 105 110
0.31939 -0.148724 -0.512 132 104 103
0.321341 -0.148724 -0.512 130 106 106
0.325242 -0.148724 -0.512 153 142 146
0.330447 -0.148433 -0.511 149 147 152
0.337571 -0.148143 -0.51 117 100 108
0.360178 -0.147852 -0.509 123 97 100
0.365026 -0.147852 -0.509 167 147 156
0.380538 -0.147852 -0.509 80 56 54
-0.143794 -0.189463 -0.648 186 185 180
0.0715743 -0.178645 -0.611 208 164 153
0.072619 -0.178352 -0.61 203 159 148
0.0854 -0.178352 -0.61 207 161 146
0.09802 -0.17806 -0.609 205 159 143
0.254527 -0.152915 -0.523 156 121 128
0.265943 -0.152038 -0.52 149 117 120
0.266933 -0.152038 -0.52 149 119 121
0.278195 -0.151161 -0.517 147 112 116
0.283554 -0.150869 -0.516 144 109 113
0.313539 -0.149699 -0.512 140 103 110
0.314514 -0.149699 -0.512 131 99 104
0.324607 -0.149407 -0.511 128 109 113
0.335629 -0.149114 -0.51 130 103 108
0.342429 -0.149114 -0.51 183 163 174
0.367934 -0.148822 -0.509 149 126 132
0.37569 -0.148822 -0.509 127 106 111
0.510543 -0.187709 -0.642 130 99 104
0.4385 -0.1535 -0.525 188 131 122
0.472504 -0.159932 -0.547 146 104 106
-0.14089 -0.190109 -0.646 189 189 181
0.09222 -0.17922 -0.609 209 163 150
0.118303 -0.181869 -0.618 172 120 106
0.126786 -0.183929 -0.625 159 107 96
0.252827 -0.15656 -0.532 163 122 128
0.254527 -0.153911 -0.523 156 121 127
0.266933 -0.153029 -0.52 152 117 123
0.287486 -0.151851 -0.516 144 109 113
0.307688 -0.150674 -0.512 137 105 108
0.339818 -0.149791 -0.509 233 218 225
0.520619 -0.191286 -0.65 108 73 79
0.43296 -0.155383 -0.528 202 147 140
0.433324 -0.154794 -0.526 198 143 138
0.4375 -0.1545 -0.525 186 129 118
0.46063 -0.158326 -0.538 136 95 91
0.478238 -0.161857 -0.55 150 101 96
-0.140671 -0.191043 -0.645 192 189 182
0.0680829 -0.180972 -0.611 205 162 153
0.0702952 -0.180676 -0.61 209 167 155
0.0816457 -0.180084 -0.608 208 165 149
0.0885943 -0.180084 -0.608 206 160 147
0.115573 -0.182453 -0.616 174 121 103
0.119673 -0.183342 -0.619 166 114 100
0.135074 -0.188377 -0.636 142 97 92
0.251876 -0.156981 -0.53 154 121 128
0.251979 -0.155796 -0.526 152 120 131
0.265943 -0.154019 -0.52 151 116 120
0.272351 -0.153723 -0.519 149 114 118
0.279623 -0.152834 -0.516 146 111 115
0.287486 -0.152834 -0.516 144 109 113
0.299494 -0.151946 -0.513 150 115 119
0.301449 -0.151946 -0.513 134 99 103
0.32266 -0.151353 -0.511 132 102 102
0.326886 -0.151057 -0.51 126 101 107
0.337879 -0.150761 -0.509 185 166 172
0.345635 -0.150761 -0.509 128 99 104
0.353391 -0.150761 -0.509 128 97 102
0.357535 -0.150465 -0.508 129 98 103
0.358503 -0.150465 -0.508 126 97 101
0.361406 -0.150465 -0.508 125 96 100
0.38398 -0.151353 -0.511 123 98 102
0.4335 -0.1555 -0.525 200 142 138
0.440337 -0.155796 -0.526 172 118 108
0.442341 -0.155796 -0.526 162 109 103
0.468014 -0.160831 -0.543 150 106 103
-0.145586 -0.192271 -0.645 188 185 178
-0.143129 -0.192271 -0.645 190 187 180
0.0745743 -0.180944 -0.607 210 167 150
0.0780429 -0.180944 -0.607 210 167 148
0.0976981 -0.180944 -0.607 207 161 145
0.118303 -0.184223 -0.618 171 119 105
0.25353 -0.155904 -0.523 155 118 125
0.276226 -0.154115 -0.517 147 113 114
0.299494 -0.152923 -0.513 150 115 119
0.300471 -0.152923 -0.513 139 104 108
0.321687 -0.152327 -0.511 137 103 104
0.38646 -0.152923 -0.513 117 94 100
0.388192 -0.153221 -0.514 115 92 98
0.476962 -0.181838 -0.61 94 75 79
0.4998 -0.1878 -0.63 98 76 78
0.432386 -0.158289 -0.531 188 137 133
0.4385 -0.1565 -0.525 173 119 109
-0.139443 -0.1935 -0.645 192 192 184
0.0668095 -0.183 -0.61 208 166 152
0.0779143 -0.1818 -0.606 211 168 149
0.101333 -0.1824 -0.608 192 146 130
0.112859 -0.1842 -0.614 179 127 106
0.115573 -0.1848 -0.616 173 120 102
0.122229 -0.186 -0.62 161 111 100
0.251021 -0.1572 -0.524 157 118 121
0.26642 -0.1557 -0.519 152 117 123
0.276226 -0.1551 -0.517 147 113 114
0.283005 -0.1545 -0.515 142 108 109
0.318767 -0.1533 -0.511 136 100 102
0.321057 -0.153 -0.51 138 104 105
0.3556 -0.1524 -0.508 128 96 97
0.504199 -0.1893 -0.631 77 47 49
0.440337 -0.1578 -0.526 164 110 98
0.446879 -0.1587 -0.529 129 78 75
0.46612 -0.1626 -0.542 148 105 99
-0.144133 -0.194427 -0.644 187 187 179
0.0689067 -0.183558 -0.608 209 167 153
0.0766333 -0.182652 -0.605 211 168 152
0.0975371 -0.182954 -0.606 203 160 143
0.120852 -0.186879 -0.619 160 110 99
0.250393 -0.159708 -0.529 154 121 130
0.254546 -0.157292 -0.521 154 119 125
0.26 -0.15699 -0.52 150 118 123
0.265431 -0.156689 -0.519 149 117 122
0.271827 -0.156387 -0.518 148 113 117
0.272813 -0.156387 -0.518 146 111 115
0.350762 -0.153368 -0.508 131 96 100
0.365523 -0.153066 -0.507 123 91 94
0.383007 -0.154273 -0.511 122 90 95
0.387213 -0.155179 -0.514 120 91 96
0.49306 -0.188087 -0.623 87 65 67
0.431374 -0.160311 -0.531 181 130 126
0.4385 -0.1585 -0.525 169 115 103
0.453304 -0.160915 -0.533 117 69 65
0.471814 -0.164538 -0.545 156 106 105
-0.1505 -0.195957 -0.645 187 184 177
-0.147813 -0.195653 -0.644 188 185 178
-0.133095 -0.197476 -0.65 193 193 183
0.0687933 -0.184412 -0.607 207 165 153
0.0904619 -0.183805 -0.605 208 165 148
0.0916143 -0.183805 -0.605 208 165 148
0.126786 -0.189881 -0.625 154 106 96
0.131609 -0.191704 -0.631 145 98 90
0.138794 -0.195046 -0.642 134 88 90
0.255538 -0.158285 -0.521 152 117 123
0.262971 -0.157981 -0.52 150 118 123
0.264443 -0.157677 -0.519 149 117 122
0.26492 -0.157373 -0.518 149 117 122
0.276674 -0.156766 -0.516 145 110 114
0.280606 -0.156766 -0.516 145 111 112
0.29696 -0.15555 -0.512 152 117 121
0.327214 -0.154639 -0.509 130 98 101
0.347174 -0.154031 -0.507 131 96 100
0.356568 -0.154335 -0.508 132 98 99
0.368179 -0.154335 -0.508 123 93 95
0.4356 -0.164057 -0.54 151 111 112
0.431777 -0.162234 -0.534 163 118 115
0.430949 -0.160411 -0.528 197 144 138
0.0591238 -0.195657 -0.64 189 152 143
0.0708714 -0.184957 -0.605 209 167 153
0.0789381 -0.184957 -0.605 209 166 150
0.106314 -0.186486 -0.61 186 140 117
0.125193 -0.19046 -0.623 157 107 98
0.14089 -0.197491 -0.646 128 88 89
0.251057 -0.159583 -0.522 153 118 125
0.258019 -0.158971 -0.52 147 115 120
0.26099 -0.158971 -0.52 150 115 121
0.284413 -0.157137 -0.514 142 107 111
0.304543 -0.155914 -0.51 135 100 104
0.308429 -0.155914 -0.51 136 101 105
0.312314 -0.155914 -0.51 137 101 103
0.318489 -0.155609 -0.509 136 102 103
0.320428 -0.155609 -0.509 138 103 107
0.332062 -0.155609 -0.509 161 134 141
0.334312 -0.155303 -0.508 158 137 146
0.343021 -0.155303 -0.508 131 99 104
0.343989 -0.155303 -0.508 129 97 102
0.350762 -0.155303 -0.508 133 98 102
0.456024 -0.163557 -0.535 121 76 71
-0.155896 -0.19903 -0.647 181 181 173
-0.137623 -0.199337 -0.648 191 191 183
0.0776571 -0.185802 -0.604 211 168 152
0.0821229 -0.185494 -0.603 209 166 150
0.09246 -0.185494 -0.603 206 163 144
0.114214 -0.189186 -0.615 168 115 97
0.249857 -0.163038 -0.53 121 89 100
0.25901 -0.159962 -0.52 149 114 120
0.268348 -0.159039 -0.517 146 111 115
0.301247 -0.157193 -0.511 136 99 106
0.315229 -0.156886 -0.51 138 102 104
0.327539 -0.15627 -0.508 132 96 96
0.329474 -0.15627 -0.508 131 99 102
0.34138 -0.155963 -0.507 128 96 101
0.345243 -0.155963 -0.507 128 96 99
0.34814 -0.155963 -0.507 127 95 98
0.36842 -0.155963 -0.507 125 93 94
0.49104 -0.189493 -0.616 63 32 40
0.43132 -0.161808 -0.526 203 145 134
0.4315 -0.1615 -0.525 201 143 132
0.445029 -0.162423 -0.528 138 85 77
0.44958 -0.163346 -0.531 127 78 71
-0.153947 -0.199333 -0.644 182 182 174
0.0615 -0.190357 -0.615 198 161 152
0.0854267 -0.186333 -0.602 207 164 148
0.135499 -0.197476 -0.638 136 90 90
0.250726 -0.165286 -0.534 96 69 76
0.24992 -0.163429 -0.528 106 81 85
0.251538 -0.161881 -0.523 148 116 119
0.252534 -0.161881 -0.523 147 115 118
0.26492 -0.160333 -0.518 154 119 123
0.274709 -0.159714 -0.516 143 111 114
0.27864 -0.159714 -0.516 142 110 113
0.286791 -0.158786 -0.513 142 107 111
0.301247 -0.158167 -0.511 135 100 104
0.3162 -0.157857 -0.51 136 100 102
0.321397 -0.157548 -0.509 139 103 107
0.378599 -0.157548 -0.509 130 94 96
0.46063 -0.166524 -0.538 134 90 81
0.0752314 -0.187791 -0.603 212 170 154
0.0819867 -0.18748 -0.602 209 166 150
0.09116 -0.18748 -0.602 205 162 145
0.103479 -0.189037 -0.607 188 140 117
0.25901 -0.161943 -0.52 151 116 120
0.273195 -0.160386 -0.515 145 110 114
0.284413 -0.160074 -0.514 143 108 112
0.301629 -0.158829 -0.51 137 101 105
0.311343 -0.158829 -0.51 135 99 101
0.339449 -0.157894 -0.507 135 95 103
0.350071 -0.157894 -0.507 130 95 99
0.352969 -0.157894 -0.507 131 96 100
0.366489 -0.157894 -0.507 132 100 103
0.367454 -0.157894 -0.507 123 89 90
0.488324 -0.193086 -0.62 43 20 30
0.483424 -0.188414 -0.605 75 46 51
0.478169 -0.185923 -0.597 112 73 74
0.452811 -0.175646 -0.564 132 93 94
0.43318 -0.167237 -0.537 160 120 120
0.428937 -0.164434 -0.528 193 143 136
0.429129 -0.164123 -0.527 197 147 140
0.431676 -0.163189 -0.524 188 133 128
0.445029 -0.164434 -0.528 135 85 76
0.472852 -0.169729 -0.545 150 108 96
0.47389 -0.169729 -0.545 148 106 94
-0.142907 -0.201787 -0.644 190 187 180
0.09116 -0.188627 -0.602 205 162 145
0.125595 -0.195833 -0.625 149 102 92
0.141762 -0.203667 -0.65 122 85 93
0.251743 -0.16732 -0.534 118 98 109
0.26492 -0.162307 -0.518 150 115 119
0.275157 -0.161367 -0.515 145 110 116
0.29346 -0.160113 -0.511 151 116 120
0.301629 -0.1598 -0.51 137 101 105
0.305885 -0.159487 -0.509 135 99 101
0.324636 -0.159173 -0.508 133 98 102
0.337517 -0.15886 -0.507 132 100 105
0.356831 -0.15886 -0.507 128 93 97
0.357797 -0.15886 -0.507 128 94 95
0.36166 -0.15886 -0.507 127 91 93
0.431676 -0.164187 -0.524 185 132 126
0.433672 -0.164187 -0.524 184 131 125
0.454154 -0.16732 -0.534 127 82 77
0.457897 -0.167947 -0.536 131 84 78
-0.157627 -0.203013 -0.644 180 180 172
-0.143129 -0.203329 -0.645 190 187 178
0.129 -0.1986 -0.63 142 97 91
0.130613 -0.19923 -0.632 141 97 96
0.257523 -0.164239 -0.521 148 117 122
0.269794 -0.162663 -0.516 145 110 114
0.273195 -0.162348 -0.515 144 109 115
0.301037 -0.160456 -0.509 137 101 105
0.323997 -0.159826 -0.507 133 98 102
0.488313 -0.196393 -0.623 66 45 54
0.488324 -0.195448 -0.62 83 60 68
0.489894 -0.195132 -0.619 67 44 52
0.4385 -0.1655 -0.525 156 104 93
0.0805714 -0.190286 -0.6 213 170 154
0.0815781 -0.189969 -0.599 214 171 154
0.1073 -0.19314 -0.609 173 121 107
0.132443 -0.201386 -0.635 135 91 90
0.253943 -0.167451 -0.528 108 85 93
0.26099 -0.164914 -0.52 148 113 117
0.263933 -0.16428 -0.518 148 112 114
0.269794 -0.163646 -0.516 143 108 112
0.271233 -0.163329 -0.515 145 110 114
0.276138 -0.163329 -0.515 144 109 115
0.279951 -0.162694 -0.513 143 108 114
0.291513 -0.16206 -0.511 150 114 118
0.306251 -0.161109 -0.508 134 100 99
0.31883 -0.161109 -0.508 136 102 103
0.319798 -0.161109 -0.508 136 102 103
0.32786 -0.160791 -0.507 132 103 105
0.329141 -0.160474 -0.506 227 205 208
0.331069 -0.160474 -0.506 226 203 209
0.351309 -0.160474 -0.506 129 94 98
0.353236 -0.160474 -0.506 129 94 98
0.3542 -0.160474 -0.506 129 94 98
0.356128 -0.160474 -0.506 129 94 98
0.36673 -0.160474 -0.506 198 173 176
0.483567 -0.19758 -0.623 76 56 67
0.4295 -0.1665 -0.525 195 145 136
-0.138048 -0.207381 -0.65 191 191 181
0.0804371 -0.19111 -0.599 213 170 154
0.08386 -0.19111 -0.599 214 173 155
0.0872829 -0.19111 -0.599 211 170 152
0.0993514 -0.192386 -0.603 187 146 126
0.25701 -0.167181 -0.524 96 73 81
0.270707 -0.16399 -0.514 146 111 115
0.280929 -0.163671 -0.513 143 106 113
0.281906 -0.163671 -0.513 142 107 113
0.301037 -0.162395 -0.509 135 101 102
0.303349 -0.162076 -0.508 134 100 99
0.336186 -0.161119 -0.505 131 96 100
0.34167 -0.161438 -0.506 129 94 100
0.348417 -0.161438 -0.506 130 95 99
0.350345 -0.161438 -0.506 129 94 98
0.351309 -0.161438 -0.506 129 94 98
0.49028 -0.197171 -0.618 67 36 41
0.4315 -0.1675 -0.525 187 135 124
0.43467 -0.167181 -0.524 172 123 116
0.441174 -0.168138 -0.527 150 98 87
-0.151771 -0.20541 -0.64 184 184 176
-0.147584 -0.206372 -0.643 188 185 178
