ply
format ascii 1.0
comment Created by Open3D
element vertex 1328
property double x
property double y
property double z
property uchar red
property uchar green
property uchar blue
end_header
0.142191 -0.183077 -0.477 181 133 123
0.145214 -0.18231 -0.475 180 132 120
0.15091 -0.181542 -0.473 184 134 123
0.184867 -0.18039 -0.47 135 92 86
0.186157 -0.180774 -0.471 135 92 86
0.18835 -0.181158 -0.472 129 88 82
0.191452 -0.181542 -0.473 128 87 81
0.213862 -0.186148 -0.485 114 76 73
0.232338 -0.193056 -0.503 84 63 68
0.283706 -0.215317 -0.561 71 48 54
0.29588 -0.20956 -0.546 92 67 73
0.311015 -0.20649 -0.538 109 82 89
0.315231 -0.20457 -0.533 111 86 92
0.321934 -0.203035 -0.529 115 88 95
0.331759 -0.202268 -0.527 127 105 117
0.332763 -0.202268 -0.527 123 101 113
0.37356 -0.217236 -0.566 62 65 82
0.39516 -0.204954 -0.534 149 100 96
0.416429 -0.203419 -0.53 139 89 88
0.43076 -0.204954 -0.534 131 82 78
0.437271 -0.206106 -0.537 131 83 79
0.444033 -0.206873 -0.539 140 95 92
-0.167357 -0.246471 -0.639 188 185 176
-0.16588 -0.246086 -0.638 189 186 177
-0.0449819 -0.249557 -0.647 73 73 83
0.145811 -0.182829 -0.474 182 134 122
0.161794 -0.180514 -0.468 175 125 114
0.162686 -0.180514 -0.468 176 126 115
0.180514 -0.180514 -0.468 139 94 88
0.183971 -0.181286 -0.47 135 92 86
0.205257 -0.185143 -0.48 117 78 73
0.206601 -0.185529 -0.481 115 78 72
0.207517 -0.185529 -0.481 115 78 72
0.299977 -0.209829 -0.544 97 72 76
0.413373 -0.2322 -0.602 59 56 73
0.428374 -0.237986 -0.617 70 67 84
0.4028 -0.2052 -0.532 136 87 83
0.405077 -0.204814 -0.531 145 95 94
-0.326399 -0.249239 -0.643 251 254 247
-0.170323 -0.248464 -0.641 186 186 174
-0.0492943 -0.247689 -0.639 72 70 81
0.140343 -0.186057 -0.48 178 128 117
0.143405 -0.184119 -0.475 180 130 119
0.149108 -0.183344 -0.473 182 134 122
0.155985 -0.182956 -0.472 181 131 120
0.15801 -0.182181 -0.47 177 127 116
0.169979 -0.18063 -0.466 166 116 105
0.194071 -0.184119 -0.475 131 88 81
0.197614 -0.184894 -0.477 122 82 72
0.20167 -0.185282 -0.478 117 80 74
0.205257 -0.186057 -0.48 115 78 72
0.21022 -0.18722 -0.483 106 71 67
0.217489 -0.189546 -0.489 107 72 68
0.236543 -0.197686 -0.51 81 64 70
0.285843 -0.217454 -0.561 70 52 64
0.287503 -0.216291 -0.558 74 54 65
0.288049 -0.215904 -0.557 76 54 66
0.291771 -0.213966 -0.552 82 61 70
0.29949 -0.211252 -0.545 98 71 78
0.301013 -0.210865 -0.544 99 72 77
0.325349 -0.204663 -0.528 131 105 114
0.348816 -0.209702 -0.541 37 29 42
0.384117 -0.223656 -0.577 79 81 94
0.388993 -0.225207 -0.581 66 63 80
0.391443 -0.225982 -0.583 66 63 80
0.4434 -0.2442 -0.63 74 70 87
0.393546 -0.210477 -0.543 161 113 109
0.411381 -0.205438 -0.53 128 78 69
0.416429 -0.205438 -0.53 136 87 83
0.42126 -0.205826 -0.531 141 92 87
0.447742 -0.209702 -0.541 134 88 88
0.45604 -0.21164 -0.546 141 91 100
0.460637 -0.212803 -0.549 126 81 75
-0.319211 -0.247737 -0.636 253 255 249
-0.16008 -0.250853 -0.644 189 186 177
0.14001 -0.18775 -0.482 184 136 126
0.165541 -0.181518 -0.466 172 118 106
0.168204 -0.181518 -0.466 172 118 106
0.169979 -0.181518 -0.466 166 114 103
0.17746 -0.181908 -0.467 151 104 94
0.180514 -0.182297 -0.468 138 94 83
0.194976 -0.185024 -0.475 127 86 80
0.19985 -0.186192 -0.478 118 83 77
0.204343 -0.186971 -0.48 115 78 72
0.2093 -0.18814 -0.483 112 77 71
0.245091 -0.203331 -0.522 75 56 62
0.289663 -0.215796 -0.554 79 59 71
0.301567 -0.21229 -0.545 100 73 80
0.303086 -0.211901 -0.544 101 74 79
0.30999 -0.209564 -0.538 109 83 86
0.31146 -0.209174 -0.537 109 84 87
0.317083 -0.206837 -0.531 115 88 93
0.323337 -0.205669 -0.528 120 90 100
0.440796 -0.244621 -0.628 81 77 94
0.39364 -0.21268 -0.546 165 114 110
0.397194 -0.208006 -0.534 144 95 91
0.398211 -0.208006 -0.534 144 95 91
0.40584 -0.207227 -0.532 146 95 91
0.418448 -0.206448 -0.53 138 89 82
0.433605 -0.208395 -0.535 126 79 73
0.442185 -0.209564 -0.538 134 89 83
0.444033 -0.209953 -0.539 133 90 83
0.445886 -0.210343 -0.54 131 88 81
0.447742 -0.210732 -0.541 129 88 82
0.451466 -0.211511 -0.543 129 89 90
-0.0483029 -0.251297 -0.642 71 70 78
0.156551 -0.184363 -0.471 184 136 124
0.169979 -0.182406 -0.466 164 112 101
0.179623 -0.183189 -0.468 137 93 84
0.1809 -0.18358 -0.469 135 91 82
0.183971 -0.183971 -0.47 139 94 88
0.203429 -0.187886 -0.48 117 80 71
0.287899 -0.226246 -0.578 64 52 66
0.2885 -0.225854 -0.577 68 56 70
0.288493 -0.219983 -0.562 73 55 67
0.289049 -0.219591 -0.561 73 55 67
0.290186 -0.217243 -0.555 80 60 72
0.2923 -0.217243 -0.555 82 61 70
0.29592 -0.214503 -0.548 92 66 75
0.317262 -0.208631 -0.533 112 87 91
0.362315 -0.218026 -0.557 44 42 55
0.3939 -0.228986 -0.585 105 104 120
0.407666 -0.233683 -0.597 62 59 76
0.407867 -0.20824 -0.532 132 82 75
0.410134 -0.207849 -0.531 129 79 72
0.41441 -0.207457 -0.53 137 87 80
0.468843 -0.217243 -0.555 126 86 84
-0.330894 -0.254487 -0.647 252 253 245
-0.280293 -0.253307 -0.644 255 255 253
-0.277472 -0.254093 -0.646 252 252 250
-0.169102 -0.252127 -0.641 189 187 175
-0.1664 -0.251733 -0.64 190 188 176
-0.0697371 -0.25488 -0.648 65 64 70
-0.0623886 -0.25016 -0.636 68 67 75
-0.0483029 -0.25252 -0.642 72 71 79
0.148207 -0.186047 -0.473 181 131 120
0.15181 -0.186047 -0.473 181 129 118
0.17353 -0.183293 -0.466 156 108 98
0.21109 -0.190767 -0.485 109 76 71
0.2455 -0.2065 -0.525 76 54 57
0.292109 -0.22892 -0.582 68 56 70
0.302605 -0.214367 -0.545 101 76 82
0.312922 -0.210827 -0.536 109 84 88
0.333394 -0.20768 -0.528 126 101 105
0.337311 -0.20886 -0.531 83 66 72
0.37206 -0.22302 -0.567 53 57 69
0.394757 -0.21594 -0.549 157 118 119
0.397194 -0.21004 -0.534 143 94 90
0.415191 -0.20886 -0.531 137 87 78
0.417438 -0.208467 -0.53 145 97 87
-0.333667 -0.256905 -0.65 251 252 244
-0.278271 -0.254929 -0.645 252 252 250
-0.169102 -0.253348 -0.641 189 187 174
-0.167881 -0.253348 -0.641 189 187 175
-0.162234 -0.252162 -0.638 192 189 180
-0.0584771 -0.250186 -0.633 67 66 74
-0.0516476 -0.252162 -0.638 67 67 75
0.141893 -0.188133 -0.476 185 137 125
0.149108 -0.186948 -0.473 180 130 119
0.15181 -0.186948 -0.473 180 128 117
0.165007 -0.184576 -0.467 163 113 104
0.186552 -0.186552 -0.472 132 89 83
0.187849 -0.186948 -0.473 131 88 82
0.199355 -0.189319 -0.479 119 78 72
0.219268 -0.194852 -0.493 98 68 68
0.291705 -0.222124 -0.562 76 58 70
0.294905 -0.217381 -0.55 89 66 76
0.312922 -0.211848 -0.536 110 83 88
0.326354 -0.208686 -0.528 200 180 192
0.338582 -0.210662 -0.533 67 50 56
0.37643 -0.226076 -0.572 67 70 87
0.43631 -0.247024 -0.625 63 59 74
0.4434 -0.249 -0.63 67 60 76
0.445306 -0.249395 -0.631 73 66 82
0.394361 -0.216195 -0.547 168 117 114
0.398211 -0.211057 -0.534 140 90 89
0.407618 -0.210662 -0.533 138 85 77
0.423283 -0.209871 -0.531 144 96 84
0.425093 -0.210267 -0.532 136 88 76
0.428938 -0.210662 -0.533 128 81 75
0.431777 -0.211057 -0.534 124 79 73
0.435436 -0.211848 -0.536 128 83 78
0.445886 -0.213429 -0.54 133 88 85
-0.330894 -0.256951 -0.647 251 254 245
-0.172347 -0.25576 -0.644 187 187 175
-0.167619 -0.254171 -0.64 189 187 175
-0.156619 -0.258143 -0.65 191 189 177
0.139533 -0.1946 -0.49 187 140 130
0.13932 -0.193011 -0.486 185 138 128
0.141893 -0.18904 -0.476 185 137 125
0.144909 -0.188246 -0.474 185 137 125
0.157114 -0.186657 -0.47 185 136 122
0.164469 -0.185863 -0.468 171 119 108
0.17746 -0.185466 -0.467 149 100 93
0.193573 -0.18904 -0.476 127 83 80
0.2016 -0.190629 -0.48 117 76 72
0.295441 -0.218826 -0.551 90 64 73
0.300529 -0.216443 -0.545 98 73 77
0.30999 -0.213663 -0.538 112 83 88
0.317262 -0.211677 -0.533 115 88 93
0.328366 -0.209691 -0.528 154 134 145
0.377089 -0.227563 -0.573 68 71 88
0.401607 -0.223591 -0.563 107 84 92
0.462524 -0.218429 -0.55 124 78 78
-0.330894 -0.258184 -0.647 251 254 247
-0.310731 -0.253794 -0.636 131 136 130
-0.308793 -0.254193 -0.637 117 119 116
-0.0549467 -0.252996 -0.634 66 66 74
0.139533 -0.195533 -0.49 187 140 130
0.1425 -0.189548 -0.475 188 140 126
0.15091 -0.18875 -0.473 181 132 118
0.198443 -0.191144 -0.479 117 76 72
0.203358 -0.192341 -0.482 115 74 72
0.204276 -0.192341 -0.482 114 73 71
0.211033 -0.194336 -0.487 109 74 72
0.234026 -0.204711 -0.513 90 64 63
0.296964 -0.218678 -0.548 95 70 76
0.374685 -0.227856 -0.571 70 72 87
0.423952 -0.245015 -0.614 69 65 80
0.437706 -0.250203 -0.627 62 58 73
0.4422 -0.2514 -0.63 62 58 73
0.395046 -0.214688 -0.538 161 108 100
0.398211 -0.213091 -0.534 140 91 87
0.399496 -0.212692 -0.533 134 85 80
0.415419 -0.211495 -0.53 144 94 87
0.419457 -0.211495 -0.53 149 99 90
0.447742 -0.215885 -0.541 120 75 72
-0.274238 -0.260619 -0.65 252 253 248
-0.0668114 -0.253402 -0.632 67 67 77
-0.0539086 -0.255006 -0.636 67 67 77
-0.05278 -0.255407 -0.637 68 68 78
-0.0439524 -0.260619 -0.65 72 72 82
0.139758 -0.191655 -0.478 185 136 122
0.149108 -0.18965 -0.473 183 134 120
0.152389 -0.18925 -0.472 184 135 121
0.168204 -0.186844 -0.466 167 112 105
0.1809 -0.188047 -0.469 137 90 84
0.182181 -0.188448 -0.47 134 89 84
0.20202 -0.192858 -0.481 117 73 72
0.2047 -0.19366 -0.483 113 73 71
0.298506 -0.229746 -0.573 81 59 71
0.29649 -0.220925 -0.551 93 66 71
0.297 -0.220524 -0.55 95 68 73
0.311015 -0.215712 -0.538 110 83 88
0.314376 -0.21451 -0.535 112 85 90
0.321533 -0.212505 -0.53 120 93 100
0.3382 -0.214109 -0.534 55 44 52
0.375341 -0.229345 -0.572 83 82 98
0.427891 -0.247789 -0.618 82 78 93
0.402542 -0.213708 -0.533 129 79 72
0.403557 -0.213708 -0.533 127 74 68
0.409649 -0.213708 -0.533 145 94 90
0.413169 -0.212906 -0.531 141 88 82
0.417438 -0.212505 -0.53 151 101 94
0.445886 -0.216514 -0.54 126 82 79
0.461683 -0.220123 -0.549 125 76 79
0.470747 -0.22293 -0.556 124 83 81
-0.30952 -0.256217 -0.636 154 159 152
-0.17112 -0.25944 -0.644 189 189 179
-0.169366 -0.258634 -0.642 189 189 179
-0.156619 -0.261857 -0.65 195 193 181
-0.0734067 -0.25662 -0.637 67 67 79
-0.0629 -0.253397 -0.629 67 67 77
-0.0582924 -0.254203 -0.631 67 67 77
-0.0483781 -0.259037 -0.643 71 71 81
0.156219 -0.189343 -0.47 186 137 123
0.165007 -0.188134 -0.467 165 113 102
0.169091 -0.187731 -0.466 163 110 104
0.172642 -0.187731 -0.466 155 106 99
0.17353 -0.187731 -0.466 152 103 96
0.180007 -0.18894 -0.469 135 90 84
0.182181 -0.189343 -0.47 135 90 85
0.195297 -0.192566 -0.478 119 79 77
0.198857 -0.193371 -0.48 116 76 74
0.211467 -0.196594 -0.488 105 71 70
0.228842 -0.204651 -0.508 86 64 66
0.304122 -0.219154 -0.544 105 78 85
0.305069 -0.218349 -0.542 104 77 82
0.307597 -0.217946 -0.541 107 80 85
0.351242 -0.220766 -0.548 38 30 41
0.36947 -0.228823 -0.568 106 102 116
0.395082 -0.220766 -0.548 162 113 109
0.395046 -0.216737 -0.538 162 105 96
0.399229 -0.215126 -0.534 135 85 76
0.448772 -0.217946 -0.541 124 80 77
0.450634 -0.218349 -0.542 123 85 74
-0.317287 -0.257833 -0.637 254 255 250
-0.310007 -0.257833 -0.637 205 210 203
-0.275476 -0.263095 -0.65 253 253 251
-0.169366 -0.259857 -0.642 189 189 179
-0.0639962 -0.25419 -0.628 67 67 77
-0.0561543 -0.256619 -0.634 67 67 79
-0.0438848 -0.26269 -0.649 71 71 81
0.13811 -0.19631 -0.485 185 141 130
0.144006 -0.191857 -0.474 187 138 124
0.172642 -0.188619 -0.466 153 104 97
0.20286 -0.1955 -0.483 112 78 76
0.215511 -0.199548 -0.493 96 65 63
0.30108 -0.221 -0.546 102 77 81
0.304122 -0.22019 -0.544 106 79 84
0.30999 -0.217762 -0.538 109 82 87
0.312922 -0.216952 -0.536 111 84 91
0.37556 -0.232333 -0.574 70 68 81
0.436511 -0.253786 -0.627 61 57 74
0.441 -0.255 -0.63 66 59 75
0.412157 -0.214929 -0.531 143 93 86
0.41418 -0.214929 -0.531 140 90 83
0.436457 -0.216952 -0.536 131 83 81
0.44321 -0.217762 -0.538 130 84 84
0.458959 -0.221405 -0.547 124 80 79
0.461683 -0.222214 -0.549 122 78 77
-0.0517286 -0.25986 -0.639 69 69 81
-0.0505905 -0.260267 -0.64 69 69 81
-0.0483781 -0.261487 -0.643 71 71 83
-0.0438848 -0.263927 -0.649 71 71 83
0.15967 -0.189913 -0.467 190 138 125
0.163228 -0.189913 -0.467 180 128 117
0.180007 -0.190727 -0.469 136 89 83
0.192163 -0.19398 -0.477 122 81 79
0.195706 -0.194793 -0.479 118 76 77
0.197029 -0.1952 -0.48 116 76 76
0.205548 -0.197233 -0.485 109 70 71
0.302902 -0.232207 -0.571 89 69 80
0.305631 -0.22082 -0.543 107 80 85
0.330619 -0.215533 -0.53 123 97 106
0.34788 -0.22204 -0.546 35 32 41
0.38214 -0.23546 -0.579 65 64 78
0.437208 -0.255387 -0.628 62 55 73
0.439102 -0.255793 -0.629 69 62 80
0.441992 -0.255387 -0.628 63 56 72
0.395803 -0.22326 -0.549 161 111 110
0.394753 -0.219193 -0.539 155 102 96
0.396919 -0.217567 -0.535 144 93 89
0.400246 -0.21716 -0.534 140 89 85
-0.31486 -0.26026 -0.637 252 255 251
-0.160555 -0.261894 -0.641 194 192 180
-0.155381 -0.265571 -0.65 196 194 182
-0.0856505 -0.264346 -0.647 74 73 78
-0.075119 -0.257809 -0.631 69 67 80
-0.0686714 -0.256174 -0.627 70 68 81
-0.0528629 -0.260669 -0.638 69 69 81
-0.0438848 -0.265163 -0.649 71 70 84
0.138557 -0.194889 -0.477 182 136 121
0.153533 -0.192029 -0.47 188 139 124
0.192163 -0.194889 -0.477 122 81 77
0.30212 -0.22308 -0.546 103 76 83
0.303643 -0.222671 -0.545 105 78 85
0.313943 -0.218994 -0.536 110 83 88
0.32961 -0.216543 -0.53 121 96 102
0.36472 -0.230434 -0.564 87 85 96
0.387665 -0.238606 -0.584 107 105 119
0.407429 -0.245143 -0.6 61 59 73
0.417705 -0.249229 -0.61 58 54 69
0.404572 -0.217769 -0.533 134 81 75
0.416429 -0.216543 -0.53 154 99 94
0.4699 -0.226757 -0.555 128 87 85
0.488029 -0.232886 -0.57 133 95 92
-0.318283 -0.262294 -0.639 254 255 251
-0.314139 -0.261884 -0.638 251 253 248
-0.30246 -0.262294 -0.639 243 244 239
-0.296374 -0.262294 -0.639 240 241 236
-0.284414 -0.264757 -0.645 91 91 89
-0.155142 -0.266399 -0.649 198 196 184
-0.0722543 -0.257369 -0.627 69 67 80
-0.0650886 -0.257369 -0.627 69 69 79
-0.0618 -0.2586 -0.63 68 68 78
-0.0595886 -0.259421 -0.632 68 68 78
-0.0438848 -0.266399 -0.649 72 72 84
0.138557 -0.195797 -0.477 182 136 121
0.165541 -0.191282 -0.466 169 117 106
0.172123 -0.191692 -0.467 155 106 99
0.176949 -0.192103 -0.468 139 92 86
0.193881 -0.196618 -0.479 120 79 73
0.215443 -0.203186 -0.495 91 71 70
0.301299 -0.228225 -0.556 97 67 77
0.301738 -0.226172 -0.551 99 74 80
0.311015 -0.220836 -0.538 111 82 86
0.32759 -0.217552 -0.53 121 98 106
0.400633 -0.244233 -0.595 114 112 126
0.403117 -0.245054 -0.597 78 76 90
0.405609 -0.245875 -0.599 56 54 68
0.428095 -0.254495 -0.62 84 77 93
0.434623 -0.256958 -0.626 59 52 70
0.395188 -0.222068 -0.541 158 109 104
0.401527 -0.218784 -0.533 140 87 81
0.401787 -0.218373 -0.532 141 88 82
0.415643 -0.217142 -0.529 150 95 90
0.42712 -0.218373 -0.532 130 82 78
0.466309 -0.226583 -0.552 126 85 81
0.476267 -0.229867 -0.56 129 89 87
-0.309278 -0.263099 -0.638 252 253 248
-0.293181 -0.263924 -0.64 252 252 252
-0.288431 -0.265161 -0.643 250 252 249
-0.286427 -0.265573 -0.644 248 250 247
-0.159086 -0.263924 -0.64 196 193 184
-0.0697543 -0.25815 -0.626 68 67 81
-0.0618 -0.2598 -0.63 68 68 80
0.147306 -0.195056 -0.473 186 137 122
0.147893 -0.194644 -0.472 186 137 122
0.155554 -0.192994 -0.468 188 139 124
0.22224 -0.20784 -0.504 87 66 65
0.302358 -0.229284 -0.556 95 68 75
0.302326 -0.228459 -0.554 93 70 76
0.314376 -0.220624 -0.535 113 86 91
0.31684 -0.220211 -0.534 111 86 92
0.331867 -0.219387 -0.532 128 105 111
0.411976 -0.24949 -0.605 69 65 80
0.396126 -0.225985 -0.548 163 112 109
0.395614 -0.223923 -0.543 159 110 106
0.399229 -0.220211 -0.534 140 87 81
0.401527 -0.219799 -0.533 139 86 80
0.432794 -0.220211 -0.534 128 80 76
0.434624 -0.220624 -0.535 126 81 76
0.471806 -0.229284 -0.556 129 88 86
-0.279997 -0.268871 -0.649 199 199 197
-0.278761 -0.268871 -0.649 239 239 237
-0.161019 -0.264314 -0.638 196 193 184
-0.0879667 -0.2639 -0.637 72 69 80
-0.0850029 -0.262243 -0.633 69 67 80
-0.0836648 -0.261829 -0.632 65 63 74
-0.0822 -0.261 -0.63 68 66 77
-0.0708333 -0.258929 -0.625 67 66 80
0.138267 -0.1972 -0.476 187 135 121
0.172123 -0.193471 -0.467 148 101 91
0.180774 -0.195129 -0.471 129 89 81
0.183344 -0.195957 -0.473 130 87 78
0.192969 -0.198443 -0.479 120 79 73
0.203194 -0.201343 -0.486 112 77 73
0.210816 -0.204243 -0.493 95 68 73
0.225857 -0.211286 -0.51 86 65 70
0.304476 -0.230343 -0.556 96 73 79
0.313065 -0.222886 -0.538 109 84 88
0.316414 -0.221643 -0.535 111 86 92
0.339313 -0.2233 -0.539 39 27 31
0.381037 -0.239871 -0.579 86 82 96
0.395188 -0.224129 -0.541 157 108 104
0.396357 -0.222471 -0.537 146 93 87
0.40888 -0.2204 -0.532 138 85 77
0.410134 -0.219986 -0.531 140 87 79
0.412157 -0.219986 -0.531 141 88 80
0.45812 -0.2262 -0.546 131 86 83
-0.300495 -0.266362 -0.64 253 254 249
-0.295619 -0.266362 -0.64 251 252 247
-0.28888 -0.268027 -0.644 253 255 252
-0.287653 -0.268027 -0.644 252 254 251
-0.08904 -0.264697 -0.636 72 70 84
-0.0575429 -0.264697 -0.636 68 68 80
-0.0450514 -0.269691 -0.648 70 68 79
0.151743 -0.19561 -0.47 187 135 121
0.156446 -0.194777 -0.468 191 139 125
0.166429 -0.193945 -0.466 161 113 101
0.183344 -0.196858 -0.473 128 85 78
0.313506 -0.223494 -0.537 110 85 89
0.405143 -0.249714 -0.6 61 57 74
0.426226 -0.257622 -0.619 86 79 97
0.411146 -0.220997 -0.531 139 86 78
0.415191 -0.220997 -0.531 145 95 86
0.424294 -0.220997 -0.531 131 82 75
0.460001 -0.227656 -0.547 131 86 81
-0.298523 -0.267999 -0.641 252 253 248
-0.152199 -0.270508 -0.647 199 197 185
-0.103381 -0.271762 -0.65 226 226 216
-0.0827381 -0.26131 -0.625 71 71 81
-0.0697543 -0.261728 -0.626 68 68 78
-0.0643019 -0.263818 -0.631 70 68 81
0.17898 -0.196923 -0.471 131 88 79
0.306986 -0.23037 -0.551 105 80 86
0.308267 -0.227444 -0.544 107 82 88
0.315985 -0.224099 -0.536 109 84 90
0.318277 -0.222845 -0.533 113 88 94
0.3477 -0.229534 -0.549 35 30 34
0.401787 -0.222427 -0.532 143 90 84
0.423283 -0.222009 -0.531 131 82 75
0.42712 -0.222427 -0.532 128 83 77
0.429953 -0.222845 -0.533 130 83 77
0.468207 -0.231207 -0.553 130 86 83
-0.321035 -0.27174 -0.647 252 253 248
-0.309511 -0.26922 -0.641 252 252 250
-0.284942 -0.27258 -0.649 247 249 248
-0.154691 -0.26964 -0.642 202 200 188
-0.149734 -0.27174 -0.647 199 197 184
-0.0947981 -0.26628 -0.634 77 76 84
-0.0752324 -0.26124 -0.622 70 70 80
-0.0709467 -0.26292 -0.626 69 69 79
-0.068781 -0.26376 -0.628 69 69 79
-0.0438848 -0.27258 -0.649 73 71 82
0.134857 -0.2016 -0.48 193 141 127
0.139197 -0.19866 -0.473 184 136 116
0.149952 -0.1974 -0.47 190 138 124
0.15288 -0.19656 -0.468 191 140 121
0.174647 -0.19698 -0.469 136 94 82
0.176433 -0.19698 -0.469 134 91 82
0.193774 -0.20202 -0.481 117 78 71
0.19867 -0.20328 -0.484 115 77 74
0.213044 -0.20832 -0.496 92 70 72
0.307795 -0.2289 -0.545 108 83 89
0.308267 -0.22848 -0.544 107 82 88
0.311143 -0.2268 -0.54 111 84 91
0.313506 -0.22554 -0.537 109 84 90
0.314529 -0.22554 -0.537 110 85 91
0.317857 -0.22428 -0.534 110 87 93
0.337659 -0.22596 -0.538 53 34 36
0.344129 -0.2289 -0.545 40 28 32
0.39607 -0.22596 -0.538 145 94 90
0.399229 -0.22428 -0.534 144 91 85
0.407867 -0.22344 -0.532 140 85 80
0.408111 -0.22302 -0.531 139 86 80
0.418448 -0.2226 -0.53 133 82 78
-0.309994 -0.270863 -0.642 252 252 250
-0.15421 -0.270019 -0.64 199 199 187
-0.0940505 -0.265378 -0.629 76 74 85
-0.0810257 -0.262003 -0.621 71 71 79
-0.0450514 -0.273394 -0.648 73 72 80
0.13588 -0.199983 -0.474 187 141 118
0.1416 -0.199139 -0.472 184 135 118
0.144889 -0.198717 -0.471 189 138 121
0.149057 -0.198295 -0.47 189 138 121
0.149952 -0.198295 -0.47 189 138 121
0.162878 -0.196608 -0.466 165 113 99
0.17554 -0.197873 -0.469 136 92 83
0.193774 -0.202936 -0.481 115 78 70
0.309871 -0.229938 -0.545 112 79 98
0.31409 -0.226985 -0.538 109 83 92
0.345391 -0.230782 -0.547 38 29 34
0.348967 -0.23247 -0.551 33 31 34
0.351922 -0.233735 -0.554 36 34 37
0.393437 -0.249346 -0.591 71 68 85
0.397095 -0.226985 -0.538 143 92 88
0.406853 -0.224453 -0.532 143 90 84
0.433811 -0.225297 -0.534 123 78 72
0.437478 -0.226141 -0.536 125 80 74
0.438499 -0.226141 -0.536 124 79 73
0.45812 -0.23036 -0.546 126 82 73
-0.320048 -0.275476 -0.65 252 252 250
-0.30728 -0.272933 -0.644 253 253 251
-0.294377 -0.274629 -0.648 253 254 249
-0.292359 -0.275052 -0.649 252 254 249
-0.165031 -0.275052 -0.649 233 233 231
-0.150788 -0.271662 -0.641 203 203 193
-0.139875 -0.274205 -0.647 222 220 208
-0.0844381 -0.262762 -0.62 73 73 81
-0.0764171 -0.26361 -0.622 71 71 81
-0.0753533 -0.264033 -0.623 71 71 81
-0.0599657 -0.269543 -0.636 69 69 79
-0.0542476 -0.271238 -0.64 71 71 81
0.1416 -0.200038 -0.472 185 134 117
0.172491 -0.198343 -0.468 141 94 84
0.17554 -0.198767 -0.469 136 92 83
0.185413 -0.201733 -0.476 123 83 75
0.194177 -0.204276 -0.482 115 78 70
0.226549 -0.218686 -0.516 82 66 77
0.31262 -0.228433 -0.539 111 84 93
0.31409 -0.22801 -0.538 108 82 91
0.401514 -0.253438 -0.598 48 44 61
0.419274 -0.260219 -0.614 92 86 100
0.429969 -0.263186 -0.621 59 50 69
0.407807 -0.246233 -0.581 70 64 78
0.396524 -0.233095 -0.55 155 100 95
0.395918 -0.229705 -0.542 145 94 90
0.398957 -0.226738 -0.535 148 95 91
0.400246 -0.226314 -0.534 148 97 93
0.406853 -0.225467 -0.532 147 94 88
0.40888 -0.225467 -0.532 148 95 89
0.420249 -0.225043 -0.531 128 85 76
0.422271 -0.225043 -0.531 127 85 73
0.42712 -0.225467 -0.532 127 82 76
0.451667 -0.229705 -0.542 128 81 73
0.49278 -0.242843 -0.573 133 92 86
-0.308711 -0.275437 -0.647 253 254 249
-0.300549 -0.275863 -0.648 252 252 250
-0.29854 -0.276289 -0.649 252 253 248
-0.295286 -0.276714 -0.65 254 255 250
-0.107549 -0.271606 -0.638 89 89 91
-0.0997229 -0.266923 -0.627 72 71 77
-0.0970238 -0.266071 -0.625 71 70 75
-0.0928543 -0.264369 -0.621 78 77 82
-0.0732143 -0.266071 -0.625 70 70 80
-0.0519714 -0.273309 -0.642 70 73 82
-0.0474467 -0.275437 -0.647 72 70 81
0.132751 -0.203917 -0.479 195 147 133
0.139802 -0.200937 -0.472 186 138 118
0.147847 -0.19966 -0.469 190 139 120
0.157552 -0.198383 -0.466 182 131 114
0.17681 -0.200086 -0.47 131 88 81
0.188013 -0.203491 -0.478 118 80 71
0.19458 -0.20562 -0.483 115 78 70
0.196827 -0.206046 -0.484 113 78 72
0.230177 -0.222223 -0.522 134 123 140
0.312295 -0.230737 -0.542 114 84 92
0.32843 -0.226906 -0.533 123 104 110
0.334986 -0.228609 -0.537 55 38 46
0.423868 -0.263517 -0.619 64 60 74
0.398043 -0.238826 -0.561 128 92 92
0.396445 -0.232866 -0.547 151 98 94
0.400246 -0.227331 -0.534 148 97 93
0.401263 -0.227331 -0.534 144 93 89
0.433811 -0.227331 -0.534 122 77 71
0.448971 -0.229886 -0.54 127 80 72
0.450833 -0.230311 -0.541 126 79 71
-0.1484 -0.271966 -0.636 222 221 217
-0.116965 -0.274959 -0.643 214 213 209
-0.100595 -0.267262 -0.625 76 75 83
-0.0989276 -0.265979 -0.622 70 69 77
-0.0950667 -0.265124 -0.62 70 71 76
-0.0829886 -0.264269 -0.618 72 72 80
0.168565 -0.199698 -0.467 150 104 89
0.1716 -0.200126 -0.468 137 93 82
0.174647 -0.200553 -0.469 134 91 82
0.17936 -0.201836 -0.472 123 84 77
0.184119 -0.203119 -0.475 121 80 74
0.197233 -0.207395 -0.485 113 78 72
0.313448 -0.232625 -0.544 113 86 91
0.314673 -0.230487 -0.539 112 85 92
0.342052 -0.233052 -0.545 42 31 37
0.369449 -0.245026 -0.573 65 63 76
0.374226 -0.246736 -0.577 84 82 95
0.400375 -0.255716 -0.598 54 50 65
0.403529 -0.256999 -0.601 61 57 72
0.396849 -0.234763 -0.549 152 99 95
0.413947 -0.227493 -0.532 144 91 87
0.420027 -0.227493 -0.532 125 82 73
0.441363 -0.229631 -0.537 123 78 72
0.446087 -0.230487 -0.539 127 83 74
0.473715 -0.238184 -0.557 126 85 79
-0.136714 -0.274036 -0.638 248 243 239
-0.134494 -0.274466 -0.639 248 243 239
-0.131048 -0.274895 -0.64 246 243 236
-0.112734 -0.271889 -0.633 70 70 72
-0.107059 -0.269741 -0.628 68 67 75
-0.08976 -0.264587 -0.616 71 74 81
0.152553 -0.200588 -0.467 190 142 120
0.168565 -0.200588 -0.467 150 104 89
0.187103 -0.205312 -0.478 117 78 71
0.188407 -0.205742 -0.479 118 79 72
0.192341 -0.20703 -0.482 117 80 74
0.20832 -0.213044 -0.496 96 73 79
0.315257 -0.231943 -0.54 112 87 93
0.326399 -0.228936 -0.533 125 99 108
0.343308 -0.23495 -0.547 40 31 36
0.377276 -0.249124 -0.58 82 78 92
0.39839 -0.241822 -0.563 124 90 91
0.39676 -0.23452 -0.546 148 97 96
0.405588 -0.228936 -0.533 149 98 94
0.407867 -0.228507 -0.532 154 101 97
0.429953 -0.228936 -0.533 124 81 74
0.432794 -0.229366 -0.534 124 81 74
0.480109 -0.241392 -0.562 131 92 87
-0.156403 -0.275683 -0.639 163 163 163
-0.117186 -0.272231 -0.631 76 75 80
-0.11286 -0.270506 -0.627 74 73 79
-0.0929771 -0.264897 -0.614 74 74 82
-0.0734486 -0.270506 -0.627 72 71 79
-0.0601543 -0.275251 -0.638 71 69 80
0.148423 -0.201909 -0.468 192 144 122
0.159871 -0.200614 -0.465 176 125 108
0.162529 -0.200614 -0.465 169 118 101
0.164653 -0.201046 -0.466 167 116 99
0.166429 -0.201046 -0.466 160 112 98
0.171967 -0.20234 -0.469 134 90 79
0.187103 -0.206223 -0.478 116 77 70
0.196714 -0.209674 -0.486 112 77 73
0.316871 -0.233403 -0.541 113 87 96
0.329046 -0.230383 -0.534 126 103 111
0.375523 -0.249797 -0.579 52 48 62
0.377927 -0.25066 -0.581 62 58 72
0.399904 -0.258426 -0.599 48 41 57
0.408713 -0.261877 -0.607 53 44 63
0.422689 -0.267054 -0.619 56 53 70
0.398023 -0.243326 -0.564 130 92 91
0.397571 -0.237286 -0.55 149 95 95
0.397487 -0.235991 -0.547 145 95 96
0.401263 -0.230383 -0.534 147 93 91
0.406853 -0.22952 -0.532 153 100 96
0.410907 -0.22952 -0.532 149 98 94
0.460842 -0.236423 -0.548 120 77 70
-0.1326 -0.273 -0.63 199 199 199
-0.128003 -0.273433 -0.631 145 145 147
-0.11745 -0.271267 -0.626 69 68 73
-0.114697 -0.2704 -0.624 71 70 76
-0.0906381 -0.266067 -0.614 75 75 83
-0.0767857 -0.270833 -0.625 74 72 83
-0.0636 -0.2756 -0.636 71 69 80
-0.0590314 -0.2769 -0.639 71 69 80
-0.0579048 -0.277333 -0.64 72 72 82
-0.0522143 -0.2795 -0.645 79 79 89
-0.0498343 -0.279933 -0.646 111 111 121
0.184894 -0.2067 -0.477 115 78 69
0.207375 -0.214933 -0.496 95 70 76
0.210952 -0.216667 -0.5 93 68 72
0.32049 -0.231833 -0.535 138 116 128
0.32396 -0.2314 -0.534 117 95 107
0.331299 -0.232267 -0.536 95 78 86
0.400571 -0.26 -0.6 52 45 61
0.418293 -0.266933 -0.616 68 64 81
0.398043 -0.2431 -0.561 136 93 87
0.397543 -0.234 -0.54 142 91 88
0.405588 -0.230967 -0.533 149 98 94
0.40584 -0.230533 -0.532 149 98 94
0.426107 -0.230533 -0.532 127 84 75
0.428938 -0.230967 -0.533 126 83 74
0.479254 -0.2431 -0.561 132 91 85
0.482035 -0.243967 -0.563 131 90 84
0.491286 -0.247 -0.57 133 92 86
-0.1564 -0.280293 -0.644 111 111 113
-0.135119 -0.272024 -0.625 108 109 111
-0.130566 -0.272459 -0.626 87 88 92
-0.0983419 -0.26593 -0.611 74 74 82
-0.0885867 -0.268107 -0.616 75 75 83
-0.0832571 -0.269848 -0.62 73 71 82
-0.0579952 -0.278988 -0.641 74 74 82
-0.04752 -0.282034 -0.648 81 80 88
0.129403 -0.211961 -0.487 203 161 145
0.13261 -0.205432 -0.472 192 145 125
0.152227 -0.202821 -0.466 195 143 119
0.153114 -0.202821 -0.466 192 140 118
0.163414 -0.202386 -0.465 168 116 102
0.170709 -0.203691 -0.468 133 91 79
0.183986 -0.207609 -0.477 119 80 73
0.20643 -0.215878 -0.496 101 70 67
0.319344 -0.238075 -0.547 109 85 98
0.319214 -0.237205 -0.545 108 84 97
0.32396 -0.232417 -0.534 120 98 111
0.337694 -0.236334 -0.543 40 34 38
0.383411 -0.25505 -0.586 94 94 102
0.397983 -0.235899 -0.542 139 90 83
0.402014 -0.232852 -0.535 145 94 91
0.405588 -0.231982 -0.533 147 96 92
0.413947 -0.231547 -0.532 123 79 70
0.422053 -0.231547 -0.532 132 89 80
0.460001 -0.238075 -0.547 118 78 70
-0.157857 -0.284143 -0.65 119 121 120
-0.15323 -0.280209 -0.641 113 114 116
-0.14773 -0.274526 -0.628 107 108 112
-0.112675 -0.267969 -0.613 65 65 73
-0.111326 -0.267531 -0.612 63 63 71
-0.0823409 -0.271903 -0.622 76 74 85
-0.0648114 -0.278023 -0.636 73 72 78
-0.0613695 -0.278897 -0.638 71 70 76
0.148676 -0.203709 -0.466 199 148 127
0.159528 -0.202834 -0.464 177 128 111
0.166429 -0.203709 -0.466 149 106 97
0.182693 -0.20808 -0.476 120 81 74
0.19182 -0.21114 -0.483 115 76 69
0.206847 -0.21726 -0.497 97 68 70
0.320971 -0.239554 -0.548 105 81 95
0.327624 -0.233871 -0.535 126 99 106
0.341224 -0.239117 -0.547 39 32 40
0.398619 -0.240429 -0.55 140 92 88
0.398415 -0.237806 -0.544 142 94 90
0.399703 -0.234309 -0.536 143 95 93
0.407867 -0.23256 -0.532 137 90 84
0.42104 -0.23256 -0.532 133 90 84
0.423067 -0.23256 -0.532 132 89 83
0.431777 -0.233434 -0.534 127 84 77
0.455406 -0.237806 -0.544 119 79 71
-0.133822 -0.27177 -0.619 94 95 99
-0.108104 -0.266502 -0.607 62 62 70
-0.101167 -0.266502 -0.607 69 69 77
-0.0888743 -0.271331 -0.618 75 75 85
-0.085619 -0.27221 -0.62 75 75 85
-0.0791667 -0.274405 -0.625 74 72 85
-0.0747619 -0.275722 -0.628 74 72 83
-0.0715133 -0.277039 -0.631 73 72 80
-0.0499114 -0.284064 -0.647 106 106 114
0.135917 -0.206791 -0.471 196 148 128
0.141593 -0.205913 -0.469 198 150 128
0.152786 -0.204157 -0.465 193 142 121
0.1643 -0.204157 -0.465 158 111 93
0.178839 -0.20767 -0.473 124 84 76
0.197524 -0.214255 -0.488 109 76 71
0.202365 -0.21645 -0.493 102 74 73
0.205486 -0.217768 -0.496 98 70 69
0.229806 -0.231817 -0.528 251 255 255
0.325766 -0.244989 -0.558 104 80 94
0.323548 -0.23489 -0.535 115 94 101
0.33151 -0.236208 -0.538 85 64 71
0.345394 -0.242354 -0.552 38 33 40
0.37682 -0.255087 -0.581 51 48 55
0.39884 -0.23972 -0.546 140 92 88
0.399145 -0.236208 -0.538 140 92 90
0.41192 -0.233573 -0.532 129 85 76
0.433811 -0.234451 -0.534 125 82 73
0.447943 -0.237086 -0.54 125 82 75
0.451667 -0.237964 -0.542 126 83 74
0.466513 -0.241915 -0.551 122 82 74
0.471164 -0.243232 -0.554 120 81 74
0.473924 -0.24411 -0.556 123 84 77
-0.12122 -0.26854 -0.609 61 61 69
-0.09802 -0.26854 -0.609 73 71 82
-0.0736829 -0.277359 -0.629 74 72 83
-0.0545867 -0.283973 -0.644 147 147 157
-0.0510648 -0.284855 -0.646 105 105 115
0.126892 -0.212098 -0.481 201 160 142
0.143074 -0.206366 -0.468 199 151 131
0.144857 -0.206366 -0.468 200 149 130
0.148357 -0.205043 -0.465 198 147 126
0.159528 -0.204602 -0.464 175 128 110
0.166429 -0.205484 -0.466 140 97 90
0.1805 -0.209452 -0.475 122 84 75
0.32218 -0.239437 -0.543 112 88 101
0.396576 -0.249138 -0.565 131 90 88
0.398023 -0.248697 -0.564 134 90 89
0.399103 -0.246051 -0.558 136 92 91
0.39974 -0.243847 -0.553 138 93 90
0.399257 -0.241642 -0.548 136 91 88
0.400724 -0.23635 -0.536 140 93 87
0.435643 -0.23591 -0.535 125 82 73
0.479467 -0.246933 -0.56 125 85 77
-0.131143 -0.271029 -0.612 74 75 80
-0.122931 -0.268371 -0.606 61 61 69
-0.121576 -0.267929 -0.605 61 61 69
-0.117533 -0.2666 -0.602 69 69 77
-0.106857 -0.265714 -0.6 54 54 62
-0.08708 -0.275457 -0.622 75 75 85
-0.0771543 -0.278114 -0.628 73 71 82
-0.0682305 -0.280771 -0.634 74 72 83
-0.0463571 -0.287414 -0.649 75 75 85
0.126101 -0.211686 -0.478 201 160 142
0.135629 -0.208143 -0.47 199 152 134
0.154225 -0.205486 -0.464 189 138 119
0.155992 -0.205486 -0.464 185 137 117
0.161295 -0.205486 -0.464 163 116 100
0.1643 -0.205929 -0.465 152 105 89
0.177938 -0.209471 -0.473 123 85 76
0.181787 -0.2108 -0.476 121 82 75
0.193538 -0.214786 -0.485 110 76 74
0.208511 -0.221871 -0.501 93 67 68
0.21252 -0.224086 -0.506 91 67 65
0.325877 -0.244014 -0.551 107 83 96
0.32381 -0.240914 -0.544 111 88 98
0.324152 -0.237371 -0.536 114 92 105
0.356757 -0.250214 -0.565 47 40 48
0.410914 -0.271029 -0.612 51 47 64
0.415271 -0.272357 -0.615 58 49 66
0.402766 -0.237371 -0.536 139 94 88
0.407618 -0.236043 -0.533 134 87 81
0.42104 -0.2356 -0.532 134 87 79
0.424877 -0.236043 -0.533 132 85 77
0.43076 -0.236486 -0.534 127 83 74
0.453534 -0.240471 -0.543 128 85 78
0.471164 -0.245343 -0.554 119 79 71
0.479467 -0.248 -0.56 125 85 77
0.503454 -0.256414 -0.579 132 97 95
-0.126603 -0.26997 -0.607 66 66 74
-0.0848467 -0.277087 -0.623 77 76 84
-0.0816781 -0.278421 -0.626 78 76 87
-0.0705343 -0.281534 -0.633 74 72 83
-0.0694381 -0.281979 -0.634 74 72 83
-0.0545867 -0.286427 -0.644 149 149 161
0.130257 -0.209038 -0.47 198 155 138
0.13534 -0.208593 -0.469 201 154 136
0.168926 -0.208149 -0.468 128 88 80
0.1727 -0.209483 -0.471 122 82 74
0.198333 -0.217933 -0.49 103 73 71
0.21336 -0.225939 -0.508 88 67 64
0.360367 -0.25307 -0.569 45 38 45
0.405731 -0.269526 -0.606 52 45 61
0.40401 -0.26241 -0.59 63 55 66
0.408633 -0.237058 -0.533 134 87 81
0.455406 -0.24195 -0.544 127 82 76
0.461886 -0.24373 -0.548 122 79 72
0.473071 -0.246843 -0.555 124 81 74
-0.134565 -0.275593 -0.617 93 94 98
-0.127759 -0.271127 -0.607 70 69 77
-0.125033 -0.270233 -0.605 74 74 82
-0.120571 -0.268 -0.6 70 70 78
-0.112956 -0.266213 -0.596 56 56 64
-0.111821 -0.266213 -0.596 53 53 61
-0.08722 -0.278273 -0.623 75 75 83
-0.0671286 -0.283633 -0.635 72 72 82
-0.0534429 -0.2881 -0.645 98 98 108
0.126584 -0.211273 -0.473 202 160 144
0.129362 -0.209933 -0.47 200 157 140
0.154225 -0.207253 -0.464 185 137 117
0.158644 -0.207253 -0.464 172 123 106
0.177411 -0.21172 -0.474 119 82 74
0.207557 -0.22378 -0.501 94 70 70
0.37442 -0.25862 -0.579 35 32 39
0.393965 -0.254153 -0.569 125 91 92
0.401345 -0.244773 -0.548 130 87 81
0.404808 -0.239413 -0.536 138 93 88
0.455406 -0.242987 -0.544 124 79 73
-0.10955 -0.267349 -0.596 86 86 94
-0.0985029 -0.274526 -0.612 65 66 71
-0.0861714 -0.279909 -0.624 76 76 86
-0.0762 -0.2826 -0.63 73 71 82
0.132377 -0.209931 -0.468 201 154 134
0.13921 -0.209483 -0.467 201 159 137
0.149806 -0.208137 -0.464 199 150 133
0.151573 -0.208137 -0.464 192 144 124
0.179973 -0.21352 -0.476 118 81 75
0.184757 -0.214866 -0.479 115 78 72
0.362267 -0.256583 -0.572 43 36 44
0.369189 -0.258377 -0.576 54 49 55
0.370929 -0.258826 -0.577 45 40 46
0.398569 -0.267797 -0.597 49 45 60
0.401909 -0.249406 -0.556 133 89 86
0.402171 -0.247611 -0.552 133 89 86
0.402077 -0.246266 -0.549 130 86 83
0.403244 -0.241331 -0.538 138 93 88
0.40609 -0.239986 -0.535 136 91 85
0.444234 -0.241331 -0.538 127 82 76
0.447943 -0.242229 -0.54 129 84 78
-0.124827 -0.272088 -0.604 71 74 79
-0.106679 -0.269835 -0.599 50 50 58
-0.0580857 -0.289206 -0.642 71 71 81
0.125417 -0.212625 -0.472 202 161 141
0.141575 -0.209922 -0.466 195 150 129
0.165896 -0.210372 -0.467 125 85 75
0.336014 -0.24641 -0.547 44 37 44
0.346401 -0.250915 -0.557 32 29 40
0.366357 -0.259024 -0.575 42 35 43
0.39816 -0.26488 -0.588 54 51 62
0.40256 -0.245059 -0.544 132 89 82
0.40711 -0.241005 -0.535 136 92 83
0.412694 -0.240104 -0.533 145 97 85
0.418786 -0.240104 -0.533 140 93 83
0.424877 -0.240104 -0.533 132 88 79
0.427709 -0.240554 -0.534 130 83 77
0.4816 -0.252267 -0.56 124 83 77
0.482667 -0.252267 -0.56 124 83 77
-0.112388 -0.268262 -0.593 118 121 128
-0.111258 -0.268262 -0.593 114 117 124
-0.110314 -0.268714 -0.594 117 120 127
-0.10492 -0.272333 -0.602 58 57 65
-0.0978143 -0.278214 -0.615 63 64 69
-0.0930038 -0.281381 -0.622 69 69 77
-0.0796733 -0.284548 -0.629 75 73 84
-0.0639 -0.289071 -0.639 72 70 81
-0.0615619 -0.289524 -0.64 71 69 80
0.134763 -0.211262 -0.467 199 154 133
0.152129 -0.209452 -0.463 189 138 121
0.176509 -0.214429 -0.474 117 78 71
0.350581 -0.254238 -0.562 38 33 37
0.39258 -0.2565 -0.567 135 91 92
0.399823 -0.254238 -0.562 127 86 82
0.403629 -0.250619 -0.554 127 86 80
-0.0979733 -0.27984 -0.616 61 62 67
-0.0487543 -0.294377 -0.648 72 70 81
0.129087 -0.21306 -0.469 197 154 135
0.137431 -0.212151 -0.467 201 156 135
0.138321 -0.212151 -0.467 201 156 135
0.160411 -0.210789 -0.464 153 106 88
0.170906 -0.213969 -0.471 118 79 74
0.174334 -0.214877 -0.473 115 76 71
0.188669 -0.218966 -0.482 114 79 73
0.208252 -0.229414 -0.505 87 68 72
0.340314 -0.251674 -0.554 39 33 37
0.3472 -0.2544 -0.56 38 32 36
0.372028 -0.262123 -0.577 17 14 21
0.396949 -0.256217 -0.564 130 89 85
0.403354 -0.253491 -0.558 131 87 84
0.403953 -0.25122 -0.553 125 82 76
0.404462 -0.245769 -0.541 133 88 82
0.419801 -0.242134 -0.533 139 91 81
0.432586 -0.243043 -0.535 128 81 73
0.447943 -0.245314 -0.54 128 84 75
0.452699 -0.246223 -0.542 134 89 83
0.462085 -0.248494 -0.547 125 82 76
-0.121714 -0.273714 -0.6 121 121 129
-0.112009 -0.269609 -0.591 114 117 122
-0.104746 -0.27417 -0.601 63 62 70
-0.0707571 -0.289681 -0.635 73 72 80
-0.0662305 -0.29105 -0.638 71 71 79
-0.0616581 -0.292418 -0.641 71 71 79
-0.0569514 -0.29333 -0.643 70 70 78
-0.0535257 -0.294699 -0.646 70 70 78
0.12282 -0.22034 -0.483 193 156 137
0.128193 -0.213953 -0.469 198 155 136
0.130594 -0.213497 -0.468 197 155 133
0.151247 -0.211216 -0.463 185 138 120
0.155656 -0.211216 -0.463 175 124 103
0.15742 -0.211216 -0.463 167 119 99
0.18164 -0.218059 -0.478 117 79 76
0.193409 -0.222165 -0.487 106 75 72
0.37884 -0.261853 -0.574 30 20 29
0.379933 -0.261853 -0.574 37 26 34
0.38582 -0.261397 -0.573 81 62 68
0.388143 -0.260029 -0.57 109 78 84
0.393348 -0.257748 -0.565 132 91 89
0.399823 -0.256379 -0.562 125 84 80
0.401249 -0.255923 -0.561 126 85 81
0.401948 -0.25501 -0.559 128 84 81
0.40404 -0.24908 -0.546 132 89 83
0.404743 -0.246343 -0.54 133 88 82
0.406047 -0.245887 -0.539 133 88 82
0.408891 -0.244518 -0.536 139 92 86
0.427709 -0.243606 -0.534 132 85 77
0.441363 -0.244974 -0.537 127 83 74
0.449803 -0.246799 -0.541 131 86 80
0.452699 -0.247255 -0.542 134 89 83
0.481805 -0.25501 -0.559 129 80 75
0.48287 -0.25501 -0.559 129 80 75
-0.11426 -0.270734 -0.591 117 120 125
-0.0889743 -0.287226 -0.627 69 69 79
-0.0651171 -0.292723 -0.639 70 70 78
-0.0546714 -0.295471 -0.645 71 71 79
0.125781 -0.215305 -0.47 200 157 138
0.128811 -0.214389 -0.468 199 156 137
0.135362 -0.213472 -0.466 199 157 133
0.142157 -0.213014 -0.465 198 153 132
0.179067 -0.218053 -0.476 117 80 74
0.183845 -0.219428 -0.479 117 80 74
0.192086 -0.222634 -0.486 106 76 74
0.345843 -0.257908 -0.563 40 34 38
0.372214 -0.265237 -0.579 30 25 32
0.375119 -0.263405 -0.575 40 27 34
0.395172 -0.257908 -0.563 124 86 83
0.403692 -0.255159 -0.557 125 82 76
0.405492 -0.24783 -0.541 132 87 81
0.413469 -0.244623 -0.534 142 95 85
0.418786 -0.244165 -0.533 141 93 81
0.429743 -0.244623 -0.534 130 83 75
0.434624 -0.245081 -0.535 131 84 76
0.454569 -0.248746 -0.543 131 87 78
0.473473 -0.253327 -0.553 131 88 82
0.482006 -0.255617 -0.558 128 83 77
-0.112751 -0.27094 -0.589 115 116 121
-0.103138 -0.2783 -0.605 63 64 69
-0.0999943 -0.28244 -0.614 59 60 65
-0.0901686 -0.28842 -0.627 64 64 72
0.124254 -0.21666 -0.471 199 158 138
0.130315 -0.21482 -0.467 200 158 136
0.140386 -0.2139 -0.465 197 155 131
0.147154 -0.21344 -0.464 199 154 133
0.167857 -0.2162 -0.47 120 81 74
0.18775 -0.22172 -0.482 114 75 70
0.404684 -0.25484 -0.554 122 81 75
0.412205 -0.2461 -0.535 142 94 84
0.460395 -0.2507 -0.545 131 87 78
0.463127 -0.25162 -0.547 129 84 78
0.470711 -0.25346 -0.551 130 87 81
0.4773 -0.2553 -0.555 130 87 81
-0.109757 -0.272986 -0.591 96 100 103
-0.100999 -0.283148 -0.613 59 60 65
-0.0915086 -0.290076 -0.628 62 60 71
-0.07098 -0.294233 -0.637 75 73 84
-0.068661 -0.294695 -0.638 74 73 79
-0.059401 -0.297005 -0.643 72 72 80
-0.0535257 -0.29839 -0.646 72 71 79
0.1219 -0.2231 -0.483 192 155 137
0.124886 -0.217095 -0.47 200 159 139
0.135071 -0.214786 -0.465 195 153 129
0.1395 -0.214786 -0.465 199 157 133
0.15004 -0.2134 -0.462 184 138 115
0.167857 -0.217095 -0.47 121 82 75
0.380543 -0.263286 -0.57 127 93 94
0.382043 -0.262824 -0.569 125 89 89
0.40508 -0.2522 -0.546 124 84 76
0.422847 -0.246195 -0.533 132 84 72
0.433605 -0.247119 -0.535 130 83 73
-0.109757 -0.274111 -0.591 91 95 98
-0.101833 -0.283388 -0.611 65 64 72
-0.0915086 -0.291272 -0.628 61 61 69
-0.0641 -0.297302 -0.641 72 72 82
0.121549 -0.221701 -0.478 199 157 132
0.122079 -0.219382 -0.473 199 156 139
0.142735 -0.215208 -0.464 199 154 131
0.145955 -0.214744 -0.463 196 151 128
0.14916 -0.21428 -0.462 186 141 118
0.20496 -0.23376 -0.504 84 73 87
0.370295 -0.273648 -0.59 79 56 62
0.4016 -0.259733 -0.56 123 82 76
0.403354 -0.258806 -0.558 123 82 76
0.40612 -0.25324 -0.546 125 82 75
0.406414 -0.252776 -0.545 125 82 75
0.430548 -0.248138 -0.535 129 82 72
0.442386 -0.249066 -0.537 126 82 69
0.482006 -0.258806 -0.558 131 84 74
0.573129 -0.299157 -0.645 161 179 219
-0.140524 -0.302714 -0.65 112 113 117
-0.121309 -0.278497 -0.598 113 116 123
-0.11592 -0.27384 -0.588 108 111 118
-0.10728 -0.277566 -0.596 67 68 73
-0.0928524 -0.292934 -0.629 58 58 66
-0.0780143 -0.295729 -0.635 73 71 82
-0.0675514 -0.297591 -0.639 73 73 81
-0.0629771 -0.298989 -0.642 71 71 79
0.146837 -0.215626 -0.463 194 148 125
0.17816 -0.22168 -0.476 125 86 79
0.36879 -0.276169 -0.593 85 59 68
0.3757 -0.2771 -0.595 140 106 107
0.375067 -0.270114 -0.58 139 107 108
0.379457 -0.265457 -0.57 126 94 97
0.381371 -0.264526 -0.568 126 95 100
0.383662 -0.263129 -0.565 130 91 96
0.403354 -0.259869 -0.558 120 79 73
0.405086 -0.258937 -0.556 124 81 75
0.405739 -0.258006 -0.554 126 86 78
0.442386 -0.250089 -0.537 127 83 70
0.466061 -0.255211 -0.548 133 89 80
0.473669 -0.257074 -0.552 134 90 81
0.478357 -0.258471 -0.555 132 86 73
-0.119366 -0.277766 -0.594 109 112 119
-0.108051 -0.277766 -0.594 61 62 67
-0.10728 -0.278701 -0.596 70 71 76
-0.105714 -0.280571 -0.6 78 79 84
-0.102167 -0.28665 -0.613 68 67 75
-0.093 -0.2946 -0.63 57 57 65
-0.0906 -0.2946 -0.63 60 60 68
-0.08834 -0.295068 -0.631 62 62 70
-0.0745029 -0.297406 -0.636 74 73 81
-0.0710914 -0.298341 -0.638 75 74 82
-0.0687686 -0.298809 -0.639 75 74 82
-0.0618505 -0.300679 -0.643 70 71 76
-0.0524571 -0.303017 -0.648 70 71 76
0.123095 -0.219781 -0.47 202 159 140
0.133609 -0.216508 -0.463 197 155 131
0.159871 -0.217443 -0.465 128 88 78
0.162338 -0.218378 -0.467 125 86 79
0.164469 -0.218846 -0.468 126 87 82
0.169111 -0.220249 -0.471 121 88 81
0.201831 -0.234277 -0.501 85 68 78
0.377331 -0.277766 -0.594 137 105 108
0.376399 -0.275428 -0.589 137 108 113
0.393769 -0.262334 -0.561 122 81 79
0.3984 -0.261867 -0.56 119 80 75
0.405739 -0.259061 -0.554 128 85 79
0.40606 -0.258593 -0.553 128 85 79
0.407608 -0.256255 -0.548 126 83 77
0.407452 -0.254852 -0.545 129 84 79
0.410094 -0.253917 -0.543 126 81 75
0.426691 -0.249709 -0.534 124 80 71
0.444234 -0.251579 -0.538 123 79 68
0.460395 -0.254852 -0.545 133 86 78
0.46228 -0.25532 -0.546 132 85 77
0.464169 -0.255788 -0.547 132 85 77
0.478357 -0.259529 -0.555 132 85 75
-0.108233 -0.279367 -0.595 61 62 67
-0.105094 -0.283123 -0.603 78 77 85
-0.0907438 -0.29627 -0.631 58 59 64
-0.0895419 -0.29627 -0.631 59 60 65
-0.0825914 -0.297209 -0.633 69 67 78
-0.0560733 -0.303782 -0.647 70 71 76
0.120806 -0.228189 -0.486 192 155 136
0.121178 -0.222085 -0.473 200 156 131
0.1389 -0.21739 -0.463 199 157 133
0.154774 -0.21739 -0.463 153 110 93
0.161103 -0.218798 -0.466 128 88 80
0.163577 -0.219737 -0.468 128 89 84
0.202234 -0.235701 -0.502 75 63 75
0.378557 -0.284062 -0.605 126 89 96
0.376714 -0.275141 -0.586 138 106 107
0.386977 -0.263872 -0.562 121 79 80
0.389118 -0.263872 -0.562 123 81 82
0.398753 -0.262464 -0.559 121 80 76
0.407306 -0.257769 -0.549 128 83 78
0.407608 -0.257299 -0.548 128 83 77
0.434624 -0.251195 -0.535 132 85 75
0.44814 -0.253073 -0.539 131 84 74
0.467105 -0.257299 -0.548 130 85 79
-0.114605 -0.276729 -0.587 100 103 108
-0.105269 -0.284743 -0.604 81 80 88
-0.0837971 -0.298414 -0.633 66 64 75
-0.0827219 -0.298886 -0.634 68 66 77
-0.0781371 -0.299829 -0.636 72 70 81
-0.0596781 -0.304543 -0.646 71 71 79
0.120229 -0.226286 -0.48 194 156 137
0.1474 -0.2178 -0.462 190 143 123
0.153892 -0.218271 -0.463 157 114 97
0.162338 -0.220157 -0.467 129 90 85
0.16482 -0.2211 -0.469 130 91 86
0.384267 -0.2904 -0.616 118 83 89
0.378162 -0.278143 -0.59 138 104 105
0.377076 -0.272486 -0.578 138 102 104
0.379457 -0.268714 -0.57 134 98 100
0.386977 -0.264943 -0.562 122 80 81
0.389494 -0.264471 -0.561 124 82 83
0.390563 -0.264471 -0.561 124 82 83
0.40157 -0.262586 -0.557 128 84 81
0.402631 -0.262586 -0.557 127 83 80
0.409529 -0.256929 -0.545 130 85 79
0.411404 -0.255514 -0.542 132 87 81
0.436662 -0.252214 -0.535 133 86 76
0.454764 -0.255514 -0.542 134 89 83
0.460395 -0.256929 -0.545 130 86 77
0.476633 -0.2607 -0.553 132 88 79
-0.10399 -0.288733 -0.61 80 79 87
-0.1025 -0.2911 -0.615 72 71 79
-0.100112 -0.294413 -0.622 69 70 74
-0.0792238 -0.300567 -0.635 71 69 80
-0.0677629 -0.303407 -0.641 75 75 83
-0.0550105 -0.307193 -0.649 70 70 78
-0.052619 -0.307667 -0.65 68 69 74
0.124089 -0.221047 -0.467 202 159 140
0.124978 -0.221047 -0.467 204 161 142
0.138018 -0.219153 -0.463 200 158 134
0.154774 -0.219153 -0.463 154 108 92
0.161449 -0.221047 -0.467 131 91 83
0.16482 -0.221993 -0.469 130 92 83
0.166962 -0.222467 -0.47 133 93 85
0.17816 -0.225307 -0.476 131 88 81
0.380633 -0.284473 -0.601 134 98 98
0.377007 -0.275953 -0.583 140 105 109
0.378405 -0.272167 -0.575 137 101 103
0.397689 -0.264593 -0.559 124 80 77
0.400166 -0.26412 -0.558 129 85 82
0.409095 -0.260333 -0.55 126 81 75
0.410567 -0.257967 -0.545 130 85 79
0.414 -0.2556 -0.54 132 87 81
0.415287 -0.255127 -0.539 133 89 78
0.417059 -0.253707 -0.536 139 95 84
0.41808 -0.253707 -0.536 140 93 83
0.426471 -0.253233 -0.535 132 84 74
0.435643 -0.253233 -0.535 136 88 78
0.437681 -0.253233 -0.535 134 86 76
0.445259 -0.254653 -0.538 130 81 74
0.466252 -0.258913 -0.547 129 85 76
0.470049 -0.25986 -0.549 131 87 78
-0.127854 -0.291321 -0.613 98 99 104
-0.114214 -0.278014 -0.585 94 97 102
-0.11032 -0.27944 -0.588 76 76 84
-0.0994048 -0.297024 -0.625 66 67 71
-0.0898257 -0.300826 -0.633 56 55 63
-0.0837971 -0.300826 -0.633 62 61 69
-0.0620429 -0.306529 -0.645 72 72 80
0.121305 -0.223362 -0.47 201 156 133
0.146203 -0.219085 -0.461 190 145 124
0.167857 -0.223362 -0.47 135 92 85
0.170009 -0.223837 -0.471 133 93 83
0.18202 -0.227639 -0.479 117 83 81
0.208048 -0.244272 -0.514 178 182 209
0.378177 -0.274688 -0.578 141 102 105
0.392365 -0.265658 -0.559 128 84 81
0.402968 -0.264232 -0.556 129 86 80
0.405414 -0.263757 -0.555 130 87 81
0.412643 -0.259005 -0.545 127 84 78
0.41808 -0.254728 -0.536 140 93 85
0.453925 -0.257104 -0.541 134 87 79
0.481337 -0.264232 -0.556 134 91 85
0.491687 -0.267559 -0.563 139 92 82
-0.116443 -0.279129 -0.585 94 97 102
-0.11032 -0.28056 -0.588 76 76 84
-0.0934429 -0.302031 -0.633 58 58 66
-0.0910314 -0.302031 -0.633 55 54 62
-0.0839295 -0.302509 -0.634 61 60 68
0.119769 -0.224734 -0.471 200 156 143
0.12168 -0.223303 -0.468 198 157 137
0.13772 -0.22044 -0.462 198 157 135
0.14212 -0.22044 -0.462 196 154 132
0.154774 -0.220917 -0.463 151 105 92
0.169111 -0.224734 -0.471 136 93 84
0.170009 -0.224734 -0.471 136 93 84
0.173433 -0.225689 -0.473 132 92 80
0.17816 -0.22712 -0.476 129 89 81
0.379228 -0.278174 -0.583 141 101 102
0.380789 -0.272926 -0.572 133 93 94
0.381629 -0.271971 -0.57 133 93 94
0.40606 -0.26386 -0.553 129 86 79
0.414501 -0.258611 -0.542 129 86 79
0.41734 -0.25718 -0.539 135 90 84
0.422164 -0.255749 -0.536 132 85 79
0.426691 -0.254794 -0.534 130 83 75
0.437681 -0.255271 -0.535 134 87 79
0.46436 -0.26052 -0.546 131 84 74
-0.140524 -0.311381 -0.65 99 102 107
-0.106501 -0.28647 -0.598 90 91 96
-0.0911752 -0.303716 -0.634 55 54 62
-0.0783829 -0.305632 -0.638 69 68 76
-0.0667495 -0.308028 -0.643 72 73 78
-0.0550105 -0.310902 -0.649 70 71 76
-0.052619 -0.311381 -0.65 69 70 75
0.118071 -0.227548 -0.475 197 153 140
0.128317 -0.221799 -0.463 203 162 140
0.15268 -0.22132 -0.462 158 110 98
0.153892 -0.221799 -0.463 155 108 98
0.160559 -0.223715 -0.467 139 96 87
0.162686 -0.224194 -0.468 136 96 86
0.175606 -0.227069 -0.474 131 91 81
0.199366 -0.240482 -0.502 98 80 92
0.384449 -0.269704 -0.563 132 91 89
0.3913 -0.267788 -0.559 129 85 82
0.418615 -0.257728 -0.538 129 84 78
0.431567 -0.25629 -0.535 131 84 78
0.437478 -0.25677 -0.536 137 90 82
0.44814 -0.258207 -0.539 130 83 73
0.467294 -0.262039 -0.547 133 89 80
0.47214 -0.262997 -0.549 137 92 86
0.476823 -0.264434 -0.552 133 94 89
0.489067 -0.268267 -0.56 133 93 81
-0.121629 -0.285686 -0.594 98 98 106
-0.119686 -0.283762 -0.59 96 96 104
-0.10589 -0.289052 -0.601 88 91 96
-0.101297 -0.299152 -0.622 77 80 85
-0.0988429 -0.302519 -0.629 70 71 76
-0.0981105 -0.303962 -0.632 66 67 72
-0.0817714 -0.305886 -0.636 63 62 70
0.123557 -0.223643 -0.465 202 161 143
0.1298 -0.2222 -0.462 201 160 138
0.153892 -0.222681 -0.463 152 105 95
0.162686 -0.225086 -0.468 140 100 90
0.175606 -0.227971 -0.474 130 90 80
0.193366 -0.23759 -0.494 88 71 79
0.202317 -0.243843 -0.507 181 181 207
0.381878 -0.275105 -0.572 133 91 92
0.405739 -0.266448 -0.554 133 88 83
0.417598 -0.260676 -0.542 129 84 78
0.422951 -0.258271 -0.537 128 85 78
0.426471 -0.25731 -0.535 127 84 77
0.443409 -0.258271 -0.537 128 84 75
-0.138429 -0.311926 -0.646 100 103 108
-0.119483 -0.284403 -0.589 97 97 105
-0.105269 -0.291646 -0.604 88 91 96
-0.0914629 -0.307097 -0.636 54 53 61
-0.086481 -0.306614 -0.635 54 53 61
-0.0645 -0.311443 -0.645 70 71 76
-0.0633695 -0.311926 -0.646 70 71 76
-0.0621391 -0.311926 -0.646 71 72 77
0.12892 -0.22308 -0.462 205 162 143
0.144447 -0.222597 -0.461 190 147 128
0.145325 -0.222597 -0.461 185 142 123
0.170906 -0.227426 -0.471 138 94 81
0.184078 -0.232737 -0.482 104 76 73
0.404211 -0.311926 -0.646 119 89 97
0.39034 -0.29406 -0.609 129 93 95
0.382453 -0.274263 -0.568 136 94 95
0.38394 -0.27378 -0.567 133 91 92
0.418889 -0.261226 -0.541 129 86 80
0.419143 -0.260743 -0.54 130 87 80
0.42169 -0.259777 -0.538 130 85 79
0.424206 -0.258811 -0.536 127 83 74
0.42749 -0.258329 -0.535 131 84 76
0.434624 -0.258329 -0.535 135 88 80
0.454955 -0.261226 -0.541 134 89 83
0.45974 -0.262191 -0.543 134 89 83
-0.108448 -0.28601 -0.59 71 72 77
-0.102152 -0.300552 -0.62 80 83 88
-0.0938857 -0.308309 -0.636 58 58 66
