ply
format ascii 1.0
comment Created by Open3D
element vertex 1297
property double x
property double y
property double z
property uchar red
property uchar green
property uchar blue
end_header
0.524237 -0.390369 -0.513 155 108 78
0.818525 -0.42385 -0.557 209 211 197
0.82489 -0.42385 -0.557 209 211 197
0.841866 -0.42385 -0.557 208 210 197
0.845049 -0.42385 -0.557 208 210 197
0.870511 -0.42385 -0.557 206 208 194
0.940964 -0.42309 -0.556 204 206 192
0.947318 -0.42309 -0.556 205 207 193
0.968499 -0.42309 -0.556 204 206 192
0.971676 -0.42309 -0.556 203 205 191
0.984033 -0.42385 -0.557 204 206 192
0.0135771 -0.329554 -0.432 196 153 121
0.0191581 -0.326503 -0.428 198 155 123
0.0273105 -0.326503 -0.428 193 148 117
0.0281914 -0.327266 -0.429 193 148 117
0.0298257 -0.327266 -0.429 192 147 118
0.0664771 -0.334894 -0.439 142 100 88
0.114037 -0.382191 -0.501 146 139 146
0.46311 -0.386006 -0.506 168 124 99
0.474762 -0.381429 -0.5 172 125 97
0.474763 -0.380666 -0.499 172 125 97
0.482327 -0.37914 -0.497 170 120 93
0.531279 -0.394397 -0.517 149 105 78
0.82341 -0.424149 -0.556 209 211 197
0.827646 -0.424149 -0.556 208 210 196
0.839295 -0.424149 -0.556 208 210 196
0.946259 -0.424149 -0.556 205 207 193
0.956186 -0.423386 -0.555 204 206 193
0.963204 -0.424149 -0.556 204 206 193
0.96744 -0.424149 -0.556 204 206 192
0.968499 -0.424149 -0.556 203 205 191
0.0298257 -0.328083 -0.429 192 148 119
0.0487333 -0.328848 -0.43 176 129 111
0.0545933 -0.329612 -0.431 166 120 104
0.0597952 -0.331142 -0.433 153 110 94
0.0714629 -0.339554 -0.444 127 92 86
0.0753514 -0.341849 -0.447 121 87 85
0.0949371 -0.357909 -0.468 103 79 75
0.100187 -0.364027 -0.476 98 79 75
0.46608 -0.38544 -0.504 169 123 99
0.471894 -0.383146 -0.501 171 124 96
0.478554 -0.380851 -0.498 170 123 95
0.4814 -0.380851 -0.498 168 121 93
0.510128 -0.38391 -0.502 150 113 84
0.8251 -0.424443 -0.555 207 209 195
0.829764 -0.425208 -0.556 208 210 196
0.832941 -0.425208 -0.556 209 211 197
0.838236 -0.425208 -0.556 208 210 196
0.839295 -0.425208 -0.556 206 208 194
0.842472 -0.425208 -0.556 208 210 197
0.843531 -0.425208 -0.556 208 210 197
0.846709 -0.425208 -0.556 207 209 196
0.88907 -0.425208 -0.556 206 208 194
0.9583 -0.424443 -0.555 204 206 193
0.97909 -0.425208 -0.556 204 206 193
0.0339114 -0.3289 -0.429 193 148 119
0.042181 -0.329667 -0.43 186 140 116
0.0454571 -0.329667 -0.43 180 134 111
0.06076 -0.332733 -0.434 152 109 93
0.0714629 -0.3404 -0.444 127 92 86
0.0936438 -0.357267 -0.466 104 80 78
0.10758 -0.3749 -0.489 97 77 78
0.461978 -0.390233 -0.509 165 121 96
0.463157 -0.387167 -0.505 169 125 98
0.505178 -0.382567 -0.499 158 112 86
0.524086 -0.391 -0.51 153 108 85
0.840957 -0.4255 -0.555 208 210 197
0.949843 -0.4255 -0.555 203 205 191
0.956186 -0.4255 -0.555 205 207 194
0.0183429 -0.328949 -0.428 197 154 122
0.0199267 -0.32818 -0.427 195 152 118
0.02318 -0.32818 -0.427 193 150 118
0.0470952 -0.330486 -0.43 173 126 106
0.0503714 -0.330486 -0.43 175 126 111
0.0545933 -0.331254 -0.431 168 120 106
0.062701 -0.335097 -0.436 147 103 90
0.0861171 -0.352774 -0.459 107 82 78
0.123789 -0.401194 -0.522 166 170 199
0.466774 -0.408111 -0.531 141 109 96
0.461953 -0.400426 -0.521 162 121 93
0.460642 -0.395046 -0.514 162 120 95
0.468988 -0.386591 -0.503 169 125 98
0.476657 -0.382749 -0.498 170 123 95
0.48419 -0.381211 -0.496 171 121 94
0.48608 -0.381211 -0.496 170 120 93
0.583019 -0.425789 -0.554 193 186 180
0.857871 -0.426557 -0.555 206 210 196
0.0199267 -0.328993 -0.427 194 151 117
0.0330171 -0.329764 -0.428 194 147 121
0.0545933 -0.332075 -0.431 166 120 105
0.0563657 -0.332846 -0.432 161 115 100
0.0609 -0.335157 -0.435 152 106 93
0.0664771 -0.338239 -0.439 138 98 86
0.0786029 -0.347485 -0.451 115 86 82
0.46608 -0.38832 -0.504 166 122 95
0.476664 -0.384468 -0.499 168 123 94
0.486986 -0.381386 -0.495 171 122 92
0.501196 -0.382156 -0.496 165 118 92
0.791271 -0.427614 -0.555 209 211 198
0.831443 -0.427614 -0.555 206 208 195
0.834614 -0.427614 -0.555 208 210 196
0.835671 -0.427614 -0.555 208 210 197
0.837786 -0.427614 -0.555 207 209 196
0.8473 -0.427614 -0.555 208 210 197
0.849414 -0.427614 -0.555 208 210 197
0.851529 -0.427614 -0.555 207 209 196
0.852586 -0.427614 -0.555 207 209 196
0.856814 -0.427614 -0.555 205 209 195
0.0079619 -0.339848 -0.44 189 150 121
0.0338324 -0.330579 -0.428 189 145 116
0.0420829 -0.331351 -0.429 183 137 113
0.0461686 -0.331351 -0.429 174 127 107
0.0469857 -0.331351 -0.429 172 125 105
0.0520095 -0.332124 -0.43 169 122 106
0.0571886 -0.333669 -0.432 159 113 98
0.0988629 -0.366109 -0.474 103 78 81
0.105776 -0.374605 -0.485 100 80 79
0.114265 -0.387735 -0.502 144 146 169
0.515934 -0.388508 -0.503 153 111 89
0.581966 -0.426354 -0.552 192 182 172
0.845773 -0.427899 -0.554 208 210 197
0.00790762 -0.338363 -0.437 191 150 122
0.0142667 -0.331394 -0.428 197 154 122
0.01586 -0.33062 -0.427 196 153 121
0.0166733 -0.33062 -0.427 195 152 120
0.0404486 -0.332169 -0.429 187 141 117
0.0461686 -0.332169 -0.429 175 127 107
0.0706171 -0.343783 -0.444 128 93 87
0.0869914 -0.355397 -0.459 109 84 80
0.0880571 -0.356171 -0.46 108 83 79
0.100187 -0.36856 -0.476 99 77 79
0.104204 -0.373206 -0.482 96 81 78
0.465385 -0.407274 -0.526 152 114 93
0.463146 -0.401854 -0.519 160 118 93
0.462038 -0.393337 -0.508 165 121 94
0.467071 -0.389466 -0.503 168 124 95
0.475709 -0.385594 -0.498 171 126 97
0.511905 -0.387143 -0.5 152 111 89
0.836276 -0.428954 -0.554 206 208 194
0.0346476 -0.33221 -0.428 185 142 110
0.0403543 -0.33221 -0.428 187 141 115
0.0478029 -0.332986 -0.429 175 126 109
0.04862 -0.332986 -0.429 173 124 107
0.0494371 -0.332986 -0.429 172 123 106
0.0736486 -0.346957 -0.447 120 89 84
0.47963 -0.425352 -0.548 122 103 99
0.463938 -0.404395 -0.521 158 111 91
0.463146 -0.402843 -0.519 160 113 93
0.4617 -0.398186 -0.513 166 120 96
0.461914 -0.395857 -0.51 167 120 90
0.463006 -0.394305 -0.508 166 121 90
0.469986 -0.388871 -0.501 170 125 96
0.47094 -0.388871 -0.501 172 127 98
0.497293 -0.383438 -0.494 169 122 92
0.509857 -0.386543 -0.498 154 110 85
0.518809 -0.390424 -0.503 152 110 85
0.522867 -0.392752 -0.506 150 110 85
0.0706171 -0.345474 -0.444 127 93 84
0.0716238 -0.346252 -0.445 124 91 84
0.08932 -0.35948 -0.462 106 82 78
0.09514 -0.364927 -0.469 103 79 77
0.119933 -0.399941 -0.514 145 152 180
0.46512 -0.39216 -0.504 167 123 96
0.469011 -0.390604 -0.502 170 125 96
0.472857 -0.389048 -0.5 175 128 100
0.486943 -0.384379 -0.494 173 124 94
0.487835 -0.383601 -0.493 171 122 92
0.49253 -0.383601 -0.493 171 124 96
0.498165 -0.383601 -0.493 166 119 91
0.574586 -0.424062 -0.545 161 136 116
0.581952 -0.427952 -0.55 192 180 166
0.840033 -0.430287 -0.553 207 209 196
0.0403543 -0.33384 -0.428 185 139 113
0.0648048 -0.34242 -0.439 137 99 88
0.105994 -0.37908 -0.486 98 78 77
0.112631 -0.38922 -0.499 145 137 148
0.124026 -0.40794 -0.523 119 133 162
0.474833 -0.42042 -0.539 131 108 100
0.465611 -0.40872 -0.524 151 113 100
0.462519 -0.4017 -0.515 166 120 96
0.463006 -0.39624 -0.508 168 123 94
0.473812 -0.38922 -0.499 176 129 101
0.47854 -0.38766 -0.497 174 127 99
0.483179 -0.38532 -0.494 168 121 91
0.485061 -0.38532 -0.494 173 124 94
0.491591 -0.38454 -0.493 174 124 97
0.50388 -0.38532 -0.494 163 116 88
0.512703 -0.38844 -0.498 153 111 86
0.515714 -0.39 -0.5 153 111 86
0.0206429 -0.33231 -0.425 192 149 117
0.0403543 -0.334655 -0.428 181 135 109
0.0461686 -0.335437 -0.429 175 129 106
0.04862 -0.335437 -0.429 172 126 103
0.0511905 -0.336219 -0.43 167 122 101
0.0554143 -0.337001 -0.431 157 114 97
0.0696143 -0.346384 -0.443 128 95 86
0.080499 -0.353421 -0.452 112 88 78
0.0914743 -0.362804 -0.464 105 81 77
0.110786 -0.387043 -0.495 115 108 116
0.461847 -0.399553 -0.511 166 120 94
0.473812 -0.39017 -0.499 175 130 101
0.475709 -0.389389 -0.498 176 129 101
0.479467 -0.387825 -0.496 175 128 98
0.572455 -0.423792 -0.542 146 123 105
0.00468857 -0.428744 -0.547 190 150 115
0.0101667 -0.334687 -0.427 194 154 119
0.01098 -0.334687 -0.427 195 155 120
0.0125771 -0.333903 -0.426 194 154 119
0.0133886 -0.333903 -0.426 196 153 119
0.0174048 -0.333119 -0.425 193 150 116
0.0445343 -0.336254 -0.429 175 129 106
0.0528286 -0.337038 -0.43 162 120 98
0.0599333 -0.340173 -0.434 145 106 89
0.0716238 -0.348795 -0.445 121 92 84
0.0765438 -0.35193 -0.449 119 92 85
0.464678 -0.445204 -0.568 157 166 181
0.479238 -0.426392 -0.544 127 105 94
0.46661 -0.410716 -0.524 146 109 91
0.464227 -0.406013 -0.518 153 116 97
0.479467 -0.38877 -0.496 172 125 95
0.484079 -0.386418 -0.493 174 125 95
0.517619 -0.391905 -0.5 152 112 86
0.527763 -0.397391 -0.507 151 111 85
0.5329 -0.400527 -0.511 151 111 85
0.586143 -0.431095 -0.55 192 183 174
0.947791 -0.445988 -0.569 188 190 177
1.00996 -0.445204 -0.568 107 107 109
1.01104 -0.445204 -0.568 107 107 109
0.0174048 -0.333929 -0.425 193 150 116
0.0304286 -0.334714 -0.426 189 143 117
0.0328629 -0.334714 -0.426 186 141 112
0.0502543 -0.337071 -0.429 168 123 100
0.06762 -0.3465 -0.441 131 96 90
0.0975467 -0.370857 -0.472 100 79 78
0.464119 -0.396786 -0.505 167 122 99
0.493406 -0.386571 -0.492 173 127 94
0.500903 -0.386571 -0.492 169 122 92
0.5798 -0.429 -0.546 175 149 132
1.02212 -0.450214 -0.573 103 104 106
0.00856 -0.337101 -0.428 195 154 122
0.0648048 -0.345765 -0.439 135 96 89
0.0827667 -0.358367 -0.455 108 83 79
0.10173 -0.37727 -0.479 100 76 72
0.11826 -0.402473 -0.511 204 211 221
0.45846 -0.44658 -0.567 69 88 121
0.476002 -0.423739 -0.538 132 104 93
0.468055 -0.395385 -0.502 167 121 95
0.4785 -0.389871 -0.495 173 126 96
0.484079 -0.388296 -0.493 174 125 95
0.485018 -0.388296 -0.493 174 125 93
0.491531 -0.387509 -0.492 174 128 95
0.503714 -0.387509 -0.492 166 121 90
0.516497 -0.392234 -0.498 152 111 81
0.586123 -0.432403 -0.549 193 187 175
0.588238 -0.43319 -0.55 196 190 178
1.03503 -0.456031 -0.579 101 104 109
0.00373714 -0.344232 -0.436 191 151 116
0.0109543 -0.336337 -0.426 194 154 119
0.0303571 -0.335548 -0.425 186 141 112
0.0419848 -0.337916 -0.428 177 130 104
0.057321 -0.341864 -0.433 151 109 95
0.0694571 -0.34897 -0.442 128 93 89
0.08172 -0.358444 -0.454 114 84 82
0.105994 -0.383709 -0.486 101 78 72
0.10758 -0.386077 -0.489 98 81 74
0.463973 -0.401078 -0.508 166 121 98
0.474763 -0.393972 -0.499 178 128 101
0.48872 -0.388446 -0.492 174 125 95
0.492469 -0.388446 -0.492 174 128 95
0.492403 -0.387656 -0.491 173 126 96
0.51546 -0.392393 -0.497 155 114 86
0.977226 -0.450818 -0.571 111 111 103
0.0352971 -0.337149 -0.426 185 138 110
0.0361933 -0.33794 -0.427 185 138 112
0.0848714 -0.361683 -0.457 111 83 80
0.463654 -0.406003 -0.513 158 113 90
0.467099 -0.397297 -0.502 170 126 99
0.484034 -0.389383 -0.492 169 120 90
0.491468 -0.388591 -0.491 174 125 93
0.500733 -0.3878 -0.49 167 120 90
0.00213333 -0.355413 -0.448 191 151 116
0.03124 -0.33796 -0.426 184 139 110
0.0564962 -0.343513 -0.433 148 111 95
0.0609 -0.3451 -0.435 143 107 95
0.0618705 -0.345893 -0.436 143 107 95
0.0765438 -0.356207 -0.449 115 88 81
0.0916714 -0.3689 -0.465 106 82 80
0.114492 -0.399047 -0.503 184 181 188
0.11826 -0.405393 -0.511 214 213 221
0.472843 -0.42126 -0.531 132 100 85
0.47207 -0.419673 -0.529 135 106 92
0.467811 -0.41412 -0.522 147 112 93
0.479443 -0.3927 -0.495 176 127 97
0.480356 -0.391907 -0.494 177 128 98
0.497 -0.388733 -0.49 171 122 90
0.496917 -0.38794 -0.489 171 122 90
0.998767 -0.460927 -0.581 116 108 97
0.00371143 -0.344338 -0.433 191 150 118
0.0133257 -0.337181 -0.424 192 149 115
0.0173638 -0.337181 -0.424 193 148 117
0.0255 -0.337976 -0.425 188 144 109
0.0303571 -0.337976 -0.425 185 140 109
0.0311667 -0.337976 -0.425 184 139 108
0.0336743 -0.338771 -0.426 182 137 106
0.0386333 -0.339567 -0.427 181 134 108
0.04862 -0.341157 -0.429 165 121 96
0.0581457 -0.344338 -0.433 145 108 92
0.0591067 -0.345133 -0.434 144 108 94
0.100397 -0.379329 -0.477 99 75 73
0.109399 -0.392052 -0.493 128 112 112
0.48308 -0.4342 -0.546 113 95 95
0.480573 -0.431019 -0.542 125 96 88
0.468055 -0.39921 -0.502 172 126 102
0.478474 -0.392848 -0.494 177 127 100
0.484034 -0.391257 -0.492 171 122 92
0.495986 -0.388871 -0.489 172 123 91
0.5054 -0.389667 -0.49 161 116 85
0.52848 -0.4008 -0.504 143 107 81
0.56701 -0.423862 -0.533 141 107 82
0.583929 -0.433405 -0.545 191 177 164
0.591351 -0.436586 -0.549 192 192 184
0.00930952 -0.338786 -0.425 190 147 113
0.0214019 -0.337989 -0.424 190 146 111
0.0394467 -0.34038 -0.427 179 133 107
0.0419848 -0.341177 -0.428 176 130 104
0.0445343 -0.341974 -0.429 173 127 101
0.0461686 -0.341974 -0.429 170 124 98
0.0529514 -0.343569 -0.431 155 114 96
0.0537724 -0.343569 -0.431 155 114 96
0.0724714 -0.354729 -0.445 122 91 86
0.0775714 -0.358714 -0.45 113 84 80
0.1078 -0.3906 -0.49 100 84 84
0.49226 -0.389803 -0.489 173 124 92
0.591318 -0.436834 -0.548 195 192 183
0.0197867 -0.338796 -0.424 192 147 114
0.0295476 -0.339595 -0.425 185 140 109
0.03782 -0.341193 -0.427 180 135 106
0.0628448 -0.349184 -0.437 143 103 95
0.06762 -0.35238 -0.441 133 94 87
0.113083 -0.400323 -0.501 172 163 164
0.116598 -0.405916 -0.508 191 189 194
0.480717 -0.432285 -0.541 116 97 93
0.465537 -0.41071 -0.514 150 109 89
0.46704 -0.40272 -0.504 171 124 98
0.471905 -0.399524 -0.5 171 124 98
0.477577 -0.396328 -0.496 179 129 102
0.4785 -0.395529 -0.495 176 126 99
0.478474 -0.39473 -0.494 177 127 100
0.4914 -0.391533 -0.49 174 125 92
0.5082 -0.391533 -0.49 159 116 84
0.58282 -0.433883 -0.543 188 167 150
0.00608571 -0.341206 -0.426 195 152 118
0.0132943 -0.338803 -0.423 193 150 116
0.0189343 -0.338803 -0.423 193 148 115
0.01974 -0.338803 -0.423 192 147 114
0.057321 -0.346812 -0.433 147 105 93
0.0628448 -0.350016 -0.437 140 102 93
0.0714629 -0.355623 -0.444 124 91 82
0.0724714 -0.356424 -0.445 124 91 84
0.0775714 -0.360429 -0.45 116 86 78
0.0838171 -0.365234 -0.456 107 82 75
0.0927562 -0.373244 -0.466 102 78 74
0.0977533 -0.37885 -0.473 95 76 72
0.104852 -0.388462 -0.485 94 79 76
0.47 -0.400476 -0.5 171 124 98
0.470952 -0.400476 -0.5 171 124 98
0.4886 -0.392467 -0.49 177 128 96
0.494971 -0.390865 -0.488 168 119 87
0.85352 -0.451737 -0.564 122 123 115
0.854594 -0.451737 -0.564 122 123 115
0.00205714 -0.346834 -0.432 191 153 117
0.0418867 -0.34282 -0.427 178 132 106
0.0428 -0.343623 -0.428 176 130 104
0.04862 -0.344426 -0.429 165 119 96
0.0494371 -0.344426 -0.429 165 119 96
0.0714629 -0.356469 -0.444 122 89 82
0.0848714 -0.366906 -0.457 107 82 75
0.0903952 -0.371723 -0.463 103 80 74
0.103286 -0.386977 -0.482 97 77 76
0.114948 -0.405443 -0.505 197 196 204
0.468089 -0.416683 -0.519 146 105 87
0.46704 -0.40464 -0.504 168 122 98
0.475688 -0.398217 -0.496 176 129 103
0.483097 -0.395006 -0.492 175 126 96
0.487667 -0.3934 -0.49 175 129 96
0.512043 -0.394203 -0.491 154 110 81
0.522087 -0.39902 -0.497 148 104 77
0.525138 -0.400626 -0.499 146 105 77
0.584889 -0.435951 -0.543 182 169 160
0.851805 -0.453614 -0.565 120 121 113
0.855469 -0.454417 -0.566 117 118 110
0.860859 -0.454417 -0.566 119 120 112
0.863015 -0.454417 -0.566 121 122 114
0.04026 -0.343633 -0.427 177 133 104
0.0600714 -0.350071 -0.435 140 101 94
0.06104 -0.350876 -0.436 140 99 95
0.0724714 -0.358119 -0.445 122 91 86
0.0734838 -0.358924 -0.446 121 90 85
0.0825848 -0.365362 -0.454 112 85 78
0.0848714 -0.367776 -0.457 107 82 75
0.109843 -0.398357 -0.495 112 100 104
0.467071 -0.404795 -0.503 165 119 96
0.469011 -0.40399 -0.502 164 116 93
0.470961 -0.401576 -0.499 168 118 93
0.4757 -0.399967 -0.497 173 127 101
0.479384 -0.396748 -0.493 172 125 97
0.578478 -0.432962 -0.538 160 137 119
0.864983 -0.457105 -0.568 117 118 110
-0.00155429 -0.438827 -0.544 190 149 117
0.00446286 -0.34364 -0.426 192 152 116
0.0148705 -0.340413 -0.422 190 147 112
0.0270552 -0.342027 -0.424 184 139 108
0.0385429 -0.34364 -0.426 182 137 106
0.0838171 -0.36784 -0.456 110 83 76
0.0953429 -0.379133 -0.47 99 78 73
0.0977533 -0.381553 -0.473 97 76 71
0.105069 -0.39204 -0.486 94 82 86
0.106649 -0.39446 -0.489 94 82 86
0.121333 -0.419467 -0.52 204 206 221
0.123265 -0.422693 -0.524 209 208 214
0.466651 -0.413013 -0.512 149 110 95
0.477557 -0.3993 -0.495 174 124 97
0.488534 -0.39446 -0.489 177 128 96
0.500349 -0.39204 -0.486 162 117 86
0.589074 -0.438827 -0.544 194 190 179
0.59228 -0.44044 -0.546 198 194 183
0.82627 -0.454153 -0.563 111 112 104
0.00284667 -0.34526 -0.427 192 152 117
0.0302857 -0.342834 -0.424 183 138 107
0.0310933 -0.342834 -0.424 183 138 107
0.0628448 -0.353346 -0.437 137 99 86
0.06678 -0.35658 -0.441 131 97 85
0.0724714 -0.359814 -0.445 119 90 82
0.0765438 -0.363049 -0.449 111 86 81
0.0966476 -0.381646 -0.472 97 76 71
0.121333 -0.420457 -0.52 205 207 222
0.471911 -0.403477 -0.499 169 118 89
0.481223 -0.397817 -0.492 173 124 94
0.482115 -0.397009 -0.491 177 128 98
0.504051 -0.392966 -0.486 163 118 85
0.504977 -0.392966 -0.486 163 118 85
0.507871 -0.393774 -0.487 160 115 82
0.51182 -0.395391 -0.489 160 117 85
0.516834 -0.397817 -0.492 157 114 82
0.832433 -0.456843 -0.565 113 114 106
0.867376 -0.461694 -0.571 113 116 109
0.873253 -0.462503 -0.572 119 120 114
0.00844 -0.342021 -0.422 195 152 117
0.0132629 -0.342021 -0.422 188 145 110
0.03692 -0.345263 -0.426 183 138 107
0.0377314 -0.345263 -0.426 182 137 106
0.0476914 -0.346884 -0.428 165 119 95
0.06104 -0.353368 -0.436 139 99 89
0.0657905 -0.35661 -0.44 133 97 83
0.0966476 -0.382545 -0.472 97 76 71
0.113309 -0.406859 -0.502 175 172 181
0.117287 -0.414153 -0.511 210 210 222
0.119417 -0.418206 -0.516 208 210 223
0.483809 -0.438468 -0.541 112 94 94
0.467627 -0.414964 -0.512 148 105 86
0.496548 -0.393081 -0.485 166 120 87
0.525873 -0.402807 -0.497 150 109 77
0.584743 -0.437657 -0.54 185 172 156
0.848486 -0.461971 -0.57 114 117 110
0.852829 -0.461971 -0.57 116 118 115
0.857588 -0.462782 -0.571 115 117 112
0.858675 -0.462782 -0.571 117 119 114
0.859763 -0.462782 -0.571 117 119 114
0.8774 -0.465213 -0.574 116 123 115
0.0116276 -0.342012 -0.421 187 144 109
0.0286705 -0.34445 -0.424 186 141 108
0.0294781 -0.34445 -0.424 185 140 107
0.0327857 -0.345262 -0.425 183 138 107
0.04026 -0.346887 -0.427 175 129 103
0.05472 -0.350949 -0.432 149 106 90
0.0620124 -0.35501 -0.437 138 100 87
0.087181 -0.373695 -0.46 106 82 78
0.0905905 -0.376945 -0.464 105 81 77
0.0916714 -0.377757 -0.465 104 80 76
0.09928 -0.386693 -0.476 98 77 74
0.117516 -0.415939 -0.512 209 209 221
0.475304 -0.428125 -0.527 130 96 86
0.469011 -0.407815 -0.502 163 116 90
0.474753 -0.403753 -0.497 170 121 91
0.481223 -0.399691 -0.492 174 125 95
0.48574 -0.397254 -0.489 175 126 96
0.500133 -0.393192 -0.484 165 121 86
0.511703 -0.396442 -0.488 163 118 85
0.813062 -0.458995 -0.565 99 100 95
0.82458 -0.46062 -0.567 119 122 115
0.847799 -0.46387 -0.571 121 124 117
0.871933 -0.466307 -0.574 109 112 105
-0.00123714 -0.352586 -0.433 188 147 115
0.00604286 -0.344443 -0.423 196 153 119
0.00763619 -0.343629 -0.422 194 151 117
0.0277971 -0.344443 -0.423 186 141 108
0.0294781 -0.345257 -0.424 186 141 108
0.0520095 -0.350143 -0.43 156 113 96
0.0648048 -0.357471 -0.439 133 96 87
0.0657905 -0.358286 -0.44 132 95 86
0.0806771 -0.368871 -0.453 112 87 82
0.130596 -0.441343 -0.542 203 205 218
0.467687 -0.4161 -0.511 149 107 85
0.47 -0.407143 -0.5 164 118 92
0.474753 -0.4047 -0.497 170 120 93
0.483933 -0.399 -0.49 170 120 93
0.491174 -0.396557 -0.487 177 128 96
0.493776 -0.394929 -0.485 172 126 93
0.545457 -0.415286 -0.51 146 107 78
0.82026 -0.4617 -0.567 121 122 116
0.822789 -0.462514 -0.568 125 128 121
0.850373 -0.465771 -0.572 112 114 109
0.00443143 -0.345249 -0.423 193 153 118
0.00763619 -0.344432 -0.422 193 150 116
0.0427 -0.348513 -0.427 171 125 101
0.0502543 -0.350146 -0.429 158 112 96
0.0511905 -0.350962 -0.43 157 111 95
0.0687705 -0.361572 -0.443 124 91 84
0.0895133 -0.377896 -0.463 102 81 78
0.100818 -0.390955 -0.479 98 78 77
0.10846 -0.402382 -0.493 143 136 143
0.11376 -0.41136 -0.504 202 200 211
0.492017 -0.396669 -0.486 178 129 97
0.496446 -0.395036 -0.484 172 126 93
0.4991 -0.39422 -0.483 167 122 89
0.50094 -0.39422 -0.483 165 120 87
0.51251 -0.397485 -0.487 162 117 86
0.528713 -0.405647 -0.497 150 109 81
0.818818 -0.464412 -0.569 50 51 45
0.848586 -0.467677 -0.573 100 103 96
0.849677 -0.467677 -0.573 101 104 97
0.856627 -0.468493 -0.574 104 106 101
0.880887 -0.470942 -0.577 102 103 97
0.892954 -0.475023 -0.582 101 104 97
0.0092219 -0.344418 -0.421 192 148 113
0.0132314 -0.344418 -0.421 187 143 108
0.0277971 -0.346054 -0.423 186 140 107
0.04514 -0.349327 -0.427 167 121 98
0.0696143 -0.362416 -0.443 118 88 80
0.0796381 -0.369779 -0.452 114 86 83
0.0806771 -0.370597 -0.453 113 85 82
0.46803 -0.411502 -0.503 157 115 91
0.469011 -0.410684 -0.502 162 118 93
0.469986 -0.409866 -0.501 162 118 91
0.479349 -0.402503 -0.492 174 125 95
0.484867 -0.400867 -0.49 173 124 94
0.48924 -0.397594 -0.486 180 131 101
0.498985 -0.394322 -0.482 166 121 90
0.506587 -0.395958 -0.484 167 122 89
0.542143 -0.413956 -0.506 144 103 75
0.828222 -0.467132 -0.571 125 126 120
0.830397 -0.467132 -0.571 122 123 117
0.852253 -0.469587 -0.574 102 105 98
0.00442095 -0.34604 -0.422 195 150 117
0.00681619 -0.34522 -0.421 194 150 115
0.0076181 -0.34522 -0.421 192 149 114
0.0180429 -0.34522 -0.421 186 142 107
0.04514 -0.35014 -0.427 167 120 102
0.04862 -0.35178 -0.429 162 115 99
0.0592429 -0.3567 -0.435 140 100 90
0.469031 -0.41082 -0.501 164 118 92
0.492852 -0.3977 -0.485 176 127 95
0.492758 -0.39688 -0.484 173 127 94
0.5194 -0.4018 -0.49 152 113 84
0.534762 -0.41 -0.5 144 107 80
0.581297 -0.43788 -0.534 170 136 111
0.823135 -0.46904 -0.572 22 23 18
0.83621 -0.46904 -0.572 104 107 100
0.854833 -0.4715 -0.575 103 106 99
0.855929 -0.4715 -0.575 110 113 106
0.866194 -0.47232 -0.576 93 95 90
0.886571 -0.4756 -0.58 57 58 52
0.889207 -0.47642 -0.581 88 91 84
0.00201429 -0.347666 -0.423 191 148 113
0.01 -0.3452 -0.42 193 149 112
0.0148352 -0.346022 -0.421 189 145 110
0.0196467 -0.346022 -0.421 188 142 108
0.0376429 -0.34931 -0.425 178 131 103
0.0494371 -0.352597 -0.429 159 113 97
0.0555429 -0.355063 -0.432 147 105 93
0.0707762 -0.365748 -0.445 118 89 81
0.0736486 -0.367391 -0.447 114 89 82
0.0767143 -0.369857 -0.45 112 87 80
0.0848714 -0.37561 -0.457 106 82 78
0.468988 -0.413418 -0.503 160 116 91
0.502657 -0.396158 -0.482 170 124 90
0.867291 -0.473417 -0.576 107 109 104
0.8881 -0.477527 -0.581 66 67 61
0.890737 -0.478349 -0.582 93 96 89
0.014 -0.346 -0.42 189 145 110
0.0277971 -0.348471 -0.423 183 137 104
0.0351314 -0.349295 -0.424 179 132 102
0.0476914 -0.35259 -0.428 162 117 98
0.04862 -0.353414 -0.429 161 115 99
0.0537724 -0.355062 -0.431 148 106 92
0.0545933 -0.355062 -0.431 147 105 91
0.0620124 -0.360005 -0.437 137 99 90
0.0687705 -0.364948 -0.443 120 90 82
0.0827667 -0.374833 -0.455 109 84 79
0.0942467 -0.386367 -0.469 99 78 77
0.0966476 -0.388838 -0.472 95 74 69
0.468765 -0.419319 -0.509 147 106 84
0.47286 -0.409433 -0.497 166 119 91
0.4802 -0.403667 -0.49 175 126 96
0.481133 -0.403667 -0.49 176 127 97
0.484809 -0.402843 -0.489 171 125 92
0.488314 -0.400371 -0.486 175 129 96
0.492758 -0.398724 -0.484 173 129 94
0.497033 -0.396252 -0.481 168 124 89
0.50738 -0.3979 -0.483 161 118 86
0.521267 -0.403667 -0.49 150 111 82
0.573677 -0.434148 -0.527 139 104 76
0.591873 -0.444033 -0.539 184 179 173
0.838763 -0.472043 -0.573 100 103 96
0.874292 -0.475338 -0.577 103 105 100
-0.00201905 -0.350103 -0.424 187 144 110
0.0196467 -0.347626 -0.421 187 141 108
0.03102 -0.349277 -0.423 180 133 105
0.0384524 -0.350929 -0.425 175 128 102
0.04862 -0.354231 -0.429 160 114 98
0.0555429 -0.356709 -0.432 146 104 92
0.0563657 -0.356709 -0.432 145 103 91
0.0808552 -0.374874 -0.454 111 86 79
0.0848714 -0.377351 -0.457 108 85 79
0.0942467 -0.38726 -0.469 99 79 78
0.107303 -0.406251 -0.492 145 133 137
0.468854 -0.418637 -0.507 147 109 88
0.47 -0.412857 -0.5 160 116 89
0.48731 -0.400471 -0.485 175 129 95
0.494285 -0.397169 -0.481 175 131 96
0.499657 -0.396343 -0.48 170 124 91
0.526206 -0.406251 -0.492 149 110 81
0.840946 -0.473134 -0.573 101 102 97
0.856708 -0.476437 -0.577 98 100 95
0.872094 -0.476437 -0.577 130 133 126
-0.00448381 -0.354221 -0.428 188 144 109
-0.00366 -0.353393 -0.427 188 145 111
0.0092 -0.3476 -0.42 190 146 111
0.0244581 -0.348428 -0.421 182 137 106
0.0269276 -0.349255 -0.422 180 133 103
0.0286029 -0.350083 -0.423 178 131 103
0.046061 -0.354221 -0.428 162 115 99
0.0591067 -0.359187 -0.434 139 99 91
0.0819 -0.376567 -0.455 112 85 76
0.0907857 -0.384843 -0.465 102 78 74
0.47286 -0.411327 -0.497 166 119 91
0.483817 -0.403878 -0.488 174 128 95
0.486463 -0.402223 -0.486 175 129 96
0.487389 -0.402223 -0.486 175 129 96
0.489992 -0.400568 -0.484 173 127 93
0.564969 -0.429534 -0.519 139 104 74
0.592825 -0.445259 -0.538 149 144 138
0.834024 -0.475881 -0.575 119 119 117
0.874419 -0.480019 -0.58 109 111 106
-0.00977143 -0.447943 -0.54 185 145 109
0.0092 -0.3484 -0.42 190 146 111
0.0164 -0.3484 -0.42 188 142 109
0.0286029 -0.350889 -0.423 177 130 102
0.03102 -0.350889 -0.423 177 130 102
0.0327086 -0.351718 -0.424 177 130 102
0.0351314 -0.351718 -0.424 177 129 106
0.0367467 -0.351718 -0.424 178 128 103
0.04514 -0.354207 -0.427 164 115 101
0.0476914 -0.355036 -0.428 160 112 100
0.0736486 -0.370797 -0.447 118 90 76
0.0798143 -0.375774 -0.453 115 88 77
0.0850571 -0.379922 -0.458 106 81 74
0.0861171 -0.380751 -0.459 107 82 75
0.0955457 -0.390706 -0.471 97 76 73
0.486536 -0.403978 -0.487 175 129 96
0.486463 -0.403149 -0.486 175 129 96
0.49174 -0.40066 -0.483 176 131 98
0.493257 -0.398171 -0.48 175 130 97
0.510002 -0.39983 -0.482 158 113 82
0.531168 -0.409785 -0.494 149 108 80
0.861495 -0.479465 -0.578 111 114 107
0.868895 -0.481124 -0.58 92 93 88
0.877434 -0.482783 -0.582 101 102 97
0.0164 -0.3492 -0.42 187 141 107
0.0277314 -0.350863 -0.422 181 134 104
0.0417886 -0.354189 -0.426 163 114 97
0.046061 -0.355851 -0.428 162 113 99
0.0707762 -0.369986 -0.445 121 91 80
0.0736486 -0.371649 -0.447 118 90 78
0.0808552 -0.377469 -0.454 113 86 75
0.47239 -0.427354 -0.514 134 101 84
0.469968 -0.417377 -0.502 158 114 89
0.476567 -0.409894 -0.493 168 123 92
0.476537 -0.409063 -0.492 168 123 92
0.47931 -0.408231 -0.491 170 123 93
0.484747 -0.405737 -0.488 172 125 95
0.487389 -0.404074 -0.486 175 129 96
0.508028 -0.399917 -0.481 160 115 84
0.51092 -0.400749 -0.482 158 114 85
0.518863 -0.404074 -0.486 154 112 87
0.836925 -0.479734 -0.577 82 82 82
0.839863 -0.478903 -0.576 117 120 113
0.84864 -0.478903 -0.576 100 101 96
0.883071 -0.486386 -0.585 122 124 119
0.890162 -0.487217 -0.586 107 109 104
-0.0004 -0.35 -0.42 188 145 110
0.00279333 -0.349167 -0.419 187 144 109
0.00359143 -0.349167 -0.419 187 144 109
0.0139667 -0.349167 -0.419 188 142 108
0.0188 -0.35 -0.42 186 140 107
0.0318257 -0.3525 -0.423 178 131 101
0.0459533 -0.355833 -0.427 161 112 97
0.0717848 -0.371667 -0.446 121 91 80
0.0727971 -0.3725 -0.447 119 91 79
0.0944476 -0.391667 -0.47 97 76 73
0.107739 -0.411667 -0.494 153 146 154
0.470704 -0.424167 -0.509 146 103 84
0.506057 -0.4 -0.48 164 119 88
0.523787 -0.406667 -0.488 153 114 85
0.0375543 -0.354141 -0.424 173 126 100
0.0999057 -0.400079 -0.479 93 73 74
0.10615 -0.410102 -0.491 131 125 135
0.12782 -0.450193 -0.539 203 200 217
0.47816 -0.464392 -0.556 109 116 132
0.487508 -0.465228 -0.557 132 131 136
0.492812 -0.465228 -0.557 126 128 127
0.475924 -0.434324 -0.52 120 93 82
0.470704 -0.425136 -0.509 144 101 82
0.47922 -0.408431 -0.489 172 125 95
0.48731 -0.40509 -0.485 161 116 83
0.0212 -0.3516 -0.42 185 139 106
0.0581457 -0.362483 -0.433 138 100 89
0.0831305 -0.382574 -0.457 109 85 75
0.483264 -0.466289 -0.557 147 145 146
0.483753 -0.407689 -0.487 171 124 94
0.490514 -0.401829 -0.48 176 127 97
0.499396 -0.400154 -0.478 171 125 92
0.505915 -0.400991 -0.479 161 116 85
0.552745 -0.423594 -0.506 139 103 79
0.00437905 -0.350722 -0.418 190 146 111
0.0115448 -0.350722 -0.418 189 145 110
0.0244581 -0.353239 -0.421 185 139 106
0.029339 -0.354078 -0.422 181 134 104
0.0416905 -0.356595 -0.425 164 117 97
0.0442229 -0.357434 -0.426 162 115 97
0.04758 -0.358273 -0.427 159 112 96
0.0639686 -0.368342 -0.439 128 96 83
0.0649524 -0.369181 -0.44 127 95 82
0.0756886 -0.376732 -0.449 117 89 78
0.457214 -0.465671 -0.555 172 172 172
0.477959 -0.46735 -0.557 157 157 159
0.486257 -0.468189 -0.558 149 149 151
0.473786 -0.415329 -0.495 164 119 90
0.4774 -0.411133 -0.49 168 121 91
0.481898 -0.408616 -0.487 168 121 91
0.485537 -0.407777 -0.486 173 124 92
0.48714 -0.40526 -0.483 170 121 89
0.00199048 -0.351518 -0.418 187 144 109
0.0236562 -0.354041 -0.421 184 137 107
0.04758 -0.359087 -0.427 159 111 97
0.0483933 -0.359087 -0.427 156 110 94
0.0536476 -0.36161 -0.43 143 100 91
0.0697714 -0.373383 -0.444 122 92 81
0.0829486 -0.383474 -0.456 109 84 77
0.458271 -0.466729 -0.555 173 173 173
0.469688 -0.46757 -0.556 164 166 165
0.475837 -0.46841 -0.557 153 155 154
0.491388 -0.470092 -0.559 136 136 136
0.500239 -0.46841 -0.557 101 93 90
0.4995 -0.466729 -0.555 96 88 85
0.485686 -0.449069 -0.534 100 81 74
0.47867 -0.439818 -0.523 114 94 83
0.47088 -0.42384 -0.504 154 107 87
0.471914 -0.418794 -0.498 164 116 96
0.47471 -0.41543 -0.494 163 118 89
0.474689 -0.41459 -0.493 165 118 90
0.486305 -0.407021 -0.484 172 123 91
0.487968 -0.405339 -0.482 173 124 92
0.500169 -0.401134 -0.477 172 126 93
0.513525 -0.404498 -0.481 161 116 85
-0.00604286 -0.356529 -0.423 192 147 116
0.00198571 -0.351471 -0.417 187 144 109
0.012341 -0.352314 -0.418 187 142 109
0.0244 -0.354 -0.42 184 137 107
0.0342429 -0.356529 -0.423 175 128 100
0.0383619 -0.357371 -0.424 170 124 100
0.0391695 -0.357371 -0.424 168 122 98
0.0483933 -0.3599 -0.427 158 112 96
0.0657905 -0.370857 -0.44 123 94 78
0.0852429 -0.386871 -0.459 105 82 76
0.0897067 -0.391086 -0.464 100 79 76
0.443471 -0.467786 -0.555 185 185 187
0.461215 -0.468629 -0.556 169 169 167
0.476691 -0.470314 -0.558 149 149 147
0.487803 -0.472843 -0.561 141 141 141
0.489067 -0.472 -0.56 136 136 136
0.492267 -0.472 -0.56 127 127 125
0.47429 -0.434071 -0.515 122 95 78
0.470924 -0.423114 -0.502 152 110 86
0.47094 -0.422271 -0.501 152 110 86
0.473786 -0.417214 -0.495 162 118 91
0.477357 -0.412157 -0.489 168 121 91
0.487968 -0.406257 -0.482 173 124 94
0.487871 -0.405414 -0.481 172 126 93
0.495626 -0.402043 -0.477 173 124 92
0.497443 -0.402043 -0.477 175 126 94
0.537605 -0.415529 -0.493 149 107 82
-0.00955048 -0.368316 -0.436 180 144 112
0.00516286 -0.352266 -0.417 187 144 110
0.0268638 -0.355645 -0.421 181 134 104
0.0285352 -0.35649 -0.422 182 135 105
0.0425 -0.359024 -0.425 166 119 99
0.0442229 -0.359869 -0.426 163 116 98
0.0600714 -0.367471 -0.435 135 99 85
0.06678 -0.37254 -0.441 122 93 79
0.0707762 -0.375919 -0.445 121 93 81
0.0831305 -0.386056 -0.457 109 84 77
0.43423 -0.467998 -0.554 192 187 193
0.442414 -0.468843 -0.555 181 181 183
0.460156 -0.469688 -0.556 161 161 159
0.46735 -0.470532 -0.557 150 150 148
0.46841 -0.470532 -0.557 150 150 148
0.491687 -0.475601 -0.563 122 121 119
0.504165 -0.472222 -0.559 65 61 60
0.47917 -0.412244 -0.488 171 122 90
0.481898 -0.411399 -0.487 171 125 92
0.492112 -0.403796 -0.478 170 124 91
0.49926 -0.402951 -0.477 173 124 92
0.523181 -0.408865 -0.484 158 113 82
0.554258 -0.424915 -0.503 140 103 76
0.564886 -0.430829 -0.51 128 95 76
-0.00852 -0.36068 -0.426 185 142 108
0.00516286 -0.35306 -0.417 186 143 109
0.00834 -0.35306 -0.417 188 144 109
0.016361 -0.354753 -0.419 183 138 105
0.0292695 -0.356447 -0.421 180 133 103
0.0317505 -0.357293 -0.422 176 129 103
0.0416905 -0.359833 -0.425 166 120 97
0.0442229 -0.36068 -0.426 163 116 96
0.0536476 -0.364067 -0.43 142 102 90
0.06678 -0.37338 -0.441 122 92 81
0.0767143 -0.381 -0.45 115 88 77
0.0854286 -0.389467 -0.46 103 79 75
0.0935524 -0.397933 -0.47 94 74 73
0.100114 -0.4064 -0.48 91 71 70
0.104786 -0.41402 -0.489 92 84 97
0.462045 -0.471593 -0.557 149 147 148
0.465228 -0.471593 -0.557 142 140 141
0.501614 -0.4699 -0.555 55 57 56
0.477053 -0.438573 -0.518 123 96 79
0.475533 -0.414867 -0.49 170 120 93
0.481834 -0.41148 -0.486 174 127 97
0.483614 -0.410633 -0.485 174 127 97
0.486131 -0.408093 -0.482 171 125 92
0.488686 -0.4064 -0.48 174 125 93
0.500027 -0.403013 -0.476 172 123 90
0.5478 -0.42164 -0.498 141 105 79
-0.006 -0.3564 -0.42 188 145 111
0.0139333 -0.354703 -0.418 182 137 106
0.0187552 -0.355551 -0.419 183 136 106
0.0195533 -0.355551 -0.419 182 135 105
0.0276657 -0.357249 -0.421 180 133 103
0.0350486 -0.358946 -0.423 172 125 97
0.03666 -0.358946 -0.423 173 126 100
0.0483933 -0.36234 -0.427 154 112 90
0.0697714 -0.376766 -0.444 119 89 78
0.0717848 -0.378463 -0.446 117 89 78
0.106366 -0.417497 -0.492 79 92 126
0.11 -0.424286 -0.5 84 103 146
0.400793 -0.46926 -0.553 195 194 200
0.41238 -0.46926 -0.553 189 190 192
0.429729 -0.470957 -0.555 177 171 181
0.458862 -0.472654 -0.557 126 124 125
0.465 -0.473503 -0.558 117 113 114
0.467963 -0.474351 -0.559 113 109 110
0.469028 -0.474351 -0.559 109 105 106
0.472843 -0.476049 -0.561 104 100 101
0.481595 -0.479443 -0.565 95 91 92
0.477974 -0.440409 -0.519 123 95 81
0.471785 -0.429377 -0.506 146 104 82
0.471905 -0.424286 -0.5 151 110 88
0.480099 -0.414103 -0.488 168 121 91
0.48097 -0.413254 -0.487 170 123 93
0.491991 -0.404769 -0.477 173 124 92
0.495493 -0.40392 -0.476 173 127 94
0.502747 -0.40392 -0.476 168 119 87
0.513053 -0.405617 -0.478 164 117 87
0.517943 -0.407314 -0.48 162 113 80
0.521937 -0.409011 -0.482 160 114 81
-0.00848 -0.360602 -0.424 183 140 106
-0.00358286 -0.355499 -0.418 189 145 108
-0.000397143 -0.354649 -0.417 187 144 109
0.00119143 -0.354649 -0.417 187 143 106
0.00277333 -0.353798 -0.416 187 143 108
0.00992857 -0.354649 -0.417 184 139 106
0.0163219 -0.355499 -0.418 184 137 107
0.0334371 -0.359751 -0.423 176 129 103
0.0391695 -0.360602 -0.424 169 122 96
0.0399771 -0.360602 -0.424 167 121 95
0.0748333 -0.381864 -0.449 117 88 80
0.0899 -0.395471 -0.465 96 78 78
0.3864 -0.469463 -0.552 194 187 195
0.390606 -0.469463 -0.552 190 191 195
0.400793 -0.470313 -0.553 184 185 190
0.403953 -0.470313 -0.553 182 182 180
0.411327 -0.470313 -0.553 178 178 178
0.4403 -0.472014 -0.555 135 137 136
0.452496 -0.473715 -0.557 114 110 111
0.454618 -0.473715 -0.557 110 104 104
0.494099 -0.486472 -0.572 60 58 61
0.502167 -0.489024 -0.575 53 51 54
0.488526 -0.455855 -0.536 98 81 74
0.47282 -0.42779 -0.503 149 112 86
0.4756 -0.418434 -0.492 162 118 89
0.475533 -0.416733 -0.49 168 123 92
0.482617 -0.41163 -0.484 172 126 93
0.491202 -0.406528 -0.478 173 124 91
0.493809 -0.405677 -0.477 175 126 94
0.500786 -0.403976 -0.475 167 121 85
0.50169 -0.403976 -0.475 164 118 84
0.505467 -0.404827 -0.476 164 118 84
-0.0135 -0.4475 -0.525 183 140 106
0.00277333 -0.35459 -0.416 187 143 108
0.00913429 -0.355443 -0.417 185 140 107
0.00992857 -0.355443 -0.417 184 139 106
0.0147295 -0.356295 -0.418 181 136 103
0.0155257 -0.356295 -0.418 183 137 104
0.0244 -0.358 -0.42 180 133 103
0.0268638 -0.358852 -0.421 181 134 106
0.0450343 -0.363114 -0.426 162 117 94
0.0518886 -0.365671 -0.429 146 105 87
0.0717848 -0.380162 -0.446 116 88 77
0.0961543 -0.404029 -0.474 91 73 73
0.404684 -0.472219 -0.554 172 174 163
0.414181 -0.472219 -0.554 162 161 166
0.418402 -0.472219 -0.554 152 150 153
0.440034 -0.473924 -0.556 106 107 102
0.449313 -0.474776 -0.557 88 84 85
0.461574 -0.476481 -0.559 70 64 64
0.48772 -0.455171 -0.534 102 84 74
0.47377 -0.421076 -0.494 161 117 90
0.47471 -0.421076 -0.494 161 117 90
0.478289 -0.416814 -0.489 172 123 91
0.498829 -0.404029 -0.474 168 122 86
0.502595 -0.404881 -0.475 163 117 83
-0.00357429 -0.356237 -0.417 191 147 112
-0.00039619 -0.355383 -0.416 188 144 109
0.00039619 -0.355383 -0.416 187 143 108
0.0139333 -0.357091 -0.418 183 137 104
0.0187552 -0.357946 -0.419 185 140 109
0.0211495 -0.357946 -0.419 183 138 107
0.0284676 -0.359654 -0.421 180 133 105
0.0350486 -0.361363 -0.423 174 127 99
0.0467667 -0.36478 -0.427 158 113 92
0.0483933 -0.36478 -0.427 154 111 92
0.0697714 -0.379303 -0.444 118 88 78
0.0899 -0.397243 -0.465 98 79 75
0.11044 -0.428851 -0.502 127 141 176
0.112284 -0.432269 -0.506 150 164 199
0.350016 -0.470711 -0.551 192 193 197
0.376937 -0.471566 -0.552 179 179 181
0.398731 -0.474983 -0.556 165 165 165
0.4181 -0.474129 -0.555 125 123 128
0.427326 -0.474983 -0.556 106 104 107
0.437643 -0.475837 -0.557 87 83 84
0.497695 -0.495486 -0.58 57 55 60
0.5283 -0.501466 -0.587 36 36 44
0.488633 -0.457043 -0.535 102 82 73
0.472857 -0.427143 -0.5 156 112 87
0.473786 -0.422871 -0.495 160 116 89
0.47377 -0.422017 -0.494 162 118 91
0.474689 -0.421163 -0.493 164 119 90
0.476426 -0.417746 -0.489 167 122 91
0.485213 -0.411766 -0.482 170 121 89
0.497926 -0.404931 -0.474 169 120 87
0.539933 -0.4186 -0.49 146 105 77
-0.00678381 -0.358744 -0.419 188 145 111
-0.00436857 -0.357031 -0.417 188 145 110
0.00198095 -0.356175 -0.416 185 142 107
0.0219476 -0.358744 -0.419 183 136 108
0.0260619 -0.360456 -0.421 181 134 106
0.0374657 -0.362169 -0.423 169 123 97
0.0450343 -0.364737 -0.426 157 112 91
0.0537724 -0.369018 -0.431 141 102 87
0.057321 -0.37073 -0.433 136 100 86
0.05828 -0.371587 -0.434 134 98 84
0.0638229 -0.375011 -0.438 127 95 84
0.0833124 -0.392135 -0.458 107 82 75
0.0864924 -0.394704 -0.461 103 80 74
0.0888229 -0.397272 -0.464 101 80 75
0.346868 -0.471761 -0.551 189 189 191
0.360767 -0.473473 -0.553 176 176 176
0.37904 -0.472617 -0.552 168 168 170
0.395554 -0.476042 -0.556 140 138 141
0.412499 -0.476042 -0.556 102 100 105
0.42385 -0.476898 -0.557 78 76 81
0.424911 -0.476898 -0.557 77 75 80
0.43815 -0.47861 -0.559 62 60 65
0.481658 -0.447788 -0.523 122 90 75
0.474617 -0.434945 -0.508 137 100 81
0.476467 -0.419533 -0.49 166 121 90
0.478188 -0.416965 -0.487 169 122 92
0.48346 -0.41354 -0.483 167 121 88
0.484295 -0.412684 -0.482 167 121 88
0.485123 -0.411828 -0.481 169 123 90
0.4929 -0.408403 -0.477 174 128 94
0.53773 -0.417821 -0.488 147 106 78
-0.0084 -0.3604 -0.42 188 145 111
-0.0075819 -0.359542 -0.419 190 147 113
-0.00516286 -0.357826 -0.417 188 145 110
-0.00118571 -0.35611 -0.415 187 144 109
0.0211495 -0.359542 -0.419 185 138 108
0.0292695 -0.361258 -0.421 180 130 103
0.0309467 -0.362116 -0.422 178 128 101
0.0349657 -0.362116 -0.422 173 125 102
0.0458457 -0.365549 -0.426 156 111 92
0.0555429 -0.370697 -0.432 138 100 87
0.0707762 -0.381852 -0.445 116 87 79
0.0799905 -0.389575 -0.454 110 86 76
0.338471 -0.47281 -0.551 180 180 182
0.354032 -0.475385 -0.554 171 169 170
0.355088 -0.475385 -0.554 172 170 171
0.358253 -0.475385 -0.554 174 169 173
0.395914 -0.478817 -0.558 114 109 115
0.426737 -0.478817 -0.558 63 62 70
0.432826 -0.479675 -0.559 60 59 65
0.457629 -0.48225 -0.562 60 58 63
0.501986 -0.501986 -0.585 52 51 57
0.475533 -0.420467 -0.49 166 121 90
0.495357 -0.407595 -0.475 170 124 88
0.504083 -0.405879 -0.473 163 119 84
0.507857 -0.406737 -0.474 165 121 84
0.527446 -0.413602 -0.482 149 108 78
0.554273 -0.426473 -0.497 142 101 73
0.000395238 -0.3569 -0.415 188 145 110
0.0219476 -0.36034 -0.419 184 137 107
0.0458457 -0.36636 -0.426 153 110 91
0.0564962 -0.37238 -0.433 137 99 86
0.0717848 -0.38356 -0.446 116 87 79
0.0779162 -0.38872 -0.452 112 85 76
0.376491 -0.47816 -0.556 116 114 117
0.381412 -0.47902 -0.557 103 101 106
0.398043 -0.48246 -0.561 78 73 80
0.399111 -0.48246 -0.561 76 71 78
0.40018 -0.48246 -0.561 75 70 77
0.408041 -0.48418 -0.563 66 63 70
0.418984 -0.48074 -0.559 62 59 66
0.434374 -0.48246 -0.561 57 56 64
0.436511 -0.48246 -0.561 56 55 63
0.44506 -0.48246 -0.561 58 55 64
0.450135 -0.48332 -0.562 59 56 63
0.460331 -0.48504 -0.564 55 54 59
0.478214 -0.4429 -0.515 128 96 81
0.476447 -0.43946 -0.511 135 99 83
0.47377 -0.42484 -0.494 161 117 92
0.47471 -0.42484 -0.494 162 118 93
0.49096 -0.40936 -0.476 171 125 91
0.493548 -0.4085 -0.475 171 125 89
0.503182 -0.40678 -0.473 163 119 82
0.512548 -0.4085 -0.475 163 118 85
0.543667 -0.4214 -0.49 145 104 74
0.0415924 -0.365448 -0.424 162 115 95
0.0432076 -0.365448 -0.424 158 113 92
0.0738133 -0.386133 -0.448 112 85 76
0.0768848 -0.388719 -0.451 113 86 79
0.365091 -0.480943 -0.558 108 106 111
0.41345 -0.487838 -0.566 59 58 66
0.414871 -0.486976 -0.565 61 60 66
0.435923 -0.485252 -0.563 57 56 64
0.452811 -0.486114 -0.564 53 52 60
0.455226 -0.485252 -0.563 49 48 56
0.461964 -0.487838 -0.566 42 41 47
0.48665 -0.41199 -0.478 169 123 89
-0.0091781 -0.361936 -0.419 186 146 111
0.0187105 -0.361072 -0.418 185 138 108
0.0341619 -0.364528 -0.422 170 122 99
0.0349657 -0.364528 -0.422 170 122 100
0.0424 -0.366255 -0.424 159 114 95
0.0545933 -0.372302 -0.431 138 98 86
0.0564962 -0.37403 -0.433 135 99 87
0.0602095 -0.376621 -0.436 127 93 83
0.0677733 -0.381804 -0.442 118 90 79
0.0748333 -0.38785 -0.449 111 84 75
0.09656 -0.411173 -0.476 90 72 72
0.104067 -0.423267 -0.49 77 79 104
0.29646 -0.474231 -0.549 170 172 171
0.313283 -0.475959 -0.551 161 161 161
0.337757 -0.479414 -0.555 130 129 134
0.37026 -0.484597 -0.561 70 67 74
0.383376 -0.486325 -0.563 61 58 65
0.42174 -0.48978 -0.567 56 56 64
0.429489 -0.486325 -0.563 54 54 62
0.434549 -0.487189 -0.564 52 50 61
0.440402 -0.488916 -0.566 50 49 57
0.482726 -0.450909 -0.522 112 89 75
0.497776 -0.408582 -0.473 169 123 89
0.502118 -0.407718 -0.472 164 118 84
0.503017 -0.407718 -0.472 163 117 83
-0.00197143 -0.358406 -0.414 188 146 108
0.000394286 -0.358406 -0.414 188 146 108
0.021099 -0.361869 -0.418 185 139 106
0.0697714 -0.384377 -0.444 116 88 77
0.0748333 -0.388706 -0.449 113 86 77
0.0900933 -0.403423 -0.466 97 77 76
0.109484 -0.434589 -0.502 88 101 135
0.11132 -0.438051 -0.506 83 108 149
0.300143 -0.476143 -0.55 162 163 158
0.305936 -0.477009 -0.551 156 154 157
0.325541 -0.479606 -0.554 125 123 128
0.343218 -0.482203 -0.557 94 91 98
0.34871 -0.483934 -0.559 83 80 87
0.354231 -0.485666 -0.561 74 71 78
0.38963 -0.492591 -0.569 57 56 62
0.440876 -0.491726 -0.568 21 21 29
0.445988 -0.492591 -0.569 22 21 29
0.48365 -0.452769 -0.523 112 88 76
0.4807 -0.41814 -0.483 166 121 88
0.484114 -0.415543 -0.48 169 125 90
0.501219 -0.408617 -0.472 168 122 88
0.503916 -0.408617 -0.472 164 118 84
0.53406 -0.41814 -0.483 151 107 82
-0.0127838 -0.375679 -0.433 181 141 106
-0.00834 -0.361797 -0.417 188 145 110
0.021099 -0.362665 -0.418 185 139 106
0.0341619 -0.366135 -0.422 170 122 99
0.0373771 -0.366135 -0.422 166 120 97
0.0390771 -0.367003 -0.423 162 115 95
0.0458457 -0.369606 -0.426 151 108 91
0.0629886 -0.380017 -0.438 123 93 82
0.122889 -0.460706 -0.531 160 173 181
0.267737 -0.475455 -0.548 174 172 175
0.270317 -0.476323 -0.549 170 171 173
0.272409 -0.476323 -0.549 167 172 175
0.303337 -0.478926 -0.552 139 138 144
0.310207 -0.479793 -0.553 126 124 129
0.319786 -0.481529 -0.555 113 111 114
0.330487 -0.483264 -0.557 88 85 94
0.333206 -0.484131 -0.558 83 80 87
0.34951 -0.487602 -0.562 62 59 66
0.35335 -0.48847 -0.563 61 58 65
0.355051 -0.489337 -0.564 60 57 64
0.362779 -0.491072 -0.566 59 58 66
0.370552 -0.492808 -0.568 55 54 60
0.381629 -0.494543 -0.57 55 52 59
0.384473 -0.49541 -0.571 56 57 62
0.474763 -0.432942 -0.499 150 108 84
0.474729 -0.429471 -0.495 154 113 85
0.474689 -0.427736 -0.493 158 117 89
0.47726 -0.42253 -0.487 164 123 91
0.485739 -0.414722 -0.478 168 122 89
0.494172 -0.410384 -0.473 166 120 86
0.496724 -0.409516 -0.472 171 125 91
0.51129 -0.410384 -0.473 163 117 84
0.523791 -0.413854 -0.477 155 110 79
0.00196667 -0.359113 -0.413 188 144 107
0.0178714 -0.362591 -0.417 184 138 105
0.01946 -0.362591 -0.417 182 136 103
0.0218952 -0.363461 -0.418 181 134 104
0.0292 -0.3652 -0.42 175 128 102
0.0415924 -0.368678 -0.424 158 113 94
0.0450343 -0.370417 -0.426 151 108 92
0.0537724 -0.374765 -0.431 139 101 88
0.0748333 -0.390416 -0.449 114 85 77
0.0812114 -0.396503 -0.456 111 84 73
0.120959 -0.458239 -0.527 174 184 193
0.268226 -0.477369 -0.549 165 163 166
0.270317 -0.477369 -0.549 162 160 163
0.29546 -0.480847 -0.553 134 133 138
0.321514 -0.485194 -0.558 85 82 89
0.328 -0.486933 -0.56 73 70 77
0.432329 -0.496498 -0.571 11 11 21
0.47726 -0.423458 -0.487 167 123 94
0.485631 -0.414763 -0.477 167 120 90
0.492509 -0.412154 -0.474 169 123 89
0.493271 -0.411285 -0.473 170 124 90
0.49926 -0.409546 -0.471 170 124 90
0.530743 -0.417371 -0.48 154 109 78
0.549813 -0.424328 -0.488 126 99 69
-0.00913429 -0.363386 -0.417 188 144 109
-0.00591429 -0.360771 -0.414 185 141 106
-0.00275333 -0.3599 -0.413 184 142 104
0.0083 -0.361643 -0.415 184 140 103
0.0202543 -0.363386 -0.417 181 134 104
0.02514 -0.365129 -0.419 178 131 101
0.0341619 -0.367743 -0.422 167 119 96
0.0689257 -0.386914 -0.444 116 88 77
0.0699286 -0.387786 -0.445 115 87 76
0.0854286 -0.400857 -0.46 103 80 74
0.0969657 -0.416543 -0.478 84 69 72
0.0982857 -0.418286 -0.48 81 69 71
0.269762 -0.479286 -0.55 149 149 151
0.27081 -0.479286 -0.55 148 148 150
0.273401 -0.480157 -0.551 144 144 146
0.306085 -0.485386 -0.557 84 83 88
0.319467 -0.488 -0.56 67 64 71
0.322174 -0.488871 -0.561 66 63 70
0.334157 -0.492357 -0.565 64 63 69
0.371111 -0.504557 -0.579 62 61 69
0.372857 -0.505429 -0.58 63 62 70
0.435265 -0.498457 -0.572 10 8 19
0.489026 -0.462729 -0.531 99 83 70
0.47568 -0.4392 -0.504 135 100 81
0.478995 -0.422643 -0.485 165 121 92
0.479851 -0.421771 -0.484 167 122 93
0.485631 -0.415671 -0.477 167 120 90
0.486427 -0.4148 -0.476 169 122 92
0.48824 -0.4148 -0.476 172 126 93
0.501054 -0.410443 -0.471 168 122 89
0.547759 -0.424386 -0.487 132 103 71
-0.00995238 -0.365053 -0.418 187 144 109
-0.00354 -0.360687 -0.413 182 139 104
0.00512571 -0.36156 -0.414 183 138 105
0.0114343 -0.36156 -0.414 184 140 105
0.0130429 -0.362433 -0.415 184 140 105
0.0138333 -0.362433 -0.415 186 141 108
0.0259381 -0.365927 -0.419 177 130 100
0.0602095 -0.380773 -0.436 123 93 82
0.0621543 -0.38252 -0.438 121 93 81
0.0679267 -0.386887 -0.443 118 90 78
0.0707762 -0.388633 -0.445 115 87 76
0.0856143 -0.402607 -0.461 104 81 75
0.08668 -0.40348 -0.462 102 79 73
0.0941495 -0.413087 -0.473 85 71 71
0.264043 -0.47946 -0.549 138 139 143
0.281257 -0.48208 -0.552 105 104 109
0.30399 -0.488193 -0.559 71 68 75
0.307733 -0.489067 -0.56 67 66 72
0.353344 -0.503913 -0.577 62 63 68
0.478071 -0.423567 -0.485 166 121 92
0.490703 -0.41396 -0.474 170 124 90
0.509129 -0.41134 -0.471 161 116 83
0.517597 -0.413087 -0.473 157 112 81
0.529442 -0.417453 -0.478 153 110 75
0.535513 -0.420073 -0.481 151 107 82
0.5405 -0.42182 -0.483 145 103 78
-0.0196486 -0.463001 -0.529 180 140 104
-0.00992857 -0.364974 -0.417 189 146 111
-0.00911238 -0.364099 -0.416 187 144 109
0.00354 -0.361473 -0.413 185 140 107
0.0106457 -0.362349 -0.414 184 140 105
0.0138333 -0.363224 -0.415 186 141 108
0.02508 -0.36585 -0.418 177 130 100
0.0284 -0.3676 -0.42 175 128 102
0.0390771 -0.370226 -0.423 161 115 92
0.0458457 -0.372851 -0.426 150 107 90
0.0511905 -0.376352 -0.43 145 104 86
0.0639686 -0.38423 -0.439 120 92 80
0.0709352 -0.390356 -0.446 116 89 78
0.0748333 -0.392982 -0.449 112 85 74
0.0770552 -0.395608 -0.452 111 84 73
0.0902867 -0.408736 -0.467 94 76 74
0.218279 -0.478755 -0.547 161 161 161
0.219321 -0.478755 -0.547 161 161 161
0.251952 -0.481381 -0.55 132 133 135
0.272287 -0.484007 -0.553 96 95 100
0.281729 -0.485757 -0.555 76 75 81
0.28911 -0.487508 -0.557 69 68 74
0.296 -0.490133 -0.56 66 65 71
0.300269 -0.491884 -0.562 64 63 69
0.301875 -0.492759 -0.563 64 63 69
0.305634 -0.493634 -0.564 63 62 68
0.406214 -0.529519 -0.605 12 11 19
0.475694 -0.440245 -0.503 133 100 81
0.475494 -0.427991 -0.489 163 118 89
0.486427 -0.416613 -0.476 171 125 92
0.5025 -0.410487 -0.469 166 120 87
0.512717 -0.412237 -0.471 157 112 81
0.516503 -0.413112 -0.472 157 112 81
0.530352 -0.418364 -0.478 153 110 78
0.000393333 -0.36226 -0.413 185 143 105
0.00906857 -0.363137 -0.414 182 138 103
0.0178286 -0.364891 -0.416 184 138 105
0.018621 -0.364891 -0.416 182 136 103
0.0284 -0.3684 -0.42 175 128 102
0.0398829 -0.371031 -0.423 158 113 92
0.0407848 -0.371909 -0.424 157 112 91
0.0450343 -0.373663 -0.426 152 109 92
0.0791257 -0.398223 -0.454 110 83 72
0.0868676 -0.406117 -0.463 100 80 73
0.0994067 -0.421906 -0.481 85 73 73
0.105857 -0.433309 -0.494 131 140 147
0.2002 -0.47892 -0.546 161 163 162
0.22181 -0.480674 -0.548 153 153 155
0.25392 -0.484183 -0.552 107 106 111
0.256023 -0.484183 -0.552 103 102 107
0.269043 -0.486814 -0.555 73 74 79
0.40426 -0.53418 -0.609 11 12 17
0.481202 -0.450851 -0.514 121 95 80
0.47471 -0.433309 -0.494 151 106 85
0.474689 -0.432431 -0.493 154 109 86
0.474563 -0.428923 -0.489 161 116 87
0.477148 -0.425414 -0.485 164 119 88
0.478071 -0.425414 -0.485 165 120 89
0.479626 -0.421906 -0.481 170 123 93
0.483008 -0.419274 -0.478 169 120 88
0.493724 -0.412257 -0.47 169 123 90
0.497305 -0.412257 -0.47 169 123 90
0.500713 -0.41138 -0.469 166 120 87
0.521201 -0.414889 -0.473 150 106 77
0.539178 -0.421906 -0.481 149 110 81
0.542135 -0.422783 -0.482 141 104 77
0.00274667 -0.362168 -0.412 184 141 106
