ply
format ascii 1.0
comment Created by Open3D
element vertex 1312
property double x
property double y
property double z
property uchar red
property uchar green
property uchar blue
end_header
0.154766 -0.0673905 -0.488 187 133 131
0.167759 -0.0689095 -0.499 156 101 104
0.17232 -0.0696 -0.504 146 91 94
0.173624 -0.0697381 -0.505 144 88 91
0.175277 -0.0700143 -0.507 143 87 90
0.178257 -0.0704286 -0.51 135 79 82
0.189933 -0.0715333 -0.518 139 83 86
0.201884 -0.0726381 -0.526 171 112 118
0.234309 -0.074019 -0.536 75 61 74
0.242229 -0.0745714 -0.54 79 62 70
0.245643 -0.0749857 -0.543 76 60 71
0.175277 -0.07098 -0.507 136 81 84
0.180907 -0.07168 -0.512 129 73 76
0.188582 -0.07238 -0.517 133 77 78
0.209647 -0.07462 -0.533 154 102 104
0.256143 -0.077 -0.55 72 55 65
0.353747 -0.08428 -0.602 90 75 80
0.354893 -0.08428 -0.602 85 72 79
0.358929 -0.08442 -0.603 78 67 73
0.360077 -0.08442 -0.603 74 63 69
0.361226 -0.08442 -0.603 85 74 80
0.136401 -0.0679724 -0.479 204 148 147
0.145216 -0.0682562 -0.481 196 141 138
0.153521 -0.0691076 -0.487 185 129 128
0.175277 -0.0719457 -0.507 132 76 77
0.192648 -0.0737905 -0.52 136 77 79
0.269917 -0.0793248 -0.559 69 54 61
0.356631 -0.0855686 -0.603 82 70 74
0.14005 -0.0688848 -0.479 205 147 145
0.142788 -0.0688848 -0.479 202 144 142
0.161986 -0.0708981 -0.493 159 107 109
0.166474 -0.0716171 -0.498 149 97 99
0.196371 -0.0750686 -0.522 138 78 80
0.205669 -0.0759314 -0.528 166 106 108
0.207066 -0.0760752 -0.529 161 109 113
0.21838 -0.0772257 -0.537 125 113 127
0.22302 -0.0763629 -0.531 119 107 119
0.2522 -0.07852 -0.546 71 54 64
0.330857 -0.0862857 -0.6 107 95 99
0.331447 -0.0861419 -0.599 106 94 98
0.346867 -0.0865733 -0.602 100 89 93
0.135831 -0.0695057 -0.477 201 150 146
0.144 -0.0699429 -0.48 196 141 138
0.17102 -0.0732943 -0.503 134 82 84
0.178607 -0.07446 -0.511 120 65 68
0.221413 -0.07752 -0.532 121 104 120
0.228349 -0.0778114 -0.534 73 53 64
0.239282 -0.0783943 -0.538 75 55 67
0.258238 -0.0801429 -0.55 73 53 62
0.261753 -0.08058 -0.553 70 50 59
0.26635 -0.0810171 -0.556 67 47 58
0.274089 -0.0817457 -0.561 74 53 60
0.33431 -0.0871371 -0.598 103 92 96
0.342286 -0.0874286 -0.6 104 93 97
0.357223 -0.0880114 -0.604 80 65 72
0.359229 -0.0865543 -0.594 60 54 58
0.164861 -0.073219 -0.496 147 97 98
0.184286 -0.0761714 -0.516 118 59 63
0.18796 -0.0764667 -0.518 120 61 65
0.208073 -0.0780905 -0.529 159 107 109
0.21716 -0.0788286 -0.534 129 109 118
0.224875 -0.078681 -0.533 78 58 67
0.231833 -0.0789762 -0.535 73 53 65
0.255211 -0.0808952 -0.548 71 54 64
0.270497 -0.0823714 -0.558 63 46 56
0.275648 -0.0829619 -0.562 75 50 56
0.330893 -0.0882762 -0.598 104 94 95
0.337151 -0.0884238 -0.599 103 91 95
0.34974 -0.0890143 -0.603 83 81 84
0.353771 -0.0891619 -0.604 79 72 79
0.354922 -0.0891619 -0.604 76 69 76
0.358373 -0.0891619 -0.604 77 64 71
0.132548 -0.0710238 -0.475 198 143 136
0.193638 -0.0777524 -0.52 125 65 65
0.199736 -0.078201 -0.523 154 88 89
0.202114 -0.0783505 -0.524 162 96 97
0.20489 -0.0786495 -0.526 172 107 111
0.209081 -0.0790981 -0.529 175 127 125
0.272047 -0.0835838 -0.559 68 51 59
0.329754 -0.0894152 -0.598 103 91 93
0.337151 -0.0895648 -0.599 101 89 93
0.360077 -0.0901629 -0.603 62 51 57
0.357414 -0.0883686 -0.591 121 120 125
0.352971 -0.0867238 -0.58 199 184 189
0.155376 -0.0737457 -0.487 155 104 103
0.1582 -0.0742 -0.49 154 103 102
0.22183 -0.0807114 -0.533 70 55 62
0.256723 -0.0831343 -0.549 68 51 61
0.258238 -0.0832857 -0.55 69 49 60
0.259757 -0.0834371 -0.551 68 48 59
0.337151 -0.0907057 -0.599 103 91 95
0.348591 -0.0913114 -0.603 81 76 83
0.34974 -0.0913114 -0.603 85 80 87
0.360627 -0.09116 -0.602 125 114 120
0.351754 -0.0875257 -0.578 174 157 163
0.351507 -0.08692 -0.574 172 155 161
0.350757 -0.0864657 -0.571 160 144 147
0.130811 -0.0723733 -0.472 195 140 133
0.13261 -0.0723733 -0.472 195 140 135
0.1431 -0.07314 -0.477 185 132 126
0.163255 -0.0757467 -0.494 137 88 91
0.168095 -0.0766667 -0.5 124 75 79
0.174655 -0.0778933 -0.508 119 63 62
0.230225 -0.0821867 -0.536 70 52 64
0.231246 -0.0821867 -0.536 69 51 63
0.253704 -0.0838733 -0.547 73 56 66
0.258238 -0.0843333 -0.55 70 50 61
0.26128 -0.08464 -0.552 70 50 61
0.262807 -0.0847933 -0.553 69 49 60
0.354922 -0.0926133 -0.604 99 88 96
0.131431 -0.0731171 -0.471 191 136 129
0.147657 -0.0745143 -0.48 167 117 110
0.155376 -0.075601 -0.487 143 94 90
0.163255 -0.0766876 -0.494 132 83 87
0.207287 -0.0818105 -0.527 185 127 126
0.208686 -0.0819657 -0.528 181 130 127
0.234158 -0.0835181 -0.538 68 50 62
0.238114 -0.0838286 -0.54 73 56 66
0.2522 -0.08476 -0.546 80 63 73
0.256723 -0.0852257 -0.549 69 52 62
0.275157 -0.0870886 -0.561 68 48 59
0.327429 -0.0931429 -0.6 103 91 93
0.34228 -0.0934533 -0.602 101 90 94
0.357223 -0.0937638 -0.604 61 50 58
0.35126 -0.0898829 -0.579 100 87 94
0.128467 -0.0738571 -0.47 197 145 134
0.134123 -0.0740143 -0.471 191 139 128
0.148881 -0.0755857 -0.481 161 110 106
0.164861 -0.0779429 -0.496 125 75 84
0.174999 -0.0799857 -0.509 119 61 60
0.188056 -0.0818714 -0.521 115 56 60
0.189411 -0.0820286 -0.522 117 57 59
0.218586 -0.0840714 -0.535 113 81 82
0.240616 -0.0850143 -0.541 90 74 84
0.258708 -0.0865857 -0.551 73 53 64
0.279851 -0.0886286 -0.564 94 64 72
0.32731 -0.0949143 -0.604 102 89 96
0.34596 -0.0876857 -0.558 148 121 128
0.357389 -0.0889429 -0.566 150 123 132
0.134733 -0.0747524 -0.47 191 139 126
0.144917 -0.0758657 -0.477 166 115 111
0.1582 -0.0779333 -0.49 132 79 85
0.168431 -0.0796829 -0.501 118 65 71
0.175343 -0.0811143 -0.51 124 62 65
0.209294 -0.0838181 -0.527 181 126 123
0.221036 -0.0852495 -0.536 85 59 62
0.243574 -0.0863629 -0.543 84 69 76
0.253124 -0.0871581 -0.548 69 52 62
0.263282 -0.0881124 -0.554 73 51 63
0.26741 -0.0884305 -0.556 69 49 61
0.33487 -0.0952695 -0.599 102 91 95
0.357389 -0.0900209 -0.566 150 123 132
0.131486 -0.0753257 -0.468 193 143 132
0.159783 -0.0791886 -0.492 126 73 83
0.162314 -0.0795105 -0.494 126 75 82
0.173688 -0.0817638 -0.508 130 73 80
0.177351 -0.0825686 -0.513 136 76 84
0.1885 -0.0845 -0.525 119 60 64
0.1935 -0.0845 -0.525 118 53 57
0.201729 -0.0841781 -0.523 183 111 115
0.26741 -0.0894895 -0.556 69 46 56
0.279851 -0.0907771 -0.564 83 58 61
0.336571 -0.0965714 -0.6 102 91 95
0.346294 -0.0970543 -0.603 89 78 82
0.356365 -0.0954448 -0.593 82 63 69
0.350762 -0.0933524 -0.58 119 96 104
0.351904 -0.0899724 -0.559 154 124 134
0.130315 -0.0760543 -0.467 195 145 136
0.15134 -0.07866 -0.483 141 92 88
0.160108 -0.0802886 -0.493 119 71 83
0.191226 -0.0858257 -0.527 121 60 67
0.193233 -0.0858257 -0.527 119 56 64
0.19487 -0.0856629 -0.526 122 57 63
0.197124 -0.0853371 -0.524 156 90 94
0.200732 -0.0851743 -0.523 190 121 126
0.201729 -0.0851743 -0.523 183 132 128
0.204717 -0.0851743 -0.523 191 136 131
0.231342 -0.0881057 -0.541 63 43 55
0.236494 -0.0881057 -0.541 79 59 70
0.243433 -0.0887571 -0.545 88 71 79
0.249992 -0.0892457 -0.548 66 49 59
0.288683 -0.0933171 -0.573 164 113 110
0.325143 -0.0977143 -0.6 99 89 90
0.337132 -0.0978771 -0.601 100 89 93
0.347443 -0.0982029 -0.603 85 76 79
0.356 -0.0977143 -0.6 70 55 60
0.346407 -0.0929914 -0.571 138 108 118
0.348329 -0.0903857 -0.555 157 127 135
0.119129 -0.0766143 -0.465 192 147 141
0.121786 -0.0766143 -0.465 196 146 137
0.13534 -0.0772733 -0.469 192 143 138
0.138609 -0.0776029 -0.471 191 141 132
0.164247 -0.0818867 -0.497 121 70 79
0.165858 -0.0822162 -0.499 130 71 77
0.191589 -0.0869943 -0.528 133 74 80
0.1965 -0.0865 -0.525 153 86 93
0.229281 -0.0891362 -0.541 54 36 48
0.288179 -0.0942438 -0.572 180 130 129
0.338277 -0.0990219 -0.601 95 86 89
0.345146 -0.0993514 -0.603 91 80 84
0.3553 -0.0980333 -0.595 73 56 64
0.349657 -0.0955619 -0.58 120 97 107
0.343291 -0.0909486 -0.552 148 119 124
0.119756 -0.0773333 -0.464 193 143 134
0.12064 -0.0773333 -0.464 193 143 134
0.126827 -0.0773333 -0.464 193 143 134
0.1419 -0.0788333 -0.473 186 136 127
0.149797 -0.0801667 -0.481 158 110 106
0.152575 -0.0806667 -0.484 138 93 90
0.182102 -0.0868333 -0.521 119 78 110
0.203934 -0.0868333 -0.521 194 138 137
0.212709 -0.088 -0.528 158 110 106
0.22764 -0.0903333 -0.542 55 35 44
0.242395 -0.0908333 -0.545 80 64 74
0.251494 -0.0915 -0.549 70 50 61
0.257074 -0.092 -0.552 76 54 66
0.269434 -0.093 -0.558 71 58 65
0.345146 -0.1005 -0.603 92 81 87
0.344769 -0.0918333 -0.551 152 122 130
0.126827 -0.0782171 -0.464 188 138 129
0.135051 -0.0788914 -0.468 185 135 126
0.160432 -0.0832743 -0.494 112 67 70
0.16619 -0.0842857 -0.5 109 66 73
0.178389 -0.0869829 -0.516 163 124 153
0.180414 -0.0874886 -0.519 168 122 150
0.182451 -0.0879943 -0.522 130 84 112
0.1845 -0.0885 -0.525 170 93 101
0.19836 -0.0879943 -0.522 186 121 125
0.217769 -0.0898486 -0.533 122 80 82
0.230129 -0.0915343 -0.543 60 43 53
0.233231 -0.0915343 -0.543 70 53 61
0.237369 -0.0915343 -0.543 77 60 68
0.246861 -0.0923771 -0.548 83 63 72
0.265291 -0.0937257 -0.556 91 71 82
0.28242 -0.09558 -0.567 104 70 71
0.321178 -0.100974 -0.599 98 92 94
0.322319 -0.100974 -0.599 104 87 93
0.353674 -0.100806 -0.598 73 58 63
0.341553 -0.0949057 -0.563 140 109 115
0.339583 -0.0940629 -0.558 140 109 115
0.347917 -0.0928829 -0.551 151 121 129
0.113814 -0.0792714 -0.465 201 150 146
0.119498 -0.0789305 -0.463 192 142 135
0.121262 -0.0789305 -0.463 196 143 135
0.149797 -0.081999 -0.481 153 108 103
0.16619 -0.0852381 -0.5 101 58 67
0.176718 -0.0876248 -0.514 156 108 130
0.180414 -0.0884771 -0.519 178 120 142
0.188631 -0.0905229 -0.531 169 88 97
0.196352 -0.0903524 -0.53 155 97 109
0.1975 -0.0895 -0.525 168 112 115
0.239281 -0.0929095 -0.545 74 58 68
0.25241 -0.0939324 -0.551 77 60 68
0.256487 -0.0942733 -0.553 69 49 58
0.275648 -0.0958076 -0.562 72 44 56
0.325198 -0.101945 -0.598 95 88 95
0.331447 -0.102115 -0.599 98 89 92
0.340551 -0.102797 -0.603 95 84 90
0.344563 -0.0935914 -0.549 152 122 130
0.123908 -0.0798124 -0.463 194 141 133
0.128594 -0.0799848 -0.464 185 134 130
0.157588 -0.084639 -0.491 118 77 73
0.169776 -0.0870524 -0.505 110 63 71
0.19245 -0.0923962 -0.536 178 95 115
0.22806 -0.0936029 -0.543 57 42 49
0.237205 -0.0939476 -0.545 69 53 63
0.250311 -0.0949819 -0.551 78 62 72
0.2845 -0.0980848 -0.569 108 73 79
0.319503 -0.103084 -0.598 99 90 91
0.348731 -0.10067 -0.584 109 84 90
0.341848 -0.0944648 -0.548 150 121 126
0.343935 -0.0944648 -0.548 151 121 129
0.107876 -0.0819143 -0.47 206 153 149
0.109856 -0.0813914 -0.467 206 153 149
0.12452 -0.08052 -0.462 192 139 131
0.127435 -0.0806943 -0.463 190 137 131
0.129478 -0.0808686 -0.464 183 133 126
0.136834 -0.0815657 -0.468 166 119 113
0.14552 -0.08296 -0.476 148 103 98
0.164286 -0.0871429 -0.5 104 59 62
0.19245 -0.0934171 -0.536 183 92 109
0.206707 -0.09028 -0.518 198 142 143
0.241201 -0.0953343 -0.547 73 56 66
0.266246 -0.0972514 -0.558 84 67 75
0.306567 -0.1037 -0.595 173 108 104
0.317831 -0.104049 -0.597 96 90 92
0.318969 -0.104049 -0.597 99 89 90
0.329165 -0.104397 -0.599 96 87 90
0.330306 -0.104397 -0.599 95 86 89
0.3354 -0.10492 -0.602 95 84 88
0.34694 -0.10126 -0.581 117 90 95
0.340182 -0.0953343 -0.547 149 120 125
0.342266 -0.0953343 -0.547 152 122 130
0.347475 -0.0953343 -0.547 148 121 130
0.111802 -0.0817524 -0.464 197 144 136
0.121 -0.0814 -0.462 187 135 124
0.133587 -0.0821048 -0.466 171 121 112
0.137726 -0.0824571 -0.468 156 107 102
0.180067 -0.0912667 -0.518 133 67 71
0.196748 -0.0921476 -0.523 179 132 142
0.204926 -0.0909143 -0.516 200 145 150
0.209486 -0.091619 -0.52 191 135 136
0.245667 -0.0969048 -0.55 77 61 71
0.250766 -0.0972571 -0.552 68 55 64
0.276629 -0.0993714 -0.564 63 46 52
0.28134 -0.0999 -0.567 76 49 56
0.289187 -0.101133 -0.574 142 86 89
0.338254 -0.106243 -0.603 94 83 89
0.342655 -0.100781 -0.572 134 107 112
0.345167 -0.0960238 -0.545 151 124 133
0.35075 -0.0958476 -0.544 148 121 130
0.1254 -0.08228 -0.462 184 132 121
0.12628 -0.08228 -0.462 184 132 121
0.132414 -0.0828143 -0.465 182 130 119
0.166855 -0.0894038 -0.502 106 60 63
0.19608 -0.0918971 -0.516 190 139 146
0.310054 -0.10561 -0.593 96 83 90
0.316767 -0.105967 -0.595 95 88 95
0.323517 -0.106323 -0.597 97 88 89
0.339403 -0.107391 -0.603 91 78 85
0.343417 -0.10757 -0.604 77 66 72
0.348287 -0.104542 -0.587 98 75 83
0.335323 -0.0981305 -0.551 139 107 112
0.336629 -0.0975962 -0.548 143 111 116
0.33956 -0.09724 -0.546 143 110 117
0.149486 -0.0864 -0.48 125 81 82
0.15289 -0.0873 -0.485 119 77 78
0.179024 -0.0927 -0.515 153 91 92
0.181053 -0.09324 -0.518 171 109 110
0.195097 -0.09288 -0.516 185 136 140
0.199047 -0.09198 -0.511 203 148 153
0.200993 -0.09198 -0.511 202 150 154
0.223078 -0.09648 -0.536 107 73 74
0.239816 -0.09918 -0.551 64 51 60
0.251674 -0.09972 -0.554 76 67 72
0.299186 -0.1053 -0.585 150 90 80
0.311184 -0.10674 -0.593 95 82 92
0.312313 -0.10674 -0.593 96 83 93
0.326883 -0.10782 -0.599 96 85 89
0.34917 -0.10872 -0.604 67 45 57
0.343452 -0.10386 -0.577 125 102 110
0.337672 -0.09864 -0.548 141 106 112
0.106958 -0.0847676 -0.466 194 145 130
0.11132 -0.08404 -0.462 192 143 128
0.117226 -0.0838581 -0.461 186 134 121
0.129199 -0.0842219 -0.463 179 127 116
0.137431 -0.0849495 -0.467 186 128 124
0.159491 -0.089861 -0.494 106 59 65
0.19456 -0.0931352 -0.512 193 136 145
0.201571 -0.0927714 -0.51 199 146 152
0.209262 -0.0940448 -0.517 189 133 136
0.243847 -0.100593 -0.553 83 71 81
0.252583 -0.101139 -0.556 79 78 86
0.280754 -0.103322 -0.568 73 43 51
0.335331 -0.101503 -0.558 138 105 112
0.334273 -0.10023 -0.551 141 108 117
0.337056 -0.0995019 -0.547 142 107 113
0.0990714 -0.0873095 -0.475 203 153 142
0.116348 -0.0847362 -0.461 189 138 121
0.131246 -0.0852876 -0.464 172 122 113
0.13213 -0.0852876 -0.464 172 122 113
0.137431 -0.085839 -0.467 184 125 119
0.138617 -0.0860229 -0.468 185 130 123
0.139807 -0.0862067 -0.469 183 128 121
0.146427 -0.0874933 -0.476 135 90 84
0.157588 -0.0902505 -0.491 108 57 64
0.17403 -0.093559 -0.509 124 74 77
0.199237 -0.093559 -0.509 204 149 154
0.242793 -0.101647 -0.553 82 72 81
0.248957 -0.102014 -0.555 92 91 97
0.282829 -0.104771 -0.57 90 59 65
0.325198 -0.109918 -0.598 92 86 88
0.345394 -0.107345 -0.584 129 100 105
0.335467 -0.102933 -0.56 137 105 110
0.340389 -0.0999924 -0.544 141 108 115
0.345725 -0.099441 -0.541 158 125 132
0.358752 -0.0996248 -0.542 148 119 124
0.0971686 -0.0889571 -0.479 205 155 144
0.100244 -0.0876571 -0.472 201 151 140
0.123372 -0.0856143 -0.461 179 127 114
0.1254 -0.0858 -0.462 177 125 114
0.12628 -0.0858 -0.462 173 123 112
0.139807 -0.0871 -0.469 173 118 111
0.166855 -0.0932286 -0.502 102 56 59
0.175343 -0.0947143 -0.51 132 77 80
0.202146 -0.0945286 -0.509 203 148 154
0.20984 -0.0958286 -0.516 181 128 124
0.245786 -0.103071 -0.555 88 85 94
0.25668 -0.103629 -0.558 68 68 76
0.258205 -0.103814 -0.559 64 67 74
0.272331 -0.104743 -0.564 57 37 46
0.298674 -0.108457 -0.584 166 126 124
0.33196 -0.1118 -0.602 89 80 83
0.348017 -0.112543 -0.606 70 49 58
0.350307 -0.1118 -0.602 65 45 54
0.349086 -0.110686 -0.596 84 59 65
0.336191 -0.104557 -0.563 138 106 111
0.333224 -0.102329 -0.551 139 106 113
0.33393 -0.101586 -0.547 142 107 114
0.3354 -0.1014 -0.546 139 106 113
0.35303 -0.0999143 -0.538 148 117 123
0.0986543 -0.0887438 -0.473 200 150 139
0.0993448 -0.0885562 -0.472 200 150 139
0.108267 -0.0870552 -0.464 191 142 127
0.116348 -0.0864924 -0.461 188 137 118
0.120738 -0.0864924 -0.461 182 130 117
0.12716 -0.08668 -0.462 171 119 106
0.133013 -0.0870552 -0.464 165 115 106
0.157588 -0.092121 -0.491 102 57 64
0.169776 -0.0947476 -0.505 107 61 64
0.197489 -0.0951229 -0.507 207 148 152
0.201749 -0.0953105 -0.508 202 147 153
0.207643 -0.0962486 -0.513 189 130 132
0.247732 -0.104504 -0.557 88 85 96
0.258205 -0.104879 -0.559 59 63 72
0.272814 -0.106005 -0.565 51 36 41
0.282237 -0.10713 -0.571 84 52 57
0.283821 -0.107318 -0.572 97 65 70
0.313443 -0.111258 -0.593 93 87 89
0.315103 -0.111446 -0.594 95 84 88
0.346695 -0.110695 -0.59 111 84 91
0.347143 -0.101314 -0.54 146 115 121
0.34958 -0.101127 -0.539 147 116 122
0.099819 -0.0890762 -0.47 198 148 137
0.105183 -0.0883181 -0.466 193 144 130
0.120738 -0.0873705 -0.461 182 128 116
0.123372 -0.0873705 -0.461 175 121 109
0.138321 -0.0885076 -0.467 164 111 103
0.143398 -0.0894552 -0.472 158 110 100
0.159169 -0.0934352 -0.493 103 56 62
0.17204 -0.095899 -0.506 113 67 69
0.176314 -0.0966571 -0.51 134 84 87
0.198063 -0.095899 -0.506 203 146 152
0.200386 -0.0960886 -0.507 201 144 151
0.240067 -0.104996 -0.554 60 53 61
0.277509 -0.10765 -0.568 57 40 48
0.280657 -0.108029 -0.57 72 49 57
0.2875 -0.108976 -0.575 140 84 85
0.29382 -0.110113 -0.581 193 141 145
0.295942 -0.110492 -0.583 162 110 114
0.313971 -0.112577 -0.594 90 86 87
0.315633 -0.112767 -0.595 92 83 88
0.330813 -0.114093 -0.602 89 80 83
0.335919 -0.114662 -0.605 86 77 80
0.347435 -0.115041 -0.607 64 44 53
0.333803 -0.105944 -0.559 138 103 107
0.339763 -0.102911 -0.543 142 107 111
0.344057 -0.102343 -0.54 142 107 111
0.3465 -0.102153 -0.539 141 110 115
0.347527 -0.102153 -0.539 142 111 116
0.0984457 -0.0903543 -0.472 199 149 140
0.105183 -0.0892057 -0.466 193 144 130
0.11132 -0.08844 -0.462 191 139 125
0.115219 -0.0880571 -0.46 187 135 121
0.11986 -0.0882486 -0.461 182 131 114
0.12804 -0.08844 -0.462 171 117 107
0.12892 -0.08844 -0.462 168 114 104
0.143094 -0.0901629 -0.471 159 107 96
0.177286 -0.0976286 -0.51 141 86 91
0.187334 -0.0993514 -0.519 153 91 92
0.197671 -0.0966714 -0.505 204 145 151
0.276427 -0.108731 -0.568 54 38 48
0.288 -0.110263 -0.576 145 83 88
0.298071 -0.111986 -0.585 170 137 144
0.337629 -0.116006 -0.606 85 76 81
0.347435 -0.116197 -0.607 63 43 52
0.343757 -0.111986 -0.585 128 101 106
0.338297 -0.109497 -0.572 138 106 109
0.331125 -0.105477 -0.551 142 106 110
0.339352 -0.104137 -0.544 142 108 109
0.108033 -0.0895133 -0.463 194 142 129
0.126007 -0.0891267 -0.461 172 118 108
0.162353 -0.0960867 -0.497 95 53 57
0.169104 -0.0972467 -0.503 97 55 57
0.202317 -0.09802 -0.507 194 135 137
0.2727 -0.10962 -0.567 54 38 48
0.29221 -0.112133 -0.58 131 78 86
0.294326 -0.11252 -0.582 126 89 97
0.308404 -0.114453 -0.592 92 86 88
0.311709 -0.11484 -0.594 86 84 87
0.320642 -0.115613 -0.598 95 80 87
0.330214 -0.11658 -0.603 89 77 81
0.331912 -0.116773 -0.604 88 77 81
0.342217 -0.117547 -0.608 83 70 77
0.345691 -0.117547 -0.608 66 46 55
0.336523 -0.110007 -0.569 142 110 113
0.342 -0.1044 -0.54 140 108 111
0.104071 -0.0907857 -0.465 194 145 131
0.105615 -0.0905905 -0.464 190 142 128
0.10956 -0.0902 -0.462 193 141 128
0.111957 -0.0900048 -0.461 189 137 124
0.123372 -0.0900048 -0.461 175 122 108
0.141895 -0.0917619 -0.47 158 106 95
0.143094 -0.0919571 -0.471 157 105 94
0.155376 -0.095081 -0.487 122 82 83
0.213201 -0.100938 -0.517 150 101 97
0.2226 -0.103476 -0.53 97 64 71
0.225297 -0.104257 -0.534 87 58 63
0.348591 -0.117729 -0.603 63 43 52
0.330075 -0.107576 -0.551 143 104 107
0.338729 -0.106014 -0.543 141 106 110
0.345473 -0.105233 -0.539 139 107 112
0.112835 -0.0908829 -0.461 187 135 122
0.118982 -0.0908829 -0.461 178 126 115
0.120738 -0.0908829 -0.461 178 126 113
0.121616 -0.0908829 -0.461 176 124 111
0.185269 -0.101726 -0.516 143 83 85
0.19344 -0.09936 -0.504 210 147 155
0.209189 -0.100937 -0.512 165 110 105
0.22218 -0.104289 -0.529 98 66 67
0.242428 -0.109809 -0.557 49 46 55
0.255309 -0.110794 -0.562 78 84 98
0.291105 -0.114343 -0.58 173 135 146
0.335873 -0.119666 -0.607 82 73 78
0.344488 -0.116709 -0.592 100 76 76
0.342696 -0.115723 -0.587 123 99 99
0.334786 -0.107443 -0.545 140 106 107
0.342 -0.106457 -0.54 137 105 106
0.0964429 -0.0937514 -0.471 198 148 137
0.149773 -0.0951448 -0.478 143 99 98
0.175623 -0.101116 -0.508 126 77 81
0.183571 -0.10231 -0.514 145 83 88
0.1896 -0.10032 -0.504 203 144 148
0.193056 -0.100121 -0.503 210 151 155
0.255309 -0.111865 -0.562 78 84 98
0.288397 -0.115249 -0.579 129 93 107
0.313893 -0.118632 -0.596 91 80 86
0.33131 -0.120424 -0.605 85 74 80
0.34046 -0.12122 -0.609 78 73 77
0.329923 -0.109277 -0.549 143 107 109
0.1023 -0.0934429 -0.465 190 142 130
0.10868 -0.09284 -0.462 187 137 126
0.113467 -0.0924381 -0.46 185 133 120
0.116971 -0.0924381 -0.46 180 126 114
0.130397 -0.092639 -0.461 172 119 105
0.133609 -0.093041 -0.463 172 119 105
0.163916 -0.0996724 -0.496 99 59 60
0.17102 -0.101079 -0.503 104 59 62
0.179229 -0.102486 -0.51 140 80 88
0.181882 -0.102888 -0.512 141 80 85
0.19593 -0.101079 -0.503 209 148 153
0.242428 -0.11193 -0.557 69 68 76
0.329611 -0.121375 -0.604 86 75 81
0.34858 -0.12238 -0.609 58 43 48
0.330487 -0.11193 -0.557 137 102 106
0.33141 -0.110122 -0.548 142 103 108
0.333748 -0.109519 -0.545 140 106 107
0.34017 -0.108916 -0.542 138 106 107
0.346882 -0.108112 -0.538 140 108 113
0.416891 -0.110926 -0.552 204 147 153
0.109323 -0.0935171 -0.461 185 135 124
0.129519 -0.0935171 -0.461 171 117 105
0.136549 -0.0941257 -0.464 174 117 106
0.14338 -0.09514 -0.469 164 114 103
0.168431 -0.101631 -0.501 95 53 55
0.173624 -0.102443 -0.505 113 64 68
0.194585 -0.101834 -0.502 211 152 158
0.209189 -0.103863 -0.512 152 97 94
0.240067 -0.112383 -0.554 43 42 50
0.292109 -0.118063 -0.582 154 131 139
0.309446 -0.120497 -0.594 93 82 88
0.312758 -0.120903 -0.596 90 79 85
0.339857 -0.123743 -0.61 75 70 74
0.346829 -0.123743 -0.61 64 52 56
0.346279 -0.121511 -0.599 76 56 55
0.34452 -0.120497 -0.594 100 80 79
0.330805 -0.110963 -0.547 143 104 109
0.340572 -0.109746 -0.541 138 106 109
0.100745 -0.095419 -0.466 193 143 134
0.1078 -0.0946 -0.462 186 136 125
0.125733 -0.0941905 -0.46 169 115 103
0.148833 -0.0972619 -0.475 149 102 94
0.195151 -0.102586 -0.501 204 147 153
0.201519 -0.103405 -0.505 176 123 119
0.252546 -0.115281 -0.563 56 58 71
0.26514 -0.1161 -0.567 72 71 85
0.276799 -0.116919 -0.571 59 42 50
0.29261 -0.119376 -0.583 154 135 141
0.321106 -0.123062 -0.601 88 79 84
0.33436 -0.1118 -0.546 141 107 108
0.33666 -0.111186 -0.543 140 106 107
0.339542 -0.110776 -0.541 138 106 109
0.340971 -0.110571 -0.54 138 106 109
0.34726 -0.109957 -0.537 141 106 110
0.352795 -0.109138 -0.533 138 106 111
0.408307 -0.110981 -0.542 199 143 144
0.408857 -0.110571 -0.54 200 144 147
0.417334 -0.111186 -0.543 170 110 122
0.10868 -0.09548 -0.462 184 135 121
0.122229 -0.0950667 -0.46 171 117 105
0.123105 -0.0950667 -0.46 169 115 103
0.12661 -0.0950667 -0.46 167 113 101
0.137432 -0.0958933 -0.464 167 113 101
0.140688 -0.0963067 -0.466 169 115 103
0.158484 -0.100853 -0.488 131 82 86
0.178526 -0.104987 -0.508 130 77 83
0.181171 -0.1054 -0.51 135 76 78
0.19 -0.103333 -0.5 205 149 152
0.190952 -0.103333 -0.5 203 148 151
0.197453 -0.103747 -0.502 192 140 142
0.210985 -0.106227 -0.514 133 88 83
0.229886 -0.1116 -0.54 61 48 58
0.238149 -0.11408 -0.552 47 41 51
0.2619 -0.11718 -0.567 70 70 82
0.281533 -0.118627 -0.574 116 95 104
0.308314 -0.12276 -0.594 91 80 86
0.319429 -0.124 -0.6 86 75 81
0.3468 -0.12648 -0.612 62 56 58
0.327976 -0.113873 -0.551 140 104 108
0.33228 -0.11284 -0.546 140 106 107
0.35178 -0.110153 -0.533 139 104 110
0.362597 -0.10974 -0.531 146 111 117
0.368024 -0.110153 -0.533 143 112 118
0.410417 -0.111187 -0.538 176 116 126
0.112835 -0.0961514 -0.461 183 131 118
0.130397 -0.0961514 -0.461 169 115 103
0.148207 -0.0986543 -0.473 163 113 102
0.165806 -0.103451 -0.496 115 69 72
0.177209 -0.105746 -0.507 118 67 72
0.188266 -0.104911 -0.503 197 141 144
0.216835 -0.108666 -0.521 106 69 63
0.263444 -0.118469 -0.568 75 75 87
0.283611 -0.120137 -0.576 126 103 113
0.32616 -0.125977 -0.604 81 72 77
0.331249 -0.126603 -0.607 78 67 71
0.329322 -0.114297 -0.548 136 104 107
0.335626 -0.113254 -0.543 140 106 107
0.339137 -0.113046 -0.542 136 104 107
0.368347 -0.11096 -0.532 142 111 117
0.406586 -0.112003 -0.537 206 141 149
0.40685 -0.111794 -0.536 195 130 138
0.0950505 -0.0995552 -0.473 192 142 135
0.10692 -0.09724 -0.462 184 134 123
0.120476 -0.096819 -0.46 172 118 108
0.183114 -0.107343 -0.51 149 93 94
0.186866 -0.106711 -0.507 184 130 130
0.232625 -0.114499 -0.544 54 42 52
0.252813 -0.11913 -0.566 50 49 63
0.25974 -0.11934 -0.567 88 86 99
0.274015 -0.120392 -0.572 69 53 56
0.29848 -0.12376 -0.588 86 75 79
0.318286 -0.126286 -0.6 83 74 79
0.342783 -0.113236 -0.538 139 107 110
0.346986 -0.112605 -0.535 141 106 110
0.348371 -0.112394 -0.534 141 106 110
0.35178 -0.112184 -0.533 140 105 111
0.356867 -0.111552 -0.53 137 105 110
0.366962 -0.111552 -0.53 145 112 119
0.417858 -0.113868 -0.541 165 114 123
0.101414 -0.0987571 -0.465 191 141 132
0.103848 -0.0985448 -0.464 186 136 127
0.117848 -0.0976952 -0.46 172 120 107
0.131275 -0.0979076 -0.461 170 116 106
0.1392 -0.0985448 -0.464 168 116 102
0.143658 -0.0991819 -0.467 164 110 98
0.149108 -0.100456 -0.473 161 107 97
0.150643 -0.100881 -0.475 162 108 98
0.155294 -0.102155 -0.481 152 99 105
0.15876 -0.103217 -0.486 146 95 100
0.184694 -0.108102 -0.509 165 109 110
0.18672 -0.10704 -0.504 184 133 132
0.187719 -0.105978 -0.499 199 145 145
0.18886 -0.105553 -0.497 198 144 144
0.200721 -0.106828 -0.503 161 110 106
0.205619 -0.10789 -0.508 150 99 95
0.2074 -0.108314 -0.51 142 94 92
0.215014 -0.110226 -0.519 107 72 68
0.227162 -0.113836 -0.536 66 45 50
0.233052 -0.115748 -0.545 51 41 50
0.26174 -0.120845 -0.569 65 62 73
0.292 -0.12403 -0.584 184 159 163
0.302254 -0.125517 -0.591 80 70 69
0.323859 -0.128278 -0.604 76 67 72
0.334048 -0.129552 -0.61 70 58 62
0.335759 -0.129765 -0.611 69 58 64
0.34626 -0.12934 -0.609 60 43 49
0.340529 -0.125517 -0.591 126 107 111
0.344571 -0.113836 -0.536 140 105 111
0.360224 -0.11235 -0.529 134 103 108
0.40228 -0.113411 -0.534 200 139 147
0.0950505 -0.101357 -0.473 189 139 132
0.0998571 -0.0998571 -0.466 191 138 130
0.1196 -0.0985714 -0.46 171 119 106
0.125733 -0.0985714 -0.46 167 115 104
0.12661 -0.0985714 -0.46 167 115 104
0.133031 -0.0987857 -0.461 168 114 104
0.13391 -0.0987857 -0.461 170 116 106
0.181071 -0.108643 -0.507 142 87 92
0.184331 -0.108857 -0.508 168 113 116
0.193034 -0.106714 -0.498 187 133 133
0.193983 -0.106714 -0.498 187 133 133
0.203846 -0.108429 -0.506 153 105 101
0.279833 -0.123214 -0.575 164 96 93
0.281417 -0.123429 -0.576 170 102 99
0.283005 -0.123643 -0.577 168 99 94
0.292 -0.125143 -0.584 174 152 155
0.306051 -0.127286 -0.594 82 71 75
0.314857 -0.128571 -0.6 80 71 76
0.322709 -0.129429 -0.604 77 68 73
0.339193 -0.131357 -0.613 59 57 62
0.326333 -0.117857 -0.55 135 100 104
0.327234 -0.117429 -0.548 136 101 105
0.3302 -0.117 -0.546 139 104 108
0.331671 -0.116786 -0.545 140 105 109
0.335626 -0.116357 -0.543 139 104 108
0.344191 -0.115071 -0.537 139 104 108
0.344571 -0.114857 -0.536 140 105 109
0.355517 -0.113786 -0.531 137 102 106
0.401527 -0.114214 -0.533 193 136 145
0.406853 -0.114 -0.532 187 137 146
0.408633 -0.114214 -0.533 186 136 145
0.412205 -0.114643 -0.535 180 124 133
0.0931867 -0.104204 -0.482 189 136 128
0.093519 -0.103555 -0.479 189 136 128
0.105388 -0.100096 -0.463 186 134 123
0.11044 -0.09988 -0.462 184 132 119
0.11547 -0.0996638 -0.461 180 128 115
0.117848 -0.0994476 -0.46 174 122 109
0.120476 -0.0994476 -0.46 173 121 110
0.149691 -0.102042 -0.472 152 102 95
0.1638 -0.105933 -0.49 139 89 90
0.174852 -0.108744 -0.503 108 57 62
0.185391 -0.108744 -0.503 186 131 134
0.198014 -0.108311 -0.501 170 117 111
0.20208 -0.10896 -0.504 155 104 100
0.22218 -0.114365 -0.529 76 54 57
0.3277 -0.122148 -0.565 133 98 102
0.328721 -0.118256 -0.547 137 102 106
0.331671 -0.117824 -0.545 139 104 108
0.334171 -0.117608 -0.544 140 105 109
0.344191 -0.116094 -0.537 139 104 108
0.365889 -0.113932 -0.527 141 109 114
0.3689 -0.113932 -0.527 142 110 115
0.0947467 -0.103813 -0.476 188 138 129
0.104506 -0.100978 -0.463 186 133 125
0.11132 -0.10076 -0.462 185 133 122
0.116348 -0.100542 -0.461 178 126 113
0.1196 -0.100324 -0.46 176 121 114
0.14664 -0.102069 -0.468 156 106 99
0.1587 -0.10534 -0.483 150 99 96
0.192647 -0.108393 -0.497 179 125 123
0.205619 -0.110792 -0.508 141 94 88
0.249379 -0.123878 -0.568 53 41 51
0.318729 -0.131511 -0.603 75 66 71
0.336858 -0.133692 -0.613 61 52 57
0.344568 -0.13173 -0.604 112 90 92
0.358862 -0.114936 -0.527 112 85 90
0.364192 -0.114718 -0.526 136 105 110
0.366196 -0.114718 -0.526 138 107 112
0.398481 -0.116245 -0.533 155 112 121
0.403551 -0.115372 -0.529 210 155 161
0.408111 -0.115809 -0.531 203 148 153
0.0991819 -0.10274 -0.467 185 135 126
0.108915 -0.10186 -0.463 183 133 122
0.1122 -0.10164 -0.462 182 132 121
0.121352 -0.1012 -0.46 175 120 113
0.12546 -0.10098 -0.459 172 120 109
0.13391 -0.10142 -0.461 170 118 107
0.144238 -0.10252 -0.466 160 110 101
0.1568 -0.1056 -0.48 149 95 93
0.158371 -0.10604 -0.482 150 96 94
0.189986 -0.1089 -0.495 184 127 133
0.196273 -0.10978 -0.499 165 112 108
0.199366 -0.11044 -0.502 156 103 97
0.200721 -0.11066 -0.503 149 99 92
0.252666 -0.12606 -0.573 52 40 50
0.26732 -0.12628 -0.574 55 39 49
0.271071 -0.1265 -0.575 76 59 67
0.272167 -0.1265 -0.575 93 64 68
0.302766 -0.13024 -0.592 72 63 68
0.306567 -0.1309 -0.595 73 64 69
0.31758 -0.13266 -0.603 75 64 70
0.324121 -0.12254 -0.557 133 98 102
0.324366 -0.12144 -0.552 138 103 107
0.324828 -0.12122 -0.551 137 102 106
0.333135 -0.11968 -0.544 138 103 107
0.337481 -0.11902 -0.541 138 103 107
0.339313 -0.11858 -0.539 139 104 108
0.343169 -0.11814 -0.537 141 106 110
0.345592 -0.11792 -0.536 140 106 107
0.358862 -0.11594 -0.527 108 83 87
0.37664 -0.11616 -0.528 139 108 113
0.0971333 -0.104295 -0.47 185 137 125
0.11044 -0.10252 -0.462 182 132 121
0.11308 -0.10252 -0.462 183 131 120
0.11396 -0.10252 -0.462 184 132 121
0.114591 -0.102298 -0.461 184 132 121
0.116348 -0.102298 -0.461 182 130 119
0.128957 -0.101854 -0.459 169 119 108
0.131867 -0.102076 -0.46 168 118 107
0.144238 -0.103408 -0.466 162 112 103
0.168559 -0.109399 -0.493 160 106 104
0.178929 -0.111174 -0.501 167 116 115
0.213613 -0.114947 -0.518 103 69 67
0.258123 -0.127151 -0.573 43 35 48
0.261853 -0.127373 -0.574 46 41 48
0.2645 -0.127595 -0.575 48 39 44
0.26669 -0.127595 -0.575 55 42 51
0.298988 -0.130702 -0.589 93 81 83
0.337957 -0.136471 -0.615 56 47 50
0.346157 -0.136471 -0.615 58 47 51
0.329595 -0.120938 -0.545 135 103 106
0.337886 -0.119829 -0.54 139 104 108
0.347354 -0.118497 -0.534 139 104 108
0.357201 -0.117388 -0.529 64 42 45
0.358862 -0.116944 -0.527 104 79 82
0.397506 -0.117388 -0.529 178 129 135
0.0962381 -0.10519 -0.47 185 137 125
0.0985029 -0.104743 -0.468 184 136 124
0.134495 -0.102952 -0.46 169 117 104
0.144238 -0.104295 -0.466 160 112 100
0.157386 -0.107205 -0.479 151 98 92
0.158959 -0.107652 -0.481 151 98 92
0.169498 -0.110338 -0.493 165 114 111
0.179393 -0.111233 -0.497 187 132 135
0.179977 -0.11101 -0.496 190 135 138
0.183015 -0.110562 -0.494 193 138 141
0.200721 -0.112576 -0.503 143 94 87
0.2074 -0.114143 -0.51 122 83 78
0.211395 -0.115262 -0.515 104 70 68
0.2945 -0.131824 -0.589 92 70 72
0.29512 -0.1316 -0.588 89 73 74
0.31039 -0.133838 -0.598 67 56 60
0.32654 -0.1363 -0.609 61 50 56
0.322847 -0.123767 -0.553 142 107 111
0.32619 -0.122648 -0.548 134 99 103
0.346337 -0.119514 -0.534 137 105 110
0.350765 -0.11929 -0.533 139 107 112
0.352133 -0.119067 -0.532 136 104 109
0.358862 -0.117948 -0.527 113 84 88
0.367798 -0.117276 -0.524 135 100 106
0.372789 -0.117276 -0.524 144 109 115
0.398766 -0.118171 -0.528 201 149 153
0.40303 -0.117948 -0.527 208 153 159
0.0924876 -0.110149 -0.488 189 141 131
0.10627 -0.104506 -0.463 184 134 125
0.135666 -0.104054 -0.461 166 114 101
0.153937 -0.106989 -0.474 155 105 94
0.157057 -0.107891 -0.478 155 105 96
0.160791 -0.108569 -0.481 156 106 97
0.162716 -0.109246 -0.484 156 106 99
0.167191 -0.110374 -0.489 161 110 106
0.179828 -0.111277 -0.493 191 136 139
0.181337 -0.111051 -0.492 191 136 139
0.182274 -0.111051 -0.492 189 134 137
0.183774 -0.110826 -0.491 185 130 133
0.297218 -0.135203 -0.599 86 66 68
0.323155 -0.137009 -0.607 62 51 55
0.32654 -0.13746 -0.609 58 49 54
0.337333 -0.13904 -0.616 53 44 45
0.32916 -0.12324 -0.546 136 101 105
0.3302 -0.12324 -0.546 137 102 106
0.355517 -0.119854 -0.531 113 81 86
0.3605 -0.1185 -0.525 120 91 95
0.3615 -0.1185 -0.525 119 88 93
0.364804 -0.118274 -0.524 131 99 104
0.374785 -0.118274 -0.524 143 108 114
0.1078 -0.10516 -0.462 185 135 128
0.116971 -0.104705 -0.46 179 129 118
0.124586 -0.104477 -0.459 171 121 112
0.18471 -0.111761 -0.491 178 123 126
0.203846 -0.115175 -0.506 130 86 77
0.211806 -0.117451 -0.516 102 69 64
0.222009 -0.120866 -0.531 78 53 57
0.265695 -0.132019 -0.58 75 54 61
0.26726 -0.132247 -0.581 89 68 75
0.297218 -0.136344 -0.599 84 65 69
0.309871 -0.135889 -0.597 63 52 56
0.327076 -0.138848 -0.61 57 48 53
0.335614 -0.139986 -0.615 51 41 42
0.321793 -0.125873 -0.553 130 98 101
0.33645 -0.123142 -0.541 139 104 108
0.353147 -0.121093 -0.532 139 104 108
0.371081 -0.119045 -0.523 134 99 103
0.40859 -0.12041 -0.529 193 141 143
0.427922 -0.12337 -0.542 192 136 137
0.439226 -0.125418 -0.551 200 142 141
0.441873 -0.125873 -0.553 193 135 134
0.0926771 -0.112237 -0.489 194 141 133
0.0957486 -0.108335 -0.472 186 137 130
0.107151 -0.10627 -0.463 187 137 128
0.11547 -0.10581 -0.461 180 130 119
0.1196 -0.105581 -0.46 179 130 116
0.121963 -0.105351 -0.459 176 127 113
0.123711 -0.105351 -0.459 173 124 110
0.127209 -0.105351 -0.459 170 120 109
0.129831 -0.105351 -0.459 167 117 106
0.147216 -0.107188 -0.467 152 102 91
0.173133 -0.112467 -0.49 176 123 119
0.176506 -0.112237 -0.489 184 129 134
0.183026 -0.112237 -0.489 179 124 129
0.194149 -0.113844 -0.496 159 106 100
0.205619 -0.116598 -0.508 120 79 75
0.219332 -0.120959 -0.527 89 54 52
0.242681 -0.129681 -0.565 47 30 38
0.257516 -0.134042 -0.584 53 33 44
0.318107 -0.138632 -0.604 56 50 52
0.325147 -0.125779 -0.548 131 99 100
0.33439 -0.124172 -0.541 135 103 106
0.337886 -0.123943 -0.54 136 104 105
0.356193 -0.121418 -0.529 131 101 103
0.378054 -0.120041 -0.523 144 109 113
0.38743 -0.121418 -0.529 136 111 114
0.402265 -0.12073 -0.526 211 150 157
0.420906 -0.123254 -0.537 164 109 106
0.425314 -0.123943 -0.54 173 118 115
0.0964429 -0.109003 -0.471 185 136 129
0.116971 -0.106457 -0.46 179 129 118
0.135666 -0.106689 -0.461 163 113 102
0.150527 -0.10854 -0.469 144 94 83
0.176711 -0.112706 -0.487 181 125 128
0.180792 -0.112937 -0.488 179 124 127
0.19588 -0.115251 -0.498 153 103 96
0.214026 -0.120111 -0.519 105 66 61
0.252438 -0.134229 -0.58 53 32 41
0.318729 -0.139551 -0.603 56 47 50
0.329314 -0.141634 -0.612 51 40 44
0.342742 -0.141403 -0.611 98 79 81
0.326312 -0.132377 -0.572 125 89 93
0.322749 -0.130063 -0.562 122 90 93
0.32074 -0.12798 -0.553 128 94 95
0.322143 -0.127286 -0.55 131 97 98
0.326637 -0.126591 -0.547 133 101 102
0.32708 -0.12636 -0.546 133 101 102
0.332523 -0.125666 -0.543 136 101 105
0.347354 -0.123583 -0.534 139 104 108
0.355173 -0.12312 -0.532 135 101 102
0.374624 -0.120574 -0.521 134 98 102
0.375616 -0.120574 -0.521 137 102 106
0.377331 -0.120806 -0.522 137 102 106
0.418319 -0.123814 -0.535 163 108 105
0.0939095 -0.112233 -0.481 191 141 134
0.0971333 -0.109667 -0.47 187 137 128
0.102964 -0.108267 -0.464 187 137 128
0.104731 -0.108267 -0.464 188 138 127
0.116095 -0.107333 -0.46 179 131 117
0.124586 -0.1071 -0.459 171 123 109
0.126059 -0.106867 -0.458 171 123 109
0.126931 -0.106867 -0.458 169 121 107
0.164456 -0.112233 -0.481 156 103 97
0.16917 -0.112933 -0.484 169 114 109
0.187897 -0.1148 -0.492 168 114 112
0.266905 -0.137667 -0.59 141 104 112
0.294618 -0.136967 -0.587 89 68 73
0.306149 -0.138133 -0.592 93 71 74
0.341334 -0.144433 -0.619 43 32 38
0.342513 -0.144433 -0.619 43 34 37
0.32225 -0.131367 -0.563 127 91 95
0.320265 -0.129267 -0.554 128 94 95
0.32016 -0.1288 -0.552 129 95 96
0.329595 -0.127167 -0.545 137 103 104
0.330027 -0.126933 -0.544 136 102 103
0.333557 -0.1267 -0.543 137 103 104
0.341509 -0.125067 -0.536 138 103 107
0.34975 -0.124367 -0.533 138 103 107
0.353494 -0.1239 -0.531 137 102 106
0.356193 -0.123433 -0.529 137 102 108
0.3635 -0.1225 -0.525 112 82 84
0.363806 -0.122267 -0.524 114 84 86
0.373631 -0.121567 -0.521 135 100 106
0.374895 -0.121333 -0.52 135 100 106
0.389714 -0.1232 -0.528 61 46 43
0.404269 -0.122733 -0.526 198 141 148
0.105388 -0.108915 -0.463 188 138 129
0.107151 -0.108915 -0.463 187 137 128
0.126059 -0.107739 -0.458 170 122 108
0.136544 -0.108445 -0.461 159 111 99
0.13948 -0.10868 -0.462 155 107 95
0.160027 -0.111973 -0.476 144 94 85
0.178757 -0.11409 -0.485 179 123 122
0.295337 -0.137379 -0.584 90 69 74
0.316527 -0.141378 -0.601 66 50 53
0.342513 -0.145612 -0.619 40 31 34
0.325595 -0.128675 -0.547 133 99 100
0.330027 -0.12797 -0.544 135 101 102
0.333557 -0.127734 -0.543 136 102 103
0.333975 -0.127499 -0.542 137 103 104
0.336857 -0.127029 -0.54 139 105 106
0.33726 -0.126793 -0.539 138 103 107
0.364804 -0.123265 -0.524 113 83 85
0.372914 -0.122324 -0.52 135 100 106
0.387972 -0.12397 -0.527 56 42 39
0.389714 -0.124206 -0.528 46 32 29
0.395749 -0.124206 -0.528 82 51 56
0.4005 -0.1235 -0.525 201 144 150
0.44101 -0.12891 -0.548 192 136 135
0.115219 -0.109086 -0.46 181 131 120
0.123711 -0.108849 -0.459 172 122 111
0.16218 -0.113117 -0.477 143 93 84
0.165597 -0.113591 -0.479 155 102 94
0.182277 -0.115489 -0.487 178 125 119
0.319347 -0.14276 -0.602 64 49 54
0.324311 -0.143946 -0.607 49 38 42
0.328776 -0.144894 -0.611 46 37 42
0.342086 -0.145606 -0.614 97 78 80
0.31921 -0.131377 -0.554 126 94 95
0.323059 -0.129954 -0.548 133 99 100
0.325147 -0.129954 -0.548 133 99 100
0.357201 -0.125449 -0.529 137 102 108
0.3635 -0.1245 -0.525 116 86 88
0.367677 -0.123551 -0.521 118 89 93
0.4005 -0.1245 -0.525 200 143 149
0.0934352 -0.11785 -0.493 188 141 135
0.0943 -0.11546 -0.483 187 137 130
0.100071 -0.111635 -0.467 184 137 127
0.11044 -0.11044 -0.462 185 135 126
0.117848 -0.109962 -0.46 178 129 115
0.120214 -0.109723 -0.459 176 126 115
0.165251 -0.114265 -0.478 148 98 89
0.168334 -0.114504 -0.479 161 108 100
0.217914 -0.125739 -0.526 208 157 154
0.224099 -0.12813 -0.536 147 98 101
0.22764 -0.129564 -0.542 165 116 119
0.230782 -0.130759 -0.547 199 147 149
0.251333 -0.138648 -0.58 181 119 124
0.293745 -0.141516 -0.592 83 63 65
0.334889 -0.142711 -0.597 124 92 95
0.33726 -0.128847 -0.539 135 103 106
0.338684 -0.128608 -0.538 135 103 106
0.383768 -0.125261 -0.524 75 53 55
0.39072 -0.126217 -0.528 36 22 21
0.4045 -0.1255 -0.525 195 138 144
0.427371 -0.129086 -0.54 160 105 100
0.429193 -0.129325 -0.541 170 114 113
0.0966476 -0.11373 -0.472 186 139 131
0.112835 -0.111079 -0.461 184 136 124
0.167072 -0.115175 -0.478 149 96 90
0.176733 -0.116139 -0.482 176 121 116
0.231204 -0.132042 -0.548 190 128 131
0.292 -0.140716 -0.584 90 67 73
0.340231 -0.148668 -0.617 40 31 34
0.3196 -0.135897 -0.564 126 91 95
0.333975 -0.130596 -0.542 134 102 105
0.338287 -0.129873 -0.539 136 104 105
0.339709 -0.129632 -0.538 135 103 104
0.344303 -0.128669 -0.534 135 101 102
0.344673 -0.128428 -0.533 137 103 104
0.376876 -0.125295 -0.52 130 101 105
0.381309 -0.125777 -0.522 83 57 60
0.418554 -0.128669 -0.534 150 97 93
0.433883 -0.130837 -0.543 194 139 142
0.436754 -0.131078 -0.544 199 152 146
0.43779 -0.131078 -0.544 199 152 146
0.108915 -0.112443 -0.463 187 139 127
0.12546 -0.111471 -0.459 170 124 111
0.126931 -0.111229 -0.458 166 120 107
0.129831 -0.111471 -0.459 164 116 106
0.147789 -0.113171 -0.466 140 92 82
0.152313 -0.1139 -0.469 136 88 74
0.181529 -0.117786 -0.485 175 122 116
0.22764 -0.131629 -0.542 159 102 108
0.292752 -0.143286 -0.59 85 65 67
0.294419 -0.140857 -0.58 86 67 69
0.323511 -0.132843 -0.547 132 98 99
0.324553 -0.132843 -0.547 133 99 100
0.3615 -0.1275 -0.525 132 100 103
0.375163 -0.126043 -0.519 128 97 102
0.400261 -0.127743 -0.526 192 137 140
0.4015 -0.1275 -0.525 194 141 147
0.445997 -0.133329 -0.549 184 133 132
0.104731 -0.11357 -0.464 187 139 129
0.105615 -0.11357 -0.464 186 138 128
0.108915 -0.113325 -0.463 187 139 127
0.120214 -0.112346 -0.459 177 131 116
0.121963 -0.112346 -0.459 174 128 113
0.12546 -0.112346 -0.459 170 124 111
0.142428 -0.113325 -0.463 149 101 91
0.152313 -0.114793 -0.469 135 86 72
0.184132 -0.119199 -0.487 170 115 108
0.18544 -0.119444 -0.488 167 112 105
0.191096 -0.120668 -0.493 150 102 90
0.20862 -0.125563 -0.513 145 96 92
0.216088 -0.128255 -0.524 153 103 104
0.291607 -0.142207 -0.581 87 68 70
0.292809 -0.141717 -0.579 87 68 70
0.293911 -0.141717 -0.579 87 68 70
0.306394 -0.14343 -0.586 94 71 77
0.32832 -0.148815 -0.608 39 29 30
0.337071 -0.148081 -0.605 118 89 94
0.330027 -0.13315 -0.544 134 100 101
0.341123 -0.131437 -0.537 138 104 105
0.351819 -0.129724 -0.53 233 224 229
0.353838 -0.129724 -0.53 195 182 191
0.3625 -0.1285 -0.525 132 97 103
0.372197 -0.127031 -0.519 123 91 96
0.373186 -0.127031 -0.519 131 99 104
0.375886 -0.127276 -0.52 126 95 100
0.395229 -0.129724 -0.53 28 12 13
0.4045 -0.1285 -0.525 192 135 141
0.42658 -0.131927 -0.539 152 99 95
0.433883 -0.132906 -0.543 192 140 142
0.0985029 -0.11544 -0.468 185 137 125
0.106499 -0.114453 -0.464 184 138 125
0.116095 -0.113467 -0.46 180 131 117
0.117848 -0.113467 -0.46 176 127 113
0.121963 -0.11322 -0.459 174 128 113
0.123711 -0.11322 -0.459 169 123 108
0.133329 -0.11322 -0.459 161 113 103
0.136248 -0.113467 -0.46 158 109 95
0.137422 -0.113713 -0.461 155 106 92
0.162405 -0.117167 -0.475 139 87 76
0.174171 -0.1184 -0.48 170 115 108
0.206833 -0.126047 -0.511 135 84 81
0.291134 -0.145287 -0.589 88 65 73
0.291105 -0.143067 -0.58 88 67 74
0.294505 -0.142573 -0.578 87 66 73
0.329478 -0.149973 -0.608 41 29 31
0.337474 -0.15096 -0.612 53 39 39
0.317671 -0.1369 -0.555 127 91 95
0.319 -0.135667 -0.55 127 93 91
0.341123 -0.13246 -0.537 135 103 104
0.34189 -0.131967 -0.535 135 103 106
0.34808 -0.131227 -0.532 148 115 122
0.357858 -0.129993 -0.527 132 95 102
0.359183 -0.129747 -0.526 135 100 106
0.3625 -0.1295 -0.525 130 99 104
0.369943 -0.128267 -0.52 106 80 81
0.370933 -0.128267 -0.52 118 87 92
0.372197 -0.12802 -0.519 133 96 103
0.37932 -0.12876 -0.522 98 71 76
0.393951 -0.13098 -0.531 27 15 17
0.4015 -0.1295 -0.525 196 140 139
0.4025 -0.1295 -0.525 194 138 137
0.420357 -0.131967 -0.535 151 95 94
0.44356 -0.13468 -0.546 185 140 135
0.0966476 -0.117326 -0.472 186 139 129
0.108267 -0.115337 -0.464 187 139 127
0.118466 -0.114094 -0.459 176 127 113
0.134495 -0.114343 -0.46 157 111 98
0.149885 -0.116083 -0.467 135 88 78
0.167631 -0.118569 -0.477 152 99 91
0.171984 -0.119066 -0.479 167 113 103
0.183754 -0.120806 -0.486 166 113 107
0.290146 -0.145911 -0.587 88 65 73
0.29 -0.144171 -0.58 87 66 73
0.317755 -0.138454 -0.557 126 90 94
0.317671 -0.137957 -0.555 126 90 94
0.3348 -0.134229 -0.54 138 104 105
0.338684 -0.133731 -0.538 137 103 104
0.348437 -0.131991 -0.531 218 187 193
0.357531 -0.131246 -0.528 128 93 99
0.367389 -0.129754 -0.522 125 95 97
0.373905 -0.129257 -0.52 131 96 102
0.380047 -0.130003 -0.523 85 60 64
0.39672 -0.13224 -0.532 30 18 22
0.419571 -0.132737 -0.534 153 97 96
0.09734 -0.117974 -0.471 187 140 130
0.100745 -0.116722 -0.466 186 138 126
0.1122 -0.11572 -0.462 187 139 127
0.116971 -0.115219 -0.46 180 130 119
0.148995 -0.116972 -0.467 134 87 77
0.154757 -0.117974 -0.471 129 81 71
0.156551 -0.117974 -0.471 129 81 71
0.16116 -0.118726 -0.474 132 82 73
0.16331 -0.118976 -0.475 138 88 81
0.165119 -0.118976 -0.475 145 95 88
0.16728 -0.119227 -0.476 151 98 92
0.169804 -0.119728 -0.478 157 103 93
0.197224 -0.124988 -0.499 135 84 81
0.295167 -0.144024 -0.575 88 67 74
0.311443 -0.146529 -0.585 95 74 79
0.327917 -0.151037 -0.603 61 42 46
0.326486 -0.146779 -0.586 121 86 92
0.318014 -0.141519 -0.565 126 87 92
0.317185 -0.139265 -0.556 126 90 94
0.31958 -0.138012 -0.551 121 96 92
0.35317 -0.132502 -0.529 129 106 112
0.369662 -0.130498 -0.521 103 74 76
0.373905 -0.130248 -0.52 128 93 99
0.380773 -0.13125 -0.524 64 43 48
0.401263 -0.13175 -0.526 197 141 140
0.434116 -0.135758 -0.542 186 137 130
0.436181 -0.135758 -0.542 200 153 145
0.44564 -0.13676 -0.546 177 132 127
0.117848 -0.116095 -0.46 179 131 119
0.14124 -0.1166 -0.462 145 97 87
0.151097 -0.118114 -0.468 132 84 72
0.157783 -0.119124 -0.472 131 83 73
0.292654 -0.151176 -0.599 89 66 74
0.290101 -0.145876 -0.578 86 65 72
0.297933 -0.144867 -0.574 91 70 77
0.326883 -0.151176 -0.599 63 47 48
0.32537 -0.147895 -0.586 124 95 100
0.316889 -0.14209 -0.563 123 87 91
0.32292 -0.1378 -0.546 130 101 105
0.354178 -0.13351 -0.529 123 94 99
0.364108 -0.131995 -0.523 132 97 101
0.374624 -0.13149 -0.521 129 97 102
0.3815 -0.1325 -0.525 50 31 35
0.3959 -0.135024 -0.535 27 17 15
0.44668 -0.1378 -0.546 177 129 125
0.09734 -0.119769 -0.471 187 140 130
0.100745 -0.118497 -0.466 187 141 128
0.103186 -0.118243 -0.465 186 138 126
0.108033 -0.117734 -0.463 186 138 124
0.111561 -0.117734 -0.463 188 140 128
0.125187 -0.116463 -0.458 168 120 108
0.131293 -0.116463 -0.458 156 108 98
0.136248 -0.116971 -0.46 151 103 93
0.150206 -0.119006 -0.468 136 86 77
0.16082 -0.120277 -0.473 136 86 79
0.164214 -0.120786 -0.475 140 90 83
0.173809 -0.121803 -0.479 162 107 102
0.191646 -0.125109 -0.492 135 84 80
0.199366 -0.127651 -0.502 137 87 80
0.301213 -0.14596 -0.574 97 74 80
0.306085 -0.146723 -0.577 98 75 81
0.314248 -0.148503 -0.584 107 82 86
0.319928 -0.139349 -0.548 100 84 84
0.321428 -0.139094 -0.547 98 89 90
0.327954 -0.138331 -0.544 132 102 102
0.32899 -0.138331 -0.544 134 106 105
0.32942 -0.138077 -0.543 129 101 100
0.332329 -0.137569 -0.541 133 101 104
0.370654 -0.132483 -0.521 133 98 102
0.387152 -0.134771 -0.53 31 19 21
0.397997 -0.135026 -0.531 60 38 41
0.40373 -0.133246 -0.524 196 138 134
0.431486 -0.137314 -0.54 168 117 113
0.445044 -0.138331 -0.544 180 131 127
0.0948857 -0.124509 -0.486 189 140 135
0.0980286 -0.12041 -0.47 185 138 128
0.100071 -0.119641 -0.467 186 139 129
0.132454 -0.117591 -0.459 154 106 96
0.152313 -0.120153 -0.469 132 84 74
0.166024 -0.12169 -0.475 147 94 88
0.179488 -0.123484 -0.482 155 102 98
0.311557 -0.148334 -0.579 105 78 83
0.31428 -0.149103 -0.582 106 79 84
0.320334 -0.150384 -0.587 134 109 113
0.315255 -0.143979 -0.562 117 91 92
0.31758 -0.141673 -0.553 120 96 94
0.318057 -0.141417 -0.552 122 98 96
0.326481 -0.139624 -0.545 126 110 111
0.326918 -0.139368 -0.544 136 114 116
0.32899 -0.139368 -0.544 124 99 102
0.330878 -0.138855 -0.542 134 102 105
0.335207 -0.138087 -0.539 134 102 105
0.339077 -0.137574 -0.537 160 130 132
0.345403 -0.136037 -0.531 133 103 103
0.35081 -0.135781 -0.53 138 102 106
0.362417 -0.133731 -0.522 130 98 103
0.366394 -0.133731 -0.522 133 98 102
0.385414 -0.135525 -0.529 32 20 22
0.11484 -0.11924 -0.462 184 136 124
0.118724 -0.118724 -0.46 178 128 117
0.126654 -0.11795 -0.457 162 114 104
0.137422 -0.118982 -0.461 148 100 90
0.142428 -0.119498 -0.463 143 93 84
0.161721 -0.122079 -0.473 139 90 83
0.176914 -0.123886 -0.48 152 99 95
0.287294 -0.149437 -0.579 87 64 72
0.298551 -0.147372 -0.571 94 73 78
0.319466 -0.141694 -0.549 70 84 87
0.333771 -0.139371 -0.54 131 101 103
0.338054 -0.138597 -0.537 176 145 150
0.345403 -0.137049 -0.531 133 103 103
0.362417 -0.134726 -0.522 129 98 103
0.364406 -0.134726 -0.522 129 97 102
0.366394 -0.134726 -0.522 132 96 100
0.400913 -0.139113 -0.539 31 21 20
0.399014 -0.136016 -0.527 171 123 121
0.4055 -0.1355 -0.525 192 137 134
0.41441 -0.13679 -0.53 166 113 107
0.0993943 -0.12168 -0.468 185 138 128
0.101632 -0.12116 -0.466 186 138 126
0.104957 -0.1209 -0.465 184 138 125
0.127525 -0.11882 -0.457 161 111 102
0.129549 -0.11908 -0.458 157 107 98
0.1383 -0.11986 -0.461 144 96 86
0.1541 -0.12194 -0.469 134 85 78
0.163869 -0.12324 -0.474 139 89 82
0.169449 -0.12402 -0.477 151 98 92
0.192035 -0.12818 -0.493 126 75 74
0.286686 -0.1508 -0.58 87 64 72
0.29414 -0.14898 -0.573 92 69 75
0.31374 -0.14742 -0.567 118 88 90
0.316527 -0.14378 -0.553 112 94 90
0.331298 -0.14066 -0.541 131 99 100
0.34338 -0.13806 -0.531 131 97 98
0.346414 -0.13806 -0.531 134 104 106
0.354178 -0.13754 -0.529 122 91 97
0.370654 -0.13546 -0.521 131 95 99
0.4033 -0.1417 -0.545 33 19 16
0.40137 -0.14066 -0.541 32 22 21
0.0975467 -0.123619 -0.472 186 139 129
0.100745 -0.122048 -0.466 185 138 128
0.131293 -0.119952 -0.458 153 105 95
0.133329 -0.120214 -0.459 147 99 89
0.156219 -0.123095 -0.47 135 86 79
0.163869 -0.124143 -0.474 138 89 84
0.1843 -0.127024 -0.485 135 82 78
0.189386 -0.128595 -0.491 125 76 72
0.311603 -0.149548 -0.571 110 86 84
0.31442 -0.144833 -0.553 107 93 93
0.317006 -0.144571 -0.552 81 82 86
0.339077 -0.140643 -0.537 175 153 155
0.342269 -0.139857 -0.534 129 92 99
0.344391 -0.139071 -0.531 134 102 107
0.35317 -0.138548 -0.529 131 96 102
0.363411 -0.136714 -0.522 126 95 100
0.381669 -0.138286 -0.528 34 24 23
0.419801 -0.139595 -0.533 157 107 96
0.42602 -0.140643 -0.537 139 90 85
0.437061 -0.140905 -0.538 197 147 140
0.0958543 -0.125837 -0.477 185 138 128
0.0987133 -0.123727 -0.469 186 139 129
0.100071 -0.123199 -0.467 185 137 127
0.106499 -0.122408 -0.464 185 137 125
0.107383 -0.122408 -0.464 185 137 125
0.108915 -0.122144 -0.463 185 137 125
0.111561 -0.122144 -0.463 183 135 123
