ply
format ascii 1.0
comment Created by Open3D
element vertex 1303
property double x
property double y
property double z
property uchar red
property uchar green
property uchar blue
end_header
0.323997 -0.1521 -0.507 138 103 107
0.328826 -0.1521 -0.507 134 102 107
0.330757 -0.1521 -0.507 136 104 109
0.336551 -0.1521 -0.507 133 101 106
0.356386 -0.1515 -0.505 125 96 100
0.363119 -0.1515 -0.505 127 98 102
0.382357 -0.1515 -0.505 125 98 103
0.391402 -0.1524 -0.508 120 94 95
0.39566 -0.1533 -0.511 114 85 89
0.44409 -0.1563 -0.521 189 132 125
0.452636 -0.1572 -0.524 149 99 92
-0.127551 -0.195332 -0.647 189 189 177
0.0936429 -0.173595 -0.575 200 153 145
0.162489 -0.192917 -0.639 146 86 88
0.169057 -0.184162 -0.61 188 135 127
0.262256 -0.16333 -0.541 158 118 127
0.267829 -0.155783 -0.516 151 116 120
0.269271 -0.155481 -0.515 150 115 119
0.273195 -0.155481 -0.515 149 114 120
0.315928 -0.153368 -0.508 136 101 105
0.319169 -0.153066 -0.507 134 102 105
0.3211 -0.153066 -0.507 136 101 105
0.323997 -0.153066 -0.507 136 101 105
0.324963 -0.153066 -0.507 133 101 106
0.338483 -0.153066 -0.507 130 100 102
0.367929 -0.152462 -0.505 125 96 101
0.369852 -0.152462 -0.505 126 97 102
0.444234 -0.162425 -0.538 142 103 104
0.44409 -0.157292 -0.521 186 129 122
-0.14212 -0.196261 -0.646 181 178 169
-0.124429 -0.197476 -0.65 191 189 177
0.096 -0.174994 -0.576 195 148 140
0.0983648 -0.175298 -0.577 195 142 136
0.122581 -0.185324 -0.61 113 54 58
0.130495 -0.188362 -0.62 102 47 52
0.147933 -0.192615 -0.634 125 70 73
0.153728 -0.19383 -0.638 144 86 98
0.195957 -0.195957 -0.645 138 79 85
0.271233 -0.156462 -0.515 150 115 121
0.281906 -0.155854 -0.513 146 111 117
0.284837 -0.155854 -0.513 145 110 116
0.288183 -0.15555 -0.512 143 108 114
0.295407 -0.155247 -0.511 142 107 111
0.298327 -0.155247 -0.511 142 108 109
0.316271 -0.154031 -0.507 136 101 105
0.320467 -0.153728 -0.506 133 101 104
0.323997 -0.154031 -0.507 134 99 103
0.32625 -0.153728 -0.506 136 102 103
0.328177 -0.153728 -0.506 139 105 106
0.329141 -0.153728 -0.506 135 101 102
0.357348 -0.153424 -0.505 126 97 101
0.37776 -0.15312 -0.504 125 96 98
0.450776 -0.158892 -0.523 145 88 79
0.467377 -0.162234 -0.534 140 90 83
-0.135126 -0.196269 -0.642 185 183 171
0.0911343 -0.175174 -0.573 200 153 143
0.0922257 -0.175174 -0.573 201 153 143
0.10494 -0.178231 -0.583 175 120 115
0.121021 -0.185874 -0.608 120 63 69
0.130706 -0.189849 -0.621 94 44 47
0.1422 -0.1926 -0.63 101 56 59
0.165009 -0.189849 -0.621 209 150 142
0.164949 -0.187097 -0.612 203 149 139
0.167987 -0.18404 -0.602 179 127 116
0.182163 -0.189237 -0.619 152 97 102
0.259011 -0.159583 -0.522 150 113 120
0.275602 -0.157137 -0.514 149 114 118
0.280497 -0.157137 -0.514 146 111 117
0.288183 -0.156526 -0.512 143 108 114
0.297353 -0.15622 -0.511 141 106 110
0.299686 -0.155914 -0.51 141 106 110
0.310122 -0.155303 -0.508 135 98 105
0.320467 -0.154691 -0.506 133 101 104
0.334924 -0.154691 -0.506 129 97 100
0.349381 -0.154691 -0.506 130 98 103
0.359271 -0.154386 -0.505 128 97 102
0.37104 -0.15408 -0.504 122 92 100
0.372 -0.15408 -0.504 120 90 98
0.493319 -0.187403 -0.613 80 57 63
0.442386 -0.164169 -0.537 140 101 96
0.442954 -0.159583 -0.522 191 136 129
0.446075 -0.159277 -0.521 170 113 102
0.0978533 -0.176573 -0.574 192 142 131
0.099119 -0.176881 -0.575 190 141 127
0.134143 -0.19257 -0.626 89 40 43
0.147933 -0.19503 -0.634 140 89 88
0.164353 -0.191647 -0.623 213 152 147
0.169431 -0.184264 -0.599 172 117 110
0.2585 -0.1615 -0.525 136 105 111
0.299686 -0.156886 -0.51 142 107 111
0.320467 -0.155655 -0.506 135 103 106
0.329141 -0.155655 -0.506 138 103 107
0.343881 -0.155348 -0.505 228 208 217
0.346767 -0.155348 -0.505 130 103 110
0.36432 -0.15504 -0.504 126 97 101
0.375624 -0.155348 -0.505 115 90 96
0.37584 -0.15504 -0.504 118 92 95
0.386006 -0.155655 -0.506 123 92 97
0.387734 -0.155963 -0.507 119 88 96
0.391971 -0.156886 -0.51 125 94 99
0.398549 -0.158731 -0.516 113 84 88
0.49808 -0.189493 -0.616 68 36 39
0.501239 -0.189801 -0.617 64 29 33
0.462729 -0.163346 -0.531 118 69 62
0.110695 -0.182619 -0.59 163 105 101
0.139356 -0.194381 -0.628 91 45 47
0.146263 -0.195619 -0.632 135 85 86
0.163632 -0.196238 -0.634 210 154 153
0.259431 -0.164357 -0.531 98 71 80
0.274176 -0.159405 -0.515 149 114 118
0.281906 -0.158786 -0.513 143 111 116
0.286232 -0.158476 -0.512 144 109 115
0.291513 -0.158167 -0.511 142 107 113
0.319503 -0.156619 -0.506 137 102 108
0.323358 -0.156619 -0.506 134 99 105
0.324322 -0.156619 -0.506 136 105 110
0.340995 -0.15631 -0.505 217 196 205
0.342919 -0.15631 -0.505 143 123 134
0.36336 -0.156 -0.504 127 96 101
0.37104 -0.156 -0.504 124 93 98
0.437159 -0.163119 -0.527 184 133 129
0.467377 -0.165286 -0.534 136 89 81
0.476743 -0.167143 -0.54 160 107 103
0.48531 -0.16869 -0.545 148 99 92
-0.14146 -0.200249 -0.643 183 180 173
-0.126905 -0.202429 -0.65 191 188 179
0.0784457 -0.179383 -0.576 200 153 143
0.0962543 -0.177826 -0.571 202 152 145
0.164623 -0.184989 -0.594 178 124 112
0.2595 -0.1635 -0.525 101 75 84
0.269271 -0.160386 -0.515 147 112 118
0.280381 -0.159451 -0.512 143 111 116
0.283307 -0.159451 -0.512 142 110 115
0.322394 -0.157583 -0.506 133 101 106
0.345805 -0.157271 -0.505 134 103 108
0.35856 -0.15696 -0.504 128 97 102
0.37296 -0.15696 -0.504 123 93 95
0.385803 -0.157894 -0.507 124 92 93
0.386769 -0.157894 -0.507 123 91 92
0.436983 -0.164434 -0.528 172 123 118
0.472928 -0.167549 -0.538 154 101 95
-0.281667 -0.203667 -0.65 249 250 244
-0.136349 -0.20116 -0.642 185 182 173
0.0838476 -0.177973 -0.568 199 151 141
0.0960857 -0.1786 -0.57 200 150 143
0.0984295 -0.178913 -0.571 195 145 136
0.116948 -0.187687 -0.599 156 96 98
0.11868 -0.188627 -0.602 147 87 89
0.120623 -0.18988 -0.606 133 77 78
0.147233 -0.197713 -0.631 147 96 95
0.167167 -0.186433 -0.595 166 113 105
0.178645 -0.191447 -0.611 128 86 87
0.186011 -0.19552 -0.624 123 78 81
0.264409 -0.161993 -0.517 146 114 117
0.288593 -0.160113 -0.511 144 109 115
0.289971 -0.1598 -0.51 144 109 115
0.302007 -0.159487 -0.509 145 109 113
0.31372 -0.158547 -0.506 134 99 103
0.334262 -0.158233 -0.505 131 99 104
0.341957 -0.158233 -0.505 222 199 209
0.346767 -0.158233 -0.505 130 98 103
0.34992 -0.15792 -0.504 127 96 101
0.3768 -0.15792 -0.504 124 95 97
0.492151 -0.192073 -0.613 71 52 56
0.44409 -0.163247 -0.521 183 126 117
0.451638 -0.164187 -0.524 144 87 76
-0.28247 -0.20459 -0.649 217 218 213
-0.276714 -0.204905 -0.65 205 206 201
0.0787143 -0.179686 -0.57 200 153 143
0.118286 -0.189143 -0.6 150 90 90
0.132313 -0.196393 -0.623 87 41 44
0.147 -0.1986 -0.63 155 104 103
0.183638 -0.195448 -0.62 120 78 80
0.261914 -0.168337 -0.534 113 97 107
0.288029 -0.160771 -0.51 143 108 114
0.29522 -0.160456 -0.509 144 108 112
0.301413 -0.160141 -0.508 142 106 110
0.309511 -0.159826 -0.507 134 99 103
0.312756 -0.15951 -0.506 134 99 103
0.317575 -0.15951 -0.506 131 99 102
0.325605 -0.159195 -0.505 136 104 105
0.3528 -0.15888 -0.504 128 95 102
0.37008 -0.15888 -0.504 123 94 96
0.37872 -0.15888 -0.504 124 94 96
0.494124 -0.193556 -0.614 52 27 33
0.48104 -0.18536 -0.588 92 62 64
0.4636 -0.167707 -0.532 116 76 66
0.468252 -0.168652 -0.535 137 93 84
0.484419 -0.17149 -0.544 151 103 91
-0.28865 -0.205826 -0.649 229 230 225
-0.283269 -0.205509 -0.648 162 163 158
-0.131249 -0.205191 -0.647 188 185 176
0.0746067 -0.186797 -0.589 205 158 150
0.13772 -0.198531 -0.626 88 43 46
0.152041 -0.200117 -0.631 195 139 138
0.262981 -0.168086 -0.53 113 97 110
0.272214 -0.163329 -0.515 144 112 117
0.273644 -0.163011 -0.514 141 109 114
0.274089 -0.162694 -0.513 141 109 114
0.279406 -0.162377 -0.512 143 111 116
0.2847 -0.16206 -0.511 142 107 113
0.30601 -0.160474 -0.506 134 98 102
0.315648 -0.160474 -0.506 135 100 104
0.33552 -0.15984 -0.504 123 96 101
0.33744 -0.15984 -0.504 218 195 201
0.3384 -0.15984 -0.504 225 202 208
0.34512 -0.15984 -0.504 132 100 105
0.361681 -0.159523 -0.503 123 93 95
0.400648 -0.164914 -0.52 68 43 47
0.47838 -0.191237 -0.603 68 47 54
0.495293 -0.194726 -0.614 58 32 41
0.443007 -0.17094 -0.539 138 107 105
0.476743 -0.171257 -0.54 161 104 95
-0.278331 -0.206743 -0.648 138 139 134
-0.139581 -0.20419 -0.64 186 183 174
-0.128143 -0.207381 -0.65 190 187 178
0.0774924 -0.181538 -0.569 201 154 144
0.107157 -0.18409 -0.577 185 131 121
0.111794 -0.186324 -0.584 177 117 117
0.159871 -0.187919 -0.589 172 118 106
0.164069 -0.188876 -0.592 161 108 100
0.274623 -0.16399 -0.514 142 107 111
0.279406 -0.163352 -0.512 143 108 114
0.29464 -0.162076 -0.508 139 103 107
0.29851 -0.162076 -0.508 152 116 120
0.310829 -0.161438 -0.506 134 100 101
0.312756 -0.161438 -0.506 135 101 102
0.343477 -0.160481 -0.503 129 98 103
0.3521 -0.160481 -0.503 130 95 101
0.382357 -0.161119 -0.505 121 95 98
-0.288993 -0.207656 -0.647 157 158 153
-0.150429 -0.208619 -0.65 181 178 171
-0.146359 -0.206372 -0.643 178 178 168
-0.141797 -0.205089 -0.639 185 182 173
-0.135547 -0.206693 -0.644 187 184 175
-0.131451 -0.207977 -0.648 189 186 177
0.07372 -0.186794 -0.582 206 156 147
0.123881 -0.194176 -0.605 136 80 83
0.142034 -0.200274 -0.624 161 110 109
0.152193 -0.198028 -0.617 210 151 147
0.165754 -0.190646 -0.594 152 102 93
0.18423 -0.199632 -0.622 126 80 82
0.266011 -0.169463 -0.528 106 89 105
0.267409 -0.166574 -0.519 110 83 88
0.287057 -0.163686 -0.51 142 107 113
0.299854 -0.162723 -0.507 139 103 107
0.30601 -0.162402 -0.506 135 99 101
0.316611 -0.162402 -0.506 135 101 102
0.324643 -0.162081 -0.505 133 103 105
0.325605 -0.162081 -0.505 136 101 105
0.33264 -0.16176 -0.504 137 100 107
0.33677 -0.161439 -0.503 190 161 166
0.373178 -0.161439 -0.503 180 153 158
0.383114 -0.162402 -0.506 124 95 99
0.441113 -0.167216 -0.521 182 130 119
0.45064 -0.168179 -0.524 145 91 79
0.4525 -0.1685 -0.525 141 87 75
0.476743 -0.173314 -0.54 159 104 99
-0.291458 -0.208889 -0.647 164 165 160
-0.286086 -0.208566 -0.646 152 154 149
-0.139581 -0.206629 -0.64 185 182 175
0.0906162 -0.181769 -0.563 199 153 140
0.0929257 -0.182091 -0.564 199 151 139
0.0973952 -0.182414 -0.565 194 144 135
0.110837 -0.186934 -0.579 183 123 122
0.112327 -0.18758 -0.581 180 120 119
0.135001 -0.199849 -0.619 108 56 60
0.15821 -0.189517 -0.587 170 117 103
0.17574 -0.19662 -0.609 125 74 81
0.287464 -0.164334 -0.509 142 105 112
0.296957 -0.163689 -0.507 155 119 123
0.312756 -0.163366 -0.506 134 100 101
0.33198 -0.162397 -0.503 134 97 104
0.333896 -0.162397 -0.503 133 98 104
0.334854 -0.162397 -0.503 133 101 106
0.335812 -0.162397 -0.503 133 101 106
0.350444 -0.162074 -0.502 131 92 93
0.37872 -0.16272 -0.504 126 101 104
0.384837 -0.163689 -0.507 124 92 97
0.392323 -0.165626 -0.513 95 69 70
0.495433 -0.20114 -0.623 133 121 133
0.443007 -0.17402 -0.539 148 112 114
0.437983 -0.168531 -0.522 192 140 127
0.46636 -0.172406 -0.534 132 87 81
-0.1512 -0.210446 -0.648 182 179 170
0.0809648 -0.182841 -0.563 201 154 144
0.0972229 -0.183166 -0.564 195 145 134
0.12818 -0.19778 -0.609 140 84 83
0.169997 -0.195182 -0.601 134 88 91
0.269538 -0.173748 -0.535 71 62 81
0.27702 -0.166603 -0.513 146 107 112
0.290372 -0.165304 -0.509 140 106 107
0.316611 -0.16433 -0.506 134 100 101
0.332938 -0.163355 -0.503 133 98 102
0.335812 -0.163355 -0.503 132 100 103
0.338687 -0.163355 -0.503 139 104 110
0.346351 -0.163355 -0.503 130 95 101
0.362639 -0.163355 -0.503 126 94 97
0.373392 -0.16303 -0.502 141 118 124
0.376052 -0.163355 -0.503 212 193 197
0.436989 -0.169526 -0.522 194 145 131
-0.1512 -0.21168 -0.648 184 181 172
-0.149503 -0.211027 -0.646 184 181 172
-0.0253029 -0.21168 -0.648 75 72 81
0.0716038 -0.193387 -0.592 199 157 145
0.0741105 -0.185547 -0.568 204 158 145
0.15158 -0.190447 -0.583 176 122 110
0.155443 -0.1911 -0.585 172 116 101
0.28178 -0.166927 -0.511 146 109 116
0.283586 -0.166273 -0.509 145 109 113
0.296957 -0.16562 -0.507 142 105 112
0.301786 -0.16562 -0.507 134 99 103
0.32496 -0.16464 -0.504 136 101 105
0.352356 -0.163987 -0.502 130 95 99
0.356181 -0.163987 -0.502 129 95 96
0.357137 -0.163987 -0.502 129 95 96
0.368611 -0.163987 -0.502 125 93 96
0.37148 -0.163987 -0.502 223 202 207
0.43683 -0.170847 -0.523 198 149 135
0.442106 -0.170193 -0.521 177 119 107
-0.29256 -0.2116 -0.644 162 164 159
-0.286427 -0.2116 -0.644 153 155 150
-0.134737 -0.212257 -0.646 187 184 175
-0.13392 -0.212914 -0.648 187 185 173
-0.13289 -0.213243 -0.649 188 186 174
-0.0277714 -0.212914 -0.648 73 70 77
0.100268 -0.184986 -0.563 190 139 120
0.137195 -0.201414 -0.613 182 124 122
0.148847 -0.1909 -0.581 184 127 116
0.1596 -0.1932 -0.588 146 98 88
0.284555 -0.167243 -0.509 147 111 115
0.308901 -0.166257 -0.506 134 100 101
0.324 -0.1656 -0.504 134 99 103
0.342519 -0.165271 -0.503 130 95 99
0.347575 -0.164943 -0.502 129 94 98
0.44608 -0.178743 -0.544 143 108 104
0.43467 -0.172171 -0.524 194 146 132
0.464471 -0.175129 -0.533 130 85 82
0.472928 -0.176771 -0.538 139 95 92
0.484419 -0.178743 -0.544 138 99 94
-0.300549 -0.214149 -0.648 251 252 247
-0.297929 -0.213157 -0.645 252 253 248
-0.0276857 -0.213488 -0.646 72 69 76
0.0730286 -0.18771 -0.568 203 159 146
0.07868 -0.185728 -0.562 204 158 145
0.0878429 -0.184736 -0.559 200 153 135
0.102594 -0.186389 -0.564 189 136 118
0.13376 -0.20093 -0.608 173 114 110
0.143807 -0.192668 -0.583 193 136 125
0.272351 -0.171517 -0.519 96 75 82
0.275241 -0.170856 -0.517 112 89 97
0.283171 -0.168543 -0.51 145 108 115
0.284555 -0.168212 -0.509 144 107 114
0.302154 -0.167221 -0.506 136 101 105
0.370524 -0.165899 -0.502 124 98 107
0.439719 -0.176805 -0.535 163 125 122
0.447788 -0.172839 -0.523 142 93 86
0.474833 -0.178127 -0.539 139 96 90
-0.290881 -0.213721 -0.643 147 149 144
0.0719467 -0.188792 -0.568 203 159 148
0.10854 -0.18846 -0.567 183 123 115
0.111481 -0.18979 -0.571 177 117 109
0.140321 -0.195108 -0.587 199 140 134
0.15054 -0.192449 -0.579 164 111 95
0.156557 -0.194443 -0.585 147 98 91
0.284143 -0.169514 -0.51 144 107 114
0.287867 -0.16885 -0.508 142 107 113
0.30601 -0.168185 -0.506 132 97 101
0.306973 -0.168185 -0.506 133 98 102
0.328148 -0.167188 -0.503 134 100 101
0.334854 -0.167188 -0.503 131 99 100
0.355471 -0.166523 -0.501 129 95 96
0.367655 -0.166855 -0.502 123 91 94
0.368611 -0.166855 -0.502 178 146 149
0.376052 -0.167188 -0.503 131 110 115
0.380433 -0.167852 -0.505 124 93 99
0.43467 -0.174168 -0.524 201 142 136
0.443098 -0.17317 -0.521 165 107 95
0.480573 -0.18015 -0.542 144 99 93
-0.136178 -0.216283 -0.647 189 187 175
-0.0314743 -0.216617 -0.648 63 61 72
0.0887486 -0.186531 -0.558 201 154 138
0.096361 -0.186866 -0.559 194 143 122
0.0986667 -0.1872 -0.56 191 138 120
0.0997333 -0.1872 -0.56 190 137 119
0.110895 -0.189874 -0.568 178 118 110
0.117049 -0.192883 -0.577 183 122 117
0.129767 -0.1989 -0.595 195 136 132
0.151905 -0.193886 -0.58 153 106 96
0.153273 -0.19422 -0.581 147 100 90
0.154911 -0.194889 -0.583 141 96 90
0.166009 -0.200237 -0.599 122 82 82
0.182419 -0.209931 -0.628 141 104 112
0.275973 -0.175166 -0.524 103 85 97
0.275848 -0.173829 -0.52 101 84 94
0.333896 -0.168146 -0.503 132 98 99
0.337729 -0.168146 -0.503 132 98 99
0.345393 -0.168146 -0.503 132 98 97
0.350444 -0.167811 -0.502 131 97 96
0.435795 -0.176837 -0.529 179 132 126
0.487981 -0.183189 -0.548 143 94 89
-0.296543 -0.215834 -0.642 247 248 243
0.0693057 -0.192637 -0.573 202 158 147
0.0814543 -0.18793 -0.559 201 155 142
0.0952962 -0.18793 -0.559 194 143 124
0.10062 -0.18793 -0.559 190 134 119
0.113258 -0.191292 -0.569 180 120 112
0.122708 -0.195999 -0.583 188 129 123
0.146214 -0.19331 -0.575 168 112 97
0.147566 -0.193646 -0.576 163 107 92
0.175698 -0.20743 -0.617 119 86 95
0.27655 -0.177172 -0.527 99 85 100
0.2775 -0.1765 -0.525 104 90 105
0.280929 -0.172466 -0.513 127 96 101
0.281356 -0.17213 -0.512 136 104 109
0.282753 -0.171793 -0.511 140 108 113
0.291163 -0.170449 -0.507 145 105 113
0.294444 -0.170112 -0.506 138 102 106
0.299263 -0.170112 -0.506 136 100 104
0.303118 -0.170112 -0.506 136 101 105
0.312138 -0.169776 -0.505 135 101 102
0.341838 -0.168768 -0.502 131 97 98
0.345393 -0.169104 -0.503 133 99 100
0.35738 -0.168431 -0.501 126 94 97
0.359289 -0.168431 -0.501 126 96 98
0.361197 -0.168431 -0.501 126 95 100
0.372436 -0.168768 -0.502 197 174 180
0.376052 -0.169104 -0.503 113 84 88
0.441113 -0.175155 -0.521 168 110 99
0.456091 -0.177509 -0.528 129 81 77
0.477771 -0.181543 -0.54 144 96 92
-0.152199 -0.218748 -0.647 182 182 174
-0.0275571 -0.217395 -0.643 72 71 79
0.0938943 -0.188319 -0.557 194 143 126
0.0961886 -0.188657 -0.558 195 142 128
0.13114 -0.196433 -0.581 206 149 142
0.151905 -0.196095 -0.58 147 101 88
0.155177 -0.197448 -0.584 132 91 87
0.179167 -0.21131 -0.625 118 87 95
0.282331 -0.173105 -0.512 127 100 105
0.294444 -0.171076 -0.506 136 99 106
0.306367 -0.170738 -0.505 132 97 101
0.30829 -0.170738 -0.505 134 100 101
0.322399 -0.170062 -0.503 136 102 103
0.327495 -0.169724 -0.502 134 100 101
0.33132 -0.169724 -0.502 133 99 100
0.332276 -0.169724 -0.502 133 99 100
0.334189 -0.169724 -0.502 132 98 97
0.33677 -0.170062 -0.503 132 98 97
0.338687 -0.170062 -0.503 133 99 100
0.339645 -0.170062 -0.503 132 98 99
0.347575 -0.169724 -0.502 131 97 96
0.348531 -0.169724 -0.502 130 96 95
0.359289 -0.169386 -0.501 125 95 97
0.372436 -0.169724 -0.502 163 140 146
0.381187 -0.171076 -0.506 122 93 97
0.433672 -0.177162 -0.524 190 144 129
0.435 -0.176486 -0.522 184 141 124
0.470149 -0.181219 -0.536 139 94 89
-0.147584 -0.21862 -0.643 187 184 175
-0.0240314 -0.21998 -0.647 78 75 84
0.0713133 -0.19142 -0.563 205 163 151
0.108653 -0.19108 -0.562 180 122 110
0.133467 -0.19448 -0.572 197 140 131
0.136257 -0.1938 -0.57 192 132 121
0.141934 -0.19414 -0.571 174 116 102
0.14731 -0.1955 -0.575 162 106 93
0.160957 -0.20162 -0.593 124 88 90
0.285114 -0.1734 -0.51 145 118 123
0.3096 -0.17136 -0.504 135 101 102
0.3144 -0.17136 -0.504 135 101 102
0.329706 -0.17034 -0.501 134 100 99
0.34375 -0.17068 -0.502 130 96 97
0.345663 -0.17068 -0.502 127 93 92
0.348531 -0.17068 -0.502 130 96 95
0.35738 -0.17034 -0.501 131 97 98
0.357619 -0.17 -0.5 130 96 97
0.363333 -0.17 -0.5 124 94 96
0.374349 -0.17068 -0.502 125 95 97
0.442954 -0.17748 -0.522 162 104 92
0.462587 -0.18088 -0.532 134 85 81
0.46636 -0.18156 -0.534 130 81 77
-0.29992 -0.220187 -0.644 250 251 245
-0.139443 -0.220529 -0.645 189 186 179
0.0721286 -0.191809 -0.561 207 163 150
0.0831352 -0.190099 -0.556 203 155 141
0.0916076 -0.190099 -0.556 197 148 131
0.104879 -0.191125 -0.559 188 132 117
0.113337 -0.192834 -0.564 186 133 119
0.143022 -0.195228 -0.571 172 114 100
0.167949 -0.207194 -0.606 120 85 89
0.282036 -0.179842 -0.526 102 86 96
0.286494 -0.17403 -0.509 147 111 111
0.334477 -0.171294 -0.501 132 98 97
0.359524 -0.170952 -0.5 129 99 101
0.363333 -0.170952 -0.5 122 95 100
0.374349 -0.171636 -0.502 123 93 93
0.434788 -0.180868 -0.529 174 134 126
0.441113 -0.178132 -0.521 159 106 92
0.476887 -0.184287 -0.539 139 96 90
-0.291962 -0.220038 -0.64 140 145 138
-0.137623 -0.222789 -0.648 187 187 177
-0.0373552 -0.22107 -0.643 67 65 76
-0.0229048 -0.223476 -0.65 76 74 87
0.068459 -0.194596 -0.566 204 160 149
0.0759943 -0.191846 -0.558 209 161 149
0.07798 -0.191502 -0.557 204 157 147
0.0893286 -0.190814 -0.555 198 149 132
0.0947848 -0.191158 -0.556 195 144 127
0.099199 -0.191502 -0.557 193 140 122
0.106817 -0.191846 -0.558 185 129 114
0.108073 -0.19219 -0.559 184 128 113
0.127124 -0.195284 -0.568 199 143 130
0.13014 -0.19494 -0.567 190 138 125
0.147053 -0.197347 -0.574 152 100 87
0.287057 -0.175343 -0.51 145 114 120
0.30576 -0.17328 -0.504 129 99 99
0.326843 -0.172249 -0.501 132 98 99
0.338294 -0.172249 -0.501 131 97 96
0.356904 -0.171561 -0.499 130 96 97
0.358805 -0.171561 -0.499 128 97 102
0.361656 -0.171561 -0.499 121 92 97
0.36619 -0.171905 -0.5 224 198 207
0.383447 -0.174999 -0.509 87 66 73
0.447272 -0.188408 -0.548 150 110 110
0.434006 -0.179469 -0.522 195 143 132
0.444943 -0.179469 -0.522 148 98 87
-0.297302 -0.221603 -0.641 252 253 247
-0.291962 -0.221257 -0.64 141 146 139
-0.143462 -0.221603 -0.641 187 187 177
0.0799581 -0.192217 -0.556 205 157 147
0.102198 -0.192217 -0.556 191 138 122
0.108943 -0.192909 -0.558 188 132 117
0.113803 -0.193946 -0.561 192 139 121
0.141686 -0.197057 -0.57 165 112 98
0.284762 -0.179771 -0.52 105 88 96
0.286647 -0.17666 -0.511 100 78 90
0.288834 -0.175623 -0.508 154 119 125
0.31056 -0.17424 -0.504 134 99 103
0.313776 -0.173894 -0.503 135 100 104
0.319846 -0.173549 -0.502 135 101 102
0.321758 -0.173549 -0.502 135 101 102
0.3507 -0.173203 -0.501 127 93 94
0.352609 -0.173203 -0.501 126 92 93
0.357854 -0.172511 -0.499 124 92 97
0.432674 -0.181154 -0.524 194 141 127
0.441113 -0.180117 -0.521 160 103 92
0.4515 -0.1815 -0.525 129 86 80
-0.296081 -0.222824 -0.641 244 245 240
-0.290743 -0.222476 -0.64 133 138 131
0.0662619 -0.199881 -0.575 200 157 148
0.0747971 -0.193624 -0.557 209 161 149
0.0798143 -0.192929 -0.555 205 157 145
0.0860019 -0.192581 -0.554 204 155 140
0.119146 -0.195014 -0.561 198 142 127
0.145451 -0.198838 -0.572 149 101 91
0.288029 -0.177286 -0.51 97 75 87
0.290372 -0.176938 -0.509 134 105 110
0.292705 -0.17659 -0.508 124 89 93
0.295408 -0.175895 -0.506 133 98 104
0.305153 -0.174852 -0.503 128 98 100
0.308028 -0.174852 -0.503 132 97 101
0.310902 -0.174852 -0.503 134 99 103
0.317933 -0.174505 -0.502 136 102 103
0.321117 -0.174157 -0.501 135 101 102
0.336386 -0.174157 -0.501 129 95 96
0.43542 -0.184586 -0.531 170 127 120
-0.0370067 -0.222647 -0.637 67 65 79
-0.0309886 -0.222996 -0.638 71 69 80
0.0757219 -0.194335 -0.556 207 159 147
0.0911133 -0.193287 -0.553 198 147 128
0.1232 -0.195733 -0.56 197 141 126
0.134823 -0.197131 -0.564 173 116 99
0.139025 -0.19853 -0.568 171 115 100
0.29406 -0.177209 -0.507 127 96 101
0.30707 -0.17581 -0.503 133 98 102
0.314109 -0.175461 -0.502 134 100 101
0.327797 -0.175111 -0.501 131 97 96
0.329706 -0.175111 -0.501 132 98 97
0.333523 -0.175111 -0.501 129 95 96
0.346883 -0.175111 -0.501 128 94 95
0.434006 -0.182451 -0.522 190 137 129
0.441113 -0.182102 -0.521 157 103 91
-0.297302 -0.225266 -0.641 252 253 247
-0.291197 -0.225266 -0.641 142 147 140
-0.287534 -0.225266 -0.641 115 117 114
-0.0421886 -0.225617 -0.642 64 60 75
-0.0332619 -0.223157 -0.635 69 67 81
0.0807257 -0.194691 -0.554 204 156 142
0.103941 -0.194691 -0.554 192 136 121
0.290133 -0.179931 -0.512 93 78 85
0.29464 -0.178526 -0.508 118 91 96
0.312196 -0.176417 -0.502 132 98 99
0.352857 -0.175714 -0.5 125 91 92
0.381508 -0.178877 -0.509 76 56 65
0.453362 -0.184851 -0.526 128 87 83
0.457097 -0.185554 -0.528 126 82 79
0.473071 -0.188717 -0.537 136 96 94
0.474977 -0.189069 -0.538 135 95 93
-0.138857 -0.22896 -0.648 193 190 181
-0.0298667 -0.226133 -0.64 69 67 80
0.115966 -0.196453 -0.556 198 145 129
0.2907 -0.18126 -0.513 97 77 86
0.29425 -0.179847 -0.509 93 73 75
0.299633 -0.178433 -0.505 132 97 103
0.3 -0.17808 -0.504 132 97 103
0.30192 -0.17808 -0.504 132 97 101
0.312196 -0.177373 -0.502 132 98 99
0.32398 -0.17702 -0.501 131 97 98
0.347143 -0.176667 -0.5 127 93 94
0.349048 -0.176667 -0.5 126 92 93
0.354052 -0.176313 -0.499 126 94 97
0.373178 -0.177727 -0.503 118 88 90
0.374136 -0.177727 -0.503 118 88 90
0.4315 -0.1855 -0.525 183 130 126
0.431676 -0.185147 -0.524 186 134 121
-0.29992 -0.228773 -0.644 253 254 249
-0.0264552 -0.229484 -0.646 74 70 84
0.0650533 -0.203907 -0.574 203 159 150
0.0793829 -0.196091 -0.552 204 156 146
0.0974333 -0.196447 -0.553 195 144 127
0.298889 -0.180106 -0.507 134 103 109
0.299633 -0.179395 -0.505 130 98 103
0.316346 -0.177974 -0.501 132 98 99
0.319209 -0.177974 -0.501 131 97 98
0.3493 -0.177264 -0.499 125 91 92
0.358805 -0.177264 -0.499 143 112 118
0.370524 -0.17833 -0.502 121 90 95
0.436662 -0.190052 -0.535 177 118 114
-0.291197 -0.228929 -0.641 243 246 239
-0.262286 -0.231429 -0.648 242 241 239
-0.1512 -0.231429 -0.648 188 188 176
-0.138857 -0.231429 -0.648 193 190 181
-0.0483781 -0.229643 -0.643 67 63 77
-0.0429381 -0.226786 -0.635 67 63 78
0.0686771 -0.199643 -0.559 208 161 151
0.106913 -0.1975 -0.553 195 144 127
0.1147 -0.198214 -0.555 197 144 126
0.117025 -0.198571 -0.556 199 146 128
0.14596 -0.205 -0.574 135 92 86
0.29501 -0.182857 -0.512 93 74 76
0.295407 -0.1825 -0.511 95 77 89
0.305503 -0.179286 -0.502 133 99 100
0.307415 -0.179286 -0.502 132 98 99
0.327143 -0.178571 -0.5 129 95 94
0.328095 -0.178571 -0.5 129 95 94
0.362607 -0.178214 -0.499 139 118 123
0.367143 -0.178571 -0.5 123 92 97
0.37296 -0.18 -0.504 121 97 95
0.437144 -0.186071 -0.521 165 108 97
0.441113 -0.186071 -0.521 159 105 93
0.45064 -0.187143 -0.524 133 90 84
0.461857 -0.189286 -0.53 129 90 85
0.465627 -0.19 -0.532 132 92 90
-0.14089 -0.231945 -0.646 192 189 180
-0.0322038 -0.229072 -0.638 69 69 81
0.0667857 -0.201426 -0.561 205 161 150
0.0722838 -0.198912 -0.554 207 159 147
0.09936 -0.198194 -0.552 195 147 127
0.110073 -0.198553 -0.553 197 146 127
0.115549 -0.198912 -0.554 197 144 126
0.124886 -0.200349 -0.558 187 131 116
0.335993 -0.179165 -0.499 130 96 95
0.339524 -0.179524 -0.5 125 91 90
0.341696 -0.179165 -0.499 126 92 93
0.361656 -0.179165 -0.499 133 112 117
0.439129 -0.187064 -0.521 159 106 92
0.45064 -0.188141 -0.524 130 89 83
0.47131 -0.19209 -0.535 131 91 89
-0.301317 -0.233536 -0.647 253 254 249
-0.289206 -0.231731 -0.642 252 253 247
-0.282308 -0.232092 -0.643 155 155 153
-0.14089 -0.233175 -0.646 193 191 179
-0.0452857 -0.228844 -0.634 67 64 73
0.102514 -0.199246 -0.552 195 147 127
0.115549 -0.199968 -0.554 196 145 128
0.148078 -0.20863 -0.578 122 82 80
0.157834 -0.214406 -0.594 115 83 88
0.1653 -0.21982 -0.609 128 105 115
0.29851 -0.183364 -0.508 88 74 87
0.320476 -0.180476 -0.5 131 97 95
0.33 -0.180476 -0.5 128 94 93
0.343597 -0.180115 -0.499 126 92 93
0.353343 -0.179754 -0.498 118 86 89
0.431023 -0.188417 -0.522 177 127 118
0.432182 -0.188056 -0.521 180 128 117
-0.302249 -0.235494 -0.649 253 254 249
-0.265578 -0.234769 -0.647 173 174 169
0.0832857 -0.199571 -0.55 204 159 140
0.0981305 -0.199934 -0.551 196 148 128
0.121043 -0.201386 -0.555 185 132 116
0.133511 -0.204289 -0.563 162 108 96
0.150211 -0.211183 -0.582 116 81 85
0.154 -0.21336 -0.588 109 70 75
0.158366 -0.216263 -0.596 109 78 86
0.299203 -0.189049 -0.521 100 88 100
0.298467 -0.18796 -0.518 102 90 102
0.299099 -0.186509 -0.514 100 82 94
0.312529 -0.181791 -0.501 132 98 99
0.323637 -0.181066 -0.499 129 95 93
0.325538 -0.181066 -0.499 130 96 94
0.341011 -0.180703 -0.498 126 92 93
0.354291 -0.180703 -0.498 127 95 98
0.439129 -0.189049 -0.521 158 105 91
0.440121 -0.189049 -0.521 155 102 88
0.470429 -0.193766 -0.534 133 92 88
-0.282308 -0.234542 -0.643 255 254 252
-0.148272 -0.235636 -0.646 190 190 180
-0.0323048 -0.233448 -0.64 67 67 77
0.0692429 -0.202443 -0.555 205 162 146
0.0832857 -0.200619 -0.55 204 159 140
0.0874762 -0.200619 -0.55 200 153 133
0.0949819 -0.200984 -0.551 198 149 132
0.121043 -0.202443 -0.555 185 132 116
0.123379 -0.202808 -0.556 181 125 110
0.15047 -0.212656 -0.583 115 81 82
0.161374 -0.219951 -0.603 150 120 132
0.302751 -0.184934 -0.507 95 74 79
0.31062 -0.182746 -0.501 130 96 97
0.326489 -0.182016 -0.499 128 94 93
0.344806 -0.181651 -0.498 124 92 95
0.430678 -0.191135 -0.524 189 134 127
0.435314 -0.189676 -0.52 172 118 106
0.439129 -0.190041 -0.521 162 109 95
0.4535 -0.1915 -0.525 125 86 79
0.458239 -0.19223 -0.527 127 88 81
-0.287207 -0.235767 -0.643 252 253 248
-0.278633 -0.235767 -0.643 252 253 248
-0.268859 -0.236867 -0.646 253 255 252
-0.149734 -0.237233 -0.647 189 189 179
-0.0525314 -0.232467 -0.634 62 62 72
0.0925457 -0.2013 -0.549 198 149 132
0.100048 -0.201667 -0.55 197 146 129
0.136379 -0.207533 -0.566 147 98 84
0.310952 -0.183333 -0.5 130 96 95
0.322687 -0.182967 -0.499 130 96 94
0.369346 -0.184433 -0.503 108 87 92
0.430197 -0.191033 -0.521 185 137 125
-0.29593 -0.238097 -0.646 253 254 249
-0.291786 -0.237729 -0.645 251 252 247
-0.2852 -0.23736 -0.644 252 253 248
-0.263927 -0.239203 -0.649 220 222 219
-0.06072 -0.23736 -0.644 64 63 71
-0.0561543 -0.233674 -0.634 66 64 75
-0.0390619 -0.232569 -0.631 65 63 74
0.0799971 -0.202346 -0.549 206 159 143
0.0831343 -0.202346 -0.549 204 158 142
0.0979524 -0.202714 -0.55 200 151 134
0.1185 -0.20382 -0.553 185 134 117
0.13662 -0.20898 -0.567 145 97 85
0.149103 -0.214509 -0.582 112 78 77
0.313182 -0.183917 -0.499 130 96 95
0.332191 -0.183917 -0.499 127 93 92
0.336269 -0.183549 -0.498 126 92 93
0.339114 -0.183549 -0.498 124 92 93
0.35358 -0.18318 -0.497 139 113 116
0.430197 -0.192026 -0.521 191 139 128
0.433333 -0.191657 -0.52 173 126 116
0.451638 -0.193131 -0.524 129 88 82
0.4535 -0.1935 -0.525 121 81 71
-0.27784 -0.238587 -0.644 253 254 249
-0.27132 -0.239328 -0.646 253 253 251
-0.145134 -0.238216 -0.643 191 191 179
-0.14146 -0.238216 -0.643 191 191 179
-0.0601543 -0.236364 -0.638 71 70 78
-0.0448571 -0.232659 -0.628 66 64 75
-0.043661 -0.232659 -0.628 66 64 75
-0.03798 -0.234511 -0.633 65 63 74
-0.0357371 -0.235623 -0.636 66 64 75
0.07686 -0.203391 -0.549 209 163 148
0.149359 -0.215988 -0.583 112 78 79
0.308986 -0.18635 -0.503 131 97 98
0.314132 -0.184868 -0.499 128 94 93
0.318246 -0.184497 -0.498 131 97 96
0.359034 -0.184497 -0.498 216 193 203
0.430197 -0.193018 -0.521 190 136 124
0.442106 -0.193018 -0.521 142 96 83
0.451638 -0.19413 -0.524 129 89 81
0.458239 -0.195241 -0.527 145 105 95
0.466774 -0.196723 -0.531 137 97 89
0.491702 -0.204132 -0.551 141 100 94
-0.2795 -0.240186 -0.645 253 254 249
-0.268457 -0.241303 -0.648 252 254 251
-0.266399 -0.241675 -0.649 252 254 251
-0.135154 -0.241303 -0.648 198 198 188
-0.0582924 -0.234972 -0.631 70 69 77
-0.0414 -0.2346 -0.63 66 64 75
0.0680629 -0.206299 -0.554 203 159 146
0.0913333 -0.204065 -0.548 199 152 136
0.0923771 -0.204065 -0.548 202 156 133
0.0955086 -0.204065 -0.548 200 153 135
0.09864 -0.204065 -0.548 199 150 133
0.120825 -0.206299 -0.554 177 128 113
0.124438 -0.207044 -0.556 169 120 106
0.146129 -0.215609 -0.579 108 77 82
0.308986 -0.187308 -0.503 131 97 98
0.319194 -0.185446 -0.498 131 97 95
0.429034 -0.194383 -0.522 183 135 125
0.4555 -0.1955 -0.525 142 99 92
0.470563 -0.198479 -0.533 130 91 86
-0.286086 -0.241789 -0.646 253 254 249
-0.268457 -0.242537 -0.648 253 255 252
-0.265571 -0.243286 -0.65 253 255 252
-0.0494838 -0.234303 -0.626 67 66 74
-0.0437305 -0.235426 -0.629 64 62 73
-0.0369486 -0.238046 -0.636 68 66 77
0.0697933 -0.206231 -0.551 206 160 145
0.0707143 -0.205857 -0.55 206 160 145
0.081939 -0.205109 -0.548 207 160 144
0.0911667 -0.204734 -0.547 199 152 134
0.0923771 -0.205109 -0.548 201 152 135
0.0965524 -0.205109 -0.548 201 154 136
0.101771 -0.205109 -0.548 200 152 132
0.110524 -0.205857 -0.55 198 145 127
0.1221 -0.207729 -0.555 175 123 110
0.14134 -0.214466 -0.573 124 86 83
0.161554 -0.227566 -0.608 129 122 164
0.314762 -0.187143 -0.5 131 93 92
0.321091 -0.186394 -0.498 130 96 97
0.324886 -0.186394 -0.498 129 95 96
0.34222 -0.18602 -0.497 121 89 90
0.35358 -0.18602 -0.497 150 134 134
0.429034 -0.195377 -0.522 184 134 125
0.430362 -0.194629 -0.52 180 131 127
0.465895 -0.198371 -0.53 134 95 88
-0.0603114 -0.235871 -0.627 71 70 78
-0.0471743 -0.235871 -0.627 68 67 75
-0.0370067 -0.239633 -0.637 68 67 75
0.06794 -0.208033 -0.553 205 159 146
0.0735886 -0.206152 -0.548 212 164 150
0.0944648 -0.206152 -0.548 203 154 139
0.10699 -0.206152 -0.548 195 144 127
0.116183 -0.207657 -0.552 185 133 119
0.124438 -0.209162 -0.556 167 115 104
0.143177 -0.216686 -0.576 112 77 75
0.1547 -0.223833 -0.595 115 83 86
0.323937 -0.187343 -0.498 129 95 96
0.325834 -0.187343 -0.498 127 93 94
0.336269 -0.187343 -0.498 126 92 91
0.34196 -0.187343 -0.498 122 90 91
0.343167 -0.186967 -0.497 124 92 93
0.365014 -0.188471 -0.501 115 88 95
0.430029 -0.196371 -0.522 184 134 127
0.430197 -0.195995 -0.521 185 135 128
0.435314 -0.195619 -0.52 162 112 101
0.472463 -0.200886 -0.534 131 90 86
-0.277952 -0.245762 -0.65 253 253 251
-0.139363 -0.241603 -0.639 198 197 192
-0.137143 -0.241981 -0.64 197 197 189
-0.130016 -0.244628 -0.647 199 199 187
-0.0664943 -0.237822 -0.629 74 72 83
-0.0552686 -0.235931 -0.624 69 68 76
-0.0494048 -0.23631 -0.625 68 67 73
-0.0358495 -0.241225 -0.638 68 67 75
-0.0324057 -0.242737 -0.642 69 68 76
0.07658 -0.206818 -0.547 207 161 146
0.101586 -0.206818 -0.547 199 151 131
0.110524 -0.207952 -0.55 194 143 124
0.3096 -0.19056 -0.504 95 76 80
0.314437 -0.189426 -0.501 129 93 93
0.314762 -0.189048 -0.5 127 95 98
0.316667 -0.189048 -0.5 126 96 96
0.323937 -0.188291 -0.498 129 95 96
0.333423 -0.188291 -0.498 128 94 95
0.341011 -0.188291 -0.498 123 91 92
0.34222 -0.187913 -0.497 122 90 93
0.346953 -0.187913 -0.497 120 90 92
0.3479 -0.187913 -0.497 120 90 92
0.361656 -0.18867 -0.499 124 95 99
0.428125 -0.199256 -0.527 184 130 118
0.437295 -0.19661 -0.52 148 98 87
0.445937 -0.197366 -0.522 144 100 91
0.458371 -0.198878 -0.526 128 83 78
-0.0719667 -0.2413 -0.635 69 70 75
-0.064881 -0.2375 -0.625 71 70 78
-0.0472495 -0.23864 -0.628 69 68 76
-0.0324057 -0.24396 -0.642 68 67 75
0.0755381 -0.20786 -0.547 209 163 148
0.0859571 -0.20786 -0.547 205 158 142
0.0890829 -0.20786 -0.547 203 156 140
0.106795 -0.20786 -0.547 189 142 122
0.111571 -0.209 -0.55 188 137 118
0.151409 -0.22458 -0.591 109 81 93
0.310477 -0.19266 -0.507 97 81 84
0.315391 -0.19038 -0.501 124 92 93
0.316667 -0.19 -0.5 130 98 99
0.34222 -0.18886 -0.497 120 88 89
0.3479 -0.18886 -0.497 122 92 94
0.358086 -0.18924 -0.498 118 88 96
0.426686 -0.19912 -0.524 189 135 125
0.438286 -0.1976 -0.52 148 98 89
0.450776 -0.19874 -0.523 140 95 89
0.471578 -0.20254 -0.533 134 91 85
-0.125929 -0.246329 -0.645 196 198 184
-0.0495629 -0.239454 -0.627 69 67 78
-0.0484457 -0.239836 -0.628 69 67 78
-0.03822 -0.243273 -0.637 68 67 75
0.0626343 -0.222269 -0.582 195 151 142
0.0658333 -0.211193 -0.553 202 158 147
0.0704571 -0.209284 -0.548 211 165 152
0.0755381 -0.208902 -0.547 209 163 148
0.08892 -0.20852 -0.546 202 155 139
0.09932 -0.20852 -0.546 199 151 137
0.112619 -0.210048 -0.55 180 129 108
0.142327 -0.220359 -0.577 111 80 85
0.318571 -0.190952 -0.5 129 96 91
0.332753 -0.189807 -0.497 127 93 94
0.334647 -0.189807 -0.497 124 93 91
0.340327 -0.189807 -0.497 124 92 93
0.351924 -0.189425 -0.496 159 144 149
0.450776 -0.199736 -0.523 132 87 81
0.452636 -0.200118 -0.524 125 82 73
-0.131647 -0.244487 -0.637 225 224 219
-0.122811 -0.248709 -0.648 210 208 195
-0.0720238 -0.239881 -0.625 70 69 77
0.0713705 -0.209944 -0.547 212 164 150
0.07436 -0.20956 -0.546 209 161 147
0.105753 -0.209944 -0.547 186 137 120
0.124662 -0.213782 -0.557 156 104 91
0.131833 -0.216852 -0.565 135 95 87
0.316346 -0.192289 -0.501 128 94 93
0.320143 -0.191137 -0.498 128 94 95
0.337487 -0.190753 -0.497 126 92 91
0.343167 -0.190753 -0.497 122 90 91
0.35074 -0.190753 -0.497 198 177 184
0.429147 -0.204187 -0.532 157 114 121
0.47348 -0.204954 -0.534 128 89 82
-0.132443 -0.244929 -0.635 251 251 249
-0.13144 -0.245314 -0.636 251 252 247
-0.063079 -0.238757 -0.619 73 72 78
-0.0562762 -0.239914 -0.622 73 72 80
-0.0347429 -0.246857 -0.64 70 69 77
-0.0324057 -0.247629 -0.642 69 68 76
0.315024 -0.194786 -0.505 95 79 92
0.348847 -0.1917 -0.497 138 108 110
-0.129819 -0.24575 -0.634 245 245 245
-0.111875 -0.251565 -0.649 238 235 226
-0.104458 -0.251565 -0.649 250 247 238
-0.086481 -0.246138 -0.635 76 75 81
-0.0675762 -0.239161 -0.617 75 74 80
-0.0606229 -0.239549 -0.618 73 72 80
-0.057461 -0.241099 -0.622 71 70 78
-0.053061 -0.24265 -0.626 71 70 78
-0.0485229 -0.243812 -0.629 69 68 76
-0.0474 -0.2442 -0.63 68 67 73
-0.0416629 -0.24575 -0.634 70 69 75
-0.0277286 -0.25079 -0.647 72 70 81
0.0664029 -0.212803 -0.549 204 160 147
0.0939476 -0.211252 -0.545 202 154 134
0.102252 -0.211252 -0.545 195 144 125
0.121043 -0.215129 -0.555 157 105 94
0.123601 -0.215904 -0.557 155 102 94
0.145166 -0.22637 -0.584 101 74 89
0.1513 -0.230633 -0.595 108 87 106
0.388843 -0.250014 -0.645 114 118 147
0.426051 -0.202337 -0.522 185 132 124
0.428212 -0.20195 -0.521 190 137 131
0.430362 -0.201562 -0.52 184 124 116
0.443098 -0.20195 -0.521 154 105 98
0.44409 -0.20195 -0.521 154 107 101
-0.127404 -0.246958 -0.634 252 252 252
-0.060721 -0.241115 -0.619 74 73 81
-0.0519514 -0.244231 -0.627 71 70 78
-0.049721 -0.24501 -0.629 71 70 78
-0.0394333 -0.248127 -0.637 70 69 75
0.06916 -0.21268 -0.546 210 164 148
0.0906667 -0.211901 -0.544 202 155 135
0.0948114 -0.211901 -0.544 203 155 133
0.100176 -0.21229 -0.545 192 144 124
0.116183 -0.215017 -0.552 169 117 103
0.14753 -0.22943 -0.589 106 78 93
0.323937 -0.193983 -0.498 127 93 92
0.335863 -0.193204 -0.496 125 91 90
0.34531 -0.193204 -0.496 121 92 94
0.4255 -0.2045 -0.525 192 133 127
0.44409 -0.202942 -0.521 149 98 94
0.466905 -0.206448 -0.53 135 92 86
-0.129614 -0.247774 -0.633 221 220 225
-0.101631 -0.250123 -0.639 142 142 144
-0.063079 -0.242294 -0.619 75 74 82
-0.0553571 -0.244643 -0.625 72 71 79
-0.0359619 -0.250514 -0.64 69 68 76
0.0645457 -0.215677 -0.551 204 160 149
0.0720152 -0.212937 -0.544 212 165 149
0.0752619 -0.213329 -0.545 211 165 149
0.121043 -0.217243 -0.555 156 106 99
0.1264 -0.2192 -0.56 145 94 90
0.319169 -0.198454 -0.507 96 79 85
0.326127 -0.19454 -0.497 128 97 95
0.351924 -0.194149 -0.496 206 181 184
0.357854 -0.195323 -0.499 120 88 91
0.44409 -0.203934 -0.521 136 85 81
0.44892 -0.204326 -0.522 144 96 86
-0.123195 -0.248193 -0.631 196 196 196
-0.0910714 -0.245833 -0.625 71 71 79
-0.050919 -0.247407 -0.629 72 71 77
-0.0347971 -0.252127 -0.641 70 69 77
0.0689067 -0.213973 -0.544 212 164 150
0.0946371 -0.21358 -0.543 197 151 128
0.110323 -0.21594 -0.549 176 123 107
0.140614 -0.22774 -0.579 107 81 90
0.395571 -0.255667 -0.65 120 120 148
0.394368 -0.254093 -0.646 117 117 145
0.322687 -0.196273 -0.499 128 96 97
0.328305 -0.195093 -0.496 127 91 93
0.338957 -0.1947 -0.495 123 91 94
0.4264 -0.204533 -0.52 188 133 130
0.454632 -0.206107 -0.524 129 81 77
0.466024 -0.208073 -0.529 137 92 87
-0.130433 -0.251767 -0.637 98 97 103
-0.0968686 -0.246629 -0.624 60 59 65
0.0669571 -0.215405 -0.545 210 164 151
0.0782324 -0.21501 -0.544 209 163 148
0.09792 -0.21501 -0.544 194 146 126
0.116183 -0.218171 -0.552 158 108 97
0.125333 -0.221333 -0.56 144 99 94
0.126851 -0.222124 -0.562 139 94 89
0.32736 -0.196038 -0.496 127 92 96
0.345557 -0.195643 -0.495 232 207 211
0.439276 -0.205524 -0.52 136 83 77
0.466024 -0.209081 -0.529 137 92 87
-0.121413 -0.249406 -0.628 96 97 99
-0.1125 -0.248214 -0.625 86 86 88
-0.11131 -0.248214 -0.625 82 82 84
-0.0882991 -0.243846 -0.614 63 64 69
-0.08596 -0.243846 -0.614 65 64 69
-0.0611133 -0.24742 -0.623 74 73 81
-0.0278143 -0.257746 -0.649 71 69 80
0.0618429 -0.220414 -0.555 199 157 145
0.0668343 -0.216046 -0.544 208 164 151
0.0884314 -0.215649 -0.543 200 152 132
0.0946371 -0.215649 -0.543 196 149 129
0.0956714 -0.215649 -0.543 195 148 128
0.102252 -0.216443 -0.545 182 131 114
0.13927 -0.229549 -0.578 109 79 89
0.322714 -0.199366 -0.502 105 85 87
0.32925 -0.196983 -0.496 127 92 96
0.344614 -0.196586 -0.495 185 160 164
0.349329 -0.196586 -0.495 202 179 185
0.352633 -0.19738 -0.497 118 89 94
0.431486 -0.214457 -0.54 152 110 114
0.426107 -0.21128 -0.532 165 121 122
0.424063 -0.207309 -0.522 191 134 127
0.424591 -0.206117 -0.519 187 134 128
0.427557 -0.206117 -0.519 184 126 124
0.450909 -0.207309 -0.522 134 86 82
0.452769 -0.207706 -0.523 131 83 79
-0.115886 -0.249006 -0.624 95 96 101
-0.113327 -0.248607 -0.623 85 86 90
-0.108231 -0.247809 -0.621 65 64 70
-0.0556229 -0.250602 -0.628 72 71 79
-0.0522 -0.2514 -0.63 72 71 79
-0.04642 -0.252597 -0.633 73 72 80
-0.0452857 -0.252996 -0.634 72 71 79
-0.0430733 -0.254193 -0.637 72 71 79
-0.0290057 -0.258583 -0.648 145 143 154
0.0717505 -0.216284 -0.542 211 163 149
0.112824 -0.219875 -0.551 167 110 99
0.121479 -0.22227 -0.557 140 97 91
0.125557 -0.223866 -0.561 134 93 89
0.400507 -0.256987 -0.644 110 113 144
0.399862 -0.25579 -0.641 107 110 141
0.32802 -0.198327 -0.497 131 92 97
0.3399 -0.197529 -0.495 126 91 95
0.352633 -0.198327 -0.497 120 91 95
0.354291 -0.198726 -0.498 118 89 93
0.357619 -0.199524 -0.5 112 80 85
0.429089 -0.214289 -0.537 156 114 118
0.425306 -0.211894 -0.531 163 119 118
0.422693 -0.209101 -0.524 185 131 129
0.434477 -0.207106 -0.519 155 103 90
0.453765 -0.208702 -0.523 128 81 75
0.466024 -0.211096 -0.529 139 94 89
-0.114146 -0.248991 -0.621 94 93 99
-0.112781 -0.24859 -0.62 84 83 89
-0.11142 -0.24819 -0.619 74 73 79
-0.10871 -0.247388 -0.617 67 67 75
-0.106187 -0.246987 -0.616 63 63 71
-0.103334 -0.245784 -0.613 60 61 66
-0.0932267 -0.243779 -0.608 59 60 65
-0.0919171 -0.243378 -0.607 64 63 71
-0.0680143 -0.248991 -0.621 77 76 84
-0.0534 -0.2526 -0.63 73 72 80
-0.03024 -0.259817 -0.648 105 103 116
0.0686533 -0.217316 -0.542 209 163 148
0.0707181 -0.217316 -0.542 211 163 149
0.0989562 -0.218118 -0.544 184 135 118
0.106795 -0.219321 -0.547 175 122 106
0.117659 -0.222128 -0.554 150 101 96
0.124267 -0.224533 -0.56 136 97 92
0.141829 -0.234156 -0.584 110 79 85
0.143675 -0.235359 -0.587 110 79 85
0.157301 -0.246185 -0.614 198 201 232
0.399793 -0.255407 -0.637 105 109 138
0.325889 -0.200877 -0.501 130 104 113
0.327731 -0.199674 -0.498 129 93 97
0.335186 -0.198471 -0.495 124 94 96
0.337331 -0.19807 -0.494 124 92 95
0.4225 -0.2105 -0.525 181 127 125
0.451903 -0.209297 -0.522 128 80 76
-0.0904619 -0.243729 -0.605 62 61 69
-0.0871486 -0.244131 -0.606 66 65 73
-0.047701 -0.255411 -0.634 73 72 80
-0.0465667 -0.255814 -0.635 72 71 79
-0.0419257 -0.257023 -0.638 71 70 78
-0.0314257 -0.260649 -0.647 87 85 96
0.0615086 -0.222377 -0.552 203 159 148
0.0630352 -0.220363 -0.547 207 160 150
0.0717505 -0.218349 -0.542 213 165 153
0.0967057 -0.218751 -0.543 189 141 121
0.11408 -0.222377 -0.552 156 103 95
0.142071 -0.235671 -0.585 111 81 79
0.144165 -0.237283 -0.589 113 83 81
0.404238 -0.261857 -0.65 127 131 158
0.350034 -0.199817 -0.496 124 93 99
0.423603 -0.209083 -0.519 183 128 125
0.42558 -0.209083 -0.519 182 124 123
-0.11921 -0.254595 -0.629 102 103 107
-0.0798514 -0.247714 -0.612 73 72 80
-0.0789429 -0.248524 -0.614 74 73 81
-0.0682333 -0.252167 -0.623 77 76 84
-0.0649848 -0.253381 -0.626 76 75 81
-0.0615057 -0.253786 -0.627 77 76 82
-0.0546867 -0.255405 -0.631 74 73 79
-0.0535695 -0.25581 -0.632 74 73 79
-0.0500371 -0.256214 -0.633 73 72 80
-0.03496 -0.260667 -0.644 156 154 165
0.0999924 -0.22019 -0.544 183 132 115
0.404852 -0.26269 -0.649 152 151 182
0.329629 -0.201571 -0.498 124 92 97
0.341095 -0.199952 -0.494 224 195 199
0.421887 -0.21169 -0.523 180 124 123
0.422074 -0.211286 -0.522 185 130 127
0.441257 -0.210476 -0.52 140 92 82
0.450045 -0.210881 -0.521 134 87 81
0.454761 -0.21169 -0.523 139 92 86
-0.12671 -0.263927 -0.649 114 115 117
-0.112235 -0.250913 -0.617 75 76 80
-0.0615057 -0.25498 -0.627 77 76 82
-0.0535695 -0.257013 -0.632 74 73 79
-0.0477762 -0.258233 -0.635 73 72 80
-0.0361867 -0.261893 -0.644 88 86 97
0.0797143 -0.2196 -0.54 204 157 141
0.0911971 -0.220007 -0.541 196 148 128
0.0989562 -0.221227 -0.544 181 130 113
0.330577 -0.20252 -0.498 122 95 100
0.33639 -0.200893 -0.494 122 91 96
0.343918 -0.200893 -0.494 176 154 157
0.43942 -0.21106 -0.519 140 92 82
0.447068 -0.211873 -0.521 144 97 91
0.452897 -0.21228 -0.522 133 86 80
-0.11124 -0.252497 -0.618 68 69 74
-0.0821829 -0.250046 -0.612 66 65 73
-0.07298 -0.25454 -0.623 74 73 81
-0.0650886 -0.256174 -0.627 76 75 81
-0.0420571 -0.261486 -0.64 72 71 79
0.10244 -0.22308 -0.546 176 125 108
0.12085 -0.228391 -0.559 135 97 94
0.405463 -0.264754 -0.648 167 163 186
0.403525 -0.261894 -0.641 121 117 134
0.368548 -0.234929 -0.575 85 77 88
0.331376 -0.206329 -0.505 83 75 86
0.3465 -0.202243 -0.495 129 104 107
0.347443 -0.202243 -0.495 129 104 107
0.352394 -0.203469 -0.498 117 88 90
0.422696 -0.216134 -0.529 158 110 108
0.426733 -0.21164 -0.518 178 120 116
0.442248 -0.212457 -0.52 137 90 82
0.44806 -0.212866 -0.521 151 104 96
0.450045 -0.212866 -0.521 138 91 83
-0.0812819 -0.252032 -0.614 64 63 71
-0.0685619 -0.256958 -0.626 75 74 82
-0.0513238 -0.260242 -0.634 74 73 81
-0.0444257 -0.262294 -0.639 72 71 79
0.115549 -0.227404 -0.554 141 98 91
0.128431 -0.233561 -0.569 119 87 90
0.132377 -0.234792 -0.572 116 83 90
0.380233 -0.244233 -0.595 83 73 84
0.421301 -0.21591 -0.526 170 115 110
0.43068 -0.212627 -0.518 159 109 100
0.432653 -0.212627 -0.518 151 103 93
0.441257 -0.213448 -0.52 140 91 84
0.442248 -0.213448 -0.52 138 89 82
0.462379 -0.21591 -0.526 138 93 88
-0.115328 -0.26145 -0.634 122 125 130
-0.0870048 -0.24949 -0.605 59 60 65
-0.0859943 -0.249903 -0.606 59 60 65
-0.0709467 -0.25815 -0.626 72 71 79
-0.057181 -0.260625 -0.632 73 72 80
-0.0479267 -0.262687 -0.637 73 72 80
-0.0444952 -0.263924 -0.64 72 71 79
0.0786857 -0.222686 -0.54 205 157 143
0.0967057 -0.223923 -0.543 180 131 114
0.107186 -0.226397 -0.549 159 106 92
0.333523 -0.206603 -0.501 123 102 109
0.333423 -0.205366 -0.498 128 101 106
0.337331 -0.203716 -0.494 123 93 95
0.4205 -0.2165 -0.525 171 116 113
0.426894 -0.213201 -0.517 169 114 107
0.429849 -0.213201 -0.517 159 109 100
0.43942 -0.214026 -0.519 140 91 84
0.474497 -0.220211 -0.534 127 84 78
0.477295 -0.221036 -0.536 127 83 80
-0.0926771 -0.247329 -0.597 123 124 129
-0.0794571 -0.256029 -0.618 64 63 71
-0.0785333 -0.256857 -0.62 65 64 72
-0.0744048 -0.258929 -0.625 69 68 76
-0.0733314 -0.259343 -0.626 72 71 79
-0.072139 -0.259343 -0.626 72 71 79
0.0616533 -0.225371 -0.544 207 161 148
0.0775133 -0.2233 -0.539 205 157 145
0.0889714 -0.223714 -0.54 193 146 128
0.0911971 -0.224129 -0.541 191 144 124
0.105947 -0.227029 -0.548 162 109 95
0.1269 -0.2349 -0.567 120 89 87
0.337331 -0.204657 -0.494 121 91 93
0.339213 -0.204657 -0.494 121 91 93
0.420697 -0.217086 -0.524 168 113 110
0.423603 -0.215014 -0.519 176 121 116
0.426069 -0.213771 -0.516 166 111 104
0.441397 -0.215014 -0.519 139 90 83
0.456753 -0.216671 -0.523 138 94 85
-0.106663 -0.254709 -0.612 123 124 129
-0.0956057 -0.247217 -0.594 116 120 123
-0.0935 -0.247633 -0.595 116 117 121
-0.0688905 -0.261784 -0.629 73 72 80
-0.0607924 -0.263032 -0.632 76 75 83
-0.04914 -0.265113 -0.637 73 72 80
-0.0457143 -0.266362 -0.64 72 71 79
0.0653143 -0.224743 -0.54 210 164 151
0.0795667 -0.224327 -0.539 205 159 144
0.121283 -0.233483 -0.561 130 93 85
0.130653 -0.238893 -0.574 116 85 83
0.342205 -0.21517 -0.517 53 42 58
0.341344 -0.205182 -0.493 117 85 88
0.351446 -0.207263 -0.498 118 87 95
0.423773 -0.215587 -0.518 174 116 112
0.428034 -0.214754 -0.516 162 105 98
0.432803 -0.21517 -0.517 153 103 92
-0.11751 -0.27009 -0.646 116 117 121
-0.100974 -0.250439 -0.599 119 120 125
-0.09154 -0.249603 -0.597 88 89 94
-0.0562429 -0.26549 -0.635 75 74 82
0.0764867 -0.225353 -0.539 207 159 147
0.0836733 -0.225353 -0.539 202 156 141
0.09 -0.225771 -0.54 191 144 128
0.113438 -0.231625 -0.554 140 98 86
0.115966 -0.232461 -0.556 133 93 83
0.127571 -0.238314 -0.57 117 86 83
0.133766 -0.241659 -0.578 115 89 90
0.365091 -0.233297 -0.558 84 67 85
0.338014 -0.206957 -0.495 120 94 95
0.420027 -0.222427 -0.532 154 109 112
0.41888 -0.220754 -0.528 174 120 118
0.428034 -0.215737 -0.516 166 109 102
0.433788 -0.216155 -0.517 155 105 94
0.444363 -0.216991 -0.519 139 92 84
0.45203 -0.217828 -0.521 135 91 80
-0.0993333 -0.25032 -0.596 117 118 123
-0.0965743 -0.24906 -0.593 113 116 121
-0.0834848 -0.25746 -0.613 61 60 66
-0.0787867 -0.26124 -0.622 60 59 65
-0.0375876 -0.27174 -0.647 72 70 81
0.0633743 -0.22722 -0.541 209 163 150
0.0672467 -0.22638 -0.539 209 163 150
0.0682733 -0.22638 -0.539 210 164 151
0.0713533 -0.22638 -0.539 208 162 149
0.0991381 -0.2289 -0.545 169 121 101
0.344614 -0.2079 -0.495 118 89 91
0.42591 -0.21714 -0.517 168 114 104
0.44634 -0.21798 -0.519 141 95 82
-0.08526 -0.25694 -0.609 65 64 72
-0.0798429 -0.262003 -0.621 60 59 65
-0.0735657 -0.264956 -0.628 64 63 71
-0.0724848 -0.265378 -0.629 66 65 73
-0.069 -0.2658 -0.63 70 68 79
-0.0563314 -0.268331 -0.636 74 73 81
-0.0364114 -0.273394 -0.648 72 70 81
0.0857267 -0.227407 -0.539 196 149 133
0.0922276 -0.22825 -0.541 181 138 121
0.111127 -0.233313 -0.553 143 99 86
0.117656 -0.235845 -0.559 127 90 82
0.123442 -0.238798 -0.566 125 90 86
0.138555 -0.248502 -0.589 101 89 103
0.418226 -0.224031 -0.531 162 112 111
0.43956 -0.218547 -0.518 149 101 87
-0.109414 -0.263186 -0.621 116 117 122
-0.100637 -0.253014 -0.597 113 113 121
-0.0862781 -0.257676 -0.608 70 69 75
-0.0736829 -0.266576 -0.629 63 62 70
0.0581333 -0.237333 -0.56 199 157 143
0.0691714 -0.22801 -0.538 209 163 150
0.0847 -0.228433 -0.539 197 150 134
0.10036 -0.2314 -0.546 165 116 99
0.105094 -0.232671 -0.549 151 104 94
0.36894 -0.23691 -0.559 81 68 78
0.339795 -0.211481 -0.499 128 105 111
0.3399 -0.209786 -0.495 119 88 94
0.342729 -0.209786 -0.495 119 89 91
0.424925 -0.21911 -0.517 171 114 105
0.430983 -0.218686 -0.516 164 112 99
0.444363 -0.219957 -0.519 144 98 82
0.4605 -0.2225 -0.525 123 86 78
