ply
format ascii 1.0
comment Created by Open3D
element vertex 1286
property double x
property double y
property double z
property uchar red
property uchar green
property uchar blue
end_header
0.0193667 -0.36686 -0.581 200 162 139
0.020599 -0.317609 -0.503 204 164 139
0.0214714 -0.316346 -0.501 201 161 136
0.0261381 -0.315083 -0.499 198 158 133
0.0309524 -0.315714 -0.5 193 151 127
0.0329229 -0.316346 -0.501 192 150 126
0.0461429 -0.322029 -0.51 149 109 97
0.115989 -0.386434 -0.612 134 143 182
0.136748 -0.385803 -0.611 56 78 136
0.140239 -0.385803 -0.611 92 118 175
0.162351 -0.385803 -0.611 165 171 195
0.165843 -0.385803 -0.611 123 120 129
0.167007 -0.385803 -0.611 144 141 150
0.17399 -0.385803 -0.611 193 205 221
0.20159 -0.385171 -0.61 96 127 182
0.210886 -0.385171 -0.61 220 225 245
0.212048 -0.385171 -0.61 220 225 245
0.21982 -0.38454 -0.609 229 230 250
0.22446 -0.38454 -0.609 211 213 226
0.2349 -0.38454 -0.609 237 238 255
0.23838 -0.38454 -0.609 240 239 255
0.23954 -0.38454 -0.609 234 237 252
0.24957 -0.383909 -0.608 197 207 234
0.272283 -0.383277 -0.607 209 220 248
0.274595 -0.383277 -0.607 230 233 252
0.280376 -0.383277 -0.607 232 234 247
0.285001 -0.383277 -0.607 231 233 248
0.305812 -0.383277 -0.607 170 174 199
0.306969 -0.383277 -0.607 170 174 199
0.331794 -0.383909 -0.608 167 180 214
0.33411 -0.383909 -0.608 127 145 181
0.34162 -0.38454 -0.609 209 216 235
0.370011 -0.383909 -0.608 105 110 139
0.41006 -0.38454 -0.609 188 195 213
0.422352 -0.385171 -0.61 188 191 206
0.484727 -0.385803 -0.611 165 170 190
0.490546 -0.385803 -0.611 163 171 194
0.49439 -0.385171 -0.61 100 104 129
0.495552 -0.385171 -0.61 116 120 145
0.473911 -0.354231 -0.561 145 112 95
0.45635 -0.336551 -0.533 149 112 103
0.448893 -0.324554 -0.514 182 125 105
0.450257 -0.322029 -0.51 183 122 101
0.0530924 -0.329967 -0.521 122 96 97
0.137911 -0.386967 -0.611 53 75 132
0.141403 -0.386967 -0.611 156 179 233
0.14955 -0.386967 -0.611 189 191 206
0.170498 -0.386967 -0.611 198 204 216
0.189971 -0.386333 -0.61 60 91 148
0.251471 -0.384433 -0.607 174 190 226
0.274143 -0.3838 -0.606 225 227 250
0.28684 -0.3838 -0.606 211 213 225
0.306969 -0.384433 -0.607 156 163 191
0.309281 -0.384433 -0.607 197 203 229
0.320843 -0.384433 -0.607 138 174 224
0.331249 -0.384433 -0.607 183 190 216
0.335269 -0.385067 -0.608 109 128 161
0.348008 -0.385067 -0.608 163 163 173
0.359589 -0.385067 -0.608 211 209 223
0.360747 -0.385067 -0.608 207 207 219
0.363063 -0.385067 -0.608 203 207 219
0.37117 -0.385067 -0.608 142 148 174
0.372871 -0.384433 -0.607 190 192 213
0.383909 -0.385067 -0.608 112 146 191
0.40194 -0.3857 -0.609 110 120 147
0.4437 -0.3857 -0.609 87 111 157
0.474638 -0.386333 -0.61 141 147 171
0.5017 -0.3857 -0.609 167 168 186
0.492798 -0.371133 -0.586 143 110 101
0.451229 -0.323 -0.51 181 124 104
0.4572 -0.321733 -0.508 183 125 105
0.46306 -0.3211 -0.507 185 127 105
0.4794 -0.323 -0.51 162 116 93
0.484206 -0.324267 -0.512 160 113 93
0.495769 -0.3287 -0.519 155 113 89
0.0187571 -0.320795 -0.505 205 165 140
0.0429743 -0.322066 -0.507 157 119 100
0.0440267 -0.322701 -0.508 154 115 100
0.0451714 -0.323971 -0.51 152 113 98
0.104161 -0.38813 -0.611 135 132 127
0.112308 -0.38813 -0.611 184 180 194
0.114635 -0.38813 -0.611 180 177 196
0.121817 -0.388766 -0.612 74 101 144
0.136748 -0.38813 -0.611 80 102 160
0.142567 -0.38813 -0.611 167 179 203
0.149305 -0.387495 -0.61 194 195 213
0.159762 -0.387495 -0.61 180 182 203
0.18038 -0.38686 -0.609 123 136 168
0.1885 -0.38686 -0.609 100 114 149
0.221775 -0.386225 -0.608 235 238 253
0.259137 -0.384954 -0.606 159 181 220
0.263754 -0.384954 -0.606 224 229 251
0.309926 -0.384954 -0.606 218 219 237
0.31108 -0.384954 -0.606 216 217 235
0.318006 -0.384954 -0.606 146 174 221
0.324931 -0.384954 -0.606 136 160 204
0.330703 -0.384954 -0.606 210 215 234
0.489743 -0.387495 -0.61 84 103 146
0.4959 -0.38686 -0.609 150 148 159
0.49822 -0.38686 -0.609 173 171 182
0.457365 -0.338582 -0.533 148 116 105
0.4572 -0.322701 -0.508 185 127 107
0.458231 -0.322066 -0.507 181 123 101
0.464026 -0.322066 -0.507 187 129 107
0.494813 -0.329053 -0.518 154 112 88
0.0241886 -0.317297 -0.498 198 157 135
0.0289895 -0.317934 -0.499 193 153 127
0.03 -0.318571 -0.5 189 149 123
0.0338771 -0.319209 -0.501 187 145 121
0.100505 -0.388657 -0.61 187 187 199
0.110962 -0.388657 -0.61 181 183 196
0.148143 -0.388657 -0.61 190 196 212
0.15602 -0.38802 -0.609 197 196 210
0.17342 -0.38802 -0.609 199 203 215
0.202088 -0.387383 -0.608 213 226 255
0.247594 -0.386109 -0.606 218 220 245
0.248338 -0.385471 -0.605 217 219 244
0.304154 -0.386109 -0.606 150 162 188
0.307617 -0.386109 -0.606 183 189 211
0.313389 -0.386109 -0.606 170 177 203
0.321469 -0.386109 -0.606 126 154 193
0.32724 -0.386109 -0.606 198 211 246
0.333011 -0.386109 -0.606 181 193 219
0.35206 -0.386746 -0.607 155 161 175
0.386746 -0.386746 -0.607 103 130 175
0.393683 -0.386746 -0.607 199 198 216
0.402438 -0.387383 -0.608 109 119 144
0.40707 -0.387383 -0.608 181 186 208
0.40987 -0.386746 -0.607 172 180 203
0.426056 -0.386746 -0.607 127 134 162
0.427212 -0.386746 -0.607 161 166 195
0.431837 -0.386746 -0.607 137 139 152
0.43415 -0.386746 -0.607 185 184 200
0.435306 -0.386746 -0.607 188 187 203
0.445288 -0.387383 -0.608 128 150 197
0.48778 -0.38802 -0.609 80 98 144
0.474351 -0.356163 -0.559 151 112 105
0.45114 -0.32558 -0.511 182 124 102
0.451313 -0.324306 -0.509 181 127 103
0.454369 -0.323031 -0.507 185 127 105
0.47752 -0.323669 -0.508 165 117 97
0.485181 -0.326217 -0.512 159 114 93
0.02324 -0.318246 -0.498 196 159 133
0.043059 -0.324636 -0.508 153 114 99
0.0718714 -0.357228 -0.559 112 92 94
0.0746629 -0.360423 -0.564 110 89 94
0.0950714 -0.386624 -0.605 185 184 202
0.10614 -0.38918 -0.609 174 171 178
0.110962 -0.389819 -0.61 181 182 200
0.11561 -0.389819 -0.61 107 120 154
0.121618 -0.390458 -0.611 124 138 173
0.130929 -0.390458 -0.611 70 97 152
0.133256 -0.390458 -0.611 106 128 178
0.15834 -0.38918 -0.609 194 199 218
0.1653 -0.38918 -0.609 196 202 202
0.195139 -0.388541 -0.608 113 149 209
0.224509 -0.387263 -0.606 197 196 210
0.24949 -0.386624 -0.605 173 182 213
0.255252 -0.386624 -0.605 175 197 236
0.270233 -0.386624 -0.605 196 203 229
0.299043 -0.386624 -0.605 183 189 213
0.337629 -0.387263 -0.606 95 108 143
0.360714 -0.387263 -0.606 204 205 225
0.388417 -0.387263 -0.606 151 170 203
0.40987 -0.387902 -0.607 153 168 201
0.426056 -0.387902 -0.607 136 150 185
0.446868 -0.387902 -0.607 131 148 194
0.48314 -0.38918 -0.609 131 159 209
0.500052 -0.387902 -0.607 176 181 187
0.472014 -0.354671 -0.555 148 114 112
0.468149 -0.350198 -0.548 154 116 107
0.461655 -0.343808 -0.538 153 115 106
0.456809 -0.338695 -0.53 153 118 99
0.4545 -0.3355 -0.525 155 118 100
0.4563 -0.323997 -0.507 183 127 104
0.497746 -0.331666 -0.519 155 110 89
0.0177248 -0.322399 -0.503 201 164 138
0.0194848 -0.319835 -0.499 199 162 136
0.0545 -0.3365 -0.525 116 96 98
0.0636086 -0.348037 -0.543 112 92 94
0.0662819 -0.351242 -0.548 113 93 95
0.102829 -0.390981 -0.61 190 188 201
0.124905 -0.390981 -0.61 77 99 146
0.189349 -0.389699 -0.608 124 152 202
0.191665 -0.389699 -0.608 111 146 204
0.205224 -0.389058 -0.607 148 165 195
0.215274 -0.388417 -0.606 226 231 250
0.25871 -0.387776 -0.605 159 175 209
0.259432 -0.387135 -0.604 164 180 214
0.264034 -0.387135 -0.604 229 234 255
0.266335 -0.387135 -0.604 231 233 254
0.301348 -0.387776 -0.605 149 162 196
0.309414 -0.387776 -0.605 199 202 217
0.311204 -0.387135 -0.604 171 175 204
0.335919 -0.387776 -0.605 173 185 201
0.356097 -0.388417 -0.606 190 192 207
0.371643 -0.387776 -0.605 207 209 224
0.37971 -0.387776 -0.605 124 149 190
0.406886 -0.388417 -0.606 109 135 184
0.409194 -0.388417 -0.606 142 160 198
0.436897 -0.388417 -0.606 158 161 170
0.444555 -0.389058 -0.607 127 157 207
0.467679 -0.389058 -0.607 124 137 171
0.471924 -0.389699 -0.608 51 73 123
0.489295 -0.389699 -0.608 55 81 138
0.503014 -0.387776 -0.605 88 112 158
0.458533 -0.340987 -0.532 154 119 100
0.452387 -0.332013 -0.518 172 121 102
0.454297 -0.325604 -0.508 183 126 106
0.455334 -0.324963 -0.507 182 127 106
0.502611 -0.334577 -0.522 154 113 93
0.0160286 -0.327857 -0.51 200 163 137
0.0213 -0.3195 -0.497 197 160 133
0.0250867 -0.3195 -0.497 197 157 132
0.0260333 -0.3195 -0.497 197 157 131
0.0409619 -0.325286 -0.506 161 117 104
0.0431438 -0.327214 -0.509 155 113 101
0.0474838 -0.330429 -0.514 131 101 93
0.0533981 -0.336857 -0.524 117 95 98
0.0609733 -0.345857 -0.538 111 91 93
0.0963829 -0.389571 -0.606 196 199 208
0.13514 -0.3915 -0.609 159 165 189
0.141867 -0.390857 -0.608 71 89 139
0.15229 -0.390857 -0.608 189 196 206
0.189037 -0.390214 -0.607 124 148 192
0.19135 -0.390214 -0.607 123 155 206
0.200269 -0.389571 -0.606 208 219 241
0.244476 -0.388286 -0.604 235 241 255
0.264746 -0.387643 -0.603 231 232 252
0.269787 -0.388286 -0.604 235 237 255
0.272088 -0.388286 -0.604 160 170 197
0.285893 -0.388286 -0.604 188 185 204
0.311837 -0.387643 -0.603 159 164 193
0.39469 -0.388929 -0.605 192 196 208
0.39996 -0.389571 -0.606 188 194 208
0.412657 -0.389571 -0.606 144 165 210
0.414966 -0.389571 -0.606 104 123 165
0.421891 -0.389571 -0.606 66 93 148
0.447286 -0.389571 -0.606 105 133 173
0.45843 -0.390214 -0.607 143 141 154
0.485022 -0.390214 -0.607 33 59 120
0.50396 -0.387 -0.602 96 113 159
0.454761 -0.336214 -0.523 164 121 105
0.452113 -0.3285 -0.511 181 126 106
0.464119 -0.324643 -0.505 188 132 109
0.465081 -0.324643 -0.505 190 134 111
0.0175838 -0.321736 -0.499 201 164 137
0.0194067 -0.320447 -0.497 196 159 132
0.0328571 -0.322381 -0.5 186 145 117
0.0368133 -0.32367 -0.502 173 131 109
0.0378448 -0.324315 -0.503 168 125 106
0.0464143 -0.330763 -0.513 131 102 94
0.0764086 -0.36687 -0.569 114 93 98
0.138392 -0.392015 -0.608 184 188 213
0.143025 -0.392015 -0.608 73 90 142
0.162445 -0.39137 -0.607 139 142 149
0.163601 -0.39137 -0.607 170 173 180
0.164757 -0.39137 -0.607 201 204 213
0.16707 -0.39137 -0.607 200 204 216
0.17285 -0.39137 -0.607 113 123 158
0.175163 -0.39137 -0.607 113 124 169
0.182954 -0.390726 -0.606 205 210 230
0.196806 -0.390726 -0.606 138 163 203
0.203731 -0.390726 -0.606 222 225 240
0.216071 -0.390081 -0.605 230 228 249
0.22952 -0.389436 -0.604 228 231 248
0.238724 -0.389436 -0.604 209 216 245
0.239874 -0.389436 -0.604 225 231 255
0.250963 -0.388791 -0.603 174 188 217
0.252111 -0.388791 -0.603 179 193 222
0.273934 -0.388791 -0.603 164 174 199
0.28542 -0.388791 -0.603 189 191 214
0.318729 -0.388791 -0.603 167 191 227
0.345718 -0.389436 -0.604 167 183 219
0.348019 -0.389436 -0.604 189 203 238
0.385985 -0.389436 -0.604 99 127 167
0.387776 -0.390081 -0.605 107 133 170
0.401605 -0.390081 -0.605 117 136 176
0.422348 -0.390081 -0.605 58 90 149
0.449594 -0.390726 -0.606 104 131 176
0.450749 -0.390726 -0.606 99 123 171
0.451903 -0.390726 -0.606 91 115 163
0.463446 -0.390726 -0.606 184 179 186
0.464986 -0.390081 -0.605 183 183 195
0.471526 -0.390726 -0.606 73 96 146
0.474616 -0.39137 -0.607 30 61 118
0.485022 -0.39137 -0.607 31 62 126
0.454133 -0.335276 -0.52 168 120 106
0.455265 -0.327539 -0.508 181 126 106
0.4563 -0.326894 -0.507 183 128 108
0.0240914 -0.320747 -0.496 197 157 132
0.0358571 -0.324627 -0.502 172 130 108
0.0409619 -0.327213 -0.506 157 113 100
0.0431438 -0.329153 -0.509 153 111 99
0.0498267 -0.334973 -0.518 122 101 96
0.0749276 -0.366013 -0.566 114 93 98
0.111572 -0.392527 -0.607 121 129 165
0.125653 -0.393173 -0.608 93 108 151
0.12797 -0.393173 -0.608 116 133 187
0.129128 -0.393173 -0.608 102 119 173
0.153195 -0.392527 -0.607 191 197 209
0.164486 -0.39188 -0.606 201 204 213
0.17372 -0.39188 -0.606 118 127 168
0.18988 -0.39188 -0.606 165 183 221
0.208005 -0.391233 -0.605 162 173 203
0.23718 -0.38994 -0.603 226 230 255
0.24522 -0.38994 -0.603 225 232 251
0.256706 -0.38994 -0.603 183 198 231
0.27738 -0.38994 -0.603 202 209 237
0.279677 -0.38994 -0.603 184 189 211
0.281974 -0.38994 -0.603 216 218 241
0.284271 -0.38994 -0.603 208 214 240
0.298054 -0.38994 -0.603 215 222 251
0.31132 -0.389293 -0.602 146 155 184
0.376157 -0.38994 -0.603 96 115 147
0.387135 -0.390587 -0.604 96 128 167
0.395189 -0.390587 -0.604 175 172 181
0.405062 -0.391233 -0.605 57 89 140
0.432719 -0.391233 -0.605 195 193 204
0.450005 -0.391233 -0.605 105 131 180
0.481553 -0.392527 -0.607 29 62 129
0.485377 -0.39188 -0.606 58 96 159
0.47281 -0.356313 -0.551 152 114 105
0.453589 -0.33368 -0.516 164 116 102
0.4563 -0.32786 -0.507 184 129 109
0.467005 -0.326567 -0.505 184 127 107
0.0231467 -0.321691 -0.496 195 156 127
0.0368133 -0.325583 -0.502 168 123 102
0.0420914 -0.329474 -0.508 153 111 99
0.10001 -0.393683 -0.607 153 153 163
0.141633 -0.393683 -0.607 155 169 198
0.152943 -0.393034 -0.606 187 192 211
0.155251 -0.393034 -0.606 190 196 210
0.171129 -0.392386 -0.605 88 96 132
0.180348 -0.392386 -0.605 206 212 236
0.1815 -0.392386 -0.605 206 212 236
0.195329 -0.392386 -0.605 133 157 193
0.203059 -0.391737 -0.604 224 223 239
0.20421 -0.391737 -0.604 219 224 244
0.219951 -0.391089 -0.603 211 218 246
0.225694 -0.391089 -0.603 207 217 244
0.227991 -0.391089 -0.603 195 202 228
0.236031 -0.391089 -0.603 231 238 255
0.248253 -0.39044 -0.602 165 178 210
0.251693 -0.39044 -0.602 199 213 239
0.25628 -0.39044 -0.602 185 200 233
0.27692 -0.39044 -0.602 167 176 205
0.281507 -0.39044 -0.602 206 213 241
0.284947 -0.39044 -0.602 166 177 209
0.372093 -0.39044 -0.602 193 198 217
0.3819 -0.391089 -0.603 117 150 195
0.38994 -0.391089 -0.603 178 197 227
0.392237 -0.391089 -0.603 146 150 162
0.393386 -0.391089 -0.603 153 150 159
0.394534 -0.391089 -0.603 196 193 202
0.44581 -0.391737 -0.604 62 94 153
0.469595 -0.392386 -0.605 149 159 186
0.4719 -0.392386 -0.605 88 110 157
0.484223 -0.393034 -0.606 34 75 139
0.498405 -0.392386 -0.605 173 174 192
0.456364 -0.328177 -0.506 183 127 110
0.458291 -0.328177 -0.506 182 126 109
0.467005 -0.327529 -0.505 183 126 107
0.475662 -0.327529 -0.505 172 121 100
0.0175133 -0.323287 -0.497 199 162 133
0.0193676 -0.322636 -0.496 198 161 132
0.0203124 -0.322636 -0.496 198 161 132
0.0399981 -0.329141 -0.506 161 116 97
0.0476686 -0.335646 -0.516 127 100 93
0.0524 -0.34085 -0.524 117 97 98
0.07506 -0.36882 -0.567 116 95 100
0.103309 -0.394189 -0.606 192 188 205
0.1089 -0.393538 -0.605 130 144 171
0.111389 -0.394189 -0.606 167 174 200
0.120822 -0.394839 -0.607 100 115 148
0.126603 -0.394839 -0.607 123 135 161
0.160757 -0.393538 -0.605 190 188 210
0.174586 -0.393538 -0.605 203 211 234
0.175738 -0.393538 -0.605 201 207 229
0.17689 -0.393538 -0.605 203 209 231
0.184957 -0.393538 -0.605 133 142 175
0.18611 -0.393538 -0.605 137 147 182
0.187262 -0.393538 -0.605 155 165 200
0.200758 -0.392888 -0.604 218 222 247
0.203871 -0.392237 -0.603 222 224 245
0.207317 -0.392237 -0.603 218 223 252
0.22532 -0.391587 -0.602 199 214 245
0.226467 -0.391587 -0.602 199 214 245
0.233347 -0.391587 -0.602 196 211 244
0.243667 -0.391587 -0.602 231 239 255
0.25013 -0.390936 -0.601 192 207 238
0.253565 -0.390936 -0.601 197 206 235
0.28724 -0.391587 -0.602 193 208 249
0.288387 -0.391587 -0.602 200 214 253
0.32225 -0.390936 -0.601 130 153 197
0.337693 -0.391587 -0.602 195 197 209
0.33884 -0.391587 -0.602 179 189 216
0.348591 -0.392237 -0.603 112 137 201
0.34974 -0.392237 -0.603 97 122 186
0.382413 -0.391587 -0.602 101 134 185
0.386494 -0.392237 -0.603 93 127 172
0.388791 -0.392237 -0.603 121 145 179
0.404871 -0.392237 -0.603 114 139 180
0.407169 -0.392237 -0.603 52 89 144
0.430853 -0.392888 -0.604 192 188 205
0.449261 -0.392888 -0.604 88 117 173
0.474205 -0.393538 -0.605 33 70 140
0.475357 -0.393538 -0.605 25 63 138
0.485729 -0.393538 -0.605 106 136 190
0.489528 -0.392888 -0.604 144 156 180
0.490678 -0.392888 -0.604 143 155 179
0.492643 -0.393538 -0.605 151 155 182
0.499557 -0.393538 -0.605 156 167 195
0.502183 -0.392888 -0.604 70 93 134
0.503649 -0.392237 -0.603 83 107 167
0.46224 -0.32784 -0.504 185 129 112
0.4747 -0.32849 -0.505 178 125 107
0.475662 -0.32849 -0.505 174 121 103
0.0289314 -0.324886 -0.498 189 145 118
0.099681 -0.39469 -0.605 178 180 195
0.12524 -0.395343 -0.606 144 157 191
0.143471 -0.39469 -0.605 185 189 216
0.184651 -0.394038 -0.604 137 146 179
0.198129 -0.393386 -0.603 194 203 236
0.199277 -0.393386 -0.603 211 217 243
0.247841 -0.392081 -0.601 168 182 219
0.265012 -0.392081 -0.601 231 233 254
0.267302 -0.392081 -0.601 233 231 252
0.273026 -0.392081 -0.601 207 208 236
0.275315 -0.392081 -0.601 160 165 194
0.27646 -0.392081 -0.601 140 150 185
0.277605 -0.392081 -0.601 134 144 179
0.285618 -0.392081 -0.601 137 158 203
0.295921 -0.392081 -0.601 191 205 240
0.3005 -0.392081 -0.601 220 226 248
0.309143 -0.391429 -0.6 153 172 205
0.344573 -0.392733 -0.602 70 101 156
0.346867 -0.392733 -0.602 66 106 168
0.348013 -0.392733 -0.602 76 109 176
0.361773 -0.392733 -0.602 201 204 221
0.377199 -0.392081 -0.601 100 134 180
0.380633 -0.392081 -0.601 83 122 177
0.388147 -0.392733 -0.602 113 141 180
0.39388 -0.392733 -0.602 197 196 212
0.403723 -0.393386 -0.603 162 182 217
0.412911 -0.393386 -0.603 51 89 160
0.415209 -0.393386 -0.603 31 73 145
0.433586 -0.393386 -0.603 181 184 199
0.437031 -0.393386 -0.603 85 117 166
0.439329 -0.393386 -0.603 94 125 180
0.478814 -0.39469 -0.605 20 58 131
0.49528 -0.394038 -0.604 110 113 130
0.498731 -0.394038 -0.604 117 136 166
0.499882 -0.394038 -0.604 119 138 168
0.47184 -0.3288 -0.504 177 121 104
0.0174781 -0.324526 -0.496 197 160 133
0.0193286 -0.323871 -0.495 198 159 130
0.0212143 -0.323871 -0.495 197 158 129
0.0269257 -0.324526 -0.496 190 149 119
0.02988 -0.325834 -0.498 183 141 116
0.0348314 -0.327797 -0.501 169 126 107
0.0537038 -0.344809 -0.527 113 94 96
0.0626895 -0.355931 -0.544 114 95 97
0.0680629 -0.362474 -0.554 112 93 95
0.0931429 -0.392571 -0.6 186 185 203
0.123881 -0.395843 -0.605 136 154 192
0.126186 -0.395843 -0.605 151 162 194
0.138862 -0.395843 -0.605 187 194 212
0.151538 -0.395843 -0.605 150 166 200
0.198129 -0.394534 -0.603 180 195 224
0.203533 -0.39388 -0.602 224 227 244
0.218077 -0.393226 -0.601 200 217 255
0.222656 -0.393226 -0.601 189 212 255
0.246286 -0.392571 -0.6 163 176 208
0.269143 -0.392571 -0.6 234 232 253
0.275315 -0.393226 -0.601 164 170 196
0.277605 -0.393226 -0.601 131 142 174
0.335429 -0.392571 -0.6 210 212 224
0.355449 -0.393226 -0.601 82 122 192
0.396173 -0.39388 -0.602 198 203 223
0.40076 -0.39388 -0.602 189 189 213
0.43516 -0.39388 -0.602 85 121 171
0.446627 -0.39388 -0.602 60 108 180
0.456557 -0.394534 -0.603 156 165 172
0.47034 -0.394534 -0.603 75 104 160
0.487227 -0.395189 -0.604 55 83 146
0.488377 -0.395189 -0.604 65 93 156
0.502813 -0.39388 -0.602 42 75 129
0.45931 -0.330414 -0.505 176 123 105
0.460271 -0.330414 -0.505 176 123 105
0.01296 -0.33072 -0.504 200 163 136
0.0192895 -0.324158 -0.494 198 159 130
0.0240429 -0.324814 -0.495 195 152 120
0.055019 -0.347781 -0.53 113 93 94
0.0653571 -0.360249 -0.549 113 94 96
0.0995162 -0.396339 -0.604 158 165 193
0.13403 -0.396339 -0.604 180 185 205
0.153589 -0.396339 -0.604 175 190 223
0.165093 -0.396339 -0.604 85 108 160
0.17286 -0.395683 -0.603 211 209 233
0.195507 -0.395027 -0.602 140 156 192
0.212353 -0.39437 -0.601 132 144 182
0.222286 -0.393714 -0.6 166 189 233
0.238286 -0.393714 -0.6 234 233 251
0.263429 -0.393714 -0.6 234 235 255
0.288571 -0.393714 -0.6 102 127 184
0.290857 -0.393714 -0.6 117 151 196
0.306346 -0.393058 -0.599 209 219 244
0.325742 -0.393058 -0.599 188 210 249
0.338857 -0.393714 -0.6 209 211 232
0.341143 -0.393714 -0.6 158 173 202
0.344571 -0.393714 -0.6 61 101 173
0.349143 -0.393714 -0.6 59 95 171
0.365751 -0.39437 -0.601 204 206 229
0.366896 -0.39437 -0.601 202 204 227
0.42299 -0.39437 -0.601 134 149 180
0.431003 -0.39437 -0.601 147 149 164
0.455409 -0.395683 -0.603 113 131 155
0.461533 -0.395027 -0.602 91 111 138
0.476872 -0.396339 -0.604 17 61 126
0.483775 -0.396339 -0.604 22 61 128
0.499373 -0.395027 -0.602 71 93 143
0.454768 -0.337282 -0.514 170 125 106
0.456232 -0.333345 -0.508 173 125 105
0.464197 -0.330064 -0.503 182 130 109
0.467071 -0.330064 -0.503 180 128 107
0.481423 -0.332032 -0.506 171 119 98
0.482387 -0.332032 -0.506 169 117 96
0.490086 -0.334657 -0.51 157 112 93
0.0489343 -0.341551 -0.519 122 98 98
0.0526 -0.346158 -0.526 118 97 96
0.0751924 -0.373798 -0.568 116 95 100
0.0970543 -0.396831 -0.603 162 169 197
0.123676 -0.39749 -0.604 146 164 200
0.155631 -0.396831 -0.603 117 132 171
0.172573 -0.396173 -0.602 207 207 231
0.174867 -0.396173 -0.602 205 210 230
0.213143 -0.394857 -0.6 129 142 176
0.218857 -0.394857 -0.6 128 156 206
0.248571 -0.394857 -0.6 164 182 220
0.249714 -0.394857 -0.6 153 171 209
0.256571 -0.394857 -0.6 177 195 235
0.269835 -0.394199 -0.599 229 235 251
0.31091 -0.394199 -0.599 145 170 211
0.318896 -0.394199 -0.599 122 155 208
0.344571 -0.394857 -0.6 70 108 181
0.345714 -0.394857 -0.6 55 93 166
0.397805 -0.395515 -0.601 128 142 169
0.403529 -0.395515 -0.601 101 131 183
0.416121 -0.395515 -0.601 21 70 139
0.423429 -0.394857 -0.6 64 95 142
0.434437 -0.395515 -0.601 77 108 163
0.435582 -0.395515 -0.601 76 107 162
0.446627 -0.396173 -0.602 36 83 155
0.450067 -0.396173 -0.602 53 90 158
0.457332 -0.395515 -0.601 128 133 152
0.46612 -0.396173 -0.602 40 72 133
0.492163 -0.396831 -0.603 106 123 143
0.4595 -0.3455 -0.525 159 120 105
0.4563 -0.333654 -0.507 171 124 106
0.470904 -0.331022 -0.503 175 123 102
0.0269257 -0.32736 -0.496 189 145 116
0.0514019 -0.34584 -0.524 120 98 100
0.0539076 -0.34914 -0.529 118 93 96
0.125977 -0.39864 -0.604 145 160 199
0.1634 -0.39732 -0.602 72 104 163
0.171427 -0.39732 -0.602 206 209 224
0.197471 -0.39666 -0.601 162 182 219
0.224197 -0.39534 -0.599 95 125 177
0.232184 -0.39534 -0.599 228 238 255
0.265968 -0.39468 -0.598 231 232 252
0.281914 -0.39468 -0.598 94 124 186
0.316086 -0.39468 -0.598 94 129 183
0.341715 -0.39534 -0.599 147 179 228
0.37138 -0.39534 -0.599 147 163 188
0.38393 -0.39534 -0.599 74 113 178
0.400571 -0.396 -0.6 61 102 168
0.412 -0.396 -0.6 14 64 137
0.426857 -0.396 -0.6 130 142 168
0.456188 -0.39666 -0.601 142 147 166
0.463056 -0.39666 -0.601 87 111 157
0.479173 -0.39864 -0.604 23 63 132
0.482974 -0.39798 -0.603 24 57 126
0.491347 -0.39732 -0.602 151 161 173
0.479606 -0.36564 -0.554 156 119 110
0.458863 -0.34452 -0.522 160 121 106
0.46032 -0.33264 -0.504 170 123 103
0.462281 -0.33198 -0.503 173 125 103
0.463239 -0.33198 -0.503 176 128 106
0.47568 -0.33264 -0.504 173 122 101
0.488164 -0.33528 -0.508 162 114 94
0.0231 -0.327643 -0.495 192 153 124
0.0552267 -0.352133 -0.532 117 92 95
0.0601714 -0.357429 -0.54 114 92 95
0.0795429 -0.381257 -0.576 116 93 99
0.131511 -0.399129 -0.603 100 115 154
0.173431 -0.397805 -0.601 212 215 234
0.202857 -0.397143 -0.6 221 228 247
0.205143 -0.397143 -0.6 220 225 244
0.211647 -0.396481 -0.599 184 198 227
0.233325 -0.396481 -0.599 229 231 252
0.243187 -0.395819 -0.598 173 184 216
0.26255 -0.395819 -0.598 227 231 255
0.271663 -0.395819 -0.598 229 230 251
0.308734 -0.395157 -0.597 140 165 206
0.309871 -0.395157 -0.597 147 179 226
0.33431 -0.395819 -0.598 144 150 174
0.345138 -0.396481 -0.599 51 91 163
0.348561 -0.396481 -0.599 43 87 162
0.386212 -0.396481 -0.599 61 97 157
0.421143 -0.397143 -0.6 76 114 177
0.423429 -0.397143 -0.6 82 117 173
0.429143 -0.397143 -0.6 168 174 186
0.43185 -0.396481 -0.599 133 141 162
0.440571 -0.397143 -0.6 40 84 145
0.455043 -0.397805 -0.601 143 161 185
0.473 -0.398467 -0.602 22 59 129
0.476083 -0.399129 -0.603 23 62 127
0.49053 -0.397805 -0.601 168 176 187
0.5 -0.397143 -0.6 62 103 159
0.490644 -0.375962 -0.568 150 117 108
0.4848 -0.370667 -0.56 155 118 110
0.478926 -0.365371 -0.552 154 117 109
0.459742 -0.346176 -0.523 158 121 105
0.456086 -0.337571 -0.51 172 127 108
0.463239 -0.332938 -0.503 175 127 105
0.47952 -0.3336 -0.504 165 117 97
0.498825 -0.340219 -0.514 148 111 92
0.0155257 -0.327922 -0.494 196 156 130
0.0211714 -0.327922 -0.494 193 156 127
0.0456143 -0.341862 -0.515 128 100 97
0.09154 -0.396294 -0.597 135 144 183
0.143907 -0.399613 -0.602 188 196 209
0.145053 -0.399613 -0.602 130 145 174
0.149391 -0.39895 -0.601 69 104 162
0.160839 -0.39895 -0.601 58 92 156
0.184571 -0.398286 -0.6 130 154 202
0.186857 -0.398286 -0.6 106 137 191
0.20366 -0.397622 -0.599 223 228 248
0.208224 -0.397622 -0.599 226 228 243
0.256855 -0.396958 -0.598 159 187 235
0.289403 -0.396294 -0.597 150 179 239
0.293951 -0.396294 -0.597 178 194 230
0.296226 -0.396294 -0.597 177 192 223
0.297363 -0.396294 -0.597 186 196 223
0.374689 -0.396294 -0.597 47 86 145
0.378733 -0.396958 -0.598 34 83 152
0.440978 -0.397622 -0.599 41 90 159
0.447429 -0.398286 -0.6 62 111 180
0.484467 -0.399613 -0.602 83 119 181
0.490857 -0.398286 -0.6 170 178 197
0.504029 -0.396958 -0.598 61 93 154
0.505168 -0.396958 -0.598 59 98 163
0.45752 -0.342526 -0.516 165 124 104
0.484319 -0.335224 -0.505 163 116 96
0.502731 -0.342526 -0.516 148 113 93
0.0192505 -0.328197 -0.493 198 158 132
0.0467762 -0.344174 -0.517 125 99 98
0.0503076 -0.348169 -0.523 121 96 99
0.0515 -0.3495 -0.525 120 95 98
0.0977143 -0.399429 -0.6 94 111 155
0.115049 -0.400094 -0.601 120 138 176
0.135654 -0.400094 -0.601 193 195 218
0.160839 -0.400094 -0.601 68 99 166
0.172 -0.399429 -0.6 206 211 230
0.188828 -0.398763 -0.599 102 137 195
0.189969 -0.398763 -0.599 108 143 201
0.200237 -0.398763 -0.599 224 226 251
0.204459 -0.398097 -0.598 227 233 255
0.207876 -0.398097 -0.598 218 221 240
0.210154 -0.398097 -0.598 218 224 248
0.22724 -0.398097 -0.598 177 206 255
0.235957 -0.397431 -0.597 230 235 255
0.237094 -0.397431 -0.597 227 232 254
0.243187 -0.398097 -0.598 164 178 213
0.263249 -0.397431 -0.597 214 221 249
0.301406 -0.396766 -0.596 207 212 234
0.311623 -0.396766 -0.596 88 128 190
0.31957 -0.396766 -0.596 77 121 182
0.379237 -0.397431 -0.597 42 92 163
0.383786 -0.397431 -0.597 66 112 174
0.387846 -0.398097 -0.598 153 178 208
0.432269 -0.398097 -0.598 159 179 214
0.453529 -0.398763 -0.599 173 194 215
0.45467 -0.398763 -0.599 180 186 200
0.488571 -0.399429 -0.6 172 179 195
0.489714 -0.399429 -0.6 174 181 197
0.4572 -0.338183 -0.508 176 131 112
0.460271 -0.336186 -0.505 176 128 108
0.460365 -0.334854 -0.503 177 129 109
0.463239 -0.334854 -0.503 174 126 106
0.0127286 -0.330471 -0.495 197 160 134
0.0230533 -0.329804 -0.494 191 152 123
0.0288733 -0.331807 -0.497 181 136 113
0.0670076 -0.369861 -0.554 113 93 95
0.0977143 -0.400571 -0.6 106 127 174
0.106857 -0.400571 -0.6 183 188 210
0.110286 -0.400571 -0.6 190 191 211
0.114857 -0.400571 -0.6 112 134 173
0.154857 -0.400571 -0.6 51 76 160
0.160571 -0.400571 -0.6 84 113 181
0.170572 -0.399904 -0.599 207 216 231
0.177714 -0.400571 -0.6 208 209 227
0.210154 -0.399236 -0.598 181 190 219
0.223449 -0.398569 -0.597 96 125 191
0.224586 -0.398569 -0.597 108 137 203
0.24278 -0.398569 -0.597 160 178 216
0.246191 -0.398569 -0.597 142 173 220
0.267797 -0.398569 -0.597 189 195 217
0.279836 -0.397901 -0.596 93 124 189
0.283242 -0.397901 -0.596 85 116 181
0.287783 -0.397901 -0.596 89 120 187
0.311623 -0.397901 -0.596 80 121 185
0.326381 -0.397901 -0.596 174 195 222
0.393541 -0.399236 -0.598 189 197 210
0.425434 -0.399236 -0.598 175 189 198
0.427712 -0.399236 -0.598 189 196 212
0.451247 -0.399904 -0.599 83 127 188
0.45581 -0.399904 -0.599 183 187 199
0.458467 -0.399236 -0.598 185 189 198
0.480228 -0.401239 -0.601 25 65 135
0.461619 -0.349832 -0.524 157 124 107
0.466143 -0.335145 -0.502 178 131 111
0.469986 -0.334477 -0.501 170 123 103
0.577646 -0.384549 -0.576 152 132 125
0.00603429 -0.385646 -0.576 207 167 141
0.0201895 -0.330075 -0.493 195 153 128
0.0259286 -0.331414 -0.495 187 141 117
0.0359286 -0.33677 -0.503 161 119 107
0.0480381 -0.348152 -0.52 126 98 95
0.0725143 -0.377611 -0.564 116 97 103
0.104397 -0.401045 -0.599 189 191 206
0.124207 -0.402384 -0.601 69 98 156
0.135429 -0.401714 -0.6 194 196 219
0.150286 -0.401714 -0.6 69 95 154
0.169431 -0.401045 -0.599 201 206 236
0.19079 -0.400375 -0.598 107 144 199
0.194208 -0.400375 -0.598 126 158 215
0.200706 -0.399706 -0.597 218 225 251
0.207529 -0.399706 -0.597 147 167 204
0.209803 -0.399706 -0.597 131 152 197
0.213992 -0.399036 -0.596 97 122 178
0.22421 -0.399036 -0.596 93 129 191
0.234427 -0.399036 -0.596 168 175 203
0.255996 -0.399036 -0.596 118 153 209
0.2975 -0.398367 -0.595 153 171 195
0.299767 -0.398367 -0.595 217 223 239
0.3247 -0.398367 -0.595 181 201 226
0.329233 -0.398367 -0.595 212 214 239
0.340004 -0.399036 -0.596 123 151 201
0.353627 -0.399036 -0.596 123 160 212
0.362709 -0.399036 -0.596 207 208 226
0.370033 -0.398367 -0.595 127 151 195
0.373433 -0.398367 -0.595 73 111 174
0.380872 -0.399036 -0.596 65 115 186
0.402653 -0.400375 -0.598 138 152 189
0.426997 -0.399706 -0.597 192 195 212
0.43382 -0.399706 -0.597 61 106 171
0.444798 -0.400375 -0.598 58 104 166
0.451632 -0.400375 -0.598 140 157 175
0.46722 -0.401045 -0.599 96 116 151
0.484 -0.401714 -0.6 82 101 134
0.488898 -0.401045 -0.599 169 178 193
0.461734 -0.350161 -0.523 160 125 105
0.512565 -0.348822 -0.521 148 110 91
0.5175 -0.3515 -0.525 143 110 93
0.0380705 -0.339743 -0.506 150 110 100
0.0631505 -0.367943 -0.548 113 90 96
0.0766771 -0.383386 -0.571 114 95 101
0.0923667 -0.3995 -0.595 92 106 153
0.0938143 -0.400843 -0.597 91 104 156
0.0998333 -0.402186 -0.599 174 188 225
0.121714 -0.402857 -0.6 66 101 167
0.127429 -0.402857 -0.6 108 137 195
0.159163 -0.402186 -0.599 62 99 167
0.187373 -0.401514 -0.598 85 129 190
0.199569 -0.400843 -0.597 185 191 217
0.215128 -0.400171 -0.596 97 125 188
0.219669 -0.400171 -0.596 94 123 189
0.223074 -0.400171 -0.596 85 121 181
0.22648 -0.400171 -0.596 100 133 187
0.249185 -0.400171 -0.596 98 134 186
0.257131 -0.400171 -0.596 125 156 202
0.2635 -0.3995 -0.595 210 222 248
0.265767 -0.3995 -0.595 212 223 251
0.291833 -0.3995 -0.595 181 200 240
0.330367 -0.3995 -0.595 207 217 229
0.358168 -0.400171 -0.596 203 206 223
0.380872 -0.400171 -0.596 72 117 182
0.391746 -0.400843 -0.597 193 203 215
0.452771 -0.401514 -0.598 174 184 209
0.491814 -0.400843 -0.597 174 180 194
0.495226 -0.400843 -0.597 172 179 197
0.502343 -0.400171 -0.596 104 128 176
0.506033 -0.3995 -0.595 109 132 174
0.45931 -0.339071 -0.505 178 130 110
0.471894 -0.336386 -0.501 174 126 104
0.514543 -0.350486 -0.522 147 110 92
0.0221124 -0.332627 -0.494 187 148 119
0.0288733 -0.334647 -0.497 175 133 111
0.0505962 -0.354173 -0.526 125 97 94
0.0543152 -0.358887 -0.533 119 93 94
0.0996667 -0.402653 -0.598 170 185 224
0.108779 -0.402653 -0.598 194 195 216
0.109918 -0.402653 -0.598 183 187 214
0.111057 -0.402653 -0.598 172 176 203
0.133838 -0.402653 -0.598 144 162 200
0.138626 -0.403327 -0.599 185 193 214
0.142049 -0.403327 -0.599 146 159 191
0.14409 -0.402653 -0.598 144 161 205
0.208316 -0.401307 -0.596 120 148 196
0.2533 -0.400633 -0.595 115 150 204
0.258967 -0.400633 -0.595 188 203 234
0.284554 -0.39996 -0.594 91 116 180
0.292474 -0.39996 -0.594 211 226 255
0.316234 -0.39996 -0.594 90 135 202
0.333206 -0.39996 -0.594 208 212 237
0.336033 -0.400633 -0.595 205 211 235
0.3553 -0.400633 -0.595 172 196 222
0.3655 -0.400633 -0.595 197 194 203
0.370543 -0.39996 -0.594 88 116 153
0.377967 -0.400633 -0.595 73 118 175
0.397431 -0.40198 -0.597 175 186 206
0.403117 -0.40198 -0.597 70 91 122
0.405848 -0.401307 -0.596 41 80 159
0.424433 -0.400633 -0.595 195 198 207
0.429688 -0.401307 -0.596 191 199 212
0.436499 -0.401307 -0.596 82 121 178
0.446329 -0.40198 -0.597 76 115 174
0.453151 -0.40198 -0.597 181 185 196
0.455426 -0.40198 -0.597 183 190 198
0.4577 -0.40198 -0.597 189 193 204
0.46566 -0.40198 -0.597 56 72 106
0.483193 -0.403327 -0.599 59 80 123
0.495531 -0.401307 -0.596 174 180 194
0.5049 -0.400633 -0.595 98 120 159
0.497368 -0.385147 -0.572 150 119 114
0.466024 -0.356193 -0.529 157 124 107
0.47094 -0.33734 -0.501 170 123 103
0.479529 -0.338013 -0.502 162 115 95
0.506663 -0.34744 -0.516 150 109 91
0.0154943 -0.332892 -0.493 197 160 133
0.0249857 -0.334243 -0.495 183 139 114
0.02988 -0.336269 -0.498 171 128 111
0.0531 -0.358551 -0.531 120 94 93
0.0697419 -0.377458 -0.559 117 95 98
0.133838 -0.403792 -0.598 97 116 156
0.141811 -0.403792 -0.598 80 105 159
0.183341 -0.402442 -0.596 78 110 171
0.186747 -0.402442 -0.596 61 98 166
0.217033 -0.401767 -0.595 99 123 187
0.220433 -0.401767 -0.595 94 122 187
0.231377 -0.401091 -0.594 213 221 242
0.24156 -0.401091 -0.594 158 174 210
0.27278 -0.400416 -0.593 202 217 250
0.287949 -0.401091 -0.594 141 176 240
0.306666 -0.400416 -0.593 112 150 199
0.341126 -0.401091 -0.594 79 115 165
0.343389 -0.401091 -0.594 54 89 153
0.367149 -0.401091 -0.594 199 202 217
0.384767 -0.401767 -0.595 116 155 212
0.402442 -0.402442 -0.596 69 94 134
0.414233 -0.401767 -0.595 57 95 160
0.427833 -0.401767 -0.595 188 195 211
0.431233 -0.401767 -0.595 157 168 186
0.47977 -0.404468 -0.599 106 130 166
0.506591 -0.400416 -0.593 99 119 156
0.467123 -0.338294 -0.501 170 123 105
0.474757 -0.338294 -0.501 165 117 97
0.485275 -0.339645 -0.503 162 117 98
0.00718571 -0.340603 -0.503 204 164 139
0.0099 -0.335186 -0.495 198 161 134
0.0221124 -0.334509 -0.494 188 147 119
0.0506924 -0.356854 -0.527 124 94 92
0.0619933 -0.370397 -0.547 117 91 92
0.0698667 -0.3792 -0.56 119 94 97
0.0725143 -0.381909 -0.564 118 93 96
0.106145 -0.403577 -0.596 157 167 194
0.125865 -0.404931 -0.598 54 86 147
0.141574 -0.404254 -0.597 66 97 154
0.149534 -0.404254 -0.597 49 82 151
0.171989 -0.403577 -0.596 209 215 237
0.208749 -0.402223 -0.594 198 213 246
0.214406 -0.402223 -0.594 111 137 194
0.222326 -0.402223 -0.594 95 123 188
0.22572 -0.402223 -0.594 183 206 255
0.238166 -0.402223 -0.594 218 224 250
0.266451 -0.402223 -0.594 227 232 251
0.270521 -0.401546 -0.593 218 230 254
0.27391 -0.401546 -0.593 174 190 223
0.276169 -0.401546 -0.593 118 139 184
0.282946 -0.401546 -0.593 93 123 183
0.290852 -0.401546 -0.593 209 223 249
0.301638 -0.400869 -0.592 193 196 203
0.314572 -0.401546 -0.593 94 139 196
0.329256 -0.401546 -0.593 208 216 229
0.335469 -0.402223 -0.594 179 187 210
0.354703 -0.402223 -0.594 100 132 179
0.355834 -0.402223 -0.594 118 150 197
0.383633 -0.4029 -0.595 97 133 185
0.390433 -0.4029 -0.595 191 198 217
0.412406 -0.402223 -0.594 96 126 176
0.413537 -0.402223 -0.594 75 105 157
0.480109 -0.404931 -0.598 91 106 139
0.483854 -0.404254 -0.597 70 88 136
0.486129 -0.404254 -0.597 145 161 197
0.492126 -0.403577 -0.596 169 178 187
0.467031 -0.358209 -0.529 157 126 108
0.469986 -0.339249 -0.501 174 126 106
0.505678 -0.348051 -0.514 149 106 87
0.00988 -0.33545 -0.494 200 160 135
0.0495 -0.3565 -0.525 124 94 92
0.10728 -0.404712 -0.596 181 192 212
0.116752 -0.40607 -0.598 53 89 151
0.12017 -0.40607 -0.598 40 78 141
0.1393 -0.405391 -0.597 101 121 154
0.141574 -0.405391 -0.597 108 136 176
0.161771 -0.404712 -0.596 151 174 226
0.1819 -0.404033 -0.595 104 140 200
0.189833 -0.404033 -0.595 108 151 206
0.190967 -0.404033 -0.595 104 147 202
0.237765 -0.402675 -0.593 229 235 255
0.259226 -0.402675 -0.593 204 221 251
0.261485 -0.402675 -0.593 225 236 255
0.273448 -0.401996 -0.592 164 182 218
0.274575 -0.401996 -0.592 116 138 185
0.323063 -0.401996 -0.592 212 218 232
0.325318 -0.401996 -0.592 211 220 237
0.331515 -0.402675 -0.593 216 221 241
0.34281 -0.402675 -0.593 97 121 169
0.351847 -0.402675 -0.593 69 106 161
0.36653 -0.402675 -0.593 204 203 217
0.371049 -0.402675 -0.593 101 133 182
0.374437 -0.402675 -0.593 111 148 200
0.410833 -0.404033 -0.595 150 181 225
0.422589 -0.403354 -0.594 191 196 202
0.448987 -0.404712 -0.596 117 145 192
0.479306 -0.405391 -0.597 116 127 155
0.484179 -0.404712 -0.596 64 82 120
0.492126 -0.404712 -0.596 169 178 187
0.50292 -0.403354 -0.594 111 135 181
0.48506 -0.375513 -0.553 154 117 111
0.46627 -0.357858 -0.527 156 118 105
0.49104 -0.34224 -0.504 159 116 97
0.49784 -0.344956 -0.508 156 115 95
0.00534286 -0.347286 -0.51 206 166 141
0.0202305 -0.33639 -0.494 191 147 118
0.0240429 -0.337071 -0.495 185 138 112
0.0339448 -0.341838 -0.502 155 117 104
0.0370333 -0.343881 -0.505 148 110 101
0.0698667 -0.381333 -0.56 120 95 99
0.0726429 -0.384738 -0.565 119 93 96
0.10501 -0.405848 -0.596 172 177 196
0.203091 -0.404486 -0.594 223 231 254
0.235506 -0.403805 -0.593 229 236 252
0.296626 -0.402443 -0.591 207 206 212
0.340551 -0.403805 -0.593 113 137 185
0.34507 -0.403805 -0.593 93 117 151
0.346199 -0.403805 -0.593 121 145 179
0.355235 -0.403805 -0.593 100 133 186
0.380726 -0.404486 -0.594 87 124 168
0.397697 -0.404486 -0.594 71 89 135
0.423007 -0.403805 -0.593 193 197 206
0.425266 -0.403805 -0.593 192 200 213
0.426395 -0.403805 -0.593 194 202 221
0.432771 -0.404486 -0.594 129 145 170
0.441823 -0.404486 -0.594 141 169 208
0.442954 -0.404486 -0.594 120 148 187
0.4539 -0.405167 -0.595 185 186 206
0.478503 -0.405848 -0.596 145 155 180
0.505462 -0.403805 -0.593 85 108 150
0.467123 -0.341157 -0.501 174 127 107
0.469986 -0.341157 -0.501 157 110 90
0.00531143 -0.346209 -0.507 206 166 140
0.0173371 -0.335966 -0.492 195 154 126
0.0329229 -0.342111 -0.501 160 118 104
0.0582219 -0.369426 -0.541 117 93 93
0.0594714 -0.370791 -0.543 118 93 89
0.06084 -0.37284 -0.546 116 91 87
0.119969 -0.407666 -0.597 70 104 165
0.121106 -0.407666 -0.597 59 97 162
0.127714 -0.406983 -0.596 84 122 185
0.139067 -0.406983 -0.596 185 196 218
0.140202 -0.406983 -0.596 181 192 214
0.183548 -0.404934 -0.593 77 125 174
0.219322 -0.404251 -0.592 99 130 177
0.220822 -0.404934 -0.593 103 134 181
0.230988 -0.404934 -0.593 232 238 250
0.232853 -0.404251 -0.592 235 237 252
0.269609 -0.403569 -0.591 170 186 219
0.283117 -0.403569 -0.591 120 147 190
0.301129 -0.403569 -0.591 221 223 236
0.310134 -0.403569 -0.591 150 182 223
0.337151 -0.403569 -0.591 93 124 171
0.346743 -0.404251 -0.592 178 198 231
0.351253 -0.404251 -0.592 93 125 172
0.353509 -0.404251 -0.592 78 104 153
0.382344 -0.404934 -0.593 134 158 196
0.418489 -0.404934 -0.593 108 123 152
0.427525 -0.404934 -0.593 186 198 214
0.484179 -0.406983 -0.596 162 167 189
0.485314 -0.406983 -0.596 123 128 158
0.493831 -0.384449 -0.563 152 114 103
0.474094 -0.366694 -0.537 149 116 101
0.460642 -0.350989 -0.514 170 124 109
0.459255 -0.345526 -0.506 176 130 114
0.476666 -0.342111 -0.501 163 118 99
0.478574 -0.342111 -0.501 161 110 89
0.488135 -0.342794 -0.502 159 114 95
0.00615333 -0.340327 -0.497 202 165 138
0.0269257 -0.339642 -0.496 177 132 111
0.0339448 -0.34375 -0.502 152 115 106
0.0436524 -0.352652 -0.515 132 101 96
0.0495943 -0.360185 -0.526 125 96 92
0.0621067 -0.37525 -0.548 113 92 87
0.063381 -0.376619 -0.55 114 93 88
0.0933429 -0.406749 -0.594 94 108 153
0.099 -0.406749 -0.594 185 196 218
0.105967 -0.407433 -0.595 188 195 211
0.123173 -0.408118 -0.596 65 99 160
0.132033 -0.407433 -0.595 193 198 227
0.149033 -0.407433 -0.595 38 82 157
0.165754 -0.406749 -0.594 209 214 236
0.223832 -0.405379 -0.592 118 146 196
0.240747 -0.405379 -0.592 155 167 189
0.2561 -0.404694 -0.591 188 216 255
0.266231 -0.404694 -0.591 231 237 251
0.364785 -0.405379 -0.592 208 206 219
0.36704 -0.405379 -0.592 213 210 221
0.370423 -0.405379 -0.592 145 167 206
0.380085 -0.406064 -0.593 93 132 175
0.401546 -0.406064 -0.593 144 166 190
0.403805 -0.406064 -0.593 171 183 199
0.408323 -0.406064 -0.593 148 159 181
0.426804 -0.405379 -0.592 188 200 216
0.457663 -0.406749 -0.594 120 129 160
0.485633 -0.407433 -0.595 103 104 134
0.486767 -0.407433 -0.595 53 62 101
0.490474 -0.406749 -0.594 160 171 189
0.506865 -0.405379 -0.592 64 96 143
0.460103 -0.347859 -0.508 168 125 108
0.472857 -0.342381 -0.5 169 122 104
0.47381 -0.342381 -0.5 163 116 98
0.522503 -0.358815 -0.524 152 114 95
0.566877 -0.384151 -0.561 153 118 98
0.000546667 -0.394147 -0.574 200 165 135
0.00982 -0.337153 -0.491 198 161 132
0.0279267 -0.341273 -0.497 173 128 107
0.0339448 -0.344707 -0.502 150 113 105
0.0484076 -0.359813 -0.524 126 97 93
0.132033 -0.408567 -0.595 193 198 227
0.139967 -0.408567 -0.595 205 213 236
0.159828 -0.407193 -0.593 130 160 214
0.203191 -0.40582 -0.591 224 229 248
0.235837 -0.40582 -0.591 193 193 195
0.287133 -0.405133 -0.59 114 145 191
0.307362 -0.405133 -0.59 150 176 213
0.30961 -0.405133 -0.59 173 203 237
0.310733 -0.405133 -0.59 166 191 222
0.3186 -0.405133 -0.59 166 189 223
0.324219 -0.405133 -0.59 220 227 243
0.348409 -0.40582 -0.591 170 188 210
0.400869 -0.406507 -0.592 171 183 207
0.401996 -0.406507 -0.592 172 184 208
0.411017 -0.406507 -0.592 175 186 208
0.436952 -0.406507 -0.592 98 123 164
0.441079 -0.407193 -0.593 107 133 184
0.443338 -0.407193 -0.593 91 113 163
0.452374 -0.407193 -0.593 178 188 213
0.467846 -0.40788 -0.594 169 181 203
0.480291 -0.40788 -0.594 172 176 203
0.485949 -0.40788 -0.594 78 92 127
0.505737 -0.406507 -0.592 80 106 155
0.509648 -0.405133 -0.59 141 149 168
0.464931 -0.357753 -0.521 165 124 106
0.462434 -0.35432 -0.516 165 124 106
0.461621 -0.352947 -0.514 166 125 107
0.460163 -0.34814 -0.507 171 125 109
0.477619 -0.343333 -0.5 162 116 93
0.481429 -0.343333 -0.5 167 120 100
0.483333 -0.343333 -0.5 163 118 97
0.513543 -0.35432 -0.516 153 108 89
0.00431143 -0.346351 -0.503 205 164 142
0.00796571 -0.338777 -0.492 196 163 130
0.0192114 -0.338777 -0.492 190 149 121
0.0259286 -0.340843 -0.495 179 133 110
0.0557457 -0.369763 -0.537 119 93 92
0.0570857 -0.371829 -0.54 119 93 92
0.0988333 -0.408323 -0.593 187 192 212
0.133167 -0.4097 -0.595 198 200 223
0.195311 -0.406946 -0.591 222 227 247
0.205443 -0.406946 -0.591 138 153 184
0.225706 -0.406946 -0.591 129 151 188
0.227957 -0.406946 -0.591 187 201 228
0.235837 -0.406946 -0.591 220 220 222
0.245552 -0.406257 -0.59 176 204 243
0.268029 -0.406257 -0.59 203 215 237
0.337705 -0.406257 -0.59 172 187 216
0.348943 -0.406257 -0.59 183 194 214
0.35119 -0.406257 -0.59 176 188 212
0.354037 -0.406946 -0.591 156 172 195
0.355686 -0.406257 -0.59 138 152 179
0.361305 -0.406257 -0.59 207 208 226
0.3743 -0.406946 -0.591 141 173 220
0.387337 -0.407634 -0.592 198 199 220
0.396814 -0.406946 -0.591 187 198 218
0.441463 -0.407634 -0.592 79 105 154
0.443718 -0.407634 -0.592 82 105 155
0.46141 -0.408323 -0.593 178 181 198
0.479483 -0.408323 -0.593 172 177 199
0.482871 -0.408323 -0.593 167 175 196
0.46839 -0.362189 -0.526 160 122 109
0.461323 -0.346351 -0.503 175 129 113
0.462318 -0.345663 -0.502 163 116 100
0.481429 -0.344286 -0.5 169 122 102
0.485238 -0.344286 -0.5 154 109 88
0.50171 -0.349794 -0.508 158 115 96
0.507611 -0.352549 -0.512 156 111 92
0.00702857 -0.339714 -0.492 197 164 131
0.0269257 -0.342476 -0.496 174 127 107
0.0448933 -0.357667 -0.518 129 98 95
0.0619933 -0.37769 -0.547 118 92 95
0.0723857 -0.388738 -0.563 118 94 94
0.10674 -0.409452 -0.593 191 197 209
0.119567 -0.410833 -0.595 112 142 178
0.128417 -0.410143 -0.594 146 173 218
0.131811 -0.410143 -0.594 200 201 221
0.132943 -0.410143 -0.594 199 200 220
0.140863 -0.410143 -0.594 143 163 198
0.141994 -0.410143 -0.594 114 134 169
0.149662 -0.409452 -0.593 56 98 158
0.164069 -0.408762 -0.592 197 204 223
0.166324 -0.408762 -0.592 212 214 227
0.175049 -0.408071 -0.591 171 177 193
0.19161 -0.407381 -0.59 184 208 246
0.192733 -0.407381 -0.59 214 227 246
0.194186 -0.408071 -0.591 217 230 249
0.22458 -0.408071 -0.591 123 148 189
0.237686 -0.407381 -0.59 231 234 243
0.35681 -0.407381 -0.59 94 110 144
0.366924 -0.407381 -0.59 199 210 228
0.426083 -0.408071 -0.591 181 195 222
0.428334 -0.408071 -0.591 183 186 205
0.430586 -0.408071 -0.591 150 160 185
0.435089 -0.408071 -0.591 77 108 155
0.43734 -0.408071 -0.591 98 131 176
0.456122 -0.408762 -0.592 73 92 132
0.459505 -0.408762 -0.592 166 178 202
0.46141 -0.409452 -0.593 176 184 195
0.469317 -0.409452 -0.593 178 182 194
0.470447 -0.409452 -0.593 171 178 197
0.481742 -0.409452 -0.593 174 180 194
0.493626 -0.408071 -0.591 162 172 199
0.46107 -0.350762 -0.508 167 124 108
0.462318 -0.346619 -0.502 170 123 107
0.476664 -0.344548 -0.499 165 118 98
0.0098 -0.339267 -0.49 198 158 132
0.0144667 -0.339267 -0.49 193 151 126
0.0154314 -0.339959 -0.491 192 150 125
0.0360714 -0.349652 -0.505 145 108 100
0.0415286 -0.355191 -0.513 135 102 97
0.0437371 -0.357269 -0.516 129 98 93
0.0555381 -0.370424 -0.535 120 94 93
0.0658333 -0.382887 -0.553 123 93 95
0.0986667 -0.40989 -0.592 182 186 211
0.115971 -0.411274 -0.594 103 131 170
0.125023 -0.411274 -0.594 91 124 167
0.13068 -0.411274 -0.594 193 202 219
0.151665 -0.40989 -0.592 92 125 176
0.171671 -0.409197 -0.591 191 194 201
0.176174 -0.409197 -0.591 159 165 181
0.211838 -0.408505 -0.59 210 225 255
0.227571 -0.408505 -0.59 214 225 253
0.232795 -0.407812 -0.589 210 208 219
0.257477 -0.407812 -0.589 231 238 255
0.29624 -0.40712 -0.588 223 225 240
0.30184 -0.40712 -0.588 220 226 242
0.31528 -0.40712 -0.588 131 154 196
0.351717 -0.407812 -0.589 201 208 227
0.373033 -0.407812 -0.589 118 150 197
0.397267 -0.408505 -0.59 189 198 213
0.415248 -0.408505 -0.59 183 192 209
0.420454 -0.409197 -0.591 100 120 157
0.48995 -0.40989 -0.592 88 104 138
0.461183 -0.350345 -0.506 174 131 115
0.473812 -0.345498 -0.499 172 125 107
0.479515 -0.345498 -0.499 170 123 103
0.482367 -0.345498 -0.499 163 118 99
0.486169 -0.345498 -0.499 160 115 96
0.00702857 -0.341589 -0.492 199 162 133
0.0182743 -0.341589 -0.492 189 148 120
0.120294 -0.411711 -0.593 131 155 201
0.150537 -0.411017 -0.592 73 105 152
0.166886 -0.409629 -0.59 216 215 221
0.175049 -0.410323 -0.591 190 196 212
0.202504 -0.408934 -0.589 193 199 223
0.204748 -0.408934 -0.589 139 152 184
0.211479 -0.408934 -0.589 211 220 249
0.214845 -0.408934 -0.589 187 197 222
0.228308 -0.408934 -0.589 228 237 255
0.26488 -0.40824 -0.588 200 211 231
0.2716 -0.40824 -0.588 212 218 244
0.29624 -0.40824 -0.588 222 227 247
0.31528 -0.40824 -0.588 133 156 198
0.31864 -0.40824 -0.588 212 217 239
0.322 -0.40824 -0.588 214 221 247
0.339376 -0.408934 -0.589 208 216 237
0.371911 -0.408934 -0.589 104 133 173
0.387152 -0.409629 -0.59 110 127 157
0.401762 -0.409629 -0.59 187 197 209
0.407812 -0.408934 -0.589 186 195 204
0.4531 -0.410323 -0.591 91 109 147
0.462888 -0.411017 -0.592 179 184 190
0.465143 -0.411017 -0.592 117 116 121
0.472237 -0.410323 -0.591 175 182 190
0.48093 -0.411017 -0.592 171 174 189
0.486568 -0.411017 -0.592 162 170 189
0.505152 -0.409629 -0.59 35 66 121
0.51016 -0.40824 -0.588 98 108 143
0.4695 -0.3645 -0.525 155 116 109
0.469031 -0.347837 -0.501 173 127 111
0.476657 -0.345754 -0.498 165 118 98
0.507571 -0.354086 -0.51 153 110 93
0.00701429 -0.34183 -0.491 201 164 137
0.02698 -0.346007 -0.497 168 123 104
0.03718 -0.352969 -0.507 139 105 96
0.0766771 -0.397525 -0.571 107 98 99
0.114647 -0.412841 -0.593 133 152 184
0.16239 -0.410752 -0.59 157 177 210
0.171381 -0.410752 -0.59 186 187 192
0.177822 -0.410056 -0.589 133 162 202
0.20328 -0.40936 -0.588 161 171 198
0.272256 -0.408664 -0.587 236 238 255
0.32984 -0.40936 -0.588 150 166 192
0.3332 -0.40936 -0.588 213 220 238
0.34328 -0.40936 -0.588 205 212 220
0.35 -0.40936 -0.588 201 213 227
0.36232 -0.40936 -0.588 153 169 202
0.36344 -0.40936 -0.588 185 195 222
0.389862 -0.410056 -0.589 139 162 194
0.396593 -0.410056 -0.589 190 196 210
0.405569 -0.410056 -0.589 188 195 205
0.4123 -0.410056 -0.589 189 196 204
0.471111 -0.411449 -0.591 164 171 179
0.475614 -0.411449 -0.591 112 117 123
0.48462 -0.411449 -0.591 173 175 188
0.485746 -0.411449 -0.591 171 177 191
0.491374 -0.411449 -0.591 86 95 134
0.497286 -0.410752 -0.59 85 109 153
0.507662 -0.410056 -0.589 82 107 164
0.466169 -0.348791 -0.501 175 129 113
0.470961 -0.347399 -0.499 174 129 110
0.483297 -0.346703 -0.498 165 120 101
0.00424286 -0.345557 -0.495 201 164 137
0.00515429 -0.343463 -0.492 200 163 136
0.00793333 -0.342067 -0.49 198 163 135
0.0506924 -0.367896 -0.527 127 98 94
0.0632657 -0.383254 -0.549 114 90 88
0.0917457 -0.412574 -0.591 134 149 182
0.0952838 -0.413272 -0.592 100 119 152
0.115581 -0.413272 -0.592 145 164 204
0.116709 -0.413272 -0.592 161 180 220
0.167725 -0.411178 -0.589 214 213 227
0.19096 -0.41048 -0.588 211 223 255
0.1932 -0.41048 -0.588 217 228 248
0.20776 -0.41048 -0.588 219 225 249
0.2212 -0.41048 -0.588 212 223 243
0.22344 -0.41048 -0.588 227 235 255
0.23352 -0.41048 -0.588 236 238 250
0.238 -0.41048 -0.588 211 225 252
0.244304 -0.409782 -0.587 171 193 232
0.249894 -0.409782 -0.587 156 176 213
0.304681 -0.409782 -0.587 142 162 195
0.321452 -0.409782 -0.587 201 206 226
0.330397 -0.409782 -0.587 208 219 237
0.387618 -0.411178 -0.589 124 143 173
0.389862 -0.411178 -0.589 168 186 210
0.419031 -0.411178 -0.589 185 191 205
0.422397 -0.411178 -0.589 131 143 167
0.423519 -0.411178 -0.589 106 117 149
0.454581 -0.411876 -0.59 175 181 193
0.4602 -0.411876 -0.59 175 181 193
0.498121 -0.393028 -0.563 145 114 112
0.491213 -0.386745 -0.554 145 114 112
0.463239 -0.351142 -0.503 173 132 112
0.465187 -0.350444 -0.502 177 131 115
