ply
format ascii 1.0
comment Created by Open3D
element vertex 1314
property double x
property double y
property double z
property uchar red
property uchar green
property uchar blue
end_header
0.166855 -0.172592 -0.502 108 74 75
0.297933 -0.197347 -0.574 116 84 89
0.297015 -0.194596 -0.566 117 85 88
0.299198 -0.193221 -0.562 116 84 85
0.308524 -0.189095 -0.55 122 90 91
0.31668 -0.18772 -0.546 122 90 91
0.321146 -0.186689 -0.543 123 91 92
0.322024 -0.186001 -0.541 125 93 94
0.334521 -0.18325 -0.533 125 93 96
0.342087 -0.181875 -0.529 165 140 143
0.346469 -0.181531 -0.528 189 174 181
0.355517 -0.182563 -0.531 110 90 92
0.437987 -0.211099 -0.614 52 45 53
0.406811 -0.181531 -0.528 151 96 89
0.41262 -0.181875 -0.529 135 82 76
0.428726 -0.183594 -0.534 109 66 59
-0.16198 -0.22022 -0.637 183 183 173
0.0908019 -0.170783 -0.494 188 136 123
0.0909952 -0.167671 -0.485 184 135 121
0.0936429 -0.164214 -0.475 188 139 125
0.0950505 -0.163523 -0.473 192 140 129
0.103408 -0.161103 -0.466 186 134 123
0.106499 -0.160411 -0.464 184 132 119
0.150109 -0.166634 -0.482 112 76 78
0.298658 -0.194637 -0.563 118 86 87
0.305491 -0.191526 -0.554 120 86 87
0.307047 -0.19118 -0.553 123 89 90
0.31668 -0.18876 -0.546 123 88 92
0.321587 -0.187377 -0.542 124 92 95
0.351155 -0.182883 -0.529 126 94 97
0.356187 -0.18392 -0.532 97 77 79
0.407546 -0.202934 -0.587 43 35 46
0.423693 -0.20812 -0.602 45 37 48
0.4387 -0.212614 -0.615 52 47 54
0.464803 -0.218837 -0.633 55 52 61
0.410605 -0.182883 -0.529 140 87 81
0.429743 -0.184611 -0.534 124 76 72
0.461886 -0.189451 -0.548 125 80 77
-0.171009 -0.222129 -0.639 180 180 172
-0.151433 -0.225605 -0.649 189 187 175
0.0950505 -0.164424 -0.473 191 139 126
0.115586 -0.161643 -0.465 170 118 105
0.125246 -0.162686 -0.468 164 110 100
0.137105 -0.164076 -0.472 137 95 83
0.15042 -0.1679 -0.483 111 77 78
0.167852 -0.175548 -0.505 110 81 83
0.314134 -0.190148 -0.547 122 90 91
0.320993 -0.188062 -0.541 124 92 93
0.33108 -0.185629 -0.534 126 94 95
0.334907 -0.184933 -0.532 127 96 101
0.33592 -0.184933 -0.532 128 97 102
0.343451 -0.183543 -0.528 180 164 174
0.345463 -0.183543 -0.528 172 155 163
0.4179 -0.207529 -0.597 45 37 48
0.412814 -0.192929 -0.555 118 102 105
0.41239 -0.184238 -0.53 136 83 77
0.47242 -0.192233 -0.553 140 96 93
-0.325 -0.22719 -0.65 250 251 243
-0.314395 -0.224045 -0.641 249 250 245
-0.30829 -0.224045 -0.641 169 169 167
-0.172226 -0.223346 -0.639 180 180 172
-0.157137 -0.224394 -0.642 185 185 175
0.0936429 -0.166024 -0.475 189 141 127
0.0993943 -0.163577 -0.468 190 138 124
0.11357 -0.162179 -0.464 172 120 107
0.129087 -0.163927 -0.469 156 106 95
0.138004 -0.164975 -0.472 133 95 86
0.144009 -0.166723 -0.477 119 81 78
0.155083 -0.170917 -0.489 101 70 68
0.170151 -0.177908 -0.509 111 85 88
0.302383 -0.195034 -0.558 120 84 86
0.303929 -0.193986 -0.555 120 86 87
0.319077 -0.189791 -0.543 122 90 91
0.320554 -0.189442 -0.542 122 90 91
0.328236 -0.187345 -0.536 125 93 94
0.338323 -0.185597 -0.531 127 96 101
0.338695 -0.185248 -0.53 127 96 101
0.345463 -0.184549 -0.528 172 153 159
0.357526 -0.186646 -0.534 69 52 60
0.451786 -0.218452 -0.625 53 47 59
0.404269 -0.188044 -0.538 183 136 128
0.431984 -0.186296 -0.533 151 102 97
0.432187 -0.185947 -0.532 153 102 99
0.4332 -0.185947 -0.532 152 101 98
0.453534 -0.189791 -0.543 134 85 81
0.480081 -0.194685 -0.557 141 97 94
-0.315616 -0.225266 -0.641 250 251 245
-0.309029 -0.224914 -0.64 148 149 144
-0.166048 -0.222806 -0.634 184 181 172
0.0957486 -0.165874 -0.472 191 139 125
0.0964429 -0.165523 -0.471 191 139 125
0.111802 -0.163063 -0.464 174 122 111
0.122571 -0.164469 -0.468 163 111 100
0.129087 -0.16482 -0.469 155 107 95
0.12998 -0.16482 -0.469 154 107 97
0.131152 -0.165171 -0.47 150 103 93
0.138296 -0.166226 -0.473 131 94 85
0.153836 -0.171497 -0.488 100 69 67
0.163333 -0.175714 -0.5 117 83 84
0.305993 -0.19434 -0.553 121 87 88
0.312621 -0.192583 -0.548 122 90 93
0.315176 -0.192231 -0.547 121 89 92
0.319522 -0.190474 -0.542 120 90 90
0.330681 -0.188014 -0.535 125 93 94
0.33108 -0.187663 -0.534 125 93 94
0.334521 -0.187311 -0.533 126 96 98
0.361229 -0.189069 -0.538 44 29 36
0.456814 -0.220346 -0.627 51 48 59
0.404827 -0.18696 -0.532 160 106 94
0.408352 -0.186257 -0.53 148 93 88
0.426691 -0.187663 -0.534 116 68 64
0.43788 -0.187663 -0.534 146 95 92
-0.315124 -0.226133 -0.64 219 222 215
-0.15836 -0.22684 -0.642 186 186 176
-0.0511438 -0.228607 -0.647 69 68 74
0.0948495 -0.166773 -0.472 193 142 125
0.0993943 -0.16536 -0.468 192 141 124
0.132943 -0.166067 -0.47 143 99 90
0.139491 -0.16748 -0.474 124 90 81
0.156034 -0.17384 -0.492 102 70 71
0.1656 -0.17808 -0.504 120 89 94
0.319963 -0.191153 -0.541 122 92 92
0.323312 -0.190093 -0.538 123 93 93
0.340071 -0.186913 -0.529 183 160 168
0.343094 -0.186913 -0.529 138 123 128
0.439413 -0.217653 -0.616 54 48 60
0.420027 -0.187973 -0.532 123 75 71
0.43503 -0.188327 -0.533 147 93 91
0.455406 -0.192213 -0.544 136 86 85
-0.323227 -0.228773 -0.644 254 255 250
-0.151667 -0.230905 -0.65 189 187 175
-0.0550952 -0.230905 -0.65 66 65 71
0.0987133 -0.166607 -0.469 193 142 125
0.105615 -0.16483 -0.464 180 129 112
0.112929 -0.165186 -0.465 171 119 108
0.1147 -0.165186 -0.465 168 116 105
0.125246 -0.166251 -0.468 159 109 98
0.303963 -0.197868 -0.557 121 87 88
0.313092 -0.194315 -0.547 120 88 91
0.318932 -0.192184 -0.541 123 91 94
0.321429 -0.191829 -0.54 122 90 93
0.375814 -0.197157 -0.555 39 31 42
0.388546 -0.20213 -0.569 42 34 45
0.411711 -0.210656 -0.593 46 40 52
0.416763 -0.212077 -0.597 44 41 52
0.45034 -0.221313 -0.623 50 47 58
0.4539 -0.221313 -0.623 49 47 58
0.40848 -0.196091 -0.552 146 115 120
0.403517 -0.190763 -0.537 181 131 124
0.405077 -0.188631 -0.531 161 104 93
0.444431 -0.190763 -0.537 131 83 81
0.46293 -0.19467 -0.548 126 78 76
0.463973 -0.19467 -0.548 126 78 76
-0.307329 -0.228214 -0.639 144 144 142
-0.286178 -0.231786 -0.649 248 249 244
-0.151667 -0.232143 -0.65 189 187 174
0.0993943 -0.167143 -0.468 193 141 128
0.104731 -0.165714 -0.464 180 128 117
0.106499 -0.165714 -0.464 178 129 115
0.133226 -0.168214 -0.471 140 96 87
0.1434 -0.170714 -0.478 114 82 83
0.151977 -0.174286 -0.488 103 67 67
0.161106 -0.178214 -0.499 125 86 89
0.304562 -0.202143 -0.566 110 74 84
0.305993 -0.1975 -0.553 119 87 90
0.319963 -0.193214 -0.541 122 90 93
0.323312 -0.192143 -0.538 125 93 96
0.324757 -0.191786 -0.537 125 93 96
0.326194 -0.191429 -0.536 119 93 92
0.328643 -0.191071 -0.535 124 93 91
0.333506 -0.190357 -0.533 122 90 93
0.33592 -0.19 -0.532 119 89 91
0.341079 -0.188929 -0.529 211 191 200
0.36966 -0.196071 -0.549 31 28 39
0.44895 -0.218929 -0.613 59 53 65
0.403297 -0.190714 -0.534 171 124 116
0.410134 -0.189643 -0.531 143 92 89
-0.311709 -0.229072 -0.638 154 156 153
-0.310493 -0.229072 -0.638 152 154 151
-0.162234 -0.229072 -0.638 184 184 176
0.0924133 -0.171625 -0.478 191 139 125
0.104731 -0.166598 -0.464 181 129 116
0.126407 -0.168393 -0.469 159 107 94
0.130257 -0.168752 -0.47 149 101 91
0.153847 -0.176292 -0.491 105 71 72
0.163355 -0.180601 -0.503 134 81 87
0.319963 -0.194245 -0.541 123 91 94
0.404619 -0.210402 -0.586 43 39 53
0.443911 -0.22225 -0.619 48 46 60
0.404827 -0.191013 -0.532 164 106 95
0.413169 -0.190654 -0.531 138 87 84
0.446284 -0.193168 -0.538 136 88 86
0.44814 -0.193527 -0.539 140 90 89
0.450833 -0.194245 -0.541 140 90 89
0.454569 -0.194963 -0.543 139 90 86
-0.1651 -0.229205 -0.635 186 183 174
-0.155655 -0.233175 -0.646 188 186 174
0.116722 -0.168204 -0.466 167 114 106
0.131152 -0.169648 -0.47 149 100 93
0.1679 -0.184447 -0.511 155 88 97
0.308524 -0.198524 -0.55 121 86 90
0.31564 -0.19708 -0.546 120 88 91
0.317138 -0.196719 -0.545 121 89 92
0.317592 -0.196358 -0.544 121 89 92
0.322887 -0.194553 -0.539 124 92 95
0.326194 -0.19347 -0.536 122 92 94
0.331475 -0.192388 -0.533 123 91 96
0.337686 -0.191305 -0.53 182 163 165
0.348437 -0.191666 -0.531 123 92 98
0.376783 -0.201411 -0.558 33 31 42
0.412145 -0.213684 -0.592 47 45 59
0.440738 -0.19311 -0.535 137 87 86
0.442583 -0.19347 -0.536 138 88 87
0.444431 -0.193831 -0.537 139 89 88
0.4602 -0.19708 -0.546 123 79 76
-0.319211 -0.230777 -0.636 212 215 208
-0.316789 -0.230777 -0.636 152 154 149
-0.312433 -0.23114 -0.637 146 148 143
-0.308793 -0.23114 -0.637 145 147 142
-0.176703 -0.232954 -0.642 180 180 170
0.0906286 -0.177074 -0.488 186 138 126
0.0909952 -0.175986 -0.485 187 139 129
0.0993943 -0.169817 -0.468 189 137 123
0.100745 -0.169091 -0.466 189 137 123
0.113814 -0.168729 -0.465 167 115 104
0.120789 -0.169817 -0.468 160 110 99
0.1437 -0.173809 -0.479 115 76 77
0.156358 -0.179977 -0.496 120 81 84
0.319522 -0.196669 -0.542 121 89 92
0.320554 -0.196669 -0.542 121 89 92
0.324337 -0.195217 -0.538 123 91 94
0.327624 -0.194129 -0.535 124 92 95
0.330063 -0.193766 -0.534 125 93 96
0.366899 -0.198846 -0.548 36 32 46
0.40006 -0.21082 -0.581 46 45 59
0.420174 -0.216626 -0.597 42 41 57
0.426694 -0.218803 -0.603 43 42 56
0.44699 -0.224971 -0.62 44 48 59
0.404572 -0.193403 -0.533 165 113 102
0.4071 -0.192677 -0.531 153 101 90
0.413169 -0.192677 -0.531 140 91 84
0.42104 -0.19304 -0.532 123 78 75
0.444431 -0.194854 -0.537 138 88 87
0.465017 -0.198846 -0.548 130 86 83
0.471761 -0.199934 -0.551 145 95 94
-0.157871 -0.235271 -0.645 186 186 174
-0.0507486 -0.234177 -0.642 71 69 82
0.103848 -0.16925 -0.464 182 130 116
0.109797 -0.168885 -0.463 172 120 109
0.122571 -0.170709 -0.468 157 108 101
0.138881 -0.173262 -0.475 119 83 87
0.160481 -0.183475 -0.503 117 89 101
0.307146 -0.203172 -0.557 118 86 89
0.308035 -0.200984 -0.551 119 89 91
0.3146 -0.19916 -0.546 119 89 91
0.316556 -0.19843 -0.544 120 88 91
0.320993 -0.197336 -0.541 123 91 94
0.362149 -0.19843 -0.544 33 30 41
0.405043 -0.213386 -0.585 87 89 102
0.447449 -0.225788 -0.619 48 50 62
0.415191 -0.193689 -0.531 136 89 83
0.44814 -0.196607 -0.539 145 95 94
-0.166048 -0.232467 -0.634 186 183 174
-0.1651 -0.232833 -0.635 185 182 173
-0.164407 -0.233567 -0.637 185 182 173
-0.162743 -0.234667 -0.64 184 184 172
-0.0542476 -0.234667 -0.64 69 67 80
-0.0473733 -0.236867 -0.646 73 70 81
0.0985029 -0.1716 -0.468 193 141 127
0.100071 -0.171233 -0.467 193 141 127
0.105615 -0.170133 -0.464 181 129 115
0.113814 -0.1705 -0.465 172 120 109
0.116722 -0.170867 -0.466 166 114 103
0.129362 -0.172333 -0.47 148 98 89
0.315062 -0.199833 -0.545 121 89 92
0.318043 -0.1991 -0.543 121 89 92
0.326605 -0.196167 -0.535 127 91 95
0.333266 -0.1947 -0.531 126 95 100
0.348734 -0.195433 -0.533 101 76 82
0.366523 -0.2013 -0.549 33 29 43
0.435847 -0.224033 -0.611 48 46 59
0.410371 -0.194333 -0.53 140 91 84
0.426317 -0.1947 -0.531 145 97 95
0.451864 -0.198367 -0.541 144 96 94
0.46124 -0.2002 -0.546 134 90 87
0.481805 -0.204967 -0.559 136 86 87
-0.319919 -0.234043 -0.635 201 204 197
-0.283625 -0.238097 -0.646 253 252 248
-0.161776 -0.236254 -0.641 187 184 175
0.0908143 -0.180231 -0.489 187 138 121
0.101414 -0.171386 -0.465 189 137 123
0.136783 -0.174703 -0.474 122 88 87
0.316556 -0.200503 -0.544 123 91 94
0.323312 -0.198291 -0.538 124 92 95
0.325173 -0.197554 -0.536 122 90 93
0.337686 -0.195343 -0.53 178 163 166
0.378413 -0.207137 -0.562 37 39 52
0.385294 -0.209717 -0.569 56 60 72
0.393326 -0.212297 -0.576 114 118 130
0.446003 -0.227409 -0.617 51 51 61
0.40137 -0.199397 -0.541 181 136 130
0.424294 -0.195711 -0.531 139 94 89
0.42834 -0.195711 -0.531 143 95 93
0.440738 -0.197186 -0.535 139 91 91
0.447309 -0.198291 -0.538 148 97 96
-0.335109 -0.240069 -0.648 250 253 244
-0.318208 -0.234882 -0.634 153 156 149
-0.313871 -0.235252 -0.635 139 141 136
-0.176428 -0.237475 -0.641 180 180 170
-0.16631 -0.235252 -0.635 186 184 172
-0.161056 -0.238216 -0.643 189 186 177
-0.1591 -0.238957 -0.645 189 187 175
0.119641 -0.173012 -0.467 163 110 104
0.12168 -0.173383 -0.468 159 106 100
0.131431 -0.174494 -0.471 142 95 89
0.1446 -0.17857 -0.482 106 76 76
0.149189 -0.180792 -0.488 102 77 80
0.161757 -0.187831 -0.507 172 175 208
0.31213 -0.21043 -0.568 112 83 88
0.309153 -0.204873 -0.553 117 88 92
0.35706 -0.200428 -0.541 37 31 35
0.449167 -0.199687 -0.539 145 94 93
0.456637 -0.201169 -0.543 133 87 87
-0.337381 -0.242048 -0.65 250 253 244
-0.317706 -0.235717 -0.633 149 152 145
-0.317 -0.23609 -0.634 144 146 141
-0.315792 -0.23609 -0.634 140 142 137
-0.180544 -0.24093 -0.647 182 182 172
-0.16008 -0.239813 -0.644 188 188 176
-0.0529457 -0.237951 -0.639 68 68 80
-0.0518095 -0.238324 -0.64 69 69 81
0.111802 -0.172785 -0.464 173 116 109
0.120789 -0.174274 -0.468 164 106 102
0.309571 -0.20481 -0.55 119 89 91
0.317009 -0.202203 -0.543 122 90 93
0.318043 -0.202203 -0.543 122 90 93
0.331475 -0.198479 -0.533 125 92 99
0.40108 -0.20183 -0.542 179 134 129
0.403557 -0.198479 -0.533 167 117 108
0.410371 -0.197362 -0.53 138 89 84
0.416429 -0.197362 -0.53 127 80 74
0.445454 -0.199969 -0.537 136 90 90
0.485461 -0.209278 -0.562 139 91 89
-0.325269 -0.238046 -0.636 250 253 244
-0.323038 -0.237297 -0.634 249 252 243
-0.279566 -0.242537 -0.648 251 251 249
-0.168729 -0.237671 -0.635 184 184 172
-0.1591 -0.241414 -0.645 188 188 176
-0.156137 -0.242537 -0.648 189 187 175
-0.155142 -0.242911 -0.649 189 187 175
0.0934457 -0.177411 -0.474 190 144 129
0.0960333 -0.17554 -0.469 193 144 127
0.0980819 -0.174417 -0.466 192 141 124
0.118751 -0.174791 -0.467 165 110 103
0.119641 -0.174791 -0.467 163 108 101
0.138267 -0.17816 -0.476 114 84 86
0.161438 -0.189389 -0.506 147 154 196
0.315062 -0.203986 -0.545 121 91 91
0.324757 -0.200991 -0.537 123 92 90
0.334277 -0.198746 -0.531 176 157 159
0.3363 -0.198746 -0.531 185 170 173
0.339334 -0.198746 -0.531 170 154 157
0.344673 -0.199494 -0.533 129 101 100
0.350329 -0.200991 -0.537 72 57 64
0.352006 -0.201366 -0.538 50 35 42
0.425279 -0.224946 -0.601 46 49 58
0.444828 -0.230934 -0.617 58 53 73
0.404591 -0.206231 -0.551 137 119 119
0.428543 -0.198371 -0.53 147 97 96
0.431374 -0.198746 -0.531 141 93 91
0.447309 -0.201366 -0.538 142 94 92
0.450193 -0.20174 -0.539 141 93 91
0.46521 -0.204734 -0.547 139 91 91
0.4773 -0.207729 -0.555 141 95 95
0.486325 -0.210723 -0.563 140 96 93
-0.155381 -0.244524 -0.65 190 188 176
-0.0539933 -0.239633 -0.637 68 68 80
0.0908143 -0.183957 -0.489 188 139 124
0.0965133 -0.175681 -0.467 192 143 126
0.0987571 -0.174929 -0.465 193 144 127
0.0994286 -0.174552 -0.464 192 141 124
0.112043 -0.174929 -0.465 170 115 108
0.310697 -0.207657 -0.552 117 86 91
0.310619 -0.206905 -0.55 118 87 92
0.3146 -0.2054 -0.546 123 89 87
0.319963 -0.203519 -0.541 123 93 93
0.324757 -0.202014 -0.537 124 92 93
0.378686 -0.212171 -0.564 47 41 51
0.39758 -0.217814 -0.579 51 53 65
0.421311 -0.224586 -0.597 56 56 64
0.406471 -0.208786 -0.555 112 94 94
0.401745 -0.201638 -0.536 174 125 120
0.403297 -0.200886 -0.534 165 115 108
0.405077 -0.199757 -0.531 157 104 98
0.482667 -0.210667 -0.56 141 93 93
-0.324757 -0.24009 -0.635 250 253 244
-0.32183 -0.239712 -0.634 248 251 244
-0.317706 -0.239334 -0.633 142 144 139
-0.315294 -0.239334 -0.633 132 137 130
-0.0518095 -0.241981 -0.64 69 69 81
-0.0507486 -0.242737 -0.642 70 70 82
0.0939505 -0.178461 -0.472 193 146 126
0.118751 -0.17657 -0.467 164 109 102
0.122571 -0.176949 -0.468 160 105 102
0.150411 -0.186023 -0.492 131 110 127
0.313665 -0.207196 -0.548 118 89 93
0.319963 -0.20455 -0.541 123 93 95
0.330063 -0.201903 -0.534 125 93 96
0.395792 -0.218539 -0.578 49 51 63
0.413 -0.223076 -0.59 84 86 99
0.421311 -0.225723 -0.597 56 55 63
0.435133 -0.230638 -0.61 56 54 68
0.440326 -0.23215 -0.614 60 54 68
0.436 -0.226857 -0.6 77 73 88
0.401745 -0.202659 -0.536 172 123 118
0.403557 -0.201525 -0.533 163 110 104
0.4071 -0.200769 -0.531 151 98 92
0.461433 -0.206062 -0.545 135 90 87
0.469192 -0.207196 -0.548 145 97 97
-0.320623 -0.24092 -0.634 237 240 233
-0.174387 -0.24244 -0.638 183 183 173
-0.171417 -0.24168 -0.636 185 185 173
-0.0584771 -0.24054 -0.633 68 68 80
0.0920267 -0.18088 -0.476 194 145 130
0.118751 -0.17746 -0.467 163 108 101
0.12462 -0.17822 -0.469 152 103 96
0.14733 -0.18544 -0.488 108 79 84
0.160141 -0.19304 -0.508 120 133 186
0.314185 -0.21356 -0.562 110 80 80
0.312949 -0.21128 -0.556 121 85 87
0.315062 -0.2071 -0.545 121 89 92
0.329046 -0.20292 -0.534 120 88 91
0.335289 -0.20178 -0.531 167 152 155
0.340987 -0.20216 -0.532 127 97 97
0.425514 -0.2014 -0.53 147 96 92
0.461433 -0.2071 -0.545 138 93 90
0.46332 -0.20748 -0.546 141 96 93
0.47558 -0.21014 -0.553 144 98 98
-0.276714 -0.248238 -0.65 252 252 250
-0.0618 -0.2406 -0.63 67 65 78
-0.0518905 -0.244801 -0.641 69 69 81
-0.0451905 -0.248238 -0.65 71 69 80
0.0963067 -0.177968 -0.466 194 147 129
0.0969857 -0.177586 -0.465 193 146 128
0.110034 -0.177204 -0.464 171 116 109
0.12462 -0.179113 -0.469 154 105 98
0.135262 -0.181405 -0.475 120 86 85
0.315255 -0.21463 -0.562 119 84 88
0.3146 -0.20852 -0.546 121 91 93
0.318932 -0.20661 -0.541 121 89 92
0.326605 -0.204319 -0.535 122 93 95
0.33249 -0.203555 -0.533 178 153 156
0.34726 -0.205083 -0.537 92 70 72
0.38868 -0.219213 -0.574 67 70 79
0.422017 -0.228379 -0.598 50 47 58
0.437726 -0.233726 -0.612 64 63 79
0.441223 -0.233726 -0.612 64 60 74
0.402014 -0.204319 -0.535 174 125 118
0.411146 -0.202791 -0.531 147 99 89
0.431374 -0.202791 -0.531 142 94 90
0.470236 -0.209284 -0.548 142 98 95
-0.279566 -0.248709 -0.648 251 252 247
-0.162533 -0.247173 -0.644 191 189 177
0.0956238 -0.179239 -0.467 195 148 132
0.10142 -0.176936 -0.461 181 132 117
0.10252 -0.17732 -0.462 180 128 115
0.110034 -0.178088 -0.464 170 116 106
0.136453 -0.182693 -0.476 115 83 84
0.140343 -0.184229 -0.48 108 79 84
0.156649 -0.193056 -0.503 112 122 175
0.166253 -0.198813 -0.518 134 154 205
0.317457 -0.208025 -0.542 121 91 93
0.331475 -0.20457 -0.533 118 96 98
0.344571 -0.205722 -0.536 124 94 96
0.370005 -0.21455 -0.559 37 36 42
0.425987 -0.231053 -0.602 50 46 60
0.401471 -0.206106 -0.537 175 128 120
0.416429 -0.203419 -0.53 141 92 85
0.435227 -0.204187 -0.532 133 85 83
0.438897 -0.204954 -0.534 129 84 81
0.441757 -0.205338 -0.535 129 84 81
0.453086 -0.207257 -0.54 137 92 89
0.456829 -0.208025 -0.542 135 91 88
0.462471 -0.209176 -0.545 137 93 90
-0.320623 -0.244543 -0.634 250 253 246
-0.315294 -0.244157 -0.633 148 153 146
-0.2852 -0.2484 -0.644 247 247 245
-0.279566 -0.249943 -0.648 251 252 247
-0.276714 -0.250714 -0.65 252 253 248
-0.164665 -0.246086 -0.638 189 187 175
-0.0789971 -0.248014 -0.643 72 69 76
-0.0743857 -0.244929 -0.635 66 66 78
-0.0462857 -0.249943 -0.648 71 70 78
0.105388 -0.178586 -0.463 172 120 107
0.12168 -0.180514 -0.468 162 107 100
0.12462 -0.1809 -0.469 152 105 97
0.144874 -0.187457 -0.486 104 78 81
0.153502 -0.192471 -0.499 107 110 155
0.395374 -0.223329 -0.579 84 87 96
0.423429 -0.231429 -0.6 50 44 58
0.435883 -0.232586 -0.603 66 63 72
0.40584 -0.2052 -0.532 153 101 90
0.40888 -0.2052 -0.532 150 100 91
0.419457 -0.204429 -0.53 126 75 71
0.422696 -0.204043 -0.529 141 92 87
0.434213 -0.2052 -0.532 138 90 86
0.448333 -0.207514 -0.538 139 94 91
-0.176703 -0.248851 -0.642 185 185 177
-0.163706 -0.247689 -0.639 190 188 176
-0.162533 -0.249627 -0.644 191 189 177
-0.0848095 -0.251952 -0.65 80 80 80
-0.0617019 -0.243812 -0.629 66 66 76
-0.0529457 -0.247689 -0.639 68 68 78
-0.0462143 -0.25079 -0.647 71 70 78
-0.045121 -0.251565 -0.649 72 71 79
0.0902571 -0.188383 -0.486 192 147 124
0.09112 -0.184507 -0.476 194 148 135
0.0923476 -0.183344 -0.473 198 149 135
0.130811 -0.182956 -0.472 131 94 88
0.322711 -0.208151 -0.537 122 90 93
0.37199 -0.217842 -0.562 55 56 58
0.404357 -0.215129 -0.555 125 99 102
0.434213 -0.206213 -0.532 136 87 83
0.446477 -0.208151 -0.537 134 86 84
-0.321129 -0.247348 -0.635 251 254 247
-0.0841571 -0.251243 -0.645 73 74 78
-0.0574524 -0.247348 -0.635 66 66 76
-0.0563314 -0.247737 -0.636 67 67 77
-0.0530286 -0.249295 -0.64 69 69 79
-0.0507486 -0.250074 -0.642 69 69 79
0.0945314 -0.181518 -0.466 193 151 129
0.150386 -0.192814 -0.495 157 153 180
0.156 -0.19632 -0.504 144 146 194
0.317138 -0.21229 -0.545 122 89 96
0.31849 -0.211122 -0.542 123 91 96
0.318932 -0.210732 -0.541 121 86 92
0.333506 -0.207616 -0.533 191 172 174
0.333893 -0.207227 -0.532 161 142 144
0.335536 -0.207616 -0.533 126 99 104
0.363783 -0.216575 -0.556 41 36 42
0.39674 -0.226313 -0.581 96 94 105
0.422286 -0.233714 -0.6 47 49 62
0.440057 -0.238389 -0.612 91 85 99
0.408387 -0.218912 -0.562 89 82 89
0.3996 -0.210343 -0.54 177 130 122
0.416429 -0.206448 -0.53 129 76 70
0.417438 -0.206448 -0.53 131 78 72
0.424711 -0.206058 -0.529 142 93 88
0.430363 -0.206837 -0.531 139 91 87
0.449358 -0.209564 -0.538 145 95 94
0.468336 -0.21307 -0.547 145 97 95
0.469378 -0.21307 -0.547 146 98 96
-0.32802 -0.250123 -0.639 252 253 248
-0.321129 -0.248557 -0.635 251 253 248
-0.28676 -0.251297 -0.642 135 137 132
-0.166833 -0.24934 -0.637 189 187 175
-0.161307 -0.25208 -0.644 194 192 180
-0.0867486 -0.252863 -0.646 70 71 75
-0.0629 -0.246209 -0.629 65 68 77
-0.0575429 -0.248949 -0.636 66 66 74
0.1034 -0.18084 -0.462 176 124 110
0.10428 -0.18084 -0.462 175 123 110
0.10915 -0.181623 -0.464 169 117 104
0.113814 -0.182014 -0.465 169 115 103
0.12053 -0.182797 -0.467 162 110 99
0.12462 -0.18358 -0.469 148 104 95
0.140928 -0.188669 -0.482 101 74 79
0.324152 -0.209806 -0.536 121 89 90
0.328029 -0.209023 -0.534 123 92 98
0.38121 -0.223506 -0.571 82 82 90
0.4017 -0.228986 -0.585 79 79 91
0.408505 -0.230943 -0.59 88 88 100
0.402171 -0.216069 -0.552 144 115 117
0.39988 -0.21372 -0.546 182 136 136
0.40888 -0.20824 -0.532 162 109 103
0.413169 -0.207849 -0.531 138 88 81
0.419673 -0.207066 -0.529 141 91 84
0.422696 -0.207066 -0.529 142 93 88
0.45974 -0.212546 -0.543 138 94 91
0.464548 -0.213329 -0.545 141 97 94
-0.331298 -0.252913 -0.643 252 253 248
-0.279566 -0.25488 -0.648 252 252 250
-0.16588 -0.250947 -0.638 191 189 177
-0.162281 -0.252913 -0.643 193 191 179
-0.0508276 -0.252913 -0.643 70 69 75
0.0900571 -0.1888 -0.48 193 150 133
0.0907371 -0.18644 -0.474 196 151 132
0.0950095 -0.182507 -0.464 192 149 130
0.0956867 -0.182113 -0.463 193 148 129
0.107151 -0.182113 -0.463 174 120 108
0.115834 -0.183293 -0.466 169 117 104
0.134357 -0.186833 -0.475 115 83 86
0.324567 -0.210433 -0.535 124 93 98
0.32843 -0.209647 -0.533 119 90 95
0.333506 -0.209647 -0.533 163 144 148
0.345086 -0.2124 -0.54 98 72 81
0.368123 -0.22066 -0.561 89 90 94
0.377708 -0.223807 -0.569 94 88 98
0.400301 -0.215547 -0.548 168 138 138
0.39988 -0.21476 -0.546 181 136 133
0.405588 -0.209647 -0.533 153 99 87
0.423704 -0.208073 -0.529 141 88 82
0.4332 -0.209253 -0.532 142 92 85
0.452247 -0.212007 -0.539 136 93 87
0.455986 -0.212793 -0.541 132 91 87
0.46748 -0.21476 -0.546 138 97 93
0.476633 -0.217513 -0.553 131 91 89
-0.305405 -0.250976 -0.635 184 185 179
-0.17712 -0.256114 -0.648 199 199 191
-0.175071 -0.254929 -0.645 191 191 183
-0.162743 -0.252952 -0.64 192 189 180
-0.161056 -0.254138 -0.643 195 192 183
-0.156619 -0.256905 -0.65 195 192 183
-0.0918124 -0.255719 -0.647 81 79 82
-0.0792933 -0.247419 -0.626 66 64 75
-0.07072 -0.246629 -0.624 66 65 71
0.0929552 -0.184576 -0.467 194 151 132
0.102298 -0.182205 -0.461 178 124 112
0.13199 -0.186948 -0.473 121 87 86
0.1675 -0.2075 -0.525 180 197 243
0.321146 -0.214614 -0.543 120 89 95
0.321429 -0.213429 -0.54 121 90 95
0.34342 -0.213033 -0.539 106 83 91
0.348678 -0.21501 -0.544 52 40 44
0.383637 -0.226471 -0.573 105 102 113
0.421845 -0.237538 -0.601 56 54 67
0.439156 -0.242676 -0.614 85 81 96
0.404572 -0.210662 -0.533 161 107 95
0.409649 -0.210662 -0.533 136 86 79
0.416203 -0.209871 -0.531 134 84 77
0.422696 -0.209081 -0.529 137 87 80
0.423704 -0.209081 -0.529 140 90 83
-0.336143 -0.258143 -0.65 252 253 248
-0.307824 -0.252186 -0.635 251 252 246
-0.287207 -0.255363 -0.643 165 167 164
-0.281233 -0.257746 -0.649 252 252 250
-0.0844657 -0.249803 -0.629 64 63 69
-0.0717933 -0.24742 -0.623 67 67 75
-0.0673695 -0.248611 -0.626 64 65 69
-0.0474467 -0.256951 -0.647 70 71 76
-0.0439524 -0.258143 -0.65 71 71 79
0.0900238 -0.188643 -0.475 194 151 134
0.09636 -0.18348 -0.462 188 141 125
0.110034 -0.184274 -0.464 174 120 108
0.113814 -0.184671 -0.465 172 120 109
0.13199 -0.187849 -0.473 119 88 85
0.138514 -0.190629 -0.48 104 79 83
0.143023 -0.193011 -0.486 109 89 91
0.157548 -0.202146 -0.509 176 184 221
0.321557 -0.218031 -0.549 121 92 97
0.325586 -0.212471 -0.535 123 94 99
0.326605 -0.212471 -0.535 136 107 112
0.37422 -0.22518 -0.567 100 95 102
0.384307 -0.22796 -0.574 110 102 115
0.407381 -0.234314 -0.59 105 99 111
0.418159 -0.237889 -0.599 61 58 69
0.405142 -0.222003 -0.559 112 90 92
0.4033 -0.220414 -0.555 135 113 115
0.399015 -0.215251 -0.542 176 133 126
0.41192 -0.21128 -0.532 143 93 84
0.422486 -0.210486 -0.53 139 89 80
0.430363 -0.210883 -0.531 149 99 92
0.439914 -0.212074 -0.534 124 79 73
0.4475 -0.213266 -0.537 130 87 80
0.46748 -0.21684 -0.546 137 96 92
0.480278 -0.220811 -0.556 134 89 84
-0.328849 -0.256588 -0.643 252 253 248
-0.31629 -0.253395 -0.635 252 253 248
-0.306614 -0.253395 -0.635 254 255 249
-0.304674 -0.253794 -0.636 253 254 248
-0.0982771 -0.258982 -0.649 147 146 142
-0.0774771 -0.247809 -0.621 65 65 77
-0.0631 -0.251799 -0.631 68 69 74
-0.0577238 -0.254592 -0.638 68 68 76
-0.0542476 -0.25539 -0.64 69 69 77
-0.0474467 -0.258184 -0.647 69 70 75
0.107151 -0.184759 -0.463 174 122 109
0.119385 -0.185956 -0.466 165 113 100
0.12053 -0.186355 -0.467 162 112 101
0.138514 -0.191543 -0.48 104 79 83
0.160074 -0.20511 -0.514 195 207 245
0.329046 -0.213091 -0.534 177 154 160
0.337425 -0.21389 -0.536 118 92 101
0.339077 -0.214289 -0.537 119 93 102
0.343029 -0.215486 -0.54 100 79 86
0.405569 -0.235039 -0.589 110 104 116
0.426509 -0.241823 -0.606 49 46 57
0.46748 -0.21788 -0.546 134 93 89
-0.09752 -0.258213 -0.644 74 73 79
-0.0785333 -0.24859 -0.62 69 69 77
-0.0664943 -0.252199 -0.629 66 67 72
-0.0654 -0.2526 -0.63 68 69 74
-0.0519714 -0.257411 -0.642 69 68 74
0.131089 -0.18965 -0.473 121 90 87
0.15408 -0.20208 -0.504 174 174 202
0.324953 -0.221727 -0.553 117 94 100
0.323486 -0.216514 -0.54 123 93 101
0.341367 -0.216113 -0.539 104 85 91
0.354857 -0.221326 -0.552 42 33 38
0.374456 -0.228142 -0.569 95 92 99
0.383881 -0.230548 -0.575 115 107 120
0.395206 -0.233354 -0.582 122 119 130
0.399471 -0.234557 -0.585 116 113 124
0.401955 -0.235359 -0.587 116 113 124
0.39988 -0.21892 -0.546 183 133 124
0.3996 -0.216514 -0.54 174 125 118
0.405331 -0.214109 -0.534 157 103 93
0.406603 -0.213708 -0.533 148 96 83
0.417214 -0.212906 -0.531 143 90 82
0.419457 -0.212505 -0.53 138 88 79
0.452247 -0.216113 -0.539 132 89 82
0.480278 -0.22293 -0.556 122 79 72
-0.307824 -0.255814 -0.635 253 254 248
-0.302727 -0.25662 -0.637 251 252 247
-0.290881 -0.259037 -0.643 254 255 250
-0.285737 -0.261051 -0.648 171 173 170
-0.153194 -0.260246 -0.646 197 194 185
-0.147952 -0.261857 -0.65 203 200 191
-0.0875 -0.251786 -0.625 71 71 79
-0.0577238 -0.257023 -0.638 69 69 77
0.0892657 -0.189746 -0.471 197 154 135
0.10252 -0.18612 -0.462 177 126 109
0.10627 -0.186523 -0.463 177 124 106
0.112929 -0.187329 -0.465 176 124 110
0.1147 -0.187329 -0.465 170 121 107
0.127571 -0.189343 -0.47 141 98 91
0.152512 -0.202234 -0.502 172 176 205
0.154386 -0.203443 -0.505 182 186 215
0.33108 -0.215126 -0.534 148 133 138
0.344934 -0.218751 -0.543 63 46 52
0.359132 -0.224391 -0.557 38 33 39
0.366869 -0.227211 -0.564 54 53 58
0.371634 -0.228823 -0.568 106 105 111
0.375114 -0.229629 -0.57 97 94 101
0.37861 -0.230434 -0.572 70 64 74
0.430486 -0.245743 -0.61 46 44 57
0.399015 -0.218349 -0.542 177 130 122
0.410664 -0.214723 -0.533 144 87 78
0.4332 -0.21432 -0.532 136 87 80
0.435227 -0.21432 -0.532 130 81 74
0.476633 -0.22278 -0.553 125 82 76
-0.286529 -0.261881 -0.647 249 251 248
-0.147725 -0.26269 -0.649 209 206 197
-0.100571 -0.259048 -0.64 75 74 79
-0.0882648 -0.251762 -0.622 71 71 81
-0.08694 -0.251357 -0.621 71 71 81
-0.0794571 -0.250143 -0.618 70 70 80
-0.0531114 -0.259452 -0.641 68 68 76
-0.04752 -0.262286 -0.648 70 71 76
0.0867324 -0.197119 -0.487 196 153 136
0.0987857 -0.186595 -0.461 182 133 118
0.112686 -0.18781 -0.464 177 125 111
0.136116 -0.193476 -0.478 111 81 81
0.324846 -0.22019 -0.544 116 93 103
0.33108 -0.216143 -0.534 151 126 132
0.336404 -0.216952 -0.536 118 98 109
0.384549 -0.233143 -0.576 104 101 110
0.40582 -0.239214 -0.591 87 85 98
0.408059 -0.229095 -0.566 101 80 85
0.400449 -0.217357 -0.537 160 110 101
0.427533 -0.214524 -0.53 155 102 94
0.434213 -0.215333 -0.532 132 83 76
0.457016 -0.218976 -0.541 128 81 75
0.476633 -0.223833 -0.553 123 78 72
-0.327703 -0.26352 -0.648 252 253 247
-0.305632 -0.259453 -0.638 250 251 246
-0.157373 -0.259453 -0.638 198 198 188
-0.113286 -0.264333 -0.65 240 240 230
-0.0806343 -0.25132 -0.618 71 71 81
-0.0784067 -0.251727 -0.619 70 70 80
-0.0688905 -0.255793 -0.629 72 73 78
-0.0611771 -0.25864 -0.636 67 67 75
0.0900933 -0.189507 -0.466 200 155 136
0.0923581 -0.188693 -0.464 197 151 135
0.09372 -0.18788 -0.462 192 145 129
0.131089 -0.192353 -0.473 123 89 87
0.329046 -0.21716 -0.534 190 167 173
0.374029 -0.2318 -0.57 92 87 94
0.391207 -0.236273 -0.581 86 84 95
0.40401 -0.239933 -0.59 74 72 85
-0.306111 -0.261077 -0.639 252 253 248
-0.304152 -0.261486 -0.64 251 252 247
-0.300965 -0.261894 -0.641 252 253 248
-0.299744 -0.261894 -0.641 252 253 248
-0.16001 -0.259034 -0.634 213 212 207
-0.155669 -0.259851 -0.636 201 201 193
-0.152751 -0.261077 -0.639 201 201 191
-0.149567 -0.261894 -0.641 199 197 185
-0.147042 -0.263937 -0.646 207 207 195
-0.145029 -0.264754 -0.648 222 216 202
-0.14278 -0.265163 -0.649 226 220 206
-0.119292 -0.265163 -0.649 241 238 229
-0.100359 -0.257809 -0.631 75 73 84
-0.0973343 -0.256174 -0.627 74 73 81
-0.081679 -0.252089 -0.617 72 72 82
-0.0742857 -0.254949 -0.624 69 69 77
-0.069 -0.2574 -0.63 72 73 78
-0.0646076 -0.259034 -0.634 69 69 77
-0.058939 -0.260669 -0.638 69 69 77
0.114453 -0.189577 -0.464 174 125 111
0.129912 -0.192846 -0.472 124 93 91
0.151556 -0.205103 -0.502 157 163 197
0.336009 -0.219403 -0.537 118 97 106
0.337659 -0.219811 -0.538 113 92 101
0.402203 -0.240649 -0.589 85 82 93
0.4256 -0.248411 -0.608 60 58 71
0.426758 -0.248411 -0.608 60 58 71
0.431897 -0.250046 -0.612 69 66 75
0.402014 -0.218586 -0.535 157 107 100
0.403033 -0.218586 -0.535 158 105 97
0.406603 -0.217769 -0.533 150 95 88
0.409893 -0.21736 -0.532 144 90 80
0.41192 -0.21736 -0.532 141 86 79
0.418226 -0.216951 -0.531 145 91 81
0.418448 -0.216543 -0.53 143 89 79
0.419457 -0.216543 -0.53 148 94 84
0.427533 -0.216543 -0.53 150 96 86
0.442776 -0.218586 -0.535 133 88 83
0.448523 -0.219403 -0.537 140 92 88
0.451408 -0.219811 -0.538 135 87 83
0.479414 -0.226757 -0.555 125 79 79
-0.30707 -0.263115 -0.641 252 253 248
-0.305103 -0.263526 -0.642 252 253 248
-0.297929 -0.264757 -0.645 254 255 250
-0.157346 -0.259831 -0.633 223 223 223
-0.136599 -0.266399 -0.649 226 223 206
-0.0965581 -0.255316 -0.622 71 70 76
-0.0828543 -0.253264 -0.617 72 72 82
-0.0744048 -0.256548 -0.625 70 70 78
-0.0566857 -0.262705 -0.64 70 70 78
-0.0464286 -0.26681 -0.65 70 70 78
0.0879933 -0.192513 -0.469 198 155 138
0.0905905 -0.190461 -0.464 195 154 136
0.09284 -0.18964 -0.462 194 149 130
0.0976952 -0.188819 -0.46 184 135 118
0.10142 -0.18923 -0.461 179 130 113
0.110918 -0.190461 -0.464 179 128 111
0.11357 -0.190461 -0.464 176 127 112
0.117357 -0.190871 -0.465 168 120 106
0.132548 -0.194976 -0.475 115 84 81
0.144789 -0.201954 -0.492 192 186 196
0.330681 -0.219605 -0.535 119 96 106
0.363001 -0.231098 -0.563 34 29 33
0.374251 -0.234792 -0.572 55 52 59
0.377747 -0.235613 -0.574 65 62 71
0.383018 -0.236845 -0.577 80 79 87
0.405379 -0.243002 -0.592 54 51 62
0.410389 -0.244644 -0.596 52 49 60
0.39931 -0.222068 -0.541 170 123 117
0.400449 -0.220426 -0.537 162 113 106
0.415191 -0.217963 -0.531 150 96 86
0.418448 -0.217552 -0.53 144 90 80
0.471094 -0.225351 -0.549 128 83 80
-0.300085 -0.26681 -0.647 253 253 251
-0.150317 -0.263511 -0.639 196 196 186
-0.144909 -0.264749 -0.642 219 215 203
-0.113447 -0.262687 -0.637 112 112 114
-0.08638 -0.254439 -0.617 71 73 85
-0.0601543 -0.263099 -0.638 71 71 79
0.0899 -0.191757 -0.465 196 155 137
0.10604 -0.19052 -0.462 181 130 111
0.108915 -0.190932 -0.463 181 130 113
0.143559 -0.202479 -0.491 183 181 192
0.145083 -0.203304 -0.493 197 195 206
0.370771 -0.235057 -0.57 49 44 50
0.374906 -0.236294 -0.573 69 67 72
0.401762 -0.243305 -0.59 70 67 78
0.40017 -0.221861 -0.538 162 113 106
0.419457 -0.218562 -0.53 158 101 92
0.445646 -0.221036 -0.536 136 88 84
-0.313641 -0.268043 -0.647 252 253 247
-0.300238 -0.269286 -0.65 253 254 249
-0.1518 -0.261 -0.63 253 252 250
-0.151556 -0.262657 -0.634 222 221 216
-0.135336 -0.266386 -0.643 238 234 225
-0.132887 -0.266386 -0.643 243 238 232
-0.131662 -0.266386 -0.643 246 241 235
-0.0831229 -0.256443 -0.619 73 73 81
-0.0702 -0.261 -0.63 70 69 77
-0.0602486 -0.264729 -0.639 71 71 79
0.08532 -0.196371 -0.474 198 155 136
0.0897067 -0.192229 -0.464 198 155 136
0.0996638 -0.190986 -0.461 183 135 115
0.12116 -0.193057 -0.466 153 107 92
0.143851 -0.203829 -0.492 191 191 203
0.327411 -0.222886 -0.538 115 95 104
0.34309 -0.225786 -0.545 52 39 48
0.348967 -0.228271 -0.551 41 31 40
0.373162 -0.236971 -0.572 71 69 74
0.392114 -0.241943 -0.584 65 64 72
0.400449 -0.222471 -0.537 159 109 102
0.406603 -0.220814 -0.533 155 98 89
0.409893 -0.2204 -0.532 148 91 84
0.427533 -0.219571 -0.53 150 95 88
0.450383 -0.222886 -0.538 133 85 81
0.457016 -0.224129 -0.541 125 80 75
0.476633 -0.2291 -0.553 120 76 73
-0.1477 -0.263449 -0.633 246 245 240
-0.133486 -0.266362 -0.64 242 241 239
-0.113872 -0.260535 -0.626 74 73 78
-0.0919571 -0.255957 -0.615 74 74 84
-0.0907857 -0.255957 -0.615 74 74 84
-0.0831229 -0.257622 -0.619 73 71 82
-0.0591238 -0.266362 -0.64 72 72 80
0.084219 -0.198939 -0.478 197 156 138
0.08514 -0.196858 -0.473 195 152 133
0.110679 -0.192696 -0.463 180 131 114
0.124089 -0.194361 -0.467 140 100 90
0.126407 -0.195193 -0.469 130 95 91
0.144144 -0.205182 -0.493 195 197 212
0.330486 -0.22391 -0.538 113 96 106
0.336857 -0.224743 -0.54 101 80 89
0.3496 -0.229737 -0.552 42 32 41
0.358506 -0.233483 -0.561 35 28 35
0.41889 -0.251795 -0.605 44 40 54
0.404572 -0.22183 -0.533 154 99 92
0.424711 -0.220165 -0.529 151 94 87
0.432386 -0.220997 -0.531 132 81 77
0.446667 -0.223078 -0.536 129 84 81
0.452247 -0.224327 -0.539 135 87 83
0.461623 -0.226408 -0.544 130 85 82
0.469192 -0.228072 -0.548 124 79 76
-0.164269 -0.27009 -0.646 117 117 125
-0.155647 -0.263818 -0.631 139 139 147
-0.127404 -0.265072 -0.634 151 151 151
-0.118642 -0.261728 -0.626 69 68 74
-0.0822086 -0.259637 -0.621 73 71 82
-0.0757162 -0.261728 -0.626 73 71 82
-0.0670229 -0.265072 -0.634 72 72 80
0.0888229 -0.193996 -0.464 197 154 137
0.13932 -0.203194 -0.486 169 153 163
0.33645 -0.22619 -0.541 103 82 91
0.350867 -0.231625 -0.554 40 30 41
0.387446 -0.243331 -0.582 75 74 82
0.391002 -0.244168 -0.584 90 91 96
0.409488 -0.250021 -0.598 66 60 70
0.42514 -0.25462 -0.609 73 69 83
0.420326 -0.248349 -0.594 53 45 58
0.400048 -0.226608 -0.542 162 113 108
0.3996 -0.225771 -0.54 161 110 106
0.40228 -0.223263 -0.534 157 104 98
0.422696 -0.221172 -0.529 151 94 85
0.433397 -0.222009 -0.531 130 81 76
0.440931 -0.223263 -0.534 128 80 76
0.466252 -0.228698 -0.547 121 76 73
0.469003 -0.229534 -0.549 123 78 75
-0.161307 -0.27048 -0.644 120 119 127
-0.117505 -0.2604 -0.62 70 68 79
-0.11341 -0.25914 -0.617 69 67 78
-0.108181 -0.25788 -0.614 71 69 82
-0.0909333 -0.25872 -0.616 74 74 84
-0.0845743 -0.26082 -0.621 74 72 83
-0.0769086 -0.26292 -0.626 74 72 83
0.092639 -0.19362 -0.461 196 151 132
0.345609 -0.23058 -0.549 42 28 41
0.387446 -0.24444 -0.582 75 74 82
0.38989 -0.24528 -0.584 89 89 97
0.406529 -0.25074 -0.597 41 30 44
0.418489 -0.24906 -0.593 44 36 51
0.412233 -0.24402 -0.581 70 54 64
0.39988 -0.22932 -0.546 165 115 108
0.442776 -0.2247 -0.535 127 82 79
0.45974 -0.22806 -0.543 125 79 79
-0.152514 -0.264956 -0.628 105 106 111
-0.142034 -0.263269 -0.624 118 119 124
-0.126952 -0.261581 -0.62 75 73 84
-0.11501 -0.258628 -0.613 67 65 76
-0.106314 -0.257362 -0.61 71 69 80
-0.0770314 -0.264534 -0.627 74 72 83
-0.0758371 -0.264534 -0.627 73 71 82
-0.0557267 -0.271285 -0.643 111 111 119
-0.0499114 -0.272972 -0.647 71 71 81
0.08442 -0.197873 -0.469 198 155 138
0.0950667 -0.194076 -0.46 192 145 127
0.100542 -0.194498 -0.461 187 136 117
0.10142 -0.194498 -0.461 184 133 114
0.124354 -0.197451 -0.468 133 94 87
0.132197 -0.201249 -0.477 101 79 81
0.148688 -0.211796 -0.502 160 174 213
0.355098 -0.235845 -0.559 37 29 40
0.376214 -0.242595 -0.575 65 63 66
0.416586 -0.255252 -0.605 48 40 55
0.422126 -0.256518 -0.608 82 76 88
0.422588 -0.256096 -0.607 74 71 80
0.410419 -0.244705 -0.58 58 47 61
0.404314 -0.225297 -0.534 163 110 102
0.405588 -0.224875 -0.533 163 108 101
0.422486 -0.22361 -0.53 146 93 85
0.424505 -0.22361 -0.53 142 91 87
0.43706 -0.224875 -0.533 129 81 79
0.452247 -0.227407 -0.539 133 88 85
-0.16281 -0.275476 -0.65 125 124 130
-0.155669 -0.269543 -0.636 116 115 123
-0.1364 -0.262762 -0.62 91 90 95
-0.11929 -0.258948 -0.611 64 62 73
-0.1015 -0.2581 -0.609 74 73 81
-0.0910809 -0.26149 -0.617 75 75 83
-0.0791667 -0.264881 -0.625 74 72 83
-0.0703114 -0.267424 -0.631 73 71 82
0.0886314 -0.196224 -0.463 198 155 136
0.0941905 -0.194952 -0.46 194 147 129
0.102298 -0.195376 -0.461 186 135 116
0.129287 -0.200462 -0.473 112 87 91
0.334591 -0.230129 -0.543 115 93 106
0.386337 -0.246657 -0.582 63 62 68
0.388111 -0.247081 -0.583 80 80 88
0.40721 -0.253438 -0.598 43 35 48
0.401745 -0.227162 -0.536 160 107 99
0.404314 -0.226314 -0.534 161 108 100
0.434213 -0.225467 -0.532 130 82 78
0.452247 -0.228433 -0.539 138 90 86
0.45974 -0.230129 -0.543 119 74 71
0.470905 -0.233095 -0.55 120 76 75
-0.136915 -0.262666 -0.617 89 88 94
-0.08694 -0.264369 -0.621 74 74 82
-0.0815476 -0.266071 -0.625 75 73 84
-0.0792933 -0.266497 -0.626 74 72 83
-0.0738 -0.2682 -0.63 74 72 83
-0.0704229 -0.269051 -0.632 73 71 82
-0.0682305 -0.269903 -0.634 74 73 81
-0.0545867 -0.27416 -0.644 70 70 80
0.08844 -0.19668 -0.462 197 154 137
0.0900048 -0.196254 -0.461 195 152 133
0.0924381 -0.195829 -0.46 195 149 133
0.096819 -0.195829 -0.46 189 142 124
0.10692 -0.19668 -0.462 184 132 118
0.336372 -0.234569 -0.551 119 93 104
0.37054 -0.243934 -0.573 97 94 101
0.413596 -0.257131 -0.604 62 56 68
0.415433 -0.257557 -0.605 51 45 57
0.404572 -0.226906 -0.533 159 106 98
0.430363 -0.226054 -0.531 136 87 82
-0.126811 -0.259992 -0.608 60 60 68
-0.112571 -0.256571 -0.6 61 60 68
-0.10818 -0.256999 -0.601 64 63 71
0.0854714 -0.198843 -0.465 199 157 141
0.114207 -0.197988 -0.463 166 121 102
0.348329 -0.237329 -0.555 44 31 40
0.372929 -0.245881 -0.575 85 83 88
0.404931 -0.255716 -0.598 40 34 46
0.40112 -0.236046 -0.552 160 113 107
0.39931 -0.231342 -0.541 160 107 101
0.400724 -0.229204 -0.536 159 106 98
0.406853 -0.227493 -0.532 160 106 96
0.412157 -0.227066 -0.531 160 105 98
0.423495 -0.226638 -0.53 137 88 83
0.43909 -0.227921 -0.533 123 78 73
0.470711 -0.235618 -0.551 124 83 81
-0.137419 -0.263728 -0.614 86 86 94
-0.13442 -0.262439 -0.611 70 70 80
-0.130071 -0.260721 -0.607 61 61 71
-0.110102 -0.257285 -0.599 54 53 59
-0.0804857 -0.268882 -0.626 75 73 84
-0.0580857 -0.275754 -0.642 128 127 135
0.0833486 -0.201017 -0.468 198 159 142
0.0994476 -0.197581 -0.46 188 139 122
0.113325 -0.19887 -0.463 165 118 100
0.139249 -0.210037 -0.489 201 194 212
0.341189 -0.237097 -0.552 88 71 79
0.3572 -0.242251 -0.564 39 29 40
0.372929 -0.246976 -0.575 76 71 77
0.41612 -0.260291 -0.606 66 64 77
0.4023 -0.24354 -0.567 124 94 96
0.4071 -0.228077 -0.531 158 104 94
0.41418 -0.228077 -0.531 157 105 94
0.417438 -0.227648 -0.53 145 95 86
0.42834 -0.228077 -0.531 134 85 78
0.462471 -0.23409 -0.545 124 83 81
-0.153469 -0.276977 -0.642 116 118 117
-0.111821 -0.257131 -0.596 48 49 54
-0.107035 -0.259289 -0.601 62 63 68
-0.0839286 -0.269643 -0.625 73 72 80
-0.0816781 -0.270074 -0.626 74 73 81
-0.0683381 -0.273957 -0.635 72 71 79
0.08388 -0.201046 -0.466 200 158 142
0.0891267 -0.198889 -0.461 195 152 135
0.0915619 -0.198457 -0.46 195 150 131
0.0983571 -0.198026 -0.459 188 139 122
0.10581 -0.198889 -0.461 185 134 115
0.113325 -0.199751 -0.463 165 118 100
0.123727 -0.20234 -0.469 130 92 89
0.141613 -0.213126 -0.494 221 214 232
0.145238 -0.215714 -0.5 239 236 253
0.395689 -0.254974 -0.591 31 27 42
0.403987 -0.24764 -0.574 87 76 90
0.401928 -0.245051 -0.568 116 93 101
0.4016 -0.2416 -0.56 165 117 107
0.401186 -0.239443 -0.555 166 116 109
0.399751 -0.234266 -0.543 163 110 102
0.405588 -0.229951 -0.533 158 104 92
0.418448 -0.228657 -0.53 142 92 83
0.423495 -0.228657 -0.53 135 86 79
0.480943 -0.240737 -0.558 121 80 78
-0.0998314 -0.265633 -0.613 70 71 76
-0.0937343 -0.268233 -0.619 74 74 82
-0.0511438 -0.280367 -0.647 73 71 82
0.0829924 -0.201933 -0.466 200 158 142
0.0882486 -0.199767 -0.461 196 153 134
0.09486 -0.1989 -0.459 191 146 127
0.114453 -0.201067 -0.464 163 117 101
0.122571 -0.2028 -0.468 128 93 91
0.127485 -0.204967 -0.473 108 88 89
0.131839 -0.207567 -0.479 114 93 98
0.348606 -0.2444 -0.564 58 46 56
0.408787 -0.260867 -0.602 59 57 70
0.405879 -0.252633 -0.583 61 49 63
0.401249 -0.2431 -0.561 157 112 106
0.40157 -0.241367 -0.557 168 115 107
0.408111 -0.2301 -0.531 158 106 95
0.410371 -0.229667 -0.53 156 106 95
0.41239 -0.229667 -0.53 155 105 94
0.422486 -0.229667 -0.53 133 83 74
0.443795 -0.231833 -0.535 119 75 72
0.4475 -0.2327 -0.537 121 77 74
0.455986 -0.234433 -0.541 127 83 80
0.480943 -0.2418 -0.558 124 83 79
1.13934 -0.280367 -0.647 204 206 195
-0.12276 -0.258531 -0.594 56 56 64
-0.110686 -0.259402 -0.596 48 49 53
-0.106243 -0.262449 -0.603 61 60 66
-0.0938857 -0.269848 -0.62 73 74 79
-0.0784752 -0.273765 -0.629 74 73 81
-0.0580857 -0.279423 -0.642 72 71 79
-0.0557267 -0.279858 -0.643 71 70 78
-0.0511438 -0.281599 -0.647 73 72 80
0.0815 -0.212831 -0.489 200 158 144
0.0812514 -0.209785 -0.482 198 159 142
0.0815362 -0.205868 -0.473 199 160 143
0.0957343 -0.199774 -0.459 193 146 126
0.100106 -0.199774 -0.459 188 141 121
0.114453 -0.20195 -0.464 161 113 99
0.135338 -0.21109 -0.485 161 150 167
0.351998 -0.246345 -0.566 34 28 42
0.378831 -0.252003 -0.579 23 18 24
0.3828 -0.252438 -0.58 24 21 28
0.390109 -0.25505 -0.586 27 24 35
0.40675 -0.260708 -0.599 45 41 55
0.401847 -0.240687 -0.553 164 110 100
0.401345 -0.23851 -0.548 163 108 103
0.454114 -0.235029 -0.54 126 85 81
-0.149503 -0.282394 -0.646 114 115 117
-0.11426 -0.258351 -0.591 103 107 110
-0.0928543 -0.271466 -0.621 73 74 79
-0.0819391 -0.274526 -0.628 75 74 82
-0.0784752 -0.274963 -0.629 74 73 81
0.0931114 -0.200649 -0.459 195 148 128
0.100106 -0.200649 -0.459 188 139 122
0.12168 -0.204583 -0.468 129 92 84
0.122833 -0.20502 -0.469 118 87 84
0.134137 -0.211577 -0.484 137 128 147
0.364334 -0.252231 -0.577 37 30 38
0.372672 -0.252669 -0.578 33 25 38
0.385229 -0.254417 -0.582 17 14 23
0.398613 -0.258789 -0.592 36 27 46
0.404486 -0.259663 -0.594 35 31 46
0.402966 -0.254417 -0.582 50 40 49
0.40137 -0.236494 -0.541 156 103 97
0.409362 -0.231686 -0.53 152 102 91
0.410371 -0.231686 -0.53 150 100 89
0.41239 -0.231686 -0.53 147 97 86
0.43706 -0.232997 -0.533 123 78 72
0.443795 -0.233871 -0.535 115 74 70
0.452247 -0.23562 -0.539 124 83 77
-0.11426 -0.259477 -0.591 115 119 122
-0.107035 -0.263868 -0.601 59 59 67
-0.0950667 -0.27221 -0.62 70 70 78
-0.0718533 -0.278356 -0.634 73 72 80
-0.065219 -0.28099 -0.64 73 72 80
-0.0523762 -0.284064 -0.647 71 70 78
0.0863048 -0.201962 -0.46 200 154 138
0.0946533 -0.201084 -0.458 194 147 129
0.0992314 -0.201523 -0.459 189 142 124
0.10098 -0.201523 -0.459 188 139 122
0.108445 -0.202401 -0.461 172 124 110
0.116221 -0.203718 -0.464 146 106 96
0.134414 -0.212938 -0.485 130 122 145
0.39852 -0.252013 -0.574 84 69 76
0.397525 -0.250696 -0.571 101 79 82
0.397914 -0.250257 -0.57 110 88 91
0.400786 -0.238403 -0.543 153 100 92
0.422271 -0.233134 -0.531 138 90 80
0.424294 -0.233134 -0.531 140 92 78
0.443795 -0.23489 -0.535 117 76 70
0.480081 -0.24455 -0.557 117 78 71
1.13773 -0.282747 -0.644 203 205 192
-0.13838 -0.277359 -0.629 126 130 133
-0.1241 -0.262367 -0.595 124 128 131
-0.108779 -0.26369 -0.598 58 58 66
-0.0982914 -0.272509 -0.618 62 62 70
0.08404 -0.20372 -0.462 198 155 136
0.0856143 -0.203279 -0.461 199 156 137
0.0902914 -0.201956 -0.458 195 150 129
0.0911638 -0.201956 -0.458 193 148 127
0.0983571 -0.202397 -0.459 190 141 124
0.104705 -0.202838 -0.46 181 132 117
0.114207 -0.204161 -0.463 153 111 97
0.3735 -0.256193 -0.581 39 32 40
0.379278 -0.25487 -0.578 20 14 24
0.383243 -0.255311 -0.579 16 13 22
0.399805 -0.249138 -0.565 138 100 97
0.402243 -0.244729 -0.555 162 107 100
0.405331 -0.235469 -0.534 159 104 97
0.431173 -0.234587 -0.532 137 89 79
0.432187 -0.234587 -0.532 134 87 79
0.438897 -0.235469 -0.534 128 83 77
0.46436 -0.24076 -0.546 118 77 71
-0.10955 -0.263943 -0.596 59 59 67
-0.102167 -0.271471 -0.613 59 59 67
-0.101329 -0.272357 -0.615 59 60 65
-0.09522 -0.275014 -0.621 66 67 72
-0.0765629 -0.280329 -0.633 74 73 81
-0.059401 -0.284757 -0.643 72 71 77
-0.0500657 -0.287414 -0.649 72 71 79
0.0803333 -0.213457 -0.482 201 160 142
0.0876743 -0.202829 -0.458 198 153 130
0.0885467 -0.202829 -0.458 197 152 129
0.108445 -0.204157 -0.461 171 122 107
0.12168 -0.207257 -0.468 119 91 87
0.124518 -0.209029 -0.472 110 83 88
0.130286 -0.212571 -0.48 145 129 132
0.376626 -0.256414 -0.579 32 21 29
0.39359 -0.255971 -0.578 39 31 46
0.397278 -0.250657 -0.566 133 97 97
0.399434 -0.250657 -0.566 138 98 96
0.401847 -0.2449 -0.553 161 108 100
0.41239 -0.234714 -0.53 147 97 88
0.415419 -0.234714 -0.53 146 96 87
0.426317 -0.235157 -0.531 142 93 86
0.4332 -0.2356 -0.532 131 84 78
0.43503 -0.236043 -0.533 129 84 79
0.43788 -0.236486 -0.534 131 86 81
0.442776 -0.236929 -0.535 124 80 77
0.45122 -0.2387 -0.539 124 81 75
0.461623 -0.240914 -0.544 117 76 70
0.487397 -0.249329 -0.563 122 85 76
-0.115723 -0.261075 -0.587 114 115 120
-0.101329 -0.273529 -0.615 59 60 65
-0.0975857 -0.276197 -0.621 60 61 66
-0.0697667 -0.283313 -0.637 75 74 82
-0.0582667 -0.286427 -0.644 72 71 77
0.0929086 -0.203701 -0.458 195 148 128
0.0963981 -0.203701 -0.458 190 143 125
0.0992314 -0.204146 -0.459 187 140 122
0.106457 -0.20459 -0.46 176 127 112
0.386743 -0.256183 -0.576 35 32 41
0.388937 -0.256183 -0.576 48 37 45
0.400534 -0.250401 -0.563 146 102 99
0.402317 -0.249511 -0.561 157 107 98
0.402573 -0.246398 -0.554 158 108 99
0.405331 -0.237503 -0.534 159 106 98
0.41441 -0.235724 -0.53 146 96 89
0.415419 -0.235724 -0.53 145 95 88
0.424294 -0.236169 -0.531 143 93 86
0.425306 -0.236169 -0.531 141 91 84
0.432187 -0.236613 -0.532 132 85 79
-0.123474 -0.264427 -0.592 117 118 123
-0.106419 -0.269787 -0.604 65 64 72
-0.0955267 -0.278273 -0.623 63 62 70
-0.0777686 -0.28274 -0.633 75 75 83
-0.0743857 -0.283633 -0.635 72 75 82
-0.0571286 -0.2881 -0.645 72 71 79
0.08228 -0.20636 -0.462 202 161 143
0.0854286 -0.205467 -0.46 199 156 137
0.0929086 -0.204573 -0.458 195 148 130
0.093781 -0.204573 -0.458 194 147 129
0.127922 -0.213507 -0.478 126 107 111
0.134316 -0.217973 -0.488 202 193 210
0.139633 -0.221993 -0.497 169 171 196
0.37636 -0.25996 -0.582 115 88 93
0.381027 -0.256387 -0.574 66 51 56
0.389911 -0.255047 -0.571 94 75 81
0.3955 -0.252367 -0.565 140 99 97
0.396576 -0.252367 -0.565 141 100 98
0.4033 -0.2479 -0.555 156 106 97
0.402967 -0.240753 -0.539 151 101 94
0.404052 -0.238967 -0.535 156 106 97
0.405331 -0.23852 -0.534 156 106 97
0.422271 -0.23718 -0.531 142 92 85
0.455986 -0.241647 -0.541 126 81 76
0.48287 -0.249687 -0.559 121 84 75
0.491072 -0.252813 -0.566 124 84 84
-0.127641 -0.269591 -0.601 116 117 122
-0.120195 -0.263311 -0.587 115 116 121
-0.118671 -0.262414 -0.585 113 114 119
-0.112009 -0.265106 -0.591 68 69 74
-0.0913629 -0.281254 -0.627 69 68 76
-0.0582667 -0.28888 -0.644 72 71 79
-0.0559867 -0.289777 -0.646 72 71 79
0.0795 -0.213969 -0.477 203 163 151
0.0843686 -0.205894 -0.459 202 156 140
0.0852429 -0.205894 -0.459 202 156 140
0.0920362 -0.205446 -0.458 194 147 129
0.376399 -0.264209 -0.589 137 108 112
0.376239 -0.263311 -0.587 138 109 114
0.385971 -0.255686 -0.57 104 82 84
0.3915 -0.25434 -0.567 115 80 86
0.403223 -0.247611 -0.552 148 101 93
0.402401 -0.242677 -0.541 149 99 92
0.406603 -0.239089 -0.533 155 102 94
0.407618 -0.239089 -0.533 154 101 93
0.412157 -0.238191 -0.531 151 99 88
0.419237 -0.238191 -0.531 142 92 83
0.423283 -0.238191 -0.531 143 93 84
0.46436 -0.24492 -0.546 117 74 68
0.469857 -0.246714 -0.55 119 76 70
0.472617 -0.247611 -0.552 121 78 72
-0.121727 -0.26533 -0.589 114 115 120
-0.111258 -0.267132 -0.593 64 65 70
-0.082461 -0.284701 -0.632 72 72 80
0.0797829 -0.210823 -0.468 202 163 146
0.12272 -0.212625 -0.472 112 87 83
0.377467 -0.268484 -0.596 130 97 108
0.377357 -0.26443 -0.587 136 109 116
0.387863 -0.25587 -0.568 121 90 95
