ply
format ascii 1.0
comment Created by Open3D
element vertex 1266
property double x
property double y
property double z
property uchar red
property uchar green
property uchar blue
end_header
1.02978 -0.39474 -0.567 203 205 191
-0.340886 -0.406291 -0.582 229 232 225
-0.325366 -0.406291 -0.582 232 233 225
-0.324257 -0.406291 -0.582 232 233 225
-0.0281229 -0.404197 -0.579 211 186 166
-0.000461905 -0.338576 -0.485 197 158 125
0.00697143 -0.34067 -0.488 185 144 114
0.0246257 -0.353934 -0.507 141 103 92
0.0288819 -0.358821 -0.514 131 103 92
0.0320048 -0.360915 -0.517 128 100 89
0.0330533 -0.361613 -0.518 126 98 87
0.0493095 -0.380462 -0.545 114 93 90
0.495095 -0.39233 -0.562 147 115 104
0.466715 -0.365104 -0.523 156 121 102
0.461775 -0.357425 -0.512 166 124 108
0.465238 -0.349048 -0.5 174 128 104
0.466209 -0.34835 -0.499 175 129 105
0.467159 -0.34835 -0.499 176 130 106
0.47286 -0.346953 -0.497 169 123 99
0.480386 -0.345557 -0.495 164 119 98
1.02222 -0.39582 -0.567 204 206 192
-0.336451 -0.4074 -0.582 231 232 224
-0.24734 -0.4067 -0.581 234 235 229
-0.00599238 -0.3388 -0.484 201 162 129
0.00138571 -0.3395 -0.485 192 153 122
0.0364305 -0.3668 -0.524 121 96 92
0.053001 -0.3857 -0.551 115 94 91
0.497738 -0.3955 -0.565 148 115 106
0.471062 -0.3703 -0.529 151 118 109
0.463306 -0.3507 -0.501 175 129 106
0.46906 -0.3493 -0.499 177 131 107
0.482271 -0.3465 -0.495 166 121 98
0.48797 -0.3472 -0.496 162 117 94
0.583631 -0.3983 -0.569 194 178 165
0.911505 -0.3976 -0.568 207 210 193
0.99954 -0.3969 -0.567 204 207 190
1.0071 -0.3969 -0.567 204 207 190
-0.34362 -0.407807 -0.581 230 231 225
-0.3403 -0.407807 -0.581 230 231 225
-0.321487 -0.407807 -0.581 233 234 226
-0.311527 -0.407807 -0.581 232 235 226
-0.239181 -0.407105 -0.58 234 235 229
-0.0143781 -0.341828 -0.487 202 163 132
-0.0115476 -0.340424 -0.485 202 163 130
-0.00230476 -0.339722 -0.484 197 158 127
0.00509143 -0.341126 -0.486 187 146 116
0.0117143 -0.345337 -0.492 166 124 102
0.0165667 -0.348847 -0.497 159 117 101
0.0185714 -0.350952 -0.5 153 115 96
0.0288257 -0.360077 -0.513 129 102 95
0.0542467 -0.388153 -0.553 116 97 93
0.500381 -0.398682 -0.568 143 113 103
0.489273 -0.388153 -0.553 148 114 104
0.462677 -0.360077 -0.513 161 124 108
0.462195 -0.354462 -0.505 174 129 106
0.465214 -0.351654 -0.501 176 129 109
0.465238 -0.350952 -0.5 177 130 110
0.467159 -0.35025 -0.499 176 129 109
0.46811 -0.35025 -0.499 178 132 109
0.469069 -0.349549 -0.498 174 128 105
0.47286 -0.348847 -0.497 170 122 100
0.473798 -0.348145 -0.496 173 125 102
0.476592 -0.346741 -0.494 157 111 88
0.490847 -0.348847 -0.497 160 113 93
0.495714 -0.350952 -0.5 152 109 90
0.9585 -0.39798 -0.567 204 207 190
-0.33861 -0.40821 -0.58 230 231 225
-0.31706 -0.408913 -0.581 232 235 226
-0.0153057 -0.342755 -0.487 203 164 133
-0.000460952 -0.340644 -0.484 194 155 124
0.0375714 -0.370204 -0.526 119 94 90
0.06494 -0.403283 -0.573 118 110 123
0.479829 -0.380057 -0.54 148 115 106
0.465214 -0.352609 -0.501 175 130 111
0.470966 -0.350497 -0.498 173 125 103
0.473798 -0.34909 -0.496 172 124 101
0.482238 -0.347682 -0.494 171 123 101
0.486986 -0.348386 -0.495 166 120 97
0.510454 -0.358239 -0.509 146 111 89
0.9261 -0.39906 -0.567 205 208 191
0.996699 -0.398356 -0.566 204 207 190
0.999933 -0.398356 -0.566 203 206 189
-0.350157 -0.408609 -0.579 230 231 225
-0.3364 -0.409314 -0.58 230 231 225
-0.324248 -0.409314 -0.58 232 233 227
-0.0143486 -0.342977 -0.486 203 164 133
-0.0023 -0.34086 -0.483 197 158 125
0.00138286 -0.341566 -0.484 190 151 120
0.00884857 -0.345094 -0.489 172 131 101
0.0098 -0.3458 -0.49 172 130 105
0.0236133 -0.357091 -0.506 142 105 99
0.0246743 -0.358503 -0.508 140 103 97
0.0409629 -0.374734 -0.531 118 94 92
0.0636257 -0.402963 -0.571 108 104 119
0.48552 -0.41496 -0.588 82 105 149
0.49112 -0.41496 -0.588 38 73 127
0.49336 -0.41496 -0.588 31 70 127
0.462948 -0.359209 -0.509 166 125 107
0.46423 -0.354269 -0.502 173 128 109
0.482201 -0.347917 -0.493 166 119 99
0.48314 -0.347917 -0.493 166 119 99
0.495673 -0.352151 -0.499 153 112 90
0.497619 -0.352857 -0.5 151 110 88
0.957888 -0.399434 -0.566 204 207 190
-0.33419 -0.410419 -0.58 231 232 226
-0.316514 -0.410419 -0.58 231 234 223
-0.252003 -0.409711 -0.579 233 234 228
-0.234357 -0.409711 -0.579 235 237 226
-0.0288724 -0.404758 -0.572 194 160 135
-0.00046 -0.34178 -0.483 193 154 123
0.00230476 -0.342488 -0.484 189 148 118
0.033181 -0.367962 -0.52 121 93 89
0.0421324 -0.377161 -0.533 116 95 94
0.0456867 -0.381407 -0.539 116 92 90
0.0556 -0.393436 -0.556 118 97 96
0.462948 -0.360178 -0.509 164 123 105
0.463006 -0.35947 -0.508 166 123 104
0.46426 -0.354517 -0.501 174 129 106
0.467159 -0.353102 -0.499 172 127 104
0.480323 -0.348856 -0.493 169 123 100
0.489814 -0.350271 -0.495 164 119 98
0.496624 -0.353102 -0.499 153 112 90
0.510419 -0.35947 -0.508 144 109 89
0.91692 -0.400512 -0.566 207 210 191
1.02218 -0.399097 -0.564 202 205 188
1.02648 -0.399097 -0.564 204 207 190
1.02755 -0.399097 -0.564 203 206 189
-0.3281 -0.410814 -0.579 230 231 223
-0.323689 -0.410814 -0.579 231 232 224
-0.0300143 -0.406557 -0.573 197 166 137
-0.00874 -0.3427 -0.483 201 160 128
0.03872 -0.374629 -0.528 116 95 92
0.04104 -0.377467 -0.532 114 94 93
0.473513 -0.41649 -0.587 165 165 175
0.489603 -0.390948 -0.551 147 113 103
0.467143 -0.354762 -0.5 174 130 105
0.472843 -0.351214 -0.495 171 123 100
0.47471 -0.350505 -0.494 163 115 92
0.478445 -0.349795 -0.493 168 122 98
0.485018 -0.349795 -0.493 167 121 98
0.583833 -0.400881 -0.565 193 179 170
0.959424 -0.400881 -0.565 205 208 191
0.961576 -0.400881 -0.565 205 208 191
1.00499 -0.400171 -0.564 202 205 188
1.01466 -0.400171 -0.564 203 206 189
1.02755 -0.400171 -0.564 203 206 189
1.02788 -0.399462 -0.563 203 206 189
-0.3281 -0.411917 -0.579 231 232 224
-0.250467 -0.411206 -0.578 232 233 225
-0.229549 -0.411206 -0.578 233 234 226
-0.0180886 -0.346466 -0.487 202 163 130
-0.0142895 -0.344331 -0.484 203 162 130
-0.00413143 -0.342909 -0.482 199 158 126
0.00230476 -0.344331 -0.484 185 146 117
0.00323333 -0.345043 -0.485 182 143 114
0.0166 -0.354291 -0.498 151 112 95
0.03096 -0.367097 -0.516 127 97 86
0.0469733 -0.385594 -0.542 114 90 90
0.0556 -0.395554 -0.556 114 94 95
0.467143 -0.355714 -0.5 173 128 105
0.46811 -0.355003 -0.499 173 127 103
0.46906 -0.355003 -0.499 175 129 105
0.470967 -0.35358 -0.497 171 125 101
0.470957 -0.352157 -0.495 175 129 105
0.500476 -0.355714 -0.5 149 114 92
0.509373 -0.359983 -0.506 148 112 90
0.518339 -0.364251 -0.512 147 109 88
0.918529 -0.401957 -0.565 207 210 193
1.00714 -0.401246 -0.564 203 206 189
1.01251 -0.401246 -0.564 204 207 188
1.01466 -0.401246 -0.564 204 207 188
1.02788 -0.400534 -0.563 203 206 189
-0.322029 -0.412307 -0.578 232 233 225
-0.311019 -0.412307 -0.578 229 232 223
-0.289 -0.412307 -0.578 231 233 222
-0.01334 -0.34454 -0.483 202 161 129
-0.01058 -0.34454 -0.483 202 161 129
-0.00964 -0.343827 -0.482 202 161 129
0.00138 -0.34454 -0.483 188 147 117
0.0518571 -0.392333 -0.55 116 96 97
0.465187 -0.358093 -0.502 169 124 103
0.46619 -0.356667 -0.5 171 126 105
0.472843 -0.3531 -0.495 170 122 100
0.474689 -0.351673 -0.493 171 123 101
0.959874 -0.40232 -0.564 204 207 190
0.972766 -0.40232 -0.564 205 208 191
1.00321 -0.401607 -0.563 203 206 187
1.00857 -0.401607 -0.563 202 205 186
-0.325868 -0.412692 -0.577 230 231 223
-0.313221 -0.413408 -0.578 229 232 223
-0.264321 -0.412692 -0.577 232 234 223
-0.248934 -0.412692 -0.577 233 234 226
-0.24234 -0.412692 -0.577 232 233 225
-0.228052 -0.412692 -0.577 234 235 229
-0.0161333 -0.346175 -0.484 203 162 130
-0.0133124 -0.344745 -0.482 202 161 129
-0.0105581 -0.344745 -0.482 201 160 128
0.029919 -0.368348 -0.515 127 99 88
0.0321286 -0.371209 -0.519 123 96 87
0.0387933 -0.378361 -0.529 118 93 88
0.0556 -0.397672 -0.556 117 92 95
0.464829 -0.364771 -0.51 164 123 105
0.464887 -0.364056 -0.509 165 124 106
0.465155 -0.359765 -0.503 169 126 109
0.506353 -0.359765 -0.503 150 112 91
0.587062 -0.40411 -0.565 193 188 184
0.920126 -0.403394 -0.564 205 208 191
0.976403 -0.402679 -0.563 204 206 192
0.978548 -0.402679 -0.563 204 207 190
0.982837 -0.402679 -0.563 205 208 191
0.996078 -0.401964 -0.562 203 206 189
0.997149 -0.401964 -0.562 204 207 190
0.999289 -0.401964 -0.562 205 208 191
1.00143 -0.401964 -0.562 204 207 190
1.01072 -0.402679 -0.563 203 206 187
1.01535 -0.401964 -0.562 204 207 188
1.02144 -0.402679 -0.563 204 207 188
-0.333561 -0.413791 -0.577 231 232 226
-0.301689 -0.413791 -0.577 229 232 221
-0.292896 -0.413791 -0.577 231 233 222
-0.280807 -0.413791 -0.577 232 234 223
-0.270915 -0.413791 -0.577 232 233 225
-0.266519 -0.413791 -0.577 231 232 224
-0.251794 -0.413074 -0.576 232 233 225
-0.01518 -0.34638 -0.483 203 162 130
-0.0123943 -0.345663 -0.482 201 160 128
-0.00870381 -0.344946 -0.481 202 159 127
-0.00503905 -0.344946 -0.481 197 157 122
0.00138 -0.34638 -0.483 186 145 115
0.0354324 -0.375783 -0.524 122 95 88
0.0387933 -0.379369 -0.529 118 93 89
0.0422114 -0.382954 -0.534 117 93 89
0.0481829 -0.390126 -0.544 112 93 89
0.0556 -0.398731 -0.556 116 92 92
0.0624286 -0.408771 -0.57 144 129 126
0.470794 -0.374349 -0.522 156 120 106
0.467424 -0.369329 -0.515 161 123 104
0.466113 -0.360723 -0.503 172 130 108
0.46812 -0.357137 -0.498 170 125 104
0.470957 -0.354986 -0.495 176 130 107
0.47471 -0.354269 -0.494 168 122 99
0.480245 -0.352117 -0.491 168 120 98
0.489713 -0.353551 -0.493 159 114 93
0.958172 -0.403751 -0.563 205 208 191
0.959245 -0.403751 -0.563 205 208 191
0.968896 -0.403751 -0.563 206 208 194
0.993937 -0.403034 -0.562 204 207 190
0.997149 -0.403034 -0.562 203 206 189
0.998219 -0.403034 -0.562 203 206 189
1.00892 -0.403034 -0.562 203 206 189
1.00999 -0.403034 -0.562 203 206 189
1.01106 -0.403034 -0.562 203 206 189
1.01856 -0.403034 -0.562 204 207 188
-0.338469 -0.414171 -0.576 230 231 223
-0.32367 -0.41489 -0.577 231 232 224
-0.319273 -0.41489 -0.577 232 234 223
-0.26496 -0.414171 -0.576 232 233 225
-0.253548 -0.413452 -0.575 233 234 226
-0.227657 -0.414171 -0.576 233 234 226
-0.0123943 -0.346581 -0.482 202 161 129
-0.0105362 -0.345862 -0.481 201 160 128
-0.00962 -0.345862 -0.481 200 159 127
-0.00595524 -0.345862 -0.481 200 157 125
-0.00412286 -0.345862 -0.481 197 156 124
0.0146143 -0.355929 -0.495 153 115 92
0.0155886 -0.356648 -0.496 149 113 91
0.02366 -0.364557 -0.507 137 102 82
0.0256924 -0.365995 -0.509 129 100 86
0.0277943 -0.368152 -0.512 128 100 88
0.0556 -0.39979 -0.556 116 92 90
0.0596229 -0.405543 -0.564 117 98 94
0.502931 -0.406981 -0.566 145 117 113
0.499557 -0.403386 -0.561 146 118 114
0.472829 -0.35521 -0.494 174 128 105
0.4802 -0.352333 -0.49 167 121 98
0.482115 -0.353052 -0.491 171 125 102
0.512265 -0.363838 -0.506 147 106 84
0.907771 -0.404824 -0.563 206 209 192
0.983232 -0.404105 -0.562 203 206 189
0.991796 -0.404105 -0.562 203 206 189
1.0025 -0.404105 -0.562 204 207 190
1.01781 -0.403386 -0.561 204 207 188
1.01888 -0.403386 -0.561 204 207 188
-0.343357 -0.414548 -0.575 229 230 222
-0.327497 -0.415269 -0.576 231 232 224
-0.3264 -0.415269 -0.576 231 232 224
-0.268251 -0.415269 -0.576 231 232 224
-0.257929 -0.414548 -0.575 229 231 220
-0.256833 -0.414548 -0.575 230 232 221
-0.24369 -0.414548 -0.575 232 234 223
-0.0365629 -0.413106 -0.573 211 195 182
-0.01886 -0.34822 -0.483 204 163 133
-0.00778762 -0.346778 -0.481 200 157 125
0.0277943 -0.369128 -0.512 128 100 88
0.497949 -0.402291 -0.558 149 116 101
0.472843 -0.356871 -0.495 173 127 104
0.47931 -0.353988 -0.491 172 124 102
0.4802 -0.353267 -0.49 170 122 100
0.481133 -0.353267 -0.49 174 126 104
0.497417 -0.357592 -0.496 161 119 97
0.9554 -0.405175 -0.562 205 208 191
0.961823 -0.405175 -0.562 204 207 190
0.969316 -0.405175 -0.562 205 208 191
0.973598 -0.405175 -0.562 204 207 190
0.9911 -0.404454 -0.561 203 206 189
0.99858 -0.404454 -0.561 202 205 188
1.00392 -0.404454 -0.561 203 206 187
1.0082 -0.404454 -0.561 203 206 187
1.02209 -0.404454 -0.561 203 206 187
-0.344452 -0.415643 -0.575 229 230 222
-0.33569 -0.415643 -0.575 230 231 223
-0.327497 -0.416366 -0.576 231 232 224
-0.308846 -0.416366 -0.576 229 232 223
-0.259024 -0.415643 -0.575 231 233 222
-0.250262 -0.415643 -0.575 232 234 223
-0.232738 -0.415643 -0.575 232 233 225
-0.231643 -0.415643 -0.575 232 233 225
-0.036499 -0.413474 -0.572 206 187 173
-0.0132848 -0.347694 -0.481 205 162 130
-0.00962 -0.347694 -0.481 201 158 124
-0.00503905 -0.347694 -0.481 195 154 122
-0.00412286 -0.347694 -0.481 195 154 122
0.00138 -0.34914 -0.483 184 143 115
0.0365695 -0.380223 -0.526 119 96 90
0.47002 -0.35926 -0.497 175 129 106
0.472843 -0.357814 -0.495 175 128 108
0.475569 -0.354923 -0.491 161 115 92
0.482067 -0.3542 -0.49 173 126 106
0.489657 -0.355646 -0.492 157 112 91
0.498362 -0.358537 -0.496 158 116 94
0.51918 -0.367934 -0.509 150 108 86
0.527262 -0.372271 -0.515 147 109 86
0.922215 -0.406246 -0.562 205 208 189
0.96866 -0.405523 -0.561 204 207 188
0.986826 -0.405523 -0.561 204 207 190
1.0128 -0.4048 -0.56 203 206 189
-0.328024 -0.416738 -0.575 230 231 225
-0.30831 -0.416738 -0.575 229 232 223
-0.303929 -0.416738 -0.575 229 232 223
-0.295167 -0.416738 -0.575 230 231 223
-0.2875 -0.416738 -0.575 230 232 221
-0.284214 -0.416738 -0.575 230 232 221
-0.248733 -0.416013 -0.574 232 233 225
-0.0247838 -0.355858 -0.491 199 160 129
0.0185714 -0.362381 -0.5 145 110 91
0.0257429 -0.369629 -0.51 130 101 87
0.0597286 -0.40949 -0.565 114 94 93
0.474689 -0.357308 -0.493 171 124 104
0.489657 -0.356583 -0.492 158 113 92
0.490594 -0.356583 -0.492 160 115 94
0.507203 -0.363106 -0.501 150 109 87
0.969729 -0.406591 -0.561 203 206 187
0.984689 -0.406591 -0.561 203 205 191
0.989333 -0.405867 -0.56 203 205 191
1.00107 -0.405867 -0.56 204 207 188
1.0032 -0.405867 -0.56 204 207 188
1.01067 -0.405867 -0.56 202 205 186
-0.334013 -0.417107 -0.574 228 229 221
-0.320357 -0.417833 -0.575 230 231 223
-0.30012 -0.417107 -0.574 229 232 223
-0.291373 -0.417107 -0.574 230 232 221
-0.230147 -0.417107 -0.574 232 233 227
-0.2214 -0.417107 -0.574 233 234 226
0.0023 -0.35098 -0.483 182 141 113
0.0544429 -0.4033 -0.555 114 93 92
0.499906 -0.406207 -0.559 146 116 106
0.466923 -0.36842 -0.507 167 125 103
0.466966 -0.367693 -0.506 168 127 105
0.467123 -0.36406 -0.501 171 129 107
0.470019 -0.360427 -0.496 175 130 107
0.4719 -0.3597 -0.495 176 130 107
0.481133 -0.356067 -0.49 177 129 109
0.483933 -0.356067 -0.49 175 127 105
0.51408 -0.36624 -0.504 155 109 86
0.592469 -0.40984 -0.564 192 191 189
0.921643 -0.40766 -0.561 206 209 192
1.0128 -0.406933 -0.56 202 205 186
1.01387 -0.406933 -0.56 203 206 187
-0.341667 -0.4182 -0.574 229 230 222
-0.338387 -0.4182 -0.574 229 230 222
-0.302307 -0.4182 -0.574 229 232 223
-0.262947 -0.4182 -0.574 231 232 224
-0.260306 -0.417471 -0.573 231 233 222
-0.254849 -0.417471 -0.573 232 233 225
-0.0245314 -0.354086 -0.486 200 161 130
-0.0123429 -0.349714 -0.48 203 160 128
-0.0105143 -0.349714 -0.48 201 158 126
0.0166 -0.362829 -0.498 148 109 92
0.020599 -0.366471 -0.503 142 106 90
0.0247229 -0.370843 -0.509 133 100 85
0.0445771 -0.391971 -0.538 116 92 88
0.0494 -0.3978 -0.546 116 95 90
0.0597286 -0.411643 -0.565 107 93 92
0.46811 -0.363557 -0.499 176 131 108
0.46906 -0.363557 -0.499 176 131 108
0.472789 -0.358457 -0.492 171 125 102
0.474663 -0.358457 -0.492 173 125 103
0.489597 -0.357729 -0.491 160 114 91
0.491531 -0.358457 -0.492 160 115 94
0.516062 -0.367929 -0.505 155 109 86
0.967336 -0.407271 -0.559 203 206 189
0.9712 -0.408 -0.56 203 206 189
0.988631 -0.407271 -0.559 203 205 191
0.989696 -0.407271 -0.559 203 205 191
1.00247 -0.407271 -0.559 202 205 188
-0.33234 -0.418563 -0.573 230 231 225
-0.272311 -0.418563 -0.573 230 232 221
-0.265763 -0.418563 -0.573 230 231 223
-0.261397 -0.418563 -0.573 232 234 221
-0.259214 -0.418563 -0.573 231 233 222
-0.254404 -0.417832 -0.572 231 233 222
-0.250483 -0.418563 -0.573 232 233 225
-0.22538 -0.418563 -0.573 232 233 225
-0.219923 -0.418563 -0.573 231 232 224
-0.0254571 -0.355011 -0.486 199 160 129
0.000458095 -0.351359 -0.481 183 142 112
0.01562 -0.363047 -0.497 148 109 92
0.0166 -0.363777 -0.498 146 107 90
0.0365695 -0.38423 -0.526 117 93 89
0.0584448 -0.411258 -0.563 113 99 99
0.468095 -0.365238 -0.5 176 134 110
0.470019 -0.362316 -0.496 179 133 110
0.475569 -0.358664 -0.491 173 127 104
0.47922 -0.357203 -0.489 170 122 100
0.482946 -0.357203 -0.489 176 128 106
0.973725 -0.408336 -0.559 203 205 191
0.99715 -0.408336 -0.559 204 206 192
1.0046 -0.408336 -0.559 204 206 192
1.00567 -0.408336 -0.559 204 206 192
1.01769 -0.407606 -0.558 203 206 189
-0.345437 -0.419654 -0.573 229 230 222
-0.31706 -0.419654 -0.573 229 230 222
-0.311603 -0.419654 -0.573 229 230 222
-0.308329 -0.419654 -0.573 230 231 223
-0.305054 -0.419654 -0.573 229 230 224
-0.283226 -0.419654 -0.573 231 232 224
-0.232613 -0.418922 -0.572 231 232 224
-0.19339 -0.418922 -0.572 233 234 228
-0.0407143 -0.417457 -0.57 216 200 184
-0.0371286 -0.413795 -0.565 195 169 146
-0.0150543 -0.35081 -0.479 202 159 127
-0.0104924 -0.35081 -0.479 201 158 126
-0.000458095 -0.352275 -0.481 184 143 111
0.000458095 -0.352275 -0.481 182 141 111
0.00788476 -0.35667 -0.487 161 120 100
0.02366 -0.371317 -0.507 133 100 85
0.0289381 -0.377176 -0.515 125 96 88
0.0343029 -0.382303 -0.522 120 95 90
0.0365695 -0.385232 -0.526 117 92 88
0.0469733 -0.39695 -0.542 115 94 89
0.0598343 -0.414528 -0.566 122 110 112
0.0611276 -0.415992 -0.568 187 182 188
0.470494 -0.375711 -0.513 163 124 107
0.469633 -0.374247 -0.511 166 125 107
0.46896 -0.36912 -0.504 171 129 107
0.46811 -0.365458 -0.499 176 131 110
0.469069 -0.364726 -0.498 174 127 107
0.475533 -0.358867 -0.49 177 129 107
0.478289 -0.358134 -0.489 174 126 106
0.483877 -0.358134 -0.489 176 128 106
0.486671 -0.358134 -0.489 159 113 90
0.511974 -0.366923 -0.501 153 108 87
0.9503 -0.409401 -0.559 204 206 192
0.958818 -0.409401 -0.559 204 206 193
0.959883 -0.409401 -0.559 204 206 192
0.977297 -0.408669 -0.558 204 206 192
0.984737 -0.408669 -0.558 204 206 193
1.00599 -0.408669 -0.558 203 205 191
-0.342655 -0.420011 -0.572 229 230 222
-0.340476 -0.420011 -0.572 228 229 223
-0.336118 -0.420011 -0.572 229 230 224
-0.328491 -0.420011 -0.572 229 230 222
-0.315969 -0.420746 -0.573 228 229 221
-0.265299 -0.420011 -0.572 231 232 224
-0.251135 -0.420011 -0.572 231 232 224
-0.24024 -0.420011 -0.572 231 232 224
-0.230434 -0.420011 -0.572 232 233 225
-0.219539 -0.420011 -0.572 231 232 224
-0.21845 -0.420011 -0.572 230 231 223
-0.21263 -0.419277 -0.571 233 234 226
-0.00866762 -0.351723 -0.479 201 158 126
0.000458095 -0.353191 -0.481 180 141 110
0.00978 -0.359066 -0.489 157 118 101
0.0289381 -0.378157 -0.515 125 97 86
0.0481829 -0.399451 -0.544 114 94 93
0.0571686 -0.411934 -0.561 111 93 89
0.469069 -0.365674 -0.498 173 126 106
0.473726 -0.361269 -0.492 177 129 109
0.475533 -0.3598 -0.49 175 127 107
0.480151 -0.359066 -0.489 174 126 104
0.482014 -0.359066 -0.489 174 126 104
0.497226 -0.362003 -0.493 157 112 91
0.502071 -0.363471 -0.495 148 103 82
0.95604 -0.409731 -0.558 204 206 192
0.959229 -0.409731 -0.558 204 206 192
1.00281 -0.409731 -0.558 202 206 189
-0.300164 -0.421101 -0.572 228 229 221
-0.297985 -0.421101 -0.572 229 230 222
-0.272926 -0.421101 -0.572 231 232 224
-0.265299 -0.421101 -0.572 231 232 224
-0.253959 -0.420365 -0.571 230 231 223
-0.237645 -0.420365 -0.571 232 233 225
-0.220243 -0.420365 -0.571 232 233 225
-0.21263 -0.420365 -0.571 232 233 225
-0.210454 -0.420365 -0.571 232 233 225
-0.207191 -0.420365 -0.571 232 233 225
-0.02952 -0.362206 -0.492 196 153 118
-0.0251429 -0.353371 -0.48 204 160 125
0.000458095 -0.354108 -0.481 178 142 110
0.00137429 -0.354108 -0.481 178 142 110
0.0116905 -0.36147 -0.491 152 113 96
0.0185714 -0.368095 -0.5 141 105 91
0.476677 -0.385028 -0.523 160 123 104
0.469779 -0.373985 -0.508 165 123 101
0.470017 -0.366623 -0.498 172 126 103
0.47922 -0.359997 -0.489 168 122 99
0.522934 -0.373249 -0.507 150 108 86
0.577762 -0.404905 -0.55 143 120 104
0.9486 -0.410794 -0.558 205 208 191
0.996765 -0.410058 -0.557 203 205 191
1.0148 -0.410058 -0.557 201 205 188
-0.329005 -0.421452 -0.571 229 230 224
-0.315953 -0.421452 -0.571 229 230 222
-0.30399 -0.421452 -0.571 229 230 222
-0.296376 -0.421452 -0.571 230 232 221
-0.278974 -0.421452 -0.571 230 232 221
-0.268098 -0.421452 -0.571 231 232 224
-0.264835 -0.421452 -0.571 231 232 224
-0.247433 -0.421452 -0.571 230 231 223
-0.23982 -0.421452 -0.571 230 231 223
-0.228543 -0.420714 -0.57 232 233 225
-0.225286 -0.420714 -0.57 233 234 226
-0.2242 -0.420714 -0.57 233 234 226
-0.2166 -0.420714 -0.57 232 233 225
-0.214805 -0.421452 -0.571 232 233 225
-0.04158 -0.4185 -0.567 196 189 179
-0.0250905 -0.353548 -0.479 206 160 124
-0.0132019 -0.35281 -0.478 202 159 127
-0.011381 -0.35281 -0.478 201 158 126
0.00137429 -0.355024 -0.481 177 140 111
0.00978 -0.360929 -0.489 155 117 98
0.01562 -0.366833 -0.497 145 108 92
0.469857 -0.373476 -0.506 168 126 104
0.470017 -0.367571 -0.498 171 126 103
0.470957 -0.365357 -0.495 172 127 106
0.484747 -0.36019 -0.488 166 120 97
0.4914 -0.361667 -0.49 161 115 92
0.511831 -0.36831 -0.499 152 107 84
0.514837 -0.369786 -0.501 150 105 82
0.57881 -0.405952 -0.55 149 122 103
0.920966 -0.411857 -0.558 204 207 190
0.950083 -0.411119 -0.557 204 206 192
0.952851 -0.411857 -0.558 205 207 193
0.95857 -0.411119 -0.557 204 206 192
0.979789 -0.411119 -0.557 204 206 193
1.00207 -0.411119 -0.557 203 205 191
1.00525 -0.411119 -0.557 201 205 190
-0.343144 -0.42254 -0.571 228 229 223
-0.33553 -0.42254 -0.571 227 228 223
-0.333355 -0.42254 -0.571 227 228 223
-0.33118 -0.42254 -0.571 229 230 224
-0.327917 -0.42254 -0.571 228 229 223
-0.324654 -0.42254 -0.571 228 229 223
-0.315953 -0.42254 -0.571 229 230 222
-0.313778 -0.42254 -0.571 227 228 220
-0.306714 -0.4218 -0.57 229 230 222
-0.288763 -0.42254 -0.571 230 231 223
-0.282237 -0.42254 -0.571 230 231 223
-0.276799 -0.42254 -0.571 230 231 223
-0.265923 -0.42254 -0.571 231 232 224
-0.253514 -0.4218 -0.57 231 233 222
-0.232886 -0.4218 -0.57 231 232 224
-0.229629 -0.4218 -0.57 230 231 223
-0.2242 -0.4218 -0.57 233 234 226
-0.205743 -0.4218 -0.57 232 233 225
-0.204657 -0.4218 -0.57 233 234 226
-0.194886 -0.4218 -0.57 233 234 228
-0.174257 -0.4218 -0.57 234 235 227
-0.0270276 -0.35594 -0.481 197 158 125
-0.0177171 -0.35298 -0.477 204 161 129
-0.0122657 -0.35298 -0.477 201 160 128
-0.0050181 -0.35446 -0.479 189 151 115
0.00694286 -0.35964 -0.486 159 121 98
0.00883048 -0.36112 -0.488 156 118 97
0.0126771 -0.36482 -0.493 149 110 93
0.0146438 -0.36704 -0.496 147 108 91
0.0411171 -0.39442 -0.533 115 92 86
0.470704 -0.37666 -0.509 167 126 104
0.4719 -0.3663 -0.495 177 131 108
0.474633 -0.36334 -0.491 175 129 106
0.475533 -0.3626 -0.49 171 125 102
0.483817 -0.36112 -0.488 168 122 99
0.912463 -0.41292 -0.558 206 209 192
0.9469 -0.41218 -0.557 205 208 191
0.953266 -0.41218 -0.557 204 206 192
0.955388 -0.41218 -0.557 203 205 191
0.960027 -0.41144 -0.556 204 206 192
0.961086 -0.41144 -0.556 204 206 192
0.966381 -0.41144 -0.556 204 207 190
0.972735 -0.41144 -0.556 203 205 191
0.981208 -0.41144 -0.556 203 205 191
0.998152 -0.41144 -0.556 203 207 190
1.00768 -0.41144 -0.556 202 206 189
1.01616 -0.41144 -0.556 201 205 188
-0.319743 -0.422886 -0.57 228 229 223
-0.313229 -0.422886 -0.57 227 228 220
-0.303457 -0.422886 -0.57 228 229 221
-0.290429 -0.422886 -0.57 230 231 223
-0.282829 -0.422886 -0.57 230 231 223
-0.248734 -0.422144 -0.569 230 232 221
-0.221639 -0.422144 -0.569 230 231 223
-0.209717 -0.422144 -0.569 231 232 224
-0.02904 -0.359082 -0.484 197 158 125
0.00600476 -0.359824 -0.485 160 124 102
0.017619 -0.370952 -0.5 140 107 90
0.03108 -0.384307 -0.518 120 96 86
0.0321286 -0.385049 -0.519 119 95 85
0.0354324 -0.388758 -0.524 120 95 88
0.054541 -0.412499 -0.556 113 92 87
0.0585486 -0.418434 -0.564 118 108 109
0.0598343 -0.419918 -0.566 191 181 182
0.502361 -0.413241 -0.557 141 116 109
0.471888 -0.366501 -0.494 172 127 106
0.476426 -0.362791 -0.489 176 130 106
0.516746 -0.371694 -0.501 149 107 83
0.928864 -0.413241 -0.557 205 208 189
0.935229 -0.413241 -0.557 205 208 189
0.948377 -0.412499 -0.556 204 206 192
0.960414 -0.411757 -0.555 204 206 192
0.963586 -0.411757 -0.555 205 207 193
0.9657 -0.411757 -0.555 205 208 191
0.966757 -0.411757 -0.555 205 208 191
0.984729 -0.411757 -0.555 203 207 192
1.00133 -0.412499 -0.556 202 206 189
1.01404 -0.412499 -0.556 203 207 190
-0.346277 -0.423228 -0.569 228 229 223
-0.339286 -0.423971 -0.57 227 228 222
-0.321914 -0.423971 -0.57 228 229 223
-0.312679 -0.423228 -0.569 228 229 221
-0.304009 -0.423228 -0.569 229 231 220
-0.273057 -0.423971 -0.57 231 232 224
-0.260656 -0.423228 -0.569 230 231 223
-0.196711 -0.423228 -0.569 232 233 227
-0.177203 -0.423228 -0.569 233 234 226
-0.0327257 -0.370417 -0.498 198 158 123
-0.0168086 -0.354797 -0.477 199 158 126
-0.000457143 -0.357029 -0.48 179 140 107
0.04466 -0.400913 -0.539 116 93 87
0.476839 -0.387525 -0.521 155 118 99
0.469968 -0.373392 -0.502 175 133 111
0.47001 -0.371161 -0.499 176 129 109
0.474633 -0.36521 -0.491 176 129 109
0.495133 -0.364467 -0.49 157 112 89
0.499966 -0.365954 -0.492 162 114 91
0.501921 -0.366698 -0.493 160 116 91
0.930373 -0.413558 -0.556 205 208 189
0.944141 -0.413558 -0.556 204 206 192
0.944557 -0.412814 -0.555 204 206 192
0.950495 -0.413558 -0.556 204 206 192
0.954071 -0.412814 -0.555 205 207 193
0.962529 -0.412814 -0.555 206 208 194
0.972043 -0.412814 -0.555 203 206 189
0.975214 -0.412814 -0.555 203 205 191
0.994243 -0.412814 -0.555 202 206 189
0.998471 -0.412814 -0.555 202 206 189
1.00481 -0.412814 -0.555 202 206 189
-0.336029 -0.425057 -0.57 228 229 223
-0.322433 -0.424311 -0.569 228 229 223
-0.288835 -0.424311 -0.569 229 231 220
-0.283416 -0.424311 -0.569 229 231 220
-0.257405 -0.424311 -0.569 230 232 219
-0.248297 -0.423566 -0.568 230 231 223
-0.241806 -0.423566 -0.568 231 233 222
-0.237896 -0.424311 -0.569 231 233 222
-0.235729 -0.424311 -0.569 231 233 222
-0.225974 -0.424311 -0.569 232 233 225
-0.219086 -0.423566 -0.568 230 231 223
-0.202857 -0.423566 -0.568 232 233 225
-0.199611 -0.423566 -0.568 232 233 227
-0.19312 -0.423566 -0.568 232 233 227
-0.0324629 -0.368383 -0.494 199 159 124
0.00694286 -0.362417 -0.486 156 120 96
0.00788476 -0.363163 -0.487 155 117 96
0.0226495 -0.377331 -0.506 134 100 90
0.0434714 -0.400449 -0.537 115 94 89
0.469968 -0.374349 -0.502 173 126 108
0.47 -0.372857 -0.5 175 128 108
0.4746 -0.3654 -0.49 179 131 111
0.475494 -0.364654 -0.489 174 126 106
0.476426 -0.364654 -0.489 176 128 108
0.951957 -0.413871 -0.555 205 207 193
0.973457 -0.413126 -0.554 204 206 192
0.986843 -0.413871 -0.555 203 207 192
0.9879 -0.413871 -0.555 203 207 192
0.990014 -0.413871 -0.555 203 207 192
1.00799 -0.413871 -0.555 201 205 188
-0.342423 -0.424648 -0.568 227 228 222
-0.31213 -0.424648 -0.568 229 230 224
-0.30672 -0.424648 -0.568 229 230 224
-0.304556 -0.424648 -0.568 228 229 223
-0.267159 -0.425395 -0.569 230 232 221
-0.242888 -0.424648 -0.568 231 232 224
-0.220168 -0.424648 -0.568 232 234 223
-0.203939 -0.424648 -0.568 232 233 225
-0.0185867 -0.355867 -0.476 201 160 128
-0.0059181 -0.357362 -0.478 189 146 114
0.00229524 -0.360352 -0.482 170 130 104
0.0098 -0.366333 -0.49 155 114 94
0.04706 -0.405957 -0.543 115 94 89
0.50523 -0.417919 -0.559 136 108 104
0.50086 -0.413433 -0.553 142 114 110
0.4719 -0.370071 -0.495 173 126 106
0.47281 -0.368576 -0.493 175 128 108
0.495133 -0.366333 -0.49 161 117 92
0.499885 -0.367081 -0.491 157 113 88
0.511589 -0.370819 -0.496 153 111 87
0.54008 -0.385771 -0.516 150 108 83
0.91131 -0.415676 -0.556 206 208 194
0.933986 -0.414929 -0.555 205 208 189
0.944557 -0.414929 -0.555 204 207 190
0.959739 -0.414181 -0.554 205 208 191
0.965015 -0.414181 -0.554 205 207 193
0.970291 -0.414181 -0.554 203 206 189
0.988231 -0.414181 -0.554 201 205 190
-0.291573 -0.42573 -0.568 229 230 222
-0.290491 -0.42573 -0.568 229 230 222
-0.274263 -0.42573 -0.568 230 232 221
-0.273181 -0.42573 -0.568 230 232 221
-0.248297 -0.42573 -0.568 230 231 223
-0.23315 -0.42573 -0.568 231 232 224
-0.21222 -0.42498 -0.567 231 233 222
-0.19602 -0.42498 -0.567 232 233 228
-0.0249333 -0.356773 -0.476 202 161 129
-0.0204 -0.356773 -0.476 204 164 129
-0.00954 -0.357523 -0.477 193 150 118
-0.00409714 -0.358272 -0.478 186 146 111
-0.000457143 -0.359771 -0.48 179 138 108
0.0321286 -0.389003 -0.519 119 94 87
0.0387933 -0.396498 -0.529 115 92 86
0.505067 -0.419733 -0.56 129 105 103
0.47281 -0.369515 -0.493 172 125 105
0.473698 -0.368016 -0.491 171 125 102
0.474633 -0.368016 -0.491 171 125 102
0.481898 -0.365018 -0.487 167 119 97
0.483753 -0.365018 -0.487 165 117 95
0.512533 -0.371764 -0.496 152 110 86
0.590406 -0.415236 -0.554 186 177 172
0.924471 -0.415986 -0.555 204 207 190
0.935043 -0.415986 -0.555 204 207 190
0.952352 -0.415236 -0.554 205 208 191
0.9717 -0.414487 -0.553 204 206 192
0.98118 -0.414487 -0.553 204 206 192
0.991396 -0.415236 -0.554 203 205 191
-0.33102 -0.42606 -0.567 226 229 222
-0.3213 -0.42606 -0.567 228 229 223
-0.31158 -0.42606 -0.567 229 230 224
-0.30726 -0.42606 -0.567 229 230 224
-0.300229 -0.426811 -0.568 228 229 223
-0.292655 -0.426811 -0.568 228 229 221
-0.279672 -0.426811 -0.568 231 233 222
-0.26298 -0.42606 -0.567 230 232 221
-0.22302 -0.42606 -0.567 231 232 224
-0.21978 -0.42606 -0.567 231 232 224
-0.201065 -0.425309 -0.566 231 232 224
-0.198909 -0.425309 -0.566 231 232 226
-0.18846 -0.42606 -0.567 232 233 225
-0.0203571 -0.356929 -0.475 206 163 129
-0.01768 -0.35768 -0.476 203 160 128
-0.0104267 -0.35768 -0.476 193 152 120
-0.00952 -0.35768 -0.476 190 149 117
-0.00772286 -0.358431 -0.477 192 149 117
-0.00136857 -0.359934 -0.479 180 139 109
0.00229524 -0.362189 -0.482 166 129 103
0.0117143 -0.369703 -0.492 148 111 92
0.0279029 -0.386234 -0.514 124 97 88
0.0520457 -0.414789 -0.552 113 93 86
0.0585486 -0.423806 -0.564 183 177 181
0.484161 -0.397506 -0.529 150 114 98
0.4815 -0.3945 -0.525 149 113 97
0.470964 -0.372709 -0.496 176 128 106
0.471909 -0.372709 -0.496 176 128 106
0.471871 -0.370454 -0.493 169 122 102
0.475533 -0.3682 -0.49 176 130 107
0.482826 -0.365946 -0.487 169 121 99
0.52865 -0.380223 -0.506 148 106 82
0.916014 -0.417043 -0.555 205 207 193
0.924916 -0.416291 -0.554 205 207 193
0.928082 -0.416291 -0.554 203 206 189
0.932303 -0.416291 -0.554 204 207 190
0.934413 -0.416291 -0.554 205 208 191
0.940745 -0.416291 -0.554 205 207 193
0.950242 -0.416291 -0.554 204 206 192
0.954463 -0.416291 -0.554 205 207 193
0.954847 -0.41554 -0.553 205 207 193
0.963273 -0.41554 -0.553 205 207 193
0.99698 -0.41554 -0.553 203 206 189
1.00751 -0.41554 -0.553 203 206 189
-0.33426 -0.42714 -0.567 227 230 221
-0.31806 -0.42714 -0.567 227 228 222
-0.3051 -0.42714 -0.567 229 230 224
-0.2889 -0.42714 -0.567 229 231 220
-0.26946 -0.42714 -0.567 230 232 221
-0.2619 -0.42714 -0.567 230 232 221
-0.2511 -0.42714 -0.567 230 231 223
-0.23814 -0.42714 -0.567 230 232 221
-0.23058 -0.42714 -0.567 232 233 225
-0.191362 -0.426387 -0.566 231 232 224
-0.0338581 -0.366873 -0.487 198 160 124
-0.0276533 -0.358587 -0.476 205 162 128
-0.0221667 -0.357833 -0.475 202 162 127
-0.0194524 -0.357833 -0.475 202 159 127
-0.0176429 -0.357833 -0.475 204 161 129
-0.00319333 -0.360847 -0.479 182 141 109
0.00414857 -0.364613 -0.484 161 120 100
0.0117143 -0.37064 -0.492 148 111 92
0.0166333 -0.375913 -0.499 141 103 90
0.0279029 -0.387213 -0.514 123 96 87
0.4719 -0.3729 -0.495 179 132 112
0.479115 -0.366873 -0.487 174 126 104
0.516407 -0.374407 -0.497 151 109 85
0.914364 -0.417347 -0.554 205 208 191
0.923861 -0.417347 -0.554 205 208 191
0.929567 -0.416593 -0.553 205 208 191
0.934413 -0.417347 -0.554 205 208 191
0.948131 -0.417347 -0.554 203 205 191
0.965737 -0.41584 -0.552 203 205 191
0.968891 -0.41584 -0.552 204 207 190
0.969943 -0.41584 -0.552 204 207 190
0.970994 -0.41584 -0.552 203 206 189
0.980457 -0.41584 -0.552 203 207 192
1.00857 -0.416593 -0.553 204 207 190
-0.33534 -0.42822 -0.567 227 230 221
-0.321811 -0.427465 -0.566 228 229 223
-0.30564 -0.427465 -0.566 228 229 223
-0.28839 -0.427465 -0.566 228 229 221
-0.194252 -0.42671 -0.565 231 232 226
-0.182737 -0.427465 -0.566 232 233 225
-0.165488 -0.427465 -0.566 233 234 228
-0.161175 -0.427465 -0.566 234 235 229
-0.0313457 -0.360249 -0.477 200 159 127
-0.0294667 -0.359493 -0.476 201 160 128
-0.0167381 -0.358738 -0.475 203 160 126
-0.00770667 -0.359493 -0.476 189 148 116
-0.00499714 -0.360249 -0.477 186 146 110
0.00322 -0.36478 -0.483 165 125 99
0.0107552 -0.370822 -0.491 152 111 91
0.0257933 -0.385927 -0.511 122 98 88
0.0354324 -0.395745 -0.524 116 93 87
0.47804 -0.391213 -0.518 151 114 96
0.472776 -0.381395 -0.505 171 125 109
0.476381 -0.368556 -0.488 170 124 101
0.497849 -0.369311 -0.489 161 117 92
0.5026 -0.370067 -0.49 159 115 90
0.939047 -0.417647 -0.553 205 207 193
0.955223 -0.416891 -0.552 204 207 190
0.96048 -0.416891 -0.552 203 207 192
0.966087 -0.416136 -0.551 202 206 191
0.970994 -0.416891 -0.552 203 207 190
0.9752 -0.416891 -0.552 203 206 189
0.999383 -0.416891 -0.552 203 206 189
1.00254 -0.416891 -0.552 203 206 189
-0.339061 -0.428543 -0.566 226 229 220
-0.325548 -0.427786 -0.565 228 229 223
-0.31909 -0.427786 -0.565 228 229 221
-0.27761 -0.428543 -0.566 229 230 222
-0.272219 -0.428543 -0.566 230 232 221
-0.268985 -0.428543 -0.566 230 232 221
-0.259282 -0.428543 -0.566 229 231 220
-0.21508 -0.428543 -0.566 230 231 223
-0.214002 -0.428543 -0.566 230 231 223
-0.205014 -0.427786 -0.565 231 232 224
-0.0478057 -0.427029 -0.564 215 197 183
-0.0425829 -0.417943 -0.552 194 160 132
-0.0212171 -0.358886 -0.474 203 162 130
-0.0149286 -0.359643 -0.475 202 159 125
-0.013119 -0.359643 -0.475 201 158 124
0.0387933 -0.400529 -0.529 111 92 88
0.487003 -0.402043 -0.531 143 114 106
0.477177 -0.390686 -0.516 160 121 106
0.472862 -0.377814 -0.499 174 126 106
0.47375 -0.373271 -0.493 172 125 105
0.47824 -0.369486 -0.488 174 126 104
0.487464 -0.368729 -0.487 167 121 97
0.5084 -0.372514 -0.492 150 108 83
0.517353 -0.3763 -0.497 146 106 81
0.916927 -0.4187 -0.553 204 207 188
0.919033 -0.4187 -0.553 203 206 187
0.92114 -0.4187 -0.553 205 208 189
0.925353 -0.4187 -0.553 204 207 188
0.93378 -0.4187 -0.553 204 207 190
0.939047 -0.4187 -0.553 204 206 192
0.941554 -0.417943 -0.552 205 207 193
0.946811 -0.417943 -0.552 203 205 191
0.961531 -0.417943 -0.552 203 207 192
0.963988 -0.417186 -0.551 201 205 190
0.967136 -0.417186 -0.551 202 206 191
0.988869 -0.417943 -0.552 202 206 191
0.994126 -0.417943 -0.552 202 204 190
-0.336905 -0.429621 -0.566 225 228 219
-0.3277 -0.428862 -0.565 227 228 222
-0.324471 -0.428862 -0.565 227 228 222
-0.260976 -0.428862 -0.565 228 230 219
-0.255595 -0.428862 -0.565 228 229 221
-0.244833 -0.428862 -0.565 228 229 221
-0.2373 -0.428862 -0.565 229 231 220
-0.204651 -0.428103 -0.564 231 232 224
-0.203577 -0.428103 -0.564 231 232 224
-0.202862 -0.428862 -0.565 231 232 224
-0.186719 -0.428862 -0.565 231 232 226
-0.161967 -0.428862 -0.565 234 235 229
-0.0464 -0.425067 -0.56 201 182 165
-0.0335105 -0.365861 -0.482 196 157 126
-0.00499714 -0.362066 -0.477 186 143 109
-0.00318667 -0.362825 -0.478 182 139 107
-0.00136857 -0.363584 -0.479 179 135 106
0.474633 -0.372692 -0.491 177 131 108
0.501574 -0.371174 -0.489 161 115 89
0.507367 -0.372692 -0.491 154 112 87
0.511311 -0.37421 -0.493 150 108 83
0.525334 -0.380283 -0.501 150 109 89
0.590333 -0.417476 -0.55 192 182 173
0.835221 -0.420512 -0.554 209 211 197
0.842608 -0.420512 -0.554 207 209 195
0.918423 -0.418994 -0.552 204 207 190
0.936297 -0.418994 -0.552 204 206 192
0.975532 -0.418235 -0.551 201 205 190
0.989176 -0.418235 -0.551 201 205 190
0.99728 -0.418994 -0.552 203 206 189
1.00464 -0.418994 -0.552 203 206 189
-0.318526 -0.429177 -0.564 228 229 221
-0.300263 -0.429177 -0.564 229 230 224
-0.293817 -0.429177 -0.564 229 230 224
-0.29111 -0.429938 -0.565 229 230 224
-0.283576 -0.429938 -0.565 228 229 221
-0.271738 -0.429938 -0.565 230 232 221
-0.269586 -0.429938 -0.565 229 231 220
-0.24591 -0.429938 -0.565 229 230 222
-0.220081 -0.429938 -0.565 231 232 226
-0.178869 -0.429177 -0.564 232 233 227
-0.0220733 -0.35993 -0.473 202 162 127
-0.0095 -0.361452 -0.475 191 148 114
-0.00409714 -0.363735 -0.478 184 139 108
-0.00228095 -0.364496 -0.479 178 135 103
0.0572705 -0.427655 -0.562 167 159 170
0.47375 -0.37515 -0.493 176 129 109
0.47731 -0.371345 -0.488 175 127 105
0.484611 -0.369823 -0.486 169 121 98
0.487389 -0.369823 -0.486 166 119 93
0.491174 -0.370584 -0.487 161 114 88
0.500549 -0.371345 -0.488 161 115 89
0.504369 -0.372106 -0.489 160 114 88
0.516214 -0.376671 -0.495 154 110 85
0.834767 -0.420807 -0.553 207 209 196
0.91632 -0.420046 -0.552 203 206 189
0.919474 -0.420046 -0.552 203 206 189
0.936297 -0.420046 -0.552 204 206 193
0.954542 -0.419285 -0.551 203 205 191
0.95874 -0.419285 -0.551 202 206 191
-0.343234 -0.430251 -0.564 225 228 219
-0.316889 -0.429489 -0.563 227 228 222
-0.293817 -0.430251 -0.564 229 230 224
-0.272814 -0.431014 -0.565 230 232 221
-0.255143 -0.430251 -0.564 228 230 219
-0.252994 -0.430251 -0.564 228 230 219
-0.2444 -0.430251 -0.564 227 229 218
-0.189611 -0.430251 -0.564 232 233 225
-0.172423 -0.430251 -0.564 233 234 228
-0.16168 -0.430251 -0.564 233 234 228
-0.0497771 -0.428726 -0.562 210 194 178
-0.0158 -0.361594 -0.474 201 158 126
-0.00499714 -0.363883 -0.477 186 143 111
0.000458095 -0.366934 -0.481 170 128 103
0.00229524 -0.367697 -0.482 165 124 102
0.00322 -0.36846 -0.483 161 120 98
0.0098 -0.3738 -0.49 148 112 100
0.0117381 -0.376089 -0.493 145 108 99
0.0399514 -0.405077 -0.531 115 94 89
0.476426 -0.373037 -0.489 173 127 104
0.48276 -0.370749 -0.486 171 125 101
0.51319 -0.376089 -0.493 153 109 84
0.58923 -0.418046 -0.548 203 185 165
0.93104 -0.421097 -0.552 205 208 191
0.947195 -0.420334 -0.551 204 206 192
0.951762 -0.419571 -0.55 204 206 192
0.95281 -0.419571 -0.55 203 205 191
0.960839 -0.420334 -0.551 202 206 192
0.966087 -0.420334 -0.551 203 207 192
0.97973 -0.420334 -0.551 201 205 190
0.983929 -0.420334 -0.551 202 206 189
0.986028 -0.420334 -0.551 201 205 188
0.994424 -0.420334 -0.551 203 205 191
-0.339409 -0.430561 -0.563 226 229 220
-0.33464 -0.431326 -0.564 225 228 219
-0.332491 -0.431326 -0.564 227 230 221
-0.32654 -0.430561 -0.563 228 229 223
-0.323323 -0.430561 -0.563 228 229 223
-0.310454 -0.430561 -0.563 228 229 223
-0.30402 -0.430561 -0.563 227 228 222
-0.301875 -0.430561 -0.563 228 229 223
-0.294369 -0.430561 -0.563 229 230 224
-0.287371 -0.431326 -0.564 228 229 221
-0.231509 -0.431326 -0.564 229 231 220
-0.172117 -0.430561 -0.563 233 234 226
-0.0472124 -0.425972 -0.557 195 169 142
-0.029281 -0.361732 -0.473 201 162 129
0.00695714 -0.372439 -0.487 150 111 94
0.0107771 -0.376263 -0.492 147 109 98
0.0289381 -0.393852 -0.515 121 96 91
0.0354324 -0.400735 -0.524 117 93 89
0.0387933 -0.404559 -0.529 115 94 89
0.473812 -0.381616 -0.499 171 126 107
0.476467 -0.374733 -0.49 170 124 101
0.477357 -0.373969 -0.489 176 128 106
0.47731 -0.373204 -0.488 176 128 106
0.514129 -0.377028 -0.493 153 109 84
0.622129 -0.424443 -0.555 204 204 194
0.923056 -0.421384 -0.551 205 208 191
0.948245 -0.421384 -0.551 203 205 191
0.977631 -0.421384 -0.551 203 206 189
0.986028 -0.421384 -0.551 203 206 189
0.993374 -0.421384 -0.551 201 205 188
-0.342626 -0.431633 -0.563 225 228 219
-0.338336 -0.431633 -0.563 226 229 220
-0.334047 -0.431633 -0.563 226 229 220
-0.284717 -0.431633 -0.563 228 229 221
-0.255763 -0.431633 -0.563 227 229 218
-0.24075 -0.431633 -0.563 230 232 221
-0.230434 -0.4324 -0.564 229 231 220
-0.186058 -0.431633 -0.563 231 232 226
-0.144235 -0.431633 -0.563 235 236 228
-0.04836 -0.4278 -0.558 191 171 146
-0.0256229 -0.361867 -0.472 202 162 127
-0.0202286 -0.361867 -0.472 199 159 124
-0.00408857 -0.3657 -0.477 180 139 107
0.0107771 -0.3772 -0.492 147 108 93
0.0494905 -0.419367 -0.547 113 93 92
0.494448 -0.412467 -0.538 136 112 100
0.47375 -0.377967 -0.493 176 131 108
0.476426 -0.3749 -0.489 176 130 107
0.47731 -0.374133 -0.488 175 129 105
0.479983 -0.3726 -0.486 172 124 101
0.480909 -0.3726 -0.486 174 126 103
0.483686 -0.3726 -0.486 169 121 98
0.487389 -0.3726 -0.486 166 120 96
0.503337 -0.374133 -0.488 159 115 90
0.837463 -0.4232 -0.552 207 209 196
0.917809 -0.422433 -0.551 203 205 191
0.927254 -0.422433 -0.551 203 206 189
0.943381 -0.421667 -0.55 203 205 191
-0.32703 -0.431937 -0.562 227 228 222
-0.316326 -0.431937 -0.562 226 227 221
-0.314185 -0.431937 -0.562 227 228 222
-0.301339 -0.431937 -0.562 228 229 223
-0.286862 -0.432706 -0.563 229 230 222
-0.276138 -0.432706 -0.563 229 230 222
-0.252097 -0.431937 -0.562 229 231 220
-0.249956 -0.431937 -0.562 229 231 220
-0.247184 -0.432706 -0.563 228 230 219
-0.239677 -0.432706 -0.563 229 231 220
-0.234315 -0.432706 -0.563 229 231 220
-0.204996 -0.431937 -0.562 230 231 223
-0.19215 -0.431937 -0.562 232 233 227
-0.19001 -0.431937 -0.562 232 233 227
-0.186798 -0.431937 -0.562 231 232 226
-0.181446 -0.431937 -0.562 231 232 226
-0.170741 -0.431937 -0.562 232 233 227
-0.00227619 -0.367377 -0.478 173 132 102
0.00791714 -0.375831 -0.489 148 110 97
0.02064 -0.38736 -0.504 130 98 87
0.0434714 -0.412723 -0.537 118 94 94
0.4747 -0.388129 -0.505 167 125 103
0.474753 -0.38198 -0.497 172 127 104
0.476381 -0.375063 -0.488 174 128 104
0.496646 -0.373526 -0.486 165 119 95
0.502306 -0.374294 -0.487 160 116 91
0.510067 -0.3766 -0.49 154 112 88
0.598789 -0.424251 -0.552 193 193 183
0.636836 -0.425789 -0.554 206 206 196
0.918238 -0.422714 -0.55 203 205 191
0.921381 -0.422714 -0.55 205 208 191
0.933952 -0.422714 -0.55 203 205 191
0.943381 -0.422714 -0.55 203 205 191
0.947571 -0.422714 -0.55 205 207 193
0.951762 -0.422714 -0.55 203 205 191
-0.331312 -0.433008 -0.562 226 229 222
-0.298128 -0.433008 -0.562 227 228 222
-0.287423 -0.433008 -0.562 228 229 221
-0.28207 -0.433008 -0.562 229 230 222
-0.249956 -0.433008 -0.562 228 230 219
-0.240322 -0.433008 -0.562 229 231 220
-0.16967 -0.433008 -0.562 232 233 227
-0.155754 -0.433008 -0.562 233 236 229
-0.0301181 -0.363665 -0.472 202 163 130
-0.0148343 -0.363665 -0.472 199 159 124
0.00229524 -0.37137 -0.482 162 121 101
0.00695714 -0.375222 -0.487 149 110 95
0.478188 -0.375222 -0.487 177 131 105
0.48924 -0.374451 -0.486 170 123 97
0.490166 -0.374451 -0.486 168 121 95
0.499423 -0.374451 -0.486 162 116 92
0.507055 -0.375992 -0.488 158 113 90
0.93081 -0.423762 -0.55 204 206 192
-0.328586 -0.433306 -0.561 226 229 222
-0.292775 -0.434078 -0.562 228 229 223
-0.211043 -0.433306 -0.561 230 231 223
-0.187534 -0.433306 -0.561 231 232 224
-0.18326 -0.433306 -0.561 232 233 225
-0.15334 -0.433306 -0.561 233 236 229
-0.0328152 -0.364564 -0.472 200 161 128
-0.00948 -0.366109 -0.474 186 145 113
-0.00767429 -0.366109 -0.474 183 142 110
-0.00408 -0.367653 -0.476 176 135 105
-0.00227619 -0.369198 -0.478 172 131 103
-0.00045619 -0.36997 -0.479 168 126 101
0.0146733 -0.383873 -0.497 140 103 85
0.017619 -0.38619 -0.5 131 100 82
0.0216429 -0.390052 -0.505 130 98 85
0.0257429 -0.393914 -0.51 122 95 84
0.04706 -0.419403 -0.543 112 93 89
0.480176 -0.397776 -0.515 151 118 101
0.474757 -0.386963 -0.501 168 126 104
0.474663 -0.380011 -0.492 173 129 104
0.485462 -0.374605 -0.485 169 123 97
0.4947 -0.374605 -0.485 169 121 98
-0.326449 -0.434374 -0.561 227 228 222
-0.300267 -0.4336 -0.56 227 228 222
-0.281569 -0.434374 -0.561 229 230 222
-0.276718 -0.435149 -0.562 228 229 221
-0.272436 -0.435149 -0.562 228 230 219
-0.270295 -0.435149 -0.562 229 230 222
-0.239894 -0.434374 -0.561 229 230 222
-0.2096 -0.4336 -0.56 231 233 222
-0.187534 -0.434374 -0.561 231 232 224
-0.181123 -0.434374 -0.561 233 234 226
-0.177917 -0.434374 -0.561 233 234 226
-0.163733 -0.4336 -0.56 232 233 225
-0.16082 -0.434374 -0.561 233 235 224
-0.134106 -0.434374 -0.561 233 234 226
-0.0527057 -0.432826 -0.559 203 192 174
-0.0237743 -0.364689 -0.471 204 163 131
-0.02198 -0.364689 -0.471 203 162 130
-0.0121371 -0.365463 -0.472 192 151 119
-0.00767429 -0.367011 -0.474 183 142 112
-0.00677143 -0.367011 -0.474 184 140 111
0.00137429 -0.372431 -0.481 161 120 98
0.0343029 -0.404177 -0.522 118 95 89
0.481109 -0.399531 -0.516 149 116 101
0.475694 -0.389466 -0.503 167 124 105
0.479983 -0.376303 -0.486 175 129 105
0.4947 -0.375529 -0.485 171 121 96
0.497471 -0.375529 -0.485 162 116 92
0.602994 -0.427406 -0.552 194 195 187
-0.325867 -0.434667 -0.56 226 227 221
-0.293323 -0.435443 -0.561 228 229 223
-0.290117 -0.435443 -0.561 229 230 224
-0.259129 -0.435443 -0.561 228 229 221
-0.218523 -0.435443 -0.561 230 232 221
-0.2096 -0.434667 -0.56 230 232 221
-0.202837 -0.43389 -0.559 229 231 220
-0.195384 -0.43389 -0.559 231 232 224
-0.194319 -0.43389 -0.559 231 232 224
-0.1712 -0.434667 -0.56 232 233 225
-0.024619 -0.36481 -0.47 203 164 131
-0.0192886 -0.365586 -0.471 199 158 126
0.03102 -0.40129 -0.517 118 95 87
0.0365 -0.4075 -0.525 114 95 89
0.0376429 -0.409052 -0.527 113 94 88
0.5018 -0.4238 -0.546 128 111 104
0.475713 -0.387319 -0.499 170 126 101
0.475628 -0.382662 -0.493 174 128 104
0.478131 -0.377229 -0.486 176 130 104
0.481767 -0.376452 -0.485 174 128 102
0.493776 -0.376452 -0.485 169 122 96
0.503126 -0.377229 -0.486 161 115 89
0.504977 -0.377229 -0.486 159 113 87
0.506944 -0.378005 -0.487 156 110 84
0.510773 -0.378781 -0.488 156 112 87
0.827095 -0.426905 -0.55 208 210 196
-0.3376 -0.435733 -0.56 224 227 218
-0.332738 -0.434955 -0.559 224 227 218
-0.315702 -0.434955 -0.559 227 228 222
-0.291733 -0.435733 -0.56 227 228 222
-0.285333 -0.435733 -0.56 229 231 220
-0.253333 -0.435733 -0.56 227 228 220
-0.250133 -0.435733 -0.56 229 230 222
-0.243733 -0.435733 -0.56 228 229 221
-0.231346 -0.436511 -0.561 228 229 221
-0.199643 -0.434955 -0.559 230 231 223
-0.18793 -0.434955 -0.559 232 233 225
-0.186133 -0.435733 -0.56 231 232 224
-0.166933 -0.435733 -0.56 232 233 225
-0.157333 -0.435733 -0.56 234 235 229
-0.147733 -0.435733 -0.56 232 235 226
-0.146667 -0.435733 -0.56 232 235 226
-0.140267 -0.435733 -0.56 232 235 226
-0.0201429 -0.365705 -0.47 200 159 127
-0.0076581 -0.368039 -0.473 184 140 111
-0.00045619 -0.372708 -0.479 165 123 99
0.00321333 -0.375042 -0.482 157 116 96
0.0107771 -0.382823 -0.492 142 105 87
0.03102 -0.402275 -0.517 118 95 87
0.475705 -0.390604 -0.502 169 127 105
0.474729 -0.385157 -0.495 174 130 105
0.476332 -0.378932 -0.487 175 129 105
0.478071 -0.377376 -0.485 174 130 103
0.509727 -0.378932 -0.487 158 112 86
0.599717 -0.427174 -0.549 193 193 183
-0.317263 -0.43524 -0.558 225 226 220
-0.309313 -0.43602 -0.559 227 228 222
-0.2896 -0.4368 -0.56 227 228 220
-0.284267 -0.4368 -0.56 229 230 222
-0.265067 -0.4368 -0.56 228 229 221
-0.251816 -0.43602 -0.559 228 229 221
-0.2352 -0.4368 -0.56 228 229 221
-0.209226 -0.43602 -0.559 229 230 222
-0.191125 -0.43602 -0.559 231 233 222
-0.159182 -0.43602 -0.559 233 234 226
-0.148534 -0.43602 -0.559 232 235 226
-0.146405 -0.43602 -0.559 232 235 226
-0.0112381 -0.36816 -0.472 186 146 111
-0.00497619 -0.3705 -0.475 176 131 108
0.00321333 -0.37596 -0.482 157 116 96
0.00694286 -0.37908 -0.486 149 108 90
0.0166333 -0.38922 -0.499 132 99 84
0.04466 -0.42042 -0.539 112 95 85
0.514614 -0.38142 -0.489 158 114 87
0.51859 -0.38298 -0.491 158 114 87
0.599717 -0.42822 -0.549 192 192 180
-0.333206 -0.436303 -0.558 226 227 221
-0.317263 -0.436303 -0.558 225 226 220
-0.3162 -0.436303 -0.558 225 226 220
-0.299194 -0.436303 -0.558 227 228 222
-0.283759 -0.437085 -0.559 228 229 221
-0.245428 -0.437085 -0.559 227 228 220
-0.21242 -0.437085 -0.559 229 230 222
-0.190783 -0.436303 -0.558 231 233 222
-0.15252 -0.436303 -0.558 232 233 227
-0.0362571 -0.367495 -0.47 198 162 128
-0.0352867 -0.366713 -0.469 198 162 128
-0.0326067 -0.366713 -0.469 200 164 128
-0.0290333 -0.366713 -0.469 201 165 129
-0.02278 -0.366713 -0.469 200 162 126
-0.00854095 -0.369059 -0.472 182 141 109
-0.00675714 -0.369841 -0.473 179 138 106
0.00694286 -0.380006 -0.486 149 108 90
0.0247229 -0.39799 -0.509 123 95 84
0.0399514 -0.415191 -0.531 114 94 87
0.04466 -0.421447 -0.539 112 94 84
0.0533857 -0.433957 -0.555 104 98 100
0.054639 -0.435521 -0.557 163 157 159
0.483614 -0.379224 -0.485 172 126 100
0.488149 -0.378442 -0.484 173 126 100
0.489992 -0.378442 -0.484 171 124 98
0.608199 -0.43083 -0.551 197 199 188
-0.319877 -0.436582 -0.557 226 227 221
-0.311949 -0.437366 -0.558 226 227 221
-0.302383 -0.437366 -0.558 227 228 222
-0.280565 -0.43815 -0.559 228 229 221
-0.278435 -0.43815 -0.559 227 228 220
-0.27737 -0.43815 -0.559 227 228 220
-0.273111 -0.43815 -0.559 229 230 222
-0.263529 -0.43815 -0.559 227 228 220
-0.23478 -0.43815 -0.559 228 229 221
-0.228391 -0.43815 -0.559 229 230 222
-0.226262 -0.43815 -0.559 229 230 222
-0.178029 -0.437366 -0.558 232 233 225
