ply
format ascii 1.0
comment Created by Open3D
element vertex 1283
property double x
property double y
property double z
property uchar red
property uchar green
property uchar blue
end_header
0.0182533 -0.28268 -0.518 203 167 145
0.0506248 -0.299051 -0.548 131 108 118
0.0597286 -0.308329 -0.565 128 102 113
0.110669 -0.350349 -0.642 148 149 177
0.123089 -0.350894 -0.643 97 114 158
0.124313 -0.350894 -0.643 87 117 171
0.169102 -0.349803 -0.641 87 106 149
0.170057 -0.349257 -0.64 94 113 156
0.172495 -0.349257 -0.64 112 129 173
0.173714 -0.349257 -0.64 107 124 168
0.174933 -0.349257 -0.64 117 134 178
0.253377 -0.348166 -0.638 162 187 227
0.266745 -0.348166 -0.638 197 218 255
0.294233 -0.34762 -0.637 141 163 213
0.342626 -0.348711 -0.639 183 193 220
0.349257 -0.349257 -0.64 91 127 179
0.351695 -0.349257 -0.64 115 146 201
0.379106 -0.349803 -0.641 127 135 148
0.406009 -0.350894 -0.643 184 186 207
0.408458 -0.350894 -0.643 79 93 128
0.42683 -0.350894 -0.643 109 128 171
0.433503 -0.350349 -0.642 177 185 204
0.446781 -0.349257 -0.64 115 137 186
0.409912 -0.292503 -0.536 141 94 84
0.41184 -0.288137 -0.528 150 102 90
0.416906 -0.285409 -0.523 151 102 88
0.44265 -0.282134 -0.517 148 99 84
0.0162486 -0.283119 -0.517 202 167 145
0.0401019 -0.291881 -0.533 157 124 119
0.0445771 -0.294619 -0.538 145 115 113
0.0518571 -0.30119 -0.55 130 107 117
0.0570667 -0.306667 -0.56 127 104 114
0.0638486 -0.313786 -0.573 122 101 118
0.108054 -0.351024 -0.641 130 139 182
0.120451 -0.351571 -0.642 114 128 163
0.122897 -0.351571 -0.642 89 108 151
0.125343 -0.351571 -0.642 66 96 150
0.167619 -0.350476 -0.64 91 110 153
0.178311 -0.349929 -0.639 211 215 240
0.255407 -0.348833 -0.637 150 174 222
0.263099 -0.349381 -0.638 182 202 253
0.264314 -0.349381 -0.638 170 190 241
0.26553 -0.349381 -0.638 167 186 228
0.269175 -0.349381 -0.638 250 255 255
0.280112 -0.349381 -0.638 182 196 223
0.283313 -0.348833 -0.637 154 172 210
0.299087 -0.348833 -0.637 177 196 238
0.3003 -0.348833 -0.637 208 220 246
0.312924 -0.349381 -0.638 186 198 224
0.34209 -0.349381 -0.638 148 157 174
0.356571 -0.350476 -0.64 161 185 233
0.373638 -0.350476 -0.64 208 205 226
0.412827 -0.300095 -0.548 124 89 85
0.410645 -0.296262 -0.541 127 89 80
0.410417 -0.294619 -0.538 134 91 82
0.409912 -0.293524 -0.536 137 94 85
0.417703 -0.286952 -0.524 149 99 88
0.433788 -0.283119 -0.517 154 102 89
0.44462 -0.283119 -0.517 141 92 75
0.454133 -0.284762 -0.52 142 96 81
0.0152638 -0.284104 -0.517 206 170 148
0.0182181 -0.284104 -0.517 202 166 144
0.0252571 -0.285752 -0.52 193 153 128
0.0335 -0.2885 -0.525 169 126 117
0.0367781 -0.290698 -0.529 161 124 118
0.0434714 -0.295094 -0.537 146 115 113
0.0445771 -0.295644 -0.538 143 112 110
0.0638486 -0.314877 -0.573 121 100 115
0.0737343 -0.324769 -0.591 121 103 115
0.110324 -0.351695 -0.64 94 103 134
0.147125 -0.352245 -0.641 156 164 187
0.157867 -0.351695 -0.64 58 86 159
0.163706 -0.351146 -0.639 67 95 168
0.287714 -0.349497 -0.636 165 180 221
0.332368 -0.350596 -0.638 219 226 252
0.34452 -0.350596 -0.638 109 123 160
0.368186 -0.351146 -0.639 187 200 232
0.377295 -0.351695 -0.64 197 205 226
0.391315 -0.352245 -0.641 130 158 205
0.441905 -0.351695 -0.64 141 143 164
0.451967 -0.350047 -0.637 85 107 156
0.449682 -0.337408 -0.614 118 93 88
0.420996 -0.31103 -0.566 127 92 90
0.41441 -0.291248 -0.53 144 97 87
0.4175 -0.2885 -0.525 148 98 87
0.419699 -0.28795 -0.524 149 101 89
0.421887 -0.287401 -0.523 152 104 92
0.428381 -0.285752 -0.52 151 102 87
0.441666 -0.284104 -0.517 151 99 85
0.455124 -0.285752 -0.52 139 93 78
0.480358 -0.294545 -0.536 127 89 76
0.00846762 -0.288397 -0.523 202 167 145
0.00942762 -0.287294 -0.521 202 167 145
0.0182181 -0.285089 -0.517 202 166 144
0.02422 -0.286191 -0.519 195 157 134
0.0283371 -0.287846 -0.522 181 138 121
0.0494 -0.30108 -0.546 133 108 114
0.0518571 -0.303286 -0.55 130 107 117
0.0624286 -0.314314 -0.57 123 101 114
0.0825314 -0.334166 -0.606 111 108 129
0.108934 -0.352363 -0.639 124 133 166
0.125148 -0.353466 -0.641 74 103 159
0.134705 -0.352914 -0.64 71 112 178
0.144457 -0.352914 -0.64 195 199 224
0.160054 -0.352363 -0.639 68 95 164
0.16831 -0.351811 -0.638 143 157 204
0.236834 -0.350709 -0.636 245 253 255
0.255006 -0.350709 -0.636 184 206 245
0.26026 -0.35126 -0.637 182 201 241
0.278023 -0.350709 -0.636 193 202 219
0.282869 -0.350709 -0.636 184 200 236
0.290137 -0.350709 -0.636 187 202 241
0.30104 -0.350709 -0.636 211 221 255
0.339127 -0.35126 -0.637 210 223 240
0.341553 -0.35126 -0.637 170 181 201
0.351811 -0.351811 -0.638 176 194 230
0.361533 -0.351811 -0.638 152 168 204
0.413292 -0.353466 -0.641 177 183 209
0.415734 -0.353466 -0.641 163 169 195
0.420618 -0.353466 -0.641 178 183 212
0.424838 -0.352914 -0.64 176 182 208
0.430933 -0.352914 -0.64 76 86 121
0.43459 -0.352914 -0.64 135 147 185
0.435129 -0.352363 -0.639 166 177 197
0.447815 -0.351811 -0.638 95 120 176
0.457084 -0.349606 -0.634 118 120 141
0.414767 -0.298323 -0.541 130 90 82
0.423879 -0.288397 -0.523 147 99 85
0.432653 -0.28564 -0.518 149 97 84
0.440681 -0.285089 -0.517 149 100 83
0.00658667 -0.294373 -0.532 205 168 142
0.0252086 -0.28718 -0.519 187 151 129
0.0303838 -0.289393 -0.523 176 134 120
0.0378571 -0.293267 -0.53 159 122 116
0.0401019 -0.294927 -0.533 153 120 115
0.04466 -0.298247 -0.539 141 110 108
0.0544429 -0.3071 -0.555 127 104 114
0.0570667 -0.309867 -0.56 128 102 113
0.07224 -0.32536 -0.588 120 104 114
0.0737343 -0.32702 -0.591 120 104 114
0.107549 -0.353027 -0.638 154 162 199
0.112586 -0.35358 -0.639 187 193 219
0.121485 -0.354687 -0.641 93 116 168
0.125148 -0.354687 -0.641 81 112 169
0.132267 -0.354133 -0.64 71 108 176
0.152751 -0.35358 -0.639 150 173 225
0.175327 -0.352473 -0.637 219 225 247
0.268331 -0.35192 -0.636 244 254 255
0.290137 -0.35192 -0.636 218 233 255
0.294983 -0.35192 -0.636 190 206 242
0.298617 -0.35192 -0.636 158 171 213
0.320423 -0.35192 -0.636 185 205 240
0.331847 -0.352473 -0.637 218 229 251
0.339127 -0.352473 -0.637 209 222 241
0.339806 -0.35192 -0.636 195 206 228
0.345193 -0.352473 -0.637 168 186 224
0.375489 -0.35358 -0.639 198 202 229
0.377923 -0.35358 -0.639 181 188 214
0.40899 -0.354133 -0.64 182 188 214
0.426057 -0.354133 -0.64 177 183 209
0.427276 -0.354133 -0.64 177 183 209
0.43878 -0.35358 -0.639 111 117 143
0.454393 -0.352473 -0.637 129 144 183
0.422731 -0.31208 -0.564 126 85 83
0.4208 -0.309867 -0.56 124 86 83
0.423879 -0.289393 -0.523 145 96 82
0.445726 -0.28552 -0.516 147 95 81
0.4655 -0.2905 -0.525 128 86 72
0.00841905 -0.288724 -0.52 203 168 146
0.0519514 -0.305936 -0.551 128 105 113
0.0558 -0.309823 -0.558 127 104 112
0.0708781 -0.32537 -0.586 118 100 112
0.0794286 -0.333143 -0.6 122 103 122
0.111194 -0.354242 -0.638 186 192 218
0.120076 -0.355352 -0.64 123 137 172
0.122514 -0.355352 -0.64 84 111 164
0.129829 -0.355352 -0.64 65 91 152
0.1491 -0.354797 -0.639 199 206 224
0.154943 -0.354242 -0.638 65 95 167
0.164149 -0.353131 -0.636 73 104 158
0.174113 -0.353687 -0.637 217 221 246
0.179897 -0.353131 -0.636 219 225 247
0.287262 -0.352576 -0.635 186 198 224
0.295729 -0.352576 -0.635 191 202 230
0.301776 -0.352576 -0.635 238 243 255
0.307824 -0.352576 -0.635 243 242 255
0.363393 -0.353687 -0.637 197 207 234
0.384009 -0.354797 -0.639 116 144 194
0.392529 -0.354797 -0.639 161 172 194
0.409569 -0.354797 -0.639 182 188 212
0.420523 -0.354797 -0.639 180 186 210
0.438093 -0.354242 -0.638 140 147 176
0.417002 -0.30427 -0.548 126 89 81
0.41652 -0.30316 -0.546 127 87 79
0.416281 -0.297052 -0.535 138 95 86
0.418226 -0.294831 -0.531 133 86 78
0.420891 -0.293166 -0.528 136 89 79
0.435466 -0.288169 -0.519 153 104 89
0.446709 -0.286503 -0.516 148 99 84
0.447691 -0.286503 -0.516 150 101 86
0.455237 -0.288169 -0.519 140 94 79
0.0211724 -0.288043 -0.517 198 160 137
0.0324381 -0.291943 -0.524 164 127 119
0.03894 -0.295843 -0.531 154 121 114
0.0519514 -0.306986 -0.551 127 106 113
0.0611276 -0.316457 -0.568 122 102 114
0.0999429 -0.354343 -0.636 91 112 165
0.10738 -0.3549 -0.637 195 195 223
0.109979 -0.355457 -0.638 188 192 219
0.143014 -0.356014 -0.639 199 204 226
0.152273 -0.3549 -0.637 119 144 198
0.171417 -0.354343 -0.636 190 199 238
0.23609 -0.353229 -0.634 233 240 255
0.250581 -0.353229 -0.634 189 207 243
0.270329 -0.353786 -0.635 245 253 255
0.347074 -0.354343 -0.636 210 217 245
0.36946 -0.3549 -0.637 89 108 151
0.371887 -0.3549 -0.637 171 185 222
0.375527 -0.3549 -0.637 194 202 225
0.378547 -0.355457 -0.638 164 179 212
0.38766 -0.356014 -0.639 86 117 171
0.391914 -0.355457 -0.638 167 178 206
0.417434 -0.355457 -0.638 180 185 207
0.424726 -0.355457 -0.638 177 183 205
0.430802 -0.355457 -0.638 167 171 200
0.436193 -0.3549 -0.637 119 126 155
0.43862 -0.3549 -0.637 166 180 209
0.418554 -0.297514 -0.534 132 88 79
0.0152048 -0.28791 -0.515 203 167 143
0.0211314 -0.288469 -0.516 196 158 135
0.02516 -0.289587 -0.518 189 149 123
0.0411943 -0.298531 -0.534 149 120 116
0.101154 -0.355554 -0.636 105 126 173
0.10738 -0.356113 -0.637 192 192 226
0.135499 -0.356672 -0.638 104 128 176
0.154457 -0.355554 -0.636 82 109 164
0.162681 -0.354995 -0.635 99 122 166
0.1651 -0.354995 -0.635 101 127 178
0.169938 -0.354995 -0.635 128 141 183
0.279564 -0.354436 -0.634 222 227 246
0.28274 -0.353877 -0.633 232 244 255
0.285602 -0.354436 -0.634 220 227 246
0.289225 -0.354436 -0.634 228 235 254
0.294055 -0.354436 -0.634 231 237 253
0.314585 -0.354436 -0.634 159 174 197
0.33753 -0.354436 -0.634 119 129 156
0.346529 -0.354995 -0.635 209 215 239
0.37674 -0.356113 -0.637 191 197 219
0.436193 -0.356113 -0.637 96 105 138
0.446919 -0.354995 -0.635 52 89 157
0.458291 -0.354436 -0.634 98 111 156
0.46093 -0.352759 -0.631 164 163 181
0.420027 -0.297413 -0.532 128 83 77
0.433174 -0.291264 -0.521 153 101 88
0.436454 -0.290146 -0.519 157 109 89
0.449657 -0.288469 -0.516 153 104 87
0.451623 -0.288469 -0.516 148 101 85
0.00933714 -0.289451 -0.516 204 170 145
0.0201095 -0.28889 -0.515 199 161 138
0.0324381 -0.293939 -0.524 162 123 116
0.0482714 -0.305719 -0.545 133 106 111
0.0531933 -0.310207 -0.553 131 106 110
0.0584448 -0.315816 -0.563 125 101 114
0.0678257 -0.324791 -0.579 120 99 108
0.0780248 -0.33545 -0.598 125 105 116
0.101154 -0.356766 -0.636 105 123 173
0.147651 -0.357888 -0.638 176 187 209
0.152034 -0.356766 -0.636 72 104 163
0.155669 -0.356766 -0.636 111 141 195
0.162681 -0.356205 -0.635 144 166 215
0.2321 -0.355083 -0.633 218 229 255
0.233306 -0.355083 -0.633 189 203 230
0.236923 -0.355083 -0.633 235 243 255
0.246569 -0.355083 -0.633 239 239 241
0.250186 -0.355083 -0.633 183 200 228
0.26628 -0.355644 -0.634 243 255 253
0.335114 -0.355644 -0.634 128 139 167
0.336322 -0.355644 -0.634 137 147 172
0.343568 -0.355644 -0.634 208 216 229
0.385233 -0.357327 -0.637 84 120 178
0.39432 -0.356766 -0.636 149 159 184
0.410069 -0.356766 -0.636 183 189 211
0.430663 -0.356766 -0.636 176 180 205
0.451046 -0.355644 -0.634 76 108 165
0.458291 -0.355644 -0.634 122 142 195
0.460457 -0.354522 -0.632 136 135 151
0.423495 -0.297305 -0.53 132 85 75
0.435314 -0.291695 -0.52 152 103 88
0.43956 -0.290573 -0.518 155 106 89
0.45732 -0.290573 -0.518 142 95 79
0.00737143 -0.290434 -0.516 205 167 144
0.0171333 -0.289309 -0.514 202 166 142
0.0303257 -0.293811 -0.522 165 127 116
0.04706 -0.305631 -0.543 135 105 113
0.0997857 -0.357414 -0.635 110 127 173
0.102205 -0.357414 -0.635 102 118 170
0.110846 -0.357977 -0.636 190 198 209
0.141353 -0.35854 -0.637 203 205 228
0.16484 -0.356851 -0.634 143 168 209
0.268271 -0.356289 -0.633 244 254 255
0.282293 -0.355726 -0.632 245 249 250
0.283497 -0.355726 -0.632 247 251 252
0.289516 -0.355726 -0.632 245 249 255
0.302031 -0.356289 -0.633 157 163 185
0.328557 -0.356289 -0.633 213 223 248
0.329763 -0.356289 -0.633 216 226 251
0.334586 -0.356289 -0.633 140 153 187
0.36772 -0.356851 -0.634 185 190 210
0.374348 -0.357414 -0.635 185 190 222
0.379783 -0.357977 -0.636 122 147 203
0.427029 -0.357977 -0.636 178 183 202
0.440871 -0.357414 -0.635 57 85 148
0.447423 -0.356851 -0.634 16 54 119
0.458291 -0.356851 -0.634 104 133 189
0.461661 -0.355726 -0.632 149 148 154
0.437295 -0.292686 -0.52 155 103 89
0.438431 -0.292123 -0.519 153 102 85
0.000585714 -0.347329 -0.615 202 166 144
0.0171333 -0.290288 -0.514 201 165 141
0.03894 -0.299889 -0.531 151 116 112
0.0458562 -0.305536 -0.541 134 107 116
0.054541 -0.314008 -0.556 130 105 108
0.06494 -0.323609 -0.573 123 97 106
0.0765 -0.336033 -0.595 121 101 112
0.143554 -0.359189 -0.636 195 201 217
0.158802 -0.358059 -0.634 143 154 186
0.161217 -0.358059 -0.634 194 205 237
0.168197 -0.357494 -0.633 112 133 178
0.17302 -0.357494 -0.633 216 225 254
0.291924 -0.35693 -0.632 242 249 255
0.308777 -0.35693 -0.632 233 240 255
0.312389 -0.35693 -0.632 209 213 248
0.323734 -0.357494 -0.633 185 211 248
0.338203 -0.357494 -0.633 203 206 221
0.361682 -0.358059 -0.634 204 211 227
0.384024 -0.358624 -0.635 49 87 160
0.39491 -0.358624 -0.635 132 148 182
0.405795 -0.358624 -0.635 189 190 210
0.423938 -0.358624 -0.635 181 184 203
0.429986 -0.358624 -0.635 138 135 152
0.446717 -0.357494 -0.633 16 52 114
0.426926 -0.298194 -0.528 129 85 74
0.431676 -0.295935 -0.524 141 89 76
0.432674 -0.295935 -0.524 145 93 80
0.00351333 -0.298633 -0.527 206 170 144
0.00830571 -0.2907 -0.513 205 169 145
0.01024 -0.290133 -0.512 206 170 146
0.0131657 -0.290133 -0.512 204 168 144
0.014141 -0.290133 -0.512 202 166 142
0.02408 -0.2924 -0.516 186 147 118
0.0271857 -0.2941 -0.519 176 138 115
0.0482714 -0.308833 -0.545 133 106 113
0.0559 -0.316767 -0.559 127 104 110
0.0582371 -0.3179 -0.561 126 103 109
0.104459 -0.359267 -0.634 125 140 183
0.132651 -0.3604 -0.636 101 120 162
0.157594 -0.359267 -0.634 168 174 198
0.160963 -0.3587 -0.633 195 202 228
0.169403 -0.3587 -0.633 136 149 183
0.244588 -0.357567 -0.631 245 249 255
0.250597 -0.357567 -0.631 178 189 217
0.28425 -0.357567 -0.631 243 250 255
0.302279 -0.357567 -0.631 193 200 228
0.30949 -0.357567 -0.631 219 225 251
0.336465 -0.358133 -0.632 213 221 240
0.356289 -0.3587 -0.633 205 212 231
0.401533 -0.359267 -0.634 150 149 163
0.402741 -0.359267 -0.634 149 148 162
0.449623 -0.358133 -0.632 56 91 155
0.454438 -0.358133 -0.632 24 54 118
0.456164 -0.342267 -0.604 121 90 87
0.430503 -0.315067 -0.556 121 87 78
0.425892 -0.302033 -0.533 114 78 66
0.435994 -0.2958 -0.522 149 93 78
0.459293 -0.293533 -0.518 144 99 80
0.463938 -0.295233 -0.521 137 94 78
0.468606 -0.296933 -0.524 135 93 79
0.480827 -0.301467 -0.532 142 99 83
0.0121905 -0.291109 -0.512 205 169 143
0.0151162 -0.291109 -0.512 200 164 140
0.0582371 -0.318969 -0.561 128 103 107
0.08582 -0.348534 -0.613 171 180 211
0.104459 -0.360474 -0.634 121 135 172
0.110497 -0.360474 -0.634 193 196 213
0.134862 -0.361043 -0.635 180 190 215
0.150349 -0.360474 -0.634 163 176 211
0.16432 -0.359337 -0.632 199 211 233
0.169135 -0.359337 -0.632 185 196 226
0.246991 -0.358769 -0.631 216 224 247
0.257809 -0.358769 -0.631 178 193 226
0.268626 -0.358769 -0.631 175 182 208
0.269828 -0.358769 -0.631 188 195 221
0.279443 -0.358769 -0.631 248 254 252
0.29026 -0.358769 -0.631 244 249 255
0.324427 -0.359337 -0.632 164 190 241
0.361111 -0.359906 -0.633 202 208 222
0.374966 -0.360474 -0.634 64 87 129
0.39308 -0.360474 -0.634 75 109 172
0.411751 -0.359906 -0.633 123 133 160
0.41778 -0.359906 -0.633 144 152 173
0.427426 -0.359906 -0.633 133 131 136
0.428631 -0.359906 -0.633 170 165 171
0.436381 -0.359337 -0.632 44 70 127
0.451315 -0.358769 -0.631 57 93 155
0.46093 -0.358769 -0.631 169 174 204
0.464262 -0.357631 -0.629 145 142 153
0.440067 -0.32636 -0.574 119 84 78
0.431065 -0.314989 -0.554 120 86 77
0.42749 -0.304186 -0.535 114 76 65
0.440267 -0.295657 -0.52 154 98 81
0.442777 -0.293383 -0.516 166 111 91
0.451729 -0.292814 -0.515 159 107 85
0.482746 -0.303049 -0.533 141 98 82
0.00731429 -0.292084 -0.512 204 167 148
0.0190543 -0.292654 -0.513 194 157 131
0.0210495 -0.293225 -0.514 189 152 126
0.0230524 -0.293795 -0.515 184 147 121
0.0378571 -0.302352 -0.53 151 118 113
0.0390133 -0.303493 -0.532 148 115 110
0.0435524 -0.306916 -0.538 142 110 111
0.0482714 -0.31091 -0.545 135 104 109
0.0505324 -0.31205 -0.547 134 103 108
0.0543448 -0.316044 -0.554 130 104 105
0.0556 -0.317185 -0.556 130 104 105
0.0981105 -0.360541 -0.632 177 182 212
0.1055 -0.361111 -0.633 158 168 195
0.1397 -0.362252 -0.635 194 198 223
0.143329 -0.362252 -0.635 173 180 209
0.149141 -0.361682 -0.634 194 201 229
0.153729 -0.361111 -0.633 203 209 235
0.158301 -0.360541 -0.632 147 154 173
0.167666 -0.35997 -0.631 212 217 246
0.168868 -0.35997 -0.631 211 218 246
0.171271 -0.35997 -0.631 116 130 159
0.2214 -0.3594 -0.63 243 246 255
0.2274 -0.3594 -0.63 250 255 255
0.2286 -0.3594 -0.63 245 250 254
0.2382 -0.3594 -0.63 195 202 228
0.2466 -0.3594 -0.63 225 233 254
0.261 -0.3594 -0.63 226 236 255
0.2634 -0.3594 -0.63 251 253 255
0.2886 -0.3594 -0.63 245 249 255
0.32151 -0.35997 -0.631 107 134 187
0.341942 -0.35997 -0.631 177 179 191
0.36598 -0.35997 -0.631 200 203 218
0.376786 -0.361111 -0.633 57 90 157
0.387637 -0.361111 -0.633 50 88 159
0.396077 -0.361111 -0.633 184 188 215
0.413509 -0.360541 -0.632 131 142 170
0.430362 -0.360541 -0.632 176 178 199
0.435177 -0.360541 -0.632 82 107 161
0.4417 -0.35997 -0.631 43 79 141
0.458527 -0.35997 -0.631 94 108 153
0.464262 -0.35883 -0.629 151 145 157
0.437771 -0.321749 -0.564 120 87 78
0.432663 -0.314903 -0.552 117 83 74
0.00441429 -0.294776 -0.515 203 165 142
0.0345657 -0.301072 -0.526 156 121 117
0.0412714 -0.306224 -0.535 145 112 105
0.0493095 -0.311948 -0.545 133 103 105
0.0993143 -0.361745 -0.632 186 187 217
0.12238 -0.362317 -0.633 111 140 182
0.129819 -0.36289 -0.634 111 129 167
0.137065 -0.36289 -0.634 195 199 226
0.145518 -0.36289 -0.634 143 155 181
0.146726 -0.36289 -0.634 199 204 226
0.225 -0.3606 -0.63 246 250 253
0.2286 -0.3606 -0.63 244 249 253
0.2298 -0.3606 -0.63 249 253 255
0.2454 -0.3606 -0.63 237 236 250
0.262982 -0.360028 -0.629 239 242 255
0.2742 -0.3606 -0.63 244 249 253
0.294132 -0.360028 -0.629 240 247 253
0.315 -0.3606 -0.63 104 124 187
0.3366 -0.3606 -0.63 214 219 241
0.411652 -0.361172 -0.631 114 121 147
0.415258 -0.361172 -0.631 179 185 209
0.420731 -0.361745 -0.632 187 186 200
0.436892 -0.361172 -0.631 119 143 189
0.438094 -0.361172 -0.631 102 126 172
0.4554 -0.3606 -0.63 114 126 166
0.4602 -0.3606 -0.63 134 147 181
0.465916 -0.359455 -0.628 137 135 149
0.430111 -0.307369 -0.537 117 77 69
0.43132 -0.301072 -0.526 122 82 72
0.4325 -0.3005 -0.525 123 83 73
0.43683 -0.299355 -0.523 144 91 77
0.444743 -0.295349 -0.516 164 111 95
0.00537429 -0.294609 -0.513 204 166 143
0.00632667 -0.29346 -0.511 205 167 144
0.0282286 -0.298629 -0.52 169 130 115
0.0543448 -0.318154 -0.554 131 104 109
0.0596229 -0.323897 -0.564 127 100 105
0.0692857 -0.334234 -0.582 127 101 104
0.115146 -0.363523 -0.633 195 197 222
0.116351 -0.363523 -0.633 189 191 216
0.142877 -0.363523 -0.633 96 102 138
0.162858 -0.362374 -0.631 219 220 251
0.1782 -0.3618 -0.63 225 227 248
0.243812 -0.361226 -0.629 236 241 255
0.24501 -0.361226 -0.629 226 231 253
0.272567 -0.361226 -0.629 245 250 255
0.300123 -0.361226 -0.629 238 244 255
0.302038 -0.360651 -0.628 230 236 250
0.330075 -0.361226 -0.629 184 203 243
0.3606 -0.3618 -0.63 199 206 224
0.3666 -0.3618 -0.63 149 155 177
0.403239 -0.362374 -0.631 179 186 204
0.421268 -0.362374 -0.631 188 187 201
0.467563 -0.360077 -0.627 162 163 181
0.433405 -0.312986 -0.545 118 81 73
0.430757 -0.303797 -0.529 123 80 71
0.430949 -0.303223 -0.528 123 80 71
0.4335 -0.3015 -0.525 133 86 76
0.4345 -0.3015 -0.525 135 88 78
0.437983 -0.299777 -0.522 144 91 77
0.00440571 -0.296162 -0.514 204 166 143
0.0200314 -0.295586 -0.513 190 150 125
0.0411943 -0.307686 -0.534 144 111 106
0.0506248 -0.315752 -0.548 133 104 106
0.0782857 -0.345714 -0.6 123 101 114
0.08294 -0.3509 -0.609 219 218 234
0.0979552 -0.363576 -0.631 201 205 230
0.111352 -0.364152 -0.632 181 188 217
0.123586 -0.364729 -0.633 114 138 186
0.132026 -0.364729 -0.633 142 151 184
0.143855 -0.364152 -0.632 155 164 193
0.145059 -0.364152 -0.632 191 200 229
0.146263 -0.364152 -0.632 203 208 228
0.14867 -0.364152 -0.632 205 211 227
0.191096 -0.362424 -0.629 150 168 214
0.239836 -0.361848 -0.628 190 198 221
0.261784 -0.362424 -0.629 167 185 225
0.268972 -0.362424 -0.629 245 250 255
0.280507 -0.361848 -0.628 217 218 236
0.325283 -0.362424 -0.629 98 126 173
0.336066 -0.362424 -0.629 212 217 237
0.337264 -0.362424 -0.629 218 223 243
0.355235 -0.362424 -0.629 193 198 220
0.36482 -0.362424 -0.629 178 185 195
0.4014 -0.363 -0.63 182 191 208
0.4026 -0.363 -0.63 185 194 211
0.4038 -0.363 -0.63 178 182 193
0.429 -0.363 -0.63 86 100 137
0.460668 -0.362424 -0.629 97 113 146
0.463064 -0.362424 -0.629 146 143 152
0.442642 -0.323819 -0.562 115 82 77
0.431352 -0.308838 -0.536 115 81 72
0.431374 -0.305957 -0.531 126 83 74
0.430949 -0.304229 -0.528 125 81 72
0.445605 -0.29789 -0.517 164 109 89
0.447691 -0.297314 -0.516 165 110 90
0.456537 -0.297314 -0.516 156 107 90
0.468806 -0.300771 -0.522 143 97 81
0.491483 -0.309414 -0.537 143 97 81
-0.00291429 -0.353794 -0.612 202 166 144
0.00439714 -0.296563 -0.513 204 167 141
0.00631429 -0.294829 -0.51 205 169 145
0.00824095 -0.29425 -0.509 205 170 148
0.0140581 -0.29425 -0.509 199 162 136
0.0160286 -0.294829 -0.51 197 160 134
0.0180067 -0.295407 -0.511 194 153 131
0.0302676 -0.301188 -0.521 170 128 114
0.0531933 -0.319687 -0.553 129 103 106
0.0637371 -0.33067 -0.572 123 97 106
0.0707571 -0.338186 -0.585 128 102 111
0.109974 -0.364778 -0.631 119 129 164
0.111176 -0.364778 -0.631 146 156 191
0.127203 -0.365934 -0.633 110 128 178
0.134012 -0.364778 -0.631 198 206 229
0.135214 -0.364778 -0.631 195 203 226
0.13904 -0.365356 -0.632 97 107 143
0.140244 -0.365356 -0.632 109 119 155
0.150839 -0.364778 -0.631 205 212 222
0.168332 -0.363622 -0.629 218 224 240
0.193185 -0.363044 -0.628 176 195 237
0.22907 -0.363044 -0.628 246 246 248
0.26376 -0.363044 -0.628 191 203 245
0.27333 -0.363044 -0.628 245 251 251
0.281254 -0.362466 -0.627 196 201 223
0.289614 -0.362466 -0.627 205 206 224
0.290809 -0.362466 -0.627 211 213 226
0.30514 -0.362466 -0.627 153 162 193
0.341512 -0.363044 -0.628 211 216 236
0.36424 -0.363044 -0.628 143 139 154
0.372009 -0.363622 -0.629 183 201 239
0.3786 -0.3642 -0.63 94 125 172
0.381 -0.3642 -0.63 89 121 180
0.399 -0.3642 -0.63 186 193 209
0.430715 -0.363622 -0.629 122 129 171
0.462328 -0.363044 -0.628 110 108 121
0.463524 -0.363044 -0.628 133 131 144
0.467112 -0.363044 -0.628 167 168 189
0.469643 -0.36131 -0.625 167 168 186
0.441533 -0.299453 -0.518 157 101 86
0.471696 -0.302344 -0.523 142 97 78
0.498235 -0.31275 -0.541 145 102 85
-0.00290476 -0.3538 -0.61 202 166 144
0.00148 -0.30044 -0.518 206 168 145
0.0302676 -0.30218 -0.521 168 128 116
0.0558 -0.32364 -0.558 128 103 107
0.0584448 -0.32654 -0.563 126 101 105
0.0679429 -0.3364 -0.58 123 100 106
0.124594 -0.36656 -0.632 106 137 191
0.136416 -0.36598 -0.631 127 138 170
0.1482 -0.3654 -0.63 211 214 229
0.161144 -0.36482 -0.629 220 222 235
0.168065 -0.36424 -0.628 220 222 237
0.222734 -0.36366 -0.627 221 222 240
0.235871 -0.36366 -0.627 243 248 254
0.244231 -0.36366 -0.627 158 172 209
0.272894 -0.36366 -0.627 243 247 248
0.359455 -0.36424 -0.628 206 209 224
0.366632 -0.36424 -0.628 84 94 121
0.381 -0.3654 -0.63 95 126 181
0.39597 -0.36482 -0.629 112 130 168
0.397169 -0.36482 -0.629 153 171 209
0.400763 -0.36482 -0.629 194 195 213
0.4396 -0.36424 -0.628 93 121 168
0.445581 -0.36424 -0.628 89 116 161
0.451608 -0.33176 -0.572 115 81 72
0.442948 -0.32306 -0.557 117 82 78
0.44082 -0.32074 -0.553 116 81 77
0.461361 -0.29986 -0.517 145 100 81
0.472692 -0.30334 -0.523 140 95 76
0.00534286 -0.296771 -0.51 206 170 146
0.0111276 -0.295608 -0.508 205 167 144
0.02812 -0.301427 -0.518 172 130 114
0.0302676 -0.303172 -0.521 167 128 113
0.0597286 -0.328776 -0.565 123 101 104
0.0753667 -0.346233 -0.595 124 97 106
0.0782857 -0.349143 -0.6 125 103 115
0.106031 -0.366018 -0.629 191 189 211
0.131609 -0.367182 -0.631 170 185 216
0.153955 -0.366018 -0.629 212 214 227
0.158748 -0.366018 -0.629 214 216 229
0.189294 -0.364854 -0.627 111 132 185
0.226317 -0.364854 -0.627 218 221 230
0.280806 -0.364272 -0.626 199 205 221
0.289152 -0.364272 -0.626 234 237 252
0.316577 -0.364272 -0.626 113 146 199
0.318962 -0.364272 -0.626 158 189 235
0.331414 -0.364854 -0.627 176 192 228
0.33858 -0.364854 -0.627 216 220 232
0.343357 -0.364854 -0.627 214 218 227
0.382791 -0.366018 -0.629 132 158 195
0.394772 -0.366018 -0.629 82 98 132
0.416872 -0.365436 -0.628 187 188 208
0.427638 -0.365436 -0.628 119 126 145
0.442483 -0.364854 -0.627 120 143 193
0.461591 -0.364854 -0.627 110 110 136
0.465174 -0.364854 -0.627 160 165 187
0.471587 -0.364272 -0.626 127 132 154
0.43296 -0.307246 -0.528 130 86 77
0.4345 -0.3055 -0.525 146 94 80
0.440267 -0.30259 -0.52 153 100 84
0.446824 -0.299681 -0.515 161 106 86
0.460376 -0.300845 -0.517 153 102 81
0.466111 -0.302009 -0.519 140 95 74
-0.00405333 -0.354956 -0.608 199 163 141
0.0239867 -0.300078 -0.514 178 137 117
0.02812 -0.302413 -0.518 170 128 112
0.0291629 -0.302997 -0.519 168 128 116
0.0302095 -0.303581 -0.52 167 127 115
0.0400267 -0.310587 -0.532 141 110 108
0.0768857 -0.349118 -0.598 123 103 114
0.0815114 -0.354372 -0.607 231 220 234
0.1326 -0.3678 -0.63 165 184 226
0.151559 -0.367216 -0.629 205 206 226
0.157299 -0.366632 -0.628 178 177 195
0.158495 -0.366632 -0.628 210 209 225
0.17974 -0.366049 -0.627 113 134 187
0.231918 -0.365465 -0.626 246 246 255
0.243842 -0.365465 -0.626 157 170 214
0.302269 -0.365465 -0.626 144 151 177
0.30823 -0.365465 -0.626 201 208 237
0.335655 -0.365465 -0.626 211 217 233
0.33804 -0.365465 -0.626 212 216 227
0.36366 -0.366049 -0.627 121 128 147
0.373214 -0.366049 -0.627 163 173 198
0.386351 -0.366049 -0.627 166 180 217
0.41382 -0.366049 -0.627 183 184 202
0.436511 -0.366049 -0.627 85 109 155
0.450843 -0.366049 -0.627 156 176 213
0.45562 -0.366049 -0.627 176 173 192
0.472024 -0.364881 -0.625 82 98 149
0.433811 -0.311754 -0.534 131 91 83
0.4332 -0.310587 -0.532 134 91 82
0.438136 -0.304165 -0.521 153 100 82
0.441533 -0.302413 -0.518 158 103 83
0.456633 -0.300662 -0.515 149 97 76
0.00146571 -0.300471 -0.513 207 167 142
0.00917429 -0.296957 -0.507 204 166 143
0.0159971 -0.298129 -0.509 196 155 133
0.03132 -0.305743 -0.522 159 122 113
0.0356352 -0.308671 -0.527 149 116 111
0.0519514 -0.322729 -0.551 129 103 106
0.0974895 -0.367829 -0.628 208 206 220
0.106889 -0.367243 -0.627 196 197 217
0.11921 -0.368414 -0.629 74 96 153
0.13239 -0.368414 -0.629 99 121 178
0.164214 -0.367243 -0.627 220 219 235
0.225956 -0.366657 -0.626 228 230 243
0.26369 -0.366071 -0.625 150 160 195
0.300595 -0.366071 -0.625 156 159 178
0.302976 -0.366071 -0.625 178 185 213
0.304167 -0.366071 -0.625 222 228 252
0.316071 -0.366071 -0.625 136 165 209
0.342262 -0.366071 -0.625 170 175 178
0.345194 -0.366657 -0.626 210 214 223
0.398294 -0.367243 -0.627 140 152 176
0.420314 -0.366657 -0.626 178 184 206
0.439392 -0.366657 -0.626 109 132 184
0.460855 -0.366657 -0.626 162 164 185
0.433966 -0.309257 -0.528 145 96 82
0.4335 -0.3075 -0.525 146 97 83
0.446824 -0.301643 -0.515 161 104 84
0.488014 -0.311014 -0.531 147 102 83
-0.00518571 -0.35551 -0.605 199 163 141
0.00724286 -0.297923 -0.507 206 169 143
0.0260457 -0.303211 -0.516 172 133 118
0.0708781 -0.344345 -0.586 129 104 108
0.0753667 -0.349633 -0.595 125 99 108
0.0974895 -0.369025 -0.628 209 208 224
0.0997229 -0.368437 -0.627 202 203 223
0.111666 -0.368437 -0.627 86 108 155
0.132179 -0.369025 -0.628 68 95 162
0.134571 -0.369025 -0.628 151 174 226
0.152271 -0.368437 -0.627 179 180 200
0.226786 -0.367262 -0.625 248 250 255
0.230357 -0.367262 -0.625 249 249 251
0.28704 -0.366674 -0.624 245 248 255
0.297737 -0.366674 -0.624 204 207 226
0.321509 -0.366674 -0.624 186 202 227
0.33631 -0.367262 -0.625 211 217 231
0.349405 -0.367262 -0.625 201 203 224
0.351786 -0.367262 -0.625 205 208 223
0.352976 -0.367262 -0.625 207 210 225
0.355357 -0.367262 -0.625 204 210 222
0.357118 -0.36785 -0.626 199 205 219
0.360695 -0.36785 -0.626 177 180 199
0.404813 -0.36785 -0.626 180 185 207
0.407198 -0.36785 -0.626 164 165 185
0.410775 -0.36785 -0.626 113 127 172
0.411968 -0.36785 -0.626 151 165 210
0.422699 -0.36785 -0.626 121 133 155
0.426786 -0.367262 -0.625 124 121 140
0.474834 -0.366674 -0.624 101 123 172
0.438246 -0.31849 -0.542 137 93 84
0.43467 -0.307912 -0.524 158 105 87
0.454671 -0.302624 -0.515 152 100 78
0.00915619 -0.298299 -0.506 204 167 141
0.0169333 -0.299478 -0.508 193 152 130
0.02812 -0.305373 -0.518 165 127 116
0.0367086 -0.311269 -0.528 144 113 108
0.0458562 -0.318932 -0.541 137 107 109
0.0558 -0.328954 -0.558 128 101 106
0.0584448 -0.331902 -0.563 125 98 105
0.0985286 -0.369631 -0.627 205 202 209
0.101949 -0.369042 -0.626 203 202 216
0.136746 -0.369631 -0.627 176 190 219
0.148689 -0.369631 -0.627 165 168 185
0.159183 -0.369042 -0.626 152 152 176
0.174405 -0.368452 -0.625 183 192 223
0.235931 -0.367863 -0.624 197 202 222
0.281097 -0.367863 -0.624 218 220 233
0.284663 -0.367863 -0.624 241 243 255
0.285851 -0.367863 -0.624 243 245 255
0.327451 -0.367863 -0.624 216 221 243
0.349405 -0.368452 -0.625 198 202 229
0.420833 -0.368452 -0.625 72 89 119
0.422024 -0.368452 -0.625 139 156 186
0.423214 -0.368452 -0.625 179 181 202
0.427291 -0.367863 -0.624 148 148 158
0.443452 -0.368452 -0.625 92 121 177
0.476793 -0.354304 -0.601 117 96 93
0.43942 -0.305963 -0.519 166 109 89
0.44265 -0.304784 -0.517 166 110 87
0.447805 -0.303605 -0.515 162 106 83
0.460469 -0.304194 -0.516 151 100 81
0.495767 -0.315395 -0.535 151 100 83
0.514905 -0.324238 -0.55 155 102 96
-0.00147714 -0.305769 -0.517 205 169 145
0.000485714 -0.301629 -0.51 205 169 143
0.0169333 -0.300446 -0.508 192 152 127
0.0423695 -0.317006 -0.536 138 110 109
0.054639 -0.329426 -0.557 128 101 106
0.0559 -0.330609 -0.559 128 101 106
0.0651667 -0.340071 -0.575 122 99 105
0.0784162 -0.355449 -0.601 159 145 158
0.110295 -0.370234 -0.626 140 151 179
0.139134 -0.370826 -0.627 205 203 225
0.152029 -0.370234 -0.626 180 182 205
0.182446 -0.369051 -0.624 143 163 196
0.292513 -0.36846 -0.623 237 243 255
0.320993 -0.36846 -0.623 182 202 229
0.344091 -0.369051 -0.624 182 190 213
0.355977 -0.369051 -0.624 187 195 216
0.372024 -0.369643 -0.625 167 174 190
0.375595 -0.369643 -0.625 115 146 190
0.380357 -0.369643 -0.625 104 133 177
0.407086 -0.369051 -0.624 78 103 170
0.437989 -0.369051 -0.624 89 120 174
0.443452 -0.369643 -0.625 92 121 179
0.444643 -0.369643 -0.625 78 108 160
0.474073 -0.36846 -0.623 100 121 178
0.481606 -0.367869 -0.622 62 76 123
0.441533 -0.30636 -0.518 165 109 84
0.454671 -0.304586 -0.515 158 103 83
0.455747 -0.303994 -0.514 158 102 85
0.459576 -0.304586 -0.515 154 99 79
0.463417 -0.305177 -0.516 151 96 76
0.512096 -0.323511 -0.547 152 105 87
0.517829 -0.326469 -0.552 153 106 88
-0.000486667 -0.303193 -0.511 205 168 142
0.014939 -0.300227 -0.506 195 155 130
0.0259952 -0.305567 -0.515 169 130 115
0.124604 -0.371427 -0.626 68 97 157
0.135335 -0.371427 -0.626 185 195 231
0.160119 -0.370833 -0.625 184 186 201
0.217753 -0.369647 -0.623 247 252 255
0.221313 -0.369647 -0.623 232 242 244
0.309815 -0.369053 -0.622 172 187 220
0.312185 -0.369053 -0.622 184 199 230
0.31337 -0.369053 -0.622 186 201 232
0.359543 -0.37024 -0.624 147 164 192
0.369643 -0.370833 -0.625 164 167 174
0.392823 -0.37024 -0.624 187 190 195
0.3952 -0.37024 -0.624 185 191 207
0.442743 -0.37024 -0.624 94 120 171
0.477633 -0.369647 -0.623 146 157 177
0.45369 -0.305567 -0.515 156 101 81
0.463417 -0.30616 -0.516 152 97 77
0.00048381 -0.302381 -0.508 204 167 141
0.00144857 -0.301786 -0.507 205 168 142
0.0270286 -0.307143 -0.516 165 127 114
0.11369 -0.372024 -0.625 75 101 158
0.123411 -0.372619 -0.626 63 89 146
0.126989 -0.372619 -0.626 105 136 200
0.166994 -0.371429 -0.624 225 228 247
0.168183 -0.371429 -0.624 218 221 240
0.169371 -0.371429 -0.624 201 207 231
0.182153 -0.370833 -0.623 154 171 199
0.1869 -0.370833 -0.623 138 165 218
0.270718 -0.370238 -0.622 245 247 255
0.289674 -0.370238 -0.622 235 238 245
0.314554 -0.370238 -0.622 181 200 232
0.329956 -0.370238 -0.622 219 221 242
0.360153 -0.370833 -0.623 201 204 219
0.40406 -0.370833 -0.623 163 179 212
0.413553 -0.370833 -0.623 118 134 168
0.42186 -0.370833 -0.623 175 181 195
0.454629 -0.371429 -0.624 175 179 190
0.457006 -0.371429 -0.624 177 176 190
0.469758 -0.370238 -0.622 118 131 165
0.475682 -0.370238 -0.622 152 159 188
0.478051 -0.370238 -0.622 158 163 182
0.48516 -0.370238 -0.622 102 109 138
0.438294 -0.319643 -0.537 154 107 91
0.440547 -0.308333 -0.518 169 111 91
0.47867 -0.31131 -0.523 142 94 74
0.494929 -0.317262 -0.533 149 104 83
-0.0045 -0.3135 -0.525 203 166 140
0.01104 -0.30096 -0.504 197 160 134
0.0280657 -0.308723 -0.517 162 124 111
0.0401771 -0.318874 -0.534 140 107 100
0.0598343 -0.337983 -0.566 123 98 101
0.073859 -0.353509 -0.592 121 100 107
0.0753667 -0.3553 -0.595 124 103 110
0.0992457 -0.372617 -0.624 179 178 186
0.119643 -0.373214 -0.625 72 98 157
0.129373 -0.373811 -0.626 143 166 210
0.145833 -0.373214 -0.625 211 213 234
0.147024 -0.373214 -0.625 207 209 230
0.1691 -0.37202 -0.623 175 185 210
0.225697 -0.371423 -0.622 248 252 253
0.229251 -0.371423 -0.622 248 251 255
0.235175 -0.371423 -0.622 224 229 249
0.292757 -0.370826 -0.621 190 197 226
0.30222 -0.370826 -0.621 240 241 255
0.319963 -0.370826 -0.621 144 163 193
0.340619 -0.371423 -0.622 191 205 231
0.367273 -0.37202 -0.623 203 207 216
0.376767 -0.37202 -0.623 125 156 202
0.379749 -0.372617 -0.624 109 138 182
0.388633 -0.37202 -0.623 199 200 218
0.406966 -0.371423 -0.622 57 79 128
0.45746 -0.37202 -0.623 167 168 186
0.444743 -0.308126 -0.516 171 114 95
0.448786 -0.307529 -0.515 163 106 87
0.457705 -0.306931 -0.514 161 106 86
0.461538 -0.307529 -0.515 161 106 86
0.462519 -0.307529 -0.515 157 102 82
0.466366 -0.308126 -0.516 144 93 74
0.468254 -0.308723 -0.517 143 92 73
-0.0086 -0.360627 -0.602 197 159 136
0.119451 -0.373806 -0.624 82 107 164
0.125595 -0.374405 -0.625 144 170 221
0.135119 -0.374405 -0.625 79 101 142
0.138469 -0.373806 -0.624 198 204 236
0.139657 -0.373806 -0.624 208 207 225
0.14774 -0.373207 -0.623 210 213 232
0.168829 -0.372608 -0.622 137 149 175
0.336523 -0.372009 -0.621 86 109 150
0.337706 -0.372009 -0.621 134 157 198
0.38564 -0.372608 -0.622 194 200 216
0.386825 -0.372608 -0.622 191 194 211
0.4761 -0.372009 -0.621 169 166 183
0.480831 -0.372009 -0.621 171 174 193
0.444743 -0.309109 -0.516 173 114 96
0.446824 -0.30851 -0.515 167 108 90
0.454768 -0.30791 -0.514 159 104 84
0.48735 -0.315698 -0.527 150 104 88
-0.0054581 -0.313096 -0.521 204 167 141
0.00144 -0.30288 -0.504 203 166 140
0.0291629 -0.311894 -0.519 159 120 105
0.0302095 -0.312495 -0.52 158 119 104
0.0367781 -0.317904 -0.529 145 111 101
0.06806 -0.349153 -0.581 127 103 103
0.0695238 -0.350956 -0.584 127 103 103
0.0990867 -0.374393 -0.623 164 166 178
0.127771 -0.374994 -0.624 161 174 208
0.130357 -0.375595 -0.625 187 202 223
0.134903 -0.374994 -0.624 70 91 134
0.149872 -0.373792 -0.622 212 215 230
0.171198 -0.373792 -0.622 203 211 232
0.304095 -0.37259 -0.62 229 231 255
0.315905 -0.37259 -0.62 157 176 216
0.325352 -0.37259 -0.62 220 223 242
0.326533 -0.37259 -0.62 217 222 244
0.327714 -0.37259 -0.62 217 222 244
0.33534 -0.373191 -0.621 91 107 140
0.336523 -0.373191 -0.621 103 126 167
0.338343 -0.37259 -0.62 152 167 196
0.356631 -0.373191 -0.621 87 109 146
0.374374 -0.373191 -0.621 124 146 185
0.383837 -0.373191 -0.621 188 195 213
0.408677 -0.373191 -0.621 129 149 208
0.425733 -0.37259 -0.62 179 181 204
0.427603 -0.373191 -0.621 179 185 197
0.464271 -0.373191 -0.621 175 178 197
0.440681 -0.310692 -0.517 175 118 98
0.449872 -0.30889 -0.514 164 107 88
0.458684 -0.30889 -0.514 162 109 91
0.0367781 -0.318911 -0.529 145 111 102
0.0412714 -0.322529 -0.535 135 105 97
0.0424486 -0.323734 -0.537 134 106 103
0.0460257 -0.327351 -0.543 128 103 99
0.0509019 -0.332174 -0.551 129 101 100
0.056 -0.3376 -0.56 122 97 100
0.0625381 -0.344231 -0.571 121 103 103
0.106207 -0.37558 -0.623 89 105 139
0.11196 -0.374977 -0.622 173 177 206
0.117884 -0.374977 -0.622 96 120 168
0.12638 -0.37558 -0.623 167 180 224
0.167644 -0.374977 -0.622 123 129 153
0.168557 -0.374374 -0.621 165 175 200
0.16974 -0.374374 -0.621 200 210 235
0.358997 -0.374374 -0.621 194 202 225
0.373191 -0.374374 -0.621 120 138 174
0.431638 -0.373771 -0.62 143 151 172
0.441797 -0.374374 -0.621 93 121 168
0.474152 -0.373771 -0.62 171 169 190
0.4836 -0.373771 -0.62 168 174 190
0.451929 -0.334586 -0.555 132 103 89
0.437629 -0.319514 -0.53 171 109 94
0.440681 -0.311677 -0.517 176 119 99
0.447914 -0.309869 -0.514 169 111 91
0.457705 -0.309869 -0.514 171 116 95
0.490286 -0.318309 -0.528 151 105 89
0.496027 -0.32072 -0.532 150 104 88
-0.00338667 -0.307219 -0.508 207 168 139
0.0158714 -0.305405 -0.505 185 148 121
0.0168667 -0.30601 -0.506 185 148 122
0.0249657 -0.310848 -0.514 166 129 113
0.0472333 -0.329595 -0.545 130 103 96
0.0753667 -0.359833 -0.595 128 112 113
0.104851 -0.376162 -0.622 93 104 132
0.116699 -0.376162 -0.622 111 124 156
0.1335 -0.376767 -0.623 174 192 214
0.14062 -0.376767 -0.623 203 208 227
0.154363 -0.375557 -0.621 166 168 180
0.178914 -0.374952 -0.62 165 172 198
0.32129 -0.374348 -0.619 217 222 241
0.327186 -0.374348 -0.619 212 220 243
0.336618 -0.374348 -0.619 185 196 224
0.369643 -0.375557 -0.621 187 194 213
0.378495 -0.374952 -0.62 118 139 182
0.45126 -0.375557 -0.621 123 128 147
0.464705 -0.374952 -0.62 175 180 202
0.47061 -0.374952 -0.62 171 169 190
0.441363 -0.324757 -0.537 158 107 90
0.439914 -0.322943 -0.534 157 106 89
0.43928 -0.321733 -0.532 164 106 94
0.43781 -0.319919 -0.529 169 111 99
0.458769 -0.310243 -0.513 163 111 90
0.460642 -0.310848 -0.514 161 110 89
0.463579 -0.310848 -0.514 155 104 83
0.464558 -0.310848 -0.514 155 104 83
0.473178 -0.312662 -0.517 146 101 80
0.0302095 -0.315467 -0.52 158 116 102
0.03126 -0.316073 -0.521 157 115 103
0.124791 -0.37674 -0.621 140 160 197
0.168286 -0.376133 -0.62 221 222 243
0.219892 -0.375527 -0.619 231 237 255
0.229325 -0.375527 -0.619 236 244 255
0.231683 -0.375527 -0.619 244 251 255
0.363143 -0.376133 -0.62 199 201 222
0.379676 -0.376133 -0.62 134 158 194
0.392033 -0.375527 -0.619 90 102 126
0.409719 -0.375527 -0.619 195 191 206
0.429763 -0.375527 -0.619 175 173 187
0.435181 -0.376133 -0.62 99 128 162
0.438016 -0.375527 -0.619 66 106 165
0.441086 -0.376133 -0.62 70 103 157
0.459239 -0.375527 -0.619 178 175 194
0.475746 -0.375527 -0.619 176 175 193
0.4375 -0.3185 -0.525 174 117 98
0.438136 -0.316073 -0.521 180 123 104
0.439696 -0.313647 -0.517 178 119 101
0.451929 -0.31122 -0.513 171 114 95
0.456814 -0.31122 -0.513 177 120 101
0.466516 -0.311827 -0.514 148 101 81
0.472263 -0.31304 -0.516 141 99 77
0.494162 -0.321533 -0.53 147 106 88
0.00812762 -0.305503 -0.502 200 159 131
0.0238933 -0.311589 -0.512 166 127 110
0.0472333 -0.331671 -0.545 131 103 100
0.06528 -0.350537 -0.576 127 103 103
0.0695238 -0.355406 -0.584 126 100 101
0.0724857 -0.359057 -0.59 127 103 103
0.0754933 -0.362709 -0.596 161 146 149
0.112963 -0.377923 -0.621 149 160 192
0.121243 -0.377923 -0.621 143 161 201
0.124791 -0.377923 -0.621 126 145 185
0.145848 -0.377314 -0.62 212 213 234
0.160019 -0.377314 -0.62 186 190 215
0.319594 -0.376097 -0.618 205 219 246
0.321949 -0.376097 -0.618 215 225 250
0.356662 -0.376706 -0.619 195 202 230
0.37492 -0.376097 -0.618 121 144 188
0.406703 -0.376097 -0.618 188 190 215
0.417297 -0.376097 -0.618 185 192 220
0.42436 -0.376097 -0.618 72 83 105
0.441553 -0.376706 -0.619 89 125 187
0.462776 -0.376706 -0.619 177 176 192
0.481641 -0.376706 -0.619 168 168 178
0.488311 -0.375489 -0.617 89 101 127
0.446066 -0.312197 -0.513 175 117 97
0.47128 -0.314023 -0.516 151 104 84
0.481801 -0.317066 -0.521 149 106 89
-0.000478095 -0.306459 -0.502 206 167 138
0.00524857 -0.305849 -0.501 203 163 137
0.0484486 -0.33393 -0.547 130 102 99
0.0611276 -0.34675 -0.568 127 101 100
0.155045 -0.377885 -0.619 198 213 244
0.164477 -0.377885 -0.619 208 218 245
0.297923 -0.376664 -0.617 236 234 255
0.314376 -0.376664 -0.617 169 188 220
0.321428 -0.376664 -0.617 222 229 255
0.334355 -0.376664 -0.617 203 211 234
0.34196 -0.377274 -0.618 186 192 218
0.354909 -0.377274 -0.618 202 208 234
0.35844 -0.377274 -0.618 117 124 152
0.372566 -0.377274 -0.618 126 139 173
0.381983 -0.377274 -0.618 176 184 205
0.401994 -0.377274 -0.618 187 192 211
0.40788 -0.377274 -0.618 187 189 210
0.410234 -0.377274 -0.618 187 190 209
0.420829 -0.377274 -0.618 172 177 196
0.439663 -0.377274 -0.618 50 89 156
0.474977 -0.377274 -0.618 165 168 183
0.477331 -0.377274 -0.618 165 166 186
0.480863 -0.377274 -0.618 173 171 182
0.484786 -0.376664 -0.617 149 147 152
0.491414 -0.375443 -0.615 51 69 117
0.445956 -0.313785 -0.514 178 120 96
0.451929 -0.313174 -0.513 177 119 97
0.454949 -0.312564 -0.512 177 119 99
0.463654 -0.313174 -0.513 157 106 85
0.50666 -0.329047 -0.539 147 104 88
-0.00143143 -0.306803 -0.501 205 165 139
0.0138924 -0.308028 -0.503 190 150 124
0.0228286 -0.312314 -0.51 165 128 110
0.0357029 -0.323337 -0.528 145 111 102
0.0534819 -0.340484 -0.556 126 100 99
0.0611276 -0.347832 -0.568 126 102 100
0.0666076 -0.353956 -0.578 129 103 102
0.0770143 -0.366816 -0.599 214 211 222
0.117505 -0.379676 -0.62 158 174 210
0.126952 -0.379676 -0.62 194 200 222
0.186577 -0.378451 -0.618 166 181 214
0.353159 -0.377839 -0.617 203 209 225
0.36021 -0.377839 -0.617 81 96 135
0.366087 -0.377839 -0.617 175 182 201
0.38489 -0.377839 -0.617 160 172 198
0.403694 -0.377839 -0.617 182 187 206
0.40957 -0.377839 -0.617 187 190 209
0.433777 -0.378451 -0.618 105 129 177
0.446003 -0.377839 -0.617 80 112 169
0.457755 -0.377839 -0.617 179 178 186
0.473033 -0.377839 -0.617 144 151 170
0.475384 -0.377839 -0.617 149 151 174
0.45838 -0.342321 -0.559 138 98 98
0.439971 -0.319663 -0.522 178 122 99
0.454949 -0.313539 -0.512 177 119 97
0.45885 -0.313539 -0.512 169 113 90
0.459825 -0.313539 -0.512 166 110 87
-0.01548 -0.3698 -0.602 201 159 134
-0.0130333 -0.3655 -0.595 199 163 137
0.00142857 -0.307143 -0.5 206 165 137
0.0148505 -0.308986 -0.503 187 146 124
0.0302095 -0.319429 -0.52 154 114 104
0.0598343 -0.347686 -0.566 125 101 99
0.0972714 -0.380243 -0.619 155 162 188
0.132643 -0.380243 -0.619 206 209 228
0.159503 -0.379629 -0.618 102 120 156
0.16068 -0.379629 -0.618 114 133 176
0.296267 -0.3784 -0.616 205 210 250
0.330293 -0.3784 -0.616 157 159 174
0.424849 -0.379014 -0.617 97 112 145
0.453054 -0.379014 -0.617 181 183 206
0.457755 -0.379014 -0.617 158 156 159
0.462456 -0.379014 -0.617 166 163 172
0.441841 -0.324957 -0.529 173 118 97
0.439661 -0.321886 -0.524 174 119 98
0.456899 -0.314514 -0.512 177 119 95
-0.0141667 -0.366633 -0.595 198 164 137
-0.00142857 -0.308095 -0.5 208 166 141
0.0129086 -0.309328 -0.502 188 147 125
0.0177952 -0.311176 -0.505 181 140 120
0.0345657 -0.324116 -0.526 150 110 108
0.0534819 -0.342602 -0.556 125 99 98
0.100646 -0.380806 -0.618 197 194 211
0.126543 -0.380806 -0.618 196 201 220
0.155719 -0.38019 -0.617 170 185 214
0.327414 -0.378957 -0.615 196 207 239
0.35786 -0.38019 -0.617 196 198 219
0.38019 -0.38019 -0.617 144 162 210
0.380747 -0.379573 -0.616 172 183 213
0.415947 -0.379573 -0.616 188 191 206
0.435893 -0.379573 -0.616 27 63 137
0.45584 -0.379573 -0.616 117 112 116
0.471858 -0.38019 -0.617 122 133 161
0.440681 -0.31857 -0.517 182 126 103
0.444111 -0.316106 -0.513 180 122 102
0.448997 -0.316106 -0.513 176 118 96
0.464631 -0.316106 -0.513 167 112 91
0.467563 -0.316106 -0.513 148 92 75
0.0612352 -0.351696 -0.569 125 100 103
0.0912286 -0.381983 -0.618 171 178 197
0.132214 -0.381365 -0.617 204 211 227
0.13574 -0.381365 -0.617 201 203 224
0.3157 -0.380129 -0.615 188 206 252
0.325071 -0.380129 -0.615 141 155 192
0.328586 -0.380129 -0.615 219 222 239
0.344373 -0.380747 -0.616 201 207 221
0.345547 -0.380747 -0.616 201 207 221
0.407733 -0.380747 -0.616 168 176 199
0.410586 -0.380129 -0.615 173 178 197
0.421129 -0.380129 -0.615 173 168 174
0.430027 -0.380747 -0.616 42 77 143
0.435893 -0.380747 -0.616 19 57 132
0.449973 -0.380747 -0.616 123 146 198
0.453493 -0.380747 -0.616 173 171 184
0.447309 -0.332535 -0.538 159 111 101
0.440547 -0.320173 -0.518 179 121 97
0.469517 -0.317083 -0.513 154 103 84
-0.00814381 -0.31186 -0.503 204 168 142
0.0119286 -0.31062 -0.501 192 150 125
0.0138648 -0.31124 -0.502 188 146 124
0.0218143 -0.31558 -0.509 167 124 115
0.0413486 -0.33232 -0.536 137 105 94
0.0653933 -0.35774 -0.577 123 102 101
0.103 -0.38316 -0.618 193 199 213
0.11124 -0.38316 -0.618 129 141 181
0.143733 -0.38192 -0.616 146 161 194
0.148427 -0.38192 -0.616 149 162 194
0.326243 -0.3813 -0.615 179 190 222
0.339129 -0.3813 -0.615 206 213 229
0.3403 -0.3813 -0.615 197 202 221
0.349067 -0.38192 -0.616 203 211 222
0.361973 -0.38192 -0.616 95 102 131
0.363147 -0.38192 -0.616 95 101 133
0.375443 -0.3813 -0.615 98 139 203
0.3813 -0.3813 -0.615 85 110 167
0.408243 -0.3813 -0.615 157 164 183
0.409414 -0.3813 -0.615 154 161 180
0.4305 -0.3813 -0.615 27 64 134
0.431671 -0.3813 -0.615 23 60 130
0.442214 -0.3813 -0.615 39 79 140
0.4633 -0.3813 -0.615 170 167 186
0.480871 -0.3813 -0.615 175 170 174
0.483214 -0.3813 -0.615 176 173 182
0.486767 -0.3689 -0.595 133 109 99
0.45209 -0.3379 -0.545 152 105 99
0.443856 -0.32798 -0.529 169 121 99
0.440938 -0.3193 -0.515 185 125 101
0.444111 -0.31806 -0.513 182 124 100
0.452023 -0.31744 -0.512 178 120 98
0.463726 -0.31744 -0.512 168 112 89
0.466651 -0.31744 -0.512 158 107 86
0.467627 -0.31744 -0.512 156 105 84
-0.0176552 -0.371899 -0.598 200 160 134
-0.01012 -0.314684 -0.506 206 164 139
-0.00912 -0.31344 -0.504 207 165 140
-0.00427714 -0.31033 -0.499 208 166 141
0.00904762 -0.310952 -0.5 197 155 130
0.03126 -0.324012 -0.521 151 115 103
0.0449086 -0.337072 -0.542 128 104 100
0.0509943 -0.343291 -0.552 126 102 100
0.0934314 -0.383715 -0.617 94 111 141
0.107534 -0.383715 -0.617 197 195 216
0.11341 -0.383715 -0.617 94 121 164
0.119287 -0.383715 -0.617 121 145 189
0.121637 -0.383715 -0.617 105 128 169
0.130827 -0.383093 -0.616 203 206 225
0.318695 -0.38185 -0.614 209 225 255
0.322204 -0.38185 -0.614 91 107 143
0.353186 -0.382471 -0.615 202 207 226
0.362557 -0.382471 -0.615 111 116 145
0.388867 -0.38185 -0.614 200 198 209
0.394714 -0.38185 -0.614 169 163 163
0.446173 -0.38185 -0.614 45 79 140
0.447343 -0.38185 -0.614 60 82 131
0.451586 -0.382471 -0.615 167 176 209
0.453929 -0.382471 -0.615 173 174 194
0.444221 -0.318415 -0.512 182 124 100
0.450072 -0.318415 -0.512 182 124 100
0.455033 -0.317793 -0.511 177 119 97
0.461847 -0.317793 -0.511 172 116 93
-0.00426857 -0.310657 -0.498 207 165 140
0.00712857 -0.311281 -0.499 198 156 131
0.0248686 -0.31939 -0.512 162 120 108
0.0667229 -0.361186 -0.579 122 102 103
0.142329 -0.383643 -0.615 206 211 231
0.156386 -0.383643 -0.615 212 220 243
0.318176 -0.382395 -0.613 174 193 236
0.332188 -0.382395 -0.613 177 172 179
0.353781 -0.383019 -0.614 202 209 228
0.364307 -0.383019 -0.614 54 79 135
0.366646 -0.383019 -0.614 55 91 153
0.388867 -0.383019 -0.614 192 190 203
0.42863 -0.383019 -0.614 55 94 159
0.441944 -0.382395 -0.613 101 132 179
0.45436 -0.383019 -0.614 175 178 183
0.487107 -0.383019 -0.614 91 105 140
0.478633 -0.362433 -0.581 139 105 93
0.442655 -0.326876 -0.524 174 119 98
0.444221 -0.31939 -0.512 181 127 103
0.45698 -0.318767 -0.511 181 125 100
0.460873 -0.318767 -0.511 175 119 96
0.474403 -0.320014 -0.513 158 107 86
0.484894 -0.323757 -0.519 156 108 86
0.0586524 -0.353529 -0.565 123 101 103
0.0954714 -0.384814 -0.615 98 103 141
0.109707 -0.38544 -0.616 132 148 181
0.112053 -0.38544 -0.616 108 137 181
0.142329 -0.384814 -0.615 196 202 218
0.1435 -0.384814 -0.615 197 201 213
0.148186 -0.384814 -0.615 164 169 188
0.359043 -0.383563 -0.613 147 139 152
0.374222 -0.383563 -0.613 42 77 145
0.37539 -0.383563 -0.613 43 77 138
0.394071 -0.383563 -0.613 125 127 126
0.427461 -0.384189 -0.614 92 118 177
0.43097 -0.384189 -0.614 69 100 157
0.447782 -0.383563 -0.613 94 108 145
0.456699 -0.384189 -0.614 182 182 192
0.461377 -0.384189 -0.614 179 177 191
0.471903 -0.384189 -0.614 172 178 192
0.47892 -0.384189 -0.614 178 173 179
0.491349 -0.382937 -0.612 149 165 190
0.476437 -0.361037 -0.577 139 109 99
0.470088 -0.355406 -0.568 137 107 97
0.454167 -0.341014 -0.545 150 110 98
-0.00236667 -0.311927 -0.497 206 166 140
0.00141714 -0.311299 -0.496 205 165 140
0.0109305 -0.313182 -0.499 193 151 129
0.0907857 -0.385986 -0.615 184 189 211
0.102667 -0.386613 -0.616 195 194 210
0.109707 -0.386613 -0.616 140 156 189
0.112053 -0.386613 -0.616 115 142 187
