ply
format ascii 1.0
comment Created by Open3D
element vertex 1290
property double x
property double y
property double z
property uchar red
property uchar green
property uchar blue
end_header
0.0192429 -0.360483 -0.449 155 116 99
0.023781 -0.364497 -0.454 151 114 98
0.0493219 -0.388583 -0.484 127 99 96
0.0525181 -0.391794 -0.488 121 96 92
0.0595238 -0.401429 -0.5 115 89 92
0.0646 -0.409457 -0.51 99 89 90
0.0659571 -0.411866 -0.513 99 90 93
0.0700971 -0.419091 -0.522 95 89 91
0.4368 -0.4496 -0.56 137 161 205
0.442133 -0.4496 -0.56 124 150 187
0.451471 -0.450403 -0.561 85 112 165
0.46002 -0.450403 -0.561 189 194 198
0.474133 -0.4496 -0.56 145 171 198
0.495467 -0.4496 -0.56 73 89 112
0.496533 -0.4496 -0.56 56 82 119
0.4885 -0.4215 -0.525 123 100 94
0.476652 -0.403837 -0.503 150 111 94
0.475709 -0.399823 -0.498 159 117 93
0.4756 -0.395006 -0.492 167 125 100
0.476381 -0.391794 -0.488 167 123 96
0.500441 -0.384569 -0.479 170 120 93
0.503178 -0.384569 -0.479 166 119 91
0.511692 -0.386174 -0.481 159 115 86
0.85778 -0.447191 -0.557 180 182 169
-0.0444305 -0.344438 -0.428 194 158 124
-0.0392619 -0.342024 -0.425 192 158 121
-0.0351314 -0.341219 -0.424 192 156 120
-0.0310933 -0.341219 -0.424 194 156 120
-0.0223667 -0.343633 -0.427 184 146 110
-0.0191581 -0.344438 -0.428 184 141 109
-0.0062 -0.349267 -0.434 173 132 104
0.0105714 -0.357314 -0.444 163 122 104
0.0148667 -0.358924 -0.446 158 117 99
0.0201429 -0.362143 -0.45 155 116 99
0.0439733 -0.383067 -0.476 127 99 95
0.0702314 -0.42089 -0.523 103 91 95
0.458951 -0.451471 -0.561 190 194 193
0.476666 -0.403186 -0.501 152 114 95
0.475671 -0.398357 -0.495 156 114 89
0.474689 -0.396748 -0.493 159 117 92
0.480773 -0.389505 -0.484 179 132 102
0.4853 -0.3887 -0.483 178 129 97
0.488886 -0.387895 -0.482 176 127 94
0.489704 -0.38709 -0.481 176 127 94
0.492343 -0.386286 -0.48 174 125 93
0.494844 -0.384676 -0.478 168 121 91
0.496665 -0.384676 -0.478 163 116 88
0.501353 -0.385481 -0.479 166 119 89
0.832941 -0.447448 -0.556 178 180 169
0.856719 -0.448252 -0.557 159 159 149
-0.0343238 -0.342027 -0.424 192 154 118
-0.0263095 -0.342833 -0.425 188 150 114
-0.0246905 -0.342833 -0.425 187 149 113
-0.0199267 -0.344447 -0.427 185 142 110
-0.0102857 -0.34848 -0.432 177 136 108
0.0063 -0.35574 -0.441 161 120 100
0.00970381 -0.357353 -0.443 162 121 103
0.0439733 -0.383973 -0.476 127 99 95
0.0449743 -0.38478 -0.477 128 101 94
0.0607181 -0.404947 -0.502 107 88 90
0.460267 -0.451733 -0.56 190 195 201
0.496711 -0.450927 -0.559 109 127 151
0.4895 -0.4235 -0.525 121 103 93
0.47943 -0.410593 -0.509 140 107 100
0.477586 -0.407367 -0.505 148 110 87
0.476664 -0.402527 -0.499 156 118 95
0.476657 -0.40172 -0.498 157 119 96
0.476504 -0.396073 -0.491 164 123 95
0.476426 -0.39446 -0.489 165 124 96
0.477357 -0.39446 -0.489 167 123 96
0.516429 -0.388813 -0.482 155 114 86
0.51842 -0.38962 -0.483 152 111 83
0.843824 -0.450927 -0.559 152 152 144
-0.062459 -0.438246 -0.542 182 149 116
-0.04514 -0.34526 -0.427 195 157 121
-0.0334371 -0.342026 -0.423 194 154 119
-0.02074 -0.34526 -0.427 186 143 111
-0.0191133 -0.34526 -0.427 182 138 109
-0.0119038 -0.348494 -0.431 174 133 105
-0.00454667 -0.35092 -0.434 171 129 107
0.00970381 -0.358197 -0.443 164 121 102
0.0418943 -0.382454 -0.473 128 101 94
0.045979 -0.386497 -0.478 127 100 93
0.0525181 -0.394583 -0.488 119 95 91
0.0535571 -0.395391 -0.489 119 95 91
0.4624 -0.4528 -0.56 190 199 196
0.492634 -0.451183 -0.558 175 179 188
0.493697 -0.451183 -0.558 172 176 185
0.488631 -0.422883 -0.523 119 101 91
0.47943 -0.411563 -0.509 140 107 100
0.476537 -0.397817 -0.492 167 123 96
0.479115 -0.393774 -0.487 173 128 99
0.479057 -0.392966 -0.486 173 128 99
0.48622 -0.39054 -0.483 171 124 96
0.488886 -0.389731 -0.482 179 129 102
0.504859 -0.386497 -0.478 167 120 92
0.51934 -0.39054 -0.483 151 111 86
0.808976 -0.450374 -0.557 179 179 171
0.815996 -0.449566 -0.556 172 172 162
0.818114 -0.449566 -0.556 171 171 161
0.84 -0.4528 -0.56 125 125 117
0.86655 -0.454417 -0.562 113 112 107
-0.03102 -0.342831 -0.423 193 153 118
-0.0302857 -0.343642 -0.424 193 153 118
-0.00618571 -0.350936 -0.433 170 128 106
-0.00124571 -0.353368 -0.436 169 127 105
0.00884 -0.35823 -0.442 162 121 101
0.0131381 -0.360662 -0.445 161 120 102
0.0282905 -0.370388 -0.457 145 108 90
0.0330714 -0.37525 -0.463 134 104 94
0.0378857 -0.379303 -0.468 128 101 94
0.043881 -0.384976 -0.475 128 100 96
0.0481 -0.389839 -0.481 125 97 93
0.0570429 -0.401186 -0.495 115 91 89
0.063379 -0.411722 -0.508 98 85 92
0.441617 -0.452246 -0.558 50 81 145
0.44268 -0.452246 -0.558 51 91 150
0.448797 -0.453056 -0.559 117 159 209
0.455186 -0.453056 -0.559 199 200 204
0.470314 -0.452246 -0.558 89 125 177
0.473503 -0.452246 -0.558 67 105 154
0.482006 -0.452246 -0.558 153 165 187
0.484131 -0.452246 -0.558 191 189 194
0.485194 -0.452246 -0.558 177 175 180
0.488383 -0.452246 -0.558 171 176 182
0.48222 -0.415774 -0.513 133 100 91
0.476664 -0.404428 -0.499 153 113 88
0.476657 -0.403617 -0.498 155 115 90
0.476467 -0.397133 -0.49 166 122 95
0.479057 -0.393891 -0.486 174 128 102
0.488788 -0.389839 -0.481 181 131 104
0.498351 -0.386597 -0.477 169 119 92
0.501077 -0.386597 -0.477 170 120 93
0.522259 -0.39227 -0.484 151 111 85
0.806854 -0.451435 -0.557 156 155 150
0.817464 -0.451435 -0.557 143 145 134
0.819586 -0.451435 -0.557 142 144 133
0.821708 -0.451435 -0.557 138 140 129
0.840859 -0.455488 -0.562 118 118 110
-0.0479143 -0.349324 -0.43 188 153 115
-0.0382714 -0.343637 -0.423 197 157 122
-0.03102 -0.343637 -0.423 194 154 118
-0.0214524 -0.345262 -0.425 184 140 111
-0.0174867 -0.346887 -0.427 180 134 108
-0.0167124 -0.347699 -0.428 181 135 109
-0.0029 -0.353386 -0.435 169 127 103
0.00292 -0.355823 -0.438 165 122 103
0.00884 -0.359072 -0.442 161 120 100
0.0148333 -0.36151 -0.445 160 119 101
0.0183467 -0.363947 -0.448 155 117 98
0.0200981 -0.364759 -0.449 154 116 97
0.0570429 -0.402129 -0.495 113 92 91
0.0583371 -0.404566 -0.498 109 91 91
0.0595238 -0.40619 -0.5 106 88 88
0.0769124 -0.44031 -0.542 104 120 154
0.45012 -0.453309 -0.558 153 167 193
0.451183 -0.453309 -0.558 138 143 147
0.460749 -0.453309 -0.558 197 199 198
0.462874 -0.453309 -0.558 145 155 167
0.483264 -0.452496 -0.557 178 176 187
0.5013 -0.452496 -0.557 19 54 110
0.48438 -0.39238 -0.483 174 127 101
0.487968 -0.391568 -0.482 175 128 102
0.50562 -0.387506 -0.477 164 119 90
0.511232 -0.388318 -0.478 155 114 84
0.810429 -0.453309 -0.558 126 127 121
0.829746 -0.455746 -0.561 117 117 109
0.849223 -0.458183 -0.564 124 123 118
-0.0493 -0.354214 -0.435 192 152 116
-0.0440152 -0.345257 -0.424 192 153 114
-0.03666 -0.344443 -0.423 195 157 120
-0.0349657 -0.343629 -0.422 195 157 120
-0.0286029 -0.344443 -0.423 189 151 114
-0.0206914 -0.346886 -0.426 179 138 108
0.00292 -0.356657 -0.438 164 122 100
0.00712381 -0.358286 -0.44 165 122 103
0.0209533 -0.365614 -0.449 155 114 96
0.0236238 -0.367243 -0.451 148 111 93
0.0245371 -0.368057 -0.452 147 110 92
0.0349105 -0.377829 -0.464 131 101 93
0.04488 -0.3876 -0.476 130 100 98
0.073881 -0.435643 -0.535 95 106 134
0.413241 -0.453557 -0.557 104 145 189
0.448252 -0.453557 -0.557 173 179 193
0.452496 -0.453557 -0.557 190 196 192
0.46841 -0.453557 -0.557 68 105 158
0.483264 -0.453557 -0.557 162 165 182
0.476504 -0.399814 -0.491 164 119 96
0.482617 -0.394114 -0.484 172 125 99
0.493933 -0.389229 -0.478 169 122 94
0.495626 -0.388414 -0.477 172 125 97
0.501986 -0.388414 -0.477 169 124 93
0.820129 -0.456814 -0.561 119 120 112
0.834849 -0.458443 -0.563 121 122 114
0.835921 -0.458443 -0.563 120 121 113
0.846424 -0.460071 -0.565 117 117 109
0.86346 -0.4617 -0.567 110 111 103
-0.0466571 -0.347697 -0.426 192 153 112
-0.0431057 -0.345249 -0.423 195 153 115
-0.0398829 -0.345249 -0.423 197 157 122
-0.0269914 -0.345249 -0.423 189 146 111
-0.0245743 -0.345249 -0.423 187 144 110
-0.01988 -0.347697 -0.426 177 136 108
-0.0150819 -0.34933 -0.428 177 135 110
-0.0118486 -0.350146 -0.429 173 131 107
-0.00617143 -0.352594 -0.432 169 127 105
0.015681 -0.363205 -0.445 159 118 100
0.0200533 -0.365653 -0.448 155 114 96
0.04082 -0.384426 -0.471 131 98 93
0.05014 -0.39422 -0.483 123 95 92
0.44507 -0.454618 -0.557 67 106 175
0.448252 -0.454618 -0.557 148 151 160
0.455679 -0.454618 -0.557 203 200 207
0.484325 -0.454618 -0.557 164 175 197
0.48598 -0.42197 -0.517 127 98 84
0.480909 -0.396669 -0.486 164 118 92
0.482617 -0.395036 -0.484 173 126 100
0.493023 -0.390139 -0.478 170 123 95
0.494717 -0.389323 -0.477 173 126 98
0.498213 -0.388507 -0.476 175 126 96
0.798737 -0.455434 -0.558 101 101 99
0.817309 -0.458699 -0.562 119 120 115
0.822661 -0.458699 -0.562 116 117 111
0.828414 -0.459515 -0.563 115 114 109
0.842531 -0.461964 -0.566 119 120 112
0.845766 -0.461964 -0.566 115 116 108
-0.0517771 -0.361598 -0.442 193 153 117
-0.0405924 -0.345236 -0.422 196 157 118
-0.0269276 -0.345236 -0.422 186 146 110
-0.0222095 -0.346872 -0.424 187 144 112
-0.0182571 -0.348509 -0.426 177 136 108
0.00208095 -0.357508 -0.437 162 121 101
0.0148 -0.363234 -0.444 160 119 101
0.0200533 -0.366507 -0.448 152 115 99
0.0236238 -0.368961 -0.451 149 109 97
0.0273 -0.372233 -0.455 143 105 96
0.0300971 -0.374688 -0.458 141 104 95
0.0535571 -0.400049 -0.489 116 90 89
0.0595238 -0.409048 -0.5 101 89 91
0.0608391 -0.411502 -0.503 99 84 87
0.0662143 -0.421319 -0.515 94 85 90
0.447448 -0.454861 -0.556 133 138 158
0.480278 -0.454861 -0.556 63 95 142
0.477619 -0.409048 -0.5 153 111 89
0.490405 -0.391868 -0.479 172 122 95
0.504405 -0.388595 -0.475 164 119 90
0.824514 -0.461406 -0.564 120 119 114
0.846591 -0.464678 -0.568 119 119 111
0.872814 -0.467132 -0.571 122 121 116
0.881773 -0.469587 -0.574 121 122 116
-0.0413962 -0.34604 -0.422 194 155 116
-0.0214019 -0.34768 -0.424 181 140 110
0.0227143 -0.369 -0.45 148 110 97
0.03388 -0.37884 -0.462 133 103 95
0.0558733 -0.40426 -0.493 107 86 85
0.0583371 -0.40836 -0.498 105 90 93
0.468629 -0.45592 -0.556 30 78 144
0.486023 -0.42312 -0.516 125 101 89
0.484461 -0.39688 -0.484 169 119 94
0.4853 -0.39606 -0.483 172 125 99
0.492112 -0.39196 -0.478 172 122 95
0.514706 -0.39114 -0.477 148 111 82
0.823824 -0.4633 -0.565 121 120 116
0.8249 -0.4633 -0.565 121 120 115
0.842263 -0.46576 -0.568 127 126 122
0.844427 -0.46576 -0.568 124 123 118
0.848081 -0.46658 -0.569 119 120 114
0.88331 -0.4715 -0.575 105 106 100
-0.0413962 -0.346844 -0.422 192 153 114
-0.0316752 -0.346022 -0.421 191 148 113
-0.0277314 -0.346844 -0.422 187 147 112
-0.0237686 -0.347666 -0.423 185 144 112
-0.0126362 -0.351775 -0.428 177 135 110
-0.00615714 -0.354241 -0.431 169 126 107
-0.000413333 -0.356707 -0.434 166 125 105
0.01134 -0.36246 -0.441 163 120 103
0.0200086 -0.367391 -0.447 151 113 100
0.0447857 -0.390405 -0.475 124 99 92
0.0679781 -0.428212 -0.521 81 80 88
0.0742952 -0.442185 -0.538 165 173 192
0.449566 -0.456979 -0.556 77 105 142
0.460156 -0.456979 -0.556 106 125 157
0.466729 -0.456157 -0.555 38 82 147
0.4773 -0.456157 -0.555 56 99 154
0.495245 -0.434788 -0.529 109 91 87
0.485118 -0.422459 -0.514 131 102 88
0.478574 -0.411774 -0.501 147 109 90
0.479057 -0.399446 -0.486 171 121 98
0.4853 -0.39698 -0.483 173 123 98
0.487771 -0.394514 -0.48 177 127 102
0.488686 -0.394514 -0.48 176 126 99
0.491317 -0.393692 -0.479 173 123 96
0.506214 -0.390405 -0.475 163 118 89
0.511813 -0.391227 -0.476 155 116 87
0.818813 -0.465198 -0.566 93 93 91
0.82998 -0.46602 -0.567 122 121 116
0.83106 -0.46602 -0.567 124 123 118
0.850657 -0.468486 -0.57 109 110 105
0.861938 -0.469308 -0.571 89 89 87
0.87478 -0.470951 -0.573 100 101 95
-0.0521429 -0.360829 -0.438 189 150 117
-0.0142333 -0.351767 -0.427 176 136 110
-0.00288 -0.355886 -0.432 169 126 109
0.000414286 -0.358357 -0.435 164 123 103
0.0209067 -0.369067 -0.448 150 112 99
0.02724 -0.37401 -0.454 140 108 97
0.0309695 -0.377305 -0.458 136 106 96
0.0427048 -0.388838 -0.472 127 100 93
0.0681086 -0.430029 -0.522 110 109 117
0.449814 -0.457214 -0.555 77 112 154
0.495434 -0.45639 -0.554 127 153 190
0.485151 -0.422614 -0.513 130 102 88
0.478289 -0.402843 -0.489 164 118 92
0.479057 -0.400371 -0.486 169 121 98
0.479983 -0.400371 -0.486 169 122 96
0.487871 -0.396252 -0.481 177 127 102
0.487771 -0.395429 -0.48 176 126 101
0.489492 -0.394605 -0.479 173 123 96
0.500786 -0.39131 -0.475 171 124 96
0.502595 -0.39131 -0.475 172 123 93
0.58784 -0.434971 -0.528 158 142 129
0.841971 -0.469571 -0.57 101 102 97
0.855821 -0.471219 -0.572 108 108 106
0.865627 -0.471219 -0.572 107 109 104
-0.0380905 -0.347626 -0.421 193 153 118
-0.0284676 -0.347626 -0.421 187 144 112
-0.0276657 -0.347626 -0.421 188 145 113
-0.0221571 -0.349277 -0.423 180 139 111
0.00290667 -0.360011 -0.436 163 120 103
0.00374571 -0.360837 -0.437 163 120 103
0.0319114 -0.379003 -0.459 134 104 93
0.0511657 -0.399646 -0.484 113 94 90
0.456157 -0.458271 -0.555 193 203 213
0.4986 -0.457446 -0.554 41 68 121
0.50071 -0.457446 -0.554 27 57 109
0.488686 -0.396343 -0.48 174 124 97
0.491202 -0.394691 -0.478 173 123 96
0.493548 -0.392214 -0.475 166 117 87
0.50244 -0.391389 -0.474 169 122 92
0.507857 -0.391389 -0.474 165 118 88
0.827134 -0.471483 -0.571 91 90 88
0.827857 -0.470657 -0.57 118 117 113
0.836159 -0.469831 -0.569 109 108 103
0.837243 -0.469831 -0.569 107 106 101
0.861683 -0.473134 -0.573 95 97 92
0.866049 -0.473134 -0.573 92 93 88
0.875213 -0.47396 -0.574 97 98 92
-0.0412981 -0.348428 -0.421 193 152 120
-0.0276657 -0.348428 -0.421 187 144 112
-0.0245162 -0.349255 -0.422 182 141 113
-0.0182143 -0.351738 -0.425 173 132 110
-0.0142333 -0.353393 -0.427 173 133 108
0.0147667 -0.366635 -0.443 158 119 102
0.0173371 -0.367463 -0.444 153 116 100
0.0191143 -0.369118 -0.446 151 113 100
0.0318419 -0.37905 -0.458 136 104 93
0.03564 -0.38236 -0.462 132 102 92
0.452986 -0.459329 -0.555 167 185 199
0.454043 -0.459329 -0.555 176 194 208
0.463777 -0.458501 -0.554 104 142 189
0.47644 -0.458501 -0.554 98 139 193
0.477495 -0.458501 -0.554 86 127 181
0.482771 -0.458501 -0.554 177 185 196
0.495271 -0.459329 -0.555 148 158 168
0.496329 -0.459329 -0.555 113 134 161
0.500557 -0.459329 -0.555 25 64 105
0.490732 -0.43119 -0.521 111 96 89
0.477533 -0.408844 -0.494 153 112 92
0.477474 -0.407189 -0.492 152 111 91
0.490291 -0.395602 -0.478 174 124 97
0.490174 -0.394774 -0.477 173 123 96
0.493548 -0.393119 -0.475 169 120 90
0.502281 -0.391464 -0.473 168 121 93
0.601851 -0.443604 -0.536 174 167 159
0.825666 -0.474226 -0.573 30 27 20
0.828583 -0.473398 -0.572 60 60 62
0.837629 -0.471743 -0.57 103 104 98
0.862093 -0.475053 -0.574 87 89 84
0.880457 -0.476709 -0.576 38 41 32
0.884615 -0.478364 -0.578 30 33 24
-0.05002 -0.354207 -0.427 193 154 123
-0.0445057 -0.34923 -0.421 197 156 124
-0.02526 -0.34923 -0.421 182 141 109
-0.00288 -0.358354 -0.432 168 125 108
0.00541048 -0.362502 -0.437 165 122 105
0.00876 -0.363331 -0.438 165 122 106
0.0318419 -0.379922 -0.458 136 104 93
0.03564 -0.38324 -0.462 131 101 91
0.04154 -0.389047 -0.469 128 100 89
0.0436038 -0.391535 -0.472 125 98 89
0.436607 -0.458727 -0.553 51 89 162
0.453225 -0.459556 -0.554 193 204 208
0.458501 -0.459556 -0.554 189 199 209
0.47855 -0.459556 -0.554 96 120 164
0.486992 -0.459556 -0.554 172 186 189
0.509152 -0.459556 -0.554 52 74 113
0.509287 -0.458727 -0.553 81 93 109
0.491674 -0.433011 -0.522 109 96 90
0.497926 -0.393194 -0.474 178 129 99
0.866467 -0.476147 -0.574 113 114 109
0.86756 -0.476147 -0.574 113 115 110
0.87412 -0.476147 -0.574 101 103 98
-0.038 -0.3492 -0.42 186 145 113
-0.033919 -0.348369 -0.419 191 147 118
-0.03 -0.3492 -0.42 192 147 118
-0.00287333 -0.358346 -0.431 169 124 105
0.0164543 -0.368323 -0.443 155 115 103
0.449004 -0.460611 -0.554 200 204 216
0.47242 -0.45978 -0.553 86 119 173
0.477495 -0.460611 -0.554 80 120 169
0.484882 -0.460611 -0.554 179 187 190
0.509014 -0.461443 -0.555 96 108 106
0.47854 -0.41322 -0.497 149 111 92
0.478522 -0.412389 -0.496 150 112 93
0.477506 -0.409894 -0.493 149 111 90
0.482617 -0.402411 -0.484 166 120 94
0.492773 -0.39576 -0.476 174 124 97
0.497776 -0.393266 -0.473 177 128 98
0.50138 -0.393266 -0.473 177 130 102
0.832183 -0.478903 -0.576 29 25 24
0.83148 -0.47724 -0.574 22 20 21
0.83801 -0.474746 -0.571 103 104 99
0.840568 -0.475577 -0.572 102 104 99
0.843836 -0.475577 -0.572 99 101 96
0.844926 -0.475577 -0.572 98 99 94
0.865786 -0.478071 -0.575 83 84 79
0.875643 -0.478071 -0.575 102 104 99
0.899786 -0.486386 -0.585 103 104 98
-0.0347171 -0.349167 -0.419 190 147 115
-0.0276 -0.35 -0.42 185 141 112
-0.02526 -0.350833 -0.421 184 140 113
-0.00612857 -0.3575 -0.429 169 126 107
0.0104524 -0.365833 -0.439 168 125 109
0.464832 -0.461667 -0.554 100 131 175
0.473274 -0.461667 -0.554 83 122 177
0.487871 -0.4625 -0.555 175 180 174
0.502518 -0.463333 -0.556 137 150 143
0.509014 -0.4625 -0.555 136 139 144
0.485229 -0.425 -0.51 135 99 85
0.486039 -0.400833 -0.481 169 122 94
0.490291 -0.398333 -0.478 175 125 98
0.494314 -0.395 -0.474 172 123 93
0.497926 -0.395 -0.474 177 126 97
0.848586 -0.4775 -0.573 36 37 31
0.850769 -0.4775 -0.573 44 45 39
0.873874 -0.48 -0.576 122 124 119
0.88394 -0.4825 -0.579 83 86 79
-0.0379095 -0.349965 -0.419 182 142 107
-0.0363133 -0.349965 -0.419 185 144 112
-0.0346343 -0.34913 -0.418 187 146 114
-0.00205238 -0.359988 -0.431 168 125 108
0.0208133 -0.372516 -0.446 152 114 101
0.0466933 -0.397573 -0.476 120 95 90
0.4232 -0.461051 -0.552 217 225 236
0.426354 -0.461051 -0.552 210 216 228
0.439767 -0.461887 -0.553 53 87 158
0.45428 -0.462722 -0.554 203 213 215
0.458501 -0.462722 -0.554 200 207 217
0.473274 -0.462722 -0.554 107 133 168
0.4847 -0.463557 -0.555 151 151 153
0.485757 -0.463557 -0.555 150 150 148
0.487106 -0.428477 -0.513 131 97 88
0.480476 -0.417619 -0.5 138 104 92
0.4785 -0.413443 -0.495 152 111 93
0.48346 -0.40342 -0.483 172 125 97
0.486039 -0.40175 -0.481 170 123 95
0.491867 -0.397573 -0.476 175 125 98
0.494314 -0.395903 -0.474 171 121 94
0.49612 -0.395903 -0.474 171 122 92
0.50931 -0.394232 -0.472 164 121 89
0.835826 -0.481932 -0.577 29 25 26
0.836947 -0.479427 -0.574 119 120 115
0.861806 -0.481097 -0.576 112 114 111
0.873193 -0.481932 -0.577 114 116 111
0.882837 -0.483603 -0.579 102 105 98
0.885467 -0.484438 -0.58 102 105 98
-0.0307267 -0.350763 -0.419 188 144 115
-0.0291305 -0.350763 -0.419 188 143 112
-0.0236562 -0.352437 -0.421 183 139 110
-0.0141667 -0.355786 -0.425 169 127 105
-0.0109543 -0.356623 -0.426 164 121 102
-0.00935333 -0.35746 -0.427 166 123 104
-0.00449429 -0.359134 -0.429 164 121 102
0.00538571 -0.364157 -0.435 166 124 108
0.0104286 -0.366669 -0.438 165 122 105
0.0164171 -0.370017 -0.442 154 115 100
0.0280429 -0.379226 -0.453 140 106 96
0.451114 -0.463777 -0.554 179 181 176
0.45428 -0.463777 -0.554 173 178 171
0.457446 -0.463777 -0.554 168 173 177
0.458501 -0.463777 -0.554 174 174 174
0.462722 -0.463777 -0.554 138 150 162
0.476243 -0.464614 -0.555 161 162 167
0.490869 -0.465451 -0.556 167 171 172
0.506754 -0.465451 -0.556 144 144 144
0.508872 -0.465451 -0.556 138 138 138
0.487131 -0.428617 -0.512 131 98 89
0.481437 -0.419409 -0.501 137 105 92
0.4785 -0.414386 -0.495 152 109 92
0.478374 -0.411037 -0.491 159 113 90
0.490174 -0.399317 -0.477 174 124 97
0.494314 -0.396806 -0.474 172 123 93
0.498677 -0.395969 -0.473 176 127 97
0.532036 -0.403503 -0.482 150 107 75
0.601045 -0.442849 -0.529 72 66 68
0.84788 -0.48052 -0.574 94 95 90
0.848973 -0.48052 -0.574 79 80 75
-0.0252 -0.3524 -0.42 183 140 108
-0.0244 -0.3524 -0.42 183 139 110
-0.014941 -0.355756 -0.424 169 126 107
0.0147 -0.37002 -0.441 156 117 100
0.0190286 -0.372537 -0.444 150 113 97
0.0298343 -0.380928 -0.454 138 106 95
0.0326429 -0.383445 -0.457 136 102 92
0.0345343 -0.385123 -0.459 132 99 90
0.0672429 -0.438822 -0.523 173 176 195
0.0688914 -0.443017 -0.528 173 176 195
0.415087 -0.462315 -0.551 205 212 220
0.418235 -0.462315 -0.551 203 204 208
0.445033 -0.463993 -0.553 180 182 181
0.468843 -0.465671 -0.555 181 182 184
0.474129 -0.465671 -0.555 178 179 181
0.486447 -0.46735 -0.557 172 174 173
0.49069 -0.46735 -0.557 173 173 175
0.492812 -0.46735 -0.557 169 169 171
0.495823 -0.468189 -0.558 157 155 158
0.497949 -0.468189 -0.558 156 155 153
0.510553 -0.469028 -0.559 135 135 135
0.511618 -0.469028 -0.559 132 132 132
0.512829 -0.468189 -0.558 127 127 127
0.50196 -0.448051 -0.534 104 86 82
0.485123 -0.403582 -0.481 172 122 95
0.49096 -0.399387 -0.476 173 123 96
0.493548 -0.398548 -0.475 177 128 98
0.518691 -0.397709 -0.474 161 116 83
0.52671 -0.401065 -0.478 153 110 76
0.879247 -0.487487 -0.581 117 119 114
-0.0441886 -0.351518 -0.418 193 152 120
-0.0370229 -0.351518 -0.418 190 150 115
-0.0329629 -0.350677 -0.417 189 146 114
-0.029061 -0.351518 -0.418 185 142 110
-0.0282648 -0.351518 -0.418 183 140 108
-0.0212505 -0.354041 -0.421 178 139 110
-0.0180857 -0.354882 -0.422 171 131 105
-0.0149057 -0.355723 -0.423 167 124 105
-0.0117381 -0.357405 -0.425 166 123 104
0.00872 -0.366655 -0.436 164 121 105
0.01554 -0.37086 -0.441 154 115 98
0.0477 -0.401134 -0.477 115 92 86
0.0673714 -0.440659 -0.524 171 176 195
0.400393 -0.463365 -0.551 136 159 191
0.449004 -0.465888 -0.554 193 195 194
0.457446 -0.465888 -0.554 190 192 191
0.458501 -0.465888 -0.554 191 191 191
0.464614 -0.466729 -0.555 183 183 183
0.4699 -0.466729 -0.555 183 183 185
0.470957 -0.466729 -0.555 183 183 185
0.477959 -0.46841 -0.557 175 175 175
0.48963 -0.46841 -0.557 165 163 164
0.509174 -0.471774 -0.561 129 127 128
0.508048 -0.395248 -0.47 167 118 86
0.543307 -0.410385 -0.488 139 107 86
0.839863 -0.484389 -0.576 117 118 113
-0.050119 -0.354843 -0.421 191 152 119
-0.0433924 -0.352314 -0.418 194 153 121
-0.0282648 -0.352314 -0.418 180 141 110
-0.0172819 -0.355686 -0.422 167 130 104
-0.0157114 -0.356529 -0.423 167 124 105
-0.0101429 -0.359057 -0.426 165 122 103
-0.00611429 -0.360743 -0.428 165 122 103
-0.00449429 -0.361586 -0.429 167 124 105
-0.00367714 -0.361586 -0.429 167 125 103
0.0403 -0.391929 -0.465 130 100 92
0.0534476 -0.411314 -0.488 105 86 80
0.38081 -0.463571 -0.55 155 164 179
0.396195 -0.464414 -0.551 179 187 198
0.418994 -0.465257 -0.552 203 201 204
0.433447 -0.4661 -0.553 198 198 196
0.471806 -0.468629 -0.556 173 173 173
0.483934 -0.471157 -0.559 164 162 163
0.498121 -0.474529 -0.563 133 131 132
0.521857 -0.473686 -0.562 80 72 70
0.512923 -0.462729 -0.549 93 83 81
0.485029 -0.404571 -0.48 169 122 94
0.485943 -0.404571 -0.48 173 126 98
0.485843 -0.403729 -0.479 175 125 98
0.490833 -0.400357 -0.475 174 125 95
0.492509 -0.399514 -0.474 176 127 97
0.493411 -0.399514 -0.474 177 128 98
0.506437 -0.396986 -0.471 175 126 96
0.509838 -0.396143 -0.47 163 116 86
0.519399 -0.398671 -0.473 156 113 81
0.523405 -0.400357 -0.475 150 109 77
-0.280793 -0.455327 -0.539 226 227 221
-0.050921 -0.355645 -0.421 195 154 124
-0.0368457 -0.351421 -0.416 184 144 108
-0.0360533 -0.351421 -0.416 182 142 107
-0.0328838 -0.351421 -0.416 186 146 111
-0.0297857 -0.352266 -0.417 183 142 110
-0.0236 -0.3548 -0.42 175 138 109
-0.0164781 -0.35649 -0.422 168 125 106
0.00123429 -0.364937 -0.432 165 124 104
0.0198743 -0.375074 -0.444 148 112 96
0.0392448 -0.391125 -0.463 130 100 90
0.0559867 -0.417312 -0.494 97 81 81
0.0629029 -0.432518 -0.512 178 177 173
0.38919 -0.464619 -0.55 203 204 206
0.403542 -0.465464 -0.551 203 202 200
0.430287 -0.467153 -0.553 199 199 199
0.435553 -0.467153 -0.553 195 195 195
0.45639 -0.467998 -0.554 174 172 175
0.459329 -0.468843 -0.555 171 173 170
0.461443 -0.468843 -0.555 171 171 169
0.482667 -0.473067 -0.56 151 150 148
0.486734 -0.473911 -0.561 150 148 149
0.52434 -0.47898 -0.567 59 57 60
0.515726 -0.466309 -0.552 89 83 83
0.502035 -0.450258 -0.533 100 87 81
0.495605 -0.44181 -0.523 106 93 85
0.497623 -0.398728 -0.472 177 128 96
0.517402 -0.398728 -0.472 157 113 84
0.518301 -0.398728 -0.472 155 111 82
0.5203 -0.399572 -0.473 154 110 81
0.52431 -0.401262 -0.475 148 107 77
0.562029 -0.420691 -0.498 128 101 84
-0.307487 -0.456353 -0.539 221 222 214
-0.30646 -0.456353 -0.539 221 222 214
-0.0440829 -0.35306 -0.417 195 152 117
-0.0408076 -0.352213 -0.416 190 151 112
-0.0376381 -0.352213 -0.416 186 146 110
-0.022 -0.3556 -0.42 172 135 106
-0.0180857 -0.357293 -0.422 168 131 104
0.00453619 -0.366607 -0.433 163 125 102
0.0225124 -0.377613 -0.446 145 109 93
0.365095 -0.465667 -0.55 201 202 204
0.36719 -0.465667 -0.55 200 201 196
0.368238 -0.465667 -0.55 200 201 196
0.373106 -0.466513 -0.551 207 205 208
0.378714 -0.465667 -0.55 200 201 205
0.394811 -0.46736 -0.552 201 200 206
0.43001 -0.469053 -0.554 189 189 191
0.442672 -0.469053 -0.554 176 176 178
0.450871 -0.4699 -0.555 171 169 170
0.528964 -0.484293 -0.572 46 43 50
0.489082 -0.433493 -0.512 123 97 84
0.479267 -0.414867 -0.49 154 112 88
0.47917 -0.413173 -0.488 152 112 87
0.527227 -0.403013 -0.476 143 108 80
0.541814 -0.410633 -0.485 140 106 81
0.563926 -0.42164 -0.498 114 99 92
-0.0708238 -0.453986 -0.535 184 148 116
-0.0696743 -0.453137 -0.534 186 150 118
-0.0530238 -0.360643 -0.425 191 153 117
-0.02508 -0.354703 -0.418 176 137 108
-0.0212 -0.3564 -0.42 172 132 106
0.0315638 -0.385251 -0.454 137 105 94
0.0433267 -0.39798 -0.469 118 95 89
0.0465952 -0.403071 -0.475 114 91 85
0.0488124 -0.406466 -0.479 111 92 86
0.0662467 -0.443803 -0.523 176 181 187
0.349381 -0.466714 -0.55 208 204 205
0.354619 -0.466714 -0.55 204 205 209
0.357762 -0.466714 -0.55 205 203 208
0.368238 -0.466714 -0.55 199 198 196
0.374155 -0.467563 -0.551 213 207 211
0.399017 -0.468411 -0.552 202 202 202
0.406377 -0.468411 -0.552 193 191 194
0.414789 -0.468411 -0.552 188 186 189
0.427899 -0.470109 -0.554 180 180 180
0.436341 -0.470109 -0.554 171 171 173
0.451929 -0.470957 -0.555 146 145 143
0.480963 -0.477746 -0.563 101 97 98
0.514905 -0.466714 -0.55 94 80 77
0.499337 -0.448046 -0.528 107 89 79
0.495651 -0.442954 -0.522 107 93 84
0.488143 -0.432771 -0.51 125 98 87
0.48162 -0.40986 -0.483 163 119 94
0.490053 -0.40392 -0.476 170 121 91
0.506257 -0.398829 -0.47 175 126 93
0.50786 -0.39798 -0.469 172 123 91
0.51054 -0.39798 -0.469 167 121 88
-0.0481695 -0.355499 -0.418 189 151 115
-0.0359667 -0.352948 -0.415 183 143 108
-0.0328048 -0.352948 -0.415 186 143 111
-0.0296429 -0.352948 -0.415 185 141 112
-0.0212 -0.3572 -0.42 174 132 108
-0.0125181 -0.360602 -0.424 166 124 100
-0.00122571 -0.364854 -0.429 165 122 103
0.00785333 -0.369107 -0.434 164 123 105
0.0215657 -0.377611 -0.444 147 111 97
0.0352543 -0.388668 -0.457 130 100 90
0.35881 -0.467762 -0.55 204 204 204
0.360905 -0.467762 -0.55 204 208 207
0.378353 -0.468612 -0.551 200 200 198
0.388503 -0.469463 -0.552 193 194 189
0.391657 -0.469463 -0.552 191 192 187
0.39974 -0.470313 -0.553 189 188 193
0.419753 -0.470313 -0.553 173 172 170
0.426557 -0.472014 -0.555 163 161 162
0.427614 -0.472014 -0.555 162 160 161
0.429729 -0.472014 -0.555 159 157 158
0.431843 -0.472014 -0.555 154 150 151
0.4329 -0.472014 -0.555 151 147 148
0.441357 -0.472014 -0.555 136 132 133
0.443471 -0.472014 -0.555 129 125 124
0.536714 -0.491575 -0.578 40 40 50
0.490053 -0.404827 -0.476 170 121 91
0.495073 -0.402275 -0.473 174 125 93
0.49926 -0.400574 -0.471 166 117 85
0.501781 -0.399724 -0.47 174 125 93
0.51054 -0.398873 -0.469 166 120 87
0.5181 -0.400574 -0.471 166 120 87
0.52904 -0.404827 -0.476 146 109 82
0.536229 -0.408229 -0.48 141 107 80
0.54756 -0.413331 -0.486 140 105 83
-0.0537067 -0.36141 -0.424 189 150 117
-0.0526495 -0.359705 -0.422 191 152 119
-0.0497619 -0.356295 -0.418 189 151 115
-0.0488486 -0.355443 -0.417 188 150 114
-0.0242257 -0.355443 -0.417 177 136 108
-0.0203514 -0.357148 -0.419 174 132 108
-0.0117105 -0.36141 -0.424 164 123 101
-0.00689714 -0.363114 -0.426 159 121 100
0.00452571 -0.368229 -0.432 168 125 108
0.0163057 -0.374195 -0.439 151 114 98
0.0278571 -0.383571 -0.45 143 106 97
0.0287781 -0.384424 -0.451 140 106 96
0.0443143 -0.400619 -0.47 118 90 87
0.0694133 -0.453467 -0.532 163 170 176
0.332014 -0.467957 -0.549 203 202 208
0.334106 -0.467957 -0.549 205 206 210
0.335762 -0.46881 -0.55 207 208 212
0.344769 -0.469662 -0.551 198 206 208
0.347286 -0.46881 -0.55 203 204 208
0.353571 -0.46881 -0.55 202 206 207
0.361561 -0.469662 -0.551 205 210 206
0.36261 -0.469662 -0.551 204 209 205
0.36366 -0.469662 -0.551 200 207 200
0.370629 -0.470514 -0.552 194 198 197
0.373407 -0.471367 -0.553 195 194 199
0.380091 -0.470514 -0.552 186 180 182
0.386047 -0.471367 -0.553 183 184 188
0.396242 -0.472219 -0.554 179 179 179
0.400463 -0.472219 -0.554 181 177 178
0.429729 -0.473071 -0.555 123 118 122
0.432621 -0.473924 -0.556 120 114 114
0.447448 -0.473924 -0.556 85 80 84
0.455679 -0.474776 -0.557 71 66 70
0.481329 -0.421929 -0.495 146 110 88
0.48654 -0.406586 -0.477 172 125 97
0.493411 -0.404029 -0.474 172 123 93
0.494926 -0.402324 -0.472 177 128 98
0.521897 -0.402324 -0.472 147 110 83
0.523904 -0.403176 -0.473 148 111 84
0.55787 -0.418519 -0.491 125 106 89
-0.0455619 -0.355383 -0.416 191 151 116
-0.0438714 -0.354529 -0.415 193 153 118
-0.0415 -0.354529 -0.415 190 150 114
-0.0407095 -0.354529 -0.415 189 151 112
-0.0398229 -0.353674 -0.414 189 151 112
-0.0357933 -0.35282 -0.413 187 149 112
-0.0311486 -0.353674 -0.414 182 141 109
-0.0295714 -0.353674 -0.414 183 142 110
-0.0203514 -0.357946 -0.419 173 131 107
-0.0116829 -0.361363 -0.423 165 124 102
0.00452571 -0.369051 -0.432 166 123 106
0.00534857 -0.369051 -0.432 167 124 107
0.0464971 -0.404931 -0.474 121 91 89
0.05106 -0.41262 -0.483 108 88 87
0.0535571 -0.417746 -0.489 99 85 85
0.312621 -0.468149 -0.548 212 211 216
0.324694 -0.469003 -0.549 210 210 210
0.339952 -0.469857 -0.55 210 210 210
0.357363 -0.470711 -0.551 198 194 195
0.407204 -0.474983 -0.556 137 135 138
0.436857 -0.474983 -0.556 76 75 80
0.452496 -0.475837 -0.557 64 62 65
0.474297 -0.481817 -0.564 57 57 59
0.49478 -0.443374 -0.519 114 91 83
0.486243 -0.431414 -0.505 131 102 86
0.483317 -0.426289 -0.499 136 103 84
0.480099 -0.416891 -0.488 152 115 88
0.482286 -0.410057 -0.48 170 123 95
0.494027 -0.403223 -0.472 173 124 94
0.496569 -0.402369 -0.471 172 123 93
0.501607 -0.40066 -0.469 174 125 95
0.505886 -0.399806 -0.468 171 122 92
0.520791 -0.402369 -0.471 153 113 87
0.52772 -0.404931 -0.474 145 108 81
0.536936 -0.409203 -0.479 145 109 83
-0.0545143 -0.363025 -0.424 185 146 113
-0.0522752 -0.358744 -0.419 186 150 116
-0.0357933 -0.353607 -0.413 189 149 113
-0.0280619 -0.355319 -0.415 181 142 111
0.01974 -0.37758 -0.441 150 114 102
0.0464971 -0.405834 -0.474 120 92 89
0.313191 -0.470049 -0.549 209 211 210
0.315283 -0.470049 -0.549 210 212 211
0.31842 -0.470049 -0.549 211 211 211
0.328429 -0.470905 -0.55 207 207 209
0.331571 -0.470905 -0.55 203 203 205
0.414617 -0.476042 -0.556 79 77 82
0.428094 -0.476898 -0.557 66 61 67
0.433399 -0.476898 -0.557 64 62 67
0.445869 -0.477754 -0.558 62 60 65
0.454371 -0.477754 -0.558 60 58 63
0.45838 -0.47861 -0.559 60 58 63
0.470239 -0.482035 -0.563 59 58 63
0.474901 -0.484604 -0.566 58 57 62
0.478743 -0.486316 -0.568 56 55 60
0.488173 -0.491453 -0.574 57 58 62
0.51128 -0.50344 -0.588 57 56 61
0.50129 -0.452925 -0.529 115 88 79
0.49945 -0.450356 -0.526 113 86 77
0.479919 -0.415252 -0.485 157 115 90
0.48493 -0.410115 -0.479 169 122 92
0.487449 -0.408403 -0.477 171 124 96
0.503211 -0.400697 -0.468 175 126 96
0.517687 -0.401553 -0.469 161 114 84
0.524594 -0.404122 -0.472 148 109 80
0.53448 -0.407547 -0.476 142 105 78
-0.309859 -0.459939 -0.536 223 224 216
-0.0521505 -0.358684 -0.418 184 148 112
-0.0470333 -0.35611 -0.415 189 149 113
-0.026481 -0.35611 -0.415 178 139 110
-0.0140333 -0.361258 -0.421 167 126 106
-0.000407619 -0.367265 -0.428 160 122 103
0.00699429 -0.370697 -0.432 160 121 104
0.0188571 -0.377562 -0.44 149 113 101
0.0410971 -0.398156 -0.464 123 98 91
0.0665 -0.4505 -0.525 168 174 190
0.3397 -0.474527 -0.553 188 186 189
0.352977 -0.475385 -0.554 174 169 175
0.364186 -0.476243 -0.555 152 151 156
0.3663 -0.476243 -0.555 147 146 151
0.386717 -0.477959 -0.557 102 101 106
0.403733 -0.480533 -0.56 75 73 78
0.408 -0.480533 -0.56 71 68 75
0.420668 -0.477959 -0.557 60 58 63
0.432051 -0.478817 -0.558 61 58 65
0.441344 -0.479675 -0.559 63 60 67
0.444538 -0.479675 -0.559 58 55 62
0.450667 -0.480533 -0.56 60 59 65
0.450927 -0.479675 -0.559 59 58 64
0.454933 -0.480533 -0.56 56 55 61
0.464051 -0.48225 -0.562 56 55 61
0.483204 -0.49083 -0.572 54 55 60
0.482193 -0.411028 -0.479 170 123 95
0.48493 -0.411028 -0.479 167 120 92
0.509252 -0.40073 -0.467 169 120 90
0.516583 -0.401589 -0.468 164 118 85
0.522371 -0.403305 -0.47 147 108 79
0.535387 -0.408453 -0.476 144 108 82
0.53742 -0.409311 -0.477 143 107 81
-0.051901 -0.35776 -0.416 192 152 117
-0.0501952 -0.3569 -0.415 194 154 119
-0.0341371 -0.35432 -0.412 184 145 114
-0.0249 -0.3569 -0.415 174 134 108
-0.0233752 -0.35776 -0.416 171 131 106
0.00204286 -0.36894 -0.429 163 122 104
0.0111857 -0.3741 -0.435 155 116 101
0.0128724 -0.37496 -0.436 153 113 101
0.0179781 -0.37754 -0.439 147 111 99
0.01974 -0.37926 -0.441 147 110 101
0.0206267 -0.38012 -0.442 146 109 100
0.0241571 -0.3827 -0.445 144 107 98
0.0277333 -0.38528 -0.448 140 103 94
0.0304962 -0.38786 -0.451 136 103 94
0.0332933 -0.39044 -0.454 138 104 95
0.0410971 -0.39904 -0.464 125 98 89
0.0633943 -0.44376 -0.516 159 160 181
0.284961 -0.47042 -0.547 204 204 204
0.298008 -0.47128 -0.548 199 199 199
0.302734 -0.47214 -0.549 195 195 195
0.371469 -0.47988 -0.558 96 95 101
0.399462 -0.48418 -0.563 65 63 68
0.429333 -0.4816 -0.56 58 57 63
0.434667 -0.4816 -0.56 58 57 63
0.463554 -0.48504 -0.564 54 53 61
0.485254 -0.43086 -0.501 130 97 80
0.484268 -0.42914 -0.499 136 99 80
0.480542 -0.41366 -0.481 166 119 93
0.484829 -0.41108 -0.478 171 121 94
0.516583 -0.40248 -0.468 167 118 86
0.52819 -0.40592 -0.472 146 106 80
0.546508 -0.41366 -0.481 143 108 80
0.548562 -0.41452 -0.482 140 105 77
-0.312338 -0.461119 -0.535 222 223 215
-0.05282 -0.359414 -0.417 189 148 116
-0.0509857 -0.35769 -0.415 189 149 114
-0.0412 -0.355105 -0.412 187 149 113
-0.0108514 -0.363724 -0.422 160 122 101
-0.00767238 -0.365448 -0.424 159 118 98
-0.00607143 -0.36631 -0.425 159 118 98
-0.00365143 -0.367171 -0.426 157 118 101
0.00204286 -0.369757 -0.429 159 120 103
0.0188571 -0.379238 -0.44 145 109 97
0.0214686 -0.380962 -0.442 145 108 99
0.022361 -0.381824 -0.443 144 107 98
0.0232571 -0.382686 -0.444 142 105 96
0.04004 -0.3982 -0.462 127 98 92
0.0410086 -0.399062 -0.463 126 97 91
0.046399 -0.407681 -0.473 121 91 91
0.0534476 -0.42061 -0.488 98 86 88
0.316527 -0.476633 -0.553 168 167 172
0.318633 -0.476633 -0.553 164 163 168
0.326007 -0.476633 -0.553 151 150 155
0.330817 -0.477495 -0.554 143 142 148
0.394424 -0.486976 -0.565 63 62 67
0.42032 -0.489562 -0.568 57 57 65
0.421402 -0.489562 -0.568 56 56 64
0.434078 -0.48439 -0.562 59 58 64
0.500451 -0.453362 -0.526 102 81 76
0.481371 -0.413714 -0.48 163 116 88
0.488897 -0.408543 -0.474 172 122 95
0.493877 -0.405957 -0.471 178 127 98
0.495671 -0.405957 -0.471 179 128 99
0.49641 -0.405095 -0.47 177 126 99
0.500713 -0.404233 -0.469 173 122 93
0.501429 -0.403371 -0.468 175 124 97
0.505694 -0.40251 -0.467 173 122 93
0.507473 -0.40251 -0.467 173 124 94
-0.0548 -0.3628 -0.42 187 147 111
-0.0435543 -0.35589 -0.412 179 140 107
-0.0379686 -0.355026 -0.411 186 145 115
-0.0355333 -0.354162 -0.41 183 142 114
-0.0286438 -0.35589 -0.412 177 136 108
-0.0264171 -0.357617 -0.414 178 134 109
-0.0186657 -0.360209 -0.417 168 127 105
-0.00926571 -0.365391 -0.423 155 117 96
-0.00607143 -0.367119 -0.425 157 120 101
0.0171029 -0.378349 -0.438 150 112 101
0.02682 -0.386123 -0.447 141 103 92
0.0304286 -0.388714 -0.45 139 105 95
0.0420714 -0.401671 -0.465 123 95 91
0.243285 -0.472504 -0.547 208 207 213
0.266207 -0.472504 -0.547 197 197 197
0.300689 -0.475959 -0.551 171 169 174
0.308594 -0.476823 -0.552 152 150 155
0.31126 -0.477687 -0.553 150 148 153
0.314989 -0.47855 -0.554 140 138 143
0.328834 -0.480278 -0.556 109 108 114
0.357639 -0.486325 -0.563 64 61 70
0.389229 -0.492371 -0.57 60 59 67
0.416738 -0.49669 -0.575 55 55 63
0.497679 -0.450045 -0.521 110 85 80
0.48817 -0.437088 -0.506 123 93 82
0.483273 -0.429313 -0.497 136 101 82
0.480623 -0.416356 -0.482 145 99 73
0.483918 -0.412901 -0.478 168 118 93
0.492229 -0.407718 -0.472 178 129 99
0.494774 -0.406854 -0.471 176 125 98
0.521931 -0.404263 -0.468 154 113 81
0.531787 -0.407718 -0.472 146 103 71
-0.07448 -0.46056 -0.532 186 150 118
-0.0546695 -0.362734 -0.419 185 147 111
-0.0308476 -0.354943 -0.41 169 132 106
-0.014 -0.3636 -0.42 159 122 103
-0.00924381 -0.365331 -0.422 153 116 97
0.00450476 -0.372257 -0.43 160 121 104
0.0232048 -0.383511 -0.443 144 106 95
0.0304286 -0.389571 -0.45 140 106 96
0.0322143 -0.390437 -0.451 139 105 95
0.221 -0.47268 -0.546 202 202 210
0.22724 -0.47268 -0.546 205 200 204
0.243285 -0.473546 -0.547 203 208 212
0.249536 -0.473546 -0.547 197 201 204
0.310768 -0.479606 -0.554 114 111 118
0.352452 -0.489129 -0.565 59 58 66
0.365143 -0.491726 -0.568 57 56 64
0.492008 -0.443246 -0.512 117 90 81
0.483246 -0.429394 -0.496 138 102 80
0.481029 -0.422469 -0.488 149 113 87
0.483008 -0.413811 -0.478 167 122 91
0.494027 -0.408617 -0.472 180 130 103
0.511712 -0.403423 -0.466 168 119 89
0.524606 -0.405154 -0.468 156 112 83
0.541733 -0.41208 -0.476 135 103 82
-0.0544086 -0.361797 -0.417 179 143 109
-0.0362257 -0.354856 -0.409 166 130 106
-0.0262895 -0.357459 -0.412 164 126 105
-0.0239933 -0.358327 -0.413 165 127 106
-0.0170771 -0.361797 -0.417 161 125 101
-0.000405714 -0.369606 -0.426 159 122 103
0.0171029 -0.380017 -0.438 149 112 96
0.0312857 -0.390429 -0.45 141 107 97
0.0331467 -0.392164 -0.452 138 104 94
0.0379486 -0.39737 -0.458 132 99 92
0.041981 -0.402575 -0.464 122 93 89
0.05106 -0.41906 -0.483 109 89 91
0.23036 -0.47372 -0.546 202 199 208
0.23348 -0.47372 -0.546 201 200 208
0.238075 -0.474588 -0.547 191 190 186
0.241201 -0.474588 -0.547 197 193 194
0.253124 -0.475455 -0.548 189 188 196
0.264043 -0.476323 -0.549 180 174 184
0.268226 -0.476323 -0.549 168 169 174
0.285995 -0.478058 -0.551 128 127 132
0.297586 -0.481529 -0.555 104 103 108
0.323243 -0.486734 -0.561 63 62 68
0.376653 -0.498013 -0.574 54 54 64
0.384783 -0.501484 -0.578 53 53 63
0.396995 -0.505822 -0.583 54 53 61
0.480623 -0.418192 -0.482 161 116 87
0.498754 -0.406046 -0.468 172 121 92
0.501247 -0.405178 -0.467 174 123 94
0.5126 -0.40431 -0.466 167 118 88
0.517038 -0.40431 -0.466 161 114 84
0.527513 -0.406913 -0.469 153 109 80
0.535383 -0.409516 -0.472 144 100 71
0.539457 -0.411251 -0.474 139 104 82
-0.262439 -0.463456 -0.533 226 227 219
-0.0377838 -0.355635 -0.409 146 115 97
-0.0124 -0.3652 -0.42 153 116 97
-0.00604286 -0.367809 -0.423 155 119 103
0.00531143 -0.373026 -0.429 158 119 102
0.0136714 -0.378243 -0.435 154 117 99
0.0145 -0.378243 -0.435 152 115 99
0.02142 -0.38346 -0.441 144 108 96
0.0223105 -0.38433 -0.442 144 108 96
0.244174 -0.477369 -0.549 184 182 185
0.248357 -0.477369 -0.549 178 176 181
0.263955 -0.479108 -0.551 150 149 154
0.269203 -0.479108 -0.551 139 138 144
0.278103 -0.479977 -0.552 117 116 122
0.281767 -0.480847 -0.553 107 106 112
0.309351 -0.487803 -0.561 71 71 79
0.325046 -0.49215 -0.566 64 64 72
0.340969 -0.496498 -0.571 63 62 70
0.434934 -0.498237 -0.573 10 10 20
0.5005 -0.4565 -0.525 109 85 75
0.495828 -0.449544 -0.517 115 88 77
0.483214 -0.430414 -0.495 136 100 84
0.482193 -0.416502 -0.479 163 120 88
0.49043 -0.410415 -0.472 173 127 94
0.494774 -0.409546 -0.471 175 126 94
0.494619 -0.408676 -0.47 175 124 93
0.499468 -0.406068 -0.467 173 122 91
0.503724 -0.405198 -0.466 174 125 92
0.542405 -0.413024 -0.475 141 104 75
-0.300003 -0.464471 -0.533 223 224 216
-0.294927 -0.464471 -0.533 224 226 215
-0.0262257 -0.358157 -0.411 147 117 106
-0.0178286 -0.362514 -0.416 153 118 99
-0.00683238 -0.367743 -0.422 152 116 100
-0.00201905 -0.369486 -0.424 158 121 103
0.0249486 -0.386914 -0.444 139 102 93
0.0418905 -0.403471 -0.463 123 96 87
0.197757 -0.474929 -0.545 203 203 205
0.235809 -0.478414 -0.549 177 175 180
0.247762 -0.479286 -0.55 149 149 151
0.25241 -0.480157 -0.551 144 141 148
0.293342 -0.487129 -0.559 69 68 76
0.492983 -0.446171 -0.512 122 92 81
0.495514 -0.409571 -0.47 173 124 91
0.501949 -0.406086 -0.466 173 123 90
0.507957 -0.405214 -0.465 172 123 91
0.523251 -0.406086 -0.466 159 114 83
0.53401 -0.409571 -0.47 145 105 80
-0.0555943 -0.36156 -0.414 148 114 89
-0.0502486 -0.357193 -0.409 83 61 50
-0.0314743 -0.35632 -0.408 67 49 47
-0.0277238 -0.358067 -0.41 136 109 102
0.0153286 -0.3799 -0.435 150 113 97
0.0302933 -0.391253 -0.448 137 103 94
0.0350229 -0.396493 -0.454 132 99 92
0.0651257 -0.45588 -0.522 168 175 185
0.186338 -0.475967 -0.545 185 184 189
0.212415 -0.478587 -0.548 185 184 189
0.215547 -0.478587 -0.548 183 182 187
0.228905 -0.480333 -0.55 165 162 169
0.23519 -0.480333 -0.55 144 143 149
0.242965 -0.481207 -0.551 126 125 131
0.251817 -0.48208 -0.552 108 105 114
0.255433 -0.482953 -0.553 99 96 105
0.266448 -0.483827 -0.554 75 74 82
0.271157 -0.4847 -0.555 71 70 78
0.281683 -0.486447 -0.557 67 66 72
0.282744 -0.486447 -0.557 68 67 73
0.28644 -0.48732 -0.558 66 65 71
0.289083 -0.488193 -0.559 66 65 73
0.458194 -0.54496 -0.624 12 13 18
0.481958 -0.426187 -0.488 153 111 87
0.482374 -0.420073 -0.481 160 119 89
0.488632 -0.412213 -0.472 173 127 93
0.496247 -0.409593 -0.469 167 121 87
0.502643 -0.4061 -0.465 176 126 93
0.508632 -0.405227 -0.464 167 118 86
0.525027 -0.406973 -0.466 157 112 83
0.525914 -0.406973 -0.466 155 110 81
0.529954 -0.40872 -0.468 150 105 76
-0.0509029 -0.357097 -0.408 60 40 41
-0.0453514 -0.356222 -0.407 52 36 36
-0.0344981 -0.356222 -0.407 44 32 34
-0.0162438 -0.364099 -0.416 145 108 90
0.00366 -0.373727 -0.427 160 122 109
0.00448381 -0.374602 -0.428 160 122 109
0.01364 -0.379853 -0.434 152 114 101
0.0170248 -0.381604 -0.436 148 110 99
0.0440314 -0.408736 -0.467 118 95 89
0.05198 -0.42274 -0.483 108 90 88
0.0546 -0.428867 -0.49 100 86 83
0.151802 -0.47613 -0.544 183 184 186
0.160091 -0.47613 -0.544 185 186 190
0.17149 -0.47613 -0.544 178 177 182
0.179071 -0.477005 -0.545 176 175 180
0.219077 -0.480506 -0.549 145 146 151
0.221571 -0.481381 -0.55 138 137 143
0.224714 -0.481381 -0.55 132 131 137
0.267309 -0.488383 -0.558 65 64 72
0.274667 -0.490133 -0.56 64 63 71
0.281569 -0.491009 -0.561 64 63 69
0.481541 -0.421865 -0.482 153 112 84
0.487994 -0.414863 -0.474 167 122 89
0.491186 -0.412237 -0.471 169 125 90
0.498578 -0.408736 -0.467 169 123 89
0.499468 -0.408736 -0.467 168 122 88
0.519001 -0.405235 -0.463 159 114 85
0.52189 -0.40611 -0.464 160 115 86
-0.0782381 -0.464886 -0.53 115 101 98
-0.05546 -0.36226 -0.413 70 49 44
-0.0375067 -0.35612 -0.406 38 29 30
-0.0291429 -0.357874 -0.408 41 32 35
-0.0162048 -0.364014 -0.415 134 106 94
-0.0138667 -0.364891 -0.416 137 108 94
0.00284 -0.373663 -0.426 160 123 107
0.0178552 -0.382434 -0.436 145 108 100
0.0213229 -0.385066 -0.439 142 108 99
0.0377829 -0.399977 -0.456 124 97 88
0.0473 -0.414889 -0.473 116 95 92
0.0544886 -0.428923 -0.489 99 83 83
0.0666267 -0.461377 -0.526 146 147 151
0.12509 -0.478043 -0.545 169 171 170
0.147657 -0.477166 -0.544 176 181 177
0.160091 -0.477166 -0.544 173 171 174
0.165576 -0.478043 -0.545 170 170 172
0.173881 -0.478043 -0.545 163 162 167
0.1846 -0.47892 -0.546 145 144 152
0.191539 -0.480674 -0.548 131 130 138
0.207574 -0.481551 -0.549 132 131 139
0.213578 -0.483306 -0.551 120 119 127
0.249854 -0.488569 -0.557 66 65 73
0.269225 -0.492954 -0.562 63 62 70
0.285156 -0.496463 -0.566 61 62 67
0.31593 -0.511374 -0.583 61 59 70
0.397286 -0.542074 -0.618 13 13 21
0.403295 -0.543829 -0.62 11 11 19
0.408019 -0.543829 -0.62 12 12 20
0.413409 -0.544706 -0.621 11 11 21
0.416957 -0.544706 -0.621 12 12 22
0.418813 -0.545583 -0.622 11 11 21
0.493946 -0.449974 -0.513 114 90 78
0.4901 -0.444711 -0.507 118 92 77
0.489531 -0.414011 -0.472 173 124 92
0.497689 -0.409626 -0.467 171 125 92
0.499468 -0.409626 -0.467 169 123 90
0.500173 -0.408749 -0.466 170 124 90
0.507536 -0.406117 -0.463 166 119 89
0.511946 -0.406117 -0.463 165 115 88
0.53759 -0.412257 -0.47 139 103 77
-0.32214 -0.466774 -0.531 223 224 216
-0.2655 -0.466774 -0.531 225 226 218
-0.04292 -0.356893 -0.406 37 28 29
-0.0290714 -0.357772 -0.407 34 29 33
-0.0275886 -0.358651 -0.408 34 29 35
0.00121429 -0.373595 -0.425 156 120 106
0.00202857 -0.374474 -0.426 158 122 108
0.00284 -0.374474 -0.426 157 121 107
0.00529905 -0.376232 -0.428 155 119 105
0.0086 -0.37799 -0.43 156 119 103
0.0136086 -0.380628 -0.433 151 115 103
0.0428648 -0.407878 -0.464 121 99 88
0.0518724 -0.423701 -0.482 104 88 88
0.0651257 -0.458863 -0.522 156 155 163
0.124052 -0.479081 -0.545 167 169 164
0.132114 -0.478202 -0.544 167 171 172
0.154157 -0.479081 -0.545 162 161 166
0.177645 -0.480839 -0.547 125 124 132
0.20976 -0.485234 -0.552 90 90 100
0.2257 -0.487871 -0.555 67 66 74
0.254854 -0.493146 -0.561 61 59 72
0.261731 -0.494025 -0.562 60 58 71
0.265886 -0.495783 -0.564 62 60 73
0.283416 -0.500178 -0.569 58 56 67
0.290938 -0.501936 -0.571 58 58 68
0.30652 -0.511606 -0.582 48 47 55
0.313626 -0.516001 -0.587 38 37 45
0.31806 -0.517759 -0.589 30 30 40
0.404167 -0.549405 -0.625 9 9 17
0.4338 -0.5538 -0.63 9 12 21
0.4386 -0.5538 -0.63 7 10 19
0.442902 -0.554679 -0.631 8 11 20
0.455386 -0.558195 -0.635 10 10 18
0.493946 -0.450951 -0.513 114 91 77
0.492029 -0.448314 -0.51 117 94 80
0.483814 -0.419306 -0.477 165 120 89
0.491038 -0.413152 -0.47 168 122 88
0.503529 -0.408757 -0.465 174 125 95
0.517 -0.40612 -0.462 157 112 81
0.527443 -0.408757 -0.465 150 107 73
0.539496 -0.410515 -0.467 125 99 82
-0.00836 -0.368238 -0.418 130 103 94
-0.00678381 -0.369119 -0.419 134 105 97
0.00121143 -0.373524 -0.424 150 116 104
0.00201905 -0.373524 -0.424 152 118 106
0.00528667 -0.376167 -0.427 152 116 104
0.00776286 -0.377929 -0.429 152 116 104
0.0086 -0.37881 -0.43 156 118 105
0.019561 -0.384976 -0.437 144 110 100
0.02394 -0.3885 -0.441 144 107 98
0.0347914 -0.39731 -0.451 128 101 94
0.0377 -0.400833 -0.455 125 97 93
0.0460067 -0.413167 -0.469 115 96 89
0.101877 -0.478357 -0.543 156 156 156
0.103946 -0.478357 -0.543 157 157 159
0.106014 -0.478357 -0.543 156 156 158
0.109117 -0.478357 -0.543 155 155 157
0.113463 -0.479238 -0.544 155 155 157
0.116786 -0.480119 -0.545 153 153 155
0.163058 -0.481881 -0.547 124 123 131
0.180386 -0.483643 -0.549 85 83 94
0.181431 -0.483643 -0.549 85 83 94
0.18839 -0.485405 -0.551 75 72 83
0.198885 -0.485405 -0.551 82 80 91
0.20841 -0.488048 -0.554 67 65 76
0.209465 -0.488048 -0.554 67 65 76
0.230109 -0.491571 -0.558 60 58 69
0.243733 -0.493333 -0.56 56 54 65
0.257748 -0.497738 -0.565 60 58 71
0.268853 -0.500381 -0.568 57 57 69
0.278373 -0.503905 -0.572 60 60 70
0.309153 -0.517119 -0.587 17 17 27
0.312981 -0.519762 -0.59 17 17 27
0.314637 -0.520643 -0.591 15 15 25
0.316297 -0.521524 -0.592 13 13 23
0.322975 -0.525048 -0.596 11 11 21
0.338224 -0.532976 -0.605 12 12 22
0.356685 -0.543548 -0.617 7 5 16
0.379749 -0.549714 -0.624 5 8 17
0.442081 -0.559405 -0.635 8 11 20
0.4445 -0.559405 -0.635 8 11 20
0.447623 -0.560286 -0.636 9 10 15
0.451967 -0.561167 -0.637 11 12 17
0.481543 -0.560286 -0.636 10 13 22
0.511631 -0.476595 -0.541 41 42 47
0.498705 -0.458095 -0.52 110 88 75
0.481958 -0.429905 -0.488 145 107 84
0.487866 -0.41669 -0.473 165 121 92
0.487733 -0.41581 -0.472 166 122 93
0.489531 -0.41581 -0.472 169 124 93
0.491186 -0.414929 -0.471 168 123 90
0.49502 -0.411405 -0.467 170 124 90
0.506654 -0.407881 -0.463 172 123 93
-0.26399 -0.467914 -0.53 225 226 218
-0.254905 -0.467914 -0.53 225 226 218
-0.0343286 -0.357557 -0.405 31 26 30
-0.029 -0.35844 -0.406 28 27 32
-0.00836 -0.369034 -0.418 124 99 92
0.00446286 -0.376097 -0.426 147 113 101
0.0127543 -0.381394 -0.432 151 115 103
0.022159 -0.387574 -0.439 143 109 99
0.0310076 -0.393754 -0.446 134 104 96
0.0366714 -0.399934 -0.453 125 97 93
0.12844 -0.48204 -0.546 147 146 152
0.13572 -0.48204 -0.546 146 145 151
0.151874 -0.483806 -0.548 117 116 124
0.15605 -0.483806 -0.548 111 110 118
0.157093 -0.483806 -0.548 108 107 115
0.162312 -0.483806 -0.548 96 95 103
0.173381 -0.485571 -0.55 80 78 89
0.174429 -0.485571 -0.55 79 76 87
0.176524 -0.485571 -0.55 75 72 83
0.195393 -0.48822 -0.553 64 66 79
0.232829 -0.496166 -0.562 56 56 68
0.23497 -0.496166 -0.562 55 55 67
0.241177 -0.497931 -0.564 53 52 66
0.243326 -0.497931 -0.564 56 56 68
0.267478 -0.504994 -0.572 49 49 61
0.270129 -0.505877 -0.573 44 44 56
0.304681 -0.518237 -0.587 9 9 19
0.341578 -0.539426 -0.611 11 11 21
0.376797 -0.553551 -0.627 8 6 17
0.386386 -0.555317 -0.629 4 7 16
0.407646 -0.561497 -0.636 7 10 15
0.422183 -0.561497 -0.636 9 9 17
0.424606 -0.561497 -0.636 8 8 16
0.428913 -0.56238 -0.637 7 10 15
0.468196 -0.570326 -0.646 9 12 17
0.478286 -0.572091 -0.648 10 13 20
0.483106 -0.422889 -0.479 162 116 92
