ply
format ascii 1.0
comment Created by Open3D
element vertex 1307
property double x
property double y
property double z
property uchar red
property uchar green
property uchar blue
end_header
0.406933 -0.239467 -0.56 130 100 102
0.407306 -0.234763 -0.549 172 117 112
0.40716 -0.23348 -0.546 171 116 111
0.408383 -0.228349 -0.534 162 107 104
0.41262 -0.22621 -0.529 161 108 102
0.423909 -0.225783 -0.528 147 99 89
0.433144 -0.225355 -0.527 134 87 79
0.459939 -0.229204 -0.536 123 82 76
0.467486 -0.230914 -0.54 125 84 78
-0.12037 -0.257285 -0.599 73 73 81
-0.114091 -0.255996 -0.596 67 68 72
-0.0935829 -0.265446 -0.618 76 75 81
-0.0818086 -0.269311 -0.627 74 74 82
-0.0684457 -0.273177 -0.636 74 74 82
-0.0522143 -0.277043 -0.645 69 67 78
0.0840429 -0.204883 -0.477 152 112 102
0.0882286 -0.206171 -0.48 138 101 95
0.0904324 -0.20703 -0.482 127 96 94
0.406672 -0.277472 -0.646 153 132 137
0.411977 -0.247406 -0.576 47 41 55
0.408048 -0.236238 -0.55 171 116 113
0.407829 -0.231943 -0.54 167 112 109
0.411146 -0.228077 -0.531 161 108 102
0.440833 -0.227218 -0.529 128 86 74
0.453304 -0.228936 -0.533 117 77 69
0.455171 -0.229366 -0.534 116 76 68
0.46473 -0.231084 -0.538 127 84 77
-0.131876 -0.263171 -0.61 70 71 76
-0.111821 -0.257131 -0.596 59 60 65
-0.104118 -0.260583 -0.604 63 62 70
-0.103138 -0.261014 -0.605 65 64 72
-0.0993429 -0.263171 -0.61 69 68 76
-0.0884067 -0.26878 -0.623 76 77 82
-0.062781 -0.276114 -0.64 71 71 81
-0.0569514 -0.277409 -0.643 72 72 82
-0.0487543 -0.279566 -0.648 74 72 83
0.067121 -0.204066 -0.473 197 153 142
0.0680219 -0.204066 -0.473 195 151 140
0.0707248 -0.204066 -0.473 187 145 133
0.0716257 -0.204066 -0.473 188 146 134
0.0734276 -0.204066 -0.473 184 140 129
0.0762914 -0.204497 -0.474 180 134 121
0.0771943 -0.204497 -0.474 176 130 117
0.10478 -0.218734 -0.507 103 84 90
0.365794 -0.243326 -0.564 43 31 43
0.434971 -0.227794 -0.528 140 90 79
0.449413 -0.22952 -0.532 121 78 69
0.450427 -0.22952 -0.532 121 78 69
0.452289 -0.229951 -0.533 119 76 67
0.455171 -0.230383 -0.534 119 76 69
0.467486 -0.232971 -0.54 125 82 75
0.49069 -0.240306 -0.557 122 82 74
-0.1305 -0.2639 -0.609 64 65 70
-0.125143 -0.26 -0.6 58 59 64
-0.112767 -0.257833 -0.595 79 80 84
-0.107035 -0.260433 -0.601 54 55 60
-0.102323 -0.263033 -0.607 64 63 69
-0.0949133 -0.268233 -0.619 71 72 77
-0.0928543 -0.2691 -0.621 73 74 79
-0.0786 -0.273 -0.63 71 74 81
0.0570238 -0.207567 -0.479 205 167 158
0.0592619 -0.205833 -0.475 205 167 158
0.0800714 -0.205833 -0.475 163 123 113
0.0873143 -0.208 -0.48 135 97 88
0.0919191 -0.210167 -0.485 121 91 89
0.0971914 -0.213633 -0.493 107 85 88
0.0987276 -0.214933 -0.496 100 83 89
0.366013 -0.245267 -0.566 44 31 41
0.377089 -0.2483 -0.573 44 34 45
0.404825 -0.245267 -0.566 87 74 83
0.405175 -0.243533 -0.562 128 96 99
0.405814 -0.241367 -0.557 150 106 107
0.413851 -0.2288 -0.528 160 107 99
0.419886 -0.2288 -0.528 152 100 89
0.459081 -0.231833 -0.535 123 80 73
-0.129128 -0.264625 -0.608 79 80 85
-0.109734 -0.259837 -0.597 50 51 55
-0.106067 -0.262013 -0.602 57 57 65
-0.0996686 -0.266366 -0.612 62 63 68
-0.0864476 -0.272459 -0.626 75 78 83
-0.0808714 -0.273765 -0.629 75 75 83
-0.0786 -0.2742 -0.63 73 73 81
0.0558905 -0.21109 -0.485 207 169 160
0.0617152 -0.205868 -0.473 201 163 154
0.0743286 -0.205868 -0.473 178 134 125
0.0771943 -0.206303 -0.474 169 125 116
0.369686 -0.248086 -0.57 50 37 47
0.401013 -0.254179 -0.584 34 30 44
0.407267 -0.249827 -0.574 60 50 59
0.404105 -0.244604 -0.562 124 95 99
0.427931 -0.229806 -0.528 141 94 78
0.431136 -0.22937 -0.527 141 92 78
0.446546 -0.231111 -0.531 129 86 77
-0.0886905 -0.273214 -0.625 74 74 82
-0.0808714 -0.274963 -0.629 75 75 83
-0.0741514 -0.276711 -0.633 72 72 80
-0.0697667 -0.27846 -0.637 73 73 81
-0.0685533 -0.27846 -0.637 73 73 81
-0.064 -0.279771 -0.64 73 73 81
-0.0582667 -0.28152 -0.644 72 71 79
-0.0488295 -0.283706 -0.649 71 69 80
-0.0464286 -0.284143 -0.65 72 70 81
0.0678781 -0.206331 -0.472 193 150 141
0.0743286 -0.206769 -0.473 177 134 125
0.0885962 -0.210703 -0.482 126 95 93
0.102443 -0.220757 -0.505 100 80 92
0.376869 -0.251794 -0.576 51 34 44
0.403094 -0.253106 -0.579 36 32 46
0.408048 -0.240429 -0.55 163 110 106
0.408777 -0.237806 -0.544 163 110 106
0.416079 -0.230374 -0.527 156 101 96
0.422903 -0.230811 -0.528 150 98 85
0.436983 -0.230811 -0.528 139 92 82
0.452289 -0.232997 -0.533 123 83 73
0.454154 -0.233434 -0.534 121 81 73
0.467486 -0.236057 -0.54 116 79 71
0.49069 -0.243489 -0.557 119 82 73
1.14233 -0.283269 -0.648 203 205 191
-0.130402 -0.269575 -0.614 123 124 129
-0.124 -0.263429 -0.6 121 124 129
-0.0617543 -0.281869 -0.642 73 73 81
0.0574524 -0.208548 -0.475 204 166 157
0.06608 -0.20723 -0.472 194 151 142
0.0725267 -0.20767 -0.473 182 139 130
0.0771943 -0.208109 -0.474 164 124 114
0.10804 -0.227427 -0.518 105 86 90
0.37248 -0.252891 -0.576 103 72 77
0.38016 -0.252891 -0.576 60 39 46
0.39524 -0.252013 -0.574 39 31 44
0.39931 -0.251135 -0.572 41 35 47
0.400846 -0.249379 -0.568 72 55 63
0.422903 -0.231817 -0.528 150 98 87
0.423909 -0.231817 -0.528 150 98 87
0.427931 -0.231817 -0.528 141 91 82
0.43296 -0.231817 -0.528 141 92 85
0.433144 -0.231378 -0.527 143 94 87
0.456024 -0.23489 -0.535 118 80 71
0.472151 -0.238403 -0.543 117 78 71
0.483306 -0.241915 -0.551 113 75 64
-0.143794 -0.285737 -0.648 120 121 125
-0.113326 -0.261044 -0.592 113 117 120
-0.111258 -0.261485 -0.593 91 92 96
-0.105269 -0.266335 -0.604 62 61 69
-0.0753571 -0.279123 -0.633 72 75 82
-0.0742686 -0.279564 -0.634 72 75 82
-0.054841 -0.285296 -0.647 71 71 81
0.0633829 -0.20813 -0.472 198 160 151
0.0642819 -0.20813 -0.472 197 159 150
0.0705752 -0.20813 -0.472 183 140 131
0.0771943 -0.209011 -0.474 161 121 111
0.0853076 -0.211216 -0.479 133 96 90
0.103051 -0.224004 -0.508 103 79 93
0.379278 -0.25487 -0.578 118 87 93
0.388143 -0.251343 -0.57 25 13 23
0.389911 -0.251784 -0.571 30 18 28
0.392087 -0.251784 -0.571 45 33 43
0.40018 -0.247374 -0.561 117 82 88
0.40879 -0.242965 -0.551 161 108 104
0.410167 -0.23591 -0.535 157 102 97
0.412157 -0.234146 -0.531 161 106 103
0.413851 -0.232823 -0.528 158 103 98
0.416079 -0.232382 -0.527 157 102 97
0.422102 -0.232382 -0.527 152 99 93
0.426926 -0.232823 -0.528 143 93 86
0.43214 -0.232382 -0.527 142 93 86
0.457043 -0.23591 -0.535 119 80 73
0.480506 -0.242083 -0.549 116 76 66
-0.116314 -0.261286 -0.59 116 119 124
-0.0934524 -0.276786 -0.625 65 65 73
0.0550838 -0.211686 -0.478 204 164 156
0.0725267 -0.209471 -0.473 180 137 128
0.381037 -0.256414 -0.579 141 106 112
0.382786 -0.254643 -0.575 115 88 93
0.385294 -0.251986 -0.569 71 54 60
0.39042 -0.2511 -0.567 79 58 65
0.396245 -0.249329 -0.563 108 83 89
0.397682 -0.248886 -0.562 112 80 85
0.401948 -0.247557 -0.559 138 98 99
0.402291 -0.247114 -0.558 144 100 99
0.408167 -0.2449 -0.553 160 107 103
0.40848 -0.244457 -0.552 159 106 102
0.409614 -0.239586 -0.541 156 103 97
0.483306 -0.244014 -0.551 120 80 70
0.488929 -0.245786 -0.555 122 79 72
-0.10955 -0.265078 -0.596 57 60 65
-0.0901686 -0.278866 -0.627 66 69 74
0.0573314 -0.210817 -0.474 201 161 153
0.0615848 -0.209928 -0.472 200 160 152
0.0696762 -0.209928 -0.472 184 141 132
0.0752295 -0.210372 -0.473 168 125 116
0.0833086 -0.212596 -0.478 137 100 92
0.0904429 -0.216599 -0.487 113 87 90
0.382786 -0.255738 -0.575 136 104 109
0.392271 -0.25129 -0.565 113 82 87
0.396974 -0.249511 -0.561 112 81 86
0.410094 -0.241506 -0.543 154 101 97
0.409886 -0.240171 -0.54 151 98 94
0.410153 -0.239727 -0.539 149 96 92
0.439826 -0.235279 -0.529 133 89 80
0.47684 -0.24284 -0.546 113 75 66
-0.119889 -0.26398 -0.591 116 117 122
-0.118361 -0.263087 -0.589 114 115 120
-0.105617 -0.27068 -0.606 66 66 74
-0.0924095 -0.279613 -0.626 66 65 73
-0.0778914 -0.283187 -0.634 75 74 82
-0.0559867 -0.288547 -0.646 72 72 80
-0.0524571 -0.28944 -0.648 71 71 79
0.0687771 -0.210827 -0.472 186 143 134
0.0761305 -0.211273 -0.473 163 120 111
0.0771943 -0.21172 -0.474 158 115 106
0.08676 -0.215293 -0.482 120 92 91
0.379878 -0.260853 -0.584 143 102 110
0.381695 -0.259067 -0.58 145 109 113
0.383018 -0.257727 -0.577 148 112 116
0.394133 -0.250133 -0.56 126 91 97
0.40848 -0.24656 -0.552 156 102 100
0.40879 -0.246113 -0.551 155 101 99
0.411679 -0.238073 -0.533 158 105 97
0.414635 -0.236287 -0.529 157 104 96
0.417874 -0.23584 -0.528 157 105 94
0.424914 -0.23584 -0.528 156 102 92
0.431954 -0.23584 -0.528 146 96 85
0.442676 -0.236733 -0.53 126 82 73
0.46182 -0.23986 -0.537 123 82 78
1.14196 -0.2881 -0.645 204 204 194
-0.0947943 -0.280806 -0.626 60 59 67
-0.0882 -0.2826 -0.63 72 71 79
-0.0721933 -0.28574 -0.637 77 76 82
-0.0595857 -0.289329 -0.645 73 72 80
0.0734276 -0.212174 -0.473 170 130 122
0.383637 -0.257031 -0.573 150 111 112
0.407429 -0.247611 -0.552 153 102 98
0.40848 -0.247611 -0.552 154 103 99
0.410371 -0.243126 -0.542 149 96 92
0.427931 -0.236846 -0.528 153 101 90
0.444523 -0.238191 -0.531 121 76 70
0.451273 -0.239089 -0.533 126 83 77
0.460797 -0.240883 -0.537 124 83 77
0.485234 -0.247611 -0.552 125 82 75
0.497236 -0.252097 -0.562 132 91 87
-0.119483 -0.26533 -0.589 111 112 117
-0.11816 -0.26488 -0.588 111 112 117
-0.112009 -0.266231 -0.591 88 91 96
-0.100971 -0.279295 -0.62 63 62 68
-0.100112 -0.280196 -0.622 61 60 66
-0.0992457 -0.281097 -0.624 60 59 65
-0.0676571 -0.288305 -0.64 74 73 81
0.05406 -0.214877 -0.477 203 165 154
0.0547381 -0.213976 -0.475 203 163 153
0.0563095 -0.213075 -0.473 201 163 154
0.0686314 -0.212174 -0.471 184 142 130
0.0761305 -0.213075 -0.473 154 115 108
0.0997543 -0.227941 -0.506 106 81 87
0.383637 -0.258123 -0.573 150 112 111
0.405739 -0.249564 -0.554 154 102 104
0.411442 -0.242356 -0.538 154 101 95
0.424914 -0.237851 -0.528 160 106 96
0.427931 -0.237851 -0.528 150 98 87
0.433966 -0.237851 -0.528 142 92 83
0.472151 -0.244609 -0.543 121 82 75
0.585091 -0.291008 -0.646 207 212 232
1.13909 -0.289206 -0.642 202 204 191
-0.12797 -0.275048 -0.608 110 111 116
-0.11928 -0.266 -0.588 108 109 114
-0.105791 -0.274595 -0.607 73 73 81
-0.102833 -0.279119 -0.617 66 65 73
-0.0813857 -0.286357 -0.633 71 72 77
-0.0596781 -0.292238 -0.646 71 70 78
0.0782619 -0.214881 -0.475 148 109 104
0.089699 -0.220762 -0.488 108 85 93
0.383637 -0.259214 -0.573 149 108 116
0.394495 -0.251524 -0.556 121 84 92
0.428937 -0.238857 -0.528 148 98 89
0.447387 -0.240667 -0.532 129 84 79
0.471282 -0.24519 -0.542 120 80 72
0.490869 -0.251524 -0.556 120 79 73
0.504709 -0.256952 -0.568 128 91 83
-0.0995638 -0.284383 -0.626 61 60 66
-0.0985286 -0.284837 -0.627 60 59 67
-0.0906 -0.2862 -0.63 61 60 68
-0.0836648 -0.287109 -0.632 68 67 75
-0.0734067 -0.28938 -0.637 74 74 82
-0.0573057 -0.293923 -0.647 71 70 78
0.38478 -0.264849 -0.583 144 101 94
0.384057 -0.259851 -0.572 146 107 112
0.385419 -0.257126 -0.566 144 103 107
0.389494 -0.254854 -0.561 133 91 95
0.394843 -0.252129 -0.555 126 86 94
0.396957 -0.252129 -0.555 129 88 94
0.397297 -0.251674 -0.554 131 89 93
0.398352 -0.251674 -0.554 134 92 96
0.401518 -0.251674 -0.554 138 93 96
0.411442 -0.244406 -0.538 150 97 91
0.415191 -0.241226 -0.531 155 105 96
0.417438 -0.240771 -0.53 156 104 93
0.427931 -0.239863 -0.528 152 98 88
0.502931 -0.257126 -0.566 127 90 82
1.13564 -0.289834 -0.638 203 203 193
-0.116443 -0.266871 -0.585 101 102 107
-0.100595 -0.285119 -0.625 64 63 69
-0.0825914 -0.288769 -0.633 68 67 75
-0.0665419 -0.292418 -0.641 75 74 80
0.0522429 -0.217603 -0.477 200 163 155
0.0560714 -0.214866 -0.471 198 160 151
0.0915571 -0.224902 -0.493 103 82 89
0.12869 -0.26231 -0.575 201 209 245
0.389293 -0.274627 -0.602 130 93 101
0.385644 -0.267328 -0.586 147 102 97
0.395187 -0.25273 -0.554 131 89 93
0.426926 -0.240869 -0.528 152 100 89
0.427931 -0.240869 -0.528 151 99 88
0.441667 -0.241781 -0.53 136 89 81
0.46268 -0.24543 -0.538 129 86 79
0.484355 -0.251361 -0.551 117 73 70
1.13798 -0.291962 -0.64 204 205 191
-0.117557 -0.267986 -0.585 99 100 105
-0.10614 -0.27898 -0.609 82 81 89
-0.10384 -0.282187 -0.616 76 75 83
-0.0918 -0.2886 -0.63 56 55 63
-0.0538571 -0.297762 -0.65 70 69 77
0.0515495 -0.219428 -0.479 200 163 157
0.0534933 -0.216221 -0.472 199 162 154
0.0568476 -0.215305 -0.47 197 159 150
0.0640095 -0.215305 -0.47 191 148 139
0.0753886 -0.217137 -0.474 154 115 110
0.0917429 -0.226299 -0.494 103 82 91
0.0978267 -0.231796 -0.506 99 78 87
0.386977 -0.25745 -0.562 135 91 92
0.388048 -0.25745 -0.562 135 91 92
0.392022 -0.255159 -0.557 138 92 95
0.398687 -0.253327 -0.553 144 94 95
0.40669 -0.25241 -0.551 153 102 98
0.416203 -0.243249 -0.531 154 104 95
0.421476 -0.24279 -0.53 157 105 94
0.441667 -0.24279 -0.53 135 88 78
0.443511 -0.243249 -0.531 132 85 75
0.450258 -0.244165 -0.533 132 88 79
0.453137 -0.244623 -0.534 124 80 71
0.487167 -0.253327 -0.553 119 76 70
-0.124726 -0.27508 -0.598 97 98 103
-0.1204 -0.27048 -0.588 97 98 103
-0.107391 -0.27738 -0.603 86 87 92
-0.10614 -0.28014 -0.609 85 84 92
-0.0978 -0.2898 -0.63 62 61 69
-0.0665419 -0.29486 -0.641 75 74 80
-0.0562467 -0.29854 -0.649 71 70 78
0.05338 -0.21666 -0.471 198 161 155
0.0550571 -0.2162 -0.47 194 157 149
0.0559524 -0.2162 -0.47 194 156 147
0.0677343 -0.21666 -0.471 179 139 129
0.09802 -0.23322 -0.507 99 78 87
0.11098 -0.24702 -0.537 103 86 104
0.41021 -0.2944 -0.64 127 93 94
0.385971 -0.2622 -0.57 144 104 104
0.388048 -0.25852 -0.562 133 89 90
0.39658 -0.25438 -0.553 139 91 91
0.402492 -0.25346 -0.551 152 101 98
0.414725 -0.24518 -0.533 151 101 92
1.13798 -0.2944 -0.64 201 205 191
-0.127338 -0.279452 -0.605 97 98 102
-0.117356 -0.269752 -0.584 98 99 104
-0.0922371 -0.292386 -0.633 53 54 59
-0.0840619 -0.29331 -0.635 65 64 72
0.062219 -0.217095 -0.47 191 151 143
0.386378 -0.262824 -0.569 143 101 102
0.400069 -0.254971 -0.552 150 99 96
0.400393 -0.25451 -0.551 152 101 98
0.444523 -0.245271 -0.531 131 87 78
0.464567 -0.248967 -0.539 130 87 78
0.467486 -0.249429 -0.54 130 87 78
0.483476 -0.254048 -0.55 125 82 75
0.486286 -0.254971 -0.552 123 80 73
-0.141108 -0.300085 -0.647 100 101 106
-0.114934 -0.270401 -0.583 90 91 95
-0.1035 -0.288026 -0.621 78 77 85
-0.0958543 -0.293591 -0.633 57 58 63
-0.0817714 -0.294983 -0.636 66 65 73
0.0631143 -0.21799 -0.47 189 149 141
0.0695286 -0.218454 -0.471 172 132 124
0.0773571 -0.22031 -0.475 141 103 100
0.0908019 -0.229122 -0.494 100 80 89
0.0936219 -0.231441 -0.499 100 80 91
0.105902 -0.244428 -0.527 96 79 89
0.397151 -0.281532 -0.607 131 92 95
0.3888 -0.259733 -0.56 139 93 96
0.409529 -0.252776 -0.545 152 102 95
0.411886 -0.252312 -0.544 153 103 96
0.421476 -0.245819 -0.53 161 108 100
0.427734 -0.245355 -0.529 152 102 93
0.455005 -0.248138 -0.535 124 79 73
0.466457 -0.250457 -0.54 129 86 79
0.483476 -0.255095 -0.55 126 81 75
-0.106771 -0.282223 -0.606 88 89 94
-0.104843 -0.286414 -0.615 84 84 92
-0.1035 -0.289209 -0.621 80 80 88
-0.091319 -0.295729 -0.635 54 53 61
-0.08554 -0.29666 -0.637 57 56 64
-0.0783829 -0.297126 -0.638 67 66 74
-0.058719 -0.302249 -0.649 71 71 79
0.0531533 -0.21842 -0.469 199 160 155
0.0695286 -0.219351 -0.471 170 129 123
0.0743286 -0.220283 -0.473 147 113 111
0.0939971 -0.233323 -0.501 101 78 86
0.109957 -0.250089 -0.537 105 86 90
0.389187 -0.269183 -0.578 140 94 96
0.394811 -0.257074 -0.552 142 92 93
0.40626 -0.255677 -0.549 160 111 104
0.407608 -0.255211 -0.548 158 109 102
0.412706 -0.251951 -0.541 151 103 93
0.41777 -0.248226 -0.533 156 106 97
0.450258 -0.248226 -0.533 133 86 80
0.473186 -0.252883 -0.543 124 79 74
-0.1131 -0.273557 -0.585 82 83 88
-0.108 -0.280571 -0.6 96 97 102
-0.106771 -0.283377 -0.606 90 91 96
-0.104177 -0.288989 -0.618 83 83 91
-0.0889 -0.296938 -0.635 54 53 61
-0.0760714 -0.298809 -0.639 70 69 77
-0.0714257 -0.299744 -0.641 72 71 79
-0.0656267 -0.301147 -0.644 73 74 79
0.0514762 -0.219781 -0.47 199 160 153
0.0631143 -0.219781 -0.47 186 146 138
0.0796667 -0.223522 -0.478 127 93 92
0.081999 -0.224925 -0.481 118 93 97
0.393228 -0.275428 -0.589 134 89 92
0.390533 -0.271219 -0.58 135 90 93
0.394096 -0.257658 -0.551 143 95 95
0.410567 -0.254852 -0.545 163 109 99
0.42104 -0.248773 -0.532 156 104 93
0.422271 -0.248306 -0.531 155 103 92
0.424505 -0.247838 -0.53 156 104 90
0.449243 -0.249241 -0.533 132 87 81
0.457897 -0.250644 -0.536 127 83 74
0.471282 -0.25345 -0.542 127 80 72
0.480674 -0.256255 -0.548 126 83 76
0.495647 -0.261399 -0.559 122 81 75
-0.139799 -0.300965 -0.641 99 100 105
-0.112177 -0.275141 -0.586 72 73 78
-0.10782 -0.281245 -0.599 99 100 105
-0.0832438 -0.299556 -0.638 58 57 65
-0.0774095 -0.300495 -0.64 68 67 75
0.0704257 -0.221146 -0.471 163 123 121
0.0723733 -0.221615 -0.472 154 116 115
0.0785914 -0.223963 -0.477 126 94 95
0.0872667 -0.230067 -0.49 108 82 91
0.101133 -0.243213 -0.518 101 80 89
0.121931 -0.264811 -0.564 165 163 200
0.128261 -0.271385 -0.578 229 235 255
0.130257 -0.273263 -0.582 250 249 254
0.396195 -0.258708 -0.551 153 104 100
0.406864 -0.25683 -0.547 165 113 102
0.40716 -0.25636 -0.546 164 112 101
0.411129 -0.254951 -0.543 158 106 95
0.412971 -0.253543 -0.54 155 103 92
0.41426 -0.253073 -0.539 151 99 86
0.418554 -0.250726 -0.534 153 101 88
0.46268 -0.252604 -0.538 133 88 82
0.473186 -0.254951 -0.543 126 81 75
0.491928 -0.261055 -0.556 124 83 77
-0.119376 -0.274843 -0.583 96 97 102
-0.10614 -0.2871 -0.609 91 92 97
-0.100836 -0.298886 -0.634 73 76 81
-0.0937381 -0.299357 -0.635 53 56 61
-0.0738676 -0.302186 -0.641 71 70 78
0.06298 -0.2211 -0.469 185 142 136
0.0640095 -0.221571 -0.47 184 141 135
0.0666952 -0.221571 -0.47 174 133 127
0.0714743 -0.222514 -0.472 158 118 116
0.0847029 -0.229114 -0.486 109 83 92
0.085981 -0.230057 -0.488 108 82 91
0.109957 -0.253157 -0.537 100 81 87
0.112013 -0.255514 -0.542 103 84 90
0.388945 -0.267771 -0.568 138 94 95
0.389537 -0.263057 -0.558 142 96 98
0.402389 -0.258343 -0.548 170 116 104
0.40478 -0.257871 -0.547 166 114 103
0.420816 -0.251271 -0.533 154 102 91
0.42975 -0.249386 -0.529 147 97 88
0.445534 -0.250329 -0.531 135 88 80
-0.144238 -0.307667 -0.65 99 100 104
-0.118063 -0.27548 -0.582 96 97 102
-0.110508 -0.278793 -0.589 77 78 83
-0.0704238 -0.304353 -0.643 70 69 77
0.0476 -0.225307 -0.476 203 162 156
0.0558333 -0.221993 -0.469 194 153 147
0.0585133 -0.221993 -0.469 190 149 143
0.0675905 -0.222467 -0.47 171 130 124
0.0684857 -0.222467 -0.47 166 127 122
0.0723733 -0.223413 -0.472 150 115 113
0.0734276 -0.223887 -0.473 147 112 110
0.0743286 -0.223887 -0.473 143 109 108
0.122364 -0.267907 -0.566 183 182 216
0.128483 -0.27406 -0.579 236 240 255
0.419397 -0.303407 -0.641 121 100 105
0.402384 -0.284473 -0.601 134 89 96
0.389494 -0.26554 -0.561 137 91 93
0.401345 -0.259387 -0.548 170 116 106
0.405822 -0.258913 -0.547 166 114 103
0.40716 -0.25844 -0.546 165 113 102
0.430757 -0.250393 -0.529 144 94 83
-0.108815 -0.281341 -0.592 106 109 114
-0.0987314 -0.302251 -0.636 72 75 82
-0.09752 -0.302251 -0.636 69 70 75
-0.0693067 -0.306053 -0.644 71 70 78
-0.0646 -0.307004 -0.646 72 71 77
0.0475 -0.225738 -0.475 202 163 156
0.0836048 -0.23049 -0.485 112 87 93
0.0848771 -0.231441 -0.487 111 86 92
0.390594 -0.271836 -0.572 139 95 96
0.389429 -0.268034 -0.564 136 92 93
0.394096 -0.261856 -0.551 148 100 100
0.39894 -0.260906 -0.549 164 114 107
0.40478 -0.259955 -0.547 170 115 108
0.422847 -0.253302 -0.533 155 103 92
0.42408 -0.252827 -0.532 154 102 91
0.445534 -0.252351 -0.531 138 91 81
0.450427 -0.252827 -0.532 128 84 75
0.452289 -0.253302 -0.533 126 82 73
0.454154 -0.253777 -0.534 125 80 74
0.467486 -0.256629 -0.54 132 87 81
-0.11454 -0.27722 -0.581 94 95 100
-0.11032 -0.28056 -0.588 80 80 88
-0.0798476 -0.305371 -0.64 60 59 67
-0.0752057 -0.306326 -0.642 66 65 73
-0.0705333 -0.30728 -0.644 70 69 77
-0.0694143 -0.307757 -0.645 71 70 78
-0.067061 -0.308234 -0.646 71 70 76
-0.0624276 -0.309666 -0.649 71 70 78
0.0474 -0.226166 -0.474 201 162 155
0.0521486 -0.223303 -0.468 195 154 150
0.06298 -0.22378 -0.469 181 138 132
0.0837771 -0.231891 -0.486 112 87 93
0.0953105 -0.242389 -0.508 100 79 88
0.12258 -0.27054 -0.567 182 185 218
0.392229 -0.274834 -0.576 136 94 96
0.389494 -0.267677 -0.561 138 94 95
0.390961 -0.265769 -0.557 142 96 98
0.40612 -0.26052 -0.546 168 113 106
0.412971 -0.257657 -0.54 157 103 93
0.429552 -0.252886 -0.53 145 96 82
0.463705 -0.256703 -0.538 134 87 79
0.484524 -0.262429 -0.55 127 84 77
1.13218 -0.301554 -0.632 202 204 191
-0.123057 -0.282638 -0.59 97 98 103
-0.09282 -0.305153 -0.637 52 53 58
-0.0706429 -0.308986 -0.645 69 68 76
0.0989686 -0.247668 -0.517 102 80 92
0.113047 -0.262039 -0.547 114 93 100
0.12475 -0.274015 -0.572 185 187 225
0.128705 -0.277848 -0.58 240 248 255
0.396564 -0.279764 -0.584 134 92 94
0.390713 -0.272578 -0.569 140 96 97
0.391318 -0.26635 -0.556 141 96 99
0.39894 -0.262997 -0.549 165 115 108
0.407452 -0.261081 -0.545 165 112 104
0.407741 -0.260602 -0.544 163 110 102
0.410645 -0.259165 -0.541 162 108 98
0.431571 -0.253895 -0.53 140 92 80
0.452289 -0.255332 -0.533 129 82 74
1.13277 -0.303237 -0.633 203 205 191
-0.116552 -0.278952 -0.58 101 102 107
-0.0953962 -0.306848 -0.638 67 68 73
-0.0868895 -0.306848 -0.638 45 46 51
-0.07176 -0.309733 -0.644 70 69 77
-0.0648 -0.311657 -0.648 68 68 76
0.05928 -0.225086 -0.468 187 144 138
0.0638733 -0.225567 -0.469 178 137 131
0.0666952 -0.226048 -0.47 167 124 118
0.0705752 -0.22701 -0.472 154 114 114
0.0746429 -0.228452 -0.475 135 103 106
0.08142 -0.2323 -0.483 112 89 99
0.3906 -0.268371 -0.558 141 97 98
0.401654 -0.263081 -0.547 172 119 111
0.407741 -0.261638 -0.544 166 113 105
0.410645 -0.260195 -0.541 161 107 97
0.41426 -0.259233 -0.539 154 102 89
0.415541 -0.258752 -0.538 152 100 87
0.416566 -0.258752 -0.538 151 99 86
0.420589 -0.256829 -0.534 156 104 91
0.451273 -0.256348 -0.533 136 89 79
-0.125444 -0.287783 -0.596 102 103 108
-0.116351 -0.279574 -0.579 102 103 108
-0.0918943 -0.308546 -0.639 49 50 55
-0.0856743 -0.308063 -0.638 47 46 54
-0.0753229 -0.310477 -0.643 62 61 69
0.0485829 -0.225977 -0.468 197 158 151
0.0705752 -0.227909 -0.472 153 113 113
0.0803333 -0.232737 -0.482 119 88 94
0.0977943 -0.249154 -0.516 102 81 90
0.3915 -0.27378 -0.567 139 95 96
0.393436 -0.268469 -0.556 142 98 99
0.40612 -0.26364 -0.546 169 114 107
0.411675 -0.261226 -0.541 161 109 98
0.415287 -0.26026 -0.539 154 100 90
0.415541 -0.259777 -0.538 152 100 87
0.424877 -0.257363 -0.533 153 101 90
0.427533 -0.255914 -0.53 145 95 84
0.471443 -0.261226 -0.541 126 83 74
1.12861 -0.303234 -0.628 203 205 191
-0.145029 -0.314126 -0.648 101 102 107
-0.11032 -0.28504 -0.588 119 120 125
-0.108999 -0.287464 -0.593 126 127 132
-0.102366 -0.308309 -0.636 90 91 96
-0.0931114 -0.309763 -0.639 52 53 58
0.0547057 -0.226384 -0.467 193 152 146
0.0555952 -0.226384 -0.467 191 150 146
0.0573743 -0.226384 -0.467 189 148 144
0.0638733 -0.227353 -0.469 175 134 130
0.0647667 -0.227353 -0.469 175 131 128
0.0695286 -0.228323 -0.471 158 118 116
0.0705752 -0.228808 -0.472 151 112 113
0.0979838 -0.250622 -0.517 102 79 89
0.113253 -0.26565 -0.548 117 97 108
0.391955 -0.272921 -0.563 141 96 93
0.394144 -0.270012 -0.557 144 99 96
0.435795 -0.256439 -0.529 134 87 79
0.446546 -0.257409 -0.531 139 92 82
0.493157 -0.269043 -0.555 124 84 76
-0.130929 -0.297353 -0.611 101 102 107
-0.113433 -0.282753 -0.581 96 96 104
-0.111794 -0.284213 -0.584 69 70 75
-0.103089 -0.30806 -0.633 91 94 99
-0.0944762 -0.311467 -0.64 61 62 67
-0.07544 -0.313413 -0.644 61 60 68
0.0582638 -0.227273 -0.467 186 145 141
0.0695286 -0.22922 -0.471 155 115 115
0.109746 -0.263287 -0.541 100 78 91
0.42824 -0.30952 -0.636 131 101 103
0.393272 -0.276427 -0.568 135 94 92
0.392966 -0.275453 -0.566 135 94 92
0.392651 -0.27448 -0.564 139 94 91
0.411675 -0.263287 -0.541 162 110 99
0.419101 -0.260853 -0.536 153 101 88
0.427329 -0.25842 -0.531 145 96 82
0.448569 -0.25842 -0.531 136 89 79
0.454319 -0.259393 -0.533 129 82 74
0.46662 -0.262313 -0.539 127 83 74
0.50241 -0.273993 -0.563 128 85 78
-0.109571 -0.288257 -0.59 222 223 228
-0.106359 -0.301449 -0.617 106 107 111
-0.105189 -0.304869 -0.624 101 102 107
-0.103965 -0.308289 -0.631 95 99 102
-0.0972171 -0.313663 -0.642 79 80 85
0.0538162 -0.228163 -0.467 190 149 143
0.0931914 -0.247706 -0.507 101 80 89
0.11346 -0.268226 -0.549 122 102 114
0.11534 -0.27018 -0.553 150 140 165
0.393067 -0.2736 -0.56 140 96 95
0.405376 -0.266271 -0.545 171 117 107
0.422395 -0.261386 -0.535 153 101 88
0.422623 -0.260897 -0.534 156 104 90
0.439826 -0.258454 -0.529 136 88 78
0.441841 -0.258454 -0.529 137 89 79
0.443686 -0.258943 -0.53 138 90 80
0.48944 -0.269691 -0.552 130 87 80
0.495995 -0.272134 -0.557 129 86 79
-0.117657 -0.284476 -0.58 108 109 114
-0.11454 -0.284967 -0.581 111 112 117
-0.113629 -0.285457 -0.582 105 105 107
-0.10836 -0.295267 -0.602 202 203 205
-0.101631 -0.313414 -0.639 91 95 98
-0.0934029 -0.314395 -0.641 60 59 65
-0.0719829 -0.316848 -0.646 64 63 71
0.0492629 -0.228562 -0.466 197 154 147
0.0564848 -0.229052 -0.467 188 145 139
0.0918619 -0.24769 -0.505 102 81 90
0.398619 -0.269762 -0.55 164 111 103
0.39894 -0.269271 -0.549 166 113 105
0.409614 -0.265348 -0.541 163 109 99
0.415541 -0.263876 -0.538 157 105 92
0.416566 -0.263876 -0.538 157 105 92
0.422623 -0.261914 -0.534 156 104 90
0.42364 -0.261914 -0.534 154 102 88
0.427329 -0.260443 -0.531 149 97 86
0.434788 -0.259462 -0.529 136 88 78
0.470571 -0.264857 -0.54 133 89 80
0.472473 -0.265348 -0.541 130 86 77
0.483806 -0.268781 -0.548 133 90 83
0.492269 -0.271724 -0.554 131 88 81
0.577846 -0.310962 -0.634 215 214 219
-0.116351 -0.285089 -0.579 112 113 118
-0.107652 -0.300845 -0.611 183 183 183
-0.106704 -0.304784 -0.619 147 147 145
-0.10179 -0.315124 -0.64 88 92 93
-0.08554 -0.313647 -0.637 43 42 50
0.0475895 -0.229942 -0.467 194 156 147
0.0619543 -0.230434 -0.468 173 132 128
0.0783343 -0.236835 -0.481 119 88 96
0.150823 -0.313154 -0.636 238 240 252
0.397297 -0.272779 -0.554 155 106 101
0.40092 -0.26884 -0.546 174 117 110
0.405957 -0.267363 -0.543 169 117 106
0.41118 -0.265393 -0.539 162 108 98
0.429351 -0.261454 -0.531 146 96 85
0.468673 -0.265393 -0.539 134 90 81
-0.1335 -0.30794 -0.623 97 98 103
-0.108104 -0.300031 -0.607 213 214 219
-0.10736 -0.30448 -0.616 188 188 190
-0.08946 -0.315849 -0.639 43 43 51
0.06566 -0.23182 -0.469 162 121 119
0.0783343 -0.237751 -0.481 119 89 97
0.119146 -0.277294 -0.561 175 177 200
0.130257 -0.287674 -0.582 252 251 255
0.396624 -0.276306 -0.559 143 98 95
0.42712 -0.26296 -0.532 149 97 84
0.438818 -0.261477 -0.529 135 88 78
0.470571 -0.266914 -0.54 133 89 80
0.488553 -0.272351 -0.551 133 90 83
-0.1362 -0.3126 -0.63 93 94 99
-0.115647 -0.288287 -0.581 101 102 107
-0.0764286 -0.318554 -0.642 45 44 50
0.0419829 -0.235194 -0.474 200 161 154
0.0666952 -0.23321 -0.47 158 117 115
0.0686314 -0.233706 -0.471 151 111 111
0.0707248 -0.234698 -0.473 143 107 109
0.0875667 -0.246607 -0.497 105 82 92
0.09054 -0.249584 -0.503 104 83 92
0.0922257 -0.251569 -0.507 102 81 90
0.0964362 -0.255042 -0.514 103 82 91
0.432931 -0.314585 -0.634 119 102 112
0.402686 -0.28779 -0.58 129 94 92
0.405669 -0.269928 -0.544 169 114 107
0.405957 -0.269431 -0.543 167 115 104
0.406242 -0.268935 -0.542 168 116 105
0.41118 -0.267447 -0.539 161 109 98
0.430363 -0.263477 -0.531 146 97 83
0.43378 -0.262485 -0.529 138 90 78
0.435795 -0.262485 -0.529 136 88 76
0.43781 -0.262485 -0.529 136 90 77
0.445705 -0.262981 -0.53 137 89 77
0.448569 -0.263477 -0.531 134 88 75
0.4601 -0.265462 -0.535 128 81 71
0.465754 -0.26695 -0.538 139 92 84
0.487667 -0.272905 -0.55 131 86 80
0.503483 -0.279355 -0.563 123 86 77
-0.08946 -0.318283 -0.639 37 37 45
0.0491571 -0.231614 -0.465 191 152 145
0.0509286 -0.231614 -0.465 189 151 142
0.058139 -0.232112 -0.466 182 141 137
0.118933 -0.278933 -0.56 179 178 210
0.398752 -0.27993 -0.562 147 99 95
0.3984 -0.278933 -0.56 149 101 97
0.401345 -0.272956 -0.548 170 116 106
0.419338 -0.266481 -0.535 160 108 95
0.455334 -0.265485 -0.533 133 86 76
0.457206 -0.265983 -0.534 133 86 76
0.465754 -0.267975 -0.538 139 93 80
0.5742 -0.3138 -0.63 211 207 230
-0.14036 -0.319 -0.638 91 92 97
-0.1131 -0.2925 -0.585 78 77 85
-0.109507 -0.301 -0.602 231 229 240
0.0417171 -0.2355 -0.471 197 159 150
0.0431419 -0.2335 -0.467 197 159 150
0.0590267 -0.233 -0.466 178 137 133
0.0609324 -0.2335 -0.467 174 133 131
0.0909 -0.2525 -0.505 104 83 92
0.0950857 -0.256 -0.512 103 82 91
0.399434 -0.283 -0.566 145 100 97
0.407829 -0.27 -0.54 169 117 104
0.408857 -0.27 -0.54 170 118 105
0.409886 -0.27 -0.54 170 118 105
0.446714 -0.265 -0.53 138 91 81
0.481157 -0.2725 -0.545 125 85 75
0.57814 -0.3165 -0.633 212 219 229
1.13155 -0.3125 -0.625 200 202 191
-0.118469 -0.293112 -0.584 86 87 92
-0.11256 -0.29512 -0.588 68 66 77
-0.106889 -0.314694 -0.627 215 215 215
-0.0787514 -0.321721 -0.641 45 44 50
0.04154 -0.235393 -0.469 197 159 150
0.0422524 -0.23439 -0.467 196 158 149
0.0481676 -0.232884 -0.464 191 153 144
0.050819 -0.232884 -0.464 189 150 143
0.0572514 -0.233888 -0.466 181 142 137
0.0761838 -0.240412 -0.479 119 92 99
0.0774181 -0.241416 -0.481 116 90 99
0.0864457 -0.248945 -0.496 105 82 92
0.15106 -0.319713 -0.637 250 250 252
0.401928 -0.285082 -0.568 144 100 99
0.400533 -0.281067 -0.56 154 105 100
0.400793 -0.277553 -0.553 165 111 101
0.40112 -0.277051 -0.552 167 113 103
0.415791 -0.269523 -0.537 167 115 102
0.416814 -0.269523 -0.537 166 114 101
0.421606 -0.268017 -0.534 163 110 96
0.445705 -0.26601 -0.53 139 91 79
0.467804 -0.270025 -0.538 136 94 82
0.475565 -0.27153 -0.541 130 87 78
0.485893 -0.275044 -0.548 128 88 80
0.507244 -0.284078 -0.566 128 88 80
1.13093 -0.313189 -0.624 201 203 192
-0.126186 -0.304805 -0.605 82 83 88
-0.111819 -0.297248 -0.59 69 67 78
-0.107393 -0.313873 -0.623 225 223 226
-0.0905352 -0.32143 -0.638 37 36 44
-0.0787514 -0.322942 -0.641 52 51 57
0.0481676 -0.233768 -0.464 190 152 143
0.050819 -0.233768 -0.464 188 149 142
0.0525867 -0.233768 -0.464 185 146 139
0.0880952 -0.251905 -0.5 104 81 91
0.124096 -0.286668 -0.569 187 196 227
0.128039 -0.290698 -0.577 201 209 232
0.435 -0.3174 -0.63 111 104 120
0.4081 -0.271553 -0.539 169 120 106
0.422847 -0.26853 -0.533 161 109 96
0.42408 -0.268027 -0.532 159 107 94
0.432581 -0.267019 -0.53 148 99 84
0.43359 -0.267019 -0.53 148 99 84
0.485893 -0.276088 -0.548 133 90 83
0.488714 -0.277095 -0.55 133 90 83
0.564814 -0.312866 -0.621 194 200 214
-0.112009 -0.298877 -0.591 66 66 76
-0.0852714 -0.321129 -0.635 37 36 44
-0.0808133 -0.322646 -0.638 48 47 55
0.050819 -0.234651 -0.464 188 150 141
0.0525867 -0.234651 -0.464 185 147 138
0.0571286 -0.235157 -0.465 183 142 136
0.0666952 -0.237686 -0.47 153 114 115
0.0717771 -0.239709 -0.474 133 101 106
0.0751143 -0.241731 -0.478 124 97 104
0.0922257 -0.256397 -0.507 102 81 90
0.0987419 -0.263477 -0.521 104 84 93
0.10208 -0.267017 -0.528 104 84 93
0.4151 -0.299889 -0.593 130 96 94
0.412723 -0.271569 -0.537 168 119 105
0.41808 -0.271063 -0.536 166 117 103
0.42834 -0.268534 -0.531 155 106 92
0.435977 -0.267017 -0.528 148 99 82
0.440833 -0.267523 -0.529 146 98 84
0.467804 -0.272074 -0.538 133 89 80
-0.137065 -0.32183 -0.634 82 85 90
-0.124827 -0.306602 -0.604 76 79 86
-0.10987 -0.306602 -0.604 226 223 232
-0.106031 -0.319292 -0.629 226 220 230
0.0398381 -0.238581 -0.47 199 160 153
0.050819 -0.235535 -0.464 188 150 141
0.0698238 -0.240104 -0.473 140 105 109
0.0740486 -0.242134 -0.477 127 98 103
0.0939267 -0.259393 -0.511 101 81 92
0.0956429 -0.261424 -0.515 102 82 93
0.0973743 -0.263454 -0.519 103 83 94
0.118721 -0.283759 -0.559 168 172 217
0.403386 -0.284774 -0.561 159 111 101
0.405376 -0.276652 -0.545 171 119 106
0.406242 -0.27513 -0.542 171 119 106
0.4081 -0.273607 -0.539 169 120 106
0.412723 -0.272591 -0.537 165 116 101
0.421606 -0.271069 -0.534 162 113 98
0.434788 -0.26853 -0.529 154 103 84
0.451603 -0.269546 -0.531 130 86 75
0.461119 -0.271576 -0.535 131 84 76
1.1273 -0.315739 -0.622 202 204 191
-0.116117 -0.30011 -0.589 74 75 79
-0.105863 -0.319981 -0.628 228 223 230
-0.103414 -0.323548 -0.635 215 216 218
-0.101472 -0.325076 -0.638 112 113 115
-0.08904 -0.324057 -0.636 37 38 42
0.0390257 -0.239986 -0.471 201 162 155
0.0498276 -0.23591 -0.463 188 150 141
0.0543543 -0.236419 -0.464 177 138 131
0.0590267 -0.237438 -0.466 173 133 131
0.0618219 -0.237948 -0.467 165 125 123
0.100691 -0.26801 -0.526 105 85 96
0.108715 -0.275652 -0.541 105 88 96
0.118509 -0.284314 -0.558 150 154 201
0.14867 -0.322019 -0.632 249 253 254
0.411442 -0.274124 -0.538 167 119 105
0.4117 -0.273614 -0.537 165 117 103
0.412723 -0.273614 -0.537 165 116 101
0.418319 -0.272595 -0.535 164 115 100
0.426107 -0.271067 -0.532 161 108 92
0.466934 -0.273614 -0.537 133 89 78
0.481311 -0.277181 -0.544 134 92 80
0.573573 -0.319981 -0.628 192 195 212
-0.132738 -0.319643 -0.625 73 76 83
-0.130495 -0.317086 -0.62 74 77 84
-0.0991971 -0.326803 -0.639 55 56 58
-0.0943286 -0.326803 -0.639 44 43 49
-0.0863448 -0.324246 -0.634 40 39 47
-0.0829829 -0.325269 -0.636 46 45 51
0.0437486 -0.237303 -0.464 192 155 146
0.0525867 -0.237303 -0.464 185 147 138
0.0580143 -0.237814 -0.465 174 134 132
0.0637371 -0.239349 -0.468 162 122 123
0.0698238 -0.241906 -0.473 139 104 110
0.105669 -0.274126 -0.536 108 88 99
0.128261 -0.295606 -0.578 190 206 229
0.436429 -0.332429 -0.65 167 171 200
0.405641 -0.281797 -0.551 169 117 106
0.411442 -0.275149 -0.538 167 118 103
0.413996 -0.274126 -0.536 168 116 103
0.423862 -0.272591 -0.533 164 111 97
0.426107 -0.27208 -0.532 163 110 92
0.444864 -0.270546 -0.529 143 94 80
0.469853 -0.275149 -0.538 134 90 77
0.478509 -0.277194 -0.542 131 89 77
0.0599143 -0.239213 -0.466 171 131 129
0.0647667 -0.240753 -0.469 155 119 123
0.0658 -0.241267 -0.47 151 115 119
0.0677343 -0.24178 -0.471 147 110 117
0.080239 -0.249993 -0.487 109 88 97
0.412905 -0.333667 -0.65 49 75 124
0.417857 -0.333667 -0.65 37 70 137
0.426524 -0.333667 -0.65 76 102 159
0.419338 -0.274633 -0.535 167 113 101
0.420589 -0.27412 -0.534 164 111 97
0.424657 -0.27412 -0.534 163 110 96
0.431571 -0.272067 -0.53 154 103 86
0.442011 -0.27104 -0.528 145 93 80
0.451603 -0.27258 -0.531 136 86 75
0.47278 -0.276687 -0.539 132 88 75
0.565086 -0.318267 -0.62 200 209 226
-0.133163 -0.323054 -0.627 77 80 87
-0.128897 -0.318417 -0.618 76 79 88
-0.110052 -0.311719 -0.605 76 77 82
-0.108638 -0.314295 -0.61 220 219 227
-0.0863448 -0.326661 -0.634 42 40 51
0.0373105 -0.243192 -0.472 202 165 156
0.04532 -0.23804 -0.462 192 153 146
0.04796 -0.23804 -0.462 187 149 140
0.0533552 -0.238555 -0.463 185 144 138
0.0754286 -0.247314 -0.48 119 93 104
0.105669 -0.276168 -0.536 109 88 97
0.11346 -0.282866 -0.549 135 126 155
0.398671 -0.33439 -0.649 169 182 191
0.403616 -0.33439 -0.649 168 179 211
0.412905 -0.334905 -0.65 80 101 148
0.415381 -0.334905 -0.65 21 53 110
0.42281 -0.334905 -0.65 21 59 121
0.420589 -0.275137 -0.534 164 111 95
0.438994 -0.272046 -0.528 150 98 84
0.444864 -0.272561 -0.529 143 94 79
0.464023 -0.276168 -0.536 133 85 73
0.475714 -0.278229 -0.54 130 86 75
0.483233 -0.280805 -0.545 130 86 75
0.486049 -0.281835 -0.547 132 88 77
0.493487 -0.284927 -0.553 130 87 78
-0.135214 -0.326317 -0.631 80 84 87
-0.11903 -0.309251 -0.598 79 80 84
-0.110837 -0.311837 -0.603 76 76 84
-0.105866 -0.321146 -0.621 229 226 235
-0.1045 -0.324249 -0.627 209 206 213
0.0367971 -0.246677 -0.477 202 165 157
0.04532 -0.23892 -0.462 192 153 146
0.05148 -0.23892 -0.462 186 145 139
0.0552381 -0.239954 -0.464 179 140 135
0.0618219 -0.241506 -0.467 162 122 123
0.0699714 -0.245126 -0.474 134 101 110
0.0805686 -0.252883 -0.489 109 89 100
0.0842152 -0.255469 -0.494 107 85 97
0.0995 -0.2715 -0.525 107 85 97
0.378892 -0.335626 -0.649 177 182 202
0.429576 -0.335626 -0.649 151 164 206
0.431383 -0.335109 -0.648 155 160 190
0.40906 -0.280809 -0.543 169 117 104
0.418319 -0.276671 -0.535 164 112 98
0.42364 -0.276154 -0.534 162 109 93
0.430562 -0.274086 -0.53 165 112 96
0.43296 -0.273051 -0.528 158 105 91
0.435977 -0.273051 -0.528 159 106 92
0.445871 -0.273569 -0.529 141 92 78
0.45635 -0.275637 -0.533 127 83 70
0.475714 -0.279257 -0.54 131 87 76
0.487981 -0.283394 -0.548 130 88 76
-0.118286 -0.311429 -0.6 83 84 89
-0.0949476 -0.329595 -0.635 47 48 53
-0.0937381 -0.329595 -0.635 48 49 54
-0.0911752 -0.329076 -0.634 50 49 57
-0.0874143 -0.328557 -0.633 49 48 56
0.0410971 -0.240838 -0.464 196 157 150
0.04884 -0.2398 -0.462 190 149 143
0.0506 -0.2398 -0.462 187 148 141
0.0996895 -0.273019 -0.526 109 87 99
0.105669 -0.27821 -0.536 110 88 100
0.379543 -0.336343 -0.648 133 150 196
0.394354 -0.336343 -0.648 92 111 170
0.396823 -0.336343 -0.648 163 176 208
0.436879 -0.335824 -0.647 162 171 200
0.410528 -0.291705 -0.562 157 107 96
0.412467 -0.279248 -0.538 159 107 94
0.417059 -0.27821 -0.536 161 107 95
0.422623 -0.277171 -0.534 161 108 92
0.42834 -0.275614 -0.531 159 106 90
0.434971 -0.274057 -0.528 156 103 89
0.465044 -0.27821 -0.536 126 82 69
0.471903 -0.279248 -0.538 127 85 73
-0.138709 -0.331326 -0.636 92 96 97
-0.117533 -0.313613 -0.602 80 85 89
-0.10962 -0.31726 -0.609 73 76 81
-0.0935905 -0.330284 -0.634 47 48 53
-0.0863448 -0.330284 -0.634 55 55 63
0.04884 -0.24068 -0.462 191 150 144
0.0542371 -0.241201 -0.463 180 141 136
0.0649048 -0.244848 -0.47 153 116 124
0.0658 -0.244848 -0.47 150 113 121
0.0829371 -0.256309 -0.492 109 89 100
0.09198 -0.266207 -0.511 107 85 97
0.0952133 -0.269853 -0.518 107 85 97
0.104257 -0.278189 -0.534 110 88 100
0.408534 -0.337056 -0.647 118 133 174
0.414103 -0.337577 -0.648 44 73 129
0.415337 -0.337577 -0.648 33 64 131
0.421509 -0.337577 -0.648 16 52 126
0.42364 -0.278189 -0.534 160 107 91
0.471903 -0.280272 -0.538 132 90 76
-0.12006 -0.31842 -0.609 85 88 97
-0.102976 -0.326786 -0.625 73 74 78
0.0377238 -0.243651 -0.466 198 160 147
0.0393295 -0.242606 -0.464 197 157 147
0.0506 -0.24156 -0.462 185 146 139
0.05148 -0.24156 -0.462 184 145 140
0.0628457 -0.244697 -0.468 157 118 121
0.0967571 -0.272409 -0.521 110 88 100
0.113047 -0.286003 -0.547 151 147 174
0.39621 -0.338289 -0.647 129 144 185
0.409767 -0.338289 -0.647 55 76 133
0.425788 -0.338289 -0.647 49 70 123
0.417837 -0.280774 -0.537 156 104 90
0.436155 -0.275546 -0.527 155 102 86
0.467086 -0.280251 -0.536 130 88 74
0.492751 -0.288094 -0.551 123 85 76
1.12123 -0.323126 -0.618 201 203 189
-0.130983 -0.32955 -0.628 97 98 103
-0.110962 -0.320105 -0.61 86 86 94
0.0355124 -0.247688 -0.472 203 162 156
0.04268 -0.24244 -0.462 191 151 141
0.04356 -0.24244 -0.462 192 152 142
0.0678781 -0.247688 -0.472 139 106 113
0.101457 -0.278124 -0.53 110 89 98
0.113047 -0.287045 -0.547 153 150 177
0.394368 -0.338996 -0.646 68 100 161
0.439214 -0.338471 -0.645 130 141 186
0.41207 -0.290718 -0.554 157 108 94
0.41119 -0.288619 -0.55 161 112 98
0.411489 -0.288094 -0.549 160 111 97
0.41886 -0.281797 -0.537 155 104 87
0.424877 -0.279698 -0.533 162 111 92
0.426107 -0.279173 -0.532 160 107 89
0.431571 -0.278124 -0.53 162 109 91
0.448894 -0.277599 -0.529 140 94 79
0.45838 -0.279698 -0.533 127 85 71
0.482494 -0.284946 -0.543 129 87 73
-0.116963 -0.321793 -0.611 96 97 102
-0.0932952 -0.332853 -0.632 51 50 56
0.05148 -0.24332 -0.462 187 144 138
0.05236 -0.24332 -0.462 184 141 135
0.055119 -0.243847 -0.463 175 135 133
0.0680219 -0.249113 -0.473 137 104 111
0.0759 -0.25438 -0.483 116 94 106
0.372219 -0.340227 -0.646 146 151 173
0.388215 -0.340227 -0.646 28 72 143
0.401129 -0.3397 -0.645 150 157 185
0.407271 -0.3397 -0.645 105 122 168
0.422669 -0.340227 -0.646 28 60 133
0.428157 -0.3397 -0.645 102 115 149
0.422215 -0.304413 -0.578 134 95 100
0.413983 -0.29388 -0.558 153 104 90
0.413126 -0.291773 -0.554 158 106 93
0.42834 -0.27966 -0.531 161 108 90
0.432772 -0.278607 -0.529 161 108 90
0.441174 -0.277553 -0.527 149 97 83
0.4788 -0.2844 -0.54 134 92 80
-0.134225 -0.334057 -0.632 99 100 102
-0.129787 -0.331943 -0.628 103 104 109
-0.122229 -0.327714 -0.62 99 102 109
-0.116368 -0.324543 -0.614 102 103 108
-0.113843 -0.324014 -0.613 99 100 105
-0.1107 -0.325071 -0.615 94 95 100
-0.0944991 -0.334057 -0.632 63 62 68
0.05236 -0.2442 -0.462 182 139 132
0.0619543 -0.247371 -0.468 156 120 124
0.0746695 -0.254243 -0.481 117 93 106
0.100069 -0.279086 -0.528 110 90 101
0.369186 -0.340929 -0.645 81 93 135
0.371643 -0.340929 -0.645 155 160 180
0.394986 -0.340929 -0.645 135 153 193
0.409729 -0.340929 -0.645 83 99 133
0.415871 -0.340929 -0.645 20 53 120
0.429386 -0.340929 -0.645 124 129 135
0.433071 -0.340929 -0.645 168 167 181
0.448686 -0.329829 -0.624 126 102 98
0.430586 -0.312386 -0.591 129 93 95
0.414994 -0.287543 -0.544 162 110 96
0.416828 -0.285957 -0.541 156 104 90
0.423414 -0.282786 -0.535 159 106 90
0.424433 -0.282786 -0.535 159 106 90
0.432772 -0.279614 -0.529 159 103 88
0.441174 -0.278557 -0.527 146 97 82
0.44519 -0.278557 -0.527 138 90 76
0.448894 -0.279614 -0.529 136 90 75
-0.124206 -0.331017 -0.624 103 104 109
-0.122623 -0.329956 -0.622 101 104 109
-0.121243 -0.329426 -0.621 99 102 107
0.0570057 -0.246141 -0.464 168 130 129
0.0628457 -0.248263 -0.468 152 116 120
0.0680219 -0.250915 -0.473 136 104 109
0.0942267 -0.274787 -0.518 110 88 100
0.100069 -0.280091 -0.528 112 92 103
0.371643 -0.342157 -0.645 157 159 184
0.385787 -0.341627 -0.644 36 80 151
0.387013 -0.341627 -0.644 50 87 165
0.39192 -0.341627 -0.644 69 102 169
0.405413 -0.341627 -0.644 160 166 188
0.423243 -0.342157 -0.645 56 88 145
0.42504 -0.341627 -0.644 122 137 178
0.431173 -0.341627 -0.644 111 113 125
0.428443 -0.310329 -0.585 127 94 89
0.414626 -0.291231 -0.549 153 104 90
0.415757 -0.28911 -0.545 158 106 92
0.430562 -0.281152 -0.53 155 102 86
0.45752 -0.282213 -0.532 130 86 73
0.469128 -0.284335 -0.536 134 91 75
0.480717 -0.286988 -0.541 131 87 74
-0.129 -0.3354 -0.63 110 111 115
-0.124604 -0.33327 -0.626 109 110 115
-0.114957 -0.329544 -0.619 106 110 113
-0.110063 -0.329011 -0.618 99 100 105
-0.10502 -0.331673 -0.623 84 85 90
0.0351362 -0.248622 -0.467 200 162 149
0.0487343 -0.245428 -0.461 187 144 137
0.0506 -0.24596 -0.462 185 142 135
0.0836114 -0.264061 -0.496 108 85 95
0.390087 -0.342321 -0.643 58 94 170
0.403559 -0.342321 -0.643 166 173 199
0.431173 -0.342853 -0.644 154 156 168
0.43608 -0.342853 -0.644 166 164 177
0.4218 -0.303457 -0.57 139 96 89
0.420171 -0.287486 -0.54 151 102 87
0.422714 -0.286421 -0.538 156 104 90
0.426471 -0.284824 -0.535 159 106 90
0.439167 -0.280565 -0.527 152 99 83
0.45666 -0.282694 -0.531 130 86 73
0.47117 -0.285356 -0.536 132 89 73
0.474094 -0.285889 -0.537 131 87 74
0.479829 -0.287486 -0.54 133 89 76
0.487386 -0.290148 -0.545 132 92 80
-0.108406 -0.332326 -0.622 101 102 106
-0.0978 -0.3366 -0.63 84 83 89
0.0335714 -0.251114 -0.47 201 161 151
0.05236 -0.24684 -0.462 182 139 132
0.0542371 -0.247374 -0.463 178 135 129
0.0713229 -0.254854 -0.477 121 97 110
0.0783838 -0.260197 -0.487 113 91 103
0.0823333 -0.263937 -0.494 111 88 98
0.101457 -0.283171 -0.53 113 93 105
0.108313 -0.28798 -0.539 126 122 147
0.117447 -0.29546 -0.553 193 202 233
0.364367 -0.343546 -0.643 164 184 211
0.415227 -0.34408 -0.644 28 59 126
0.420706 -0.343546 -0.643 29 63 126
0.434697 -0.316297 -0.592 129 92 84
0.420583 -0.301337 -0.564 137 97 89
0.418871 -0.291186 -0.545 152 104 90
0.423739 -0.287446 -0.538 155 104 87
0.425227 -0.286377 -0.536 154 103 86
0.431173 -0.28424 -0.532 153 102 85
-0.118642 -0.335655 -0.626 115 116 118
-0.101078 -0.336728 -0.628 102 101 106
-0.099 -0.3378 -0.63 152 151 156
0.0390752 -0.247184 -0.461 194 154 142
0.0469781 -0.247184 -0.461 187 147 137
0.0487343 -0.247184 -0.461 187 144 137
0.05148 -0.24772 -0.462 182 139 133
0.0561219 -0.248792 -0.464 170 129 127
0.0599143 -0.249865 -0.466 159 120 123
0.0759 -0.25898 -0.483 115 93 106
0.0988752 -0.282572 -0.527 112 92 104
0.101649 -0.284717 -0.531 113 93 105
0.115762 -0.294905 -0.55 177 186 225
0.361354 -0.344234 -0.642 132 160 223
0.365023 -0.344234 -0.642 171 192 221
0.37294 -0.34477 -0.643 151 158 166
0.391311 -0.34477 -0.643 62 98 158
0.392536 -0.34477 -0.643 91 127 187
0.416453 -0.345307 -0.644 83 114 179
0.43228 -0.344234 -0.642 168 167 181
0.447479 -0.343698 -0.641 80 106 163
0.420049 -0.29973 -0.559 139 96 89
0.41964 -0.29276 -0.546 148 100 88
0.41991 -0.292224 -0.545 149 101 89
0.441339 -0.282036 -0.526 150 98 84
0.449051 -0.283109 -0.528 137 91 76
0.479967 -0.289007 -0.539 130 87 71
-0.119021 -0.337924 -0.628 145 145 147
0.036599 -0.249138 -0.463 197 158 143
0.0434657 -0.248062 -0.461 192 150 138
0.0504905 -0.248062 -0.461 184 141 134
0.06608 -0.253981 -0.472 144 109 115
0.108313 -0.290033 -0.539 125 120 150
0.39804 -0.345457 -0.642 172 173 191
0.44084 -0.345457 -0.642 90 106 140
0.431789 -0.313171 -0.582 135 96 91
0.425395 -0.306176 -0.569 136 95 89
0.421867 -0.301333 -0.56 136 95 89
0.429743 -0.287343 -0.534 154 105 90
0.484703 -0.291648 -0.542 130 88 72
-0.107059 -0.33912 -0.628 206 206 208
0.0319162 -0.25488 -0.472 204 162 148
0.0451238 -0.2484 -0.46 190 148 136
0.0542371 -0.25002 -0.463 174 133 129
0.0736 -0.2592 -0.48 117 93 106
0.09306 -0.27918 -0.517 110 88 101
0.102853 -0.28728 -0.532 114 93 108
0.110981 -0.29268 -0.542 149 153 190
0.335151 -0.34614 -0.641 197 205 228
0.37236 -0.34668 -0.642 179 186 194
0.374806 -0.34668 -0.642 164 162 183
0.382143 -0.34668 -0.642 72 108 168
0.396817 -0.34668 -0.642 169 171 186
0.407823 -0.34668 -0.642 52 69 125
0.409046 -0.34668 -0.642 47 80 131
0.413937 -0.34668 -0.642 97 124 179
0.421274 -0.34668 -0.642 69 95 154
0.447604 -0.32832 -0.608 129 94 90
0.422221 -0.29592 -0.548 143 99 90
0.470429 -0.28836 -0.534 138 94 81
0.480993 -0.29106 -0.539 126 82 69
-0.115432 -0.340316 -0.628 228 228 230
0.03564 -0.25036 -0.462 197 159 140
0.0619543 -0.253611 -0.468 154 115 118
0.06608 -0.255779 -0.472 138 106 111
0.067121 -0.256321 -0.473 133 102 110
0.0961324 -0.283416 -0.523 113 93 105
0.10266 -0.287751 -0.531 116 95 110
0.109543 -0.292629 -0.54 137 134 165
0.35779 -0.346819 -0.64 63 94 161
0.35901 -0.346819 -0.64 54 86 145
0.369338 -0.347361 -0.641 185 182 203
0.375443 -0.347361 -0.641 147 154 172
0.402304 -0.347361 -0.641 161 160 178
0.429834 -0.347903 -0.642 161 172 194
0.43527 -0.347361 -0.641 147 147 159
0.424037 -0.297506 -0.549 141 97 88
0.425609 -0.294254 -0.543 143 96 86
0.426343 -0.292629 -0.54 141 95 82
0.431374 -0.287751 -0.531 150 101 86
0.439335 -0.285042 -0.526 156 105 88
0.452069 -0.286126 -0.528 134 88 73
0.453932 -0.286668 -0.529 132 88 75
0.461717 -0.287751 -0.531 139 93 80
0.46664 -0.288293 -0.532 137 93 80
0.05236 -0.25124 -0.462 178 133 127
0.06298 -0.255047 -0.469 147 111 115
0.366324 -0.348038 -0.64 158 173 192
0.376664 -0.348582 -0.641 114 119 138
0.4224 -0.348038 -0.64 103 122 165
0.426723 -0.348582 -0.641 66 79 121
0.433371 -0.348038 -0.64 169 171 186
0.437029 -0.348038 -0.64 164 167 186
0.439997 -0.347494 -0.639 98 115 158
0.455702 -0.336618 -0.619 123 92 87
0.432386 -0.288763 -0.531 150 101 86
0.434788 -0.287675 -0.529 153 104 89
0.458829 -0.288219 -0.53 132 86 71
0.476405 -0.290938 -0.535 138 92 79
0.4887 -0.295289 -0.543 142 94 82
0.0355629 -0.251574 -0.461 198 162 140
0.0442476 -0.251029 -0.46 191 149 137
0.0496124 -0.251574 -0.461 183 139 130
0.06298 -0.25594 -0.469 147 111 115
0.0714724 -0.260851 -0.478 123 97 108
0.0726857 -0.261943 -0.48 116 94 107
0.0801257 -0.268491 -0.492 110 88 101
0.0872248 -0.276131 -0.506 106 84 97
0.0986876 -0.287046 -0.526 114 92 104
0.103867 -0.29032 -0.532 112 94 110
0.37062 -0.348711 -0.639 186 184 206
0.38339 -0.349257 -0.64 117 150 195
0.412648 -0.349257 -0.64 152 161 202
0.428495 -0.349257 -0.64 90 100 135
0.447815 -0.348166 -0.638 68 90 147
0.455702 -0.337797 -0.619 123 92 87
0.448517 -0.329066 -0.603 127 91 79
0.430814 -0.310511 -0.569 122 87 81
0.427033 -0.303963 -0.557 133 90 83
0.432187 -0.29032 -0.532 149 100 85
0.432581 -0.289229 -0.53 149 98 81
0.48215 -0.293594 -0.538 131 92 77
0.0442476 -0.251905 -0.46 190 148 136
0.0496124 -0.252452 -0.461 183 138 132
0.0599143 -0.25519 -0.466 158 119 122
0.0681657 -0.259571 -0.474 131 100 115
0.0726857 -0.262857 -0.48 115 93 106
0.0776152 -0.267238 -0.488 111 90 105
0.10669 -0.293524 -0.536 120 112 135
0.135629 -0.331857 -0.606 202 204 225
0.355457 -0.349381 -0.638 133 162 202
0.399831 -0.349929 -0.639 144 156 180
0.442954 -0.349381 -0.638 73 93 144
0.447113 -0.348833 -0.637 61 88 141
0.439947 -0.31981 -0.584 122 88 79
0.428863 -0.305571 -0.558 130 88 76
0.42796 -0.299 -0.546 142 94 80
0.4405 -0.2875 -0.525 153 104 89
0.4445 -0.2875 -0.525 145 96 81
0.45322 -0.288595 -0.527 135 89 73
0.459978 -0.28969 -0.529 141 95 80
0.466774 -0.290786 -0.531 139 93 78
0.0398667 -0.252781 -0.46 193 155 136
0.041619 -0.252781 -0.46 192 153 136
0.0424952 -0.252781 -0.46 192 153 138
0.046 -0.252781 -0.46 186 143 134
0.0487343 -0.25333 -0.461 183 140 131
0.0609324 -0.256628 -0.467 152 115 122
0.0619543 -0.257177 -0.468 148 111 118
0.0681657 -0.260474 -0.474 131 100 115
0.0986876 -0.28905 -0.526 111 91 103
