ply
format ascii 1.0
comment Created by Open3D
element vertex 1296
property double x
property double y
property double z
property uchar red
property uchar green
property uchar blue
end_header
0.973073 -0.03858 -0.643 15 16 36
0.955395 -0.039681 -0.641 208 209 201
0.977972 -0.0398048 -0.643 21 23 38
0.951476 -0.0414762 -0.65 188 190 185
0.952485 -0.0414124 -0.649 154 156 151
0.955395 -0.0409019 -0.641 204 206 195
0.965163 -0.0409019 -0.641 32 32 44
0.959058 -0.0421229 -0.641 206 207 201
0.962721 -0.0421229 -0.641 126 127 122
0.95472 -0.0438171 -0.648 140 145 138
0.985627 -0.0435467 -0.644 22 25 42
0.955395 -0.0445648 -0.641 209 213 199
0.9615 -0.0445648 -0.641 204 205 199
0.964876 -0.0444952 -0.64 47 48 53
0.98012 -0.0446343 -0.642 24 26 41
0.981647 -0.0471533 -0.643 23 24 42
0.955465 -0.0486038 -0.646 149 154 147
0.956886 -0.0483029 -0.642 205 208 201
0.964876 -0.0481524 -0.64 179 178 174
0.964876 -0.0493714 -0.64 202 201 196
0.966384 -0.0506695 -0.641 209 210 204
0.974629 -0.0505905 -0.64 27 28 48
0.950238 -0.052619 -0.65 215 220 216
0.952714 -0.052619 -0.65 208 212 211
0.957926 -0.0522952 -0.646 210 213 206
0.9675 -0.0522143 -0.645 207 208 200
0.97219 -0.0518095 -0.64 34 36 51
0.952485 -0.0537743 -0.649 203 208 204
0.957189 -0.0536914 -0.648 118 123 117
0.968174 -0.0532771 -0.643 214 214 204
0.977674 -0.0531943 -0.642 27 30 47
0.953721 -0.0550105 -0.649 194 196 193
0.971732 -0.054841 -0.647 208 209 201
0.973762 -0.0563333 -0.65 210 211 205
0.974469 -0.05616 -0.648 218 218 208
0.977894 -0.0573057 -0.647 212 214 211
0.956193 -0.058719 -0.649 141 146 142
0.979952 -0.0588095 -0.65 208 211 202
0.982535 -0.0584476 -0.646 133 138 132
0.953952 -0.0600476 -0.65 161 166 162
0.957667 -0.0600476 -0.65 123 125 120
0.986811 -0.0598629 -0.648 115 118 123
0.988986 -0.0610029 -0.647 30 30 42
0.342655 -0.0680952 -0.572 117 106 112
0.340476 -0.0691848 -0.572 105 93 97
0.339387 -0.0702743 -0.572 101 89 93
0.337797 -0.0714886 -0.573 101 89 93
0.342056 -0.071239 -0.571 109 98 104
0.3458 -0.0711143 -0.57 124 113 119
0.345319 -0.0723267 -0.571 118 107 113
0.35046 -0.07182 -0.567 128 111 119
0.349996 -0.0730286 -0.568 120 111 114
0.336858 -0.0752848 -0.577 104 89 92
0.344947 -0.0748933 -0.574 105 94 102
0.345924 -0.0746324 -0.572 110 103 110
0.347971 -0.0743714 -0.57 109 100 101
0.35154 -0.07398 -0.567 119 112 119
0.336923 -0.0777514 -0.579 99 84 91
0.345051 -0.0773486 -0.576 99 86 93
0.33703 -0.079399 -0.583 95 84 90
0.351371 -0.077901 -0.572 113 103 111
0.352314 -0.0776286 -0.57 116 106 114
0.353864 -0.0785762 -0.569 117 106 114
0.341334 -0.08106 -0.579 92 81 87
0.361419 -0.07756 -0.554 150 140 148
0.339714 -0.0823048 -0.58 91 80 86
0.348552 -0.0823048 -0.58 92 81 87
0.35431 -0.0815952 -0.575 108 97 105
0.356488 -0.0806019 -0.568 115 105 114
0.334843 -0.0841286 -0.585 92 77 84
0.34362 -0.0835533 -0.581 88 75 82
0.359978 -0.0786638 -0.547 192 180 180
0.344211 -0.0848057 -0.582 85 74 80
0.358067 -0.08364 -0.574 105 93 103
0.359283 -0.0829114 -0.569 109 99 110
0.3591 -0.08262 -0.567 111 101 112
0.359203 -0.0799971 -0.549 211 205 209
0.35932 -0.07956 -0.546 195 183 185
0.333086 -0.085619 -0.58 88 77 81
0.335295 -0.085619 -0.58 88 77 83
0.33698 -0.0857667 -0.581 87 76 82
0.347619 -0.0862095 -0.584 82 71 77
0.348731 -0.0862095 -0.584 83 74 79
0.354687 -0.0857667 -0.581 90 79 87
0.356286 -0.085619 -0.58 92 81 89
0.359914 -0.0841429 -0.57 106 94 104
0.360623 -0.0835524 -0.566 112 100 110
0.359357 -0.082519 -0.559 119 108 114
0.335295 -0.0867238 -0.58 89 83 85
0.341471 -0.0871724 -0.583 83 74 77
0.353786 -0.0874714 -0.585 78 69 72
0.358457 -0.0807429 -0.54 171 136 143
0.335295 -0.0878286 -0.58 87 78 81
0.344871 -0.0885857 -0.585 78 69 72
0.358495 -0.0878286 -0.58 83 74 79
0.35713 -0.0814686 -0.538 165 132 139
0.358154 -0.0814686 -0.538 165 134 139
0.335295 -0.0889333 -0.58 85 76 79
0.338669 -0.08924 -0.582 79 70 73
0.356014 -0.0897 -0.585 64 57 64
0.35508 -0.0824933 -0.538 153 123 133
0.3281 -0.0898829 -0.579 89 76 83
0.33698 -0.0901933 -0.581 80 71 74
0.360083 -0.0898829 -0.579 64 59 65
0.361976 -0.0892619 -0.575 73 68 74
0.359132 -0.0864676 -0.557 104 93 99
0.355655 -0.084139 -0.542 140 117 127
0.354781 -0.0832076 -0.536 150 120 130
0.33756 -0.0914571 -0.582 74 65 70
0.33925 -0.0916143 -0.583 72 63 68
0.3549 -0.0919286 -0.585 50 44 48
0.360083 -0.0909857 -0.579 53 48 52
0.363533 -0.0902 -0.574 68 63 69
0.354895 -0.0854857 -0.544 144 121 131
0.356157 -0.0840714 -0.535 159 129 139
0.34776 -0.09352 -0.588 63 54 59
0.349473 -0.093679 -0.589 61 55 59
0.353877 -0.093361 -0.587 52 46 50
0.360083 -0.0920886 -0.579 53 48 52
0.356066 -0.0873171 -0.549 137 116 123
0.353181 -0.0939962 -0.584 63 56 63
0.362136 -0.0928695 -0.577 39 32 39
0.335873 -0.09462 -0.581 73 64 69
0.343757 -0.0952714 -0.585 57 51 55
0.350523 -0.0955971 -0.587 96 89 96
0.351971 -0.0947829 -0.582 140 133 140
0.354569 -0.0942943 -0.579 117 111 115
0.356641 -0.0939686 -0.577 135 128 135
0.323143 -0.0955619 -0.58 84 74 73
0.36 -0.0922667 -0.56 63 52 58
0.35754 -0.0874886 -0.531 147 122 128
0.341471 -0.0971667 -0.583 77 70 77
0.350406 -0.089 -0.534 140 114 125
0.351819 -0.0883333 -0.53 141 111 121
0.35317 -0.0881667 -0.529 150 118 129
0.320372 -0.0972657 -0.577 90 75 82
0.348948 -0.0972657 -0.577 125 115 123
0.35588 -0.09676 -0.574 108 95 104
0.361701 -0.0954114 -0.566 95 84 92
0.358071 -0.0938943 -0.557 136 110 121
0.353727 -0.0922086 -0.547 138 108 118
0.349449 -0.0895114 -0.531 141 113 125
0.354178 -0.0891743 -0.529 146 116 126
0.34362 -0.0990467 -0.581 103 91 103
0.348227 -0.0978533 -0.574 93 81 91
0.35355 -0.0975124 -0.572 112 96 107
0.347719 -0.0908638 -0.533 144 112 125
0.350148 -0.0901819 -0.529 145 112 123
0.35552 -0.0900114 -0.528 149 115 129
0.358537 -0.0900114 -0.528 150 117 128
0.323643 -0.099119 -0.575 89 78 86
0.344048 -0.0996362 -0.578 130 118 130
0.344551 -0.0994638 -0.577 133 120 130
0.347494 -0.0984295 -0.571 104 88 101
0.355108 -0.0984295 -0.571 107 95 105
0.360717 -0.0987743 -0.573 104 91 100
0.34848 -0.0910171 -0.528 147 114 125
0.320357 -0.100214 -0.575 90 77 86
0.324738 -0.100214 -0.575 82 71 79
0.334139 -0.100737 -0.578 69 57 71
0.345319 -0.0995171 -0.571 129 113 126
0.346886 -0.0993429 -0.57 133 115 131
0.356195 -0.0995171 -0.571 108 96 106
0.357909 -0.0996914 -0.572 104 92 102
0.358998 -0.0996914 -0.572 100 88 98
0.360367 -0.0991686 -0.569 93 73 82
0.354447 -0.09638 -0.553 142 109 118
0.349461 -0.0944629 -0.542 146 113 122
0.321987 -0.101133 -0.574 87 74 84
0.328594 -0.101486 -0.576 50 38 48
0.335759 -0.101662 -0.577 132 118 133
0.354032 -0.0976095 -0.554 149 122 131
0.351883 -0.0967286 -0.549 140 109 115
0.351835 -0.0928524 -0.527 147 114 121
0.35585 -0.0928524 -0.527 144 113 118
0.360185 -0.0926762 -0.526 145 115 117
0.371911 -0.0928524 -0.527 154 122 127
0.373623 -0.0930286 -0.528 160 128 133
0.318167 -0.103473 -0.581 92 74 86
0.33408 -0.102583 -0.576 150 137 154
0.340476 -0.10187 -0.572 133 120 137
0.347832 -0.101158 -0.568 167 150 169
0.349996 -0.101158 -0.568 95 82 100
0.34716 -0.0936781 -0.526 153 120 127
0.365194 -0.0936781 -0.526 151 119 122
0.371911 -0.0938562 -0.527 161 125 127
0.326929 -0.1035 -0.575 87 77 86
0.340969 -0.10278 -0.571 154 141 159
0.344587 -0.10224 -0.568 177 166 182
0.34675 -0.10224 -0.568 174 161 181
0.343094 -0.09522 -0.529 143 113 121
0.344809 -0.09486 -0.527 144 111 118
0.355175 -0.09468 -0.526 144 113 118
0.369904 -0.09486 -0.527 151 117 118
0.372915 -0.09486 -0.527 161 120 124
0.335614 -0.104231 -0.573 125 113 125
0.336706 -0.104231 -0.573 174 162 174
0.340371 -0.103686 -0.57 169 158 174
0.347832 -0.103322 -0.568 148 140 161
0.348914 -0.103322 -0.568 146 142 159
0.356031 -0.103504 -0.569 86 87 92
0.342446 -0.0960457 -0.528 143 110 117
0.3505 -0.0955 -0.525 146 111 117
0.369202 -0.0956819 -0.526 148 116 117
0.383114 -0.0964095 -0.53 152 120 123
0.318151 -0.105323 -0.573 83 69 84
0.336706 -0.105323 -0.573 174 162 176
0.35216 -0.104404 -0.568 85 84 98
0.354422 -0.103485 -0.563 54 45 50
0.349381 -0.101095 -0.55 137 112 118
0.346606 -0.0999924 -0.544 145 107 118
0.34355 -0.0985219 -0.536 144 111 118
0.377934 -0.0968676 -0.527 150 118 121
0.313238 -0.106229 -0.572 84 70 85
0.314328 -0.106229 -0.572 84 70 85
0.320334 -0.106414 -0.573 83 69 84
0.328547 -0.1066 -0.574 98 85 95
0.340371 -0.105857 -0.57 151 142 163
0.34411 -0.105671 -0.569 128 120 143
0.347836 -0.0973143 -0.524 146 111 117
0.3725 -0.0975 -0.525 144 112 115
0.38368 -0.0980571 -0.528 153 118 122
0.311603 -0.107506 -0.573 83 71 83
0.315417 -0.107318 -0.572 82 68 81
0.319243 -0.107506 -0.573 81 67 80
0.329066 -0.107506 -0.573 73 60 70
0.347361 -0.106755 -0.569 40 43 60
0.35262 -0.10638 -0.567 47 50 57
0.3405 -0.0985 -0.525 143 111 116
0.3435 -0.0985 -0.525 157 122 128
0.349832 -0.0983124 -0.524 145 113 118
0.354823 -0.0983124 -0.524 146 111 117
0.356819 -0.0983124 -0.524 145 110 116
0.3745 -0.0985 -0.525 143 111 114
0.3755 -0.0985 -0.525 145 113 116
0.3785 -0.0985 -0.525 149 114 118
0.339881 -0.108218 -0.571 139 130 149
0.339705 -0.100448 -0.53 145 112 119
0.33979 -0.099879 -0.527 144 111 118
0.3405 -0.0995 -0.525 147 114 121
0.342846 -0.0993105 -0.524 149 116 123
0.347172 -0.099121 -0.523 144 112 117
0.352153 -0.099121 -0.523 147 112 118
0.376781 -0.0993105 -0.524 146 112 113
0.38423 -0.0996895 -0.526 151 116 120
0.340476 -0.109497 -0.572 246 237 255
0.350612 -0.108923 -0.569 123 133 143
0.35154 -0.10854 -0.567 145 154 163
0.343267 -0.103754 -0.542 142 112 120
0.339597 -0.102031 -0.533 143 110 117
0.344842 -0.100309 -0.524 142 110 115
0.349165 -0.100117 -0.523 144 112 117
0.352153 -0.100117 -0.523 147 112 118
0.361119 -0.100117 -0.523 146 111 115
0.330157 -0.11078 -0.573 69 58 64
0.343745 -0.110587 -0.572 190 191 209
0.350143 -0.1102 -0.57 44 52 63
0.34085 -0.101307 -0.524 148 115 122
0.369377 -0.10092 -0.522 144 112 115
0.377058 -0.101113 -0.523 140 106 107
0.313778 -0.111481 -0.571 79 63 76
0.327453 -0.112067 -0.574 60 47 56
0.350282 -0.111676 -0.572 59 62 77
0.351845 -0.111481 -0.571 69 75 87
0.343188 -0.10211 -0.523 142 110 115
0.346176 -0.10211 -0.523 147 112 118
0.354463 -0.101914 -0.522 146 111 117
0.366394 -0.101914 -0.522 146 111 115
0.307252 -0.112569 -0.571 83 67 77
0.321987 -0.11316 -0.574 55 42 51
0.336118 -0.112766 -0.572 118 106 120
0.339387 -0.112766 -0.572 107 99 114
0.344563 -0.108231 -0.549 138 116 119
0.341831 -0.107049 -0.543 140 109 114
0.336139 -0.103697 -0.526 142 110 125
0.340199 -0.103106 -0.523 144 112 117
0.342191 -0.103106 -0.523 145 113 118
0.347503 -0.102909 -0.522 145 113 116
0.363411 -0.102909 -0.522 146 111 115
0.3647 -0.102711 -0.521 147 113 114
0.375616 -0.102711 -0.521 142 108 109
0.390009 -0.103106 -0.523 150 115 119
0.350894 -0.114054 -0.573 86 90 99
0.339203 -0.104102 -0.523 144 112 117
0.349814 -0.103704 -0.521 144 112 117
0.363411 -0.103903 -0.522 146 111 115
0.366685 -0.103704 -0.521 147 113 114
0.368952 -0.103505 -0.52 145 110 114
0.391752 -0.104301 -0.524 149 114 118
0.327453 -0.115347 -0.574 58 45 55
0.333431 -0.115146 -0.573 80 68 80
0.34276 -0.115347 -0.574 95 89 103
0.340199 -0.105098 -0.523 143 111 116
0.374895 -0.104495 -0.52 144 110 111
0.375886 -0.104495 -0.52 142 108 109
0.444229 -0.110926 -0.552 202 146 147
0.44528 -0.110926 -0.552 206 150 151
0.31269 -0.115831 -0.571 78 62 73
0.330157 -0.116237 -0.573 56 45 53
0.331249 -0.116237 -0.573 58 46 58
0.335614 -0.116237 -0.573 83 75 86
0.335033 -0.107311 -0.529 143 110 117
0.352791 -0.105689 -0.521 144 109 115
0.355086 -0.105486 -0.52 144 109 113
0.357753 -0.105689 -0.521 145 110 114
0.364 -0.105486 -0.52 146 112 113
0.384548 -0.105689 -0.521 136 104 107
0.390257 -0.105891 -0.522 143 108 112
0.391251 -0.105891 -0.522 147 115 118
0.324173 -0.117533 -0.574 54 43 51
0.330157 -0.117329 -0.573 56 45 53
0.331249 -0.117329 -0.573 61 47 60
0.345779 -0.113848 -0.556 139 118 125
0.334222 -0.10709 -0.523 143 110 117
0.354095 -0.106476 -0.52 144 109 113
0.392246 -0.106886 -0.522 142 110 113
0.314877 -0.11842 -0.573 72 56 67
0.31652 -0.118627 -0.574 71 55 66
0.335614 -0.11842 -0.573 72 66 76
0.338889 -0.11842 -0.573 58 52 62
0.33998 -0.11842 -0.573 61 53 66
0.348103 -0.118213 -0.572 67 71 83
0.347988 -0.116353 -0.563 152 136 146
0.334222 -0.108087 -0.523 146 114 119
0.352114 -0.107467 -0.52 143 108 114
0.367254 -0.10726 -0.519 145 111 112
0.374174 -0.10726 -0.519 143 108 112
0.377867 -0.107467 -0.52 140 105 109
0.378857 -0.107467 -0.52 142 107 111
0.393479 -0.107673 -0.521 139 107 110
0.437437 -0.111807 -0.541 202 145 152
0.30294 -0.11826 -0.567 78 62 75
0.324173 -0.11972 -0.574 49 38 46
0.32636 -0.11972 -0.574 51 40 48
0.336118 -0.119303 -0.572 73 68 75
0.34276 -0.11972 -0.574 80 77 88
0.34472 -0.115966 -0.556 134 113 120
0.33989 -0.108666 -0.521 143 111 116
0.340883 -0.108666 -0.521 143 111 116
0.364 -0.108457 -0.52 145 111 112
0.376151 -0.108249 -0.519 142 107 111
0.386037 -0.108249 -0.519 124 99 102
0.337797 -0.120603 -0.573 53 43 52
0.34276 -0.120813 -0.574 47 44 55
0.333583 -0.109869 -0.522 156 126 128
0.341875 -0.109658 -0.521 143 111 116
0.36556 -0.109027 -0.518 144 110 111
0.372197 -0.109237 -0.519 143 108 112
0.393714 -0.109448 -0.52 137 102 106
0.403183 -0.109869 -0.522 141 104 111
0.32636 -0.121907 -0.574 45 34 42
0.329066 -0.121694 -0.573 48 35 44
0.345437 -0.121694 -0.573 96 99 108
0.34614 -0.12042 -0.567 60 59 73
0.332589 -0.110863 -0.522 154 124 124
0.341875 -0.11065 -0.521 145 110 116
0.358357 -0.110226 -0.519 144 109 113
0.36852 -0.110013 -0.518 144 110 111
0.372197 -0.110226 -0.519 142 107 111
0.38406 -0.110226 -0.519 65 46 48
0.398667 -0.110438 -0.52 139 96 103
0.426691 -0.113411 -0.534 139 90 93
0.431567 -0.113624 -0.535 183 128 133
0.344614 -0.120214 -0.561 127 112 115
0.339952 -0.117857 -0.55 138 111 116
0.32987 -0.112286 -0.524 145 113 118
0.332944 -0.111643 -0.521 137 107 109
0.340229 -0.111429 -0.52 143 108 114
0.345506 -0.111214 -0.519 144 112 115
0.378857 -0.111429 -0.52 139 107 110
0.389991 -0.111214 -0.519 124 93 98
0.396911 -0.111214 -0.519 137 105 108
0.415075 -0.112929 -0.527 147 108 111
0.428938 -0.114214 -0.533 163 117 120
0.298666 -0.12085 -0.559 67 55 65
0.312149 -0.123661 -0.572 61 48 58
0.325833 -0.12431 -0.575 42 30 40
0.338889 -0.123877 -0.573 43 33 42
0.34477 -0.121715 -0.563 111 105 107
0.3295 -0.1135 -0.525 143 110 117
0.339238 -0.112419 -0.52 141 109 114
0.34946 -0.112203 -0.519 145 110 114
0.361323 -0.112203 -0.519 144 110 111
0.379117 -0.112203 -0.519 135 103 106
0.39516 -0.111987 -0.518 132 100 103
0.4125 -0.1135 -0.525 143 107 109
0.423495 -0.114581 -0.53 144 103 107
0.2923 -0.120607 -0.553 147 122 128
0.295471 -0.121043 -0.555 76 59 65
0.343254 -0.124969 -0.573 48 41 49
0.335626 -0.118426 -0.543 153 120 129
0.331314 -0.11341 -0.52 142 107 114
0.340229 -0.11341 -0.52 141 109 114
0.3432 -0.11341 -0.52 141 109 114
0.358357 -0.113191 -0.519 143 108 112
0.362311 -0.113191 -0.519 143 108 112
0.366547 -0.112973 -0.518 141 109 112
0.3922 -0.112973 -0.518 116 87 89
0.399877 -0.113191 -0.519 137 101 103
0.307796 -0.12452 -0.566 56 43 53
0.309966 -0.12496 -0.568 53 42 50
0.320357 -0.1265 -0.575 39 26 36
0.33292 -0.12628 -0.574 43 32 40
0.334286 -0.1144 -0.52 140 105 111
0.336267 -0.1144 -0.52 142 107 113
0.3432 -0.1144 -0.52 141 109 114
0.352426 -0.11418 -0.519 143 108 112
0.357369 -0.11418 -0.519 142 107 111
0.364573 -0.11396 -0.518 143 109 110
0.384307 -0.11396 -0.518 134 102 105
0.385293 -0.11396 -0.518 141 109 112
0.394173 -0.11396 -0.518 124 92 95
0.39516 -0.11396 -0.518 133 101 104
0.39812 -0.11396 -0.518 135 99 101
0.411137 -0.11484 -0.522 134 98 100
0.441562 -0.11792 -0.536 189 135 133
0.28548 -0.12116 -0.546 157 123 137
0.2886 -0.12116 -0.546 156 124 137
0.322548 -0.127595 -0.575 36 23 32
0.338647 -0.122713 -0.553 133 107 110
0.336629 -0.121604 -0.548 147 116 122
0.328343 -0.11539 -0.52 134 104 106
0.346813 -0.114947 -0.518 143 108 112
0.35076 -0.114947 -0.518 144 109 113
0.358653 -0.114947 -0.518 142 108 109
0.3626 -0.114947 -0.518 143 109 110
0.415707 -0.116278 -0.524 133 97 99
0.421098 -0.116944 -0.527 129 95 96
0.427533 -0.11761 -0.53 97 65 66
0.438075 -0.118275 -0.533 192 141 140
0.2834 -0.1222 -0.546 159 127 138
0.294905 -0.123095 -0.55 142 110 123
0.3362 -0.128467 -0.574 40 29 37
0.329333 -0.116381 -0.52 134 102 105
0.331314 -0.116381 -0.52 139 103 105
0.334631 -0.116157 -0.519 143 107 109
0.345827 -0.115933 -0.518 144 110 111
0.35964 -0.115933 -0.518 142 108 109
0.360627 -0.115933 -0.518 142 108 109
0.38258 -0.11571 -0.517 137 102 106
0.409562 -0.116381 -0.52 131 97 98
0.4185 -0.1175 -0.525 131 97 98
0.431374 -0.118843 -0.531 193 149 150
0.285429 -0.121886 -0.54 154 118 132
0.314293 -0.128206 -0.568 32 19 28
0.326929 -0.129786 -0.575 36 24 34
0.330214 -0.129786 -0.575 38 25 34
0.330733 -0.12956 -0.574 38 25 34
0.33654 -0.12482 -0.553 137 106 111
0.33332 -0.12324 -0.546 151 120 125
0.33436 -0.12324 -0.546 151 120 125
0.326252 -0.118049 -0.523 139 104 108
0.341551 -0.117146 -0.519 143 109 110
0.343853 -0.11692 -0.518 143 109 110
0.348113 -0.116694 -0.517 141 109 112
0.352052 -0.116694 -0.517 142 110 113
0.365839 -0.116694 -0.517 143 107 109
0.377656 -0.116694 -0.517 136 106 108
0.384789 -0.116469 -0.516 142 110 113
0.393634 -0.116469 -0.516 112 84 83
0.397351 -0.116694 -0.517 116 86 88
0.406013 -0.11692 -0.518 128 96 99
0.407786 -0.117146 -0.519 128 96 99
0.285396 -0.122459 -0.538 167 131 141
0.300183 -0.125646 -0.552 134 98 110
0.305024 -0.126784 -0.557 49 33 43
0.307733 -0.127467 -0.56 32 19 29
0.309903 -0.127922 -0.562 33 20 30
0.337293 -0.130653 -0.574 34 23 31
0.340573 -0.130653 -0.574 63 50 57
0.34074 -0.12906 -0.567 56 40 50
0.335487 -0.125873 -0.553 132 115 123
0.34254 -0.118134 -0.519 143 109 110
0.364149 -0.117451 -0.516 144 108 110
0.38872 -0.117451 -0.516 132 96 98
0.388948 -0.117224 -0.515 127 91 93
0.278223 -0.123484 -0.538 165 127 142
0.285356 -0.123025 -0.536 157 124 135
0.320266 -0.130599 -0.569 33 20 29
0.340259 -0.13037 -0.568 59 50 53
0.354022 -0.118664 -0.517 144 109 113
0.375943 -0.118434 -0.516 169 144 148
0.387737 -0.118434 -0.516 137 102 106
0.388948 -0.118205 -0.515 135 100 104
0.400514 -0.118434 -0.516 130 98 99
0.417703 -0.12027 -0.524 128 98 98
0.429351 -0.121877 -0.531 74 35 36
0.432386 -0.121877 -0.531 170 124 124
0.435227 -0.122107 -0.532 193 142 139
0.440293 -0.122107 -0.532 192 138 138
0.280713 -0.123351 -0.533 161 125 137
0.325171 -0.131914 -0.57 29 17 27
0.334013 -0.13284 -0.574 28 16 26
0.3362 -0.13284 -0.574 36 26 37
0.325994 -0.123583 -0.534 140 105 109
0.324381 -0.120343 -0.52 136 101 105
0.333987 -0.11988 -0.518 139 104 108
0.344174 -0.119649 -0.517 143 108 112
0.35432 -0.119417 -0.516 143 108 112
0.356286 -0.119417 -0.516 144 109 113
0.376195 -0.119186 -0.515 165 142 150
0.408973 -0.11988 -0.518 140 99 105
0.4195 -0.1215 -0.525 104 75 77
0.429351 -0.122889 -0.531 69 30 31
0.10075 -0.151433 -0.649 197 137 139
0.287343 -0.1246 -0.534 159 123 135
0.29681 -0.126467 -0.542 153 117 127
0.318526 -0.1316 -0.564 24 14 22
0.333983 -0.129267 -0.554 124 105 107
0.336296 -0.120633 -0.517 139 104 108
0.34122 -0.120633 -0.517 142 107 111
0.350389 -0.1204 -0.516 144 110 111
0.351371 -0.1204 -0.516 144 109 113
0.373252 -0.120167 -0.515 247 234 243
0.3811 -0.120167 -0.515 140 104 108
0.389929 -0.120167 -0.515 130 98 99
0.417703 -0.122267 -0.524 108 82 83
0.436431 -0.1239 -0.531 203 145 143
0.0999733 -0.151493 -0.644 190 130 132
0.103814 -0.151729 -0.645 183 123 125
0.28163 -0.124441 -0.529 159 123 133
0.298874 -0.127499 -0.542 150 117 124
0.327276 -0.133615 -0.568 27 15 25
0.322884 -0.123265 -0.524 134 102 105
0.326723 -0.122089 -0.519 136 104 105
0.328418 -0.121618 -0.517 137 105 106
0.333342 -0.121618 -0.517 140 105 109
0.352354 -0.121383 -0.516 145 111 112
0.359234 -0.121383 -0.516 142 107 111
0.381339 -0.120912 -0.514 131 96 100
0.389171 -0.120912 -0.514 132 100 101
0.396795 -0.121148 -0.515 135 99 101
0.41412 -0.122794 -0.522 133 98 102
0.425514 -0.124676 -0.53 49 29 31
0.441489 -0.124911 -0.531 183 128 125
0.09002 -0.152483 -0.643 178 118 120
0.108897 -0.153194 -0.646 173 107 108
0.274622 -0.126397 -0.533 162 127 134
0.279086 -0.125211 -0.528 158 125 134
0.332188 -0.134934 -0.569 43 33 41
0.336618 -0.135409 -0.571 49 42 49
0.337607 -0.134934 -0.569 39 34 38
0.336905 -0.134223 -0.566 34 29 33
0.333342 -0.122603 -0.517 140 105 109
0.374486 -0.121891 -0.514 235 220 225
0.382318 -0.121891 -0.514 124 94 96
0.388192 -0.121891 -0.514 135 100 104
0.396795 -0.122129 -0.515 131 95 97
0.398757 -0.122129 -0.515 126 92 93
0.4346 -0.125686 -0.53 186 128 126
0.0940333 -0.152273 -0.637 185 123 126
0.315557 -0.132671 -0.555 39 27 31
0.329358 -0.135301 -0.566 32 21 27
0.325107 -0.123827 -0.518 138 104 105
0.336629 -0.123349 -0.516 140 105 109
0.344491 -0.123349 -0.516 141 106 110
0.345474 -0.123349 -0.516 141 106 110
0.35432 -0.123349 -0.516 143 109 110
0.382318 -0.12287 -0.514 110 84 85
0.397983 -0.12287 -0.514 106 72 73
0.428133 -0.127173 -0.532 42 16 19
0.432187 -0.127173 -0.532 126 78 78
0.43561 -0.126695 -0.53 188 133 130
0.436619 -0.126695 -0.53 190 135 132
0.0934429 -0.152523 -0.633 176 112 113
0.0947981 -0.152764 -0.634 177 113 114
0.272595 -0.12891 -0.535 163 128 132
0.275546 -0.126982 -0.527 158 125 132
0.288137 -0.127223 -0.528 157 126 131
0.292809 -0.127946 -0.531 156 124 129
0.328685 -0.135656 -0.563 29 18 24
0.331414 -0.133729 -0.555 119 98 103
0.32412 -0.124813 -0.518 138 106 107
0.327433 -0.124572 -0.517 136 104 105
0.336629 -0.124331 -0.516 140 105 109
0.34056 -0.124331 -0.516 139 104 108
0.3605 -0.12409 -0.515 140 105 109
0.362462 -0.12409 -0.515 139 104 108
0.365405 -0.12409 -0.515 142 106 108
0.373252 -0.12409 -0.515 157 135 138
0.415707 -0.126259 -0.524 98 72 71
0.42712 -0.128187 -0.532 48 26 29
0.431984 -0.128428 -0.533 97 58 59
0.112589 -0.156886 -0.646 135 70 74
0.115406 -0.157371 -0.648 118 53 57
0.273099 -0.130657 -0.538 157 124 131
0.298629 -0.130171 -0.536 151 118 125
0.305631 -0.131871 -0.543 150 119 125
0.32412 -0.1258 -0.518 138 106 107
0.385483 -0.124586 -0.513 127 98 100
0.388192 -0.124829 -0.514 130 98 101
0.389171 -0.124829 -0.514 131 99 102
0.408774 -0.126043 -0.519 126 97 99
0.425306 -0.128957 -0.531 43 21 24
0.443511 -0.128957 -0.531 177 117 116
0.08366 -0.152487 -0.623 177 122 119
0.0906 -0.1542 -0.63 154 90 91
0.271576 -0.130458 -0.533 158 122 126
0.272561 -0.129479 -0.529 162 126 136
0.290149 -0.129234 -0.528 159 124 130
0.294831 -0.129969 -0.531 155 123 128
0.304971 -0.132171 -0.54 152 123 128
0.317893 -0.128255 -0.524 144 105 110
0.32911 -0.126052 -0.515 140 109 107
0.343509 -0.126297 -0.516 140 105 109
0.352652 -0.126052 -0.515 139 107 108
0.368611 -0.125808 -0.514 136 104 107
0.371549 -0.125808 -0.514 139 110 114
0.382551 -0.125563 -0.513 67 47 48
0.390369 -0.125563 -0.513 133 98 102
0.417293 -0.128745 -0.526 83 57 58
0.43359 -0.129724 -0.53 170 115 112
0.439826 -0.129479 -0.529 190 128 129
0.08366 -0.153673 -0.623 177 122 119
0.0903124 -0.154907 -0.628 161 96 94
0.138857 -0.15984 -0.648 218 163 158
0.155381 -0.160333 -0.65 162 102 101
0.272046 -0.13024 -0.528 159 127 132
0.2865 -0.1295 -0.525 153 121 126
0.29216 -0.13024 -0.528 150 119 124
0.302712 -0.132213 -0.536 145 116 120
0.324014 -0.1369 -0.555 33 16 24
0.324846 -0.134187 -0.544 154 129 135
0.318911 -0.130487 -0.529 135 104 110
0.318438 -0.128267 -0.52 136 101 107
0.3182 -0.127773 -0.518 133 104 108
0.34744 -0.12728 -0.516 136 104 107
0.351671 -0.127033 -0.515 142 108 107
0.364695 -0.126787 -0.514 140 105 109
0.37057 -0.126787 -0.514 135 106 110
0.381574 -0.12654 -0.513 74 52 55
0.421476 -0.130733 -0.53 49 27 29
0.425892 -0.131473 -0.533 48 28 30
0.439826 -0.130487 -0.529 191 134 125
0.114171 -0.161074 -0.648 112 50 53
0.135571 -0.161571 -0.65 218 156 157
0.138927 -0.15834 -0.637 212 159 153
0.140466 -0.157346 -0.633 204 154 147
0.148167 -0.157843 -0.635 182 124 120
0.152009 -0.159334 -0.641 166 108 106
0.154186 -0.160329 -0.645 161 103 101
0.2775 -0.1305 -0.525 156 124 129
0.2895 -0.1305 -0.525 152 120 125
0.293614 -0.130997 -0.527 149 118 123
0.312295 -0.134726 -0.542 145 115 117
0.323314 -0.137211 -0.552 39 19 21
0.31992 -0.128263 -0.516 133 105 104
0.325817 -0.128263 -0.516 119 99 101
0.327148 -0.128014 -0.515 101 90 94
0.353926 -0.127766 -0.514 153 121 124
0.362737 -0.127766 -0.514 137 105 106
0.390369 -0.127517 -0.513 129 93 97
0.440833 -0.131494 -0.529 188 130 126
0.0729762 -0.153542 -0.613 200 159 155
0.0969067 -0.158301 -0.632 145 74 78
0.143172 -0.15755 -0.629 183 133 122
0.279966 -0.13125 -0.524 155 123 126
0.288397 -0.130999 -0.523 151 119 122
0.321428 -0.13701 -0.547 110 84 87
0.318094 -0.133003 -0.531 131 102 104
0.315897 -0.13125 -0.524 136 104 107
0.321886 -0.129246 -0.516 133 109 109
0.324834 -0.129246 -0.516 103 101 106
0.327148 -0.128995 -0.515 73 92 96
0.353926 -0.128745 -0.514 181 152 157
0.354905 -0.128745 -0.514 207 178 183
0.366917 -0.128494 -0.513 136 104 105
0.376689 -0.128494 -0.513 133 103 105
0.399738 -0.128995 -0.515 126 95 93
0.416079 -0.132001 -0.527 89 63 66
0.43378 -0.132502 -0.529 183 125 123
0.06902 -0.1537 -0.609 199 159 157
0.07482 -0.1537 -0.609 202 159 153
0.135711 -0.161271 -0.639 214 159 154
0.149141 -0.16001 -0.634 165 110 103
0.270527 -0.133005 -0.527 162 125 132
0.2945 -0.1325 -0.525 148 116 119
0.30711 -0.134519 -0.533 145 113 116
0.340219 -0.129724 -0.514 131 105 108
0.362031 -0.129471 -0.513 135 103 104
0.364963 -0.129471 -0.513 133 103 105
0.366202 -0.129219 -0.512 133 103 105
0.37278 -0.129471 -0.513 138 106 107
0.374734 -0.129471 -0.513 133 101 102
0.40404 -0.130733 -0.518 127 95 98
0.433605 -0.135024 -0.535 114 74 75
0.06868 -0.154097 -0.606 200 159 155
0.0849286 -0.156386 -0.615 172 121 117
0.107 -0.163251 -0.642 121 59 64
0.10856 -0.16376 -0.644 120 61 63
0.145337 -0.159691 -0.628 169 117 106
0.274975 -0.133246 -0.524 157 122 128
0.283869 -0.132737 -0.522 151 119 122
0.290829 -0.132737 -0.522 150 118 123
0.293378 -0.132991 -0.523 148 116 121
0.30856 -0.13528 -0.532 147 115 120
0.314964 -0.136297 -0.536 145 114 119
0.316601 -0.131466 -0.517 134 105 107
0.318319 -0.130957 -0.515 134 104 106
0.321262 -0.130957 -0.515 118 93 96
0.324205 -0.130957 -0.515 66 88 86
0.327491 -0.130703 -0.514 67 92 99
0.33924 -0.130703 -0.514 137 128 131
0.342177 -0.130703 -0.514 136 110 109
0.348351 -0.130449 -0.513 140 109 107
0.362031 -0.130449 -0.513 138 106 107
0.410716 -0.133246 -0.524 113 82 87
0.435718 -0.138331 -0.544 48 23 27
0.432772 -0.134517 -0.529 171 116 113
0.0846524 -0.157045 -0.613 178 129 124
0.0875552 -0.15807 -0.617 163 112 109
0.0978 -0.1614 -0.63 113 51 54
0.103903 -0.16345 -0.638 119 58 63
0.132481 -0.165755 -0.647 212 159 151
0.134357 -0.160631 -0.627 204 150 140
0.138986 -0.159094 -0.621 183 129 117
0.284317 -0.133475 -0.521 150 118 123
0.287294 -0.133475 -0.521 149 117 122
0.292817 -0.133731 -0.522 149 117 122
0.304656 -0.135012 -0.527 149 117 122
0.30624 -0.135269 -0.528 147 115 120
0.336303 -0.131682 -0.514 177 188 194
0.340219 -0.131682 -0.514 132 122 123
0.345114 -0.131682 -0.514 137 109 108
0.371078 -0.13117 -0.512 136 104 105
0.373029 -0.13117 -0.512 134 104 104
0.374004 -0.13117 -0.512 135 105 105
0.380087 -0.130913 -0.511 140 105 109
0.388632 -0.13117 -0.512 126 94 95
0.403053 -0.132707 -0.518 126 94 97
0.441006 -0.135269 -0.528 181 131 122
0.0725714 -0.154857 -0.6 201 161 153
0.0815114 -0.156664 -0.607 191 148 139
0.0949457 -0.161826 -0.627 126 66 68
0.0976448 -0.162342 -0.629 104 44 46
0.131451 -0.167246 -0.648 215 165 156
0.131867 -0.166213 -0.644 209 159 150
0.141579 -0.160535 -0.622 166 112 100
0.154691 -0.165697 -0.642 132 81 78
0.287294 -0.134468 -0.521 151 116 122
0.288287 -0.134468 -0.521 151 116 122
0.291264 -0.134468 -0.521 149 117 122
0.308086 -0.135758 -0.526 151 116 120
0.31228 -0.133693 -0.518 124 98 97
0.33924 -0.132661 -0.514 149 163 166
0.348351 -0.132403 -0.513 137 105 106
0.349329 -0.132403 -0.513 138 109 113
0.382033 -0.131887 -0.511 128 93 97
0.385927 -0.131887 -0.511 134 98 100
0.411282 -0.135758 -0.526 111 81 83
0.4332 -0.137307 -0.532 152 104 102
0.433966 -0.136274 -0.528 197 139 135
0.442849 -0.136532 -0.529 180 127 119
0.0915238 -0.1612 -0.62 164 104 104
0.0930038 -0.16172 -0.622 156 96 96
0.132313 -0.16198 -0.623 203 151 140
0.132857 -0.1612 -0.62 192 140 129
0.146767 -0.16354 -0.629 149 97 84
0.157129 -0.16822 -0.647 123 74 70
0.268987 -0.13624 -0.524 158 122 126
0.27492 -0.13572 -0.522 157 121 125
0.275914 -0.13572 -0.522 157 121 125
0.280348 -0.13546 -0.521 153 117 121
0.287733 -0.1352 -0.52 151 116 120
0.288724 -0.1352 -0.52 151 116 120
0.289714 -0.1352 -0.52 150 115 119
0.307731 -0.13572 -0.522 155 118 125
0.310692 -0.13442 -0.517 126 100 99
0.339557 -0.13338 -0.513 148 147 152
0.36062 -0.13286 -0.511 136 107 111
0.36646 -0.13286 -0.511 157 131 134
0.3842 -0.1326 -0.51 132 96 98
0.444529 -0.1443 -0.555 53 33 35
0.44101 -0.14248 -0.548 63 34 36
0.458893 -0.14092 -0.542 156 106 97
0.0686819 -0.156095 -0.596 201 160 154
0.0722086 -0.156357 -0.597 200 157 150
0.0865619 -0.159762 -0.61 184 133 129
0.0958333 -0.16369 -0.625 121 65 64
0.105448 -0.167619 -0.64 132 71 78
0.26699 -0.137238 -0.524 156 121 127
0.268987 -0.137238 -0.524 155 120 126
0.278363 -0.136452 -0.521 152 120 125
0.292686 -0.13619 -0.52 146 111 117
0.30061 -0.13619 -0.52 145 113 116
0.308723 -0.135405 -0.517 133 103 103
0.319659 -0.134619 -0.514 68 88 87
0.332717 -0.134357 -0.513 106 123 130
0.342489 -0.134357 -0.513 122 107 110
0.343466 -0.134357 -0.513 135 108 115
0.36354 -0.133833 -0.511 134 104 106
0.368407 -0.133833 -0.511 186 176 185
0.382033 -0.133833 -0.511 129 99 99
0.391558 -0.134095 -0.512 104 70 71
0.447557 -0.139071 -0.531 164 114 105
0.0661886 -0.156703 -0.594 201 162 155
0.0780248 -0.157758 -0.598 197 154 145
0.267477 -0.137972 -0.523 157 122 128
0.304387 -0.136653 -0.518 160 128 129
0.319659 -0.135598 -0.514 77 99 97
0.336945 -0.13507 -0.512 208 223 228
0.349623 -0.13507 -0.512 230 211 213
0.356727 -0.134807 -0.511 138 106 107
0.3723 -0.134807 -0.511 225 209 212
0.442849 -0.139555 -0.529 184 131 123
0.0564771 -0.159163 -0.599 201 160 154
0.0648381 -0.157303 -0.592 202 162 154
0.0705952 -0.157569 -0.593 201 161 153
0.0962476 -0.164743 -0.62 162 106 105
0.262994 -0.140297 -0.528 159 124 130
0.263 -0.139766 -0.526 157 122 128
0.27737 -0.138437 -0.521 152 120 125
0.295507 -0.13764 -0.518 145 110 116
0.305177 -0.137109 -0.516 134 102 105
0.306548 -0.136843 -0.515 133 101 104
0.31868 -0.136577 -0.514 98 78 80
0.334019 -0.136046 -0.512 171 186 193
0.353524 -0.136046 -0.512 135 113 125
0.367433 -0.13578 -0.511 241 230 244
0.37522 -0.13578 -0.511 174 153 162
0.386143 -0.135514 -0.51 129 99 99
0.388847 -0.13578 -0.511 123 93 93
0.44 -0.140297 -0.528 193 138 131
0.0604295 -0.158698 -0.593 199 159 151
0.0990867 -0.166727 -0.623 174 114 114
0.126319 -0.17315 -0.647 203 154 140
0.155896 -0.17315 -0.647 123 73 72
0.2625 -0.1405 -0.525 157 120 127
0.271416 -0.13943 -0.521 151 119 124
0.276838 -0.139162 -0.52 153 118 124
0.277829 -0.139162 -0.52 152 117 123
0.288169 -0.138894 -0.519 150 115 121
0.289157 -0.138894 -0.519 148 113 119
0.290146 -0.138894 -0.519 146 111 117
0.296906 -0.138359 -0.517 145 110 116
0.31122 -0.137289 -0.513 132 100 101
0.321969 -0.137289 -0.513 214 227 235
0.352833 -0.136753 -0.511 128 105 115
0.355753 -0.136753 -0.511 135 104 112
0.36062 -0.136753 -0.511 130 101 105
0.364513 -0.136753 -0.511 235 225 234
0.3723 -0.136753 -0.511 115 108 116
0.381286 -0.136486 -0.51 129 99 99
0.45212 -0.142909 -0.534 150 101 94
0.064619 -0.159019 -0.59 204 160 149
0.0714829 -0.159289 -0.591 201 157 146
0.0999514 -0.167374 -0.621 181 120 119
0.145337 -0.169261 -0.628 128 90 81
0.151771 -0.172495 -0.64 127 79 75
0.266966 -0.140691 -0.522 155 120 126
0.278819 -0.140152 -0.52 152 117 121
0.302624 -0.138805 -0.515 129 97 100
0.314151 -0.138266 -0.513 134 105 109
0.320991 -0.138266 -0.513 189 206 214
0.322946 -0.138266 -0.513 153 164 170
0.323923 -0.138266 -0.513 167 178 184
0.329143 -0.137996 -0.512 169 176 184
0.347672 -0.137996 -0.512 217 197 206
0.356727 -0.137727 -0.511 132 103 108
0.3577 -0.137727 -0.511 130 101 106
0.358673 -0.137727 -0.511 129 102 107
0.365487 -0.137727 -0.511 239 234 241
0.367433 -0.137727 -0.511 236 232 246
0.370353 -0.137727 -0.511 234 232 245
0.38982 -0.137727 -0.511 128 98 98
0.400866 -0.139883 -0.519 125 96 98
0.459154 -0.155246 -0.576 72 47 51
0.433966 -0.142309 -0.528 194 141 133
0.442849 -0.142578 -0.529 176 123 115
0.0580724 -0.160686 -0.592 204 162 150
0.0821667 -0.1615 -0.595 193 144 130
0.0916143 -0.164214 -0.605 184 126 122
0.0943848 -0.165029 -0.608 181 123 119
0.149611 -0.172629 -0.636 124 81 75
0.152009 -0.173986 -0.641 126 78 76
0.25992 -0.1444 -0.532 164 123 129
0.297314 -0.140057 -0.516 144 109 115
0.310243 -0.139243 -0.513 131 101 101
0.3249 -0.139243 -0.513 148 155 165
0.341153 -0.1387 -0.511 119 113 117
0.352833 -0.1387 -0.511 131 104 111
0.354086 -0.138429 -0.51 129 102 109
0.355057 -0.138429 -0.51 129 102 109
0.364771 -0.138429 -0.51 236 235 243
0.369629 -0.138429 -0.51 233 231 244
0.372543 -0.138429 -0.51 216 210 220
0.399107 -0.1406 -0.518 128 100 99
0.460443 -0.157157 -0.579 66 43 49
0.443856 -0.143586 -0.529 168 120 110
0.0622657 -0.160993 -0.589 202 158 147
0.0689971 -0.160993 -0.589 202 156 143
0.0869914 -0.16318 -0.597 191 139 126
0.101658 -0.168647 -0.617 189 125 123
0.1035 -0.16974 -0.621 184 120 118
0.126394 -0.16564 -0.606 175 124 105
0.258971 -0.14432 -0.528 162 121 127
0.262989 -0.14268 -0.522 156 117 122
0.269431 -0.142407 -0.521 153 117 121
0.281693 -0.141587 -0.518 151 116 120
0.28564 -0.141587 -0.518 149 114 120
0.290573 -0.141587 -0.518 147 112 118
0.305357 -0.14022 -0.513 136 104 105
0.327192 -0.139947 -0.512 182 188 204
0.330447 -0.139673 -0.511 225 229 240
0.334657 -0.1394 -0.51 185 185 197
0.34018 -0.139673 -0.511 162 153 158
0.355057 -0.1394 -0.51 130 104 113
0.357971 -0.1394 -0.51 127 102 106
0.361857 -0.1394 -0.51 225 214 220
0.364771 -0.1394 -0.51 236 239 246
0.371571 -0.1394 -0.51 230 227 236
0.373514 -0.1394 -0.51 164 151 158
0.390583 -0.139947 -0.512 128 96 97
0.392323 -0.14022 -0.513 127 95 96
0.394067 -0.140493 -0.514 127 95 96
0.403183 -0.14268 -0.522 108 83 86
0.43296 -0.14432 -0.528 190 135 128
0.434148 -0.144047 -0.527 195 142 134
0.44017 -0.144047 -0.527 191 139 128
0.443856 -0.144593 -0.529 172 124 114
0.05104 -0.169547 -0.616 201 161 151
0.0611438 -0.162115 -0.589 202 159 150
0.0746067 -0.162115 -0.589 197 151 135
0.0757286 -0.162115 -0.589 197 150 134
0.0768505 -0.162115 -0.589 195 148 132
0.0854229 -0.163491 -0.594 191 139 125
0.087981 -0.164042 -0.596 190 134 121
0.0975371 -0.166794 -0.606 192 132 124
0.268914 -0.143124 -0.52 151 116 120
0.273867 -0.143124 -0.52 151 116 120
0.2987 -0.141748 -0.515 148 112 116
0.308663 -0.140922 -0.512 133 103 105
0.31549 -0.140922 -0.512 131 101 101
0.318415 -0.140922 -0.512 48 95 89
0.322316 -0.140922 -0.512 119 140 143
0.325242 -0.140922 -0.512 175 182 192
0.3366 -0.140371 -0.51 183 181 192
0.353114 -0.140371 -0.51 126 100 109
0.365995 -0.140096 -0.509 238 238 250
0.374721 -0.140096 -0.509 134 105 107
0.37763 -0.140096 -0.509 130 101 103
0.379569 -0.140096 -0.509 129 100 102
0.382477 -0.140096 -0.509 127 98 100
0.394067 -0.141472 -0.514 125 95 95
0.434014 -0.146702 -0.533 159 109 108
0.0802162 -0.163237 -0.589 195 139 126
0.0941286 -0.166009 -0.599 184 128 113
0.102829 -0.169057 -0.61 193 139 127
0.104331 -0.169611 -0.612 194 140 128
0.11088 -0.17072 -0.616 202 148 136
0.120026 -0.167117 -0.603 197 141 128
0.136471 -0.170443 -0.615 142 91 88
0.261994 -0.144669 -0.522 154 119 125
0.26447 -0.144391 -0.521 152 117 123
0.265462 -0.144391 -0.521 152 117 123
0.27334 -0.143837 -0.519 152 117 121
0.275317 -0.143837 -0.519 152 117 121
0.277747 -0.14356 -0.518 150 115 119
0.28564 -0.14356 -0.518 150 115 121
0.295349 -0.143006 -0.516 144 109 115
0.31549 -0.141897 -0.512 135 100 106
0.33142 -0.14162 -0.511 233 237 246
0.338543 -0.141343 -0.51 185 186 191
0.344073 -0.14162 -0.511 163 148 155
0.347967 -0.14162 -0.511 153 133 142
0.353114 -0.141343 -0.51 125 100 106
0.37666 -0.141066 -0.509 134 107 112
0.381508 -0.141066 -0.509 130 96 95
0.440089 -0.150489 -0.543 111 71 79
0.43296 -0.146331 -0.528 191 141 130
0.452289 -0.147717 -0.533 161 111 104
0.457729 -0.148826 -0.537 159 110 105
0.466804 -0.150766 -0.544 159 110 105
0.0620543 -0.163801 -0.587 202 158 147
0.0837238 -0.164638 -0.59 191 138 122
0.0873905 -0.165196 -0.592 190 134 119
0.124413 -0.167987 -0.602 180 127 113
0.12849 -0.168824 -0.605 161 110 93
0.13486 -0.171056 -0.613 138 88 79
0.146957 -0.177195 -0.635 126 79 73
0.257477 -0.147058 -0.527 158 121 128
0.271363 -0.144826 -0.519 150 115 119
0.282134 -0.144268 -0.517 149 114 120
0.289028 -0.144268 -0.517 146 111 117
0.302426 -0.143151 -0.513 135 101 102
0.314514 -0.142872 -0.512 136 101 105
0.320366 -0.142872 -0.512 182 210 211
0.32558 -0.142593 -0.511 157 176 180
0.337571 -0.142314 -0.51 230 229 234
0.3563 -0.142035 -0.509 129 106 112
0.362117 -0.142035 -0.509 233 230 237
0.381508 -0.142035 -0.509 127 96 94
0.476567 -0.166033 -0.595 91 64 69
0.445029 -0.147337 -0.528 174 121 113
0.46046 -0.150407 -0.539 158 111 105
0.463199 -0.150965 -0.541 154 109 104
0.0664133 -0.164638 -0.586 203 157 144
0.0885181 -0.166324 -0.592 184 131 115
0.107391 -0.169414 -0.603 197 143 131
0.10854 -0.169414 -0.603 198 144 132
0.110653 -0.169133 -0.602 199 142 131
0.136693 -0.173067 -0.616 134 85 81
0.255431 -0.148624 -0.529 158 121 128
0.2565 -0.1475 -0.525 156 119 126
0.258017 -0.146657 -0.522 155 120 126
0.259508 -0.146376 -0.521 155 120 126
0.263962 -0.146095 -0.52 154 119 125
0.320366 -0.143848 -0.512 213 231 233
0.333686 -0.143286 -0.51 189 194 198
0.342429 -0.143286 -0.51 166 147 153
0.355057 -0.143286 -0.51 127 102 108
0.365995 -0.143005 -0.509 236 233 242
0.383447 -0.143005 -0.509 127 98 100
0.4335 -0.1475 -0.525 200 148 135
0.456876 -0.15059 -0.536 156 111 106
0.0597162 -0.165754 -0.586 201 157 146
0.0608324 -0.165754 -0.586 202 158 147
0.0629571 -0.165471 -0.585 202 158 145
0.0674143 -0.165471 -0.585 204 158 143
0.0718714 -0.165471 -0.585 201 154 136
0.0869476 -0.166603 -0.589 189 136 120
0.106679 -0.169431 -0.599 196 142 130
0.10764 -0.169149 -0.598 197 144 130
0.124207 -0.169997 -0.601 172 120 107
0.136915 -0.174523 -0.617 130 82 80
0.265431 -0.146803 -0.519 148 116 121
0.27676 -0.14652 -0.518 150 115 119
0.314873 -0.14454 -0.511 137 101 103
0.317793 -0.14454 -0.511 86 75 79
0.32558 -0.14454 -0.511 56 81 85
0.334657 -0.144257 -0.51 182 190 193
0.346605 -0.143974 -0.509 127 104 110
0.360178 -0.143974 -0.509 225 223 234
0.364309 -0.143691 -0.508 232 229 240
0.365276 -0.143691 -0.508 234 231 242
0.37569 -0.143974 -0.509 236 235 241
0.393852 -0.145671 -0.515 122 94 91
0.440337 -0.148783 -0.526 186 136 125
0.446879 -0.149631 -0.529 168 121 113
0.450591 -0.150197 -0.531 151 106 100
0.453304 -0.150763 -0.533 153 108 102
0.0545971 -0.168294 -0.591 208 166 154
0.0695238 -0.166301 -0.584 201 155 139
0.0741 -0.166586 -0.585 197 149 129
0.0915905 -0.16801 -0.59 188 132 117
0.0939971 -0.168294 -0.591 189 133 120
0.124 -0.170857 -0.6 167 115 102
0.256011 -0.149215 -0.524 156 119 126
0.270374 -0.147791 -0.519 151 116 120
0.271827 -0.147507 -0.518 150 115 119
0.27721 -0.147222 -0.517 149 114 118
0.283554 -0.146937 -0.516 149 114 120
0.290434 -0.146937 -0.516 146 111 117
0.32266 -0.145513 -0.511 146 161 164
0.369147 -0.144659 -0.508 231 229 240
0.4325 -0.1495 -0.525 198 146 135
0.435669 -0.149215 -0.524 192 140 129
0.0596143 -0.1677 -0.585 202 158 145
0.0785571 -0.1677 -0.585 197 149 129
0.0796714 -0.1677 -0.585 198 145 129
0.13166 -0.17458 -0.609 137 92 86
0.257023 -0.14964 -0.522 155 120 124
0.271827 -0.148493 -0.518 151 116 120
0.275773 -0.148493 -0.518 151 116 120
0.27721 -0.148207 -0.517 149 114 118
0.300471 -0.14706 -0.513 135 103 108
0.302811 -0.146773 -0.512 133 101 104
0.30806 -0.146487 -0.511 133 101 102
0.3139 -0.146487 -0.511 135 101 102
0.360178 -0.145913 -0.509 233 230 241
0.383229 -0.1462 -0.51 89 61 60
0.390369 -0.14706 -0.513 121 91 93
0.445523 -0.157953 -0.551 108 67 81
0.468014 -0.15566 -0.543 146 102 99
0.479977 -0.15824 -0.552 135 100 94
0.0738467 -0.168237 -0.583 200 151 134
0.0749571 -0.168237 -0.583 199 150 133
0.0898533 -0.169103 -0.586 191 138 122
0.103952 -0.170257 -0.59 197 144 128
0.117103 -0.171411 -0.594 177 121 108
0.139433 -0.17978 -0.623 118 79 84
0.263454 -0.149769 -0.519 149 117 120
0.27721 -0.149191 -0.517 150 115 119
0.277657 -0.148903 -0.516 148 113 117
0.283986 -0.148614 -0.515 145 110 116
0.286929 -0.148614 -0.515 147 112 118
0.33691 -0.146883 -0.509 127 110 118
0.339818 -0.146883 -0.509 221 204 210
0.350483 -0.146883 -0.509 130 103 110
0.353391 -0.146883 -0.509 131 102 107
0.374952 -0.146594 -0.508 177 174 181
0.379569 -0.146883 -0.509 131 102 106
0.4325 -0.1515 -0.525 198 145 137
-0.13289 -0.188519 -0.649 194 191 184
0.0595124 -0.169638 -0.584 202 158 145
0.0839848 -0.169638 -0.584 195 142 128
0.0885857 -0.169929 -0.585 196 143 127
0.0920857 -0.170219 -0.586 194 141 127
0.104898 -0.17109 -0.589 199 146 130
0.107142 -0.17109 -0.589 196 143 129
0.260489 -0.150757 -0.519 151 119 122
0.271302 -0.150176 -0.517 149 114 118
0.276674 -0.149886 -0.516 149 114 118
0.281043 -0.149595 -0.515 147 112 118
0.294204 -0.149305 -0.514 144 109 115
0.300861 -0.148724 -0.512 145 113 118
0.303787 -0.148724 -0.512 136 104 107
0.325914 -0.148143 -0.51 102 105 114
0.333031 -0.147852 -0.509 170 163 170
0.351452 -0.147852 -0.509 121 94 101
0.352422 -0.147852 -0.509 126 97 102
0.35533 -0.147852 -0.509 127 100 105
0.361406 -0.147562 -0.508 226 210 220
0.373017 -0.147562 -0.508 230 233 242
0.388632 -0.148724 -0.512 123 94 99
0.437657 -0.156857 -0.54 123 83 94
0.0553457 -0.171628 -0.587 208 165 156
0.0771781 -0.170458 -0.583 197 148 133
0.079399 -0.170458 -0.583 198 147 130
0.0919286 -0.171043 -0.585 196 143 127
0.0963857 -0.171043 -0.585 194 141 125
0.118234 -0.173674 -0.594 173 113 105
0.12849 -0.17689 -0.605 136 94 78
0.263933 -0.151453 -0.518 150 115 119
0.268348 -0.151161 -0.517 152 117 121
0.271302 -0.151161 -0.517 150 115 119
0.280062 -0.150576 -0.515 146 111 115
0.295183 -0.150284 -0.514 143 108 114
0.303193 -0.149407 -0.511 136 104 107
0.304167 -0.149407 -0.511 137 105 108
0.30514 -0.149407 -0.511 138 106 109
0.315229 -0.149114 -0.51 135 103 104
0.353665 -0.14853 -0.508 131 100 105
0.358503 -0.14853 -0.508 119 96 106
0.360694 -0.148237 -0.507 141 118 126
0.373017 -0.14853 -0.508 226 226 234
0.382257 -0.149114 -0.51 109 80 82
-0.138857 -0.190697 -0.648 190 190 182
0.0477448 -0.177749 -0.604 198 158 150
0.06806 -0.17098 -0.581 203 155 143
0.0702733 -0.17098 -0.581 202 153 139
0.0893933 -0.171569 -0.583 200 148 134
0.0986143 -0.172157 -0.585 199 148 131
0.100843 -0.172157 -0.585 200 149 132
0.120903 -0.175394 -0.596 164 110 98
0.123793 -0.176277 -0.599 152 104 92
0.296563 -0.150969 -0.513 144 109 115
0.29696 -0.150674 -0.512 145 110 116
0.304167 -0.15038 -0.511 138 106 111
0.321057 -0.150086 -0.51 126 106 108
0.323 -0.150086 -0.51 143 127 128
0.325914 -0.150086 -0.51 180 164 165
0.346891 -0.149497 -0.508 126 101 107
0.434837 -0.153911 -0.523 195 138 129
-0.139875 -0.191635 -0.647 190 190 182
-0.135154 -0.191931 -0.648 192 192 184
0.0532 -0.17416 -0.588 207 164 155
0.0541352 -0.173568 -0.586 207 164 155
0.0690476 -0.17179 -0.58 204 156 144
0.0836971 -0.172383 -0.582 201 149 136
0.0995581 -0.172975 -0.584 202 150 136
0.120903 -0.17653 -0.596 159 107 96
0.13596 -0.183046 -0.618 117 77 75
0.255048 -0.154019 -0.52 154 117 124
0.264409 -0.15313 -0.517 151 116 120
0.275157 -0.152538 -0.515 147 112 116
0.289723 -0.151946 -0.513 145 110 114
0.293631 -0.151946 -0.513 142 107 111
0.306854 -0.150761 -0.509 136 104 109
0.309763 -0.150761 -0.509 138 102 106
0.318143 -0.151057 -0.51 132 101 106
0.336248 -0.150465 -0.508 191 168 176
0.350762 -0.150465 -0.508 125 98 103
0.36673 -0.149872 -0.506 139 120 126
0.379569 -0.150761 -0.509 91 65 66
0.432187 -0.157573 -0.532 172 122 121
0.44704 -0.156389 -0.528 145 95 96
0.451603 -0.157277 -0.531 138 89 92
0.477369 -0.162609 -0.549 138 98 96
-0.13741 -0.192868 -0.647 191 191 183
-0.13392 -0.193166 -0.648 193 193 185
0.0511333 -0.175876 -0.59 206 163 154
0.0636333 -0.173193 -0.581 202 158 145
0.0803714 -0.173491 -0.582 200 151 137
0.252561 -0.155308 -0.521 155 118 125
0.2907 -0.152923 -0.513 143 108 112
0.292654 -0.152923 -0.513 143 108 112
0.295985 -0.152625 -0.512 142 107 111
0.300273 -0.152327 -0.511 133 98 102
0.309763 -0.15173 -0.509 137 101 105
0.311702 -0.15173 -0.509 136 100 104
0.370585 -0.150836 -0.506 142 119 125
0.377855 -0.151432 -0.508 95 70 73
0.521054 -0.193464 -0.649 129 92 99
0.434203 -0.160077 -0.537 156 112 113
0.431374 -0.158289 -0.531 172 123 118
0.431571 -0.15799 -0.53 181 132 127
0.433841 -0.155904 -0.523 190 136 124
0.434837 -0.155904 -0.523 189 135 125
0.448894 -0.157692 -0.529 141 92 95
-0.145811 -0.1938 -0.646 187 187 177
0.0519914 -0.1761 -0.587 206 163 154
0.0791267 -0.1743 -0.581 198 149 135
0.0982771 -0.1749 -0.583 203 151 138
0.102895 -0.1752 -0.584 200 148 134
0.256534 -0.1557 -0.519 151 119 124
0.259 -0.1554 -0.518 149 117 122
0.282883 -0.1539 -0.513 142 107 111
0.288746 -0.1539 -0.513 144 109 113
0.303946 -0.1527 -0.509 134 102 105
0.312671 -0.1527 -0.509 132 100 103
0.320428 -0.1527 -0.509 131 99 102
0.333345 -0.1524 -0.508 135 106 111
0.335586 -0.1521 -0.507 121 104 110
0.358763 -0.1521 -0.507 127 96 101
0.377855 -0.1524 -0.508 90 64 67
0.383229 -0.153 -0.51 116 91 97
0.496627 -0.1878 -0.626 94 68 71
0.431676 -0.1572 -0.524 196 144 131
0.434006 -0.1566 -0.522 187 135 124
0.4425 -0.1575 -0.525 143 92 88
0.456189 -0.1602 -0.534 135 89 91
0.469049 -0.1629 -0.543 156 104 108
-0.1419 -0.194729 -0.645 189 189 181
-0.140671 -0.194729 -0.645 190 190 182
-0.13289 -0.195936 -0.649 193 193 185
0.0592067 -0.175407 -0.581 207 163 150
0.107529 -0.176614 -0.585 190 139 122
0.138025 -0.187785 -0.622 118 72 75
0.143103 -0.191408 -0.634 160 111 115
0.249069 -0.157594 -0.522 152 119 126
0.250603 -0.156689 -0.519 152 119 126
0.270252 -0.155481 -0.515 146 111 115
0.281476 -0.155179 -0.514 143 108 112
0.289723 -0.154877 -0.513 144 110 111
0.3026 -0.153971 -0.51 134 102 105
0.309154 -0.153368 -0.508 134 102 105
0.328507 -0.153368 -0.508 130 98 101
0.335586 -0.153066 -0.507 212 195 201
0.336851 -0.152764 -0.506 190 171 177
0.364802 -0.152764 -0.506 123 93 95
0.373476 -0.152764 -0.506 124 95 99
0.381508 -0.15367 -0.509 122 93 98
0.431777 -0.161217 -0.534 157 112 107
0.430318 -0.158802 -0.526 198 146 135
0.430678 -0.158198 -0.524 197 143 131
0.431849 -0.157896 -0.523 194 140 130
0.433841 -0.157896 -0.523 187 135 124
0.444345 -0.158802 -0.526 127 77 76
0.44704 -0.159406 -0.528 123 73 72
0.458918 -0.161821 -0.536 132 88 87
-0.150733 -0.196261 -0.646 184 184 174
-0.149503 -0.196261 -0.646 185 185 175
0.05096 -0.17864 -0.588 204 161 152
0.0569933 -0.176513 -0.581 207 163 150
0.112751 -0.178944 -0.589 174 123 106
0.114067 -0.179248 -0.59 168 117 100
0.116709 -0.179855 -0.592 162 111 92
0.24855 -0.158892 -0.523 151 118 125
0.255053 -0.157373 -0.518 151 116 122
0.265863 -0.156766 -0.516 150 115 119
0.271233 -0.156462 -0.515 145 110 114
0.29346 -0.155247 -0.511 141 109 112
0.303946 -0.154639 -0.509 134 102 105
0.308187 -0.154335 -0.508 133 101 104
0.327539 -0.154335 -0.508 135 100 104
0.328826 -0.154031 -0.507 135 100 106
0.331723 -0.154031 -0.507 135 105 113
0.352272 -0.153728 -0.506 127 97 97
0.359019 -0.153728 -0.506 126 96 96
0.377855 -0.154335 -0.508 118 88 90
0.495433 -0.189273 -0.623 62 33 37
0.4644 -0.164057 -0.54 148 107 101
0.46629 -0.164361 -0.541 151 110 104
0.471814 -0.165576 -0.545 148 110 99
0.0519029 -0.179149 -0.586 204 161 152
0.0778857 -0.177314 -0.58 201 154 138
0.0823048 -0.177314 -0.58 200 155 136
0.085619 -0.177314 -0.58 198 153 134
0.106414 -0.178843 -0.585 186 137 120
0.114067 -0.180371 -0.59 168 117 100
0.248074 -0.159583 -0.522 149 118 124
0.25308 -0.15836 -0.518 151 116 123
0.25604 -0.15836 -0.518 150 115 121
0.257515 -0.158054 -0.517 150 115 121
0.2585 -0.158054 -0.517 150 115 121
0.270252 -0.157443 -0.515 145 110 114
0.289158 -0.156526 -0.512 143 109 110
0.29054 -0.15622 -0.511 143 109 110
0.295407 -0.15622 -0.511 148 114 115
0.371549 -0.154691 -0.506 123 91 94
0.487926 -0.188931 -0.618 74 52 55
0.430363 -0.162334 -0.531 170 125 120
0.430318 -0.160806 -0.526 197 144 136
0.43683 -0.159889 -0.523 165 111 99
0.438663 -0.160194 -0.524 158 104 92
