ply
format ascii 1.0
comment Created by Open3D
element vertex 1327
property double x
property double y
property double z
property uchar red
property uchar green
property uchar blue
end_header
0.412846 -0.20064 -0.528 142 95 89
0.426107 -0.20216 -0.532 135 86 82
0.435436 -0.20368 -0.536 131 83 81
0.44198 -0.20482 -0.539 145 97 95
0.446505 -0.20596 -0.542 140 92 90
0.464832 -0.21052 -0.554 130 87 80
0.14431 -0.18255 -0.478 181 133 121
0.144917 -0.182169 -0.477 179 131 119
0.14552 -0.181787 -0.476 183 135 123
0.157783 -0.180259 -0.472 182 129 121
0.173012 -0.17835 -0.467 164 114 107
0.18358 -0.179113 -0.469 138 94 85
0.192353 -0.180641 -0.473 131 88 81
0.1972 -0.181787 -0.476 129 86 80
0.277937 -0.213103 -0.558 70 43 50
0.29281 -0.210048 -0.55 84 59 65
0.308966 -0.205465 -0.538 109 80 84
0.315653 -0.203173 -0.532 111 85 88
0.318094 -0.202791 -0.531 112 86 89
0.3664 -0.213867 -0.56 47 43 58
0.384783 -0.220741 -0.578 94 96 111
0.39156 -0.20852 -0.546 146 108 105
0.390343 -0.206229 -0.54 164 115 110
0.390947 -0.205465 -0.538 164 114 113
0.399267 -0.20241 -0.53 127 79 75
0.400276 -0.20241 -0.53 132 84 80
0.41262 -0.202028 -0.529 144 95 91
0.426107 -0.203173 -0.532 135 86 82
0.432586 -0.204319 -0.535 134 85 81
0.445681 -0.20661 -0.541 140 92 90
0.464832 -0.211575 -0.554 130 85 79
-0.279566 -0.248709 -0.648 251 252 247
-0.173843 -0.247557 -0.645 184 184 176
-0.158607 -0.24679 -0.643 187 187 177
-0.154903 -0.248709 -0.648 191 188 179
-0.0541629 -0.245254 -0.639 68 66 79
0.14852 -0.181926 -0.474 184 132 121
0.167675 -0.179239 -0.467 178 125 119
0.175681 -0.179239 -0.467 157 108 101
0.21298 -0.18538 -0.483 115 75 73
0.217527 -0.186915 -0.487 111 73 70
0.227673 -0.190753 -0.497 90 65 68
0.240396 -0.19651 -0.512 87 61 62
0.254424 -0.203035 -0.529 68 52 65
0.275317 -0.213782 -0.557 71 49 61
0.283759 -0.21455 -0.559 70 49 58
0.288071 -0.213014 -0.555 75 52 62
0.288608 -0.21263 -0.554 76 53 61
0.28914 -0.212247 -0.553 78 55 63
0.289669 -0.211863 -0.552 82 56 65
0.297414 -0.209176 -0.545 94 67 72
0.29949 -0.209176 -0.545 95 68 73
0.301971 -0.208025 -0.542 100 74 77
0.309414 -0.206106 -0.537 108 82 85
0.329126 -0.201884 -0.526 125 101 114
0.333767 -0.202268 -0.527 121 100 107
0.392843 -0.205338 -0.535 152 104 92
0.396986 -0.203803 -0.531 135 87 83
0.414635 -0.203035 -0.529 144 95 91
0.43076 -0.204954 -0.534 133 84 80
0.450225 -0.208792 -0.544 137 89 89
0.454791 -0.209944 -0.547 138 93 98
-0.164149 -0.245314 -0.636 189 186 177
-0.158853 -0.2484 -0.644 187 187 177
-0.157871 -0.248786 -0.645 188 188 178
0.151229 -0.182829 -0.474 186 134 123
0.164469 -0.180514 -0.468 176 123 117
0.168565 -0.180129 -0.467 170 117 109
0.182297 -0.180514 -0.468 136 92 83
0.19276 -0.182829 -0.474 131 88 81
0.201249 -0.183986 -0.477 121 80 74
0.202581 -0.184371 -0.478 120 79 73
0.283645 -0.217157 -0.563 68 46 58
0.28644 -0.215229 -0.558 74 52 64
0.315653 -0.2052 -0.532 112 86 89
0.320927 -0.204043 -0.529 115 88 93
0.3344 -0.203657 -0.528 117 96 103
0.335406 -0.203657 -0.528 97 76 83
0.387219 -0.223714 -0.58 83 89 103
0.391443 -0.224871 -0.583 65 66 84
0.440094 -0.241843 -0.627 79 75 90
0.390756 -0.209057 -0.542 165 116 111
0.402295 -0.204429 -0.53 138 89 85
0.425093 -0.2052 -0.532 137 87 86
-0.31217 -0.24575 -0.634 131 133 128
0.142266 -0.191096 -0.493 188 139 135
0.147024 -0.184119 -0.475 181 131 122
0.154513 -0.183344 -0.473 176 123 115
0.158346 -0.182569 -0.471 181 128 120
0.20076 -0.185282 -0.478 124 81 75
0.205257 -0.186057 -0.48 117 76 72
0.287503 -0.216291 -0.558 74 54 66
0.307487 -0.208927 -0.539 105 81 81
0.388993 -0.225207 -0.581 61 62 80
0.422571 -0.237223 -0.612 99 97 111
0.393381 -0.21319 -0.55 123 102 107
0.395707 -0.206213 -0.532 141 92 88
0.425093 -0.206213 -0.532 138 90 88
0.444857 -0.209314 -0.54 136 88 86
0.449397 -0.210477 -0.543 134 88 88
-0.324876 -0.249295 -0.64 251 253 248
-0.319415 -0.246958 -0.634 254 255 251
-0.278331 -0.252411 -0.648 252 253 248
-0.168574 -0.248906 -0.639 189 186 177
-0.0494486 -0.249685 -0.641 71 71 81
-0.0439524 -0.25319 -0.65 75 72 83
0.142473 -0.193593 -0.497 190 142 130
0.155414 -0.184245 -0.473 175 125 114
0.179623 -0.182297 -0.468 143 100 91
0.180514 -0.182297 -0.468 141 98 89
0.204343 -0.186971 -0.48 121 77 74
0.215671 -0.189698 -0.487 111 71 71
0.217489 -0.190477 -0.489 110 70 70
0.251876 -0.206448 -0.53 213 201 211
0.283226 -0.223197 -0.573 56 49 65
0.28709 -0.222808 -0.572 70 52 66
0.295414 -0.213849 -0.549 89 62 69
0.30046 -0.211511 -0.543 99 72 77
0.304506 -0.210732 -0.541 104 75 79
0.335033 -0.206058 -0.529 105 90 97
0.374456 -0.221639 -0.569 67 74 84
0.385449 -0.225534 -0.579 62 61 75
0.411542 -0.234104 -0.601 60 58 72
0.41934 -0.23722 -0.609 83 79 94
0.391066 -0.210732 -0.541 161 118 111
0.41665 -0.206058 -0.529 139 89 88
0.438294 -0.209174 -0.537 134 86 84
-0.327114 -0.251297 -0.642 250 253 246
-0.309033 -0.248557 -0.635 123 125 124
-0.280367 -0.253254 -0.647 255 255 251
-0.277525 -0.254037 -0.649 252 253 248
-0.156378 -0.254037 -0.649 191 189 177
-0.0599657 -0.248949 -0.636 70 68 81
-0.0516476 -0.249731 -0.638 71 71 81
0.142171 -0.187886 -0.48 174 124 117
0.144009 -0.186711 -0.477 179 129 122
0.15181 -0.185146 -0.473 179 126 118
0.158346 -0.184363 -0.471 178 128 117
0.168565 -0.182797 -0.467 170 117 109
0.195387 -0.18632 -0.476 128 85 78
0.203005 -0.187494 -0.479 121 77 74
0.207517 -0.188277 -0.481 116 77 72
0.226689 -0.195323 -0.499 90 65 68
0.235571 -0.199629 -0.51 86 60 63
0.245561 -0.204717 -0.523 81 58 66
0.247971 -0.205891 -0.526 82 59 67
0.286686 -0.227029 -0.58 43 43 71
0.290101 -0.226246 -0.578 68 52 63
0.28941 -0.222331 -0.568 67 46 61
0.290709 -0.217634 -0.556 78 58 69
0.30046 -0.212546 -0.543 99 72 77
0.304971 -0.211371 -0.54 104 78 81
0.308057 -0.211371 -0.54 106 80 83
0.308513 -0.21098 -0.539 107 81 84
0.323337 -0.206674 -0.528 136 114 117
0.324732 -0.206283 -0.527 131 111 120
0.340234 -0.209023 -0.534 31 29 42
0.391673 -0.21098 -0.539 161 117 114
0.393862 -0.209414 -0.535 157 108 103
0.39672 -0.20824 -0.532 139 91 87
0.401031 -0.207849 -0.531 148 99 94
0.435436 -0.209806 -0.536 128 80 78
0.460429 -0.215286 -0.55 125 77 75
-0.32214 -0.250553 -0.637 250 252 247
-0.173843 -0.2537 -0.645 186 186 178
-0.167095 -0.250947 -0.638 189 186 177
-0.16588 -0.250947 -0.638 190 187 178
-0.16345 -0.250947 -0.638 191 188 179
-0.0585695 -0.249373 -0.634 66 64 77
0.172123 -0.183687 -0.467 163 108 103
0.194071 -0.186833 -0.475 132 89 83
0.205685 -0.189193 -0.481 119 78 76
0.291957 -0.22538 -0.573 72 50 63
0.292829 -0.217907 -0.554 83 62 71
0.293353 -0.217513 -0.553 87 64 74
0.300529 -0.214367 -0.545 98 71 76
0.308966 -0.211613 -0.538 109 80 84
0.318505 -0.208467 -0.53 116 89 94
0.325736 -0.207287 -0.527 126 106 118
0.340871 -0.210433 -0.535 32 30 41
0.3939 -0.2301 -0.585 85 84 98
0.440094 -0.24662 -0.627 59 52 68
0.399823 -0.221053 -0.562 91 79 89
0.392556 -0.210827 -0.536 155 107 103
0.399009 -0.20886 -0.531 144 95 90
0.420467 -0.208467 -0.53 141 94 88
0.43076 -0.21004 -0.534 126 78 76
0.44116 -0.211613 -0.538 137 92 89
0.446711 -0.212793 -0.541 133 88 85
0.45396 -0.21476 -0.546 137 93 92
-0.313377 -0.250581 -0.634 134 139 132
-0.16588 -0.252162 -0.638 190 187 180
-0.157614 -0.25651 -0.649 191 191 179
0.140928 -0.190505 -0.482 186 138 128
0.147929 -0.187738 -0.475 183 131 120
0.164469 -0.184971 -0.468 168 118 109
0.173012 -0.184576 -0.467 161 108 102
0.183076 -0.185762 -0.47 137 92 86
0.206112 -0.190505 -0.482 117 76 74
0.215626 -0.193271 -0.489 106 71 69
0.217 -0.193667 -0.49 103 69 67
0.2508 -0.210267 -0.532 183 167 177
0.292254 -0.221729 -0.561 79 59 71
0.295441 -0.217776 -0.551 87 64 74
0.308513 -0.213033 -0.539 108 82 85
0.317083 -0.209871 -0.531 111 84 89
0.322331 -0.208686 -0.528 142 123 129
0.372943 -0.225286 -0.57 79 83 94
0.381919 -0.228052 -0.577 81 83 96
0.441071 -0.247024 -0.625 65 58 76
0.395707 -0.210267 -0.532 139 90 86
0.404066 -0.209871 -0.531 132 83 76
0.410371 -0.209476 -0.53 134 84 77
0.415643 -0.209081 -0.529 141 92 85
0.446711 -0.213824 -0.541 130 85 82
0.45396 -0.2158 -0.546 134 93 91
-0.329871 -0.256157 -0.645 249 254 248
-0.279933 -0.256554 -0.646 255 255 251
-0.05512 -0.252583 -0.636 68 68 80
0.141327 -0.195791 -0.493 183 138 133
0.140823 -0.193806 -0.488 188 140 130
0.160695 -0.186657 -0.47 184 131 123
0.17784 -0.185863 -0.468 151 104 96
0.178731 -0.185863 -0.468 146 99 91
0.186552 -0.187451 -0.472 136 93 87
0.211526 -0.193011 -0.486 111 73 72
0.22294 -0.19738 -0.497 100 66 65
0.23644 -0.204131 -0.514 89 60 64
0.249787 -0.21128 -0.532 136 124 134
0.29546 -0.21962 -0.553 87 64 74
0.298506 -0.217237 -0.547 94 69 75
0.322331 -0.209691 -0.528 168 151 159
0.323337 -0.209691 -0.528 168 151 159
0.434423 -0.247817 -0.624 71 64 80
0.391371 -0.214457 -0.54 164 117 111
0.391971 -0.213663 -0.538 163 112 108
0.428938 -0.211677 -0.533 127 79 77
0.436457 -0.212869 -0.536 132 84 82
0.460429 -0.218429 -0.55 124 80 77
-0.277097 -0.258583 -0.648 253 254 248
-0.161524 -0.25539 -0.64 191 189 177
-0.0712029 -0.254991 -0.639 57 55 66
-0.04968 -0.256987 -0.644 71 70 84
0.14431 -0.189548 -0.475 186 134 123
0.147929 -0.189548 -0.475 186 134 123
0.169817 -0.186754 -0.468 165 112 104
0.175166 -0.186754 -0.468 157 107 100
0.178731 -0.186754 -0.468 147 100 92
0.243036 -0.209101 -0.524 86 64 67
0.295901 -0.226659 -0.568 79 59 71
0.295471 -0.223068 -0.559 83 63 74
0.295475 -0.22227 -0.557 85 63 75
0.304506 -0.215885 -0.541 103 76 81
0.311901 -0.21389 -0.536 108 82 85
0.316667 -0.212293 -0.532 108 83 87
0.319106 -0.211894 -0.531 112 86 89
0.320524 -0.211495 -0.53 115 90 94
0.325349 -0.210697 -0.528 202 185 195
0.334277 -0.211894 -0.531 98 81 89
0.341758 -0.214688 -0.538 40 30 38
0.351883 -0.219077 -0.549 34 28 38
0.440796 -0.250602 -0.628 69 65 80
0.395435 -0.212692 -0.533 143 94 90
0.398481 -0.212692 -0.533 146 97 93
0.40584 -0.212293 -0.532 129 78 74
0.414635 -0.211096 -0.529 146 97 92
0.415643 -0.211096 -0.529 148 99 94
0.429953 -0.212692 -0.533 128 80 78
-0.318208 -0.254204 -0.634 250 252 247
-0.279933 -0.259015 -0.646 255 255 253
-0.170589 -0.257411 -0.642 188 188 178
-0.169102 -0.25701 -0.641 187 187 177
-0.163706 -0.256209 -0.639 190 188 175
-0.0708686 -0.255006 -0.636 65 65 73
0.151229 -0.190051 -0.474 185 133 122
0.155985 -0.18925 -0.472 186 132 122
0.161247 -0.188047 -0.469 184 130 120
0.172491 -0.187646 -0.468 160 105 100
0.182181 -0.188448 -0.47 137 92 87
0.188246 -0.190051 -0.474 133 89 86
0.192667 -0.190853 -0.476 127 83 80
0.208319 -0.194462 -0.485 108 72 72
0.241576 -0.209698 -0.523 85 66 72
0.247294 -0.212906 -0.531 90 83 90
0.298008 -0.219722 -0.548 93 70 80
0.305536 -0.216915 -0.541 104 77 82
0.309414 -0.215311 -0.537 106 81 85
0.312338 -0.21451 -0.535 109 83 86
0.319106 -0.212906 -0.531 117 92 96
0.319514 -0.212505 -0.53 104 79 83
0.325349 -0.211703 -0.528 164 147 155
0.363427 -0.225335 -0.562 78 76 87
0.400416 -0.237765 -0.593 96 94 108
0.410371 -0.212505 -0.53 128 77 73
0.450431 -0.217717 -0.543 128 82 82
-0.279134 -0.260649 -0.647 252 253 247
-0.160555 -0.258231 -0.641 192 190 178
-0.0778933 -0.25944 -0.644 69 67 80
-0.0731762 -0.255814 -0.635 68 68 80
0.140963 -0.192969 -0.479 186 134 123
0.168034 -0.188537 -0.468 168 115 107
0.211033 -0.196191 -0.487 107 71 71
0.237293 -0.20868 -0.518 89 63 64
0.302529 -0.218751 -0.543 102 77 83
0.325965 -0.213111 -0.529 115 100 107
0.330619 -0.213514 -0.53 121 98 104
0.341367 -0.21714 -0.539 36 29 37
0.344299 -0.218349 -0.542 35 28 36
0.370771 -0.229629 -0.57 82 82 94
0.37556 -0.23124 -0.574 94 96 108
0.395471 -0.237283 -0.589 101 97 114
0.41702 -0.24534 -0.609 67 60 76
0.391789 -0.218349 -0.542 160 116 107
0.404827 -0.21432 -0.532 125 72 68
0.408111 -0.213917 -0.531 137 88 83
0.410371 -0.213514 -0.53 132 81 77
0.41239 -0.213514 -0.53 141 90 86
0.4134 -0.213514 -0.53 138 89 84
0.428938 -0.214723 -0.533 131 83 81
-0.307097 -0.257429 -0.636 146 151 145
-0.0755952 -0.257024 -0.635 69 67 81
-0.0473733 -0.261476 -0.646 71 70 84
-0.0462143 -0.261881 -0.647 70 69 83
0.14431 -0.192262 -0.475 190 137 129
0.152711 -0.191452 -0.473 187 134 128
0.16214 -0.189833 -0.469 187 133 123
0.16536 -0.189429 -0.468 171 117 107
0.170709 -0.189429 -0.468 164 111 105
0.179113 -0.189833 -0.469 140 93 87
0.196618 -0.193881 -0.479 117 77 75
0.224227 -0.20319 -0.502 89 65 65
0.233503 -0.208048 -0.514 78 55 61
0.29859 -0.223024 -0.551 90 63 70
0.30108 -0.221 -0.546 101 74 81
0.308513 -0.218167 -0.539 108 81 86
0.318693 -0.215333 -0.532 113 86 93
0.33288 -0.215333 -0.532 119 104 111
0.379721 -0.233548 -0.577 92 90 104
0.401767 -0.240833 -0.595 85 82 99
0.394096 -0.223024 -0.551 155 115 115
0.397466 -0.215738 -0.533 133 84 80
0.401787 -0.215333 -0.532 119 70 66
0.40584 -0.215333 -0.532 131 80 77
0.411381 -0.214524 -0.53 140 86 84
0.420467 -0.214524 -0.53 139 90 86
0.429953 -0.215738 -0.533 129 81 79
0.445886 -0.218571 -0.54 121 76 73
-0.312662 -0.258233 -0.635 245 250 243
-0.30952 -0.25864 -0.636 242 245 238
-0.307097 -0.25864 -0.636 202 207 200
-0.0639962 -0.255387 -0.628 66 66 76
-0.0462143 -0.263113 -0.647 69 68 82
0.139607 -0.198047 -0.487 188 138 127
0.14001 -0.196013 -0.482 188 135 127
0.145214 -0.193167 -0.475 189 137 126
0.1598 -0.191133 -0.47 184 130 120
0.160353 -0.190727 -0.469 188 134 124
0.179113 -0.190727 -0.469 140 92 88
0.204202 -0.196827 -0.484 113 74 75
0.205548 -0.197233 -0.485 113 74 75
0.206897 -0.19764 -0.486 110 74 74
0.20825 -0.198047 -0.487 108 72 72
0.21689 -0.200893 -0.494 95 69 70
0.234866 -0.210247 -0.517 82 61 66
0.300267 -0.227733 -0.56 83 63 75
0.2997 -0.2257 -0.555 86 64 76
0.299639 -0.224073 -0.551 95 69 82
0.300095 -0.222853 -0.548 97 72 78
0.322942 -0.215127 -0.529 167 145 157
0.3286 -0.215533 -0.53 115 92 100
0.377966 -0.23424 -0.576 84 82 95
0.41839 -0.248473 -0.611 57 53 70
0.4375 -0.254167 -0.625 64 57 73
0.393289 -0.21838 -0.537 149 100 96
0.406853 -0.216347 -0.532 143 92 88
0.40888 -0.216347 -0.532 142 89 83
0.410371 -0.215533 -0.53 147 94 88
0.431777 -0.21716 -0.534 129 81 79
0.432794 -0.21716 -0.534 130 82 80
0.447742 -0.220007 -0.541 125 80 77
0.458754 -0.222853 -0.548 122 77 74
-0.324163 -0.261894 -0.641 251 254 247
-0.32143 -0.260669 -0.638 254 255 250
-0.289976 -0.261894 -0.641 254 254 252
-0.163962 -0.261486 -0.64 190 190 180
-0.0673695 -0.255766 -0.626 66 66 76
0.153288 -0.192846 -0.472 188 136 123
0.167675 -0.190803 -0.467 167 112 105
0.176057 -0.191211 -0.468 148 100 96
0.196618 -0.195706 -0.479 116 76 74
0.217768 -0.202651 -0.496 93 68 71
0.308966 -0.219811 -0.538 109 82 89
0.31684 -0.218177 -0.534 103 76 85
0.320117 -0.216951 -0.531 109 88 95
0.336404 -0.218994 -0.536 53 38 43
0.381037 -0.236563 -0.579 78 77 91
0.393711 -0.224306 -0.549 164 116 116
0.392821 -0.221446 -0.542 154 107 101
0.428938 -0.217769 -0.533 130 82 80
0.44034 -0.219403 -0.537 131 83 81
0.461476 -0.224714 -0.55 120 79 75
0.464206 -0.225531 -0.552 123 82 78
-0.327414 -0.264757 -0.645 251 253 248
-0.315577 -0.261063 -0.636 253 255 249
-0.283625 -0.265168 -0.646 178 178 176
-0.1664 -0.262705 -0.64 190 190 180
-0.163706 -0.262294 -0.639 192 192 182
-0.161524 -0.262705 -0.64 193 190 181
-0.0847238 -0.262705 -0.64 71 70 78
-0.0829829 -0.261063 -0.636 70 69 77
-0.0439524 -0.26681 -0.65 70 70 80
0.15181 -0.194155 -0.473 183 132 115
0.16536 -0.192103 -0.468 177 123 113
0.174274 -0.192103 -0.468 153 104 99
0.204624 -0.199081 -0.485 109 75 73
0.210037 -0.200723 -0.489 102 71 69
0.222314 -0.206059 -0.502 88 65 71
0.233881 -0.212216 -0.517 82 55 70
0.236683 -0.213858 -0.521 86 71 78
0.337659 -0.220836 -0.538 47 32 37
0.39256 -0.24136 -0.588 102 101 117
0.395689 -0.242591 -0.591 116 115 131
0.434913 -0.255727 -0.623 59 55 70
0.39645 -0.218784 -0.533 142 91 88
0.403813 -0.218373 -0.532 133 80 76
0.424294 -0.217963 -0.531 131 80 77
0.434624 -0.219605 -0.535 125 79 79
0.461476 -0.225762 -0.55 121 80 76
-0.313647 -0.262687 -0.637 252 253 247
-0.288431 -0.265161 -0.643 250 252 249
-0.2852 -0.265573 -0.644 227 229 226
-0.1664 -0.263924 -0.64 192 192 182
-0.162489 -0.263511 -0.639 193 191 179
-0.0871619 -0.263924 -0.64 73 72 80
-0.0485286 -0.265986 -0.645 72 72 82
0.139138 -0.19753 -0.479 186 134 121
0.1428 -0.196293 -0.476 184 132 118
0.153288 -0.194644 -0.472 186 137 122
0.160011 -0.192994 -0.468 188 136 122
0.197029 -0.197943 -0.48 114 80 71
0.199686 -0.198768 -0.482 113 79 70
0.206395 -0.20083 -0.487 108 74 72
0.207749 -0.201242 -0.488 104 73 71
0.315823 -0.220211 -0.534 112 82 90
0.321129 -0.218974 -0.531 200 183 191
0.325571 -0.218562 -0.53 111 91 100
0.32759 -0.218562 -0.53 117 98 104
0.32984 -0.219387 -0.532 122 103 109
0.376424 -0.237944 -0.577 83 81 95
0.393711 -0.226397 -0.549 162 113 109
0.398481 -0.219799 -0.533 135 84 80
0.41262 -0.21815 -0.529 152 99 95
0.419457 -0.218562 -0.53 141 90 86
0.428938 -0.219799 -0.533 123 77 77
0.432794 -0.220211 -0.534 128 82 82
-0.300026 -0.264729 -0.639 252 253 248
-0.289206 -0.265971 -0.642 251 253 248
-0.153669 -0.268457 -0.648 198 196 184
-0.0862086 -0.262243 -0.633 68 68 78
-0.0848686 -0.261829 -0.632 68 68 78
-0.07654 -0.2581 -0.623 59 62 67
-0.0473733 -0.267629 -0.646 71 71 81
-0.0427143 -0.269286 -0.65 71 71 81
0.152963 -0.195129 -0.471 185 136 119
0.15386 -0.195129 -0.471 188 139 122
0.160903 -0.193886 -0.468 183 134 119
0.177327 -0.1943 -0.469 140 97 88
0.180774 -0.195129 -0.471 129 89 79
0.215878 -0.205486 -0.496 91 66 70
0.221799 -0.208386 -0.503 87 64 70
0.304436 -0.229514 -0.554 98 72 81
0.308628 -0.224129 -0.541 107 80 87
0.33726 -0.2233 -0.539 48 33 38
0.39144 -0.2436 -0.588 82 78 93
0.3995 -0.2465 -0.595 62 59 76
0.393711 -0.227443 -0.549 162 111 107
0.393577 -0.222057 -0.536 146 98 96
0.397466 -0.220814 -0.533 138 88 81
0.399496 -0.220814 -0.533 139 89 82
0.414635 -0.219157 -0.529 148 94 92
0.417658 -0.219157 -0.529 143 92 88
0.420467 -0.219571 -0.53 137 87 80
0.446914 -0.223714 -0.54 127 83 80
0.458754 -0.227029 -0.548 117 77 75
-0.312924 -0.26553 -0.638 252 253 247
-0.30246 -0.265946 -0.639 251 252 247
-0.292418 -0.266778 -0.641 251 253 248
-0.290881 -0.26761 -0.643 251 253 248
-0.150429 -0.270524 -0.65 194 192 179
-0.0815476 -0.260119 -0.625 69 72 79
0.140987 -0.198107 -0.476 186 135 118
0.146714 -0.197274 -0.474 185 134 117
0.158567 -0.195193 -0.469 185 136 121
0.201852 -0.201852 -0.485 111 77 68
0.211326 -0.204766 -0.492 99 69 67
0.218571 -0.208095 -0.5 90 67 73
0.308874 -0.235564 -0.566 97 72 78
0.308166 -0.225575 -0.542 104 79 85
0.387876 -0.243888 -0.586 91 87 102
0.397028 -0.246801 -0.593 72 68 85
0.431846 -0.25887 -0.622 62 53 70
0.394429 -0.228905 -0.55 163 110 106
0.393546 -0.225991 -0.543 160 111 106
0.393577 -0.223078 -0.536 142 94 94
0.437478 -0.223078 -0.536 125 80 75
0.44506 -0.224327 -0.539 131 88 82
0.458754 -0.228072 -0.548 119 80 75
-0.287316 -0.27009 -0.646 252 254 251
-0.157127 -0.266327 -0.637 195 195 187
-0.155671 -0.267999 -0.641 197 194 185
-0.148961 -0.271344 -0.649 194 192 180
-0.100129 -0.269671 -0.645 142 140 141
-0.0970657 -0.267999 -0.641 75 74 79
-0.0926743 -0.265909 -0.636 77 80 87
-0.0598714 -0.26549 -0.635 65 68 75
-0.0542476 -0.267581 -0.64 67 70 79
0.139466 -0.199431 -0.477 187 136 117
0.1425 -0.198595 -0.475 182 131 114
0.193371 -0.200686 -0.48 118 81 73
0.196523 -0.201104 -0.481 115 78 70
0.206311 -0.204449 -0.489 106 75 70
0.3077 -0.227026 -0.543 104 78 87
0.348549 -0.230789 -0.552 37 31 35
0.366429 -0.238314 -0.57 77 75 88
0.416062 -0.255456 -0.611 60 56 73
0.422498 -0.257965 -0.617 76 69 85
0.394473 -0.231207 -0.553 153 100 96
0.394038 -0.229116 -0.548 164 111 107
0.394598 -0.224099 -0.536 146 93 89
0.39516 -0.223263 -0.534 144 91 87
0.397466 -0.222845 -0.533 141 88 84
0.428133 -0.222427 -0.532 126 81 75
0.457917 -0.228698 -0.547 124 85 78
-0.294097 -0.26964 -0.642 252 254 249
-0.164474 -0.26964 -0.642 238 240 237
-0.155429 -0.2688 -0.64 197 197 187
-0.147497 -0.27216 -0.648 197 195 183
-0.102268 -0.27006 -0.643 130 130 132
-0.100729 -0.26922 -0.641 90 90 92
-0.0565086 -0.26796 -0.638 66 69 76
-0.0450514 -0.27216 -0.648 73 71 82
0.137186 -0.2037 -0.485 183 145 134
0.138557 -0.20034 -0.477 185 134 117
0.157337 -0.19656 -0.468 186 137 122
0.164117 -0.19614 -0.467 169 120 105
0.165007 -0.19614 -0.467 168 119 104
0.169454 -0.19614 -0.467 159 109 98
0.189834 -0.20076 -0.478 120 81 74
0.3077 -0.22806 -0.543 104 78 87
0.314964 -0.22512 -0.536 109 83 92
0.317262 -0.22386 -0.533 113 86 95
0.361062 -0.2373 -0.565 94 94 102
0.366429 -0.2394 -0.57 77 75 88
0.429276 -0.2604 -0.62 58 51 69
0.395914 -0.23436 -0.558 133 98 94
0.393727 -0.22638 -0.539 149 98 95
0.415419 -0.2226 -0.53 142 92 85
0.418448 -0.2226 -0.53 132 82 75
0.419457 -0.2226 -0.53 132 83 76
0.42712 -0.22344 -0.532 130 81 76
0.476049 -0.23562 -0.561 132 88 87
0.495979 -0.24276 -0.578 131 93 92
-0.31244 -0.270863 -0.642 251 252 246
-0.30829 -0.270441 -0.641 252 253 247
-0.303407 -0.270441 -0.641 252 253 248
-0.298989 -0.270863 -0.642 253 254 249
-0.161019 -0.269175 -0.638 240 243 236
-0.0940505 -0.265378 -0.629 74 77 82
-0.0847105 -0.262425 -0.622 69 72 79
-0.068781 -0.264956 -0.628 70 70 80
-0.0565086 -0.269175 -0.638 69 69 79
-0.04968 -0.271707 -0.644 72 72 82
-0.0439524 -0.274238 -0.65 72 70 81
0.153533 -0.198295 -0.47 183 134 117
0.182443 -0.199561 -0.473 126 87 80
0.19734 -0.20378 -0.483 112 77 71
0.32072 -0.224453 -0.532 116 95 102
0.349811 -0.233735 -0.554 36 34 39
0.367714 -0.24133 -0.572 57 56 64
0.423183 -0.260737 -0.618 60 51 70
0.425733 -0.261581 -0.62 58 49 68
0.427603 -0.262003 -0.621 59 52 70
0.42768 -0.259893 -0.616 56 49 67
0.393727 -0.227407 -0.539 147 96 93
0.409123 -0.224031 -0.531 139 86 78
0.41441 -0.22361 -0.53 143 93 84
0.433811 -0.225297 -0.534 122 77 71
0.447943 -0.227829 -0.54 129 86 80
0.4525 -0.229094 -0.543 127 84 78
0.465257 -0.232891 -0.552 125 84 80
0.489741 -0.24133 -0.572 131 93 92
-0.29716 -0.273781 -0.646 253 254 249
-0.150317 -0.270814 -0.639 202 202 192
-0.0678 -0.267 -0.63 71 69 80
-0.0576333 -0.269967 -0.637 70 70 80
-0.0474467 -0.274205 -0.647 73 71 82
-0.0462857 -0.274629 -0.648 73 71 82
-0.0439524 -0.275476 -0.65 72 70 81
0.1541 -0.198767 -0.469 183 134 117
0.165541 -0.197495 -0.466 168 116 103
0.172491 -0.198343 -0.468 140 93 83
0.173383 -0.198343 -0.468 140 96 87
0.20622 -0.20809 -0.491 104 69 75
0.209362 -0.209362 -0.494 100 69 74
0.310339 -0.230552 -0.544 107 77 87
0.31262 -0.228433 -0.539 106 81 87
0.317857 -0.226314 -0.534 126 103 111
0.338105 -0.229705 -0.542 44 27 35
0.347497 -0.233943 -0.552 36 34 39
0.379033 -0.246233 -0.581 92 88 102
0.381449 -0.247081 -0.583 96 92 106
0.38742 -0.248776 -0.587 94 90 104
0.407844 -0.255981 -0.604 58 60 75
0.417424 -0.259795 -0.613 100 91 110
0.428584 -0.262338 -0.619 57 49 70
0.397652 -0.239452 -0.565 103 92 100
0.394457 -0.228857 -0.54 146 95 92
0.401527 -0.22589 -0.533 138 85 79
0.40584 -0.225467 -0.532 140 87 81
0.441363 -0.227586 -0.537 130 87 81
0.459798 -0.232248 -0.548 122 81 77
0.471593 -0.236062 -0.557 130 85 82
0.487797 -0.241995 -0.571 129 91 88
-0.296068 -0.276289 -0.649 253 254 249
-0.151795 -0.270329 -0.635 205 206 198
-0.148633 -0.27118 -0.637 197 197 189
-0.133507 -0.275011 -0.646 226 222 210
-0.1026 -0.2682 -0.63 70 73 80
-0.0841657 -0.263091 -0.618 69 72 79
-0.0711733 -0.267349 -0.628 70 70 80
0.139491 -0.201789 -0.474 186 138 118
0.148477 -0.200511 -0.471 190 138 124
0.151743 -0.200086 -0.47 189 137 123
0.160559 -0.198809 -0.467 179 127 113
0.165541 -0.198383 -0.466 164 115 101
0.2184 -0.21456 -0.504 96 67 71
0.314185 -0.239251 -0.562 102 81 90
0.311184 -0.234569 -0.551 105 82 92
0.311577 -0.233291 -0.548 105 82 92
0.31148 -0.23244 -0.546 109 79 89
0.313065 -0.229034 -0.538 105 82 90
0.342266 -0.232866 -0.547 38 31 38
0.351706 -0.237123 -0.557 34 31 38
0.392311 -0.251597 -0.591 84 80 95
0.395619 -0.228183 -0.536 142 91 87
0.399229 -0.227331 -0.534 144 93 89
0.428938 -0.226906 -0.533 125 80 74
0.4525 -0.231163 -0.543 126 83 76
0.465257 -0.234994 -0.552 125 84 80
-0.301012 -0.277525 -0.649 252 253 248
-0.13064 -0.275387 -0.644 236 233 224
-0.122053 -0.275387 -0.644 233 233 225
-0.118006 -0.274531 -0.642 217 217 215
-0.0925552 -0.264696 -0.619 74 74 84
-0.0900514 -0.264269 -0.618 76 74 87
-0.0843019 -0.264696 -0.619 72 72 80
-0.0635 -0.271538 -0.635 71 69 80
-0.0531943 -0.274531 -0.642 72 70 81
0.144603 -0.202264 -0.473 187 139 119
0.15142 -0.200553 -0.469 190 139 122
0.163766 -0.19927 -0.466 173 120 106
0.173383 -0.200126 -0.468 138 94 85
0.186711 -0.203974 -0.477 119 81 72
0.21744 -0.21552 -0.504 95 66 68
0.221536 -0.217658 -0.509 92 66 75
0.3128 -0.236046 -0.552 104 83 92
0.316414 -0.228776 -0.535 106 83 91
0.355933 -0.240322 -0.562 58 57 63
0.367266 -0.245026 -0.573 62 60 71
0.395914 -0.238611 -0.558 139 98 96
0.394457 -0.230914 -0.54 145 94 91
0.3959 -0.228776 -0.535 142 91 87
0.397194 -0.228349 -0.534 145 94 90
0.412933 -0.227493 -0.532 143 92 88
0.428938 -0.227921 -0.533 125 81 72
0.432794 -0.228349 -0.534 125 78 72
0.449803 -0.231342 -0.541 124 81 74
0.477968 -0.240322 -0.562 129 86 80
0.489741 -0.244598 -0.572 129 92 86
-0.306429 -0.27919 -0.65 253 254 249
-0.152041 -0.27103 -0.631 238 238 238
-0.128409 -0.274466 -0.639 241 238 233
-0.120727 -0.273607 -0.637 197 198 192
-0.11376 -0.271459 -0.632 72 73 77
-0.112378 -0.27103 -0.631 63 64 68
-0.106548 -0.268452 -0.625 67 67 77
-0.0971143 -0.265446 -0.618 63 66 71
-0.0875552 -0.265016 -0.617 76 74 85
-0.0831229 -0.265875 -0.619 73 73 81
-0.0799714 -0.267164 -0.622 72 72 80
0.135547 -0.204453 -0.476 195 149 133
0.136167 -0.204024 -0.475 194 148 132
0.1419 -0.203165 -0.473 191 144 124
0.143398 -0.202735 -0.472 194 146 126
0.146095 -0.202735 -0.472 193 145 125
0.149057 -0.201876 -0.47 188 140 120
0.15288 -0.201017 -0.468 190 142 122
0.159328 -0.200158 -0.466 181 130 113
0.166429 -0.200158 -0.466 167 118 104
0.180259 -0.202735 -0.472 122 83 76
0.192858 -0.206601 -0.481 116 79 71
0.196827 -0.20789 -0.484 115 78 72
0.31481 -0.236238 -0.55 107 86 93
0.31436 -0.232802 -0.542 111 85 94
0.317433 -0.229795 -0.535 136 115 122
0.323353 -0.228936 -0.533 110 91 97
0.330894 -0.230654 -0.537 105 84 91
0.372672 -0.248265 -0.578 77 75 86
0.396766 -0.255996 -0.596 46 42 57
0.399904 -0.257285 -0.599 54 50 65
0.394811 -0.237097 -0.552 153 102 101
0.395146 -0.236668 -0.551 152 98 96
0.394753 -0.231513 -0.539 147 94 90
0.395619 -0.230225 -0.536 144 93 90
0.396177 -0.229366 -0.534 148 97 94
0.415191 -0.228077 -0.531 130 81 76
0.435643 -0.229795 -0.535 123 78 72
-0.152041 -0.272231 -0.631 209 210 212
-0.1494 -0.2718 -0.63 230 232 231
-0.1434 -0.2718 -0.63 239 241 238
-0.137065 -0.273526 -0.634 238 238 236
-0.0941467 -0.264897 -0.614 74 74 82
-0.0929771 -0.264897 -0.614 73 73 81
-0.0853429 -0.266623 -0.618 75 74 82
-0.0801 -0.26878 -0.623 72 71 79
-0.0636 -0.274389 -0.636 71 70 78
-0.058939 -0.275251 -0.638 72 70 81
-0.0439524 -0.280429 -0.65 72 70 81
0.160215 -0.201046 -0.466 181 129 115
0.167316 -0.201046 -0.466 158 110 98
0.195905 -0.208811 -0.484 112 77 71
0.198566 -0.209674 -0.486 111 76 70
0.222842 -0.220891 -0.512 91 71 82
0.329257 -0.231246 -0.536 117 98 104
0.39006 -0.254974 -0.591 58 54 69
0.397431 -0.257563 -0.597 46 42 57
0.406886 -0.261446 -0.606 51 47 64
0.418293 -0.26576 -0.616 60 53 69
0.397216 -0.245483 -0.569 113 93 102
0.396177 -0.230383 -0.534 149 100 96
0.413947 -0.22952 -0.532 134 85 80
0.416203 -0.229089 -0.531 128 81 75
0.427923 -0.229951 -0.533 126 82 73
0.458959 -0.235991 -0.547 115 77 68
-0.124003 -0.272567 -0.629 81 83 82
-0.10736 -0.266933 -0.616 70 70 78
-0.085481 -0.268233 -0.619 72 72 80
-0.0735657 -0.272133 -0.628 72 72 82
0.133733 -0.206267 -0.476 197 149 129
0.138004 -0.204533 -0.472 192 144 124
0.146683 -0.2041 -0.471 191 143 123
0.14874 -0.203233 -0.469 194 146 126
0.162529 -0.2015 -0.465 173 122 105
0.168565 -0.202367 -0.467 156 108 96
0.178461 -0.204533 -0.472 126 88 79
0.316425 -0.234867 -0.542 108 83 89
0.32396 -0.2314 -0.534 111 91 100
0.324977 -0.2314 -0.534 118 95 103
0.326605 -0.231833 -0.535 122 99 107
0.332127 -0.233567 -0.539 66 49 55
0.375713 -0.251767 -0.581 42 40 51
0.381643 -0.2535 -0.585 91 89 102
0.414596 -0.266067 -0.614 57 52 74
0.39976 -0.230533 -0.532 143 94 89
0.403813 -0.230533 -0.532 150 99 95
0.42408 -0.230533 -0.532 126 81 75
0.463571 -0.238333 -0.55 121 78 71
-0.125193 -0.271153 -0.623 77 78 83
-0.108005 -0.266801 -0.613 66 66 74
-0.106663 -0.266366 -0.612 68 68 76
-0.0995057 -0.26593 -0.611 74 74 84
-0.0919571 -0.267671 -0.615 76 76 86
-0.0845743 -0.270283 -0.621 74 72 83
-0.0782257 -0.272894 -0.627 74 72 83
0.148162 -0.204562 -0.47 194 143 124
0.165541 -0.202821 -0.466 165 115 104
0.18231 -0.206738 -0.475 122 81 77
0.187494 -0.208479 -0.479 116 78 69
0.19366 -0.21022 -0.483 112 77 71
0.198974 -0.211961 -0.487 109 74 68
0.219597 -0.221536 -0.509 88 69 73
0.321926 -0.232417 -0.534 114 93 100
0.327215 -0.233288 -0.536 117 94 104
0.350839 -0.243298 -0.559 40 29 37
0.38472 -0.25592 -0.588 59 57 70
0.39572 -0.23764 -0.546 140 97 90
0.403813 -0.231547 -0.532 152 101 97
0.40888 -0.231547 -0.532 147 98 93
0.41192 -0.231547 -0.532 132 83 76
0.438499 -0.233288 -0.536 121 78 71
0.478186 -0.244169 -0.561 128 93 87
-0.15445 -0.280209 -0.641 114 115 119
-0.152273 -0.27846 -0.637 116 117 122
-0.14773 -0.274526 -0.628 104 104 112
-0.130706 -0.271466 -0.621 84 85 90
-0.0946952 -0.266657 -0.61 76 76 84
-0.0804857 -0.273651 -0.626 75 73 84
-0.0782257 -0.274089 -0.627 74 72 83
-0.0771543 -0.274526 -0.628 73 71 82
-0.0715133 -0.275837 -0.631 73 73 83
-0.048679 -0.282831 -0.647 107 105 116
0.135307 -0.206331 -0.472 193 142 121
0.147267 -0.205457 -0.47 196 145 126
0.162529 -0.203271 -0.465 167 118 101
0.192341 -0.210703 -0.482 113 76 68
0.229063 -0.229063 -0.524 239 231 252
0.327276 -0.248297 -0.568 104 81 97
0.33914 -0.239117 -0.547 42 32 40
0.368091 -0.251794 -0.576 61 65 66
0.39474 -0.24786 -0.567 123 89 90
0.395914 -0.243926 -0.558 140 95 92
0.419237 -0.232123 -0.531 127 84 77
0.42104 -0.23256 -0.532 128 85 78
0.426107 -0.23256 -0.532 124 84 74
0.428938 -0.232997 -0.533 124 84 74
0.456243 -0.238243 -0.545 118 78 70
-0.123184 -0.269136 -0.613 62 65 72
-0.110234 -0.266063 -0.606 58 61 66
-0.0960143 -0.268258 -0.611 76 76 84
0.131013 -0.208987 -0.476 197 155 141
0.152553 -0.205035 -0.467 195 144 127
0.153114 -0.204596 -0.466 194 143 124
0.15489 -0.204596 -0.466 190 142 120
0.156329 -0.204157 -0.465 186 138 115
0.1643 -0.204157 -0.465 168 121 105
0.170709 -0.205474 -0.468 134 92 80
0.176289 -0.206791 -0.471 123 87 75
0.177562 -0.20723 -0.472 123 85 74
0.18012 -0.208109 -0.474 123 83 75
0.19011 -0.211182 -0.481 115 78 70
0.320238 -0.236208 -0.538 116 95 102
0.32109 -0.23533 -0.536 117 98 102
0.332329 -0.237525 -0.541 56 43 50
0.346838 -0.24411 -0.556 39 29 40
0.382948 -0.257721 -0.587 54 52 63
0.41586 -0.26738 -0.609 57 53 67
0.39474 -0.24894 -0.567 127 88 89
0.396266 -0.24455 -0.557 142 97 94
0.396218 -0.237525 -0.541 140 93 87
0.396807 -0.236647 -0.539 142 94 90
0.398957 -0.23489 -0.535 143 96 90
0.400246 -0.234451 -0.534 142 93 89
0.404572 -0.234012 -0.533 141 92 87
0.410907 -0.233573 -0.532 125 81 72
0.422053 -0.233573 -0.532 130 87 80
0.45437 -0.238842 -0.544 116 76 68
-0.149611 -0.280446 -0.636 113 114 119
-0.137359 -0.27295 -0.619 98 99 104
-0.122179 -0.268099 -0.608 59 59 67
-0.097019 -0.268981 -0.61 74 75 80
-0.0960143 -0.269422 -0.611 76 77 82
-0.09328 -0.271627 -0.616 75 76 81
-0.0858952 -0.274272 -0.622 76 75 81
-0.07942 -0.276477 -0.627 73 72 80
-0.0613695 -0.281328 -0.638 72 72 82
0.142487 -0.206807 -0.469 199 150 133
0.169817 -0.206366 -0.468 138 96 84
0.191423 -0.212539 -0.482 112 77 71
0.21264 -0.22224 -0.504 94 69 65
0.333557 -0.239437 -0.543 44 33 41
0.364627 -0.253107 -0.574 103 102 107
0.397994 -0.25487 -0.578 90 73 79
0.397071 -0.240319 -0.545 140 92 88
0.40584 -0.234587 -0.532 142 93 88
0.413947 -0.234587 -0.532 128 84 75
0.439317 -0.236791 -0.537 119 79 69
0.44116 -0.237232 -0.538 117 77 67
0.45812 -0.24076 -0.546 118 77 71
0.487398 -0.250461 -0.568 132 92 90
0.498418 -0.25443 -0.577 127 91 91
-0.141071 -0.276786 -0.625 102 103 108
-0.121174 -0.267043 -0.603 59 62 69
-0.115807 -0.265271 -0.599 70 73 80
-0.105538 -0.265271 -0.599 61 61 69
-0.103601 -0.266157 -0.601 64 64 72
-0.100833 -0.267929 -0.605 69 69 77
-0.0816781 -0.277229 -0.626 75 74 82
-0.0783505 -0.278114 -0.628 73 72 80
-0.0716267 -0.279886 -0.632 71 71 79
-0.0671286 -0.281214 -0.635 72 72 82
0.135629 -0.208143 -0.47 198 151 133
0.142487 -0.2077 -0.469 199 150 133
0.148423 -0.207257 -0.468 196 147 130
0.1643 -0.205929 -0.465 160 112 98
0.194462 -0.214786 -0.485 109 76 71
0.237086 -0.239143 -0.54 185 190 232
0.322024 -0.239586 -0.541 107 84 92
0.328629 -0.239143 -0.54 89 74 81
0.358199 -0.251986 -0.569 68 60 71
0.363533 -0.2542 -0.574 105 103 108
0.389777 -0.263057 -0.594 48 44 58
0.403423 -0.268371 -0.606 58 54 69
0.4063 -0.2635 -0.595 54 50 64
0.395172 -0.249329 -0.563 131 90 88
0.396611 -0.248886 -0.562 132 88 85
0.397633 -0.2449 -0.553 139 95 92
0.397966 -0.244457 -0.552 139 94 91
0.434624 -0.236929 -0.535 123 80 71
0.448772 -0.239586 -0.541 123 83 73
0.460842 -0.242686 -0.548 120 79 73
-0.132309 -0.272194 -0.612 69 72 79
-0.106679 -0.266412 -0.599 49 50 55
-0.105714 -0.266857 -0.6 56 59 64
-0.102968 -0.268636 -0.604 62 65 72
-0.09918 -0.27086 -0.609 68 68 76
-0.0837943 -0.277531 -0.624 75 73 84
-0.076079 -0.279755 -0.629 72 72 82
-0.0499114 -0.287761 -0.647 77 77 87
-0.0487543 -0.288206 -0.648 75 73 84
-0.0475933 -0.28865 -0.649 75 73 84
0.14664 -0.208149 -0.468 199 150 133
0.159528 -0.20637 -0.464 178 129 112
0.161643 -0.206814 -0.465 173 126 110
0.1805 -0.211262 -0.475 119 82 76
0.181787 -0.211707 -0.476 118 81 75
0.185282 -0.212596 -0.478 117 80 72
0.2121 -0.224605 -0.505 90 64 67
0.324553 -0.243285 -0.547 111 88 96
0.349957 -0.249511 -0.561 36 30 42
0.352903 -0.250846 -0.564 37 26 40
0.393272 -0.252625 -0.568 128 90 89
0.399976 -0.237948 -0.535 141 94 88
0.410907 -0.236613 -0.532 135 88 82
0.418 -0.236613 -0.532 132 88 79
0.42104 -0.236613 -0.532 129 85 76
0.431777 -0.237503 -0.534 125 82 73
-0.129552 -0.272467 -0.61 72 73 78
-0.112767 -0.265767 -0.595 55 56 61
-0.108597 -0.26666 -0.597 49 50 54
-0.10764 -0.267107 -0.598 44 45 49
-0.101167 -0.271127 -0.607 64 65 70
-0.08722 -0.278273 -0.623 75 75 85
-0.0849829 -0.27872 -0.624 76 74 85
0.145749 -0.20904 -0.468 199 150 135
0.156329 -0.2077 -0.465 185 137 115
0.173229 -0.209933 -0.47 121 84 75
0.178314 -0.21172 -0.474 115 81 72
0.183077 -0.21306 -0.477 118 79 74
0.189587 -0.215293 -0.482 113 79 70
0.325283 -0.24254 -0.543 110 89 98
0.36937 -0.258173 -0.578 72 70 75
0.372857 -0.259067 -0.58 41 38 47
0.39336 -0.266213 -0.596 45 43 56
0.405609 -0.267553 -0.599 48 46 59
0.392773 -0.255493 -0.572 112 87 93
0.398687 -0.247007 -0.553 131 90 86
0.444033 -0.240753 -0.539 125 82 75
-0.133822 -0.277666 -0.619 74 75 80
-0.121511 -0.268694 -0.599 57 57 65
-0.11484 -0.266451 -0.594 59 60 64
-0.1105 -0.2669 -0.595 83 84 89
-0.101333 -0.272731 -0.608 62 63 68
-0.0762 -0.2826 -0.63 73 72 80
0.126892 -0.215763 -0.481 204 161 145
0.13802 -0.21038 -0.469 201 154 138
0.138617 -0.209931 -0.468 202 155 137
0.161643 -0.208586 -0.465 164 117 101
0.17869 -0.213071 -0.475 112 79 72
0.21378 -0.228323 -0.509 92 70 73
0.35478 -0.25434 -0.567 38 30 45
0.395633 -0.26062 -0.581 79 62 70
0.397682 -0.252097 -0.562 130 88 89
0.399751 -0.243574 -0.543 132 89 83
0.400449 -0.240883 -0.537 138 93 88
0.410664 -0.239089 -0.533 138 91 83
0.41371 -0.239089 -0.533 133 86 78
0.42104 -0.23864 -0.532 132 85 77
0.462729 -0.246266 -0.549 121 78 72
-0.0968 -0.277493 -0.616 66 66 74
-0.0885486 -0.281097 -0.624 74 74 84
-0.075119 -0.28425 -0.631 73 72 80
-0.0706457 -0.285602 -0.634 73 72 80
-0.0661267 -0.286953 -0.637 73 72 80
0.127485 -0.213075 -0.473 203 159 146
0.134447 -0.211273 -0.469 200 154 139
0.158644 -0.209021 -0.464 174 128 105
0.20008 -0.221634 -0.492 100 70 72
0.210176 -0.22749 -0.505 97 68 72
0.332011 -0.250465 -0.556 115 89 102
0.329923 -0.247311 -0.549 107 87 98
0.37442 -0.260826 -0.579 19 17 22
0.385644 -0.263979 -0.586 38 34 48
0.396358 -0.266682 -0.592 52 48 65
0.400166 -0.251366 -0.558 133 92 90
0.39979 -0.250465 -0.556 132 91 89
0.400186 -0.24551 -0.545 129 85 82
0.406603 -0.240104 -0.533 135 90 84
0.409649 -0.240104 -0.533 140 93 83
0.422053 -0.239653 -0.532 132 85 77
0.436457 -0.241455 -0.536 122 79 70
-0.113326 -0.26781 -0.592 120 121 126
-0.112198 -0.26781 -0.592 119 120 125
-0.0996686 -0.276857 -0.612 62 63 68
-0.076321 -0.285452 -0.631 73 72 80
-0.075119 -0.285452 -0.631 73 72 80
-0.0695476 -0.287262 -0.635 72 71 79
-0.0581762 -0.290881 -0.643 73 72 80
-0.0511438 -0.29269 -0.647 70 69 77
-0.0499114 -0.29269 -0.647 70 69 77
0.12998 -0.212167 -0.469 198 155 139
0.152457 -0.209905 -0.464 193 144 127
0.153341 -0.209905 -0.464 186 137 120
0.155992 -0.209905 -0.464 186 136 113
0.162529 -0.210357 -0.465 153 110 91
0.170543 -0.212619 -0.47 118 81 75
0.176509 -0.214429 -0.474 114 77 71
0.200487 -0.223024 -0.493 97 71 74
0.391002 -0.26419 -0.584 53 49 63
0.389229 -0.257857 -0.57 111 82 84
0.38963 -0.257405 -0.569 119 84 80
0.3941 -0.25469 -0.563 128 90 89
0.395172 -0.25469 -0.563 127 89 88
0.400714 -0.24881 -0.55 132 87 82
0.401194 -0.243381 -0.538 135 92 86
0.429743 -0.241571 -0.534 119 77 65
0.43076 -0.241571 -0.534 117 75 63
0.447742 -0.244738 -0.541 127 85 73
0.449602 -0.24519 -0.542 130 88 76
-0.103309 -0.275297 -0.606 57 58 63
-0.0998314 -0.278477 -0.613 60 61 66
-0.0752381 -0.287109 -0.632 74 73 81
-0.0729457 -0.287563 -0.633 73 72 80
-0.06734 -0.28938 -0.637 72 71 79
-0.0616581 -0.291197 -0.641 72 71 79
0.130594 -0.212606 -0.468 195 152 136
0.13921 -0.212151 -0.467 201 155 139
0.153341 -0.210789 -0.464 185 136 119
0.155992 -0.210789 -0.464 181 130 109
0.165896 -0.212151 -0.467 133 94 89
0.188669 -0.218966 -0.482 114 78 78
0.18998 -0.21942 -0.483 111 75 75
0.213647 -0.23214 -0.511 75 67 78
0.357443 -0.260306 -0.573 38 30 41
0.38868 -0.26076 -0.574 92 71 78
0.40112 -0.250766 -0.552 130 87 81
0.407366 -0.242589 -0.534 139 92 84
0.47861 -0.253946 -0.559 127 84 78
-0.110883 -0.269609 -0.591 111 112 117
-0.0999943 -0.280101 -0.614 57 58 63
-0.0941886 -0.28375 -0.622 64 64 72
-0.0909257 -0.284663 -0.624 69 69 77
-0.0808714 -0.286944 -0.629 76 75 83
-0.0581762 -0.29333 -0.643 71 70 78
0.128193 -0.213953 -0.469 197 154 138
0.137726 -0.213497 -0.468 201 155 140
0.13921 -0.213041 -0.467 201 155 139
0.146013 -0.212585 -0.466 201 155 139
0.147471 -0.212129 -0.465 205 158 142
0.149806 -0.211672 -0.464 197 150 134
0.15776 -0.211672 -0.464 176 128 108
0.180351 -0.217603 -0.477 115 77 76
0.207428 -0.229464 -0.503 88 69 73
0.344614 -0.255923 -0.561 34 28 38
0.372929 -0.26231 -0.575 16 11 18
0.390119 -0.257748 -0.565 136 92 89
0.395541 -0.256379 -0.562 125 86 87
0.396611 -0.256379 -0.562 126 85 81
0.401186 -0.253186 -0.555 131 88 82
0.40454 -0.244974 -0.537 137 90 82
0.410417 -0.243606 -0.534 145 96 89
0.413947 -0.242693 -0.532 143 94 87
0.42104 -0.242693 -0.532 133 86 76
0.422847 -0.24315 -0.533 132 85 75
0.438294 -0.244974 -0.537 126 82 73
-0.108233 -0.272567 -0.595 60 60 68
-0.10492 -0.275773 -0.602 65 66 71
-0.0982914 -0.283103 -0.618 59 60 65
-0.0798 -0.2886 -0.63 75 74 82
-0.0775229 -0.289058 -0.631 75 74 82
-0.0729457 -0.289974 -0.633 75 74 82
-0.062879 -0.293639 -0.641 74 73 81
-0.0488295 -0.297304 -0.649 71 70 78
0.137431 -0.21393 -0.467 199 153 138
0.146586 -0.213014 -0.465 204 158 142
0.152129 -0.212098 -0.463 188 141 121
0.154774 -0.212098 -0.463 177 129 107
0.159528 -0.212556 -0.464 156 110 94
0.161643 -0.213014 -0.465 144 102 86
0.166251 -0.214389 -0.468 122 85 79
0.193409 -0.223092 -0.487 109 75 74
0.203469 -0.228131 -0.498 94 68 71
0.37047 -0.264779 -0.578 23 18 25
0.391955 -0.257908 -0.563 128 87 85
0.39447 -0.25745 -0.562 125 85 85
0.397682 -0.25745 -0.562 124 83 79
0.402262 -0.249662 -0.545 135 88 82
0.402686 -0.247371 -0.54 133 88 82
0.402967 -0.246913 -0.539 136 89 83
0.439317 -0.245997 -0.537 126 82 71
0.44116 -0.246455 -0.538 124 82 70
0.45812 -0.25012 -0.546 124 79 73
0.474983 -0.254701 -0.556 129 84 78
-0.11163 -0.27094 -0.589 111 112 117
-0.108233 -0.2737 -0.595 64 64 72
-0.0787248 -0.29026 -0.631 74 73 81
0.125417 -0.21712 -0.472 198 156 140
0.141575 -0.21436 -0.466 201 155 140
0.148038 -0.21344 -0.464 201 155 139
0.150365 -0.21298 -0.463 190 145 124
0.151247 -0.21298 -0.463 189 144 123
0.16536 -0.21528 -0.468 126 86 76
0.170906 -0.21666 -0.471 119 80 75
0.173067 -0.21712 -0.472 120 81 76
0.208665 -0.23276 -0.506 90 69 78
0.35431 -0.2645 -0.575 36 28 39
0.363681 -0.26818 -0.583 40 32 43
0.367157 -0.2691 -0.585 46 36 47
0.373373 -0.26404 -0.574 77 58 62
0.381629 -0.2622 -0.57 111 81 83
0.38728 -0.25944 -0.564 126 82 81
0.398043 -0.25806 -0.561 124 83 79
0.399111 -0.25806 -0.561 124 83 79
0.402171 -0.25392 -0.552 124 79 74
0.403145 -0.24932 -0.542 135 87 83
0.427709 -0.24564 -0.534 130 83 73
0.429743 -0.24564 -0.534 129 82 72
0.444033 -0.24794 -0.539 126 84 72
0.445886 -0.2484 -0.54 126 84 72
0.45437 -0.25024 -0.544 125 82 73
0.471367 -0.25438 -0.553 131 88 79
-0.108999 -0.27391 -0.593 64 67 72
-0.0571286 -0.297929 -0.645 70 69 77
0.128193 -0.216633 -0.469 198 155 138
0.132094 -0.21571 -0.467 202 159 140
0.141575 -0.215248 -0.466 202 156 140
0.147154 -0.214324 -0.464 199 153 137
0.15444 -0.2134 -0.462 168 120 98
0.176881 -0.219405 -0.475 122 85 79
0.183845 -0.221252 -0.479 119 81 78
0.197269 -0.227257 -0.492 95 69 70
0.200762 -0.229105 -0.496 97 68 70
0.369668 -0.272062 -0.589 52 35 45
0.374906 -0.264671 -0.573 111 82 84
0.379035 -0.263748 -0.571 122 90 91
0.381371 -0.262362 -0.568 125 91 90
0.38286 -0.2619 -0.567 123 83 83
0.390189 -0.25959 -0.562 126 82 79
0.399818 -0.258205 -0.559 126 82 79
0.40051 -0.257281 -0.557 126 82 79
0.401909 -0.256819 -0.556 126 82 79
0.403223 -0.254971 -0.552 125 80 75
0.403738 -0.252662 -0.547 132 87 82
0.40404 -0.2522 -0.546 134 86 82
0.411434 -0.246657 -0.534 142 94 84
0.41574 -0.246195 -0.533 140 92 82
0.437478 -0.247581 -0.536 126 84 72
0.44321 -0.248505 -0.538 124 82 70
0.448772 -0.24989 -0.541 131 89 77
0.45812 -0.2522 -0.546 124 81 72
0.461886 -0.253124 -0.548 127 84 75
-0.0846 -0.2922 -0.63 70 70 80
-0.0663343 -0.296374 -0.639 71 71 81
-0.0641 -0.297302 -0.641 71 71 81
0.130315 -0.216599 -0.467 200 157 140
0.135362 -0.216135 -0.466 199 154 135
0.147719 -0.214744 -0.463 198 153 134
0.170009 -0.218454 -0.471 124 83 77
0.37248 -0.267154 -0.576 129 99 97
0.382185 -0.262516 -0.566 126 87 88
0.385131 -0.261589 -0.564 121 82 83
0.388048 -0.260661 -0.562 121 81 81
0.391259 -0.260661 -0.562 125 81 80
0.403857 -0.255095 -0.55 128 83 78
0.405771 -0.250457 -0.54 137 90 84
0.408129 -0.248138 -0.535 141 92 85
0.411186 -0.248138 -0.535 143 93 84
0.437478 -0.248602 -0.536 128 84 73
0.44034 -0.249066 -0.537 125 81 70
0.44506 -0.249993 -0.539 124 80 69
0.449803 -0.250921 -0.541 131 87 78
0.453534 -0.251849 -0.543 132 88 77
0.461886 -0.254168 -0.548 131 87 78
0.470514 -0.256023 -0.552 129 86 77
-0.106679 -0.278963 -0.599 73 73 81
-0.100646 -0.287811 -0.618 63 63 71
0.124143 -0.220749 -0.474 196 155 137
0.130315 -0.217489 -0.467 201 158 141
0.144503 -0.216091 -0.464 201 156 133
0.16536 -0.217954 -0.468 122 83 78
0.171269 -0.219817 -0.472 124 83 77
0.177786 -0.221214 -0.475 123 86 80
0.201571 -0.231926 -0.498 95 73 76
0.208111 -0.236117 -0.507 74 69 92
0.373433 -0.2771 -0.595 137 106 104
0.372885 -0.273374 -0.587 147 113 111
0.378791 -0.264991 -0.569 129 93 97
0.380029 -0.263594 -0.566 127 95 98
0.438499 -0.249623 -0.536 125 81 70
0.47242 -0.25754 -0.553 128 85 78
-0.110695 -0.275895 -0.59 91 92 97
0.131811 -0.21791 -0.466 203 160 143
0.140084 -0.216975 -0.464 198 156 134
0.148601 -0.216508 -0.463 193 148 127
0.1518 -0.21604 -0.462 180 135 116
0.169111 -0.220249 -0.471 118 84 75
0.19116 -0.227263 -0.486 112 78 79
0.374803 -0.280104 -0.599 133 99 98
0.373034 -0.272154 -0.582 139 107 108
0.377286 -0.266543 -0.57 127 91 93
0.386289 -0.262334 -0.561 125 85 85
0.398753 -0.261399 -0.559 122 82 80
0.400166 -0.260931 -0.558 124 83 81
0.402968 -0.259996 -0.556 124 83 79
0.408631 -0.251111 -0.537 138 91 85
0.425674 -0.249709 -0.534 128 81 71
0.44506 -0.252047 -0.539 126 81 75
0.461043 -0.255788 -0.547 131 86 80
-0.120091 -0.277958 -0.592 106 106 114
-0.108999 -0.278428 -0.593 63 64 69
-0.0950971 -0.294861 -0.628 57 58 63
-0.0894 -0.2958 -0.63 61 61 69
-0.0813857 -0.297209 -0.633 70 70 80
-0.0780143 -0.298148 -0.635 71 71 81
0.12282 -0.22678 -0.483 192 153 138
0.12324 -0.222554 -0.474 200 153 143
0.128536 -0.219268 -0.467 204 161 144
0.129149 -0.218798 -0.466 202 159 142
0.145387 -0.217859 -0.464 198 153 134
0.167857 -0.220676 -0.47 125 88 79
0.185143 -0.225371 -0.48 119 78 76
0.198872 -0.232884 -0.496 91 69 71
0.377199 -0.282184 -0.601 134 100 101
0.3762 -0.267629 -0.57 133 97 97
0.418786 -0.250256 -0.533 135 88 78
0.422847 -0.250256 -0.533 125 81 70
0.47433 -0.260116 -0.554 132 88 79
-0.12462 -0.284271 -0.603 106 106 114
-0.116642 -0.276257 -0.586 103 103 111
-0.100971 -0.292286 -0.62 67 68 73
-0.0872762 -0.297943 -0.632 61 62 67
-0.0780143 -0.299357 -0.635 71 71 81
-0.0734067 -0.3003 -0.637 72 72 82
-0.0688762 -0.301714 -0.64 75 73 84
0.14331 -0.218271 -0.463 201 156 137
0.144191 -0.218271 -0.463 199 154 135
0.169111 -0.222043 -0.471 127 90 82
0.177786 -0.223929 -0.475 127 88 81
0.380434 -0.286629 -0.608 137 98 103
0.378344 -0.283329 -0.601 134 99 103
0.375914 -0.278143 -0.59 138 104 103
0.386667 -0.264 -0.56 123 81 82
0.395559 -0.263529 -0.559 122 78 77
0.402243 -0.261643 -0.555 129 85 82
0.405822 -0.257871 -0.547 129 84 79
0.410417 -0.253629 -0.538 140 93 85
0.449803 -0.255043 -0.541 132 87 81
0.489337 -0.265886 -0.564 131 88 79
-0.11816 -0.27832 -0.588 98 98 106
-0.116443 -0.2769 -0.585 99 99 107
-0.102667 -0.291573 -0.616 73 73 81
-0.0677629 -0.303407 -0.641 73 73 81
0.15092 -0.21868 -0.462 181 136 117
0.15268 -0.21868 -0.462 176 129 109
0.169111 -0.22294 -0.471 128 91 83
0.170009 -0.22294 -0.471 129 92 84
0.170906 -0.22294 -0.471 129 92 84
0.172168 -0.223413 -0.472 129 92 84
0.180351 -0.22578 -0.477 128 91 83
0.18853 -0.229093 -0.484 103 73 71
0.197529 -0.2343 -0.495 95 75 77
0.201831 -0.23714 -0.501 90 77 87
0.217914 -0.248973 -0.526 202 211 244
0.382471 -0.2911 -0.615 125 86 91
0.377594 -0.283053 -0.598 133 98 102
0.379357 -0.267433 -0.565 131 92 95
0.380159 -0.266487 -0.563 130 90 90
0.44321 -0.254653 -0.538 121 76 70
0.455603 -0.25702 -0.543 132 87 81
-0.121629 -0.282291 -0.594 97 97 105
-0.116443 -0.278014 -0.585 96 96 104
-0.109757 -0.280866 -0.591 64 63 71
-0.103503 -0.291796 -0.614 77 76 84
-0.0943495 -0.299875 -0.631 58 57 65
-0.0898257 -0.300826 -0.633 58 55 64
-0.07242 -0.303677 -0.639 72 72 80
0.129149 -0.221461 -0.466 203 162 140
0.14916 -0.21956 -0.462 190 145 126
0.155992 -0.22051 -0.464 157 108 91
0.18722 -0.22954 -0.483 111 82 78
0.188919 -0.23049 -0.485 107 78 74
0.392726 -0.265183 -0.558 122 81 79
0.397327 -0.264708 -0.557 129 85 84
0.40085 -0.264232 -0.556 127 86 84
0.402243 -0.263757 -0.555 127 86 82
0.410371 -0.257579 -0.542 130 87 78
0.436457 -0.254728 -0.536 130 86 77
0.448971 -0.256629 -0.54 133 88 82
-0.1131 -0.279129 -0.585 89 92 97
-0.0816429 -0.302986 -0.635 68 67 75
-0.0758333 -0.30394 -0.637 70 70 78
-0.07242 -0.304894 -0.639 71 71 79
0.12089 -0.228551 -0.479 194 152 138
0.123727 -0.22378 -0.469 200 159 137
0.141546 -0.220917 -0.463 200 158 136
0.142428 -0.220917 -0.463 200 158 136
0.152129 -0.220917 -0.463 176 129 111
0.170906 -0.224734 -0.471 136 93 86
0.174334 -0.225689 -0.473 131 92 85
0.177786 -0.226643 -0.475 130 93 85
0.3918 -0.3006 -0.63 127 87 85
0.387317 -0.295351 -0.619 133 97 99
0.376714 -0.279606 -0.586 139 100 101
0.376424 -0.275311 -0.577 139 100 101
0.382695 -0.268154 -0.562 130 90 90
0.396266 -0.265769 -0.557 128 84 83
0.40085 -0.265291 -0.556 129 88 84
0.405641 -0.262906 -0.551 128 85 79
0.40669 -0.262906 -0.551 126 83 77
0.408948 -0.260997 -0.547 128 85 78
0.412723 -0.256226 -0.537 132 87 81
0.413746 -0.256226 -0.537 135 90 84
0.425674 -0.254794 -0.534 128 88 80
0.466061 -0.261474 -0.548 129 85 76
0.490411 -0.269109 -0.564 133 89 80
-0.108051 -0.284554 -0.594 90 91 96
-0.0840619 -0.304195 -0.635 63 62 70
-0.07826 -0.305153 -0.637 70 69 77
0.121563 -0.225631 -0.471 196 158 139
0.129478 -0.222278 -0.464 203 162 142
0.14916 -0.22132 -0.462 185 140 119
0.16482 -0.224673 -0.469 134 95 90
0.192733 -0.234733 -0.49 91 69 72
0.396153 -0.305153 -0.637 124 89 87
0.380029 -0.271141 -0.566 133 93 94
0.413233 -0.258207 -0.539 130 87 78
0.446087 -0.258207 -0.539 127 84 77
0.46228 -0.26156 -0.546 128 84 75
