ply
format ascii 1.0
comment Created by Open3D
element vertex 1295
property double x
property double y
property double z
property uchar red
property uchar green
property uchar blue
end_header
0.483346 -0.374557 -0.501 163 117 91
0.486209 -0.374557 -0.501 166 120 94
0.496772 -0.376052 -0.503 156 114 89
0.502627 -0.378295 -0.506 156 114 89
0.0387943 -0.328291 -0.438 195 155 129
0.0467067 -0.325293 -0.434 198 159 130
0.0475333 -0.325293 -0.434 197 158 129
0.04836 -0.325293 -0.434 197 156 128
0.0490733 -0.324544 -0.433 195 154 126
0.05084 -0.325293 -0.434 192 151 121
0.0592429 -0.326043 -0.435 193 148 119
0.0755029 -0.328291 -0.438 184 138 114
0.088821 -0.33129 -0.442 156 108 96
0.09176 -0.332789 -0.444 150 105 99
0.100938 -0.338035 -0.451 128 91 85
0.104433 -0.341033 -0.455 124 89 83
0.147219 -0.39275 -0.524 91 110 169
0.175906 -0.433974 -0.579 204 211 230
0.215609 -0.433974 -0.579 163 182 214
0.27799 -0.433225 -0.578 184 199 222
0.348451 -0.433225 -0.578 143 154 176
0.37047 -0.433225 -0.578 194 197 214
0.377076 -0.433225 -0.578 170 180 207
0.38986 -0.433974 -0.579 151 163 179
0.394271 -0.433974 -0.579 86 101 144
0.400889 -0.433974 -0.579 189 192 207
0.4046 -0.433225 -0.578 150 149 154
0.447209 -0.433974 -0.579 88 102 139
0.463448 -0.434724 -0.58 134 140 154
0.467867 -0.434724 -0.58 150 149 157
0.475883 -0.433974 -0.579 73 88 121
0.478089 -0.433974 -0.579 66 88 125
0.452769 -0.392001 -0.523 161 118 99
0.471905 -0.374762 -0.5 168 121 95
0.483333 -0.374762 -0.5 166 119 91
0.492889 -0.375511 -0.501 161 115 91
0.0432 -0.4208 -0.56 190 148 123
0.05332 -0.32612 -0.434 190 146 119
0.0541467 -0.32612 -0.434 193 149 122
0.0609 -0.326871 -0.435 192 146 120
0.0651924 -0.327623 -0.436 192 148 123
0.0780057 -0.329126 -0.438 185 139 116
0.0850667 -0.330629 -0.44 162 116 101
0.0896629 -0.332131 -0.442 152 107 101
0.104433 -0.3419 -0.455 123 88 84
0.106867 -0.344154 -0.458 119 86 81
0.210832 -0.434326 -0.578 166 173 202
0.350653 -0.434326 -0.578 146 163 191
0.367631 -0.433574 -0.577 207 206 220
0.377076 -0.434326 -0.578 149 164 197
0.380379 -0.434326 -0.578 175 190 211
0.395792 -0.434326 -0.578 134 148 187
0.399095 -0.434326 -0.578 186 196 205
0.400196 -0.434326 -0.578 191 195 207
0.440931 -0.434326 -0.578 116 136 161
0.448311 -0.435077 -0.579 66 84 124
0.454929 -0.435077 -0.579 130 136 160
0.465957 -0.435077 -0.579 144 146 158
0.46706 -0.435077 -0.579 147 149 161
0.470369 -0.435077 -0.579 142 146 158
0.475883 -0.435077 -0.579 75 88 120
0.468612 -0.414037 -0.551 146 112 100
0.461314 -0.405771 -0.54 151 113 94
0.474762 -0.375714 -0.5 171 124 96
0.483333 -0.375714 -0.5 167 120 92
0.495751 -0.376466 -0.501 160 112 89
0.5016 -0.37872 -0.504 160 114 90
0.0548467 -0.326193 -0.433 195 149 123
0.0609 -0.3277 -0.435 191 145 119
0.0643619 -0.328453 -0.436 193 149 124
0.0695038 -0.329207 -0.437 186 141 118
0.0850667 -0.331467 -0.44 161 115 100
0.087979 -0.332973 -0.442 154 108 95
0.0949343 -0.33674 -0.447 139 96 90
0.101162 -0.340507 -0.452 125 90 86
0.111561 -0.348793 -0.463 108 78 76
0.175602 -0.435427 -0.578 182 194 218
0.220741 -0.435427 -0.578 162 177 216
0.285203 -0.434673 -0.577 133 150 180
0.351146 -0.434673 -0.577 152 176 214
0.381919 -0.434673 -0.577 95 110 149
0.390711 -0.434673 -0.577 105 123 159
0.398405 -0.434673 -0.577 188 199 205
0.402801 -0.434673 -0.577 177 177 187
0.409783 -0.43392 -0.576 94 118 166
0.425881 -0.434673 -0.577 177 180 185
0.435772 -0.434673 -0.577 90 96 120
0.460443 -0.43618 -0.579 119 128 143
0.46706 -0.43618 -0.579 143 146 161
0.468163 -0.43618 -0.579 143 147 159
0.470369 -0.43618 -0.579 142 148 160
0.472574 -0.43618 -0.579 134 141 159
0.476162 -0.435427 -0.578 71 82 110
0.48 -0.43392 -0.576 84 97 131
0.452387 -0.390227 -0.518 164 123 103
0.454297 -0.382693 -0.508 165 120 97
0.479515 -0.375913 -0.499 170 121 89
0.481416 -0.375913 -0.499 166 119 89
0.49766 -0.37742 -0.501 161 113 90
0.574474 -0.42036 -0.558 195 194 192
0.0340971 -0.333815 -0.442 186 149 123
0.0363743 -0.33155 -0.439 192 150 125
0.0393571 -0.328529 -0.435 190 148 123
0.0474238 -0.327018 -0.433 196 152 125
0.0660229 -0.329284 -0.436 192 148 123
0.0685143 -0.329284 -0.436 188 143 120
0.0957857 -0.337591 -0.447 140 97 91
0.111561 -0.349675 -0.463 106 78 75
0.114304 -0.352696 -0.467 98 77 74
0.124402 -0.364025 -0.482 87 71 72
0.177804 -0.436528 -0.578 204 212 233
0.21926 -0.435772 -0.577 180 187 213
0.327497 -0.435017 -0.576 175 183 204
0.347246 -0.435017 -0.576 131 141 168
0.39181 -0.435772 -0.577 138 153 186
0.402103 -0.435017 -0.576 178 178 186
0.406491 -0.435017 -0.576 182 186 197
0.442367 -0.435772 -0.577 148 160 174
0.446436 -0.436528 -0.578 130 138 157
0.455244 -0.436528 -0.578 153 154 174
0.45281 -0.388192 -0.514 164 119 98
0.45552 -0.38064 -0.504 166 122 97
0.463306 -0.378374 -0.501 167 121 95
0.46426 -0.378374 -0.501 168 122 96
0.50448 -0.38064 -0.504 152 108 83
0.0334057 -0.336171 -0.444 189 150 121
0.0441248 -0.327843 -0.433 199 155 126
0.0507229 -0.327843 -0.433 192 148 121
0.0615867 -0.3286 -0.434 193 147 123
0.0769952 -0.330871 -0.437 176 133 114
0.0861 -0.3339 -0.441 159 112 102
0.087979 -0.334657 -0.442 153 107 94
0.0890219 -0.335414 -0.443 151 105 92
0.1071 -0.347529 -0.459 112 81 78
0.10821 -0.348286 -0.46 111 80 77
0.118475 -0.358129 -0.473 92 74 72
0.128071 -0.370243 -0.489 92 72 73
0.178595 -0.436871 -0.577 203 214 236
0.33408 -0.436114 -0.576 195 206 236
0.418929 -0.435357 -0.575 87 110 152
0.425143 -0.436114 -0.576 175 175 185
0.440169 -0.436871 -0.577 156 163 179
0.453357 -0.436871 -0.577 156 157 175
0.478903 -0.436114 -0.576 64 83 115
0.481357 -0.435357 -0.575 65 79 118
0.456091 -0.399771 -0.528 162 119 100
0.453891 -0.395229 -0.522 162 119 100
0.453087 -0.3869 -0.511 163 117 94
0.454143 -0.386143 -0.51 165 120 97
0.45744 -0.3816 -0.504 168 122 98
0.478565 -0.377814 -0.499 172 123 93
0.487091 -0.377057 -0.498 168 121 91
0.498571 -0.378571 -0.5 155 111 84
0.0388638 -0.424308 -0.559 192 151 123
0.0456686 -0.327909 -0.432 195 153 128
0.0667 -0.330186 -0.435 190 144 121
0.0675286 -0.330186 -0.435 191 145 122
0.0743276 -0.330945 -0.436 179 134 115
0.0759886 -0.330945 -0.436 177 132 113
0.0981429 -0.341571 -0.45 134 93 87
0.192549 -0.437211 -0.576 199 201 214
0.328024 -0.436452 -0.575 111 130 170
0.348833 -0.436452 -0.575 131 149 187
0.392229 -0.437211 -0.576 162 173 191
0.424405 -0.436452 -0.575 174 174 186
0.456654 -0.43797 -0.577 151 158 168
0.474239 -0.43797 -0.577 106 114 137
0.452906 -0.389391 -0.513 168 122 99
0.46906 -0.378765 -0.499 172 125 97
0.472863 -0.378006 -0.498 166 119 91
0.48138 -0.377247 -0.497 169 120 90
0.493731 -0.378006 -0.498 164 117 89
0.499524 -0.379524 -0.5 157 111 85
0.0481371 -0.328731 -0.432 192 148 123
0.0522514 -0.328731 -0.432 195 151 126
0.057321 -0.329492 -0.433 193 147 121
0.0813429 -0.333297 -0.438 166 124 102
0.0850667 -0.334819 -0.44 156 113 97
0.0861 -0.33558 -0.441 152 108 95
0.100301 -0.34395 -0.452 131 90 86
0.115933 -0.357648 -0.47 98 73 68
0.130058 -0.37515 -0.493 92 73 69
0.151046 -0.406349 -0.534 137 152 183
0.399214 -0.437548 -0.575 155 160 179
0.442697 -0.438309 -0.576 162 168 180
0.45696 -0.438309 -0.576 100 103 96
0.469029 -0.438309 -0.576 142 148 164
0.453789 -0.39113 -0.514 166 120 97
0.455462 -0.384281 -0.505 170 124 100
0.461397 -0.381237 -0.501 169 123 97
0.469048 -0.380476 -0.5 171 124 96
0.47476 -0.378954 -0.498 169 120 88
0.495629 -0.378954 -0.498 160 115 86
0.0407314 -0.329554 -0.432 197 153 128
0.0456686 -0.329554 -0.432 197 153 128
0.0548467 -0.330317 -0.433 187 141 117
0.057321 -0.330317 -0.433 191 145 119
0.0861 -0.33642 -0.441 151 107 96
0.120133 -0.36312 -0.476 93 72 69
0.124918 -0.369223 -0.484 90 71 67
0.151329 -0.408129 -0.535 141 156 187
0.19331 -0.438643 -0.575 180 182 207
0.194405 -0.438643 -0.575 204 206 231
0.209738 -0.438643 -0.575 192 198 222
0.328547 -0.43788 -0.574 108 132 160
0.37228 -0.43788 -0.574 192 201 218
0.37884 -0.43788 -0.574 179 190 212
0.399214 -0.438643 -0.575 145 154 169
0.400707 -0.43788 -0.574 181 190 205
0.4018 -0.43788 -0.574 185 193 206
0.413106 -0.437117 -0.573 124 151 181
0.414197 -0.437117 -0.573 120 149 183
0.42148 -0.43788 -0.574 167 171 182
0.42476 -0.43788 -0.574 176 183 193
0.430976 -0.438643 -0.575 74 86 110
0.443024 -0.438643 -0.575 165 169 178
0.46464 -0.439406 -0.576 53 66 85
0.473417 -0.439406 -0.576 113 123 148
0.481866 -0.437117 -0.573 78 91 123
0.454886 -0.398211 -0.522 164 119 96
0.45406 -0.38982 -0.511 167 123 96
0.45744 -0.38448 -0.504 168 122 96
0.46906 -0.380666 -0.499 174 127 99
0.48797 -0.378377 -0.496 167 120 90
0.505347 -0.382954 -0.502 154 112 87
0.0352143 -0.332671 -0.435 197 155 131
0.0472048 -0.329612 -0.431 194 148 124
0.0548467 -0.331142 -0.433 186 140 116
0.09176 -0.339554 -0.444 145 102 93
0.100523 -0.346437 -0.453 127 88 83
0.1027 -0.347967 -0.455 120 85 79
0.109797 -0.354085 -0.463 106 81 77
0.123484 -0.368615 -0.482 89 71 69
0.144669 -0.399206 -0.522 143 151 174
0.173595 -0.439738 -0.575 194 201 219
0.175786 -0.439738 -0.575 122 133 153
0.176881 -0.439738 -0.575 104 112 135
0.376653 -0.438973 -0.574 203 205 220
0.384729 -0.438209 -0.573 199 199 211
0.390867 -0.438973 -0.574 195 198 215
0.4011 -0.438209 -0.573 177 186 203
0.42804 -0.438973 -0.574 78 93 122
0.43788 -0.438973 -0.574 163 168 172
0.461643 -0.439738 -0.575 138 145 155
0.472595 -0.439738 -0.575 104 115 143
0.476976 -0.439738 -0.575 46 75 109
0.459407 -0.384675 -0.503 173 127 101
0.46426 -0.383146 -0.501 174 127 99
0.48138 -0.380087 -0.497 172 123 93
0.485135 -0.379322 -0.496 175 125 98
0.496527 -0.380087 -0.497 156 112 85
0.503333 -0.382381 -0.5 155 113 88
0.043921 -0.330433 -0.431 194 150 125
0.0555429 -0.3312 -0.432 188 142 118
0.0683571 -0.3335 -0.435 189 143 119
0.0716714 -0.3335 -0.435 181 135 112
0.0725 -0.3335 -0.435 179 133 110
0.0811571 -0.335033 -0.437 161 119 97
0.0928143 -0.341167 -0.445 140 97 88
0.104892 -0.350367 -0.457 113 84 80
0.12714 -0.3749 -0.489 87 71 71
0.130586 -0.3795 -0.495 87 73 72
0.149748 -0.408633 -0.533 156 171 202
0.333431 -0.4393 -0.573 190 198 219
0.345437 -0.4393 -0.573 133 148 169
0.372723 -0.4393 -0.573 198 200 212
0.379271 -0.4393 -0.573 194 197 214
0.384729 -0.4393 -0.573 202 202 212
0.409116 -0.438533 -0.572 112 131 171
0.421837 -0.4393 -0.573 173 178 198
0.432413 -0.440067 -0.574 151 163 187
0.436787 -0.440067 -0.574 137 138 140
0.467119 -0.440833 -0.575 52 68 94
0.478333 -0.440067 -0.574 36 60 104
0.456629 -0.401733 -0.524 166 118 95
0.45436 -0.397133 -0.518 163 117 93
0.454468 -0.396367 -0.517 162 120 96
0.454671 -0.394833 -0.515 165 123 99
0.461362 -0.384867 -0.502 170 125 96
0.46426 -0.3841 -0.501 175 128 100
0.469048 -0.383333 -0.5 171 124 96
0.474753 -0.381033 -0.497 175 126 96
0.476647 -0.381033 -0.497 173 124 94
0.47854 -0.381033 -0.497 170 121 91
0.479487 -0.381033 -0.497 171 122 92
0.482327 -0.381033 -0.497 172 122 95
0.487929 -0.3795 -0.495 165 118 90
0.496527 -0.381033 -0.497 161 117 90
0.0327286 -0.334329 -0.435 197 151 127
0.06324 -0.33356 -0.434 192 146 120
0.0741571 -0.334329 -0.435 174 129 106
0.0749857 -0.334329 -0.435 173 128 107
0.0803248 -0.335866 -0.437 161 119 95
0.088821 -0.339709 -0.442 144 101 94
0.098361 -0.346626 -0.451 134 90 87
0.107333 -0.353543 -0.46 107 79 76
0.382968 -0.439623 -0.572 198 205 211
0.402579 -0.439623 -0.572 187 197 209
0.429477 -0.440391 -0.573 107 128 157
0.44772 -0.44116 -0.574 150 156 168
0.478591 -0.440391 -0.573 27 51 95
0.479683 -0.440391 -0.573 28 51 93
0.455237 -0.398889 -0.519 162 117 94
0.455191 -0.391203 -0.509 163 119 94
0.469048 -0.384286 -0.5 170 123 95
0.473807 -0.38198 -0.497 177 128 98
0.477593 -0.38198 -0.497 170 121 91
0.042181 -0.331305 -0.43 197 153 126
0.0446381 -0.331305 -0.43 195 150 121
0.0470952 -0.331305 -0.43 190 146 117
0.0496676 -0.332075 -0.431 192 146 120
0.0630943 -0.333616 -0.433 190 145 116
0.0690267 -0.334387 -0.434 183 139 114
0.07848 -0.335928 -0.436 165 123 101
0.08778 -0.33978 -0.441 148 106 94
0.0928143 -0.342862 -0.445 141 98 91
0.115038 -0.362124 -0.47 96 75 74
0.116427 -0.363665 -0.472 93 73 74
0.117823 -0.365206 -0.474 92 72 73
0.1274 -0.377533 -0.49 86 72 72
0.402963 -0.439942 -0.571 189 202 221
0.405138 -0.439942 -0.571 162 173 195
0.42437 -0.440712 -0.572 78 98 131
0.428386 -0.441483 -0.573 130 150 177
0.429477 -0.441483 -0.573 151 164 180
0.434934 -0.441483 -0.573 174 173 178
0.438209 -0.441483 -0.573 170 168 171
0.448031 -0.441483 -0.573 156 162 178
0.453187 -0.442253 -0.574 134 135 140
0.461933 -0.442253 -0.574 151 155 166
0.47386 -0.424532 -0.551 136 106 95
0.454768 -0.396025 -0.514 162 116 92
0.454949 -0.394484 -0.512 171 121 94
0.45648 -0.38832 -0.504 168 122 96
0.459407 -0.38755 -0.503 167 121 95
0.467143 -0.385238 -0.5 170 125 96
0.470961 -0.384468 -0.499 169 122 94
0.476632 -0.382156 -0.496 174 125 95
0.480411 -0.382156 -0.496 172 122 95
0.486986 -0.381386 -0.495 173 123 96
0.488825 -0.380615 -0.494 172 122 95
0.494529 -0.381386 -0.495 161 115 89
0.51216 -0.38832 -0.504 150 108 86
0.0413619 -0.332124 -0.43 197 153 124
0.0470952 -0.332124 -0.43 191 146 117
0.0698533 -0.335213 -0.434 184 140 115
0.0811571 -0.33753 -0.437 157 115 93
0.0919667 -0.34371 -0.445 141 101 93
0.1139 -0.362247 -0.469 97 77 78
0.12089 -0.36997 -0.479 88 72 73
0.140767 -0.397776 -0.515 124 122 136
0.370334 -0.44103 -0.571 179 180 182
0.439623 -0.441802 -0.572 166 171 177
0.467677 -0.442574 -0.573 27 46 86
0.473134 -0.442574 -0.573 59 80 127
0.455554 -0.398549 -0.516 166 120 96
0.455334 -0.391597 -0.507 166 122 95
0.499307 -0.383101 -0.496 159 114 91
0.0373533 -0.333717 -0.431 194 150 121
0.0398162 -0.333717 -0.431 196 150 124
0.0479143 -0.332943 -0.43 190 143 113
0.0655686 -0.335266 -0.433 189 142 112
0.07316 -0.33604 -0.434 172 125 109
0.0859048 -0.340686 -0.44 150 108 92
0.192301 -0.442891 -0.572 125 146 191
0.33118 -0.442117 -0.571 188 192 204
0.384473 -0.442117 -0.571 200 209 216
0.393174 -0.442117 -0.571 200 201 206
0.407686 -0.441343 -0.57 115 145 195
0.41819 -0.442117 -0.571 97 125 175
0.420365 -0.442117 -0.571 99 125 176
0.424715 -0.442117 -0.571 83 108 148
0.436679 -0.442117 -0.571 175 175 177
0.438854 -0.442117 -0.571 153 162 171
0.451306 -0.443666 -0.573 134 140 156
0.465494 -0.443666 -0.573 134 144 169
0.466586 -0.443666 -0.573 91 101 126
0.474488 -0.442891 -0.572 37 58 101
0.479096 -0.442117 -0.571 21 42 87
0.47164 -0.42276 -0.546 137 108 92
0.456232 -0.393337 -0.508 166 122 95
0.491648 -0.382497 -0.494 165 119 93
0.49353 -0.382497 -0.494 162 118 93
0.0267 -0.345405 -0.445 192 152 126
0.042181 -0.333762 -0.43 195 151 122
0.0647438 -0.33609 -0.433 188 143 112
0.0682 -0.336867 -0.434 186 140 114
0.0741571 -0.337643 -0.435 169 121 107
0.0819895 -0.339195 -0.437 155 112 96
0.0919667 -0.345405 -0.445 141 97 88
0.0951467 -0.347733 -0.448 135 96 89
0.104022 -0.354719 -0.457 115 86 82
0.105351 -0.356271 -0.459 112 83 79
0.173779 -0.443981 -0.572 206 208 220
0.226769 -0.443205 -0.571 120 143 185
0.241995 -0.443205 -0.571 134 139 158
0.343629 -0.442429 -0.57 169 178 207
0.403343 -0.442429 -0.57 123 143 180
0.44507 -0.443981 -0.572 100 111 139
0.44616 -0.443981 -0.572 93 104 132
0.44725 -0.443981 -0.572 110 120 147
0.458145 -0.443981 -0.572 149 153 154
0.46222 -0.444757 -0.573 150 149 154
0.463311 -0.444757 -0.573 143 143 153
0.472309 -0.443981 -0.572 26 47 94
0.478009 -0.443205 -0.571 21 43 84
0.4826 -0.442429 -0.57 19 48 90
0.461857 -0.411381 -0.53 159 115 90
0.45744 -0.3912 -0.504 167 123 96
0.461323 -0.390424 -0.503 169 124 95
0.471914 -0.386543 -0.498 172 125 97
0.473798 -0.38499 -0.496 175 125 98
0.475671 -0.384214 -0.495 166 116 89
0.479443 -0.384214 -0.495 175 125 98
0.535311 -0.402843 -0.519 153 111 87
0.0372667 -0.334581 -0.43 193 152 122
0.0511905 -0.334581 -0.43 188 143 114
0.0655686 -0.336915 -0.433 187 142 113
0.0715067 -0.337693 -0.434 172 126 110
0.0919667 -0.346252 -0.445 140 97 88
0.0940829 -0.347809 -0.447 135 95 87
0.11832 -0.370373 -0.476 89 73 73
0.1716 -0.44507 -0.572 209 213 224
0.173475 -0.444292 -0.571 211 213 225
0.390314 -0.443514 -0.57 202 203 205
0.3914 -0.443514 -0.57 195 196 198
0.415641 -0.442736 -0.569 96 121 178
0.465771 -0.44507 -0.572 121 129 142
0.466861 -0.44507 -0.572 63 79 112
0.481753 -0.442736 -0.569 39 60 105
0.461993 -0.411612 -0.529 154 113 91
0.462318 -0.390604 -0.502 167 121 95
0.46811 -0.38827 -0.499 175 128 100
0.471914 -0.387491 -0.498 173 126 98
0.480386 -0.385157 -0.495 172 122 97
0.490652 -0.383601 -0.493 167 120 94
0.497293 -0.384379 -0.494 164 117 91
0.0324276 -0.33618 -0.431 191 150 122
0.0429 -0.33462 -0.429 193 150 116
0.0478029 -0.33462 -0.429 187 144 112
0.0588343 -0.33696 -0.432 190 143 117
0.06048 -0.33696 -0.432 190 143 117
0.0613029 -0.33696 -0.432 191 144 118
0.0647438 -0.33774 -0.433 189 142 114
0.0715067 -0.33852 -0.434 172 126 110
0.0758143 -0.3393 -0.435 167 121 105
0.0898657 -0.34554 -0.443 140 100 90
0.114386 -0.36738 -0.471 91 73 73
0.229629 -0.4446 -0.57 188 203 226
0.388546 -0.44382 -0.569 200 204 215
0.392881 -0.44382 -0.569 190 192 191
0.3983 -0.44382 -0.569 196 202 226
0.42106 -0.44382 -0.569 59 88 148
0.422144 -0.44382 -0.569 88 111 165
0.441343 -0.4446 -0.57 126 137 155
0.443514 -0.4446 -0.57 124 137 154
0.48067 -0.44382 -0.569 23 47 91
0.46125 -0.41106 -0.527 152 111 89
0.456633 -0.4017 -0.515 161 119 95
0.456726 -0.40092 -0.514 163 121 97
0.457266 -0.39546 -0.507 166 120 96
0.459407 -0.39234 -0.503 169 122 96
0.480386 -0.3861 -0.495 172 122 97
0.488774 -0.38454 -0.493 170 120 95
0.519975 -0.39468 -0.506 151 114 87
1.02359 -0.43914 -0.563 183 186 175
1.02573 -0.43914 -0.563 179 181 170
0.0299648 -0.337001 -0.431 195 154 126
0.04862 -0.335437 -0.429 188 145 113
0.0663933 -0.338565 -0.433 184 139 110
0.0830114 -0.342474 -0.438 153 109 96
0.0975019 -0.352639 -0.451 126 91 85
0.114386 -0.368277 -0.471 91 73 73
0.132169 -0.391734 -0.501 88 74 74
0.199229 -0.445686 -0.57 174 186 212
0.206829 -0.445686 -0.57 204 206 227
0.209 -0.445686 -0.57 203 209 225
0.212257 -0.445686 -0.57 202 205 222
0.388945 -0.444122 -0.568 199 202 207
0.410583 -0.444122 -0.568 48 79 136
0.412747 -0.444122 -0.568 51 80 140
0.413829 -0.444122 -0.568 52 81 141
0.432221 -0.444122 -0.568 178 183 187
0.455169 -0.446468 -0.571 167 164 171
0.475 -0.445686 -0.57 33 61 101
0.477171 -0.445686 -0.57 36 65 105
0.48307 -0.444122 -0.568 79 95 128
0.4584 -0.39408 -0.504 168 122 96
0.459407 -0.393298 -0.503 170 124 98
0.490652 -0.385479 -0.493 168 121 93
0.493406 -0.384697 -0.492 169 122 94
0.503014 -0.387043 -0.495 154 113 91
1.03012 -0.442558 -0.566 162 163 155
0.0246676 -0.344092 -0.439 190 150 124
0.0299648 -0.337822 -0.431 195 153 128
0.0647438 -0.33939 -0.433 185 138 110
0.0723333 -0.340173 -0.434 168 122 106
0.10915 -0.363688 -0.464 98 78 77
0.113007 -0.367607 -0.469 94 74 73
0.136218 -0.398959 -0.509 86 74 78
0.215136 -0.445988 -0.569 143 153 178
0.220555 -0.445988 -0.569 154 176 213
0.228142 -0.445988 -0.569 182 190 211
0.233561 -0.445988 -0.569 197 204 223
0.240064 -0.445988 -0.569 156 168 192
0.242231 -0.445988 -0.569 194 202 213
0.33485 -0.445204 -0.568 157 163 189
0.386781 -0.445204 -0.568 196 200 212
0.422484 -0.445204 -0.568 134 161 208
0.427893 -0.445204 -0.568 145 149 150
0.466314 -0.446771 -0.57 94 109 138
0.481989 -0.445204 -0.568 94 109 138
0.456814 -0.402094 -0.513 161 119 95
0.45698 -0.400527 -0.511 165 123 98
0.457328 -0.396608 -0.506 168 124 99
0.461362 -0.393472 -0.502 173 127 101
0.462318 -0.393472 -0.502 169 123 97
0.46811 -0.391121 -0.499 177 130 104
0.475688 -0.38877 -0.496 175 125 98
0.482201 -0.386418 -0.493 173 123 96
0.577757 -0.430311 -0.549 197 190 182
0.993561 -0.441285 -0.563 181 185 171
1.01 -0.442852 -0.565 155 158 151
1.02222 -0.44442 -0.567 121 122 117
1.03558 -0.445988 -0.569 124 127 120
0.0277619 -0.432143 -0.55 190 153 126
0.0370933 -0.336286 -0.428 196 155 127
0.0411695 -0.336286 -0.428 188 144 115
0.0436152 -0.336286 -0.428 191 147 120
0.0562352 -0.338643 -0.431 188 143 114
0.06048 -0.339429 -0.432 189 143 117
0.0637714 -0.339429 -0.432 185 139 115
0.0672181 -0.340214 -0.433 181 135 109
0.0696924 -0.340214 -0.433 173 127 103
0.0774714 -0.341786 -0.435 169 121 107
0.07848 -0.342571 -0.436 167 119 105
0.0803248 -0.343357 -0.437 162 116 103
0.132432 -0.394429 -0.502 88 72 73
0.199963 -0.447071 -0.569 200 205 225
0.227058 -0.447071 -0.569 161 176 207
0.229226 -0.447071 -0.569 183 188 207
0.38826 -0.4455 -0.567 202 203 208
0.38934 -0.4455 -0.567 208 209 214
0.3915 -0.4455 -0.567 191 191 191
0.39906 -0.4455 -0.567 146 168 207
0.42174 -0.4455 -0.567 105 130 171
0.42282 -0.4455 -0.567 157 165 178
0.42714 -0.4455 -0.567 175 176 180
0.43038 -0.4455 -0.567 179 183 195
0.432221 -0.446286 -0.568 179 183 195
0.439794 -0.446286 -0.568 175 178 185
0.4522 -0.447857 -0.57 170 171 176
0.467664 -0.447071 -0.569 128 142 168
0.45698 -0.4015 -0.511 164 122 97
0.457266 -0.398357 -0.507 167 123 98
0.46811 -0.392071 -0.499 176 129 103
0.48872 -0.386571 -0.492 169 122 94
0.491531 -0.386571 -0.492 169 122 94
0.493406 -0.386571 -0.492 169 122 94
0.975739 -0.441571 -0.562 164 165 159
1.00926 -0.4455 -0.567 133 135 132
1.03052 -0.448643 -0.571 105 105 103
1.04213 -0.449429 -0.572 107 109 106
0.0275019 -0.339464 -0.431 191 149 124
0.0370933 -0.337101 -0.428 192 150 125
0.0379086 -0.337101 -0.428 194 152 127
0.0586981 -0.339464 -0.431 184 140 111
0.0637714 -0.340251 -0.432 186 140 117
0.0840371 -0.345765 -0.439 151 107 96
0.0977181 -0.356004 -0.452 119 88 83
0.102057 -0.359154 -0.456 108 83 79
0.117413 -0.374907 -0.476 92 72 71
0.122152 -0.381208 -0.484 91 73 73
0.132696 -0.396172 -0.503 90 74 75
0.138805 -0.405624 -0.515 97 94 103
0.142953 -0.411925 -0.523 164 169 188
0.21043 -0.447368 -0.568 186 188 203
0.235314 -0.447368 -0.568 104 119 152
0.41418 -0.44658 -0.567 59 92 143
0.4239 -0.44658 -0.567 126 134 155
0.471999 -0.448155 -0.569 63 89 124
0.476579 -0.447368 -0.568 53 77 121
0.457266 -0.399323 -0.507 166 122 97
0.46906 -0.393022 -0.499 172 125 99
0.481223 -0.387509 -0.492 171 121 94
0.495209 -0.386721 -0.491 165 118 90
0.933017 -0.444217 -0.564 196 198 184
0.968246 -0.442642 -0.562 151 152 144
0.989557 -0.445005 -0.565 142 144 139
1.00022 -0.447368 -0.568 125 126 121
1.00209 -0.445792 -0.566 109 111 108
1.02937 -0.452093 -0.574 103 105 104
0.02576 -0.435817 -0.552 188 151 124
0.0236143 -0.343443 -0.435 191 151 125
0.0274381 -0.339495 -0.43 192 151 123
0.0411695 -0.337916 -0.428 187 146 118
0.0428 -0.337916 -0.428 191 147 118
0.0494371 -0.338706 -0.429 190 146 117
0.0586981 -0.340285 -0.431 180 136 109
0.087979 -0.34897 -0.442 142 99 93
0.09988 -0.358444 -0.454 115 87 84
0.171482 -0.44845 -0.568 156 163 182
0.213676 -0.44845 -0.568 174 181 199
0.27378 -0.44766 -0.567 118 133 164
0.409137 -0.44687 -0.566 110 142 201
0.412371 -0.44687 -0.566 66 99 153
0.43578 -0.44766 -0.567 179 181 193
0.470088 -0.44845 -0.568 94 119 150
0.472251 -0.44845 -0.568 68 90 127
0.461619 -0.41371 -0.524 154 116 95
0.459191 -0.409763 -0.519 157 115 91
0.458029 -0.402657 -0.51 163 118 95
0.479384 -0.389235 -0.493 178 128 101
0.483097 -0.388446 -0.492 174 124 97
0.492403 -0.387656 -0.491 169 122 92
0.91044 -0.443712 -0.562 197 199 185
0.940247 -0.450818 -0.571 192 193 179
0.952811 -0.444502 -0.563 164 165 157
0.962462 -0.444502 -0.563 140 141 133
1.00903 -0.452397 -0.573 102 104 101
1.04165 -0.457134 -0.579 99 100 102
0.0362781 -0.338731 -0.428 191 150 120
0.0478029 -0.339523 -0.429 186 142 113
0.0502543 -0.339523 -0.429 191 147 120
0.0613029 -0.341897 -0.432 181 135 109
0.0654171 -0.341897 -0.432 184 138 114
0.114871 -0.374346 -0.473 91 72 74
0.12922 -0.39334 -0.497 88 72 73
0.134983 -0.402046 -0.508 87 81 93
0.139074 -0.408377 -0.516 118 127 144
0.21762 -0.44874 -0.567 112 135 176
0.438246 -0.447949 -0.566 184 184 192
0.449531 -0.449531 -0.568 175 174 179
0.45791 -0.450323 -0.569 137 144 163
0.458993 -0.450323 -0.569 110 117 136
0.483748 -0.447157 -0.565 132 126 128
0.467517 -0.421831 -0.533 140 105 85
0.457874 -0.405211 -0.512 158 118 93
0.458029 -0.403629 -0.51 162 122 96
0.465238 -0.395714 -0.5 173 127 101
0.469069 -0.394131 -0.498 176 129 103
0.470966 -0.394131 -0.498 177 130 104
0.488662 -0.388591 -0.491 167 120 90
0.49895 -0.388591 -0.491 161 117 90
0.99373 -0.449531 -0.568 102 104 103
0.0242743 -0.34272 -0.432 189 150 121
0.059519 -0.341927 -0.431 181 135 111
0.0680429 -0.343513 -0.433 177 131 108
0.07316 -0.344307 -0.434 168 121 105
0.0739867 -0.344307 -0.434 167 120 104
0.0921733 -0.353827 -0.446 135 94 90
0.0932314 -0.35462 -0.447 133 94 89
0.119314 -0.3808 -0.48 92 74 74
0.22194 -0.44982 -0.567 93 126 179
0.22734 -0.44982 -0.567 155 177 218
0.23814 -0.44982 -0.567 201 199 223
0.45198 -0.44982 -0.567 167 170 175
0.459269 -0.450613 -0.568 60 79 111
0.46926 -0.44982 -0.567 79 90 118
0.473504 -0.429193 -0.541 132 103 85
0.458231 -0.40222 -0.507 167 125 100
0.460365 -0.399047 -0.503 171 127 100
0.475651 -0.391907 -0.494 171 124 96
0.499885 -0.389527 -0.491 163 118 89
0.527763 -0.40222 -0.507 142 107 87
0.569287 -0.427607 -0.539 180 164 149
1.00242 -0.458547 -0.578 106 107 101
1.00398 -0.457753 -0.577 107 107 107
0.02574 -0.341157 -0.429 189 148 120
0.0386333 -0.339567 -0.427 190 149 119
0.0715067 -0.345133 -0.434 171 124 108
0.0803248 -0.347519 -0.437 156 110 97
0.0840371 -0.34911 -0.439 148 104 95
0.0850667 -0.349905 -0.44 147 104 97
0.126046 -0.391257 -0.492 86 71 74
0.16578 -0.4509 -0.567 208 209 229
0.234486 -0.450105 -0.566 171 183 209
0.434243 -0.44931 -0.565 185 188 197
0.444714 -0.450105 -0.566 176 179 188
0.46926 -0.4509 -0.567 83 97 124
0.479213 -0.450105 -0.566 60 81 110
0.471903 -0.427838 -0.538 132 105 88
0.468532 -0.423862 -0.533 141 106 86
0.459255 -0.40239 -0.506 167 125 100
0.46426 -0.398414 -0.501 168 124 99
0.469069 -0.396029 -0.498 174 128 102
0.473798 -0.394438 -0.496 173 126 98
0.476592 -0.392848 -0.494 171 124 96
0.478445 -0.392052 -0.493 174 127 99
0.480323 -0.392052 -0.493 174 127 99
0.481223 -0.391257 -0.492 175 126 96
0.4914 -0.389667 -0.49 166 121 92
0.493267 -0.389667 -0.49 163 118 87
0.897005 -0.44931 -0.565 183 185 174
0.0394467 -0.34038 -0.427 191 147 118
0.0585619 -0.342771 -0.43 184 138 112
0.083201 -0.349946 -0.439 149 105 96
0.0890219 -0.353134 -0.443 137 96 90
0.0932314 -0.356323 -0.447 129 91 88
0.135514 -0.406543 -0.51 80 81 99
0.139883 -0.413717 -0.519 119 142 184
0.166566 -0.451183 -0.566 183 184 214
0.189206 -0.451183 -0.566 180 180 188
0.190284 -0.451183 -0.566 168 168 176
0.423806 -0.449589 -0.564 98 109 141
0.431326 -0.449589 -0.564 180 187 193
0.438548 -0.450386 -0.565 179 181 194
0.454417 -0.451183 -0.566 148 153 172
0.461964 -0.451183 -0.566 153 157 158
0.47729 -0.450386 -0.565 77 97 124
0.479443 -0.450386 -0.565 64 82 104
0.482891 -0.449589 -0.564 117 125 138
0.47788 -0.43524 -0.546 131 105 90
0.459407 -0.400963 -0.503 171 127 102
0.469069 -0.396977 -0.498 175 128 102
0.470966 -0.396977 -0.498 178 131 105
0.475671 -0.394586 -0.495 172 125 97
0.478445 -0.392991 -0.493 175 128 100
0.482115 -0.391397 -0.491 177 127 100
0.496917 -0.389803 -0.489 166 119 89
0.4998 -0.3906 -0.49 161 116 87
0.58084 -0.43524 -0.546 189 188 183
0.02108 -0.346787 -0.434 187 147 121
0.0305 -0.341193 -0.427 195 151 122
0.0418867 -0.341193 -0.427 189 145 116
0.0476914 -0.341992 -0.428 187 143 114
0.05434 -0.342791 -0.429 189 145 116
0.061161 -0.34439 -0.431 182 138 111
0.0705171 -0.345988 -0.433 171 124 108
0.0723333 -0.346787 -0.434 169 120 106
0.07848 -0.348385 -0.436 162 114 102
0.0821771 -0.349983 -0.438 150 106 97
0.167644 -0.452261 -0.566 88 104 138
0.436697 -0.450663 -0.564 181 180 194
0.446081 -0.451462 -0.565 168 172 184
0.4633 -0.451462 -0.565 159 162 171
0.475138 -0.451462 -0.565 105 125 152
0.469548 -0.425892 -0.533 138 106 91
0.462381 -0.399524 -0.5 172 124 101
0.473798 -0.396328 -0.496 171 124 98
0.476567 -0.39393 -0.493 175 125 100
0.477474 -0.393131 -0.492 177 127 100
0.480286 -0.393131 -0.492 177 127 100
0.480245 -0.392332 -0.491 178 128 101
0.483933 -0.391533 -0.49 180 129 102
0.494123 -0.390734 -0.489 164 117 87
0.511408 -0.39473 -0.494 144 106 83
0.58188 -0.43628 -0.546 191 186 180
0.862269 -0.449065 -0.562 193 195 182
0.0241057 -0.343609 -0.429 191 150 120
0.02568 -0.342808 -0.428 193 152 122
0.0272467 -0.342007 -0.427 192 151 121
0.0328629 -0.341206 -0.426 187 144 112
0.0435133 -0.342007 -0.427 187 142 113
0.0510714 -0.343609 -0.429 185 141 112
0.0637714 -0.346011 -0.432 181 135 111
0.0749857 -0.348414 -0.435 167 117 106
0.0803248 -0.350016 -0.437 157 109 97
0.0890219 -0.354822 -0.443 138 97 93
0.1001 -0.364433 -0.455 112 84 81
0.118153 -0.383656 -0.479 93 73 74
0.445005 -0.452538 -0.565 161 167 179
0.447157 -0.452538 -0.565 157 161 173
0.457919 -0.452538 -0.565 152 160 173
0.461148 -0.452538 -0.565 156 154 165
0.464376 -0.452538 -0.565 158 160 173
0.467605 -0.452538 -0.565 100 114 141
0.478594 -0.451737 -0.564 75 91 114
0.474686 -0.432514 -0.54 131 103 89
0.462946 -0.417296 -0.521 152 114 93
0.461361 -0.414092 -0.517 156 111 90
0.460642 -0.41169 -0.514 159 114 91
0.459825 -0.410088 -0.512 163 118 95
0.459197 -0.406083 -0.507 167 121 98
0.461362 -0.402078 -0.502 157 109 86
0.467159 -0.399675 -0.499 176 126 103
0.5084 -0.394069 -0.492 149 108 86
0.831047 -0.447732 -0.559 195 197 186
0.86994 -0.45414 -0.567 174 176 165
0.872718 -0.453339 -0.566 174 174 164
0.0304286 -0.342017 -0.426 198 154 125
0.0352971 -0.342017 -0.426 191 147 120
0.0401657 -0.342017 -0.426 186 141 110
0.0427 -0.34282 -0.427 190 145 114
0.04514 -0.34282 -0.427 186 141 112
0.0535229 -0.344426 -0.429 186 142 115
0.059381 -0.345229 -0.43 180 134 108
0.0654171 -0.346834 -0.432 174 128 105
0.0696924 -0.347637 -0.433 170 123 107
0.0758143 -0.349243 -0.435 165 115 104
0.0990152 -0.364497 -0.454 113 85 81
0.108733 -0.374131 -0.466 99 75 75
0.15236 -0.43836 -0.546 111 145 193
0.44744 -0.452811 -0.564 137 144 160
0.466529 -0.453614 -0.565 129 137 148
0.48439 -0.451206 -0.562 125 130 134
0.467154 -0.423909 -0.528 135 106 90
0.464613 -0.420697 -0.524 145 108 89
0.4599 -0.41026 -0.511 162 117 96
0.478411 -0.395006 -0.492 176 126 99
0.480245 -0.394203 -0.491 176 126 99
0.483933 -0.3934 -0.49 178 128 101
0.492183 -0.391794 -0.488 166 119 91
0.493957 -0.390991 -0.487 163 116 88
0.501574 -0.392597 -0.489 158 114 89
0.508302 -0.394203 -0.491 151 110 88
0.58289 -0.437557 -0.545 196 193 186
0.8336 -0.4496 -0.56 181 181 173
0.0203914 -0.441814 -0.549 183 147 121
0.0202067 -0.348462 -0.433 192 148 121
0.0232886 -0.345243 -0.429 193 149 122
0.0272467 -0.343633 -0.427 198 154 127
0.0459533 -0.343633 -0.427 188 144 115
0.0644448 -0.346852 -0.431 176 130 107
0.0678857 -0.347657 -0.432 171 124 104
0.108733 -0.375019 -0.466 98 73 76
0.121481 -0.39031 -0.485 92 74 74
0.123162 -0.392724 -0.488 91 73 73
0.138091 -0.415257 -0.516 119 121 144
0.418021 -0.452276 -0.562 191 195 204
0.430867 -0.452276 -0.562 129 141 165
0.43914 -0.453081 -0.563 160 172 194
0.453886 -0.453886 -0.564 139 153 179
0.46248 -0.453886 -0.564 157 161 170
0.472384 -0.453081 -0.563 117 127 152
0.463048 -0.418476 -0.52 150 108 86
0.469073 -0.399967 -0.497 177 127 104
0.477506 -0.396748 -0.493 175 128 100
0.499619 -0.392724 -0.488 160 116 91
0.810816 -0.449862 -0.559 195 196 188
0.822529 -0.449862 -0.559 189 191 180
0.846211 -0.452276 -0.562 141 142 134
0.853705 -0.452276 -0.562 130 131 123
0.0186857 -0.351707 -0.436 187 146 118
0.0224714 -0.34606 -0.429 193 149 120
0.0352143 -0.342833 -0.425 190 146 117
0.0485067 -0.345253 -0.428 186 142 115
0.0705171 -0.349287 -0.433 168 121 103
0.0739867 -0.350093 -0.434 164 117 101
0.0758143 -0.3509 -0.435 161 115 99
0.0803248 -0.352513 -0.437 153 110 94
0.083201 -0.354127 -0.439 146 106 94
0.0881781 -0.357353 -0.443 135 99 85
0.0892229 -0.35816 -0.444 131 95 83
0.09238 -0.36058 -0.447 124 90 88
0.103829 -0.371067 -0.46 104 78 79
0.136046 -0.413013 -0.512 91 103 125
0.426894 -0.45254 -0.561 185 191 203
0.436511 -0.45254 -0.561 160 177 205
0.463554 -0.45496 -0.564 155 163 165
0.474529 -0.454153 -0.563 122 134 160
0.476897 -0.453347 -0.562 87 102 131
0.477968 -0.453347 -0.562 72 87 116
0.473211 -0.432373 -0.536 124 100 88
0.460103 -0.409787 -0.508 165 118 92
0.460406 -0.404947 -0.502 168 121 95
0.463357 -0.402527 -0.499 168 121 95
0.464308 -0.402527 -0.499 168 121 95
0.478374 -0.396073 -0.491 176 126 101
0.804428 -0.450927 -0.559 186 186 178
0.835921 -0.454153 -0.563 126 125 120
0.842777 -0.45496 -0.564 128 127 122
0.85611 -0.455767 -0.565 118 118 110
0.880237 -0.46222 -0.573 113 113 105
0.0200667 -0.347686 -0.43 191 145 119
0.0287381 -0.343643 -0.425 196 153 121
0.04514 -0.34526 -0.427 191 143 120
0.0535229 -0.346877 -0.429 182 136 112
0.0794924 -0.353346 -0.437 152 109 93
0.0805086 -0.354154 -0.438 151 108 92
0.0823648 -0.354963 -0.439 145 103 91
0.0892229 -0.359006 -0.444 131 94 85
0.102729 -0.371134 -0.459 104 80 80
0.121731 -0.392966 -0.486 95 68 73
0.126814 -0.400243 -0.495 93 68 71
0.16461 -0.455226 -0.563 82 108 167
0.444783 -0.454417 -0.562 131 147 183
0.477968 -0.454417 -0.562 67 81 116
0.472463 -0.431777 -0.534 127 100 91
0.464829 -0.422074 -0.522 141 108 93
0.46032 -0.40752 -0.504 167 117 92
0.460406 -0.405903 -0.502 166 118 95
0.464326 -0.402669 -0.498 168 121 95
0.466223 -0.402669 -0.498 167 120 94
0.469074 -0.401051 -0.496 175 123 99
0.471909 -0.401051 -0.496 173 123 98
0.474689 -0.398626 -0.493 176 126 99
0.479267 -0.3962 -0.49 176 126 99
0.485676 -0.394583 -0.488 174 124 97
0.496646 -0.392966 -0.486 163 117 91
0.497571 -0.392966 -0.486 163 117 91
0.506126 -0.394583 -0.488 158 114 87
0.510067 -0.3962 -0.49 153 109 80
0.817309 -0.454417 -0.562 156 156 148
0.836331 -0.456034 -0.564 115 116 108
0.83848 -0.456034 -0.564 112 113 107
0.877611 -0.462503 -0.572 119 118 113
0.0216038 -0.346884 -0.428 193 148 125
0.0319762 -0.344452 -0.425 192 150 112
0.0360238 -0.344452 -0.425 189 149 113
0.0476914 -0.346884 -0.428 187 139 116
0.0551571 -0.347694 -0.429 178 132 106
0.07316 -0.351747 -0.434 164 116 96
0.0862952 -0.35823 -0.442 137 99 88
0.136311 -0.415774 -0.513 94 117 161
0.468277 -0.427121 -0.527 138 105 98
0.462351 -0.406049 -0.501 169 123 99
0.470957 -0.401186 -0.495 174 124 99
0.47377 -0.400375 -0.494 175 125 98
0.4756 -0.398754 -0.492 176 126 99
0.476504 -0.397944 -0.491 169 119 92
0.479267 -0.397133 -0.49 177 127 100
0.484747 -0.395512 -0.488 174 127 97
0.491091 -0.393891 -0.486 165 119 86
0.499319 -0.393081 -0.485 163 118 87
0.578527 -0.436847 -0.539 198 185 176
0.827342 -0.456298 -0.563 117 117 109
0.834183 -0.457109 -0.564 117 118 110
0.0182 -0.44356 -0.546 184 145 114
0.0170638 -0.35501 -0.437 187 148 115
0.0678857 -0.350949 -0.432 173 123 100
0.0749857 -0.353386 -0.435 161 113 93
0.0970714 -0.368009 -0.453 114 85 81
0.120309 -0.393192 -0.484 91 70 75
0.46084 -0.456558 -0.562 165 170 173
0.462981 -0.456558 -0.562 153 156 163
0.470014 -0.402129 -0.495 176 126 101
0.472843 -0.402129 -0.495 174 124 99
0.472829 -0.401316 -0.494 172 122 97
0.476504 -0.398879 -0.491 171 121 94
0.477439 -0.398879 -0.491 170 120 93
0.489157 -0.394005 -0.485 170 124 90
0.501167 -0.394005 -0.485 164 119 88
0.507985 -0.396442 -0.488 154 111 79
0.516946 -0.400504 -0.493 147 110 84
0.823824 -0.458995 -0.565 119 120 112
0.845509 -0.461432 -0.568 117 118 112
0.848754 -0.461432 -0.568 119 120 114
0.873253 -0.464682 -0.572 122 125 116
0.0169857 -0.354214 -0.435 189 149 114
0.0231257 -0.346886 -0.426 192 152 117
0.027119 -0.346071 -0.425 191 151 115
0.0434114 -0.346886 -0.426 188 143 110
0.0510714 -0.349329 -0.429 185 140 111
0.0561048 -0.350143 -0.43 179 134 105
0.0569238 -0.350143 -0.43 178 133 104
0.0670629 -0.351771 -0.432 172 124 101
0.0813429 -0.356657 -0.438 143 103 91
0.0927933 -0.365614 -0.449 123 89 87
0.0983667 -0.3705 -0.455 112 84 83
0.11283 -0.384343 -0.472 92 74 74
0.12879 -0.406329 -0.499 85 70 75
0.134543 -0.415286 -0.51 99 88 104
0.136577 -0.418543 -0.514 84 101 145
0.236689 -0.456814 -0.561 189 193 205
0.448266 -0.456814 -0.561 45 79 127
0.453347 -0.457629 -0.562 157 173 188
0.454417 -0.457629 -0.562 158 165 158
0.456814 -0.456814 -0.561 162 162 170
0.461089 -0.456814 -0.561 164 169 165
0.462157 -0.456814 -0.561 143 146 153
0.466431 -0.456814 -0.561 71 94 135
0.467608 -0.426686 -0.524 130 103 92
0.465923 -0.424243 -0.521 134 106 92
0.4635 -0.419357 -0.515 145 112 93
0.461183 -0.412029 -0.506 154 114 88
0.46128 -0.4104 -0.504 159 119 93
0.470957 -0.403071 -0.495 174 124 99
0.472843 -0.403071 -0.495 175 125 100
0.481083 -0.398186 -0.489 179 132 102
0.485609 -0.396557 -0.487 176 129 99
0.506944 -0.396557 -0.487 154 110 81
0.508914 -0.397371 -0.488 153 109 80
0.811623 -0.459257 -0.564 113 114 108
0.81629 -0.460071 -0.565 119 120 112
0.818443 -0.460071 -0.565 124 125 119
0.824204 -0.460886 -0.566 119 120 112
0.83754 -0.4617 -0.567 120 120 112
0.859763 -0.464957 -0.571 122 121 116
0.883085 -0.469843 -0.577 123 123 115
0.0270552 -0.346065 -0.424 194 151 116
0.0335162 -0.346065 -0.424 186 143 109
0.040881 -0.346881 -0.425 184 141 106
0.0501371 -0.34933 -0.428 183 136 106
0.0527057 -0.350146 -0.429 183 136 108
0.0535229 -0.350146 -0.429 182 135 107
0.10054 -0.372999 -0.457 106 80 81
0.164026 -0.457883 -0.561 102 129 176
0.410466 -0.45625 -0.559 106 137 183
0.430696 -0.45625 -0.559 75 98 142
0.437867 -0.457067 -0.56 48 80 131
0.4675 -0.457883 -0.561 71 94 136
0.472222 -0.45625 -0.559 52 75 117
0.473287 -0.45625 -0.559 48 71 112
0.476481 -0.45625 -0.559 57 82 122
0.481805 -0.45625 -0.559 111 124 141
0.470019 -0.40483 -0.496 174 127 101
0.47377 -0.403198 -0.494 174 124 99
0.484681 -0.397485 -0.487 175 128 98
0.808757 -0.461148 -0.565 102 102 102
0.827116 -0.463596 -0.568 118 119 111
0.843449 -0.466045 -0.571 121 122 116
0.848194 -0.466861 -0.572 121 122 116
0.87412 -0.468493 -0.574 124 124 116
0.0302857 -0.346872 -0.424 194 154 119
0.0518886 -0.350963 -0.429 181 134 106
0.0577429 -0.351781 -0.43 177 130 104
0.0619819 -0.352599 -0.431 176 131 102
0.0678857 -0.353417 -0.432 169 123 99
0.0927933 -0.367325 -0.449 121 90 87
0.0938571 -0.368143 -0.45 120 89 87
0.0994514 -0.373051 -0.456 108 80 79
0.101854 -0.375506 -0.459 103 77 78
0.105388 -0.378778 -0.463 97 75 78
0.106729 -0.380414 -0.465 96 74 77
0.441344 -0.457315 -0.559 41 73 134
0.453609 -0.458951 -0.561 155 157 154
0.478817 -0.456497 -0.558 44 75 119
0.470285 -0.431136 -0.527 126 99 88
0.4644 -0.422137 -0.516 141 108 91
0.471888 -0.404139 -0.494 173 123 96
0.473726 -0.402503 -0.492 174 124 97
0.47917 -0.39923 -0.488 177 127 100
0.482826 -0.398412 -0.487 179 129 102
0.490914 -0.395958 -0.484 171 122 92
0.492758 -0.395958 -0.484 172 123 93
0.585826 -0.44259 -0.541 198 191 183
0.831114 -0.466314 -0.57 119 120 112
0.834371 -0.466314 -0.57 119 119 111
0.868653 -0.469587 -0.574 108 109 103
0.87084 -0.469587 -0.574 105 106 100
0.871933 -0.469587 -0.574 102 103 95
0.877166 -0.471223 -0.576 102 103 95
0.0190686 -0.34932 -0.426 193 150 118
0.02544 -0.34768 -0.424 192 151 119
0.0286705 -0.34768 -0.424 195 152 118
0.03102 -0.34686 -0.423 195 152 118
0.0326314 -0.34686 -0.423 189 146 112
0.0483933 -0.35014 -0.427 181 134 104
0.0644448 -0.35342 -0.431 178 131 105
0.0896248 -0.36572 -0.446 128 94 85
0.117486 -0.3936 -0.48 92 73 67
0.422486 -0.45756 -0.558 154 159 162
0.428863 -0.45756 -0.558 165 175 185
0.430989 -0.45756 -0.558 125 142 170
0.433114 -0.45756 -0.558 54 81 126
0.475514 -0.43788 -0.534 124 97 88
0.4695 -0.4305 -0.525 128 100 88
0.466111 -0.42558 -0.519 138 105 90
0.461323 -0.41246 -0.503 158 117 97
0.46813 -0.40672 -0.496 168 122 96
0.481898 -0.39934 -0.487 177 128 98
0.5645 -0.4305 -0.525 139 108 80
0.569809 -0.43378 -0.529 162 131 103
0.580471 -0.44034 -0.537 197 181 165
0.830397 -0.46822 -0.571 121 122 116
0.872357 -0.4715 -0.575 101 104 97
0.0286029 -0.347666 -0.423 194 151 119
0.0467667 -0.350953 -0.427 184 137 107
0.0509524 -0.351775 -0.428 183 136 106
0.05434 -0.352597 -0.429 180 133 105
0.0619819 -0.354241 -0.431 180 133 107
0.103176 -0.378898 -0.461 101 77 73
0.113309 -0.389583 -0.474 91 73 73
0.123919 -0.403555 -0.491 85 67 65
0.432051 -0.458623 -0.558 108 131 172
0.439491 -0.458623 -0.558 35 67 128
0.44268 -0.458623 -0.558 33 68 124
0.466667 -0.460267 -0.56 55 82 127
0.471377 -0.458623 -0.558 29 62 113
0.483264 -0.457801 -0.557 121 123 136
0.485386 -0.457801 -0.557 121 120 125
0.478051 -0.442185 -0.538 116 97 91
0.462948 -0.41835 -0.509 153 112 90
0.463306 -0.411774 -0.501 163 117 91
0.471871 -0.405199 -0.493 169 123 97
0.480909 -0.399446 -0.486 175 128 98
0.498985 -0.396158 -0.482 159 115 86
0.820609 -0.469308 -0.571 47 48 43
0.822784 -0.469308 -0.571 92 93 88
0.823871 -0.469308 -0.571 122 123 118
0.859611 -0.473417 -0.576 107 110 103
0.868389 -0.473417 -0.576 119 121 116
0.869486 -0.473417 -0.576 130 132 127
0.870583 -0.473417 -0.576 114 116 111
0.03666 -0.348471 -0.423 184 137 109
0.040881 -0.350119 -0.425 180 135 106
0.0509524 -0.35259 -0.428 183 136 106
0.0559743 -0.353414 -0.429 178 131 103
0.0626571 -0.354238 -0.43 180 133 107
0.0652657 -0.355062 -0.431 169 123 99
0.0815286 -0.361652 -0.439 142 97 91
0.0846114 -0.364124 -0.442 138 95 88
0.0856467 -0.364948 -0.443 136 95 89
0.0866857 -0.365771 -0.444 135 94 88
0.09088 -0.369067 -0.448 129 89 87
0.111931 -0.388838 -0.472 93 72 71
0.129306 -0.412729 -0.501 86 70 80
0.13331 -0.419319 -0.509 101 105 132
0.162376 -0.46051 -0.559 201 212 232
0.420668 -0.458862 -0.557 198 199 204
0.42385 -0.458862 -0.557 149 147 148
0.45838 -0.46051 -0.559 169 172 179
0.465833 -0.46051 -0.559 44 76 123
0.484325 -0.458862 -0.557 124 128 140
0.486632 -0.458038 -0.556 73 71 74
0.478186 -0.442386 -0.537 124 96 85
0.462147 -0.416848 -0.506 151 114 88
0.462195 -0.416024 -0.505 153 116 90
0.464286 -0.411905 -0.5 165 121 94
0.46813 -0.40861 -0.496 168 123 94
0.468129 -0.407786 -0.495 169 124 95
0.473726 -0.405314 -0.492 171 126 97
0.476426 -0.402843 -0.489 175 128 100
0.481767 -0.399548 -0.485 176 129 99
0.48269 -0.399548 -0.485 175 128 98
0.484461 -0.398724 -0.484 176 129 99
0.48898 -0.3979 -0.483 171 124 94
0.501739 -0.397076 -0.482 157 113 84
0.516477 -0.402843 -0.489 148 107 77
0.581432 -0.441562 -0.536 196 182 171
0.853029 -0.474514 -0.576 101 104 97
0.0166733 -0.35258 -0.427 187 148 119
0.0245743 -0.349277 -0.423 193 149 120
0.0358543 -0.349277 -0.423 185 138 110
0.0391695 -0.350103 -0.424 185 138 110
0.0442229 -0.351754 -0.426 184 139 110
0.0483933 -0.35258 -0.427 180 133 103
0.0576086 -0.354231 -0.429 179 132 104
0.0626571 -0.355057 -0.43 178 132 108
0.08358 -0.36414 -0.441 135 95 87
0.161311 -0.461574 -0.559 197 209 223
0.19716 -0.460749 -0.558 117 127 152
0.205663 -0.460749 -0.558 193 201 214
0.210977 -0.460749 -0.558 104 126 163
0.216291 -0.460749 -0.558 121 143 182
0.431277 -0.459923 -0.557 117 145 193
0.433399 -0.459923 -0.557 54 90 150
0.437643 -0.459923 -0.557 40 69 135
0.446931 -0.460749 -0.558 88 107 124
0.454121 -0.461574 -0.559 125 135 145
0.455186 -0.461574 -0.559 147 157 167
0.479967 -0.44506 -0.539 122 94 82
0.464286 -0.412857 -0.5 163 119 92
0.470914 -0.406251 -0.492 169 123 97
0.475533 -0.4046 -0.49 174 129 100
0.47731 -0.402949 -0.488 174 129 98
0.480099 -0.402949 -0.488 174 129 98
0.494171 -0.396343 -0.48 169 124 95
0.496 -0.396343 -0.48 166 121 92
0.497829 -0.396343 -0.48 154 110 81
0.503575 -0.397994 -0.482 159 116 84
0.571749 -0.435977 -0.528 167 148 133
0.577093 -0.43928 -0.532 191 172 157
0.826357 -0.474786 -0.575 25 26 20
0.842413 -0.47396 -0.574 101 102 96
0.874292 -0.476437 -0.577 100 103 96
0.881734 -0.478089 -0.579 35 38 29
0.0261238 -0.349255 -0.422 193 149 120
0.0317505 -0.349255 -0.422 189 144 115
0.0350486 -0.350083 -0.423 186 141 110
0.0492067 -0.353393 -0.427 182 135 105
0.09088 -0.370773 -0.448 125 86 79
0.093 -0.372429 -0.45 117 86 83
0.0985829 -0.377394 -0.456 104 80 76
0.106958 -0.38567 -0.466 98 74 72
0.109433 -0.388153 -0.469 98 72 71
0.126126 -0.410499 -0.496 88 68 69
0.165274 -0.461811 -0.558 169 176 194
0.420971 -0.460156 -0.556 194 196 208
0.44507 -0.460984 -0.557 57 87 139
0.463937 -0.461811 -0.558 52 82 132
0.479219 -0.460156 -0.556 44 72 112
0.464701 -0.423741 -0.512 147 106 88
0.463917 -0.421258 -0.509 150 109 87
0.469071 -0.409671 -0.495 170 123 95
0.471828 -0.406361 -0.491 170 123 95
0.47731 -0.403878 -0.488 173 128 97
0.47917 -0.403878 -0.488 174 129 98
0.492558 -0.398912 -0.482 173 126 98
0.505411 -0.398912 -0.482 157 114 82
0.511329 -0.401395 -0.485 157 114 82
0.533692 -0.412982 -0.499 147 106 76
0.831086 -0.476709 -0.576 82 81 76
0.836214 -0.475881 -0.575 128 132 131
0.835853 -0.475053 -0.574 119 124 120
0.857807 -0.477536 -0.577 108 109 103
0.867 -0.478364 -0.578 114 116 111
0.873193 -0.477536 -0.577 101 104 97
0.874292 -0.477536 -0.577 101 104 97
0.876909 -0.478364 -0.578 98 101 94
0.0150819 -0.355036 -0.428 186 145 115
0.0166343 -0.353377 -0.426 186 145 115
0.0341619 -0.350059 -0.422 186 143 111
0.0458457 -0.353377 -0.426 182 135 105
0.0550286 -0.355036 -0.428 182 135 107
0.0670629 -0.358354 -0.432 168 121 101
0.0815286 -0.364161 -0.439 137 97 87
0.0919381 -0.372456 -0.449 118 87 85
0.10098 -0.380751 -0.459 100 79 74
0.126126 -0.411444 -0.496 88 68 70
0.127839 -0.413932 -0.499 90 70 72
0.21166 -0.462045 -0.557 118 140 177
0.214843 -0.462045 -0.557 137 161 197
0.43368 -0.461215 -0.556 42 76 137
0.44613 -0.462045 -0.557 51 80 120
0.459923 -0.462045 -0.557 91 101 126
0.462045 -0.462045 -0.557 68 84 118
0.472865 -0.461215 -0.556 39 67 115
0.483455 -0.461215 -0.556 121 128 146
0.474085 -0.438818 -0.529 119 96 88
0.466366 -0.428034 -0.516 140 104 92
0.465537 -0.426375 -0.514 143 105 86
0.468124 -0.409785 -0.494 172 122 95
0.4746 -0.406467 -0.49 175 128 100
0.484461 -0.40149 -0.484 177 128 98
0.83177 -0.479465 -0.578 29 24 18
0.83328 -0.477806 -0.576 121 123 120
0.834377 -0.477806 -0.576 119 121 120
0.8395 -0.476976 -0.575 103 106 99
0.849014 -0.478635 -0.577 98 99 94
0.85451 -0.478635 -0.577 99 100 95
0.855609 -0.478635 -0.577 101 102 97
0.871404 -0.479465 -0.578 118 121 114
0.891573 -0.484442 -0.584 91 96 90
0.0113143 -0.365829 -0.44 186 145 115
0.0204971 -0.350863 -0.422 189 146 114
0.0245162 -0.350863 -0.422 188 143 112
0.0374657 -0.351694 -0.423 185 141 106
0.0407848 -0.352526 -0.424 184 139 106
0.0433095 -0.353357 -0.425 183 137 104
0.0466571 -0.354189 -0.426 182 135 105
0.0687086 -0.359177 -0.432 165 118 100
0.0825524 -0.365829 -0.44 134 94 86
0.0932067 -0.374974 -0.451 116 85 83
0.105843 -0.386614 -0.465 98 74 72
0.129822 -0.418209 -0.503 79 75 90
0.422329 -0.461443 -0.555 80 104 142
0.426557 -0.461443 -0.555 86 109 150
0.462274 -0.462274 -0.556 68 100 141
0.463973 -0.422366 -0.508 157 111 87
0.464119 -0.419871 -0.505 158 112 86
0.468129 -0.411557 -0.495 169 122 96
0.469065 -0.410726 -0.494 173 123 96
0.476426 -0.406569 -0.489 173 126 96
0.479115 -0.404906 -0.487 172 125 95
0.488886 -0.400749 -0.482 179 128 99
0.490514 -0.399086 -0.48 176 127 97
0.493257 -0.399086 -0.48 175 126 96
0.494054 -0.398254 -0.479 173 126 98
0.498616 -0.398254 -0.479 167 122 93
0.531429 -0.412389 -0.496 145 106 77
0.835752 -0.482229 -0.58 25 24 20
0.836571 -0.478903 -0.576 118 122 121
0.838766 -0.478903 -0.576 120 125 121
0.849014 -0.479734 -0.577 79 80 75
0.862596 -0.480566 -0.578 97 98 93
0.869603 -0.481397 -0.579 100 102 97
0.87622 -0.481397 -0.579 107 110 103
0.0236562 -0.350833 -0.421 187 144 110
0.0382714 -0.3525 -0.423 183 138 105
0.0433095 -0.354167 -0.425 183 137 104
0.0713419 -0.360833 -0.433 160 113 97
0.0776495 -0.363333 -0.436 149 102 94
0.086881 -0.370833 -0.445 132 92 90
0.0953457 -0.3775 -0.453 109 79 77
0.117975 -0.401667 -0.482 94 70 70
0.442152 -0.463333 -0.556 39 68 128
0.44427 -0.463333 -0.556 54 87 141
0.454861 -0.463333 -0.556 165 178 186
0.46757 -0.463333 -0.556 48 79 123
0.4699 -0.4625 -0.555 29 66 121
0.470957 -0.4625 -0.555 38 75 130
0.464197 -0.419167 -0.503 158 112 88
0.470932 -0.410833 -0.493 167 120 92
0.479057 -0.405 -0.486 169 122 92
0.49223 -0.399167 -0.479 174 125 95
0.499529 -0.399167 -0.479 164 119 90
0.509084 -0.401667 -0.482 156 115 85
0.839863 -0.48 -0.576 118 123 119
0.844251 -0.48 -0.576 99 100 95
0.850486 -0.481667 -0.578 61 62 57
0.86779 -0.483333 -0.58 109 111 106
0.871105 -0.483333 -0.58 111 113 108
0.0157857 -0.354976 -0.425 186 143 108
0.0508333 -0.356647 -0.427 185 138 110
0.0542133 -0.357482 -0.428 178 131 103
0.0558438 -0.357482 -0.428 178 131 103
0.0825524 -0.367505 -0.44 133 93 85
0.0977143 -0.380869 -0.456 101 76 72
0.104506 -0.386715 -0.463 98 79 75
0.109667 -0.392562 -0.47 95 74 71
0.159387 -0.464392 -0.556 193 200 219
0.161505 -0.464392 -0.556 199 205 219
0.426557 -0.463557 -0.555 93 126 169
