ply
format ascii 1.0
comment Created by Open3D
element vertex 1306
property double x
property double y
property double z
property uchar red
property uchar green
property uchar blue
end_header
0.422955 -0.188582 -0.517 137 90 82
0.425747 -0.188947 -0.518 130 87 80
0.443098 -0.190041 -0.521 134 93 89
-0.313414 -0.2343 -0.639 251 252 246
-0.152199 -0.237233 -0.647 191 189 177
0.0992914 -0.2112 -0.576 124 90 91
0.115799 -0.224033 -0.611 107 74 83
0.320428 -0.186633 -0.509 129 100 102
0.322701 -0.186267 -0.508 128 99 101
0.339926 -0.184067 -0.502 181 158 166
0.355753 -0.187367 -0.511 54 47 55
0.465916 -0.230267 -0.628 77 73 96
0.409278 -0.192867 -0.526 185 138 132
0.415257 -0.1892 -0.516 163 110 102
0.41624 -0.1892 -0.516 160 107 99
0.420986 -0.189567 -0.517 138 88 81
0.422955 -0.189567 -0.517 134 87 79
0.4325 -0.1903 -0.519 130 87 80
0.436305 -0.190667 -0.52 136 93 87
0.447788 -0.191767 -0.523 128 87 85
0.462587 -0.195067 -0.532 134 95 90
-0.0443562 -0.235149 -0.638 66 65 71
0.102719 -0.214877 -0.583 120 85 92
0.11792 -0.22704 -0.616 108 77 83
0.123806 -0.231463 -0.628 108 79 81
0.306931 -0.189446 -0.514 133 103 105
0.311589 -0.188709 -0.512 132 102 102
0.314873 -0.18834 -0.511 131 101 101
0.31682 -0.18834 -0.511 131 101 101
0.324322 -0.186497 -0.506 129 100 102
0.337729 -0.185391 -0.503 209 184 190
0.484942 -0.238466 -0.647 85 80 102
0.420986 -0.190551 -0.517 137 88 81
0.42772 -0.19092 -0.518 136 93 86
0.447788 -0.192763 -0.523 129 88 86
0.470878 -0.198291 -0.538 136 96 94
0.478202 -0.200503 -0.544 126 87 88
-0.313414 -0.236734 -0.639 251 252 246
-0.270524 -0.24081 -0.65 251 252 247
-0.155914 -0.237846 -0.642 190 187 178
-0.154425 -0.239328 -0.646 191 188 179
-0.0575429 -0.235623 -0.636 64 61 68
-0.0536543 -0.234511 -0.633 62 61 69
-0.0455 -0.235993 -0.637 66 65 71
0.0755381 -0.20265 -0.547 188 154 144
0.0779057 -0.203391 -0.549 184 148 136
0.30218 -0.193018 -0.521 131 99 102
0.302413 -0.191907 -0.518 135 103 106
0.307311 -0.190054 -0.513 134 104 106
0.31098 -0.189313 -0.511 132 102 102
0.473807 -0.235993 -0.637 99 96 117
0.408365 -0.193018 -0.521 183 134 127
0.415257 -0.191166 -0.516 154 105 98
0.4325 -0.192277 -0.519 147 102 96
0.435466 -0.192277 -0.519 132 87 82
0.444943 -0.193389 -0.522 137 93 90
0.445937 -0.193389 -0.522 134 90 87
-0.308546 -0.237951 -0.639 154 157 150
-0.156157 -0.239441 -0.643 191 188 179
-0.0585695 -0.23609 -0.634 64 61 68
-0.0421886 -0.239069 -0.642 69 68 74
0.0559 -0.208161 -0.559 212 179 170
0.0981943 -0.214491 -0.576 117 91 94
0.118303 -0.230131 -0.618 104 77 84
0.135363 -0.241675 -0.649 142 121 140
0.305775 -0.199596 -0.536 109 89 101
0.303797 -0.19699 -0.529 113 96 104
0.3025 -0.1955 -0.525 118 101 109
0.307311 -0.191031 -0.513 134 104 106
0.308663 -0.190659 -0.512 132 102 104
0.325286 -0.188425 -0.506 128 99 101
0.33264 -0.18768 -0.504 125 100 103
0.33677 -0.187308 -0.503 167 144 150
0.408154 -0.194383 -0.522 184 135 128
0.445937 -0.194383 -0.522 131 90 84
0.462587 -0.198107 -0.532 135 96 89
-0.30659 -0.239543 -0.64 141 144 137
-0.160305 -0.239543 -0.64 191 188 179
-0.157867 -0.239543 -0.64 191 188 179
-0.151667 -0.243286 -0.65 193 190 181
-0.0639 -0.239169 -0.639 67 64 71
-0.0624867 -0.23842 -0.637 66 63 70
-0.0399286 -0.241414 -0.645 69 68 76
0.07672 -0.205109 -0.548 182 150 135
0.0779057 -0.205483 -0.549 180 144 130
0.421426 -0.218209 -0.583 110 108 129
0.413746 -0.200991 -0.537 145 113 116
0.425747 -0.19388 -0.518 142 97 91
0.426733 -0.19388 -0.518 145 102 95
0.42772 -0.19388 -0.518 145 102 95
0.442106 -0.195003 -0.521 136 93 86
0.483806 -0.205109 -0.548 133 94 89
-0.275437 -0.243395 -0.647 248 248 246
-0.273394 -0.243771 -0.648 255 255 253
-0.153431 -0.243395 -0.647 193 190 181
-0.0679743 -0.24189 -0.643 67 64 71
-0.0635 -0.238881 -0.635 66 63 72
0.0625743 -0.204271 -0.543 210 176 166
0.0677457 -0.204271 -0.543 205 169 157
0.0926657 -0.214052 -0.569 125 94 92
0.124791 -0.238129 -0.633 104 82 85
0.313286 -0.191857 -0.51 132 102 102
0.31655 -0.191481 -0.509 131 101 103
0.325286 -0.190352 -0.506 123 98 102
0.335812 -0.189224 -0.503 217 198 204
0.34416 -0.1896 -0.504 127 98 102
0.351452 -0.191481 -0.509 48 36 40
0.418152 -0.21819 -0.58 112 110 131
0.413907 -0.194867 -0.518 168 114 102
0.414092 -0.19449 -0.517 164 114 105
0.426733 -0.194867 -0.518 143 99 90
-0.304152 -0.241981 -0.64 156 158 153
-0.274629 -0.245006 -0.648 253 253 251
-0.159086 -0.241981 -0.64 191 188 179
-0.157867 -0.241981 -0.64 191 188 179
-0.0544267 -0.237444 -0.628 64 63 69
-0.0422543 -0.243115 -0.643 66 66 74
-0.0377038 -0.245384 -0.649 69 68 76
0.0755381 -0.206818 -0.547 178 142 128
0.0869333 -0.211733 -0.56 141 106 102
0.12861 -0.241981 -0.64 100 79 84
0.305743 -0.197366 -0.522 130 101 106
0.306548 -0.194719 -0.515 134 102 105
0.315229 -0.192829 -0.51 132 102 104
0.337729 -0.190182 -0.503 122 101 110
0.338013 -0.189804 -0.502 134 105 107
0.342519 -0.190182 -0.503 123 94 98
0.345805 -0.190938 -0.505 105 82 88
0.350483 -0.19245 -0.509 51 40 48
0.476038 -0.241981 -0.64 83 74 95
0.482962 -0.24425 -0.646 83 74 95
0.418031 -0.195475 -0.517 148 99 92
0.419016 -0.195475 -0.517 149 100 93
0.42476 -0.195853 -0.518 144 97 89
0.4525 -0.1985 -0.525 129 85 82
-0.309029 -0.2432 -0.64 252 252 250
-0.30659 -0.2432 -0.64 247 249 244
-0.303407 -0.24358 -0.641 175 178 171
-0.161776 -0.24358 -0.641 190 187 178
-0.0603114 -0.23826 -0.627 63 62 68
-0.03882 -0.24586 -0.647 67 67 77
-0.0365238 -0.247 -0.65 69 69 79
0.0594714 -0.20634 -0.543 210 178 165
0.0721476 -0.2071 -0.545 186 150 138
0.0843457 -0.21166 -0.557 149 110 105
0.10987 -0.22952 -0.604 106 81 85
0.12122 -0.23826 -0.627 101 76 82
0.31655 -0.19342 -0.509 131 101 103
0.317519 -0.19342 -0.509 132 102 104
0.317863 -0.19304 -0.508 132 102 104
0.31883 -0.19304 -0.508 131 101 103
0.323031 -0.19266 -0.507 130 100 102
0.423773 -0.19684 -0.518 145 98 92
-0.311953 -0.244801 -0.641 252 253 247
-0.27667 -0.247092 -0.647 205 205 205
-0.0578305 -0.239072 -0.626 66 65 73
-0.0566381 -0.239072 -0.626 64 63 71
0.05668 -0.20852 -0.546 213 184 170
0.0633743 -0.20661 -0.541 206 172 160
0.0698143 -0.207374 -0.543 195 159 147
0.0709791 -0.207756 -0.544 188 152 140
0.0886286 -0.215394 -0.564 127 97 95
0.0900209 -0.216158 -0.566 122 92 90
0.0976029 -0.221123 -0.579 111 89 91
0.106323 -0.227997 -0.597 104 82 84
0.12122 -0.239454 -0.627 99 78 83
0.307543 -0.19859 -0.52 130 101 106
0.311343 -0.194771 -0.51 130 100 102
0.322701 -0.194008 -0.508 130 100 102
0.48024 -0.245947 -0.644 82 77 99
0.409362 -0.20241 -0.53 174 129 124
0.435466 -0.198209 -0.519 137 92 87
-0.284414 -0.247557 -0.645 253 253 251
-0.165243 -0.247557 -0.645 192 191 186
-0.159334 -0.246022 -0.641 190 187 178
-0.07462 -0.244487 -0.637 68 65 72
-0.0715133 -0.242184 -0.631 62 56 66
-0.0490629 -0.244103 -0.636 66 64 75
0.0887857 -0.216852 -0.565 125 97 96
0.0915819 -0.218388 -0.569 114 93 92
0.101188 -0.225296 -0.587 107 87 88
0.317519 -0.195359 -0.509 129 98 103
0.33264 -0.19344 -0.504 212 193 197
0.337729 -0.193056 -0.503 125 100 104
0.407372 -0.199965 -0.521 188 134 124
0.41588 -0.198813 -0.518 153 103 96
0.417853 -0.198813 -0.518 144 94 87
0.4525 -0.2015 -0.525 121 77 74
0.460848 -0.203419 -0.53 136 89 81
-0.318078 -0.249171 -0.646 253 254 249
-0.302186 -0.247243 -0.641 252 253 247
-0.297766 -0.247629 -0.642 248 249 243
-0.275863 -0.249943 -0.648 185 184 182
-0.162743 -0.246857 -0.64 191 191 179
-0.152199 -0.249557 -0.647 195 193 181
-0.0823333 -0.250714 -0.65 92 92 90
-0.0634867 -0.2403 -0.623 66 65 73
-0.0589286 -0.241071 -0.625 65 64 72
0.309109 -0.199029 -0.516 128 102 105
0.309869 -0.198257 -0.514 132 103 107
0.31655 -0.196329 -0.509 131 100 105
0.316895 -0.195943 -0.508 130 99 104
0.434132 -0.231043 -0.599 67 64 83
0.414893 -0.1998 -0.518 159 109 102
0.422787 -0.1998 -0.518 139 91 87
-0.276289 -0.251565 -0.649 169 169 167
-0.275476 -0.251952 -0.65 172 172 170
-0.161524 -0.248076 -0.64 191 191 179
-0.157867 -0.248076 -0.64 189 189 177
-0.0797229 -0.247689 -0.639 73 72 78
-0.0599267 -0.241487 -0.623 66 65 73
-0.0546 -0.2442 -0.63 66 65 73
-0.0534848 -0.244588 -0.631 66 65 73
0.101532 -0.228308 -0.589 112 88 84
0.317753 -0.208927 -0.539 108 91 97
0.312687 -0.204275 -0.527 121 96 100
0.31496 -0.19691 -0.508 131 100 105
0.33168 -0.19536 -0.504 203 183 192
0.33264 -0.19536 -0.504 214 194 203
0.337729 -0.194972 -0.503 124 97 102
0.4437 -0.23606 -0.609 76 71 91
0.42772 -0.200787 -0.518 136 87 83
0.432653 -0.200787 -0.518 130 85 80
0.448784 -0.202725 -0.523 124 81 75
0.465487 -0.206601 -0.533 141 97 94
0.48485 -0.212415 -0.548 136 95 91
0.494934 -0.215904 -0.557 125 85 83
-0.290881 -0.250464 -0.643 253 254 249
-0.275476 -0.25319 -0.65 180 180 178
-0.15421 -0.249295 -0.64 195 192 183
-0.150733 -0.251632 -0.646 199 196 187
-0.0857829 -0.252411 -0.648 80 80 82
-0.0824143 -0.249685 -0.641 74 73 79
-0.0655429 -0.241505 -0.62 67 65 76
-0.0513238 -0.246958 -0.634 67 66 74
0.0632571 -0.210343 -0.54 202 168 156
0.0642857 -0.210343 -0.54 201 165 153
0.0664657 -0.210732 -0.541 195 158 149
0.0686533 -0.211122 -0.542 191 154 145
0.0875543 -0.219691 -0.564 127 97 95
0.312903 -0.20411 -0.524 123 95 107
0.311074 -0.200994 -0.516 127 95 108
0.311452 -0.200605 -0.515 130 101 105
0.312564 -0.199436 -0.512 134 103 109
0.325286 -0.197099 -0.506 125 102 108
0.329452 -0.19671 -0.505 125 102 108
-0.300211 -0.251297 -0.642 252 253 248
-0.297005 -0.251689 -0.643 250 251 246
-0.08648 -0.25208 -0.644 77 78 83
-0.0815143 -0.248166 -0.634 70 69 77
-0.04914 -0.24934 -0.637 67 66 72
0.0580067 -0.21098 -0.539 213 179 169
0.0632571 -0.211371 -0.54 201 167 157
0.0664657 -0.211763 -0.541 195 158 149
0.0709791 -0.212937 -0.544 177 139 130
0.0835838 -0.218809 -0.559 135 104 102
0.33264 -0.19728 -0.504 139 124 129
0.332938 -0.196889 -0.503 164 143 148
0.340033 -0.197671 -0.505 124 98 107
0.349329 -0.200803 -0.513 45 35 44
0.363566 -0.206674 -0.528 109 106 123
0.41516 -0.227811 -0.582 105 100 120
0.418414 -0.228986 -0.585 102 97 117
0.425676 -0.231726 -0.592 77 74 91
0.411138 -0.202369 -0.517 168 115 107
0.43068 -0.20276 -0.518 126 81 75
0.459978 -0.207066 -0.529 126 85 81
0.480274 -0.212937 -0.544 129 92 86
-0.308507 -0.253307 -0.644 252 253 248
-0.304353 -0.252913 -0.643 255 255 251
-0.301904 -0.252913 -0.643 254 255 250
-0.297005 -0.252913 -0.643 250 251 246
-0.28888 -0.253307 -0.644 255 255 251
-0.2808 -0.25488 -0.648 251 251 249
-0.158589 -0.250947 -0.638 197 198 192
-0.0839295 -0.249373 -0.634 76 74 85
-0.0676857 -0.24308 -0.618 68 67 75
-0.0569095 -0.247407 -0.629 68 67 75
0.0524238 -0.214367 -0.545 213 179 170
0.0541 -0.212793 -0.541 215 178 170
0.0642857 -0.2124 -0.54 198 161 152
0.0653143 -0.2124 -0.54 194 157 148
0.0863267 -0.221447 -0.563 127 99 98
0.0908162 -0.224593 -0.571 119 93 94
0.113043 -0.2419 -0.615 96 76 78
0.317863 -0.199813 -0.508 132 101 106
0.340707 -0.199027 -0.506 120 99 108
0.405948 -0.205713 -0.523 184 134 127
0.410153 -0.203353 -0.517 166 113 105
0.414092 -0.203353 -0.517 153 100 92
0.422787 -0.203747 -0.518 130 80 73
0.423773 -0.203747 -0.518 130 80 73
0.425747 -0.203747 -0.518 135 86 81
0.44409 -0.204927 -0.521 137 92 89
-0.304827 -0.254533 -0.644 255 255 251
-0.29823 -0.254138 -0.643 254 255 250
-0.282034 -0.256114 -0.648 254 255 250
-0.161056 -0.254138 -0.643 232 232 230
-0.144805 -0.255719 -0.647 202 200 188
-0.0632829 -0.245443 -0.621 69 67 78
0.0721476 -0.215405 -0.545 167 129 120
0.0758143 -0.216986 -0.549 157 122 118
0.08648 -0.222914 -0.564 127 99 98
0.125777 -0.252162 -0.638 173 150 156
0.33168 -0.1992 -0.504 212 195 201
0.390235 -0.220938 -0.559 101 93 108
0.395172 -0.222519 -0.563 107 101 115
0.4469 -0.243071 -0.615 88 83 105
0.413108 -0.204338 -0.517 157 103 93
0.414092 -0.204338 -0.517 153 100 92
0.45064 -0.207105 -0.524 125 84 78
-0.307004 -0.256554 -0.646 252 253 248
-0.305773 -0.256554 -0.646 253 254 249
-0.302843 -0.256157 -0.645 251 252 247
-0.154457 -0.252583 -0.636 209 210 204
-0.146131 -0.254966 -0.642 202 203 189
-0.07004 -0.245434 -0.618 68 66 77
-0.053739 -0.251789 -0.634 68 67 75
0.08802 -0.22518 -0.567 125 97 96
0.113227 -0.24464 -0.616 97 77 78
0.118642 -0.248611 -0.626 104 84 86
0.123976 -0.252186 -0.635 152 131 140
0.317287 -0.207706 -0.523 127 101 110
0.316601 -0.205323 -0.517 133 102 108
0.3336 -0.20016 -0.504 130 104 113
0.33811 -0.200557 -0.505 116 93 101
0.339743 -0.200954 -0.506 116 93 101
0.40508 -0.22796 -0.574 118 116 130
0.458739 -0.249406 -0.628 68 65 84
0.431818 -0.205323 -0.517 144 93 89
0.443238 -0.206514 -0.52 132 91 85
0.464613 -0.21128 -0.532 123 86 80
-0.103381 -0.259381 -0.65 220 219 215
-0.0908876 -0.252198 -0.632 69 67 78
-0.0722771 -0.246212 -0.617 69 68 76
-0.0424514 -0.257785 -0.646 70 69 75
0.0519429 -0.215486 -0.54 211 178 171
0.0547229 -0.214289 -0.537 211 177 168
0.0641667 -0.215087 -0.539 190 153 144
0.0663429 -0.215486 -0.54 185 148 140
0.082519 -0.223068 -0.559 132 101 99
0.0911343 -0.228654 -0.573 116 91 94
0.31883 -0.202716 -0.508 131 101 109
0.322066 -0.202317 -0.507 133 102 110
0.325605 -0.201519 -0.505 146 115 123
0.33072 -0.20112 -0.504 219 200 204
0.400086 -0.227457 -0.57 102 100 114
0.416897 -0.233842 -0.586 125 124 138
0.4071 -0.211894 -0.531 171 121 120
0.456231 -0.210298 -0.527 121 82 77
0.48308 -0.21788 -0.546 130 97 90
-0.140671 -0.258614 -0.645 205 203 191
-0.0934429 -0.253803 -0.633 76 75 83
0.0556419 -0.21491 -0.536 212 172 160
0.07728 -0.221326 -0.552 144 110 108
0.0798143 -0.222529 -0.555 138 104 102
0.3288 -0.20208 -0.504 132 113 117
0.33456 -0.20208 -0.504 128 98 108
0.336186 -0.202481 -0.505 122 94 106
0.4056 -0.208495 -0.52 184 131 123
0.42591 -0.207292 -0.517 151 100 96
0.443238 -0.208495 -0.52 128 87 81
0.478509 -0.217316 -0.542 130 97 90
-0.146494 -0.255009 -0.633 245 246 241
-0.143014 -0.257426 -0.639 205 203 191
-0.118056 -0.261454 -0.649 244 242 230
-0.109957 -0.259843 -0.645 231 228 219
-0.0912171 -0.252189 -0.626 75 74 82
-0.03894 -0.261454 -0.649 68 67 73
0.0576838 -0.215931 -0.536 208 172 160
0.0587048 -0.215931 -0.536 205 169 157
0.0786152 -0.223183 -0.554 138 107 105
0.0826667 -0.2256 -0.56 127 95 98
0.104571 -0.241714 -0.6 107 82 86
0.106243 -0.242923 -0.603 110 85 81
0.320173 -0.20868 -0.518 133 103 111
0.323031 -0.204249 -0.507 128 98 106
0.33264 -0.20304 -0.504 122 101 108
0.390883 -0.226809 -0.563 88 86 107
0.405037 -0.212306 -0.527 176 124 113
0.404177 -0.210291 -0.522 185 133 122
0.4056 -0.209486 -0.52 184 132 121
0.419016 -0.208277 -0.517 147 94 86
0.422955 -0.208277 -0.517 135 85 78
-0.152273 -0.257833 -0.637 222 223 225
-0.150349 -0.256619 -0.634 234 236 235
-0.143554 -0.257429 -0.636 226 223 216
-0.138362 -0.259048 -0.64 205 202 193
-0.0959867 -0.253381 -0.626 79 78 84
-0.07568 -0.249333 -0.616 72 71 77
-0.0605038 -0.254595 -0.629 68 67 75
-0.0400524 -0.261881 -0.647 66 65 71
0.0507257 -0.217762 -0.538 211 177 168
0.0597257 -0.216952 -0.536 203 169 159
0.07228 -0.221 -0.546 156 119 113
0.07728 -0.223429 -0.552 139 108 106
0.1206 -0.255 -0.63 108 96 118
0.128784 -0.261881 -0.647 207 207 235
0.32178 -0.210071 -0.519 126 100 109
0.424433 -0.240833 -0.595 70 67 86
0.405324 -0.214524 -0.53 163 115 103
0.4048 -0.213714 -0.528 167 119 107
0.405037 -0.21331 -0.527 179 127 116
0.405388 -0.210881 -0.521 182 130 119
0.4056 -0.210476 -0.52 183 131 120
0.409169 -0.209262 -0.517 162 108 96
0.413108 -0.209262 -0.517 150 96 84
0.414092 -0.209262 -0.517 149 96 88
0.415077 -0.209262 -0.517 149 96 88
0.42394 -0.209262 -0.517 135 86 79
0.430983 -0.208857 -0.516 148 101 93
0.446075 -0.210881 -0.521 118 79 74
0.4535 -0.2125 -0.525 123 84 79
0.456231 -0.21331 -0.527 127 88 83
0.46374 -0.214929 -0.531 135 96 91
-0.126763 -0.261487 -0.643 245 242 237
-0.09522 -0.25254 -0.621 74 73 81
-0.0850667 -0.250507 -0.616 75 74 80
-0.0815467 -0.250507 -0.616 74 73 78
-0.0561543 -0.257827 -0.634 69 68 76
-0.0526971 -0.25864 -0.636 71 70 78
-0.0492943 -0.25986 -0.639 71 70 78
-0.03888 -0.26352 -0.648 70 69 75
0.129182 -0.263927 -0.649 194 195 223
0.33264 -0.20496 -0.504 134 102 113
0.422589 -0.24156 -0.594 57 54 73
0.426069 -0.20984 -0.516 145 96 89
0.44978 -0.212687 -0.523 120 83 77
0.455366 -0.213907 -0.526 122 83 78
0.459978 -0.215127 -0.529 125 86 81
0.472928 -0.218787 -0.538 117 80 74
-0.152246 -0.262303 -0.642 100 99 104
-0.146031 -0.257809 -0.631 220 221 225
-0.12922 -0.26026 -0.637 231 230 228
-0.112378 -0.257809 -0.631 74 75 79
-0.0884429 -0.251271 -0.615 77 76 81
-0.0583848 -0.258217 -0.632 69 68 74
-0.0401143 -0.264754 -0.648 71 70 78
0.0674962 -0.221037 -0.541 171 134 128
0.0787571 -0.226757 -0.555 134 104 104
0.0963857 -0.239014 -0.585 115 90 93
0.32976 -0.20592 -0.504 126 101 107
0.334924 -0.206737 -0.506 129 97 108
0.428713 -0.245551 -0.601 72 69 88
0.405077 -0.216951 -0.531 165 118 112
0.407987 -0.21164 -0.518 163 110 104
0.412123 -0.211231 -0.517 156 103 97
0.414092 -0.211231 -0.517 154 101 93
0.420986 -0.211231 -0.517 140 90 81
0.430983 -0.210823 -0.516 147 97 88
0.459978 -0.216134 -0.529 121 82 75
0.48308 -0.22308 -0.546 123 86 78
-0.151258 -0.263936 -0.643 106 107 111
-0.146031 -0.25901 -0.631 144 143 148
-0.110953 -0.255727 -0.623 67 68 73
-0.07828 -0.253674 -0.618 72 71 76
-0.07072 -0.256137 -0.624 72 71 77
-0.0640981 -0.25819 -0.629 71 70 76
-0.0562429 -0.260652 -0.635 71 70 76
-0.0493714 -0.262705 -0.64 70 69 77
-0.0401143 -0.265989 -0.648 70 69 77
0.0523829 -0.219194 -0.534 209 175 166
0.0686533 -0.222478 -0.542 168 130 127
0.0787571 -0.227814 -0.555 135 105 105
0.0843314 -0.231509 -0.564 125 95 103
0.117262 -0.256548 -0.625 113 96 104
0.325605 -0.20729 -0.505 125 95 103
0.33168 -0.20688 -0.504 130 100 110
0.344135 -0.210985 -0.514 43 32 36
0.412432 -0.240539 -0.586 97 97 109
0.404314 -0.217552 -0.53 166 117 110
0.404269 -0.21591 -0.526 176 123 119
0.413108 -0.212216 -0.517 154 101 95
0.417047 -0.212216 -0.517 148 98 89
-0.146957 -0.261862 -0.635 101 102 106
-0.141974 -0.259388 -0.629 95 96 100
-0.139134 -0.258563 -0.627 102 103 107
-0.12958 -0.258563 -0.627 99 99 101
-0.0973371 -0.252377 -0.612 72 71 77
-0.0915086 -0.252377 -0.612 76 77 82
-0.0881552 -0.25279 -0.613 74 75 79
-0.0772276 -0.255264 -0.619 74 73 78
-0.0459286 -0.265161 -0.643 139 138 146
0.0816 -0.230933 -0.56 125 96 100
0.0843314 -0.232583 -0.564 123 96 103
0.11016 -0.252377 -0.612 107 84 92
0.33396 -0.208665 -0.506 129 99 109
0.399909 -0.237531 -0.576 91 88 105
0.403094 -0.238769 -0.579 89 87 101
0.416291 -0.228459 -0.554 129 104 108
0.40461 -0.214438 -0.52 171 118 114
0.407199 -0.213201 -0.517 163 110 104
0.420001 -0.213201 -0.517 139 89 80
0.428034 -0.212789 -0.516 140 90 81
0.43942 -0.214026 -0.519 134 91 84
0.456231 -0.217325 -0.527 120 83 75
0.462729 -0.218974 -0.531 122 85 79
0.472928 -0.221861 -0.538 121 86 80
-0.131337 -0.258514 -0.624 90 89 95
-0.09222 -0.2523 -0.609 77 78 83
-0.0686714 -0.259757 -0.627 72 71 77
-0.0597771 -0.262657 -0.634 70 69 77
0.0533 -0.220814 -0.533 209 175 166
0.0686533 -0.224543 -0.542 166 128 127
0.0724124 -0.226614 -0.547 158 118 118
0.33462 -0.210043 -0.507 125 99 108
0.4116 -0.2436 -0.588 84 83 97
0.41272 -0.2436 -0.588 84 83 97
0.416424 -0.230757 -0.557 132 103 107
0.40461 -0.215429 -0.52 169 116 112
0.420171 -0.213771 -0.516 145 95 86
0.430983 -0.213771 -0.516 145 96 89
0.434772 -0.214186 -0.517 135 88 80
0.458103 -0.218743 -0.528 122 85 79
0.460848 -0.219571 -0.53 121 84 78
-0.13794 -0.260951 -0.627 102 103 107
-0.1189 -0.255957 -0.615 63 63 71
-0.0985286 -0.251795 -0.605 68 67 73
-0.0666 -0.2622 -0.63 71 70 78
-0.0631 -0.262616 -0.631 72 71 79
-0.0575429 -0.264697 -0.636 71 69 80
-0.039 -0.270524 -0.65 71 70 78
0.04654 -0.223494 -0.537 210 177 168
0.0553305 -0.22183 -0.533 203 169 160
0.084481 -0.235148 -0.565 122 95 104
0.106948 -0.252628 -0.607 105 88 96
0.11745 -0.260535 -0.626 104 92 104
0.127749 -0.269691 -0.648 218 220 243
0.326854 -0.213506 -0.513 128 101 110
0.329452 -0.210176 -0.505 127 97 107
0.406575 -0.243055 -0.584 81 80 98
0.40303 -0.219332 -0.527 176 121 118
0.428186 -0.214338 -0.515 147 97 90
0.429167 -0.214338 -0.515 148 98 91
0.437587 -0.215587 -0.518 121 83 74
0.483965 -0.227656 -0.547 110 77 72
-0.10872 -0.25253 -0.604 60 61 66
-0.107391 -0.252111 -0.603 60 61 66
-0.102627 -0.251693 -0.602 58 59 64
-0.0597771 -0.265072 -0.634 71 71 81
0.0482238 -0.222845 -0.533 209 176 169
0.0595029 -0.223263 -0.534 196 157 150
0.113962 -0.259219 -0.62 103 86 94
0.327214 -0.21281 -0.509 127 96 104
0.464797 -0.268835 -0.643 59 56 75
0.40924 -0.22828 -0.546 138 103 101
0.419189 -0.215737 -0.516 156 104 93
0.424262 -0.215319 -0.515 150 102 92
0.437587 -0.216573 -0.518 125 88 79
0.440409 -0.216991 -0.519 121 87 78
0.44978 -0.218664 -0.523 120 80 78
0.4525 -0.2195 -0.525 116 76 74
0.465487 -0.222845 -0.533 124 89 85
-0.141353 -0.26754 -0.637 108 112 115
-0.10782 -0.25158 -0.599 76 77 82
-0.101143 -0.252 -0.6 58 59 64
-0.0811562 -0.26124 -0.622 75 74 82
-0.0777267 -0.26166 -0.623 75 74 82
0.0542133 -0.22344 -0.532 205 170 164
0.07756 -0.23268 -0.554 134 105 109
0.0936743 -0.24444 -0.582 117 94 100
0.102115 -0.25158 -0.599 111 88 98
0.103773 -0.25284 -0.602 106 89 97
0.334312 -0.21336 -0.508 121 95 104
0.402966 -0.24444 -0.582 73 76 93
0.403305 -0.2226 -0.53 166 113 107
0.404177 -0.21924 -0.522 167 117 110
0.407786 -0.21798 -0.519 164 111 105
0.407987 -0.21756 -0.518 159 106 100
0.419189 -0.21672 -0.516 157 105 94
0.425086 -0.21672 -0.516 150 100 89
0.4366 -0.21756 -0.518 125 84 78
0.451638 -0.22008 -0.524 115 80 74
0.458103 -0.22176 -0.528 116 76 74
-0.130074 -0.260737 -0.618 100 101 106
-0.114474 -0.252299 -0.598 82 81 89
-0.100806 -0.252299 -0.598 50 53 58
-0.0688905 -0.265378 -0.629 72 71 79
-0.0667057 -0.266222 -0.631 71 71 79
-0.0598714 -0.26791 -0.635 70 70 80
-0.0518905 -0.270441 -0.641 71 71 81
0.0552267 -0.224453 -0.532 200 165 159
0.0595029 -0.225297 -0.534 191 152 147
0.0650724 -0.226985 -0.538 174 136 133
0.0906714 -0.243439 -0.577 118 95 101
0.328809 -0.216437 -0.513 133 102 107
0.332377 -0.214328 -0.508 126 95 103
0.339557 -0.216437 -0.513 55 35 46
0.4172 -0.251455 -0.596 50 45 65
0.432355 -0.257784 -0.611 52 55 74
0.404395 -0.219812 -0.521 165 112 108
0.420171 -0.217703 -0.516 157 104 96
0.442248 -0.21939 -0.52 122 85 77
0.451638 -0.221078 -0.524 118 81 75
0.48944 -0.232891 -0.552 120 85 81
0.500448 -0.23711 -0.562 121 88 83
-0.0955429 -0.257676 -0.608 68 67 73
-0.0888743 -0.261914 -0.618 75 74 80
-0.0711733 -0.266152 -0.628 73 72 78
-0.0633 -0.268271 -0.633 71 71 79
-0.061081 -0.269119 -0.635 70 70 78
-0.0599657 -0.269543 -0.636 70 70 78
-0.0437495 -0.274205 -0.647 72 71 79
-0.0425829 -0.274629 -0.648 70 69 77
0.0461067 -0.225467 -0.532 209 176 169
0.0861629 -0.241148 -0.569 119 94 100
0.0972095 -0.250048 -0.59 108 87 94
0.329786 -0.217414 -0.513 134 103 109
0.329473 -0.216567 -0.511 130 100 108
0.340881 -0.218262 -0.515 51 34 44
0.414669 -0.251743 -0.594 54 53 71
0.432355 -0.258948 -0.611 52 55 74
0.435648 -0.260219 -0.614 81 80 96
0.403787 -0.227162 -0.536 159 106 102
0.417223 -0.218686 -0.516 152 98 88
0.442248 -0.220381 -0.52 122 83 76
0.478357 -0.230129 -0.543 122 87 83
0.495823 -0.236486 -0.558 123 88 84
1.14586 -0.275476 -0.65 202 204 190
-0.117143 -0.255429 -0.6 58 59 64
-0.115613 -0.254577 -0.598 57 58 63
-0.0998333 -0.255003 -0.599 52 55 60
-0.0890181 -0.263517 -0.619 74 73 78
-0.0835257 -0.264794 -0.622 74 73 79
-0.0679076 -0.268626 -0.631 73 72 78
-0.0402381 -0.276714 -0.65 73 72 78
0.0489619 -0.225629 -0.53 210 175 169
0.0924067 -0.24734 -0.581 119 96 104
0.112417 -0.263091 -0.618 118 91 98
0.11959 -0.268626 -0.631 166 158 179
0.332654 -0.220946 -0.519 131 98 107
0.4028 -0.22648 -0.532 161 108 104
0.403054 -0.226054 -0.531 162 109 105
0.414274 -0.219669 -0.516 160 103 94
0.443238 -0.221371 -0.52 124 85 78
0.490327 -0.23542 -0.553 123 90 83
-0.10656 -0.25315 -0.592 100 101 106
-0.104657 -0.254006 -0.594 112 113 118
-0.0921067 -0.263413 -0.616 66 65 71
-0.0646076 -0.27111 -0.634 71 72 77
0.0414562 -0.235618 -0.551 208 175 168
0.0422905 -0.228776 -0.535 208 173 167
0.0616524 -0.228776 -0.535 180 143 137
0.0820371 -0.24075 -0.563 124 99 105
0.0939962 -0.24973 -0.584 113 92 99
0.117825 -0.268545 -0.628 151 146 166
0.335649 -0.219369 -0.513 83 57 68
0.414092 -0.221079 -0.517 159 105 95
0.414274 -0.220651 -0.516 155 101 91
0.419189 -0.220651 -0.516 153 103 92
0.43 -0.220651 -0.516 123 84 77
-0.111258 -0.254708 -0.593 128 129 134
-0.0681229 -0.271889 -0.633 73 71 82
-0.0426486 -0.278761 -0.649 67 66 74
-0.0414762 -0.27919 -0.65 70 69 75
0.0519905 -0.227648 -0.53 203 168 162
0.06052 -0.229366 -0.534 179 142 134
0.0737229 -0.235809 -0.549 143 108 112
0.0791829 -0.239674 -0.558 128 101 108
0.42165 -0.259432 -0.604 81 76 96
0.426758 -0.26115 -0.608 62 58 75
0.468411 -0.278331 -0.648 57 53 76
0.4112 -0.240533 -0.56 109 89 91
0.40785 -0.237956 -0.554 125 86 89
0.402544 -0.227218 -0.529 163 110 106
0.425086 -0.221634 -0.516 135 88 80
0.44978 -0.224641 -0.523 115 76 69
0.471026 -0.230654 -0.537 123 84 77
1.14833 -0.27919 -0.65 202 205 188
-0.112577 -0.256269 -0.594 123 127 130
-0.105432 -0.255406 -0.592 121 122 126
-0.0983657 -0.260583 -0.604 61 60 65
-0.0426486 -0.279997 -0.649 70 69 75
0.053 -0.228657 -0.53 198 163 157
0.0626714 -0.230814 -0.535 175 138 132
0.0864657 -0.246346 -0.571 122 96 105
0.121749 -0.274389 -0.636 181 187 211
0.363533 -0.24764 -0.574 146 114 127
0.402112 -0.233834 -0.542 149 103 103
0.462729 -0.229089 -0.531 119 82 74
-0.107506 -0.2561 -0.591 114 115 120
-0.100167 -0.260433 -0.601 61 60 65
-0.0991867 -0.260867 -0.602 61 60 65
-0.0925552 -0.268233 -0.619 62 61 66
-0.0783505 -0.272133 -0.628 75 74 82
-0.076079 -0.272567 -0.629 76 75 83
-0.0486038 -0.279933 -0.646 71 70 76
0.0497829 -0.2288 -0.528 204 170 161
0.0738571 -0.238333 -0.55 141 109 114
0.358074 -0.243533 -0.562 142 106 116
0.3395 -0.2275 -0.525 139 109 117
0.359179 -0.233133 -0.538 42 32 41
0.40488 -0.2548 -0.588 45 43 64
0.412659 -0.258267 -0.596 51 48 69
0.447 -0.273 -0.63 64 60 77
0.400913 -0.233567 -0.539 149 102 96
0.4028 -0.230533 -0.532 155 105 96
0.402544 -0.229233 -0.529 158 108 101
0.4045 -0.2275 -0.525 163 110 102
0.404728 -0.227067 -0.524 161 108 100
0.40638 -0.225767 -0.521 156 103 95
0.415077 -0.224033 -0.517 157 107 98
0.432803 -0.224033 -0.517 132 86 71
0.437587 -0.224467 -0.518 137 93 80
0.438573 -0.224467 -0.518 132 88 77
0.451638 -0.227067 -0.524 123 83 71
-0.0954714 -0.267671 -0.615 61 60 65
-0.0909257 -0.271589 -0.624 61 60 66
-0.0818086 -0.272894 -0.627 72 71 79
-0.0762 -0.2742 -0.63 76 75 83
-0.0532771 -0.279858 -0.643 70 69 77
-0.0509857 -0.280729 -0.645 69 68 76
0.0496886 -0.22937 -0.527 203 169 160
0.0649514 -0.233723 -0.537 167 129 128
0.342446 -0.229806 -0.528 104 83 90
0.3425 -0.2285 -0.525 47 36 44
0.357489 -0.233723 -0.537 45 33 43
0.392643 -0.250262 -0.575 50 41 58
0.437543 -0.269848 -0.62 62 58 72
0.405948 -0.22763 -0.523 157 104 98
0.410947 -0.225453 -0.518 156 103 95
0.414092 -0.225018 -0.517 155 107 95
0.420171 -0.224583 -0.516 145 97 85
0.43942 -0.225889 -0.519 128 85 76
0.451638 -0.228065 -0.524 126 86 76
0.462729 -0.231111 -0.531 115 78 70
-0.107324 -0.257914 -0.59 110 111 116
-0.101774 -0.260974 -0.597 61 62 66
-0.0841971 -0.274089 -0.627 68 67 75
-0.0510648 -0.282394 -0.646 70 69 77
0.0408086 -0.231249 -0.529 206 171 165
0.0560286 -0.231686 -0.53 193 156 148
0.05928 -0.23256 -0.532 187 150 144
0.0897276 -0.252669 -0.578 120 97 107
0.34879 -0.231686 -0.53 49 39 48
0.35046 -0.232123 -0.531 46 36 45
0.399148 -0.238243 -0.545 137 97 97
0.399451 -0.237806 -0.544 139 99 99
0.399976 -0.233871 -0.535 151 104 96
0.400246 -0.233434 -0.534 151 104 96
0.40228 -0.233434 -0.534 152 105 97
0.408774 -0.226877 -0.519 158 105 99
0.451638 -0.229063 -0.524 124 84 76
0.467377 -0.233434 -0.534 121 82 75
-0.112009 -0.259477 -0.591 114 117 122
-0.108264 -0.258599 -0.589 109 110 115
-0.097019 -0.267819 -0.61 64 63 69
-0.0940371 -0.272649 -0.621 60 59 65
-0.0705343 -0.277917 -0.633 74 73 81
-0.0683381 -0.278795 -0.635 75 74 82
-0.0427143 -0.285381 -0.65 70 69 75
0.0626714 -0.23489 -0.535 174 139 135
0.07124 -0.23972 -0.546 145 113 116
0.0808209 -0.246745 -0.562 125 99 112
0.100806 -0.26255 -0.598 115 93 105
0.349389 -0.234451 -0.534 49 39 48
0.35244 -0.234451 -0.534 45 39 49
0.387462 -0.249818 -0.569 46 38 53
0.403305 -0.232695 -0.53 155 106 99
0.417047 -0.226988 -0.517 150 100 91
0.426894 -0.226988 -0.517 141 93 83
0.443238 -0.228305 -0.52 129 86 79
0.455366 -0.230939 -0.526 120 80 72
0.475714 -0.237086 -0.54 122 83 76
-0.115033 -0.262367 -0.595 112 115 120
-0.0546714 -0.284414 -0.645 71 70 76
0.0425 -0.2315 -0.525 208 175 168
0.0495943 -0.231941 -0.526 204 170 161
0.0725448 -0.241642 -0.548 142 110 113
0.105443 -0.266776 -0.605 117 95 107
0.124313 -0.283532 -0.643 170 177 206
0.408154 -0.230177 -0.522 152 102 95
0.42591 -0.227972 -0.517 142 94 84
0.428864 -0.227972 -0.517 133 86 76
1.14673 -0.285296 -0.647 210 212 198
-0.132481 -0.286529 -0.647 114 115 119
-0.0844657 -0.278557 -0.629 62 61 69
0.0388667 -0.234714 -0.53 208 171 163
0.0580476 -0.234714 -0.53 186 148 145
0.0853781 -0.252871 -0.571 124 98 111
0.367168 -0.255971 -0.578 141 100 106
0.365855 -0.242686 -0.548 48 38 49
0.395643 -0.253757 -0.573 56 48 61
0.401527 -0.236043 -0.533 146 97 92
0.4065 -0.2325 -0.525 154 104 97
0.409763 -0.229843 -0.519 156 103 97
0.448784 -0.231614 -0.523 125 85 77
0.451638 -0.232057 -0.524 123 83 75
0.459109 -0.233829 -0.528 118 80 71
0.481311 -0.240914 -0.544 117 78 71
-0.10808 -0.26152 -0.588 102 105 110
-0.102739 -0.265078 -0.596 68 67 75
-0.0891162 -0.27931 -0.628 59 58 66
-0.0868619 -0.279755 -0.629 60 59 67
-0.064 -0.284648 -0.64 75 74 80
-0.0571286 -0.286871 -0.645 72 71 77
-0.0559867 -0.287316 -0.646 72 71 77
0.0660971 -0.239282 -0.538 160 126 127
0.0686533 -0.241061 -0.542 150 118 121
0.07124 -0.24284 -0.546 141 110 115
0.0725448 -0.24373 -0.548 139 108 113
0.0753133 -0.245953 -0.553 135 104 109
0.0932019 -0.26063 -0.586 116 90 101
0.11034 -0.272639 -0.613 121 95 108
0.360856 -0.250401 -0.563 142 97 104
0.357843 -0.246843 -0.555 147 104 111
0.36244 -0.24284 -0.546 62 47 54
0.365855 -0.24373 -0.548 55 42 52
0.375137 -0.246398 -0.554 30 20 28
0.37823 -0.247732 -0.557 32 22 30
0.384151 -0.249511 -0.561 54 44 55
0.397833 -0.239727 -0.539 146 98 94
0.40794 -0.23261 -0.523 148 97 93
0.409763 -0.230831 -0.519 156 105 101
0.42394 -0.229942 -0.517 146 97 90
0.430833 -0.229942 -0.517 134 90 81
0.445083 -0.231721 -0.521 123 83 73
-0.10602 -0.263087 -0.589 98 99 104
-0.09434 -0.278273 -0.623 61 60 68
-0.0916543 -0.280953 -0.629 59 58 64
-0.0846 -0.2814 -0.63 59 58 66
-0.0765629 -0.28274 -0.633 68 67 75
-0.073061 -0.283187 -0.634 71 70 78
-0.0719667 -0.283633 -0.635 73 72 80
-0.0674457 -0.284973 -0.638 72 71 79
-0.0582667 -0.287653 -0.644 72 71 79
0.0474095 -0.234053 -0.524 204 169 163
0.0725448 -0.244773 -0.548 138 107 113
0.0738571 -0.245667 -0.55 135 106 111
0.08262 -0.25326 -0.567 124 97 106
0.0917714 -0.260853 -0.584 116 90 101
0.0964114 -0.264427 -0.592 121 98 108
0.404066 -0.23718 -0.531 149 98 94
0.4048 -0.23584 -0.528 151 100 96
0.4065 -0.2345 -0.525 150 101 96
0.407722 -0.234053 -0.524 143 94 89
0.410751 -0.23182 -0.519 156 105 101
0.415077 -0.230927 -0.517 156 101 98
0.419016 -0.230927 -0.517 153 100 94
0.431818 -0.230927 -0.517 137 93 84
0.44409 -0.232713 -0.521 119 79 71
1.14687 -0.2881 -0.645 200 204 190
-0.0928524 -0.282151 -0.629 59 58 64
-0.0904562 -0.282151 -0.629 58 57 63
-0.087 -0.2826 -0.63 57 56 62
-0.0847343 -0.283049 -0.631 59 58 66
-0.0708686 -0.285291 -0.636 72 71 79
0.0558171 -0.236846 -0.528 187 150 142
0.0568229 -0.236846 -0.528 187 152 146
0.0841429 -0.255686 -0.57 125 98 107
0.0872229 -0.258377 -0.576 124 98 107
0.112053 -0.27632 -0.616 116 90 101
0.365535 -0.256583 -0.572 142 93 97
0.365095 -0.246714 -0.55 127 97 97
0.378673 -0.24806 -0.553 60 44 54
0.384993 -0.24806 -0.553 70 57 67
0.38675 -0.247163 -0.551 79 65 78
0.38919 -0.246714 -0.55 90 70 72
0.390443 -0.243574 -0.543 123 83 92
0.404314 -0.237743 -0.53 145 94 91
0.406041 -0.236397 -0.527 147 98 94
0.406272 -0.235949 -0.526 146 97 92
0.413907 -0.23236 -0.518 154 99 94
0.424925 -0.231911 -0.517 147 97 88
0.428864 -0.231911 -0.517 143 93 86
0.46374 -0.238191 -0.531 123 83 75
1.1481 -0.289329 -0.645 200 204 189
-0.112751 -0.26533 -0.589 96 99 104
-0.0993429 -0.27479 -0.61 80 80 88
-0.08834 -0.28425 -0.631 55 56 61
-0.0664381 -0.288305 -0.64 73 72 80
0.0410933 -0.290107 -0.644 207 174 169
0.0590571 -0.238752 -0.53 177 142 138
0.0841429 -0.256771 -0.57 123 100 108
0.362873 -0.249113 -0.553 149 113 113
0.365371 -0.248663 -0.552 146 112 113
0.375571 -0.247762 -0.55 84 65 69
0.399703 -0.241455 -0.536 142 94 90
0.402542 -0.240104 -0.533 144 95 91
0.404066 -0.239203 -0.531 142 91 88
0.404314 -0.238752 -0.53 142 91 88
0.405806 -0.237851 -0.528 150 101 96
0.409357 -0.234698 -0.521 154 103 99
0.41035 -0.234698 -0.521 155 104 100
0.445083 -0.234698 -0.521 117 76 70
-0.10602 -0.266452 -0.589 82 82 90
-0.105076 -0.266905 -0.59 74 74 82
-0.0907438 -0.285452 -0.631 57 57 65
-0.0721933 -0.288167 -0.637 70 69 77
0.0402686 -0.236143 -0.522 210 175 169
0.0412629 -0.236143 -0.522 210 175 169
0.0613067 -0.240667 -0.532 170 135 133
0.0635714 -0.241571 -0.534 163 129 130
0.076781 -0.251524 -0.556 127 101 110
0.0827657 -0.256952 -0.568 121 98 106
0.0993333 -0.269619 -0.596 120 97 107
0.11016 -0.276857 -0.612 124 101 111
0.364073 -0.25469 -0.563 142 95 105
0.372056 -0.249262 -0.551 123 94 98
0.376293 -0.247905 -0.548 103 77 80
0.404314 -0.239762 -0.53 145 94 91
0.460986 -0.23931 -0.529 122 81 75
0.48412 -0.247 -0.546 120 81 74
-0.10696 -0.26712 -0.588 88 88 96
-0.0964029 -0.282111 -0.621 75 76 81
-0.09568 -0.283474 -0.624 73 73 81
-0.0699857 -0.290289 -0.639 71 70 78
-0.0676571 -0.290743 -0.64 71 70 78
-0.0584476 -0.293469 -0.646 73 72 80
0.047319 -0.237591 -0.523 201 166 160
0.0494057 -0.238046 -0.524 203 166 158
0.0686533 -0.246223 -0.542 147 116 122
0.0903486 -0.264394 -0.582 114 91 101
0.0919286 -0.265757 -0.585 114 91 101
0.100806 -0.271663 -0.598 121 99 102
0.105443 -0.274843 -0.605 117 97 108
0.1247 -0.293014 -0.645 209 209 221
0.366559 -0.253037 -0.557 154 112 116
0.37804 -0.24804 -0.546 122 92 92
0.387974 -0.245769 -0.541 129 90 91
0.392996 -0.244406 -0.538 132 91 89
0.399976 -0.243043 -0.535 138 90 88
0.416867 -0.23532 -0.518 154 104 93
0.426894 -0.234866 -0.517 143 93 82
-0.115971 -0.270977 -0.594 94 97 104
-0.107712 -0.267328 -0.586 88 88 96
-0.0922371 -0.288769 -0.633 63 64 69
-0.0863448 -0.289225 -0.634 55 54 62
-0.0712029 -0.291506 -0.639 69 68 76
-0.0699857 -0.291506 -0.639 70 69 77
-0.0643 -0.29333 -0.643 74 73 81
0.0798924 -0.256835 -0.563 125 99 108
0.0993333 -0.27189 -0.596 122 99 109
0.367514 -0.260029 -0.57 143 92 101
0.366443 -0.257748 -0.565 147 97 106
0.373843 -0.250449 -0.549 142 103 106
0.379764 -0.248168 -0.544 125 89 89
0.3852 -0.246343 -0.54 132 92 92
0.390947 -0.24543 -0.538 132 91 89
0.39664 -0.244518 -0.536 137 91 91
0.398957 -0.244062 -0.535 136 90 90
0.400246 -0.243606 -0.534 137 92 89
0.404066 -0.242237 -0.531 144 95 91
0.435613 -0.236307 -0.518 134 87 77
-0.115971 -0.272109 -0.594 95 98 105
-0.106778 -0.268902 -0.587 85 85 95
-0.0942 -0.2886 -0.63 73 74 79
-0.0923829 -0.290432 -0.634 66 67 72
-0.0889 -0.29089 -0.635 56 57 62
-0.0806867 -0.291807 -0.637 56 55 63
-0.0712029 -0.292723 -0.639 68 67 75
-0.0689838 -0.293639 -0.641 69 68 76
-0.0562467 -0.297304 -0.649 73 72 80
0.03234 -0.246913 -0.539 213 172 166
0.0329952 -0.244165 -0.533 210 173 165
0.0382067 -0.238668 -0.521 213 176 167
0.0624371 -0.244165 -0.533 162 128 127
0.36894 -0.256075 -0.559 149 104 109
0.377 -0.25012 -0.546 139 98 102
0.380432 -0.248288 -0.542 129 90 91
0.405806 -0.241874 -0.528 145 96 91
0.41884 -0.237293 -0.518 152 102 91
0.428864 -0.236835 -0.517 144 95 81
0.4525 -0.2405 -0.525 125 82 76
0.480426 -0.248746 -0.543 118 79 72
1.14464 -0.293639 -0.641 202 206 192
-0.114067 -0.2714 -0.59 92 95 102
-0.0901095 -0.2921 -0.635 60 61 66
-0.0806867 -0.29302 -0.637 55 54 62
-0.0783829 -0.29348 -0.638 56 55 63
-0.0689838 -0.29486 -0.641 69 68 76
0.0514019 -0.24104 -0.524 194 157 149
0.0844381 -0.26312 -0.572 123 97 106
0.094801 -0.27094 -0.589 125 102 112
0.106771 -0.27876 -0.606 130 100 110
0.36882 -0.26082 -0.567 146 100 103
0.368363 -0.25898 -0.563 149 103 106
0.380761 -0.24886 -0.541 132 93 94
0.392266 -0.24702 -0.537 139 95 94
0.402542 -0.24518 -0.533 142 94 90
0.416683 -0.23874 -0.519 153 103 94
0.446931 -0.24012 -0.522 123 83 75
0.47117 -0.24656 -0.536 128 87 81
0.487826 -0.25254 -0.549 119 80 73
1.14172 -0.29348 -0.638 202 206 191
-0.120623 -0.279914 -0.606 94 97 102
-0.110871 -0.270214 -0.585 92 95 102
-0.0795981 -0.294695 -0.638 54 53 61
-0.0714257 -0.296081 -0.641 66 65 73
-0.0610029 -0.298852 -0.647 72 71 79
0.0471381 -0.240652 -0.521 196 162 153
0.0770571 -0.257743 -0.558 130 104 113
0.0845857 -0.264671 -0.573 123 97 106
0.1157 -0.287767 -0.623 222 214 229
0.370091 -0.260514 -0.564 150 106 107
0.378368 -0.250352 -0.542 137 95 96
0.4028 -0.245733 -0.532 143 96 90
0.412131 -0.241114 -0.522 151 101 92
0.419649 -0.239729 -0.519 151 103 93
0.434627 -0.239267 -0.518 133 89 80
0.443098 -0.240652 -0.521 124 84 76
0.445937 -0.241114 -0.522 125 86 79
0.457235 -0.243424 -0.527 123 82 76
0.459978 -0.244348 -0.529 121 80 74
1.14408 -0.295619 -0.64 201 205 191
1.14351 -0.295157 -0.639 201 205 191
-0.123385 -0.284779 -0.614 95 98 103
-0.0935905 -0.294055 -0.634 75 75 83
0.0343029 -0.242109 -0.522 209 172 164
0.0361524 -0.241181 -0.52 204 172 161
0.0410257 -0.240717 -0.519 206 172 163
0.0503076 -0.242572 -0.523 197 160 154
0.0686533 -0.251385 -0.542 143 113 121
0.07854 -0.260197 -0.561 129 103 112
0.08154 -0.26298 -0.567 127 101 110
0.108104 -0.281532 -0.607 129 101 115
0.371469 -0.258806 -0.558 147 103 102
0.374155 -0.255559 -0.551 154 108 110
0.374524 -0.255095 -0.55 153 107 109
0.376997 -0.251849 -0.543 145 101 102
0.4028 -0.246747 -0.532 145 96 91
0.409718 -0.243036 -0.524 150 101 94
0.459109 -0.244891 -0.528 124 81 75
-0.132473 -0.298523 -0.641 97 100 109
-0.0962933 -0.292469 -0.628 84 83 91
0.0370714 -0.241706 -0.519 210 173 165
0.04498 -0.241706 -0.519 197 163 154
0.0673714 -0.251486 -0.54 146 115 121
0.0962486 -0.275237 -0.591 129 103 112
0.373314 -0.262663 -0.564 146 102 101
0.405567 -0.246363 -0.529 147 98 94
0.408049 -0.245431 -0.527 151 102 95
0.409278 -0.244966 -0.526 150 101 94
0.4218 -0.24124 -0.518 155 107 97
0.422787 -0.24124 -0.518 154 105 98
1.14293 -0.297126 -0.638 202 204 191
-0.129205 -0.295068 -0.631 97 100 109
-0.107712 -0.274025 -0.586 91 91 99
0.094801 -0.275428 -0.589 132 106 115
0.0988333 -0.277298 -0.593 128 105 115
0.113594 -0.288989 -0.618 224 214 225
0.376649 -0.255788 -0.547 149 103 103
0.377 -0.25532 -0.546 146 100 100
0.38346 -0.252047 -0.539 140 94 94
0.387151 -0.251111 -0.537 140 92 90
0.394143 -0.249709 -0.534 144 96 94
0.395435 -0.249241 -0.533 145 97 95
0.413917 -0.244565 -0.523 148 99 92
0.44409 -0.24363 -0.521 126 86 78
0.44978 -0.244565 -0.523 124 84 76
0.478656 -0.252982 -0.541 124 83 77
-0.110871 -0.274671 -0.585 96 99 106
-0.105076 -0.277019 -0.59 65 65 73
-0.0964467 -0.29533 -0.629 86 86 94
-0.0918943 -0.300026 -0.639 73 74 79
0.0360133 -0.243213 -0.518 210 173 167
0.03996 -0.243213 -0.518 206 169 161
0.0460571 -0.244152 -0.52 199 162 154
0.0600667 -0.248848 -0.53 167 133 134
0.0832029 -0.268098 -0.571 126 100 111
0.10962 -0.28594 -0.609 139 121 133
0.113594 -0.290166 -0.618 221 213 228
0.385732 -0.278428 -0.593 136 90 92
0.391091 -0.250726 -0.534 146 98 94
0.404314 -0.248848 -0.53 150 101 96
0.41371 -0.24603 -0.524 150 100 93
0.43942 -0.243683 -0.519 124 81 74
0.467517 -0.250256 -0.533 131 91 83
-0.102567 -0.2805 -0.595 111 111 119
-0.0957029 -0.297943 -0.632 85 85 93
0.0555 -0.2475 -0.525 179 140 135
0.06878 -0.255986 -0.543 139 112 121
0.0818276 -0.268243 -0.569 127 101 112
0.0876771 -0.272957 -0.579 119 93 104
0.1157 -0.2937 -0.623 225 221 236
0.122897 -0.302657 -0.642 128 132 157
0.378031 -0.255986 -0.543 140 95 92
0.394693 -0.2508 -0.532 150 101 96
0.401031 -0.250329 -0.531 152 103 96
0.420457 -0.245143 -0.52 150 100 91
0.48146 -0.255986 -0.543 127 88 81
-0.107712 -0.277373 -0.586 94 94 102
-0.100667 -0.285893 -0.604 107 107 115
-0.0962933 -0.297253 -0.628 88 89 94
-0.0909609 -0.303407 -0.641 72 75 80
-0.08974 -0.303407 -0.641 68 71 76
0.0330533 -0.245187 -0.518 210 173 165
0.0359438 -0.244713 -0.517 211 174 168
0.0555 -0.2485 -0.525 180 141 136
0.0648305 -0.253707 -0.536 147 116 121
0.0818276 -0.269327 -0.569 127 101 112
0.102911 -0.28258 -0.597 130 104 113
0.10944 -0.287787 -0.608 151 134 150
0.388767 -0.253233 -0.535 142 94 90
0.412712 -0.248027 -0.524 147 97 90
0.423429 -0.246133 -0.52 147 97 88
0.437443 -0.24566 -0.519 124 81 74
0.456368 -0.248973 -0.526 122 79 72
0.459109 -0.24992 -0.528 120 77 70
-0.0957029 -0.30035 -0.632 84 87 92
0.03784 -0.245223 -0.516 207 170 162
0.0555 -0.2495 -0.525 177 140 134
0.057719 -0.25045 -0.527 171 137 138
0.0700714 -0.259005 -0.545 135 108 117
0.0997943 -0.281341 -0.592 125 100 106
0.377929 -0.263757 -0.555 143 99 100
0.385823 -0.255678 -0.538 145 97 95
0.396986 -0.252351 -0.531 156 107 100
0.4115 -0.2495 -0.525 148 99 92
0.42558 -0.246649 -0.519 148 100 90
0.451638 -0.249025 -0.524 126 83 76
-0.10584 -0.28056 -0.588 60 60 70
-0.104129 -0.281991 -0.591 102 101 115
-0.0824143 -0.305849 -0.641 42 41 49
0.0329257 -0.246206 -0.516 212 175 167
0.0943181 -0.279606 -0.586 134 111 121
0.104223 -0.285331 -0.598 131 105 116
0.115886 -0.297737 -0.624 165 163 184
0.383773 -0.256703 -0.538 145 97 95
0.395707 -0.25384 -0.532 157 108 103
0.396986 -0.253363 -0.531 157 108 101
0.407045 -0.251454 -0.527 162 114 104
0.409052 -0.251454 -0.527 159 111 101
0.436454 -0.247637 -0.519 129 85 74
0.447926 -0.249069 -0.522 131 89 77
0.461993 -0.252409 -0.529 123 83 75
-0.119429 -0.287429 -0.6 105 108 113
-0.103351 -0.284075 -0.593 193 192 206
-0.101167 -0.290782 -0.607 118 118 120
0.0278143 -0.254374 -0.531 206 169 163
0.0292752 -0.249584 -0.521 209 172 166
0.0319429 -0.247189 -0.516 211 174 168
0.0522 -0.250063 -0.522 184 145 140
0.0543962 -0.251021 -0.524 180 141 136
0.0555 -0.2515 -0.525 178 139 134
0.0578286 -0.252937 -0.528 170 136 137
0.06878 -0.260123 -0.543 137 109 121
0.0729419 -0.263955 -0.551 130 104 117
0.387151 -0.257249 -0.537 144 96 92
0.391374 -0.255332 -0.533 151 102 98
0.394693 -0.254853 -0.532 156 105 101
0.414709 -0.251021 -0.524 145 97 87
0.41591 -0.250542 -0.523 145 97 87
0.419281 -0.249584 -0.521 151 101 92
0.479687 -0.259165 -0.541 126 88 79
0.483383 -0.260602 -0.544 124 86 77
1.14121 -0.303237 -0.633 204 206 192
-0.111986 -0.281357 -0.585 106 110 113
-0.108457 -0.280876 -0.584 109 112 121
0.0328619 -0.24769 -0.515 212 175 167
0.0674962 -0.260195 -0.541 141 111 123
0.0759943 -0.268371 -0.558 129 103 112
0.0862752 -0.27751 -0.577 121 97 110
0.0914571 -0.279914 -0.582 137 113 126
0.380091 -0.265486 -0.552 141 95 95
0.39368 -0.255867 -0.532 153 102 98
0.42558 -0.249614 -0.519 149 101 91
0.427557 -0.249614 -0.519 143 95 85
0.450776 -0.251538 -0.523 130 87 80
0.489917 -0.264043 -0.549 128 89 82
-0.130613 -0.305166 -0.632 95 98 105
-0.124351 -0.295991 -0.613 100 103 110
-0.102911 -0.288266 -0.597 218 218 218
0.0625543 -0.257846 -0.534 153 118 124
0.0913 -0.28054 -0.581 139 115 129
0.100922 -0.285851 -0.592 126 99 118
0.383376 -0.271849 -0.563 137 96 94
0.383203 -0.262191 -0.543 143 95 93
0.404033 -0.254466 -0.527 160 111 104
0.407045 -0.254466 -0.527 157 108 101
0.4105 -0.2535 -0.525 155 105 98
0.412712 -0.253017 -0.524 148 99 92
0.446075 -0.251569 -0.521 129 86 77
0.482494 -0.262191 -0.543 124 85 78
0.501137 -0.269434 -0.558 127 87 77
1.14 -0.305649 -0.633 202 203 187
-0.105076 -0.28601 -0.59 57 57 69
-0.100646 -0.299583 -0.618 165 165 167
-0.0981105 -0.30637 -0.632 98 99 103
0.0273429 -0.253046 -0.522 208 174 165
0.0567152 -0.25547 -0.527 173 137 137
0.0900381 -0.281162 -0.58 139 115 129
0.105714 -0.290857 -0.6 121 103 125
0.381836 -0.26371 -0.544 140 95 89
0.38804 -0.258863 -0.534 146 96 97
0.393951 -0.257409 -0.531 156 105 101
0.407274 -0.254985 -0.526 156 108 98
0.4325 -0.251591 -0.519 132 88 79
0.446075 -0.252561 -0.521 129 86 79
0.44892 -0.253046 -0.522 131 88 81
-0.115386 -0.28762 -0.591 102 104 116
-0.112177 -0.285187 -0.586 104 105 110
-0.102154 -0.29492 -0.606 222 222 222
-0.100273 -0.303193 -0.623 174 176 175
-0.0982657 -0.30806 -0.633 134 135 137
0.0366429 -0.24966 -0.513 208 171 163
0.0555 -0.2555 -0.525 174 134 132
0.0578286 -0.25696 -0.528 169 134 132
0.06018 -0.25842 -0.531 159 123 125
0.0716314 -0.26718 -0.549 128 104 117
0.39704 -0.28616 -0.588 135 93 94
0.381857 -0.267667 -0.55 144 98 98
0.384562 -0.263773 -0.542 144 96 96
0.3852 -0.2628 -0.54 144 96 96
0.398257 -0.257933 -0.53 161 111 104
0.398766 -0.25696 -0.528 160 110 101
0.401783 -0.25696 -0.528 164 114 105
0.402789 -0.25696 -0.528 163 113 104
0.4105 -0.2555 -0.525 150 100 91
0.412712 -0.255013 -0.524 151 103 93
0.42739 -0.253067 -0.52 146 98 88
0.438431 -0.25258 -0.519 128 83 77
0.441257 -0.253067 -0.52 127 84 77
0.46112 -0.25696 -0.528 127 84 75
0.495593 -0.269127 -0.553 126 86 78
-0.11368 -0.28728 -0.588 95 98 107
-0.0982657 -0.309266 -0.633 161 163 162
0.0316952 -0.250149 -0.512 214 177 168
0.0395743 -0.250637 -0.513 203 166 160
0.0511076 -0.254546 -0.521 182 142 140
0.0578286 -0.257966 -0.528 168 133 131
0.0911429 -0.283371 -0.58 136 112 126
0.105538 -0.292654 -0.599 111 97 114
0.382905 -0.268714 -0.55 140 94 94
0.387151 -0.262363 -0.537 144 96 94
0.387748 -0.261386 -0.535 146 98 96
0.389344 -0.260409 -0.533 146 96 95
0.404033 -0.257477 -0.527 161 111 102
0.41371 -0.256011 -0.524 150 102 92
0.414709 -0.256011 -0.524 151 103 93
0.422074 -0.255034 -0.522 148 98 89
0.425235 -0.254546 -0.521 145 97 87
0.433489 -0.253569 -0.519 136 92 83
0.473211 -0.261874 -0.536 128 88 80
-0.104657 -0.291343 -0.594 73 69 86
0.027081 -0.253576 -0.517 204 170 158
0.0543962 -0.25701 -0.524 179 139 139
0.0663429 -0.264857 -0.54 139 108 123
0.0745286 -0.272214 -0.555 126 102 115
0.0774714 -0.275157 -0.561 127 100 115
0.392369 -0.281043 -0.573 138 94 91
0.383601 -0.270252 -0.551 141 97 96
0.390359 -0.261424 -0.533 147 99 97
0.396498 -0.259462 -0.529 163 114 107
0.398513 -0.259462 -0.529 163 113 106
0.41371 -0.25701 -0.524 152 104 94
0.414709 -0.25701 -0.524 151 103 93
0.426228 -0.255538 -0.521 146 96 87
0.433333 -0.255048 -0.52 139 92 82
0.433489 -0.254557 -0.519 137 93 82
0.442248 -0.255048 -0.52 127 84 75
0.443238 -0.255048 -0.52 129 86 77
0.453634 -0.25701 -0.524 127 84 77
0.498443 -0.272214 -0.555 131 93 84
-0.104223 -0.294444 -0.598 163 161 172
0.0278486 -0.252591 -0.513 204 170 158
0.050019 -0.256038 -0.52 183 143 141
0.06018 -0.261454 -0.531 157 122 126
0.0759943 -0.274749 -0.558 125 101 114
0.0989514 -0.289028 -0.587 123 96 111
0.386349 -0.274749 -0.558 144 99 96
0.383576 -0.268348 -0.545 142 97 92
0.387872 -0.264901 -0.538 145 100 95
0.388472 -0.263916 -0.536 145 97 93
0.4095 -0.2585 -0.525 153 103 94
0.424243 -0.25653 -0.521 148 98 87
0.4555 -0.2585 -0.525 126 83 74
0.483529 -0.267363 -0.543 129 89 81
0.496647 -0.272287 -0.553 132 94 85
-0.102829 -0.301514 -0.61 233 232 240
-0.102333 -0.303491 -0.614 233 232 240
0.03066 -0.25258 -0.511 205 171 159
0.0395743 -0.253569 -0.513 202 163 156
0.0446333 -0.254557 -0.515 193 156 148
0.0467762 -0.255546 -0.517 183 144 139
0.0531943 -0.258017 -0.522 180 140 140
0.0555 -0.2595 -0.525 175 133 135
0.0650724 -0.265926 -0.538 140 108 121
0.389493 -0.264937 -0.536 143 96 90
0.39294 -0.262466 -0.531 154 105 98
0.420086 -0.258017 -0.522 152 102 93
0.424243 -0.257523 -0.521 148 98 87
0.433333 -0.257029 -0.52 137 90 80
0.434477 -0.256534 -0.519 132 85 75
0.451772 -0.258511 -0.523 128 84 73
0.45737 -0.259994 -0.526 126 83 74
1.13698 -0.310411 -0.628 200 204 189
-0.131027 -0.314585 -0.634 84 87 92
-0.107324 -0.292752 -0.59 76 76 84
0.02436 -0.259011 -0.522 205 169 157
0.0315714 -0.253057 -0.51 207 171 159
0.0354571 -0.253057 -0.51 208 172 160
0.0870714 -0.28531 -0.575 138 111 126
0.120158 -0.314585 -0.634 165 169 196
0.39549 -0.262485 -0.529 162 114 104
0.42108 -0.259011 -0.522 154 104 93
0.42325 -0.258515 -0.521 150 100 89
0.42722 -0.258515 -0.521 145 95 86
0.444229 -0.258019 -0.52 129 85 76
0.464886 -0.262981 -0.53 123 80 71
0.47894 -0.267447 -0.539 129 88 82
-0.09752 -0.316789 -0.636 207 207 207
0.0315714 -0.254029 -0.51 209 173 161
0.0457029 -0.257017 -0.516 186 149 143
0.0553943 -0.261002 -0.524 169 130 131
0.0638095 -0.266979 -0.536 138 110 122
