ply
format ascii 1.0
comment Created by Open3D
element vertex 1290
property double x
property double y
property double z
property uchar red
property uchar green
property uchar blue
end_header
0.491365 -0.415075 -0.527 140 111 103
0.481313 -0.402473 -0.511 155 119 103
0.47761 -0.396172 -0.503 163 122 104
0.477617 -0.395385 -0.502 167 126 108
0.476614 -0.389871 -0.495 171 126 103
0.4774 -0.385933 -0.49 175 131 106
0.484461 -0.381208 -0.484 173 125 102
0.520583 -0.387509 -0.492 158 114 87
0.01702 -0.38134 -0.483 179 139 113
0.0179771 -0.38213 -0.484 179 139 113
0.0275895 -0.387656 -0.491 149 112 96
0.0598371 -0.423974 -0.537 117 93 91
0.0929257 -0.445291 -0.564 85 104 134
0.0995476 -0.446081 -0.565 63 96 150
0.119783 -0.445291 -0.564 184 186 198
0.127303 -0.445291 -0.564 194 193 207
0.148789 -0.445291 -0.564 204 208 220
0.159531 -0.445291 -0.564 66 102 164
0.1689 -0.444502 -0.563 48 92 155
0.431937 -0.443712 -0.562 136 144 157
0.441285 -0.444502 -0.563 87 107 142
0.466777 -0.445291 -0.564 168 174 196
0.470239 -0.444502 -0.563 80 96 130
0.471311 -0.444502 -0.563 98 113 136
0.501518 -0.443712 -0.562 149 156 174
0.503659 -0.443712 -0.562 119 132 149
0.494929 -0.420816 -0.533 138 110 106
0.479477 -0.400289 -0.507 151 115 101
0.494602 -0.38213 -0.484 169 122 96
-0.0078 -0.43212 -0.546 201 163 127
0.00684286 -0.379094 -0.479 196 157 126
0.0368867 -0.398089 -0.503 125 97 86
0.0390343 -0.400463 -0.506 122 94 83
0.0809648 -0.445574 -0.563 169 170 174
0.0950743 -0.446366 -0.564 49 74 130
0.0972229 -0.446366 -0.564 43 72 130
0.0982971 -0.446366 -0.564 37 72 126
0.0993714 -0.446366 -0.564 40 75 129
0.103669 -0.446366 -0.564 40 71 126
0.11656 -0.446366 -0.564 128 149 202
0.160321 -0.445574 -0.563 84 123 166
0.161393 -0.445574 -0.563 90 129 172
0.166755 -0.445574 -0.563 60 95 151
0.17319 -0.445574 -0.563 74 113 170
0.430867 -0.444783 -0.562 158 167 182
0.438068 -0.445574 -0.563 154 174 199
0.44343 -0.445574 -0.563 176 183 211
0.458443 -0.445574 -0.563 182 184 197
0.464877 -0.445574 -0.563 183 185 198
0.46595 -0.445574 -0.563 153 159 183
0.467022 -0.445574 -0.563 87 93 117
0.468094 -0.445574 -0.563 71 87 121
0.486325 -0.445574 -0.563 106 132 165
0.478573 -0.397297 -0.502 168 123 102
0.477439 -0.388591 -0.491 174 124 101
0.480043 -0.385426 -0.487 175 129 103
0.480843 -0.383843 -0.485 172 126 100
0.481767 -0.383843 -0.485 175 129 103
0.485383 -0.383051 -0.484 176 129 103
0.48907 -0.383051 -0.484 172 125 99
0.494602 -0.383051 -0.484 167 121 95
0.49829 -0.383051 -0.484 165 120 91
0.50002 -0.38226 -0.483 163 116 88
0.50671 -0.383843 -0.485 161 114 86
0.507633 -0.383843 -0.485 162 115 87
0.510531 -0.384634 -0.486 158 113 84
0.51251 -0.385426 -0.487 158 113 84
0.514491 -0.386217 -0.488 159 114 85
0.00958 -0.380007 -0.479 194 153 121
0.0132848 -0.381593 -0.481 186 145 115
0.0390343 -0.401427 -0.506 122 95 86
0.0401562 -0.403013 -0.508 122 95 86
0.0634914 -0.429987 -0.542 111 87 83
0.0884714 -0.446647 -0.563 164 161 172
0.100268 -0.446647 -0.563 33 66 120
0.107774 -0.446647 -0.563 30 60 120
0.118498 -0.446647 -0.563 181 191 203
0.153613 -0.445853 -0.562 204 206 231
0.158966 -0.445853 -0.562 104 139 181
0.184657 -0.445853 -0.562 224 223 239
0.454153 -0.446647 -0.563 136 140 151
0.467022 -0.446647 -0.563 98 114 139
0.468094 -0.446647 -0.563 112 123 145
0.476897 -0.445853 -0.562 172 181 196
0.48781 -0.412533 -0.52 142 114 103
0.482287 -0.405393 -0.511 148 119 105
0.477506 -0.391113 -0.493 173 127 104
0.478333 -0.388733 -0.49 178 130 107
0.47824 -0.387147 -0.488 173 125 102
0.47917 -0.387147 -0.488 177 129 106
0.479983 -0.38556 -0.486 176 130 104
0.481767 -0.384767 -0.485 176 130 104
0.484538 -0.384767 -0.485 173 126 100
0.484461 -0.383973 -0.484 174 127 101
0.504743 -0.383973 -0.484 165 118 90
0.01702 -0.3841 -0.483 179 137 113
0.0208286 -0.386486 -0.486 162 121 101
0.0217543 -0.386486 -0.486 163 122 102
0.0337419 -0.396824 -0.499 130 100 89
0.0348314 -0.398414 -0.501 128 100 89
0.0491229 -0.414319 -0.521 113 88 81
0.055019 -0.421476 -0.53 111 87 83
0.0884714 -0.447719 -0.563 171 168 177
0.0981229 -0.447719 -0.563 54 87 138
0.102412 -0.447719 -0.563 40 69 125
0.10563 -0.447719 -0.563 43 72 128
0.112064 -0.447719 -0.563 45 80 138
0.11957 -0.447719 -0.563 199 198 212
0.133274 -0.446924 -0.562 184 187 204
0.135415 -0.446924 -0.562 139 142 157
0.138627 -0.446924 -0.562 196 200 211
0.140768 -0.446924 -0.562 201 203 215
0.14612 -0.446924 -0.562 207 209 224
0.158966 -0.446924 -0.562 144 173 207
0.443712 -0.446924 -0.562 127 144 170
0.457629 -0.446924 -0.562 178 184 206
0.479038 -0.446924 -0.562 160 164 176
0.491884 -0.446924 -0.562 91 110 140
0.5008 -0.445333 -0.56 164 173 182
0.504107 -0.43261 -0.544 127 109 109
0.478289 -0.388871 -0.489 175 127 104
0.480843 -0.38569 -0.485 175 128 102
0.481767 -0.38569 -0.485 178 131 105
0.484461 -0.384895 -0.484 173 127 101
0.49174 -0.3841 -0.483 171 124 96
0.50186 -0.3841 -0.483 167 120 94
0.512383 -0.386486 -0.486 159 113 89
0.524331 -0.391257 -0.492 158 112 86
0.533571 -0.396029 -0.498 152 108 83
0.00682857 -0.381034 -0.478 192 153 122
0.0317133 -0.39618 -0.497 134 102 91
0.0527 -0.420094 -0.527 111 87 83
0.057361 -0.424877 -0.533 113 92 89
0.092761 -0.448791 -0.563 61 77 113
0.10134 -0.448791 -0.563 39 71 122
0.106512 -0.447994 -0.562 40 70 120
0.109724 -0.447994 -0.562 90 121 175
0.117217 -0.447994 -0.562 169 182 201
0.13838 -0.447197 -0.561 209 212 221
0.431467 -0.4464 -0.56 204 204 216
0.434374 -0.447197 -0.561 204 207 216
0.481391 -0.447197 -0.561 87 110 152
0.487602 -0.447994 -0.562 152 167 196
0.49742 -0.447197 -0.561 167 170 179
0.499733 -0.4464 -0.56 163 170 178
0.48781 -0.414514 -0.52 147 113 103
0.479115 -0.388209 -0.487 173 125 102
0.49266 -0.38502 -0.483 169 122 96
0.538694 -0.399369 -0.501 147 105 80
0.00409714 -0.381945 -0.478 196 157 126
0.0123429 -0.383543 -0.48 185 144 114
0.0237514 -0.390734 -0.489 157 114 95
0.0491229 -0.416304 -0.521 112 89 83
0.110794 -0.449065 -0.562 118 143 184
0.111666 -0.448266 -0.561 122 147 188
0.125557 -0.448266 -0.561 198 200 212
0.129831 -0.448266 -0.561 196 202 214
0.134106 -0.448266 -0.561 178 179 184
0.136243 -0.448266 -0.561 196 199 206
0.140517 -0.448266 -0.561 204 208 220
0.151203 -0.448266 -0.561 174 186 212
0.161889 -0.448266 -0.561 130 160 196
0.442923 -0.448266 -0.561 101 118 161
0.450403 -0.448266 -0.561 170 192 215
0.46002 -0.448266 -0.561 132 157 187
0.469637 -0.448266 -0.561 174 177 182
0.473911 -0.448266 -0.561 181 186 192
0.478186 -0.448266 -0.561 148 157 172
0.47854 -0.397127 -0.497 174 129 106
0.478374 -0.392332 -0.491 176 128 106
0.479983 -0.388337 -0.486 175 127 104
0.482617 -0.386739 -0.484 176 128 105
0.521134 -0.390734 -0.489 159 112 84
0.01794 -0.38686 -0.483 173 131 107
0.0276457 -0.394069 -0.492 143 107 95
0.0297 -0.396471 -0.495 138 104 92
0.0348314 -0.401277 -0.501 127 98 90
0.0632571 -0.432514 -0.54 111 88 82
0.106323 -0.449334 -0.561 79 102 144
0.121283 -0.449334 -0.561 191 194 211
0.133867 -0.448533 -0.56 203 204 206
0.146667 -0.448533 -0.56 205 214 223
0.150933 -0.448533 -0.56 144 161 189
0.464533 -0.448533 -0.56 141 169 209
0.4784 -0.448533 -0.56 117 129 145
0.479467 -0.448533 -0.56 83 112 152
0.496106 -0.425306 -0.531 134 111 103
0.48692 -0.414893 -0.518 144 110 101
0.481423 -0.405282 -0.506 163 121 105
0.4785 -0.396471 -0.495 176 130 107
0.4899 -0.38686 -0.483 176 128 105
0.49164 -0.386059 -0.482 173 125 102
0.525136 -0.393268 -0.491 155 108 82
-0.0023 -0.38778 -0.483 198 162 130
0.00500762 -0.383766 -0.478 194 156 120
0.0132848 -0.386174 -0.481 182 138 109
0.0207857 -0.389386 -0.485 163 120 103
0.0237029 -0.391794 -0.488 158 117 99
0.0246829 -0.392597 -0.489 155 114 96
0.0306429 -0.397414 -0.495 137 105 92
0.0390343 -0.406246 -0.506 122 95 84
0.0422571 -0.409457 -0.51 115 92 84
0.0583762 -0.427923 -0.533 110 89 86
0.0892257 -0.450403 -0.561 100 107 149
0.0999114 -0.450403 -0.561 68 101 152
0.121067 -0.4496 -0.56 195 198 213
0.122133 -0.4496 -0.56 196 199 214
0.134933 -0.4496 -0.56 207 206 211
0.184 -0.4496 -0.56 148 169 200
0.453609 -0.450403 -0.561 69 94 134
0.461333 -0.4496 -0.56 53 88 142
0.486933 -0.4496 -0.56 147 163 197
0.490133 -0.4496 -0.56 84 108 146
0.496533 -0.4496 -0.56 153 153 161
0.4976 -0.4496 -0.56 177 177 185
0.479503 -0.399823 -0.498 173 128 107
0.478289 -0.392597 -0.489 176 130 106
0.479115 -0.390991 -0.487 177 131 107
0.510274 -0.388583 -0.484 165 115 88
0.511196 -0.388583 -0.484 163 116 90
0.519003 -0.390991 -0.487 155 109 85
-0.00322 -0.3887 -0.483 200 164 132
0.0161 -0.3887 -0.483 174 132 107
0.0189381 -0.39031 -0.485 169 128 106
0.0337419 -0.401576 -0.499 128 100 89
0.0358571 -0.40399 -0.502 128 100 89
0.0368867 -0.404795 -0.503 126 98 87
0.0390343 -0.40721 -0.506 122 95 86
0.0433981 -0.412038 -0.512 116 93 85
0.0467762 -0.416062 -0.517 112 89 81
0.0524 -0.421695 -0.524 107 86 81
0.0596143 -0.430548 -0.535 110 89 84
0.0977743 -0.451471 -0.561 83 111 151
0.104 -0.450667 -0.56 88 123 165
0.106133 -0.450667 -0.56 81 102 149
0.108267 -0.450667 -0.56 153 168 199
0.117867 -0.450667 -0.56 109 131 172
0.12 -0.450667 -0.56 164 175 207
0.122133 -0.450667 -0.56 195 198 215
0.140016 -0.449862 -0.559 206 209 218
0.146405 -0.449862 -0.559 187 189 210
0.161311 -0.449862 -0.559 121 146 187
0.163441 -0.449862 -0.559 134 160 197
0.166635 -0.449862 -0.559 125 157 198
0.1677 -0.449862 -0.559 121 153 194
0.170894 -0.449862 -0.559 127 148 177
0.439214 -0.449862 -0.559 204 203 209
0.441344 -0.449862 -0.559 146 166 191
0.457315 -0.449862 -0.559 74 107 158
0.459445 -0.449862 -0.559 56 92 144
0.466667 -0.450667 -0.56 185 189 190
0.479503 -0.400771 -0.498 169 127 105
0.47917 -0.392724 -0.488 177 129 106
0.48714 -0.3887 -0.483 173 125 102
0.490722 -0.387895 -0.482 175 128 102
0.5083 -0.3887 -0.483 162 117 88
0.51993 -0.391919 -0.487 156 112 85
0.00227143 -0.38478 -0.477 196 160 128
0.00500762 -0.385587 -0.478 194 155 124
0.0059181 -0.385587 -0.478 193 154 123
0.0114286 -0.3872 -0.48 189 146 114
0.021799 -0.392847 -0.487 159 117 103
0.0306429 -0.3993 -0.495 137 105 92
0.0390343 -0.408173 -0.506 119 95 85
0.0412048 -0.410593 -0.509 117 94 86
0.0837333 -0.451733 -0.56 143 145 160
0.0869333 -0.451733 -0.56 64 83 116
0.111467 -0.451733 -0.56 188 187 201
0.127239 -0.450927 -0.559 181 180 186
0.149599 -0.450927 -0.559 98 121 162
0.436303 -0.45012 -0.558 209 209 211
0.446668 -0.450927 -0.559 67 101 149
0.454121 -0.450927 -0.559 70 107 162
0.459445 -0.450927 -0.559 47 84 136
0.462639 -0.450927 -0.559 82 115 160
0.463704 -0.450927 -0.559 136 169 214
0.472222 -0.450927 -0.559 194 191 198
0.487129 -0.450927 -0.559 104 125 168
0.494376 -0.425113 -0.527 142 109 100
0.480099 -0.393653 -0.488 175 130 107
0.485383 -0.390427 -0.484 177 127 104
0.486305 -0.390427 -0.484 177 127 104
0.48898 -0.38962 -0.483 173 123 100
0.49082 -0.38962 -0.483 173 126 98
0.495312 -0.388813 -0.482 173 126 100
0.50253 -0.388007 -0.481 166 119 93
0.5083 -0.38962 -0.483 161 116 87
-0.0118505 -0.437437 -0.541 191 156 124
0.00227143 -0.385689 -0.477 197 158 127
0.0151486 -0.389731 -0.482 177 133 106
0.03696 -0.40752 -0.504 121 97 87
0.0391114 -0.409946 -0.507 117 95 84
0.0502114 -0.422074 -0.522 110 87 81
0.0571457 -0.429351 -0.531 110 89 84
0.0595029 -0.431777 -0.534 110 89 84
0.0793248 -0.451991 -0.559 169 166 177
0.0974257 -0.451991 -0.559 77 102 143
0.101685 -0.451991 -0.559 89 120 167
0.109138 -0.451991 -0.559 165 167 188
0.126174 -0.451991 -0.559 182 181 186
0.129137 -0.451183 -0.558 200 203 212
0.1302 -0.451183 -0.558 201 204 213
0.131263 -0.451183 -0.558 200 200 210
0.139766 -0.451183 -0.558 201 205 214
0.148269 -0.451183 -0.558 102 122 155
0.18228 -0.451183 -0.558 131 148 174
0.187594 -0.451183 -0.558 196 196 208
0.42385 -0.450374 -0.557 116 149 194
0.449057 -0.451183 -0.558 51 88 143
0.478817 -0.451183 -0.558 87 120 165
0.482006 -0.451183 -0.558 97 122 178
0.49476 -0.451183 -0.558 167 171 180
0.479443 -0.400243 -0.495 170 126 101
0.497829 -0.388114 -0.48 169 119 92
0.50633 -0.389731 -0.482 166 119 91
0.591723 -0.434203 -0.537 179 163 148
0.00958 -0.388218 -0.479 188 147 117
0.0114286 -0.389029 -0.48 184 141 109
0.0199029 -0.393891 -0.486 161 123 104
0.0247333 -0.397133 -0.49 150 111 96
0.0412857 -0.413343 -0.51 116 91 84
0.0467762 -0.419016 -0.517 112 89 81
0.112332 -0.453056 -0.559 184 190 202
0.443743 -0.452246 -0.558 135 150 179
0.452246 -0.452246 -0.558 70 108 171
0.490509 -0.452246 -0.558 69 109 160
0.501459 -0.450625 -0.556 176 177 181
0.487043 -0.417395 -0.515 149 111 98
0.47931 -0.397944 -0.491 172 126 103
0.481767 -0.393081 -0.485 172 126 102
0.485383 -0.39227 -0.484 177 130 104
0.486305 -0.39227 -0.484 177 130 104
0.4899 -0.39146 -0.483 177 127 100
0.500571 -0.389029 -0.48 168 122 89
0.508166 -0.39065 -0.482 163 116 88
0.516728 -0.39227 -0.484 160 114 88
0.54442 -0.406049 -0.501 148 109 80
0.588417 -0.432794 -0.534 160 139 120
0.951554 -0.450625 -0.556 182 186 172
0.997414 -0.449814 -0.555 136 139 132
1.00376 -0.449814 -0.555 150 151 145
1.00481 -0.449814 -0.555 147 148 142
0.0814543 -0.454121 -0.559 107 115 126
0.0910371 -0.454121 -0.559 168 168 178
0.10044 -0.453309 -0.558 117 140 182
0.103629 -0.453309 -0.558 83 113 151
0.104691 -0.453309 -0.558 88 118 156
0.106817 -0.453309 -0.558 103 121 167
0.135271 -0.452496 -0.557 200 202 217
0.146942 -0.452496 -0.557 148 161 193
0.152247 -0.452496 -0.557 217 216 230
0.15649 -0.452496 -0.557 185 196 218
0.159673 -0.452496 -0.557 130 154 188
0.187258 -0.452496 -0.557 187 198 218
0.438704 -0.452496 -0.557 208 208 210
0.445869 -0.453309 -0.558 93 127 165
0.449057 -0.453309 -0.558 52 92 154
0.459923 -0.452496 -0.557 155 184 224
0.460984 -0.452496 -0.557 170 189 196
0.466063 -0.453309 -0.558 197 201 202
0.468189 -0.453309 -0.558 195 199 198
0.474776 -0.452496 -0.557 157 171 184
0.480081 -0.452496 -0.557 70 103 154
0.484293 -0.41269 -0.508 156 112 99
0.47922 -0.397254 -0.489 172 125 105
0.480151 -0.397254 -0.489 173 126 106
0.484461 -0.393192 -0.484 174 128 102
0.48898 -0.39238 -0.483 174 129 100
0.490722 -0.391568 -0.482 179 130 98
0.501486 -0.389943 -0.48 172 123 93
0.51566 -0.39238 -0.483 160 115 86
0.51658 -0.39238 -0.483 159 114 85
0.532766 -0.399691 -0.492 149 114 86
0.9584 -0.454933 -0.56 161 164 155
0.963964 -0.456558 -0.562 157 158 150
0.969316 -0.456558 -0.562 148 148 138
0.965606 -0.453309 -0.558 142 142 132
0.969236 -0.450059 -0.554 155 158 151
0.981557 -0.450871 -0.555 135 136 128
0.990399 -0.452496 -0.557 119 120 112
0.997414 -0.450871 -0.555 136 139 132
0.00226667 -0.3876 -0.476 199 160 129
0.00958 -0.390043 -0.479 185 144 112
0.0151486 -0.392486 -0.482 171 130 102
0.0237514 -0.398186 -0.489 152 113 98
0.0401562 -0.413657 -0.508 118 94 84
0.0479457 -0.422614 -0.519 109 88 83
0.117235 -0.453557 -0.557 140 154 180
0.126784 -0.453557 -0.557 195 197 212
0.131028 -0.453557 -0.557 170 177 193
0.137393 -0.453557 -0.557 195 198 215
0.149064 -0.453557 -0.557 210 213 230
0.151186 -0.453557 -0.557 213 216 233
0.152247 -0.453557 -0.557 218 217 231
0.438975 -0.452743 -0.556 207 211 212
0.457801 -0.453557 -0.557 96 135 204
0.458862 -0.453557 -0.557 137 156 186
0.483264 -0.453557 -0.557 62 101 156
0.492987 -0.452743 -0.556 157 172 193
0.493558 -0.426686 -0.524 133 104 98
0.481416 -0.406329 -0.499 169 125 100
0.481767 -0.394929 -0.485 173 127 103
0.488886 -0.392486 -0.482 181 132 102
0.490722 -0.392486 -0.482 180 131 99
0.491536 -0.391671 -0.481 179 130 97
0.519493 -0.394114 -0.484 158 113 82
0.527505 -0.397371 -0.488 153 111 86
0.905023 -0.454371 -0.558 180 182 171
0.974853 -0.452743 -0.556 121 120 115
1.00281 -0.454371 -0.558 109 110 105
1.01707 -0.456 -0.56 110 111 106
1.02788 -0.458443 -0.563 109 109 107
-0.000453333 -0.388507 -0.476 198 159 130
0.00681429 -0.389323 -0.477 189 148 116
0.0104924 -0.390955 -0.479 181 140 112
0.0114286 -0.391771 -0.48 179 138 110
0.0151486 -0.393404 -0.482 169 129 103
0.0297 -0.404014 -0.495 130 102 91
0.034901 -0.409728 -0.502 125 97 86
0.076781 -0.453802 -0.556 152 155 170
0.0802457 -0.455434 -0.558 98 111 128
0.08556 -0.455434 -0.558 153 160 179
0.0919371 -0.455434 -0.558 158 156 167
0.099199 -0.454618 -0.557 124 143 175
0.115113 -0.454618 -0.557 193 196 213
0.126784 -0.454618 -0.557 177 179 200
0.131028 -0.454618 -0.557 163 174 194
0.139265 -0.453802 -0.556 166 175 204
0.143501 -0.453802 -0.556 139 149 176
0.15515 -0.453802 -0.556 204 207 222
0.355729 -0.452986 -0.555 141 175 220
0.357843 -0.452986 -0.555 131 165 210
0.424443 -0.452986 -0.555 93 143 196
0.446389 -0.453802 -0.556 57 95 168
0.465451 -0.453802 -0.556 189 194 200
0.469688 -0.453802 -0.556 201 199 213
0.4814 -0.406463 -0.498 165 123 98
0.480323 -0.402382 -0.493 167 123 98
0.480099 -0.398301 -0.488 172 124 101
0.48097 -0.397485 -0.487 171 125 99
0.48269 -0.395852 -0.485 174 127 101
0.48622 -0.39422 -0.483 178 131 103
0.48705 -0.393404 -0.482 181 131 104
0.496117 -0.392588 -0.481 177 128 98
0.497033 -0.392588 -0.481 175 126 96
0.500441 -0.390955 -0.479 171 122 90
0.501353 -0.390955 -0.479 171 122 90
0.507886 -0.391771 -0.48 167 118 86
0.984 -0.457067 -0.56 114 111 106
0.0199029 -0.397594 -0.486 158 120 99
0.0208714 -0.398412 -0.487 156 118 97
0.0218438 -0.39923 -0.488 155 117 96
0.0227733 -0.39923 -0.488 153 115 94
0.0307667 -0.406593 -0.497 131 101 91
0.0490286 -0.42541 -0.52 108 88 81
0.0502114 -0.427046 -0.522 108 88 81
0.0757219 -0.454861 -0.556 132 139 155
0.07798 -0.455679 -0.557 128 133 152
0.0832848 -0.455679 -0.557 146 153 171
0.12232 -0.454861 -0.556 106 126 163
0.127615 -0.454861 -0.556 179 185 211
0.13397 -0.454861 -0.556 184 200 226
0.138206 -0.454861 -0.556 160 175 208
0.435286 -0.453225 -0.554 214 218 217
0.436341 -0.453225 -0.554 190 194 193
0.446389 -0.454861 -0.556 63 100 168
0.448507 -0.454861 -0.556 44 85 149
0.452743 -0.454861 -0.556 44 83 152
0.454861 -0.454861 -0.556 43 83 152
0.475186 -0.454043 -0.555 72 113 169
0.478357 -0.454043 -0.555 55 101 163
0.48981 -0.454861 -0.556 58 99 163
0.494214 -0.454043 -0.555 134 150 176
0.496384 -0.431136 -0.527 127 99 95
0.493612 -0.427864 -0.523 134 104 96
0.4814 -0.407411 -0.498 163 123 97
0.480151 -0.400049 -0.489 171 127 102
0.483614 -0.396776 -0.485 177 130 102
0.485383 -0.395958 -0.484 175 128 100
0.489804 -0.394322 -0.482 180 131 99
0.505003 -0.391868 -0.479 164 115 83
0.522259 -0.395958 -0.484 158 113 84
0.590361 -0.436045 -0.533 154 132 108
0.874755 -0.455679 -0.557 150 150 140
0.8769 -0.454043 -0.555 146 146 136
-0.00499714 -0.39114 -0.477 196 162 127
-0.00317333 -0.39032 -0.476 196 159 130
0.01518 -0.39606 -0.483 169 126 107
0.0370333 -0.4141 -0.505 121 96 89
0.099021 -0.45592 -0.556 148 160 182
0.105375 -0.45592 -0.556 87 106 148
0.11173 -0.45592 -0.556 193 196 203
0.112789 -0.45592 -0.556 197 200 207
0.143501 -0.45592 -0.556 188 203 236
0.152757 -0.4551 -0.555 216 224 235
0.154871 -0.4551 -0.555 190 199 216
0.176014 -0.4551 -0.555 218 226 237
0.416291 -0.45428 -0.554 67 116 185
0.417347 -0.45428 -0.554 59 112 180
0.4403 -0.4551 -0.555 150 154 165
0.448757 -0.4551 -0.555 49 86 154
0.449814 -0.4551 -0.555 47 84 152
0.4699 -0.4551 -0.555 167 174 200
0.493157 -0.4551 -0.555 86 119 160
0.493324 -0.45428 -0.554 95 112 140
0.485247 -0.41738 -0.509 146 109 91
0.482401 -0.41246 -0.503 155 117 94
0.483359 -0.41246 -0.503 155 117 94
0.481329 -0.4059 -0.495 166 125 97
0.488886 -0.39524 -0.482 181 133 97
0.493369 -0.39442 -0.481 178 132 99
0.498616 -0.39278 -0.479 172 126 93
0.817486 -0.45264 -0.552 175 177 166
0.843193 -0.45346 -0.553 167 168 154
0.845773 -0.45428 -0.554 166 166 154
0.00498667 -0.391227 -0.476 193 154 123
0.0105143 -0.394514 -0.48 181 138 103
0.0208714 -0.400268 -0.487 156 118 97
0.0501152 -0.428212 -0.521 110 87 81
0.0896505 -0.457801 -0.557 164 171 181
0.0947848 -0.456979 -0.556 91 111 144
0.0979619 -0.456979 -0.556 138 153 192
0.1073 -0.456157 -0.555 138 149 177
0.11067 -0.456979 -0.556 190 197 207
0.112586 -0.456157 -0.555 194 202 205
0.125271 -0.456157 -0.555 113 140 195
0.146414 -0.456157 -0.555 216 216 224
0.197857 -0.455335 -0.554 135 164 206
0.452986 -0.456157 -0.555 46 83 151
0.458271 -0.456157 -0.555 77 105 155
0.491043 -0.456157 -0.555 61 93 144
0.494379 -0.455335 -0.554 121 140 170
0.501913 -0.454513 -0.553 67 91 129
0.5029 -0.439719 -0.535 123 99 97
0.481029 -0.40109 -0.488 170 129 97
0.481898 -0.400268 -0.487 172 129 97
0.481834 -0.399446 -0.486 172 129 97
0.48714 -0.39698 -0.483 177 132 99
0.495879 -0.393692 -0.479 173 127 94
0.828447 -0.454513 -0.553 146 146 138
0.853063 -0.456979 -0.556 138 138 126
0.8547 -0.456157 -0.555 136 136 126
0.857871 -0.456157 -0.555 131 131 119
0.860547 -0.455335 -0.554 130 130 120
0.870008 -0.456979 -0.556 115 115 107
-0.0135257 -0.433324 -0.526 194 158 126
0.01518 -0.3979 -0.483 164 122 100
0.0247838 -0.40449 -0.491 146 109 93
0.0402352 -0.419319 -0.509 121 93 82
0.0479457 -0.427557 -0.519 107 87 80
0.0502114 -0.430029 -0.522 108 87 82
0.0583762 -0.43909 -0.533 105 86 82
0.0596143 -0.440738 -0.535 105 86 82
0.111529 -0.457214 -0.555 191 198 204
0.113643 -0.457214 -0.555 190 197 207
0.1369 -0.457214 -0.555 98 129 176
0.140874 -0.45639 -0.554 94 121 176
0.145095 -0.45639 -0.554 213 217 228
0.411327 -0.455567 -0.553 76 115 174
0.416593 -0.455567 -0.553 53 109 168
0.42818 -0.455567 -0.553 122 145 176
0.43134 -0.455567 -0.553 200 213 230
0.433447 -0.455567 -0.553 147 158 176
0.447949 -0.45639 -0.554 39 82 151
0.466729 -0.457214 -0.555 144 170 195
0.482771 -0.45639 -0.554 38 82 145
0.488048 -0.45639 -0.554 56 97 159
0.496647 -0.455567 -0.553 171 179 192
0.489954 -0.425086 -0.516 134 108 95
0.482398 -0.413552 -0.502 155 114 96
0.48622 -0.3979 -0.483 178 131 101
0.48705 -0.397076 -0.482 178 131 101
0.50668 -0.393781 -0.478 166 119 89
0.536359 -0.40449 -0.491 150 111 82
0.80592 -0.454743 -0.552 160 160 152
0.8137 -0.455567 -0.553 155 157 146
0.830386 -0.457214 -0.555 118 118 110
0.852475 -0.458862 -0.557 121 121 111
0.875263 -0.459686 -0.558 118 118 110
-0.00777143 -0.396343 -0.48 197 158 129
-0.00681429 -0.393866 -0.477 198 159 130
-0.00497619 -0.392214 -0.475 200 161 130
0.031841 -0.412031 -0.499 124 99 92
0.0559229 -0.436803 -0.529 108 89 85
0.0777 -0.458271 -0.555 85 99 126
0.100775 -0.457446 -0.554 122 136 165
0.106051 -0.457446 -0.554 93 118 158
0.132432 -0.457446 -0.554 107 140 185
0.137709 -0.457446 -0.554 79 112 165
0.190127 -0.45662 -0.553 90 130 179
0.45639 -0.457446 -0.554 68 103 157
0.484882 -0.457446 -0.554 48 97 155
0.499954 -0.455794 -0.552 156 166 176
0.486216 -0.420289 -0.509 150 108 92
0.481262 -0.407077 -0.493 157 115 91
0.488886 -0.397994 -0.482 172 127 96
0.488788 -0.397169 -0.481 173 128 97
0.538389 -0.406251 -0.492 149 109 83
0.823829 -0.459923 -0.557 126 127 121
0.829764 -0.459097 -0.556 120 120 112
0.830823 -0.459097 -0.556 117 117 109
0.850817 -0.460749 -0.558 116 116 106
0.86676 -0.460749 -0.558 117 119 108
0.00316667 -0.393119 -0.475 194 155 124
0.0151486 -0.398912 -0.482 164 119 100
0.02282 -0.404706 -0.489 148 109 92
0.031841 -0.412982 -0.499 124 99 94
0.0413667 -0.422913 -0.511 118 91 84
0.0457029 -0.427051 -0.516 110 87 81
0.06086 -0.444431 -0.537 98 83 80
0.0732067 -0.457673 -0.553 52 74 115
0.07426 -0.457673 -0.553 49 71 112
0.10902 -0.457673 -0.553 186 195 202
0.111328 -0.458501 -0.554 192 196 205
0.113438 -0.458501 -0.554 193 200 208
0.122935 -0.458501 -0.554 57 94 146
0.133247 -0.457673 -0.553 76 109 160
0.13746 -0.457673 -0.553 69 104 160
0.1501 -0.457673 -0.553 215 217 230
0.196447 -0.457673 -0.553 89 121 180
0.4232 -0.456846 -0.552 103 144 196
0.43792 -0.456846 -0.552 137 165 204
0.447949 -0.458501 -0.554 44 87 155
0.481223 -0.407189 -0.492 162 122 97
0.488886 -0.398912 -0.482 170 125 96
0.495086 -0.397257 -0.48 179 129 102
0.499396 -0.395602 -0.478 172 121 94
0.511071 -0.394774 -0.477 165 118 90
0.596554 -0.441949 -0.534 183 171 159
0.80673 -0.458501 -0.554 99 102 93
0.807785 -0.458501 -0.554 102 105 96
0.823183 -0.461811 -0.558 121 120 115
0.827434 -0.461811 -0.558 120 119 114
0.828497 -0.461811 -0.558 121 121 113
0.85646 -0.464294 -0.561 117 114 107
0.857067 -0.463467 -0.56 122 122 114
0.862871 -0.464294 -0.561 121 121 111
0.8688 -0.463467 -0.56 113 113 103
0.877255 -0.465122 -0.562 124 124 114
-0.00962 -0.399001 -0.481 195 159 127
-0.00588095 -0.394024 -0.475 201 160 128
-0.00135429 -0.393194 -0.474 197 158 127
0.0218438 -0.404808 -0.488 151 113 94
0.02282 -0.405637 -0.489 148 110 91
0.0277581 -0.409785 -0.494 135 103 92
0.0287571 -0.410614 -0.495 133 101 90
0.0467762 -0.428864 -0.517 109 85 81
0.0732067 -0.458727 -0.553 47 69 106
0.0912781 -0.459556 -0.554 73 93 130
0.0986648 -0.459556 -0.554 130 151 178
0.101647 -0.458727 -0.553 81 104 146
0.114287 -0.458727 -0.553 197 201 210
0.123767 -0.458727 -0.553 53 92 147
0.14694 -0.458727 -0.553 213 220 230
0.186629 -0.457897 -0.552 169 189 216
0.193989 -0.457897 -0.552 79 114 172
0.200297 -0.457897 -0.552 99 133 194
0.203451 -0.457897 -0.552 194 219 250
0.434766 -0.457897 -0.552 190 200 209
0.44714 -0.458727 -0.553 41 84 153
0.49454 -0.458727 -0.553 175 183 194
0.501913 -0.458727 -0.553 167 176 191
0.48269 -0.402319 -0.485 175 130 101
0.496791 -0.397342 -0.479 174 124 97
0.501986 -0.395683 -0.477 174 125 95
0.512889 -0.395683 -0.477 159 116 84
0.518689 -0.397342 -0.479 152 113 80
0.837435 -0.463704 -0.559 115 115 107
0.839565 -0.463704 -0.559 112 112 104
0.844267 -0.464533 -0.56 116 116 108
0.862269 -0.466192 -0.562 122 122 114
0.868691 -0.466192 -0.562 115 115 105
0.870832 -0.466192 -0.562 113 113 103
0.87608 -0.467851 -0.564 119 119 109
0.87871 -0.468681 -0.565 120 120 110
-0.0167829 -0.443983 -0.534 197 158 125
0.0142305 -0.400749 -0.482 163 120 101
0.0238 -0.4074 -0.49 146 109 93
0.031841 -0.414883 -0.499 121 96 91
0.0457029 -0.429017 -0.516 110 86 82
0.0479457 -0.431511 -0.519 109 85 81
0.07426 -0.45978 -0.553 45 65 98
0.0763667 -0.45978 -0.553 70 89 121
0.0847933 -0.45978 -0.553 151 162 164
0.0944438 -0.460611 -0.554 71 100 142
0.104807 -0.45978 -0.553 72 106 154
0.10586 -0.45978 -0.553 73 107 155
0.114287 -0.45978 -0.553 198 201 210
0.131954 -0.458949 -0.552 54 87 140
0.135109 -0.458949 -0.552 56 94 159
0.14352 -0.458949 -0.552 214 221 229
0.146674 -0.458949 -0.552 212 218 230
0.397245 -0.458117 -0.551 182 199 219
0.444229 -0.458949 -0.552 70 114 175
0.456846 -0.458949 -0.552 171 188 206
0.479793 -0.45978 -0.553 74 117 168
0.49138 -0.45978 -0.553 105 135 171
0.522514 -0.399086 -0.48 151 110 78
0.546545 -0.412389 -0.496 143 107 75
0.598589 -0.443983 -0.534 191 182 177
0.826943 -0.467263 -0.562 106 107 102
0.832295 -0.467263 -0.562 119 118 113
0.871783 -0.468926 -0.564 121 121 111
-0.00863143 -0.3975 -0.477 199 161 125
-0.00405429 -0.394167 -0.473 197 161 129
-0.00225238 -0.394167 -0.473 196 160 128
0.000451429 -0.395 -0.474 197 158 129
0.0180143 -0.404167 -0.485 156 115 97
0.0338771 -0.4175 -0.501 119 94 90
0.0513038 -0.435833 -0.523 106 86 85
0.0524 -0.436667 -0.524 107 87 86
0.0583762 -0.444167 -0.533 101 83 83
0.0763667 -0.460833 -0.553 94 113 143
0.0942733 -0.460833 -0.553 71 100 142
0.109874 -0.46 -0.552 188 196 209
0.127749 -0.46 -0.552 44 82 147
0.195736 -0.459167 -0.551 81 112 176
0.424532 -0.459167 -0.551 121 149 188
0.43792 -0.46 -0.552 209 216 226
0.442126 -0.46 -0.552 148 174 209
0.44528 -0.46 -0.552 53 94 158
0.449247 -0.460833 -0.553 57 104 176
0.479793 -0.460833 -0.553 78 119 171
0.497545 -0.461667 -0.554 172 172 172
0.506127 -0.460833 -0.553 118 123 129
0.511393 -0.460833 -0.553 69 80 112
0.493791 -0.4325 -0.519 131 99 84
0.482067 -0.408333 -0.49 172 124 101
0.481898 -0.405833 -0.487 171 123 100
0.48438 -0.4025 -0.483 177 127 102
0.486131 -0.401667 -0.482 172 122 97
0.501986 -0.3975 -0.477 177 127 100
0.502747 -0.396667 -0.476 170 120 93
0.521426 -0.399167 -0.479 152 112 77
0.842355 -0.469167 -0.563 122 122 114
0.874874 -0.471667 -0.566 123 124 116
0.0208714 -0.406761 -0.487 150 112 91
0.031841 -0.416784 -0.499 123 95 91
0.0391886 -0.424301 -0.508 117 94 88
0.0835886 -0.461051 -0.552 150 157 163
0.0869 -0.461887 -0.553 157 165 168
0.0879533 -0.461887 -0.553 133 151 165
0.103378 -0.460216 -0.551 66 108 166
0.108626 -0.460216 -0.551 190 193 200
0.119337 -0.461051 -0.552 191 197 211
0.138012 -0.460216 -0.551 178 195 223
0.147458 -0.460216 -0.551 210 217 235
0.344143 -0.459381 -0.55 194 221 248
0.382905 -0.459381 -0.55 60 98 169
0.402492 -0.460216 -0.551 220 226 238
0.403542 -0.460216 -0.551 223 229 241
0.448193 -0.461887 -0.553 52 93 157
0.480661 -0.462722 -0.554 97 128 172
0.493324 -0.462722 -0.554 143 147 158
0.500343 -0.441006 -0.528 115 94 93
0.482946 -0.408431 -0.489 172 124 101
0.485213 -0.402585 -0.482 171 121 98
0.494967 -0.400079 -0.479 177 127 100
0.495879 -0.400079 -0.479 175 125 98
0.497443 -0.398409 -0.477 174 124 97
0.51 -0.397573 -0.476 168 118 91
0.519427 -0.399244 -0.478 161 116 85
0.595114 -0.442676 -0.53 178 160 148
0.834985 -0.472745 -0.566 117 117 115
0.856547 -0.472745 -0.566 116 117 111
0.857625 -0.472745 -0.566 114 115 107
0.86454 -0.47358 -0.567 93 94 89
0.8775 -0.47358 -0.567 109 110 104
0.892391 -0.476921 -0.571 102 103 95
-0.00859524 -0.397643 -0.475 200 161 128
-0.00495524 -0.395969 -0.473 201 162 129
0.00864952 -0.400154 -0.478 177 136 106
0.0328571 -0.418571 -0.5 120 95 90
0.0338771 -0.419409 -0.501 118 94 90
0.036 -0.42192 -0.504 114 93 88
0.0402352 -0.426106 -0.509 117 92 87
0.0424229 -0.428617 -0.512 113 90 84
0.0434829 -0.429454 -0.513 112 89 83
0.0457029 -0.431966 -0.516 109 86 80
0.0501152 -0.436151 -0.521 107 86 81
0.0804343 -0.462103 -0.552 149 151 164
0.102329 -0.461266 -0.551 60 105 164
0.110725 -0.461266 -0.551 202 200 213
0.116183 -0.462103 -0.552 193 201 214
0.130666 -0.461266 -0.551 47 89 147
0.132765 -0.461266 -0.551 61 96 154
0.187 -0.460429 -0.55 100 141 193
0.192238 -0.460429 -0.55 72 106 170
0.202714 -0.460429 -0.55 136 167 222
0.398619 -0.460429 -0.55 219 227 238
0.399667 -0.460429 -0.55 222 227 233
0.40281 -0.460429 -0.55 217 229 241
0.413286 -0.460429 -0.55 106 145 188
0.435817 -0.462103 -0.552 214 221 231
0.448193 -0.46294 -0.553 67 103 155
0.451353 -0.46294 -0.553 63 100 153
0.457897 -0.462103 -0.552 151 160 177
0.468207 -0.46294 -0.553 180 178 181
0.471367 -0.46294 -0.553 166 165 173
0.4921 -0.464614 -0.555 174 175 179
0.495271 -0.464614 -0.555 170 171 175
0.496329 -0.464614 -0.555 169 170 174
0.508097 -0.463777 -0.554 154 154 154
0.509152 -0.463777 -0.554 152 152 152
0.515014 -0.459591 -0.549 104 93 89
0.502238 -0.443686 -0.53 114 95 88
0.48705 -0.403503 -0.482 172 125 99
0.49912 -0.39848 -0.476 173 123 96
0.502747 -0.39848 -0.476 168 118 91
0.5035 -0.397643 -0.475 172 122 95
0.508929 -0.397643 -0.475 169 120 90
0.509833 -0.397643 -0.475 168 119 89
0.516347 -0.39848 -0.476 162 117 88
0.519249 -0.399317 -0.477 156 111 82
0.527268 -0.402666 -0.481 149 109 83
0.83322 -0.47466 -0.567 26 26 24
0.845766 -0.473823 -0.566 117 117 109
0.85439 -0.473823 -0.566 101 102 96
0.870841 -0.476334 -0.569 96 97 92
0.000451429 -0.397709 -0.474 196 157 126
0.0123429 -0.402743 -0.48 166 124 99
0.0132571 -0.402743 -0.48 164 122 97
0.0247838 -0.411972 -0.491 144 107 91
0.0412857 -0.427914 -0.51 114 89 82
0.0513038 -0.438822 -0.523 110 89 84
0.0960314 -0.462315 -0.551 43 78 134
0.101279 -0.462315 -0.551 66 105 170
0.12227 -0.462315 -0.551 125 149 185
0.14719 -0.461476 -0.55 218 221 240
0.192238 -0.461476 -0.55 80 118 181
0.196429 -0.461476 -0.55 80 117 188
0.343517 -0.460637 -0.549 204 220 243
0.353974 -0.460637 -0.549 120 161 207
0.387437 -0.460637 -0.549 57 102 170
0.407 -0.461476 -0.55 155 168 184
0.44714 -0.463993 -0.553 168 172 175
0.461887 -0.463993 -0.553 184 185 187
0.479606 -0.464832 -0.554 177 178 182
0.482586 -0.465671 -0.555 177 178 182
0.489986 -0.465671 -0.555 172 176 179
0.497223 -0.46651 -0.556 170 170 172
0.498282 -0.46651 -0.556 169 169 171
0.492903 -0.432949 -0.516 130 102 91
0.482201 -0.41365 -0.493 164 119 96
0.482826 -0.408616 -0.487 166 122 97
0.48438 -0.40526 -0.483 172 126 100
0.5035 -0.398548 -0.475 171 122 92
0.591625 -0.441339 -0.526 115 105 96
0.871925 -0.477418 -0.569 111 111 103
0.877344 -0.477418 -0.569 117 120 113
0.878428 -0.477418 -0.569 126 127 119
-0.0123686 -0.404498 -0.481 198 159 128
-0.00857714 -0.398611 -0.474 199 160 129
-0.00767429 -0.398611 -0.474 200 161 130
0.00772286 -0.401134 -0.477 179 138 108
0.0151486 -0.405339 -0.482 159 117 93
0.0371067 -0.425522 -0.506 115 92 86
0.0402352 -0.428045 -0.509 114 89 82
0.0969048 -0.462524 -0.55 29 68 125
0.118905 -0.462524 -0.55 152 175 209
0.128567 -0.463365 -0.551 43 81 156
0.206529 -0.461683 -0.549 91 124 169
0.207574 -0.461683 -0.549 104 137 182
0.209666 -0.461683 -0.549 187 202 235
0.339334 -0.461683 -0.549 221 231 240
0.352929 -0.461683 -0.549 102 146 191
0.390238 -0.462524 -0.55 130 151 180
0.40774 -0.463365 -0.551 177 181 190
0.414333 -0.462524 -0.55 182 192 194
0.417476 -0.462524 -0.55 190 202 200
0.418524 -0.462524 -0.55 191 204 197
0.44082 -0.465047 -0.553 202 206 207
0.442927 -0.465047 -0.553 200 204 205
0.452407 -0.465047 -0.553 197 198 200
0.45346 -0.465047 -0.553 197 198 200
0.45662 -0.465047 -0.553 194 196 195
0.458727 -0.465047 -0.553 194 193 198
0.45978 -0.465047 -0.553 193 193 195
0.473274 -0.465888 -0.554 184 184 186
0.47433 -0.465888 -0.554 184 184 186
0.486632 -0.46757 -0.556 176 177 179
0.498117 -0.46841 -0.557 163 161 162
0.5004 -0.46757 -0.556 158 156 157
0.509931 -0.46757 -0.556 145 143 144
0.51512 -0.460842 -0.548 107 92 89
0.494813 -0.435613 -0.518 126 102 92
0.506051 -0.398611 -0.474 175 126 96
0.506954 -0.398611 -0.474 174 125 95
0.511469 -0.398611 -0.474 168 119 89
0.840568 -0.481025 -0.572 26 26 24
0.863254 -0.478502 -0.569 103 103 95
0.874543 -0.479343 -0.57 83 84 79
-0.00225238 -0.398671 -0.473 196 160 126
0.00316 -0.399514 -0.474 190 149 119
0.00588095 -0.400357 -0.475 183 142 112
0.0114048 -0.403729 -0.479 170 126 99
0.0381457 -0.427329 -0.507 116 91 86
0.0424229 -0.431543 -0.512 109 88 83
0.0781895 -0.464414 -0.551 107 112 131
0.0822381 -0.463571 -0.55 145 151 167
0.0958571 -0.463571 -0.55 19 62 117
0.118689 -0.462729 -0.549 100 135 189
0.132283 -0.462729 -0.549 51 90 159
0.138557 -0.462729 -0.549 85 117 176
0.151106 -0.462729 -0.549 125 146 173
0.155289 -0.462729 -0.549 86 125 184
0.190843 -0.462729 -0.549 69 107 169
0.19398 -0.462729 -0.549 67 106 171
0.33306 -0.462729 -0.549 216 220 219
0.342471 -0.462729 -0.549 200 203 212
0.351883 -0.462729 -0.549 113 143 177
0.403542 -0.464414 -0.551 207 206 211
0.411938 -0.464414 -0.551 208 204 205
0.425303 -0.465257 -0.552 207 206 204
0.431611 -0.465257 -0.552 203 204 206
0.45346 -0.4661 -0.553 195 197 196
0.474129 -0.467786 -0.555 180 180 180
0.491751 -0.469471 -0.557 170 170 172
0.495647 -0.471157 -0.559 157 155 156
0.497776 -0.471157 -0.559 160 156 157
0.51708 -0.470314 -0.558 121 120 116
0.490086 -0.429857 -0.51 133 109 99
0.486131 -0.406257 -0.482 170 126 99
0.490514 -0.404571 -0.48 173 126 98
0.491429 -0.404571 -0.48 172 125 97
0.49223 -0.403729 -0.479 172 125 97
0.521974 -0.402043 -0.477 147 112 84
0.842361 -0.481271 -0.571 38 42 45
0.850918 -0.478743 -0.568 98 98 90
0.876077 -0.481271 -0.571 107 108 102
0.893334 -0.482957 -0.573 31 34 27
-0.00315333 -0.399572 -0.473 199 160 129
0.000450476 -0.399572 -0.473 193 154 121
0.00316 -0.400417 -0.474 190 149 119
0.0161 -0.40802 -0.483 158 116 92
0.0199438 -0.411399 -0.487 147 109 88
0.031841 -0.421536 -0.499 120 95 88
0.0349705 -0.424915 -0.503 117 94 88
0.0490286 -0.439276 -0.52 107 88 82
0.0832857 -0.464619 -0.55 129 136 154
0.0862714 -0.463774 -0.549 72 89 117
0.0967286 -0.463774 -0.549 24 69 124
0.115551 -0.463774 -0.549 81 110 154
0.133329 -0.463774 -0.549 60 98 160
0.139603 -0.463774 -0.549 81 116 180
0.197802 -0.46293 -0.548 111 151 210
0.200933 -0.46293 -0.548 171 198 228
0.319928 -0.46293 -0.548 113 143 195
0.32619 -0.46293 -0.548 142 154 154
0.344563 -0.463774 -0.549 191 190 195
0.360905 -0.464619 -0.55 204 207 212
0.36719 -0.464619 -0.55 207 208 212
0.427406 -0.466309 -0.552 205 204 210
0.436607 -0.467153 -0.553 201 201 203
0.445033 -0.467153 -0.553 193 193 193
0.467998 -0.467998 -0.554 176 176 174
0.507941 -0.474756 -0.562 131 127 128
0.510243 -0.473911 -0.561 125 121 122
0.521331 -0.471377 -0.558 95 87 84
0.518767 -0.467153 -0.553 97 86 82
0.483179 -0.417312 -0.494 159 117 93
0.48269 -0.40971 -0.485 166 122 97
0.498213 -0.402107 -0.476 177 127 100
0.50169 -0.401262 -0.475 172 123 93
0.51039 -0.399572 -0.473 173 124 94
0.557454 -0.421536 -0.499 146 107 78
0.601045 -0.446879 -0.529 70 61 62
0.850918 -0.479825 -0.568 100 99 94
0.852 -0.479825 -0.568 104 103 98
0.857835 -0.48067 -0.569 83 84 78
0.860429 -0.481514 -0.57 47 48 42
0.888507 -0.483204 -0.572 95 100 94
0.895987 -0.484893 -0.574 88 91 84
-0.0153371 -0.413173 -0.488 196 157 126
-0.000450476 -0.400473 -0.473 191 155 121
0.0132848 -0.407247 -0.481 166 122 97
0.0161 -0.40894 -0.483 158 116 92
0.0180143 -0.410633 -0.485 156 115 93
0.02982 -0.420793 -0.497 126 96 86
0.0339448 -0.425027 -0.502 117 94 88
0.0467762 -0.437727 -0.517 105 84 79
0.07686 -0.46482 -0.549 51 61 86
0.0820886 -0.46482 -0.549 116 123 139
0.0831343 -0.46482 -0.549 92 99 117
0.0895714 -0.465667 -0.55 48 80 127
0.090619 -0.465667 -0.55 40 72 119
0.0967286 -0.46482 -0.549 34 77 132
0.110122 -0.463973 -0.548 190 199 216
0.11346 -0.46482 -0.549 102 117 146
0.118689 -0.46482 -0.549 61 102 164
0.141436 -0.463973 -0.548 108 136 184
0.153962 -0.463973 -0.548 119 153 191
0.365759 -0.466513 -0.551 207 211 214
0.376254 -0.466513 -0.551 205 206 211
0.406377 -0.46736 -0.552 211 206 210
0.416891 -0.46736 -0.552 198 200 195
0.420046 -0.46736 -0.552 199 200 194
0.429233 -0.468207 -0.553 195 195 195
0.439507 -0.469053 -0.554 187 189 184
0.440562 -0.469053 -0.554 187 189 184
0.450059 -0.469053 -0.554 180 180 180
0.459556 -0.469053 -0.554 174 173 171
0.482006 -0.47244 -0.558 157 155 158
0.507244 -0.479213 -0.566 111 105 105
0.49223 -0.405553 -0.479 174 127 99
0.495626 -0.40386 -0.477 173 126 98
0.521787 -0.403013 -0.476 159 115 88
0.859343 -0.4826 -0.57 62 63 57
0.873253 -0.484293 -0.572 91 93 88
0.879791 -0.484293 -0.572 90 92 87
0.884149 -0.484293 -0.572 109 111 106
-0.0217457 -0.450591 -0.531 194 155 124
-0.00224762 -0.400526 -0.472 195 159 123
-0.000450476 -0.401374 -0.473 191 155 121
0.00225714 -0.402223 -0.474 186 147 114
0.00588095 -0.403071 -0.475 180 141 110
0.0132848 -0.408163 -0.481 164 119 96
0.0170552 -0.410709 -0.484 155 114 94
0.0180143 -0.411557 -0.485 151 113 94
0.0238486 -0.416649 -0.491 140 104 90
0.0403143 -0.432771 -0.51 110 90 83
0.0513038 -0.443803 -0.523 106 87 83
0.0810429 -0.465866 -0.549 128 136 147
0.0850705 -0.465017 -0.548 95 112 142
0.0861143 -0.465017 -0.548 85 102 132
0.0975962 -0.465017 -0.548 42 83 145
0.111166 -0.465017 -0.548 188 201 217
0.11221 -0.465017 -0.548 131 145 172
0.12891 -0.465017 -0.548 43 80 151
0.215153 -0.464169 -0.547 196 200 211
0.219321 -0.464169 -0.547 139 178 219
0.230782 -0.464169 -0.547 139 171 210
0.237033 -0.464169 -0.547 236 238 250
0.238075 -0.464169 -0.547 235 237 249
0.240159 -0.464169 -0.547 233 237 248
0.255788 -0.464169 -0.547 106 140 188
0.271416 -0.464169 -0.547 187 188 190
0.275584 -0.464169 -0.547 191 191 191
0.287045 -0.464169 -0.547 187 197 207
0.302673 -0.464169 -0.547 212 213 218
0.308925 -0.464169 -0.547 216 217 221
0.312621 -0.465017 -0.548 213 214 216
0.334714 -0.466714 -0.55 206 211 214
0.36366 -0.467563 -0.551 207 211 212
0.45428 -0.470109 -0.554 162 161 159
0.470747 -0.471806 -0.556 144 142 143
0.474776 -0.472654 -0.557 137 135 138
0.50579 -0.481989 -0.568 81 76 80
0.508849 -0.482837 -0.569 81 77 78
0.511016 -0.482837 -0.569 79 75 76
0.496757 -0.440409 -0.519 118 98 91
0.489492 -0.406466 -0.479 173 128 99
0.497443 -0.404769 -0.477 173 126 96
0.50244 -0.402223 -0.474 172 123 91
0.506786 -0.401374 -0.473 176 127 94
0.8535 -0.482837 -0.569 102 103 97
0.867806 -0.485383 -0.572 98 99 94
0.869985 -0.485383 -0.572 108 109 104
0.89052 -0.48708 -0.574 101 104 97
-0.00404571 -0.401425 -0.472 195 159 123
-0.00134857 -0.401425 -0.472 191 155 119
0.00135143 -0.402275 -0.473 188 149 118
0.0360714 -0.42949 -0.505 116 93 87
0.0446333 -0.437995 -0.515 106 86 79
0.0536019 -0.44735 -0.526 104 86 84
0.0808952 -0.466061 -0.548 139 152 168
0.0923771 -0.466061 -0.548 49 85 137
0.0944648 -0.466061 -0.548 32 75 128
0.106795 -0.46521 -0.547 176 194 218
0.129954 -0.466061 -0.548 51 89 160
0.132042 -0.466061 -0.548 82 117 185
0.200567 -0.46521 -0.547 215 222 240
0.223489 -0.46521 -0.547 110 152 192
0.230782 -0.46521 -0.547 143 160 186
0.238075 -0.46521 -0.547 198 198 206
0.292789 -0.466061 -0.548 211 209 210
0.30427 -0.466061 -0.548 209 210 212
0.317374 -0.466911 -0.549 216 217 221
0.339521 -0.468612 -0.551 209 210 212
0.36432 -0.469463 -0.552 202 202 202
0.368526 -0.469463 -0.552 202 201 199
0.37168 -0.469463 -0.552 203 202 198
0.3871 -0.470313 -0.553 186 194 197
0.424733 -0.471164 -0.554 173 169 166
0.437129 -0.472014 -0.555 159 154 161
0.446643 -0.472014 -0.555 143 141 142
0.454043 -0.472014 -0.555 134 130 131
0.470747 -0.472865 -0.556 111 109 112
0.487189 -0.479669 -0.564 99 94 98
0.489337 -0.479669 -0.564 98 93 97
0.51531 -0.489024 -0.575 56 55 60
0.5175 -0.489024 -0.575 56 55 60
0.49393 -0.437145 -0.514 121 101 94
0.48276 -0.413331 -0.486 167 121 95
0.504984 -0.402275 -0.473 175 126 94
0.507512 -0.401425 -0.472 174 128 95
0.524507 -0.404827 -0.476 158 113 84
0.556757 -0.420986 -0.495 141 104 78
0.559953 -0.422687 -0.497 139 102 76
0.849571 -0.484771 -0.57 118 117 113
0.850657 -0.484771 -0.57 123 119 118
0.862358 -0.486472 -0.572 63 64 58
0.863448 -0.486472 -0.572 60 61 55
0.866049 -0.487323 -0.573 59 60 55
0.880024 -0.489024 -0.575 103 104 99
-0.00403714 -0.401471 -0.471 194 158 122
0.0132848 -0.409995 -0.481 161 119 95
0.0238486 -0.418519 -0.491 140 104 92
0.0258238 -0.420224 -0.493 137 104 95
0.0329229 -0.427043 -0.501 120 93 84
0.0457029 -0.439829 -0.516 106 86 79
0.0746324 -0.467105 -0.548 86 101 122
0.0942924 -0.466252 -0.547 31 77 136
0.0953343 -0.466252 -0.547 28 81 135
0.107837 -0.466252 -0.547 192 199 207
0.13701 -0.466252 -0.547 194 212 236
0.141178 -0.466252 -0.547 208 215 231
0.152639 -0.466252 -0.547 127 161 196
0.19119 -0.466252 -0.547 102 146 207
0.20956 -0.4654 -0.546 212 213 217
0.215153 -0.466252 -0.547 170 173 188
0.222447 -0.466252 -0.547 157 164 174
0.225572 -0.466252 -0.547 167 171 174
0.232866 -0.466252 -0.547 186 195 200
0.238075 -0.466252 -0.547 205 204 209
0.252662 -0.466252 -0.547 215 215 217
0.256255 -0.467105 -0.548 212 212 222
0.271416 -0.466252 -0.547 209 214 217
0.2735 -0.466252 -0.547 207 217 219
0.300095 -0.467105 -0.548 214 213 219
0.307963 -0.467957 -0.549 213 212 210
0.322143 -0.46881 -0.55 212 214 209
0.327976 -0.469662 -0.551 203 208 211
0.346446 -0.470514 -0.552 204 206 205
0.355909 -0.470514 -0.552 200 196 197
0.360767 -0.471367 -0.553 200 195 192
0.38394 -0.471367 -0.553 189 188 184
0.399071 -0.473071 -0.555 171 171 173
0.460386 -0.473071 -0.555 88 83 87
0.476481 -0.476481 -0.559 74 69 73
0.518151 -0.467957 -0.549 104 89 84
0.48816 -0.4296 -0.504 139 106 91
0.487179 -0.427895 -0.502 143 107 93
0.48619 -0.42619 -0.5 143 107 93
0.483986 -0.418519 -0.491 155 115 90
0.491991 -0.406586 -0.477 178 131 101
0.498976 -0.404881 -0.475 174 127 97
0.502281 -0.403176 -0.473 171 122 90
0.506613 -0.402324 -0.472 176 125 94
0.517597 -0.403176 -0.473 162 117 86
0.882837 -0.493529 -0.579 103 105 102
-0.010361 -0.404077 -0.473 201 162 129
-0.00944 -0.403223 -0.472 200 161 128
0.0114048 -0.409203 -0.479 167 122 99
0.0189771 -0.415183 -0.486 147 108 93
0.0308905 -0.426289 -0.499 123 94 86
0.0319048 -0.427143 -0.5 121 94 87
0.0502114 -0.445937 -0.522 105 86 80
0.0776219 -0.467294 -0.547 139 146 154
0.088041 -0.467294 -0.547 71 103 141
0.102628 -0.467294 -0.547 101 130 174
0.10367 -0.467294 -0.547 127 146 176
0.108879 -0.467294 -0.547 197 202 206
0.117214 -0.467294 -0.547 200 206 218
0.15132 -0.46644 -0.546 143 162 179
0.20124 -0.46644 -0.546 173 179 191
0.20644 -0.46644 -0.546 187 192 198
0.209944 -0.467294 -0.547 191 195 198
0.215153 -0.467294 -0.547 206 207 211
0.232866 -0.467294 -0.547 216 217 221
0.233908 -0.467294 -0.547 215 216 220
0.23495 -0.467294 -0.547 217 218 222
0.257299 -0.468149 -0.548 218 219 223
0.26829 -0.467294 -0.547 219 219 219
0.269332 -0.467294 -0.547 218 218 218
0.291231 -0.469003 -0.549 215 216 218
0.293323 -0.469003 -0.549 217 219 218
0.294369 -0.469003 -0.549 216 218 217
0.29646 -0.469003 -0.549 216 218 217
0.336983 -0.471566 -0.552 197 197 197
0.339086 -0.471566 -0.552 197 197 197
0.35234 -0.47242 -0.553 191 191 193
0.380043 -0.474129 -0.555 170 167 174
0.382157 -0.474129 -0.555 166 164 169
0.406543 -0.476691 -0.558 134 129 135
0.408997 -0.475837 -0.557 131 127 128
0.413241 -0.475837 -0.557 121 117 118
0.425208 -0.474983 -0.556 101 99 102
0.451684 -0.474983 -0.556 71 71 73
0.476267 -0.4784 -0.56 64 64 66
0.480109 -0.480109 -0.562 65 65 67
0.534097 -0.500611 -0.586 55 54 60
0.538949 -0.498903 -0.584 51 48 55
0.540061 -0.498903 -0.584 51 46 52
0.486755 -0.409203 -0.479 172 127 98
0.50244 -0.404931 -0.474 174 125 93
0.503916 -0.403223 -0.472 175 126 94
0.50931 -0.403223 -0.472 171 122 90
0.525214 -0.405786 -0.475 158 119 88
0.866467 -0.49036 -0.574 98 98 96
0.886303 -0.497194 -0.582 113 115 110
-0.0159667 -0.410115 -0.479 197 158 127
-0.00583143 -0.403266 -0.471 198 159 126
0.00497619 -0.40669 -0.475 178 136 111
0.0161333 -0.414396 -0.484 154 115 98
0.0209143 -0.417821 -0.488 142 104 93
0.0218886 -0.418677 -0.489 141 104 95
0.0734543 -0.468336 -0.547 119 124 144
0.07852 -0.46748 -0.546 141 150 159
0.08268 -0.46748 -0.546 147 156 165
0.08372 -0.46748 -0.546 150 159 168
0.08476 -0.46748 -0.546 132 148 164
0.09412 -0.46748 -0.546 54 91 143
0.10764 -0.46748 -0.546 195 202 208
0.10972 -0.46748 -0.546 195 201 215
0.117214 -0.468336 -0.547 196 205 210
0.124508 -0.468336 -0.547 45 88 156
0.143 -0.46748 -0.546 211 213 225
0.15236 -0.46748 -0.546 149 168 185
0.17524 -0.46748 -0.546 201 204 209
0.19084 -0.46748 -0.546 188 196 199
0.208902 -0.468336 -0.547 214 218 221
0.215153 -0.468336 -0.547 214 215 219
0.238075 -0.468336 -0.547 214 214 216
0.25208 -0.469192 -0.548 215 215 215
0.267737 -0.469192 -0.548 217 217 215
0.275044 -0.469192 -0.548 219 219 219
0.309085 -0.471761 -0.551 203 203 205
0.345157 -0.475186 -0.555 183 181 184
0.362724 -0.476042 -0.556 158 156 159
0.371196 -0.476042 -0.556 147 145 148
0.398753 -0.47861 -0.559 106 104 107
0.412267 -0.479467 -0.56 85 83 88
0.423549 -0.477754 -0.558 72 70 73
0.424611 -0.477754 -0.558 72 70 73
0.441344 -0.47861 -0.559 69 68 73
0.467963 -0.47861 -0.559 62 61 66
0.47989 -0.482035 -0.563 62 61 66
0.491286 -0.488029 -0.57 60 60 62
0.504787 -0.494878 -0.578 59 58 63
0.508743 -0.49659 -0.58 57 58 62
0.53978 -0.506009 -0.591 52 51 57
0.502455 -0.450356 -0.526 115 92 86
0.488135 -0.429808 -0.502 137 104 89
0.509129 -0.403266 -0.471 170 123 93
0.517402 -0.404122 -0.472 162 116 83
0.530151 -0.408403 -0.477 157 114 79
-0.00583143 -0.404163 -0.471 196 157 124
-0.00134857 -0.405021 -0.472 189 150 119
0.00225238 -0.405879 -0.473 183 144 115
0.00588095 -0.407595 -0.475 172 130 105
0.0537038 -0.452216 -0.527 101 83 79
0.091 -0.46852 -0.546 68 104 152
0.1014 -0.46852 -0.546 110 127 157
0.10244 -0.46852 -0.546 118 135 165
0.10348 -0.46852 -0.546 146 155 172
0.1118 -0.46852 -0.546 187 191 200
0.116172 -0.469378 -0.547 194 203 208
0.119298 -0.469378 -0.547 136 152 167
0.121382 -0.469378 -0.547 70 95 126
0.123466 -0.469378 -0.547 65 95 147
0.13156 -0.46852 -0.546 90 115 171
0.1326 -0.46852 -0.546 102 127 183
0.13468 -0.46852 -0.546 152 170 210
0.13572 -0.46852 -0.546 171 179 198
0.13676 -0.46852 -0.546 186 194 213
0.13988 -0.46852 -0.546 192 191 197
0.14404 -0.46852 -0.546 193 192 190
0.15132 -0.46852 -0.546 188 195 201
0.15444 -0.46852 -0.546 190 199 208
0.159348 -0.467662 -0.545 202 205 210
0.1742 -0.46852 -0.546 208 209 211
0.19188 -0.46852 -0.546 207 213 213
0.19396 -0.46852 -0.546 204 215 217
0.203692 -0.469378 -0.547 208 211 216
0.264043 -0.471094 -0.549 211 213 210
0.26718 -0.471094 -0.549 211 213 212
0.268226 -0.471094 -0.549 210 210 210
0.284429 -0.471952 -0.55 200 200 202
0.300689 -0.47281 -0.551 196 196 198
0.309646 -0.473669 -0.552 191 189 192
0.3128 -0.473669 -0.552 190 188 191
0.3293 -0.476243 -0.555 173 171 176
0.340484 -0.477101 -0.556 159 154 158
0.343661 -0.477101 -0.556 154 149 153
0.360422 -0.479675 -0.559 132 127 131
0.387733 -0.480533 -0.56 83 81 86
0.3888 -0.480533 -0.56 83 81 86
0.396611 -0.48225 -0.562 77 75 80
0.399823 -0.48225 -0.562 76 74 79
