ply
format ascii 1.0
comment Created by Open3D
element vertex 1293
property double x
property double y
property double z
property uchar red
property uchar green
property uchar blue
end_header
0.0410733 -0.34282 -0.427 184 138 114
0.0443267 -0.34282 -0.427 184 136 113
0.0537724 -0.346031 -0.431 176 131 102
0.0554143 -0.346031 -0.431 174 127 99
0.0675286 -0.349243 -0.435 162 113 96
0.0756752 -0.352454 -0.439 147 99 87
0.087 -0.361286 -0.45 120 87 78
0.0935762 -0.366906 -0.457 107 82 78
0.100961 -0.374934 -0.467 97 73 69
0.113633 -0.390991 -0.487 92 72 71
0.432855 -0.454417 -0.566 190 197 207
0.443636 -0.454417 -0.566 173 176 185
0.445792 -0.454417 -0.566 184 187 196
0.447949 -0.454417 -0.566 182 185 194
0.469517 -0.411866 -0.513 158 115 96
0.476664 -0.400626 -0.499 170 123 97
0.483179 -0.396611 -0.494 175 125 100
0.488662 -0.394203 -0.491 177 128 98
0.494123 -0.392597 -0.489 171 122 92
0.532014 -0.402231 -0.501 142 106 74
0.59124 -0.43836 -0.546 197 191 179
0.899191 -0.452009 -0.563 196 198 184
0.992452 -0.458431 -0.571 103 103 101
0.991144 -0.456826 -0.569 110 112 107
0.993971 -0.457629 -0.57 108 110 107
1.02223 -0.464051 -0.578 106 108 107
0.0126362 -0.344438 -0.428 190 149 117
0.0142 -0.342829 -0.426 190 149 117
0.0230714 -0.342024 -0.425 196 153 119
0.02544 -0.341219 -0.424 194 151 117
0.03692 -0.342829 -0.426 189 142 114
0.0385429 -0.342829 -0.426 187 140 112
0.04026 -0.343633 -0.427 187 140 112
0.0427 -0.343633 -0.427 181 134 106
0.0640667 -0.349267 -0.434 164 116 96
0.0738343 -0.352486 -0.438 147 103 90
0.0807657 -0.357314 -0.444 132 96 82
0.0849067 -0.360533 -0.448 124 90 80
0.087 -0.362143 -0.45 118 88 80
0.093781 -0.368581 -0.458 110 82 79
0.0961514 -0.370995 -0.461 104 79 74
0.15498 -0.4563 -0.567 90 124 185
0.447949 -0.455495 -0.566 181 184 193
0.47142 -0.4563 -0.567 83 101 137
0.480291 -0.455495 -0.566 74 93 123
0.485682 -0.455495 -0.566 150 159 166
0.490205 -0.45469 -0.565 137 147 156
0.493433 -0.45469 -0.565 77 89 101
0.4833 -0.432157 -0.537 133 104 96
0.47854 -0.399967 -0.497 173 123 98
0.487783 -0.395943 -0.492 174 124 97
0.488662 -0.395138 -0.491 178 129 99
0.490467 -0.394333 -0.49 176 127 97
0.4942 -0.394333 -0.49 173 124 94
0.498595 -0.391919 -0.487 168 119 89
0.506829 -0.391114 -0.486 159 115 86
0.59228 -0.4394 -0.546 195 192 185
0.595493 -0.44101 -0.548 198 200 189
0.901863 -0.453886 -0.564 189 191 178
0.00782857 -0.442053 -0.548 185 144 114
0.0102381 -0.346867 -0.43 189 150 117
0.0520095 -0.346867 -0.43 175 128 100
0.0528286 -0.346867 -0.43 176 129 101
0.0571886 -0.34848 -0.432 176 129 101
0.074839 -0.354127 -0.439 146 102 89
0.0807657 -0.35816 -0.444 132 96 82
0.0903676 -0.366227 -0.454 114 84 74
0.0927057 -0.368647 -0.457 111 81 73
0.101177 -0.37752 -0.468 97 73 69
0.46412 -0.456573 -0.566 172 172 172
0.467354 -0.456573 -0.566 145 150 169
0.4859 -0.455767 -0.565 152 156 165
0.482519 -0.431567 -0.535 139 103 89
0.472836 -0.404947 -0.502 170 123 97
0.472857 -0.403333 -0.5 171 121 94
0.474763 -0.402527 -0.499 176 126 99
0.482238 -0.398493 -0.494 175 125 100
0.489597 -0.396073 -0.491 180 130 103
0.498395 -0.391233 -0.485 166 121 90
0.499319 -0.391233 -0.485 163 118 87
-0.316527 -0.44714 -0.553 226 227 221
0.0057619 -0.444714 -0.55 187 148 115
0.0149762 -0.343643 -0.425 192 151 119
0.0173638 -0.342834 -0.424 196 153 119
0.0214019 -0.342834 -0.424 193 150 116
0.0278629 -0.342834 -0.424 190 147 112
0.0427 -0.34526 -0.427 184 137 109
0.0528286 -0.347686 -0.43 175 128 100
0.0580114 -0.349303 -0.432 175 128 102
0.0630943 -0.350111 -0.433 166 115 94
0.0683571 -0.351729 -0.435 158 111 93
0.074839 -0.354963 -0.439 144 100 87
0.0903676 -0.367091 -0.454 115 85 77
0.115737 -0.397817 -0.492 83 62 61
0.437771 -0.456034 -0.564 194 190 204
0.441776 -0.456843 -0.565 156 163 182
0.446081 -0.456843 -0.565 182 186 198
0.479443 -0.456843 -0.565 92 111 144
0.483421 -0.433394 -0.536 140 103 87
0.46989 -0.408329 -0.505 165 123 99
0.472836 -0.405903 -0.502 169 123 97
0.473803 -0.405094 -0.501 169 122 94
0.494042 -0.394583 -0.488 177 128 98
0.494885 -0.393774 -0.487 175 128 98
0.501977 -0.391349 -0.484 164 119 86
-0.294926 -0.447383 -0.552 227 228 222
0.0125771 -0.345263 -0.426 190 149 117
0.0197867 -0.343642 -0.424 195 152 120
0.0278629 -0.343642 -0.424 191 147 112
0.0310933 -0.343642 -0.424 188 143 110
0.0443267 -0.346073 -0.427 183 136 110
0.0528286 -0.348505 -0.43 174 127 99
0.0596571 -0.350126 -0.432 168 121 95
0.07974 -0.359041 -0.443 135 97 84
0.09636 -0.37444 -0.462 101 76 71
0.102723 -0.381734 -0.471 97 73 69
0.121199 -0.40767 -0.503 91 71 70
0.44744 -0.457109 -0.564 161 164 179
0.461148 -0.457919 -0.565 180 184 187
0.475138 -0.457919 -0.565 138 153 176
0.488263 -0.457109 -0.564 147 151 162
0.473943 -0.421448 -0.52 149 111 92
0.482201 -0.399565 -0.493 176 126 99
0.485856 -0.397944 -0.491 173 123 96
0.494794 -0.393891 -0.486 174 127 97
0.496548 -0.393081 -0.485 173 126 96
0.500133 -0.39227 -0.484 166 121 88
0.508557 -0.393081 -0.485 163 118 85
-0.32752 -0.448434 -0.552 225 226 220
-0.32016 -0.448434 -0.552 226 227 221
0.0101667 -0.346887 -0.427 188 147 117
0.014941 -0.34445 -0.424 190 149 117
0.0302857 -0.34445 -0.424 188 143 112
0.0335162 -0.34445 -0.424 182 137 106
0.046061 -0.347699 -0.428 182 135 109
0.0675286 -0.353386 -0.435 157 112 93
0.0788962 -0.359885 -0.443 134 98 86
0.100286 -0.380194 -0.468 95 74 69
0.10406 -0.384256 -0.473 93 72 69
0.11786 -0.403753 -0.497 87 68 64
0.129506 -0.42325 -0.521 173 184 204
0.460331 -0.458183 -0.564 158 162 161
0.465703 -0.458183 -0.564 156 155 169
0.476214 -0.458995 -0.565 142 155 174
0.472836 -0.407815 -0.502 168 124 99
0.473803 -0.407003 -0.501 169 125 98
0.47381 -0.40619 -0.5 171 127 100
0.474763 -0.405378 -0.499 171 125 99
0.476647 -0.403753 -0.497 168 121 95
0.487667 -0.398067 -0.49 175 125 98
0.491329 -0.397254 -0.489 181 131 104
0.494042 -0.396442 -0.488 177 128 98
0.509481 -0.394005 -0.485 164 121 89
0.830814 -0.455746 -0.561 193 197 183
0.83402 -0.455746 -0.561 193 197 183
0.837226 -0.455746 -0.561 191 195 181
0.856916 -0.456558 -0.562 182 182 170
-0.331125 -0.448671 -0.551 226 227 221
-0.299639 -0.448671 -0.551 228 229 223
0.00699429 -0.351771 -0.432 191 148 114
0.00856 -0.348514 -0.428 187 148 115
0.0245743 -0.344443 -0.423 193 150 116
0.0269914 -0.344443 -0.423 192 149 115
0.0417886 -0.346886 -0.426 184 137 107
0.0476914 -0.348514 -0.428 178 131 103
0.0537724 -0.350957 -0.431 174 128 102
0.0597952 -0.352586 -0.433 168 120 97
0.06062 -0.352586 -0.433 167 121 97
0.06572 -0.3534 -0.434 161 115 92
0.0665467 -0.3534 -0.434 159 113 90
0.07992 -0.361543 -0.444 132 96 84
0.10428 -0.385971 -0.474 91 72 68
0.433778 -0.458443 -0.563 134 148 177
0.436995 -0.458443 -0.563 151 165 192
0.44343 -0.458443 -0.563 167 183 199
0.446647 -0.458443 -0.563 143 154 182
0.463805 -0.458443 -0.563 172 171 185
0.475371 -0.459257 -0.564 137 150 167
0.47659 -0.426686 -0.524 140 104 90
0.471862 -0.409586 -0.503 168 124 99
0.47381 -0.407143 -0.5 172 126 100
0.479443 -0.403071 -0.495 180 130 105
0.483986 -0.399814 -0.491 175 125 98
0.484921 -0.399814 -0.491 176 126 99
0.491253 -0.397371 -0.488 181 132 102
0.511329 -0.394929 -0.485 157 116 84
0.513309 -0.395743 -0.486 152 113 82
0.51728 -0.397371 -0.488 150 113 84
0.519271 -0.398186 -0.489 150 113 84
0.836577 -0.457629 -0.562 179 181 170
0.840859 -0.457629 -0.562 176 177 169
0.868406 -0.460886 -0.566 147 147 137
-0.330075 -0.449721 -0.551 226 227 221
-0.31958 -0.449721 -0.551 227 228 222
0.0213514 -0.345249 -0.423 193 150 115
0.0261857 -0.345249 -0.423 190 150 115
0.0335162 -0.346065 -0.424 181 136 107
0.0588343 -0.352594 -0.432 169 122 96
0.0630943 -0.35341 -0.433 162 116 93
0.0665467 -0.354227 -0.434 158 112 89
0.105849 -0.389323 -0.477 90 70 69
0.120002 -0.409728 -0.502 85 72 66
0.447719 -0.459515 -0.563 122 138 174
0.471311 -0.459515 -0.563 110 135 175
0.475601 -0.459515 -0.563 125 140 161
0.476673 -0.459515 -0.563 97 117 150
0.48418 -0.459515 -0.563 106 106 116
0.473246 -0.421154 -0.516 152 109 92
0.471629 -0.416257 -0.51 158 117 95
0.473803 -0.408911 -0.501 171 125 101
0.4785 -0.404014 -0.495 179 132 106
0.487667 -0.399933 -0.49 174 125 95
0.491253 -0.398301 -0.488 180 131 101
0.493776 -0.395852 -0.485 173 126 96
0.509352 -0.395036 -0.484 160 119 87
0.514234 -0.396669 -0.486 152 111 81
0.519139 -0.398301 -0.488 148 111 82
0.525269 -0.401566 -0.492 144 109 81
0.814786 -0.457883 -0.561 193 195 184
0.818667 -0.457067 -0.56 192 194 183
0.831631 -0.459515 -0.563 160 160 152
0.835921 -0.459515 -0.563 155 155 147
0.844926 -0.460331 -0.564 145 146 138
0.848149 -0.460331 -0.564 141 142 134
-0.290714 -0.449952 -0.55 228 229 223
0.00615714 -0.352599 -0.431 182 141 111
0.0117105 -0.346872 -0.424 188 149 116
0.021301 -0.345236 -0.422 193 150 118
0.0318257 -0.346054 -0.423 178 133 104
0.0426 -0.348509 -0.426 181 134 106
0.0435133 -0.349327 -0.427 178 131 103
0.0494371 -0.350963 -0.429 176 130 104
0.0528286 -0.351781 -0.43 173 126 100
0.0614448 -0.354235 -0.433 168 122 96
0.0665467 -0.355053 -0.434 156 110 87
0.0832 -0.366507 -0.448 120 87 80
0.0863343 -0.368961 -0.451 116 85 80
0.0931114 -0.375506 -0.459 106 78 75
0.107429 -0.392686 -0.48 89 71 69
0.108794 -0.394322 -0.482 89 71 69
0.43836 -0.45977 -0.562 156 179 220
0.449065 -0.45977 -0.562 60 88 138
0.469404 -0.45977 -0.562 85 110 151
0.47989 -0.460588 -0.563 72 91 131
0.48332 -0.45977 -0.562 117 121 133
0.48439 -0.45977 -0.562 114 118 130
0.486531 -0.45977 -0.562 149 153 162
0.47188 -0.410684 -0.502 164 120 95
0.482201 -0.403321 -0.493 176 126 99
0.483097 -0.402503 -0.492 178 128 101
0.492943 -0.397594 -0.486 176 127 95
0.503575 -0.394322 -0.482 167 122 91
0.518075 -0.398412 -0.487 148 111 82
0.540726 -0.410684 -0.502 143 101 76
0.819449 -0.45977 -0.562 174 176 165
0.825872 -0.45977 -0.562 168 168 158
0.830559 -0.460588 -0.563 162 162 152
0.836738 -0.462224 -0.565 128 127 122
0.849652 -0.462224 -0.565 122 123 115
-0.331571 -0.451 -0.55 224 225 219
-0.317952 -0.451 -0.55 226 227 221
-0.315857 -0.451 -0.55 226 227 221
0.0036 -0.4428 -0.54 186 147 114
0.0204971 -0.34604 -0.422 192 149 117
0.0277971 -0.34686 -0.423 185 142 110
0.0286029 -0.34686 -0.423 181 136 107
0.03102 -0.34686 -0.423 177 132 103
0.0554143 -0.35342 -0.431 172 125 97
0.0588343 -0.35424 -0.432 171 124 98
0.0703362 -0.35834 -0.437 148 105 88
0.0920362 -0.37556 -0.458 106 78 75
0.433306 -0.46002 -0.561 69 96 143
0.447994 -0.46084 -0.562 64 94 146
0.449065 -0.46084 -0.562 56 86 138
0.450135 -0.46084 -0.562 55 83 133
0.464294 -0.46002 -0.561 100 125 166
0.477968 -0.46084 -0.562 73 96 138
0.487803 -0.46002 -0.561 154 154 154
0.490769 -0.44526 -0.543 126 99 92
0.472503 -0.41984 -0.512 150 114 92
0.480323 -0.40426 -0.493 173 126 98
0.496446 -0.39688 -0.484 179 130 98
0.595168 -0.44444 -0.542 199 196 189
0.7984 -0.4592 -0.56 169 170 162
0.82627 -0.46166 -0.563 139 139 131
0.86022 -0.46494 -0.567 116 117 109
0.863901 -0.46576 -0.568 119 120 112
0.885283 -0.47314 -0.577 115 116 108
-0.302734 -0.451226 -0.549 226 227 221
-0.297506 -0.451226 -0.549 226 227 221
0.0204971 -0.346844 -0.422 193 150 118
0.0221048 -0.346844 -0.422 190 149 117
0.0237124 -0.346844 -0.422 190 147 115
0.0435133 -0.350953 -0.427 175 128 102
0.046061 -0.351775 -0.428 179 132 106
0.0494371 -0.352597 -0.429 175 128 100
0.06048 -0.355063 -0.432 167 120 94
0.0640667 -0.356707 -0.434 161 115 92
0.0648933 -0.356707 -0.434 160 114 91
0.0721657 -0.359994 -0.438 141 102 87
0.0909648 -0.37561 -0.457 107 79 76
0.0922371 -0.377254 -0.459 103 77 76
0.115267 -0.406021 -0.494 89 70 66
0.447197 -0.461089 -0.561 62 92 144
0.458699 -0.46191 -0.562 176 179 184
0.468569 -0.461089 -0.561 78 100 147
0.485666 -0.461089 -0.561 115 120 126
0.485576 -0.439719 -0.535 127 100 91
0.471894 -0.411774 -0.501 163 121 96
0.492102 -0.400268 -0.487 178 129 97
0.504363 -0.395336 -0.481 163 120 86
0.51106 -0.39698 -0.483 154 113 81
0.523929 -0.401911 -0.489 146 109 80
0.530092 -0.405199 -0.493 145 110 78
0.804463 -0.46191 -0.562 126 127 119
0.839017 -0.466842 -0.568 115 116 110
0.841578 -0.467664 -0.569 114 115 109
0.846997 -0.467664 -0.569 112 113 107
-0.300095 -0.451448 -0.548 226 227 221
0.0100714 -0.348471 -0.423 191 148 116
0.0140333 -0.346824 -0.421 190 147 115
0.0180429 -0.346824 -0.421 191 148 116
0.035939 -0.349295 -0.424 180 133 105
0.0476914 -0.35259 -0.428 176 129 103
0.0588343 -0.355886 -0.432 170 123 97
0.0877733 -0.37401 -0.454 109 81 78
0.0909648 -0.376481 -0.457 106 78 75
0.0946 -0.3806 -0.462 96 75 72
0.0956867 -0.381424 -0.463 95 74 71
0.118809 -0.412729 -0.501 91 72 68
0.122645 -0.419319 -0.509 94 82 82
0.152543 -0.462981 -0.562 88 114 163
0.428267 -0.461333 -0.56 194 199 205
0.461089 -0.462157 -0.561 179 182 187
0.481391 -0.462157 -0.561 64 88 134
0.485867 -0.461333 -0.56 111 106 110
0.475148 -0.42591 -0.517 141 107 95
0.471785 -0.416848 -0.506 159 117 92
0.471862 -0.414376 -0.503 162 121 93
0.4785 -0.407786 -0.495 173 128 99
0.478474 -0.406962 -0.494 172 127 98
0.490247 -0.401195 -0.487 175 128 98
0.49542 -0.3979 -0.483 178 129 99
0.49634 -0.3979 -0.483 179 130 100
0.518863 -0.400371 -0.486 151 112 81
0.522857 -0.402019 -0.488 149 110 79
0.543594 -0.413552 -0.502 140 105 77
0.79662 -0.462157 -0.561 104 105 99
0.815579 -0.466276 -0.566 117 116 111
0.82566 -0.4671 -0.567 118 118 110
0.852149 -0.470395 -0.571 113 116 107
0.892954 -0.479457 -0.582 116 117 109
-0.300095 -0.452491 -0.548 226 227 221
0.017241 -0.347626 -0.421 188 145 111
0.0196467 -0.347626 -0.421 191 148 114
0.0301429 -0.348451 -0.422 183 136 108
0.0326314 -0.349277 -0.423 181 134 106
0.0342429 -0.349277 -0.423 181 134 106
0.0476914 -0.353406 -0.428 175 128 102
0.0624133 -0.35836 -0.434 164 116 93
0.0640667 -0.35836 -0.434 161 115 91
0.0676838 -0.360011 -0.436 151 108 89
0.0833857 -0.370746 -0.449 118 84 82
0.0877733 -0.374874 -0.454 109 81 78
0.109471 -0.400471 -0.485 89 69 68
0.114094 -0.407077 -0.493 87 67 66
0.444267 -0.4624 -0.56 48 82 145
0.451471 -0.463226 -0.561 159 176 184
0.46002 -0.463226 -0.561 183 183 185
0.473067 -0.4624 -0.56 59 90 137
0.485867 -0.4624 -0.56 152 150 153
0.493333 -0.4624 -0.56 140 139 147
0.477754 -0.431023 -0.522 136 103 86
0.476067 -0.42772 -0.518 139 105 96
0.49623 -0.397994 -0.482 179 130 100
0.503314 -0.396343 -0.48 168 123 90
0.508028 -0.397169 -0.481 156 113 81
0.825321 -0.469831 -0.569 118 117 112
0.837243 -0.469831 -0.569 115 118 109
0.8595 -0.473134 -0.573 121 122 116
0.860591 -0.473134 -0.573 122 123 117
0.866716 -0.472309 -0.572 124 125 117
0.0124295 -0.348428 -0.421 189 146 114
0.016439 -0.348428 -0.421 185 142 108
0.0204486 -0.348428 -0.421 190 147 113
0.0285352 -0.349255 -0.422 185 140 109
0.0375543 -0.35091 -0.424 179 132 104
0.0485067 -0.354221 -0.428 175 128 100
0.0493219 -0.354221 -0.428 174 127 99
0.0520095 -0.355876 -0.43 173 126 100
0.0721657 -0.362497 -0.438 138 98 88
0.0770343 -0.365808 -0.442 130 91 86
0.106514 -0.397257 -0.48 90 70 69
0.111078 -0.403878 -0.488 88 68 67
0.119283 -0.416292 -0.503 87 68 70
0.434955 -0.462639 -0.559 52 84 141
0.43815 -0.462639 -0.559 50 84 145
0.440279 -0.462639 -0.559 58 92 153
0.4464 -0.463467 -0.56 55 87 144
0.447467 -0.463467 -0.56 92 124 181
0.4496 -0.463467 -0.56 147 171 207
0.450667 -0.463467 -0.56 151 164 170
0.465833 -0.462639 -0.559 65 95 147
0.481805 -0.462639 -0.559 115 143 180
0.487129 -0.462639 -0.559 129 128 133
0.490323 -0.462639 -0.559 141 142 144
0.472717 -0.419603 -0.507 160 119 91
0.472749 -0.418775 -0.506 161 120 92
0.490247 -0.40305 -0.487 173 124 91
0.491836 -0.400568 -0.484 178 129 99
0.522713 -0.40305 -0.487 152 113 84
0.820986 -0.470915 -0.569 120 121 116
0.82207 -0.470915 -0.569 119 120 114
0.825686 -0.471743 -0.57 124 125 120
0.853347 -0.475053 -0.574 114 117 110
0.86428 -0.475053 -0.574 122 125 118
0.866467 -0.475053 -0.574 125 128 121
0.878263 -0.476709 -0.576 120 123 114
0.00205714 -0.358354 -0.432 187 146 116
0.0164 -0.3484 -0.42 185 142 108
0.0172 -0.3484 -0.42 185 142 108
0.0391695 -0.351718 -0.424 176 129 101
0.0425 -0.352548 -0.425 177 130 102
0.0676838 -0.361672 -0.436 148 105 88
0.0695038 -0.362502 -0.437 143 101 89
0.0761924 -0.36665 -0.442 130 91 84
0.0770343 -0.36665 -0.442 129 90 85
0.0924381 -0.381581 -0.46 99 75 73
0.102474 -0.393194 -0.474 91 71 70
0.115967 -0.412273 -0.497 87 69 67
0.125071 -0.427205 -0.515 198 201 216
0.429631 -0.463704 -0.559 197 201 204
0.430696 -0.463704 -0.559 177 189 213
0.444538 -0.463704 -0.559 43 78 142
0.4592 -0.464533 -0.56 178 179 184
0.479675 -0.463704 -0.559 53 88 142
0.491022 -0.448772 -0.541 114 90 86
0.488414 -0.445454 -0.537 122 95 86
0.472682 -0.421398 -0.508 154 112 88
0.4757 -0.412273 -0.497 171 124 96
0.476614 -0.410614 -0.495 172 125 97
0.485676 -0.404808 -0.488 178 129 97
0.500571 -0.398171 -0.48 177 128 96
0.507886 -0.398171 -0.48 163 118 89
0.509714 -0.398171 -0.48 159 115 86
0.518571 -0.40149 -0.484 155 116 87
0.810888 -0.47117 -0.568 100 102 101
0.821696 -0.473658 -0.571 117 119 114
0.832941 -0.474488 -0.572 122 123 115
0.852643 -0.476976 -0.575 119 120 115
0.861405 -0.476976 -0.575 99 104 100
-0.000512381 -0.447309 -0.538 184 145 116
0.0092219 -0.350031 -0.421 188 145 113
0.0100238 -0.350031 -0.421 188 145 113
0.0116 -0.3492 -0.42 188 145 113
0.0132 -0.3492 -0.42 187 144 112
0.0156 -0.3492 -0.42 189 144 111
0.0188 -0.3492 -0.42 188 143 110
0.0399771 -0.352526 -0.424 176 129 101
0.0416905 -0.353357 -0.425 178 131 103
0.0434114 -0.354189 -0.426 177 130 102
0.04758 -0.35502 -0.427 174 127 99
0.0570562 -0.358346 -0.431 164 118 94
0.0578771 -0.358346 -0.431 162 116 92
0.0586981 -0.358346 -0.431 161 115 91
0.0723305 -0.364997 -0.439 138 98 86
0.0948048 -0.384951 -0.463 95 74 73
0.429926 -0.463937 -0.558 189 198 213
0.433114 -0.463937 -0.558 104 125 168
0.438429 -0.463937 -0.558 48 82 145
0.441617 -0.463937 -0.558 46 80 143
0.443743 -0.463937 -0.558 45 80 144
0.462874 -0.463937 -0.558 90 114 140
0.463937 -0.463937 -0.558 66 106 158
0.484131 -0.463937 -0.558 141 146 168
0.492634 -0.463937 -0.558 81 91 116
0.473571 -0.424029 -0.51 151 110 90
0.472857 -0.415714 -0.5 163 119 92
0.480286 -0.409063 -0.492 170 123 93
0.48118 -0.408231 -0.491 176 127 97
0.49795 -0.399917 -0.481 170 121 91
0.525496 -0.404906 -0.487 150 109 77
0.858514 -0.478903 -0.576 84 86 83
0.86469 -0.478071 -0.575 89 94 90
0.866881 -0.478071 -0.575 126 128 125
-0.00465429 -0.4525 -0.543 187 146 114
0.014 -0.35 -0.42 189 144 111
0.0164 -0.35 -0.42 189 144 113
0.0391695 -0.353333 -0.424 177 130 102
0.0416905 -0.354167 -0.425 179 132 104
0.0425 -0.354167 -0.425 179 132 104
0.04758 -0.355833 -0.427 172 125 97
0.0502543 -0.3575 -0.429 172 126 100
0.0596571 -0.36 -0.432 161 113 90
0.0704971 -0.365 -0.438 142 100 86
0.0772086 -0.369167 -0.443 126 89 83
0.0987133 -0.390833 -0.469 92 72 73
0.10538 -0.399167 -0.479 90 70 71
0.109923 -0.405833 -0.487 88 70 70
0.121675 -0.424167 -0.509 95 96 114
0.435521 -0.464167 -0.557 45 84 143
0.448797 -0.465833 -0.559 107 123 138
0.45756 -0.465 -0.558 174 181 191
0.467126 -0.465 -0.558 37 73 133
0.468189 -0.465 -0.558 39 69 129
0.492812 -0.464167 -0.557 47 61 87
0.476252 -0.429167 -0.515 149 108 88
0.478445 -0.410833 -0.493 172 123 93
0.481133 -0.408333 -0.49 175 126 96
0.483877 -0.4075 -0.489 173 124 94
0.508652 -0.399167 -0.479 160 115 86
0.526424 -0.405833 -0.487 154 111 79
0.832573 -0.478333 -0.574 122 124 119
0.855609 -0.480833 -0.577 104 106 103
0.856708 -0.480833 -0.577 113 118 114
0.857807 -0.480833 -0.577 112 117 113
0.870583 -0.48 -0.576 105 107 102
0.870167 -0.479167 -0.575 102 104 99
0.892686 -0.486667 -0.584 99 104 97
-0.31148 -0.45604 -0.546 225 226 218
-0.00360667 -0.451864 -0.541 184 141 109
0.016361 -0.349965 -0.419 189 144 111
0.0284676 -0.351635 -0.421 184 139 106
0.0425 -0.354976 -0.425 177 132 103
0.0596571 -0.360823 -0.432 161 114 94
0.0614448 -0.361658 -0.433 157 110 92
0.06324 -0.362493 -0.434 155 108 90
0.0650429 -0.363329 -0.435 155 108 88
0.07434 -0.36834 -0.441 130 92 79
0.0902914 -0.382539 -0.458 95 77 75
0.092639 -0.385045 -0.461 95 71 71
0.116433 -0.416784 -0.499 88 69 71
0.458623 -0.466063 -0.558 164 173 182
0.460749 -0.466063 -0.558 107 120 139
0.46735 -0.465228 -0.557 28 59 123
0.473712 -0.42263 -0.506 157 113 88
0.47931 -0.410102 -0.491 174 125 95
0.49174 -0.40342 -0.483 177 128 98
0.496 -0.400914 -0.48 173 124 94
0.498616 -0.400079 -0.479 175 125 98
0.522259 -0.404255 -0.484 152 109 77
0.85599 -0.482768 -0.578 98 103 99
0.859293 -0.482768 -0.578 108 113 109
0.860394 -0.482768 -0.578 102 107 103
0.862596 -0.482768 -0.578 98 103 99
0.863697 -0.482768 -0.578 94 99 95
-0.302605 -0.456243 -0.545 227 228 220
0.00122 -0.35746 -0.427 187 144 112
0.00523714 -0.354111 -0.423 193 148 117
0.0076181 -0.352437 -0.421 190 147 115
0.0131686 -0.350763 -0.419 190 147 112
0.016361 -0.350763 -0.419 189 146 112
0.0187552 -0.350763 -0.419 187 144 110
0.0195533 -0.350763 -0.419 185 142 108
0.026 -0.3516 -0.42 184 139 106
0.0284676 -0.352437 -0.421 183 138 105
0.0309467 -0.353274 -0.422 184 137 107
0.0622695 -0.362483 -0.433 154 107 91
0.06324 -0.36332 -0.434 153 106 90
0.0763648 -0.370854 -0.443 128 89 82
0.108548 -0.406014 -0.485 87 71 72
0.151457 -0.467126 -0.558 144 168 202
0.434739 -0.465451 -0.556 43 86 141
0.44507 -0.466289 -0.557 55 90 154
0.45012 -0.467126 -0.558 72 95 137
0.472654 -0.466289 -0.557 37 76 133
0.485386 -0.466289 -0.557 146 150 162
0.496164 -0.465451 -0.556 82 95 127
0.483334 -0.441174 -0.527 132 94 83
0.473807 -0.41606 -0.497 167 119 96
0.839863 -0.482194 -0.576 105 107 102
0.848284 -0.483869 -0.578 101 103 98
0.852688 -0.483869 -0.578 94 96 91
0.856369 -0.484706 -0.579 96 101 95
0.881734 -0.484706 -0.579 52 55 48
0.00522476 -0.354078 -0.422 192 149 117
0.0155629 -0.351561 -0.419 191 146 113
0.0276657 -0.353239 -0.421 183 138 107
0.0383619 -0.355756 -0.424 177 130 102
0.06324 -0.364147 -0.434 151 104 88
0.0952143 -0.390157 -0.465 94 74 73
0.10582 -0.403582 -0.481 87 68 70
0.120469 -0.426236 -0.508 86 75 81
0.126529 -0.437144 -0.521 120 137 163
0.424149 -0.46651 -0.556 103 125 149
0.444009 -0.46735 -0.557 45 81 143
0.455679 -0.46735 -0.557 146 168 189
0.459097 -0.46651 -0.556 114 120 142
0.464392 -0.46651 -0.556 64 96 143
0.472654 -0.46735 -0.557 38 77 134
0.486907 -0.446373 -0.532 122 95 84
0.476567 -0.41365 -0.493 171 121 96
0.477506 -0.41365 -0.493 173 123 98
0.482946 -0.410294 -0.489 175 125 98
0.482888 -0.409455 -0.488 175 125 98
0.489992 -0.406099 -0.484 175 126 94
0.495086 -0.402743 -0.48 177 128 98
0.495879 -0.401904 -0.479 176 127 97
0.497575 -0.401065 -0.478 175 126 96
0.506529 -0.400226 -0.477 164 119 90
0.52302 -0.40526 -0.483 153 112 80
0.836173 -0.48497 -0.578 116 120 119
0.854163 -0.485809 -0.579 76 78 73
0.860057 -0.486648 -0.58 100 102 97
0.862267 -0.486648 -0.58 111 116 110
0.883257 -0.486648 -0.58 66 71 64
-0.00563619 -0.452432 -0.538 171 128 96
0.00442095 -0.354882 -0.422 190 147 115
0.0068 -0.3532 -0.42 192 149 117
0.0147295 -0.351518 -0.418 190 145 112
0.0171181 -0.351518 -0.418 189 144 113
0.0399771 -0.356564 -0.424 178 131 103
0.04758 -0.359087 -0.427 167 120 94
0.0586981 -0.36245 -0.431 160 113 95
0.0596571 -0.363291 -0.432 156 109 91
0.0614448 -0.364132 -0.433 153 106 90
0.0745086 -0.371701 -0.442 132 92 84
0.102907 -0.400293 -0.476 90 70 71
0.115251 -0.418794 -0.498 88 69 71
0.433957 -0.466729 -0.555 45 80 144
0.438975 -0.46757 -0.556 44 79 137
0.44507 -0.46841 -0.557 49 85 145
0.464614 -0.466729 -0.555 71 110 151
0.495271 -0.466729 -0.555 91 99 120
0.479886 -0.437295 -0.52 135 102 87
0.477233 -0.43309 -0.515 139 103 87
0.473811 -0.418794 -0.498 162 114 91
0.475671 -0.416271 -0.495 168 120 97
0.477506 -0.41459 -0.493 173 123 98
0.485609 -0.409544 -0.487 177 128 98
0.49174 -0.40618 -0.483 174 125 95
0.50184 -0.400293 -0.476 168 121 91
0.50562 -0.401134 -0.477 166 121 92
0.508346 -0.401134 -0.477 162 117 88
0.512143 -0.401975 -0.478 160 115 86
0.515039 -0.402816 -0.479 158 115 81
0.520854 -0.404498 -0.481 158 113 80
0.522855 -0.405339 -0.482 155 110 77
0.525947 -0.407021 -0.484 151 108 76
0.850854 -0.486911 -0.579 95 100 94
0.872209 -0.487752 -0.58 88 93 89
0.026 -0.354 -0.42 183 136 106
0.0324771 -0.354843 -0.421 182 135 107
0.03666 -0.356529 -0.423 176 129 99
0.0374657 -0.356529 -0.423 175 128 98
0.0391695 -0.357371 -0.424 176 129 99
0.0493219 -0.360743 -0.428 166 118 96
0.0518886 -0.361586 -0.429 169 122 96
0.0658714 -0.366643 -0.435 147 101 85
0.0765371 -0.374229 -0.444 126 85 79
0.0827143 -0.379286 -0.45 113 82 79
0.0965133 -0.393614 -0.467 93 75 73
0.148003 -0.469471 -0.557 131 155 181
0.423386 -0.467786 -0.555 89 110 131
0.436071 -0.467786 -0.555 49 86 141
0.441093 -0.468629 -0.556 47 77 137
0.456979 -0.468629 -0.556 178 188 197
0.466729 -0.467786 -0.555 63 103 152
0.468843 -0.467786 -0.555 37 78 132
0.484514 -0.468629 -0.556 153 160 170
0.498443 -0.467786 -0.555 35 47 73
0.474617 -0.428171 -0.508 155 110 89
0.473812 -0.420586 -0.499 162 117 98
0.478411 -0.414686 -0.492 173 126 98
0.4802 -0.413 -0.49 175 125 98
0.494054 -0.403729 -0.479 173 127 94
0.852324 -0.488857 -0.58 88 90 85
0.863753 -0.4897 -0.581 106 108 103
0.87482 -0.4897 -0.581 117 119 116
-0.00372 -0.366627 -0.434 184 139 108
0.00360857 -0.355645 -0.421 186 141 110
0.0107486 -0.35311 -0.418 191 146 115
0.0268 -0.3548 -0.42 184 137 109
0.03666 -0.357334 -0.423 176 129 99
0.0433095 -0.359024 -0.425 177 130 102
0.0510714 -0.362403 -0.429 169 121 99
0.0536476 -0.363248 -0.43 165 119 93
0.0688286 -0.370006 -0.438 142 99 82
0.0696629 -0.370006 -0.438 140 98 82
0.078581 -0.376764 -0.446 121 88 81
0.0965133 -0.394504 -0.467 93 75 73
0.428671 -0.468843 -0.555 140 166 191
0.433957 -0.468843 -0.555 61 93 150
0.439243 -0.468843 -0.555 46 79 133
0.450625 -0.469688 -0.556 162 174 190
0.456979 -0.469688 -0.556 178 187 192
0.471806 -0.469688 -0.556 42 84 142
0.476042 -0.469688 -0.556 83 112 154
0.49069 -0.470532 -0.557 148 155 163
0.492812 -0.470532 -0.557 149 154 158
0.494046 -0.469688 -0.556 134 134 142
0.480809 -0.440121 -0.521 132 98 86
0.475514 -0.430829 -0.51 151 109 87
0.473792 -0.42407 -0.502 158 113 90
0.474743 -0.419002 -0.496 164 120 95
0.480151 -0.413089 -0.489 175 128 98
0.48806 -0.40802 -0.483 174 128 95
0.837962 -0.489962 -0.58 77 81 80
0.840577 -0.488272 -0.578 120 122 119
0.852324 -0.489962 -0.58 77 79 74
0.868213 -0.493341 -0.584 110 112 107
0.868566 -0.491651 -0.582 110 112 107
0.879651 -0.491651 -0.582 102 103 98
0.888236 -0.493341 -0.584 94 95 90
-0.00874286 -0.4572 -0.54 189 148 120
0.00280667 -0.356447 -0.421 179 134 103
0.0187105 -0.353907 -0.418 186 139 109
0.0276 -0.3556 -0.42 183 136 106
0.0341619 -0.357293 -0.422 175 128 102
0.0442229 -0.36068 -0.426 175 128 100
0.0544667 -0.364067 -0.43 163 117 93
0.0562352 -0.364913 -0.431 164 118 94
0.06062 -0.366607 -0.433 147 101 86
0.0696629 -0.37084 -0.438 139 97 81
0.075521 -0.375073 -0.443 126 87 82
0.442414 -0.4699 -0.555 57 95 157
0.443471 -0.4699 -0.555 75 113 175
0.449566 -0.470747 -0.556 179 188 197
0.452743 -0.470747 -0.556 178 187 196
0.466729 -0.4699 -0.555 73 110 155
0.467786 -0.4699 -0.555 60 102 150
0.477101 -0.470747 -0.556 72 102 140
0.479951 -0.43942 -0.519 135 99 87
0.474753 -0.420793 -0.497 162 121 93
0.481029 -0.413173 -0.488 173 126 96
0.488886 -0.408093 -0.482 172 126 92
0.489704 -0.407247 -0.481 173 127 93
0.519601 -0.405553 -0.479 152 111 79
0.851219 -0.491067 -0.58 100 102 97
0.865989 -0.494453 -0.584 99 101 96
0.867101 -0.494453 -0.584 104 106 101
0.8764 -0.49784 -0.588 104 106 101
0.876028 -0.496993 -0.587 94 96 93
0.87561 -0.493607 -0.583 89 91 88
0.892799 -0.496993 -0.587 102 103 98
-0.290615 -0.459926 -0.542 224 225 219
0.00200476 -0.357249 -0.421 184 141 107
0.00597143 -0.354703 -0.418 184 139 106
0.0155257 -0.354703 -0.418 189 143 110
0.021099 -0.354703 -0.418 182 135 105
0.0349657 -0.358097 -0.422 175 128 100
0.0383619 -0.359794 -0.424 180 130 105
0.0544667 -0.364886 -0.43 164 118 94
0.0562352 -0.365734 -0.431 162 116 93
0.06324 -0.36828 -0.434 155 106 92
0.0650429 -0.369129 -0.435 148 100 86
0.0658714 -0.369129 -0.435 147 99 85
0.085179 -0.385251 -0.454 108 81 74
0.0862333 -0.3861 -0.455 104 79 74
0.0980286 -0.398829 -0.47 94 75 69
0.100669 -0.402223 -0.474 92 73 69
0.43001 -0.470109 -0.554 168 184 199
0.436341 -0.470109 -0.554 45 82 150
0.47816 -0.471806 -0.556 83 105 142
0.48732 -0.473503 -0.558 152 153 157
0.495823 -0.473503 -0.558 122 124 123
0.495995 -0.472654 -0.557 125 124 129
0.499178 -0.472654 -0.557 112 116 117
0.5004 -0.471806 -0.556 110 111 113
0.490671 -0.453986 -0.535 113 95 85
0.476504 -0.416649 -0.491 169 125 96
0.485537 -0.412406 -0.486 173 127 94
0.489804 -0.409011 -0.482 172 126 92
0.866357 -0.496414 -0.585 100 102 97
0.889445 -0.498111 -0.587 104 106 101
-0.320554 -0.460958 -0.542 224 225 219
-0.307133 -0.460958 -0.542 224 225 217
-0.303004 -0.460958 -0.542 225 226 218
0.0171181 -0.355499 -0.418 187 140 112
0.0203029 -0.355499 -0.418 183 136 106
0.0349657 -0.358901 -0.422 175 128 102
0.0391695 -0.360602 -0.424 178 128 103
0.0493219 -0.364004 -0.428 169 118 91
0.130458 -0.453304 -0.533 212 216 225
0.146414 -0.472014 -0.555 140 162 201
0.426844 -0.471164 -0.554 203 212 219
0.427899 -0.471164 -0.554 183 196 212
0.428954 -0.471164 -0.554 183 196 212
0.443471 -0.472014 -0.555 60 90 152
0.449814 -0.472014 -0.555 188 199 205
0.482203 -0.473715 -0.557 130 131 135
0.497949 -0.474566 -0.558 129 125 124
0.501137 -0.474566 -0.558 114 119 115
0.485342 -0.448201 -0.527 124 95 91
0.476552 -0.432042 -0.508 153 111 87
0.474762 -0.425238 -0.5 159 115 88
0.482826 -0.414182 -0.487 171 126 95
0.487227 -0.41163 -0.484 170 124 91
0.495493 -0.404827 -0.476 174 128 94
0.498071 -0.403976 -0.475 168 122 89
0.50169 -0.403976 -0.475 167 122 89
0.516523 -0.405677 -0.477 154 113 81
0.876769 -0.50093 -0.589 115 117 114
0.00675143 -0.355443 -0.417 188 143 110
0.00913429 -0.355443 -0.417 192 148 113
0.00992857 -0.355443 -0.417 191 147 112
0.0162829 -0.355443 -0.417 186 139 109
0.0218952 -0.356295 -0.418 183 138 107
0.0333581 -0.359705 -0.422 177 130 104
0.0399771 -0.36141 -0.424 177 127 102
0.07182 -0.3759 -0.441 132 93 86
0.0746771 -0.377605 -0.443 126 89 83
0.0787571 -0.381014 -0.447 114 85 81
0.085179 -0.386981 -0.454 109 81 77
0.14615 -0.472219 -0.554 140 165 206
0.420807 -0.471367 -0.553 200 209 216
0.425789 -0.472219 -0.554 200 211 217
0.428954 -0.472219 -0.554 185 199 212
0.446643 -0.473071 -0.555 118 135 151
0.452986 -0.473071 -0.555 159 165 163
0.4625 -0.473071 -0.555 135 140 146
0.471806 -0.473924 -0.556 140 148 150
0.473715 -0.474776 -0.557 143 149 145
0.499906 -0.476481 -0.559 122 122 124
0.486263 -0.450057 -0.528 119 97 86
0.488686 -0.409143 -0.48 170 124 90
0.4964 -0.405733 -0.476 171 125 91
0.511643 -0.404881 -0.475 162 119 85
-0.329237 -0.462169 -0.541 224 225 219
-0.311719 -0.462169 -0.541 224 226 215
0.00199524 -0.357946 -0.419 187 144 110
0.00279333 -0.357946 -0.419 184 140 105
0.0114895 -0.355383 -0.416 192 148 113
0.0131057 -0.356237 -0.417 187 142 109
0.0333581 -0.360509 -0.422 175 127 104
0.0442229 -0.363926 -0.426 175 125 102
0.04758 -0.36478 -0.427 171 121 98
0.0501371 -0.365634 -0.428 171 121 98
0.0596571 -0.369051 -0.432 152 105 87
0.067839 -0.373323 -0.437 135 95 85
0.0767095 -0.380157 -0.445 119 84 80
0.0876743 -0.391263 -0.458 102 77 70
0.0898095 -0.392971 -0.46 100 77 71
0.09108 -0.39468 -0.462 97 77 70
0.352754 -0.471566 -0.552 187 201 214
0.388503 -0.471566 -0.552 198 208 210
0.391657 -0.471566 -0.552 193 202 211
0.397966 -0.471566 -0.552 110 137 167
0.412686 -0.471566 -0.552 137 165 187
0.454043 -0.474129 -0.555 173 173 175
0.459329 -0.474129 -0.555 170 170 172
0.465451 -0.474983 -0.556 168 168 170
0.472654 -0.475837 -0.557 162 163 165
0.477959 -0.475837 -0.557 155 155 157
0.484999 -0.477546 -0.559 150 150 152
0.494214 -0.479254 -0.561 136 136 134
0.502035 -0.477546 -0.559 114 109 103
0.488105 -0.452771 -0.53 117 94 86
0.483686 -0.415183 -0.486 169 124 93
0.489492 -0.409203 -0.479 173 127 94
0.492112 -0.408349 -0.478 174 128 95
0.49368 -0.40664 -0.476 175 129 95
0.496262 -0.405786 -0.475 169 123 89
0.506051 -0.404931 -0.474 164 119 86
0.50876 -0.404931 -0.474 165 120 87
0.513452 -0.405786 -0.475 161 116 83
-0.317314 -0.462343 -0.54 223 224 216
-0.307029 -0.462343 -0.54 224 225 217
-0.300857 -0.462343 -0.54 226 228 217
-0.01072 -0.458918 -0.536 187 148 117
0.000399048 -0.358744 -0.419 185 142 107
0.00834 -0.357031 -0.417 190 146 111
0.00990476 -0.356175 -0.416 192 148 111
0.021099 -0.357888 -0.418 178 133 102
0.0259381 -0.358744 -0.419 180 133 105
0.0341619 -0.361312 -0.422 175 128 102
0.0407848 -0.363025 -0.424 174 124 97
0.0588343 -0.369874 -0.432 152 107 86
0.0624133 -0.371587 -0.434 152 106 90
0.0688286 -0.375011 -0.438 131 91 79
0.0767095 -0.381005 -0.445 118 85 80
0.0960333 -0.401553 -0.469 96 76 67
0.392709 -0.472617 -0.552 197 210 219
0.40112 -0.472617 -0.552 110 139 173
0.419753 -0.473473 -0.553 173 175 170
0.443471 -0.475186 -0.555 183 184 186
0.481805 -0.47861 -0.559 151 151 149
0.502043 -0.483748 -0.565 117 116 112
0.50687 -0.481179 -0.562 100 93 83
0.47922 -0.418677 -0.489 165 121 92
0.481029 -0.417821 -0.488 170 125 96
0.48097 -0.416965 -0.487 169 124 95
0.484461 -0.414396 -0.484 169 124 93
0.486131 -0.412684 -0.482 173 126 96
0.487871 -0.411828 -0.481 173 126 96
0.505885 -0.404978 -0.473 167 121 87
-0.324514 -0.463371 -0.54 224 225 217
-0.323486 -0.463371 -0.54 224 225 217
-0.317314 -0.463371 -0.54 224 225 217
-0.312171 -0.463371 -0.54 226 227 219
-0.304971 -0.463371 -0.54 225 227 216
-0.00960857 -0.455649 -0.531 183 147 115
0.00278 -0.357826 -0.417 187 143 108
0.00436857 -0.357826 -0.417 189 147 109
0.0284 -0.3604 -0.42 177 130 102
0.0578771 -0.369839 -0.431 155 109 85
0.0670067 -0.374988 -0.437 139 97 81
0.357363 -0.47281 -0.551 192 198 212
0.374155 -0.47281 -0.551 64 90 151
0.382551 -0.47281 -0.551 188 201 207
0.410583 -0.473669 -0.552 172 177 180
0.413737 -0.473669 -0.552 184 185 189
0.431843 -0.476243 -0.555 188 187 185
0.441357 -0.476243 -0.555 178 182 185
0.442414 -0.476243 -0.555 182 182 184
0.44533 -0.477101 -0.556 183 183 185
0.45592 -0.477101 -0.556 174 174 174
0.470532 -0.477959 -0.557 156 156 154
0.496662 -0.484824 -0.565 116 112 111
0.510829 -0.489114 -0.57 93 89 86
0.51138 -0.48654 -0.567 83 80 73
0.51246 -0.48654 -0.567 79 76 69
0.506605 -0.477959 -0.557 89 80 73
0.480176 -0.441919 -0.515 139 104 85
0.4757 -0.426473 -0.497 157 118 89
0.483614 -0.416176 -0.485 170 125 94
0.48622 -0.41446 -0.483 172 127 96
0.493809 -0.409311 -0.477 173 127 93
0.496262 -0.407595 -0.475 168 122 88
0.497023 -0.406737 -0.474 169 123 89
0.498829 -0.406737 -0.474 172 126 92
0.511469 -0.406737 -0.474 164 117 87
0.525988 -0.411028 -0.479 146 109 83
0.551869 -0.423899 -0.494 131 103 82
0.555048 -0.425615 -0.496 131 103 82
-0.311593 -0.46354 -0.539 226 228 217
-0.30954 -0.46354 -0.539 226 228 217
-0.30646 -0.46354 -0.539 225 227 216
-0.285927 -0.46354 -0.539 225 228 219
0.00278 -0.35862 -0.417 188 144 109
0.00752762 -0.35776 -0.416 190 146 109
0.00990476 -0.35776 -0.416 188 146 108
0.0170362 -0.35776 -0.416 182 138 103
0.0324771 -0.36206 -0.421 180 131 101
0.0624133 -0.37324 -0.434 150 105 86
0.0651924 -0.37496 -0.436 143 100 83
0.0660229 -0.37496 -0.436 140 98 82
0.0738333 -0.38098 -0.443 122 89 80
0.0767095 -0.3827 -0.445 119 86 77
0.0868019 -0.39388 -0.458 101 76 69
0.357363 -0.47386 -0.551 197 200 209
0.375205 -0.47386 -0.551 80 102 152
0.379403 -0.47386 -0.551 129 142 159
0.38465 -0.47386 -0.551 167 169 168
0.4029 -0.47558 -0.553 188 189 191
0.403953 -0.47558 -0.553 188 188 188
0.433957 -0.4773 -0.555 188 188 190
0.479254 -0.48246 -0.561 140 138 139
0.477546 -0.43602 -0.507 149 109 84
0.476667 -0.43 -0.5 156 115 87
0.476567 -0.42398 -0.493 164 120 91
0.478289 -0.42054 -0.489 167 122 93
0.484461 -0.41624 -0.484 170 125 92
0.486131 -0.41452 -0.482 172 127 94
0.491083 -0.41022 -0.477 171 125 92
0.543307 -0.41968 -0.488 142 106 80
0.550388 -0.42226 -0.491 127 102 80
-0.323913 -0.464567 -0.539 225 226 218
-0.310567 -0.464567 -0.539 225 227 216
-0.30954 -0.464567 -0.539 225 227 216
0.00356571 -0.358552 -0.416 188 144 109
0.0130743 -0.358552 -0.416 185 141 104
0.02514 -0.361138 -0.419 181 135 102
0.0275343 -0.361138 -0.419 179 133 100
0.0284 -0.362 -0.42 177 131 98
0.0578771 -0.371481 -0.431 155 109 85
0.0614448 -0.373205 -0.433 152 107 86
0.0670067 -0.376652 -0.437 136 97 80
0.08118 -0.388719 -0.451 111 82 76
0.0855543 -0.393029 -0.456 103 78 71
0.105776 -0.418024 -0.485 88 67 62
0.113582 -0.43009 -0.499 84 70 70
0.14352 -0.475771 -0.552 113 141 188
0.144571 -0.475771 -0.552 108 136 183
0.356313 -0.47491 -0.551 173 175 174
0.358412 -0.47491 -0.551 164 169 165
0.379403 -0.47491 -0.551 180 181 183
0.40922 -0.476633 -0.553 187 187 189
0.41554 -0.476633 -0.553 188 188 188
0.419457 -0.477495 -0.554 189 189 189
0.4255 -0.478357 -0.555 185 186 178
0.462045 -0.480081 -0.557 147 147 147
0.463937 -0.480943 -0.558 146 146 146
0.472843 -0.483529 -0.561 135 133 134
0.483526 -0.487838 -0.566 117 115 116
0.49389 -0.489562 -0.568 106 102 103
0.49626 -0.4887 -0.567 100 96 97
0.484647 -0.450776 -0.523 123 99 89
0.482917 -0.447329 -0.519 130 101 87
0.481109 -0.444743 -0.516 135 99 83
0.480266 -0.442157 -0.513 141 103 82
0.4774 -0.422333 -0.49 166 123 91
0.480099 -0.42061 -0.488 170 127 95
0.4853 -0.4163 -0.483 169 124 91
0.496262 -0.409405 -0.475 169 122 92
0.498829 -0.408543 -0.474 170 123 93
0.506613 -0.406819 -0.472 163 118 87
0.523791 -0.411129 -0.477 150 111 82
0.5247 -0.411129 -0.477 149 110 81
0.52671 -0.41199 -0.478 148 109 80
-0.301792 -0.46473 -0.538 226 227 219
-0.289495 -0.46473 -0.538 225 228 221
-0.00868 -0.374893 -0.434 188 143 112
-0.00776286 -0.370574 -0.429 186 141 110
0.00119143 -0.360209 -0.417 185 141 106
0.00434762 -0.358481 -0.415 188 143 110
0.00909048 -0.358481 -0.415 191 145 111
0.0242838 -0.361072 -0.418 177 130 100
0.0845 -0.393033 -0.455 102 77 70
0.0975467 -0.407718 -0.472 94 74 67
0.100187 -0.411173 -0.476 90 71 65
0.146409 -0.475959 -0.551 85 116 160
0.344143 -0.475095 -0.55 115 136 167
0.34519 -0.475095 -0.55 117 138 169
0.39026 -0.477687 -0.553 184 188 191
0.391313 -0.477687 -0.553 186 189 194
0.401847 -0.477687 -0.553 188 192 193
0.404684 -0.47855 -0.554 184 189 193
0.430503 -0.480278 -0.556 171 171 173
0.448252 -0.481142 -0.557 150 148 149
0.455679 -0.481142 -0.557 134 133 131
0.477586 -0.436224 -0.505 151 109 87
0.493548 -0.41031 -0.475 169 122 92
0.529637 -0.413765 -0.479 148 107 75
-0.324337 -0.465754 -0.538 225 226 218
-0.306916 -0.465754 -0.538 224 225 217
-0.0126667 -0.46056 -0.532 188 144 109
-0.00604286 -0.366197 -0.423 186 142 107
0.0170362 -0.360137 -0.416 184 138 105
0.0234876 -0.361869 -0.418 180 131 101
0.02508 -0.361869 -0.418 182 133 103
0.0283324 -0.362734 -0.419 174 127 97
0.0433095 -0.367929 -0.425 172 125 99
0.044119 -0.367929 -0.425 169 122 96
0.0450343 -0.368794 -0.426 169 119 94
0.0698219 -0.380049 -0.439 125 91 79
0.070819 -0.380914 -0.44 124 90 78
0.0728248 -0.382646 -0.442 121 89 78
0.0834495 -0.393034 -0.454 107 80 73
0.0880571 -0.398229 -0.46 101 76 69
0.0903952 -0.400826 -0.463 99 76 70
0.141161 -0.477009 -0.551 113 131 181
0.341 -0.476143 -0.55 166 173 179
0.392021 -0.479606 -0.554 183 187 190
0.406471 -0.480471 -0.555 175 176 178
0.427326 -0.481337 -0.556 164 159 165
0.451435 -0.482203 -0.557 113 111 112
0.487797 -0.494323 -0.571 64 59 63
0.503454 -0.501249 -0.579 55 53 56
0.503381 -0.476143 -0.55 97 81 81
0.49096 -0.46056 -0.532 109 88 83
0.478289 -0.423334 -0.489 165 124 92
0.481767 -0.419871 -0.485 171 128 96
0.490291 -0.413811 -0.478 174 129 98
0.492643 -0.411214 -0.475 173 127 94
0.498677 -0.409483 -0.473 172 127 96
0.499578 -0.409483 -0.473 172 125 95
0.526517 -0.412946 -0.477 151 107 78
0.535513 -0.416409 -0.481 143 104 73
0.537545 -0.417274 -0.482 143 104 73
-0.29714 -0.465911 -0.537 226 228 217
0.00276667 -0.360062 -0.415 190 146 111
0.00671905 -0.360062 -0.415 190 145 112
0.00749143 -0.359194 -0.414 190 145 112
0.00828 -0.359194 -0.414 191 146 113
0.0202543 -0.361797 -0.417 183 137 104
0.033279 -0.365268 -0.421 176 129 99
0.0552857 -0.373076 -0.43 157 112 89
0.0651924 -0.378282 -0.436 140 101 86
0.0750143 -0.38609 -0.445 117 87 77
0.0770543 -0.387826 -0.447 116 86 78
0.0857419 -0.396502 -0.457 102 78 68
0.1078 -0.425133 -0.49 80 62 58
0.14221 -0.478058 -0.551 103 130 177
0.317374 -0.476323 -0.549 141 147 147
0.328877 -0.476323 -0.549 178 178 180
0.330969 -0.476323 -0.549 177 179 178
0.33681 -0.47719 -0.55 179 180 184
0.341 -0.47719 -0.55 182 182 184
0.344769 -0.478058 -0.551 174 178 181
0.359713 -0.479793 -0.553 178 183 179
0.382524 -0.480661 -0.554 173 174 176
0.384634 -0.480661 -0.554 171 175 176
0.422329 -0.481529 -0.555 141 142 144
0.429155 -0.483264 -0.557 128 127 123
0.431277 -0.483264 -0.557 127 123 122
0.443743 -0.484131 -0.558 100 102 97
0.479115 -0.42253 -0.487 165 124 94
0.480909 -0.421663 -0.486 166 125 93
0.494314 -0.411251 -0.474 168 122 89
0.495217 -0.411251 -0.474 169 123 90
0.498677 -0.410384 -0.473 172 127 94
0.499421 -0.409516 -0.472 169 123 90
0.503746 -0.408649 -0.471 165 120 87
0.508231 -0.408649 -0.471 164 119 86
0.525413 -0.412987 -0.476 152 109 77
0.54326 -0.41906 -0.483 125 100 80
-0.312483 -0.466934 -0.537 225 226 218
-0.300209 -0.466934 -0.537 225 227 216
0.00118571 -0.360852 -0.415 189 145 110
0.00354857 -0.359983 -0.414 192 148 113
0.0154143 -0.360852 -0.415 185 139 106
0.0226371 -0.362591 -0.417 181 132 102
0.0398829 -0.367809 -0.423 174 127 99
0.0527057 -0.373026 -0.429 161 115 91
0.0570562 -0.374765 -0.431 153 110 91
0.0966476 -0.410415 -0.472 96 71 67
0.104852 -0.421719 -0.485 83 68 61
0.11218 -0.432153 -0.497 77 65 67
0.306917 -0.477369 -0.549 151 155 158
0.325286 -0.478238 -0.55 177 178 182
0.328429 -0.478238 -0.55 180 181 185
0.344343 -0.479977 -0.552 179 183 186
0.346446 -0.479977 -0.552 180 184 187
0.412499 -0.483455 -0.556 136 134 137
0.415986 -0.482586 -0.555 127 125 128
0.417794 -0.483455 -0.556 125 123 126
0.467263 -0.488672 -0.562 59 54 58
0.5124 -0.51128 -0.588 55 53 58
0.528433 -0.505193 -0.581 33 31 36
0.506127 -0.480847 -0.553 95 85 86
0.486755 -0.416502 -0.479 166 123 89
0.495974 -0.411285 -0.473 172 127 94
0.499421 -0.410415 -0.472 169 123 90
0.512907 -0.410415 -0.472 157 113 78
0.515604 -0.410415 -0.472 159 114 81
0.517597 -0.411285 -0.473 158 113 80
0.529243 -0.414763 -0.477 152 109 77
0.533994 -0.415632 -0.478 146 105 75
-0.281272 -0.467086 -0.536 226 227 219
-0.280251 -0.467086 -0.536 226 227 219
-0.00854 -0.3721 -0.427 181 141 105
-0.00278 -0.363386 -0.417 185 141 104
-0.00198571 -0.363386 -0.417 184 140 103
0.000395238 -0.361643 -0.415 186 142 105
0.00197619 -0.361643 -0.415 190 146 109
0.00354857 -0.360771 -0.414 190 146 111
0.00591429 -0.360771 -0.414 185 139 105
0.0146238 -0.361643 -0.415 184 138 104
0.038181 -0.367743 -0.422 177 127 100
0.04758 -0.3721 -0.427 167 119 96
0.0518886 -0.373843 -0.429 161 115 92
0.0615867 -0.3782 -0.434 145 102 85
0.06716 -0.381686 -0.438 135 98 82
0.0689857 -0.382557 -0.439 131 95 81
0.0760324 -0.388657 -0.446 115 85 74
0.138557 -0.478414 -0.549 122 139 157
0.339521 -0.480157 -0.551 182 183 185
0.34602 -0.4819 -0.553 183 184 186
0.349811 -0.482771 -0.554 178 179 181
0.355729 -0.483643 -0.555 176 176 178
0.368414 -0.483643 -0.555 168 168 168
0.370529 -0.483643 -0.555 168 168 168
0.37755 -0.484514 -0.556 164 164 166
0.386717 -0.485386 -0.557 154 154 154
0.387778 -0.485386 -0.557 154 154 154
0.390961 -0.485386 -0.557 149 149 149
0.394144 -0.485386 -0.557 144 142 145
0.400166 -0.486257 -0.558 132 130 133
0.407606 -0.486257 -0.558 113 111 114
0.41218 -0.485386 -0.557 103 101 106
0.414302 -0.485386 -0.557 96 94 99
0.42279 -0.485386 -0.557 79 74 80
0.431761 -0.487129 -0.559 70 65 71
0.440279 -0.487129 -0.559 65 60 66
0.453867 -0.488 -0.56 63 60 67
0.513293 -0.489743 -0.562 70 60 61
0.47824 -0.425257 -0.488 164 125 92
0.478188 -0.424386 -0.487 167 123 94
0.479919 -0.422643 -0.485 171 128 96
0.48346 -0.4209 -0.483 172 127 94
0.486755 -0.417414 -0.479 169 126 92
0.489266 -0.415671 -0.477 172 127 94
0.49096 -0.4148 -0.476 170 124 91
0.490833 -0.413929 -0.475 172 126 93
0.495073 -0.412186 -0.473 170 125 92
-0.325173 -0.468107 -0.536 224 225 217
-0.318027 -0.468107 -0.536 224 225 217
-0.315985 -0.468107 -0.536 224 225 217
-0.313943 -0.468107 -0.536 226 227 219
-0.0136029 -0.461993 -0.529 178 136 96
-0.00198095 -0.363307 -0.416 186 142 105
0.00118286 -0.36156 -0.414 188 144 109
0.00826 -0.360687 -0.413 186 140 106
0.00904667 -0.360687 -0.413 187 141 107
0.0106457 -0.36156 -0.414 183 137 104
0.0177857 -0.362433 -0.415 187 138 106
0.0299286 -0.365927 -0.419 176 129 99
0.0348829 -0.367673 -0.421 178 129 99
0.0510714 -0.37466 -0.429 163 115 92
0.0527057 -0.37466 -0.429 161 113 91
0.0597952 -0.378153 -0.433 146 103 86
0.0760324 -0.389507 -0.446 116 86 75
0.080321 -0.393873 -0.451 105 80 73
0.109177 -0.42968 -0.492 74 63 57
0.295414 -0.47946 -0.549 165 171 167
0.31853 -0.481207 -0.551 174 178 179
0.326927 -0.481207 -0.551 177 178 180
0.346646 -0.483827 -0.554 169 169 171
0.35531 -0.485573 -0.556 164 164 166
0.359547 -0.485573 -0.556 163 163 165
0.372925 -0.486447 -0.557 151 149 150
0.37929 -0.486447 -0.557 140 138 141
0.397333 -0.489067 -0.56 109 107 112
0.410133 -0.489067 -0.56 77 74 81
0.422486 -0.48732 -0.558 66 61 67
0.424611 -0.48732 -0.558 67 62 68
0.4304 -0.489067 -0.56 66 61 67
0.433306 -0.48994 -0.561 64 59 65
0.435443 -0.48994 -0.561 62 57 64
0.456558 -0.490813 -0.562 58 57 63
0.4725 -0.49518 -0.567 57 55 60
0.476334 -0.496927 -0.569 57 56 61
0.522249 -0.50042 -0.573 15 14 20
0.514207 -0.491687 -0.563 55 46 49
0.48928 -0.46112 -0.528 114 90 80
0.482181 -0.448893 -0.514 131 100 80
0.48128 -0.447147 -0.512 134 102 79
0.479477 -0.44278 -0.507 142 106 84
0.477357 -0.42706 -0.489 162 126 94
0.478188 -0.425313 -0.487 164 123 93
0.489147 -0.415707 -0.476 169 124 91
0.491738 -0.414833 -0.475 173 127 94
0.494172 -0.413087 -0.473 170 125 92
0.510923 -0.41134 -0.471 158 112 79
0.532667 -0.415707 -0.476 141 104 75
0.539673 -0.418327 -0.479 131 101 77
0.543759 -0.420073 -0.481 128 101 80
-0.303167 -0.468252 -0.535 225 227 216
0.00197143 -0.362349 -0.414 189 145 110
0.00276 -0.362349 -0.414 190 146 111
0.00904667 -0.361473 -0.413 182 138 103
0.00983333 -0.361473 -0.413 177 133 98
0.0242257 -0.364974 -0.417 179 130 98
0.0299286 -0.366725 -0.419 177 130 100
0.0356848 -0.368475 -0.421 179 130 100
0.0501371 -0.374602 -0.428 160 112 89
0.0544667 -0.376352 -0.43 157 110 90
0.0931543 -0.409611 -0.468 92 73 66
0.0996971 -0.418364 -0.478 87 72 65
0.126934 -0.464751 -0.531 135 148 180
0.310134 -0.482256 -0.551 172 173 175
0.314332 -0.482256 -0.551 172 173 175
0.323314 -0.483131 -0.552 167 169 168
0.328571 -0.483131 -0.552 164 166 165
0.331726 -0.483131 -0.552 161 161 161
0.345157 -0.485757 -0.555 159 157 158
0.347271 -0.485757 -0.555 156 154 155
0.397682 -0.491884 -0.562 77 74 81
0.404105 -0.491884 -0.562 66 63 70
0.426133 -0.490133 -0.56 59 57 62
0.429031 -0.491009 -0.561 59 58 64
0.445574 -0.492759 -0.563 56 55 61
0.472251 -0.497135 -0.568 54 53 58
0.478548 -0.441995 -0.505 145 107 88
0.476664 -0.436744 -0.499 152 110 86
0.480773 -0.423615 -0.484 168 127 95
0.484295 -0.421865 -0.482 167 124 92
0.489929 -0.415738 -0.475 168 123 90
0.491738 -0.415738 -0.475 172 126 93
0.492509 -0.414863 -0.474 171 125 92
0.497466 -0.412237 -0.471 168 123 90
0.49926 -0.412237 -0.471 170 125 92
0.508943 -0.411362 -0.47 160 115 84
0.52772 -0.414863 -0.474 153 110 78
-0.325586 -0.469271 -0.535 224 225 217
-0.3103 -0.469271 -0.535 221 223 212
-0.303167 -0.469271 -0.535 225 227 216
-0.27871 -0.469271 -0.535 226 227 219
-0.0068 -0.3684 -0.42 183 139 102
-0.00277333 -0.364891 -0.416 186 142 105
0.01062 -0.36226 -0.413 175 129 95
0.0202057 -0.364891 -0.416 179 133 100
0.0307267 -0.367523 -0.419 178 129 99
0.0332 -0.3684 -0.42 178 128 101
0.0348829 -0.369277 -0.421 176 129 101
0.0356848 -0.369277 -0.421 176 129 101
0.0588343 -0.378926 -0.432 145 102 86
0.06076 -0.38068 -0.434 140 97 81
0.0882486 -0.404363 -0.461 95 74 69
0.1035 -0.42366 -0.483 88 71 64
0.237033 -0.479797 -0.547 106 113 123
0.260997 -0.479797 -0.547 160 164 165
0.263081 -0.479797 -0.547 161 163 162
0.264123 -0.479797 -0.547 162 164 163
0.266207 -0.479797 -0.547 162 165 170
0.272956 -0.480674 -0.548 161 165 168
0.277131 -0.480674 -0.548 159 163 166
0.28914 -0.481551 -0.549 167 168 170
0.291231 -0.481551 -0.549 169 168 173
0.303837 -0.483306 -0.551 165 167 166
0.308035 -0.483306 -0.551 164 165 167
0.312233 -0.483306 -0.551 160 162 161
