ply
format ascii 1.0
comment Created by Open3D
element vertex 1316
property double x
property double y
property double z
property uchar red
property uchar green
property uchar blue
end_header
0.460156 -0.458038 -0.556 122 138 172
0.461215 -0.458038 -0.556 89 105 139
0.470747 -0.458038 -0.556 38 78 129
0.472865 -0.458038 -0.556 64 100 152
0.477101 -0.458038 -0.556 67 97 147
0.49069 -0.458862 -0.557 139 146 152
0.502361 -0.458862 -0.557 82 81 86
0.501766 -0.45639 -0.554 84 79 76
0.479816 -0.429205 -0.521 119 92 71
0.473571 -0.420143 -0.51 132 99 80
0.470017 -0.410257 -0.498 152 114 91
0.474563 -0.402843 -0.489 166 122 97
0.48705 -0.397076 -0.482 173 123 96
0.491429 -0.395429 -0.48 172 125 99
0.498486 -0.393781 -0.478 169 122 94
0.511543 -0.395429 -0.48 153 112 82
0.0152657 -0.339369 -0.411 185 140 107
0.0223657 -0.340194 -0.412 178 133 100
0.0263533 -0.34102 -0.413 173 128 95
0.037819 -0.345149 -0.418 165 118 90
0.0428 -0.3468 -0.42 156 109 89
0.0547714 -0.351754 -0.426 134 96 83
0.110574 -0.418637 -0.507 220 219 233
0.438186 -0.458271 -0.555 33 70 125
0.4403 -0.458271 -0.555 38 78 130
0.447448 -0.459097 -0.556 170 178 189
0.472654 -0.459923 -0.557 54 91 136
0.473924 -0.459097 -0.556 69 103 141
0.486447 -0.459923 -0.557 137 146 151
0.492812 -0.459923 -0.557 122 121 126
0.499011 -0.460749 -0.558 106 109 116
0.48792 -0.43928 -0.532 103 90 81
0.470966 -0.411206 -0.498 154 114 89
0.471769 -0.403774 -0.489 164 122 97
0.479057 -0.401297 -0.486 164 118 92
0.496534 -0.393866 -0.477 170 123 97
0.498351 -0.393866 -0.477 166 121 92
0.516429 -0.397994 -0.482 154 113 85
0.533849 -0.407077 -0.493 142 105 76
-0.0132943 -0.350083 -0.423 190 147 113
-0.0123705 -0.346772 -0.419 190 147 113
-0.00508857 -0.340151 -0.411 187 144 109
0.00273333 -0.339324 -0.41 187 144 109
0.00895905 -0.338496 -0.409 186 143 108
0.0128857 -0.339324 -0.41 186 141 108
0.01918 -0.340151 -0.411 179 132 102
0.0199629 -0.340151 -0.411 179 132 102
0.021581 -0.340979 -0.412 179 134 101
0.0445057 -0.348428 -0.421 151 106 87
0.0487457 -0.350083 -0.423 147 101 85
0.056659 -0.354221 -0.428 130 93 85
0.0613029 -0.357531 -0.432 120 85 79
0.0622695 -0.358359 -0.433 117 84 77
0.0858 -0.38236 -0.462 87 69 67
0.1022 -0.405533 -0.49 78 69 70
0.428954 -0.458501 -0.554 141 155 192
0.44533 -0.460156 -0.556 121 141 166
0.473715 -0.460984 -0.557 88 114 149
0.485386 -0.460984 -0.557 123 128 132
0.488569 -0.460984 -0.557 120 124 127
0.472749 -0.418775 -0.506 141 104 86
0.471862 -0.416292 -0.503 149 108 88
0.470952 -0.41381 -0.5 151 109 87
0.483539 -0.400568 -0.484 174 129 100
0.488788 -0.398085 -0.481 172 125 99
0.49062 -0.398085 -0.481 168 121 95
0.494844 -0.395602 -0.478 173 126 100
0.500933 -0.393947 -0.476 166 121 92
0.527505 -0.403878 -0.488 146 105 73
-0.00824 -0.341764 -0.412 190 148 110
-0.00587143 -0.340934 -0.411 191 149 111
0.000389524 -0.339275 -0.409 189 146 111
0.00194762 -0.339275 -0.409 186 143 108
0.0066219 -0.339275 -0.409 184 141 106
0.00818 -0.339275 -0.409 188 144 109
0.0287829 -0.343423 -0.414 170 123 93
0.0304333 -0.344252 -0.415 169 122 92
0.0336762 -0.345082 -0.416 163 116 86
0.0642143 -0.360843 -0.435 114 84 76
0.100647 -0.403978 -0.487 80 65 68
0.107357 -0.415591 -0.501 170 170 178
0.423678 -0.459556 -0.554 187 200 209
0.425789 -0.459556 -0.554 186 199 208
0.45592 -0.461215 -0.556 158 162 161
0.462274 -0.461215 -0.556 122 125 130
0.480081 -0.462045 -0.557 134 137 144
0.504483 -0.462045 -0.557 102 92 90
0.503876 -0.459556 -0.554 86 73 67
0.471862 -0.41725 -0.503 145 106 89
0.472663 -0.404808 -0.488 164 120 95
0.474477 -0.403978 -0.487 169 123 99
0.478995 -0.402319 -0.485 166 120 94
0.487968 -0.39983 -0.482 172 125 97
0.488788 -0.399001 -0.481 172 125 99
0.490405 -0.397342 -0.479 169 122 94
0.49912 -0.394853 -0.476 169 122 92
0.500027 -0.394853 -0.476 169 122 92
0.506373 -0.394853 -0.476 162 117 88
0.570787 -0.429693 -0.518 118 97 80
-0.0106457 -0.344211 -0.414 184 141 106
-0.00116857 -0.340054 -0.409 192 149 114
0.00428476 -0.340054 -0.409 184 141 106
0.0066219 -0.340054 -0.409 185 142 108
0.0152286 -0.340886 -0.41 186 141 108
0.0320143 -0.345043 -0.415 165 116 86
0.0403038 -0.348369 -0.419 155 109 85
0.0540867 -0.35502 -0.427 133 94 79
0.06324 -0.36084 -0.434 116 86 76
0.0836762 -0.382457 -0.46 91 72 66
0.0936429 -0.394929 -0.475 84 66 62
0.0949457 -0.396591 -0.477 84 69 66
0.105766 -0.414051 -0.498 135 137 149
0.418402 -0.460611 -0.554 194 200 214
0.43212 -0.460611 -0.554 59 77 113
0.451684 -0.462274 -0.556 150 154 157
0.475629 -0.463937 -0.558 143 144 146
0.484999 -0.464769 -0.559 133 136 141
0.505969 -0.466431 -0.561 97 89 86
0.479951 -0.431511 -0.519 113 95 85
0.47188 -0.417377 -0.502 149 108 88
0.470967 -0.41322 -0.497 153 113 88
0.470932 -0.409894 -0.493 155 113 89
0.4718 -0.4074 -0.49 163 119 94
0.471733 -0.405737 -0.488 162 118 93
0.48705 -0.400749 -0.482 171 124 96
0.498976 -0.394929 -0.475 169 123 90
0.528279 -0.404906 -0.487 142 106 82
0.59118 -0.441489 -0.531 45 39 39
-0.0131057 -0.3475 -0.417 182 139 105
-0.000389524 -0.340833 -0.409 191 148 113
0.00893714 -0.34 -0.408 187 144 110
0.0120752 -0.340833 -0.409 184 140 105
0.0167905 -0.341667 -0.41 182 138 103
0.0362267 -0.348333 -0.418 162 112 85
0.0522143 -0.354167 -0.425 136 94 78
0.0861714 -0.386667 -0.464 87 67 66
0.0912533 -0.393333 -0.472 85 67 65
0.449566 -0.463333 -0.556 168 168 166
0.47861 -0.465833 -0.559 141 139 142
0.489067 -0.466667 -0.56 128 127 132
0.492267 -0.466667 -0.56 124 125 127
0.506526 -0.47 -0.564 98 93 90
0.508674 -0.47 -0.564 94 86 84
0.478214 -0.429167 -0.515 122 95 84
0.470967 -0.414167 -0.497 151 111 86
0.476224 -0.404167 -0.485 168 122 96
0.488686 -0.4 -0.48 171 124 96
0.4896 -0.4 -0.48 168 121 93
0.492112 -0.398333 -0.478 173 128 95
0.498071 -0.395833 -0.475 171 125 92
-0.0114067 -0.344953 -0.413 178 135 101
0.00194286 -0.340777 -0.408 188 143 110
0.0112686 -0.340777 -0.408 186 142 107
0.01918 -0.343283 -0.411 178 133 100
0.0312238 -0.346624 -0.415 161 114 86
0.0748333 -0.375022 -0.449 94 74 63
0.101267 -0.409267 -0.49 72 69 76
0.400793 -0.461887 -0.553 115 135 170
0.410273 -0.461887 -0.553 129 149 158
0.420807 -0.461887 -0.553 175 175 173
0.438186 -0.463557 -0.555 172 173 177
0.439243 -0.463557 -0.555 172 173 177
0.462045 -0.465228 -0.557 151 159 161
0.468189 -0.466063 -0.558 143 148 154
0.494214 -0.468569 -0.561 115 116 120
0.51138 -0.47358 -0.567 83 77 77
0.475551 -0.425136 -0.509 133 101 88
0.473738 -0.421795 -0.505 140 103 87
0.471905 -0.417619 -0.5 153 111 87
0.474376 -0.40509 -0.485 170 125 96
0.48254 -0.40342 -0.483 171 126 97
0.527033 -0.40509 -0.485 141 105 79
0.0183971 -0.344066 -0.411 179 133 100
0.02472 -0.344903 -0.412 173 126 96
0.0395057 -0.350763 -0.419 154 108 85
0.075 -0.376714 -0.45 94 74 67
0.104817 -0.416897 -0.498 96 104 125
0.106403 -0.419409 -0.501 159 170 200
0.419457 -0.463777 -0.554 180 185 188
0.436857 -0.465451 -0.556 179 177 182
0.44533 -0.465451 -0.556 165 166 170
0.457801 -0.466289 -0.557 150 150 152
0.460984 -0.466289 -0.557 148 149 153
0.469028 -0.467963 -0.559 144 142 143
0.483108 -0.471311 -0.563 128 127 123
0.489026 -0.444523 -0.531 100 80 69
0.47376 -0.42192 -0.504 143 102 84
0.485123 -0.402666 -0.481 170 125 94
0.486857 -0.401829 -0.48 172 127 94
0.491202 -0.400154 -0.478 173 128 95
0.4929 -0.399317 -0.477 170 124 91
0.503343 -0.396806 -0.474 162 117 86
0.509833 -0.397643 -0.475 158 113 82
0.543557 -0.414386 -0.495 139 104 82
0.0345514 -0.349883 -0.417 161 111 84
0.042 -0.3524 -0.42 147 102 81
0.0586981 -0.36163 -0.431 120 86 77
0.0596571 -0.362469 -0.432 120 86 77
0.0739781 -0.376732 -0.449 97 74 68
0.0817457 -0.385123 -0.459 92 72 65
0.0852876 -0.389318 -0.464 90 70 63
0.39376 -0.463154 -0.552 182 183 187
0.396914 -0.463154 -0.552 183 184 188
0.413126 -0.464832 -0.554 182 186 189
0.423386 -0.465671 -0.555 183 187 190
0.424443 -0.465671 -0.555 186 186 188
0.4255 -0.465671 -0.555 183 183 185
0.434739 -0.46651 -0.556 177 177 179
0.442152 -0.46651 -0.556 163 163 163
0.450374 -0.46735 -0.557 156 154 155
0.473911 -0.470706 -0.561 127 127 129
0.481817 -0.473223 -0.564 116 114 117
0.488916 -0.474901 -0.566 109 107 108
0.51969 -0.482452 -0.575 49 47 52
0.519158 -0.479935 -0.572 45 43 46
0.480071 -0.433788 -0.517 119 92 81
0.479195 -0.43211 -0.515 122 95 84
0.472857 -0.419524 -0.5 147 109 88
0.471914 -0.417846 -0.498 152 111 89
0.471828 -0.411972 -0.491 158 116 91
0.472663 -0.409455 -0.488 160 116 89
0.478995 -0.406938 -0.485 168 123 94
0.491991 -0.400226 -0.477 173 126 96
0.517606 -0.401065 -0.478 145 108 82
0.522687 -0.403582 -0.481 144 107 81
0.52578 -0.40526 -0.483 143 106 80
-0.0121638 -0.346472 -0.412 183 143 107
-0.0097619 -0.34479 -0.41 184 145 106
-0.00272 -0.343109 -0.408 189 147 109
0.00816 -0.343109 -0.408 186 143 108
0.00971429 -0.343109 -0.408 185 142 107
0.0136333 -0.34395 -0.409 183 138 105
0.0215286 -0.345631 -0.411 173 126 96
0.0353457 -0.350677 -0.417 162 113 83
0.0615867 -0.364973 -0.434 117 83 73
0.065641 -0.369178 -0.439 109 80 72
0.0931286 -0.401134 -0.477 84 69 66
0.101887 -0.41459 -0.493 95 90 97
0.374834 -0.464206 -0.552 169 174 177
0.375886 -0.464206 -0.552 172 177 180
0.428385 -0.46757 -0.556 174 174 174
0.436582 -0.46841 -0.557 164 164 164
0.439765 -0.46841 -0.557 162 162 162
0.507429 -0.484389 -0.576 71 66 70
0.524409 -0.486911 -0.579 43 42 48
0.524604 -0.48607 -0.578 43 42 48
0.472862 -0.419635 -0.499 149 108 86
0.483377 -0.405339 -0.482 170 123 93
0.485123 -0.404498 -0.481 171 124 94
0.49612 -0.398611 -0.474 172 127 96
0.500634 -0.398611 -0.474 170 123 93
0.50138 -0.39777 -0.473 168 121 91
0.552702 -0.419635 -0.499 137 101 77
-0.017241 -0.354843 -0.421 188 142 106
-0.0121343 -0.346414 -0.411 184 144 108
-0.00581429 -0.343043 -0.407 190 148 110
0.0183971 -0.346414 -0.411 175 128 100
0.0231505 -0.347257 -0.412 174 125 95
0.0386152 -0.352314 -0.418 154 109 80
0.0428 -0.354 -0.42 137 96 74
0.0854714 -0.391929 -0.465 88 69 65
0.375513 -0.4661 -0.553 179 178 184
0.37904 -0.465257 -0.552 181 180 186
0.411757 -0.467786 -0.555 174 172 173
0.428094 -0.469471 -0.557 163 161 162
0.452246 -0.470314 -0.558 121 117 118
0.48114 -0.4779 -0.567 76 72 73
0.49301 -0.482114 -0.572 68 63 67
0.494963 -0.482957 -0.573 68 63 67
0.524071 -0.484643 -0.575 46 44 49
0.507957 -0.467786 -0.555 81 75 77
0.48735 -0.444186 -0.527 106 88 78
0.473792 -0.423114 -0.502 140 102 81
0.471871 -0.415529 -0.493 155 113 88
0.47355 -0.410471 -0.487 162 118 91
0.473503 -0.409629 -0.486 164 118 92
0.474376 -0.408786 -0.485 165 119 93
0.47886 -0.4071 -0.483 173 128 99
0.486857 -0.404571 -0.48 173 126 96
0.487771 -0.404571 -0.48 171 124 94
0.490174 -0.402043 -0.477 169 122 92
0.498677 -0.398671 -0.473 171 124 94
0.502118 -0.397829 -0.472 166 119 89
0.00503905 -0.343818 -0.407 186 142 107
0.0104914 -0.344663 -0.408 178 133 102
0.0136333 -0.345508 -0.409 177 131 98
0.0152286 -0.346352 -0.41 178 131 101
0.0183971 -0.347197 -0.411 176 129 99
0.0239352 -0.348042 -0.412 172 125 95
0.0255667 -0.348887 -0.413 170 123 93
0.0320914 -0.351421 -0.416 162 115 87
0.0523371 -0.359869 -0.426 132 93 76
0.0677733 -0.373385 -0.442 103 78 71
0.0699286 -0.375919 -0.445 101 78 70
0.343291 -0.466309 -0.552 155 169 180
0.359063 -0.466309 -0.552 175 180 183
0.360114 -0.466309 -0.552 175 178 183
0.382887 -0.467153 -0.553 176 179 184
0.430216 -0.470532 -0.557 137 135 136
0.431277 -0.470532 -0.557 136 134 135
0.440554 -0.471377 -0.558 119 117 122
0.444538 -0.472222 -0.559 107 105 110
0.45625 -0.472222 -0.559 87 82 86
0.495121 -0.487428 -0.577 58 56 59
0.49708 -0.488272 -0.578 57 55 58
0.501249 -0.489117 -0.579 56 54 57
0.472763 -0.414778 -0.491 159 114 91
0.4727 -0.413089 -0.489 157 113 88
0.492643 -0.401262 -0.475 169 122 92
0.499578 -0.399572 -0.473 170 124 91
0.510566 -0.400417 -0.474 159 115 88
0.511469 -0.400417 -0.474 157 113 86
0.51834 -0.402951 -0.477 152 110 85
-0.00116286 -0.344593 -0.407 182 143 100
0.00503905 -0.344593 -0.407 185 141 106
0.0112686 -0.34544 -0.408 179 134 103
0.0183524 -0.347133 -0.41 176 129 99
0.0320914 -0.352213 -0.416 162 115 89
0.0345514 -0.35306 -0.417 160 115 86
0.048861 -0.358987 -0.424 140 99 81
0.0577429 -0.364067 -0.43 121 87 77
0.0617286 -0.3683 -0.435 111 81 73
0.0636771 -0.369993 -0.437 108 81 72
0.0646571 -0.37084 -0.438 107 80 71
0.0796486 -0.386927 -0.457 90 71 67
0.0994 -0.414867 -0.49 83 71 71
0.346446 -0.46736 -0.552 169 173 176
0.38078 -0.468207 -0.553 166 164 167
0.383579 -0.469053 -0.554 166 164 169
0.394843 -0.4699 -0.555 162 162 164
0.434955 -0.473287 -0.559 97 95 100
0.441344 -0.473287 -0.559 87 85 90
0.442409 -0.473287 -0.559 82 80 85
0.443473 -0.473287 -0.559 81 79 84
0.447467 -0.474133 -0.56 75 70 76
0.461333 -0.474133 -0.56 61 56 62
0.469167 -0.476673 -0.563 59 57 62
0.50138 -0.493607 -0.583 55 54 59
0.514364 -0.475827 -0.562 67 62 66
0.474736 -0.425873 -0.503 139 101 80
0.472622 -0.412327 -0.487 155 109 85
0.477086 -0.409787 -0.484 166 120 94
0.477869 -0.408093 -0.482 170 123 97
0.478787 -0.408093 -0.482 170 123 97
0.480623 -0.408093 -0.482 171 124 98
0.484114 -0.4064 -0.48 171 124 96
0.485029 -0.4064 -0.48 173 126 98
0.48756 -0.404707 -0.478 169 122 94
0.492509 -0.40132 -0.474 168 121 91
0.521248 -0.404707 -0.478 149 109 83
-0.0251533 -0.45738 -0.539 181 140 108
-0.00891524 -0.345369 -0.407 189 146 111
-0.00814 -0.345369 -0.407 189 147 109
-0.00348857 -0.345369 -0.407 190 148 106
0.00271333 -0.345369 -0.407 184 140 105
0.0136333 -0.347066 -0.409 174 128 95
0.0231505 -0.349611 -0.412 173 124 94
0.0279943 -0.351309 -0.414 170 120 93
0.0515257 -0.361491 -0.426 131 92 75
0.0588343 -0.366583 -0.432 114 84 74
0.06076 -0.36828 -0.434 112 83 75
0.0741429 -0.381857 -0.45 96 74 63
0.0786057 -0.386949 -0.456 92 72 63
0.327381 -0.466714 -0.55 177 178 183
0.33488 -0.468411 -0.552 176 177 179
0.339086 -0.468411 -0.552 175 174 180
0.348127 -0.46926 -0.553 177 181 184
0.360767 -0.46926 -0.553 176 174 177
0.380043 -0.470957 -0.555 160 158 161
0.391671 -0.470957 -0.555 150 150 152
0.40157 -0.472654 -0.557 137 135 138
0.405814 -0.472654 -0.557 128 126 129
0.4368 -0.4752 -0.56 66 61 67
0.445333 -0.4752 -0.56 59 54 61
0.448266 -0.476049 -0.561 55 53 58
0.451471 -0.476049 -0.561 58 55 62
0.455488 -0.476897 -0.562 56 55 61
0.46191 -0.476897 -0.562 55 54 60
0.5328 -0.502354 -0.592 12 15 24
0.537089 -0.503203 -0.593 11 11 19
0.483848 -0.441257 -0.52 110 86 74
0.472733 -0.4158 -0.49 159 114 91
0.472663 -0.414103 -0.488 155 109 85
0.477869 -0.409011 -0.482 167 120 94
0.48329 -0.408163 -0.481 168 121 93
0.496875 -0.401374 -0.473 171 124 94
0.497776 -0.401374 -0.473 169 122 92
0.498677 -0.401374 -0.473 167 120 90
-0.0144829 -0.349546 -0.411 179 139 103
0.00658952 -0.346144 -0.407 183 139 102
0.0199143 -0.348695 -0.41 175 126 96
0.0207457 -0.349546 -0.411 173 124 94
0.0445057 -0.35805 -0.421 144 101 82
0.0471343 -0.359751 -0.423 140 99 79
0.04794 -0.359751 -0.423 136 97 80
0.0532733 -0.363153 -0.427 124 88 74
0.0542133 -0.364004 -0.428 122 86 72
0.0588343 -0.367406 -0.432 115 85 74
0.0636771 -0.371658 -0.437 110 82 68
0.09522 -0.41078 -0.483 80 66 63
0.351922 -0.471164 -0.554 167 171 172
0.354032 -0.471164 -0.554 171 173 172
0.357198 -0.471164 -0.554 164 165 160
0.368019 -0.472865 -0.556 161 159 162
0.387082 -0.472865 -0.556 136 137 141
0.407271 -0.475416 -0.559 96 94 99
0.433306 -0.477117 -0.561 59 57 62
0.436511 -0.477117 -0.561 56 54 59
0.438649 -0.477117 -0.561 55 53 58
0.442923 -0.477117 -0.561 56 54 59
0.446924 -0.477968 -0.562 56 54 59
0.450135 -0.477968 -0.562 56 55 61
0.461406 -0.479669 -0.564 53 52 58
0.464629 -0.479669 -0.564 52 51 57
0.479096 -0.485622 -0.571 55 52 59
0.511375 -0.503482 -0.592 49 48 56
0.484778 -0.443098 -0.521 105 83 72
0.476164 -0.41163 -0.484 167 120 94
0.4832 -0.408229 -0.48 171 124 96
0.484018 -0.407378 -0.479 172 125 97
0.485739 -0.406528 -0.478 172 122 95
0.487449 -0.405677 -0.477 174 124 97
0.492509 -0.403126 -0.474 171 121 94
0.497776 -0.402275 -0.473 169 119 92
0.507334 -0.400574 -0.471 165 118 90
-0.0128229 -0.347771 -0.408 183 143 107
0.00348 -0.346067 -0.406 183 139 102
0.0128229 -0.347771 -0.408 174 127 97
0.0159705 -0.348624 -0.409 174 127 97
0.0207457 -0.350329 -0.411 173 123 96
0.0386152 -0.356295 -0.418 151 107 82
0.0403038 -0.357148 -0.419 147 102 79
0.0515257 -0.363114 -0.426 130 93 75
0.0523371 -0.363114 -0.426 129 92 74
0.0559743 -0.365671 -0.429 121 87 75
0.0777371 -0.388686 -0.456 90 71 65
0.0954171 -0.412552 -0.484 78 67 63
0.337593 -0.471367 -0.553 169 174 168
0.34559 -0.472219 -0.554 164 163 168
0.349811 -0.472219 -0.554 164 162 165
0.356786 -0.473071 -0.555 152 153 155
0.357843 -0.473071 -0.555 152 154 153
0.363783 -0.473924 -0.556 145 150 154
0.377846 -0.475629 -0.558 127 127 127
0.3984 -0.477333 -0.56 87 84 91
0.402317 -0.478186 -0.561 78 75 82
0.449589 -0.480743 -0.564 52 51 57
0.505152 -0.502905 -0.59 29 26 35
0.50998 -0.505462 -0.593 25 25 35
0.519106 -0.508871 -0.597 15 15 25
0.476164 -0.412552 -0.484 167 121 95
0.482286 -0.409143 -0.48 171 121 96
0.508231 -0.401471 -0.471 163 118 89
0.525988 -0.40829 -0.479 148 109 80
0.54442 -0.416814 -0.489 137 100 74
0.000385714 -0.345986 -0.405 187 143 108
0.00891524 -0.347694 -0.407 181 136 103
0.0183524 -0.350257 -0.41 177 127 100
0.0255667 -0.35282 -0.413 169 119 92
0.0304333 -0.354529 -0.415 161 115 89
0.031299 -0.355383 -0.416 160 114 88
0.0320914 -0.355383 -0.416 158 112 86
0.0609 -0.371614 -0.435 112 84 73
0.06594 -0.37674 -0.441 106 79 70
0.105329 -0.431414 -0.505 77 99 149
0.290186 -0.469003 -0.549 175 176 180
0.295414 -0.469003 -0.549 175 176 180
0.299597 -0.469003 -0.549 172 173 177
0.34137 -0.473274 -0.554 158 156 159
0.346214 -0.474129 -0.555 157 155 158
0.419091 -0.480109 -0.562 60 59 64
0.4407 -0.482671 -0.565 59 58 63
0.4563 -0.48438 -0.567 54 53 59
0.490286 -0.451063 -0.528 88 70 58
0.473631 -0.417746 -0.489 160 114 88
0.477869 -0.411766 -0.482 170 123 97
0.47871 -0.410911 -0.481 169 122 94
0.48654 -0.407494 -0.477 174 125 95
0.489024 -0.405786 -0.475 176 127 97
0.501951 -0.402369 -0.471 169 120 90
0.505362 -0.401514 -0.47 165 120 91
0.5269 -0.409203 -0.479 148 109 78
-0.0204486 -0.360456 -0.421 183 140 106
-0.011241 -0.34847 -0.407 189 146 111
-0.00732857 -0.346757 -0.405 189 147 109
-0.00192857 -0.346757 -0.405 186 144 106
0.0104657 -0.34847 -0.407 181 136 103
0.0143771 -0.349326 -0.408 174 128 95
0.0183524 -0.351038 -0.41 177 127 100
0.0199629 -0.351894 -0.411 174 124 97
0.0304333 -0.355319 -0.415 163 116 90
0.0990695 -0.422102 -0.493 75 80 118
0.266134 -0.470049 -0.549 174 175 180
0.2745 -0.470049 -0.549 169 170 175
0.277637 -0.470049 -0.549 170 171 175
0.288619 -0.470905 -0.55 172 173 177
0.295952 -0.470905 -0.55 172 173 177
0.313851 -0.472617 -0.552 165 165 167
0.325541 -0.47433 -0.554 160 158 159
0.336248 -0.476042 -0.556 151 151 153
0.346401 -0.476898 -0.557 138 136 139
0.380554 -0.481179 -0.562 74 72 75
0.415286 -0.488029 -0.57 61 60 65
0.42671 -0.483748 -0.565 60 59 65
0.44226 -0.48546 -0.567 56 55 61
0.461971 -0.488029 -0.57 26 26 34
0.487635 -0.447788 -0.523 105 83 70
0.482181 -0.440082 -0.514 116 88 74
0.480371 -0.436657 -0.51 125 93 78
0.473698 -0.42039 -0.491 156 114 89
0.473631 -0.418677 -0.489 160 116 91
0.47695 -0.412684 -0.482 168 121 95
0.47871 -0.411828 -0.481 170 120 93
0.482193 -0.410115 -0.479 172 122 95
0.492509 -0.405834 -0.474 172 123 91
0.505362 -0.40241 -0.47 165 118 90
0.514894 -0.404978 -0.473 157 112 83
0.523791 -0.408403 -0.477 151 110 78
0.5359 -0.41354 -0.483 144 105 74
-0.0195067 -0.358684 -0.418 183 139 104
-0.0136 -0.350103 -0.408 188 145 110
-0.0120162 -0.349245 -0.407 190 147 112
-0.0112133 -0.348387 -0.406 189 147 109
0.0120457 -0.350103 -0.408 176 131 98
0.0207457 -0.352677 -0.411 174 125 95
0.0337571 -0.357826 -0.417 157 111 85
0.0454152 -0.362116 -0.422 141 98 79
0.0609 -0.373271 -0.435 112 83 75
0.0904029 -0.409311 -0.477 82 68 59
0.273454 -0.471094 -0.549 167 168 172
0.286524 -0.471952 -0.55 170 171 173
0.295441 -0.47281 -0.551 167 167 169
0.303837 -0.47281 -0.551 160 160 162
0.305936 -0.47281 -0.551 159 159 161
0.3128 -0.473669 -0.552 157 157 159
0.340646 -0.478817 -0.558 124 123 128
0.342771 -0.478817 -0.558 118 117 122
0.343834 -0.478817 -0.558 118 117 122
0.3536 -0.480533 -0.56 101 100 105
0.358074 -0.48225 -0.562 92 91 96
0.360215 -0.48225 -0.562 89 87 92
0.364073 -0.483108 -0.563 82 80 85
0.370091 -0.483966 -0.564 73 71 76
0.3861 -0.48654 -0.567 62 60 65
0.419654 -0.491689 -0.573 58 59 63
0.42606 -0.48654 -0.567 58 57 63
0.474729 -0.424757 -0.495 148 108 83
0.473592 -0.41875 -0.488 158 114 87
0.474477 -0.417892 -0.487 155 109 83
0.47695 -0.413602 -0.482 169 122 94
0.477793 -0.412744 -0.481 166 116 89
0.483106 -0.411028 -0.479 174 124 97
0.485631 -0.409311 -0.477 175 128 98
0.48654 -0.409311 -0.477 176 129 99
0.48824 -0.408453 -0.476 173 126 96
0.494172 -0.405879 -0.473 171 122 92
0.494027 -0.405021 -0.472 169 120 90
0.544586 -0.416176 -0.485 136 105 77
-0.0214019 -0.36464 -0.424 178 140 103
-0.0185762 -0.3569 -0.415 185 137 99
-0.0159705 -0.35174 -0.409 183 144 105
-0.00424286 -0.3483 -0.405 188 146 108
0.00657333 -0.34916 -0.406 181 135 102
0.011241 -0.35002 -0.407 178 133 100
0.0223657 -0.35432 -0.412 170 123 95
0.0279943 -0.35604 -0.414 164 117 91
0.0320914 -0.35776 -0.416 158 112 88
0.0345514 -0.35862 -0.417 156 108 85
0.0497857 -0.3655 -0.425 132 95 79
0.05434 -0.36894 -0.429 122 89 74
0.254631 -0.47214 -0.549 169 172 177
0.278143 -0.473 -0.55 165 166 168
0.282333 -0.473 -0.55 163 164 166
0.288617 -0.47472 -0.552 160 161 163
0.294926 -0.47472 -0.552 157 157 159
0.29808 -0.47472 -0.552 156 156 158
0.308594 -0.47472 -0.552 146 146 148
0.336997 -0.48074 -0.559 105 104 109
0.339733 -0.4816 -0.56 100 99 105
0.3408 -0.4816 -0.56 95 94 99
0.344614 -0.48246 -0.561 89 88 93
0.395929 -0.4945 -0.575 61 60 66
0.402801 -0.49622 -0.577 60 59 65
0.4294 -0.4902 -0.57 33 32 40
0.441802 -0.49192 -0.572 13 13 23
0.491291 -0.45408 -0.528 97 80 73
0.485883 -0.44634 -0.519 111 85 72
0.476666 -0.43086 -0.501 137 100 74
0.474729 -0.4257 -0.495 148 108 83
0.474522 -0.41968 -0.488 158 114 87
0.506073 -0.40334 -0.469 165 118 88
0.536627 -0.41452 -0.482 140 103 76
-0.0176571 -0.355105 -0.412 185 143 105
-0.0143419 -0.350795 -0.407 184 144 108
-0.00964286 -0.349071 -0.405 187 144 109
0.0104657 -0.350795 -0.407 178 133 102
0.031299 -0.358552 -0.416 159 113 89
0.0412 -0.362 -0.42 144 102 80
0.0429019 -0.362862 -0.421 144 101 82
0.0507143 -0.367171 -0.426 131 94 78
0.0562352 -0.371481 -0.431 118 86 73
0.0651 -0.3801 -0.441 104 80 70
0.233717 -0.473186 -0.549 171 172 177
0.239554 -0.472324 -0.548 162 170 172
0.243129 -0.473186 -0.549 167 172 175
0.244773 -0.472324 -0.548 170 171 175
0.251494 -0.473186 -0.549 167 170 175
0.263476 -0.474048 -0.55 167 168 172
0.267667 -0.474048 -0.55 163 165 164
0.272905 -0.474048 -0.55 160 162 161
0.27445 -0.47491 -0.551 159 161 160
0.278649 -0.47491 -0.551 156 158 157
0.304436 -0.477495 -0.554 136 136 138
0.3312 -0.482667 -0.56 87 86 91
0.345383 -0.486114 -0.564 68 67 72
0.348148 -0.486976 -0.565 67 66 71
0.35694 -0.4887 -0.567 63 62 67
0.358651 -0.489562 -0.568 63 62 67
0.383881 -0.495595 -0.575 60 59 65
0.386071 -0.495595 -0.575 60 59 65
0.39249 -0.498181 -0.578 61 60 66
0.410614 -0.504214 -0.585 55 54 60
0.477617 -0.432676 -0.502 136 99 73
0.476664 -0.43009 -0.499 143 103 78
0.493877 -0.405957 -0.471 170 121 91
0.494774 -0.405957 -0.471 169 120 90
0.503393 -0.404233 -0.469 168 119 87
0.504287 -0.404233 -0.469 165 119 85
0.50518 -0.404233 -0.469 165 119 85
0.506073 -0.404233 -0.469 164 118 85
0.511629 -0.405095 -0.47 158 113 80
0.530352 -0.41199 -0.478 146 107 76
0.5344 -0.413714 -0.48 144 104 78
-0.0290429 -0.462138 -0.535 180 140 104
-0.00884952 -0.348979 -0.404 185 143 105
0.0175286 -0.353298 -0.409 177 127 100
0.0255667 -0.356753 -0.413 167 117 90
0.0296429 -0.358481 -0.415 162 114 91
0.0412 -0.3628 -0.42 146 105 85
0.0507143 -0.367983 -0.426 129 93 77
0.0672343 -0.383531 -0.444 100 77 69
0.0725895 -0.389578 -0.451 93 72 67
0.08424 -0.404263 -0.468 85 70 63
0.0937667 -0.418948 -0.485 81 63 59
0.0966 -0.423267 -0.49 81 78 95
0.227029 -0.473368 -0.548 171 169 174
0.235809 -0.474231 -0.549 173 172 177
0.25719 -0.475095 -0.55 167 168 170
0.259286 -0.475095 -0.55 163 165 164
0.278103 -0.476823 -0.552 149 149 151
0.279154 -0.476823 -0.552 148 148 150
0.287033 -0.477687 -0.553 140 140 142
0.2923 -0.479414 -0.555 134 133 138
0.303417 -0.480278 -0.556 116 114 119
0.307653 -0.480278 -0.556 106 105 110
0.320533 -0.483733 -0.56 80 79 84
0.332491 -0.487189 -0.564 65 64 69
0.365897 -0.497554 -0.576 60 59 64
0.438466 -0.510511 -0.591 11 10 18
0.501919 -0.470776 -0.545 52 42 43
0.479495 -0.437088 -0.506 131 99 78
0.476877 -0.415492 -0.481 167 124 92
0.482193 -0.413765 -0.479 172 125 95
0.483814 -0.412037 -0.477 172 126 93
0.4982 -0.40599 -0.47 173 124 92
0.499095 -0.40599 -0.47 173 124 92
0.537346 -0.415492 -0.481 142 105 78
-0.0300619 -0.463157 -0.535 184 142 104
-0.00961905 -0.349749 -0.404 188 146 108
0.00347143 -0.350614 -0.405 184 140 105
0.0136 -0.353211 -0.408 174 127 97
0.0379095 -0.362734 -0.419 151 106 83
0.0516467 -0.36966 -0.427 128 92 78
0.0525829 -0.370526 -0.428 126 90 76
0.0535229 -0.371391 -0.429 122 88 76
0.0748019 -0.393034 -0.454 90 71 65
0.0909714 -0.415543 -0.48 81 60 55
0.0952762 -0.422469 -0.488 80 66 63
0.224306 -0.475277 -0.549 170 173 178
0.234143 -0.476143 -0.55 171 175 174
0.25451 -0.477009 -0.551 165 165 167
0.277553 -0.47874 -0.553 138 138 140
0.314133 -0.4848 -0.56 68 67 73
0.474563 -0.423334 -0.489 158 117 89
0.474429 -0.420737 -0.486 157 116 88
0.47695 -0.417274 -0.482 166 125 93
0.482906 -0.412946 -0.477 171 126 95
0.487994 -0.410349 -0.474 167 121 87
0.489531 -0.408617 -0.472 168 122 86
0.521201 -0.409483 -0.473 158 113 80
0.530151 -0.412946 -0.477 152 106 80
0.538971 -0.415543 -0.48 141 104 78
-0.0143419 -0.353121 -0.407 183 144 103
-0.00882762 -0.34965 -0.403 188 146 108
-0.00652476 -0.34965 -0.403 183 139 104
-0.00115429 -0.350518 -0.404 185 141 106
0.00192381 -0.350518 -0.404 183 139 104
0.0058 -0.352253 -0.406 181 137 102
0.00657333 -0.352253 -0.406 180 136 101
0.0120162 -0.353121 -0.407 175 130 99
0.031299 -0.36093 -0.416 158 111 91
0.0337571 -0.361797 -0.417 155 108 88
0.0652476 -0.383488 -0.442 100 77 69
0.220766 -0.475455 -0.548 173 174 178
0.226397 -0.476323 -0.549 168 169 174
0.25346 -0.478058 -0.551 157 152 156
0.274393 -0.479793 -0.553 121 120 125
0.278055 -0.480661 -0.554 116 115 120
0.285413 -0.482396 -0.556 101 100 105
0.295471 -0.484999 -0.559 79 78 84
0.30294 -0.486734 -0.561 69 68 74
0.501111 -0.471117 -0.543 53 50 59
0.480459 -0.439015 -0.506 127 99 78
0.476647 -0.431207 -0.497 143 107 83
0.474563 -0.424266 -0.489 153 114 85
0.476164 -0.419928 -0.484 162 121 91
0.479543 -0.416457 -0.48 168 125 91
0.483707 -0.412987 -0.476 170 125 92
0.497305 -0.407781 -0.47 170 124 90
0.505886 -0.406046 -0.468 163 117 84
0.517203 -0.408649 -0.471 159 114 83
-0.0310229 -0.464326 -0.534 183 144 105
-0.023881 -0.369548 -0.425 183 144 105
-0.0119571 -0.352157 -0.405 191 149 111
-0.00575714 -0.350418 -0.403 184 140 105
0.00115429 -0.351288 -0.404 182 137 104
0.00969048 -0.353896 -0.407 176 133 99
0.0231505 -0.358244 -0.412 167 120 92
0.02478 -0.359113 -0.413 167 120 94
0.0535229 -0.373026 -0.429 120 86 74
0.0592429 -0.378243 -0.435 110 83 74
0.0695467 -0.389547 -0.448 93 73 66
0.195357 -0.47563 -0.547 185 184 189
0.215547 -0.476499 -0.548 178 178 180
0.233519 -0.479108 -0.551 165 163 168
0.272214 -0.482586 -0.555 106 105 110
0.274823 -0.483455 -0.556 101 100 105
0.282189 -0.485194 -0.558 88 86 91
0.284314 -0.485194 -0.558 80 78 83
0.285377 -0.485194 -0.558 79 77 82
0.304024 -0.491281 -0.565 68 65 74
0.306718 -0.49215 -0.566 66 65 73
0.4089 -0.52954 -0.609 11 11 19
0.48326 -0.444327 -0.511 123 91 76
0.48139 -0.441718 -0.508 123 94 76
0.47952 -0.43824 -0.504 132 97 77
0.475569 -0.426936 -0.491 152 112 87
0.475354 -0.422589 -0.486 158 114 87
0.483707 -0.413893 -0.476 168 123 90
0.487866 -0.411285 -0.473 167 123 88
0.492083 -0.409546 -0.471 168 122 88
0.49298 -0.409546 -0.471 166 120 86
0.493724 -0.408676 -0.47 170 124 90
0.501607 -0.407807 -0.469 167 121 87
0.506777 -0.406937 -0.468 163 116 86
0.514113 -0.407807 -0.469 158 111 81
0.516105 -0.408676 -0.47 160 113 83
0.541498 -0.416502 -0.479 135 99 73
-0.0200114 -0.359029 -0.412 182 143 104
-0.00575714 -0.351186 -0.403 184 140 105
0.0321686 -0.363386 -0.417 154 107 87
0.0473571 -0.370357 -0.425 132 93 76
0.0481667 -0.370357 -0.425 131 94 78
0.057321 -0.377329 -0.433 113 85 73
0.0603476 -0.380814 -0.437 107 80 69
0.06854 -0.389529 -0.447 93 74 67
0.0717305 -0.393014 -0.451 90 71 65
0.0761667 -0.398243 -0.457 88 70 66
0.0900571 -0.418286 -0.48 79 66 58
0.0943467 -0.425257 -0.488 77 80 89
0.205109 -0.477543 -0.548 178 178 178
0.212803 -0.478414 -0.549 171 171 173
0.228271 -0.480157 -0.551 161 161 163
0.265291 -0.484514 -0.556 93 92 98
0.268951 -0.485386 -0.557 86 85 91
0.291151 -0.490614 -0.563 67 64 71
0.320357 -0.501071 -0.575 63 62 70
0.408083 -0.534186 -0.613 10 10 18
0.430661 -0.542029 -0.622 10 10 18
0.457084 -0.552486 -0.634 11 12 17
0.462887 -0.5551 -0.637 12 11 19
0.482338 -0.443557 -0.509 123 94 78
0.476632 -0.432229 -0.496 144 108 86
0.479456 -0.417414 -0.479 171 128 96
0.482906 -0.415671 -0.477 167 122 89
0.517 -0.409571 -0.47 159 114 83
0.517895 -0.409571 -0.47 157 112 81
0.540368 -0.416543 -0.478 140 100 75
-0.0225286 -0.362433 -0.415 185 143 105
-0.00729238 -0.351953 -0.403 189 145 108
-0.00038381 -0.351953 -0.403 183 139 104
0.00655714 -0.3537 -0.405 180 135 102
0.0120162 -0.355447 -0.407 173 128 95
0.0167495 -0.357193 -0.409 175 128 98
0.0231505 -0.359813 -0.412 166 119 91
0.031299 -0.363307 -0.416 156 109 89
0.0439114 -0.36942 -0.423 132 95 79
0.0464381 -0.370293 -0.424 130 93 77
0.0673857 -0.388633 -0.445 93 74 68
0.086041 -0.413087 -0.473 83 68 65
0.0975857 -0.4323 -0.495 69 81 107
0.197802 -0.478587 -0.548 177 177 177
0.19989 -0.478587 -0.548 175 175 175
0.200933 -0.478587 -0.548 174 174 174
0.201977 -0.478587 -0.548 172 172 172
0.223024 -0.481207 -0.551 154 154 156
0.233313 -0.482953 -0.553 135 134 140
0.269917 -0.488193 -0.559 66 65 71
0.270982 -0.488193 -0.559 67 66 72
0.283141 -0.490813 -0.562 66 65 71
0.470189 -0.56068 -0.642 11 10 18
0.490624 -0.456753 -0.523 107 84 76
0.475569 -0.428807 -0.491 150 113 87
0.4753 -0.423567 -0.485 155 114 86
0.484613 -0.415707 -0.476 168 123 90
0.490289 -0.41134 -0.471 168 123 90
0.495353 -0.409593 -0.469 170 124 91
0.507473 -0.407847 -0.467 161 116 83
0.5159 -0.409593 -0.469 159 114 83
0.526392 -0.412213 -0.472 153 109 80
-0.0190867 -0.357972 -0.409 185 141 102
-0.0126971 -0.353596 -0.404 186 144 104
0.0191333 -0.358848 -0.41 169 122 92
0.0264171 -0.362349 -0.414 158 112 88
0.031299 -0.364099 -0.416 154 107 87
0.0363133 -0.366725 -0.419 147 104 85
0.0371114 -0.366725 -0.419 146 103 84
0.0439114 -0.370226 -0.423 131 94 78
0.0730724 -0.397358 -0.454 88 71 64
0.07876 -0.40436 -0.462 89 71 67
0.0812171 -0.407861 -0.466 87 69 65
0.1274 -0.47788 -0.546 194 190 204
0.188408 -0.47963 -0.548 169 169 171
0.195714 -0.47963 -0.548 168 167 172
0.23057 -0.484882 -0.554 114 113 119
0.24517 -0.486632 -0.556 83 82 88
0.246229 -0.486632 -0.556 80 79 85
0.247288 -0.486632 -0.556 77 76 82
0.259733 -0.490133 -0.56 68 67 75
0.267084 -0.491884 -0.562 64 63 69
0.28458 -0.49626 -0.567 63 62 70
0.294716 -0.500636 -0.572 60 59 67
0.374832 -0.537396 -0.614 8 8 18
0.3784 -0.539147 -0.616 10 10 20
0.407198 -0.547899 -0.626 11 11 19
0.40839 -0.547899 -0.626 12 12 20
0.410237 -0.548774 -0.627 12 12 20
0.416872 -0.54965 -0.628 7 10 17
0.421657 -0.54965 -0.628 10 11 16
0.424725 -0.550525 -0.629 10 11 16
0.4278 -0.5514 -0.63 10 11 16
0.430883 -0.552275 -0.631 9 10 15
0.435177 -0.553151 -0.632 10 10 18
0.4438 -0.554901 -0.634 10 10 18
0.447623 -0.556651 -0.636 8 11 16
0.457752 -0.560152 -0.64 10 10 18
0.481496 -0.56803 -0.649 10 10 18
0.484233 -0.447247 -0.511 119 92 75
0.476614 -0.433243 -0.495 141 106 84
0.477631 -0.419239 -0.479 164 123 91
0.481997 -0.417489 -0.477 167 122 91
0.483595 -0.415738 -0.475 169 124 91
0.490289 -0.412237 -0.471 167 123 88
0.499646 -0.409611 -0.468 169 123 90
0.509252 -0.408736 -0.467 157 112 81
0.523483 -0.412237 -0.471 154 109 78
0.53021 -0.413988 -0.473 140 103 74
0.531111 -0.413988 -0.473 144 107 78
0.533137 -0.414863 -0.474 140 103 77
0.53404 -0.414863 -0.474 142 105 79
-0.0328714 -0.465763 -0.531 184 142 102
-0.02242 -0.36226 -0.413 186 142 103
-0.00191905 -0.353489 -0.403 183 139 100
0.00192381 -0.354366 -0.404 181 137 100
0.00578571 -0.355243 -0.405 182 138 103
0.0297143 -0.364891 -0.416 156 111 90
0.0346343 -0.366646 -0.418 147 102 81
0.05472 -0.378926 -0.432 115 85 74
0.0889571 -0.420151 -0.479 83 63 54
0.0919191 -0.425414 -0.485 78 63 60
0.14508 -0.47892 -0.546 189 192 197
0.14716 -0.47892 -0.546 189 188 193
0.196071 -0.481551 -0.549 158 156 161
0.221727 -0.48506 -0.553 107 106 114
0.294071 -0.504357 -0.575 61 59 70
0.297292 -0.506111 -0.577 63 62 70
0.302673 -0.50962 -0.581 57 56 64
0.385691 -0.547337 -0.624 10 10 18
0.408047 -0.553477 -0.631 9 9 17
0.411 -0.5526 -0.63 10 10 18
0.417662 -0.553477 -0.631 8 11 18
0.429309 -0.556109 -0.634 10 10 18
0.448517 -0.560494 -0.639 10 10 18
0.453584 -0.562249 -0.641 8 11 18
0.460613 -0.56488 -0.644 8 11 18
0.480485 -0.441203 -0.503 129 98 80
0.475405 -0.427169 -0.487 151 114 88
0.475354 -0.426291 -0.486 152 115 88
0.4753 -0.425414 -0.485 153 116 89
0.476877 -0.421906 -0.481 161 120 90
0.479366 -0.419274 -0.478 168 123 92
0.4828 -0.41752 -0.476 168 125 93
0.484262 -0.414889 -0.473 168 123 90
0.493567 -0.41138 -0.469 171 126 93
0.507274 -0.408749 -0.466 162 115 85
0.509252 -0.409626 -0.467 159 114 83
0.510142 -0.409626 -0.467 160 115 84
-0.325173 -0.47117 -0.536 223 224 218
-0.0214762 -0.36041 -0.41 183 141 101
-0.0189933 -0.357772 -0.407 188 145 103
-0.0142362 -0.355135 -0.404 185 143 101
-0.0134333 -0.354256 -0.403 185 143 101
0.00347143 -0.356014 -0.405 179 135 100
0.00889333 -0.356893 -0.406 178 132 98
0.0518886 -0.377111 -0.429 123 90 75
0.0528286 -0.37799 -0.43 121 88 73
0.0556714 -0.380628 -0.433 110 82 70
0.0585486 -0.383265 -0.436 106 79 68
0.0635638 -0.388539 -0.442 99 77 66
0.0688467 -0.394692 -0.449 97 75 64
0.0720486 -0.398209 -0.453 93 73 64
0.0934171 -0.428975 -0.488 129 113 113
0.126591 -0.480839 -0.547 195 196 198
0.15548 -0.47996 -0.546 183 181 182
0.15756 -0.47996 -0.546 180 178 179
0.177249 -0.482597 -0.549 157 155 160
0.178294 -0.482597 -0.549 157 152 156
0.196429 -0.483476 -0.55 135 133 138
0.203451 -0.485234 -0.552 119 118 124
0.212247 -0.486113 -0.553 101 100 108
0.230109 -0.490509 -0.558 67 66 74
0.240963 -0.493146 -0.561 63 62 70
0.244169 -0.493146 -0.561 64 63 69
0.275711 -0.501936 -0.571 60 60 70
0.290194 -0.506331 -0.576 54 52 63
0.3906 -0.5538 -0.63 7 10 17
0.406364 -0.557316 -0.634 10 10 18
0.412402 -0.557316 -0.634 11 11 19
0.430127 -0.559953 -0.637 9 12 19
0.43134 -0.559953 -0.637 8 11 18
0.443124 -0.56259 -0.64 9 12 19
0.462044 -0.567865 -0.646 9 12 21
0.478554 -0.437766 -0.498 131 98 79
0.476504 -0.431612 -0.491 147 109 88
0.489248 -0.413152 -0.47 166 122 87
0.522153 -0.412273 -0.469 153 109 80
0.529763 -0.414031 -0.471 145 106 77
-0.0181733 -0.357667 -0.406 185 142 100
0.00115429 -0.355905 -0.404 184 140 103
0.00812 -0.357667 -0.406 178 132 98
0.00966667 -0.357667 -0.406 176 130 96
0.0239933 -0.363833 -0.413 158 110 87
0.0337571 -0.367357 -0.417 146 101 82
0.0537724 -0.37969 -0.431 118 86 73
0.0616 -0.387619 -0.44 100 77 69
0.0732333 -0.400833 -0.455 92 72 63
0.13468 -0.481 -0.546 187 191 192
0.13572 -0.481 -0.546 192 193 195
0.14196 -0.481 -0.546 192 190 193
0.148471 -0.481881 -0.547 180 179 177
0.193287 -0.487167 -0.553 86 84 95
0.20841 -0.488048 -0.554 84 81 90
0.211957 -0.488929 -0.555 76 73 82
0.232 -0.493333 -0.56 62 60 71
0.233483 -0.494214 -0.561 62 60 71
0.24075 -0.495976 -0.563 61 60 68
0.25542 -0.4995 -0.567 60 59 67
0.259572 -0.501262 -0.569 59 57 68
0.291607 -0.511833 -0.581 23 23 33
0.304597 -0.518881 -0.589 13 12 20
0.316086 -0.52681 -0.598 13 13 23
0.329549 -0.533857 -0.606 13 13 23
0.358883 -0.552357 -0.627 4 4 12
0.370788 -0.555881 -0.631 6 6 14
0.418089 -0.562929 -0.639 9 12 19
0.452027 -0.567333 -0.644 8 11 18
0.455186 -0.568214 -0.645 8 11 18
0.50318 -0.478357 -0.543 26 26 34
0.483326 -0.447524 -0.508 124 95 77
0.475354 -0.428143 -0.486 148 111 85
0.480987 -0.419333 -0.476 170 125 94
0.4828 -0.419333 -0.476 166 122 93
0.488494 -0.414929 -0.471 168 123 92
0.503026 -0.411405 -0.467 168 121 91
-0.32151 -0.472329 -0.535 223 224 216
-0.0230943 -0.362854 -0.411 183 141 103
-0.0213714 -0.360206 -0.408 184 140 101
-0.0181286 -0.357557 -0.405 184 141 99
-0.00650857 -0.354909 -0.402 186 141 102
0.00192381 -0.356674 -0.404 182 138 101
0.00423238 -0.356674 -0.404 179 133 99
0.00501429 -0.357557 -0.405 178 132 98
0.0255667 -0.36462 -0.413 159 111 89
0.0668371 -0.394637 -0.447 95 75 66
0.069 -0.397286 -0.45 92 72 63
0.0744257 -0.403466 -0.457 89 70 64
0.0756257 -0.405231 -0.459 88 69 63
0.0768333 -0.406997 -0.461 88 69 63
0.0815657 -0.413177 -0.468 87 70 63
0.1199 -0.481157 -0.545 199 199 199
0.13364 -0.48204 -0.546 191 189 194
0.145346 -0.482923 -0.547 174 172 177
0.15605 -0.483806 -0.548 155 153 158
0.1647 -0.484689 -0.549 132 131 137
0.173696 -0.486454 -0.551 111 110 118
0.193636 -0.489103 -0.554 73 70 79
0.245051 -0.501463 -0.568 57 57 67
0.246133 -0.501463 -0.568 57 57 67
0.249818 -0.502346 -0.569 58 58 68
0.278952 -0.512057 -0.58 24 24 36
0.332268 -0.539426 -0.611 11 14 23
0.372514 -0.561497 -0.636 6 6 14
0.397397 -0.564146 -0.639 8 8 16
0.407771 -0.565029 -0.64 8 8 16
0.418176 -0.565911 -0.641 9 12 19
0.419397 -0.565911 -0.641 8 11 18
0.427389 -0.566794 -0.642 6 11 17
0.429834 -0.566794 -0.642 7 12 18
0.432953 -0.567677 -0.643 8 11 16
0.43976 -0.56856 -0.644 8 11 16
0.484277 -0.449374 -0.509 122 95 76
0.496971 -0.413177 -0.468 171 125 92
0.499646 -0.413177 -0.468 166 120 87
0.502136 -0.412294 -0.467 168 121 91
0.507274 -0.411411 -0.466 164 117 87
0.517258 -0.412294 -0.467 155 110 79
0.529533 -0.414943 -0.47 147 106 76
0.530429 -0.414943 -0.47 146 107 76
0.533114 -0.414943 -0.47 142 103 72
0.535146 -0.415826 -0.471 142 103 74
0.534411 -0.413177 -0.468 131 95 71
-0.0181286 -0.358329 -0.405 185 142 100
-0.0173143 -0.357444 -0.404 185 142 100
-0.0134333 -0.356559 -0.403 189 145 106
-0.00191905 -0.356559 -0.403 182 138 101
0.0354305 -0.36983 -0.418 143 102 84
0.0465476 -0.376024 -0.425 129 92 76
0.0529514 -0.381332 -0.431 116 84 71
0.0538971 -0.382217 -0.432 113 85 73
0.0567571 -0.384871 -0.435 108 81 70
0.0648429 -0.393719 -0.445 97 77 68
0.084239 -0.418492 -0.473 84 66 66
0.129717 -0.483965 -0.547 180 178 183
0.131801 -0.483965 -0.547 178 176 181
0.133885 -0.483965 -0.547 175 173 178
0.163952 -0.486619 -0.55 101 100 106
0.179918 -0.490158 -0.554 71 70 78
0.180973 -0.490158 -0.554 71 70 78
0.280243 -0.517586 -0.585 15 15 27
0.308112 -0.529088 -0.598 12 12 22
0.311948 -0.531742 -0.601 10 10 20
0.37178 -0.567132 -0.641 5 8 15
0.375443 -0.567132 -0.641 8 8 16
0.381548 -0.567132 -0.641 6 9 16
0.387048 -0.566248 -0.64 6 9 16
0.409683 -0.568902 -0.643 8 11 18
0.425605 -0.568902 -0.643 7 10 17
0.430504 -0.568902 -0.643 7 10 17
0.433627 -0.569787 -0.644 10 11 16
0.437307 -0.569787 -0.644 9 10 15
0.444129 -0.570671 -0.645 8 9 14
0.450435 -0.572441 -0.647 9 10 15
0.451668 -0.572441 -0.647 9 10 15
0.489837 -0.459191 -0.519 110 87 73
0.475354 -0.429994 -0.486 149 111 90
0.513271 -0.411414 -0.465 160 113 85
0.519701 -0.412299 -0.466 151 108 76
0.530193 -0.414953 -0.469 145 104 74
-0.0264171 -0.36708 -0.414 185 141 106
-0.023819 -0.363533 -0.41 184 140 105
-0.0126343 -0.35644 -0.402 188 144 105
-0.00878381 -0.355553 -0.401 185 140 101
0.00268667 -0.357327 -0.403 182 136 102
0.0136 -0.36176 -0.408 172 127 96
0.0167495 -0.362647 -0.409 169 124 95
0.077 -0.40964 -0.462 89 70 66
0.133086 -0.485893 -0.548 157 156 161
0.152429 -0.487667 -0.55 105 103 114
0.157667 -0.487667 -0.55 89 87 98
0.192533 -0.496533 -0.56 62 62 72
0.19822 -0.49742 -0.561 64 64 76
0.22626 -0.50274 -0.567 63 63 73
0.252231 -0.511607 -0.577 24 24 34
0.274025 -0.519587 -0.586 13 13 25
0.298633 -0.527567 -0.595 10 10 22
0.315697 -0.53732 -0.606 9 12 21
0.317374 -0.538207 -0.607 11 11 21
0.321267 -0.540867 -0.61 11 11 21
0.325182 -0.543527 -0.613 11 11 21
0.339434 -0.551507 -0.622 13 13 21
0.347493 -0.556827 -0.628 13 13 21
0.354436 -0.562147 -0.634 12 12 20
0.377141 -0.572787 -0.646 6 9 16
0.3999 -0.5719 -0.645 9 9 17
0.401129 -0.5719 -0.645 9 9 17
0.404211 -0.572787 -0.646 8 11 18
0.419557 -0.5719 -0.645 8 11 18
0.4343 -0.5719 -0.645 10 11 16
0.450435 -0.573673 -0.647 9 10 15
0.461717 -0.575447 -0.649 9 9 17
0.48334 -0.44954 -0.507 119 93 76
0.47854 -0.440673 -0.497 132 99 82
0.475405 -0.431807 -0.487 147 109 88
0.476224 -0.430033 -0.485 148 110 87
0.48008 -0.422053 -0.476 160 121 90
0.490887 -0.415847 -0.469 168 123 90
0.500357 -0.414073 -0.467 166 119 89
0.501949 -0.413187 -0.466 168 121 91
0.506186 -0.4123 -0.465 165 118 90
0.514157 -0.4123 -0.465 155 112 80
-0.00725619 -0.356317 -0.401 187 141 105
0.0143771 -0.362537 -0.408 171 126 93
0.0223114 -0.365203 -0.411 161 115 89
0.0363133 -0.372311 -0.419 139 101 82
0.0549733 -0.38564 -0.434 111 83 72
0.0559286 -0.386529 -0.435 108 81 72
0.077 -0.41052 -0.462 90 71 67
0.08532 -0.421183 -0.474 83 66 59
0.0880448 -0.425626 -0.479 79 64 61
0.0893286 -0.427403 -0.481 76 61 58
0.138557 -0.487826 -0.549 106 105 113
0.150607 -0.489603 -0.551 80 79 87
0.154034 -0.490491 -0.552 75 74 82
0.15824 -0.490491 -0.552 68 67 75
0.1662 -0.492269 -0.554 65 63 74
0.174527 -0.494934 -0.557 66 64 75
0.179091 -0.495823 -0.558 63 63 71
0.181867 -0.4976 -0.56 62 62 70
0.186466 -0.498489 -0.561 60 63 72
0.210395 -0.502043 -0.565 61 63 75
0.227856 -0.507374 -0.571 50 50 62
0.353229 -0.563354 -0.634 11 11 19
0.371563 -0.574906 -0.647 5 8 15
0.378309 -0.575794 -0.648 5 8 15
0.386351 -0.574906 -0.647 9 9 17
0.424471 -0.573129 -0.645 7 10 17
0.4257 -0.573129 -0.645 7 10 17
0.426929 -0.573129 -0.645 7 10 17
0.437434 -0.574017 -0.646 10 10 18
0.460481 -0.576683 -0.649 9 9 17
0.486156 -0.454949 -0.512 117 91 76
0.477506 -0.438066 -0.493 134 102 81
0.518586 -0.413186 -0.465 148 107 75
0.527043 -0.414963 -0.467 143 104 73
0.532873 -0.41674 -0.469 143 103 67
0.53466 -0.41674 -0.469 138 102 70
-0.321323 -0.474624 -0.533 220 221 215
-0.0141657 -0.357971 -0.402 188 143 104
-0.0110752 -0.357081 -0.401 188 143 104
0.0199143 -0.365095 -0.41 162 116 90
0.0521305 -0.383795 -0.431 117 87 76
0.0715 -0.405167 -0.455 88 68 61
0.0759552 -0.41051 -0.461 90 71 65
0.0895143 -0.42921 -0.482 77 63 60
0.169526 -0.496886 -0.558 64 62 73
0.181123 -0.499557 -0.561 60 60 68
0.232738 -0.512024 -0.575 19 19 29
0.235337 -0.512914 -0.576 18 18 28
0.244283 -0.515586 -0.579 12 14 26
0.253744 -0.519148 -0.583 14 14 26
0.26063 -0.521819 -0.586 14 12 23
0.327304 -0.549424 -0.617 8 11 18
0.373286 -0.57881 -0.65 8 8 16
0.38319 -0.57881 -0.65 6 9 16
0.414055 -0.575248 -0.646 6 11 17
0.415286 -0.575248 -0.646 6 11 17
0.431843 -0.574357 -0.645 10 10 18
0.438665 -0.575248 -0.646 9 9 17
0.446738 -0.576138 -0.647 7 10 15
0.483238 -0.420305 -0.472 165 124 94
0.49591 -0.415852 -0.467 168 123 90
0.515703 -0.413181 -0.464 154 111 79
0.523251 -0.414962 -0.466 145 104 74
-0.0203924 -0.360522 -0.404 182 138 103
-0.0172286 -0.358737 -0.402 185 141 106
-0.00878381 -0.357845 -0.401 185 139 103
0.00577143 -0.360522 -0.404 177 132 99
0.00887143 -0.361414 -0.405 175 130 97
0.0440152 -0.37837 -0.424 127 94 75
0.0782171 -0.414065 -0.464 89 70 66
0.08174 -0.418527 -0.469 83 65 61
0.0869505 -0.426558 -0.478 78 63 60
0.10032 -0.44976 -0.504 87 86 92
0.139567 -0.493487 -0.553 64 62 73
0.14193 -0.494379 -0.554 64 62 73
0.168 -0.499733 -0.56 59 59 67
0.175334 -0.50241 -0.563 60 60 70
0.1938 -0.508657 -0.57 45 45 55
0.202107 -0.510442 -0.572 27 27 39
0.239181 -0.517581 -0.58 14 14 24
0.247081 -0.520258 -0.583 13 16 25
0.25505 -0.522935 -0.586 11 14 23
0.269609 -0.527397 -0.591 11 14 23
0.273448 -0.52829 -0.592 10 13 22
0.285991 -0.532751 -0.597 14 14 22
0.28761 -0.533644 -0.598 13 13 21
0.29821 -0.536321 -0.601 12 12 22
0.311593 -0.541675 -0.607 9 9 17
0.339232 -0.55863 -0.626 11 12 17
0.405463 -0.578263 -0.648 8 11 16
0.415286 -0.576478 -0.646 8 11 18
0.418977 -0.576478 -0.646 8 11 18
0.423243 -0.575586 -0.645 10 10 18
0.44797 -0.57737 -0.647 9 10 15
0.449203 -0.57737 -0.647 7 10 15
0.462953 -0.579155 -0.649 9 10 15
0.478544 -0.42745 -0.479 158 117 89
0.48008 -0.424773 -0.476 162 119 87
0.485667 -0.419419 -0.47 168 123 92
0.49591 -0.416742 -0.467 166 121 88
0.49751 -0.41585 -0.466 165 120 87
0.513051 -0.414065 -0.464 162 116 82
0.514819 -0.414065 -0.464 158 113 80
0.522129 -0.414957 -0.465 148 107 75
0.52769 -0.41585 -0.466 148 109 78
-0.316667 -0.47576 -0.532 224 225 219
-0.313627 -0.47576 -0.532 223 224 218
-0.0269429 -0.366657 -0.41 184 140 105
-0.0195743 -0.360397 -0.403 184 140 103
-0.00343714 -0.358609 -0.401 181 135 99
0.0175286 -0.365763 -0.409 160 116 89
0.0570181 -0.390803 -0.437 103 80 72
0.132193 -0.49454 -0.553 60 58 69
0.150394 -0.499011 -0.558 59 59 71
0.152793 -0.499906 -0.559 58 58 70
0.171652 -0.505271 -0.565 57 57 67
0.187614 -0.510637 -0.571 32 32 44
0.192637 -0.512426 -0.573 22 22 34
0.19844 -0.51332 -0.574 20 20 32
0.21926 -0.516003 -0.577 16 14 25
0.239308 -0.521369 -0.583 14 14 24
0.2457 -0.523157 -0.585 11 11 21
0.257477 -0.526734 -0.589 10 13 22
0.26398 -0.528523 -0.591 11 14 21
0.265106 -0.528523 -0.591 11 14 21
0.268937 -0.529417 -0.592 11 14 21
0.28647 -0.534783 -0.598 11 14 21
0.294776 -0.537466 -0.601 11 14 23
0.305451 -0.540149 -0.604 8 11 18
0.308771 -0.541937 -0.606 7 10 17
0.315457 -0.545514 -0.61 9 9 17
0.363606 -0.577709 -0.646 11 12 17
0.393095 -0.581286 -0.65 8 8 16
0.40176 -0.579497 -0.648 8 9 14
0.411634 -0.579497 -0.648 7 10 15
0.414055 -0.577709 -0.646 9 10 15
0.426929 -0.576814 -0.645 9 10 15
0.4343 -0.576814 -0.645 10 9 15
0.439214 -0.576814 -0.645 9 10 15
0.478474 -0.441777 -0.494 135 100 80
0.47695 -0.431046 -0.482 148 111 85
0.476877 -0.430151 -0.481 150 113 87
0.481559 -0.422997 -0.473 168 124 95
0.488207 -0.41942 -0.469 164 119 88
0.498398 -0.416737 -0.466 164 121 87
0.499286 -0.416737 -0.466 162 119 85
0.501757 -0.415843 -0.465 166 120 86
0.502643 -0.415843 -0.465 166 120 86
0.514591 -0.414054 -0.463 155 110 79
0.524786 -0.415843 -0.465 150 106 77
0.53149 -0.417631 -0.467 144 103 73
-0.0269429 -0.367438 -0.41 184 139 106
-0.0251333 -0.363853 -0.406 185 141 106
-0.0211095 -0.361165 -0.403 187 141 105
-0.0203419 -0.361165 -0.403 186 140 104
-0.0195257 -0.360269 -0.402 186 140 104
-0.0133667 -0.359372 -0.401 186 141 102
-0.000382857 -0.360269 -0.402 179 133 99
0.00345429 -0.361165 -0.403 176 130 97
0.0305067 -0.372815 -0.416 146 103 84
0.0458457 -0.381777 -0.426 124 90 78
0.0610381 -0.396116 -0.442 94 73 68
0.0885962 -0.431964 -0.482 72 62 70
0.0989657 -0.449888 -0.502 64 61 68
0.126626 -0.502763 -0.561 65 63 76
0.126556 -0.498282 -0.556 57 54 65
0.146929 -0.502763 -0.561 54 53 67
0.169318 -0.509036 -0.568 42 45 54
0.176429 -0.510829 -0.57 28 28 38
0.19652 -0.517998 -0.578 15 15 27
0.202374 -0.518894 -0.579 17 17 29
0.217086 -0.51979 -0.58 16 16 28
0.224486 -0.521583 -0.582 15 15 25
0.25256 -0.52696 -0.588 8 11 20
0.261729 -0.529649 -0.591 9 12 21
0.280306 -0.535026 -0.597 8 11 18
0.317657 -0.548469 -0.612 9 9 17
0.33351 -0.55743 -0.622 9 10 15
0.341512 -0.562808 -0.628 10 11 16
0.394963 -0.581628 -0.649 8 9 13
0.399291 -0.580731 -0.648 8 9 14
0.405463 -0.580731 -0.648 6 9 14
0.406697 -0.580731 -0.648 6 9 14
0.429947 -0.577147 -0.644 9 10 15
0.487131 -0.45885 -0.512 114 87 68
0.4862 -0.457057 -0.51 116 89 70
0.479487 -0.445407 -0.497 127 96 76
0.47731 -0.437341 -0.488 143 105 84
0.478363 -0.427483 -0.477 159 118 90
0.488949 -0.419417 -0.468 167 124 92
-0.314049 -0.476889 -0.531 224 225 219
-0.0251333 -0.364627 -0.406 184 139 106
-0.0179495 -0.360136 -0.401 186 141 102
-0.00647619 -0.359238 -0.4 178 132 96
0.00498952 -0.361932 -0.403 176 130 97
0.00808 -0.36283 -0.404 176 130 97
0.0135333 -0.364627 -0.406 171 126 93
0.0223114 -0.369117 -0.411 159 114 91
0.0272057 -0.371811 -0.414 154 109 88
0.0304333 -0.37271 -0.415 148 106 84
0.0449286 -0.38169 -0.425 127 93 81
0.0513095 -0.387079 -0.431 115 87 75
0.0531971 -0.388875 -0.433 113 85 74
0.0541467 -0.389773 -0.434 110 83 72
0.0590857 -0.395162 -0.44 96 76 69
0.0693067 -0.405939 -0.452 90 71 65
