ply
format ascii 1.0
comment Created by Open3D
element vertex 1295
property double x
property double y
property double z
property uchar red
property uchar green
property uchar blue
end_header
0.0401657 -0.305503 -0.426 197 157 131
0.040881 -0.304786 -0.425 198 159 130
0.0456305 -0.304069 -0.424 197 158 127
0.0546429 -0.304786 -0.425 195 151 124
0.0733048 -0.308371 -0.43 178 130 108
0.07776 -0.309806 -0.432 174 126 106
0.221186 -0.419529 -0.585 185 200 231
0.38099 -0.418811 -0.584 169 167 178
0.398789 -0.418811 -0.584 165 167 179
0.436243 -0.419529 -0.585 56 64 83
0.442929 -0.419529 -0.585 155 157 172
0.444043 -0.419529 -0.585 157 154 173
0.474129 -0.419529 -0.585 147 147 159
0.481929 -0.419529 -0.585 91 107 140
0.452023 -0.367177 -0.512 166 119 101
0.453252 -0.365026 -0.509 162 115 97
0.4545 -0.362157 -0.505 169 121 101
0.469074 -0.355703 -0.496 173 125 105
0.470019 -0.355703 -0.496 171 123 103
0.958172 -0.403751 -0.563 205 207 193
0.959245 -0.403751 -0.563 204 206 192
0.968896 -0.403751 -0.563 204 208 193
0.996778 -0.403751 -0.563 204 207 190
1.00464 -0.403034 -0.562 203 205 191
1.00678 -0.403034 -0.562 203 205 191
0.0339114 -0.308471 -0.429 190 154 128
0.040881 -0.305595 -0.425 195 158 129
0.0654733 -0.307033 -0.427 181 135 111
0.0724857 -0.30919 -0.43 176 128 108
0.0733048 -0.30919 -0.43 177 129 109
0.105233 -0.32429 -0.451 105 79 78
0.118619 -0.337952 -0.47 85 71 71
0.12337 -0.343705 -0.478 83 68 73
0.359239 -0.419205 -0.583 123 151 198
0.36146 -0.419205 -0.583 122 144 181
0.428823 -0.419924 -0.584 146 151 170
0.460757 -0.420643 -0.585 137 143 155
0.47443 -0.419924 -0.584 148 148 160
0.454249 -0.373186 -0.519 162 119 100
0.453171 -0.366714 -0.51 164 117 99
0.45758 -0.360243 -0.501 172 124 102
0.563846 -0.401229 -0.558 161 132 118
0.963964 -0.404105 -0.562 203 207 192
0.999289 -0.404105 -0.562 202 206 191
1.0025 -0.404105 -0.562 203 207 190
0.0392619 -0.306405 -0.425 197 158 129
0.0448229 -0.305684 -0.424 196 157 124
0.0471343 -0.304963 -0.423 199 155 128
0.0511629 -0.304963 -0.423 197 153 126
0.0520914 -0.305684 -0.424 196 152 125
0.0724857 -0.31001 -0.43 174 126 106
0.0839067 -0.312893 -0.434 152 106 93
0.0921886 -0.315777 -0.438 135 95 87
0.09534 -0.31794 -0.441 125 86 79
0.103056 -0.323708 -0.449 106 81 76
0.120277 -0.34101 -0.473 84 68 71
0.127548 -0.351104 -0.487 89 70 74
0.218583 -0.421036 -0.584 121 134 168
0.280395 -0.420315 -0.583 128 130 145
0.387001 -0.420315 -0.583 147 152 172
0.388111 -0.420315 -0.583 166 171 191
0.425868 -0.420315 -0.583 135 143 164
0.426978 -0.420315 -0.583 148 156 177
0.434751 -0.420315 -0.583 124 127 144
0.462513 -0.420315 -0.583 86 94 117
0.481105 -0.421036 -0.584 74 90 126
0.486944 -0.420315 -0.583 60 78 114
0.488054 -0.420315 -0.583 64 80 114
0.488326 -0.419594 -0.582 63 79 113
0.463002 -0.38643 -0.536 145 108 99
0.458571 -0.360476 -0.5 170 122 100
0.462429 -0.359034 -0.498 172 124 102
0.959682 -0.405175 -0.562 204 208 191
0.961823 -0.405175 -0.562 203 207 190
0.982162 -0.405175 -0.562 203 205 191
0.990726 -0.405175 -0.562 204 207 190
0.0392619 -0.307214 -0.425 198 157 129
0.081239 -0.312997 -0.433 155 109 94
0.215988 -0.421426 -0.583 155 162 188
0.38412 -0.420703 -0.582 150 157 175
0.390771 -0.420703 -0.582 164 165 183
0.4074 -0.420703 -0.582 155 162 172
0.41516 -0.420703 -0.582 92 108 141
0.420703 -0.420703 -0.582 93 113 150
0.43031 -0.421426 -0.583 149 149 161
0.434751 -0.421426 -0.583 143 145 160
0.441414 -0.421426 -0.583 150 155 175
0.442525 -0.421426 -0.583 124 126 149
0.45474 -0.421426 -0.583 136 148 172
0.460292 -0.421426 -0.583 109 121 147
0.479675 -0.404077 -0.559 138 108 106
0.456424 -0.365043 -0.505 171 125 102
0.476647 -0.35926 -0.497 164 118 95
0.965454 -0.405523 -0.561 204 208 193
0.996443 -0.405523 -0.561 204 206 192
0.0293467 -0.314547 -0.434 198 151 125
0.0447171 -0.306574 -0.423 196 157 124
0.0604514 -0.308749 -0.426 188 143 114
0.0876152 -0.315996 -0.436 146 102 91
0.0987476 -0.322519 -0.445 115 84 79
0.099819 -0.323244 -0.446 113 82 77
0.22265 -0.422536 -0.583 86 115 173
0.38412 -0.421811 -0.582 137 147 172
0.388554 -0.421811 -0.582 154 157 172
0.389663 -0.421811 -0.582 158 161 176
0.418873 -0.421087 -0.581 95 121 156
0.426246 -0.421811 -0.582 142 152 177
0.442525 -0.422536 -0.583 97 107 134
0.450634 -0.421811 -0.582 45 67 108
0.463937 -0.421811 -0.582 145 147 160
0.470287 -0.422536 -0.583 91 92 94
0.4773 -0.402243 -0.555 138 108 100
0.456114 -0.376876 -0.52 163 116 98
0.453789 -0.372528 -0.514 163 118 99
0.458534 -0.363106 -0.501 171 123 100
0.458571 -0.362381 -0.5 165 117 94
0.461456 -0.361656 -0.499 172 124 102
0.477593 -0.360207 -0.497 166 120 97
0.480451 -0.360931 -0.498 163 117 94
0.49294 -0.364555 -0.503 157 112 89
0.962249 -0.406591 -0.561 204 207 190
0.995733 -0.405867 -0.56 202 206 189
1.00853 -0.405867 -0.56 202 205 188
0.035939 -0.308107 -0.424 197 158 127
0.0463286 -0.30738 -0.423 196 158 122
0.0654733 -0.310287 -0.427 186 138 115
0.076759 -0.313193 -0.431 173 125 105
0.0867848 -0.316827 -0.436 148 101 91
0.0989695 -0.324093 -0.446 114 83 78
0.178231 -0.423647 -0.583 212 218 240
0.381247 -0.422193 -0.581 161 164 181
0.434006 -0.42292 -0.582 150 149 163
0.457286 -0.42292 -0.582 91 106 135
0.467263 -0.42292 -0.582 144 146 158
0.480566 -0.42292 -0.582 72 96 132
0.45744 -0.36624 -0.504 171 125 102
0.473798 -0.360427 -0.496 167 119 97
0.479487 -0.361153 -0.497 162 116 93
0.484268 -0.362607 -0.499 158 112 89
0.966933 -0.406933 -0.56 203 207 192
0.9776 -0.406933 -0.56 203 205 191
0.981867 -0.406933 -0.56 205 207 193
0.992533 -0.406933 -0.56 204 206 192
1.01173 -0.406933 -0.56 203 206 189
0.0519686 -0.308186 -0.423 194 150 123
0.0553219 -0.308914 -0.424 192 148 121
0.0847333 -0.3162 -0.434 145 101 90
0.111079 -0.335871 -0.461 96 73 67
0.414447 -0.4233 -0.581 66 89 130
0.432153 -0.4233 -0.581 149 151 164
0.468371 -0.424029 -0.582 105 106 108
0.487487 -0.4233 -0.581 60 76 112
0.469217 -0.394886 -0.542 144 112 101
0.455452 -0.376671 -0.517 157 116 98
0.461456 -0.363557 -0.499 178 127 106
0.4719 -0.360643 -0.495 166 118 96
0.986133 -0.408 -0.56 204 206 192
0.9872 -0.408 -0.56 204 206 192
0.989333 -0.408 -0.56 203 205 191
0.994667 -0.408 -0.56 204 207 190
1 -0.408 -0.56 203 207 190
1.00993 -0.407271 -0.559 203 206 189
0.0561295 -0.309722 -0.424 189 145 118
0.078401 -0.314835 -0.431 162 113 96
0.0876152 -0.318488 -0.436 138 94 83
0.0907267 -0.320679 -0.439 132 94 85
0.103974 -0.330906 -0.453 105 76 70
0.109962 -0.336019 -0.46 94 75 69
0.369543 -0.423676 -0.58 156 157 177
0.376171 -0.423676 -0.58 127 133 159
0.381695 -0.423676 -0.58 141 150 167
0.390533 -0.423676 -0.58 137 139 162
0.413733 -0.423676 -0.58 62 85 127
0.4565 -0.424407 -0.581 80 97 125
0.462033 -0.424407 -0.581 109 123 158
0.464247 -0.424407 -0.581 146 155 162
0.46978 -0.424407 -0.581 146 146 154
0.486648 -0.423676 -0.58 64 80 116
0.456333 -0.378387 -0.518 159 117 105
0.454949 -0.374004 -0.512 168 121 101
0.45749 -0.36743 -0.503 171 124 106
0.468129 -0.361586 -0.495 170 124 100
0.485194 -0.363777 -0.498 156 111 90
0.492889 -0.365969 -0.501 154 112 90
0.975854 -0.408336 -0.559 203 205 191
1.00141 -0.408336 -0.559 202 206 189
1.01099 -0.408336 -0.559 203 206 189
1.01525 -0.408336 -0.559 202 205 188
0.0268667 -0.317853 -0.434 189 152 123
0.0319762 -0.311262 -0.425 194 155 126
0.0397886 -0.309065 -0.422 199 158 128
0.0636971 -0.311994 -0.426 183 137 113
0.0671 -0.312727 -0.427 179 133 110
0.0749429 -0.314924 -0.43 173 125 105
0.09812 -0.326642 -0.446 115 82 77
0.172087 -0.425513 -0.581 85 112 167
0.419257 -0.424781 -0.58 71 103 144
0.424781 -0.424781 -0.58 121 141 176
0.428095 -0.424781 -0.58 101 105 114
0.449414 -0.424049 -0.579 35 53 91
0.45461 -0.424781 -0.58 101 125 151
0.47025 -0.39695 -0.542 148 110 97
0.461993 -0.38743 -0.529 156 114 98
0.461456 -0.365458 -0.499 173 125 105
0.464357 -0.362529 -0.495 170 124 101
0.469065 -0.361796 -0.494 174 128 105
0.474729 -0.362529 -0.495 157 110 90
0.476614 -0.362529 -0.495 159 114 93
0.477557 -0.362529 -0.495 157 112 91
0.491905 -0.36619 -0.5 154 112 90
0.955624 -0.409401 -0.559 205 207 193
0.973725 -0.409401 -0.559 204 206 193
0.97479 -0.409401 -0.559 204 206 193
0.976234 -0.408669 -0.558 204 206 192
0.998214 -0.409401 -0.559 201 205 190
0.0327086 -0.311337 -0.424 196 155 125
0.0373771 -0.309869 -0.422 185 144 114
0.0404962 -0.309134 -0.421 202 161 133
0.0502381 -0.309869 -0.422 192 148 119
0.0561295 -0.311337 -0.424 188 144 117
0.0697029 -0.314274 -0.428 174 126 104
0.0794057 -0.317211 -0.432 157 111 96
0.08308 -0.31868 -0.434 147 103 94
0.0949286 -0.325289 -0.443 119 84 80
0.126209 -0.359066 -0.489 85 69 70
0.1746 -0.427354 -0.582 136 151 192
0.176513 -0.42662 -0.581 203 210 238
0.217086 -0.425886 -0.58 193 206 238
0.417431 -0.425151 -0.579 82 107 148
0.422946 -0.425151 -0.579 74 97 139
0.43141 -0.425886 -0.58 139 139 147
0.438038 -0.425886 -0.58 99 110 130
0.466762 -0.425886 -0.58 148 151 158
0.469543 -0.396514 -0.54 147 111 99
0.469071 -0.363471 -0.495 173 126 106
0.494797 -0.367877 -0.501 154 111 92
0.498689 -0.369346 -0.503 152 111 91
0.966669 -0.409731 -0.558 204 206 193
0.97836 -0.409731 -0.558 204 206 192
0.982611 -0.409731 -0.558 204 206 192
1.00599 -0.409731 -0.558 202 204 190
1.0145 -0.409731 -0.558 204 206 192
1.01769 -0.409731 -0.558 203 205 191
0.0349657 -0.310672 -0.422 182 138 109
0.038181 -0.310672 -0.422 192 148 119
0.0671 -0.314353 -0.427 183 137 113
0.0679133 -0.314353 -0.427 180 134 110
0.0820638 -0.31877 -0.433 149 105 92
0.0849286 -0.320243 -0.435 143 100 93
0.09282 -0.32466 -0.441 123 85 82
0.09834 -0.329077 -0.447 110 79 77
0.102023 -0.332758 -0.452 106 77 79
0.109086 -0.338648 -0.46 94 74 75
0.116427 -0.347482 -0.472 88 69 71
0.121395 -0.354108 -0.481 87 68 70
0.126725 -0.36147 -0.491 85 69 70
0.175407 -0.427727 -0.581 133 151 191
0.412307 -0.425518 -0.578 56 83 128
0.424049 -0.426254 -0.579 100 124 170
0.441694 -0.426254 -0.579 102 118 143
0.443133 -0.425518 -0.578 123 134 152
0.449739 -0.425518 -0.578 77 93 118
0.454929 -0.426254 -0.579 121 132 150
0.472286 -0.42699 -0.58 143 146 163
0.480019 -0.42699 -0.58 81 105 133
0.480471 -0.408586 -0.555 134 109 104
0.457422 -0.38061 -0.517 160 118 102
0.455837 -0.377666 -0.513 164 121 104
0.456232 -0.373985 -0.508 170 123 105
0.457328 -0.372512 -0.506 168 121 103
0.46148 -0.366623 -0.498 175 126 109
0.477557 -0.364414 -0.495 167 122 101
0.4785 -0.364414 -0.495 162 117 96
0.479443 -0.364414 -0.495 160 115 94
0.48706 -0.365887 -0.497 162 117 94
0.94116 -0.410794 -0.558 204 207 190
0.944349 -0.410794 -0.558 205 208 191
0.964543 -0.410794 -0.558 205 207 193
0.96918 -0.410058 -0.557 204 206 193
0.972363 -0.410058 -0.557 204 206 193
0.0244429 -0.321071 -0.435 190 151 122
0.0310933 -0.312952 -0.424 197 156 128
0.0333581 -0.311476 -0.422 198 157 129
0.0341619 -0.311476 -0.422 195 151 124
0.0502381 -0.311476 -0.422 194 150 125
0.0527743 -0.312214 -0.423 191 147 122
0.0569371 -0.312952 -0.424 189 143 119
0.0802286 -0.318857 -0.432 152 109 93
0.08308 -0.320333 -0.434 146 103 94
0.109323 -0.340262 -0.461 94 74 75
0.170391 -0.427357 -0.579 188 207 247
0.223329 -0.427357 -0.579 121 141 176
0.418912 -0.426619 -0.578 66 91 132
0.422215 -0.426619 -0.578 62 84 131
0.423316 -0.426619 -0.578 106 128 175
0.435427 -0.426619 -0.578 123 126 135
0.439489 -0.427357 -0.579 124 133 150
0.447537 -0.426619 -0.578 64 79 100
0.449739 -0.426619 -0.578 74 89 110
0.454143 -0.426619 -0.578 133 139 155
0.460621 -0.386762 -0.524 152 113 98
0.505518 -0.373476 -0.506 151 110 88
0.947961 -0.411119 -0.557 205 208 191
0.976607 -0.411119 -0.557 203 205 191
0.984033 -0.411119 -0.557 204 207 190
0.986155 -0.411119 -0.557 204 206 192
1.01798 -0.411119 -0.557 203 205 191
0.0348829 -0.31154 -0.421 190 148 123
0.0412981 -0.31154 -0.421 199 153 129
0.0469114 -0.31154 -0.421 193 149 122
0.0569371 -0.31376 -0.424 187 141 117
0.0705181 -0.31672 -0.428 172 125 105
0.0974886 -0.33078 -0.447 106 78 77
0.10956 -0.34188 -0.462 92 72 71
0.170391 -0.42846 -0.579 207 222 253
0.394009 -0.42698 -0.577 60 77 107
0.440931 -0.42772 -0.578 131 138 154
0.453042 -0.42772 -0.578 135 142 160
0.454143 -0.42772 -0.578 139 142 157
0.455244 -0.42772 -0.578 140 143 158
0.458547 -0.42772 -0.578 122 126 137
0.470369 -0.42846 -0.579 143 146 163
0.456726 -0.38036 -0.514 160 120 108
0.457266 -0.37518 -0.507 170 123 105
0.470947 -0.36556 -0.494 164 118 95
0.4899 -0.36778 -0.497 156 111 90
0.519414 -0.3811 -0.515 151 110 88
0.940534 -0.41218 -0.557 205 207 193
0.942656 -0.41218 -0.557 203 206 189
0.943717 -0.41218 -0.557 204 207 190
0.956449 -0.41218 -0.557 204 206 192
0.978729 -0.41218 -0.557 204 207 190
0.0671 -0.316793 -0.427 176 130 107
0.09878 -0.333115 -0.449 106 76 74
0.115528 -0.350179 -0.472 86 66 65
0.424782 -0.428079 -0.577 147 150 167
0.435772 -0.428079 -0.577 124 126 139
0.443466 -0.428079 -0.577 141 144 161
0.445664 -0.428079 -0.577 132 138 152
0.459951 -0.428079 -0.577 104 108 117
0.46295 -0.428821 -0.578 58 65 83
0.464051 -0.428821 -0.578 38 45 63
0.481667 -0.428821 -0.578 51 74 115
0.489874 -0.427337 -0.576 122 129 147
0.483264 -0.413241 -0.557 131 103 99
0.464886 -0.39321 -0.53 150 110 98
0.458407 -0.383565 -0.517 152 114 103
0.470932 -0.365759 -0.493 164 118 95
0.480356 -0.366501 -0.494 162 117 94
0.493731 -0.369469 -0.498 154 112 88
0.944141 -0.412499 -0.556 204 206 192
0.961086 -0.412499 -0.556 205 207 193
0.0372886 -0.313144 -0.421 196 155 125
0.0559971 -0.314631 -0.423 186 140 116
0.0880171 -0.325789 -0.438 130 89 83
0.093241 -0.329508 -0.443 118 84 82
0.0953571 -0.330995 -0.445 111 80 77
0.101386 -0.336946 -0.453 103 75 74
0.112766 -0.348103 -0.468 89 68 67
0.425143 -0.428434 -0.576 146 148 161
0.42624 -0.428434 -0.576 143 145 158
0.439406 -0.428434 -0.576 140 146 158
0.444891 -0.428434 -0.576 143 147 158
0.45006 -0.429178 -0.577 133 139 151
0.457705 -0.382318 -0.514 168 121 103
0.457057 -0.379343 -0.51 168 121 103
0.464357 -0.368186 -0.495 175 129 106
0.468124 -0.367442 -0.494 167 121 98
0.468115 -0.366698 -0.493 169 123 99
0.47375 -0.366698 -0.493 164 118 95
0.484157 -0.368186 -0.495 159 117 93
0.489859 -0.36893 -0.496 157 115 91
0.49468 -0.370417 -0.498 153 111 87
0.565223 -0.407608 -0.548 145 119 102
0.942023 -0.413558 -0.556 203 206 189
0.960027 -0.413558 -0.556 204 206 192
0.972043 -0.412814 -0.555 203 205 191
0.997093 -0.413558 -0.556 204 207 190
0.0240495 -0.319166 -0.428 188 151 122
0.0301429 -0.314691 -0.422 197 158 127
0.0485152 -0.313946 -0.421 195 149 123
0.0543857 -0.315437 -0.423 187 143 116
0.0568029 -0.315437 -0.423 185 139 113
0.0679133 -0.31842 -0.427 175 129 106
0.09114 -0.32886 -0.441 121 86 82
0.138627 -0.38628 -0.518 188 189 210
0.42624 -0.429531 -0.576 149 151 164
0.428434 -0.429531 -0.576 142 146 158
0.4416 -0.429531 -0.576 144 147 162
0.45713 -0.379569 -0.509 165 120 101
0.461456 -0.372111 -0.499 172 125 105
0.467183 -0.368383 -0.494 171 123 101
0.48412 -0.368383 -0.494 161 117 92
0.955129 -0.413871 -0.555 205 207 193
0.0324771 -0.314748 -0.421 196 155 125
0.0388 -0.314 -0.42 194 153 123
0.0568029 -0.316243 -0.423 185 139 113
0.0892571 -0.328952 -0.44 121 88 79
0.0913467 -0.330448 -0.442 119 86 79
0.0923971 -0.331195 -0.443 117 84 77
0.103794 -0.340914 -0.456 94 73 72
0.104892 -0.341662 -0.457 92 71 70
0.111874 -0.349886 -0.468 85 71 70
0.12291 -0.36409 -0.487 88 66 69
0.136843 -0.385024 -0.515 147 149 170
0.172001 -0.431376 -0.577 217 215 229
0.1731 -0.431376 -0.577 208 213 233
0.45069 -0.429881 -0.575 138 141 146
0.475611 -0.430629 -0.576 102 125 156
0.481097 -0.430629 -0.576 34 62 109
0.482194 -0.430629 -0.576 35 63 111
0.474379 -0.40521 -0.542 151 113 102
0.458029 -0.381286 -0.51 164 119 100
0.47281 -0.368576 -0.493 164 118 94
0.487929 -0.370071 -0.495 162 116 92
0.489814 -0.370071 -0.495 158 113 90
0.498525 -0.373062 -0.499 152 110 86
0.933986 -0.414929 -0.555 204 207 188
0.935043 -0.414929 -0.555 205 208 189
0.9435 -0.414929 -0.555 205 207 193
0.954071 -0.414929 -0.555 204 206 192
0.983671 -0.414929 -0.555 204 206 192
0.0285352 -0.316299 -0.422 193 152 124
0.0348 -0.3148 -0.42 196 157 126
0.0551914 -0.317049 -0.423 183 137 111
0.0568029 -0.317049 -0.423 185 139 113
0.0661314 -0.319297 -0.426 171 125 101
0.0802286 -0.323794 -0.432 143 101 87
0.0822533 -0.325293 -0.434 138 98 88
0.0947219 -0.334288 -0.446 112 81 76
0.0957857 -0.335037 -0.447 109 80 74
0.101386 -0.339534 -0.453 99 75 73
0.113489 -0.353026 -0.471 84 68 68
0.114871 -0.354525 -0.473 83 69 69
0.137109 -0.386754 -0.516 171 173 196
0.170902 -0.432475 -0.577 216 215 231
0.47232 -0.431726 -0.576 125 132 158
0.480262 -0.430976 -0.575 32 60 107
0.465266 -0.394999 -0.527 140 106 94
0.459489 -0.375511 -0.501 174 127 107
0.484079 -0.369515 -0.493 164 118 94
0.4917 -0.371014 -0.495 159 113 90
0.49558 -0.372513 -0.497 157 112 89
0.0452 -0.3156 -0.42 190 146 119
0.0517229 -0.316351 -0.421 184 138 112
0.0619286 -0.319357 -0.425 182 138 111
0.07758 -0.323866 -0.431 147 104 88
0.105351 -0.344906 -0.459 95 71 71
0.115114 -0.356177 -0.474 83 67 67
0.127327 -0.37346 -0.497 88 73 70
0.459452 -0.432071 -0.575 137 140 149
0.481357 -0.432071 -0.575 26 52 103
0.459486 -0.387737 -0.516 162 117 98
0.46148 -0.374211 -0.498 172 125 105
0.462429 -0.374211 -0.498 169 122 102
0.465301 -0.371206 -0.494 175 127 107
0.489766 -0.371206 -0.494 162 116 93
0.573565 -0.414037 -0.551 196 177 162
0.5767 -0.41554 -0.553 189 182 176
0.937579 -0.416291 -0.554 204 206 192
0.944966 -0.416291 -0.554 203 206 189
0.955518 -0.416291 -0.554 204 207 190
0.0194714 -0.3277 -0.435 196 156 130
0.0292695 -0.317153 -0.421 192 151 123
0.033121 -0.315647 -0.419 192 151 123
0.0452 -0.3164 -0.42 188 144 117
0.0601676 -0.319413 -0.424 182 136 110
0.0669429 -0.32092 -0.426 169 123 100
0.0705181 -0.322427 -0.428 163 114 97
0.0802286 -0.32544 -0.432 141 99 87
0.0905048 -0.332973 -0.442 122 83 76
0.135598 -0.387213 -0.514 161 155 169
0.167024 -0.433167 -0.575 187 199 225
0.171405 -0.433167 -0.575 217 220 239
0.448813 -0.432413 -0.574 130 137 153
0.459747 -0.432413 -0.574 140 143 150
0.465213 -0.432413 -0.574 75 83 102
0.4674 -0.432413 -0.574 66 77 105
0.45885 -0.385707 -0.512 165 120 101
0.460365 -0.378927 -0.503 171 124 104
0.460476 -0.376667 -0.5 172 125 105
0.485018 -0.371393 -0.493 165 117 95
0.574614 -0.415087 -0.551 196 183 177
0.0230171 -0.320221 -0.424 186 149 120
0.0276657 -0.317955 -0.421 190 151 122
0.0323229 -0.316445 -0.419 191 150 120
0.033919 -0.316445 -0.419 193 152 124
0.0347171 -0.316445 -0.419 194 153 125
0.050921 -0.317955 -0.421 180 135 106
0.0617829 -0.320221 -0.424 182 136 112
0.0703533 -0.322487 -0.427 163 114 97
0.0822533 -0.327773 -0.434 131 91 81
0.085319 -0.330039 -0.437 128 91 85
0.105581 -0.34741 -0.46 94 70 68
0.126126 -0.374598 -0.496 91 73 71
0.13208 -0.383661 -0.508 91 80 86
0.171405 -0.434262 -0.575 217 220 239
0.389094 -0.432751 -0.573 176 179 188
0.39346 -0.432751 -0.573 140 146 142
0.395643 -0.432751 -0.573 166 174 177
0.44694 -0.432751 -0.573 90 98 119
0.451306 -0.432751 -0.573 123 129 141
0.46084 -0.433507 -0.574 143 146 153
0.4674 -0.433507 -0.574 48 62 89
0.458927 -0.385927 -0.511 166 121 102
0.459 -0.385171 -0.51 166 121 102
0.460219 -0.38215 -0.506 169 124 105
0.462429 -0.376109 -0.498 169 123 100
0.464357 -0.373843 -0.495 167 120 100
0.468115 -0.372332 -0.493 173 125 105
0.480286 -0.371577 -0.492 165 119 93
0.485018 -0.372332 -0.493 165 119 95
0.499367 -0.375353 -0.497 155 113 89
0.02532 -0.319514 -0.422 192 155 126
0.0268638 -0.318757 -0.421 194 155 124
0.0323229 -0.317243 -0.419 194 153 123
0.0379095 -0.317243 -0.419 196 155 127
0.0466886 -0.317243 -0.419 191 146 117
0.0627381 -0.321786 -0.425 174 126 103
0.0677543 -0.322543 -0.426 167 119 97
0.0785829 -0.327086 -0.432 144 100 87
0.088419 -0.333143 -0.44 120 85 79
0.09922 -0.341471 -0.451 101 76 72
0.448031 -0.433843 -0.573 110 118 141
0.45458 -0.433843 -0.573 115 120 126
0.481613 -0.4346 -0.574 26 45 88
0.485757 -0.420214 -0.555 123 104 97
0.473952 -0.407343 -0.538 128 108 99
0.460557 -0.389929 -0.515 160 117 98
0.460219 -0.383114 -0.506 167 122 103
0.46435 -0.375543 -0.496 170 123 103
0.467183 -0.374029 -0.494 173 125 103
0.470914 -0.372514 -0.492 168 120 97
0.488774 -0.373271 -0.493 162 114 91
0.57776 -0.417943 -0.552 193 188 184
0.0206429 -0.322595 -0.425 194 153 123
0.0354305 -0.317282 -0.418 196 156 121
0.0476 -0.3188 -0.42 186 140 114
0.0576086 -0.321077 -0.423 181 135 109
0.0661314 -0.323354 -0.426 168 120 98
0.0739514 -0.325631 -0.429 151 109 93
0.076759 -0.32715 -0.431 147 105 89
0.0814267 -0.329427 -0.434 130 93 85
0.0896629 -0.335499 -0.442 119 84 82
0.096 -0.340053 -0.448 110 79 76
0.128608 -0.381042 -0.502 94 80 79
0.16564 -0.435693 -0.574 138 154 180
0.167827 -0.435693 -0.574 215 222 241
0.452397 -0.434934 -0.573 108 114 130
0.456763 -0.434934 -0.573 96 96 98
0.458946 -0.434934 -0.573 147 148 152
0.468924 -0.402295 -0.53 136 111 104
0.4599 -0.387873 -0.511 164 121 102
0.459255 -0.384078 -0.506 167 122 103
0.46032 -0.38256 -0.504 169 122 102
0.465301 -0.37497 -0.494 172 124 102
0.474663 -0.373451 -0.492 165 117 95
0.48872 -0.373451 -0.492 164 116 93
0.0198333 -0.323405 -0.425 191 154 125
0.0221571 -0.321883 -0.423 189 150 119
0.0299286 -0.318839 -0.419 193 154 125
0.0338381 -0.318078 -0.418 195 156 125
0.0354305 -0.318078 -0.418 194 155 122
0.0442943 -0.318839 -0.419 186 142 113
0.0476 -0.3196 -0.42 185 139 113
0.0731343 -0.326449 -0.429 151 109 87
0.0814267 -0.330253 -0.434 130 93 84
0.0834629 -0.331775 -0.436 129 92 84
0.114693 -0.362213 -0.476 86 68 68
0.450518 -0.435265 -0.572 103 110 138
0.454876 -0.435265 -0.572 121 125 134
0.458145 -0.435265 -0.572 125 126 128
0.473398 -0.435265 -0.572 34 51 94
0.477756 -0.435265 -0.572 19 42 84
0.489972 -0.434504 -0.571 71 87 110
0.460039 -0.387325 -0.509 167 120 102
0.459255 -0.385042 -0.506 170 122 102
0.501196 -0.377432 -0.496 155 110 91
0.505114 -0.378954 -0.498 157 112 91
0.584074 -0.421568 -0.554 193 192 190
0.0394114 -0.318874 -0.418 191 150 120
0.0426981 -0.319637 -0.419 189 145 116
0.0476 -0.3204 -0.42 185 139 113
0.0713333 -0.326503 -0.428 148 110 89
0.08946 -0.33642 -0.441 118 85 80
0.098579 -0.344811 -0.452 104 76 75
0.137181 -0.396686 -0.52 200 199 217
0.151656 -0.420334 -0.551 171 197 234
0.165351 -0.437117 -0.573 161 179 203
0.166443 -0.437117 -0.573 188 206 230
0.443205 -0.435591 -0.571 111 122 142
0.444292 -0.435591 -0.571 105 113 134
0.446468 -0.435591 -0.571 110 116 138
0.460324 -0.436354 -0.572 151 146 150
0.461413 -0.436354 -0.572 148 143 147
0.463592 -0.436354 -0.572 144 142 153
0.485622 -0.435591 -0.571 68 92 130
0.461397 -0.382191 -0.501 172 127 104
0.462429 -0.379903 -0.498 169 121 101
0.468115 -0.376089 -0.493 170 122 102
0.472789 -0.375326 -0.492 170 122 102
0.474663 -0.375326 -0.492 168 120 100
0.48305 -0.374563 -0.491 168 120 98
0.522998 -0.387531 -0.508 149 111 88
0.577762 -0.419571 -0.55 203 193 183
0.037819 -0.31967 -0.418 192 151 123
0.0525248 -0.321965 -0.421 181 135 109
0.0723171 -0.328083 -0.429 150 108 94
0.0844867 -0.334201 -0.437 128 91 83
0.088419 -0.336495 -0.44 119 86 81
0.0951467 -0.342613 -0.448 110 79 76
0.106499 -0.35485 -0.464 89 68 67
0.107846 -0.356379 -0.466 88 68 69
0.464957 -0.436679 -0.571 91 99 120
0.460943 -0.390029 -0.51 169 120 103
0.462381 -0.382381 -0.5 174 126 106
0.475569 -0.375498 -0.491 171 123 101
0.486791 -0.375498 -0.491 162 116 93
0.501129 -0.378557 -0.495 162 117 94
0.05 -0.322 -0.42 184 138 112
0.0723171 -0.3289 -0.429 149 107 95
0.0741238 -0.329667 -0.43 148 106 94
0.0787648 -0.331967 -0.433 135 95 85
0.0907095 -0.339633 -0.443 118 85 80
0.0964286 -0.345 -0.45 106 77 73
0.10516 -0.3542 -0.462 89 69 70
0.112169 -0.362633 -0.473 86 67 69
0.11871 -0.371833 -0.485 87 68 70
0.447857 -0.437 -0.57 152 154 166
0.4522 -0.437 -0.57 153 156 163
0.461233 -0.387167 -0.505 169 124 101
0.462318 -0.384867 -0.502 171 126 103
0.465295 -0.380267 -0.496 170 122 102
0.466242 -0.378733 -0.494 175 127 107
0.530042 -0.392533 -0.512 146 108 87
0.579857 -0.421667 -0.55 199 189 180
0.0196933 -0.324337 -0.422 195 152 118
0.0651667 -0.326643 -0.425 165 120 101
0.0907095 -0.340477 -0.443 114 83 78
0.104054 -0.354311 -0.461 91 69 71
0.4446 -0.438086 -0.57 145 148 157
0.447857 -0.438086 -0.57 156 159 168
0.448943 -0.438086 -0.57 154 157 166
0.463057 -0.438086 -0.57 78 89 109
0.469831 -0.437317 -0.569 109 124 153
0.483921 -0.437317 -0.569 107 122 145
0.478374 -0.377369 -0.491 168 120 98
0.481133 -0.3766 -0.49 168 120 98
0.503014 -0.380443 -0.495 159 117 93
1.02402 -0.436549 -0.568 105 105 103
1.02691 -0.437317 -0.569 105 105 103
0.0188895 -0.325141 -0.422 193 152 122
0.02514 -0.32283 -0.419 192 151 119
0.0313743 -0.321289 -0.417 197 154 122
0.050921 -0.32437 -0.421 180 134 110
0.0525248 -0.32437 -0.421 177 131 107
0.05936 -0.326682 -0.424 173 127 103
0.0617829 -0.326682 -0.424 171 125 99
0.0687267 -0.328993 -0.427 152 108 97
0.0865457 -0.338239 -0.439 118 84 83
0.109667 -0.362124 -0.47 85 66 68
0.124487 -0.382927 -0.497 86 68 68
0.12816 -0.38832 -0.504 89 77 81
0.450323 -0.438401 -0.569 162 165 172
0.45249 -0.438401 -0.569 161 164 173
0.456826 -0.438401 -0.569 152 155 162
0.470915 -0.438401 -0.569 119 131 157
0.47525 -0.438401 -0.569 63 87 125
0.467711 -0.402959 -0.523 143 107 95
0.46275 -0.394484 -0.512 161 115 100
0.461978 -0.392172 -0.509 167 120 102
0.462281 -0.38755 -0.503 168 122 98
0.467176 -0.379845 -0.493 173 125 105
0.484867 -0.377533 -0.49 164 116 93
0.489597 -0.378304 -0.491 163 117 94
0.516746 -0.386009 -0.501 146 104 80
0.943872 -0.43609 -0.566 189 191 178
1.00386 -0.43686 -0.567 107 109 106
1.01282 -0.438401 -0.569 105 107 104
1.04684 -0.444565 -0.577 101 101 103
0.0321686 -0.322083 -0.417 196 152 123
0.03614 -0.322083 -0.417 191 148 116
0.0418 -0.322855 -0.418 183 137 111
0.0759381 -0.332896 -0.431 137 97 87
0.0992333 -0.351433 -0.455 100 75 71
0.106958 -0.35993 -0.466 90 70 71
0.10854 -0.362247 -0.469 87 69 67
0.114504 -0.36997 -0.479 87 67 69
0.121113 -0.379239 -0.491 89 71 71
0.440876 -0.438712 -0.568 166 167 172
0.444904 -0.439485 -0.569 163 166 171
0.451407 -0.439485 -0.569 160 163 172
0.466842 -0.438712 -0.568 134 141 159
0.46275 -0.395459 -0.512 160 114 99
0.463357 -0.385418 -0.499 167 119 99
0.476504 -0.379239 -0.491 172 124 102
0.567233 -0.416313 -0.539 130 110 99
0.58511 -0.425582 -0.551 191 192 187
0.987238 -0.438712 -0.568 105 106 101
0.01342 -0.33062 -0.427 189 150 121
0.0258762 -0.323651 -0.418 192 152 117
0.0274686 -0.323651 -0.418 194 153 121
0.0393171 -0.322877 -0.417 192 148 119
0.0585524 -0.328297 -0.424 173 127 101
0.0687267 -0.33062 -0.427 151 109 95
0.0826324 -0.337589 -0.436 129 90 83
0.0955714 -0.348429 -0.45 101 73 70
0.124988 -0.386369 -0.499 85 69 69
0.460077 -0.440569 -0.569 74 86 110
0.464412 -0.440569 -0.569 125 129 141
0.466842 -0.439794 -0.568 143 146 161
0.474415 -0.439794 -0.568 81 98 128
0.476579 -0.439794 -0.568 65 84 117
0.46701 -0.402629 -0.52 146 108 97
0.466243 -0.383271 -0.495 171 123 103
0.467186 -0.383271 -0.495 170 122 102
0.469993 -0.381723 -0.493 169 121 99
0.482946 -0.378626 -0.489 170 123 95
0.48574 -0.378626 -0.489 169 122 96
0.513651 -0.385594 -0.498 154 112 88
0.983992 -0.439794 -0.568 102 101 97
1.02309 -0.445989 -0.576 102 102 104
0.0188 -0.326 -0.42 193 152 120
0.0281971 -0.323671 -0.417 195 154 122
0.03614 -0.323671 -0.417 192 147 116
0.0377286 -0.323671 -0.417 193 148 119
0.0492 -0.326 -0.42 180 134 108
0.050921 -0.326776 -0.421 177 131 105
0.05936 -0.329105 -0.424 170 124 100
0.0601676 -0.329105 -0.424 170 125 104
0.0816143 -0.337643 -0.435 130 89 83
0.0836543 -0.339195 -0.437 125 88 80
0.088821 -0.343076 -0.442 116 83 78
0.119689 -0.379557 -0.489 92 66 69
0.46926 -0.4401 -0.567 81 98 124
0.48546 -0.4401 -0.567 136 140 149
0.46306 -0.393529 -0.507 169 122 102
0.463306 -0.388871 -0.501 172 124 102
0.466242 -0.383438 -0.494 172 124 102
0.469993 -0.382662 -0.493 171 125 101
0.476504 -0.38111 -0.491 172 124 101
0.4774 -0.380333 -0.49 172 124 101
0.483 -0.380333 -0.49 168 122 98
0.483877 -0.379557 -0.489 166 120 96
0.486671 -0.379557 -0.489 166 120 96
0.492333 -0.380333 -0.49 161 115 89
0.511589 -0.38499 -0.496 156 111 82
0.584031 -0.426129 -0.549 195 191 182
0.977848 -0.443981 -0.572 112 111 107
0.9766 -0.442429 -0.57 111 110 106
0.0203029 -0.325244 -0.418 191 150 118
0.0305067 -0.323688 -0.416 197 154 122
0.03614 -0.324466 -0.417 192 147 116
0.0369343 -0.324466 -0.417 191 146 115
0.0449848 -0.325244 -0.418 185 139 113
0.0534533 -0.328356 -0.422 168 122 98
0.0705181 -0.333025 -0.428 148 104 93
0.10076 -0.356368 -0.458 95 70 65
0.16203 -0.442736 -0.569 175 194 224
0.462514 -0.441958 -0.568 110 123 142
0.46818 -0.44118 -0.567 112 118 130
0.47034 -0.44118 -0.567 81 94 128
0.47142 -0.44118 -0.567 70 83 117
0.47574 -0.44118 -0.567 88 109 138
0.47898 -0.44118 -0.567 68 85 115
0.464558 -0.399941 -0.514 157 116 96
0.463333 -0.389048 -0.5 167 119 99
0.464286 -0.389048 -0.5 171 123 103
0.467183 -0.384379 -0.494 171 123 103
0.471851 -0.382823 -0.492 169 123 99
0.4774 -0.381267 -0.49 173 125 102
0.505677 -0.383601 -0.493 158 113 84
0.508585 -0.384379 -0.494 157 112 81
0.57558 -0.422506 -0.543 185 171 158
0.988711 -0.450517 -0.579 111 114 105
0.988105 -0.449739 -0.578 112 115 106
1.02441 -0.45363 -0.583 101 101 103
0.03614 -0.32526 -0.417 190 147 115
0.050921 -0.32838 -0.421 174 128 102
0.055061 -0.32916 -0.422 168 122 99
0.05936 -0.33072 -0.424 170 124 101
0.0759381 -0.33618 -0.431 140 97 90
0.0828219 -0.34086 -0.437 123 86 80
0.0867429 -0.3432 -0.44 116 83 78
0.0902714 -0.3471 -0.445 112 79 74
0.09238 -0.34866 -0.447 105 77 73
0.44687 -0.44148 -0.566 168 164 178
0.449027 -0.44148 -0.566 162 166 175
0.4509 -0.44226 -0.567 161 165 174
0.45198 -0.44226 -0.567 163 159 173
0.46062 -0.44226 -0.567 135 143 162
0.46494 -0.44226 -0.567 146 145 150
0.47034 -0.44226 -0.567 71 84 116
0.48137 -0.44148 -0.566 75 91 116
0.48676 -0.44148 -0.566 134 142 145
0.469993 -0.38454 -0.493 173 127 104
0.471851 -0.38376 -0.492 171 125 102
0.4774 -0.3822 -0.49 174 126 103
0.491329 -0.38142 -0.489 166 116 89
0.582946 -0.42666 -0.547 199 191 180
0.0132629 -0.329964 -0.422 190 151 122
0.0171181 -0.326836 -0.418 192 153 122
0.0258143 -0.326054 -0.417 189 145 116
0.0266086 -0.326054 -0.417 185 141 112
0.0305067 -0.325272 -0.416 192 148 119
0.0385229 -0.326054 -0.417 185 141 114
0.0401114 -0.326054 -0.417 184 140 113
0.050921 -0.329182 -0.421 171 125 101
0.055061 -0.329964 -0.422 168 122 99
0.08694 -0.34482 -0.441 117 84 79
0.118757 -0.382351 -0.489 85 67 67
0.120423 -0.384697 -0.492 87 69 69
0.124037 -0.39017 -0.499 90 76 76
0.161745 -0.444122 -0.568 181 198 226
0.45873 -0.442558 -0.566 122 137 158
0.463857 -0.398771 -0.51 162 116 93
0.465274 -0.389389 -0.498 173 125 103
0.466243 -0.387043 -0.495 168 120 98
0.468124 -0.386261 -0.494 173 125 103
0.48574 -0.382351 -0.489 168 121 93
0.497933 -0.383133 -0.49 165 116 84
0.500733 -0.383133 -0.49 161 115 82
0.871783 -0.440994 -0.564 184 184 174
0.0217905 -0.326065 -0.416 195 154 122
0.050921 -0.329984 -0.421 170 124 100
0.0601676 -0.332335 -0.424 163 116 98
0.0636971 -0.333903 -0.426 158 111 95
0.0742962 -0.337822 -0.431 142 97 91
0.0936486 -0.35193 -0.449 95 74 71
0.112444 -0.374661 -0.478 86 70 70
0.12599 -0.394256 -0.503 86 75 81
0.14612 -0.42796 -0.546 173 186 205
0.16254 -0.44442 -0.567 169 188 218
0.454417 -0.443636 -0.566 105 112 138
0.4859 -0.442852 -0.565 137 144 150
0.464326 -0.390337 -0.498 175 127 105
0.465274 -0.390337 -0.498 175 127 105
0.466223 -0.390337 -0.498 175 127 105
0.469054 -0.386418 -0.493 176 128 106
0.472763 -0.38485 -0.491 172 124 101
0.490397 -0.383283 -0.489 166 117 87
0.507463 -0.385634 -0.492 160 115 86
0.031299 -0.326857 -0.416 190 146 117
0.0433924 -0.328429 -0.418 183 139 114
0.0861 -0.3465 -0.441 119 84 80
0.114066 -0.377929 -0.481 86 70 70
0.16038 -0.4455 -0.567 165 193 240
0.230173 -0.444714 -0.566 75 100 157
0.479443 -0.443929 -0.565 87 100 132
0.474194 -0.414857 -0.528 133 104 88
0.468173 -0.407 -0.518 144 109 90
0.46416 -0.396 -0.504 171 123 101
0.468115 -0.387357 -0.493 169 121 99
0.480151 -0.384214 -0.489 173 126 100
0.485676 -0.383429 -0.488 164 117 89
0.49226 -0.384214 -0.489 165 116 86
0.514329 -0.388929 -0.495 157 112 83
0.8721 -0.4455 -0.567 129 128 123
0.010119 -0.334738 -0.425 189 150 119
0.0139333 -0.329225 -0.418 191 152 119
0.0225829 -0.32765 -0.416 196 153 121
0.026481 -0.326862 -0.415 190 146 117
0.0654733 -0.336313 -0.427 152 104 90
0.109697 -0.373331 -0.474 85 69 69
0.124783 -0.395385 -0.502 89 74 79
0.161175 -0.445792 -0.566 141 165 209
0.162253 -0.445792 -0.566 140 164 208
0.460071 -0.445005 -0.565 151 152 156
0.464376 -0.445005 -0.565 158 160 173
0.489337 -0.444217 -0.564 138 139 144
0.484703 -0.42689 -0.542 122 98 88
0.47599 -0.417438 -0.53 134 102 89
0.463973 -0.40011 -0.508 156 113 94
0.46416 -0.39696 -0.504 168 120 100
0.464197 -0.396172 -0.503 168 120 100
0.49776 -0.384358 -0.488 166 117 87
0.859338 -0.445005 -0.565 126 126 116
0.0312238 -0.327652 -0.415 190 146 117
0.0360533 -0.328442 -0.416 188 144 115
0.0534533 -0.333179 -0.422 165 120 99
0.0680724 -0.337916 -0.428 152 106 93
0.0811571 -0.345022 -0.437 124 90 81
0.0894238 -0.351338 -0.445 107 78 74
0.106753 -0.370287 -0.469 84 68 68
0.146923 -0.433449 -0.549 121 145 181
0.160097 -0.44687 -0.566 147 172 229
0.457109 -0.445291 -0.564 164 167 176
0.462224 -0.446081 -0.565 161 165 164
0.477787 -0.420027 -0.532 132 100 89
0.46416 -0.39792 -0.504 163 115 95
0.464197 -0.39713 -0.503 165 117 97
0.473667 -0.386867 -0.49 173 125 102
0.537686 -0.402657 -0.51 143 108 80
0.875629 -0.450029 -0.57 117 117 109
0.878252 -0.450818 -0.571 115 115 107
0.0209476 -0.328443 -0.415 195 152 118
0.0482848 -0.331609 -0.419 172 126 102
0.0517229 -0.333191 -0.421 168 122 99
0.0706829 -0.339523 -0.429 147 101 88
0.0823648 -0.347437 -0.439 122 88 79
0.0990152 -0.362474 -0.458 94 73 68
0.156586 -0.447157 -0.565 79 109 173
0.446647 -0.445574 -0.563 105 128 160
0.478818 -0.445574 -0.563 74 92 132
0.483108 -0.445574 -0.563 90 108 132
0.465287 -0.39334 -0.497 169 123 100
0.475533 -0.3878 -0.49 177 129 106
0.476426 -0.387009 -0.489 178 128 103
0.482888 -0.386217 -0.488 172 122 95
0.58812 -0.43212 -0.546 192 189 180
0.865422 -0.450323 -0.569 113 114 106
0.0100238 -0.333993 -0.421 187 148 117
0.0376381 -0.330027 -0.416 184 139 110
0.0433924 -0.331613 -0.418 177 131 107
0.0441886 -0.331613 -0.418 178 132 108
0.0449848 -0.331613 -0.418 177 131 107
0.0585524 -0.336373 -0.424 161 115 92
0.05936 -0.336373 -0.424 161 115 92
0.0772933 -0.344307 -0.434 130 94 82
0.0875314 -0.35224 -0.444 110 81 77
0.0955562 -0.360173 -0.454 100 75 71
0.108565 -0.375247 -0.473 87 69 69
0.119729 -0.391113 -0.493 80 66 66
0.45737 -0.446647 -0.563 104 110 108
0.465295 -0.393493 -0.496 170 122 100
0.471828 -0.389527 -0.491 176 126 103
0.492017 -0.38556 -0.486 172 122 97
0.580673 -0.429193 -0.541 191 179 163
0.811956 -0.445853 -0.562 120 121 115
0.823731 -0.445853 -0.562 113 113 105
0.8451 -0.44982 -0.567 113 112 108
0.863686 -0.4522 -0.57 108 107 102
0.869551 -0.452993 -0.571 116 117 111
0.0154143 -0.330024 -0.415 190 150 115
0.0216857 -0.329229 -0.414 195 153 115
0.0368457 -0.330819 -0.416 185 140 109
0.0376381 -0.330819 -0.416 185 140 109
0.0458905 -0.333205 -0.419 175 131 104
0.0734752 -0.342748 -0.431 140 96 85
0.0774714 -0.345929 -0.435 128 94 82
0.11016 -0.378533 -0.476 85 69 70
0.451206 -0.446924 -0.562 66 97 144
0.472783 -0.415114 -0.522 132 103 87
0.470892 -0.390462 -0.491 175 127 104
0.47917 -0.388076 -0.488 176 126 101
0.490166 -0.386486 -0.486 166 116 89
0.512978 -0.390462 -0.491 153 108 85
0.517994 -0.392848 -0.494 151 111 85
0.820217 -0.448514 -0.564 117 118 112
0.832034 -0.448514 -0.564 115 114 110
0.845509 -0.451695 -0.568 118 119 113
0.876307 -0.456467 -0.574 125 126 120
0.886817 -0.459648 -0.578 122 121 116
0.00769048 -0.338786 -0.425 187 144 110
0.0201086 -0.330017 -0.414 194 151 116
0.026481 -0.330814 -0.415 190 147 112
0.0433924 -0.333206 -0.418 177 133 104
0.0726543 -0.343569 -0.431 139 97 85
0.0764667 -0.34596 -0.434 129 92 83
0.0774714 -0.346757 -0.435 126 92 82
0.08442 -0.35154 -0.441 114 83 80
0.0887752 -0.355526 -0.446 108 80 77
0.0910829 -0.357917 -0.449 101 76 72
0.112 -0.382629 -0.48 84 70 70
0.447994 -0.447994 -0.562 43 74 128
0.471545 -0.447994 -0.562 80 103 147
0.466243 -0.394586 -0.495 167 122 99
0.474563 -0.389803 -0.489 175 128 102
0.486463 -0.387411 -0.486 171 121 96
0.496646 -0.387411 -0.486 166 119 91
0.805533 -0.447994 -0.562 103 104 98
0.877833 -0.458357 -0.575 125 128 121
0.0208971 -0.330806 -0.414 193 151 113
0.0272057 -0.330806 -0.414 188 145 111
0.0335952 -0.331605 -0.415 182 139 105
0.0603095 -0.339595 -0.425 155 108 88
0.0662867 -0.341193 -0.427 150 104 89
0.0764667 -0.346787 -0.434 125 91 82
0.0825524 -0.351581 -0.44 114 83 78
0.08358 -0.35238 -0.441 113 84 80
0.109024 -0.379548 -0.475 83 69 69
0.449334 -0.448266 -0.561 84 107 141
0.451471 -0.448266 -0.561 154 161 171
0.469404 -0.449065 -0.562 71 93 140
0.472843 -0.448266 -0.561 73 95 142
0.486 -0.431486 -0.54 116 93 85
0.465155 -0.401921 -0.503 163 121 99
0.468103 -0.393131 -0.492 170 128 104
0.47824 -0.389935 -0.488 177 127 102
0.487389 -0.388337 -0.486 171 121 96
0.496548 -0.387538 -0.485 168 118 93
0.506016 -0.389136 -0.487 162 114 91
0.577403 -0.429089 -0.537 152 136 113
0.807326 -0.450663 -0.564 101 101 99
0.861683 -0.457854 -0.573 115 115 113
0.89671 -0.465845 -0.583 114 117 110
0.0153771 -0.331594 -0.414 192 149 115
0.0343857 -0.332395 -0.415 182 139 105
0.0409057 -0.333997 -0.417 178 134 105
0.0569371 -0.339604 -0.424 161 114 94
0.0690486 -0.343609 -0.429 144 101 85
0.0698657 -0.343609 -0.429 141 99 87
0.0718333 -0.34521 -0.431 139 97 85
0.07564 -0.347613 -0.434 124 91 84
0.0900267 -0.358827 -0.448 102 78 76
0.0912857 -0.360429 -0.45 102 78 76
0.127993 -0.409287 -0.511 195 206 234
0.461089 -0.449334 -0.561 169 168 173
0.4878 -0.434116 -0.542 107 88 81
0.46854 -0.410889 -0.513 145 107 88
0.465081 -0.404481 -0.505 153 111 89
0.467186 -0.396471 -0.495 170 126 101
0.4727 -0.391666 -0.489 173 127 103
0.485537 -0.389263 -0.486 171 121 98
0.486463 -0.389263 -0.486 170 120 97
0.810189 -0.453339 -0.566 104 102 103
0.824237 -0.455742 -0.569 125 126 121
0.841971 -0.456543 -0.57 122 121 116
0.850373 -0.458145 -0.572 118 119 114
0.852951 -0.458946 -0.573 115 116 111
0.856226 -0.458946 -0.573 96 97 92
0.863187 -0.459747 -0.574 83 83 81
0.00570952 -0.437557 -0.545 194 144 117
0.0076181 -0.338003 -0.421 188 149 116
0.0114895 -0.333989 -0.416 191 148 114
0.0138333 -0.333186 -0.415 192 149 115
0.0145886 -0.332383 -0.414 190 147 113
0.0279943 -0.332383 -0.414 184 139 106
0.0476 -0.3372 -0.42 169 123 99
0.050921 -0.338003 -0.421 168 122 98
0.0815286 -0.352454 -0.439 115 86 80
0.106537 -0.378949 -0.472 83 68 71
0.107891 -0.380554 -0.474 82 67 70
0.467687 -0.41026 -0.511 146 105 87
0.466002 -0.406246 -0.506 151 110 88
0.47824 -0.391794 -0.488 173 126 100
0.494602 -0.388583 -0.484 170 120 97
0.505786 -0.389386 -0.485 157 110 82
0.818818 -0.456826 -0.569 72 72 70
0.8246 -0.457629 -0.57 120 121 116
0.846015 -0.459234 -0.572 124 123 118
0.863187 -0.46084 -0.574 103 105 102
0.00467143 -0.438595 -0.545 191 146 117
0.00605714 -0.341219 -0.424 189 148 118
0.0295714 -0.333171 -0.414 182 139 107
0.0335952 -0.333976 -0.415 184 139 108
0.0425962 -0.33639 -0.418 171 127 100
0.0881229 -0.359729 -0.447 107 79 75
0.107891 -0.381457 -0.474 80 68 72
0.12287 -0.40399 -0.502 83 74 77
0.447467 -0.450667 -0.56 99 130 177
0.457067 -0.450667 -0.56 170 170 172
0.487029 -0.434571 -0.54 106 90 77
0.466243 -0.398357 -0.495 168 124 99
0.485537 -0.391114 -0.486 171 121 96
0.491836 -0.389505 -0.484 171 121 96
0.514614 -0.393529 -0.489 149 110 79
0.58366 -0.433767 -0.539 189 191 180
0.825314 -0.460324 -0.572 101 101 99
0.826404 -0.460324 -0.572 122 122 120
0.846403 -0.461129 -0.573 107 108 102
0.866881 -0.462738 -0.575 105 107 102
0.869071 -0.462738 -0.575 130 132 127
0.873874 -0.463543 -0.576 103 106 99
0.890313 -0.467567 -0.581 100 103 96
0.0672571 -0.345253 -0.428 147 101 86
0.0728229 -0.34848 -0.432 136 97 82
0.0974829 -0.37026 -0.459 84 68 68
0.12506 -0.40898 -0.507 175 175 199
0.14092 -0.437213 -0.542 176 197 224
0.15334 -0.45254 -0.561 110 139 183
0.45838 -0.450927 -0.559 168 167 183
0.465238 -0.403333 -0.5 159 118 96
0.46624 -0.400107 -0.496 164 122 97
0.508557 -0.391233 -0.485 153 112 84
0.51251 -0.392847 -0.487 151 112 83
0.520583 -0.39688 -0.492 144 107 78
0.831123 -0.46222 -0.573 119 118 114
0.833306 -0.46222 -0.573 123 124 119
0.855223 -0.46464 -0.576 103 105 100
0.892268 -0.470287 -0.583 91 94 87
0.00990476 -0.336366 -0.416 192 149 115
0.0130114 -0.334749 -0.414 191 148 114
0.0216333 -0.33394 -0.413 192 149 117
0.02478 -0.33394 -0.413 190 147 115
0.0335952 -0.335557 -0.415 182 138 109
0.0433924 -0.337983 -0.418 171 124 98
0.0476 -0.3396 -0.42 171 123 100
0.0543857 -0.342026 -0.423 164 118 94
0.0561295 -0.342834 -0.424 163 117 94
0.0586905 -0.343643 -0.425 160 114 91
0.0710124 -0.348494 -0.431 136 97 82
0.0738162 -0.350111 -0.433 131 93 80
0.0829276 -0.357389 -0.442 118 83 79
0.0893724 -0.363049 -0.449 101 77 75
0.0927571 -0.366283 -0.453 94 76 74
0.101414 -0.375986 -0.465 86 70 70
0.1162 -0.3962 -0.49 73 63 62
0.455186 -0.451991 -0.559 149 157 180
0.463704 -0.451991 -0.559 63 87 125
0.487153 -0.43582 -0.539 107 86 81
0.47659 -0.423691 -0.524 125 98 79
0.466242 -0.399434 -0.494 167 123 96
0.469022 -0.397009 -0.491 168 124 97
0.474563 -0.395391 -0.489 168 121 95
0.476381 -0.394583 -0.488 176 126 101
0.47917 -0.394583 -0.488 179 129 104
0.484538 -0.392157 -0.485 172 122 97
0.49082 -0.39054 -0.483 174 124 99
0.49542 -0.39054 -0.483 170 123 97
0.507509 -0.391349 -0.484 152 111 83
0.826013 -0.46412 -0.574 23 22 20
0.867698 -0.466546 -0.577 110 112 109
0.878689 -0.466546 -0.577 30 32 27
0.00286 -0.347694 -0.429 191 146 113
0.0231505 -0.333916 -0.412 191 146 115
0.0425962 -0.338779 -0.418 171 124 98
0.0458905 -0.33959 -0.419 172 125 99
0.0492 -0.3404 -0.42 166 118 95
0.0543857 -0.342831 -0.423 165 119 96
0.061119 -0.344452 -0.425 156 109 89
0.0758143 -0.352557 -0.435 122 88 78
0.0778276 -0.354178 -0.437 121 87 78
0.0916914 -0.366335 -0.452 95 75 74
0.104295 -0.380924 -0.47 86 70 70
0.113167 -0.393081 -0.485 82 68 67
0.153067 -0.453867 -0.56 123 147 183
0.465 -0.452246 -0.558 34 68 116
0.469251 -0.452246 -0.558 27 57 111
0.475629 -0.452246 -0.558 30 63 116
0.486369 -0.435226 -0.537 110 88 77
0.471348 -0.417395 -0.515 132 101 83
0.47824 -0.395512 -0.488 175 125 100
0.482826 -0.394702 -0.487 169 122 96
0.484611 -0.393891 -0.486 170 123 97
0.488149 -0.39227 -0.484 177 127 102
0.49266 -0.39146 -0.483 170 123 97
0.503575 -0.39065 -0.482 157 116 88
0.532742 -0.404428 -0.499 140 106 81
0.585651 -0.436036 -0.538 195 188 172
0.830331 -0.467645 -0.577 24 23 19
0.83148 -0.465213 -0.574 118 117 113
0.84132 -0.465213 -0.574 103 104 99
0.858906 -0.467645 -0.577 107 112 105
0.875808 -0.468455 -0.578 102 103 98
0.900626 -0.47575 -0.587 97 103 93
0.00752762 -0.33795 -0.416 184 144 108
0.0122229 -0.336326 -0.414 188 144 109
0.0207962 -0.334701 -0.412 192 148 113
0.0493171 -0.342012 -0.421 167 119 96
0.050119 -0.342012 -0.421 167 119 96
0.0738162 -0.351761 -0.433 130 92 81
0.100312 -0.376945 -0.464 88 70 68
0.105862 -0.384256 -0.473 84 68 68
0.452246 -0.453309 -0.558 61 84 134
0.480229 -0.428937 -0.528 117 89 75
0.472263 -0.419189 -0.516 129 100 84
0.468103 -0.399691 -0.492 168 121 95
0.470867 -0.398067 -0.49 166 119 93
0.47731 -0.396442 -0.488 169 119 94
0.484538 -0.394005 -0.485 170 123 97
0.48898 -0.39238 -0.483 169 122 96
0.498866 -0.390755 -0.481 167 120 94
0.835853 -0.466307 -0.574 127 126 124
0.858192 -0.469556 -0.578 98 101 94
0.00673524 -0.338743 -0.416 186 146 111
0.0177 -0.3363 -0.413 189 145 110
0.0351762 -0.337929 -0.415 181 134 106
0.0425962 -0.340371 -0.418 171 124 98
0.0433924 -0.340371 -0.418 171 124 98
0.0664419 -0.348514 -0.428 142 99 83
0.0738162 -0.352586 -0.433 130 92 81
0.096819 -0.374571 -0.46 90 70 71
0.0979076 -0.375386 -0.461 90 70 71
0.0992143 -0.377014 -0.463 89 69 70
0.10185 -0.380271 -0.467 89 71 71
0.153858 -0.455186 -0.559 131 154 185
0.473592 -0.397371 -0.488 169 122 96
0.484611 -0.395743 -0.486 171 121 96
0.51516 -0.395743 -0.486 152 111 89
0.586609 -0.437271 -0.537 173 167 155
0.865581 -0.472286 -0.58 108 111 104
0.875524 -0.472286 -0.58 125 127 122
0.882152 -0.472286 -0.58 105 107 102
0.887411 -0.473914 -0.582 75 78 71
0.88852 -0.473914 -0.582 96 95 90
0.0200114 -0.33627 -0.412 189 145 110
0.0287133 -0.337087 -0.413 184 141 106
0.0359667 -0.338719 -0.415 181 134 106
0.0526495 -0.344432 -0.422 164 116 94
0.0638467 -0.348513 -0.427 147 101 86
0.06466 -0.348513 -0.427 147 101 86
0.11063 -0.393404 -0.482 86 67 69
0.449313 -0.454618 -0.557 90 120 158
0.477673 -0.426868 -0.523 123 93 82
0.489804 -0.393404 -0.482 171 121 98
0.496117 -0.392588 -0.481 168 121 95
0.498743 -0.391771 -0.48 165 118 90
0.579043 -0.433397 -0.531 155 145 133
0.838766 -0.470126 -0.576 126 123 118
0.85599 -0.471758 -0.578 67 70 63
0.891573 -0.476655 -0.584 103 105 100
0.0223114 -0.336237 -0.411 187 144 110
0.0262895 -0.337055 -0.412 186 141 108
0.0749857 -0.355871 -0.435 122 86 72
0.07902 -0.359144 -0.439 119 86 77
0.0831152 -0.362416 -0.443 112 79 74
0.107666 -0.390231 -0.477 84 68 71
0.120958 -0.410684 -0.502 87 85 96
0.15252 -0.456497 -0.558 150 174 200
0.468124 -0.404139 -0.494 162 122 97
0.483614 -0.396776 -0.485 170 123 97
0.486305 -0.395958 -0.484 176 126 99
0.493257 -0.392686 -0.48 175 125 100
0.498743 -0.392686 -0.48 166 119 89
0.500571 -0.392686 -0.48 162 117 86
0.843154 -0.471223 -0.576 106 111 105
0.88045 -0.477768 -0.584 110 112 109
0.00904667 -0.33866 -0.413 191 148 113
0.01298 -0.33866 -0.413 192 149 115
0.02466 -0.33702 -0.411 185 140 109
0.0270743 -0.33784 -0.412 186 141 110
0.0384305 -0.34112 -0.416 173 126 100
0.0417 -0.34194 -0.417 173 126 100
0.0493171 -0.34522 -0.421 168 118 95
0.0534533 -0.34604 -0.422 161 113 91
0.07902 -0.35998 -0.439 115 85 74
0.0899695 -0.37064 -0.452 94 73 70
0.115737 -0.40344 -0.492 82 71 79
0.119285 -0.40918 -0.499 74 72 83
0.461215 -0.45592 -0.556 104 120 145
0.48875 -0.45592 -0.556 138 146 149
0.488414 -0.44034 -0.537 110 84 83
0.475997 -0.42558 -0.519 129 97 84
0.467185 -0.40672 -0.496 152 115 89
0.469933 -0.4018 -0.49 167 126 98
0.4727 -0.40098 -0.489 163 122 94
0.474477 -0.39934 -0.487 172 126 100
0.479983 -0.39852 -0.486 171 126 97
0.481834 -0.39852 -0.486 172 127 98
0.506057 -0.3936 -0.48 159 114 83
0.849014 -0.47314 -0.577 107 109 104
0.87416 -0.48216 -0.588 104 106 101
0.0051381 -0.34109 -0.415 190 145 112
0.0105943 -0.338625 -0.412 190 147 113
0.0129486 -0.338625 -0.412 192 149 115
0.0168314 -0.337803 -0.411 190 147 113
0.0302867 -0.339447 -0.413 186 139 109
0.0359667 -0.34109 -0.415 176 129 99
0.05358 -0.347666 -0.423 159 113 90
0.0648114 -0.351775 -0.428 143 100 81
0.0812438 -0.363282 -0.442 112 83 75
0.467159 -0.41013 -0.499 155 114 94
0.46813 -0.407665 -0.496 154 117 91
0.469933 -0.402733 -0.49 166 121 98
0.474477 -0.400268 -0.487 171 123 100
0.479057 -0.399446 -0.486 170 123 97
0.481834 -0.399446 -0.486 175 128 102
0.496 -0.394514 -0.48 171 124 94
0.589519 -0.439719 -0.535 69 63 63
0.848284 -0.475061 -0.578 113 115 110
0.881234 -0.486568 -0.592 114 116 111
0.00668667 -0.340233 -0.413 191 148 114
0.00902476 -0.33941 -0.412 191 148 116
0.0441886 -0.344352 -0.418 169 121 98
0.050119 -0.346824 -0.421 163 115 92
0.0912324 -0.37401 -0.454 89 69 71
0.123614 -0.419319 -0.509 220 220 230
0.446643 -0.457214 -0.555 154 171 178
0.460156 -0.458038 -0.556 152 169 176
0.469857 -0.416848 -0.506 140 103 85
0.470837 -0.402843 -0.489 166 122 95
0.473592 -0.402019 -0.488 169 123 97
0.480909 -0.400371 -0.486 174 127 101
0.498616 -0.394605 -0.479 165 118 90
0.499529 -0.394605 -0.479 166 119 91
0.518719 -0.399548 -0.485 155 114 84
0.523787 -0.402019 -0.488 147 106 76
0.542511 -0.412729 -0.501 142 105 79
0.00433714 -0.341846 -0.414 183 140 106
0.0302867 -0.34102 -0.413 181 136 103
0.0343029 -0.341846 -0.414 178 132 99
0.0424943 -0.344323 -0.417 166 118 95
0.05358 -0.349277 -0.423 159 113 90
0.06578 -0.354231 -0.429 138 97 79
0.07316 -0.35836 -0.434 126 88 79
0.0761629 -0.360837 -0.437 117 82 76
0.0781838 -0.362489 -0.439 116 83 78
0.0878571 -0.371571 -0.45 95 74 71
0.102723 -0.388911 -0.471 87 69 69
0.112937 -0.402949 -0.488 83 67 67
0.4477 -0.458271 -0.555 163 177 188
0.452743 -0.459097 -0.556 175 180 186
0.464392 -0.459097 -0.556 97 108 128
0.471593 -0.459923 -0.557 101 111 136
