ply
format ascii 1.0
comment Created by Open3D
element vertex 1264
property double x
property double y
property double z
property uchar red
property uchar green
property uchar blue
end_header
0.468799 -0.371887 -0.613 126 138 154
0.483598 -0.372493 -0.614 147 143 144
0.496714 -0.370067 -0.61 30 58 95
0.474488 -0.347013 -0.572 132 101 98
0.448352 -0.319107 -0.526 176 121 100
0.568551 -0.356113 -0.587 155 133 120
-0.03212 -0.266554 -0.438 198 157 127
-0.00378 -0.26838 -0.441 176 131 112
0.00382286 -0.271423 -0.446 153 111 99
0.00992286 -0.275683 -0.453 144 102 90
0.0380705 -0.307937 -0.506 101 81 83
0.04524 -0.317674 -0.522 107 88 90
0.0559457 -0.334106 -0.549 207 207 231
0.0592 -0.3408 -0.56 244 243 255
0.0608048 -0.343843 -0.565 242 241 255
0.342137 -0.372446 -0.612 175 181 203
0.372446 -0.372446 -0.612 67 97 157
0.380606 -0.372446 -0.612 74 101 156
0.441223 -0.372446 -0.612 13 47 110
0.45829 -0.373054 -0.613 155 150 154
0.466464 -0.373054 -0.613 145 144 160
0.492514 -0.372446 -0.612 72 90 130
0.45212 -0.324977 -0.534 170 114 91
0.473426 -0.312197 -0.513 163 108 87
-0.0304514 -0.267389 -0.438 197 156 126
-0.02628 -0.267389 -0.438 202 158 129
-0.0163057 -0.267999 -0.439 197 151 125
-0.00961619 -0.267999 -0.439 187 143 118
0.0191248 -0.285092 -0.467 114 89 85
0.0281762 -0.296081 -0.485 103 83 84
0.365451 -0.373611 -0.612 73 87 116
0.367783 -0.373611 -0.612 66 87 130
0.380606 -0.373611 -0.612 55 86 143
0.409749 -0.373611 -0.612 124 136 162
0.410914 -0.373611 -0.612 127 139 165
0.433063 -0.373611 -0.612 34 66 123
0.472697 -0.373611 -0.612 157 159 174
0.490183 -0.373611 -0.612 71 81 117
0.496365 -0.373001 -0.611 107 129 168
0.454768 -0.313785 -0.514 180 124 99
0.456726 -0.313785 -0.514 181 123 99
0.497446 -0.32111 -0.526 152 107 86
-0.0329543 -0.268223 -0.438 200 159 129
-0.012961 -0.268835 -0.439 190 144 120
-0.000421905 -0.271285 -0.443 164 121 102
0.0504429 -0.327624 -0.535 125 121 144
0.338087 -0.374165 -0.611 181 184 199
0.343906 -0.374165 -0.611 120 126 150
0.347397 -0.374165 -0.611 161 168 194
0.406751 -0.374165 -0.611 124 131 157
0.45214 -0.374165 -0.611 124 134 161
0.480071 -0.374165 -0.611 168 162 172
0.483563 -0.374165 -0.611 162 164 177
0.48776 -0.36008 -0.588 138 104 95
0.455507 -0.329461 -0.538 154 108 93
0.449544 -0.316601 -0.517 182 126 101
0.465609 -0.314151 -0.513 179 125 99
0.471528 -0.313539 -0.512 169 115 91
-0.0404429 -0.274586 -0.447 202 158 131
-0.0355381 -0.269671 -0.439 201 158 126
-0.032879 -0.268443 -0.437 200 157 125
-0.0237771 -0.269057 -0.438 200 156 127
-0.00710762 -0.269671 -0.439 177 135 110
-0.00210476 -0.271514 -0.442 166 124 102
0.00126857 -0.272743 -0.444 159 118 100
0.00468286 -0.274586 -0.447 148 109 94
0.0478619 -0.324957 -0.529 102 91 105
0.346233 -0.375329 -0.611 137 147 174
0.353216 -0.375329 -0.611 186 187 205
0.379984 -0.375329 -0.611 46 80 141
0.389294 -0.375329 -0.611 155 161 183
0.423045 -0.375329 -0.611 157 163 185
0.426536 -0.375329 -0.611 79 93 128
0.459123 -0.375329 -0.611 164 164 172
0.470761 -0.375329 -0.611 161 164 173
0.473089 -0.375329 -0.611 161 165 174
0.475416 -0.375329 -0.611 160 164 173
0.474415 -0.348914 -0.568 140 106 97
0.449642 -0.321886 -0.524 176 120 97
0.460723 -0.315129 -0.513 182 126 101
0.476357 -0.315129 -0.513 165 117 94
0.479244 -0.315743 -0.514 163 115 92
-0.0402619 -0.274205 -0.445 203 159 132
-0.0320467 -0.269275 -0.437 198 157 127
-0.00627143 -0.270508 -0.439 174 133 105
-0.00294 -0.27174 -0.441 169 124 101
0.000421905 -0.272972 -0.443 162 119 102
0.0201429 -0.28961 -0.47 111 86 81
0.346233 -0.376492 -0.611 137 147 174
0.374714 -0.375876 -0.61 37 66 126
0.433971 -0.375876 -0.61 51 84 137
0.437457 -0.375876 -0.61 74 110 162
0.439781 -0.375876 -0.61 52 83 137
0.44559 -0.375876 -0.61 135 156 201
0.4758 -0.375876 -0.61 162 164 177
0.4959 -0.37526 -0.609 85 100 139
0.49706 -0.37526 -0.609 73 88 127
0.464701 -0.31549 -0.512 183 127 104
0.465676 -0.31549 -0.512 185 129 106
-0.0319733 -0.26949 -0.436 199 156 122
-0.0287171 -0.270108 -0.437 198 153 120
0.0108333 -0.281233 -0.455 135 97 84
0.0325943 -0.306575 -0.496 102 82 83
0.34799 -0.377038 -0.61 147 155 178
0.373552 -0.377038 -0.61 42 71 131
0.381686 -0.377038 -0.61 39 71 122
0.388657 -0.377038 -0.61 169 170 191
0.406086 -0.377038 -0.61 154 161 177
0.41238 -0.37642 -0.609 171 173 186
0.41354 -0.37642 -0.609 162 164 177
0.458371 -0.377038 -0.61 112 114 129
0.46999 -0.377038 -0.61 155 157 169
0.48161 -0.377038 -0.61 113 112 120
0.490905 -0.377038 -0.61 154 162 183
0.493229 -0.377038 -0.61 162 164 179
0.49774 -0.375184 -0.607 82 101 144
0.463571 -0.339952 -0.55 146 109 101
0.453789 -0.317701 -0.514 184 128 105
0.459746 -0.317083 -0.513 186 128 104
0.483119 -0.318319 -0.515 163 116 96
0.504313 -0.326972 -0.529 153 110 93
-0.301 -0.37324 -0.602 239 242 231
-0.0353762 -0.27094 -0.437 198 157 127
-0.0294819 -0.27032 -0.436 201 157 122
-0.0212257 -0.27094 -0.437 195 150 117
-0.00794381 -0.27218 -0.439 180 136 111
0.3625 -0.37758 -0.609 146 152 168
0.39962 -0.37758 -0.609 174 176 189
0.42746 -0.37758 -0.609 160 164 191
0.44602 -0.37758 -0.609 155 167 193
0.4611 -0.37758 -0.609 163 162 180
0.47502 -0.37758 -0.609 165 164 180
0.47618 -0.37758 -0.609 166 165 181
0.458407 -0.33418 -0.539 144 110 101
0.45448 -0.32984 -0.532 157 113 100
0.451729 -0.3193 -0.515 181 127 101
0.456814 -0.31806 -0.513 179 125 99
0.464767 -0.31682 -0.511 189 133 108
0.46574 -0.31682 -0.511 188 134 108
0.486023 -0.31992 -0.516 160 113 93
-0.0203933 -0.271772 -0.437 194 149 116
-0.00794381 -0.273016 -0.439 179 134 111
0.00468286 -0.277991 -0.447 145 105 95
0.0108571 -0.283589 -0.456 136 98 89
0.0294 -0.304733 -0.49 103 83 84
0.038221 -0.315928 -0.508 100 84 85
0.0430029 -0.322769 -0.519 102 84 84
0.0522314 -0.337694 -0.543 157 162 194
0.368853 -0.378118 -0.608 84 109 166
0.37642 -0.37874 -0.609 47 79 140
0.38222 -0.37874 -0.609 128 156 195
0.393173 -0.378118 -0.608 171 173 185
0.4147 -0.37874 -0.609 160 163 170
0.4256 -0.378118 -0.608 165 166 187
0.48314 -0.37874 -0.609 70 70 94
0.49474 -0.37874 -0.609 116 126 153
0.4608 -0.318415 -0.512 192 136 109
-0.02616 -0.271981 -0.436 196 153 121
-0.0187286 -0.272605 -0.437 195 150 121
-0.00126286 -0.275724 -0.442 161 118 99
-0.000421905 -0.276348 -0.443 157 115 99
0.00555905 -0.28009 -0.449 141 103 92
0.339901 -0.379276 -0.608 136 140 149
0.379276 -0.379276 -0.608 131 162 208
0.386225 -0.379276 -0.608 103 116 148
0.389699 -0.379276 -0.608 166 164 185
0.394331 -0.379276 -0.608 171 173 186
0.403596 -0.379276 -0.608 170 174 186
0.410545 -0.379276 -0.608 176 177 195
0.430681 -0.378652 -0.607 80 102 143
0.43415 -0.378652 -0.607 87 118 165
0.4553 -0.3799 -0.609 75 78 109
0.461501 -0.379276 -0.608 158 159 177
0.450413 -0.323133 -0.518 179 125 99
0.457874 -0.31939 -0.512 184 130 104
0.4745 -0.318767 -0.511 175 123 99
0.477379 -0.31939 -0.512 170 120 97
0.478354 -0.31939 -0.512 169 117 96
0.51411 -0.333738 -0.535 151 113 92
-0.295429 -0.375429 -0.6 239 241 230
-0.0303124 -0.272811 -0.436 202 158 129
-0.015399 -0.273437 -0.437 192 147 114
-0.0137343 -0.273437 -0.437 190 145 112
-0.00627143 -0.274689 -0.439 171 126 105
0.0418524 -0.323494 -0.517 99 89 90
0.348008 -0.380434 -0.608 187 189 204
0.371715 -0.379809 -0.607 84 116 173
0.390857 -0.380434 -0.608 145 155 180
0.392015 -0.380434 -0.608 168 171 188
0.394839 -0.379809 -0.607 134 134 146
0.411703 -0.380434 -0.608 176 175 191
0.426056 -0.379809 -0.607 167 167 179
0.454552 -0.380434 -0.608 113 115 140
0.471924 -0.380434 -0.608 149 159 186
0.485821 -0.380434 -0.608 136 136 144
0.46926 -0.34602 -0.553 144 111 104
0.4745 -0.31974 -0.511 176 124 102
0.49959 -0.327249 -0.523 148 112 90
-0.301143 -0.376571 -0.6 239 241 230
-0.298857 -0.376571 -0.6 239 241 230
-0.295429 -0.376571 -0.6 241 243 232
0.0108571 -0.286194 -0.456 129 96 87
0.0211724 -0.296864 -0.473 100 84 84
0.0231686 -0.299374 -0.477 101 81 82
0.339342 -0.380965 -0.607 159 159 169
0.34281 -0.380965 -0.607 185 184 198
0.394189 -0.380337 -0.606 117 119 132
0.397151 -0.380965 -0.607 175 179 190
0.408713 -0.380965 -0.607 172 176 188
0.44036 -0.380337 -0.606 87 105 151
0.445711 -0.380965 -0.607 155 169 198
0.454961 -0.380965 -0.607 152 153 174
0.470766 -0.381592 -0.608 140 149 180
0.482347 -0.381592 -0.608 154 160 192
0.456507 -0.333893 -0.532 165 116 112
0.45271 -0.323224 -0.515 182 128 104
0.45486 -0.321969 -0.513 181 131 106
0.507383 -0.331383 -0.528 152 106 90
-0.0294143 -0.273843 -0.435 200 157 125
-0.024499 -0.274472 -0.436 198 153 122
-0.0228381 -0.274472 -0.436 196 152 123
-0.0178552 -0.274472 -0.436 193 146 120
-0.0161943 -0.274472 -0.436 189 144 115
0.00996667 -0.286433 -0.455 130 97 90
0.0163857 -0.292729 -0.465 112 88 86
0.0283505 -0.307208 -0.488 102 84 84
0.364177 -0.381491 -0.606 168 176 199
0.405245 -0.382121 -0.607 136 139 156
0.422588 -0.382121 -0.607 170 176 192
0.425354 -0.381491 -0.606 168 170 185
0.453805 -0.382121 -0.607 164 167 184
0.489647 -0.382121 -0.607 160 162 174
0.493115 -0.382121 -0.607 122 121 139
0.496584 -0.382121 -0.607 84 105 150
0.458223 -0.336166 -0.534 165 116 111
0.457874 -0.322316 -0.512 184 132 108
0.469686 -0.321057 -0.51 181 127 103
0.470657 -0.321057 -0.51 180 128 106
-0.31091 -0.378226 -0.599 239 241 228
-0.308628 -0.378226 -0.599 240 242 229
-0.0453476 -0.280986 -0.445 200 159 129
-0.0430638 -0.277197 -0.439 202 161 131
-0.0244429 -0.274671 -0.435 198 153 122
-0.0178552 -0.275303 -0.436 195 147 124
0.01452 -0.29172 -0.462 118 90 87
0.339937 -0.382646 -0.606 190 190 200
0.376874 -0.382646 -0.606 93 112 152
0.389571 -0.382646 -0.606 66 80 109
0.421891 -0.382646 -0.606 148 152 164
0.428817 -0.382646 -0.606 118 136 176
0.443823 -0.382646 -0.606 115 134 166
0.451903 -0.382646 -0.606 167 170 179
0.475772 -0.383277 -0.607 72 98 149
0.483866 -0.383277 -0.607 162 168 182
0.486178 -0.383277 -0.607 158 161 168
0.498074 -0.382646 -0.606 92 115 159
0.499557 -0.382014 -0.605 100 122 163
0.453589 -0.325817 -0.516 180 125 104
0.457874 -0.323291 -0.512 183 129 105
0.4599 -0.32266 -0.511 182 128 104
0.459971 -0.322029 -0.51 184 130 106
0.461914 -0.322029 -0.51 188 134 110
0.48034 -0.32266 -0.511 168 120 98
0.482287 -0.32266 -0.511 166 118 96
-0.291027 -0.378733 -0.598 240 242 231
-0.0450419 -0.279933 -0.442 201 162 131
-0.03844 -0.274867 -0.434 200 159 127
-0.0277571 -0.2755 -0.435 199 156 124
-0.0269286 -0.2755 -0.435 198 155 123
-0.0153638 -0.276133 -0.436 189 144 113
-0.0145333 -0.276133 -0.436 187 142 111
-0.00957238 -0.276767 -0.437 178 132 108
-0.00792571 -0.2774 -0.438 176 130 107
-0.00709143 -0.2774 -0.438 173 127 104
0.00298 -0.2831 -0.447 144 104 94
0.00555905 -0.284367 -0.449 139 102 94
0.00819714 -0.2869 -0.453 131 98 91
0.0348314 -0.3173 -0.501 96 85 83
0.378557 -0.383167 -0.605 132 146 173
0.389571 -0.3838 -0.606 85 95 120
0.393538 -0.383167 -0.605 165 171 193
0.402269 -0.3838 -0.606 122 128 152
0.409671 -0.383167 -0.605 142 149 175
0.444977 -0.3838 -0.606 139 158 190
0.446131 -0.3838 -0.606 166 168 181
0.45652 -0.3838 -0.606 132 137 159
0.469217 -0.3838 -0.606 76 99 153
0.48076 -0.3838 -0.606 142 155 190
0.455747 -0.325533 -0.514 181 126 106
0.459971 -0.323 -0.51 183 128 107
0.487106 -0.3249 -0.513 158 111 91
0.575657 -0.369867 -0.584 170 167 162
-0.305323 -0.379237 -0.597 238 240 227
-0.03844 -0.275693 -0.434 199 158 128
-0.0310714 -0.276329 -0.435 200 159 129
-0.0236143 -0.276329 -0.435 196 152 123
-0.0170248 -0.276964 -0.436 191 146 115
-0.00294 -0.28014 -0.441 164 119 98
0.000422857 -0.282046 -0.444 147 108 91
0.03266 -0.315713 -0.497 102 84 84
0.0337419 -0.316984 -0.499 102 84 84
0.036 -0.32016 -0.504 101 83 83
0.335919 -0.384319 -0.605 169 172 181
0.340529 -0.384319 -0.605 168 169 189
0.378557 -0.384319 -0.605 137 152 181
0.382014 -0.384319 -0.605 173 181 200
0.383167 -0.384319 -0.605 177 182 201
0.388929 -0.384319 -0.605 111 116 135
0.392386 -0.384319 -0.605 100 111 139
0.406214 -0.384319 -0.605 155 166 196
0.408994 -0.383684 -0.604 129 144 177
0.419349 -0.383684 -0.604 175 178 195
0.42165 -0.383684 -0.604 157 159 171
0.487686 -0.384954 -0.606 150 149 157
0.454671 -0.327148 -0.515 180 125 105
0.463857 -0.323971 -0.51 181 126 105
0.484233 -0.324607 -0.511 157 112 93
-0.320642 -0.381011 -0.598 238 240 229
-0.308734 -0.380374 -0.597 237 239 226
-0.0418429 -0.277157 -0.435 202 161 131
-0.0400933 -0.27652 -0.434 200 159 129
-0.0112114 -0.277794 -0.436 177 131 105
-0.000421905 -0.282254 -0.443 149 110 93
0.0091 -0.2899 -0.455 126 95 90
0.0136105 -0.293723 -0.461 117 89 86
0.0252476 -0.307103 -0.482 102 82 81
0.0432514 -0.332589 -0.522 106 91 86
0.0528086 -0.349791 -0.549 200 197 214
0.390587 -0.384834 -0.604 113 125 149
0.426694 -0.384197 -0.603 103 123 160
0.435455 -0.384834 -0.604 103 126 168
0.455013 -0.384834 -0.604 169 174 193
0.463833 -0.385471 -0.605 29 59 109
0.477662 -0.385471 -0.605 100 129 185
0.497252 -0.385471 -0.605 67 94 141
0.498405 -0.385471 -0.605 64 91 138
0.481595 -0.359986 -0.565 147 115 104
0.454249 -0.330677 -0.519 174 126 104
0.456726 -0.327491 -0.514 178 122 105
0.456899 -0.326217 -0.512 177 125 103
0.482314 -0.324943 -0.51 160 113 93
-0.307082 -0.380872 -0.596 238 240 227
-0.30027 -0.380872 -0.596 238 240 227
-0.0325781 -0.276708 -0.433 202 159 125
-0.0161571 -0.277986 -0.435 187 144 112
-0.0153286 -0.277986 -0.435 185 141 112
-0.00709143 -0.279903 -0.438 171 124 104
0.0163857 -0.297157 -0.465 112 88 86
0.0472086 -0.340612 -0.533 122 110 122
0.0485857 -0.343169 -0.537 152 149 168
0.0513857 -0.348281 -0.545 172 177 196
0.0529048 -0.351476 -0.55 187 192 211
0.0543448 -0.354032 -0.554 204 212 235
0.404871 -0.385346 -0.603 133 152 195
0.412911 -0.385346 -0.603 87 107 140
0.41406 -0.385346 -0.603 120 140 173
0.433154 -0.385985 -0.604 100 124 168
0.438907 -0.385985 -0.604 100 122 169
0.456164 -0.385985 -0.604 170 175 197
0.466138 -0.386624 -0.605 39 70 127
0.475357 -0.386624 -0.605 63 97 160
0.479967 -0.386624 -0.605 160 169 198
0.484576 -0.386624 -0.605 161 163 178
0.465909 -0.324636 -0.508 184 130 106
0.475585 -0.324636 -0.508 173 123 100
0.499723 -0.331666 -0.519 153 112 92
-0.320106 -0.382649 -0.597 237 239 226
-0.310488 -0.382008 -0.596 237 239 225
-0.0426714 -0.278814 -0.435 201 162 131
-0.0383514 -0.277532 -0.433 199 159 124
-0.0375267 -0.277532 -0.433 199 159 124
-0.0350524 -0.277532 -0.433 201 158 124
-0.0342276 -0.277532 -0.433 200 157 123
0.0395743 -0.328809 -0.513 102 86 87
0.0459333 -0.339705 -0.53 105 94 110
0.461916 -0.387135 -0.604 65 92 135
0.501978 -0.385212 -0.601 71 101 153
0.471952 -0.352524 -0.55 155 111 98
0.503633 -0.333936 -0.521 148 110 89
-0.359906 -0.383786 -0.597 235 236 228
-0.309967 -0.3825 -0.595 237 239 226
-0.293459 -0.383143 -0.596 239 241 230
-0.0366171 -0.277714 -0.432 198 158 123
0.00298 -0.287357 -0.447 139 105 95
0.0232171 -0.307286 -0.478 102 81 80
0.0395743 -0.329786 -0.513 104 85 87
0.0446695 -0.338786 -0.527 107 92 95
0.42484 -0.387 -0.602 118 118 126
0.433586 -0.387643 -0.603 66 98 155
0.44622 -0.387643 -0.603 172 179 195
0.458465 -0.388286 -0.604 151 164 199
0.478023 -0.388286 -0.604 145 155 190
0.484123 -0.387643 -0.603 157 162 184
0.490678 -0.388286 -0.604 130 141 171
0.488651 -0.367714 -0.572 149 117 102
0.467152 -0.348429 -0.542 153 116 100
0.456753 -0.336214 -0.523 166 123 104
0.456114 -0.334286 -0.52 170 123 103
0.456633 -0.331071 -0.515 178 128 105
0.460943 -0.327857 -0.51 176 124 102
0.462948 -0.327214 -0.509 179 127 105
0.470786 -0.325929 -0.507 184 130 104
0.505594 -0.335571 -0.522 152 111 91
-0.3621 -0.383633 -0.595 234 236 225
-0.32184 -0.384278 -0.596 236 238 227
-0.315633 -0.383633 -0.595 238 240 227
-0.308833 -0.383633 -0.595 238 240 227
-0.296367 -0.383633 -0.595 238 240 229
-0.0442267 -0.279827 -0.434 202 163 130
-0.0194267 -0.279827 -0.434 193 150 116
-0.0177733 -0.279827 -0.434 192 149 117
0.00127429 -0.287564 -0.446 143 105 92
0.00212857 -0.288209 -0.447 142 104 91
0.04602 -0.342369 -0.531 110 103 121
0.0486762 -0.346882 -0.538 137 143 177
0.054541 -0.358488 -0.556 120 142 191
0.39044 -0.388147 -0.602 123 139 173
0.392733 -0.388147 -0.602 66 93 140
0.395027 -0.388147 -0.602 53 84 138
0.44204 -0.388147 -0.602 86 113 166
0.451963 -0.388791 -0.603 176 177 198
0.501978 -0.387502 -0.601 31 67 127
0.461573 -0.343013 -0.532 153 114 97
-0.303789 -0.38412 -0.594 237 239 226
-0.291833 -0.384767 -0.595 239 241 230
-0.0390857 -0.27936 -0.432 199 158 126
-0.0169467 -0.280653 -0.434 189 145 116
-0.0136714 -0.2813 -0.435 177 133 106
-0.0112114 -0.281947 -0.436 174 130 105
0.0091 -0.294233 -0.455 128 93 87
0.0472971 -0.34532 -0.534 119 116 137
0.0501629 -0.35114 -0.543 130 138 175
0.434013 -0.389293 -0.602 49 87 149
0.440893 -0.389293 -0.602 84 113 169
0.456947 -0.389293 -0.602 150 164 203
0.478511 -0.32786 -0.507 168 121 103
-0.31284 -0.385251 -0.594 238 240 229
-0.29763 -0.384603 -0.593 237 239 228
-0.285686 -0.385251 -0.594 239 241 230
-0.274371 -0.385251 -0.594 239 240 232
-0.0692314 -0.383306 -0.591 197 158 127
-0.0432 -0.280183 -0.432 201 163 127
-0.0399086 -0.280183 -0.432 202 162 127
-0.0349714 -0.280183 -0.432 198 157 125
-0.0193819 -0.280831 -0.433 194 151 119
0.00042381 -0.288614 -0.445 146 104 88
0.00821524 -0.294451 -0.454 127 94 87
0.0252476 -0.312611 -0.482 101 81 82
0.0384467 -0.33142 -0.511 105 86 88
0.04602 -0.344391 -0.531 106 104 126
0.441306 -0.389791 -0.601 75 105 165
0.456947 -0.39044 -0.602 104 124 174
0.476633 -0.35866 -0.553 149 113 97
0.45732 -0.33596 -0.518 173 127 104
0.457791 -0.332717 -0.513 179 128 107
0.488143 -0.330771 -0.51 159 114 93
-0.307795 -0.385732 -0.593 236 238 227
-0.305536 -0.385732 -0.593 237 239 228
-0.29537 -0.385732 -0.593 239 241 230
-0.288593 -0.385732 -0.593 239 241 230
-0.0702381 -0.383781 -0.59 198 160 124
-0.0468143 -0.282957 -0.435 203 164 131
-0.00955048 -0.283608 -0.436 173 128 107
-0.00874 -0.284258 -0.437 171 126 107
-0.00460952 -0.28621 -0.44 156 113 97
-0.00126571 -0.288161 -0.443 148 106 92
0.399429 -0.390286 -0.6 20 61 125
0.472214 -0.390936 -0.601 29 59 119
0.487096 -0.390936 -0.601 139 147 170
0.467647 -0.350607 -0.539 151 115 99
0.457984 -0.338898 -0.521 166 124 102
0.459 -0.331743 -0.51 176 125 104
0.464026 -0.329791 -0.507 179 129 106
0.481409 -0.329791 -0.507 168 121 101
0.500766 -0.335646 -0.516 155 113 91
-0.360883 -0.386862 -0.593 234 235 227
-0.359753 -0.386862 -0.593 234 236 225
-0.350177 -0.387514 -0.594 234 236 225
-0.327549 -0.387514 -0.594 236 237 229
-0.325286 -0.387514 -0.594 235 236 228
-0.30051 -0.38621 -0.592 237 239 226
-0.296 -0.38621 -0.592 238 240 229
-0.294241 -0.386862 -0.593 238 240 229
-0.291982 -0.386862 -0.593 237 239 228
-0.27165 -0.386862 -0.593 240 241 233
-0.268262 -0.386862 -0.593 240 242 231
-0.070119 -0.384252 -0.589 199 159 124
-0.0414581 -0.281176 -0.431 200 161 128
-0.0317533 -0.282481 -0.433 195 152 120
-0.0185571 -0.282481 -0.433 192 149 117
-0.00790762 -0.28509 -0.437 166 120 104
0.00212857 -0.291614 -0.447 139 101 90
0.0273086 -0.317057 -0.486 101 83 81
0.0315857 -0.322929 -0.495 98 82 82
0.0421762 -0.33989 -0.521 102 83 85
0.427287 -0.390776 -0.599 67 99 158
0.439429 -0.391429 -0.6 54 88 151
0.469925 -0.392081 -0.601 23 53 117
0.474504 -0.392081 -0.601 80 106 163
0.480228 -0.392081 -0.601 116 120 147
0.496571 -0.391429 -0.6 40 72 129
0.491057 -0.332714 -0.51 160 115 92
-0.322479 -0.387991 -0.593 236 238 227
-0.32022 -0.387991 -0.593 236 238 227
-0.292617 -0.387337 -0.592 237 239 228
-0.257661 -0.387337 -0.592 241 242 236
-0.256533 -0.387337 -0.592 240 241 235
-0.22947 -0.387337 -0.592 240 241 235
-0.0389952 -0.281997 -0.431 201 160 128
-0.0381743 -0.281997 -0.431 199 158 126
-0.0357114 -0.281997 -0.431 198 158 123
-0.0177733 -0.28396 -0.434 190 147 115
-0.000422857 -0.290503 -0.444 146 104 90
0.0100324 -0.299663 -0.458 118 89 83
0.0327257 -0.325834 -0.498 98 83 80
0.448571 -0.392571 -0.6 143 147 158
0.451247 -0.391917 -0.599 95 106 126
0.454286 -0.392571 -0.6 94 111 155
0.480228 -0.393226 -0.601 130 134 145
0.493143 -0.392571 -0.6 47 86 145
0.50175 -0.391263 -0.598 43 78 136
0.472852 -0.356586 -0.545 153 115 106
0.458684 -0.336303 -0.514 178 130 107
0.459971 -0.333686 -0.51 181 133 111
0.503706 -0.338266 -0.517 151 110 88
-0.354636 -0.388465 -0.592 233 234 226
-0.352976 -0.389121 -0.593 234 235 227
-0.32135 -0.389121 -0.593 235 236 228
-0.300003 -0.387809 -0.591 236 238 227
-0.294872 -0.388465 -0.592 237 238 230
-0.290362 -0.388465 -0.592 237 238 230
-0.288107 -0.388465 -0.592 237 239 228
-0.273448 -0.388465 -0.592 240 242 231
-0.0333257 -0.283474 -0.432 196 156 121
-0.00210952 -0.290692 -0.443 147 105 91
0.00127714 -0.293317 -0.447 140 102 91
0.00559619 -0.296598 -0.452 130 93 84
0.0361429 -0.332032 -0.506 99 84 81
0.462656 -0.393058 -0.599 25 59 120
0.466857 -0.393714 -0.6 25 57 116
0.461009 -0.334001 -0.509 163 113 90
0.461129 -0.332689 -0.507 171 121 98
0.481433 -0.331376 -0.505 167 119 96
0.489131 -0.333345 -0.508 162 117 94
0.527357 -0.351062 -0.535 149 111 88
-0.317425 -0.389592 -0.592 237 239 226
-0.294374 -0.388934 -0.591 237 238 230
-0.28762 -0.388934 -0.591 238 240 229
-0.245969 -0.388934 -0.591 239 240 234
-0.0482486 -0.284955 -0.433 197 162 130
-0.0429 -0.282323 -0.429 199 160 127
-0.0300343 -0.284297 -0.432 198 155 123
-0.0268048 -0.284955 -0.433 195 152 120
-0.0202067 -0.284955 -0.433 189 146 114
-0.0177733 -0.285613 -0.434 187 144 112
0.00647143 -0.298117 -0.453 126 92 83
0.436825 -0.393541 -0.598 55 93 158
0.441381 -0.393541 -0.598 89 129 190
0.452771 -0.393541 -0.598 159 163 175
0.476348 -0.394199 -0.599 121 125 137
0.488898 -0.394199 -0.599 111 117 133
0.4599 -0.336287 -0.511 178 127 106
-0.351253 -0.39072 -0.592 232 233 225
-0.339977 -0.39072 -0.592 234 236 225
-0.33885 -0.39072 -0.592 235 237 226
-0.330956 -0.39072 -0.592 235 237 226
-0.318014 -0.39006 -0.591 235 237 226
-0.309009 -0.39006 -0.591 235 237 226
-0.280866 -0.39006 -0.591 238 240 229
-0.053219 -0.2904 -0.44 196 157 124
-0.0284543 -0.28578 -0.433 197 154 122
-0.0276295 -0.28578 -0.433 196 153 121
-0.00126857 -0.29304 -0.444 143 104 89
0.02946 -0.32406 -0.491 103 82 77
0.430409 -0.39402 -0.597 31 73 147
0.457328 -0.39468 -0.598 97 113 146
0.475207 -0.39534 -0.599 101 121 156
0.495226 -0.39402 -0.597 84 117 160
0.494963 -0.37818 -0.573 148 118 107
0.464009 -0.34914 -0.529 160 118 102
0.459293 -0.34188 -0.518 173 126 106
0.459576 -0.3399 -0.515 176 128 108
0.470852 -0.3333 -0.505 167 116 95
0.483357 -0.3333 -0.505 168 117 98
-0.349534 -0.391186 -0.591 232 233 225
-0.318014 -0.391186 -0.591 235 237 226
-0.306238 -0.390524 -0.59 236 238 227
-0.28039 -0.390524 -0.59 237 239 228
-0.279267 -0.390524 -0.59 237 239 228
-0.0332486 -0.285281 -0.431 197 156 124
-0.0193819 -0.286605 -0.433 188 145 113
-0.0185571 -0.286605 -0.433 186 145 113
-0.00790762 -0.289252 -0.437 160 117 100
0.0253 -0.3197 -0.483 104 83 80
0.0411048 -0.34419 -0.52 101 87 87
0.0476514 -0.356105 -0.538 170 174 199
0.0536743 -0.369343 -0.558 231 234 251
0.392883 -0.395157 -0.597 75 106 153
0.454289 -0.395157 -0.597 146 148 161
0.473274 -0.395819 -0.598 64 87 121
0.491499 -0.395819 -0.598 59 87 134
0.497802 -0.394495 -0.596 85 112 155
0.470852 -0.334262 -0.505 162 111 90
0.508627 -0.342867 -0.518 160 115 92
-0.346695 -0.391648 -0.59 232 233 225
-0.297248 -0.391648 -0.59 235 236 228
-0.287769 -0.390984 -0.589 235 236 228
-0.272524 -0.391648 -0.59 239 241 230
-0.269152 -0.391648 -0.59 238 240 229
-0.0332486 -0.286102 -0.431 198 157 125
-0.0267429 -0.286766 -0.432 193 150 118
0.000424762 -0.296059 -0.446 139 99 87
0.00916 -0.304025 -0.458 121 87 78
0.0223533 -0.317965 -0.479 103 82 79
0.0233143 -0.318629 -0.48 104 83 80
0.0385971 -0.340534 -0.513 103 87 87
0.0537705 -0.37107 -0.559 233 234 252
0.448603 -0.396294 -0.597 170 167 176
0.4577 -0.396294 -0.597 43 75 122
0.460339 -0.39563 -0.596 28 61 114
0.464523 -0.396294 -0.597 76 105 163
0.474413 -0.396958 -0.598 56 78 117
0.486943 -0.396958 -0.598 157 162 182
0.48954 -0.396294 -0.597 98 114 139
0.490677 -0.396294 -0.597 74 101 144
0.462038 -0.337215 -0.508 161 112 95
0.464026 -0.336551 -0.507 175 124 105
0.46896 -0.33456 -0.504 169 116 98
0.487205 -0.335224 -0.505 167 116 95
-0.346108 -0.392106 -0.589 233 234 226
-0.304597 -0.392106 -0.589 235 237 226
-0.287769 -0.392106 -0.589 236 237 229
-0.0445343 -0.285591 -0.429 196 157 124
-0.0169076 -0.288254 -0.433 180 141 110
0.0213514 -0.317546 -0.477 106 82 80
0.0253524 -0.322206 -0.484 105 84 81
0.492126 -0.396766 -0.596 80 102 141
0.461169 -0.345506 -0.519 171 122 107
0.4599 -0.34018 -0.511 174 125 108
0.462038 -0.338183 -0.508 167 118 101
0.464026 -0.337517 -0.507 177 126 109
-0.350595 -0.393228 -0.589 232 233 225
-0.314694 -0.393228 -0.589 236 238 227
-0.284403 -0.393228 -0.589 237 239 228
-0.282159 -0.393228 -0.589 237 239 228
-0.0444305 -0.285741 -0.428 198 157 125
-0.0436152 -0.285741 -0.428 197 159 123
-0.0111857 -0.290414 -0.435 164 123 101
0.00826952 -0.305102 -0.457 120 89 84
0.0386724 -0.343156 -0.514 106 86 87
0.0538667 -0.373867 -0.56 230 233 250
0.435767 -0.397233 -0.595 70 106 158
0.451633 -0.397233 -0.595 114 121 140
0.477031 -0.398569 -0.597 108 118 143
0.483854 -0.398569 -0.597 159 165 177
0.462948 -0.339818 -0.509 165 116 99
-0.356113 -0.39301 -0.587 231 232 224
-0.34328 -0.39368 -0.588 234 235 229
-0.31245 -0.39435 -0.589 234 236 225
-0.307963 -0.39435 -0.589 235 237 224
-0.28056 -0.39368 -0.588 236 238 227
-0.2604 -0.39368 -0.588 237 238 230
-0.0556067 -0.293921 -0.439 191 155 123
-0.0502543 -0.287226 -0.429 203 164 131
-0.0404486 -0.287226 -0.429 197 159 123
-0.0218057 -0.289234 -0.432 186 142 115
-0.0209829 -0.289234 -0.432 186 142 115
-0.0169076 -0.289904 -0.433 179 137 112
-0.00874 -0.292582 -0.437 156 115 97
-0.00462 -0.29526 -0.441 150 107 90
-0.00294667 -0.29593 -0.442 146 105 87
0.00386571 -0.301955 -0.451 128 94 82
0.00826952 -0.305972 -0.457 119 90 86
0.0327257 -0.333423 -0.498 103 83 82
0.445967 -0.398367 -0.595 175 174 179
0.461057 -0.397697 -0.594 94 119 159
0.4641 -0.398367 -0.595 99 124 155
0.477031 -0.399706 -0.597 129 139 166
0.479638 -0.399036 -0.596 159 163 175
0.486447 -0.372925 -0.557 151 115 103
0.462253 -0.346813 -0.518 167 120 104
0.461451 -0.345474 -0.516 166 119 103
0.464991 -0.339449 -0.507 179 128 109
0.466002 -0.338779 -0.506 181 130 109
0.467967 -0.33811 -0.505 173 124 107
0.4728 -0.33744 -0.504 174 123 106
0.476652 -0.33677 -0.503 170 117 101
0.479527 -0.33677 -0.503 173 120 104
-0.34552 -0.3948 -0.588 233 234 226
-0.31416 -0.3948 -0.588 235 236 228
-0.30072 -0.3948 -0.588 235 236 228
-0.295736 -0.394129 -0.587 235 236 228
-0.26824 -0.3948 -0.588 238 239 231
-0.25704 -0.3948 -0.588 236 237 229
-0.210761 -0.394129 -0.587 238 239 233
-0.0493219 -0.287371 -0.428 202 163 130
-0.0379971 -0.288043 -0.429 197 157 122
-0.02592 -0.290057 -0.432 192 149 117
-0.00874 -0.293414 -0.437 156 115 97
-0.00378857 -0.296771 -0.442 145 104 86
0.00828762 -0.307514 -0.458 117 89 85
0.0233629 -0.322957 -0.481 108 84 82
0.03504 -0.3384 -0.504 104 84 83
0.43956 -0.398829 -0.594 142 155 174
0.472827 -0.400171 -0.596 80 95 126
0.475097 -0.400171 -0.596 53 68 101
0.483367 -0.3995 -0.595 159 165 179
0.495296 -0.398157 -0.593 109 129 166
0.468797 -0.356529 -0.531 163 120 104
0.464026 -0.340414 -0.507 178 127 106
-0.3164 -0.39592 -0.588 234 235 227
-0.276729 -0.395247 -0.587 236 237 229
-0.274492 -0.395247 -0.587 237 238 230
-0.238713 -0.395247 -0.587 236 238 227
-0.234241 -0.395247 -0.587 237 238 230
-0.0435133 -0.287513 -0.427 197 159 123
-0.0363629 -0.28886 -0.429 196 156 121
-0.0331714 -0.289533 -0.43 197 154 120
-0.0275019 -0.290207 -0.431 194 151 119
-0.02586 -0.290207 -0.431 191 148 116
-0.0234514 -0.29088 -0.432 187 146 116
0.0509019 -0.371007 -0.551 210 212 233
0.441823 -0.39996 -0.594 169 172 181
0.4675 -0.400633 -0.595 125 139 165
0.491606 -0.39996 -0.594 79 94 133
0.499329 -0.38582 -0.573 140 112 108
0.462886 -0.3434 -0.51 172 125 105
0.463917 -0.342727 -0.509 171 123 103
0.466002 -0.340707 -0.506 176 128 106
0.467967 -0.340033 -0.505 174 126 106
0.483354 -0.338013 -0.502 167 119 99
-0.32257 -0.396365 -0.587 233 236 227
-0.281201 -0.396365 -0.587 237 238 230
-0.274492 -0.396365 -0.587 237 238 230
-0.25213 -0.396365 -0.587 236 237 229
-0.221564 -0.39569 -0.586 238 239 231
-0.0492067 -0.288327 -0.427 201 160 128
-0.04758 -0.288327 -0.427 198 157 125
-0.0467667 -0.288327 -0.427 197 156 124
-0.0298952 -0.290352 -0.43 198 155 123
-0.00295333 -0.29913 -0.443 144 103 85
0.0128429 -0.313986 -0.465 110 86 82
0.0137581 -0.314661 -0.466 108 87 82
0.0184695 -0.319388 -0.473 105 84 81
0.469809 -0.358551 -0.531 156 113 104
0.462434 -0.348423 -0.516 168 123 102
0.466002 -0.34167 -0.506 177 129 109
0.46896 -0.34032 -0.504 167 119 99
0.470904 -0.339645 -0.503 170 122 102
0.479529 -0.33897 -0.502 174 123 104
0.497826 -0.342346 -0.507 161 112 95
0.522503 -0.353825 -0.524 151 110 88
-0.349926 -0.396806 -0.586 231 232 224
-0.345461 -0.396806 -0.586 231 232 226
-0.344345 -0.396806 -0.586 231 232 226
-0.322021 -0.396806 -0.586 233 236 227
-0.296349 -0.396806 -0.586 234 235 227
-0.294116 -0.396806 -0.586 234 235 227
-0.291884 -0.396806 -0.586 234 235 227
-0.289028 -0.397483 -0.587 234 235 227
-0.0781543 -0.394097 -0.582 191 156 124
-0.0490914 -0.288463 -0.426 199 158 126
-0.04514 -0.28914 -0.427 198 157 125
-0.0427 -0.28914 -0.427 196 156 121
-0.04026 -0.28914 -0.427 193 153 118
-0.039539 -0.289817 -0.428 194 154 119
-0.00462 -0.29862 -0.441 148 106 90
-0.00378857 -0.299297 -0.442 146 105 87
0.0021381 -0.304037 -0.449 133 97 81
0.00387429 -0.306069 -0.452 128 94 82
0.0263829 -0.329091 -0.486 101 83 81
0.0284667 -0.3318 -0.49 102 84 82
0.03996 -0.35076 -0.518 104 90 90
0.444468 -0.401546 -0.593 173 169 183
0.485949 -0.402223 -0.594 159 166 184
0.4626 -0.348051 -0.514 171 124 106
0.470904 -0.340603 -0.503 171 120 101
0.476661 -0.339926 -0.502 173 122 103
0.486209 -0.339249 -0.501 166 115 96
0.49296 -0.34128 -0.504 169 118 101
0.583369 -0.388003 -0.573 197 187 175
-0.290768 -0.397922 -0.586 233 234 226
-0.289651 -0.397922 -0.586 234 235 227
-0.288535 -0.397922 -0.586 235 236 228
-0.27849 -0.397922 -0.586 236 237 229
-0.277373 -0.397922 -0.586 236 237 229
-0.220071 -0.397243 -0.585 238 240 229
-0.0555429 -0.293349 -0.432 190 151 120
-0.0544667 -0.29199 -0.43 192 153 122
-0.0394467 -0.289953 -0.427 192 151 119
-0.0185143 -0.293349 -0.432 178 136 111
-0.0120143 -0.295386 -0.435 160 120 95
-0.00628571 -0.298781 -0.44 147 109 88
0.0284667 -0.332733 -0.49 102 83 79
0.0509943 -0.374834 -0.552 183 190 218
0.44259 -0.401996 -0.592 171 168 185
0.450484 -0.401996 -0.592 133 146 181
0.48995 -0.401996 -0.592 77 92 131
0.487871 -0.376871 -0.555 144 112 101
0.464074 -0.343598 -0.506 177 128 111
0.47188 -0.340882 -0.502 175 124 105
0.473792 -0.340882 -0.502 173 122 103
-0.337071 -0.398357 -0.585 230 233 226
-0.318672 -0.399038 -0.586 233 235 224
-0.287419 -0.399038 -0.586 236 237 229
-0.274671 -0.398357 -0.585 236 237 229
-0.2535 -0.398357 -0.585 236 237 231
-0.212271 -0.398357 -0.585 239 240 232
-0.0489762 -0.289405 -0.425 198 158 123
-0.0434114 -0.290086 -0.426 195 155 120
-0.0322771 -0.292129 -0.429 197 154 122
-0.026619 -0.29281 -0.43 192 149 115
-0.0185143 -0.294171 -0.432 177 133 108
-0.0168686 -0.294171 -0.432 175 134 106
0.0204 -0.324133 -0.476 108 84 80
0.0253524 -0.329581 -0.484 103 84 80
0.443718 -0.403124 -0.592 169 170 190
0.447101 -0.403124 -0.592 68 87 120
0.448229 -0.403124 -0.592 57 76 109
0.472706 -0.403805 -0.593 162 168 182
0.488823 -0.403124 -0.592 89 104 143
0.465123 -0.353414 -0.519 165 122 105
0.464026 -0.345243 -0.507 177 129 109
0.474749 -0.341838 -0.502 173 122 103
0.485238 -0.340476 -0.5 168 121 101
0.502678 -0.345924 -0.508 154 111 92
-0.334843 -0.399471 -0.585 231 232 226
-0.330386 -0.399471 -0.585 232 233 225
-0.329271 -0.399471 -0.585 232 233 225
-0.314786 -0.399471 -0.585 233 234 226
-0.305871 -0.399471 -0.585 233 235 224
-0.291386 -0.399471 -0.585 233 234 226
-0.252386 -0.399471 -0.585 236 237 229
-0.243055 -0.398789 -0.584 237 238 230
-0.210796 -0.398789 -0.584 238 239 231
-0.185211 -0.398789 -0.584 240 241 235
-0.0800952 -0.396057 -0.58 201 161 126
-0.0426 -0.290897 -0.426 195 152 117
-0.0417886 -0.290897 -0.426 194 151 117
-0.0338324 -0.292263 -0.428 197 154 120
-0.0111857 -0.297043 -0.435 158 117 95
0.0233629 -0.328454 -0.481 103 84 78
0.0306429 -0.338014 -0.495 101 83 79
0.441843 -0.403569 -0.591 170 175 195
0.476094 -0.404934 -0.593 139 147 166
0.497003 -0.403569 -0.591 46 75 119
0.497286 -0.402886 -0.59 54 83 127
0.49841 -0.402886 -0.59 89 112 153
0.471831 -0.362597 -0.531 157 118 103
0.466002 -0.345526 -0.506 176 128 106
0.46896 -0.34416 -0.504 178 131 111
0.476666 -0.342111 -0.501 174 123 104
0.503646 -0.346891 -0.508 155 112 93
-0.33427 -0.399901 -0.584 231 232 226
-0.332046 -0.399901 -0.584 232 233 225
-0.330933 -0.399901 -0.584 232 233 225
-0.325929 -0.400586 -0.585 233 235 224
-0.293112 -0.399901 -0.584 234 235 227
-0.290271 -0.400586 -0.585 234 235 227
-0.26864 -0.399901 -0.584 235 236 228
-0.260853 -0.399901 -0.584 236 237 229
-0.255291 -0.399901 -0.584 235 236 228
-0.223032 -0.399901 -0.584 238 239 231
-0.218583 -0.399901 -0.584 238 239 231
-0.212656 -0.399216 -0.583 236 237 229
-0.0346476 -0.293078 -0.428 196 153 119
-0.0322771 -0.293763 -0.429 196 153 119
-0.0306429 -0.293763 -0.429 193 153 117
-0.0298257 -0.293763 -0.429 191 151 115
-0.0128133 -0.297187 -0.434 162 120 96
-0.00627143 -0.30061 -0.439 145 107 86
0.00300667 -0.308828 -0.451 126 94 83
0.0204429 -0.326631 -0.477 107 84 78
0.483185 -0.405379 -0.592 107 122 153
0.495038 -0.40401 -0.59 50 80 132
0.497286 -0.40401 -0.59 41 69 116
0.497541 -0.387575 -0.566 143 113 105
0.477913 -0.369087 -0.539 145 112 105
0.465038 -0.34649 -0.506 179 128 109
0.468 -0.34512 -0.504 175 128 110
0.472836 -0.34375 -0.502 174 125 108
0.474757 -0.343066 -0.501 163 114 97
0.477619 -0.342381 -0.5 170 119 102
0.479515 -0.341696 -0.499 170 122 102
0.482367 -0.341696 -0.499 169 120 103
0.484268 -0.341696 -0.499 170 123 103
-0.350863 -0.39964 -0.582 230 231 225
-0.34317 -0.401013 -0.584 232 233 227
-0.337608 -0.401013 -0.584 232 233 225
-0.329821 -0.401013 -0.584 232 233 225
-0.325371 -0.401013 -0.584 232 234 223
-0.308686 -0.401013 -0.584 234 235 227
-0.298674 -0.401013 -0.584 234 235 227
-0.274202 -0.401013 -0.584 236 237 229
-0.258629 -0.401013 -0.584 235 236 228
-0.250842 -0.401013 -0.584 236 237 231
-0.24528 -0.401013 -0.584 236 237 229
-0.219319 -0.400327 -0.583 238 239 231
-0.209325 -0.400327 -0.583 235 236 228
-0.0417886 -0.29252 -0.426 190 150 114
-0.0394467 -0.293207 -0.427 190 150 115
-0.03782 -0.293207 -0.427 190 147 113
-0.0225238 -0.295267 -0.43 180 136 109
0.00128286 -0.308313 -0.449 128 96 85
0.00830571 -0.31518 -0.459 115 88 79
0.027421 -0.335093 -0.488 103 84 80
0.0362857 -0.348827 -0.508 105 87 87
0.464701 -0.351573 -0.512 172 126 103
0.479515 -0.342647 -0.499 173 125 105
0.48902 -0.342647 -0.499 160 114 91
0.585683 -0.392087 -0.571 201 188 180
-0.349754 -0.400749 -0.582 230 231 223
-0.312599 -0.401437 -0.583 233 234 226
-0.297052 -0.401437 -0.583 234 235 227
-0.28755 -0.402126 -0.584 234 235 227
-0.242639 -0.401437 -0.583 236 237 231
-0.0586981 -0.296774 -0.431 196 160 128
-0.056659 -0.294709 -0.428 199 160 127
-0.03538 -0.29402 -0.427 194 151 117
-0.0305714 -0.294709 -0.428 193 153 118
-0.0249229 -0.295397 -0.429 185 141 112
-0.0225238 -0.296086 -0.43 178 134 109
0.0137581 -0.320874 -0.466 109 84 79
0.0425 -0.3615 -0.525 125 123 144
0.495321 -0.405569 -0.589 19 52 106
0.482347 -0.374583 -0.544 147 114 107
0.464829 -0.351171 -0.51 175 127 105
0.468988 -0.346351 -0.503 173 124 107
0.505551 -0.349106 -0.507 151 110 88
-0.343103 -0.401857 -0.582 232 233 225
-0.341471 -0.402548 -0.583 233 234 226
-0.282616 -0.402548 -0.583 233 234 226
-0.220051 -0.401857 -0.582 237 238 232
-0.211183 -0.401857 -0.582 237 238 230
-0.210074 -0.401857 -0.582 237 238 230
-0.184577 -0.401857 -0.582 238 239 231
-0.0867238 -0.400476 -0.58 189 149 113
-0.0473571 -0.293452 -0.425 194 154 118
-0.0385429 -0.294143 -0.426 193 150 115
-0.0217552 -0.297595 -0.431 175 131 106
-0.0136086 -0.298976 -0.433 166 121 100
0.0092 -0.317619 -0.46 115 86 80
0.0306429 -0.341786 -0.495 105 84 81
0.042581 -0.36319 -0.526 119 120 141
0.467273 -0.40669 -0.589 165 164 172
0.467005 -0.34869 -0.505 176 125 108
0.505551 -0.350071 -0.507 151 110 88
-0.352473 -0.402273 -0.581 229 230 222
-0.349153 -0.402273 -0.581 231 232 224
-0.348047 -0.402273 -0.581 232 233 225
-0.334234 -0.402966 -0.582 232 233 225
-0.246657 -0.402966 -0.582 236 237 231
-0.242223 -0.402966 -0.582 236 237 231
-0.23074 -0.402273 -0.581 236 237 231
-0.225207 -0.402273 -0.581 236 237 231
-0.148847 -0.402273 -0.581 239 240 234
-0.14774 -0.402273 -0.581 239 240 234
-0.0842229 -0.400196 -0.578 194 156 120
-0.05734 -0.295647 -0.427 194 158 124
-0.0440152 -0.29357 -0.424 195 152 118
-0.0297562 -0.296339 -0.428 192 147 114
-0.0290086 -0.297031 -0.429 192 147 116
-0.0225238 -0.297724 -0.43 177 131 107
0.0165971 -0.326111 -0.471 108 83 78
0.0306429 -0.342729 -0.495 105 84 81
0.0317771 -0.344806 -0.498 104 84 83
0.466443 -0.356576 -0.515 169 126 107
0.468 -0.34896 -0.504 177 128 111
0.472849 -0.346883 -0.501 173 125 103
0.482349 -0.344806 -0.498 171 123 103
0.498653 -0.347575 -0.502 151 110 88
0.503557 -0.349652 -0.505 152 111 89
0.505518 -0.350345 -0.506 151 110 88
0.575426 -0.388426 -0.561 150 121 103
-0.3298 -0.404074 -0.582 231 232 224
-0.32204 -0.404074 -0.582 232 234 223
-0.319273 -0.40338 -0.581 233 235 224
-0.24402 -0.40338 -0.581 236 237 231
-0.225207 -0.40338 -0.581 236 237 231
-0.18758 -0.40338 -0.581 238 239 231
-0.174 -0.402686 -0.58 238 239 233
-0.173193 -0.40338 -0.581 239 240 234
-0.0582895 -0.297154 -0.428 195 156 123
-0.0563943 -0.295766 -0.426 199 159 124
-0.048861 -0.294377 -0.424 198 158 123
-0.0416905 -0.295071 -0.425 194 151 116
-0.0393543 -0.295766 -0.426 194 151 116
-0.0233429 -0.298543 -0.43 178 132 106
-0.0184714 -0.299237 -0.431 176 130 107
-0.00874 -0.303403 -0.437 151 109 93
-0.00127143 -0.308957 -0.445 132 98 88
0.0065 -0.3159 -0.455 114 86 82
0.0128429 -0.322843 -0.465 111 84 77
0.0285248 -0.340894 -0.491 108 84 82
0.035179 -0.351309 -0.506 103 83 82
0.0388229 -0.358251 -0.516 109 91 91
0.4788 -0.40824 -0.588 149 161 175
0.4921 -0.385329 -0.555 144 111 104
0.46899 -0.361029 -0.52 157 120 102
0.469946 -0.349226 -0.503 176 128 108
0.476667 -0.347143 -0.5 172 121 102
0.490886 -0.345754 -0.498 168 123 100
0.51642 -0.356169 -0.513 148 110 87
-0.344727 -0.404487 -0.581 229 230 222
-0.342513 -0.404487 -0.581 230 231 223
-0.338087 -0.404487 -0.581 232 233 225
-0.33698 -0.404487 -0.581 231 232 224
-0.319273 -0.404487 -0.581 233 235 224
-0.31706 -0.404487 -0.581 233 234 226
-0.303257 -0.40379 -0.58 233 234 226
-0.296033 -0.404487 -0.581 233 234 226
-0.28718 -0.404487 -0.581 234 235 227
-0.286073 -0.404487 -0.581 234 235 227
-0.279433 -0.404487 -0.581 234 235 227
-0.2739 -0.404487 -0.581 235 236 228
-0.265047 -0.404487 -0.581 234 235 227
-0.262833 -0.404487 -0.581 234 235 227
-0.261727 -0.404487 -0.581 234 235 227
-0.138648 -0.40379 -0.58 237 238 230
-0.0875257 -0.402398 -0.578 190 156 121
-0.0862752 -0.401702 -0.577 194 156 119
-0.0572057 -0.296577 -0.426 197 158 125
-0.0545143 -0.295185 -0.424 200 160 125
-0.0537067 -0.295185 -0.424 198 158 123
-0.0527743 -0.294489 -0.423 198 158 123
-0.0273743 -0.298666 -0.429 188 145 113
0.0109762 -0.320944 -0.461 108 85 77
0.0224 -0.334171 -0.48 105 86 80
0.47208 -0.40936 -0.588 166 167 172
0.4844 -0.40936 -0.588 39 62 116
0.48776 -0.40936 -0.588 32 63 118
0.467967 -0.351576 -0.505 176 128 108
0.472849 -0.348791 -0.501 175 124 103
0.514407 -0.355753 -0.511 147 109 86
-0.312095 -0.404895 -0.58 232 233 225
-0.305467 -0.404895 -0.58 231 232 224
-0.298838 -0.404895 -0.58 233 234 226
-0.284476 -0.404895 -0.58 233 234 226
-0.278952 -0.404895 -0.58 233 234 226
-0.275638 -0.404895 -0.58 234 235 227
-0.251333 -0.404895 -0.58 234 235 227
-0.231049 -0.404197 -0.579 236 237 229
-0.225534 -0.404197 -0.579 236 237 229
-0.221505 -0.404895 -0.58 238 239 231
-0.188362 -0.404895 -0.58 237 238 230
-0.0873743 -0.402801 -0.577 190 154 118
-0.0570714 -0.29669 -0.425 199 159 124
-0.0519686 -0.295294 -0.423 197 157 122
-0.0432076 -0.295992 -0.424 197 154 119
-0.040881 -0.29669 -0.425 193 150 115
-0.0160457 -0.301577 -0.432 169 124 103
0.0156 -0.326709 -0.468 107 84 78
0.0539629 -0.391631 -0.561 221 228 246
0.469041 -0.409782 -0.587 129 130 134
0.470159 -0.409782 -0.587 129 130 134
0.482458 -0.409782 -0.587 25 48 102
0.488049 -0.409782 -0.587 60 87 140
0.478443 -0.373481 -0.535 154 114 106
0.468929 -0.352538 -0.505 175 127 105
0.473803 -0.349746 -0.501 176 124 103
0.475714 -0.349048 -0.5 174 123 102
0.5335 -0.3665 -0.525 142 111 91
0.538572 -0.369292 -0.529 142 111 91
-0.288895 -0.406 -0.58 232 233 225
-0.282267 -0.406 -0.58 233 234 226
-0.246489 -0.4053 -0.579 236 237 229
-0.242077 -0.4053 -0.579 234 235 227
-0.234357 -0.4053 -0.579 236 237 231
-0.208991 -0.4053 -0.579 236 237 229
-0.19499 -0.406 -0.58 237 239 228
-0.175906 -0.4053 -0.579 237 238 232
-0.147231 -0.4053 -0.579 239 240 234
-0.0895724 -0.4039 -0.577 187 156 125
-0.0472457 -0.2968 -0.424 194 151 117
-0.0377314 -0.2982 -0.426 192 149 115
-0.0273105 -0.2996 -0.428 187 144 112
0.0374733 -0.3577 -0.511 102 88 87
0.47575 -0.4109 -0.587 165 163 177
0.4725 -0.3675 -0.525 158 116 102
0.469946 -0.3521 -0.503 172 124 102
0.482327 -0.3479 -0.497 169 121 99
0.520364 -0.3598 -0.514 146 108 87
-0.350653 -0.405701 -0.578 230 232 221
-0.325352 -0.407105 -0.58 232 233 225
-0.321483 -0.406403 -0.579 232 233 225
-0.319277 -0.406403 -0.579 232 233 225
-0.314866 -0.406403 -0.579 231 232 224
-0.306043 -0.406403 -0.579 233 234 226
-0.288397 -0.406403 -0.579 232 234 223
-0.276743 -0.407105 -0.58 233 235 224
-0.275638 -0.407105 -0.58 233 235 224
-0.271854 -0.406403 -0.579 234 236 225
-0.25862 -0.406403 -0.579 234 235 227
-0.2509 -0.406403 -0.579 235 236 228
-0.233952 -0.405701 -0.578 236 237 229
-0.193551 -0.406403 -0.579 237 238 230
-0.180317 -0.406403 -0.579 237 238 232
-0.168186 -0.406403 -0.579 238 239 233
-0.163774 -0.406403 -0.579 238 239 233
-0.0559971 -0.296906 -0.423 199 160 127
-0.0511629 -0.296906 -0.423 196 157 124
-0.0487457 -0.296906 -0.423 196 156 121
-0.03692 -0.299011 -0.426 189 146 112
-0.0119867 -0.304627 -0.434 156 113 96
-0.0103571 -0.305329 -0.435 154 111 94
-0.000425714 -0.313751 -0.447 134 95 80
0.473803 -0.351654 -0.501 170 122 100
0.474762 -0.350952 -0.5 176 125 104
0.476664 -0.35025 -0.499 172 124 102
0.481356 -0.348145 -0.496 174 126 104
0.486043 -0.347443 -0.495 168 120 98
0.490804 -0.348145 -0.496 167 120 100
0.502478 -0.352356 -0.502 153 112 92
0.50544 -0.35376 -0.504 152 111 91
-0.296117 -0.407506 -0.579 232 234 223
-0.2895 -0.407506 -0.579 231 233 222
-0.280677 -0.407506 -0.579 233 235 222
-0.241659 -0.406802 -0.578 234 235 227
-0.238356 -0.406802 -0.578 234 235 227
-0.198722 -0.406802 -0.578 236 237 231
-0.168996 -0.406802 -0.578 238 239 233
-0.146977 -0.406802 -0.578 239 240 234
-0.0407848 -0.298415 -0.424 193 153 118
-0.0344857 -0.299823 -0.426 186 145 113
-0.028941 -0.30123 -0.428 186 143 111
-0.0273105 -0.30123 -0.428 185 141 112
-0.0103571 -0.306157 -0.435 153 110 93
0.00563333 -0.320233 -0.455 119 90 76
0.0233143 -0.337829 -0.48 105 85 78
0.0317133 -0.349793 -0.497 107 82 85
0.470971 -0.365981 -0.52 161 120 102
0.46854 -0.361054 -0.513 168 123 100
0.467743 -0.358943 -0.51 168 123 100
0.475709 -0.350497 -0.498 173 125 103
0.503434 -0.353312 -0.502 153 112 90
0.516314 -0.358943 -0.51 146 112 87
-0.328634 -0.407903 -0.578 230 232 221
-0.314877 -0.407197 -0.577 231 232 224
-0.311019 -0.407903 -0.578 233 234 226
-0.291202 -0.407903 -0.578 231 233 222
-0.285697 -0.407903 -0.578 232 234 223
-0.274688 -0.407903 -0.578 232 234 221
-0.24234 -0.407197 -0.577 234 235 227
-0.236154 -0.407903 -0.578 234 235 227
-0.211933 -0.407903 -0.578 234 235 227
-0.204972 -0.407197 -0.577 236 237 229
-0.200924 -0.407903 -0.578 236 237 231
-0.183309 -0.407903 -0.578 237 238 230
-0.133534 -0.407197 -0.577 239 240 232
-0.0542571 -0.297811 -0.422 197 158 125
-0.0415924 -0.299223 -0.424 193 153 118
-0.0352971 -0.300634 -0.426 188 145 113
-0.0128133 -0.30628 -0.434 157 114 97
-0.00628571 -0.310514 -0.44 143 104 89
0.00828762 -0.323217 -0.458 113 85 74
0.0092 -0.324629 -0.46 113 86 77
0.011 -0.32604 -0.462 113 84 76
0.0340124 -0.354974 -0.503 104 84 83
0.0466267 -0.379674 -0.538 159 175 209
0.0527057 -0.394494 -0.559 225 232 248
0.476657 -0.351446 -0.498 177 129 107
0.477593 -0.35074 -0.497 169 121 99
-0.314877 -0.408296 -0.577 232 233 225
-0.285203 -0.408296 -0.577 231 233 222
-0.284104 -0.408296 -0.577 231 233 222
-0.229151 -0.408296 -0.577 235 236 230
-0.147822 -0.408296 -0.577 238 239 231
-0.139886 -0.407589 -0.576 237 238 230
-0.12694 -0.408296 -0.577 238 241 234
-0.0902 -0.406173 -0.574 189 155 118
-0.055061 -0.298615 -0.422 198 160 124
-0.0478267 -0.298615 -0.422 192 152 117
-0.0400714 -0.300738 -0.425 194 154 119
-0.0216543 -0.303569 -0.429 174 129 106
-0.0119867 -0.307107 -0.434 156 113 96
0.00739905 -0.323382 -0.457 117 89 78
0.0193705 -0.334704 -0.473 110 85 80
0.03762 -0.363009 -0.513 103 89 88
0.0481829 -0.384945 -0.544 208 220 236
0.491116 -0.41325 -0.584 41 78 130
0.470904 -0.355932 -0.503 174 127 107
0.47476 -0.352394 -0.498 175 128 108
0.476647 -0.351687 -0.497 171 124 104
0.478522 -0.350979 -0.496 172 124 102
0.483214 -0.350271 -0.495 172 121 100
0.488825 -0.349564 -0.494 165 120 99
-0.341254 -0.409395 -0.577 229 230 222
-0.32257 -0.409395 -0.577 232 233 225
-0.317623 -0.408686 -0.576 232 233 225
-0.272014 -0.409395 -0.577 233 235 224
-0.262123 -0.409395 -0.577 232 233 225
-0.258826 -0.409395 -0.577 232 233 225
-0.255529 -0.409395 -0.577 233 234 226
-0.244538 -0.409395 -0.577 234 235 227
-0.234647 -0.409395 -0.577 234 235 227
-0.228052 -0.409395 -0.577 236 237 231
-0.221074 -0.408686 -0.576 235 236 230
-0.220359 -0.409395 -0.577 237 238 232
-0.197279 -0.409395 -0.577 236 237 231
-0.189257 -0.408686 -0.576 235 236 228
-0.18048 -0.408686 -0.576 236 237 229
-0.167314 -0.408686 -0.576 236 237 229
-0.16512 -0.408686 -0.576 237 239 228
-0.139886 -0.408686 -0.576 237 238 230
-0.0936429 -0.407976 -0.575 186 160 123
-0.0392619 -0.301548 -0.425 193 152 120
-0.0176505 -0.305805 -0.431 168 124 99
-0.0152229 -0.306514 -0.432 167 123 98
-0.0111857 -0.308643 -0.435 152 111 93
0.00739905 -0.324252 -0.457 117 87 76
0.011 -0.3278 -0.462 114 85 77
0.0184305 -0.334895 -0.472 109 84 79
0.488424 -0.38669 -0.545 145 112 103
0.470367 -0.365405 -0.515 165 122 103
0.472849 -0.355471 -0.501 173 126 106
0.476647 -0.352633 -0.497 172 125 105
0.482271 -0.351214 -0.495 178 130 108
0.503386 -0.355471 -0.501 159 118 96
0.505347 -0.356181 -0.502 156 115 93
-0.329691 -0.409783 -0.576 233 234 226
-0.325303 -0.409783 -0.576 232 233 225
-0.269816 -0.410494 -0.577 233 234 226
-0.202423 -0.409783 -0.576 236 237 229
-0.200229 -0.409783 -0.576 236 237 229
-0.196937 -0.409783 -0.576 236 237 231
-0.19618 -0.410494 -0.577 236 237 231
-0.181577 -0.409783 -0.576 237 238 232
-0.167314 -0.409783 -0.576 236 238 227
-0.16512 -0.409783 -0.576 237 239 228
-0.14976 -0.409783 -0.576 238 240 229
-0.131976 -0.409071 -0.575 238 239 231
-0.0936429 -0.409071 -0.575 186 156 118
-0.0628857 -0.303069 -0.426 195 156 123
-0.0399771 -0.301646 -0.424 195 152 120
-0.0391695 -0.301646 -0.424 194 151 119
-0.02568 -0.304491 -0.428 179 133 109
-0.0176505 -0.306626 -0.431 167 122 99
0.490275 -0.414763 -0.583 70 101 145
0.500626 -0.399111 -0.561 143 113 105
0.48412 -0.351446 -0.494 175 127 105
0.494583 -0.352869 -0.496 166 118 96
0.51821 -0.362117 -0.509 151 109 85
-0.34176 -0.41088 -0.576 229 230 224
-0.331886 -0.41088 -0.576 231 232 224
-0.330214 -0.410167 -0.575 231 232 224
-0.31872 -0.41088 -0.576 232 233 225
-0.317071 -0.410167 -0.575 232 233 225
-0.29568 -0.41088 -0.576 231 232 224
-0.288 -0.41088 -0.576 231 232 224
-0.252452 -0.410167 -0.575 233 234 226
-0.232046 -0.41088 -0.576 235 236 230
-0.22069 -0.410167 -0.575 235 236 230
-0.2112 -0.41088 -0.576 235 236 228
-0.20352 -0.41088 -0.576 236 237 229
-0.192549 -0.41088 -0.576 236 237 231
-0.182357 -0.410167 -0.575 237 238 232
-0.180167 -0.410167 -0.575 236 237 231
-0.176881 -0.410167 -0.575 235 236 230
-0.0648114 -0.305307 -0.428 193 157 123
-0.0598838 -0.301027 -0.422 196 158 122
-0.0344048 -0.303167 -0.425 187 143 114
-0.0232886 -0.30602 -0.429 172 126 102
-0.00957238 -0.311727 -0.437 147 108 93
-0.00794381 -0.313153 -0.439 144 104 92
