ply
format ascii 1.0
comment Created by Open3D
element vertex 1294
property double x
property double y
property double z
property uchar red
property uchar green
property uchar blue
end_header
0.422074 -0.118817 -0.522 122 90 93
0.425688 -0.119272 -0.524 82 54 53
0.43132 -0.119728 -0.526 155 113 115
0.443686 -0.120638 -0.53 188 132 131
0.129022 -0.140698 -0.613 190 138 125
0.143949 -0.142764 -0.622 176 123 117
0.1456 -0.143223 -0.624 176 123 117
0.153487 -0.146207 -0.637 169 116 110
0.298941 -0.124861 -0.544 156 121 127
0.308657 -0.127156 -0.554 39 24 27
0.313011 -0.128074 -0.558 34 25 28
0.342423 -0.13037 -0.568 49 34 39
0.32911 -0.118205 -0.515 138 103 107
0.331071 -0.118205 -0.515 139 103 105
0.35226 -0.117746 -0.513 145 110 114
0.353237 -0.117746 -0.513 145 110 114
0.3584 -0.117516 -0.512 141 106 110
0.394687 -0.117287 -0.511 106 76 74
0.441006 -0.121189 -0.528 190 134 135
0.103141 -0.144874 -0.626 206 160 147
0.111326 -0.141634 -0.612 209 161 149
0.116771 -0.141171 -0.61 201 153 139
0.131143 -0.141634 -0.612 194 142 131
0.133692 -0.141866 -0.613 192 140 129
0.137643 -0.142329 -0.615 185 133 122
0.148451 -0.144874 -0.626 175 122 116
0.339286 -0.131914 -0.57 31 20 28
0.336983 -0.127749 -0.552 137 108 112
0.325107 -0.11988 -0.518 135 103 106
0.327148 -0.119186 -0.515 134 102 103
0.333366 -0.118954 -0.514 139 105 106
0.373029 -0.118491 -0.512 152 127 131
0.443017 -0.122194 -0.528 190 134 137
0.101561 -0.147233 -0.631 201 157 144
0.113286 -0.142333 -0.61 208 160 146
0.153729 -0.1477 -0.633 173 120 112
0.284114 -0.1232 -0.528 157 125 130
0.288763 -0.1239 -0.531 158 126 131
0.326167 -0.120167 -0.515 134 102 103
0.330429 -0.119933 -0.514 138 104 105
0.331408 -0.119933 -0.514 139 105 106
0.334345 -0.119933 -0.514 139 105 106
0.335324 -0.119933 -0.514 139 104 108
0.348648 -0.119467 -0.512 141 109 112
0.350598 -0.119467 -0.512 142 110 113
0.354214 -0.1197 -0.513 142 110 113
0.376193 -0.119233 -0.511 244 228 229
0.377167 -0.119233 -0.511 191 175 176
0.383007 -0.119233 -0.511 134 102 105
0.385927 -0.119233 -0.511 128 98 100
0.430318 -0.122733 -0.526 89 53 55
0.103333 -0.145848 -0.62 203 159 146
0.104177 -0.145377 -0.618 208 162 149
0.1131 -0.14326 -0.609 211 163 149
0.122179 -0.143025 -0.608 203 151 138
0.1247 -0.14326 -0.609 199 147 134
0.127229 -0.143495 -0.61 193 141 128
0.138363 -0.144201 -0.613 185 133 122
0.141157 -0.144671 -0.615 186 134 121
0.158837 -0.150317 -0.639 171 116 109
0.28458 -0.12397 -0.527 160 125 132
0.286126 -0.124206 -0.528 160 125 131
0.290238 -0.124676 -0.53 156 124 129
0.298163 -0.126323 -0.537 151 118 125
0.304597 -0.127734 -0.543 142 117 123
0.32654 -0.132439 -0.563 32 21 29
0.325533 -0.120912 -0.514 136 102 103
0.331408 -0.120912 -0.514 139 105 106
0.373273 -0.120207 -0.511 247 228 234
0.390029 -0.119971 -0.51 131 100 98
0.39566 -0.120207 -0.511 136 102 103
0.442178 -0.12397 -0.527 191 132 134
0.453813 -0.126088 -0.536 163 107 106
0.0981333 -0.151771 -0.64 204 158 143
0.106663 -0.145131 -0.612 208 162 149
0.113885 -0.143946 -0.607 209 160 146
0.119666 -0.143946 -0.607 198 149 135
0.123337 -0.144183 -0.608 202 153 138
0.275614 -0.125923 -0.531 162 127 134
0.279966 -0.124263 -0.524 161 126 133
0.288595 -0.124974 -0.527 154 121 128
0.31205 -0.129717 -0.547 102 86 89
0.322243 -0.122129 -0.515 138 104 105
0.345722 -0.121417 -0.512 143 108 112
0.364513 -0.12118 -0.511 138 108 110
0.36938 -0.12118 -0.511 139 107 110
0.380087 -0.12118 -0.511 136 109 114
0.3842 -0.120943 -0.51 130 100 102
0.392943 -0.120943 -0.51 133 101 104
0.402473 -0.12118 -0.511 95 63 64
0.442178 -0.124974 -0.527 190 131 133
0.0979552 -0.150839 -0.631 202 159 142
0.100971 -0.14821 -0.62 202 159 142
0.14939 -0.14821 -0.62 178 124 114
0.16001 -0.151556 -0.634 179 122 115
0.16198 -0.152273 -0.637 177 120 113
0.172449 -0.155142 -0.649 179 122 113
0.28296 -0.125261 -0.524 160 125 132
0.283958 -0.125261 -0.524 158 122 132
0.290603 -0.125978 -0.527 155 120 127
0.319687 -0.132193 -0.553 26 7 13
0.323575 -0.12287 -0.514 138 104 105
0.340846 -0.122392 -0.512 141 106 110
0.343771 -0.122392 -0.512 140 106 107
0.393914 -0.121914 -0.51 133 98 102
0.404236 -0.122392 -0.512 104 69 73
0.414893 -0.123827 -0.518 126 94 97
0.437331 -0.125739 -0.526 196 135 140
0.438333 -0.125739 -0.526 196 135 140
0.0976448 -0.151559 -0.629 198 159 142
0.11351 -0.145776 -0.605 205 157 143
0.115814 -0.145776 -0.605 204 156 142
0.118119 -0.145776 -0.605 202 153 138
0.127759 -0.146258 -0.607 194 145 130
0.131444 -0.146499 -0.608 195 143 129
0.151997 -0.149631 -0.621 185 131 119
0.16588 -0.153728 -0.638 174 120 110
0.167095 -0.153728 -0.638 174 120 110
0.171811 -0.154691 -0.642 174 120 110
0.180265 -0.155655 -0.646 174 117 108
0.186994 -0.156137 -0.648 170 113 104
0.274057 -0.127223 -0.528 164 127 135
0.336191 -0.135656 -0.563 41 29 31
0.340846 -0.123368 -0.512 139 107 110
0.344073 -0.123127 -0.511 142 107 111
0.34602 -0.123127 -0.511 142 107 111
0.346993 -0.123127 -0.511 142 107 111
0.356727 -0.123127 -0.511 141 109 112
0.4235 -0.1265 -0.525 53 31 33
0.428937 -0.127223 -0.528 51 25 28
0.434148 -0.126982 -0.527 156 100 103
0.111205 -0.146929 -0.605 209 162 146
0.121576 -0.146929 -0.605 204 155 140
0.123881 -0.146929 -0.605 202 153 138
0.126394 -0.147171 -0.606 200 148 134
0.1363 -0.1479 -0.609 191 137 125
0.141403 -0.148386 -0.611 190 134 121
0.145606 -0.149114 -0.614 191 135 122
0.152687 -0.150329 -0.619 183 130 116
0.175327 -0.1547 -0.637 175 121 109
0.274057 -0.128229 -0.528 164 127 135
0.277439 -0.127014 -0.523 159 123 133
0.279431 -0.127014 -0.523 161 125 135
0.286952 -0.127257 -0.524 159 123 133
0.292055 -0.127743 -0.526 152 116 126
0.335119 -0.136729 -0.563 36 27 28
0.323552 -0.128714 -0.53 139 107 110
0.355753 -0.1241 -0.511 141 109 112
0.376429 -0.123857 -0.51 145 121 121
0.381286 -0.123857 -0.51 111 80 85
0.39858 -0.1241 -0.511 130 98 99
0.443182 -0.127986 -0.527 189 133 132
0.102167 -0.150039 -0.613 214 163 144
0.110234 -0.148326 -0.606 210 163 147
0.178311 -0.156403 -0.639 172 118 106
0.190109 -0.158116 -0.646 155 99 82
0.278897 -0.127766 -0.522 161 125 135
0.2935 -0.1285 -0.525 153 120 127
0.297189 -0.129234 -0.528 152 121 126
0.303493 -0.130213 -0.532 150 120 122
0.318884 -0.13413 -0.548 66 50 53
0.330609 -0.136822 -0.559 30 20 19
0.326854 -0.125563 -0.513 141 102 103
0.331093 -0.125318 -0.512 137 105 106
0.336945 -0.125318 -0.512 137 105 106
0.365487 -0.125073 -0.511 138 107 105
0.371571 -0.124829 -0.51 134 105 110
0.374486 -0.124829 -0.51 143 118 121
0.386355 -0.124584 -0.509 124 98 99
0.394886 -0.124829 -0.51 135 101 102
0.419894 -0.12801 -0.523 78 52 51
0.10032 -0.151947 -0.616 204 158 143
0.149357 -0.1517 -0.615 178 127 108
0.163952 -0.154413 -0.626 179 128 107
0.175709 -0.156387 -0.634 175 119 104
0.181393 -0.157127 -0.637 166 108 97
0.18952 -0.158853 -0.644 158 99 83
0.279219 -0.135173 -0.548 158 126 139
0.272534 -0.129993 -0.527 161 126 133
0.28188 -0.12876 -0.522 158 123 130
0.303362 -0.130733 -0.53 148 117 123
0.319429 -0.128267 -0.52 138 104 103
0.320281 -0.127033 -0.515 135 105 107
0.3249 -0.12654 -0.513 133 103 103
0.327192 -0.126293 -0.512 132 101 99
0.328168 -0.126293 -0.512 132 101 99
0.376429 -0.1258 -0.51 134 99 103
0.378371 -0.1258 -0.51 122 93 95
0.42411 -0.129993 -0.527 48 29 31
0.433324 -0.129747 -0.526 154 100 98
0.0977429 -0.154611 -0.622 200 154 139
0.110837 -0.149889 -0.603 208 162 146
0.11658 -0.149889 -0.603 206 160 144
0.122323 -0.149889 -0.603 200 153 137
0.124827 -0.150137 -0.604 198 151 135
0.134696 -0.150883 -0.607 191 139 125
0.176079 -0.156849 -0.631 166 110 95
0.187416 -0.159334 -0.641 157 99 85
0.272979 -0.130251 -0.524 161 125 135
0.284317 -0.129506 -0.521 154 121 128
0.296933 -0.130251 -0.524 150 118 123
0.2995 -0.1305 -0.525 149 117 122
0.327381 -0.136714 -0.55 37 17 19
0.323923 -0.127517 -0.513 131 101 103
0.329143 -0.127269 -0.512 104 95 96
0.333367 -0.12702 -0.511 101 89 93
0.340486 -0.126771 -0.51 134 106 105
0.355057 -0.126771 -0.51 143 111 114
0.359914 -0.126771 -0.51 143 109 110
0.367686 -0.126771 -0.51 135 103 104
0.379569 -0.126523 -0.509 113 87 88
0.0955457 -0.160054 -0.639 200 158 142
0.100834 -0.153291 -0.612 202 159 143
0.10757 -0.151288 -0.604 209 163 148
0.10854 -0.151037 -0.603 209 163 148
0.110653 -0.150787 -0.602 206 160 144
0.116387 -0.150787 -0.602 208 161 145
0.12212 -0.150787 -0.602 198 151 135
0.163826 -0.155546 -0.621 179 127 106
0.170833 -0.156548 -0.625 165 112 96
0.174046 -0.157299 -0.628 168 112 99
0.177 -0.1578 -0.63 159 102 91
0.185033 -0.159553 -0.637 151 94 83
0.270527 -0.132001 -0.527 161 125 135
0.271981 -0.13125 -0.524 159 123 133
0.289714 -0.130248 -0.52 151 119 124
0.315114 -0.134756 -0.538 136 109 114
0.321146 -0.136009 -0.543 120 93 98
0.324085 -0.135508 -0.541 117 92 96
0.33434 -0.127993 -0.511 135 132 139
0.337571 -0.127743 -0.51 139 119 121
0.34602 -0.127993 -0.511 138 108 106
0.346993 -0.127993 -0.511 139 109 107
0.354086 -0.127743 -0.51 141 110 115
0.405026 -0.128494 -0.513 132 97 101
0.433144 -0.132001 -0.527 138 88 89
0.4355 -0.1315 -0.525 192 135 128
0.115049 -0.151681 -0.601 204 156 142
0.123267 -0.151933 -0.602 197 150 134
0.124413 -0.151933 -0.602 198 151 135
0.12556 -0.151933 -0.602 199 152 136
0.152126 -0.154457 -0.612 179 128 109
0.154962 -0.154962 -0.614 178 127 108
0.167374 -0.156729 -0.621 174 122 101
0.175242 -0.158495 -0.628 156 103 89
0.18146 -0.159757 -0.633 148 94 82
0.270561 -0.134519 -0.533 166 123 133
0.27737 -0.13149 -0.521 159 124 131
0.28718 -0.130986 -0.519 152 117 124
0.294667 -0.131238 -0.52 149 117 122
0.307828 -0.13351 -0.529 147 115 120
0.316722 -0.129724 -0.514 134 104 104
0.31806 -0.129471 -0.513 134 105 107
0.31939 -0.129219 -0.512 132 106 105
0.321341 -0.129219 -0.512 135 105 105
0.322316 -0.129219 -0.512 135 106 108
0.3502 -0.128714 -0.51 136 107 109
0.360178 -0.128462 -0.509 137 107 109
0.365026 -0.128462 -0.509 134 104 106
0.384629 -0.12821 -0.508 91 67 67
0.433144 -0.133005 -0.527 140 90 91
0.44519 -0.133005 -0.527 180 127 121
0.458581 -0.135781 -0.538 160 107 103
0.0993429 -0.155114 -0.61 200 156 143
0.106067 -0.15308 -0.602 207 163 150
0.114857 -0.152571 -0.6 206 158 146
0.139091 -0.154097 -0.606 197 146 129
0.145341 -0.154606 -0.608 188 137 118
0.146499 -0.154606 -0.608 187 136 117
0.158987 -0.15664 -0.616 182 130 109
0.179685 -0.160454 -0.631 144 95 81
0.269038 -0.134771 -0.53 164 122 132
0.276838 -0.132229 -0.52 158 123 130
0.2808 -0.132229 -0.52 156 121 128
0.284214 -0.131974 -0.519 154 119 126
0.285203 -0.131974 -0.519 154 119 126
0.287613 -0.13172 -0.518 152 117 124
0.289028 -0.131466 -0.517 151 116 122
0.315653 -0.13528 -0.532 145 113 118
0.315376 -0.130957 -0.515 130 104 105
0.315743 -0.130703 -0.514 130 104 105
0.318415 -0.130194 -0.512 132 106 105
0.329473 -0.12994 -0.511 69 90 95
0.341457 -0.129686 -0.51 136 111 114
0.345343 -0.129686 -0.51 137 107 107
0.346314 -0.129686 -0.51 137 107 107
0.348257 -0.129686 -0.51 136 107 109
0.363087 -0.129431 -0.509 138 108 108
0.373017 -0.129177 -0.508 137 105 106
0.4415 -0.1335 -0.525 194 144 137
0.101986 -0.154995 -0.605 203 159 146
0.114666 -0.153458 -0.599 208 162 147
0.122857 -0.153714 -0.6 204 156 142
0.131293 -0.154227 -0.602 200 151 136
0.176438 -0.160888 -0.628 150 102 90
0.26947 -0.133988 -0.523 160 123 130
0.291982 -0.13245 -0.517 151 116 122
0.292967 -0.13245 -0.517 150 115 121
0.31369 -0.135012 -0.527 148 113 117
0.313647 -0.13245 -0.517 134 105 107
0.318415 -0.13117 -0.512 132 107 103
0.31974 -0.130913 -0.511 129 105 103
0.333686 -0.130657 -0.51 180 199 205
0.335629 -0.130657 -0.51 167 185 189
0.349513 -0.130401 -0.509 137 108 112
0.360178 -0.130401 -0.509 139 107 108
0.371082 -0.130145 -0.508 139 107 110
0.37205 -0.130145 -0.508 138 106 109
0.384629 -0.130145 -0.508 133 99 100
0.39237 -0.130145 -0.508 128 98 98
0.435846 -0.136806 -0.534 89 53 57
0.436667 -0.134244 -0.524 196 145 141
0.446193 -0.135012 -0.527 179 126 120
0.0940505 -0.162342 -0.629 198 156 142
0.0998457 -0.156406 -0.606 206 160 147
0.115613 -0.154341 -0.598 210 164 149
0.12993 -0.155115 -0.601 201 152 137
0.136106 -0.155631 -0.603 198 146 132
0.15847 -0.15847 -0.614 177 124 106
0.168286 -0.160019 -0.62 167 113 101
0.174684 -0.161568 -0.626 151 101 90
0.185614 -0.164923 -0.639 130 86 77
0.272409 -0.134468 -0.521 158 121 128
0.311894 -0.133951 -0.519 138 108 110
0.312662 -0.133435 -0.517 137 111 112
0.313174 -0.132403 -0.513 133 102 107
0.334657 -0.131629 -0.51 83 103 110
0.342727 -0.13137 -0.509 137 105 108
0.346605 -0.13137 -0.509 135 106 110
0.351452 -0.13137 -0.509 126 101 104
0.358239 -0.13137 -0.509 171 152 156
0.378823 -0.131112 -0.508 125 90 94
0.381726 -0.131112 -0.508 133 99 100
0.39237 -0.131112 -0.508 104 76 75
0.439633 -0.140662 -0.545 41 22 26
0.43467 -0.135242 -0.524 196 141 136
0.14857 -0.15782 -0.607 186 133 115
0.15254 -0.15834 -0.609 176 120 103
0.158212 -0.15938 -0.613 178 125 107
0.15964 -0.15964 -0.614 180 122 110
0.16081 -0.15964 -0.614 180 122 110
0.165121 -0.16042 -0.617 166 109 98
0.188001 -0.16718 -0.643 123 82 78
0.281693 -0.13468 -0.518 153 118 125
0.285089 -0.13442 -0.517 154 117 124
0.304974 -0.13494 -0.519 152 113 118
0.308929 -0.13494 -0.519 150 114 118
0.317793 -0.13286 -0.511 133 105 101
0.32558 -0.13286 -0.511 185 194 203
0.348827 -0.13208 -0.508 135 106 110
0.369147 -0.13208 -0.508 122 96 99
0.370114 -0.13208 -0.508 144 118 121
0.382906 -0.13182 -0.507 130 95 99
0.384837 -0.13182 -0.507 130 98 99
0.395081 -0.13234 -0.509 101 77 75
0.406411 -0.13416 -0.516 122 93 97
0.43378 -0.13754 -0.529 128 79 82
0.440659 -0.13624 -0.524 195 142 138
0.110871 -0.156357 -0.597 208 162 146
0.157954 -0.160286 -0.612 174 121 103
0.2655 -0.1375 -0.525 159 122 129
0.284104 -0.135405 -0.517 153 116 123
0.292814 -0.134881 -0.515 148 111 118
0.294776 -0.134881 -0.515 148 111 118
0.310471 -0.134881 -0.515 135 105 107
0.312564 -0.134095 -0.512 130 105 101
0.32266 -0.133833 -0.511 212 226 229
0.331743 -0.133571 -0.51 163 177 186
0.347574 -0.13331 -0.509 136 108 105
0.37592 -0.133048 -0.508 127 111 121
0.379043 -0.132786 -0.507 129 97 98
0.385803 -0.132786 -0.507 124 98 97
0.387734 -0.132786 -0.507 128 103 98
0.3887 -0.132786 -0.507 128 103 98
0.402878 -0.134619 -0.514 126 97 99
0.446572 -0.14431 -0.551 64 41 47
0.438294 -0.140643 -0.537 94 55 58
0.4346 -0.13881 -0.53 126 82 81
0.446349 -0.137762 -0.526 179 126 120
0.0985286 -0.159605 -0.605 201 158 142
0.100333 -0.158813 -0.602 204 160 147
0.101143 -0.158286 -0.6 208 165 149
0.265485 -0.14061 -0.533 165 123 133
0.270895 -0.137181 -0.52 157 120 128
0.274329 -0.136917 -0.519 157 120 128
0.290434 -0.136126 -0.516 151 114 121
0.313539 -0.13507 -0.512 133 103 101
0.31682 -0.134807 -0.511 135 101 102
0.320713 -0.134807 -0.511 84 79 83
0.327857 -0.134543 -0.51 164 173 182
0.331743 -0.134543 -0.51 166 179 188
0.339818 -0.134279 -0.509 214 223 232
0.347859 -0.134015 -0.508 136 112 112
0.349794 -0.134015 -0.508 204 183 188
0.358503 -0.134015 -0.508 132 102 102
0.364309 -0.134015 -0.508 139 109 111
0.371317 -0.133751 -0.507 204 195 200
0.376146 -0.133751 -0.507 163 140 146
0.387734 -0.133751 -0.507 126 101 97
0.3887 -0.133751 -0.507 125 100 96
0.390631 -0.133751 -0.507 108 77 75
0.412131 -0.137709 -0.522 98 73 77
0.451183 -0.147206 -0.558 70 47 53
0.450625 -0.146678 -0.556 72 49 55
0.441657 -0.138236 -0.524 194 139 132
0.0928524 -0.167134 -0.629 194 154 142
0.0958571 -0.162086 -0.61 197 155 141
0.0973762 -0.160757 -0.605 199 155 142
0.104049 -0.158631 -0.597 209 166 150
0.111633 -0.1581 -0.595 211 165 149
0.134062 -0.159163 -0.599 196 147 130
0.139089 -0.159694 -0.601 192 141 122
0.14276 -0.15996 -0.602 193 142 123
0.156532 -0.162351 -0.611 167 114 100
0.166835 -0.164477 -0.619 157 105 94
0.175242 -0.166869 -0.628 137 92 87
0.177 -0.1674 -0.63 134 90 87
0.178766 -0.167931 -0.632 132 88 85
0.270374 -0.137906 -0.519 155 118 126
0.304973 -0.136577 -0.514 166 134 137
0.305357 -0.136311 -0.513 143 111 114
0.309638 -0.136046 -0.512 134 104 104
0.331743 -0.135514 -0.51 179 189 198
0.387734 -0.134717 -0.507 125 100 96
0.435833 -0.138969 -0.523 199 141 137
0.442655 -0.139234 -0.524 189 136 132
0.458062 -0.142157 -0.535 153 106 100
0.09328 -0.164853 -0.616 193 154 139
0.0957 -0.16298 -0.609 194 152 138
0.100806 -0.160036 -0.598 203 159 146
0.102739 -0.159501 -0.596 206 162 149
0.166835 -0.165656 -0.619 154 102 91
0.182893 -0.170741 -0.638 123 84 85
0.2635 -0.141035 -0.527 161 119 129
0.263983 -0.139697 -0.522 159 122 129
0.288469 -0.138091 -0.516 151 114 121
0.291833 -0.137824 -0.515 147 110 117
0.297719 -0.137824 -0.515 145 110 114
0.2987 -0.137824 -0.515 145 110 114
0.301057 -0.137556 -0.514 147 112 116
0.304762 -0.137021 -0.512 135 103 106
0.317171 -0.136486 -0.51 126 106 107
0.332062 -0.136218 -0.509 184 193 202
0.349106 -0.135683 -0.507 153 138 145
0.353934 -0.135683 -0.507 155 132 140
0.377111 -0.135683 -0.507 183 167 170
0.378077 -0.135683 -0.507 133 107 108
0.402681 -0.137824 -0.515 122 96 97
0.452009 -0.15067 -0.563 52 31 36
0.433324 -0.140768 -0.526 166 113 107
0.125233 -0.160367 -0.595 203 156 140
0.12885 -0.160636 -0.596 199 150 135
0.13112 -0.160636 -0.596 198 149 134
0.150634 -0.163331 -0.606 169 117 103
0.15486 -0.16414 -0.609 164 112 98
0.166835 -0.166835 -0.619 150 100 89
0.172024 -0.168452 -0.625 138 91 83
0.262496 -0.142039 -0.527 161 121 132
0.2625 -0.1415 -0.525 159 119 130
0.262998 -0.14123 -0.524 158 121 129
0.289451 -0.139074 -0.516 149 113 117
0.292814 -0.138805 -0.515 147 110 117
0.302811 -0.137996 -0.512 151 116 120
0.307087 -0.137727 -0.511 134 102 103
0.308429 -0.137457 -0.51 134 102 103
0.3162 -0.137457 -0.51 138 102 102
0.333031 -0.137188 -0.509 170 174 183
0.338183 -0.136918 -0.508 171 175 184
0.344956 -0.136918 -0.508 106 87 93
0.351037 -0.136649 -0.507 161 141 152
0.355866 -0.136649 -0.507 127 102 105
0.390631 -0.136649 -0.507 133 102 100
0.397607 -0.137727 -0.511 126 96 96
0.434148 -0.142039 -0.527 168 113 110
0.100637 -0.162043 -0.597 203 159 146
0.143668 -0.163129 -0.601 188 137 120
0.149233 -0.164214 -0.605 173 122 105
0.156276 -0.165571 -0.61 159 107 93
0.162243 -0.166929 -0.615 156 103 89
0.167105 -0.168286 -0.62 146 96 85
0.174046 -0.170457 -0.628 130 86 85
0.186129 -0.175071 -0.645 115 79 83
0.262971 -0.141143 -0.52 156 119 126
0.269853 -0.1406 -0.518 154 119 125
0.28889 -0.139786 -0.515 149 113 117
0.293225 -0.139514 -0.514 147 110 117
0.29812 -0.139514 -0.514 145 109 113
0.309763 -0.138157 -0.509 133 104 106
0.317519 -0.138157 -0.509 117 90 95
0.343311 -0.137614 -0.507 111 90 97
0.347174 -0.137614 -0.507 220 204 207
0.364557 -0.137614 -0.507 240 225 230
0.366489 -0.137614 -0.507 235 229 239
0.384078 -0.137343 -0.506 127 97 99
0.389666 -0.137614 -0.507 129 99 99
0.465447 -0.156614 -0.577 67 42 48
0.433672 -0.142229 -0.524 190 131 125
0.433841 -0.141957 -0.523 199 140 134
0.437826 -0.141957 -0.523 197 144 138
0.438822 -0.141957 -0.523 194 144 137
0.44181 -0.141957 -0.523 190 141 134
0.443653 -0.142229 -0.524 178 129 122
0.103351 -0.162087 -0.593 211 168 152
0.108448 -0.161267 -0.59 211 165 150
0.142286 -0.164 -0.6 189 137 123
0.172299 -0.171107 -0.626 135 86 81
0.1758 -0.1722 -0.63 124 79 76
0.261 -0.14268 -0.522 159 119 130
0.272287 -0.141313 -0.517 151 116 122
0.274256 -0.141313 -0.517 150 115 121
0.27864 -0.14104 -0.516 151 116 122
0.296563 -0.14022 -0.513 146 110 114
0.300471 -0.14022 -0.513 148 112 116
0.303193 -0.139673 -0.511 137 102 106
0.326245 -0.139127 -0.509 165 175 184
0.337517 -0.13858 -0.507 172 175 182
0.344277 -0.13858 -0.507 127 106 113
0.347174 -0.13858 -0.507 199 182 188
0.353236 -0.138307 -0.506 133 104 109
0.356831 -0.13858 -0.507 124 99 103
0.362626 -0.13858 -0.507 163 141 144
0.375404 -0.138307 -0.506 143 132 136
0.391597 -0.13858 -0.507 132 102 102
0.447272 -0.149787 -0.548 90 51 54
0.435833 -0.142953 -0.523 193 140 132
0.43683 -0.142953 -0.523 195 142 134
-0.132686 -0.178354 -0.648 198 195 190
-0.126905 -0.178905 -0.65 199 198 193
0.0909257 -0.171749 -0.624 193 155 144
0.0936867 -0.16817 -0.611 193 154 139
0.110695 -0.16239 -0.59 211 165 150
0.11426 -0.162666 -0.591 214 168 153
0.143429 -0.165143 -0.6 179 130 115
0.147591 -0.165969 -0.603 169 118 101
0.162243 -0.169271 -0.615 149 96 80
0.163946 -0.169822 -0.617 148 96 83
0.18018 -0.175327 -0.637 122 76 78
0.182248 -0.176152 -0.64 113 68 75
0.26788 -0.142573 -0.518 155 118 125
0.269332 -0.142298 -0.517 152 115 122
0.275691 -0.142023 -0.516 151 116 122
0.281043 -0.141748 -0.515 153 117 121
0.292246 -0.141472 -0.514 146 109 116
0.297935 -0.140922 -0.512 146 110 114
0.319458 -0.140096 -0.509 54 83 79
0.323669 -0.139821 -0.508 146 159 167
0.352272 -0.13927 -0.506 133 108 114
0.360694 -0.139546 -0.507 130 105 111
0.367693 -0.13927 -0.506 234 230 244
0.387933 -0.13927 -0.506 128 96 97
0.458223 -0.146977 -0.534 150 101 94
0.110508 -0.163237 -0.589 212 166 153
0.12573 -0.164069 -0.592 202 154 140
0.182817 -0.177926 -0.642 119 73 75
0.2595 -0.1455 -0.525 162 122 130
0.266378 -0.143283 -0.517 155 118 126
0.300273 -0.14162 -0.511 144 109 113
0.319458 -0.141066 -0.509 79 81 80
0.324636 -0.140789 -0.508 154 174 183
0.327539 -0.140789 -0.508 171 183 195
0.330442 -0.140789 -0.508 176 186 196
0.357797 -0.140511 -0.507 125 95 103
0.36191 -0.140234 -0.506 236 216 225
0.369852 -0.139957 -0.505 238 227 241
0.370814 -0.139957 -0.505 238 227 241
0.383319 -0.139957 -0.505 125 104 103
0.44259 -0.149934 -0.541 101 65 67
0.440966 -0.144669 -0.522 188 138 127
0.442807 -0.144946 -0.523 186 136 125
0.453781 -0.146886 -0.53 155 110 104
0.457365 -0.147717 -0.533 154 109 103
0.4601 -0.148271 -0.535 157 110 102
0.470083 -0.150489 -0.543 162 114 110
0.472852 -0.151043 -0.545 163 116 106
0.481029 -0.152983 -0.552 164 114 103
0.483827 -0.153537 -0.554 164 114 103
-0.128784 -0.180544 -0.647 199 196 189
-0.12319 -0.181381 -0.65 201 198 193
0.099 -0.165754 -0.594 200 161 144
0.103952 -0.164638 -0.59 209 165 152
0.11144 -0.16408 -0.588 210 167 151
0.116314 -0.164638 -0.59 210 167 151
0.123474 -0.165196 -0.592 204 158 143
0.136796 -0.166312 -0.596 185 138 120
0.16081 -0.171335 -0.614 153 100 92
0.165656 -0.17273 -0.619 146 93 89
0.170833 -0.174405 -0.625 136 87 83
0.259011 -0.145663 -0.522 159 118 126
0.268811 -0.143989 -0.516 153 116 123
0.271233 -0.14371 -0.515 152 115 122
0.272214 -0.14371 -0.515 152 115 122
0.27756 -0.14343 -0.514 150 114 118
0.290288 -0.14343 -0.514 147 110 117
0.298714 -0.142314 -0.51 144 109 113
0.308793 -0.142035 -0.509 138 104 105
0.31461 -0.142035 -0.509 132 100 103
0.315928 -0.141756 -0.508 127 103 103
0.326571 -0.141756 -0.508 168 182 191
0.365043 -0.140919 -0.505 229 229 241
0.366967 -0.140919 -0.505 231 231 243
0.37851 -0.140919 -0.505 120 98 101
0.390631 -0.141477 -0.507 127 99 96
0.47656 -0.16408 -0.588 83 50 57
0.470369 -0.161569 -0.579 74 42 47
0.461981 -0.14957 -0.536 157 110 102
-0.145252 -0.182338 -0.649 192 189 184
-0.143794 -0.182057 -0.648 192 189 184
-0.138 -0.180933 -0.644 193 193 185
-0.129815 -0.181495 -0.646 197 197 189
-0.124429 -0.182619 -0.65 200 197 192
0.0903429 -0.17419 -0.62 196 157 142
0.11256 -0.1652 -0.588 210 167 151
0.119686 -0.165762 -0.59 208 162 147
0.140672 -0.16801 -0.598 178 131 115
0.158212 -0.172224 -0.613 153 98 91
0.2595 -0.145814 -0.519 156 116 124
0.26196 -0.145533 -0.518 157 117 125
0.292654 -0.144129 -0.513 146 111 117
0.293631 -0.144129 -0.513 145 110 116
0.309763 -0.143005 -0.509 138 99 100
0.320766 -0.142724 -0.508 212 217 220
0.323669 -0.142724 -0.508 129 148 155
0.324636 -0.142724 -0.508 69 88 95
0.335888 -0.142162 -0.506 208 211 216
0.336851 -0.142162 -0.506 234 233 238
0.337815 -0.142162 -0.506 228 227 232
0.341957 -0.141881 -0.505 130 113 121
0.357091 -0.142162 -0.506 119 96 102
0.360233 -0.141881 -0.505 226 214 224
0.433841 -0.146938 -0.523 197 144 138
0.436151 -0.146376 -0.521 199 144 137
0.467486 -0.151714 -0.54 159 111 109
-0.128585 -0.182726 -0.646 197 197 189
0.0913867 -0.18216 -0.644 191 152 137
0.104542 -0.166037 -0.587 210 166 153
0.106596 -0.165754 -0.586 208 164 151
0.11592 -0.16632 -0.588 209 163 148
0.152039 -0.171694 -0.607 158 106 95
0.169643 -0.176786 -0.625 132 83 79
0.25842 -0.150197 -0.531 160 120 129
0.257023 -0.147651 -0.522 160 120 129
0.269271 -0.145671 -0.515 152 116 120
0.270252 -0.145671 -0.515 152 115 122
0.31109 -0.143691 -0.508 139 100 101
0.3672 -0.14256 -0.504 232 228 242
0.36816 -0.14256 -0.504 230 226 240
0.37584 -0.14256 -0.504 224 221 230
0.37776 -0.14256 -0.504 195 178 184
0.37968 -0.14256 -0.504 129 103 106
0.398962 -0.145389 -0.514 92 70 72
0.44196 -0.147651 -0.522 186 133 125
0.4475 -0.1485 -0.525 175 125 118
-0.142463 -0.182817 -0.642 194 191 186
0.09222 -0.17342 -0.609 195 151 140
0.0977038 -0.168864 -0.593 202 158 147
0.10548 -0.16687 -0.586 210 164 151
0.128894 -0.168294 -0.591 200 153 137
0.140437 -0.170003 -0.597 178 130 116
0.150634 -0.172566 -0.606 157 104 96
0.161333 -0.175413 -0.616 144 93 89
0.260973 -0.147507 -0.518 156 119 126
0.284413 -0.146368 -0.514 148 113 119
0.288746 -0.146083 -0.513 147 112 118
0.307219 -0.144659 -0.508 135 103 106
0.329791 -0.144374 -0.507 162 177 184
0.336851 -0.14409 -0.506 220 218 223
0.345805 -0.143805 -0.505 223 204 210
0.351309 -0.14409 -0.506 128 103 107
0.357348 -0.143805 -0.505 121 98 104
0.440121 -0.148361 -0.521 188 135 127
0.451212 -0.15007 -0.527 164 114 107
0.465754 -0.153202 -0.538 157 109 107
-0.148043 -0.1849 -0.645 190 187 180
-0.136136 -0.183753 -0.641 197 194 189
0.10041 -0.168847 -0.589 209 163 150
0.116841 -0.168273 -0.587 207 161 146
0.135206 -0.17028 -0.594 181 134 116
0.1462 -0.172573 -0.602 156 106 95
0.150634 -0.17372 -0.606 153 100 92
0.256029 -0.14964 -0.522 159 122 130
0.26829 -0.147633 -0.515 152 117 121
0.274623 -0.147347 -0.514 151 116 122
0.28386 -0.14706 -0.513 148 113 119
0.306251 -0.145627 -0.508 133 101 104
0.32786 -0.14534 -0.507 134 153 159
0.336851 -0.145053 -0.506 166 161 167
0.341957 -0.144767 -0.505 217 200 208
0.360233 -0.144767 -0.505 236 230 240
0.36336 -0.14448 -0.504 228 228 240
0.37392 -0.14448 -0.504 233 233 245
0.37488 -0.14448 -0.504 224 224 236
0.446648 -0.150213 -0.524 182 132 123
0.462138 -0.153367 -0.535 164 116 112
-0.139581 -0.184686 -0.64 193 192 187
-0.134111 -0.185551 -0.643 194 194 186
0.0909105 -0.175451 -0.608 197 153 142
0.0941286 -0.172854 -0.599 202 156 143
0.101188 -0.169391 -0.587 210 164 151
0.102131 -0.169103 -0.586 211 165 152
0.104008 -0.168526 -0.584 210 164 151
0.10512 -0.168526 -0.584 211 165 152
0.10957 -0.168526 -0.584 208 162 147
0.1131 -0.168814 -0.585 208 162 147
0.166459 -0.179491 -0.622 132 83 79
0.261454 -0.149191 -0.517 151 119 124
0.266846 -0.148903 -0.516 151 116 122
0.28386 -0.148037 -0.513 148 113 119
0.292487 -0.14746 -0.511 145 110 116
0.293857 -0.147171 -0.51 144 109 115
0.310122 -0.146594 -0.508 136 101 105
0.31109 -0.146594 -0.508 136 101 105
0.316271 -0.146306 -0.507 135 100 104
0.328177 -0.146017 -0.506 186 205 209
0.331069 -0.146017 -0.506 146 164 168
0.434148 -0.152077 -0.527 167 114 108
0.464889 -0.154963 -0.537 158 113 108
-0.1408 -0.185905 -0.64 191 191 183
-0.136136 -0.186195 -0.641 195 195 187
0.08976 -0.178933 -0.616 201 155 142
0.10494 -0.169348 -0.583 208 164 151
0.128676 -0.171381 -0.59 197 152 133
0.134978 -0.172252 -0.593 181 136 117
0.1722 -0.183 -0.63 124 78 80
0.259 -0.150467 -0.518 154 119 125
0.265863 -0.149886 -0.516 151 116 120
0.271686 -0.149305 -0.514 149 117 120
0.288183 -0.148724 -0.512 146 111 117
0.292487 -0.148433 -0.511 144 109 115
0.301413 -0.147562 -0.508 139 107 110
0.304316 -0.147562 -0.508 134 102 105
0.30758 -0.147271 -0.507 135 103 106
0.316271 -0.147271 -0.507 138 99 102
0.318203 -0.147271 -0.507 129 98 103
0.325286 -0.146981 -0.506 151 161 170
0.330105 -0.146981 -0.506 172 186 189
0.334262 -0.14669 -0.505 182 180 185
0.335224 -0.14669 -0.505 144 142 147
0.33811 -0.14669 -0.505 126 106 115
0.36816 -0.1464 -0.504 229 225 239
0.37104 -0.1464 -0.504 236 234 248
0.3768 -0.1464 -0.504 174 163 171
0.3816 -0.1464 -0.504 83 61 63
0.38697 -0.146981 -0.506 120 89 94
0.458699 -0.163248 -0.562 110 64 66
-0.138578 -0.187416 -0.641 194 193 188
-0.135336 -0.188001 -0.643 196 195 190
0.0978333 -0.171628 -0.587 206 160 147
0.105869 -0.170166 -0.582 208 162 149
0.109382 -0.170458 -0.583 207 163 150
0.115329 -0.171043 -0.585 203 159 146
0.130924 -0.172505 -0.59 183 138 119
0.2585 -0.151161 -0.517 154 119 126
0.281356 -0.149699 -0.512 145 113 118
0.305649 -0.148237 -0.507 139 104 108
0.306614 -0.148237 -0.507 139 104 108
0.316611 -0.147945 -0.506 129 97 100
0.317575 -0.147945 -0.506 132 100 103
0.32849 -0.147652 -0.505 199 210 214
0.332338 -0.147652 -0.505 113 114 118
0.36432 -0.14736 -0.504 226 215 229
0.3672 -0.14736 -0.504 235 229 241
0.37872 -0.14736 -0.504 112 89 95
0.49069 -0.162856 -0.557 141 96 90
-0.152009 -0.188637 -0.641 186 185 180
-0.146666 -0.188049 -0.639 188 188 180
0.0944743 -0.174806 -0.594 207 161 148
0.10476 -0.171274 -0.582 207 161 148
0.12958 -0.173334 -0.589 189 144 125
0.168722 -0.184223 -0.626 125 84 80
0.27886 -0.15038 -0.511 145 113 118
0.279833 -0.15038 -0.511 144 112 117
0.303349 -0.149497 -0.508 136 104 109
0.326567 -0.148614 -0.505 175 170 176
0.331376 -0.148614 -0.505 130 126 127
0.34224 -0.14832 -0.504 180 161 167
0.34416 -0.14832 -0.504 133 112 119
0.34704 -0.14832 -0.504 128 98 106
0.348 -0.14832 -0.504 128 98 106
0.34992 -0.14832 -0.504 128 101 108
0.36432 -0.14832 -0.504 153 133 142
0.404951 -0.153911 -0.523 78 66 68
0.45494 -0.155677 -0.529 148 99 94
-0.150082 -0.18897 -0.638 188 187 182
-0.134529 -0.191043 -0.645 195 195 187
0.121107 -0.173568 -0.586 202 159 143
0.130702 -0.174456 -0.589 182 137 116
0.139067 -0.17653 -0.596 168 120 106
0.144812 -0.17801 -0.601 148 101 91
0.182057 -0.191931 -0.648 116 77 80
0.251454 -0.156092 -0.527 160 118 132
0.281356 -0.15165 -0.512 143 111 116
0.285673 -0.151353 -0.511 143 111 116
0.323681 -0.149576 -0.505 131 111 120
0.32849 -0.149576 -0.505 146 132 132
0.340603 -0.148984 -0.503 209 189 198
0.355932 -0.148984 -0.503 131 101 109
0.360723 -0.148984 -0.503 126 101 107
0.364555 -0.148984 -0.503 120 101 107
0.36743 -0.148984 -0.503 161 144 150
0.447646 -0.155204 -0.524 155 105 98
0.479797 -0.162016 -0.547 146 97 92
0.486286 -0.163497 -0.552 146 93 89
-0.155914 -0.191377 -0.642 185 184 179
-0.151297 -0.190185 -0.638 187 186 181
-0.141797 -0.190483 -0.639 191 191 183
0.0894571 -0.180646 -0.606 199 153 138
0.0982771 -0.17379 -0.583 207 161 148
0.0992171 -0.173491 -0.582 208 162 149
0.102367 -0.173193 -0.581 206 160 147
0.1044 -0.172895 -0.58 208 162 149
0.109007 -0.173193 -0.581 210 164 151
0.11252 -0.173491 -0.582 210 164 151
0.154205 -0.182136 -0.611 129 88 84
0.156131 -0.18303 -0.614 128 87 83
0.16409 -0.185415 -0.622 119 82 76
0.255051 -0.153817 -0.516 156 118 129
0.272134 -0.152923 -0.513 150 115 121
0.27453 -0.152625 -0.512 149 114 120
0.280807 -0.152327 -0.511 144 112 115
0.287057 -0.152029 -0.51 144 109 113
0.295608 -0.151432 -0.508 143 108 112
0.304683 -0.151134 -0.507 139 104 108
0.318871 -0.150538 -0.505 135 103 106
0.321757 -0.150538 -0.505 132 101 106
0.326567 -0.150538 -0.505 139 108 113
0.331376 -0.150538 -0.505 134 110 110
0.337729 -0.149942 -0.503 236 219 225
0.344435 -0.149942 -0.503 126 99 106
0.34731 -0.149942 -0.503 125 98 105
0.348268 -0.149942 -0.503 126 99 104
0.3521 -0.149942 -0.503 125 100 104
0.359765 -0.149942 -0.503 124 97 102
0.385042 -0.150836 -0.506 118 98 99
0.524798 -0.19257 -0.646 130 91 92
0.438431 -0.154711 -0.519 184 129 122
0.473347 -0.161568 -0.542 155 102 98
0.100153 -0.1743 -0.581 209 163 150
0.10219 -0.174 -0.58 207 161 148
0.125571 -0.1758 -0.586 195 150 131
0.153041 -0.1833 -0.611 129 90 85
0.250926 -0.1584 -0.528 154 119 126
0.249614 -0.1557 -0.519 154 118 128
0.258481 -0.1545 -0.515 152 117 124
0.27453 -0.1536 -0.512 148 113 117
0.28178 -0.1533 -0.511 143 111 114
0.303118 -0.1518 -0.506 139 104 108
0.307937 -0.1518 -0.506 139 103 107
0.312138 -0.1515 -0.505 136 101 105
0.33456 -0.1512 -0.504 131 102 107
0.341561 -0.1509 -0.503 129 108 115
0.342519 -0.1509 -0.503 128 102 111
0.359765 -0.1509 -0.503 124 98 101
0.37222 -0.1509 -0.503 130 107 113
0.374136 -0.1509 -0.503 126 103 109
0.378927 -0.1509 -0.503 97 70 75
0.4325 -0.1557 -0.519 201 143 132
0.434627 -0.1554 -0.518 190 133 124
0.435613 -0.1554 -0.518 190 133 124
0.452216 -0.1581 -0.527 137 90 84
0.478043 -0.1635 -0.545 149 102 96
-0.145221 -0.192615 -0.638 189 189 181
0.100153 -0.175407 -0.581 209 163 150
0.101086 -0.175105 -0.58 207 161 148
0.103117 -0.174803 -0.579 208 162 149
0.250393 -0.159708 -0.529 153 120 129
0.251607 -0.156085 -0.517 155 119 129
0.27018 -0.154877 -0.513 151 116 122
0.271157 -0.154877 -0.513 151 116 122
0.286494 -0.15367 -0.509 142 107 111
0.30082 -0.153066 -0.507 134 99 103
0.314062 -0.152462 -0.505 136 102 103
0.324643 -0.152462 -0.505 140 105 111
0.3336 -0.15216 -0.504 131 100 108
0.342519 -0.151858 -0.503 127 97 105
0.371262 -0.151858 -0.503 123 98 102
0.37222 -0.151858 -0.503 128 101 106
0.496209 -0.187483 -0.621 91 68 74
0.435613 -0.156387 -0.518 188 133 126
0.475254 -0.163934 -0.543 149 104 98
-0.160806 -0.195046 -0.642 182 181 176
-0.155913 -0.193527 -0.637 185 182 175
0.0999809 -0.17621 -0.58 211 165 152
0.116954 -0.176817 -0.582 208 162 149
0.126688 -0.178032 -0.586 190 145 126
0.171417 -0.193223 -0.636 122 84 83
0.249025 -0.159196 -0.524 154 118 128
0.259462 -0.156462 -0.515 149 116 123
0.266271 -0.155854 -0.513 150 115 121
0.295026 -0.154031 -0.507 145 109 113
0.299263 -0.153728 -0.506 137 101 105
0.3288 -0.15312 -0.504 133 99 100
0.345393 -0.152816 -0.503 122 91 96
0.359765 -0.152816 -0.503 127 97 99
0.361681 -0.152816 -0.503 124 94 96
0.369346 -0.152816 -0.503 124 95 99
0.483933 -0.185324 -0.61 85 60 66
0.43119 -0.158285 -0.521 203 145 134
0.443098 -0.158285 -0.521 145 95 88
-0.15834 -0.19474 -0.637 182 181 176
-0.146666 -0.195351 -0.639 191 188 179
0.09352 -0.17976 -0.588 208 162 146
0.112133 -0.177314 -0.58 210 164 151
0.13048 -0.17976 -0.588 174 127 109
0.140437 -0.182511 -0.597 143 99 86
0.152126 -0.187097 -0.612 125 84 80
0.270629 -0.156526 -0.512 148 113 119
0.272579 -0.156526 -0.512 147 112 116
0.29464 -0.155303 -0.508 143 107 109
0.297923 -0.154997 -0.507 143 107 109
0.305405 -0.154386 -0.505 136 100 102
0.307329 -0.154386 -0.505 136 100 102
0.32208 -0.15408 -0.504 134 102 103
0.32784 -0.15408 -0.504 134 102 103
0.349488 -0.153469 -0.502 129 97 100
0.360723 -0.153774 -0.503 127 97 99
0.370304 -0.153774 -0.503 125 99 102
0.431136 -0.161111 -0.527 164 119 116
0.431511 -0.158666 -0.519 196 142 132
0.43942 -0.158666 -0.519 159 109 100
0.45408 -0.161417 -0.528 120 75 69
-0.153005 -0.195338 -0.635 187 187 179
-0.144683 -0.197184 -0.641 190 190 180
-0.139443 -0.198414 -0.645 193 193 183
-0.138429 -0.198722 -0.646 193 193 183
-0.13741 -0.19903 -0.647 194 194 184
-0.135363 -0.199645 -0.649 195 192 183
0.116753 -0.178727 -0.581 206 160 145
0.134523 -0.181803 -0.591 158 112 89
0.148815 -0.187032 -0.608 128 87 83
0.172765 -0.197184 -0.641 114 79 77
0.17712 -0.199337 -0.648 127 87 85
0.249133 -0.159347 -0.518 151 116 123
0.25112 -0.158731 -0.516 151 115 125
0.260409 -0.157809 -0.513 150 118 123
0.264777 -0.157501 -0.512 148 113 119
0.266728 -0.157501 -0.512 148 113 119
0.27302 -0.157193 -0.511 147 112 116
0.286899 -0.15627 -0.508 142 108 109
0.295991 -0.155963 -0.507 151 115 117
0.299263 -0.155655 -0.506 137 101 103
0.305405 -0.155348 -0.505 135 99 101
0.32208 -0.15504 -0.504 133 101 102
0.32304 -0.15504 -0.504 128 100 99
0.32496 -0.15504 -0.504 128 100 99
0.32976 -0.15504 -0.504 135 101 102
0.33168 -0.15504 -0.504 134 99 103
0.33264 -0.15504 -0.504 132 97 101
0.335812 -0.154732 -0.503 235 218 226
0.339645 -0.154732 -0.503 129 104 108
0.347575 -0.154425 -0.502 130 95 99
0.374349 -0.154425 -0.502 122 87 91
0.495363 -0.189801 -0.617 58 29 31
0.4305 -0.1615 -0.525 180 130 123
0.430029 -0.160577 -0.522 197 142 135
0.4366 -0.159347 -0.518 173 121 110
0.45408 -0.162423 -0.528 118 73 67
0.4697 -0.165807 -0.539 155 105 98
-0.162743 -0.198095 -0.64 180 180 172
-0.144909 -0.198714 -0.642 191 191 181
0.0972657 -0.178595 -0.577 210 164 151
0.110837 -0.179214 -0.579 207 161 148
0.125143 -0.180762 -0.584 190 145 124
0.144146 -0.186643 -0.603 134 91 84
0.156224 -0.191595 -0.619 120 80 78
0.276913 -0.158167 -0.511 144 110 111
0.30119 -0.156619 -0.506 135 101 102
0.31248 -0.156 -0.504 135 100 104
0.31824 -0.156 -0.504 136 101 105
0.345929 -0.155071 -0.501 126 95 100
0.347837 -0.155071 -0.501 126 97 101
0.352609 -0.155071 -0.501 126 97 101
0.376052 -0.15569 -0.503 126 92 93
0.489446 -0.190048 -0.614 54 29 35
0.491414 -0.190357 -0.615 42 17 23
0.49126 -0.1885 -0.609 89 54 60
0.430362 -0.160952 -0.52 197 142 137
0.430523 -0.160643 -0.519 200 145 140
0.431667 -0.160333 -0.518 195 140 135
0.456809 -0.164048 -0.53 128 84 75
0.467804 -0.166524 -0.538 152 105 99
0.4697 -0.166833 -0.539 156 109 101
-0.160514 -0.198069 -0.636 182 182 174
-0.147883 -0.199003 -0.639 190 190 182
0.0875552 -0.192151 -0.617 204 158 143
0.0885943 -0.189349 -0.608 201 155 140
0.0895648 -0.186546 -0.599 197 151 136
0.10368 -0.179383 -0.576 206 160 147
0.108256 -0.179694 -0.577 211 165 152
0.114343 -0.180629 -0.58 204 160 147
0.12028 -0.181251 -0.582 200 155 136
0.121389 -0.181251 -0.582 196 151 132
0.144146 -0.187791 -0.603 131 88 82
0.253086 -0.160697 -0.516 150 118 123
0.26426 -0.15914 -0.511 149 114 120
0.277343 -0.158829 -0.51 143 109 110
0.280677 -0.158517 -0.509 144 110 111
0.325273 -0.156649 -0.503 132 97 101
0.329106 -0.156649 -0.503 135 99 103
0.342794 -0.156337 -0.502 126 95 100
0.34375 -0.156337 -0.502 126 95 100
0.351654 -0.156026 -0.501 126 97 101
0.436454 -0.161631 -0.519 177 121 106
0.437443 -0.161631 -0.519 177 121 106
0.477323 -0.169106 -0.543 149 106 99
0.0980238 -0.180167 -0.575 211 165 152
0.101133 -0.179853 -0.574 208 162 149
0.110646 -0.181107 -0.578 207 161 148
0.12118 -0.182047 -0.581 196 150 134
0.13475 -0.185493 -0.592 154 106 96
0.14276 -0.188627 -0.602 133 92 86
0.153369 -0.193327 -0.617 117 83 84
0.168838 -0.200533 -0.64 126 87 90
0.17315 -0.202727 -0.647 123 89 88
0.252591 -0.161993 -0.517 147 115 120
0.259431 -0.16074 -0.513 147 112 118
0.274429 -0.1598 -0.51 144 109 113
0.283996 -0.159173 -0.508 142 108 109
0.297335 -0.158547 -0.506 136 101 105
0.325273 -0.157607 -0.503 130 98 99
0.334854 -0.157607 -0.503 224 207 213
0.339926 -0.157293 -0.502 129 98 103
0.353563 -0.15698 -0.501 126 97 101
0.361197 -0.15698 -0.501 120 91 95
0.370524 -0.157293 -0.502 122 93 95
0.437443 -0.16262 -0.519 174 121 107
0.445795 -0.163873 -0.523 133 84 77
-0.170685 -0.203959 -0.647 176 176 166
-0.162937 -0.200491 -0.636 181 181 171
0.102227 -0.180947 -0.574 207 161 148
0.139533 -0.188512 -0.598 139 96 87
0.250393 -0.166761 -0.529 114 97 107
0.2754 -0.160771 -0.51 143 108 112
0.279708 -0.160456 -0.509 142 108 109
0.29904 -0.15888 -0.504 135 101 102
0.30192 -0.15888 -0.504 135 101 102
0.315692 -0.158565 -0.503 132 100 101
0.333232 -0.15825 -0.502 156 139 147
0.352609 -0.157934 -0.501 126 95 100
0.361197 -0.157934 -0.501 118 89 93
0.362151 -0.157934 -0.501 118 89 93
0.365014 -0.157934 -0.501 124 95 99
0.480857 -0.192926 -0.612 68 51 57
0.489487 -0.194502 -0.617 61 40 47
0.490615 -0.193556 -0.614 50 25 31
0.435436 -0.168968 -0.536 151 112 105
0.431571 -0.167076 -0.53 165 126 119
0.440267 -0.163924 -0.52 153 100 86
0.45494 -0.166761 -0.529 115 75 65
0.475411 -0.170859 -0.542 146 108 97
-0.148114 -0.202971 -0.64 189 189 179
-0.147125 -0.203289 -0.641 189 189 179
0.107881 -0.182357 -0.575 208 164 151
0.11505 -0.183309 -0.578 205 159 146
0.137931 -0.189017 -0.596 141 99 87
0.146499 -0.192823 -0.608 116 85 80
0.250926 -0.167451 -0.528 113 97 110
0.252076 -0.164914 -0.52 101 74 81
0.25258 -0.164597 -0.519 98 71 78
0.255051 -0.163646 -0.516 137 106 111
0.279158 -0.161109 -0.508 140 108 111
0.283029 -0.161109 -0.508 139 107 110
0.328451 -0.159206 -0.502 131 103 102
0.343066 -0.158889 -0.501 126 95 100
0.365014 -0.158889 -0.501 121 91 93
0.365969 -0.158889 -0.501 127 97 99
0.376052 -0.159523 -0.503 124 94 96
0.37701 -0.159523 -0.503 125 94 99
0.489103 -0.195994 -0.618 70 49 56
0.428682 -0.166183 -0.524 178 135 126
0.42886 -0.165866 -0.523 191 144 134
0.4485 -0.1665 -0.525 132 84 74
0.462291 -0.169354 -0.534 144 97 91
0.468829 -0.170623 -0.538 148 110 99
-0.163632 -0.202276 -0.634 181 179 167
-0.162425 -0.202276 -0.634 183 180 173
-0.146359 -0.205148 -0.643 191 188 179
0.0920886 -0.184729 -0.579 210 164 149
0.0945733 -0.183133 -0.574 211 168 152
0.0986019 -0.182495 -0.572 210 164 151
0.131376 -0.187281 -0.587 155 107 95
0.252827 -0.169733 -0.532 98 85 102
0.252019 -0.167181 -0.524 115 94 103
0.255053 -0.165267 -0.518 100 74 83
0.259431 -0.163671 -0.513 145 110 114
0.261851 -0.163352 -0.512 145 111 112
0.272921 -0.162395 -0.509 144 109 113
0.291552 -0.161438 -0.506 146 111 115
0.397978 -0.166862 -0.523 54 38 41
0.431571 -0.169095 -0.53 169 132 124
0.429371 -0.165905 -0.52 197 147 138
0.429534 -0.165586 -0.519 195 143 132
0.433489 -0.165586 -0.519 185 131 119
0.434477 -0.165586 -0.519 182 128 116
0.451212 -0.168138 -0.527 132 88 79
0.462291 -0.170371 -0.534 142 97 91
0.466934 -0.171329 -0.537 144 104 96
-0.168047 -0.204447 -0.637 176 176 168
-0.14256 -0.207977 -0.648 188 190 177
0.0878657 -0.193534 -0.603 198 152 139
0.12715 -0.187115 -0.583 167 119 105
0.132946 -0.189041 -0.589 147 98 91
0.134523 -0.189683 -0.591 147 98 91
0.254527 -0.167858 -0.523 105 87 99
0.254546 -0.167216 -0.521 100 82 94
0.259937 -0.16497 -0.514 141 109 112
0.262827 -0.164328 -0.512 144 109 113
0.2686 -0.163686 -0.51 143 108 112
0.296748 -0.162081 -0.505 135 100 104
0.300595 -0.162081 -0.505 133 99 100
0.34402 -0.160797 -0.501 125 94 99
0.345929 -0.160797 -0.501 126 95 100
0.34619 -0.160476 -0.5 125 96 100
0.372649 -0.160797 -0.501 122 96 99
0.493431 -0.19867 -0.619 102 81 90
0.0923867 -0.18532 -0.574 214 166 154
0.0951667 -0.184351 -0.571 210 162 148
0.0973419 -0.184351 -0.571 209 163 150
0.153673 -0.20114 -0.623 111 81 83
0.30096 -0.16272 -0.504 131 99 100
0.30707 -0.162397 -0.503 131 99 100
0.308986 -0.162397 -0.503 132 101 99
0.319209 -0.161751 -0.501 135 103 104
0.324934 -0.161751 -0.501 133 102 100
0.327797 -0.161751 -0.501 122 96 97
0.334477 -0.161751 -0.501 130 99 107
0.340203 -0.161751 -0.501 127 96 101
0.35 -0.161429 -0.5 126 97 101
0.355714 -0.161429 -0.5 124 94 96
0.357619 -0.161429 -0.5 123 92 97
0.495026 -0.200494 -0.621 104 82 95
0.479967 -0.1921 -0.595 93 63 65
0.42804 -0.168531 -0.522 196 149 139
0.442954 -0.168531 -0.522 146 98 86
-0.302249 -0.21077 -0.649 251 252 246
-0.156387 -0.205899 -0.634 184 184 174
-0.151771 -0.207848 -0.64 188 188 176
0.10278 -0.185439 -0.571 209 163 150
0.110973 -0.186413 -0.574 204 161 145
0.121866 -0.188037 -0.579 181 135 119
0.147704 -0.199079 -0.613 113 79 78
0.154167 -0.202976 -0.625 115 81 80
0.257477 -0.17115 -0.527 99 89 100
0.257515 -0.16985 -0.523 102 89 98
0.261895 -0.166928 -0.514 149 119 127
0.281506 -0.164654 -0.507 141 107 108
0.289625 -0.16433 -0.506 147 112 116
0.29904 -0.16368 -0.504 134 100 101
0.30192 -0.16368 -0.504 133 99 100
0.313152 -0.16303 -0.502 137 103 104
0.319209 -0.162706 -0.501 134 100 101
0.354762 -0.162381 -0.5 124 94 94
0.364508 -0.162056 -0.499 160 138 141
0.374349 -0.16303 -0.502 127 95 100
0.486076 -0.196156 -0.604 67 35 40
0.42804 -0.169526 -0.522 195 147 135
-0.295155 -0.211353 -0.647 251 252 247
-0.293923 -0.211353 -0.647 252 253 248
-0.165786 -0.20678 -0.633 183 180 173
-0.155669 -0.20776 -0.636 184 184 174
-0.145029 -0.21168 -0.648 188 188 176
-0.144016 -0.212007 -0.649 189 189 177
0.108408 -0.186853 -0.572 207 164 148
0.115548 -0.187833 -0.575 197 152 133
0.262874 -0.167907 -0.514 129 106 114
0.2686 -0.1666 -0.51 139 109 111
0.271951 -0.166273 -0.509 141 109 114
0.28054 -0.16562 -0.507 142 107 111
0.288661 -0.165293 -0.506 141 106 110
0.293862 -0.164967 -0.505 136 102 103
0.302279 -0.164313 -0.503 133 99 100
0.335714 -0.163333 -0.5 130 98 103
0.341429 -0.163333 -0.5 129 94 98
0.355714 -0.163333 -0.5 124 94 96
-0.314387 -0.212257 -0.646 252 253 248
-0.291123 -0.213243 -0.649 251 252 246
-0.171544 -0.210614 -0.641 179 179 167
-0.168463 -0.208314 -0.634 181 181 171
0.0902 -0.1886 -0.574 210 164 151
0.0991686 -0.186957 -0.569 211 165 150
0.1026 -0.187286 -0.57 207 164 148
0.116643 -0.188929 -0.575 196 150 134
0.12715 -0.191557 -0.583 158 114 103
0.133397 -0.194186 -0.591 141 97 86
0.260949 -0.169543 -0.516 93 70 78
0.270543 -0.167571 -0.51 136 106 108
0.284403 -0.166586 -0.507 139 105 106
0.298447 -0.165271 -0.503 134 100 101
0.315391 -0.164614 -0.501 135 101 102
0.354762 -0.164286 -0.5 124 94 96
0.427864 -0.171843 -0.523 191 144 136
0.429534 -0.170529 -0.519 191 141 132
0.450209 -0.173157 -0.527 129 86 79
-0.313413 -0.212827 -0.644 251 252 247
-0.308771 -0.212166 -0.642 250 251 246
-0.14727 -0.213818 -0.647 190 188 176
-0.0438848 -0.214479 -0.649 84 81 88
0.0935848 -0.18771 -0.568 211 165 149
0.0989943 -0.18771 -0.568 209 163 148
0.112766 -0.189032 -0.572 201 158 141
0.117738 -0.190024 -0.575 192 149 132
0.135433 -0.196633 -0.595 135 91 80
0.260973 -0.171187 -0.518 101 84 90
0.281506 -0.167551 -0.507 141 106 110
0.297489 -0.16623 -0.503 134 100 101
0.299405 -0.16623 -0.503 133 99 100
0.30359 -0.165899 -0.502 132 98 99
0.316346 -0.165569 -0.501 134 100 101
0.32398 -0.165569 -0.501 133 98 102
0.324934 -0.165569 -0.501 130 98 101
0.329706 -0.165569 -0.501 134 99 103
0.342381 -0.165238 -0.5 128 93 97
0.347143 -0.165238 -0.5 127 95 98
0.351905 -0.165238 -0.5 126 94 97
0.362607 -0.164908 -0.499 118 91 96
0.430523 -0.171517 -0.519 182 134 124
0.439129 -0.172178 -0.521 147 92 85
0.448352 -0.17383 -0.526 130 87 80
0.452069 -0.174491 -0.528 128 85 79
0.471753 -0.178127 -0.539 145 97 95
0.474534 -0.178788 -0.541 145 97 95
-0.168197 -0.210397 -0.633 183 181 168
-0.165262 -0.209732 -0.631 184 182 170
-0.158802 -0.21073 -0.634 184 184 174
0.09774 -0.18846 -0.567 210 162 148
0.104588 -0.189125 -0.569 209 163 147
0.106943 -0.189457 -0.57 206 160 144
0.111481 -0.18979 -0.571 203 157 141
0.2625 -0.1745 -0.525 106 95 103
0.278609 -0.168517 -0.507 141 106 110
0.28095 -0.168185 -0.506 141 106 110
0.295572 -0.167188 -0.503 135 101 102
0.29653 -0.167188 -0.503 134 100 101
0.314762 -0.16619 -0.5 135 101 102
0.319209 -0.166523 -0.501 134 100 101
0.336944 -0.165858 -0.499 131 96 100
0.347399 -0.165858 -0.499 128 96 99
0.354052 -0.165858 -0.499 126 95 93
0.357854 -0.165858 -0.499 125 96 100
0.430562 -0.176162 -0.53 175 135 125
0.468829 -0.178821 -0.538 145 96 89
-0.313174 -0.214277 -0.641 242 243 237
-0.305371 -0.213943 -0.64 175 176 171
-0.302933 -0.213943 -0.64 175 176 171
-0.286178 -0.216951 -0.649 251 252 247
-0.159757 -0.211603 -0.633 184 184 174
-0.155913 -0.21294 -0.637 186 186 176
-0.15421 -0.213943 -0.64 186 186 174
0.0865733 -0.20124 -0.602 206 158 146
0.0904981 -0.190209 -0.569 217 171 155
0.109114 -0.190543 -0.57 201 155 139
0.120137 -0.192549 -0.576 177 134 117
0.267477 -0.179511 -0.537 63 52 66
0.264443 -0.173494 -0.519 103 83 95
0.276255 -0.169817 -0.508 141 111 113
0.28848 -0.16848 -0.504 138 104 105
0.304894 -0.167477 -0.501 133 98 102
0.318571 -0.167143 -0.5 134 100 101
0.337894 -0.166809 -0.499 128 96 99
0.352151 -0.166809 -0.499 129 95 94
0.355003 -0.166809 -0.499 127 93 92
0.356904 -0.166809 -0.499 126 94 95
0.366409 -0.166809 -0.499 124 103 110
0.433489 -0.173494 -0.519 168 111 100
0.44565 -0.175166 -0.524 131 84 76
0.45479 -0.177171 -0.53 127 82 77
0.458533 -0.17784 -0.532 129 81 79
0.481 -0.18252 -0.546 143 94 89
-0.306111 -0.214826 -0.639 144 145 140
-0.298057 -0.215162 -0.64 147 147 145
-0.291651 -0.215834 -0.642 255 255 251
-0.155186 -0.214826 -0.639 185 187 176
-0.0486038 -0.217179 -0.646 70 69 74
0.0954114 -0.190284 -0.566 214 167 151
0.0964895 -0.190284 -0.566 213 166 150
0.0975676 -0.190284 -0.566 211 163 149
0.124286 -0.19499 -0.58 157 115 103
0.145843 -0.206757 -0.615 113 79 80
0.14821 -0.208438 -0.62 113 79 80
0.277223 -0.170785 -0.508 143 108 112
0.278609 -0.170449 -0.507 143 108 112
0.285205 -0.169776 -0.505 150 116 117
0.297853 -0.168768 -0.502 133 99 100
0.300722 -0.168768 -0.502 133 99 100
0.301678 -0.168768 -0.502 132 98 99
0.309048 -0.168095 -0.5 137 103 104
0.341696 -0.167759 -0.499 127 95 98
0.352151 -0.167759 -0.499 128 93 97
0.353102 -0.167759 -0.499 130 95 99
0.360706 -0.167759 -0.499 183 160 166
0.381286 -0.171457 -0.51 83 58 64
0.439129 -0.175155 -0.521 141 88 80
0.452069 -0.177509 -0.528 128 83 78
0.462291 -0.179526 -0.534 136 91 85
0.479081 -0.183224 -0.545 139 95 84
