ply
format ascii 1.0
comment Created by Open3D
element vertex 1292
property double x
property double y
property double z
property uchar red
property uchar green
property uchar blue
end_header
0.32232 -0.385269 -0.612 213 211 225
0.333431 -0.384639 -0.611 186 183 192
0.340971 -0.385269 -0.612 202 206 218
0.342137 -0.385269 -0.612 200 204 216
0.357291 -0.385269 -0.612 111 117 149
0.373611 -0.385269 -0.612 151 182 226
0.384103 -0.385269 -0.612 111 126 165
0.400423 -0.385269 -0.612 185 182 193
0.406251 -0.385269 -0.612 190 191 209
0.419553 -0.384639 -0.611 174 182 205
0.440502 -0.384639 -0.611 168 182 209
0.441666 -0.384639 -0.611 168 182 209
0.457543 -0.385269 -0.612 126 135 166
0.462614 -0.384639 -0.611 146 151 183
0.480448 -0.38401 -0.61 152 150 163
0.435187 -0.323575 -0.514 172 120 99
0.437271 -0.322946 -0.513 174 123 102
0.438249 -0.322946 -0.513 173 122 101
0.43946 -0.321687 -0.511 180 125 104
0.443557 -0.320428 -0.509 189 132 112
0.449374 -0.320428 -0.509 175 121 97
0.0372667 -0.271514 -0.43 196 153 134
0.0452457 -0.270251 -0.428 200 155 132
0.0607352 -0.270251 -0.428 188 141 121
0.0656267 -0.270251 -0.428 190 143 125
0.0664419 -0.270251 -0.428 189 142 124
0.0739514 -0.270883 -0.429 173 126 116
0.0845381 -0.273409 -0.433 145 102 96
0.0911457 -0.275934 -0.437 134 96 93
0.100894 -0.282249 -0.447 101 80 77
0.344469 -0.386434 -0.612 206 205 219
0.349131 -0.386434 -0.612 203 204 222
0.355544 -0.385803 -0.611 119 130 162
0.367182 -0.385803 -0.611 110 146 204
0.407915 -0.385803 -0.611 182 183 201
0.457959 -0.385803 -0.611 124 138 183
0.4758 -0.385171 -0.61 146 155 188
0.43309 -0.325186 -0.515 175 118 101
0.434208 -0.324554 -0.514 171 118 100
0.437271 -0.323923 -0.513 173 122 103
0.460943 -0.322029 -0.51 162 114 94
0.467627 -0.323291 -0.512 156 110 94
0.0316429 -0.280567 -0.443 195 157 138
0.0364476 -0.272333 -0.43 192 151 129
0.0379971 -0.2717 -0.429 200 158 136
0.05002 -0.270433 -0.427 198 152 128
0.0532733 -0.270433 -0.427 196 150 127
0.0605933 -0.270433 -0.427 188 141 121
0.0672571 -0.271067 -0.428 186 139 119
0.0788543 -0.2717 -0.429 160 116 105
0.08352 -0.2736 -0.432 147 104 97
0.210068 -0.386967 -0.611 189 191 206
0.266657 -0.386333 -0.61 221 222 243
0.291057 -0.386333 -0.61 176 177 197
0.309648 -0.386333 -0.61 101 131 185
0.360771 -0.386333 -0.61 182 187 207
0.361933 -0.386333 -0.61 158 173 204
0.368905 -0.386333 -0.61 109 136 189
0.37239 -0.386333 -0.61 115 142 185
0.375876 -0.386333 -0.61 172 190 226
0.3782 -0.386333 -0.61 192 198 224
0.379362 -0.386333 -0.61 192 194 219
0.405588 -0.386967 -0.611 186 187 205
0.44559 -0.386333 -0.61 167 165 176
0.445862 -0.345167 -0.545 134 106 102
0.44362 -0.342633 -0.541 135 107 103
0.443557 -0.322367 -0.509 179 127 106
0.450427 -0.321733 -0.508 178 126 105
0.45907 -0.322367 -0.509 165 117 97
0.462886 -0.323 -0.51 158 113 94
0.03718 -0.272517 -0.429 196 154 130
0.0549 -0.271247 -0.427 192 146 123
0.0713333 -0.271882 -0.428 171 126 105
0.0882429 -0.276329 -0.435 135 96 91
0.1053 -0.289033 -0.455 92 72 71
0.114386 -0.299197 -0.471 96 76 75
0.288733 -0.387495 -0.61 220 222 243
0.30334 -0.38686 -0.609 138 172 235
0.3103 -0.38686 -0.609 164 194 246
0.313133 -0.387495 -0.61 186 204 240
0.3277 -0.38686 -0.609 207 208 226
0.33234 -0.38686 -0.609 173 172 180
0.33521 -0.387495 -0.61 204 204 216
0.35554 -0.38686 -0.609 143 153 180
0.36482 -0.38686 -0.609 100 128 176
0.36714 -0.38686 -0.609 114 147 200
0.38106 -0.38686 -0.609 175 182 208
0.385171 -0.387495 -0.61 73 88 121
0.394467 -0.387495 -0.61 182 183 203
0.423514 -0.387495 -0.61 159 166 184
0.425838 -0.387495 -0.61 94 112 150
0.43281 -0.387495 -0.61 133 156 200
0.433971 -0.387495 -0.61 119 142 186
0.436295 -0.387495 -0.61 92 116 160
0.449076 -0.387495 -0.61 178 182 194
0.468829 -0.387495 -0.61 72 91 150
0.439914 -0.339217 -0.534 138 107 102
0.434071 -0.327148 -0.515 174 116 104
0.474349 -0.326512 -0.514 146 107 90
0.0304962 -0.287351 -0.451 194 152 128
0.0370933 -0.272697 -0.428 199 157 133
0.0459533 -0.27206 -0.427 197 153 128
0.0483933 -0.27206 -0.427 199 153 129
0.0557133 -0.27206 -0.427 192 146 123
0.0688876 -0.272697 -0.428 177 132 113
0.104204 -0.289263 -0.454 93 75 75
0.2523 -0.38802 -0.609 169 188 230
0.25926 -0.38802 -0.609 231 237 253
0.28362 -0.38802 -0.609 226 231 251
0.29058 -0.38802 -0.609 162 164 187
0.30218 -0.38802 -0.609 136 163 216
0.31146 -0.38802 -0.609 188 203 236
0.32538 -0.38802 -0.609 206 208 231
0.32886 -0.38802 -0.609 217 216 232
0.33698 -0.38802 -0.609 208 207 223
0.3451 -0.38802 -0.609 207 205 219
0.351476 -0.388657 -0.61 89 103 130
0.35206 -0.38802 -0.609 81 97 130
0.36482 -0.38802 -0.609 108 132 180
0.36714 -0.38802 -0.609 123 153 203
0.37642 -0.38802 -0.609 192 198 222
0.39846 -0.38802 -0.609 130 139 168
0.403762 -0.388657 -0.61 161 168 196
0.46574 -0.38802 -0.609 83 105 163
0.4727 -0.38802 -0.609 88 115 170
0.48271 -0.386746 -0.607 129 127 138
0.435317 -0.326854 -0.513 170 114 97
0.440433 -0.32558 -0.511 175 120 100
0.451471 -0.323031 -0.507 177 125 104
0.460103 -0.323669 -0.508 169 118 97
0.483906 -0.330677 -0.519 147 109 90
0.556248 -0.369543 -0.58 119 121 146
0.562157 -0.372729 -0.585 109 111 136
0.0362781 -0.273512 -0.428 199 157 133
0.0370933 -0.273512 -0.428 200 158 134
0.09282 -0.28182 -0.441 120 85 81
0.115357 -0.303548 -0.475 88 74 73
0.280838 -0.388541 -0.608 224 229 251
0.312107 -0.388541 -0.608 192 205 237
0.323688 -0.388541 -0.608 180 194 229
0.357272 -0.388541 -0.608 179 174 181
0.386225 -0.388541 -0.608 128 134 160
0.4611 -0.38918 -0.609 53 84 139
0.470766 -0.388541 -0.608 92 114 164
0.475398 -0.388541 -0.608 166 168 189
0.483069 -0.387263 -0.606 170 167 178
0.483424 -0.386624 -0.605 153 156 175
0.439466 -0.339334 -0.531 138 107 102
0.434208 -0.32847 -0.514 172 120 99
0.446556 -0.324636 -0.508 179 124 103
0.479143 -0.329749 -0.516 149 108 90
0.482973 -0.331027 -0.518 150 109 91
0.03168 -0.276891 -0.432 197 155 131
0.0442229 -0.273046 -0.426 201 156 133
0.0532733 -0.273687 -0.427 194 148 125
0.0549 -0.273687 -0.427 191 145 122
0.0581533 -0.273687 -0.427 192 146 123
0.0680724 -0.274328 -0.428 176 130 114
0.0896857 -0.280737 -0.438 127 94 85
0.0917714 -0.282019 -0.44 118 85 78
0.09282 -0.28266 -0.441 117 84 79
0.0962048 -0.285224 -0.445 114 80 78
0.112352 -0.301248 -0.47 94 74 75
0.286629 -0.389699 -0.608 186 190 219
0.335269 -0.389699 -0.608 155 158 175
0.353798 -0.389699 -0.608 196 194 218
0.378652 -0.389058 -0.607 195 200 222
0.385067 -0.389699 -0.608 182 184 205
0.389699 -0.389699 -0.608 99 114 169
0.402438 -0.389699 -0.608 132 154 193
0.423284 -0.389699 -0.608 103 123 176
0.433707 -0.389699 -0.608 111 133 193
0.467291 -0.389699 -0.608 30 61 128
0.470766 -0.389699 -0.608 105 125 175
0.438487 -0.327527 -0.511 171 119 98
0.43946 -0.327527 -0.511 171 119 98
0.448574 -0.324963 -0.507 179 124 103
0.48396 -0.332013 -0.518 150 109 91
0.490624 -0.335218 -0.523 151 110 92
0.0474686 -0.273857 -0.426 197 151 128
0.05396 -0.273857 -0.426 187 141 118
0.06222 -0.2745 -0.427 184 139 116
0.0810514 -0.277714 -0.432 148 105 96
0.0878162 -0.280929 -0.437 128 89 82
0.274595 -0.390214 -0.607 235 230 253
0.275751 -0.390214 -0.607 235 230 253
0.295407 -0.390214 -0.607 199 206 232
0.300031 -0.390214 -0.607 124 148 192
0.302344 -0.390214 -0.607 151 178 231
0.305812 -0.390214 -0.607 128 155 200
0.317374 -0.390214 -0.607 199 208 237
0.338743 -0.390857 -0.608 194 200 226
0.343967 -0.390214 -0.607 173 179 211
0.36131 -0.390214 -0.607 135 150 183
0.389699 -0.390857 -0.608 74 94 153
0.416335 -0.390857 -0.608 189 188 202
0.422588 -0.390214 -0.607 103 123 174
0.4249 -0.390214 -0.607 93 113 163
0.428369 -0.390214 -0.607 99 122 174
0.440655 -0.390857 -0.608 101 113 139
0.456869 -0.390857 -0.608 68 94 153
0.460343 -0.390857 -0.608 35 65 125
0.462659 -0.390857 -0.608 52 82 142
0.466133 -0.390857 -0.608 23 56 127
0.470766 -0.390857 -0.608 122 140 190
0.471148 -0.390214 -0.607 149 167 217
0.481914 -0.389571 -0.606 172 174 199
0.436151 -0.334929 -0.521 153 111 97
0.460163 -0.325929 -0.507 171 120 101
0.466876 -0.326571 -0.508 155 110 91
0.485883 -0.333643 -0.519 151 110 92
0.561491 -0.374143 -0.582 174 173 171
0.0385429 -0.274669 -0.426 197 152 131
0.0401657 -0.274669 -0.426 197 152 129
0.0442229 -0.274669 -0.426 199 154 131
0.0581533 -0.275313 -0.427 190 144 121
0.0614067 -0.275313 -0.427 187 142 119
0.06222 -0.275313 -0.427 181 136 113
0.0688876 -0.275958 -0.428 172 126 110
0.101386 -0.292077 -0.453 95 74 73
0.104022 -0.294656 -0.457 94 74 75
0.17661 -0.392015 -0.608 118 136 184
0.23066 -0.39137 -0.607 226 233 252
0.315062 -0.39137 -0.607 213 216 235
0.33703 -0.39137 -0.607 179 188 219
0.345123 -0.39137 -0.607 143 160 204
0.353216 -0.39137 -0.607 201 199 221
0.370559 -0.39137 -0.607 91 119 159
0.372257 -0.390726 -0.606 109 130 173
0.396648 -0.392015 -0.608 105 136 190
0.405245 -0.39137 -0.607 56 90 151
0.413338 -0.39137 -0.607 189 186 197
0.419119 -0.39137 -0.607 165 175 177
0.423046 -0.390726 -0.606 94 116 165
0.436462 -0.39137 -0.607 81 108 161
0.461898 -0.39137 -0.607 30 63 130
0.467679 -0.39137 -0.607 52 87 153
0.475023 -0.375251 -0.582 126 101 97
0.435757 -0.333342 -0.517 162 115 97
0.438487 -0.329473 -0.511 167 116 95
0.446556 -0.327539 -0.508 178 126 104
0.464026 -0.326894 -0.507 160 113 93
0.0457381 -0.274833 -0.425 194 148 125
0.0523371 -0.27548 -0.426 193 147 124
0.06222 -0.276127 -0.427 181 135 112
0.0774 -0.278067 -0.43 156 114 98
0.103151 -0.295527 -0.457 95 75 76
0.204068 -0.392527 -0.607 240 242 254
0.291457 -0.39188 -0.606 213 218 237
0.293766 -0.39188 -0.606 182 184 199
0.298383 -0.39188 -0.606 138 151 186
0.31916 -0.39188 -0.606 201 209 232
0.33532 -0.39188 -0.606 144 154 190
0.338783 -0.39188 -0.606 194 201 230
0.394839 -0.392527 -0.607 71 101 165
0.398308 -0.392527 -0.607 61 97 157
0.411503 -0.39188 -0.606 184 188 200
0.427663 -0.39188 -0.606 73 103 155
0.433434 -0.39188 -0.606 81 112 167
0.439206 -0.39188 -0.606 157 172 215
0.461898 -0.392527 -0.607 18 55 125
0.483424 -0.391233 -0.605 113 129 163
0.4674 -0.3686 -0.57 130 102 99
0.44 -0.34144 -0.528 145 107 98
0.437271 -0.33174 -0.513 166 115 94
0.443557 -0.329153 -0.509 170 119 98
0.447524 -0.328507 -0.508 178 126 104
0.453472 -0.327213 -0.506 176 126 99
0.484995 -0.334327 -0.517 146 109 90
0.0271143 -0.284074 -0.438 197 155 131
0.0376429 -0.275643 -0.425 197 155 133
0.0392619 -0.275643 -0.425 194 149 128
0.044119 -0.275643 -0.425 197 152 129
0.0531486 -0.276291 -0.426 194 147 127
0.0555829 -0.276291 -0.426 191 144 124
0.0747686 -0.278237 -0.429 162 121 103
0.0755857 -0.278237 -0.429 159 118 100
0.112643 -0.308071 -0.475 95 79 79
0.2222 -0.393034 -0.606 162 174 196
0.23028 -0.393034 -0.606 189 192 211
0.329005 -0.392386 -0.605 158 172 207
0.348017 -0.393034 -0.606 172 181 196
0.380862 -0.392386 -0.605 192 193 197
0.409671 -0.392386 -0.605 184 187 202
0.436897 -0.393034 -0.606 75 106 160
0.441514 -0.393034 -0.606 171 175 202
0.471526 -0.393034 -0.606 54 79 136
0.441667 -0.343743 -0.53 143 105 96
0.462147 -0.328177 -0.506 164 119 96
0.0531486 -0.277103 -0.426 193 146 126
0.0563943 -0.277103 -0.426 185 138 120
0.0580171 -0.277103 -0.426 189 142 124
0.0774 -0.279705 -0.43 151 109 93
0.078401 -0.280355 -0.431 150 108 96
0.27369 -0.393538 -0.605 218 220 241
0.277148 -0.393538 -0.605 215 218 237
0.279452 -0.393538 -0.605 215 220 242
0.299043 -0.393538 -0.605 167 185 221
0.341681 -0.393538 -0.605 88 115 168
0.3509 -0.393538 -0.605 194 201 227
0.354357 -0.393538 -0.605 197 201 213
0.37049 -0.393538 -0.605 89 120 174
0.376252 -0.393538 -0.605 180 184 193
0.413596 -0.392888 -0.604 184 185 203
0.42811 -0.393538 -0.605 53 93 162
0.439633 -0.393538 -0.605 144 166 223
0.464986 -0.393538 -0.605 13 52 121
0.469217 -0.394189 -0.606 50 80 140
0.471526 -0.394189 -0.606 54 79 136
0.47268 -0.394189 -0.606 60 85 142
0.473052 -0.393538 -0.605 65 88 140
0.47724 -0.378577 -0.582 125 103 106
0.437587 -0.336947 -0.518 165 114 95
0.443457 -0.331743 -0.51 171 121 98
0.445589 -0.330442 -0.508 175 125 102
0.446556 -0.330442 -0.508 173 123 100
0.448491 -0.330442 -0.508 176 124 102
0.562876 -0.377276 -0.58 105 119 145
0.0268048 -0.282481 -0.433 195 154 132
0.0298257 -0.279871 -0.429 198 158 133
0.0305714 -0.279219 -0.428 198 156 132
0.0497857 -0.277262 -0.425 196 150 127
0.0926057 -0.289657 -0.444 107 81 80
0.11546 -0.3151 -0.483 101 83 83
0.293947 -0.394038 -0.604 191 199 222
0.296248 -0.394038 -0.604 140 153 187
0.304301 -0.394038 -0.604 164 186 225
0.311204 -0.394038 -0.604 188 197 228
0.341116 -0.394038 -0.604 69 101 162
0.353771 -0.394038 -0.604 194 198 209
0.360674 -0.394038 -0.604 104 130 181
0.364729 -0.39469 -0.605 95 125 177
0.39469 -0.39469 -0.605 35 72 142
0.407367 -0.39469 -0.605 174 186 212
0.476872 -0.394038 -0.604 123 129 153
0.478023 -0.394038 -0.604 158 157 171
0.485271 -0.393386 -0.603 77 96 139
0.48676 -0.392733 -0.602 59 84 138
0.468748 -0.371205 -0.569 134 100 98
0.440337 -0.343152 -0.526 148 110 97
0.440433 -0.333367 -0.511 172 122 99
0.44238 -0.333367 -0.511 169 119 96
0.444429 -0.332714 -0.51 171 121 98
0.451545 -0.330105 -0.506 177 125 103
0.0290086 -0.280689 -0.429 198 158 133
0.0320514 -0.278726 -0.426 194 152 128
0.0614067 -0.27938 -0.427 181 136 117
0.0697029 -0.280034 -0.428 169 126 109
0.10032 -0.298354 -0.456 96 72 70
0.172566 -0.396497 -0.606 174 189 228
0.260583 -0.395189 -0.604 210 211 239
0.262884 -0.395189 -0.604 186 187 207
0.274389 -0.395189 -0.604 203 214 236
0.284743 -0.395189 -0.604 220 220 246
0.330214 -0.394534 -0.603 89 118 178
0.339966 -0.395189 -0.604 62 96 160
0.343417 -0.395189 -0.604 100 130 190
0.356072 -0.395189 -0.604 184 197 216
0.358373 -0.395189 -0.604 111 132 177
0.367577 -0.395189 -0.604 91 122 177
0.388286 -0.395189 -0.604 154 177 211
0.39749 -0.395189 -0.604 24 63 140
0.427402 -0.395189 -0.604 39 86 158
0.438907 -0.395189 -0.604 73 101 166
0.458465 -0.395189 -0.604 20 56 130
0.460766 -0.395189 -0.604 19 57 132
0.464217 -0.395189 -0.604 12 52 122
0.485613 -0.39388 -0.602 65 95 157
0.438124 -0.336303 -0.514 173 118 98
0.501403 -0.344809 -0.527 149 110 93
0.0252714 -0.285443 -0.435 193 152 130
0.0352143 -0.278881 -0.425 198 156 131
0.0424 -0.278225 -0.424 194 150 125
0.0448229 -0.278225 -0.424 190 144 121
0.05964 -0.279537 -0.426 184 139 118
0.0656267 -0.28085 -0.428 178 133 114
0.0680724 -0.28085 -0.428 170 127 110
0.0706829 -0.281506 -0.429 166 123 106
0.0749429 -0.282162 -0.43 150 111 94
0.0873819 -0.288068 -0.439 127 90 84
0.0940829 -0.293317 -0.447 103 79 77
0.0992333 -0.298567 -0.455 99 75 73
0.171129 -0.396995 -0.605 170 186 222
0.314134 -0.395683 -0.603 206 218 234
0.355483 -0.395683 -0.603 191 196 218
0.363523 -0.395683 -0.603 78 114 176
0.379603 -0.395683 -0.603 191 195 220
0.389436 -0.396339 -0.604 131 159 209
0.404392 -0.396339 -0.604 66 104 166
0.407169 -0.395683 -0.603 94 122 170
0.410614 -0.395683 -0.603 83 102 145
0.41406 -0.395683 -0.603 175 180 202
0.449666 -0.395683 -0.603 97 112 155
0.450814 -0.395683 -0.603 92 113 160
0.453111 -0.395683 -0.603 68 96 159
0.459615 -0.396339 -0.604 19 56 127
0.464597 -0.395683 -0.603 19 56 127
0.472637 -0.395683 -0.603 112 120 139
0.473786 -0.395683 -0.603 141 149 160
0.487096 -0.39437 -0.601 60 85 139
0.458727 -0.362873 -0.553 135 102 97
0.462281 -0.330064 -0.503 165 117 95
0.470821 -0.332032 -0.506 158 113 94
0.0456305 -0.279032 -0.424 190 144 120
0.06466 -0.281007 -0.427 178 133 114
0.0688876 -0.281665 -0.428 172 126 110
0.0706829 -0.282323 -0.429 165 119 103
0.0741238 -0.282981 -0.43 152 113 96
0.0907095 -0.291536 -0.443 108 82 81
0.0981505 -0.298775 -0.454 97 73 71
0.11016 -0.313253 -0.476 99 78 77
0.168545 -0.39749 -0.604 168 179 211
0.233734 -0.396831 -0.603 173 183 210
0.257854 -0.396831 -0.603 203 210 239
0.265894 -0.396831 -0.603 191 206 239
0.311837 -0.396831 -0.603 175 192 236
0.322787 -0.396173 -0.602 202 204 225
0.356631 -0.396831 -0.603 174 179 209
0.37386 -0.396831 -0.603 129 169 220
0.380751 -0.396831 -0.603 169 176 195
0.403723 -0.396831 -0.603 43 83 144
0.413373 -0.396173 -0.602 137 148 170
0.428991 -0.396831 -0.603 23 65 139
0.441626 -0.396831 -0.603 173 176 193
0.469191 -0.396831 -0.603 144 159 188
0.438846 -0.339577 -0.516 163 116 100
0.45264 -0.33168 -0.504 174 123 102
0.461323 -0.331022 -0.503 166 118 96
0.472749 -0.332996 -0.506 156 110 94
0.0288733 -0.28182 -0.427 190 148 123
0.0304286 -0.28116 -0.426 200 158 133
0.0351314 -0.27984 -0.424 201 157 132
0.0481667 -0.2805 -0.425 195 149 126
0.0489762 -0.2805 -0.425 193 147 124
0.0505952 -0.2805 -0.425 194 148 125
0.0514048 -0.2805 -0.425 193 147 124
0.0580171 -0.28116 -0.426 187 141 118
0.0614067 -0.28182 -0.427 180 135 114
0.0706829 -0.28314 -0.429 163 117 101
0.0932314 -0.29502 -0.447 102 78 76
0.0970714 -0.29898 -0.453 94 73 72
0.105409 -0.30822 -0.467 93 73 72
0.168545 -0.39864 -0.604 166 179 211
0.275773 -0.39732 -0.602 117 138 191
0.29068 -0.39732 -0.602 214 217 248
0.291827 -0.39732 -0.602 197 200 231
0.317053 -0.39732 -0.602 213 212 230
0.3182 -0.39732 -0.602 211 210 228
0.343427 -0.39732 -0.602 190 203 235
0.34572 -0.39732 -0.602 190 193 210
0.348013 -0.39732 -0.602 192 197 219
0.34916 -0.39732 -0.602 194 199 221
0.353747 -0.39732 -0.602 193 195 220
0.354893 -0.39732 -0.602 179 187 223
0.361773 -0.39732 -0.602 83 121 184
0.374387 -0.39732 -0.602 145 160 193
0.39798 -0.39798 -0.603 24 67 146
0.437453 -0.39732 -0.602 153 164 196
0.45236 -0.39732 -0.602 130 148 196
0.45924 -0.39732 -0.602 22 60 125
0.46268 -0.39732 -0.602 26 60 132
0.467267 -0.39732 -0.602 88 119 183
0.475053 -0.37884 -0.574 135 104 109
0.438976 -0.3399 -0.515 166 117 100
0.440203 -0.33858 -0.513 171 118 100
0.441295 -0.33792 -0.512 168 117 100
0.451614 -0.3333 -0.505 170 119 98
0.0472457 -0.280648 -0.424 194 148 124
0.0572057 -0.281971 -0.426 187 141 118
0.0706829 -0.283957 -0.429 162 116 100
0.25972 -0.398467 -0.602 146 159 191
0.272333 -0.398467 -0.602 136 159 213
0.317671 -0.397805 -0.601 208 208 234
0.327974 -0.397805 -0.601 85 118 187
0.329119 -0.397805 -0.601 62 95 164
0.332553 -0.397805 -0.601 42 79 160
0.335988 -0.397805 -0.601 40 78 159
0.34228 -0.398467 -0.602 152 179 234
0.360627 -0.398467 -0.602 74 107 161
0.368041 -0.397805 -0.601 59 96 164
0.371475 -0.397805 -0.601 67 109 169
0.381778 -0.397805 -0.601 76 92 118
0.39044 -0.398467 -0.602 35 71 145
0.401239 -0.397805 -0.601 45 89 150
0.414976 -0.397805 -0.601 178 183 203
0.427133 -0.398467 -0.602 31 79 153
0.436727 -0.397805 -0.601 165 176 204
0.448174 -0.397805 -0.601 177 178 182
0.451213 -0.398467 -0.602 160 166 178
0.481027 -0.398467 -0.602 171 173 188
0.484807 -0.397805 -0.601 79 100 147
0.486286 -0.397143 -0.6 69 93 139
0.440966 -0.345514 -0.522 151 109 97
0.44118 -0.339557 -0.513 172 121 104
0.446556 -0.336248 -0.508 168 115 97
0.49478 -0.343529 -0.519 151 110 92
0.0520914 -0.281455 -0.424 187 141 117
0.0620743 -0.282783 -0.426 175 128 110
0.0731343 -0.284774 -0.429 154 108 92
0.0795895 -0.28743 -0.433 135 97 88
0.0836543 -0.290085 -0.437 122 91 86
0.08468 -0.290749 -0.438 117 86 81
0.08694 -0.29274 -0.441 114 85 81
0.103408 -0.309335 -0.466 91 71 72
0.106311 -0.312654 -0.471 94 74 75
0.168266 -0.400277 -0.603 170 185 216
0.289052 -0.39895 -0.601 216 221 243
0.366286 -0.398286 -0.6 30 77 147
0.367429 -0.398286 -0.6 43 81 154
0.368571 -0.398286 -0.6 43 81 154
0.391587 -0.399613 -0.602 27 67 137
0.396173 -0.399613 -0.602 25 67 139
0.417266 -0.39895 -0.601 175 180 199
0.424134 -0.39895 -0.601 56 99 167
0.427569 -0.39895 -0.601 25 71 146
0.442857 -0.398286 -0.6 179 189 199
0.456947 -0.399613 -0.602 29 68 137
0.471853 -0.399613 -0.602 154 154 178
0.440681 -0.34319 -0.517 161 112 97
0.44118 -0.340534 -0.513 168 116 102
0.0335162 -0.282263 -0.424 199 155 130
0.0447171 -0.281597 -0.423 196 150 126
0.052899 -0.282263 -0.424 183 137 114
0.0620743 -0.283594 -0.426 171 124 104
0.0672571 -0.284926 -0.428 168 123 104
0.0715 -0.285591 -0.429 157 114 95
0.0816143 -0.289586 -0.435 125 92 87
0.260433 -0.400094 -0.601 173 187 214
0.270736 -0.400094 -0.601 99 118 186
0.287429 -0.399429 -0.6 217 221 246
0.333143 -0.399429 -0.6 38 80 162
0.359429 -0.399429 -0.6 48 78 142
0.38 -0.399429 -0.6 170 177 193
0.381143 -0.399429 -0.6 147 154 170
0.386357 -0.400094 -0.601 163 179 205
0.395515 -0.400094 -0.601 24 66 138
0.412 -0.399429 -0.6 188 191 206
0.434857 -0.399429 -0.6 66 110 175
0.442857 -0.399429 -0.6 176 183 193
0.461911 -0.400094 -0.601 36 64 127
0.464201 -0.400094 -0.601 42 75 129
0.477938 -0.400094 -0.601 167 173 187
0.482517 -0.400094 -0.601 173 175 196
0.480294 -0.385449 -0.579 130 102 101
0.441533 -0.34484 -0.518 159 110 95
0.4536 -0.33552 -0.504 168 115 97
0.481369 -0.338849 -0.509 157 114 97
0.0248067 -0.285073 -0.427 198 156 131
0.0334371 -0.282403 -0.423 198 154 125
0.0414943 -0.282403 -0.423 196 150 124
0.0672571 -0.285741 -0.428 170 124 108
0.0705181 -0.285741 -0.428 160 118 102
0.165693 -0.401907 -0.602 185 194 227
0.252 -0.400571 -0.6 228 233 255
0.266857 -0.400571 -0.6 93 120 191
0.268 -0.400571 -0.6 93 120 191
0.271429 -0.400571 -0.6 91 120 188
0.280571 -0.400571 -0.6 209 211 232
0.281714 -0.400571 -0.6 213 215 236
0.313714 -0.400571 -0.6 188 197 228
0.325742 -0.399904 -0.599 62 91 157
0.352014 -0.401239 -0.601 194 201 219
0.365143 -0.400571 -0.6 59 103 168
0.39437 -0.401239 -0.601 25 67 141
0.422286 -0.400571 -0.6 85 124 183
0.43185 -0.399904 -0.599 73 112 171
0.442119 -0.399904 -0.599 183 183 195
0.466898 -0.373199 -0.559 131 103 100
0.441794 -0.344491 -0.516 159 112 96
0.44204 -0.343156 -0.514 164 115 101
0.443134 -0.342489 -0.513 163 114 100
0.444429 -0.340486 -0.51 157 108 94
0.4454 -0.340486 -0.51 155 103 89
0.449617 -0.337815 -0.506 172 119 103
0.452576 -0.337148 -0.505 171 118 100
0.458493 -0.335145 -0.502 162 114 92
0.468055 -0.335145 -0.502 163 116 98
0.48906 -0.342489 -0.513 157 111 95
0.027119 -0.284548 -0.425 198 157 129
0.0406886 -0.283209 -0.423 196 152 123
0.0455229 -0.283209 -0.423 193 147 121
0.101196 -0.310659 -0.464 94 68 69
0.164273 -0.402384 -0.601 193 201 224
0.379367 -0.401045 -0.599 179 192 200
0.380508 -0.401045 -0.599 182 195 203
0.396481 -0.401045 -0.599 33 71 146
0.397622 -0.401045 -0.599 36 75 152
0.412454 -0.401045 -0.599 186 193 203
0.451247 -0.401045 -0.599 63 79 112
0.459233 -0.401045 -0.599 51 71 122
0.480571 -0.401714 -0.6 168 178 188
0.488082 -0.400375 -0.598 102 124 171
0.488403 -0.399706 -0.597 112 134 175
0.4429 -0.344805 -0.515 162 115 99
0.444221 -0.342796 -0.512 168 120 106
0.451614 -0.33811 -0.505 163 112 93
0.471862 -0.33677 -0.503 162 115 97
0.478531 -0.338779 -0.506 160 114 98
0.490037 -0.343466 -0.513 156 115 97
0.0278629 -0.284686 -0.424 200 159 131
0.0341619 -0.283343 -0.422 199 156 124
0.252721 -0.402186 -0.599 227 232 251
0.253862 -0.402186 -0.599 221 227 251
0.309251 -0.401514 -0.598 90 126 178
0.313808 -0.401514 -0.598 194 206 232
0.327476 -0.401514 -0.598 43 76 147
0.348561 -0.402186 -0.599 196 199 214
0.362787 -0.401514 -0.598 49 94 159
0.38279 -0.402186 -0.599 172 178 190
0.393714 -0.402857 -0.6 53 88 152
0.415877 -0.402186 -0.599 180 182 194
0.436825 -0.401514 -0.598 175 181 205
0.447824 -0.402186 -0.599 123 133 160
0.463797 -0.402186 -0.599 82 101 131
0.448574 -0.340414 -0.507 171 120 103
0.456581 -0.337057 -0.502 166 115 96
0.0255 -0.286167 -0.425 196 154 129
0.0294086 -0.28482 -0.423 200 156 129
0.0341619 -0.284147 -0.422 198 153 124
0.0431057 -0.28482 -0.423 193 146 120
0.0471343 -0.28482 -0.423 191 145 119
0.0570714 -0.286167 -0.425 181 135 112
0.0682314 -0.28886 -0.429 158 112 96
0.0821771 -0.29492 -0.438 121 90 85
0.0875314 -0.29896 -0.444 105 80 76
0.340006 -0.402653 -0.598 132 167 233
0.35823 -0.402653 -0.598 72 116 181
0.399904 -0.403327 -0.599 44 85 139
0.426997 -0.40198 -0.597 112 144 195
0.428134 -0.40198 -0.597 111 143 194
0.456189 -0.402653 -0.598 149 163 198
0.468718 -0.402653 -0.598 63 79 113
0.469857 -0.402653 -0.598 109 123 152
0.484334 -0.403327 -0.599 136 147 165
0.486943 -0.402653 -0.598 86 108 155
0.44958 -0.35754 -0.531 154 111 95
0.448574 -0.34138 -0.507 173 122 105
0.461397 -0.33734 -0.501 168 117 98
0.465214 -0.33734 -0.501 161 112 95
0.0423 -0.285626 -0.423 189 141 118
0.04794 -0.285626 -0.423 190 142 119
0.0504762 -0.286301 -0.424 190 142 119
0.0570714 -0.286976 -0.425 173 125 103
0.06222 -0.288327 -0.427 171 123 103
0.0638467 -0.288327 -0.427 169 122 104
0.0811571 -0.295079 -0.437 124 89 85
0.0854533 -0.298455 -0.442 109 81 78
0.0877286 -0.300481 -0.445 104 78 77
0.0925524 -0.305208 -0.452 96 75 74
0.10384 -0.318712 -0.472 93 71 73
0.235213 -0.403792 -0.598 122 152 206
0.247743 -0.403792 -0.598 210 220 255
0.307597 -0.403117 -0.597 103 140 195
0.321243 -0.403117 -0.597 190 197 225
0.331477 -0.403117 -0.597 37 79 155
0.342284 -0.403792 -0.598 173 192 234
0.343423 -0.403792 -0.598 197 203 225
0.38215 -0.403792 -0.598 173 177 189
0.395819 -0.403792 -0.598 82 119 174
0.399236 -0.403792 -0.598 61 95 143
0.406529 -0.403117 -0.597 146 156 183
0.44178 -0.403117 -0.597 178 177 191
0.45505 -0.403792 -0.598 152 166 192
0.462249 -0.403117 -0.597 136 146 171
0.470996 -0.403792 -0.598 119 134 165
0.472135 -0.403792 -0.598 153 160 188
0.487585 -0.402442 -0.596 91 115 159
0.45264 -0.34032 -0.504 165 113 99
0.4536 -0.34032 -0.504 168 116 102
0.455625 -0.33897 -0.502 167 116 99
0.467123 -0.338294 -0.501 162 113 96
0.0161571 -0.294557 -0.435 190 150 125
0.0261857 -0.286431 -0.423 193 151 127
0.0301429 -0.285754 -0.422 199 155 130
0.0620743 -0.288463 -0.426 172 123 106
0.0803248 -0.295911 -0.437 126 91 87
0.0813429 -0.296589 -0.438 124 89 85
0.333192 -0.403577 -0.596 43 77 149
0.341711 -0.404254 -0.597 157 180 224
0.345701 -0.404931 -0.598 196 197 218
0.353083 -0.404254 -0.597 184 190 202
0.355357 -0.404254 -0.597 106 121 144
0.370655 -0.403577 -0.596 167 175 196
0.391263 -0.404931 -0.598 126 155 187
0.396294 -0.404254 -0.597 129 160 204
0.399706 -0.404254 -0.597 74 97 139
0.429688 -0.403577 -0.596 77 108 155
0.458837 -0.404254 -0.597 119 130 148
0.470996 -0.404931 -0.598 73 87 116
0.489343 -0.402223 -0.594 91 113 154
0.462729 -0.371751 -0.549 128 98 100
0.0160829 -0.294028 -0.433 190 148 123
0.0175276 -0.290632 -0.428 194 153 131
0.0190686 -0.289274 -0.426 193 158 139
0.0230171 -0.287916 -0.424 198 156 134
0.0496686 -0.287916 -0.424 191 143 120
0.0612629 -0.289274 -0.426 171 122 105
0.0672571 -0.290632 -0.428 153 107 94
0.10472 -0.323227 -0.476 98 78 80
0.246191 -0.405391 -0.597 142 156 191
0.328651 -0.404712 -0.596 51 87 149
0.330922 -0.404712 -0.596 77 116 183
0.362709 -0.404712 -0.596 98 133 191
0.370033 -0.404033 -0.595 178 185 203
0.406983 -0.404712 -0.596 173 186 218
0.427417 -0.404712 -0.596 102 128 177
0.459974 -0.405391 -0.597 150 156 180
0.475894 -0.405391 -0.597 124 140 173
0.44462 -0.351068 -0.517 155 109 94
0.446466 -0.345635 -0.509 160 113 97
0.487186 -0.345635 -0.509 152 107 86
0.488155 -0.345635 -0.509 152 107 86
0.503657 -0.353105 -0.52 149 109 84
0.0197867 -0.288724 -0.424 199 158 136
0.0237686 -0.288043 -0.423 197 152 131
0.02538 -0.288043 -0.423 199 154 131
0.0300714 -0.286681 -0.421 199 153 130
0.0316752 -0.286681 -0.421 197 151 127
0.034081 -0.286681 -0.421 197 153 128
0.0447171 -0.288043 -0.423 190 142 119
0.04794 -0.288043 -0.423 189 142 116
0.0512838 -0.288724 -0.424 178 130 107
0.0562619 -0.289405 -0.425 167 119 99
0.0580171 -0.290086 -0.426 166 118 98
0.0588286 -0.290086 -0.426 166 118 98
0.0604514 -0.290086 -0.426 172 123 108
0.0700286 -0.29281 -0.43 149 103 90
0.0726543 -0.29349 -0.431 142 98 87
0.07564 -0.295533 -0.434 135 94 90
0.0893724 -0.305748 -0.449 99 78 77
0.103595 -0.323452 -0.475 92 73 75
0.342274 -0.405848 -0.596 130 145 184
0.396766 -0.405848 -0.596 153 169 195
0.401307 -0.405848 -0.596 103 122 154
0.409253 -0.405848 -0.596 180 187 206
0.410389 -0.405848 -0.596 176 182 196
0.41947 -0.405848 -0.596 97 120 162
0.477031 -0.406529 -0.597 123 134 166
0.446931 -0.355457 -0.522 145 106 91
0.446824 -0.35069 -0.515 165 118 102
0.45264 -0.3432 -0.504 171 120 103
0.0237124 -0.288166 -0.422 195 150 127
0.0389848 -0.288166 -0.422 190 144 120
0.0588286 -0.290897 -0.426 174 123 106
0.0682314 -0.292946 -0.429 158 109 94
0.0872714 -0.305237 -0.447 100 79 78
0.0935762 -0.312066 -0.457 88 76 78
0.0976609 -0.316846 -0.464 93 68 72
0.157494 -0.407666 -0.597 233 238 255
0.162043 -0.407666 -0.597 153 169 205
0.3383 -0.4063 -0.595 61 95 156
0.3417 -0.4063 -0.595 117 134 178
0.346233 -0.4063 -0.595 193 195 208
0.359229 -0.405617 -0.594 117 154 196
0.369411 -0.405617 -0.594 178 184 196
0.370543 -0.405617 -0.594 186 192 204
0.374567 -0.4063 -0.595 179 187 198
0.383143 -0.406983 -0.596 61 77 111
0.386549 -0.406983 -0.596 129 145 170
0.4097 -0.4063 -0.595 174 181 200
0.461833 -0.4063 -0.595 164 171 189
0.448574 -0.346209 -0.507 168 119 102
0.463333 -0.341429 -0.5 174 123 104
0.46619 -0.341429 -0.5 170 119 100
0.476661 -0.342794 -0.502 161 114 96
0.02532 -0.28897 -0.422 197 153 128
0.0405924 -0.28897 -0.422 192 146 122
0.04794 -0.289654 -0.423 188 142 116
0.05964 -0.291709 -0.426 175 124 107
0.0639962 -0.293078 -0.428 169 116 98
0.0674143 -0.293763 -0.429 156 109 93
0.0692095 -0.294448 -0.43 154 108 93
0.325286 -0.406749 -0.594 120 143 195
0.353033 -0.407433 -0.595 191 195 204
0.358097 -0.406749 -0.594 117 140 192
0.367149 -0.406749 -0.594 113 144 190
0.372806 -0.406749 -0.594 180 186 208
0.391567 -0.407433 -0.595 133 145 171
0.4063 -0.407433 -0.595 69 83 110
0.4471 -0.407433 -0.595 164 171 189
0.456531 -0.406749 -0.594 159 160 178
0.481909 -0.408118 -0.596 152 163 185
0.451545 -0.34649 -0.506 169 118 99
0.4527 -0.344435 -0.503 174 123 104
0.455671 -0.343066 -0.501 167 119 99
0.459524 -0.342381 -0.5 170 122 102
0.461456 -0.341696 -0.499 170 122 102
0.465258 -0.341696 -0.499 167 118 101
0.485278 -0.34649 -0.506 156 111 92
0.0221048 -0.289773 -0.422 198 154 129
0.0236562 -0.289087 -0.421 199 155 130
0.0276657 -0.289087 -0.421 197 153 128
0.0348829 -0.289087 -0.421 190 144 121
0.0422 -0.289773 -0.422 191 145 121
0.0554524 -0.291833 -0.425 177 126 107
0.0588286 -0.29252 -0.426 178 125 107
0.0605933 -0.293207 -0.427 165 118 100
0.06222 -0.293207 -0.427 165 117 97
0.063181 -0.293893 -0.428 164 116 96
0.0639962 -0.293893 -0.428 164 116 96
0.0866133 -0.307627 -0.448 101 77 75
0.0876619 -0.308313 -0.449 96 76 75
0.0901686 -0.31106 -0.453 94 74 73
0.0914333 -0.312433 -0.455 94 74 73
0.101571 -0.32548 -0.474 92 73 75
0.343389 -0.40788 -0.594 180 187 197
0.358097 -0.40788 -0.594 108 138 176
0.369919 -0.407193 -0.593 180 191 213
0.3893 -0.408567 -0.595 167 178 200
0.402223 -0.40788 -0.594 173 179 203
0.40788 -0.40788 -0.594 77 97 132
0.473167 -0.408567 -0.595 120 127 153
0.489649 -0.407193 -0.593 69 91 151
0.44819 -0.357067 -0.52 148 111 95
0.45264 -0.34608 -0.504 166 117 100
0.456581 -0.344707 -0.502 166 118 98
0.467159 -0.342647 -0.499 166 117 100
0.489134 -0.34814 -0.507 151 108 89
0.500776 -0.353633 -0.515 151 113 94
0.5643 -0.38934 -0.567 185 168 150
0.0236562 -0.289889 -0.421 200 156 131
0.0244581 -0.289889 -0.421 199 155 130
0.0405924 -0.290577 -0.422 193 145 122
0.0891086 -0.311234 -0.452 94 74 73
0.0903676 -0.312611 -0.454 94 74 73
0.0958933 -0.319497 -0.464 93 72 71
0.31909 -0.408323 -0.593 80 105 162
0.338292 -0.408323 -0.593 112 132 169
0.34281 -0.408323 -0.593 178 185 201
0.348458 -0.408323 -0.593 190 193 210
0.355235 -0.408323 -0.593 120 136 169
0.358624 -0.408323 -0.593 119 151 192
0.38412 -0.409011 -0.594 168 176 199
0.385251 -0.409011 -0.594 167 175 194
0.393171 -0.409011 -0.594 149 158 175
0.403805 -0.408323 -0.593 152 166 195
0.428654 -0.408323 -0.593 100 123 164
0.451245 -0.408323 -0.593 148 149 154
0.456892 -0.408323 -0.593 171 176 182
0.467846 -0.409011 -0.594 164 170 184
0.470109 -0.409011 -0.594 166 172 186
0.473503 -0.409011 -0.594 144 151 169
0.480291 -0.409011 -0.594 142 155 190
0.481423 -0.409011 -0.594 127 141 178
0.470109 -0.381469 -0.554 132 101 96
0.44954 -0.349106 -0.507 164 119 98
0.451545 -0.348417 -0.506 166 117 100
0.460476 -0.344286 -0.5 174 123 106
0.465258 -0.343597 -0.499 167 118 101
0.482401 -0.346351 -0.503 153 110 93
0.506643 -0.357369 -0.519 149 111 92
0.570456 -0.393174 -0.571 195 181 170
0.0244581 -0.29069 -0.421 195 153 128
0.0364867 -0.29069 -0.421 193 145 122
0.0455229 -0.292071 -0.423 187 139 116
0.0520914 -0.292762 -0.424 183 132 111
0.0545143 -0.292762 -0.424 176 124 103
0.0800381 -0.30381 -0.44 117 83 81
0.0920362 -0.316238 -0.458 92 74 74
0.159501 -0.411524 -0.596 168 183 216
0.223457 -0.410143 -0.594 223 225 248
0.237034 -0.410143 -0.594 123 159 211
0.363657 -0.408762 -0.592 84 113 157
0.365912 -0.408762 -0.592 116 138 177
0.36704 -0.408762 -0.592 137 159 198
0.387991 -0.409452 -0.593 171 180 197
0.482871 -0.409452 -0.593 100 122 172
0.48739 -0.409452 -0.593 30 59 119
0.450776 -0.361119 -0.523 147 110 94
0.450581 -0.349381 -0.506 164 122 100
0.454616 -0.34731 -0.503 172 123 106
0.459524 -0.345238 -0.5 171 120 103
0.464308 -0.344548 -0.499 173 124 107
0.48817 -0.349381 -0.506 150 109 89
0.0118486 -0.297031 -0.429 196 159 132
0.0188448 -0.291492 -0.421 199 158 130
0.0438076 -0.292185 -0.422 189 141 118
0.0454152 -0.292185 -0.422 189 141 118
0.0503571 -0.292877 -0.423 182 134 112
0.052899 -0.29357 -0.424 179 131 109
0.0554524 -0.294262 -0.425 175 124 105
0.0588286 -0.294954 -0.426 165 117 97
0.05978 -0.295647 -0.427 165 117 97
0.0659333 -0.297724 -0.43 154 107 91
0.0667524 -0.297724 -0.43 154 107 91
0.0769952 -0.30257 -0.437 120 89 84
0.0792 -0.304648 -0.44 114 85 81
0.0812438 -0.306032 -0.442 108 83 79
0.09372 -0.31988 -0.462 91 72 76
0.32419 -0.40989 -0.592 170 179 208
0.327573 -0.40989 -0.592 143 154 172
0.339977 -0.40989 -0.592 166 173 199
0.344488 -0.40989 -0.592 130 143 175
0.359147 -0.40989 -0.592 106 134 181
0.37155 -0.40989 -0.592 178 183 202
0.389121 -0.410582 -0.593 176 184 197
0.399741 -0.40989 -0.592 164 174 183
0.405379 -0.40989 -0.592 137 150 182
0.412145 -0.40989 -0.592 142 157 188
0.429059 -0.40989 -0.592 132 157 197
0.430187 -0.40989 -0.592 143 158 189
0.448229 -0.40989 -0.592 140 143 148
0.460632 -0.40989 -0.592 119 121 136
0.484293 -0.396042 -0.572 124 99 95
0.450171 -0.360038 -0.52 150 110 98
0.454669 -0.347575 -0.502 170 123 105
0.474763 -0.345498 -0.499 164 117 97
0.48624 -0.34896 -0.504 150 109 89
0.0133571 -0.295071 -0.425 198 157 129
0.0212505 -0.292294 -0.421 192 150 126
0.0284 -0.2916 -0.42 195 151 124
0.0545143 -0.294377 -0.424 169 122 102
0.0615505 -0.297154 -0.428 161 113 99
0.0703543 -0.299931 -0.432 133 93 83
0.095419 -0.323537 -0.466 90 71 73
0.158966 -0.412406 -0.594 208 221 253
0.34787 -0.411017 -0.592 171 184 216
0.385082 -0.411017 -0.592 172 182 192
0.399066 -0.410323 -0.591 176 185 192
0.410323 -0.410323 -0.591 80 98 134
0.418203 -0.410323 -0.591 87 111 155
0.440335 -0.411017 -0.592 161 167 193
0.443718 -0.411017 -0.592 166 172 188
0.444846 -0.411017 -0.592 171 174 179
0.453867 -0.411017 -0.592 153 155 176
0.465143 -0.411017 -0.592 167 170 185
0.468526 -0.411017 -0.592 165 167 182
0.48462 -0.410323 -0.591 28 54 113
0.481989 -0.394354 -0.568 128 99 91
0.451772 -0.363111 -0.523 147 107 95
0.450427 -0.352697 -0.508 167 120 104
0.451471 -0.352003 -0.507 166 121 102
0.459524 -0.347143 -0.5 168 120 100
0.464326 -0.345754 -0.498 170 122 102
0.467171 -0.345754 -0.498 169 122 102
0.475713 -0.346449 -0.499 159 117 95
0.0180429 -0.293096 -0.421 196 155 127
0.0196467 -0.293096 -0.421 196 155 125
0.0404962 -0.293096 -0.421 193 145 123
0.063181 -0.29797 -0.428 155 107 93
0.0649629 -0.298666 -0.429 152 103 88
0.0826429 -0.309805 -0.445 105 77 74
0.310134 -0.411449 -0.591 201 206 226
0.338277 -0.411449 -0.591 185 191 213
0.341654 -0.411449 -0.591 116 129 163
0.34278 -0.411449 -0.591 77 90 124
0.361917 -0.411449 -0.591 79 109 163
0.36642 -0.411449 -0.591 152 172 209
0.378803 -0.411449 -0.591 174 180 196
0.431711 -0.411449 -0.591 84 107 151
0.441843 -0.411449 -0.591 167 170 185
0.456477 -0.411449 -0.591 130 134 159
0.476419 -0.412145 -0.592 116 122 148
0.480117 -0.411449 -0.591 43 65 125
0.489419 -0.410752 -0.59 24 53 113
0.455086 -0.367589 -0.528 143 107 93
0.456626 -0.348791 -0.501 168 121 103
0.460506 -0.347399 -0.499 174 126 106
0.472863 -0.346703 -0.498 170 123 103
0.0110314 -0.299483 -0.429 197 157 132
0.016439 -0.293898 -0.421 197 155 130
0.0307267 -0.292502 -0.419 195 149 125
0.0572057 -0.297389 -0.426 171 120 103
0.0733286 -0.303671 -0.435 120 90 80
0.0840533 -0.312747 -0.448 107 79 75
0.0975467 -0.329501 -0.472 90 71 73
0.373174 -0.412574 -0.591 102 119 149
0.375914 -0.411876 -0.59 162 173 195
0.384431 -0.412574 -0.591 174 180 192
0.407381 -0.411876 -0.59 156 164 177
0.414124 -0.411876 -0.59 108 123 164
0.416371 -0.411876 -0.59 95 122 167
0.418619 -0.411876 -0.59 33 61 111
0.441843 -0.412574 -0.591 170 174 185
0.457603 -0.412574 -0.591 118 124 148
0.47674 -0.412574 -0.591 93 107 152
0.489419 -0.411876 -0.59 30 61 125
0.473274 -0.386745 -0.554 131 101 99
0.451729 -0.359519 -0.515 163 114 100
0.451394 -0.354632 -0.508 167 120 102
0.463377 -0.347651 -0.498 163 115 95
0.479515 -0.34835 -0.499 154 113 93
0.50176 -0.357425 -0.512 149 112 93
0.0275343 -0.2933 -0.419 197 151 125
0.0388924 -0.2947 -0.421 193 145 122
0.0413962 -0.2954 -0.422 192 144 121
0.0775238 -0.308 -0.44 114 84 76
0.09196 -0.3234 -0.462 94 70 68
0.359057 -0.413 -0.59 80 120 181
0.379286 -0.413 -0.59 173 179 193
0.382657 -0.413 -0.59 174 180 194
0.405569 -0.4123 -0.589 164 171 179
0.424238 -0.413 -0.59 11 49 114
0.442219 -0.413 -0.59 152 156 167
0.443343 -0.413 -0.59 117 117 115
0.444467 -0.413 -0.59 119 119 117
0.44559 -0.413 -0.59 152 154 153
0.462448 -0.413 -0.59 125 127 142
0.468067 -0.413 -0.59 162 160 163
0.472562 -0.413 -0.59 160 156 170
0.480429 -0.413 -0.59 40 69 127
0.485224 -0.4123 -0.589 18 49 106
0.486346 -0.4123 -0.589 18 53 117
0.465088 -0.3794 -0.542 131 100 95
0.452897 -0.3654 -0.522 153 109 98
0.466233 -0.3479 -0.497 169 122 104
0.47286 -0.3479 -0.497 173 126 108
0.49882 -0.3563 -0.509 148 110 91
0.0235438 -0.294098 -0.419 200 156 131
0.029061 -0.293396 -0.418 197 151 125
0.0372886 -0.295502 -0.421 192 146 120
0.0380905 -0.295502 -0.421 192 146 120
0.0546429 -0.29831 -0.425 171 123 103
0.0936438 -0.327088 -0.466 92 71 70
0.34162 -0.413422 -0.589 189 189 201
0.366302 -0.413422 -0.589 150 163 207
0.37079 -0.413422 -0.589 83 100 130
0.372543 -0.414124 -0.59 124 141 171
0.396593 -0.413422 -0.589 161 163 178
0.401081 -0.413422 -0.589 163 169 165
0.40376 -0.41272 -0.588 162 173 175
0.40712 -0.41272 -0.588 164 171 190
0.4116 -0.41272 -0.588 46 66 116
0.41496 -0.41272 -0.588 40 70 124
0.433229 -0.414124 -0.59 77 95 141
0.4366 -0.414124 -0.59 145 152 181
0.450445 -0.413422 -0.589 128 134 148
0.472562 -0.414124 -0.59 141 152 180
0.491403 -0.412018 -0.587 70 92 131
0.485857 -0.400086 -0.57 128 99 95
0.461119 -0.375519 -0.535 142 107 101
0.462429 -0.349549 -0.498 166 118 98
0.00785333 -0.305453 -0.434 192 151 123
0.0298571 -0.294192 -0.418 197 151 125
0.033121 -0.294896 -0.419 195 149 123
0.034 -0.2956 -0.42 193 147 121
0.0356 -0.2956 -0.42 191 145 119
0.0364 -0.2956 -0.42 190 144 118
0.0380905 -0.296304 -0.421 193 147 121
0.0413962 -0.297008 -0.422 192 146 122
0.0471343 -0.297711 -0.423 182 134 114
0.0651143 -0.302638 -0.43 148 102 86
0.0715067 -0.305453 -0.434 127 93 84
0.0846162 -0.317418 -0.451 100 74 73
0.226448 -0.415248 -0.59 154 168 197
0.340498 -0.414544 -0.589 189 189 199
0.392106 -0.414544 -0.589 140 147 173
0.422397 -0.414544 -0.589 19 55 113
0.426885 -0.414544 -0.589 43 78 136
0.458298 -0.414544 -0.589 141 146 165
0.46503 -0.414544 -0.589 115 113 126
0.467273 -0.414544 -0.589 152 149 158
0.479467 -0.394133 -0.56 129 99 91
0.451729 -0.362462 -0.515 156 113 94
0.452023 -0.36035 -0.512 161 116 95
0.0100952 -0.299223 -0.424 197 157 131
0.0323229 -0.295694 -0.419 192 146 120
0.0422 -0.297811 -0.422 185 139 115
0.0430038 -0.297811 -0.422 182 136 112
0.0487457 -0.298517 -0.423 172 124 104
0.05992 -0.302046 -0.428 160 113 93
0.0669076 -0.304163 -0.431 140 96 85
0.0716714 -0.306986 -0.435 127 93 84
0.35112 -0.41496 -0.588 117 138 191
0.3556 -0.41496 -0.588 47 83 141
0.39032 -0.41496 -0.588 123 132 161
0.41832 -0.41496 -0.588 41 76 132
0.42616 -0.41496 -0.588 66 101 157
0.45416 -0.41496 -0.588 104 111 130
0.48328 -0.41496 -0.588 55 86 133
0.48693 -0.414254 -0.587 37 75 124
0.48438 -0.40014 -0.567 127 99 95
0.459694 -0.374734 -0.531 143 106 98
0.452906 -0.362031 -0.513 160 115 96
0.452437 -0.357797 -0.507 160 117 98
0.453472 -0.357091 -0.506 163 118 99
0.460531 -0.351446 -0.498 170 121 104
0.473798 -0.350034 -0.496 168 121 103
0.0242838 -0.295785 -0.418 199 155 128
0.0258762 -0.295785 -0.418 196 152 127
0.0581533 -0.302153 -0.427 164 115 98
0.0607352 -0.302861 -0.428 154 112 90
0.22382 -0.416788 -0.589 197 202 224
0.34328 -0.41608 -0.588 184 191 201
0.36344 -0.41608 -0.588 43 82 147
0.38183 -0.415372 -0.587 121 122 127
0.395247 -0.415372 -0.587 135 140 159
0.40531 -0.415372 -0.587 167 167 175
0.43438 -0.415372 -0.587 78 92 121
0.44184 -0.41608 -0.588 163 165 177
0.462 -0.41608 -0.588 155 157 170
0.47656 -0.41608 -0.588 142 156 182
0.490566 -0.414665 -0.586 114 133 166
0.47472 -0.390606 -0.552 136 103 98
0.457619 -0.35381 -0.5 170 123 105
0.46434 -0.351687 -0.497 167 119 99
0.469071 -0.350271 -0.495 167 120 100
0.49488 -0.35664 -0.504 148 110 89
0.0195533 -0.29729 -0.419 196 155 125
0.02508 -0.296581 -0.418 199 155 128
0.0454152 -0.299419 -0.422 179 133 109
0.0581533 -0.302967 -0.427 161 112 95
0.05992 -0.303676 -0.428 158 109 92
0.0651143 -0.305095 -0.43 145 99 86
0.0758476 -0.31219 -0.44 111 83 80
0.0814933 -0.317867 -0.448 102 76 75
0.098081 -0.339862 -0.479 97 70 77
0.2548 -0.4172 -0.588 210 220 229
0.26152 -0.4172 -0.588 210 213 230
0.32257 -0.41649 -0.587 179 185 197
0.328161 -0.41649 -0.587 158 166 177
0.362822 -0.41649 -0.587 27 64 132
0.377357 -0.41649 -0.587 170 177 183
0.422081 -0.41649 -0.587 32 68 128
0.425435 -0.41649 -0.587 89 122 173
0.427671 -0.41649 -0.587 85 114 154
0.472395 -0.41649 -0.587 49 60 90
0.477986 -0.41649 -0.587 137 145 164
0.47902 -0.395205 -0.557 131 102 96
0.464023 -0.380305 -0.536 139 106 99
0.456667 -0.354762 -0.5 163 116 96
0.463393 -0.352633 -0.497 168 121 103
0.466243 -0.351214 -0.495 167 120 100
0.468129 -0.351214 -0.495 168 121 101
0.574148 -0.400881 -0.565 187 184 179
0.0116 -0.2988 -0.42 197 156 128
0.0538333 -0.302357 -0.425 166 119 99
0.292382 -0.417609 -0.587 72 97 153
0.296854 -0.417609 -0.587 57 92 158
0.375121 -0.417609 -0.587 175 177 192
0.376714 -0.416897 -0.586 150 153 158
0.390109 -0.416897 -0.586 146 156 181
0.397922 -0.416897 -0.586 169 173 184
0.415781 -0.416897 -0.586 99 127 166
0.41913 -0.416897 -0.586 48 84 146
0.437734 -0.417609 -0.587 119 131 155
0.449267 -0.416897 -0.586 163 162 180
0.462661 -0.416897 -0.586 157 156 170
0.477171 -0.416897 -0.586 149 154 174
0.481636 -0.416897 -0.586 82 105 149
0.483273 -0.35358 -0.497 156 114 92
0.49098 -0.356426 -0.501 148 107 87
0.565971 -0.396977 -0.558 174 156 144
0.00453619 -0.308873 -0.433 190 151 122
0.00688095 -0.303167 -0.425 185 148 121
0.0364 -0.2996 -0.42 192 148 121
0.038 -0.2996 -0.42 192 146 120
0.08064 -0.319573 -0.448 99 75 75
0.0830819 -0.322427 -0.452 99 73 74
0.0939505 -0.336693 -0.472 91 70 69
0.148652 -0.420153 -0.589 231 231 255
0.150896 -0.420153 -0.589 231 231 255
0.259957 -0.418727 -0.587 210 216 228
0.261075 -0.418727 -0.587 209 212 227
0.340996 -0.418013 -0.586 144 144 152
0.36332 -0.418013 -0.586 44 80 142
0.4095 -0.4173 -0.585 121 140 170
0.451843 -0.4173 -0.585 147 149 164
0.455186 -0.4173 -0.585 162 163 181
0.45708 -0.418013 -0.586 158 159 177
0.470474 -0.418013 -0.586 80 92 116
0.478288 -0.418013 -0.586 132 133 154
0.480943 -0.39804 -0.558 128 103 96
0.454468 -0.368793 -0.517 160 114 98
0.455625 -0.358093 -0.502 166 117 100
0.457619 -0.356667 -0.5 169 121 101
0.459555 -0.355953 -0.499 172 124 104
0.466243 -0.3531 -0.495 167 119 99
0.467183 -0.352387 -0.494 169 121 101
0.481356 -0.353813 -0.496 162 117 96
0.0226371 -0.298254 -0.417 195 154 124
0.029061 -0.29897 -0.418 191 147 120
0.0347171 -0.299685 -0.419 187 143 116
0.04794 -0.302546 -0.423 173 125 103
0.0958543 -0.341169 -0.477 91 70 69
0.286303 -0.41913 -0.586 117 141 185
0.351557 -0.418414 -0.585 61 97 155
0.380529 -0.418414 -0.585 171 173 185
0.382757 -0.418414 -0.585 168 169 187
0.399471 -0.418414 -0.585 162 168 182
0.419529 -0.418414 -0.585 63 93 145
0.440337 -0.41913 -0.586 156 155 171
0.447386 -0.418414 -0.585 159 161 176
0.452957 -0.418414 -0.585 121 124 139
0.461545 -0.41913 -0.586 156 156 166
0.467186 -0.354043 -0.495 169 121 101
0.485167 -0.355473 -0.497 150 107 88
0.49872 -0.36048 -0.504 148 110 87
0.0281971 -0.299049 -0.417 194 150 123
0.0396943 -0.301917 -0.421 185 139 115
0.0471343 -0.303351 -0.423 175 124 103
0.04794 -0.303351 -0.423 175 124 103
0.0581533 -0.30622 -0.427 155 108 92
0.0589667 -0.30622 -0.427 151 105 90
0.0607352 -0.306937 -0.428 151 103 91
0.082221 -0.324149 -0.452 95 74 73
0.245004 -0.420246 -0.586 191 208 236
0.373843 -0.419529 -0.585 156 154 175
0.388329 -0.419529 -0.585 161 163 176
0.399901 -0.418811 -0.584 162 167 186
0.41325 -0.418811 -0.584 118 138 165
0.448846 -0.418811 -0.584 162 163 181
0.452957 -0.419529 -0.585 86 94 117
0.470786 -0.419529 -0.585 147 153 177
0.48333 -0.418811 -0.584 93 116 158
0.477009 -0.395146 -0.551 136 108 104
0.454671 -0.369329 -0.515 163 114 97
0.461516 -0.355703 -0.496 168 120 100
0.47375 -0.353551 -0.493 165 118 98
0.0171181 -0.300562 -0.418 194 153 123
0.0178714 -0.299843 -0.417 196 155 127
0.0306533 -0.300562 -0.418 193 147 121
0.0372 -0.302 -0.42 188 144 117
0.0430038 -0.303438 -0.422 180 132 110
0.0446114 -0.303438 -0.422 177 129 109
0.0538333 -0.305595 -0.425 164 117 101
0.0555829 -0.306314 -0.426 156 109 93
0.0672181 -0.311348 -0.433 131 91 79
0.0765371 -0.319257 -0.444 102 78 76
0.0775571 -0.319976 -0.445 103 79 77
0.0888229 -0.333638 -0.464 90 70 71
0.0947467 -0.342267 -0.476 91 71 72
0.0964571 -0.345143 -0.48 90 70 71
0.245004 -0.421362 -0.586 207 223 248
0.285814 -0.420643 -0.585 65 92 161
0.414362 -0.419924 -0.584 118 135 161
0.423261 -0.419924 -0.584 88 110 151
0.42771 -0.419924 -0.584 146 158 182
0.434385 -0.419924 -0.584 124 131 149
0.438834 -0.419924 -0.584 108 116 139
0.466644 -0.419924 -0.584 119 126 144
0.479992 -0.419924 -0.584 77 92 133
0.481391 -0.419205 -0.583 90 113 155
0.486944 -0.419205 -0.583 81 101 136
0.488054 -0.419205 -0.583 65 88 120
0.490275 -0.419205 -0.583 80 98 120
0.455554 -0.371029 -0.516 163 116 96
0.455114 -0.366714 -0.51 160 115 92
0.455574 -0.361681 -0.503 168 122 99
0.46436 -0.35521 -0.494 170 122 102
0.466242 -0.35521 -0.494 167 120 102
0.490921 -0.358805 -0.499 153 108 87
0.00681619 -0.303521 -0.421 197 154 122
0.0654171 -0.311451 -0.432 142 95 85
0.0777314 -0.321545 -0.446 101 77 75
0.328709 -0.421036 -0.584 174 182 201
0.332046 -0.421036 -0.584 179 185 201
0.34317 -0.421036 -0.584 111 122 144
0.379878 -0.421036 -0.584 164 168 177
0.40699 -0.420315 -0.583 97 111 124
0.411431 -0.420315 -0.583 138 145 161
0.429199 -0.420315 -0.583 154 155 175
0.453295 -0.421036 -0.584 89 104 145
0.458857 -0.421036 -0.584 154 152 173
0.455554 -0.372011 -0.516 163 118 97
0.455652 -0.37129 -0.515 162 117 96
0.455837 -0.369849 -0.513 162 117 96
0.4615 -0.358313 -0.497 166 118 98
0.465301 -0.35615 -0.494 170 121 104
0.469054 -0.35543 -0.493 170 121 104
0.479415 -0.35615 -0.494 161 116 95
0.575426 -0.404454 -0.561 197 186 182
0.00838 -0.302877 -0.419 194 155 124
0.0346343 -0.302154 -0.418 187 141 115
0.0496686 -0.306491 -0.424 172 121 104
0.0852429 -0.331791 -0.459 89 68 67
0.2457 -0.422871 -0.585 209 215 231
0.279764 -0.422149 -0.584 160 161 181
0.347024 -0.421426 -0.583 142 148 180
0.355908 -0.421426 -0.583 80 112 153
0.404769 -0.421426 -0.583 117 135 157
0.429199 -0.421426 -0.583 152 153 171
0.436972 -0.421426 -0.583 121 128 147
0.440304 -0.421426 -0.583 131 139 160
0.442525 -0.421426 -0.583 140 147 166
0.466955 -0.421426 -0.583 151 153 168
0.474729 -0.421426 -0.583 148 154 170
0.47806 -0.421426 -0.583 70 83 117
0.480281 -0.421426 -0.583 65 82 125
0.481674 -0.420703 -0.582 89 114 155
0.486109 -0.420703 -0.582 79 95 131
0.455747 -0.371549 -0.514 162 117 96
0.456726 -0.371549 -0.514 162 117 96
0.455191 -0.367934 -0.509 160 115 94
0.45648 -0.36432 -0.504 167 120 100
0.457654 -0.360706 -0.499 170 123 103
0.465298 -0.356369 -0.493 171 123 103
0.479415 -0.357091 -0.494 161 116 95
0.484157 -0.357814 -0.495 155 110 87
0.50256 -0.36432 -0.504 153 110 91
0.509485 -0.367934 -0.509 146 105 85
0.00362571 -0.306574 -0.423 191 157 130
