ply
format ascii 1.0
comment Created by Open3D
element vertex 1291
property double x
property double y
property double z
property uchar red
property uchar green
property uchar blue
end_header
0.453724 -0.389819 -0.61 149 154 176
0.456048 -0.389819 -0.61 77 90 134
0.47038 -0.38918 -0.609 40 70 130
0.452283 -0.325275 -0.509 177 127 100
0.0391695 -0.271764 -0.424 194 152 130
0.0487457 -0.271123 -0.423 196 151 128
0.0635476 -0.272405 -0.425 186 140 116
0.0667857 -0.272405 -0.425 182 135 115
0.0685657 -0.273046 -0.426 183 138 117
0.0736067 -0.273687 -0.427 174 127 111
0.0847714 -0.27561 -0.43 149 106 97
0.10129 -0.285224 -0.445 99 75 73
0.3161 -0.39034 -0.609 208 214 236
0.31958 -0.39034 -0.609 191 196 216
0.32886 -0.39034 -0.609 204 206 229
0.35322 -0.39034 -0.609 119 125 161
0.36946 -0.39034 -0.609 135 166 213
0.37526 -0.39034 -0.609 134 157 198
0.40658 -0.39034 -0.609 131 148 192
0.41006 -0.39034 -0.609 70 99 143
0.417493 -0.389699 -0.608 190 186 201
0.439497 -0.389699 -0.608 106 128 169
0.45298 -0.39034 -0.609 164 170 194
0.45762 -0.39034 -0.609 58 79 134
0.463817 -0.389699 -0.608 45 73 136
0.471924 -0.389699 -0.608 82 110 175
0.47424 -0.389699 -0.608 142 163 210
0.454513 -0.354447 -0.553 134 107 98
0.442136 -0.341628 -0.533 140 107 98
0.439957 -0.33009 -0.515 170 120 95
0.443246 -0.328168 -0.512 173 123 100
0.447343 -0.326886 -0.51 178 128 103
0.489686 -0.334577 -0.522 151 110 92
0.4935 -0.3365 -0.525 151 110 92
-0.357223 -0.388286 -0.604 239 240 232
-0.354922 -0.388286 -0.604 238 239 231
0.0337533 -0.2745 -0.427 200 158 136
0.0383619 -0.272571 -0.424 190 148 126
0.0561295 -0.272571 -0.424 192 146 123
0.0794857 -0.275143 -0.428 163 120 103
0.0886619 -0.278357 -0.433 141 100 94
0.169707 -0.380571 -0.592 121 140 183
0.347435 -0.390214 -0.607 186 191 220
0.35264 -0.390857 -0.608 176 181 213
0.359589 -0.390857 -0.608 141 137 151
0.361905 -0.390857 -0.608 185 187 202
0.366537 -0.390857 -0.608 129 153 197
0.378118 -0.390857 -0.608 191 197 223
0.386225 -0.390857 -0.608 180 186 202
0.39266 -0.3915 -0.609 79 101 148
0.418651 -0.390857 -0.608 191 191 201
0.43139 -0.390857 -0.608 98 129 176
0.439497 -0.390857 -0.608 93 114 157
0.458027 -0.390857 -0.608 64 85 138
0.458623 -0.358714 -0.558 134 105 99
0.443795 -0.343929 -0.535 141 108 101
0.44118 -0.329786 -0.513 166 118 95
0.447343 -0.327857 -0.51 179 129 104
0.460163 -0.325929 -0.507 169 121 99
0.475429 -0.329143 -0.512 150 109 89
0.4945 -0.3375 -0.525 149 108 90
0.0330171 -0.275958 -0.428 199 158 136
0.0447171 -0.272734 -0.423 192 147 124
0.0463286 -0.272734 -0.423 198 153 132
0.0609752 -0.273379 -0.424 189 143 120
0.0726229 -0.274669 -0.426 176 129 113
0.0811162 -0.275958 -0.428 158 115 98
0.100669 -0.287564 -0.446 103 79 79
0.107033 -0.293367 -0.455 93 71 74
0.338186 -0.39137 -0.607 169 175 201
0.346279 -0.39137 -0.607 178 188 224
0.348591 -0.39137 -0.607 97 115 153
0.363622 -0.39137 -0.607 114 125 157
0.36709 -0.39137 -0.607 142 165 207
0.377496 -0.39137 -0.607 190 197 223
0.380965 -0.39137 -0.607 196 200 212
0.40062 -0.39137 -0.607 109 128 186
0.435306 -0.39137 -0.607 107 133 184
0.466523 -0.39137 -0.607 22 58 120
0.472304 -0.39137 -0.607 138 157 197
0.478872 -0.392015 -0.608 170 166 189
0.4425 -0.342369 -0.531 144 110 101
0.438976 -0.332052 -0.515 170 120 97
0.447435 -0.328184 -0.509 178 128 105
0.449374 -0.328184 -0.509 180 128 106
0.454369 -0.326894 -0.507 178 126 102
0.0306429 -0.27742 -0.429 197 157 132
0.0367467 -0.274187 -0.424 192 150 128
0.0471343 -0.27354 -0.423 198 153 132
0.0601676 -0.274187 -0.424 188 142 119
0.0651667 -0.274833 -0.425 186 141 120
0.0701886 -0.27548 -0.426 175 129 113
0.07442 -0.276127 -0.427 170 124 108
0.08294 -0.27742 -0.429 152 110 96
0.0907286 -0.2813 -0.435 131 94 88
0.0917676 -0.281947 -0.436 126 91 85
0.09618 -0.28518 -0.441 113 83 81
0.0985257 -0.28712 -0.444 103 79 77
0.304656 -0.392527 -0.607 163 186 227
0.384433 -0.392527 -0.607 192 195 204
0.399464 -0.392527 -0.607 69 95 152
0.411026 -0.392527 -0.607 140 156 189
0.413338 -0.392527 -0.607 183 189 201
0.43228 -0.39188 -0.606 74 105 169
0.445711 -0.392527 -0.607 183 184 204
0.461233 -0.326567 -0.505 165 119 96
0.48979 -0.336267 -0.52 147 108 91
-0.35948 -0.39044 -0.602 235 238 229
-0.3526 -0.39044 -0.602 237 239 228
0.0413962 -0.273697 -0.422 198 153 130
0.0511629 -0.274346 -0.423 193 148 127
0.0643571 -0.275643 -0.425 185 140 119
0.0659762 -0.275643 -0.425 181 136 115
0.105069 -0.294451 -0.454 92 72 71
0.114143 -0.304829 -0.47 91 72 74
0.322623 -0.393034 -0.606 207 213 235
0.3434 -0.393034 -0.606 133 154 201
0.350326 -0.393034 -0.606 185 188 205
0.361869 -0.393034 -0.606 108 123 156
0.366486 -0.393034 -0.606 134 156 197
0.374566 -0.393034 -0.606 111 133 180
0.39137 -0.393683 -0.607 65 87 145
0.39996 -0.393034 -0.606 58 88 152
0.40804 -0.393034 -0.606 83 115 166
0.454961 -0.393683 -0.607 168 174 196
0.457273 -0.393683 -0.607 130 144 181
0.474616 -0.393683 -0.607 105 122 165
0.475772 -0.393683 -0.607 94 111 154
0.471773 -0.37228 -0.574 131 102 98
0.465452 -0.366443 -0.565 134 105 101
0.443246 -0.332069 -0.512 167 119 97
0.451394 -0.329474 -0.508 177 126 105
0.458291 -0.328177 -0.506 165 117 94
0.461233 -0.327529 -0.505 165 119 96
-0.364607 -0.390936 -0.601 235 238 229
-0.321106 -0.390936 -0.601 239 240 232
0.0276933 -0.282307 -0.434 193 152 130
0.0577448 -0.275802 -0.424 191 145 122
0.08804 -0.282307 -0.434 134 96 93
0.0890714 -0.282957 -0.435 131 93 90
0.0932352 -0.285559 -0.439 115 84 81
0.336474 -0.394189 -0.606 83 105 152
0.338783 -0.394189 -0.606 128 151 193
0.347443 -0.393538 -0.605 110 127 170
0.395343 -0.394189 -0.606 38 71 138
0.397651 -0.394189 -0.606 43 77 141
0.403423 -0.394189 -0.606 32 66 137
0.422348 -0.393538 -0.605 129 135 151
0.436176 -0.393538 -0.605 91 120 176
0.439206 -0.394189 -0.606 74 100 157
0.441514 -0.394189 -0.606 135 155 192
0.453057 -0.394189 -0.606 150 159 190
0.460376 -0.393538 -0.605 25 55 125
0.487569 -0.392237 -0.603 57 78 123
0.446667 -0.348655 -0.536 140 105 99
0.443134 -0.333694 -0.513 169 118 99
0.4454 -0.331743 -0.51 170 119 100
0.451313 -0.331092 -0.509 178 127 106
0.453403 -0.329791 -0.507 177 125 101
0.4554 -0.329141 -0.506 177 127 102
-0.365751 -0.392081 -0.601 234 237 228
0.0335162 -0.27661 -0.424 199 157 133
0.0388924 -0.274652 -0.421 199 157 133
0.0519686 -0.275957 -0.423 192 146 123
0.0643571 -0.277262 -0.425 179 132 112
0.0659762 -0.277262 -0.425 180 135 114
0.071 -0.277914 -0.426 171 126 107
0.0804886 -0.279871 -0.429 154 110 99
0.0823143 -0.280524 -0.43 149 107 95
0.0921886 -0.285743 -0.438 117 86 83
0.0945 -0.2877 -0.441 110 85 81
0.10049 -0.292919 -0.449 96 76 75
0.301348 -0.39469 -0.605 173 190 233
0.314024 -0.39469 -0.605 196 203 231
0.329005 -0.39469 -0.605 78 108 162
0.338224 -0.39469 -0.605 91 119 169
0.371643 -0.39469 -0.605 103 138 194
0.3751 -0.39469 -0.605 99 130 184
0.385471 -0.39469 -0.605 187 192 211
0.392386 -0.39469 -0.605 74 103 169
0.395843 -0.39469 -0.605 34 69 135
0.405062 -0.39469 -0.605 54 91 161
0.4235 -0.39469 -0.605 71 106 162
0.436176 -0.39469 -0.605 94 125 182
0.465754 -0.395343 -0.606 20 57 127
0.474989 -0.395343 -0.606 66 89 143
0.47651 -0.39469 -0.605 61 79 129
0.487569 -0.393386 -0.603 56 77 124
0.439829 -0.336629 -0.516 165 118 100
0.439957 -0.335976 -0.515 167 120 102
0.444221 -0.334019 -0.512 170 119 98
0.470786 -0.330757 -0.507 161 113 91
0.481243 -0.334671 -0.513 155 110 89
0.494657 -0.340543 -0.522 156 111 92
-0.349143 -0.392571 -0.6 236 238 227
-0.342286 -0.392571 -0.6 236 238 227
0.0281257 -0.280034 -0.428 195 153 129
0.0296171 -0.278726 -0.426 201 159 135
0.0726229 -0.278726 -0.426 170 124 108
0.0913543 -0.286577 -0.438 123 88 84
0.0934476 -0.287886 -0.44 112 83 79
0.106226 -0.300317 -0.459 88 68 69
0.308262 -0.395843 -0.605 156 178 217
0.312354 -0.395189 -0.604 150 172 211
0.334213 -0.395189 -0.604 104 134 194
0.364729 -0.395843 -0.605 99 125 174
0.372179 -0.395189 -0.604 95 131 189
0.382533 -0.395189 -0.604 193 198 218
0.405543 -0.395189 -0.604 99 138 207
0.410145 -0.395189 -0.604 167 175 196
0.413596 -0.395189 -0.604 180 178 202
0.42165 -0.395189 -0.604 129 140 158
0.429703 -0.395189 -0.604 38 82 157
0.438907 -0.395189 -0.604 61 99 162
0.480324 -0.395189 -0.604 168 176 197
0.483775 -0.395189 -0.604 157 158 176
0.484926 -0.395189 -0.604 137 147 183
0.487569 -0.394534 -0.603 66 93 138
0.43956 -0.33892 -0.518 158 115 98
0.450427 -0.332377 -0.508 180 128 106
0.456364 -0.331069 -0.506 172 122 99
0.486062 -0.336957 -0.515 151 109 87
0.495651 -0.341537 -0.522 153 110 91
0.4995 -0.3435 -0.525 153 112 92
0.555112 -0.374251 -0.572 133 117 117
-0.360571 -0.393714 -0.6 235 237 226
-0.356 -0.393714 -0.6 235 238 229
0.024499 -0.286099 -0.436 190 152 129
0.02592 -0.283474 -0.432 193 153 128
0.0609752 -0.278225 -0.424 184 137 117
0.0643571 -0.278881 -0.425 178 131 111
0.0693771 -0.279537 -0.426 176 130 114
0.0833267 -0.282818 -0.431 142 102 94
0.0863867 -0.284787 -0.434 135 96 89
0.116329 -0.314315 -0.479 100 85 88
0.307752 -0.396339 -0.604 155 173 211
0.335957 -0.395683 -0.603 74 106 167
0.345146 -0.395683 -0.603 141 169 219
0.352037 -0.395683 -0.603 196 198 219
0.390587 -0.396339 -0.604 151 171 204
0.400941 -0.396339 -0.604 27 65 138
0.402091 -0.396339 -0.604 39 77 150
0.403242 -0.396339 -0.604 60 99 166
0.428552 -0.396339 -0.604 40 83 152
0.437031 -0.395683 -0.603 53 94 158
0.453462 -0.396995 -0.605 51 78 131
0.460766 -0.396339 -0.604 23 53 126
0.471743 -0.374029 -0.57 127 101 100
0.443182 -0.345812 -0.527 150 111 96
0.441919 -0.337938 -0.515 170 123 97
0.448491 -0.333345 -0.508 175 123 101
0.452362 -0.333345 -0.508 181 131 108
0.467005 -0.331376 -0.505 163 115 93
-0.362252 -0.394199 -0.599 233 236 227
-0.361111 -0.394199 -0.599 234 237 228
-0.357689 -0.394199 -0.599 234 237 228
-0.339433 -0.394199 -0.599 236 238 227
-0.292166 -0.393541 -0.598 238 239 231
0.0310933 -0.279032 -0.424 198 154 129
0.0334371 -0.278374 -0.423 199 157 132
0.0365733 -0.277716 -0.422 200 156 129
0.0437038 -0.277058 -0.421 195 149 126
0.0494343 -0.277716 -0.422 191 144 124
0.0568029 -0.278374 -0.423 189 142 122
0.0701886 -0.280349 -0.426 169 124 105
0.0760467 -0.281007 -0.427 160 114 98
0.0863867 -0.285613 -0.434 133 96 88
0.0884457 -0.28693 -0.436 125 91 90
0.0915629 -0.288904 -0.439 114 83 81
0.104022 -0.30075 -0.457 92 72 73
0.1085 -0.306014 -0.465 91 67 67
0.111694 -0.309963 -0.471 89 70 72
0.30954 -0.396831 -0.603 135 159 205
0.355483 -0.396831 -0.603 197 201 226
0.376157 -0.396831 -0.603 167 191 239
0.39749 -0.39749 -0.604 24 63 142
0.433586 -0.396831 -0.603 18 61 129
0.468819 -0.39749 -0.604 53 82 150
0.47112 -0.39749 -0.604 115 138 192
0.480324 -0.39749 -0.604 168 171 188
0.444111 -0.337603 -0.513 169 121 99
0.447435 -0.33497 -0.509 170 122 100
0.449459 -0.334312 -0.508 175 125 102
0.4554 -0.332996 -0.506 173 122 101
0.457386 -0.332338 -0.505 173 122 101
-0.357091 -0.39468 -0.598 234 237 228
0.0287381 -0.2805 -0.425 203 159 134
0.0318257 -0.27918 -0.423 199 155 130
0.0404962 -0.27786 -0.421 196 150 126
0.05358 -0.27918 -0.423 192 145 125
0.0635476 -0.2805 -0.425 177 130 112
0.0685657 -0.28116 -0.426 174 127 109
0.0796714 -0.28314 -0.429 145 103 89
0.08352 -0.28512 -0.432 138 100 91
0.117057 -0.31812 -0.482 103 90 97
0.306094 -0.39798 -0.603 122 145 195
0.346867 -0.39732 -0.602 192 200 221
0.358929 -0.39798 -0.603 139 155 181
0.396831 -0.39798 -0.603 25 64 141
0.399129 -0.39798 -0.603 28 67 144
0.425546 -0.39798 -0.603 29 69 138
0.444333 -0.39732 -0.602 172 174 189
0.467263 -0.37092 -0.562 134 104 96
0.441533 -0.34188 -0.518 163 116 98
0.444111 -0.33858 -0.513 171 123 101
0.456364 -0.33396 -0.506 172 121 100
0.462281 -0.33198 -0.503 168 117 98
0.0248648 -0.283295 -0.428 193 151 127
0.02562 -0.282633 -0.427 196 154 130
0.0421 -0.278662 -0.421 198 153 124
0.0510419 -0.279324 -0.422 192 146 123
0.0576086 -0.279986 -0.423 180 134 111
0.08556 -0.287267 -0.434 131 92 85
0.0865857 -0.287929 -0.435 128 91 83
0.333107 -0.398467 -0.602 39 81 155
0.3526 -0.398467 -0.602 194 200 222
0.395683 -0.399129 -0.603 24 63 138
0.41108 -0.398467 -0.602 84 117 162
0.42484 -0.398467 -0.602 50 90 159
0.425987 -0.398467 -0.602 47 94 162
0.450067 -0.398467 -0.602 163 163 187
0.456947 -0.398467 -0.602 36 68 141
0.47034 -0.399129 -0.603 104 129 183
0.472251 -0.375962 -0.568 135 104 99
0.445871 -0.350148 -0.529 152 113 106
0.441919 -0.340881 -0.515 170 123 107
0.445196 -0.338895 -0.512 167 119 99
0.447247 -0.338233 -0.511 149 98 79
0.448405 -0.33691 -0.509 169 118 99
0.449374 -0.33691 -0.509 170 119 100
0.454436 -0.334924 -0.506 174 123 102
0.497679 -0.344852 -0.521 149 111 90
-0.358769 -0.396294 -0.597 235 236 228
0.0286029 -0.280791 -0.423 202 158 133
0.0542571 -0.280128 -0.422 193 147 121
0.0627381 -0.282119 -0.425 178 132 109
0.093241 -0.294068 -0.443 100 79 76
0.108077 -0.309999 -0.467 95 69 78
0.315382 -0.39895 -0.601 198 203 232
0.32225 -0.39895 -0.601 188 192 221
0.32454 -0.39895 -0.601 180 191 223
0.334843 -0.39895 -0.601 36 73 154
0.361172 -0.39895 -0.601 68 104 162
0.366896 -0.39895 -0.601 45 87 159
0.37262 -0.39895 -0.601 63 103 165
0.373765 -0.39895 -0.601 61 96 150
0.37491 -0.39895 -0.601 79 114 168
0.443595 -0.39895 -0.601 179 180 198
0.458093 -0.399613 -0.602 24 56 129
0.468043 -0.400277 -0.603 29 64 132
0.47644 -0.399613 -0.602 168 169 190
0.446034 -0.350491 -0.528 147 107 95
0.47564 -0.335888 -0.506 151 106 87
0.478488 -0.337215 -0.508 148 105 88
0.49192 -0.342526 -0.516 156 115 97
0.0217552 -0.286923 -0.431 193 153 127
0.0659762 -0.282929 -0.425 167 121 97
0.071 -0.283594 -0.426 168 122 99
0.0826971 -0.287589 -0.432 137 98 91
0.100967 -0.3029 -0.455 93 72 77
0.347435 -0.400094 -0.601 52 86 147
0.35087 -0.400094 -0.601 114 137 179
0.382286 -0.399429 -0.6 117 133 158
0.412687 -0.400094 -0.601 137 141 150
0.472214 -0.400094 -0.601 135 140 159
0.479083 -0.400094 -0.601 173 175 196
0.442777 -0.343509 -0.516 161 115 99
0.443881 -0.342843 -0.515 167 118 101
0.445089 -0.341511 -0.513 167 120 102
0.455462 -0.336186 -0.505 166 115 96
-0.344545 -0.397901 -0.596 235 236 228
-0.289567 -0.397233 -0.595 237 238 230
0.0269276 -0.281735 -0.422 199 158 130
0.0301429 -0.281735 -0.422 200 156 129
0.0308733 -0.281068 -0.421 201 157 130
0.0324771 -0.281068 -0.421 200 156 127
0.0558648 -0.281735 -0.422 183 137 111
0.0684048 -0.283738 -0.425 171 124 104
0.335988 -0.401239 -0.601 35 74 151
0.347435 -0.401239 -0.601 69 100 157
0.361714 -0.400571 -0.6 51 87 147
0.375429 -0.400571 -0.6 147 163 197
0.395515 -0.401239 -0.601 28 65 145
0.404673 -0.401239 -0.601 94 131 199
0.408571 -0.400571 -0.6 181 181 207
0.422286 -0.400571 -0.6 65 103 168
0.457332 -0.401239 -0.601 42 72 134
0.467635 -0.401239 -0.601 54 78 124
0.483662 -0.401239 -0.601 170 177 195
0.488898 -0.399904 -0.599 94 115 160
0.489221 -0.399236 -0.598 101 126 166
0.479167 -0.383881 -0.575 130 102 99
0.448569 -0.354506 -0.531 142 108 98
0.444799 -0.349165 -0.523 153 115 102
0.450344 -0.339818 -0.509 170 119 102
0.45648 -0.33648 -0.504 169 118 99
0.563613 -0.383213 -0.574 174 169 149
0.0245743 -0.283209 -0.423 198 156 131
0.0285352 -0.282539 -0.422 198 154 127
0.050119 -0.28187 -0.421 190 145 116
0.0566686 -0.282539 -0.422 183 137 111
0.0633981 -0.283878 -0.424 176 128 105
0.0642057 -0.283878 -0.424 177 129 107
0.0780371 -0.287226 -0.429 140 100 90
0.0962143 -0.300616 -0.449 96 72 70
0.352571 -0.401714 -0.6 190 198 217
0.385071 -0.401045 -0.599 155 152 159
0.389143 -0.401714 -0.6 118 141 191
0.392571 -0.401714 -0.6 27 61 133
0.401714 -0.401714 -0.6 36 83 155
0.454286 -0.401714 -0.6 52 75 125
0.485143 -0.401714 -0.6 142 146 157
0.489221 -0.400375 -0.598 109 128 170
0.444862 -0.344805 -0.515 163 117 102
0.448314 -0.341457 -0.51 157 108 93
0.451394 -0.340118 -0.508 169 118 101
0.461362 -0.336101 -0.502 167 118 101
0.475662 -0.33811 -0.505 154 111 92
0.0214524 -0.285357 -0.425 195 155 129
0.0284676 -0.282671 -0.421 198 154 127
0.0324 -0.282 -0.42 197 153 124
0.0444 -0.282 -0.42 192 146 120
0.0485152 -0.282671 -0.421 190 144 118
0.055061 -0.283343 -0.422 183 137 113
0.0566686 -0.283343 -0.422 183 137 113
0.0584143 -0.284014 -0.423 182 136 112
0.0800429 -0.289386 -0.431 136 98 89
0.0861514 -0.293414 -0.437 121 88 83
0.0966429 -0.302814 -0.451 97 73 71
0.1034 -0.3102 -0.462 91 71 72
0.324601 -0.402186 -0.599 104 126 173
0.332588 -0.402186 -0.599 38 74 150
0.35883 -0.402186 -0.599 83 110 157
0.396 -0.402857 -0.6 34 73 142
0.422723 -0.402186 -0.599 74 115 179
0.434132 -0.402186 -0.599 59 101 161
0.444401 -0.402186 -0.599 175 184 193
0.448965 -0.402186 -0.599 139 144 163
0.450106 -0.402186 -0.599 91 97 129
0.455429 -0.402857 -0.6 65 85 135
0.478286 -0.402857 -0.6 164 171 181
0.488082 -0.401514 -0.598 93 110 153
0.447247 -0.3431 -0.511 157 110 94
0.449286 -0.342429 -0.51 162 113 98
0.450257 -0.342429 -0.51 168 119 104
0.460365 -0.337729 -0.503 163 112 95
0.465187 -0.337057 -0.502 160 113 93
0.468055 -0.337057 -0.502 160 113 93
0.47282 -0.337729 -0.503 161 114 94
0.496812 -0.347129 -0.517 150 109 89
-0.346783 -0.39996 -0.594 232 235 228
0.0268638 -0.283473 -0.421 198 157 129
0.0308 -0.2828 -0.42 195 151 124
0.0324 -0.2828 -0.42 196 152 125
0.0356 -0.2828 -0.42 198 154 127
0.071 -0.28684 -0.426 157 111 88
0.0727933 -0.287513 -0.427 156 110 87
0.0745943 -0.288187 -0.428 150 104 88
0.0792219 -0.290207 -0.431 136 99 91
0.09176 -0.29896 -0.444 99 78 77
0.10098 -0.30906 -0.459 92 70 72
0.348561 -0.403327 -0.599 189 195 211
0.397143 -0.404 -0.6 77 116 181
0.398286 -0.404 -0.6 34 71 139
0.402857 -0.404 -0.6 36 79 148
0.403327 -0.403327 -0.599 54 80 139
0.411313 -0.403327 -0.599 185 193 204
0.485475 -0.403327 -0.599 137 148 178
0.454436 -0.340707 -0.506 167 115 101
0.470924 -0.338013 -0.502 160 113 93
0.491991 -0.34542 -0.513 151 108 89
-0.356966 -0.401091 -0.594 234 235 229
0.0183429 -0.289002 -0.428 189 152 125
0.03 -0.2836 -0.42 194 150 123
0.0693771 -0.287651 -0.426 163 116 96
0.081239 -0.292378 -0.433 132 94 85
0.0863486 -0.295754 -0.438 118 85 80
0.317225 -0.403792 -0.598 200 207 226
0.326337 -0.403792 -0.598 109 133 181
0.343423 -0.403792 -0.598 171 188 218
0.352535 -0.403792 -0.598 176 176 188
0.374177 -0.403792 -0.598 170 182 194
0.456189 -0.403792 -0.598 140 156 190
0.459606 -0.403792 -0.598 79 101 140
0.463023 -0.403792 -0.598 121 128 154
0.475552 -0.403792 -0.598 166 170 182
0.449902 -0.357201 -0.529 147 110 94
0.44621 -0.351124 -0.52 152 114 95
0.454436 -0.34167 -0.506 164 115 100
0.462318 -0.33897 -0.502 175 124 105
0.475694 -0.339645 -0.503 162 117 96
0.484293 -0.343021 -0.508 141 96 77
-0.359753 -0.401546 -0.593 232 235 228
0.0175686 -0.290494 -0.429 192 155 128
0.0558648 -0.285754 -0.422 180 130 107
0.0985829 -0.308777 -0.456 92 72 74
0.318969 -0.404254 -0.597 194 203 220
0.333751 -0.404254 -0.597 41 78 156
0.364454 -0.404254 -0.597 73 113 175
0.372414 -0.404254 -0.597 122 159 212
0.384429 -0.404931 -0.598 146 152 168
0.409488 -0.404931 -0.598 160 169 186
0.426997 -0.404254 -0.597 96 120 168
0.428134 -0.404254 -0.597 115 139 187
0.46566 -0.404254 -0.597 117 127 152
0.473274 -0.404931 -0.598 142 154 180
0.475552 -0.404931 -0.598 154 161 180
0.47897 -0.404931 -0.598 162 167 186
0.487266 -0.404254 -0.597 84 100 136
0.469471 -0.377169 -0.557 132 103 97
0.458893 -0.367011 -0.542 136 105 100
0.447068 -0.352791 -0.521 148 112 90
0.446824 -0.348729 -0.515 157 116 98
0.450344 -0.344666 -0.509 167 120 102
0.461362 -0.339926 -0.502 171 123 101
0.462318 -0.339926 -0.502 173 125 103
0.467099 -0.339926 -0.502 167 119 99
-0.356891 -0.401996 -0.592 232 235 228
0.0174867 -0.289953 -0.427 196 156 130
0.018979 -0.287916 -0.424 194 156 133
0.050119 -0.285879 -0.421 187 139 116
0.0525248 -0.285879 -0.421 188 140 118
0.0542571 -0.286558 -0.422 179 131 109
0.076581 -0.29199 -0.43 142 99 90
0.07758 -0.29267 -0.431 136 99 91
0.0794057 -0.293349 -0.432 127 92 88
0.0834629 -0.296065 -0.436 123 88 84
0.100324 -0.312362 -0.46 93 72 77
0.328066 -0.405391 -0.597 61 93 144
0.379237 -0.405391 -0.597 181 186 205
0.388334 -0.405391 -0.597 68 91 135
0.406529 -0.405391 -0.597 116 135 168
0.412214 -0.405391 -0.597 176 179 194
0.474757 -0.405391 -0.597 104 113 142
0.480443 -0.405391 -0.597 159 165 181
0.473686 -0.381625 -0.562 130 101 95
0.447926 -0.354463 -0.522 146 111 91
0.448122 -0.347672 -0.512 161 118 101
0.467123 -0.340203 -0.501 167 119 99
0.47761 -0.341561 -0.503 154 109 88
0.492983 -0.347672 -0.512 148 107 87
0.495888 -0.34903 -0.514 150 109 89
0.0189343 -0.288043 -0.423 197 157 131
0.033919 -0.285319 -0.419 201 157 132
0.0525248 -0.286681 -0.421 185 137 115
0.0816143 -0.296214 -0.435 126 91 87
0.318434 -0.405848 -0.596 200 207 223
0.31957 -0.405848 -0.596 197 204 220
0.322975 -0.405848 -0.596 136 153 196
0.405391 -0.406529 -0.597 60 79 111
0.413351 -0.406529 -0.597 178 184 198
0.428552 -0.405848 -0.596 108 132 180
0.434229 -0.405848 -0.596 142 160 196
0.455426 -0.406529 -0.597 158 164 186
0.477368 -0.405848 -0.596 145 154 183
0.450344 -0.346605 -0.509 167 119 99
0.0138286 -0.300457 -0.44 192 155 129
0.01586 -0.29158 -0.427 196 156 130
0.0236 -0.2868 -0.42 200 159 131
0.0243419 -0.286117 -0.419 199 158 130
0.0283324 -0.286117 -0.419 197 153 126
0.033121 -0.286117 -0.419 200 156 129
0.033919 -0.286117 -0.419 200 156 129
0.0525248 -0.287483 -0.421 184 138 114
0.0542571 -0.288166 -0.422 177 126 107
0.07776 -0.294994 -0.432 133 96 87
0.260537 -0.406983 -0.596 185 205 242
0.323567 -0.4063 -0.595 80 101 148
0.336598 -0.406983 -0.596 72 106 167
0.340004 -0.406983 -0.596 54 89 145
0.341139 -0.406983 -0.596 58 93 149
0.34568 -0.406983 -0.596 144 150 164
0.350221 -0.406983 -0.596 196 195 201
0.37179 -0.406983 -0.596 151 181 217
0.39109 -0.406983 -0.596 126 142 158
0.39336 -0.406983 -0.596 136 153 181
0.427417 -0.406983 -0.596 122 143 186
0.430823 -0.406983 -0.596 81 108 151
0.44104 -0.406983 -0.596 168 173 195
0.453528 -0.406983 -0.596 166 173 191
0.476567 -0.4063 -0.595 112 122 158
0.479638 -0.406983 -0.596 158 165 193
0.464169 -0.373523 -0.547 140 103 97
0.456024 -0.365329 -0.535 136 103 98
0.447574 -0.353037 -0.517 159 113 97
0.452283 -0.347574 -0.509 169 120 103
0.453472 -0.345526 -0.506 168 119 102
0.478569 -0.343477 -0.503 156 110 94
0.498814 -0.351671 -0.515 150 109 91
-0.355163 -0.404694 -0.591 231 232 226
0.0150467 -0.292393 -0.427 197 157 132
0.0267362 -0.286915 -0.419 197 155 130
0.0558648 -0.28897 -0.422 179 128 109
0.0617829 -0.290339 -0.424 175 124 107
0.0883771 -0.304034 -0.444 106 77 79
0.282767 -0.407433 -0.595 215 214 232
0.298633 -0.407433 -0.595 97 137 186
0.303167 -0.407433 -0.595 89 135 187
0.312233 -0.407433 -0.595 197 206 221
0.3145 -0.407433 -0.595 197 208 228
0.326967 -0.407433 -0.595 96 120 164
0.3485 -0.407433 -0.595 196 194 205
0.3825 -0.407433 -0.595 119 133 160
0.4131 -0.407433 -0.595 175 179 206
0.4267 -0.407433 -0.595 108 130 171
0.439167 -0.407433 -0.595 169 172 191
0.4437 -0.407433 -0.595 74 83 116
0.4811 -0.407433 -0.595 163 169 193
0.486767 -0.407433 -0.595 78 96 144
0.489343 -0.406749 -0.594 71 93 143
0.489649 -0.406064 -0.593 83 105 155
0.491374 -0.404694 -0.591 67 87 140
0.467563 -0.377304 -0.551 132 103 105
0.449544 -0.354022 -0.517 158 112 97
0.448997 -0.351283 -0.513 166 119 101
0.499795 -0.352652 -0.515 152 110 96
0.0135457 -0.295953 -0.431 196 156 130
0.0243419 -0.287713 -0.419 195 154 126
0.0330419 -0.287027 -0.418 196 152 125
0.0379095 -0.287713 -0.419 187 141 115
0.055061 -0.289773 -0.422 179 128 107
0.0713333 -0.293893 -0.428 151 105 90
0.302657 -0.40788 -0.594 100 140 189
0.32076 -0.40788 -0.594 120 131 153
0.332633 -0.408567 -0.595 79 96 126
0.337167 -0.408567 -0.595 133 154 197
0.346783 -0.40788 -0.594 191 195 206
0.36828 -0.40788 -0.594 112 140 180
0.3762 -0.40788 -0.594 180 186 210
0.387514 -0.40788 -0.594 156 167 189
0.393833 -0.408567 -0.595 110 123 142
0.403354 -0.40788 -0.594 174 179 208
0.416931 -0.40788 -0.594 177 177 205
0.4199 -0.408567 -0.595 126 133 162
0.4811 -0.408567 -0.595 154 163 192
0.485633 -0.408567 -0.595 130 144 173
0.485949 -0.40788 -0.594 93 116 158
0.46521 -0.375607 -0.547 132 103 105
0.457043 -0.367367 -0.535 137 107 99
0.448674 -0.35432 -0.516 160 117 101
0.449872 -0.352947 -0.514 165 118 100
0.453472 -0.347453 -0.506 169 121 101
0.4545 -0.346767 -0.505 169 121 101
0.456532 -0.345393 -0.503 171 123 103
0.463333 -0.343333 -0.5 170 122 102
0.470952 -0.343333 -0.5 168 121 103
0.4824 -0.34608 -0.504 155 112 96
0.484319 -0.346767 -0.505 153 110 94
0.486242 -0.347453 -0.506 153 110 94
0.0188 -0.2892 -0.42 196 157 128
0.0314495 -0.287823 -0.418 194 150 123
0.0354305 -0.287823 -0.418 194 148 122
0.0403038 -0.288511 -0.419 190 144 120
0.0751171 -0.296774 -0.431 132 94 85
0.08526 -0.30366 -0.441 108 80 79
0.0923476 -0.310546 -0.451 96 75 74
0.301526 -0.409011 -0.594 131 167 215
0.325286 -0.409011 -0.594 126 152 203
0.349046 -0.409011 -0.594 192 191 205
0.356365 -0.408323 -0.593 132 150 186
0.369411 -0.409011 -0.594 144 161 189
0.389777 -0.409011 -0.594 166 174 193
0.397697 -0.409011 -0.594 165 171 197
0.4151 -0.408323 -0.593 174 176 199
0.462189 -0.409011 -0.594 167 174 190
0.483686 -0.409011 -0.594 138 151 183
0.491667 -0.406257 -0.59 59 77 127
0.450748 -0.354614 -0.515 164 119 100
0.466209 -0.343597 -0.499 168 121 103
0.482401 -0.346351 -0.503 153 110 93
-0.358449 -0.40669 -0.589 231 232 226
-0.351717 -0.40669 -0.589 230 231 225
0.018 -0.29 -0.42 196 155 127
0.0362267 -0.288619 -0.418 193 147 121
0.0436 -0.29 -0.42 188 140 117
0.0669429 -0.294143 -0.426 159 110 96
0.0866857 -0.306571 -0.444 106 80 81
0.096819 -0.317619 -0.46 90 70 72
0.2295 -0.410833 -0.595 127 154 201
0.299889 -0.409452 -0.593 125 153 193
0.304407 -0.409452 -0.593 104 135 181
0.310054 -0.409452 -0.593 193 201 220
0.312313 -0.409452 -0.593 193 204 224
0.328127 -0.409452 -0.593 175 191 216
0.330386 -0.409452 -0.593 160 176 201
0.354106 -0.409452 -0.593 185 192 210
0.36766 -0.409452 -0.593 101 130 174
0.375567 -0.409452 -0.593 172 182 209
0.396566 -0.410143 -0.594 173 178 198
0.412841 -0.409452 -0.593 154 164 189
0.418489 -0.409452 -0.593 139 149 174
0.48739 -0.409452 -0.593 50 75 131
0.467957 -0.379071 -0.549 127 102 98
0.451772 -0.361119 -0.523 147 109 98
0.449544 -0.356976 -0.517 157 115 101
0.449657 -0.356286 -0.516 163 118 99
0.451313 -0.351452 -0.509 168 121 101
0.45552 -0.348 -0.504 169 121 101
0.472862 -0.344548 -0.499 164 117 97
0.489133 -0.349381 -0.506 152 111 93
0.493972 -0.351452 -0.509 152 111 93
0.0156371 -0.291492 -0.421 198 157 129
0.0218952 -0.289415 -0.418 198 154 125
0.0298571 -0.289415 -0.418 199 153 127
0.0362267 -0.289415 -0.418 191 147 120
0.0485152 -0.291492 -0.421 181 137 112
0.0724857 -0.297724 -0.43 143 96 86
0.0734752 -0.298416 -0.431 140 93 83
0.0957343 -0.317803 -0.459 91 71 72
0.231377 -0.411274 -0.594 139 176 221
0.270521 -0.410582 -0.593 159 177 217
0.302148 -0.410582 -0.593 146 174 214
0.304407 -0.410582 -0.593 112 141 183
0.325318 -0.40989 -0.592 154 170 195
0.33885 -0.40989 -0.592 162 173 195
0.348998 -0.40989 -0.592 186 192 214
0.350126 -0.40989 -0.592 183 189 211
0.354636 -0.40989 -0.592 155 162 181
0.356891 -0.40989 -0.592 98 113 146
0.358019 -0.40989 -0.592 91 115 159
0.360274 -0.40989 -0.592 112 140 190
0.385082 -0.40989 -0.592 174 181 197
0.398157 -0.410582 -0.593 172 183 189
0.427931 -0.40989 -0.592 66 96 148
0.43882 -0.410582 -0.593 80 96 129
0.460281 -0.410582 -0.593 152 156 167
0.476094 -0.410582 -0.593 136 144 167
0.483686 -0.394657 -0.57 128 98 96
0.452769 -0.362115 -0.523 150 112 101
0.45183 -0.355884 -0.514 164 116 96
0.452437 -0.351037 -0.507 169 121 101
0.45648 -0.34896 -0.504 170 122 102
0.473812 -0.345498 -0.499 162 115 95
-0.35672 -0.40824 -0.588 230 231 223
0.02508 -0.290211 -0.418 193 149 122
0.037819 -0.290211 -0.418 190 144 120
0.0386152 -0.290211 -0.418 190 144 120
0.0805086 -0.304097 -0.438 114 85 81
0.237765 -0.411711 -0.593 138 165 210
0.263744 -0.411711 -0.593 171 193 234
0.337722 -0.411017 -0.592 180 186 208
0.344488 -0.411017 -0.592 69 84 117
0.352381 -0.411017 -0.592 187 189 210
0.364785 -0.411017 -0.592 72 108 158
0.365912 -0.411017 -0.592 82 111 155
0.377189 -0.411017 -0.592 71 84 129
0.379444 -0.411017 -0.592 106 120 149
0.387337 -0.411017 -0.592 170 182 198
0.396358 -0.411017 -0.592 170 177 193
0.404251 -0.411017 -0.592 172 176 188
0.425676 -0.411017 -0.592 82 111 169
0.443718 -0.411017 -0.592 160 167 186
0.453867 -0.411017 -0.592 169 173 184
0.45838 -0.370054 -0.533 142 105 97
0.453403 -0.352003 -0.507 169 121 101
0.45648 -0.34992 -0.504 171 123 103
0.460443 -0.347837 -0.501 167 118 101
0.461397 -0.347837 -0.501 168 119 102
0.481437 -0.347837 -0.501 156 114 92
0.49981 -0.355474 -0.512 149 108 88
0.51059 -0.361029 -0.52 150 112 91
0.0419 -0.291704 -0.419 189 143 117
0.0436 -0.2924 -0.42 191 145 119
0.0628857 -0.296577 -0.426 161 107 95
0.0754657 -0.30145 -0.433 127 92 88
0.09636 -0.32164 -0.462 92 73 69
0.330956 -0.412145 -0.592 135 140 160
0.369797 -0.411449 -0.591 175 181 197
0.400191 -0.411449 -0.591 177 182 188
0.410323 -0.411449 -0.591 100 116 149
0.412145 -0.412145 -0.592 83 97 136
0.421166 -0.412145 -0.592 58 84 135
0.439591 -0.411449 -0.591 141 153 179
0.441843 -0.411449 -0.591 165 172 191
0.469653 -0.412145 -0.592 161 163 178
0.478674 -0.412145 -0.592 102 109 138
0.483185 -0.412145 -0.592 44 68 116
0.452023 -0.35645 -0.512 166 119 101
0.458534 -0.348791 -0.501 169 121 101
0.462381 -0.348095 -0.5 173 122 103
0.4872 -0.35088 -0.504 153 110 91
0.489129 -0.351576 -0.505 152 111 91
0.565611 -0.392651 -0.564 173 154 140
-0.355507 -0.409084 -0.586 231 232 224
0.0218952 -0.291804 -0.418 198 154 129
0.0274029 -0.291106 -0.417 198 154 127
0.03058 -0.291106 -0.417 199 153 129
0.0337571 -0.291106 -0.417 195 151 124
0.050921 -0.293898 -0.421 181 130 111
0.0577448 -0.295992 -0.424 172 119 103
0.0645086 -0.297389 -0.426 156 104 91
0.0996067 -0.327407 -0.469 90 70 72
0.223832 -0.413272 -0.592 224 222 235
0.289871 -0.412574 -0.591 173 188 211
0.340529 -0.412574 -0.591 185 190 212
0.341654 -0.412574 -0.591 182 188 212
0.345031 -0.412574 -0.591 79 94 133
0.375426 -0.412574 -0.591 92 108 141
0.378803 -0.412574 -0.591 162 167 186
0.4366 -0.411876 -0.59 101 116 147
0.451974 -0.412574 -0.591 148 150 165
0.45552 -0.35184 -0.504 168 119 102
0.463333 -0.349048 -0.5 171 123 103
0.465258 -0.34835 -0.499 164 116 96
0.46812 -0.347651 -0.498 174 126 106
0.509613 -0.361613 -0.518 148 111 93
-0.352158 -0.4102 -0.586 230 231 223
0.0155629 -0.2933 -0.419 199 157 132
0.0179143 -0.2926 -0.418 198 154 129
0.021099 -0.2926 -0.418 196 155 127
0.0329629 -0.2919 -0.417 195 149 125
0.0386152 -0.2926 -0.418 190 144 118
0.050921 -0.2947 -0.421 182 131 112
0.0889114 -0.3157 -0.451 95 74 73
0.0969857 -0.3255 -0.465 90 72 70
0.219322 -0.4144 -0.592 202 200 211
0.307362 -0.413 -0.59 191 201 228
0.337705 -0.413 -0.59 189 197 208
0.353438 -0.413 -0.59 165 173 196
0.370295 -0.413 -0.59 174 177 208
0.382657 -0.413 -0.59 173 182 199
0.387152 -0.413 -0.59 113 118 121
0.393437 -0.4137 -0.591 171 179 192
0.396814 -0.4137 -0.591 172 174 186
0.415248 -0.413 -0.59 93 106 158
0.44559 -0.413 -0.59 109 104 110
0.452498 -0.3619 -0.517 163 114 97
0.45281 -0.3598 -0.514 165 117 95
0.453472 -0.3542 -0.506 171 122 105
0.4545 -0.3535 -0.505 171 122 105
0.45552 -0.3528 -0.504 167 120 102
0.487191 -0.3521 -0.503 147 109 90
0.491052 -0.3535 -0.505 148 110 91
0.0265448 -0.291992 -0.416 195 154 124
0.0485152 -0.295502 -0.421 179 131 111
0.050119 -0.295502 -0.421 179 131 111
0.06532 -0.299011 -0.426 155 107 93
0.0698657 -0.301117 -0.429 142 98 87
0.0766429 -0.305329 -0.435 122 89 82
0.2167 -0.414826 -0.591 224 222 235
0.217826 -0.414826 -0.591 210 208 221
0.258351 -0.414826 -0.591 193 198 227
0.266905 -0.414124 -0.59 167 173 189
0.31806 -0.413422 -0.589 189 201 215
0.345571 -0.414124 -0.59 136 151 180
0.354562 -0.414124 -0.59 153 169 203
0.355686 -0.414124 -0.59 156 172 206
0.375914 -0.414124 -0.59 168 178 188
0.407812 -0.413422 -0.589 167 171 182
0.423519 -0.413422 -0.589 22 52 114
0.433229 -0.414124 -0.59 38 71 125
0.444467 -0.414124 -0.59 123 123 131
0.450086 -0.414124 -0.59 110 114 139
0.456829 -0.414124 -0.59 95 107 133
0.465819 -0.414124 -0.59 116 116 126
0.478181 -0.414124 -0.59 49 67 115
0.45563 -0.367798 -0.524 149 111 100
0.452998 -0.359375 -0.512 164 119 98
0.453472 -0.355164 -0.506 169 122 104
0.4757 -0.348847 -0.497 166 121 100
0.508629 -0.362183 -0.516 146 108 87
-0.3549 -0.411729 -0.585 230 231 225
0.00933143 -0.299823 -0.426 176 139 113
0.0139667 -0.294896 -0.419 197 157 131
0.01946 -0.293489 -0.417 197 156 126
0.0444 -0.2956 -0.42 183 137 111
0.0525248 -0.296304 -0.421 164 116 96
0.0833029 -0.312491 -0.444 102 78 74
0.250048 -0.415248 -0.59 181 192 214
0.313572 -0.414544 -0.589 107 131 169
0.316938 -0.414544 -0.589 189 198 213
0.31806 -0.414544 -0.589 191 200 215
0.333767 -0.414544 -0.589 188 192 204
0.337132 -0.414544 -0.589 192 200 213
0.360692 -0.414544 -0.589 59 91 150
0.382009 -0.414544 -0.589 167 176 183
0.388276 -0.415248 -0.59 171 173 185
0.395019 -0.415248 -0.59 158 165 181
0.395471 -0.414544 -0.589 150 156 168
0.421275 -0.414544 -0.589 17 46 112
0.438104 -0.414544 -0.589 150 157 175
0.442591 -0.414544 -0.589 130 129 135
0.479614 -0.414544 -0.589 53 79 130
0.482891 -0.396949 -0.564 132 104 103
0.455757 -0.368092 -0.523 150 111 94
0.453789 -0.361758 -0.514 159 116 97
0.453252 -0.358239 -0.509 165 120 101
0.459524 -0.351905 -0.5 170 122 102
0.470964 -0.34909 -0.496 166 119 101
0.482367 -0.351201 -0.499 156 113 94
-0.33872 -0.412137 -0.584 233 234 228
-0.330933 -0.412137 -0.584 232 233 227
0.0147295 -0.294989 -0.418 197 155 130
0.0289219 -0.293577 -0.416 197 151 125
0.0305067 -0.293577 -0.416 196 150 124
0.037819 -0.294989 -0.418 188 142 116
0.0436 -0.2964 -0.42 183 137 111
0.0636971 -0.300634 -0.426 156 107 93
0.0758143 -0.306986 -0.435 121 87 85
0.0780057 -0.309103 -0.438 118 84 82
0.26533 -0.415666 -0.589 175 178 197
0.304597 -0.415666 -0.589 169 189 224
0.340498 -0.415666 -0.589 121 124 129
0.361814 -0.415666 -0.589 49 80 144
0.3724 -0.41496 -0.588 155 165 190
0.37576 -0.41496 -0.588 179 183 195
0.38313 -0.415666 -0.589 149 157 160
0.397715 -0.415666 -0.589 135 144 161
0.41272 -0.41496 -0.588 49 72 113
0.423519 -0.415666 -0.589 23 55 116
0.438104 -0.415666 -0.589 157 165 188
0.449323 -0.415666 -0.589 149 148 162
0.463908 -0.415666 -0.589 158 160 175
0.478492 -0.415666 -0.589 98 116 156
0.47644 -0.390966 -0.554 133 102 99
0.45737 -0.371206 -0.526 148 110 97
0.465274 -0.351446 -0.498 170 123 103
0.505661 -0.361326 -0.512 149 108 88
0.0170771 -0.295077 -0.417 197 156 128
0.0202057 -0.29437 -0.416 198 154 127
0.0217905 -0.29437 -0.416 198 157 129
0.0273371 -0.29437 -0.416 199 155 128
0.06466 -0.302153 -0.427 152 104 92
0.0924381 -0.325505 -0.46 86 70 73
0.233917 -0.416788 -0.589 159 183 219
0.240649 -0.416788 -0.589 193 204 226
0.24177 -0.416788 -0.589 209 220 242
0.246258 -0.416788 -0.589 209 215 241
0.29736 -0.41608 -0.588 122 156 217
0.35336 -0.41608 -0.588 94 121 174
0.36232 -0.41608 -0.588 33 66 133
0.36904 -0.41608 -0.588 46 75 133
0.3724 -0.41608 -0.588 164 175 195
0.38248 -0.41608 -0.588 114 119 123
0.40712 -0.41608 -0.588 159 159 167
0.43848 -0.41608 -0.588 155 164 193
0.44632 -0.41608 -0.588 166 165 181
0.48104 -0.41608 -0.588 105 126 157
0.48552 -0.41608 -0.588 41 73 122
0.493639 -0.415372 -0.587 95 114 147
0.469049 -0.384237 -0.543 136 106 98
0.4575 -0.3715 -0.525 153 111 97
0.455462 -0.357348 -0.505 165 120 101
0.471909 -0.350979 -0.496 169 120 103
0.476632 -0.350979 -0.496 161 114 96
-0.350355 -0.413652 -0.583 231 232 226
0.0265448 -0.295162 -0.416 197 156 126
0.0312238 -0.294452 -0.415 191 150 118
0.0476 -0.298 -0.42 179 131 109
0.0493171 -0.29871 -0.421 174 128 105
0.0542571 -0.299419 -0.422 168 117 100
0.072 -0.306514 -0.432 130 91 84
0.0849067 -0.317867 -0.448 97 75 77
0.0873867 -0.320705 -0.452 93 73 75
0.25592 -0.4172 -0.588 209 217 240
0.344932 -0.41649 -0.587 180 183 190
0.34776 -0.4172 -0.588 174 180 202
0.376239 -0.41649 -0.587 167 171 182
0.39032 -0.4172 -0.588 93 108 137
0.406428 -0.41649 -0.587 165 165 173
0.409782 -0.41649 -0.587 145 157 181
0.415372 -0.41649 -0.587 49 76 129
0.4508 -0.4172 -0.588 161 165 177
0.4564 -0.4172 -0.588 144 146 161
0.472395 -0.41649 -0.587 105 109 134
0.47432 -0.4172 -0.588 51 62 94
0.48216 -0.4172 -0.588 108 124 149
0.45744 -0.3576 -0.504 167 122 103
0.465287 -0.352633 -0.497 169 121 101
0.474729 -0.351214 -0.495 166 117 100
0.486169 -0.354052 -0.499 151 113 92
0.516529 -0.368243 -0.519 144 108 86
0.00608571 -0.303069 -0.426 192 151 121
0.0107743 -0.298089 -0.419 193 151 126
0.0304333 -0.295243 -0.415 195 151 122
0.03614 -0.296666 -0.417 188 147 117
0.055061 -0.300223 -0.422 166 118 98
0.0636971 -0.303069 -0.426 146 103 94
0.0826429 -0.316586 -0.445 99 75 75
0.331515 -0.417609 -0.587 167 176 193
0.339342 -0.417609 -0.587 184 187 192
0.359468 -0.417609 -0.587 22 56 120
0.361704 -0.417609 -0.587 33 67 131
0.390774 -0.417609 -0.587 93 109 134
0.437734 -0.417609 -0.587 101 112 144
0.44072 -0.41832 -0.588 155 160 180
0.44408 -0.41832 -0.588 162 161 175
0.446679 -0.417609 -0.587 166 168 183
0.46088 -0.41832 -0.588 159 160 178
0.464569 -0.417609 -0.587 159 162 171
0.465687 -0.417609 -0.587 155 158 167
0.470159 -0.417609 -0.587 97 101 128
0.474631 -0.417609 -0.587 64 75 107
0.456114 -0.369943 -0.52 156 113 97
0.455347 -0.36852 -0.518 159 113 97
0.454949 -0.364251 -0.512 162 115 99
0.460443 -0.356426 -0.501 168 123 104
0.0225286 -0.296033 -0.415 197 156 126
0.0241095 -0.296033 -0.415 197 156 126
0.0320143 -0.296033 -0.415 193 148 119
0.0328048 -0.296033 -0.415 193 148 119
0.0534533 -0.301027 -0.422 170 119 100
0.0559971 -0.30174 -0.423 170 119 102
0.0710124 -0.307447 -0.431 128 94 85
0.0739867 -0.309587 -0.434 117 84 77
0.152018 -0.420153 -0.589 221 226 246
0.255485 -0.418727 -0.587 208 217 234
0.256603 -0.418727 -0.587 208 216 235
0.294116 -0.418013 -0.586 60 91 148
0.309743 -0.418013 -0.586 175 189 216
0.338764 -0.418013 -0.586 182 185 190
0.345461 -0.418013 -0.586 167 169 184
0.36332 -0.418013 -0.586 56 91 155
0.382295 -0.418013 -0.586 167 170 177
0.396806 -0.418013 -0.586 160 163 170
0.422478 -0.418013 -0.586 43 77 138
0.451151 -0.418727 -0.587 164 166 179
0.455624 -0.418727 -0.587 159 158 174
0.46345 -0.418727 -0.587 157 157 167
0.470159 -0.418727 -0.587 86 91 120
0.482458 -0.418727 -0.587 112 131 164
0.494453 -0.416587 -0.584 110 113 128
0.461857 -0.378067 -0.53 143 110 95
0.463357 -0.355953 -0.499 167 120 100
-0.351367 -0.415553 -0.581 230 231 225
-0.35026 -0.415553 -0.581 230 231 225
-0.34694 -0.415553 -0.581 230 231 225
0.026481 -0.296824 -0.415 196 152 123
0.0304333 -0.296824 -0.415 195 149 123
0.0312238 -0.296824 -0.415 194 148 122
0.084241 -0.321142 -0.449 95 73 75
0.242068 -0.419845 -0.587 206 217 237
0.249894 -0.419845 -0.587 196 204 225
0.344345 -0.41913 -0.586 128 128 130
0.351042 -0.41913 -0.586 43 68 132
0.353274 -0.41913 -0.586 45 83 148
0.355507 -0.41913 -0.586 59 98 153
0.364929 -0.418414 -0.585 44 80 140
0.382295 -0.41913 -0.586 166 169 178
0.408386 -0.418414 -0.585 48 54 88
0.451499 -0.41913 -0.586 159 158 174
0.460429 -0.41913 -0.586 159 158 172
0.47159 -0.41913 -0.586 71 80 109
0.482752 -0.41913 -0.586 96 112 146
0.488614 -0.418414 -0.585 78 106 153
0.455265 -0.363341 -0.508 165 119 103
0.4563 -0.362626 -0.507 163 118 99
0.458493 -0.35905 -0.502 171 122 105
0.462407 -0.356904 -0.499 169 123 100
0.470957 -0.354043 -0.495 171 124 104
0.491934 -0.358334 -0.501 151 110 90
0.0320143 -0.297614 -0.415 191 147 120
0.0377286 -0.299049 -0.417 184 140 113
0.0743276 -0.312674 -0.436 118 84 75
0.07974 -0.317694 -0.443 103 78 74
0.0821629 -0.320563 -0.447 100 76 76
0.251701 -0.420246 -0.586 207 214 233
0.257282 -0.420246 -0.586 212 217 236
0.298071 -0.419529 -0.585 45 75 148
0.299186 -0.419529 -0.585 41 73 146
0.303643 -0.419529 -0.585 59 89 159
0.304757 -0.419529 -0.585 64 94 164
0.305871 -0.419529 -0.585 87 108 161
0.338186 -0.419529 -0.585 185 188 197
0.3393 -0.419529 -0.585 184 187 196
0.341529 -0.419529 -0.585 182 191 198
0.344871 -0.419529 -0.585 124 123 141
0.361586 -0.419529 -0.585 70 99 155
0.369386 -0.419529 -0.585 49 73 119
0.383871 -0.419529 -0.585 170 174 185
0.390557 -0.419529 -0.585 156 162 174
0.4088 -0.418811 -0.584 81 97 123
0.472707 -0.420246 -0.586 108 110 131
0.473823 -0.420246 -0.586 124 126 147
0.484157 -0.419529 -0.585 81 101 134
0.457984 -0.373631 -0.521 156 115 97
0.457328 -0.362874 -0.506 166 121 102
0.462429 -0.357137 -0.498 169 122 102
0.496772 -0.360723 -0.503 151 110 90
0.00522476 -0.303438 -0.422 191 154 127
0.0114895 -0.299124 -0.416 195 154 126
0.0130743 -0.299124 -0.416 196 155 127
0.0344686 -0.299124 -0.416 186 145 115
0.0526495 -0.303438 -0.422 168 120 100
0.0577448 -0.304876 -0.424 157 110 92
0.0846162 -0.32429 -0.451 92 71 70
0.0912771 -0.332919 -0.463 89 69 70
0.248352 -0.421362 -0.586 209 216 235
0.259071 -0.420643 -0.585 206 211 230
0.263529 -0.420643 -0.585 159 162 179
0.271329 -0.420643 -0.585 201 208 224
0.313135 -0.419924 -0.584 185 194 209
0.3705 -0.420643 -0.585 44 59 98
0.383215 -0.419924 -0.584 169 173 184
0.415474 -0.419924 -0.584 125 140 173
0.4173 -0.420643 -0.585 110 125 158
0.421757 -0.420643 -0.585 80 108 156
0.441814 -0.420643 -0.585 152 153 173
0.449614 -0.420643 -0.585 157 155 169
0.460757 -0.420643 -0.585 156 158 173
0.467443 -0.420643 -0.585 56 66 91
0.478586 -0.420643 -0.585 143 149 171
0.4605 -0.3775 -0.525 150 111 94
0.4563 -0.364557 -0.507 164 119 100
0.459489 -0.360243 -0.501 171 124 106
0.461397 -0.360243 -0.501 172 125 107
0.465287 -0.357367 -0.497 164 116 96
0.485167 -0.357367 -0.497 159 114 93
0.00284 -0.307126 -0.426 190 150 124
0.00363429 -0.305684 -0.424 188 151 124
0.0154143 -0.299195 -0.415 196 155 123
0.0169543 -0.298474 -0.414 198 158 123
0.0304333 -0.299195 -0.415 191 148 116
0.0328048 -0.299195 -0.415 189 145 116
0.035261 -0.299916 -0.416 187 142 113
0.0385229 -0.300637 -0.417 184 138 112
0.0394114 -0.301358 -0.418 180 134 108
0.0444 -0.3028 -0.42 177 126 107
0.0620743 -0.307126 -0.426 142 98 87
0.0648114 -0.308568 -0.428 144 97 89
0.0674143 -0.309289 -0.429 139 92 86
0.0765114 -0.316498 -0.439 107 82 77
0.233443 -0.421757 -0.585 88 120 179
0.236786 -0.421757 -0.585 149 169 219
0.241243 -0.421757 -0.585 109 123 170
0.259071 -0.421757 -0.585 190 195 214
0.265757 -0.421757 -0.585 180 182 197
0.266871 -0.421757 -0.585 176 179 198
0.281989 -0.421036 -0.584 153 161 184
0.293112 -0.421036 -0.584 51 85 149
0.303124 -0.421036 -0.584 52 86 150
0.304236 -0.421036 -0.584 40 74 138
0.354293 -0.421036 -0.584 119 142 173
0.391002 -0.421036 -0.584 161 165 177
0.398106 -0.420315 -0.583 161 160 174
0.404769 -0.420315 -0.583 52 66 95
0.419924 -0.421036 -0.584 92 117 158
0.423261 -0.421036 -0.584 76 102 139
0.477768 -0.421036 -0.584 145 151 173
0.459742 -0.377058 -0.523 153 115 96
0.470014 -0.356871 -0.495 170 123 105
0.479443 -0.356871 -0.495 162 117 96
0.507516 -0.366244 -0.508 148 107 87
0.514466 -0.369849 -0.513 142 104 83
0.00754571 -0.301431 -0.417 199 155 128
0.0287829 -0.299263 -0.414 192 149 117
0.0411019 -0.302877 -0.419 179 131 109
0.0534533 -0.305046 -0.422 168 120 100
0.0569371 -0.306491 -0.424 157 108 91
0.0585524 -0.306491 -0.424 153 104 87
0.0630333 -0.30866 -0.427 142 98 87
0.203357 -0.422871 -0.585 217 221 232
0.250842 -0.422149 -0.584 206 213 231
0.256404 -0.422149 -0.584 184 190 206
0.26864 -0.422149 -0.584 154 159 179
0.274202 -0.422149 -0.584 198 204 218
0.325925 -0.421426 -0.583 149 157 176
0.357018 -0.421426 -0.583 78 109 153
0.36035 -0.421426 -0.583 100 127 170
0.395885 -0.421426 -0.583 159 162 179
0.414763 -0.421426 -0.583 107 118 150
0.438834 -0.422149 -0.584 79 86 112
0.444396 -0.422149 -0.584 144 145 163
0.481105 -0.422149 -0.584 78 94 130
0.486944 -0.421426 -0.583 93 113 146
0.489165 -0.421426 -0.583 65 87 124
0.4572 -0.367211 -0.508 165 120 99
0.46624 -0.358537 -0.496 174 127 107
0.48608 -0.358537 -0.496 155 112 93
0.488007 -0.35926 -0.497 150 107 88
-0.32313 -0.418912 -0.578 231 232 226
0.0161657 -0.300051 -0.414 195 154 124
0.0184867 -0.299327 -0.413 197 156 126
0.0232629 -0.300051 -0.414 194 153 121
0.0240514 -0.300051 -0.414 193 152 120
0.03036 -0.300051 -0.414 191 148 116
0.0343857 -0.300776 -0.415 186 140 116
0.0385229 -0.302226 -0.417 181 135 112
0.0426981 -0.303675 -0.419 181 130 109
0.0559971 -0.306574 -0.423 159 110 93
0.0665971 -0.310923 -0.429 135 91 82
0.0827143 -0.326143 -0.45 96 72 68
0.09656 -0.344987 -0.476 90 72 70
0.225257 -0.423261 -0.584 117 139 197
0.279285 -0.422536 -0.583 197 201 212
0.301494 -0.422536 -0.583 95 122 177
0.31482 -0.422536 -0.583 180 182 195
0.319262 -0.422536 -0.583 183 186 195
0.321483 -0.422536 -0.583 186 190 202
0.356406 -0.421811 -0.582 86 113 160
0.387001 -0.422536 -0.583 142 148 164
0.395885 -0.422536 -0.583 158 161 176
0.404074 -0.421811 -0.582 75 89 116
0.448077 -0.422536 -0.583 150 152 173
0.469176 -0.422536 -0.583 151 154 169
0.458684 -0.372528 -0.514 162 117 96
0.45931 -0.366005 -0.505 169 124 105
0.460365 -0.364555 -0.503 171 124 104
0.476592 -0.358032 -0.494 162 117 96
0.50256 -0.36528 -0.504 154 112 90
0.506482 -0.36673 -0.506 154 113 91
-0.341846 -0.420013 -0.578 229 230 224
-0.00123714 -0.314647 -0.433 193 153 127
0.00911238 -0.302293 -0.416 195 156 127
0.0232629 -0.30084 -0.414 191 150 122
0.06578 -0.31174 -0.429 132 89 80
0.0695314 -0.31392 -0.432 124 87 81
0.0746686 -0.31828 -0.438 110 81 73
0.090981 -0.338627 -0.466 89 71 69
0.324257 -0.42292 -0.582 189 191 204
0.34532 -0.42292 -0.582 121 135 164
0.36022 -0.422193 -0.581 114 137 178
0.378117 -0.423647 -0.583 163 165 180
0.379686 -0.42292 -0.582 166 165 179
0.402273 -0.422193 -0.581 75 85 110
0.40338 -0.422193 -0.581 106 116 141
0.426246 -0.42292 -0.582 96 115 148
0.43844 -0.42292 -0.582 139 146 165
0.439549 -0.42292 -0.582 128 133 153
0.468066 -0.423647 -0.583 150 154 166
0.484167 -0.422193 -0.581 87 110 142
0.489434 -0.42292 -0.582 63 84 115
0.4625 -0.3815 -0.525 147 114 97
0.4581 -0.369873 -0.509 164 119 98
0.460406 -0.364787 -0.502 172 125 105
0.460443 -0.36406 -0.501 172 125 105
0.469071 -0.3597 -0.495 173 126 108
-0.321471 -0.420386 -0.577 231 232 226
0.00595714 -0.303814 -0.417 192 151 121
0.0192267 -0.300171 -0.412 202 158 129
0.02714 -0.3009 -0.413 189 145 118
0.0418 -0.304543 -0.418 179 131 111
0.0425962 -0.304543 -0.418 179 131 111
0.0468 -0.306 -0.42 173 121 100
0.0595 -0.309643 -0.425 148 102 89
0.0687086 -0.314743 -0.432 127 90 82
0.0696924 -0.315471 -0.433 120 86 77
0.07068 -0.3162 -0.434 116 82 73
0.241529 -0.424757 -0.583 165 188 238
0.294326 -0.424029 -0.582 77 118 170
0.31428 -0.424029 -0.582 126 125 131
0.326474 -0.424029 -0.582 177 179 191
0.330909 -0.424029 -0.582 180 183 198
0.334234 -0.424029 -0.582 180 183 198
0.347537 -0.424029 -0.582 172 179 189
0.3569 -0.4233 -0.581 116 134 172
0.41002 -0.4233 -0.581 161 163 175
0.425137 -0.424029 -0.582 72 94 133
0.437331 -0.424029 -0.582 146 152 168
0.447309 -0.424029 -0.582 123 139 165
0.456177 -0.424029 -0.582 128 142 179
0.476131 -0.424029 -0.582 147 151 163
0.491067 -0.422571 -0.58 106 117 139
0.47946 -0.399986 -0.549 138 106 95
0.463381 -0.383229 -0.526 146 113 98
0.459135 -0.370114 -0.508 165 122 103
0.467186 -0.360643 -0.495 173 126 108
0.482238 -0.359914 -0.494 159 117 95
0.48797 -0.361371 -0.496 151 106 85
0.497619 -0.364286 -0.5 154 112 90
-0.344551 -0.421485 -0.577 229 230 224
0.0200114 -0.300956 -0.412 199 155 126
0.0328048 -0.303148 -0.415 186 140 114
0.050119 -0.30753 -0.421 169 118 99
0.0526495 -0.308261 -0.422 164 115 98
0.07602 -0.32214 -0.441 101 77 75
0.242223 -0.425137 -0.582 159 178 210
0.247766 -0.425137 -0.582 206 212 228
0.248874 -0.425137 -0.582 207 213 229
0.289393 -0.424407 -0.581 172 175 210
0.291607 -0.424407 -0.581 87 114 167
0.32038 -0.424407 -0.581 185 187 200
0.3237 -0.424407 -0.581 184 188 199
0.35026 -0.424407 -0.581 122 134 148
0.392313 -0.424407 -0.581 153 157 169
0.425513 -0.424407 -0.581 61 84 126
0.42662 -0.424407 -0.581 115 121 147
0.43326 -0.424407 -0.581 153 158 162
0.472806 -0.425137 -0.582 152 147 151
0.460406 -0.366699 -0.502 169 123 100
0.465287 -0.363047 -0.497 171 124 106
0.470006 -0.360855 -0.494 175 128 110
0.486043 -0.361586 -0.495 154 109 88
-0.337371 -0.421851 -0.576 230 231 226
-0.33408 -0.421851 -0.576 230 231 225
-0.332983 -0.421851 -0.576 231 232 226
-0.330789 -0.421851 -0.576 231 232 226
0.00985714 -0.303206 -0.414 199 156 124
0.0121933 -0.302473 -0.413 180 137 105
0.0137333 -0.301741 -0.412 169 126 94
0.0153029 -0.301741 -0.412 195 152 120
