ply
format ascii 1.0
comment Created by Open3D
element vertex 1314
property double x
property double y
property double z
property uchar red
property uchar green
property uchar blue
end_header
0.110961 -0.152308 -0.443 197 145 132
0.1189 -0.149557 -0.435 195 146 132
0.134024 -0.14887 -0.433 170 121 107
0.146915 -0.150245 -0.437 158 105 97
0.150245 -0.150245 -0.437 152 102 93
0.16254 -0.15162 -0.441 135 88 82
0.180429 -0.154714 -0.45 111 73 70
0.181689 -0.155058 -0.451 110 72 69
0.272074 -0.18497 -0.538 82 59 65
0.2915 -0.1805 -0.525 112 80 83
0.304571 -0.178781 -0.52 119 87 88
0.307543 -0.178781 -0.52 121 89 90
0.321525 -0.17775 -0.517 126 94 95
0.325817 -0.177406 -0.516 126 94 97
0.337603 -0.176374 -0.513 125 93 94
0.34542 -0.176374 -0.513 121 93 92
0.426727 -0.181875 -0.529 169 117 106
0.427931 -0.181531 -0.528 163 110 96
0.452432 -0.18497 -0.538 132 84 82
0.459257 -0.185657 -0.54 143 98 95
0.467662 -0.187376 -0.545 145 97 97
-0.298523 -0.221603 -0.641 153 153 151
0.107829 -0.153497 -0.444 196 146 135
0.1189 -0.150386 -0.435 195 146 132
0.124951 -0.149694 -0.433 186 134 121
0.127131 -0.149349 -0.432 182 130 116
0.135987 -0.15004 -0.434 170 118 107
0.165434 -0.152806 -0.442 129 85 82
0.174577 -0.154189 -0.446 116 79 73
0.19446 -0.160066 -0.463 100 65 63
0.207133 -0.165251 -0.478 119 94 98
0.277147 -0.18392 -0.532 85 62 68
0.283645 -0.182883 -0.529 102 70 75
0.304571 -0.179771 -0.52 120 88 89
0.308929 -0.179426 -0.519 123 91 92
0.31228 -0.17908 -0.518 124 94 94
0.319555 -0.178734 -0.517 125 93 94
0.320903 -0.178389 -0.516 125 93 94
0.458229 -0.186686 -0.54 142 97 94
-0.314387 -0.224562 -0.646 250 251 246
-0.312187 -0.223867 -0.644 252 253 248
-0.27216 -0.225257 -0.648 236 237 232
-0.156158 -0.221781 -0.638 187 185 173
-0.14727 -0.22491 -0.647 187 185 173
0.11298 -0.1533 -0.441 193 143 132
0.122477 -0.150519 -0.433 189 137 124
0.1296 -0.150171 -0.432 176 124 111
0.130423 -0.150171 -0.432 176 124 111
0.153091 -0.152257 -0.438 148 97 93
0.156786 -0.152605 -0.439 145 94 90
0.158819 -0.152952 -0.44 142 91 87
0.164592 -0.153648 -0.442 128 85 79
0.16872 -0.154343 -0.444 117 78 73
0.182494 -0.157471 -0.453 107 72 68
0.27966 -0.184586 -0.531 93 66 73
0.318937 -0.179371 -0.516 126 94 95
0.32945 -0.178676 -0.514 127 95 96
0.450569 -0.186671 -0.537 126 81 76
0.452432 -0.187019 -0.538 138 93 88
0.458229 -0.187714 -0.54 144 99 96
-0.30659 -0.223695 -0.64 150 151 146
-0.270524 -0.22719 -0.65 251 252 247
-0.151023 -0.224394 -0.642 186 184 172
-0.0364676 -0.226841 -0.649 76 75 83
0.133199 -0.151344 -0.433 168 118 109
0.138786 -0.152043 -0.435 163 113 104
0.155113 -0.153441 -0.439 144 93 89
0.176607 -0.156936 -0.449 114 77 69
0.181631 -0.158334 -0.453 111 74 68
0.28512 -0.184549 -0.528 107 74 81
0.294806 -0.182451 -0.522 117 85 88
0.316971 -0.180354 -0.516 124 92 93
0.324554 -0.179655 -0.514 123 91 94
0.32847 -0.179655 -0.514 126 94 97
0.332717 -0.179306 -0.513 125 93 94
0.358673 -0.178607 -0.511 121 102 108
0.359647 -0.178607 -0.511 134 115 121
0.371748 -0.180704 -0.517 57 40 48
0.444814 -0.186995 -0.535 129 84 78
0.4543 -0.188393 -0.539 142 99 93
0.47042 -0.19119 -0.547 133 92 90
0.472324 -0.191539 -0.548 132 91 89
-0.305371 -0.224914 -0.64 141 142 137
-0.301714 -0.224914 -0.64 149 150 145
-0.27216 -0.227726 -0.648 228 227 223
-0.160305 -0.224914 -0.64 187 185 173
-0.151023 -0.225617 -0.642 186 184 172
-0.149271 -0.226671 -0.645 188 186 174
0.104606 -0.158846 -0.452 193 145 131
0.144418 -0.153574 -0.437 158 105 99
0.153441 -0.154277 -0.439 144 93 89
0.168252 -0.156386 -0.445 114 79 75
0.171179 -0.156737 -0.446 112 77 73
0.180769 -0.159197 -0.453 109 74 70
0.193529 -0.163414 -0.465 102 68 67
0.221871 -0.176066 -0.501 175 134 142
0.284114 -0.185554 -0.528 106 75 81
0.290945 -0.184149 -0.524 111 80 85
0.301188 -0.183094 -0.521 118 86 89
0.314023 -0.181337 -0.516 125 93 94
0.321617 -0.180634 -0.514 124 92 93
0.332717 -0.180283 -0.513 125 93 94
0.344073 -0.17958 -0.511 126 94 95
0.364251 -0.179931 -0.512 118 89 91
0.422271 -0.186609 -0.531 189 141 131
0.456353 -0.18942 -0.539 144 103 97
-0.310732 -0.226487 -0.641 236 239 232
-0.308546 -0.22578 -0.639 183 185 180
-0.269286 -0.229667 -0.65 253 252 248
-0.161776 -0.226487 -0.641 187 185 173
-0.158837 -0.22578 -0.639 188 186 174
-0.0448429 -0.2279 -0.645 69 66 73
0.105387 -0.158293 -0.448 191 145 129
0.115851 -0.154053 -0.436 201 152 138
0.116973 -0.153347 -0.434 196 147 133
0.118627 -0.153347 -0.434 188 139 125
0.123302 -0.152993 -0.433 186 136 125
0.137129 -0.1537 -0.435 167 114 108
0.141596 -0.154053 -0.436 163 110 104
0.143586 -0.154407 -0.437 159 106 102
0.154629 -0.155467 -0.44 140 91 87
0.199139 -0.166773 -0.472 102 67 71
0.20264 -0.168187 -0.476 127 82 89
0.278227 -0.191507 -0.542 78 56 68
0.283645 -0.186913 -0.529 104 74 82
0.286588 -0.186207 -0.527 109 78 83
0.2905 -0.1855 -0.525 109 78 83
0.318319 -0.181967 -0.515 124 92 93
0.323575 -0.181613 -0.514 124 92 93
0.344073 -0.180553 -0.511 126 96 96
0.42104 -0.187973 -0.532 185 136 129
0.424914 -0.18656 -0.528 166 117 103
0.4346 -0.187267 -0.53 142 93 88
0.460286 -0.1908 -0.54 138 99 92
-0.270926 -0.230194 -0.648 255 255 251
-0.046 -0.228773 -0.644 68 65 72
-0.0409019 -0.227708 -0.641 71 68 77
0.160383 -0.157015 -0.442 128 84 81
0.171947 -0.159147 -0.448 114 75 76
0.173186 -0.159502 -0.449 111 72 73
0.175286 -0.159857 -0.45 110 74 74
0.176534 -0.160212 -0.451 109 74 72
0.29821 -0.185079 -0.521 112 82 84
0.307347 -0.184013 -0.518 121 91 93
0.31304 -0.183303 -0.516 122 94 93
0.315006 -0.183303 -0.516 125 93 94
0.3193 -0.182948 -0.515 123 91 92
0.325877 -0.182237 -0.513 123 91 92
0.33597 -0.181882 -0.512 123 91 92
0.34602 -0.181527 -0.511 124 93 98
0.448709 -0.190408 -0.536 120 79 73
0.455507 -0.191118 -0.538 141 100 96
-0.155186 -0.228214 -0.639 190 188 176
-0.15299 -0.228571 -0.64 188 186 174
-0.0420571 -0.228571 -0.64 72 69 78
0.103515 -0.161071 -0.451 191 143 129
0.115021 -0.155714 -0.436 198 152 137
0.15666 -0.1575 -0.441 129 88 82
0.281314 -0.192857 -0.54 72 54 68
0.294806 -0.186429 -0.522 117 82 86
0.3016 -0.185714 -0.52 115 84 89
0.331093 -0.182857 -0.512 121 90 88
0.340846 -0.182857 -0.512 123 91 92
0.341821 -0.182857 -0.512 123 91 92
0.422164 -0.191429 -0.536 182 132 123
0.421606 -0.190714 -0.534 183 133 124
0.456531 -0.192143 -0.538 134 93 89
-0.306848 -0.229072 -0.638 139 144 138
-0.164987 -0.231227 -0.644 188 186 174
-0.152246 -0.230509 -0.642 189 187 175
0.114757 -0.156186 -0.435 195 148 132
0.133507 -0.155827 -0.434 169 116 108
0.137444 -0.156545 -0.436 163 110 102
0.15379 -0.157981 -0.44 141 94 88
0.15498 -0.15834 -0.441 138 91 85
0.168533 -0.160853 -0.448 112 79 74
0.308723 -0.185628 -0.517 122 90 93
0.31868 -0.18455 -0.514 122 91 89
0.335313 -0.183473 -0.511 123 91 92
0.346314 -0.183114 -0.51 118 89 91
0.36062 -0.183473 -0.511 124 96 95
0.42104 -0.191013 -0.532 180 134 119
0.46956 -0.19604 -0.546 132 91 87
-0.308063 -0.230288 -0.638 158 163 157
-0.152246 -0.231731 -0.642 189 187 175
0.111377 -0.158097 -0.438 193 146 130
0.11336 -0.157375 -0.436 196 149 133
0.125486 -0.155931 -0.432 174 121 113
0.145583 -0.158097 -0.438 156 106 95
0.175591 -0.163511 -0.453 109 76 67
0.18781 -0.167482 -0.464 98 66 67
0.290945 -0.189139 -0.524 110 79 84
0.294241 -0.188056 -0.521 113 83 85
0.309109 -0.186251 -0.516 121 91 93
0.342127 -0.184447 -0.511 123 91 94
0.345047 -0.184447 -0.511 122 90 91
0.347286 -0.184086 -0.51 116 89 94
0.3502 -0.184086 -0.51 138 113 119
0.362301 -0.184808 -0.512 113 84 86
0.372639 -0.188056 -0.521 74 60 75
0.422053 -0.192027 -0.532 179 132 116
0.422696 -0.190944 -0.529 182 134 120
0.447034 -0.192749 -0.534 124 84 76
-0.15323 -0.232591 -0.641 189 186 177
0.104681 -0.161471 -0.445 193 144 129
0.120003 -0.157117 -0.433 188 136 123
0.143914 -0.158931 -0.438 157 104 96
0.146751 -0.159294 -0.439 154 104 95
0.157015 -0.160383 -0.442 129 88 82
0.157857 -0.160383 -0.442 127 86 80
0.17176 -0.164011 -0.452 107 76 71
0.175979 -0.164737 -0.454 109 75 66
0.193334 -0.170906 -0.471 92 75 85
0.288137 -0.191589 -0.528 99 72 77
0.299043 -0.188323 -0.519 116 84 85
0.303799 -0.187597 -0.517 120 88 91
0.305177 -0.187234 -0.516 120 88 91
0.317701 -0.186509 -0.514 120 90 90
0.325242 -0.185783 -0.512 121 90 88
0.326553 -0.18542 -0.511 123 92 90
0.356029 -0.185057 -0.51 125 96 101
0.377217 -0.190863 -0.526 74 66 87
0.423909 -0.191589 -0.528 172 123 108
0.42592 -0.191589 -0.528 166 113 99
0.452792 -0.194491 -0.536 146 103 97
0.471462 -0.198483 -0.547 135 91 88
-0.318078 -0.235636 -0.646 252 253 248
-0.15445 -0.233812 -0.641 189 186 177
-0.14919 -0.237095 -0.65 192 190 178
-0.039681 -0.233812 -0.641 71 70 78
0.1027 -0.165967 -0.455 193 146 130
0.106501 -0.161225 -0.442 193 144 129
0.10794 -0.16086 -0.441 193 144 129
0.10878 -0.16086 -0.441 193 144 129
0.114757 -0.158671 -0.435 194 146 126
0.121371 -0.157577 -0.432 186 134 121
0.1299 -0.157942 -0.433 172 117 110
0.165973 -0.163413 -0.448 115 80 76
0.167199 -0.163778 -0.449 113 78 74
0.17425 -0.165602 -0.454 106 75 72
0.176754 -0.166331 -0.456 110 75 69
0.185158 -0.16925 -0.464 101 70 75
0.30949 -0.187852 -0.515 120 90 92
0.337571 -0.186029 -0.51 123 91 94
0.342429 -0.186029 -0.51 123 91 94
0.369231 -0.189311 -0.519 72 55 65
0.423257 -0.196971 -0.54 176 128 118
0.421476 -0.193324 -0.53 178 130 116
0.427931 -0.192594 -0.528 163 106 97
0.428937 -0.192594 -0.528 157 104 96
0.439466 -0.193689 -0.531 138 90 88
-0.311953 -0.235033 -0.641 251 254 247
-0.0542476 -0.234667 -0.64 63 64 69
0.104446 -0.1628 -0.444 194 145 130
0.114493 -0.159133 -0.434 195 147 127
0.129075 -0.158767 -0.433 169 114 107
0.131853 -0.159133 -0.434 169 114 107
0.151276 -0.161333 -0.44 143 94 87
0.155331 -0.162067 -0.442 135 88 82
0.156527 -0.162433 -0.443 133 86 80
0.17753 -0.167933 -0.458 108 75 70
0.18894 -0.171967 -0.469 103 73 81
0.320991 -0.1881 -0.513 120 90 90
0.324267 -0.187733 -0.512 120 90 90
0.345343 -0.187 -0.51 125 93 96
0.350483 -0.186633 -0.509 181 155 164
0.357 -0.187 -0.51 123 92 98
0.422473 -0.197633 -0.539 182 133 126
0.421476 -0.194333 -0.53 185 137 123
0.428937 -0.1936 -0.528 160 107 99
0.448051 -0.1958 -0.534 147 104 97
0.46784 -0.199467 -0.544 137 93 90
-0.318078 -0.238097 -0.646 252 253 248
-0.315376 -0.236991 -0.643 252 253 248
-0.303677 -0.235517 -0.639 134 136 131
-0.269286 -0.239571 -0.65 251 252 246
-0.163506 -0.236991 -0.643 187 187 177
-0.15272 -0.23736 -0.644 192 190 178
-0.0397429 -0.236623 -0.642 70 68 79
0.109123 -0.161803 -0.439 197 146 129
0.111443 -0.160329 -0.435 196 145 128
0.118903 -0.159223 -0.432 192 141 124
0.147086 -0.162171 -0.44 154 104 93
0.29261 -0.194237 -0.527 96 75 84
0.297638 -0.191657 -0.52 114 82 83
0.299043 -0.191289 -0.519 119 85 84
0.327857 -0.187971 -0.51 121 89 90
0.335629 -0.187971 -0.51 122 90 93
0.356727 -0.18834 -0.511 115 84 90
0.420357 -0.197186 -0.535 190 141 136
0.428937 -0.194606 -0.528 160 107 99
0.43378 -0.194974 -0.529 136 93 86
0.437629 -0.195343 -0.53 139 96 89
0.465088 -0.199766 -0.542 135 91 88
-0.315867 -0.238587 -0.644 252 253 248
-0.270108 -0.240439 -0.649 252 253 248
-0.151729 -0.238957 -0.645 192 190 178
-0.0477762 -0.235252 -0.635 66 68 80
0.10161 -0.168196 -0.454 196 145 126
0.118353 -0.160416 -0.433 193 142 125
0.1299 -0.160416 -0.433 170 118 105
0.144243 -0.162639 -0.439 155 105 94
0.157726 -0.164491 -0.444 121 83 80
0.17079 -0.168196 -0.454 109 76 71
0.294059 -0.19487 -0.526 99 76 84
0.29537 -0.193759 -0.523 115 85 87
0.299043 -0.192277 -0.519 119 85 86
0.30044 -0.191907 -0.518 115 85 87
0.326886 -0.188943 -0.51 120 88 91
0.3434 -0.188943 -0.51 120 90 90
0.351452 -0.188572 -0.509 131 108 116
0.42592 -0.195611 -0.528 174 117 106
0.448228 -0.197464 -0.533 145 100 94
0.453986 -0.198205 -0.535 141 98 92
-0.314151 -0.239441 -0.643 251 253 248
-0.302933 -0.238324 -0.64 165 170 166
-0.271344 -0.241675 -0.649 255 255 251
-0.15272 -0.239813 -0.644 192 190 178
-0.0616581 -0.238696 -0.641 71 68 79
-0.0561543 -0.23609 -0.634 67 65 76
-0.0375295 -0.240558 -0.646 70 70 82
-0.0364114 -0.241303 -0.648 70 70 80
0.103975 -0.164592 -0.442 200 149 132
0.115054 -0.161241 -0.433 192 146 123
0.115879 -0.161241 -0.433 190 144 121
0.117529 -0.161241 -0.433 189 143 120
0.174912 -0.17055 -0.458 102 73 75
0.187054 -0.175391 -0.471 96 69 74
0.293712 -0.20183 -0.542 88 68 77
0.298629 -0.193638 -0.52 118 84 85
0.320014 -0.191031 -0.513 120 88 91
0.337571 -0.189914 -0.51 121 89 94
0.423106 -0.196245 -0.527 175 122 114
0.435795 -0.19699 -0.529 142 98 89
0.439648 -0.197362 -0.53 134 89 83
-0.300495 -0.239543 -0.64 161 166 160
-0.0642 -0.240291 -0.642 68 66 77
-0.0432086 -0.239169 -0.639 67 67 77
-0.0409657 -0.240291 -0.642 69 69 81
0.102523 -0.165809 -0.443 200 151 134
0.108626 -0.163563 -0.437 196 147 130
0.113667 -0.16244 -0.434 197 149 129
0.121371 -0.161691 -0.432 184 132 119
0.126601 -0.162066 -0.433 171 119 108
0.142246 -0.163937 -0.438 157 105 92
0.171919 -0.171049 -0.457 103 73 73
0.178586 -0.173294 -0.463 99 70 72
0.330771 -0.190886 -0.51 119 89 91
0.332714 -0.190886 -0.51 121 89 92
0.339514 -0.190886 -0.51 122 92 94
0.360077 -0.192009 -0.513 110 83 90
0.421447 -0.20174 -0.539 184 134 127
0.419338 -0.200243 -0.535 186 134 123
0.421897 -0.197623 -0.528 179 124 121
-0.298057 -0.240762 -0.64 177 180 173
-0.158113 -0.241138 -0.641 189 187 175
-0.0558886 -0.237376 -0.631 67 67 77
-0.0443562 -0.24001 -0.638 66 66 76
0.10129 -0.167405 -0.445 199 151 137
0.107793 -0.164395 -0.437 196 147 132
0.112013 -0.163267 -0.434 200 149 132
0.14826 -0.1659 -0.441 142 98 89
0.187343 -0.178314 -0.474 100 85 92
0.2965 -0.1975 -0.525 100 73 78
0.298783 -0.196371 -0.522 118 88 90
0.316106 -0.192986 -0.513 120 88 89
0.345635 -0.191481 -0.509 145 122 128
0.444523 -0.199757 -0.531 136 91 86
0.459606 -0.20239 -0.538 137 93 90
-0.151729 -0.243871 -0.645 195 193 181
-0.0421229 -0.242359 -0.641 67 67 79
-0.0364676 -0.245384 -0.649 67 69 81
0.100043 -0.169009 -0.447 195 146 129
0.101679 -0.167496 -0.443 194 148 133
0.108377 -0.16485 -0.436 198 149 134
0.134122 -0.16485 -0.436 163 111 100
0.138591 -0.165228 -0.437 155 105 94
0.177204 -0.175436 -0.464 100 70 70
0.194061 -0.182998 -0.484 221 213 236
0.297608 -0.202659 -0.536 86 68 84
0.29763 -0.199256 -0.527 90 69 76
0.30061 -0.19661 -0.52 115 85 87
0.3434 -0.192829 -0.51 124 93 98
0.425113 -0.199256 -0.527 164 111 103
0.436803 -0.200012 -0.529 142 95 87
-0.30707 -0.24358 -0.641 252 254 249
-0.29532 -0.24396 -0.642 235 236 231
-0.0747895 -0.24662 -0.649 63 63 65
-0.0500371 -0.24054 -0.633 67 67 77
-0.0398667 -0.24472 -0.644 67 70 79
0.09922 -0.17138 -0.451 195 148 132
0.107547 -0.16568 -0.436 198 149 134
0.108377 -0.16568 -0.436 198 149 134
0.109786 -0.1653 -0.435 199 150 135
0.12772 -0.16492 -0.434 173 118 111
0.131329 -0.1653 -0.435 169 116 108
0.1491 -0.16758 -0.441 137 94 85
0.158791 -0.16986 -0.447 114 80 79
0.16 -0.17024 -0.448 113 79 78
0.18762 -0.18126 -0.477 187 176 182
0.300771 -0.19836 -0.522 107 82 86
0.303799 -0.19646 -0.517 117 87 87
0.31744 -0.19456 -0.512 119 89 89
0.320366 -0.19456 -0.512 119 89 89
0.324607 -0.19418 -0.511 119 89 89
0.333031 -0.19342 -0.509 120 88 91
0.342727 -0.19342 -0.509 109 84 88
0.349513 -0.19342 -0.509 136 109 116
0.362885 -0.19646 -0.517 65 48 58
0.418554 -0.20292 -0.534 185 135 124
0.445534 -0.20178 -0.531 135 90 84
0.449243 -0.20254 -0.533 144 99 94
-0.311702 -0.245565 -0.643 252 253 248
-0.304628 -0.244801 -0.641 251 252 247
-0.298523 -0.244801 -0.641 251 251 249
-0.285643 -0.246329 -0.645 252 252 250
-0.1505 -0.246329 -0.645 196 194 182
-0.0478514 -0.242891 -0.636 66 69 78
0.106961 -0.166892 -0.437 196 149 133
0.161571 -0.171857 -0.45 110 76 74
0.301211 -0.201646 -0.528 93 73 82
0.301188 -0.198972 -0.521 114 84 84
0.312197 -0.195917 -0.513 118 88 88
0.321341 -0.195535 -0.512 118 88 88
0.332062 -0.19439 -0.509 117 87 87
0.418226 -0.202791 -0.531 179 135 126
0.423909 -0.201646 -0.528 169 117 106
0.427931 -0.201646 -0.528 148 98 89
0.43296 -0.201646 -0.528 149 102 94
0.441667 -0.20241 -0.53 123 78 72
0.458751 -0.205083 -0.537 135 92 86
-0.292106 -0.24679 -0.643 252 252 250
-0.284855 -0.247941 -0.646 252 252 250
-0.282831 -0.248325 -0.647 252 252 250
-0.277525 -0.249092 -0.649 191 193 190
-0.155429 -0.245638 -0.64 194 191 182
-0.150267 -0.247173 -0.644 195 193 180
-0.0732914 -0.244103 -0.636 62 59 70
-0.0662829 -0.240649 -0.627 67 67 77
-0.0556229 -0.241032 -0.628 66 66 78
-0.0455714 -0.24487 -0.638 64 67 76
0.0987476 -0.170795 -0.445 197 151 136
0.0993714 -0.170411 -0.444 197 151 136
0.10122 -0.16926 -0.441 197 151 135
0.123017 -0.165806 -0.432 174 121 113
0.126067 -0.166573 -0.434 170 120 111
0.136927 -0.167725 -0.437 160 108 97
0.15469 -0.170795 -0.445 118 83 81
0.1909 -0.18538 -0.483 240 238 251
0.30889 -0.197278 -0.514 117 87 87
0.310243 -0.196894 -0.513 118 90 89
0.31744 -0.19651 -0.512 120 90 90
0.327214 -0.195359 -0.509 119 89 87
0.358538 -0.197662 -0.515 79 64 69
0.420891 -0.202651 -0.528 177 127 118
0.475455 -0.210328 -0.548 140 96 93
-0.302657 -0.247629 -0.642 252 253 248
-0.290107 -0.2484 -0.644 253 253 251
-0.283269 -0.249943 -0.648 253 253 251
-0.15299 -0.246857 -0.64 194 194 184
-0.151023 -0.247629 -0.642 193 193 181
-0.146263 -0.249943 -0.648 196 196 186
-0.0728305 -0.243771 -0.632 68 66 77
-0.0685619 -0.241457 -0.626 67 65 76
-0.060119 -0.241071 -0.625 66 66 76
-0.0534 -0.243 -0.63 67 65 76
-0.0352857 -0.250714 -0.65 69 69 79
0.102433 -0.169329 -0.439 193 148 129
0.105055 -0.168171 -0.436 195 150 131
0.115344 -0.166243 -0.431 189 142 124
0.125776 -0.167014 -0.433 170 120 111
0.144571 -0.169714 -0.44 148 99 92
0.17079 -0.177814 -0.461 97 71 70
0.181158 -0.182057 -0.472 108 86 88
0.303581 -0.200571 -0.52 112 86 89
0.307143 -0.199029 -0.516 114 85 89
0.326886 -0.196714 -0.51 119 89 89
0.349513 -0.196329 -0.509 123 86 93
0.429943 -0.203657 -0.528 154 104 95
0.4484 -0.2052 -0.532 140 95 90
0.456024 -0.206357 -0.535 135 94 88
-0.149567 -0.248464 -0.641 196 196 184
-0.056819 -0.243425 -0.628 67 67 75
-0.0399905 -0.250402 -0.646 68 68 76
0.0983038 -0.171715 -0.443 195 152 135
0.114523 -0.167064 -0.431 195 148 130
0.121371 -0.167451 -0.432 171 121 110
0.126893 -0.168227 -0.434 171 117 105
0.1305 -0.168614 -0.435 167 115 102
0.13443 -0.16939 -0.437 162 109 101
0.14257 -0.170165 -0.439 151 103 91
0.155038 -0.172878 -0.446 114 80 78
0.180259 -0.182956 -0.472 120 95 98
0.304336 -0.202725 -0.523 102 75 80
0.32266 -0.198073 -0.511 119 91 90
0.325275 -0.197298 -0.509 118 90 89
0.327214 -0.197298 -0.509 120 90 90
0.334312 -0.19691 -0.508 118 88 88
0.338849 -0.197298 -0.509 116 86 86
0.416987 -0.206213 -0.532 186 138 128
0.42592 -0.204663 -0.528 163 110 102
0.436803 -0.20505 -0.529 147 100 94
0.467152 -0.21009 -0.542 126 85 81
-0.286529 -0.252022 -0.647 253 254 249
-0.281667 -0.25319 -0.65 253 254 249
-0.0824143 -0.249685 -0.641 75 74 79
-0.07072 -0.243063 -0.624 69 69 79
-0.0524486 -0.246569 -0.633 67 67 75
0.0987 -0.17178 -0.441 198 152 136
0.102799 -0.170222 -0.437 197 152 133
0.110674 -0.168274 -0.432 200 153 135
0.120549 -0.168274 -0.432 171 124 108
0.123302 -0.168664 -0.433 169 117 106
0.153843 -0.173338 -0.445 119 84 80
0.17353 -0.181518 -0.466 91 66 62
0.178083 -0.183466 -0.471 89 70 72
0.192733 -0.190867 -0.49 236 240 239
0.30615 -0.202942 -0.521 99 76 86
0.308126 -0.200994 -0.516 112 85 90
0.309109 -0.200994 -0.516 115 88 93
0.312197 -0.199826 -0.513 118 88 90
0.31682 -0.199047 -0.511 118 88 90
0.32266 -0.199047 -0.511 118 88 90
0.340788 -0.198268 -0.509 123 103 105
0.343989 -0.197878 -0.508 203 182 187
0.418666 -0.206058 -0.529 182 133 126
0.427121 -0.205279 -0.527 150 100 91
0.43378 -0.206058 -0.529 157 108 101
0.453137 -0.208006 -0.534 137 94 88
-0.152034 -0.248949 -0.636 198 197 192
-0.0364676 -0.254037 -0.649 71 71 81
0.09786 -0.17262 -0.441 200 154 139
0.111497 -0.169097 -0.432 198 151 133
0.113702 -0.168706 -0.431 194 149 126
0.115344 -0.168706 -0.431 185 140 119
0.120549 -0.169097 -0.432 169 120 103
0.135262 -0.171054 -0.437 159 107 94
0.160568 -0.176926 -0.452 104 73 71
0.309109 -0.201977 -0.516 115 86 88
0.41888 -0.206674 -0.528 175 126 119
0.455005 -0.209414 -0.535 139 96 90
0.457897 -0.209806 -0.536 140 97 91
-0.298852 -0.254487 -0.647 253 254 249
-0.139443 -0.2537 -0.645 196 196 184
-0.138429 -0.254093 -0.646 197 195 182
-0.0868895 -0.250947 -0.638 80 78 89
-0.0753533 -0.245047 -0.623 72 71 79
-0.0624 -0.24544 -0.624 70 68 79
-0.0492171 -0.250947 -0.638 68 68 76
-0.0457857 -0.252127 -0.641 68 68 76
0.0951352 -0.177787 -0.452 199 152 134
0.09724 -0.173853 -0.442 201 155 142
0.106807 -0.170313 -0.433 201 156 137
0.122477 -0.170313 -0.433 167 115 101
0.127186 -0.1711 -0.435 167 114 100
0.128843 -0.1711 -0.435 168 115 101
0.133597 -0.171887 -0.437 163 111 98
0.147754 -0.173853 -0.442 131 91 83
0.152995 -0.175033 -0.445 116 85 83
0.159707 -0.177787 -0.452 103 74 76
0.170133 -0.182507 -0.464 98 72 75
0.30932 -0.203747 -0.518 114 84 84
0.310471 -0.202567 -0.515 117 85 86
0.325275 -0.200207 -0.509 119 89 91
0.327539 -0.199813 -0.508 119 89 89
0.342053 -0.199813 -0.508 204 185 191
0.421098 -0.207287 -0.527 175 125 116
0.426117 -0.207287 -0.527 160 106 96
0.443686 -0.208467 -0.53 133 86 80
0.447557 -0.20886 -0.531 140 93 87
0.457897 -0.210827 -0.536 141 96 91
0.46629 -0.212793 -0.541 123 78 73
-0.299 -0.256905 -0.65 252 253 248
-0.145221 -0.252162 -0.638 201 201 193
-0.0984286 -0.256905 -0.65 211 210 206
-0.0923257 -0.253743 -0.642 80 79 84
-0.0752324 -0.245838 -0.622 71 70 76
-0.0727457 -0.245443 -0.621 71 70 78
-0.0480771 -0.252557 -0.639 67 67 75
0.120549 -0.170743 -0.432 168 116 102
0.18446 -0.1909 -0.483 240 238 255
0.310119 -0.205919 -0.521 103 82 89
0.317793 -0.201967 -0.511 120 90 92
0.321397 -0.201176 -0.509 117 87 89
0.322367 -0.201176 -0.509 117 87 89
0.333345 -0.200781 -0.508 117 87 85
0.343021 -0.200781 -0.508 122 101 106
0.427121 -0.20829 -0.527 158 105 91
-0.14036 -0.253377 -0.638 201 201 189
-0.103222 -0.257746 -0.649 230 229 224
-0.0929657 -0.253377 -0.638 73 72 78
-0.08862 -0.251391 -0.633 70 69 77
-0.0726286 -0.246229 -0.62 71 70 78
-0.0582924 -0.250597 -0.631 69 69 79
-0.0400524 -0.256951 -0.647 70 70 78
-0.0377038 -0.257746 -0.649 71 69 80
0.103157 -0.172757 -0.435 201 158 141
0.105157 -0.171963 -0.433 203 157 141
0.10656 -0.171566 -0.432 201 155 139
0.109597 -0.171169 -0.431 199 152 134
0.123302 -0.171963 -0.433 168 115 101
0.1449 -0.17514 -0.441 137 94 85
0.314216 -0.211677 -0.533 90 74 85
0.31549 -0.203337 -0.512 117 87 89
0.319114 -0.202543 -0.51 117 87 89
0.325604 -0.201749 -0.508 116 87 89
0.328507 -0.201749 -0.508 116 87 89
0.336248 -0.201749 -0.508 114 88 89
0.343021 -0.201749 -0.508 135 113 115
0.41863 -0.215251 -0.542 169 124 121
0.458918 -0.212869 -0.536 130 81 76
0.469049 -0.215649 -0.543 125 76 69
-0.147933 -0.252996 -0.634 247 247 245
-0.1333 -0.257386 -0.645 221 218 203
-0.124429 -0.259381 -0.65 225 221 209
-0.0949476 -0.253395 -0.635 68 67 72
-0.0457857 -0.25579 -0.641 70 70 78
0.0947143 -0.176379 -0.442 200 157 140
0.0959619 -0.175581 -0.44 196 158 139
0.102329 -0.173586 -0.435 201 158 139
0.108776 -0.17199 -0.431 195 150 131
0.14607 -0.176379 -0.442 131 91 83
0.150452 -0.177576 -0.445 117 82 78
0.379543 -0.258583 -0.648 53 42 56
0.316247 -0.212692 -0.533 92 76 87
0.435977 -0.210697 -0.528 139 90 83
0.481029 -0.220274 -0.552 139 91 87
-0.127354 -0.259015 -0.646 231 227 218
-0.115228 -0.259416 -0.647 252 247 241
-0.0738095 -0.24859 -0.62 71 69 80
-0.0671543 -0.250194 -0.624 72 72 82
-0.05278 -0.255407 -0.637 70 68 79
0.0978048 -0.175216 -0.437 196 155 133
0.110162 -0.17241 -0.43 193 146 128
0.119726 -0.173211 -0.432 170 119 102
0.123302 -0.173612 -0.433 169 116 102
0.136406 -0.175617 -0.438 153 104 90
0.137553 -0.176018 -0.439 151 102 88
0.164286 -0.184438 -0.46 96 69 78
0.1727 -0.188849 -0.471 120 117 136
0.315376 -0.20649 -0.515 117 87 89
0.317793 -0.204887 -0.511 119 89 91
0.325275 -0.204085 -0.509 118 88 90
0.327539 -0.203684 -0.508 114 88 89
0.332689 -0.203283 -0.507 119 89 87
0.345635 -0.204085 -0.509 111 83 82
0.35432 -0.206891 -0.516 76 55 60
0.435977 -0.211703 -0.528 142 93 86
-0.136286 -0.256217 -0.636 245 244 240
-0.122897 -0.258634 -0.642 249 249 241
-0.118006 -0.258634 -0.642 246 245 240
-0.0772276 -0.249369 -0.619 74 72 83
-0.0727457 -0.250174 -0.621 73 73 83
-0.0562429 -0.255814 -0.635 71 69 80
-0.0505114 -0.257426 -0.639 70 68 79
-0.0481524 -0.257829 -0.64 69 69 79
-0.0447038 -0.259037 -0.643 74 74 82
0.0981857 -0.175243 -0.435 196 153 134
0.106313 -0.173631 -0.431 196 151 132
0.110981 -0.173229 -0.43 188 143 122
0.127186 -0.175243 -0.435 165 114 97
0.13443 -0.176049 -0.437 157 108 93
0.343021 -0.204651 -0.508 115 87 86
0.427121 -0.212306 -0.527 148 99 85
0.434971 -0.212709 -0.528 136 88 78
0.452289 -0.214723 -0.533 147 100 92
0.454154 -0.215126 -0.534 145 98 90
0.458918 -0.215931 -0.536 130 86 77
0.480157 -0.221974 -0.551 131 82 75
-0.136416 -0.255405 -0.631 243 243 243
-0.0888743 -0.250143 -0.618 77 75 88
-0.0458571 -0.259857 -0.642 68 68 76
-0.03894 -0.26269 -0.649 72 72 80
0.0942857 -0.178095 -0.44 200 157 141
0.102683 -0.175262 -0.433 205 162 145
0.108524 -0.174048 -0.43 197 150 132
0.114257 -0.174048 -0.43 178 130 110
0.120828 -0.175262 -0.433 168 117 100
0.160251 -0.184571 -0.456 98 71 76
0.165357 -0.187405 -0.463 93 67 76
0.317083 -0.207643 -0.513 115 90 86
0.328507 -0.205619 -0.508 120 90 92
0.337517 -0.205214 -0.507 212 187 191
0.415017 -0.216952 -0.536 181 132 125
0.415191 -0.214929 -0.531 184 135 128
0.415419 -0.214524 -0.53 177 128 121
0.41909 -0.21331 -0.527 152 102 95
0.430132 -0.21331 -0.527 146 98 88
0.445871 -0.214119 -0.529 152 102 95
-0.125997 -0.25742 -0.633 214 216 215
-0.101134 -0.25254 -0.621 70 69 77
-0.0899057 -0.250913 -0.617 77 75 86
-0.0875552 -0.250913 -0.617 77 75 86
0.0953076 -0.177713 -0.437 202 156 141
0.107705 -0.174867 -0.43 192 145 127
0.115076 -0.174867 -0.43 172 121 104
0.138074 -0.17812 -0.438 148 102 89
0.31806 -0.20862 -0.513 118 92 91
0.332689 -0.20618 -0.507 116 91 94
0.333654 -0.20618 -0.507 115 90 93
-0.111131 -0.254949 -0.624 76 75 83
-0.0978143 -0.251271 -0.615 72 71 79
-0.0686714 -0.256174 -0.627 74 73 81
0.0934476 -0.179771 -0.44 200 157 141
0.09592 -0.178137 -0.436 199 156 137
0.100209 -0.176911 -0.433 201 160 142
0.113438 -0.175686 -0.43 181 130 113
0.148757 -0.181814 -0.445 115 84 82
0.166429 -0.190394 -0.466 84 65 69
0.323669 -0.207554 -0.508 123 93 93
0.328826 -0.207146 -0.507 117 88 90
0.414243 -0.218586 -0.535 179 130 125
0.413947 -0.21736 -0.532 183 134 127
0.416869 -0.215726 -0.528 176 126 117
0.445871 -0.216134 -0.529 157 104 98
0.46354 -0.22022 -0.539 126 88 79
-0.126786 -0.256548 -0.625 82 81 86
-0.102167 -0.251622 -0.613 68 67 75
-0.0983419 -0.250801 -0.611 69 68 76
-0.0948505 -0.250801 -0.611 71 70 78
-0.0797143 -0.254495 -0.62 74 75 80
-0.0643019 -0.25901 -0.631 71 71 81
-0.0597771 -0.260242 -0.634 71 71 81
-0.0401143 -0.265989 -0.648 100 100 112
0.0993838 -0.177736 -0.433 200 159 141
0.102446 -0.177326 -0.432 201 158 141
0.116165 -0.176915 -0.431 170 119 102
0.120828 -0.177736 -0.433 170 119 102
0.128014 -0.178557 -0.435 168 112 95
0.144387 -0.18143 -0.442 122 89 84
0.160082 -0.187998 -0.458 93 71 74
0.161657 -0.188819 -0.46 95 71 71
0.166786 -0.191692 -0.467 121 110 118
0.17037 -0.193745 -0.472 163 159 184
0.176733 -0.19785 -0.482 140 160 211
0.39249 -0.266399 -0.649 46 45 63
0.32054 -0.212216 -0.517 118 98 100
0.321397 -0.208932 -0.509 119 88 94
0.322367 -0.208932 -0.509 119 88 93
0.413469 -0.219194 -0.534 173 122 118
0.418295 -0.21591 -0.526 161 108 100
0.429129 -0.216321 -0.527 142 92 81
0.455171 -0.219194 -0.534 135 90 84
0.476499 -0.224941 -0.548 134 93 87
-0.101667 -0.251552 -0.61 54 54 64
-0.0808952 -0.255676 -0.62 75 76 81
-0.0678 -0.2598 -0.63 73 73 81
0.09198 -0.18186 -0.441 198 156 142
0.09796 -0.178973 -0.434 202 159 142
0.107705 -0.177324 -0.43 190 145 126
0.109343 -0.177324 -0.43 184 137 119
0.117257 -0.178149 -0.432 169 116 100
0.13839 -0.181035 -0.439 140 96 87
0.14791 -0.18351 -0.445 116 82 80
0.425309 -0.216912 -0.526 148 98 89
0.42631 -0.216912 -0.526 147 97 88
0.439167 -0.217325 -0.527 141 93 83
0.441174 -0.217325 -0.527 145 97 87
-0.132738 -0.258929 -0.625 101 100 105
-0.122812 -0.255614 -0.617 75 73 76
-0.0903429 -0.253543 -0.612 75 74 82
-0.0734486 -0.259757 -0.627 74 75 80
-0.0586619 -0.263071 -0.635 71 71 81
-0.0540781 -0.264314 -0.638 71 71 81
-0.0447733 -0.2668 -0.644 66 66 78
0.101388 -0.178557 -0.431 200 159 141
0.102209 -0.178557 -0.431 199 158 140
0.106637 -0.177729 -0.429 194 148 132
0.110162 -0.178143 -0.43 181 136 117
0.110981 -0.178143 -0.43 179 132 114
0.115344 -0.178557 -0.431 175 122 106
0.119178 -0.179386 -0.433 173 120 104
0.131932 -0.181043 -0.437 157 108 94
0.14238 -0.1827 -0.441 128 87 81
0.143545 -0.183114 -0.442 118 86 89
0.149426 -0.185186 -0.447 114 79 75
0.15609 -0.188086 -0.454 101 75 76
0.157646 -0.188914 -0.456 101 75 76
0.324636 -0.210457 -0.508 113 89 89
0.342053 -0.210457 -0.508 118 85 92
-0.112543 -0.252211 -0.606 65 65 73
-0.107213 -0.250547 -0.602 65 65 73
-0.0942295 -0.252628 -0.607 69 70 75
-0.0483029 -0.267194 -0.642 78 77 93
0.0913467 -0.183956 -0.442 201 159 145
0.0983314 -0.179794 -0.432 202 159 143
0.101388 -0.179378 -0.431 200 159 141
0.132461 -0.181459 -0.436 153 106 96
0.141219 -0.183124 -0.44 130 89 83
0.327213 -0.210592 -0.506 117 86 92
0.427312 -0.218916 -0.526 146 96 89
0.470083 -0.225991 -0.543 121 83 82
0.476499 -0.228072 -0.548 123 84 77
-0.125163 -0.257965 -0.617 82 82 90
-0.106857 -0.250857 -0.6 78 77 85
-0.0923714 -0.255038 -0.61 71 72 77
-0.0904905 -0.256292 -0.613 73 72 78
-0.0875552 -0.257965 -0.617 76 75 81
-0.0835257 -0.260055 -0.622 74 74 82
0.12997 -0.18229 -0.436 160 108 95
0.337815 -0.211556 -0.506 113 86 93
0.347374 -0.214483 -0.513 74 57 65
0.427312 -0.219918 -0.526 147 94 86
0.429316 -0.219918 -0.526 139 89 80
0.439167 -0.220336 -0.527 139 92 84
-0.131817 -0.26544 -0.632 106 105 110
-0.105362 -0.25116 -0.598 61 60 68
-0.0916581 -0.25746 -0.613 70 71 76
-0.0506695 -0.26922 -0.641 71 71 81
-0.039 -0.273 -0.65 71 71 81
0.103369 -0.18018 -0.429 198 157 135
0.11808 -0.18144 -0.432 175 122 108
0.139226 -0.18438 -0.439 133 94 89
0.143545 -0.18564 -0.442 118 84 83
0.457043 -0.2247 -0.535 127 88 81
-0.12439 -0.261159 -0.619 77 77 85
-0.122414 -0.259471 -0.615 70 70 78
-0.120454 -0.257784 -0.611 65 65 73
-0.116967 -0.255252 -0.605 67 66 74
-0.113904 -0.253565 -0.601 64 63 71
-0.09804 -0.253987 -0.602 51 52 57
-0.0657114 -0.267066 -0.633 73 74 79
-0.0413486 -0.273394 -0.648 74 74 84
0.10582 -0.180997 -0.429 195 148 130
0.107454 -0.180997 -0.429 191 144 124
0.113702 -0.181841 -0.431 178 125 109
0.150429 -0.189857 -0.45 106 80 83
0.389457 -0.267488 -0.634 94 76 88
0.330414 -0.213062 -0.505 116 89 94
0.410933 -0.226141 -0.536 173 120 114
0.411434 -0.225297 -0.534 175 122 116
0.422303 -0.221922 -0.526 161 108 102
0.428314 -0.221922 -0.526 150 97 91
0.429316 -0.221922 -0.526 151 98 90
0.435328 -0.221922 -0.526 146 96 87
0.470083 -0.229094 -0.543 120 82 79
0.472852 -0.229938 -0.545 120 81 76
-0.113904 -0.25471 -0.601 71 72 77
-0.0918076 -0.260219 -0.614 66 66 74
-0.0669171 -0.268271 -0.633 74 73 81
-0.0646076 -0.268695 -0.634 73 72 80
-0.0460714 -0.273357 -0.645 70 70 80
-0.0401762 -0.275052 -0.649 74 74 84
0.0909371 -0.184781 -0.436 203 160 141
0.0966857 -0.183086 -0.432 203 161 137
0.101152 -0.182238 -0.43 202 160 138
0.117257 -0.183086 -0.432 174 121 105
0.125529 -0.184357 -0.435 168 115 101
0.14154 -0.1869 -0.441 121 86 84
0.156934 -0.194529 -0.459 87 67 69
0.327491 -0.217838 -0.514 122 100 103
0.3333 -0.214024 -0.505 117 86 92
0.346397 -0.217414 -0.513 70 44 53
0.352426 -0.219957 -0.519 64 49 56
0.411434 -0.226314 -0.534 177 126 122
0.412157 -0.225043 -0.531 171 118 112
0.413628 -0.224195 -0.529 172 119 113
0.416079 -0.223348 -0.527 167 114 106
0.416291 -0.222924 -0.526 165 112 104
0.418295 -0.222924 -0.526 162 109 101
0.423305 -0.222924 -0.526 163 110 102
0.43132 -0.222924 -0.526 153 103 94
0.434326 -0.222924 -0.526 149 99 90
0.442178 -0.223348 -0.527 141 94 86
0.445029 -0.223771 -0.528 129 89 81
0.448733 -0.224619 -0.53 127 88 81
0.464567 -0.228433 -0.539 122 85 79
-0.110871 -0.254151 -0.597 113 116 121
-0.08694 -0.264369 -0.621 69 69 77
-0.0837943 -0.265646 -0.624 72 70 81
-0.0771543 -0.267349 -0.628 76 75 83
-0.0703114 -0.268626 -0.631 74 74 82
-0.0437495 -0.275437 -0.647 68 68 78
0.0915571 -0.185186 -0.435 203 160 141
0.100917 -0.182631 -0.429 201 159 137
0.128843 -0.185186 -0.435 158 109 94
0.1308 -0.185611 -0.436 155 107 95
0.136094 -0.186037 -0.437 140 97 91
0.13724 -0.186463 -0.438 135 96 91
0.330959 -0.221797 -0.521 90 77 84
0.3434 -0.217114 -0.51 85 65 74
0.417293 -0.223926 -0.526 162 107 100
0.445029 -0.224777 -0.528 128 90 81
0.487508 -0.237123 -0.557 128 95 88
-0.0978771 -0.256999 -0.601 58 56 67
-0.0891619 -0.265124 -0.62 65 65 73
-0.07942 -0.268117 -0.627 76 74 85
-0.075 -0.2694 -0.63 77 76 84
-0.0681229 -0.270683 -0.633 74 74 82
-0.0531943 -0.274531 -0.642 73 71 82
0.0927857 -0.185159 -0.433 203 161 139
0.0964619 -0.184304 -0.431 204 159 136
0.0995143 -0.183876 -0.43 201 158 139
0.102551 -0.183449 -0.429 198 153 134
0.105003 -0.183449 -0.429 195 150 131
0.106637 -0.183449 -0.429 192 147 128
0.115611 -0.184731 -0.432 175 122 108
0.116434 -0.184731 -0.432 174 121 107
0.1407 -0.18858 -0.441 124 89 87
0.157618 -0.197132 -0.461 112 93 95
0.389486 -0.273676 -0.64 112 80 93
0.355571 -0.243743 -0.57 99 73 76
0.329474 -0.21723 -0.508 115 88 95
0.33396 -0.216375 -0.506 113 86 93
0.335224 -0.215948 -0.505 113 86 93
0.340118 -0.21723 -0.508 115 84 90
0.424307 -0.224928 -0.526 161 108 100
0.435151 -0.225355 -0.527 158 105 99
0.438163 -0.225355 -0.527 151 101 92
0.480157 -0.235618 -0.551 122 91 86
-0.0772771 -0.27017 -0.629 75 73 84
-0.0762 -0.2706 -0.63 77 76 84
-0.0705343 -0.271889 -0.633 76 75 83
-0.0555533 -0.275325 -0.641 73 73 83
-0.0438171 -0.278331 -0.648 71 71 79
0.091961 -0.185984 -0.433 203 160 141
0.120003 -0.185984 -0.433 174 120 108
0.132461 -0.187272 -0.436 144 100 89
0.13443 -0.187702 -0.437 144 100 89
0.371643 -0.259862 -0.605 119 84 90
0.33396 -0.217339 -0.506 111 84 91
0.334924 -0.217339 -0.506 111 84 91
0.412157 -0.228077 -0.531 167 114 110
0.417293 -0.22593 -0.526 158 103 96
0.425309 -0.22593 -0.526 159 104 97
0.434326 -0.22593 -0.526 157 104 96
0.436155 -0.226359 -0.527 153 100 92
0.458062 -0.229795 -0.535 122 88 79
-0.123806 -0.270937 -0.628 121 124 131
-0.115814 -0.261014 -0.605 116 122 122
-0.102222 -0.255837 -0.593 103 106 111
-0.0912286 -0.266623 -0.618 61 59 70
-0.0762 -0.2718 -0.63 75 75 83
-0.075119 -0.272231 -0.631 74 74 82
0.0873819 -0.189397 -0.439 203 160 143
0.0890714 -0.187671 -0.435 205 162 143
0.1001 -0.185083 -0.429 196 154 132
0.10582 -0.185083 -0.429 191 144 126
0.120003 -0.186809 -0.433 173 119 107
0.126357 -0.187671 -0.435 166 112 100
0.13163 -0.188103 -0.436 149 102 92
0.344443 -0.221323 -0.513 65 44 49
0.41236 -0.23556 -0.546 160 115 112
0.410417 -0.230383 -0.534 168 115 111
0.423305 -0.226931 -0.526 161 106 99
0.424307 -0.226931 -0.526 159 104 97
0.44017 -0.227363 -0.527 127 89 78
0.453467 -0.22952 -0.532 124 90 81
0.458223 -0.230383 -0.534 124 87 79
0.466457 -0.232971 -0.54 124 81 74
-0.0545019 -0.278633 -0.643 74 73 81
-0.0426486 -0.281233 -0.649 69 69 77
0.08576 -0.194133 -0.448 197 159 140
0.0876152 -0.188933 -0.436 201 158 142
0.110162 -0.186333 -0.43 183 131 117
0.116434 -0.1872 -0.432 177 123 111
0.128309 -0.188933 -0.436 161 112 98
0.142503 -0.1924 -0.444 113 82 79
0.152769 -0.198033 -0.457 98 70 67
0.332393 -0.221433 -0.511 115 94 101
0.435328 -0.227933 -0.526 142 92 81
0.455334 -0.230967 -0.533 123 84 77
-0.115623 -0.262884 -0.604 116 119 124
-0.105076 -0.25679 -0.59 109 112 119
-0.0948505 -0.26593 -0.611 62 61 69
0.0923571 -0.187588 -0.431 206 161 142
0.0976486 -0.186717 -0.429 206 161 142
0.104186 -0.186717 -0.429 191 144 128
0.128309 -0.189764 -0.436 158 109 94
0.13443 -0.190199 -0.437 139 99 89
0.140177 -0.192375 -0.442 117 87 87
0.148186 -0.196292 -0.451 98 68 70
0.361586 -0.254614 -0.585 145 101 102
0.35916 -0.249827 -0.574 101 59 61
0.337215 -0.221101 -0.508 109 82 89
0.340486 -0.221971 -0.51 95 76 80
0.4225 -0.2285 -0.525 163 108 101
0.4275 -0.2285 -0.525 153 101 90
-0.108448 -0.257914 -0.59 114 115 120
-0.0808714 -0.274963 -0.629 67 67 75
-0.0740343 -0.276274 -0.632 73 72 80
-0.0557267 -0.281083 -0.643 70 70 78
-0.0522143 -0.281957 -0.645 72 73 78
0.0850667 -0.192343 -0.44 201 159 143
0.0855143 -0.191469 -0.438 200 162 139
0.09438 -0.187534 -0.429 206 161 140
0.120003 -0.189283 -0.433 171 119 108
0.37488 -0.26928 -0.616 144 98 100
0.410417 -0.233434 -0.534 165 110 107
0.413628 -0.231249 -0.529 160 105 100
0.4335 -0.2295 -0.525 146 96 87
0.43633 -0.229937 -0.526 140 92 82
0.457206 -0.233434 -0.534 128 90 77
0.468351 -0.236494 -0.541 123 83 75
0.471985 -0.237806 -0.544 119 79 67
-0.104898 -0.258599 -0.589 108 111 116
-0.102829 -0.259038 -0.59 98 101 106
-0.0962238 -0.265624 -0.605 70 69 77
-0.0925552 -0.27177 -0.619 62 61 69
-0.0741514 -0.277917 -0.633 72 70 81
-0.0729457 -0.277917 -0.633 72 70 81
-0.0592162 -0.28143 -0.641 72 72 80
-0.0510648 -0.283625 -0.646 70 71 76
-0.0462857 -0.284503 -0.648 70 71 76
0.0863867 -0.190547 -0.434 201 160 142
0.110162 -0.18879 -0.43 182 131 114
0.129139 -0.191425 -0.436 151 105 92
0.12997 -0.191425 -0.436 146 100 87
0.35916 -0.252013 -0.574 130 84 87
0.35891 -0.248062 -0.565 81 46 50
0.337603 -0.225231 -0.513 115 90 93
0.40849 -0.239281 -0.545 158 108 101
0.409529 -0.239281 -0.545 158 108 101
0.410417 -0.234451 -0.534 161 108 102
0.422693 -0.230061 -0.524 160 105 98
0.4335 -0.2305 -0.525 144 96 86
0.435328 -0.230939 -0.526 142 94 84
0.46096 -0.23533 -0.536 128 88 76
0.47476 -0.23972 -0.546 120 81 66
-0.0764419 -0.278682 -0.632 69 69 79
-0.0752381 -0.278682 -0.632 69 69 79
-0.0615619 -0.28221 -0.64 73 73 81
-0.0534429 -0.284414 -0.645 70 71 76
0.0913238 -0.18961 -0.43 202 159 140
0.0921429 -0.18961 -0.43 203 160 141
0.0957905 -0.188728 -0.428 204 159 138
0.129139 -0.192255 -0.436 150 103 93
0.1311 -0.192696 -0.437 140 97 90
0.13619 -0.194019 -0.44 126 91 87
0.144963 -0.197988 -0.449 102 76 77
0.37914 -0.274713 -0.623 143 93 96
0.41207 -0.244288 -0.554 158 110 108
0.409148 -0.23591 -0.535 162 109 103
0.410417 -0.235469 -0.534 162 109 103
0.410664 -0.235028 -0.533 161 108 102
0.412157 -0.234146 -0.531 163 110 104
0.41529 -0.231941 -0.526 156 103 97
0.416291 -0.231941 -0.526 158 105 99
0.4265 -0.2315 -0.525 157 104 96
0.444023 -0.232823 -0.528 131 89 75
0.445871 -0.233264 -0.529 133 91 79
-0.1003 -0.2635 -0.595 65 65 73
-0.0957 -0.2697 -0.609 72 71 79
-0.09328 -0.2728 -0.616 68 67 75
-0.0764419 -0.279886 -0.632 67 67 75
-0.0742686 -0.280771 -0.634 68 68 76
-0.0569514 -0.284757 -0.643 73 74 79
-0.0546714 -0.285643 -0.645 70 71 76
-0.0522952 -0.286086 -0.646 69 70 75
0.0847333 -0.1922 -0.434 204 163 145
0.110981 -0.190429 -0.43 182 130 116
0.11206 -0.190871 -0.431 179 127 113
0.113702 -0.190871 -0.431 181 128 114
0.148633 -0.2015 -0.455 94 71 77
0.359283 -0.251986 -0.569 128 83 86
0.409095 -0.243571 -0.55 158 110 106
0.406705 -0.240914 -0.544 158 108 101
0.412157 -0.235157 -0.531 162 109 103
0.4325 -0.2325 -0.525 140 96 85
0.457206 -0.236486 -0.534 123 85 74
-0.0943 -0.273529 -0.615 71 70 78
-0.0834 -0.2802 -0.63 58 58 66
-0.0811286 -0.280645 -0.631 59 59 67
-0.062879 -0.285092 -0.641 73 74 79
0.0919286 -0.190803 -0.429 205 160 141
0.097421 -0.190358 -0.428 197 152 131
0.119178 -0.192582 -0.433 167 115 101
0.1365 -0.19614 -0.441 123 89 87
0.343844 -0.233055 -0.524 138 121 127
0.408129 -0.237948 -0.535 158 107 103
0.413628 -0.235279 -0.529 155 102 96
0.413851 -0.234834 -0.528 157 104 98
0.4235 -0.2335 -0.525 165 108 101
-0.0868619 -0.280953 -0.629 57 56 62
-0.0766838 -0.283187 -0.634 64 63 71
-0.07098 -0.284527 -0.637 73 72 80
0.090899 -0.191173 -0.428 206 163 144
0.109089 -0.19162 -0.429 186 134 120
0.149613 -0.204573 -0.458 100 79 98
0.36456 -0.26264 -0.588 151 100 109
0.347172 -0.233607 -0.523 83 68 75
0.407306 -0.24522 -0.549 154 109 104
0.40787 -0.239413 -0.536 160 107 103
0.408383 -0.23852 -0.534 161 106 99
0.4094 -0.23852 -0.534 162 107 100
0.4134 -0.236733 -0.53 158 105 99
0.414857 -0.23584 -0.528 156 103 97
0.4255 -0.2345 -0.525 159 104 99
0.4315 -0.2345 -0.525 143 96 88
0.4335 -0.2345 -0.525 143 96 88
0.444023 -0.23584 -0.528 131 91 81
-0.10548 -0.262863 -0.586 96 97 101
-0.101092 -0.266003 -0.593 65 66 71
-0.0892581 -0.282151 -0.629 59 58 66
-0.0858 -0.2826 -0.63 57 56 64
-0.0500657 -0.291123 -0.649 68 71 78
0.0812438 -0.198269 -0.442 202 159 143
0.090899 -0.191989 -0.428 206 163 144
0.103128 -0.191989 -0.428 189 140 123
0.10582 -0.192437 -0.429 188 137 120
0.107705 -0.192886 -0.43 186 133 117
0.358711 -0.252546 -0.563 132 90 91
0.360215 -0.252097 -0.562 124 79 74
0.351423 -0.239537 -0.534 107 88 94
0.406047 -0.24178 -0.539 158 109 105
0.40685 -0.240434 -0.536 154 105 101
0.438333 -0.235949 -0.526 131 91 79
0.453467 -0.23864 -0.532 129 91 82
0.583762 -0.291571 -0.65 162 179 207
-0.112198 -0.266682 -0.592 93 96 101
-0.0629771 -0.289206 -0.642 72 72 80
0.0807657 -0.200011 -0.444 198 160 139
0.090899 -0.192804 -0.428 206 161 140
0.10582 -0.193254 -0.429 191 138 124
0.109343 -0.193705 -0.43 185 131 119
0.118353 -0.195056 -0.433 167 115 102
0.125817 -0.196408 -0.436 150 103 95
0.355173 -0.239653 -0.532 48 37 43
0.4235 -0.2365 -0.525 157 107 100
0.4335 -0.2365 -0.525 147 100 90
0.4345 -0.2365 -0.525 142 98 87
1.14303 -0.291458 -0.647 202 204 193
-0.0848686 -0.285905 -0.632 56 55 63
-0.0721933 -0.288167 -0.637 67 66 74
-0.0687686 -0.289071 -0.639 69 68 76
0.0884533 -0.193619 -0.428 205 162 145
0.0892686 -0.193619 -0.428 204 161 144
0.09638 -0.193167 -0.427 197 152 133
0.111239 -0.194976 -0.431 181 128 114
0.132838 -0.199048 -0.44 129 89 87
0.358506 -0.253786 -0.561 134 97 104
0.359357 -0.252881 -0.559 122 87 83
0.455707 -0.291333 -0.644 63 64 84
0.403738 -0.247452 -0.547 154 103 99
0.410664 -0.241119 -0.533 155 104 101
0.41239 -0.239762 -0.53 151 100 96
0.447887 -0.23931 -0.529 129 89 79
-0.114474 -0.271663 -0.598 97 97 105
-0.111819 -0.268029 -0.59 97 97 105
-0.10548 -0.266211 -0.586 89 90 95
-0.101877 -0.268483 -0.591 64 65 69
-0.0982029 -0.273934 -0.603 90 89 95
-0.0931533 -0.28302 -0.623 77 76 82
-0.0839295 -0.288017 -0.634 55 54 62
0.0931267 -0.19398 -0.427 205 159 143
0.0955667 -0.19398 -0.427 198 152 136
0.12028 -0.19716 -0.434 160 110 99
0.128063 -0.198977 -0.438 135 94 90
0.359132 -0.253037 -0.557 122 82 82
0.358662 -0.247586 -0.545 67 38 43
0.385419 -0.257126 -0.566 59 51 66
0.408336 -0.253946 -0.559 138 99 104
0.41909 -0.239409 -0.527 158 108 101
0.4235 -0.2385 -0.525 150 100 91
0.435328 -0.238954 -0.526 148 100 88
0.463705 -0.244406 -0.538 115 85 77
0.46473 -0.244406 -0.538 115 85 77
1.13909 -0.291651 -0.642 202 205 196
-0.114283 -0.272346 -0.597 95 96 101
-0.0840619 -0.289681 -0.635 55 54 62
-0.0758333 -0.290593 -0.637 57 56 64
0.108524 -0.196162 -0.43 184 133 116
0.118627 -0.197987 -0.434 157 107 96
0.132 -0.200724 -0.44 128 89 84
0.359357 -0.25501 -0.559 133 83 84
0.359462 -0.251361 -0.551 104 68 70
0.404684 -0.25273 -0.554 142 98 99
0.409649 -0.24315 -0.533 150 97 91
0.414635 -0.241325 -0.529 140 90 81
0.4255 -0.2395 -0.525 152 102 91
0.439335 -0.239956 -0.526 143 97 82
0.446879 -0.241325 -0.529 132 90 78
0.47025 -0.247255 -0.542 122 85 76
0.490509 -0.254554 -0.558 126 91 85
-0.09686 -0.27898 -0.609 91 90 96
-0.0919457 -0.289058 -0.631 75 74 80
-0.0677629 -0.293639 -0.641 69 68 74
-0.0525381 -0.297304 -0.649 71 72 76
0.0782543 -0.205685 -0.449 201 162 145
0.07854 -0.20202 -0.441 198 161 145
0.0884533 -0.196065 -0.428 204 162 140
0.118627 -0.198813 -0.434 155 107 97
0.126106 -0.200188 -0.437 144 97 91
0.128063 -0.200646 -0.438 132 92 90
0.147638 -0.210724 -0.46 119 114 134
0.151014 -0.213014 -0.465 145 148 189
0.359857 -0.251952 -0.55 109 68 72
0.403993 -0.246913 -0.539 152 101 97
0.453467 -0.243707 -0.532 126 88 79
0.455334 -0.244165 -0.533 125 88 80
0.480333 -0.251952 -0.55 126 89 80
0.495095 -0.25745 -0.562 123 89 80
0.499697 -0.259282 -0.566 124 92 81
-0.101877 -0.27186 -0.591 64 65 70
-0.0771676 -0.29348 -0.638 54 53 61
-0.0700952 -0.2944 -0.64 64 63 71
-0.0584476 -0.29716 -0.646 70 71 75
0.131758 -0.20332 -0.442 123 88 86
0.143749 -0.20976 -0.456 99 76 82
0.146762 -0.2116 -0.46 123 110 127
0.366523 -0.25254 -0.549 71 50 55
0.372731 -0.25392 -0.552 42 32 40
0.400301 -0.25208 -0.548 146 98 96
0.405293 -0.24748 -0.538 151 101 94
0.4315 -0.2415 -0.525 151 101 90
0.435328 -0.24196 -0.526 148 98 87
0.441174 -0.24242 -0.527 140 94 79
0.447887 -0.24334 -0.529 131 91 81
0.467486 -0.2484 -0.54 123 90 81
0.574781 -0.2944 -0.64 159 172 204
-0.0988571 -0.277143 -0.6 102 101 109
-0.0832438 -0.294695 -0.638 53 54 59
-0.0585381 -0.298852 -0.647 70 71 75
0.0783 -0.200929 -0.435 201 162 147
0.0814952 -0.198619 -0.43 203 166 148
0.102551 -0.198157 -0.429 189 138 121
0.360364 -0.255895 -0.554 134 85 91
0.381717 -0.258205 -0.559 58 47 55
0.410664 -0.246195 -0.533 146 93 85
0.411679 -0.246195 -0.533 146 93 87
0.422303 -0.242962 -0.526 151 101 92
0.451603 -0.245271 -0.531 128 90 81
0.490509 -0.257743 -0.558 126 89 81
-0.127806 -0.294983 -0.636 95 98 105
-0.11163 -0.273184 -0.589 97 100 105
-0.0833743 -0.296374 -0.639 52 53 58
-0.08094 -0.296374 -0.639 50 51 56
-0.0748543 -0.296374 -0.639 53 53 61
-0.0655248 -0.29823 -0.643 68 67 73
-0.0585381 -0.300085 -0.647 72 71 77
0.0814952 -0.199438 -0.43 202 165 149
0.100682 -0.19851 -0.428 188 140 120
0.115054 -0.20083 -0.433 163 111 100
0.122495 -0.202221 -0.436 143 98 93
0.38316 -0.258806 -0.558 66 51 58
0.3969 -0.26298 -0.567 81 68 78
0.403517 -0.249066 -0.537 149 99 92
0.405563 -0.249066 -0.537 145 95 88
0.413947 -0.246747 -0.532 148 95 89
0.47025 -0.251385 -0.542 125 87 76
0.4758 -0.25324 -0.546 124 85 78
0.504314 -0.264371 -0.57 129 89 79
-0.124405 -0.291071 -0.625 94 97 104
-0.093 -0.2934 -0.63 86 87 92
-0.0902514 -0.296194 -0.636 73 76 81
-0.0736371 -0.297591 -0.639 55 55 63
0.126971 -0.204914 -0.44 128 87 83
0.139351 -0.210969 -0.453 102 75 80
0.142323 -0.212831 -0.457 102 77 81
0.14382 -0.213763 -0.459 115 103 117
0.14564 -0.21516 -0.462 149 137 151
0.407609 -0.250089 -0.537 148 95 89
0.408891 -0.249623 -0.536 148 93 86
0.458223 -0.248691 -0.534 126 89 80
0.473021 -0.253349 -0.544 124 84 74
-0.08932 -0.298341 -0.638 71 74 79
-0.0859429 -0.299276 -0.64 56 57 62
-0.0798476 -0.299276 -0.64 48 49 54
-0.0656267 -0.301147 -0.644 67 66 71
-0.0621391 -0.302082 -0.646 70 69 74
0.0813057 -0.200609 -0.429 206 164 148
0.0896629 -0.199206 -0.426 199 158 138
0.0971933 -0.199673 -0.427 189 142 122
0.109597 -0.201544 -0.431 174 122 109
0.120004 -0.203882 -0.436 149 102 92
0.12501 -0.205285 -0.439 135 96 89
0.12839 -0.206688 -0.442 122 85 79
0.1341 -0.209026 -0.447 105 79 80
0.366033 -0.258593 -0.553 140 98 100
0.369577 -0.258126 -0.552 135 96 97
0.389554 -0.258126 -0.552 130 90 88
0.397833 -0.252047 -0.539 147 99 95
0.39886 -0.252047 -0.539 144 96 92
0.419886 -0.246903 -0.528 152 99 91
0.439335 -0.245968 -0.526 140 96 85
0.458223 -0.249709 -0.534 128 88 80
0.465593 -0.252047 -0.539 125 88 80
0.48963 -0.260464 -0.557 131 97 88
-0.102654 -0.27655 -0.589 66 66 74
-0.0946429 -0.293452 -0.625 89 89 97
0.0790381 -0.201895 -0.43 208 166 150
0.0819314 -0.200956 -0.428 205 162 145
0.0888514 -0.200017 -0.426 197 156 136
0.0902619 -0.199548 -0.425 196 153 134
0.0980067 -0.200487 -0.427 188 143 120
0.106067 -0.201895 -0.43 183 132 113
0.15091 -0.222085 -0.473 213 219 251
0.364585 -0.260116 -0.554 135 93 95
0.381857 -0.258238 -0.55 124 92 93
0.389529 -0.257769 -0.549 134 93 91
0.392821 -0.254482 -0.542 142 97 92
0.404808 -0.251665 -0.536 147 98 91
0.411679 -0.250256 -0.533 143 93 86
0.427312 -0.24697 -0.526 150 100 89
0.453626 -0.249317 -0.531 120 82 73
0.472151 -0.254951 -0.543 123 84 77
0.493333 -0.262933 -0.56 127 93 84
0.0754657 -0.204129 -0.433 206 166 156
0.0849933 -0.2013 -0.427 202 159 142
0.0953429 -0.200829 -0.426 190 145 124
0.0961543 -0.200829 -0.426 189 144 123
0.101497 -0.201771 -0.428 180 131 114
0.104186 -0.202243 -0.429 183 132 113
0.106067 -0.202714 -0.43 180 129 110
0.141197 -0.216386 -0.459 107 94 101
0.363171 -0.268714 -0.57 131 85 88
0.36234 -0.2673 -0.567 128 82 85
0.365243 -0.261643 -0.555 135 93 95
0.379425 -0.258343 -0.548 132 93 94
0.386026 -0.257871 -0.547 129 91 90
0.394021 -0.253629 -0.538 143 98 95
0.399145 -0.253629 -0.538 148 99 95
0.402494 -0.253157 -0.537 146 97 92
0.409649 -0.251271 -0.533 147 97 90
