ply
format ascii 1.0
comment Created by Open3D
element vertex 1278
property double x
property double y
property double z
property uchar red
property uchar green
property uchar blue
end_header
0.237214 -0.369586 -0.615 195 213 253
0.257547 -0.370187 -0.616 203 201 215
0.270014 -0.369586 -0.615 172 186 221
0.309173 -0.370187 -0.616 223 228 250
0.320907 -0.370187 -0.616 181 183 204
0.3321 -0.369586 -0.615 113 126 158
0.335614 -0.369586 -0.615 199 206 235
0.373138 -0.370788 -0.617 198 200 223
0.407733 -0.370187 -0.616 189 194 213
0.411921 -0.370788 -0.617 164 172 193
0.427199 -0.370788 -0.617 59 99 161
0.437067 -0.370187 -0.616 159 174 215
0.444107 -0.370187 -0.616 101 107 131
0.446003 -0.370788 -0.617 144 150 174
0.458187 -0.370187 -0.616 154 160 186
0.45936 -0.370187 -0.616 116 122 148
0.490243 -0.369586 -0.615 18 52 115
0.44032 -0.307688 -0.512 180 126 102
0.451313 -0.305885 -0.509 177 119 95
0.472449 -0.308289 -0.513 154 107 87
0.47816 -0.310091 -0.516 150 103 85
0.49632 -0.317303 -0.528 149 103 87
0.00339333 -0.306854 -0.509 202 165 139
0.0167 -0.302031 -0.501 208 167 145
0.0424229 -0.308663 -0.512 165 124 118
0.0502114 -0.314691 -0.522 151 111 111
0.112599 -0.373169 -0.619 124 144 194
0.116936 -0.371963 -0.617 167 175 198
0.126543 -0.372566 -0.618 147 157 184
0.154544 -0.371963 -0.617 121 126 145
0.168373 -0.37136 -0.616 159 169 196
0.1845 -0.370757 -0.615 232 234 255
0.195043 -0.370757 -0.615 214 218 243
0.301643 -0.370757 -0.615 187 203 239
0.334443 -0.370757 -0.615 187 203 236
0.336786 -0.370757 -0.615 206 213 239
0.3608 -0.37136 -0.616 132 144 168
0.372533 -0.37136 -0.616 197 201 226
0.37488 -0.37136 -0.616 167 177 204
0.395357 -0.370757 -0.615 186 192 208
0.398871 -0.370757 -0.615 187 194 212
0.432373 -0.37136 -0.616 107 142 200
0.434014 -0.370757 -0.615 86 114 162
0.437529 -0.370757 -0.615 91 109 155
0.45584 -0.37136 -0.616 154 161 180
0.464053 -0.37136 -0.616 141 147 179
0.465227 -0.37136 -0.616 144 148 173
0.476186 -0.370757 -0.615 160 162 183
0.438976 -0.310471 -0.515 183 125 101
0.439103 -0.309869 -0.514 182 126 101
0.439226 -0.309266 -0.513 185 129 104
0.440433 -0.30806 -0.511 183 125 101
0.443457 -0.307457 -0.51 178 122 97
0.4454 -0.307457 -0.51 177 119 95
0.446466 -0.306854 -0.509 174 116 92
0.483906 -0.312883 -0.519 151 106 87
0.505957 -0.322529 -0.535 148 105 88
-0.00170857 -0.361648 -0.598 200 164 140
0.011881 -0.301776 -0.499 212 172 147
0.0585952 -0.323548 -0.535 137 103 102
0.0678171 -0.333829 -0.552 130 100 100
0.0733276 -0.339876 -0.562 128 102 105
0.1442 -0.373743 -0.618 171 164 180
0.161333 -0.372533 -0.616 216 214 235
0.180986 -0.371929 -0.615 235 233 255
0.191529 -0.371929 -0.615 191 193 218
0.216947 -0.371324 -0.614 233 240 255
0.23332 -0.371324 -0.614 183 203 238
0.247354 -0.371324 -0.614 248 251 255
0.25788 -0.371324 -0.614 159 165 191
0.302322 -0.371324 -0.614 182 198 232
0.30817 -0.371324 -0.614 222 224 249
0.352014 -0.371929 -0.615 135 155 188
0.393545 -0.371324 -0.614 175 182 201
0.402386 -0.371929 -0.615 188 194 210
0.410586 -0.371929 -0.615 180 183 198
0.422987 -0.372533 -0.616 102 128 185
0.42416 -0.372533 -0.616 88 118 180
0.467986 -0.371929 -0.615 140 138 149
0.472671 -0.371929 -0.615 175 169 169
0.440203 -0.310243 -0.513 181 127 103
0.44032 -0.309638 -0.512 179 125 101
0.459 -0.308429 -0.51 172 114 92
-0.00169714 -0.36036 -0.594 201 163 140
0.0052381 -0.303333 -0.5 207 167 142
0.0166667 -0.303333 -0.5 208 171 145
0.0204762 -0.303333 -0.5 204 166 143
0.0261905 -0.303333 -0.5 199 161 138
0.0456143 -0.312433 -0.515 158 119 112
0.0501152 -0.316073 -0.521 151 113 110
0.065119 -0.331847 -0.547 130 100 100
0.0664029 -0.33306 -0.549 130 100 102
0.136915 -0.374313 -0.617 169 176 192
0.154293 -0.373707 -0.616 205 209 236
0.163414 -0.3731 -0.615 219 220 240
0.179522 -0.372493 -0.614 210 216 240
0.222794 -0.372493 -0.614 244 247 254
0.250863 -0.372493 -0.614 250 248 249
0.263728 -0.372493 -0.614 233 234 254
0.325712 -0.372493 -0.614 219 225 239
0.339747 -0.372493 -0.614 211 213 234
0.3567 -0.3731 -0.615 151 156 175
0.378957 -0.3731 -0.615 165 177 201
0.385986 -0.3731 -0.615 193 197 208
0.390036 -0.372493 -0.614 192 195 212
0.391206 -0.372493 -0.614 192 195 212
0.407071 -0.3731 -0.615 189 195 211
0.410586 -0.3731 -0.615 134 134 146
0.431671 -0.3731 -0.615 60 103 171
0.443834 -0.372493 -0.614 171 173 188
0.449243 -0.3731 -0.615 143 137 137
0.47892 -0.372493 -0.614 160 172 198
0.481109 -0.31304 -0.516 154 107 87
0.0128314 -0.303677 -0.499 213 173 148
0.0320324 -0.305503 -0.502 186 148 125
0.0340124 -0.306111 -0.503 183 145 126
0.104843 -0.374271 -0.615 107 123 157
0.12496 -0.37488 -0.616 140 155 178
0.147253 -0.37488 -0.616 177 185 206
0.1517 -0.374271 -0.615 123 132 163
0.158729 -0.374271 -0.615 215 213 234
0.173674 -0.373663 -0.614 177 192 223
0.209588 -0.373054 -0.613 186 195 228
0.218929 -0.373054 -0.613 249 248 253
0.246951 -0.373054 -0.613 254 251 255
0.250454 -0.373054 -0.613 246 249 254
0.353781 -0.373663 -0.614 147 170 214
0.362546 -0.373054 -0.613 92 123 178
0.377171 -0.373663 -0.614 134 153 186
0.412257 -0.373663 -0.614 183 177 187
0.425814 -0.374271 -0.615 27 63 139
0.435648 -0.373663 -0.614 41 74 143
0.436817 -0.373663 -0.614 50 78 141
0.437987 -0.373663 -0.614 82 110 173
0.459038 -0.373663 -0.614 118 130 156
0.475411 -0.373663 -0.614 174 174 202
0.44238 -0.31098 -0.511 182 126 103
0.445496 -0.309763 -0.509 180 122 98
0.450427 -0.309154 -0.508 179 121 97
0.469686 -0.310371 -0.51 159 102 82
0.501229 -0.322543 -0.53 150 105 86
0.00333333 -0.305238 -0.5 205 165 140
0.0071 -0.303407 -0.497 208 168 142
0.0128057 -0.304017 -0.498 209 172 146
0.129653 -0.376053 -0.616 150 161 191
0.200247 -0.374222 -0.613 218 231 250
0.255125 -0.374222 -0.613 219 221 236
0.312994 -0.373611 -0.612 141 154 188
0.32232 -0.373611 -0.612 214 218 229
0.324651 -0.373611 -0.612 212 220 231
0.38006 -0.374222 -0.613 204 206 219
0.426291 -0.374832 -0.614 21 58 129
0.431435 -0.374222 -0.613 29 62 131
0.441944 -0.374222 -0.613 172 181 190
0.464129 -0.374222 -0.613 174 176 188
0.473072 -0.374832 -0.614 175 172 183
0.487107 -0.374832 -0.614 86 110 158
0.457897 -0.336983 -0.552 138 104 95
0.45396 -0.33332 -0.546 141 107 98
0.440082 -0.313785 -0.514 182 126 101
0.446556 -0.310122 -0.508 182 125 98
0.449459 -0.310122 -0.508 179 123 96
-0.0051 -0.364367 -0.595 197 160 134
0.00237619 -0.305578 -0.499 202 165 138
0.00897524 -0.303741 -0.496 208 168 143
0.0118333 -0.304353 -0.497 208 171 145
0.0422571 -0.312314 -0.51 163 123 113
0.0745305 -0.34477 -0.563 128 102 105
0.0773562 -0.347832 -0.568 129 103 106
0.08792 -0.36008 -0.588 132 105 110
0.109707 -0.377227 -0.616 104 120 156
0.142329 -0.376614 -0.615 158 167 210
0.147945 -0.376002 -0.614 88 108 158
0.155877 -0.37539 -0.613 215 217 229
0.169889 -0.37539 -0.613 174 194 229
0.201086 -0.374777 -0.612 206 217 237
0.218571 -0.374777 -0.612 238 242 254
0.255874 -0.374777 -0.612 224 226 239
0.264034 -0.374777 -0.612 244 243 255
0.319989 -0.374777 -0.612 207 209 221
0.343303 -0.374777 -0.612 207 211 223
0.35496 -0.374777 -0.612 107 121 168
0.364286 -0.374777 -0.612 74 114 183
0.374222 -0.37539 -0.613 162 189 242
0.392263 -0.374777 -0.612 139 148 179
0.408083 -0.37539 -0.613 154 148 150
0.43377 -0.37539 -0.613 68 103 159
0.447782 -0.37539 -0.613 162 161 166
0.48281 -0.37539 -0.613 156 168 194
0.486313 -0.37539 -0.613 111 131 168
0.488649 -0.37539 -0.613 57 85 148
0.441295 -0.313539 -0.512 182 126 99
0.441407 -0.312927 -0.511 182 126 99
0.442486 -0.312314 -0.51 183 127 100
0.450427 -0.31109 -0.508 178 122 95
0.460103 -0.31109 -0.508 174 116 92
0.484995 -0.316601 -0.517 155 108 88
0.0118095 -0.304686 -0.496 210 170 145
0.01278 -0.3053 -0.497 210 170 145
0.0251371 -0.305914 -0.498 194 156 137
0.0319686 -0.307757 -0.501 185 147 126
0.0329229 -0.307757 -0.501 181 143 122
0.036 -0.3096 -0.504 178 136 124
0.0422571 -0.313286 -0.51 162 124 115
0.116368 -0.377171 -0.614 172 177 196
0.131571 -0.377171 -0.614 115 136 181
0.13508 -0.377171 -0.614 160 169 202
0.13625 -0.377171 -0.614 159 172 204
0.146775 -0.377171 -0.614 124 140 174
0.174274 -0.375943 -0.612 153 166 198
0.302009 -0.375329 -0.611 148 172 218
0.306664 -0.375329 -0.611 212 220 255
0.313647 -0.375329 -0.611 164 180 216
0.318823 -0.375943 -0.612 213 220 238
0.32063 -0.375329 -0.611 194 198 209
0.334595 -0.375329 -0.611 199 206 225
0.344469 -0.375943 -0.612 207 213 227
0.359623 -0.375943 -0.612 111 142 199
0.361954 -0.375943 -0.612 57 96 161
0.364286 -0.375943 -0.612 74 114 183
0.38006 -0.376557 -0.613 199 197 208
0.383563 -0.376557 -0.613 131 127 124
0.390458 -0.375329 -0.611 157 159 182
0.391622 -0.375329 -0.611 155 160 189
0.406915 -0.376557 -0.613 141 135 135
0.4291 -0.376557 -0.613 24 61 129
0.433063 -0.375943 -0.612 98 129 175
0.447051 -0.375943 -0.612 182 181 187
0.462961 -0.376557 -0.613 178 178 188
0.48281 -0.376557 -0.613 162 169 188
0.490183 -0.375943 -0.612 65 98 152
0.495552 -0.374714 -0.61 119 141 180
0.454369 -0.311443 -0.507 179 122 95
0.4563 -0.311443 -0.507 178 120 96
0.458231 -0.311443 -0.507 176 120 95
0.459197 -0.311443 -0.507 176 120 95
0.492669 -0.320657 -0.522 151 108 92
0.00612857 -0.305014 -0.495 203 162 134
0.00893905 -0.304398 -0.494 203 163 137
0.0155886 -0.30563 -0.496 208 168 143
0.03696 -0.31056 -0.504 173 133 121
0.0422571 -0.314257 -0.51 161 123 114
0.0513038 -0.322268 -0.523 144 111 106
0.0623438 -0.333359 -0.541 132 102 100
0.0689933 -0.340753 -0.553 129 103 102
0.0717429 -0.343834 -0.558 129 103 104
0.0894943 -0.364169 -0.591 124 109 112
0.137195 -0.377725 -0.613 120 135 166
0.142097 -0.378341 -0.614 162 175 217
0.148871 -0.377725 -0.613 81 98 142
0.173109 -0.377109 -0.612 184 197 229
0.215887 -0.376492 -0.611 193 198 220
0.349131 -0.377109 -0.612 199 200 218
0.356126 -0.377109 -0.612 68 98 158
0.361954 -0.377109 -0.612 49 84 150
0.415577 -0.377109 -0.612 91 110 152
0.43656 -0.377109 -0.612 138 156 196
0.451714 -0.377109 -0.612 181 175 185
0.466869 -0.377109 -0.612 170 167 176
0.470366 -0.377109 -0.612 179 178 194
0.473863 -0.377109 -0.612 96 108 146
0.455205 -0.335824 -0.545 148 110 97
0.446879 -0.325965 -0.529 161 118 101
0.443098 -0.321035 -0.521 169 118 97
0.442486 -0.314257 -0.51 182 124 100
0.446466 -0.313641 -0.509 184 128 103
0.450506 -0.312409 -0.507 181 125 100
0.464941 -0.313025 -0.508 169 114 93
0.470704 -0.313641 -0.509 165 117 94
0.472643 -0.313641 -0.509 160 114 91
0.000472381 -0.306575 -0.496 205 165 140
0.00423429 -0.305339 -0.494 198 158 133
0.0250362 -0.306575 -0.496 193 156 137
0.0338771 -0.309666 -0.501 175 136 119
0.0359286 -0.310902 -0.503 173 133 121
0.0512057 -0.322646 -0.522 145 110 106
0.0572533 -0.328827 -0.532 140 106 104
0.065 -0.33748 -0.546 129 101 98
0.0717429 -0.344897 -0.558 128 104 104
0.0730667 -0.346133 -0.56 127 103 103
0.0745305 -0.347988 -0.563 128 104 104
0.08022 -0.354169 -0.573 132 102 110
0.0817371 -0.356023 -0.576 131 101 109
0.116178 -0.378892 -0.613 176 179 194
0.122215 -0.37951 -0.614 178 183 202
0.126687 -0.378892 -0.613 107 111 146
0.15096 -0.378274 -0.612 164 175 207
0.179809 -0.377656 -0.611 228 230 251
0.322429 -0.377038 -0.61 197 197 209
0.331724 -0.377038 -0.61 173 178 200
0.338695 -0.377038 -0.61 208 214 228
0.342742 -0.377656 -0.611 207 212 231
0.35438 -0.377656 -0.611 64 93 151
0.355544 -0.377656 -0.611 63 98 162
0.406251 -0.378274 -0.612 183 179 180
0.45288 -0.378274 -0.612 181 179 190
0.468034 -0.378274 -0.612 117 111 123
0.490183 -0.378274 -0.612 81 107 158
0.443353 -0.315847 -0.511 182 125 98
0.445496 -0.31461 -0.509 185 129 104
0.446556 -0.313992 -0.508 183 127 102
0.47742 -0.315847 -0.511 157 110 90
0.486023 -0.318937 -0.516 154 109 88
0.513918 -0.332535 -0.538 147 103 92
0.00516476 -0.30566 -0.493 201 161 136
0.02988 -0.30876 -0.498 188 147 125
0.0399981 -0.31372 -0.506 162 124 113
0.0411238 -0.31496 -0.508 161 123 112
0.0560286 -0.3286 -0.53 137 106 103
0.0773562 -0.35216 -0.568 128 102 103
0.135806 -0.37944 -0.612 163 177 203
0.348561 -0.37882 -0.611 146 144 147
0.365419 -0.3782 -0.61 59 96 166
0.366581 -0.3782 -0.61 62 101 170
0.400932 -0.37882 -0.611 194 194 202
0.433971 -0.3782 -0.61 171 182 210
0.453304 -0.37882 -0.611 177 176 190
0.468433 -0.37882 -0.611 117 114 131
0.471925 -0.37882 -0.611 80 84 111
0.478908 -0.37882 -0.611 170 176 192
0.450506 -0.31434 -0.507 180 124 97
0.457328 -0.31372 -0.506 182 126 101
0.459255 -0.31372 -0.506 178 124 100
0.485081 -0.3193 -0.515 158 111 91
0.49755 -0.32488 -0.524 150 107 90
0.00515429 -0.305977 -0.492 204 164 139
0.0202714 -0.307843 -0.495 202 165 139
0.0308286 -0.309709 -0.498 189 148 126
0.0454371 -0.319037 -0.513 153 115 106
0.04884 -0.322147 -0.518 146 113 106
0.0571457 -0.330231 -0.531 137 106 103
0.0675714 -0.342048 -0.55 128 103 99
0.112491 -0.380606 -0.612 96 102 136
0.115989 -0.380606 -0.612 178 181 200
0.124149 -0.380606 -0.612 159 165 189
0.131143 -0.380606 -0.612 149 153 178
0.138137 -0.380606 -0.612 81 92 138
0.146058 -0.379984 -0.611 192 200 221
0.150713 -0.379984 -0.611 148 162 191
0.155114 -0.379362 -0.61 203 209 231
0.32422 -0.37874 -0.609 154 151 158
0.37062 -0.37874 -0.609 95 117 164
0.389819 -0.379362 -0.61 191 195 204
0.397952 -0.379362 -0.61 196 198 211
0.400276 -0.379362 -0.61 194 197 206
0.404424 -0.379984 -0.611 188 189 193
0.406086 -0.379362 -0.61 192 192 202
0.414898 -0.379984 -0.611 154 170 204
0.417226 -0.379984 -0.611 178 188 215
0.41839 -0.379984 -0.611 153 167 194
0.450976 -0.379984 -0.611 172 179 197
0.460287 -0.379984 -0.611 180 176 191
0.451771 -0.333341 -0.536 147 111 99
0.451471 -0.315306 -0.507 181 125 98
0.458291 -0.314684 -0.506 183 129 103
0.47365 -0.315928 -0.508 160 113 93
0.483197 -0.319037 -0.513 158 111 95
0.00420857 -0.30629 -0.491 204 164 139
0.00796571 -0.306914 -0.492 204 164 139
0.0183486 -0.308162 -0.494 206 165 143
0.0202305 -0.308162 -0.494 202 161 139
0.0221571 -0.308786 -0.495 195 157 134
0.113657 -0.381771 -0.612 135 142 160
0.121618 -0.381148 -0.611 173 176 195
0.12511 -0.381148 -0.611 143 152 181
0.141403 -0.381148 -0.611 186 196 221
0.146981 -0.380524 -0.61 195 206 226
0.173705 -0.380524 -0.61 159 172 204
0.18966 -0.3799 -0.609 230 232 253
0.36018 -0.3799 -0.609 77 117 178
0.36946 -0.3799 -0.609 134 161 208
0.3915 -0.3799 -0.609 194 197 212
0.403762 -0.380524 -0.61 184 187 194
0.417705 -0.380524 -0.61 165 172 201
0.423514 -0.380524 -0.61 100 136 194
0.447914 -0.380524 -0.61 173 179 205
0.449076 -0.380524 -0.61 181 178 197
0.486257 -0.380524 -0.61 88 111 155
0.445589 -0.316895 -0.508 182 126 103
0.456364 -0.315648 -0.506 186 130 105
0.000467619 -0.307226 -0.491 202 162 136
0.0239943 -0.309103 -0.494 192 150 134
0.0278143 -0.309729 -0.495 191 150 130
0.0815952 -0.359786 -0.575 125 105 106
0.124905 -0.381686 -0.61 177 183 205
0.126067 -0.381686 -0.61 182 188 210
0.136524 -0.381686 -0.61 142 149 167
0.149305 -0.381686 -0.61 201 212 232
0.16182 -0.38106 -0.609 196 204 225
0.342217 -0.380434 -0.608 210 209 223
0.345691 -0.380434 -0.608 152 146 146
0.3509 -0.38106 -0.609 117 133 169
0.3567 -0.38106 -0.609 138 166 213
0.3625 -0.38106 -0.609 76 116 185
0.36482 -0.38106 -0.609 114 148 211
0.38338 -0.38106 -0.609 197 196 212
0.41702 -0.38106 -0.609 163 171 192
0.43094 -0.38106 -0.609 130 146 182
0.43906 -0.38106 -0.609 171 171 195
0.454886 -0.381686 -0.61 176 177 197
0.460695 -0.381686 -0.61 165 167 190
0.46806 -0.38106 -0.609 98 103 132
0.4843 -0.38106 -0.609 78 101 145
0.460842 -0.342891 -0.548 149 112 103
0.453637 -0.336009 -0.537 147 110 101
0.45466 -0.336009 -0.537 147 110 101
0.446075 -0.325997 -0.521 164 121 104
0.444111 -0.320991 -0.513 176 122 98
0.461233 -0.315986 -0.505 182 126 101
0.471751 -0.317237 -0.507 165 117 95
0.491853 -0.32412 -0.518 152 111 93
0.00326667 -0.307533 -0.49 203 164 135
0.00513333 -0.307533 -0.49 205 166 137
0.0287571 -0.310671 -0.495 189 148 128
0.03888 -0.31632 -0.504 161 123 110
0.0465048 -0.322596 -0.514 144 111 104
0.0673257 -0.343935 -0.548 130 104 103
0.0687438 -0.345818 -0.551 130 104 105
0.0756029 -0.35335 -0.563 120 99 98
0.1015 -0.38222 -0.609 115 132 178
0.122581 -0.382848 -0.61 89 94 124
0.15138 -0.38222 -0.609 168 178 205
0.15254 -0.38222 -0.609 128 138 165
0.171977 -0.381592 -0.608 158 171 205
0.183558 -0.381592 -0.608 152 161 192
0.189349 -0.381592 -0.608 237 238 255
0.191665 -0.381592 -0.608 237 236 252
0.359589 -0.381592 -0.608 104 139 197
0.378118 -0.381592 -0.608 168 175 203
0.379276 -0.381592 -0.608 182 189 217
0.383909 -0.381592 -0.608 166 164 175
0.397151 -0.380965 -0.607 194 196 209
0.43674 -0.38222 -0.609 184 183 199
0.437181 -0.381592 -0.608 187 186 202
0.45182 -0.38222 -0.609 152 154 177
0.45878 -0.38222 -0.609 146 152 184
0.47154 -0.38222 -0.609 154 156 179
0.444429 -0.320086 -0.51 179 127 103
0.444527 -0.319458 -0.509 181 127 103
0.448491 -0.31883 -0.508 183 127 100
0.453472 -0.317575 -0.506 185 127 103
0.458348 -0.316948 -0.505 189 133 110
0.489954 -0.323851 -0.516 154 111 94
0.007 -0.308467 -0.49 206 167 138
0.0098 -0.308467 -0.49 203 163 137
0.0535 -0.3305 -0.525 133 105 102
0.06086 -0.338054 -0.537 131 103 102
0.0700467 -0.348127 -0.553 128 104 104
0.13514 -0.38338 -0.609 193 196 213
0.1363 -0.38338 -0.609 183 186 203
0.14094 -0.38338 -0.609 197 202 222
0.14906 -0.38338 -0.609 202 209 225
0.343967 -0.382121 -0.607 191 190 204
0.355529 -0.382121 -0.607 162 184 223
0.364778 -0.382121 -0.607 159 178 218
0.393173 -0.38275 -0.608 197 197 209
0.39549 -0.38275 -0.608 196 199 208
0.398308 -0.382121 -0.607 196 195 209
0.412861 -0.38275 -0.608 187 191 203
0.41981 -0.38275 -0.608 83 111 159
0.433707 -0.38275 -0.608 178 186 209
0.437181 -0.38275 -0.608 187 186 202
0.45571 -0.38275 -0.608 129 137 173
0.494271 -0.382121 -0.607 74 94 131
0.455683 -0.338054 -0.537 149 114 108
0.453472 -0.318539 -0.506 183 127 102
0.474649 -0.319169 -0.507 166 115 96
0.490937 -0.324834 -0.516 153 110 93
-0.00233333 -0.3094 -0.49 202 162 137
0.00978 -0.308769 -0.489 202 162 137
0.0154314 -0.310031 -0.491 204 164 139
0.02964 -0.311926 -0.494 183 145 122
0.0388029 -0.317609 -0.503 161 123 114
0.068619 -0.347286 -0.55 128 104 104
0.107652 -0.385803 -0.611 102 116 161
0.11194 -0.38454 -0.609 138 148 173
0.12818 -0.38454 -0.609 192 191 207
0.1305 -0.38454 -0.609 189 191 203
0.16707 -0.383277 -0.607 129 143 182
0.169382 -0.383277 -0.607 136 150 189
0.3434 -0.382646 -0.606 185 191 213
0.358406 -0.382646 -0.606 117 147 199
0.36764 -0.382646 -0.606 195 208 227
0.389058 -0.383277 -0.607 195 194 212
0.392527 -0.383277 -0.607 177 179 192
0.40804 -0.382646 -0.606 147 155 168
0.459185 -0.383909 -0.608 146 164 204
0.467291 -0.383909 -0.608 84 108 156
0.45931 -0.318871 -0.505 187 132 111
0.467005 -0.318871 -0.505 173 121 100
0.472749 -0.319503 -0.506 169 116 98
0.475614 -0.320134 -0.507 167 116 97
0.47752 -0.320766 -0.508 161 114 96
0.0595029 -0.3382 -0.534 128 104 100
0.087621 -0.371133 -0.586 127 106 111
0.106314 -0.386333 -0.61 86 98 146
0.10962 -0.3857 -0.609 101 111 147
0.11774 -0.3857 -0.609 64 72 108
0.136076 -0.385067 -0.608 189 189 199
0.146258 -0.384433 -0.607 200 208 219
0.150883 -0.384433 -0.607 200 206 232
0.171694 -0.384433 -0.607 142 156 201
0.352634 -0.3838 -0.606 192 203 223
0.376874 -0.3838 -0.606 86 102 136
0.417274 -0.3838 -0.606 103 131 181
0.421431 -0.384433 -0.607 121 145 193
0.430681 -0.384433 -0.607 125 148 192
0.450336 -0.384433 -0.607 81 108 161
0.469991 -0.384433 -0.607 181 179 193
0.490803 -0.384433 -0.607 89 110 155
0.495428 -0.384433 -0.607 69 91 132
0.499229 -0.3838 -0.606 154 162 185
0.44659 -0.327433 -0.517 167 118 101
0.446371 -0.323 -0.51 178 127 108
0.446466 -0.322367 -0.509 180 128 107
0.44954 -0.3211 -0.507 182 127 107
0.452509 -0.320467 -0.506 181 127 103
0.452576 -0.319833 -0.505 182 128 104
0.45456 -0.3192 -0.504 184 130 106
0.472776 -0.319833 -0.505 164 116 96
0.490967 -0.326167 -0.515 151 108 91
0.0060419 -0.309996 -0.488 207 167 141
0.0191333 -0.311267 -0.49 196 156 131
0.0315857 -0.314443 -0.495 179 140 125
0.0487457 -0.328418 -0.517 135 106 98
0.11542 -0.38686 -0.609 109 115 149
0.131228 -0.38559 -0.607 191 195 207
0.138392 -0.386225 -0.608 194 197 214
0.178337 -0.384954 -0.606 129 144 185
0.352052 -0.384319 -0.605 196 203 221
0.363576 -0.384319 -0.605 114 134 171
0.39188 -0.384954 -0.606 145 150 172
0.398148 -0.384319 -0.605 161 171 198
0.3993 -0.384319 -0.605 153 166 200
0.402757 -0.384319 -0.605 164 173 204
0.413811 -0.384954 -0.606 189 191 203
0.41612 -0.384954 -0.606 151 158 177
0.425354 -0.384954 -0.606 134 159 199
0.459586 -0.38559 -0.607 92 121 177
0.465367 -0.38559 -0.607 53 85 126
0.483069 -0.384954 -0.606 88 109 154
0.459077 -0.343664 -0.541 155 115 105
0.456876 -0.340488 -0.536 158 118 108
0.451358 -0.334135 -0.526 162 120 104
0.447435 -0.323336 -0.509 177 126 107
0.4632 -0.32016 -0.504 181 126 106
0.484257 -0.323971 -0.51 153 106 90
1.04286 -0.370979 -0.584 204 206 192
0.0051019 -0.310289 -0.487 207 167 141
0.011619 -0.310926 -0.488 202 162 136
0.0135057 -0.311563 -0.489 203 163 137
0.0247838 -0.312837 -0.491 191 149 127
0.02958 -0.314111 -0.493 181 140 122
0.030581 -0.314749 -0.494 180 139 121
0.0522 -0.332589 -0.522 134 106 103
0.0595029 -0.340234 -0.534 130 105 101
0.08904 -0.37464 -0.588 149 143 155
0.151789 -0.386109 -0.606 211 217 233
0.358967 -0.385471 -0.605 133 164 210
0.363576 -0.385471 -0.605 119 139 176
0.405062 -0.385471 -0.605 177 184 203
0.407367 -0.385471 -0.605 189 193 205
0.424652 -0.385471 -0.605 132 155 199
0.42811 -0.385471 -0.605 84 110 161
0.463446 -0.386109 -0.606 61 88 141
0.498074 -0.386109 -0.606 121 134 166
0.462471 -0.347243 -0.545 156 116 106
0.45064 -0.333863 -0.524 158 119 104
0.459407 -0.320483 -0.503 185 130 110
0.472776 -0.321757 -0.505 169 118 97
0.484257 -0.324943 -0.51 153 106 90
-0.00698571 -0.312494 -0.489 198 162 140
0.00695714 -0.311216 -0.487 204 164 138
0.00881238 -0.311216 -0.487 200 163 136
0.0144076 -0.311855 -0.488 202 162 137
0.0276457 -0.314411 -0.492 184 143 123
0.0453486 -0.327192 -0.512 141 110 107
0.0522 -0.333583 -0.522 135 105 105
0.06708 -0.34892 -0.546 130 106 106
0.0874714 -0.373843 -0.585 123 108 111
0.123134 -0.387902 -0.607 181 184 203
0.127759 -0.387902 -0.607 189 192 207
0.140246 -0.387263 -0.606 179 185 199
0.154995 -0.386624 -0.605 168 177 208
0.156148 -0.386624 -0.605 134 143 174
0.1573 -0.386624 -0.605 103 120 164
0.183805 -0.386624 -0.605 220 221 241
0.384319 -0.386624 -0.605 144 166 207
0.435024 -0.386624 -0.605 178 174 188
0.478451 -0.387263 -0.606 172 170 191
0.483424 -0.386624 -0.605 82 114 171
0.447343 -0.325914 -0.51 176 125 106
0.467071 -0.321441 -0.503 178 126 105
0.47088 -0.32208 -0.504 171 114 95
0.477568 -0.323358 -0.506 164 115 98
0.483308 -0.325275 -0.509 153 108 89
0.502611 -0.333583 -0.522 148 111 93
1.04218 -0.372565 -0.583 204 207 190
-0.00890286 -0.315349 -0.492 200 160 135
0.00138571 -0.310862 -0.485 203 163 138
0.0115952 -0.312144 -0.487 200 163 136
0.0366667 -0.320476 -0.5 160 122 109
0.0453486 -0.328168 -0.512 145 111 109
0.0498267 -0.332013 -0.518 141 107 106
0.0522 -0.334577 -0.522 136 105 103
0.0593914 -0.341628 -0.533 132 104 103
0.0724143 -0.355729 -0.555 127 105 107
0.0826905 -0.368548 -0.575 125 105 106
0.099681 -0.387776 -0.605 63 77 124
0.10365 -0.389699 -0.608 72 84 132
0.128703 -0.388417 -0.606 172 175 192
0.354922 -0.387135 -0.604 117 131 176
0.381383 -0.387135 -0.604 73 99 156
0.417048 -0.387135 -0.604 93 120 165
0.437329 -0.387776 -0.605 188 186 200
0.449594 -0.388417 -0.606 78 102 150
0.459224 -0.387776 -0.605 31 66 130
0.478814 -0.387776 -0.605 156 169 203
0.486881 -0.387776 -0.605 55 87 144
0.483204 -0.366625 -0.572 147 114 107
0.46046 -0.345473 -0.539 154 116 107
0.450581 -0.324322 -0.506 178 122 107
0.499723 -0.332654 -0.519 146 109 90
-0.0109305 -0.320786 -0.499 198 161 135
-0.00414857 -0.311143 -0.484 203 163 137
0.00786857 -0.312429 -0.486 199 159 134
0.0200257 -0.314357 -0.489 191 150 130
0.0475762 -0.331071 -0.515 141 108 103
0.105791 -0.390214 -0.607 72 89 141
0.151288 -0.388286 -0.604 208 214 226
0.381383 -0.388286 -0.604 70 95 152
0.41406 -0.387643 -0.603 118 120 132
0.418654 -0.387643 -0.603 102 135 176
0.4719 -0.388929 -0.605 176 176 200
0.448786 -0.331071 -0.515 163 122 104
0.45749 -0.323357 -0.503 182 127 107
0.461362 -0.322714 -0.502 180 125 105
0.469011 -0.322714 -0.502 172 116 99
0.47282 -0.323357 -0.503 174 118 101
0.5046 -0.335571 -0.522 147 108 91
-0.0161295 -0.376541 -0.584 193 157 133
-0.00414857 -0.312065 -0.484 204 165 136
0.0218886 -0.315289 -0.489 191 150 128
0.0266543 -0.316578 -0.491 186 143 126
0.02952 -0.317223 -0.492 178 136 120
0.0521 -0.335921 -0.521 142 109 104
0.0709714 -0.355909 -0.552 129 104 108
0.0722838 -0.357198 -0.554 128 103 107
0.0810276 -0.368159 -0.571 125 106 112
0.13173 -0.389436 -0.604 158 165 193
0.138632 -0.389436 -0.604 150 149 155
0.148987 -0.389436 -0.604 208 218 230
0.458071 -0.390081 -0.605 25 65 126
0.464217 -0.389436 -0.604 132 154 201
0.462343 -0.348171 -0.54 153 115 102
0.450294 -0.334631 -0.519 158 121 103
0.450427 -0.327539 -0.508 172 125 107
0.450506 -0.326894 -0.507 171 125 109
0.458449 -0.324315 -0.503 183 131 110
0.47282 -0.324315 -0.503 175 119 102
0.478548 -0.325605 -0.505 164 115 98
-0.0107552 -0.317513 -0.491 201 159 134
0.00138286 -0.312987 -0.484 202 163 134
0.0106238 -0.313633 -0.485 197 157 131
0.017161 -0.314927 -0.487 198 158 132
0.0334714 -0.3201 -0.495 164 124 114
0.0355714 -0.32204 -0.498 161 123 114
0.0365933 -0.322687 -0.499 160 122 113
0.0630229 -0.347907 -0.538 134 106 105
0.0736038 -0.359547 -0.556 129 104 108
0.0840771 -0.373127 -0.577 125 102 108
0.085619 -0.375067 -0.58 118 106 118
0.103309 -0.39188 -0.606 42 62 115
0.105617 -0.39188 -0.606 43 63 114
0.130579 -0.390587 -0.604 179 182 201
0.144146 -0.38994 -0.603 207 209 222
0.152186 -0.38994 -0.603 170 176 200
0.154483 -0.38994 -0.603 151 161 186
0.351453 -0.389293 -0.602 152 158 184
0.403053 -0.389293 -0.602 185 188 203
0.405347 -0.389293 -0.602 191 189 200
0.453863 -0.390587 -0.604 21 61 133
0.456164 -0.390587 -0.604 20 59 126
0.465368 -0.390587 -0.604 138 156 192
0.480677 -0.38994 -0.603 61 87 136
0.487569 -0.38994 -0.603 28 69 135
0.450257 -0.3298 -0.51 173 126 106
0.450344 -0.329153 -0.509 173 126 108
0.45552 -0.32592 -0.504 175 124 105
0.484306 -0.32786 -0.507 150 111 94
0.496852 -0.333033 -0.515 149 112 93
-0.0116905 -0.318449 -0.491 199 162 135
0.0115476 -0.314557 -0.485 198 159 130
0.02952 -0.319097 -0.492 175 133 117
0.0344838 -0.321691 -0.496 161 121 111
0.0419257 -0.328177 -0.506 150 112 101
0.116967 -0.392386 -0.605 164 173 202
0.138403 -0.391089 -0.603 201 205 216
0.38356 -0.39044 -0.602 57 95 157
0.416121 -0.389791 -0.601 96 129 182
0.42484 -0.39044 -0.602 83 120 190
0.439747 -0.39044 -0.602 175 171 194
0.440893 -0.39044 -0.602 157 167 192
0.458854 -0.391089 -0.603 28 63 129
0.465746 -0.391089 -0.603 76 106 156
0.485271 -0.391089 -0.603 28 62 126
0.49364 -0.39044 -0.602 46 82 144
0.451471 -0.328826 -0.507 172 125 109
0.458449 -0.326231 -0.503 179 128 107
0.467123 -0.324934 -0.501 177 122 102
0.469986 -0.324934 -0.501 173 118 98
0.48335 -0.328177 -0.506 151 110 92
0.494923 -0.332717 -0.513 149 111 92
-0.0106238 -0.315481 -0.485 200 163 136
-0.0087581 -0.31483 -0.484 196 159 132
-0.00137429 -0.312879 -0.481 199 164 132
0.0087581 -0.31483 -0.484 196 159 130
0.0237514 -0.318083 -0.489 191 147 122
0.0256143 -0.318083 -0.489 187 142 119
0.0304571 -0.320034 -0.492 173 132 114
0.0419257 -0.329141 -0.506 149 112 104
0.0429743 -0.329791 -0.507 148 111 103
0.0521 -0.338898 -0.521 136 105 102
0.0531943 -0.339549 -0.522 135 106 102
0.0776095 -0.365568 -0.562 128 103 106
0.0806019 -0.36947 -0.568 126 101 104
0.0870229 -0.378577 -0.582 114 104 112
0.113322 -0.392888 -0.604 70 89 129
0.115623 -0.392888 -0.604 144 154 190
0.41841 -0.390936 -0.601 80 118 180
0.4207 -0.390936 -0.601 48 84 158
0.426424 -0.390936 -0.601 92 127 185
0.433292 -0.390936 -0.601 155 160 182
0.439016 -0.390936 -0.601 129 128 146
0.444333 -0.391587 -0.602 95 117 174
0.482173 -0.391587 -0.602 49 79 139
0.489866 -0.392237 -0.603 27 65 136
0.498544 -0.390936 -0.601 121 120 134
0.492171 -0.377276 -0.58 139 111 108
0.453022 -0.338898 -0.521 164 123 105
0.451545 -0.329141 -0.506 178 130 110
0.476652 -0.32719 -0.503 160 118 96
-0.00966 -0.3151 -0.483 198 161 132
-0.0087219 -0.314448 -0.482 196 159 130
0.0106019 -0.315752 -0.484 196 159 130
0.0171257 -0.317057 -0.486 197 157 131
0.021799 -0.31771 -0.487 190 150 125
0.0246324 -0.318362 -0.488 189 145 120
0.03652 -0.324886 -0.498 154 116 105
0.0556057 -0.343152 -0.526 133 104 100
0.0694133 -0.357505 -0.548 132 106 105
0.0806019 -0.370552 -0.568 122 102 104
0.0885857 -0.381643 -0.585 84 87 106
0.114283 -0.393386 -0.603 79 94 133
0.125769 -0.393386 -0.603 188 189 207
0.133587 -0.392733 -0.602 194 196 209
0.401239 -0.392081 -0.601 167 180 199
0.450067 -0.392733 -0.602 23 61 124
0.454653 -0.392733 -0.602 27 60 131
0.461533 -0.392733 -0.602 40 73 127
0.46956 -0.392733 -0.602 104 118 147
0.493965 -0.392081 -0.601 55 88 142
0.498857 -0.391429 -0.6 112 112 122
0.5 -0.391429 -0.6 116 117 122
0.457097 -0.344457 -0.528 156 119 103
0.46619 -0.32619 -0.5 177 125 104
0.476661 -0.327495 -0.502 160 119 99
0.500766 -0.336629 -0.516 149 108 90
0.578233 -0.379033 -0.581 201 192 187
-0.00778762 -0.314711 -0.481 198 161 132
0.00137714 -0.315366 -0.482 200 163 134
0.0152429 -0.317329 -0.485 198 158 132
0.0509114 -0.339574 -0.519 136 107 101
0.0654352 -0.353969 -0.541 132 106 105
0.0705857 -0.359203 -0.549 130 106 106
0.114283 -0.394534 -0.603 83 98 137
0.150536 -0.393226 -0.601 121 134 168
0.391429 -0.392571 -0.6 21 70 139
0.398286 -0.392571 -0.6 132 150 186
0.443595 -0.393226 -0.601 70 99 155
0.467267 -0.39388 -0.602 117 137 164
0.49511 -0.393226 -0.601 69 101 162
0.457537 -0.328451 -0.502 177 129 107
0.501749 -0.337611 -0.516 150 109 89
-0.00411429 -0.314971 -0.48 199 164 134
0.0170552 -0.317596 -0.484 199 159 133
0.0208286 -0.318909 -0.486 189 147 122
0.0217543 -0.318909 -0.486 190 148 123
0.0227267 -0.319565 -0.487 191 149 124
0.0334038 -0.324158 -0.494 160 122 109
0.0386486 -0.328751 -0.501 151 113 102
0.0463238 -0.33597 -0.512 140 107 100
0.0485571 -0.337938 -0.515 138 107 102
0.0497305 -0.33925 -0.517 137 106 101
0.0556057 -0.345156 -0.526 132 104 100
0.0568229 -0.346469 -0.528 132 104 100
0.0653143 -0.354343 -0.54 132 106 105
0.0774714 -0.368123 -0.561 129 104 107
0.08364 -0.376653 -0.574 122 107 104
0.100333 -0.395027 -0.602 72 94 143
0.109507 -0.395027 -0.602 144 159 198
0.144812 -0.39437 -0.601 190 199 216
0.418159 -0.393058 -0.599 35 74 143
0.428428 -0.393058 -0.599 65 106 160
0.445885 -0.39437 -0.601 111 131 166
0.448174 -0.39437 -0.601 54 83 141
0.451609 -0.39437 -0.601 22 56 128
0.46649 -0.39437 -0.601 123 125 138
0.46878 -0.39437 -0.601 174 178 205
0.47107 -0.39437 -0.601 168 177 192
0.479083 -0.39437 -0.601 78 95 125
0.494286 -0.393714 -0.6 60 92 151
0.483108 -0.369435 -0.563 148 118 108
0.481443 -0.330064 -0.503 160 115 94
0.493 -0.334657 -0.51 150 107 88
-0.00775524 -0.315228 -0.479 198 163 131
0.00229048 -0.316544 -0.481 198 161 132
0.0245819 -0.320492 -0.487 184 142 118
0.0334038 -0.325099 -0.494 159 121 108
0.0344143 -0.325757 -0.495 155 117 104
0.0375438 -0.32839 -0.499 153 115 106
0.0385714 -0.329048 -0.5 151 113 104
0.0556057 -0.346158 -0.526 132 104 101
0.116387 -0.396173 -0.602 76 95 137
0.12212 -0.396173 -0.602 186 185 199
0.128786 -0.395515 -0.601 192 194 209
0.38279 -0.394199 -0.599 36 74 139
0.38393 -0.394199 -0.599 34 71 151
0.455429 -0.394857 -0.6 24 63 130
0.493143 -0.394857 -0.6 65 100 154
0.455007 -0.342868 -0.521 161 123 104
0.459489 -0.329706 -0.501 176 128 106
0.483359 -0.331022 -0.503 162 115 95
-0.00773905 -0.31548 -0.478 199 163 131
0.027421 -0.32208 -0.488 175 134 114
0.0284086 -0.32274 -0.489 172 131 111
0.0396819 -0.33132 -0.502 147 113 104
0.0509114 -0.34254 -0.519 134 105 101
0.0773333 -0.3696 -0.56 129 105 105
0.112759 -0.39666 -0.601 159 172 191
0.142286 -0.396 -0.6 202 207 226
0.42999 -0.39468 -0.598 169 175 197
0.445542 -0.39534 -0.599 114 140 191
0.474504 -0.39666 -0.601 168 175 191
0.479429 -0.396 -0.6 63 96 147
0.488898 -0.39534 -0.599 57 93 141
0.452283 -0.33594 -0.509 176 129 109
0.4536 -0.33264 -0.504 177 129 109
0.458534 -0.33066 -0.501 179 128 107
0.460476 -0.33 -0.5 180 129 108
0.47381 -0.33 -0.5 163 116 96
0.580552 -0.3828 -0.58 194 184 182
-0.0213943 -0.381257 -0.576 198 163 133
0.00502857 -0.317714 -0.48 201 162 131
0.0114762 -0.319038 -0.482 195 159 127
0.0123943 -0.319038 -0.482 195 159 127
0.02934 -0.323671 -0.489 167 129 110
0.0440267 -0.336248 -0.508 141 108 101
0.052 -0.34419 -0.52 132 103 99
0.0615371 -0.353457 -0.534 132 104 100
0.0627886 -0.354781 -0.536 132 104 100
0.0640476 -0.356105 -0.538 132 104 100
0.0677457 -0.359414 -0.543 131 106 102
0.114857 -0.397143 -0.6 138 154 180
0.14433 -0.396481 -0.599 145 152 178
0.399236 -0.395819 -0.598 149 163 189
0.460374 -0.396481 -0.599 80 110 160
0.49118 -0.396481 -0.599 68 101 146
0.459489 -0.331614 -0.501 176 125 106
0.48624 -0.3336 -0.504 161 116 97
-0.0224133 -0.381027 -0.574 198 163 135
-0.0162 -0.322611 -0.486 193 158 130
-0.00408857 -0.316637 -0.477 194 159 129
0.0050181 -0.317965 -0.479 200 161 132
0.00868571 -0.318629 -0.48 197 161 129
0.0161 -0.32062 -0.483 194 155 126
0.02934 -0.324603 -0.489 165 127 108
0.0463238 -0.33987 -0.512 135 105 97
0.0717619 -0.365095 -0.55 129 103 102
0.0758581 -0.369742 -0.557 130 106 106
0.114857 -0.398286 -0.6 155 165 190
0.129498 -0.397622 -0.599 181 184 203
0.138626 -0.397622 -0.599 174 176 199
0.444798 -0.396958 -0.598 102 128 179
0.458467 -0.396958 -0.598 44 70 119
0.463797 -0.397622 -0.599 120 128 147
0.464938 -0.397622 -0.599 166 174 193
0.473714 -0.398286 -0.6 173 172 188
0.47025 -0.359785 -0.542 155 119 107
0.465195 -0.355138 -0.535 157 119 106
0.453789 -0.341198 -0.514 171 125 109
0.452998 -0.33987 -0.512 172 125 107
0.454436 -0.335888 -0.506 179 131 111
0.45456 -0.33456 -0.504 175 127 107
-0.0171257 -0.323537 -0.486 196 161 131
-0.00318 -0.317546 -0.477 195 158 129
0.00228095 -0.318877 -0.479 197 161 129
0.0353571 -0.329529 -0.495 149 115 105
0.0567152 -0.350831 -0.527 132 103 99
0.0743943 -0.368806 -0.554 130 106 106
0.118089 -0.398763 -0.599 122 131 160
0.130639 -0.398763 -0.599 126 134 157
0.436094 -0.397431 -0.597 181 184 199
0.439506 -0.397431 -0.597 163 161 174
0.442917 -0.397431 -0.597 109 116 135
0.453151 -0.397431 -0.597 65 104 161
0.472925 -0.398763 -0.599 173 172 188
0.483526 -0.398097 -0.598 120 141 186
0.491814 -0.397431 -0.597 92 121 163
0.460247 -0.350831 -0.527 159 121 108
0.453252 -0.338849 -0.509 172 127 108
0.48816 -0.33552 -0.504 162 117 98
0.501763 -0.341511 -0.513 155 114 96
0.00136571 -0.319122 -0.478 199 160 129
0.0353571 -0.330471 -0.495 149 115 103
0.0428895 -0.337815 -0.506 142 109 100
0.0729419 -0.367858 -0.551 130 106 106
0.13156 -0.399236 -0.598 129 136 165
0.434229 -0.397901 -0.596 186 190 199
0.436499 -0.397901 -0.596 186 186 198
0.437634 -0.397901 -0.596 187 187 199
0.447466 -0.398569 -0.597 54 81 134
0.489855 -0.397901 -0.596 75 104 146
0.453252 -0.339818 -0.509 167 121 105
0.45333 -0.33915 -0.508 173 124 107
0.459524 -0.33381 -0.5 175 124 105
0.0123429 -0.321371 -0.48 194 158 126
0.0342752 -0.330075 -0.493 150 114 102
0.0567152 -0.352839 -0.527 133 104 100
0.0771952 -0.374264 -0.559 131 107 107
0.07868 -0.376272 -0.562 131 105 104
0.0847333 -0.384307 -0.574 127 121 133
0.141574 -0.399706 -0.597 122 134 172
0.394495 -0.399036 -0.596 99 134 190
0.444446 -0.399036 -0.596 68 85 128
0.446716 -0.399036 -0.596 85 107 154
0.475552 -0.400375 -0.598 167 170 187
0.483526 -0.400375 -0.598 118 139 182
0.456333 -0.346813 -0.518 160 122 101
0.455554 -0.345474 -0.516 161 123 102
0.453472 -0.338779 -0.506 175 128 112
0.4545 -0.33811 -0.505 177 130 114
0.462407 -0.334092 -0.499 170 122 102
0.470017 -0.333423 -0.498 162 114 94
0.470966 -0.333423 -0.498 160 112 92
0.489108 -0.33677 -0.503 158 113 94
0.5106 -0.346813 -0.518 153 115 96
-0.0270667 -0.389429 -0.58 192 159 126
0.00958 -0.321614 -0.479 193 156 129
0.0169848 -0.323629 -0.482 191 150 122
0.0590571 -0.355857 -0.53 130 102 98
0.0770571 -0.374657 -0.558 131 107 107
0.115613 -0.401514 -0.598 175 180 199
0.119969 -0.400843 -0.597 134 140 162
0.415367 -0.3995 -0.595 81 122 174
0.4437 -0.3995 -0.595 78 92 127
0.470209 -0.400843 -0.597 178 176 190
0.471346 -0.400843 -0.597 174 176 189
0.498418 -0.387414 -0.577 143 114 110
0.461377 -0.353171 -0.526 157 119 108
0.455652 -0.345786 -0.515 166 124 102
0.4545 -0.339071 -0.505 175 128 112
0.456626 -0.336386 -0.501 169 120 105
0.503711 -0.343771 -0.512 153 110 91
0.963262 -0.386071 -0.575 205 207 194
-0.0177914 -0.322527 -0.479 195 160 130
-0.0158667 -0.320507 -0.476 199 164 134
0.00773905 -0.321853 -0.478 190 154 122
0.0450829 -0.342727 -0.509 135 102 95
0.047299 -0.344747 -0.512 132 101 96
0.0555 -0.3535 -0.525 131 103 99
0.0638095 -0.360907 -0.536 130 105 101
0.0650724 -0.362253 -0.538 131 106 102
0.101774 -0.40198 -0.597 124 135 167
0.116557 -0.40198 -0.597 168 175 193
0.122243 -0.40198 -0.597 64 90 139
0.1393 -0.40198 -0.597 88 111 163
0.141337 -0.401307 -0.596 133 148 179
0.142472 -0.401307 -0.596 172 187 218
0.390433 -0.400633 -0.595 56 93 161
0.4403 -0.400633 -0.595 118 129 157
0.444833 -0.400633 -0.595 107 120 152
0.477368 -0.401307 -0.596 142 147 169
0.482717 -0.40198 -0.597 99 122 163
0.490167 -0.400633 -0.595 86 108 157
0.456537 -0.34744 -0.516 167 122 103
0.4554 -0.340707 -0.506 173 126 110
0.466223 -0.33532 -0.498 170 122 102
0.46812 -0.33532 -0.498 168 120 100
0.472863 -0.33532 -0.498 165 118 98
0.503711 -0.344747 -0.512 153 110 91
-0.0148971 -0.320063 -0.474 198 162 130
0.0123171 -0.323439 -0.479 192 153 122
0.0206571 -0.325465 -0.482 167 125 103
0.033201 -0.331542 -0.491 154 116 107
0.0450829 -0.343696 -0.509 136 103 96
0.0484629 -0.347072 -0.514 129 100 96
0.0542924 -0.35315 -0.523 131 103 99
0.0713705 -0.369355 -0.547 127 103 103
0.0830571 -0.384886 -0.57 117 106 110
0.117497 -0.402442 -0.596 173 180 196
0.439167 -0.401767 -0.595 154 161 180
0.479638 -0.402442 -0.596 87 101 138
0.455033 -0.345047 -0.511 169 121 107
0.454436 -0.34167 -0.506 172 125 109
0.455574 -0.339645 -0.503 173 126 110
0.483317 -0.336944 -0.499 158 113 92
1.03265 -0.387587 -0.574 203 206 189
-0.01978 -0.32706 -0.483 195 158 129
-0.0112381 -0.319611 -0.472 197 161 127
0.00408 -0.32232 -0.476 197 158 127
0.00589333 -0.32232 -0.476 197 156 126
0.00863143 -0.322997 -0.477 190 151 122
0.0178657 -0.325706 -0.481 185 143 119
0.0253 -0.32706 -0.483 172 129 113
0.0272524 -0.328414 -0.485 171 127 114
0.0428048 -0.341957 -0.505 139 106 97
0.0507152 -0.350083 -0.517 131 102 98
0.0519 -0.351437 -0.519 132 103 99
0.0614219 -0.360917 -0.533 133 105 102
0.0739914 -0.373106 -0.551 127 103 103
0.120903 -0.403577 -0.596 95 114 156
0.122038 -0.403577 -0.596 91 110 152
0.462967 -0.4029 -0.595 113 126 160
0.465233 -0.4029 -0.595 81 91 126
0.472033 -0.4029 -0.595 169 174 193
0.458307 -0.35076 -0.518 165 122 106
0.455265 -0.343989 -0.508 170 125 106
0.462407 -0.337894 -0.499 177 128 111
0.476647 -0.33654 -0.497 158 113 90
0.4814 -0.337217 -0.498 156 114 92
0.487143 -0.338571 -0.5 158 115 96
0.491004 -0.339926 -0.502 157 116 96
0.499775 -0.343989 -0.508 150 109 89
-0.0139352 -0.32051 -0.472 199 163 129
0.0178286 -0.325943 -0.48 182 140 116
0.0438533 -0.343598 -0.506 138 105 98
0.0449943 -0.344956 -0.508 136 103 96
0.0686533 -0.368044 -0.542 128 102 101
0.0809648 -0.382304 -0.563 123 103 102
0.104833 -0.404033 -0.595 79 91 129
0.135433 -0.404033 -0.595 69 94 148
0.456581 -0.340882 -0.502 165 120 101
0.456626 -0.340203 -0.501 167 120 102
0.462407 -0.338845 -0.499 177 129 109
0.462429 -0.338166 -0.498 166 118 98
0.466223 -0.338166 -0.498 171 124 104
0.962094 -0.389094 -0.573 206 208 194
1.01667 -0.389094 -0.573 203 205 191
1.04068 -0.389094 -0.573 203 206 189
1.04395 -0.389094 -0.573 203 206 189
-0.0157667 -0.32209 -0.473 195 160 128
0.0132019 -0.325495 -0.478 191 149 124
0.0178286 -0.326857 -0.48 185 140 119
0.031139 -0.332305 -0.488 156 117 110
0.0685267 -0.368395 -0.541 129 103 102
0.112767 -0.405167 -0.595 174 180 196
0.481423 -0.404486 -0.594 85 110 164
0.484817 -0.404486 -0.594 97 124 169
0.489649 -0.403805 -0.593 130 146 169
0.4941 -0.3861 -0.567 142 115 98
0.462617 -0.356819 -0.524 147 117 106
0.465274 -0.339114 -0.498 168 121 103
0.945723 -0.390186 -0.573 205 208 191
0.956637 -0.390186 -0.573 206 208 194
-0.0102952 -0.320943 -0.47 197 161 129
-0.0094 -0.320943 -0.47 197 161 129
-0.00314667 -0.322309 -0.472 196 160 128
-0.00135143 -0.322991 -0.473 196 160 128
0.00678571 -0.324357 -0.475 197 156 128
0.102394 -0.405617 -0.594 81 104 148
0.108051 -0.405617 -0.594 153 164 192
0.443718 -0.404251 -0.592 173 180 196
0.450484 -0.404251 -0.592 163 166 181
0.45725 -0.404251 -0.592 174 182 193
0.459505 -0.404251 -0.592 176 179 194
0.465929 -0.404934 -0.593 69 85 118
0.474965 -0.404934 -0.593 155 164 181
0.48626 -0.404934 -0.593 69 99 149
0.456532 -0.343477 -0.503 174 127 109
0.45758 -0.342111 -0.501 173 126 108
0.477577 -0.338697 -0.496 164 116 96
1.01271 -0.390594 -0.572 204 206 192
-0.0215752 -0.330055 -0.482 194 155 122
-0.00850476 -0.321838 -0.47 199 160 129
-0.00134857 -0.323208 -0.472 196 160 126
0.000450476 -0.323892 -0.473 197 158 127
0.00135143 -0.323892 -0.473 198 159 128
0.0205286 -0.328001 -0.479 177 134 115
0.0449057 -0.347174 -0.507 138 105 98
0.0460524 -0.348544 -0.509 135 104 99
0.0483686 -0.351283 -0.513 134 103 98
0.0672467 -0.369087 -0.539 129 103 102
0.0837 -0.38826 -0.567 125 108 116
0.464326 -0.341011 -0.498 178 130 110
0.47286 -0.340327 -0.497 169 121 101
0.479467 -0.339642 -0.496 166 118 96
0.495814 -0.344435 -0.503 152 111 91
0.58548 -0.393053 -0.574 191 187 184
0.960415 -0.391684 -0.572 206 209 192
1.04248 -0.390999 -0.571 202 205 188
-0.0102733 -0.322047 -0.469 198 159 126
-0.00403714 -0.32342 -0.471 195 159 125
-0.000449524 -0.324107 -0.472 197 158 127
0.0393657 -0.34196 -0.498 140 107 98
0.0403952 -0.342647 -0.499 140 107 98
0.0708486 -0.37286 -0.543 129 105 103
0.4531 -0.40582 -0.591 171 179 190
0.457603 -0.40582 -0.591 172 176 187
0.466609 -0.40582 -0.591 103 120 146
0.474164 -0.406507 -0.592 167 173 195
0.479802 -0.406507 -0.592 55 87 146
0.48544 -0.406507 -0.592 48 74 131
0.460506 -0.342647 -0.499 177 129 109
0.461456 -0.342647 -0.499 175 127 107
0.47002 -0.341273 -0.497 171 122 105
0.981576 -0.392087 -0.571 206 209 190
-0.0183524 -0.323629 -0.47 193 157 123
0.000449524 -0.325006 -0.472 197 158 125
0.0131467 -0.32776 -0.476 188 147 117
0.0372429 -0.340843 -0.495 142 109 102
0.0694286 -0.371829 -0.54 129 105 103
0.461267 -0.35668 -0.518 154 117 108
0.460469 -0.355303 -0.516 154 116 105
0.4581 -0.350483 -0.509 170 124 108
0.45744 -0.34704 -0.504 176 128 108
0.458534 -0.344974 -0.501 174 125 108
0.460506 -0.343597 -0.499 174 127 107
0.465274 -0.342909 -0.498 176 129 109
0.466223 -0.342909 -0.498 176 129 109
0.46718 -0.34222 -0.497 173 126 106
0.489937 -0.342909 -0.498 158 113 94
0.927195 -0.393174 -0.571 206 209 192
0.938071 -0.393174 -0.571 206 209 190
0.946772 -0.393174 -0.571 206 209 190
0.957649 -0.393174 -0.571 205 208 189
0.02904 -0.33419 -0.484 160 123 105
0.0415114 -0.345929 -0.501 137 107 99
0.0620857 -0.365952 -0.53 130 105 101
0.0746324 -0.378381 -0.548 127 103 103
0.131368 -0.408762 -0.592 55 85 149
0.452333 -0.407381 -0.59 125 125 133
0.462448 -0.407381 -0.59 171 173 186
0.474729 -0.341786 -0.495 170 122 100
0.477557 -0.341786 -0.495 169 122 102
0.480386 -0.341786 -0.495 170 123 103
0.952714 -0.393571 -0.57 206 209 190
0.958143 -0.393571 -0.57 205 208 191
0.960314 -0.393571 -0.57 204 207 190
1.02111 -0.393571 -0.57 204 206 192
1.02763 -0.393571 -0.57 203 205 191
1.04174 -0.393571 -0.57 203 205 191
-0.0333467 -0.397427 -0.574 187 151 115
-0.0147086 -0.324034 -0.468 198 162 128
0.00948 -0.328189 -0.474 189 150 119
0.0113095 -0.328881 -0.475 188 147 115
0.01496 -0.329573 -0.476 185 144 116
0.0242286 -0.332343 -0.48 172 130 106
0.0350714 -0.339959 -0.491 141 111 101
0.0746324 -0.379425 -0.548 124 102 104
0.120091 -0.40989 -0.592 92 114 171
0.122347 -0.40989 -0.592 66 92 153
0.472562 -0.408505 -0.59 58 72 119
0.478181 -0.408505 -0.59 16 55 112
0.458534 -0.346883 -0.501 173 126 106
0.461456 -0.345498 -0.499 175 129 106
0.482238 -0.342036 -0.494 166 121 100
0.582548 -0.393965 -0.569 195 188 182
0.924486 -0.394657 -0.57 208 211 194
0.9386 -0.394657 -0.57 206 209 192
0.966829 -0.394657 -0.57 205 208 191
0.971171 -0.394657 -0.57 204 207 190
0.979857 -0.394657 -0.57 206 209 192
-0.0164562 -0.324231 -0.467 196 160 126
-0.0146771 -0.324231 -0.467 197 161 127
-0.00490286 -0.324926 -0.468 195 159 125
0.0076419 -0.327703 -0.472 192 151 121
0.00855905 -0.328397 -0.473 190 151 120
0.0251952 -0.333951 -0.481 167 127 102
0.0731857 -0.378386 -0.545 125 103 105
0.100751 -0.410323 -0.591 35 70 124
0.124391 -0.410323 -0.591 55 84 150
0.438104 -0.408934 -0.589 173 178 182
0.461664 -0.408934 -0.589 176 178 191
0.474005 -0.408934 -0.589 38 63 119
0.48859 -0.408934 -0.589 38 72 135
0.491955 -0.408934 -0.589 53 84 141
0.45907 -0.353391 -0.509 164 121 102
0.459524 -0.347143 -0.5 174 129 108
0.949959 -0.395049 -0.569 205 208 189
0.951043 -0.395049 -0.569 205 208 189
1.01824 -0.395049 -0.569 203 206 189
1.01932 -0.395049 -0.569 203 206 189
-0.03438 -0.398917 -0.573 191 154 125
-0.0102076 -0.324425 -0.466 193 157 123
0.0130914 -0.329994 -0.474 186 145 115
0.0223067 -0.332779 -0.478 170 130 105
0.0232657 -0.333475 -0.479 168 127 107
0.0300238 -0.337652 -0.485 154 118 102
0.0339971 -0.340437 -0.489 143 111 100
0.045781 -0.352272 -0.506 132 105 98
0.0550771 -0.362715 -0.521 133 105 101
0.0834048 -0.393348 -0.565 113 101 113
0.47737 -0.410056 -0.589 31 67 125
0.48298 -0.410056 -0.589 27 60 114
0.487468 -0.410056 -0.589 45 80 138
0.462407 -0.347399 -0.499 175 129 106
0.480323 -0.343222 -0.493 168 122 99
0.499609 -0.349488 -0.502 146 114 91
0.943456 -0.396132 -0.569 205 208 191
0.955378 -0.396132 -0.569 206 209 192
0.956462 -0.396132 -0.569 206 209 192
0.982473 -0.396132 -0.569 205 208 191
0.994395 -0.396132 -0.569 205 208 191
0.995479 -0.396132 -0.569 206 209 192
0.99873 -0.396132 -0.569 204 206 192
1.01645 -0.395436 -0.568 204 207 190
-0.0137581 -0.325312 -0.466 196 160 126
-0.00222857 -0.326709 -0.468 197 158 127
0.0158 -0.330897 -0.474 183 144 113
0.0401524 -0.346255 -0.496 137 108 102
0.0561771 -0.364406 -0.522 133 104 98
0.117438 -0.411876 -0.59 171 178 204
0.44744 -0.41048 -0.588 120 128 151
0.48776 -0.41048 -0.588 41 72 126
0.462407 -0.34835 -0.499 176 130 107
0.47471 -0.344859 -0.494 174 128 105
0.50352 -0.35184 -0.504 143 111 88
0.508449 -0.353934 -0.507 147 115 92
0.512429 -0.356029 -0.51 143 111 90
0.956945 -0.396518 -0.568 206 209 192
0.962354 -0.396518 -0.568 205 208 191
1.0251 -0.396518 -0.568 203 206 189
-0.0181571 -0.3255 -0.465 192 156 122
0.0112381 -0.3304 -0.472 187 148 115
0.02226 -0.3339 -0.477 173 133 107
0.0269714 -0.336 -0.48 165 124 106
0.02892 -0.3374 -0.482 161 122 105
0.0370171 -0.3444 -0.492 140 110 102
0.0492495 -0.3584 -0.512 133 104 98
0.0691714 -0.3766 -0.538 129 104 107
0.460943 -0.357 -0.51 161 122 105
0.462381 -0.35 -0.5 174 128 105
0.464326 -0.3486 -0.498 177 131 108
0.466233 -0.3479 -0.497 181 133 111
0.469074 -0.3472 -0.496 171 123 101
0.469071 -0.3465 -0.495 172 124 102
0.923406 -0.3976 -0.568 206 208 194
0.962354 -0.3976 -0.568 205 208 191
0.992648 -0.3976 -0.568 203 205 191
-0.0365629 -0.402191 -0.573 182 149 118
-0.0353476 -0.400788 -0.571 184 151 120
-0.0093 -0.326386 -0.465 199 160 127
-0.00841429 -0.326386 -0.465 197 158 127
0.0148657 -0.332001 -0.473 183 142 112
0.02226 -0.334809 -0.477 171 130 102
0.0232171 -0.33551 -0.478 168 127 99
0.0299 -0.33902 -0.483 156 120 106
0.0318714 -0.340424 -0.485 148 114 104
0.0380314 -0.346039 -0.493 137 108 102
0.0758143 -0.385346 -0.549 123 103 105
0.101532 -0.413422 -0.589 55 85 145
0.121727 -0.413422 -0.589 63 93 147
0.12397 -0.413422 -0.589 56 85 145
0.12958 -0.413422 -0.589 68 95 148
0.492521 -0.412018 -0.587 46 63 89
0.461397 -0.351654 -0.501 175 129 106
0.462381 -0.350952 -0.5 172 125 105
0.480286 -0.345337 -0.492 168 121 101
0.485957 -0.346039 -0.493 168 121 101
0.922324 -0.398682 -0.568 206 209 192
0.923406 -0.398682 -0.568 206 209 192
0.9261 -0.39798 -0.567 207 210 193
0.95418 -0.39798 -0.567 205 208 191
0.97686 -0.39798 -0.567 204 207 190
0.97794 -0.39798 -0.567 204 207 190
1.0017 -0.39798 -0.567 204 207 188
1.01034 -0.39798 -0.567 203 206 187
